-0.200363,0.369265,0.671766,0.832917,0.536846,0.134332
-0.167870,-0.477221,-0.376866,0.787249,0.220401,-0.575902
-0.216900,-0.151227,0.393053,0.835225,-0.323760,-0.444498
0.152514,0.386884,0.575817,-0.459262,0.856899,-0.234098
-0.272247,0.220490,0.247394,-0.117716,0.868171,0.482101
0.131517,0.015452,0.694894,0.330996,-0.878204,-0.345253
0.763003,0.506465,0.766083,-0.738822,-0.121568,-0.662845
0.311470,0.670259,0.759775,0.729149,0.683631,-0.031475
-0.185601,0.097927,0.669461,0.927644,-0.370761,-0.044858
0.297438,-0.289067,-0.705571,0.911054,0.412286,0.000513
0.564380,-0.158194,-0.963908,-0.050636,0.432171,0.900369
-0.474201,0.097691,0.555883,-0.696038,-0.138628,-0.704496
0.076181,0.312273,0.817722,-0.157459,0.950234,-0.268815
0.509465,-0.218293,-0.949414,-0.599195,0.178312,0.780494
-0.743169,0.493953,0.734106,0.340995,0.940005,-0.010634
0.013087,0.049711,0.197760,0.785125,0.537320,0.308003
0.323149,-0.049519,0.674176,-0.296863,-0.813699,0.499766
0.393545,-0.746725,-0.936753,0.063117,0.316579,0.946464
-0.298328,0.575812,0.736490,0.174801,-0.661689,0.729117
-0.033082,0.333520,0.429598,0.446259,-0.779632,-0.439349
0.012735,-0.210858,-0.964946,-0.522178,-0.640182,0.563469
0.094761,0.378158,0.424296,0.766561,0.591821,-0.249261
0.004165,0.290262,0.211147,-0.148514,0.862732,-0.483360
0.435789,-0.296734,-0.949092,-0.081013,-0.068357,0.994366
0.139588,0.304839,0.517046,0.989968,0.140121,-0.018148
0.055303,-0.225471,-0.960552,-0.195614,-0.054291,0.979177
0.531902,0.138624,-0.968412,0.361620,0.526642,0.769337
-0.035954,-0.396065,-0.975111,0.042390,0.225925,0.973222
-0.106106,0.125861,-0.006405,0.901476,-0.420142,-0.104027
-0.059602,0.178188,0.841873,0.154950,-0.011675,0.987853
0.621549,-0.120743,-0.947197,-0.293349,-0.083390,0.952361
-0.063864,0.213881,0.205615,0.401797,-0.915605,-0.015062
0.132186,0.741772,0.748789,0.900166,-0.017372,0.435201
-0.033546,0.047067,0.339586,0.508834,-0.387933,0.768503
-0.116905,-0.310034,-0.039420,0.682558,0.624115,-0.380257
0.186408,-0.001722,-0.363790,0.697237,0.368017,0.615162
0.319054,-0.580109,-0.933585,0.047278,-0.642374,0.764932
-0.119601,0.190846,0.346603,0.981028,0.179082,-0.074256
0.140342,0.076993,0.665441,0.892269,-0.449743,0.039856
0.559073,0.053015,-0.972986,0.626772,-0.469877,0.621588
-0.137418,0.106919,0.231791,-0.413910,-0.745490,-0.522421
0.012820,0.193061,0.792355,0.379098,0.570848,-0.728297
0.487781,0.190203,-0.979480,0.231056,0.623349,0.747027
0.020062,0.395155,0.779847,-0.400931,-0.000496,-0.916108
-0.107314,0.373144,0.853432,0.236536,-0.623012,0.745592
-0.076332,0.409623,0.758738,0.931055,0.323431,-0.168907
-0.445293,-0.269982,0.039171,0.438331,-0.240829,-0.865949
0.210942,-0.093002,-0.453809,0.426242,-0.902263,0.065111
0.607540,-0.518150,-0.953288,0.204235,-0.944812,0.256160
-0.331171,-0.038975,0.002639,-0.497570,0.470889,0.728483
0.262087,0.644012,0.753391,0.375961,-0.237774,0.895610
-0.521238,-0.189187,0.031347,-0.671010,0.240056,0.701512
-0.688771,0.419731,0.775043,0.923000,0.211094,0.321730
-0.134602,-0.036620,-0.048910,0.725076,0.686154,0.058801
0.163771,0.431866,0.843430,0.068983,0.989482,-0.127145
-0.355557,-0.021927,0.302976,0.239418,0.502925,0.830509
0.049570,-0.009912,-0.295939,-0.262243,0.897490,-0.354599
0.052896,-0.368231,-0.088318,-0.123379,0.991540,0.040317
0.169148,-0.473232,-0.967715,-0.092350,-0.744677,0.661005
0.030022,0.181269,0.141537,-0.651828,-0.177527,-0.737295
0.734757,-0.241311,-0.931577,0.399848,-0.523634,-0.752283
0.791650,-0.189541,-0.935367,-0.454231,0.442732,0.773086
-0.064756,-0.012566,0.388745,0.116141,-0.254521,0.960068
0.586407,-0.179281,-0.944337,-0.596687,0.299562,0.744464
-0.794680,0.631682,0.718316,-0.665440,0.403045,0.628287
0.030556,0.085065,-0.249803,0.899074,-0.122637,0.420268
-0.093881,0.561283,0.757264,-0.793289,-0.437772,-0.423141
-0.068926,-0.041924,0.310724,0.672657,0.722864,0.158115
0.634193,-0.043683,-0.965408,0.481055,-0.038121,-0.875861
-0.016767,-0.014915,-0.138863,-0.211819,0.953101,-0.216172
-0.115075,-0.057343,-0.095971,-0.781843,0.537627,-0.315719
0.863910,-0.134128,-0.932495,0.517957,0.404957,0.753479
-0.440548,-0.081963,0.032445,0.135735,-0.596499,-0.791053
0.491310,-0.206857,-0.952543,-0.660733,0.041734,0.749460
0.052277,-0.303684,-0.982183,-0.213792,0.120466,0.969423
0.431417,-0.748205,-0.934760,-0.333709,-0.835156,-0.437209
-0.037153,-0.137196,0.390333,-0.754918,0.650449,0.083754
-0.303742,0.254399,0.226980,0.822354,0.487022,0.294184
0.347228,-0.864884,-0.929262,0.325444,0.350316,0.878274
-0.097137,0.106447,-0.021846,0.823451,-0.553190,0.126135
-0.080092,-0.067503,0.787690,-0.683046,0.242285,-0.689019
-0.020774,-0.341336,-0.064981,0.586139,-0.096075,0.804494
-0.149083,-0.168274,-0.160439,0.965101,0.236217,0.113055
-0.147832,0.445693,0.862698,-0.140335,0.777746,0.612712
-0.185229,-0.470773,-0.366541,0.091577,0.042372,0.994896
-0.080189,0.198095,0.543001,0.294070,0.955462,0.024788
-0.048976,-0.148258,0.355504,-0.583861,-0.761509,0.281443
0.081195,0.159009,0.011779,-0.455429,-0.854491,0.249859
0.296160,-0.253313,-0.971080,0.044067,-0.584512,0.810187
-0.164655,-0.381285,-0.243300,0.307664,-0.897044,0.317261
0.531158,0.596660,0.758871,0.909206,-0.342342,0.236951
-0.061637,-0.073345,-0.278680,-0.781618,0.449802,-0.432148
0.095522,0.565224,0.708904,-0.339724,-0.721200,0.603704
-0.783436,0.585477,0.748583,0.294957,-0.857740,-0.421050
0.290070,-0.210305,-0.970127,0.345398,-0.258813,0.902062
-0.404926,0.152657,0.269677,-0.459579,0.887789,0.024843
0.318330,0.135615,-0.988703,-0.394170,0.606231,-0.690734
0.153258,0.384451,0.494442,-0.529068,-0.805193,0.267863
-0.119983,-0.073264,0.404640,-0.284087,-0.445675,0.848922
-0.029210,-0.162619,-0.071187,0.446987,0.218853,0.867356
0.475312,-0.815962,-0.950128,0.667963,-0.182072,-0.721578
0.212356,0.258673,0.488638,-0.123305,-0.504998,0.854267
-0.024962,0.005709,0.231307,-0.485183,0.850350,-0.203720
-0.128180,0.442726,0.861732,0.136294,0.529839,0.837075
-0.207778,-0.302376,0.015716,-0.591586,0.770026,-0.238926
-0.067570,0.391460,0.914826,0.910278,-0.270890,-0.313070
-0.311831,0.112151,0.005959,-0.289945,0.941418,-0.172233
0.737132,-0.366081,-0.934513,0.482878,0.398843,-0.779585
-0.283939,0.258430,0.959302,0.801946,-0.587443,-0.108595
-0.461594,-0.091384,-0.030338,-0.790980,0.036774,-0.610735
-0.059591,0.411747,0.750089,0.957457,0.263860,-0.116854
0.094597,-0.001991,0.643782,0.551671,-0.301007,-0.777852
-0.056326,0.307021,0.727756,0.791336,-0.273409,0.546841
-0.684705,0.694938,0.730833,0.920294,-0.080098,-0.382940
0.363108,-0.449938,-0.933855,-0.147577,-0.936134,-0.319178
-0.029264,0.053653,0.444945,0.730483,-0.279276,-0.623217
-0.121133,0.008208,-0.063027,0.185438,-0.884351,0.428411
-0.220304,-0.093605,0.378828,-0.766213,0.002074,0.642583
-0.207025,-0.479790,-0.235122,0.881849,-0.466263,0.070299
-0.177473,0.234980,0.460629,0.093158,-0.901334,0.422988
0.691210,-0.325928,-0.954410,-0.443892,0.554077,-0.704243
-0.376764,0.013765,0.276765,0.522353,-0.116909,0.844677
0.212418,-0.083814,-0.357247,0.749599,-0.295216,0.592409
-0.215803,0.479126,0.820096,-0.371172,-0.223916,-0.901162
0.259915,0.568862,0.702953,0.180446,0.948442,-0.260570
0.140255,-0.021905,0.556139,-0.159312,-0.906977,0.389887
0.718384,-0.003811,-0.945181,0.701054,0.618402,0.355110
0.073193,-0.109146,-0.091054,0.479920,0.863353,0.155879
0.200918,-0.340651,-0.958248,-0.254047,-0.429753,-0.866471
0.254773,-0.520533,-0.940457,0.939280,0.334511,-0.076516
-0.354359,0.189736,0.247420,0.903987,0.413374,0.109219
0.123158,0.049915,0.351582,0.794817,0.569349,-0.210017
0.161210,-0.240573,0.345757,-0.485244,0.484314,-0.727997
-0.009962,0.219848,0.329249,0.871839,0.439456,0.216275
-0.376167,0.552575,0.764054,0.965533,0.041759,-0.256909
0.014291,0.369619,0.979114,-0.112857,0.436893,0.892406
-0.613414,0.062065,0.284103,0.474467,0.011431,-0.880199
0.023789,0.269051,0.808156,0.935691,-0.300716,-0.184533
0.260254,-0.034710,-0.474029,0.917671,-0.382432,0.107820
0.075397,0.231794,0.839328,0.929089,-0.118452,-0.350374
0.475051,-0.070667,0.682838,0.551922,0.815274,-0.175245
0.146998,-0.087914,-0.465099,0.896416,-0.441941,-0.033565
-0.256977,0.035292,0.283089,-0.191439,-0.071632,0.978887
0.045774,0.164590,0.119895,0.653822,-0.746864,0.121293
-0.055416,0.502425,0.856977,-0.349457,0.927176,-0.134996
0.492836,0.069148,-0.974226,-0.283963,0.166911,0.944196
-0.055221,0.722313,0.731443,-0.605005,0.454397,-0.653830
0.024708,-0.271465,-0.979502,-0.463100,0.437437,-0.770836
-0.784050,0.509019,0.743963,0.422753,0.617307,-0.663485
-0.551648,-0.158496,-0.003492,-0.539521,-0.819430,-0.193523
0.094105,0.313543,0.804322,0.094823,0.807606,0.582049
0.858905,-0.259235,-0.943066,0.382818,0.373337,-0.845027
0.140642,-0.013106,-0.546403,0.022394,-0.984368,0.174694
-0.061768,0.164578,0.347226,0.759069,0.631739,0.157230
0.537046,-0.586230,-0.953995,0.342157,-0.288682,0.894199
-0.132583,-0.509781,-0.376251,-0.331905,-0.937609,-0.103578
0.160210,0.116203,0.554596,0.027749,-0.115039,0.992973
-0.067470,0.109466,0.268124,0.621686,-0.779154,0.080163
-0.314369,-0.605445,-0.279802,-0.191031,0.834501,0.516833
-0.158886,-0.187401,-0.121953,0.949627,0.277653,0.145317
0.333627,0.504976,0.695786,-0.425424,-0.396924,0.813305
-0.145119,-0.085885,-0.154845,0.922677,0.121788,-0.365833
0.312012,-0.111744,-0.647974,0.971213,-0.070473,0.227550
0.440476,-0.453878,-0.944948,0.288471,-0.001064,-0.957488
-0.138727,-0.472681,-0.414745,0.201021,0.962494,-0.182195
-0.308701,0.699379,0.816471,-0.592272,0.602103,0.535431
0.368928,-0.238522,-0.935640,0.280773,-0.853965,-0.438075
-0.502203,-0.122983,-0.007789,0.805694,-0.542847,-0.237012
0.043469,-0.092780,-0.974058,-0.297333,0.778209,-0.553159
-0.040375,0.391628,0.819650,-0.898614,0.021301,0.438224
-0.034703,0.132940,0.301313,0.773345,-0.050730,-0.631952
-0.261881,0.070477,0.025300,-0.099553,-0.961133,0.257514
-0.128825,-0.299638,-0.053837,0.735324,0.471764,0.486557
-0.090647,0.067902,0.030515,0.458140,0.825275,-0.330194
-0.186723,-0.500673,-0.373627,0.010082,-0.004308,0.999940
-0.143909,-0.001137,-0.078051,-0.263582,0.936137,-0.232749
0.947946,-0.341179,-0.914229,-0.780428,0.297254,-0.550065
0.280656,-0.174251,-0.439926,0.879027,0.390417,-0.273653
-0.179363,0.228465,0.697751,0.788430,-0.518778,-0.330526
-0.684479,-0.336186,0.028021,0.950839,0.306487,-0.044391
0.154672,-0.374911,-0.113641,-0.283500,-0.078248,0.955775
0.789093,-0.298304,-0.942838,0.379403,-0.886289,-0.265603
-0.095098,-0.267606,-0.067100,0.672295,0.652720,0.349251
-0.227913,-0.147992,0.377746,0.818124,-0.239129,-0.522963
0.259326,-0.092740,-0.677328,0.643113,0.467566,-0.606455
0.512850,-0.544979,-0.949801,0.237359,-0.350625,-0.905937
-0.227529,0.020398,-0.002109,0.179145,0.766912,0.616241
0.093350,-0.029392,-0.272788,0.957691,-0.253344,-0.136542
0.593219,-0.317310,-0.950462,-0.276572,0.140104,0.950726
0.108609,-0.567613,-0.972998,-0.204120,0.618966,0.758430
0.255364,-0.693441,-0.972761,0.084123,-0.267628,0.959843
-0.034320,0.539765,0.749819,-0.579908,0.776989,0.244938
-0.064620,0.314310,0.639358,0.424068,0.882686,0.202561
0.355298,-0.369009,-0.964085,0.155316,-0.196408,-0.968143
0.403173,-0.377993,-0.969253,-0.327400,0.088011,0.940778
-0.019559,-0.011388,-0.083993,-0.004656,0.744516,0.667588
0.216766,-0.181348,0.329702,0.433713,-0.842383,0.319819
-0.423537,0.751995,0.877070,0.359957,0.932568,-0.027352
-0.128412,0.031275,0.018777,0.811132,-0.584701,0.013776
-0.086882,0.161394,0.205499,0.682426,0.640889,-0.351507
0.303066,-0.332747,-0.905260,0.949004,-0.286889,-0.130711
-0.404957,-0.075941,0.556022,0.746705,-0.120882,0.654079
-0.240610,-0.125977,0.373782,0.773505,-0.494927,-0.395900
-0.087119,-0.127769,0.362603,0.271449,-0.877591,0.395158
0.014312,0.312346,0.774100,-0.128053,0.868058,0.479664
-0.143697,0.273570,0.532580,-0.164441,0.976584,-0.138721
-0.021434,0.103993,0.130844,-0.304358,-0.786180,0.537855
0.439560,-0.766048,-0.938805,0.411184,0.369594,0.833263
0.000699,-0.310643,-0.075344,0.017341,0.742654,0.669451
0.441455,-0.593147,-0.954103,-0.553011,0.474497,0.684859
0.097813,-0.412883,-0.941781,-0.168065,0.321404,0.931909
-0.183887,0.522140,0.818910,-0.171650,-0.014883,0.985046
0.023144,0.232805,0.839620,-0.411291,0.307460,-0.858084
0.593980,0.031419,-0.967657,0.794219,-0.302417,-0.527030
0.133310,0.058217,0.802700,-0.211024,-0.898395,0.385169
0.082684,-0.075302,-0.385450,0.450257,-0.881109,0.144621
-0.063763,0.341330,0.794594,0.628529,0.401733,0.666004
-0.002421,0.332238,0.637766,0.074640,0.834150,0.546464
0.055348,0.445107,0.824609,0.484914,0.653363,0.581356
-0.086746,-0.103398,-0.102082,-0.166848,-0.879781,0.445138
0.071409,-0.072967,-0.285624,0.012272,-0.994432,0.104667
0.210238,0.821509,0.748181,-0.069574,-0.749399,0.658453
-0.462958,-0.065819,0.303024,-0.519582,-0.032827,0.853790
0.308348,-0.138678,-0.965573,0.433988,-0.116632,0.893337
0.525998,-0.569198,-0.949247,0.125561,0.546462,0.828018
0.042198,0.111517,-0.156407,-0.290548,0.940060,0.178518
0.216228,-0.328851,-0.089378,0.123515,0.379425,0.916941
-0.080905,0.391787,0.965417,-0.476743,-0.612818,0.630215
0.298858,-0.093894,-0.621659,0.392725,0.919436,-0.020124
0.011868,-0.052434,-0.309061,0.794596,-0.585313,0.161324
-0.005053,0.004904,0.365778,0.288765,0.425924,-0.857440
0.537404,-0.701104,-0.934855,0.445386,-0.366099,-0.817070
0.496775,-0.637259,-0.934484,0.013903,-0.768912,0.639203
0.015922,0.220675,0.578848,0.827453,0.429601,-0.361614
0.799503,-0.217583,-0.930972,-0.633675,0.427660,0.644642
-0.357845,0.401847,0.898805,0.872849,0.109930,-0.475447
0.124455,0.784216,0.747376,0.179653,0.416575,-0.891174
0.148959,-0.286140,-0.962171,-0.022082,-0.215708,0.976208
-0.208745,0.146481,0.800998,-0.025656,-0.212615,0.976799
0.871685,-0.090192,-0.954301,0.427300,0.783014,0.452001
-0.047206,0.186809,0.785457,-0.126518,-0.842139,0.524210
-0.200719,-0.403952,-0.417887,0.770673,-0.008008,-0.637181
0.083378,0.536909,0.722557,0.673843,0.736684,-0.056846
0.004736,0.408300,0.827912,-0.394587,0.162248,-0.904420
-0.368374,0.504909,0.792822,0.707186,0.687996,0.162940
-0.312679,0.144045,0.279797,-0.545758,-0.662753,-0.512744
0.212874,0.827504,0.770663,-0.775640,-0.626350,-0.077897
-0.116192,0.232584,0.740819,0.774316,-0.625668,0.094732
-0.380113,-0.005972,-0.186191,-0.024702,0.802299,0.596411
0.717387,-0.389357,-0.921829,0.934507,0.341227,0.101294
0.217017,-0.654569,-0.930474,0.988635,0.012851,-0.149784
0.243611,-0.467753,-0.930446,-0.595162,0.499256,0.629702
0.119013,-0.467069,-0.111861,0.446186,0.786674,-0.426687
-0.074502,0.128434,0.015547,-0.661537,0.335352,0.670752
-0.260268,0.406084,0.773033,-0.612675,-0.758613,0.221667
-0.065257,0.029578,-0.089623,-0.566476,0.707658,0.422286
-0.190712,0.105420,0.320129,0.387391,0.429791,-0.815603
-0.235996,0.202573,0.969200,-0.616036,0.767347,-0.177985
0.195026,0.790685,0.785031,0.823589,0.037385,0.565954
0.509514,-0.242588,-0.930601,0.054628,0.066418,0.996295
0.733503,-0.446457,-0.924020,0.170391,-0.286305,0.942866
0.624262,-0.000374,-0.964654,-0.373089,-0.348898,0.859695
-0.123159,0.021027,0.009317,0.187933,0.480739,0.856488
-0.035888,0.674155,0.735058,-0.373799,0.108410,-0.921152
0.244529,0.091913,0.676856,0.312912,0.759151,0.570768
0.630026,-0.344186,-0.942379,-0.618031,-0.659227,0.428319
0.055773,-0.009622,0.336625,0.668386,0.478834,-0.569191
0.012286,-0.010852,-0.172846,-0.389204,0.916857,0.088842
0.026551,0.297460,0.212457,0.385110,-0.871699,0.303036
0.321345,-0.486552,-0.918654,-0.045967,-0.047728,0.997802
0.572357,-0.558234,-0.939805,0.969537,-0.004818,-0.244897
-0.383178,-0.158512,0.025700,0.483921,0.270427,-0.832280
-0.341354,-0.249518,0.053089,0.941842,0.168156,0.290958
-0.000970,0.328476,0.839807,-0.557301,-0.373037,-0.741794
0.339572,-0.181462,-0.980287,-0.291755,0.482726,0.825745
0.178395,0.148841,0.641092,-0.704642,0.624059,0.337683
0.036479,0.251915,0.825992,0.971479,-0.196882,0.132158
-0.215149,-0.034398,0.287140,0.566248,-0.725370,-0.391408
-0.220862,-0.000780,0.388537,0.947008,-0.090481,0.308203
0.207295,-0.347031,-0.975113,-0.567864,0.241168,-0.786999
0.072231,0.059823,0.193305,0.837055,0.000870,-0.547118
-0.299383,0.086103,0.785966,0.675563,0.730932,0.096717
0.151018,0.007900,0.282072,0.844563,0.479414,0.238486
0.048010,0.146256,-0.041794,-0.408527,-0.456872,-0.790173
-0.328739,-0.079166,0.314965,-0.102251,-0.341450,0.934322
-0.069859,0.388304,0.745657,-0.541878,0.838548,-0.056609
-0.178920,-0.064364,-0.133218,-0.810503,0.031339,0.584896
-0.442267,0.096994,0.246769,0.652896,-0.590830,-0.473969
0.136132,0.014292,0.665100,0.921962,-0.315813,0.224163
0.713599,-0.443555,-0.956666,0.975726,0.075931,-0.205409
-0.190385,-0.008613,-0.020091,0.862932,0.493647,0.107983
0.589094,-0.061227,-0.936999,-0.352802,0.823935,0.443466
-0.102446,0.522715,0.906582,0.806785,0.540500,0.238658
0.084678,-0.316950,-0.075502,0.640266,-0.120232,0.758685
0.001121,-0.299071,-0.981571,-0.046360,-0.112257,0.992597
0.182479,-0.310811,-0.076749,0.046892,-0.260907,0.964224
-0.081857,-0.466139,-0.377059,-0.795248,-0.105957,0.596953
0.637414,0.047012,-0.945347,0.292545,0.298061,-0.908613
0.141306,-0.084239,-0.991576,0.344249,-0.010487,0.938820
0.061319,-0.054956,0.358944,-0.417519,-0.331251,-0.846139
0.056285,-0.237405,-0.964048,0.484267,0.840911,0.241568
-0.029313,-0.007806,0.784625,-0.717770,0.387791,-0.578294
0.518762,0.140708,-0.924185,-0.131441,0.828345,0.544581
0.489851,-0.277030,-0.968485,0.104081,-0.261523,0.959569
-0.019514,-0.060237,0.374502,0.499441,0.566692,0.655301
0.173034,-0.033018,-0.202337,0.948193,-0.136931,0.286672
0.332440,-0.150782,-0.983522,-0.008936,-0.207661,0.978160
0.425160,-0.892100,-0.932867,-0.607640,-0.006010,0.794190
-0.075128,0.274024,0.516449,0.955997,-0.274504,-0.103524
0.622388,-0.148760,-0.951186,-0.525260,0.559905,0.640788
0.100605,0.017331,-0.471401,-0.046005,0.997401,0.055448
0.035540,0.271378,0.829485,-0.592730,-0.145561,-0.792138
0.025042,0.070600,-0.062309,0.707039,0.539306,0.457433
-0.097618,0.069694,0.642559,0.174718,0.428220,0.886623
0.246896,-0.184230,-0.967274,0.742455,0.421897,0.520349
-0.120079,0.228292,0.324287,0.153754,0.867567,0.472957
0.254790,-0.745451,-0.946440,0.237838,0.599001,0.764611
0.306788,-0.323908,-0.977209,0.351793,-0.397769,-0.847362
0.102940,0.310769,0.249545,-0.720263,0.674239,-0.163167
0.077814,0.343280,0.849352,-0.035112,0.255630,0.966137
-0.132603,0.394637,0.912773,0.923132,0.294332,-0.247378
-0.137800,-0.538240,-0.965122,-0.635603,-0.075850,0.768281
-0.321782,-0.118097,0.271748,-0.218105,0.895041,0.389015
0.135673,-0.031326,-0.972808,0.629253,-0.224489,-0.744073
0.058332,-0.030162,0.542468,0.016642,0.143355,0.989531
-0.051153,0.312732,0.844450,-0.306761,0.316061,0.897776
0.507920,-0.210717,-0.955078,-0.402063,0.828793,0.389163
-0.150706,0.399526,0.650481,0.566148,-0.767965,0.299511
0.403089,-0.035469,-0.951643,0.561181,0.115738,-0.819561
-0.130636,0.063737,0.258303,-0.128196,0.541011,0.831188
0.163592,-0.168341,-0.592345,-0.025271,-0.952485,0.303537
0.304925,-0.487637,-0.969413,0.221443,-0.257023,-0.940692
-0.004244,0.330787,0.840382,0.815661,0.411016,0.407141
-0.266692,0.198647,0.791076,-0.617926,0.696648,0.364483
-0.119228,-0.027039,-0.037941,0.207755,-0.964778,0.161376
-0.059989,-0.140054,0.587988,0.819764,0.045336,-0.570904
0.174036,0.425888,0.771077,0.145437,0.664213,0.733259
0.250222,-0.170678,-0.597843,-0.193964,0.978629,-0.068286
0.095180,0.038213,-0.131947,0.945950,0.322316,0.035930
-0.050222,0.343763,0.626937,-0.463749,-0.818944,0.338036
0.164436,0.592365,0.703576,-0.195158,0.692797,-0.694223
-0.062471,0.160227,0.379958,-0.741062,-0.575079,0.346572
0.155152,0.286570,0.485410,0.568947,-0.195667,0.798758
-0.140301,0.102655,0.413836,0.453499,-0.358781,-0.815853
0.136952,0.092340,0.821944,0.835905,-0.526367,0.155564
0.029278,0.307595,0.219762,0.798775,0.586476,0.134176
0.016266,0.167845,0.139827,0.280664,-0.910195,0.304587
0.396162,-0.262684,-0.923093,0.550049,0.819981,-0.158358
0.561995,-0.513765,-0.943354,-0.443744,0.197224,0.874182
0.255126,-0.366217,-0.978845,0.826906,-0.458893,-0.325029
-0.405787,0.156527,0.804226,0.284205,0.952245,0.111615
-0.612971,0.355456,0.704859,-0.683783,-0.729629,-0.009118
-0.424749,-0.291523,0.051054,-0.128255,-0.350594,0.927704
-0.530799,-0.080902,-0.023719,-0.000004,-0.041919,0.999121
0.072504,0.014582,0.689617,0.377643,-0.468366,-0.798761
-0.220718,0.218068,0.234949,0.193931,0.970784,-0.141309
0.601684,0.187714,0.734777,0.439534,0.849365,-0.292213
-0.062830,-0.507758,-0.295665,-0.420942,-0.752224,0.506919
0.383323,0.173426,-0.980701,0.679729,0.392012,-0.619915
0.663189,-0.251084,-0.934541,-0.718418,-0.643557,-0.264027
0.116252,-0.134823,0.329940,-0.390338,0.271535,-0.879719
0.151332,0.132855,-0.154503,-0.675268,-0.695189,-0.246424
-0.296041,-0.033541,0.290803,-0.715390,0.645826,-0.266696
-0.031680,0.190531,0.243944,-0.296288,0.940807,0.164610
-0.072988,0.299933,0.641690,-0.640756,0.739376,-0.206771
0.375606,-0.229224,-0.966153,-0.053679,0.721690,0.690132
-0.063181,-0.069533,0.780569,0.188755,0.350006,0.917533
0.110295,0.095126,0.785068,-0.295039,0.143206,0.944693
-0.377646,-0.097622,0.489109,0.830089,0.482564,-0.279435
0.248682,-0.570103,-0.931215,0.186277,-0.922781,0.337306
0.750552,-0.416610,-0.940770,-0.087105,0.028253,0.995798
0.132688,0.534728,0.717009,0.816643,-0.566249,0.111610
-0.082947,-0.053375,0.021598,-0.220143,0.963244,0.153943
-0.158825,0.226394,0.934467,0.529371,-0.155776,-0.833967
-0.129839,0.475163,0.862375,0.477280,-0.579352,-0.660723
0.380874,-0.603125,-0.971509,-0.137873,0.070004,-0.987973
-0.190738,-0.314144,0.044921,-0.362736,0.702695,-0.612080
0.223344,-0.685789,-0.962790,-0.455565,-0.055963,-0.888442
0.150918,0.119759,-0.040691,-0.686551,-0.660654,-0.303619
0.355535,-0.181148,-0.966029,0.484078,-0.871510,-0.078350
0.129459,-0.570624,-0.953673,-0.091936,-0.837530,-0.538602
-0.379990,-0.183717,-0.078163,0.100659,0.944235,0.313510
-0.029016,0.035358,0.241351,0.081915,-0.946851,0.311069
-0.319682,0.373662,0.787281,-0.354390,-0.283797,-0.890992
0.464169,-0.342157,-0.956353,0.212550,-0.754162,0.621338
-0.574692,-0.043365,0.262429,-0.065988,0.622309,0.779985
0.057059,0.311580,0.822058,0.764664,0.363465,0.532149
0.227382,-0.263443,-0.101912,-0.053809,0.889739,0.453286
0.055222,0.624274,0.753770,-0.648122,0.630663,0.426851
0.285746,-0.042540,-0.963223,-0.046993,-0.165885,0.985025
-0.117868,0.257705,0.593549,0.290224,0.881745,-0.371883
0.821996,0.509722,0.767135,0.174333,0.512386,0.840874
-0.615841,-0.197888,0.007527,0.623584,-0.759501,0.185205
0.500186,-0.093476,-0.934310,0.488057,-0.067363,-0.870209
-0.035024,0.277774,0.268450,0.076144,0.891303,0.446969
-0.475231,0.502991,0.806503,0.927348,-0.348438,-0.136441
0.155575,0.035165,-0.148538,0.800606,-0.576388,0.163732
0.764994,-0.216497,-0.942842,0.828969,-0.158499,-0.536367
0.065429,-0.034732,-0.990081,0.374541,-0.838735,-0.395276
-0.010525,-0.083250,0.375123,0.774198,0.117168,0.622004
0.551722,-0.442394,-0.957756,0.209927,-0.015038,0.977601
-0.377297,0.321155,0.881593,0.621868,0.532802,0.573935
0.420762,0.300393,0.639537,0.687437,0.720117,-0.094134
0.248983,-0.413759,-0.972420,-0.701636,0.158508,0.694682
-0.475787,-0.125970,-0.020496,-0.154426,0.567200,0.808973
-0.160405,-0.030041,-0.120521,-0.743219,0.349284,0.570636
-0.241510,-0.299193,0.027405,-0.184211,-0.965832,-0.182304
0.046933,0.654412,0.744754,0.443732,0.873682,0.199454
0.514917,-0.734120,-0.938435,0.505327,-0.239365,-0.829065
0.347705,-0.620295,-0.960232,0.813336,0.003945,-0.581782
-0.108579,0.372757,0.954582,-0.527280,-0.512371,0.677828
0.241206,-0.392686,-0.947706,-0.076706,-0.513426,0.854699
-0.518006,-0.406030,-0.040213,-0.470390,-0.521124,-0.712153
0.143491,0.364627,0.808261,-0.781343,-0.066173,0.620583
-0.177286,-0.022600,0.821955,-0.397183,0.638467,-0.659246
-0.219093,0.162275,0.813653,0.419147,-0.116936,0.900357
0.259242,-0.027527,-0.500951,0.890598,0.364682,-0.271739
-0.219278,-0.532083,-0.366686,-0.382448,-0.920882,0.075568
0.579387,-0.066036,-0.946721,-0.161106,-0.702385,0.693326
-0.434147,-0.114485,0.558287,0.724013,-0.081684,0.684933
-0.641555,0.682405,0.739224,-0.748768,0.528910,0.399501
0.365379,-0.563408,-0.964103,0.209067,0.331491,-0.920003
0.053422,0.322965,0.659353,0.145025,-0.403063,0.903608
0.026769,0.003163,-0.183082,0.903764,-0.406433,-0.134247
0.343158,-0.131437,-0.669953,0.847757,0.337860,-0.408850
-0.082051,0.179659,0.768948,0.604612,0.501600,-0.618742
0.391255,-0.294756,-0.925883,0.226545,0.914220,0.335975
-0.404585,-0.103641,0.312226,0.418022,0.244541,-0.874904
0.402485,-0.126395,-0.959059,-0.477600,0.464942,-0.745472
0.234456,0.469353,0.776956,-0.582223,0.484885,0.652612
0.214498,-0.601765,-0.933749,0.890857,0.357382,-0.280449
0.150200,0.589942,0.751642,-0.220391,-0.459188,0.860566
-0.142775,-0.072414,-0.166736,0.883028,0.465449,-0.060158
-0.024844,0.276290,0.847533,-0.317112,0.362223,-0.876490
-0.088057,0.107406,0.017238,0.830116,-0.557591,0.000655
-0.060445,0.266850,0.195389,0.735444,-0.536629,-0.413704
0.180930,-0.276823,-0.102014,0.040949,0.579116,0.814216
0.923718,-0.294674,-0.919628,0.925325,0.376834,-0.042076
-0.301583,0.174832,0.735541,0.477522,0.877759,-0.038889
0.311759,0.569624,0.796369,-0.592434,0.362177,0.719618
0.509871,0.086273,-0.964856,0.444051,0.543135,-0.712617
0.190690,-0.121179,-0.996405,0.212719,-0.110178,-0.970882
0.208710,0.097682,0.624213,-0.443180,-0.719134,0.535199
0.320936,-0.093158,-0.643810,-0.765600,-0.640215,-0.063103
-0.252747,-0.161467,0.525773,0.272935,0.249373,-0.929150
-0.034847,0.172555,0.780701,-0.519296,0.850750,-0.080966
-0.348355,-0.084572,0.025643,-0.392957,-0.623361,0.676022
0.003071,-0.219136,0.334890,0.156020,-0.737442,0.657143
-0.052340,0.261394,0.833780,0.238002,0.782000,0.576048
-0.422548,0.075644,0.793079,0.849802,0.511597,-0.126902
-0.122027,0.273630,0.785033,0.970824,-0.235781,0.043686
0.406706,-0.259393,-0.941939,-0.453432,0.890857,0.027789
0.606171,-0.863219,-0.948749,-0.349054,-0.200354,-0.915434
0.637437,0.020841,-0.969734,0.337545,0.924545,-0.176862
-0.100112,0.047755,-0.053369,0.288714,-0.943391,-0.163272
0.293475,0.313363,0.733389,-0.570122,-0.794138,0.210489
0.159068,-0.145554,-0.959996,-0.030446,0.024417,0.999238
0.260723,0.013343,-0.957893,0.285191,-0.859328,0.424525
0.523877,-0.725140,-0.938814,0.538982,-0.203076,-0.817471
0.216644,0.640145,0.740808,0.753394,-0.402868,-0.519706
-0.675661,0.574168,0.758145,0.819348,-0.567317,0.082587
-0.532675,-0.400196,-0.032011,0.652707,0.223274,0.723963
-0.243445,-0.134217,0.366329,0.789044,-0.331351,-0.517316
0.081685,0.175746,0.094364,-0.682352,0.699538,-0.212232
-0.139355,0.176315,0.247010,0.236254,0.157511,0.958840
0.077620,0.066781,0.061759,0.996820,0.047207,0.064192
-0.349749,-0.250854,0.036751,-0.694788,-0.618289,-0.367407
-0.164359,-0.144190,-0.210237,0.976574,0.214830,-0.012307
0.028364,0.139558,0.322991,0.999166,0.037954,-0.015060
-0.221141,0.365586,0.221995,-0.626327,0.675354,0.389373
-0.031826,-0.000695,0.664627,0.355850,0.918951,0.170002
-0.126881,0.383003,0.642775,-0.034790,-0.611577,0.790419
0.314851,-0.099230,0.622047,0.046537,0.911754,0.408091
0.080122,0.217141,0.783330,0.562492,-0.668996,0.485846
-0.242582,0.067757,0.804698,-0.503486,0.272345,-0.819957
0.626576,-0.714463,-0.941332,-0.373865,0.810469,0.450961
0.175852,0.352905,0.590749,-0.260275,0.947682,-0.184813
-0.512592,-0.156754,-0.022205,-0.513086,-0.515873,-0.686015
0.425695,-0.037712,-0.971936,0.296949,0.329966,-0.896071
-0.081030,-0.200663,-0.071012,0.355073,0.107986,0.928581
0.097293,-0.121460,0.341483,-0.854986,0.392089,-0.339507
-0.092352,0.194026,0.240312,-0.088195,0.990500,-0.105504
-0.260656,0.194409,0.973455,0.765856,-0.455832,0.453521
-0.200705,0.391600,0.750941,-0.886472,0.053569,-0.459672
-0.056183,0.181672,0.288310,0.985806,0.165098,0.030473
-0.188895,0.382421,0.214066,0.798556,-0.330537,-0.503045
0.153436,-0.611491,-0.980001,0.283369,0.406838,0.868438
-0.106139,0.144076,0.314428,-0.491136,0.835709,-0.245715
0.639069,-0.078342,-0.947312,-0.072878,-0.309079,0.948240
0.526281,-0.193490,-0.928092,-0.465328,0.883291,0.057155
-0.211760,-0.485689,-0.271025,-0.382320,0.923065,0.042212
-0.027845,0.041653,0.791098,0.423337,-0.592862,0.685055
-0.356506,-0.061154,0.642978,0.244504,0.944397,0.219847
-0.295134,0.125362,0.313765,-0.644065,-0.663968,0.379902
0.478225,-0.492707,-0.956706,0.587934,0.763290,-0.267810
0.167049,0.371528,0.545357,0.516963,0.827160,0.220353
0.619020,-0.050431,-0.974687,-0.181361,0.605751,0.774709
0.135167,-0.704690,-0.970940,0.600284,0.596605,0.532655
-0.319447,-0.070249,0.284077,-0.692007,0.688028,0.218503
0.499874,0.230809,-0.960899,0.224965,0.845836,0.483687
0.341169,0.306446,0.728374,0.267411,0.908953,-0.319836
-0.291730,-0.241788,-0.054312,0.294417,0.292655,0.909765
0.190880,-0.458077,-0.959611,0.828394,0.316500,-0.462158
-0.182224,-0.544612,-0.268744,-0.399921,0.187468,0.897173
0.406701,0.286952,0.706296,-0.586465,-0.622875,0.517770
-0.040991,0.279597,0.803701,0.236355,0.892208,0.384840
-0.145833,0.077096,0.338274,-0.736088,0.502860,0.453108
-0.200245,-0.023224,-0.129879,-0.737538,0.225776,0.636446
-0.199087,0.237370,0.554230,-0.180687,-0.931653,-0.315237
0.014895,0.682678,0.736054,0.432283,0.385669,-0.815102
0.276164,0.714855,0.740721,0.672479,0.541156,0.504898
-0.203345,-0.142035,-0.066165,0.874079,0.439906,-0.206077
-0.036697,-0.047853,0.416042,0.637828,-0.176520,0.749677
-0.023652,0.183126,0.825605,-0.859849,0.504602,0.077695
0.024780,-0.009966,0.731029,-0.466998,0.722301,-0.510092
-0.051706,-0.402665,-0.979059,0.631447,0.698941,-0.335792
0.096578,0.241584,0.778889,0.333473,-0.415904,0.846061
-0.115711,0.488707,0.834831,-0.438141,-0.625005,0.646066
0.139120,0.275914,0.863576,0.663655,-0.412789,-0.623833
0.793627,0.525392,0.751883,-0.085670,0.304233,-0.948737
0.453405,-0.214169,-0.957689,-0.266088,0.506072,0.820420
-0.779579,0.831384,0.733259,-0.592360,-0.681312,0.430027
0.271050,0.673315,0.748258,-0.576341,-0.737106,-0.352855
0.404532,-0.999284,-0.935714,-0.442970,-0.694692,0.566728
0.267419,0.299912,0.554690,-0.281611,0.805259,0.521778
-0.023351,-0.032656,0.371610,-0.084300,0.427759,0.899953
0.007504,-0.092016,0.372437,0.727391,0.464935,0.504715
-0.250449,-0.125555,0.290433,-0.332293,0.668090,0.665760
0.117764,-0.402860,-0.987742,0.581622,0.781452,-0.225939
-0.202818,0.201840,0.245452,0.025142,0.224258,0.974205
-0.338415,0.316953,0.230655,0.464024,0.885818,0.002872
-0.117843,0.116105,0.044029,0.626926,0.778940,0.014698
0.754678,-0.212375,-0.948072,0.330195,-0.074604,-0.940960
0.491417,-0.937835,-0.926561,0.041253,-0.468055,0.882736
0.498525,0.185692,0.738952,-0.464401,-0.506818,0.726269
-0.085844,-0.216249,-0.045752,0.539023,0.470196,0.698835
0.104950,-0.218121,-0.122560,0.751481,-0.561497,-0.346407
-0.306040,-0.149901,0.047964,-0.387088,0.833781,-0.393664
-0.172129,0.244022,0.187483,0.405637,0.857022,-0.317761
-0.094449,0.103262,0.110247,0.991733,-0.119651,0.046361
0.205039,0.342327,0.357681,-0.804720,0.480969,0.347988
-0.770431,0.542199,0.739521,-0.053601,0.412358,-0.909444
0.224044,0.052959,0.695975,-0.280072,-0.955680,-0.090744
0.278001,-0.094696,-0.638164,0.834264,0.405960,0.373094
0.682513,-0.412050,-0.927305,0.859241,0.194442,0.473178
-0.105806,-0.083930,-0.101154,0.405562,0.755233,-0.514920
-0.166834,-0.274495,0.358175,0.959791,0.053641,0.275544
0.029697,0.720004,0.758931,0.827181,-0.459979,-0.322786
0.130168,-0.159634,-0.120673,0.960503,0.271432,-0.061312
-0.333091,0.037959,0.733915,0.771816,-0.457337,-0.441751
-0.403753,-0.045784,0.023885,0.155526,0.927052,0.341155
0.297793,0.125806,0.585860,0.754141,-0.037282,0.655653
0.000818,-0.128898,-0.141138,0.726426,-0.054327,-0.685094
-0.099777,0.297582,0.677179,-0.562962,-0.609115,0.558617
-0.275777,-0.027313,0.805234,-0.707589,0.696705,-0.117986
-0.149006,0.454230,0.755704,0.410468,0.539611,-0.735075
0.044564,0.110808,-0.067369,-0.073002,0.953266,0.293180
0.649567,-0.011162,-0.948892,0.135436,0.849547,0.509831
-0.770419,0.594213,0.292028,0.052455,-0.435325,0.898744
0.514567,0.586688,0.771544,-0.154822,-0.981599,0.111778
0.873733,-0.061300,-0.940970,0.506877,-0.841318,0.187777
0.249913,-0.187350,-0.988174,-0.176310,0.167102,0.970047
0.258128,-0.505808,-0.975286,-0.330380,0.273476,0.903361
-0.289611,0.217411,0.221368,0.907297,0.420128,-0.017466
-0.091068,0.029374,-0.043028,0.948642,-0.062503,-0.310115
0.032465,0.323649,0.232300,0.470359,0.597429,-0.649493
0.002350,0.060730,-0.115663,0.758886,-0.493344,0.425092
-0.192033,-0.225949,0.026334,0.757426,-0.079532,0.648059
0.523795,-0.364329,-0.950874,-0.515828,-0.165103,0.840632
-0.062889,0.088507,0.288539,0.365069,-0.611961,-0.701589
-0.289926,-0.120602,0.002142,0.704533,0.353925,-0.615118
0.013161,-0.644120,-0.954105,0.723797,0.257019,0.640358
-0.001790,-0.598276,-0.956481,-0.675647,0.087504,0.732013
-0.098117,0.069806,0.264129,-0.020739,-0.433668,0.900834
0.551729,0.158619,0.728009,0.247879,0.933462,-0.259239
0.157031,0.512084,0.700307,0.360884,-0.903631,0.230680
-0.375473,0.095814,0.268436,0.362853,0.356698,0.860874
-0.051375,0.081614,0.041868,0.259987,-0.809188,-0.526898
0.899647,-0.169111,-0.937370,-0.391742,0.821231,0.414871
0.227515,-0.147797,-0.685842,-0.592611,-0.805464,0.006372
-0.080909,0.341223,0.834456,0.926946,0.342295,0.153640
-0.463667,-0.168160,0.556516,0.831438,0.159718,0.532167
0.118936,-0.095072,0.339334,0.040700,-0.899092,-0.435863
0.242027,0.353156,0.790539,-0.236225,0.933060,-0.271288
0.046500,0.366260,0.765182,-0.526049,0.615256,0.587139
0.391878,-0.163897,-0.969963,-0.357984,-0.332229,0.872623
0.344309,-0.316648,-0.918785,-0.574003,0.766771,0.287374
0.223086,-0.152882,-0.955694,0.794155,0.393500,-0.463114
0.477261,-0.572650,-0.953507,0.641758,-0.239461,-0.728564
-0.199649,0.248697,0.242367,-0.226227,-0.028121,0.973669
0.097135,0.100964,0.797945,0.671303,0.686546,0.279295
-0.379992,-0.204367,0.038143,0.509006,0.756806,0.410069
0.469382,0.050560,-0.970850,0.038797,0.008194,0.999214
0.299176,-0.462985,-0.950562,-0.284004,-0.234951,0.929591
0.132136,0.072698,0.217513,0.302298,0.004801,0.953201
0.404879,-0.717141,-0.944986,0.459769,0.843262,0.278427
0.233253,-0.826337,-0.926408,0.633580,0.725499,-0.268752
-0.274906,-0.518291,-0.277402,-0.300136,0.902167,0.309858
0.657828,-0.126393,-0.941515,-0.645396,0.181205,0.742044
0.530570,0.047240,-0.963674,-0.438372,-0.023231,-0.898493
-0.124553,-0.046203,-0.176748,-0.649743,-0.314933,0.691847
0.100605,0.771219,0.765988,0.918483,0.260177,-0.297821
0.628056,-0.260385,-0.929357,-0.613385,-0.002439,0.789780
0.403954,-0.551783,-0.961958,-0.249680,-0.675772,0.693535
0.055538,0.435526,0.777975,0.256607,-0.384249,0.886852
-0.182283,0.089871,0.321846,-0.182507,0.417052,-0.890370
-0.079429,0.026181,-0.046993,-0.656466,-0.312048,-0.686789
-0.212148,-0.205106,-0.064746,-0.285575,-0.326146,0.901152
-0.221882,0.298664,0.254976,0.011056,-0.816101,0.577804
-0.784287,0.609835,0.742884,0.535021,-0.746252,-0.396056
0.097472,-0.316207,-0.974333,0.353733,0.166989,-0.920319
0.455394,-0.334122,-0.953262,0.163380,-0.581753,0.796788
0.318982,-0.443538,-0.971463,-0.531672,-0.248796,0.809584
-0.529450,-0.452417,0.013825,0.672782,0.206901,0.710321
0.518909,0.069674,-0.957366,0.852743,-0.296446,0.430058
-0.362791,0.616189,0.752492,0.847108,0.404414,0.344756
0.242217,-0.116885,-0.425490,0.870272,0.489354,0.056205
-0.194274,-0.158441,0.363490,-0.410583,-0.584868,-0.699536
-0.239171,0.324512,0.766423,0.855938,0.443837,0.265289
0.336672,-0.340617,-0.960968,-0.036825,-0.157533,0.986827
-0.115570,-0.228998,-0.994397,-0.299326,0.274137,-0.913922
-0.037294,0.039095,0.115411,-0.154130,0.893792,-0.421165
0.309316,-0.113023,-0.967365,-0.106540,-0.652503,0.750259
0.188483,0.788843,0.778486,0.815680,0.027925,0.577830
-0.072803,0.020327,-0.019308,0.027856,-0.438194,0.898449
-0.080436,0.316838,0.835312,-0.636745,0.694902,-0.334167
0.261205,0.045157,0.706307,0.442654,0.835195,-0.326354
-0.625257,0.192908,0.275034,-0.364205,-0.373001,0.853361
0.544475,-0.160384,-0.962891,-0.133419,0.375226,0.917281
0.033885,-0.237902,-0.976488,-0.146118,-0.874945,0.461651
-0.024100,0.475307,0.857086,0.819502,-0.412847,-0.397459
-0.347449,0.242495,0.756290,-0.471859,-0.481559,0.738546
0.272975,-0.916904,-0.958859,-0.556420,-0.058512,0.828838
-0.015551,0.356753,0.724338,-0.611642,0.473216,-0.634004
0.521932,0.292354,0.723665,0.989366,0.126312,0.072116
0.021012,0.179001,0.251571,-0.933205,0.122686,-0.337753
-0.008959,0.209722,0.224477,0.628316,-0.684096,-0.370449
0.282709,-0.200321,-0.780465,0.973091,0.223095,0.057634
-0.007396,0.537088,0.851432,-0.544981,0.759197,0.355832
0.580151,0.193936,-0.962324,0.374334,0.692879,0.616274
0.755024,0.448032,0.776395,-0.051013,-0.139439,0.988916
0.346708,0.391523,0.694814,0.831642,0.302407,-0.465748
0.050667,0.011895,-0.187278,0.389336,0.819803,0.419930
-0.215899,0.212014,0.490757,0.073078,0.971639,0.224892
0.534572,-0.431414,-0.954184,0.052200,0.215099,0.975196
0.031864,0.001237,0.285358,0.989846,-0.090548,0.109571
-0.401581,-0.065481,0.043259,-0.494527,0.798381,0.343557
0.469895,-0.639338,-0.944944,-0.059909,0.725703,0.685395
0.284322,-0.090778,-0.979831,0.074610,0.071226,0.994666
-0.272960,0.242143,0.310022,-0.705996,0.647896,-0.286008
0.090364,-0.045616,-0.988859,0.196566,-0.780796,-0.593059
-0.536167,-0.147877,0.037036,0.939415,-0.268665,-0.212882
-0.329147,0.059424,0.720660,0.972212,0.166573,0.164490
0.073007,-0.135911,-0.085508,-0.501286,-0.861281,-0.083113
-0.504759,-0.105669,0.295510,0.560752,0.810740,-0.168103
0.130787,0.619203,0.754817,-0.156288,-0.321348,0.933975
-0.404313,0.231918,0.227537,0.526604,0.637967,0.561860
-0.026353,0.335716,0.918622,0.971667,0.101334,-0.213530
-0.075042,-0.113921,-0.176975,0.846407,-0.447062,0.289363
0.360935,0.347118,0.864947,-0.411084,0.793165,-0.449332
0.510830,-0.477328,-0.940069,0.576680,0.666151,-0.472951
-0.169595,0.593378,0.731867,0.031473,-0.279746,0.959558
0.413192,-0.701821,-0.950054,0.040887,-0.767361,0.639911
-0.211638,0.078853,0.258184,-0.088360,0.837302,0.539553
-0.651072,0.580259,0.728699,-0.412246,0.205241,-0.887654
0.378810,0.167986,-0.955280,0.289322,0.816356,0.499856
0.176722,0.254502,0.706020,0.063055,0.913618,0.401655
0.615668,-0.529432,-0.951211,0.183905,-0.960314,0.209704
0.433910,-0.879784,-0.949365,0.721848,-0.581641,-0.375006
-0.016536,0.240569,0.810224,-0.284292,0.858266,-0.427267
0.118870,-0.774003,-0.972074,-0.667498,-0.320606,0.672055
0.354529,0.093517,-0.988378,0.400314,0.499587,0.768220
-0.103641,0.237201,0.604368,0.426137,0.801563,-0.419409
-0.082416,-0.231601,-0.211567,0.965350,-0.210088,-0.154797
0.004653,0.196540,0.573527,0.871307,-0.120093,-0.475817
0.138164,-0.038096,0.619185,-0.754515,-0.331244,-0.566556
-0.103410,0.275138,0.821504,-0.784458,-0.530135,0.321842
0.345811,-0.303742,-0.976870,0.841945,0.190714,-0.504735
-0.099445,-0.467764,-0.966696,-0.668902,-0.629788,0.394888
-0.097674,0.368893,0.825788,0.910867,0.411664,0.029216
-0.364658,0.690942,0.777635,0.958379,-0.117678,-0.260118
-0.026717,0.373936,0.767370,-0.494048,0.417959,0.762382
-0.239495,0.422586,0.840532,-0.575191,-0.817491,-0.029379
0.173536,0.262500,0.392584,-0.052438,-0.993511,-0.100928
-0.265759,0.152981,0.216171,0.955311,0.283425,-0.083971
0.576301,0.019850,-0.961490,0.966870,0.233521,-0.103105
0.117245,0.137064,0.793294,0.687863,0.566285,0.454056
0.271779,-0.003253,-0.965459,0.949667,0.191989,0.247533
-0.011175,-0.010114,0.333908,-0.019526,-0.347327,0.937541
-0.002831,0.036681,0.240924,0.345747,-0.814243,0.466335
-0.266211,0.006412,0.707493,0.771939,-0.529470,0.351813
0.500258,-0.322851,0.654108,-0.443592,-0.340586,0.828992
0.033265,-0.087603,0.699126,-0.236670,-0.929547,0.282718
0.216285,0.674639,0.688907,0.921383,0.170491,0.349266
0.518990,-0.787676,-0.946007,0.799165,0.151205,-0.581784
0.069852,-0.504370,-0.973431,0.870401,0.430032,0.239740
0.327340,0.334308,0.612773,0.658849,0.748694,-0.073320
0.721787,-0.267553,-0.947768,-0.269239,-0.106557,-0.957160
0.365846,-0.226137,-0.955201,0.602572,0.330468,-0.726428
-0.643819,0.662093,0.767260,0.860773,0.481678,0.164487
0.352495,0.323721,0.632761,-0.398139,-0.892614,-0.211486
-0.017053,0.034816,0.373772,0.924553,0.378487,-0.044160
0.326147,-0.067815,0.711324,0.654331,0.756208,-0.000433
0.022884,-0.090713,0.353784,0.879027,0.045555,0.474591
-0.165938,0.000068,0.017557,-0.504283,0.443560,-0.740914
-0.296263,0.147112,0.797026,0.931077,-0.116799,-0.345622
-0.005991,0.448394,0.832926,-0.435253,-0.206989,-0.876191
-0.006368,0.306372,0.641870,0.268062,0.181446,-0.946161
0.520060,-0.174992,-0.948800,0.392751,0.202997,-0.896961
0.071715,0.505239,0.860922,-0.162786,-0.313001,0.935698
-0.297687,0.043792,0.826909,-0.585381,-0.384241,-0.713924
-0.036272,-0.006250,-0.001275,-0.603695,-0.560871,0.566547
-0.017282,-0.168038,-0.280290,-0.680937,0.716987,0.149178
0.435761,0.247397,-0.959234,0.237859,0.148226,0.959923
0.247360,-0.018183,-0.517768,0.992245,0.100455,0.073202
-0.006351,-0.291277,-0.964848,-0.692498,0.412502,0.591852
-0.295407,-0.652996,-0.265565,-0.198892,0.935617,0.291656
0.128365,0.012966,-0.219075,0.961001,0.092038,-0.260778
0.203781,-0.285211,-0.963458,0.250188,-0.595298,0.763562
0.192165,0.702474,0.725366,0.398213,0.374711,-0.837269
0.545926,-0.651206,-0.954002,0.279932,0.742744,0.608252
0.169171,0.411442,0.529008,0.369133,0.927801,0.054085
0.335804,-0.618324,-0.949008,-0.628432,0.582840,0.515141
0.084409,0.024771,-0.413190,0.031835,-0.902281,0.429973
-0.228379,0.113190,0.616336,0.008341,0.957425,0.288562
0.053250,-0.240037,-0.111319,0.965899,-0.136266,-0.220161
0.137452,0.103710,-0.262525,0.951863,0.305268,-0.027709
0.689383,-0.078461,-0.940476,-0.202298,0.897005,0.393011
0.068832,-0.678161,-0.961088,0.563735,0.621362,0.544162
-0.200260,0.062090,0.290223,-0.541312,-0.839827,0.040898
-0.087502,0.097079,0.686111,0.422579,-0.056664,0.904553
-0.031712,0.140252,0.219708,0.460801,0.875798,-0.143663
0.642416,-0.262701,-0.934724,0.896872,-0.316040,0.309417
0.212956,-0.044892,-0.466264,-0.566721,0.793618,0.221354
-0.040311,-0.047571,-0.074871,-0.095500,0.881767,-0.461917
-0.120152,-0.032748,-0.148332,0.795518,0.464492,-0.389099
0.006428,0.299656,0.791698,-0.688393,0.586482,0.426794
0.646685,-0.504092,-0.933469,0.414903,0.218139,-0.883329
-0.014165,0.353051,0.935486,0.870499,0.311977,-0.380659
-0.055362,0.020513,0.247078,-0.136090,0.971639,0.193381
0.305929,-0.277805,-0.979183,0.032290,0.266754,-0.963224
-0.162688,-0.180221,-0.172070,0.867602,-0.017096,0.496965
-0.125514,0.120855,0.148285,-0.666162,-0.742942,0.065302
0.405074,-0.245783,-0.953292,-0.277393,0.702214,0.655705
0.861622,-0.046347,-0.956013,0.244667,0.138913,0.959605
-0.244436,0.234244,0.805546,-0.103943,-0.803144,-0.586647
0.190048,-0.320432,-0.970082,-0.433188,0.100725,-0.895658
-0.209864,0.338393,0.846513,-0.566549,-0.481637,0.668616
-0.317725,0.402003,0.729401,0.432299,0.779178,0.453872
0.361071,-0.712169,-0.951509,0.164743,0.258098,-0.951969
-0.116620,0.105969,0.248607,0.709145,0.698002,-0.099531
0.633814,0.047787,-0.961415,-0.253208,-0.682300,0.685823
-0.072861,-0.125640,0.379625,0.755498,-0.329257,-0.566403
0.613038,-0.208812,-0.945424,-0.165955,-0.936884,0.307746
0.346187,0.139531,-0.984999,-0.511067,0.172831,-0.841986
0.835916,-0.052277,-0.928124,0.196117,-0.381458,0.903343
0.205594,-0.438484,-0.972475,-0.218203,0.660378,0.718532
-0.038460,-0.159658,0.524040,-0.719907,0.045866,0.692553
-0.043432,-0.012347,0.726548,-0.507892,-0.837723,0.200665
-0.129153,0.219064,0.407612,0.298188,0.952082,-0.068001
0.020932,0.029807,0.340685,0.484577,0.793240,-0.368722
-0.281265,0.129837,0.293483,0.914133,-0.068785,-0.399537
0.368776,-0.034115,0.625249,0.520446,0.835744,0.175122
0.037984,-0.344046,-0.959217,0.701194,0.096512,-0.706408
0.278305,-0.397636,-0.958775,0.872137,0.135822,-0.470032
-0.071126,-0.468399,-0.975674,0.001510,0.623689,0.781671
-0.033443,-0.469466,-0.963677,-0.346215,0.616009,0.707579
0.452349,-0.367885,-0.943604,0.456441,0.456013,0.764012
0.457450,-0.170026,-0.946171,0.800152,-0.521018,0.297147
0.118786,-0.553441,-0.974921,0.634745,0.769310,0.072533
0.191578,-0.117250,-0.944320,-0.160547,-0.532279,0.831206
-0.388802,-0.601695,-0.280778,0.240766,0.816909,0.524111
-0.455743,0.213129,0.776393,0.554600,0.783228,0.281020
-0.002890,-0.211375,-0.090005,0.546893,0.541087,0.638852
0.912440,-0.263746,-0.935523,0.915932,0.271444,-0.295614
0.481685,-0.254783,-0.949181,-0.332647,0.913811,-0.233014
0.327949,-0.283869,-0.898600,0.842717,-0.491040,-0.220699
0.398555,0.106828,-0.983745,0.814627,-0.120285,-0.567374
-0.104343,0.356818,0.768359,0.963301,-0.175409,0.203181
-0.094136,0.014557,0.305883,-0.210850,0.749151,0.627945
0.438682,-0.536733,-0.934369,0.553642,0.699984,0.451112
0.414731,-0.209712,-0.966584,0.305018,-0.704133,-0.641219
-0.082891,0.100986,0.099305,-0.681566,-0.731408,0.022581
0.325705,-0.003209,-0.960990,0.142355,-0.981931,0.124688
0.286034,-0.270137,-0.962859,0.693531,0.675630,0.250078
0.328953,-0.053432,-0.973608,-0.200875,0.088569,0.975605
0.407702,0.017782,-0.974766,-0.037018,0.529103,0.847750
-0.093016,-0.144767,0.361755,0.020402,-0.999114,0.036819
0.797587,-0.024973,-0.951363,-0.614530,-0.708538,-0.346881
-0.105908,-0.028543,-0.020584,0.615347,0.748748,0.246425
0.055330,0.645593,0.742050,0.386859,0.899838,0.201575
0.291096,-0.668205,-0.958923,0.725563,0.250547,-0.640925
0.159802,-0.654431,-0.960889,-0.108137,0.275909,0.955082
0.135100,0.277014,0.533866,0.210652,0.919846,0.330922
-0.081733,0.314173,0.427563,-0.549328,0.835603,-0.002296
0.052094,-0.249179,-0.123836,-0.068957,-0.954114,0.291395
-0.023929,0.024435,0.380371,-0.703510,-0.434047,-0.562741
-0.123103,0.428847,0.782637,-0.013212,0.519920,0.854113
-0.341899,-0.178904,-0.030415,-0.150356,0.963466,0.221644
-0.278312,0.323116,0.185913,0.570155,-0.476018,-0.669575
-0.030115,0.283735,0.610104,0.380266,0.923152,-0.056464
0.659108,-0.345211,-0.931253,-0.104634,0.886193,0.451346
-0.219176,0.195530,0.961418,-0.664335,0.705034,-0.248165
0.681618,-0.046242,-0.956522,0.742412,0.669782,-0.014704
0.661106,-0.040170,-0.966429,0.437327,0.490009,-0.754080
0.205164,0.759071,0.759601,0.906232,0.401296,0.133064
-0.230622,-0.181923,0.045340,0.780390,-0.147410,0.607669
-0.273454,0.172192,0.226212,0.878424,0.202628,0.432796
0.326508,0.419493,0.569871,0.914810,0.328417,-0.235085
-0.264686,0.089087,0.801942,0.804716,0.591845,0.046390
-0.198187,0.186637,0.267539,0.353662,0.671956,-0.650691
-0.063488,0.334325,0.780842,0.892748,0.429740,-0.135371
0.344364,0.303976,0.553001,0.254167,0.945794,0.202172
0.028237,0.119447,0.790592,-0.622595,-0.230827,0.747726
-0.062254,0.106090,0.378570,0.746272,0.021688,-0.665288
-0.502545,0.308363,0.732929,-0.427829,-0.213890,0.878188
0.069661,-0.009795,0.074353,0.979452,-0.201640,0.003826
-0.001751,0.231162,0.646625,-0.360026,0.908509,0.212115
0.129350,0.024378,-0.141222,0.658448,-0.672955,0.337012
-0.253256,0.154268,0.727892,-0.540965,-0.561155,-0.626468
0.083073,-0.000092,-0.358698,0.931260,-0.118972,-0.344383
-0.489335,-0.288019,0.022528,-0.163008,0.746817,0.644742
-0.155014,-0.321222,-0.989859,-0.528000,0.113009,-0.841692
-0.052677,0.096028,0.385496,0.941446,-0.246263,0.230292
-0.017591,0.324573,0.683445,-0.878736,0.344191,-0.330690
-0.047372,0.065515,0.071134,-0.192364,0.839859,-0.507575
0.517116,-0.002806,-0.969738,-0.451550,0.089397,-0.887756
0.241521,-0.149196,-0.588985,-0.077074,-0.810249,0.580996
-0.082722,-0.046932,0.350963,0.969276,-0.236537,0.067491
-0.438283,0.227563,0.790185,0.186557,0.873768,0.449139
0.455890,-0.194489,-0.856850,-0.420651,-0.885751,-0.196210
-0.021528,0.138728,0.368762,-0.727765,0.573765,-0.375702
-0.124010,0.339457,0.861238,0.676158,0.543616,-0.497285
-0.679260,0.818074,0.747026,-0.399345,-0.714283,0.574738
-0.002625,0.589405,0.715250,-0.497295,-0.163844,-0.851970
0.101750,0.860524,0.781336,-0.683503,-0.728413,-0.047323
0.391738,0.499957,0.768132,0.521403,0.635245,-0.569739
0.134032,0.685562,0.736767,0.858571,0.066763,-0.508330
0.049682,0.635388,0.731387,0.528796,-0.447684,0.721079
0.517908,0.191920,0.729849,-0.324960,-0.770525,0.548353
-0.369005,0.280302,0.221809,-0.199911,0.544086,0.814866
-0.154616,0.010160,0.534493,0.894697,-0.284880,-0.344035
-0.020085,0.086037,0.377933,0.888915,0.454974,-0.053194
0.270920,-0.225036,-0.647135,0.592709,0.763890,-0.255282
0.001704,0.252971,0.612401,-0.633880,-0.771529,0.054218
0.521745,-0.579849,-0.935004,-0.300013,0.206786,-0.931253
