-0.242481,0.583651,0.261442,0.837931,-0.213434,-0.502312
-0.224137,0.572795,0.276739,0.866339,-0.002444,-0.499450
-0.200413,0.557418,0.289726,-0.412449,0.428422,0.803953
-0.143036,0.509179,0.281501,0.939777,-0.267946,-0.212189
0.465791,-0.062110,-0.080887,0.919210,-0.364539,0.148876
0.098898,0.295053,0.192717,0.208519,0.413095,-0.886494
0.298757,0.145808,0.236117,0.035674,0.108001,-0.993511
0.449240,0.011810,0.177168,-0.522077,0.662157,-0.537572
0.381243,0.081771,0.242683,0.470211,-0.793469,0.386405
0.294068,0.175012,0.342362,0.524973,0.142144,0.839166
0.380965,0.112102,0.370429,0.563844,-0.700738,0.437088
-0.089654,0.555016,0.655144,-0.455150,-0.859410,-0.232923
0.419998,0.099549,0.449076,0.925188,0.133158,0.355382
0.154070,0.351471,0.617552,0.790616,0.399688,0.463870
0.184828,0.328768,0.624082,0.896286,0.414803,0.156874
0.275033,0.256259,0.623974,-0.094237,-0.002960,0.995545
0.061793,0.458960,0.760776,0.766843,0.386263,-0.512594
0.077381,0.449929,0.774881,0.788903,-0.148340,0.596345
0.238345,0.307038,0.712866,0.877737,0.346359,0.331079
0.441516,0.125214,0.630215,0.161306,0.438890,0.883943
0.350481,0.214503,0.700203,-0.184677,-0.937263,0.295689
0.408275,0.166686,0.693674,0.767280,0.149489,0.623646
0.449518,0.134384,0.695874,-0.128058,-0.405973,0.904868
0.474206,0.122253,0.728812,-0.328506,-0.420617,-0.845675
0.425243,-0.277502,-0.594145,-0.343126,0.756019,-0.557405
0.433102,-0.276934,-0.567449,-0.289505,0.957176,0.001018
0.435724,-0.271295,-0.536315,0.198696,-0.973342,0.114566
0.453243,-0.280326,-0.514958,0.977249,-0.116669,0.177121
0.470619,-0.289065,-0.493781,0.715113,-0.670144,-0.198798
0.492550,-0.302185,-0.476681,0.976106,-0.041170,0.213361
0.474206,-0.277218,-0.434471,0.834621,-0.548416,0.051459
0.476828,-0.271863,-0.404456,-0.533506,0.780758,0.325252
0.471036,-0.259164,-0.370869,-0.515653,0.855181,0.052603
0.458757,-0.232079,-0.300880,-0.898510,0.438235,-0.025088
-0.453655,0.640784,0.289474,0.844055,0.434541,-0.314239
-0.419584,0.615111,0.295101,0.100932,-0.710519,0.696402
0.402895,-0.157323,-0.178112,0.794663,-0.004670,0.607033
-0.255446,0.478986,0.275368,-0.553639,-0.032279,-0.832131
-0.216413,0.448948,0.279228,0.418535,-0.213127,0.882839
0.382346,-0.116410,-0.078830,-0.747240,0.471145,-0.468673
0.440691,-0.164374,-0.084638,0.938827,-0.271117,0.212364
0.050070,0.256405,0.360869,0.262184,0.854340,-0.448734
0.419998,-0.083970,0.175617,0.824793,0.053307,-0.562916
0.111312,0.211266,0.376201,0.936063,-0.248145,-0.249420
0.552827,-0.189057,0.179296,0.107799,-0.166538,0.980125
-0.144829,0.481526,0.644032,-0.410882,0.630615,-0.658408
0.279862,0.091078,0.434284,0.868868,-0.055334,-0.491941
0.002345,0.355845,0.610373,0.383477,0.841311,-0.380975
0.507864,-0.115282,0.333920,-0.654259,0.017165,-0.756076
0.024827,0.340615,0.622495,0.182496,0.858794,0.478715
0.057517,0.316069,0.628159,0.377521,-0.311338,-0.872093
0.122344,0.262045,0.617480,0.547316,0.732384,-0.405043
0.150067,0.242157,0.626571,-0.410512,-0.621291,0.667441
0.290620,0.117320,0.575631,0.820984,-0.237800,0.519072
0.617104,-0.185811,0.401383,0.260284,-0.383159,0.886251
0.567311,-0.134042,0.451817,0.118039,0.092645,-0.988678
0.330205,0.091930,0.600993,-0.550650,0.100761,-0.828632
0.097518,0.313529,0.747535,0.813085,-0.263560,0.519065
0.486758,-0.041232,0.566324,0.428248,-0.285839,0.857263
0.246759,0.186574,0.715536,-0.575283,0.604590,0.550927
-0.064554,0.480260,0.900355,0.253155,0.026864,-0.967053
-0.037795,0.460932,0.908978,0.386918,0.895396,0.220364
-0.006069,0.436954,0.914136,0.999950,-0.009678,-0.002431
0.556826,-0.082704,0.625056,0.992561,0.071956,0.098207
0.007035,0.430325,0.928711,-0.451420,-0.491737,-0.744590
0.623725,-0.133483,0.636889,0.159574,-0.272141,-0.948934
0.622757,-0.093561,0.795986,-0.685872,0.632927,0.359142
0.396000,-0.346481,-0.428555,-0.656546,0.752233,-0.055610
0.379723,-0.323201,-0.386670,0.986955,0.146183,0.067462
0.377656,-0.313051,-0.354021,0.869190,-0.472909,0.144448
0.346621,-0.275530,-0.303586,-0.701325,0.708741,0.076357
0.375312,-0.295272,-0.291753,-0.139894,0.580847,0.801902
-0.438206,0.489567,0.238570,0.271142,-0.813486,0.514511
0.383310,-0.295272,-0.267221,0.964587,-0.099096,0.244442
0.365378,-0.270305,-0.225842,0.706211,0.565871,-0.425507
-0.415447,0.481672,0.278867,-0.207313,-0.221853,-0.952787
0.422069,-0.317140,-0.231469,-0.647239,-0.749054,0.141419
0.416829,-0.304725,-0.198315,0.563021,0.790344,0.241587
-0.346759,0.430041,0.292035,0.335681,0.497610,-0.799814
0.422069,-0.302048,-0.171619,0.799217,0.585421,0.136140
0.407724,-0.280463,-0.133378,0.895199,-0.414042,0.164886
-0.221793,0.325100,0.270606,-0.790497,0.408514,0.456324
0.466347,-0.328987,-0.140124,0.954228,-0.258283,0.150792
0.253241,-0.098503,0.097872,0.950847,-0.212221,0.225504
0.216136,-0.049128,0.174679,-0.327986,0.758745,-0.562789
0.488964,-0.286809,0.098341,-0.578521,-0.814398,0.045502
0.071862,0.113514,0.361518,-0.099781,-0.299341,0.948915
0.415309,-0.210219,0.166634,0.988705,0.142015,0.047907
0.084688,0.108150,0.380458,0.791802,-0.453704,-0.408903
0.507446,-0.283141,0.168509,-0.145248,0.590493,0.793865
0.218347,-0.004409,0.357081,0.170484,0.388166,0.905683
0.235310,-0.014285,0.372413,0.778778,0.211882,-0.590433
-0.214481,0.414811,0.646414,0.813262,0.041883,-0.580388
0.299309,-0.068034,0.361734,0.186430,0.205913,0.960648
-0.119447,0.331868,0.618382,0.966794,-0.242170,0.081633
0.427171,-0.174808,0.341965,-0.678381,0.355230,-0.643125
-0.075864,0.303232,0.642265,0.057878,-0.994330,-0.089211
0.563035,-0.289348,0.319417,-0.347547,0.658730,0.667298
0.411861,-0.141240,0.426852,0.908890,0.078662,0.409550
0.295722,-0.014147,0.562067,-0.599927,-0.333734,-0.727124
0.311175,-0.022326,0.577399,0.913053,0.407624,0.013320
0.424826,-0.122480,0.541503,0.129142,-0.872532,-0.471180
0.463447,-0.151959,0.545724,0.015463,0.755575,0.654880
0.508966,-0.188351,0.545977,0.666889,0.744926,-0.018550
0.244137,0.064139,0.706913,0.386455,-0.591722,0.707473
0.460829,-0.125441,0.641074,-0.855015,0.039104,0.517127
0.180968,0.140169,0.807278,-0.527300,-0.373480,0.763196
0.221794,0.108150,0.809298,0.910951,0.375302,-0.171224
0.414206,-0.042076,0.823693,0.539218,0.712718,0.448640
0.369103,0.005181,0.867670,0.686145,0.641499,-0.343051
0.415726,-0.032063,0.866876,0.914562,-0.231373,-0.331728
0.407033,-0.018659,0.893248,0.280400,-0.306205,0.909733
0.255308,-0.398388,-0.550168,-0.342098,0.905633,-0.250594
0.291033,-0.424345,-0.541582,-0.279034,0.745484,-0.605305
0.024554,-0.116410,-0.183885,-0.213798,-0.703149,-0.678138
0.105103,-0.171003,-0.145391,-0.059215,0.426920,0.902349
0.169792,-0.225027,-0.155276,0.148149,0.670225,0.727221
-0.413931,0.343860,0.231968,-0.155412,0.533059,0.831682
0.219862,-0.265233,-0.155998,0.071229,0.243147,0.967371
-0.424829,0.361493,0.266349,0.816557,-0.178971,-0.548821
-0.367860,0.313529,0.258015,-0.324042,0.543092,0.774628
-0.334758,0.288984,0.264401,0.369222,0.490223,0.789529
-0.280967,0.244835,0.259530,0.497506,0.841911,-0.208984
0.332827,-0.342951,-0.108593,0.985005,0.064711,-0.159932
-0.242342,0.214934,0.262669,0.844624,0.482943,0.231031
0.358483,-0.359877,-0.095822,0.935208,0.119744,-0.333238
-0.200413,0.181925,0.265050,0.973116,0.113056,-0.200660
0.390343,-0.382873,-0.085649,-0.714565,0.667361,0.209824
0.392553,-0.377226,-0.057978,0.806553,-0.559788,-0.190024
0.397655,-0.374548,-0.032328,0.827731,0.470126,0.306337
0.379862,-0.350424,0.005408,0.779681,0.616679,-0.108646
0.309243,-0.275952,0.073701,0.554318,-0.603852,0.572796
0.392137,-0.347462,0.053570,-0.583860,0.494656,-0.643757
0.393378,-0.341255,0.079653,0.763025,0.561039,-0.320980
0.385242,-0.326593,0.111906,-0.142337,0.934233,0.327031
-0.032276,0.077113,0.377428,0.250441,-0.965150,-0.075931
0.367449,-0.302470,0.149461,0.122868,-0.991753,0.036454
-0.039723,0.091224,0.407768,0.916646,0.398925,-0.024891
0.422208,-0.340127,0.171792,0.755299,0.536814,0.375971
0.463173,-0.371870,0.174715,-0.646579,-0.708220,-0.283480
0.486619,-0.387384,0.188387,0.925989,0.271883,-0.261964
-0.095033,0.170078,0.537787,0.993067,-0.107372,0.047842
-0.137930,0.217043,0.586418,0.544155,0.251264,-0.800476
0.394759,-0.286524,0.291458,0.831825,-0.554061,0.032905
0.408002,-0.292026,0.310290,-0.110403,-0.983469,0.143525
0.400138,-0.277502,0.340991,0.393873,0.834500,0.385322
0.403864,-0.274540,0.363683,0.563257,0.803531,-0.192562
0.399860,-0.264097,0.390560,0.973291,0.119504,-0.196017
0.412274,-0.269177,0.409283,0.966700,0.023445,0.254835
-0.318346,0.424686,0.826254,0.142242,-0.238658,0.960630
0.375312,-0.228135,0.453260,0.821842,-0.365181,-0.437285
0.390070,-0.235324,0.470325,0.939998,-0.320764,0.116251
0.368274,-0.208385,0.506726,0.890180,0.135055,-0.435132
0.389931,-0.222066,0.519894,-0.667572,-0.720728,0.186813
0.426068,-0.249573,0.524475,0.920567,0.382677,0.078199
0.347446,-0.169875,0.589196,-0.391223,-0.582335,0.712622
0.272550,-0.093139,0.652438,0.995248,0.046098,0.085770
0.230899,-0.048421,0.696812,0.960572,-0.080292,0.266187
0.140550,0.042555,0.766981,0.745075,0.635772,-0.201638
0.103310,0.083605,0.809262,-0.431278,0.510256,0.744069
0.106345,0.092636,0.852807,0.936224,-0.026514,0.350402
0.048412,0.152300,0.903890,0.512635,0.615160,0.598985
0.091726,0.117741,0.904215,-0.620370,0.698306,-0.357086
0.187585,0.033954,0.877447,0.784435,0.218242,-0.580545
0.204001,0.024647,0.891336,0.919197,-0.216848,0.328716
0.404688,-0.156195,0.813555,0.885037,-0.458195,0.082256
0.437795,-0.181300,0.819544,-0.660315,0.750111,-0.036305
0.430206,-0.162678,0.866335,0.914318,-0.221830,0.338841
0.211864,-0.294850,0.594752,0.893698,-0.124271,-0.431115
0.172002,-0.250701,0.638910,0.806241,0.252702,0.534899
0.178206,-0.249994,0.659437,-0.093941,-0.278599,0.955802
0.338897,-0.395710,0.598648,-0.058869,0.853936,0.517037
0.161243,-0.448038,-0.562542,-0.033590,-0.805502,0.591641
0.247311,-0.445076,-0.301061,0.623657,-0.756271,-0.197752
-0.596413,0.380253,0.253037,0.657405,-0.095233,0.747495
-0.527721,0.321433,0.237451,0.051139,0.050837,0.997397
-0.421516,0.240883,0.254047,-0.646317,-0.518719,0.559648
-0.317794,0.170922,0.300297,-0.781152,0.402916,-0.476929
-0.174206,0.040161,0.241131,0.823888,0.385875,0.415101
0.000965,-0.120784,0.165082,0.720370,-0.413449,0.556890
0.038621,-0.149841,0.169375,-0.568126,0.742303,-0.355272
0.347172,-0.429846,0.045164,0.936225,-0.269731,0.225229
0.361106,-0.435486,0.065114,0.815305,-0.462636,-0.348203
0.385516,-0.451568,0.077778,-0.800541,0.598845,0.022783
0.318760,-0.365947,0.195855,-0.702291,0.406228,-0.584608
0.094896,-0.131081,0.400841,0.792857,-0.070000,0.605375
0.479446,-0.461581,0.315521,0.923621,0.326728,-0.200434
-0.298621,0.294769,0.809046,0.828167,-0.390224,0.402323
-0.129655,0.147642,0.764780,-0.483028,-0.826771,0.288327
-0.077792,0.105043,0.759874,0.274999,0.083902,0.957777
0.241102,-0.189057,0.615279,0.492629,-0.749183,0.442765
0.291449,-0.230107,0.612863,0.859588,0.454976,-0.232604
0.406621,-0.332094,0.576750,0.278979,0.954671,-0.103799
0.149516,-0.083970,0.733249,-0.412055,0.908722,0.066600
0.405657,-0.318552,0.623397,-0.269436,-0.085809,0.959188
0.191171,-0.104564,0.779571,0.808858,-0.571784,0.137158
0.173795,-0.082136,0.811283,-0.397794,0.668110,0.628800
0.554898,-0.432808,0.641182,-0.379420,0.876420,-0.296528
0.133381,-0.025994,0.898515,-0.603414,0.446309,-0.660833
0.528826,-0.395986,0.700167,-0.090607,0.940208,-0.328329
0.334069,-0.207679,0.819652,-0.268956,-0.701516,-0.659953
0.183998,-0.461022,0.301740,0.885843,0.200853,0.418258
-0.209379,-0.075369,0.545616,-0.765413,-0.206592,0.609477
-0.155450,-0.120646,0.539627,0.708761,0.641606,-0.293255
-0.546895,0.224809,0.289077,0.178901,0.757338,0.628040
-0.467035,0.154556,0.266926,-0.400072,-0.661976,-0.633822
-0.425932,0.122253,0.268586,-0.078129,0.609001,0.789312
-0.411035,0.115624,0.287056,0.045765,0.995855,0.078597
-0.333377,0.047781,0.266782,0.536601,0.783884,-0.312387
-0.304413,0.027463,0.276883,0.737972,0.482310,0.471990
0.250207,-0.438732,0.195891,-0.128501,-0.974420,-0.184370
0.254206,-0.435064,0.219882,0.410641,0.893939,0.179574
-0.030896,-0.147025,0.431939,0.862977,0.424154,0.274526
-0.159036,-0.017531,0.527939,0.993027,0.108050,0.047147
0.139173,-0.288221,0.413576,-0.318192,-0.947388,0.034772
-0.106070,-0.047156,0.573647,0.742051,0.539553,-0.397798
0.101378,-0.210779,0.581260,0.008493,-0.874426,0.485085
-0.314894,0.191800,0.827589,0.882347,-0.143407,0.448216
0.232136,-0.327859,0.536056,0.698577,0.381785,0.605170
0.261239,-0.348590,0.545147,-0.444648,0.886233,0.129921
0.361657,-0.410234,0.610878,-0.268378,0.729592,0.629022
0.051173,-0.109781,0.794940,-0.534735,-0.438362,0.722424
-0.061241,0.002642,0.875463,0.793513,0.504465,-0.340370
0.030619,-0.078047,0.850245,-0.439057,-0.896051,0.065738
0.042759,-0.083264,0.865866,0.973357,0.164780,0.159446
0.009657,-0.045881,0.905045,-0.072847,0.744811,0.663287
0.112554,-0.130237,0.897325,-0.489002,-0.614436,0.619149
0.212137,-0.211347,0.892274,-0.106099,-0.994281,0.012189
0.362621,-0.340558,0.860635,0.340556,-0.009034,-0.940181
-0.753101,0.293220,0.320716,0.587016,0.416152,-0.694428
-0.699861,0.256965,0.342254,0.713107,0.400944,-0.575085
-0.574622,0.142425,0.292180,0.518648,0.390871,0.760411
-0.615035,0.189545,0.344093,0.389171,0.878092,-0.278387
-0.541381,0.125920,0.326993,0.557234,-0.814866,0.159635
0.181380,-0.466238,0.276739,0.933292,0.290660,0.210911
-0.124414,-0.143496,0.547420,0.857569,0.305966,0.413474
-0.147999,-0.113733,0.584326,-0.019496,0.332640,0.942852
0.026208,-0.258879,0.563943,-0.079366,-0.827551,0.555753
0.014068,-0.240541,0.594103,0.663449,-0.683697,0.303965
0.214209,-0.396554,0.607415,0.567199,0.064511,-0.821051
-0.055171,-0.133483,0.772031,0.231385,0.948679,0.215568
0.125657,-0.298664,0.700348,0.428384,0.030757,0.903073
-0.001241,-0.171425,0.788771,-0.525597,0.449283,-0.722422
-0.019312,-0.147869,0.821023,-0.689551,-0.153375,0.707810
0.262481,-0.408547,0.698616,0.236375,-0.601061,0.763448
0.361518,-0.495580,0.671559,-0.512077,-0.782167,-0.354953
0.030207,-0.175376,0.862980,-0.260381,0.788143,-0.557703
-0.812136,0.216905,0.289762,0.819003,0.277631,-0.502151
-0.726893,0.149054,0.291458,0.507517,0.149972,-0.848490
-0.708827,0.139747,0.308414,-0.187200,-0.077410,0.979267
-0.664549,0.104483,0.308883,-0.180104,-0.237546,0.954534
-0.644551,0.092912,0.323277,0.986046,0.004206,0.166422
0.028965,-0.445361,0.324612,0.882289,0.220520,0.415858
0.093103,-0.499248,0.315052,0.690985,0.514165,0.508108
0.083585,-0.482313,0.345897,0.978826,0.166455,-0.119129
-0.109791,-0.258742,0.577580,0.772843,0.611422,-0.169934
-0.052687,-0.306421,0.571230,-0.051930,-0.998606,0.009499
0.046758,-0.387522,0.565963,-0.161040,0.941956,-0.294594
0.075448,-0.407695,0.575162,-0.107230,-0.870809,-0.479786
0.266345,-0.583035,0.498536,0.476594,0.782650,0.400398
0.208139,-0.520547,0.553012,0.942517,-0.229480,-0.242901
0.292965,-0.594313,0.532015,-0.498986,0.857843,-0.122958
-0.064966,-0.231234,0.789637,-0.706469,0.412197,-0.575321
0.002207,-0.288643,0.777948,-0.384923,-0.891605,0.238485
0.158898,-0.430974,0.720587,0.809510,-0.333232,0.483373
-0.846758,0.134384,0.273997,0.249125,-0.183410,-0.950946
-0.818480,0.114780,0.284315,-0.546559,0.575748,0.608101
-0.789103,0.093764,0.292793,0.653336,0.686356,-0.319480
-0.754894,0.068228,0.298493,0.451724,0.450172,0.770254
0.028413,-0.520685,0.419781,0.512750,0.805526,0.297009
-0.013793,-0.464964,0.492584,0.990662,0.007698,-0.136125
-0.035446,-0.436476,0.529382,0.875234,-0.323650,-0.359467
-0.147586,-0.320661,0.614883,-0.165704,-0.986071,-0.014388
-0.077518,-0.380893,0.600596,-0.285026,0.928905,-0.236422
-0.163586,-0.291044,0.670152,0.649573,0.426693,-0.629276
-0.153239,-0.293438,0.688695,0.021379,0.854425,0.519134
-0.119308,-0.319395,0.693529,0.203819,0.446923,0.871044
-0.089241,-0.340979,0.701502,-0.219584,-0.615605,-0.756844
0.017103,-0.414607,0.738625,0.417776,0.246922,0.874353
-0.097655,-0.297674,0.821023,0.300572,-0.949638,0.088561
0.243447,-0.617171,0.668167,-0.674149,0.201568,-0.710559
0.441933,-0.799416,0.590928,-0.572242,0.674412,-0.466591
0.428690,-0.779244,0.621593,0.991617,-0.019769,0.127688
0.110344,-0.468632,0.806160,0.523789,0.780073,0.342245
0.165515,-0.514477,0.800315,0.512559,0.682657,-0.520828
-0.207308,-0.388797,0.587212,0.969873,-0.133073,-0.204054
-0.235999,-0.353248,0.627401,-0.256194,0.682306,0.684707
-0.264551,-0.317984,0.666364,-0.242293,-0.337307,-0.909680
-0.152554,-0.418697,0.630612,0.053038,-0.377790,0.924371
-0.186346,-0.378500,0.673002,0.306244,-0.942109,0.136546
-0.245655,-0.314032,0.728451,0.350767,-0.801451,0.484396
0.159310,-0.697713,0.537066,0.857178,0.513677,-0.037178
0.166483,-0.697144,0.556944,0.968769,0.222765,-0.108917
0.156276,-0.636069,0.726792,-0.524418,-0.811072,0.259130
0.099585,-0.574287,0.778814,0.422124,0.575201,-0.700682
-0.382895,-0.345491,0.649768,0.671668,0.330689,-0.662953
-0.293932,-0.424767,0.625670,0.894301,0.269811,-0.356970
-0.269101,-0.440703,0.636889,0.767350,-0.453606,-0.453228
-0.176277,-0.523509,0.610265,-0.494270,-0.332735,0.803110
-0.105931,-0.584585,0.595979,0.814321,0.569120,0.113942
-0.057932,-0.623094,0.594860,0.675290,0.687471,0.267146
-0.005379,-0.666538,0.590423,0.847573,0.503148,-0.168707
0.007586,-0.671333,0.608244,0.134155,-0.990057,-0.042306
-0.440138,-0.426179,0.617372,0.783948,-0.396723,0.477531
-0.419449,-0.438585,0.629602,0.794829,-0.490593,-0.357162
-0.429792,-0.420255,0.658932,0.432967,-0.254654,0.864691
-0.336412,-0.503896,0.632812,-0.655180,0.238700,-0.716771
-0.313930,-0.518007,0.644249,0.910715,-0.394239,0.123183
-0.259032,-0.563991,0.639018,-0.450359,0.269588,0.851175
-0.228414,-0.585574,0.647099,-0.053724,0.288737,-0.955900
-0.171584,-0.632970,0.641038,0.124351,-0.481801,0.867413
-0.095311,-0.699684,0.623757,-0.594943,0.302002,-0.744874
-0.372275,-0.563569,0.696415,0.101531,0.945547,0.309243
-0.291170,-0.634803,0.677511,-0.399900,0.441993,-0.802946
-0.483860,-0.486264,0.661529,0.638408,0.251210,0.727550
-0.436000,-0.524912,0.659870,0.930930,0.019737,0.364663
-0.402343,-0.550164,0.665931,-0.276554,-0.335999,0.900346
-0.313240,-0.629577,0.641218,-0.318942,-0.426543,0.846367
-0.219170,-0.697713,0.662359,-0.260182,-0.845056,-0.467104
-0.060277,-0.836936,0.626896,0.771263,0.626416,-0.112946
-0.008414,-0.879674,0.623974,0.546839,0.792333,-0.270511
0.122623,-1.000000,0.578698,-0.233506,-0.350020,-0.907172
-0.252415,-0.791513,0.610301,0.106777,-0.676576,0.728590
0.656966,-0.649328,0.600885,0.904542,0.242620,-0.350628
0.713518,-0.210779,0.614017,0.367181,0.701015,0.611355
0.809103,-0.275952,0.659004,0.960931,0.012722,-0.276494
0.726070,-0.193999,0.722390,0.661176,0.257638,-0.704605
0.649515,-0.113027,0.804680,0.175708,0.387931,0.904785
0.645929,-0.098640,0.851183,0.764141,0.587653,-0.265991
0.809932,-0.238286,0.815540,-0.356775,0.911167,0.206122
0.771724,-0.198364,0.854935,0.843478,-0.352823,0.405044
0.713931,-0.081714,0.675491,-0.182071,0.730313,-0.658402
0.673794,-0.039398,0.718783,0.808188,-0.514148,-0.287198
0.703862,-0.050961,0.771490,0.312228,0.792593,-0.523746
0.646619,-0.080586,0.451529,0.826225,0.214670,-0.520835
0.676274,-0.096669,0.483348,-0.291325,0.855178,0.428719
0.635309,-0.020070,0.669250,-0.470770,0.835342,0.283866
0.730759,0.028737,0.677511,0.682507,0.620863,-0.385634
0.656276,0.106876,0.759693,-0.654514,-0.756049,0.000517
0.688001,0.083183,0.765754,-0.671050,-0.741383,0.006616
0.689655,0.086566,0.787436,-0.781164,0.308764,0.542631
0.752000,0.034798,0.779247,-0.457521,-0.768073,0.448038
0.822206,-0.023738,0.767414,0.913197,0.390277,-0.117279
0.696138,0.100677,0.871638,-0.723394,0.686212,0.076246
0.695725,0.105749,0.893609,-0.606099,0.739266,0.293478
0.717517,0.091078,0.904468,-0.669577,0.741943,0.034462
0.656137,0.200685,0.742304,0.467874,-0.883318,0.029028
0.678206,0.190672,0.775856,0.907732,0.411486,-0.081871
0.733929,0.154556,0.814024,0.494434,0.736271,-0.461996
0.780000,0.117879,0.813772,0.893500,0.141429,-0.426210
0.775723,0.126773,0.838195,0.424067,0.375809,0.823975
0.807861,0.102365,0.844653,-0.044842,0.648817,0.759622
0.819584,0.096442,0.860130,0.803228,-0.369471,-0.467242
0.822480,0.098560,0.879828,-0.432820,-0.886221,0.165165
0.859034,0.093480,0.536200,0.986473,0.163923,0.000883
0.772137,0.211825,0.763950,0.782580,-0.157431,-0.602316
0.761239,0.240607,0.856883,0.070902,-0.963661,0.257547
0.800415,0.214649,0.881199,-0.763674,0.287791,-0.577909
0.932415,0.110122,0.882786,0.829054,-0.133100,0.543096
0.715862,0.344704,0.753200,0.122460,-0.770319,0.625789
0.644826,0.290818,0.235756,0.911771,-0.330458,-0.243865
0.655173,0.367691,0.235107,-0.188236,0.862982,0.468860
0.684688,0.345970,0.243981,-0.225872,0.780480,0.582951
0.896139,0.318187,0.909591,0.194483,-0.978446,-0.069417
0.702069,0.413115,0.206426,0.547229,-0.209832,-0.810254
0.675449,0.442740,0.246903,0.972076,0.018341,-0.233949
0.752412,0.498177,0.805077,0.287058,0.435743,0.853069
0.707448,0.536824,0.461558,0.565271,-0.543978,0.620126
0.730620,0.598047,0.230885,-0.153017,-0.139240,0.978365
0.687172,0.702281,0.243476,0.497408,0.161386,-0.852373
0.733794,0.665183,0.242611,-0.308712,-0.466566,0.828863
0.798622,0.682539,0.248202,0.027780,-0.830919,0.555699
0.844550,0.706655,0.259639,0.063092,0.808586,-0.584985
0.875585,0.738674,0.259530,-0.004205,-0.813378,0.581720
0.343447,-0.526746,-0.964145,0.368491,0.125297,-0.921149
-0.165792,0.603117,0.261334,-0.483899,0.024543,0.874779
0.483449,0.256121,0.219233,0.682532,-0.260426,0.682883
0.435446,0.291101,0.362276,-0.851328,0.524263,0.019714
0.135448,0.477858,0.773511,-0.209612,-0.312754,0.926417
0.481930,0.293925,0.769470,0.441733,0.375586,-0.814744
0.398896,0.341174,0.813050,0.909814,0.238498,0.339644
0.059588,0.584925,0.249645,0.699817,0.602743,0.383349
0.334621,0.478848,0.836175,0.837506,0.010953,0.546319
0.583723,-0.198648,0.536092,0.684399,-0.687738,0.242104
0.182205,0.023941,0.718711,0.276647,-0.722467,-0.633646
0.064277,0.089390,0.764744,0.237592,0.614452,-0.752329
0.109792,0.066963,0.794471,-0.672776,0.695641,-0.251905
0.224278,0.008849,0.849812,0.149573,0.567188,0.809892
0.094896,0.079800,0.897794,-0.262737,0.782693,0.564235
0.173244,0.076976,0.379484,0.772912,0.596172,0.217223
0.581240,-0.138700,0.401599,-0.018946,-0.179590,0.983559
0.608550,-0.141662,0.606946,0.299541,-0.169073,0.938983
0.188553,0.092490,0.790503,0.794954,-0.601503,-0.079014
0.234346,0.069502,0.818750,0.994293,0.105705,0.014427
0.125792,0.131568,0.897722,0.412421,-0.226414,-0.882409
-0.344826,0.412271,0.276378,0.478508,0.188092,-0.857701
0.558485,-0.059002,0.412855,-0.428457,0.402388,-0.809017
0.574897,-0.054775,0.619140,0.967783,0.012058,0.251496
0.297515,0.098697,0.716510,0.773557,0.365110,-0.517982
0.376276,0.063011,0.810633,-0.614065,-0.324582,-0.719424
-0.293241,0.473631,0.271435,-0.394792,-0.047239,0.917555
0.136968,0.250620,0.358308,-0.427132,0.303624,0.851687
0.368274,0.128744,0.366677,0.873697,-0.467985,0.132830
-0.030757,0.356697,0.617805,0.150799,0.494422,0.856041
0.207171,0.231154,0.626066,-0.111581,-0.027824,0.993366
0.457242,0.102787,0.701466,0.348353,0.933982,0.079551
0.595585,0.033386,0.754679,0.742415,-0.560319,-0.367237
0.016552,0.348793,0.884229,-0.717933,0.673457,-0.176149
0.418070,0.218033,0.603014,0.858510,-0.500147,0.113199
0.462622,0.203646,0.733249,-0.114018,-0.860952,0.495744
0.619171,0.121831,0.751143,0.870457,0.438024,-0.224587
-0.405929,0.634292,0.284315,0.925383,-0.373080,0.066914
0.271998,-0.197942,0.131820,0.637296,0.235729,-0.733679
0.538069,-0.334350,0.241312,0.068684,-0.969266,0.236233
0.428551,-0.273834,0.288319,0.939674,-0.209037,0.270770
0.406482,-0.260998,0.326344,-0.281955,0.944927,-0.166175
0.395033,-0.253800,0.361662,0.673075,0.739535,0.007559
0.398345,-0.253800,0.396693,0.992865,0.118074,0.016641
0.357102,-0.229969,0.436665,0.792821,-0.596059,0.127078
0.282345,-0.188213,0.480426,-0.336444,-0.869697,-0.361155
0.623725,-0.369193,0.509323,-0.479997,-0.659834,0.578120
0.226483,-0.148291,0.726719,-0.088729,0.838768,0.537210
0.150622,-0.106544,0.768099,0.467839,0.770272,-0.433368
0.036689,-0.044478,0.813411,0.608571,0.728992,0.313386
0.039034,-0.044048,0.847611,-0.012567,-0.885312,0.464828
0.459035,-0.213318,0.344346,0.807407,-0.122784,0.577077
0.443035,-0.201610,0.415489,0.938680,-0.342400,0.040527
0.398067,-0.175661,0.454523,0.972535,-0.176247,-0.152029
0.410898,-0.180731,0.488291,-0.618421,-0.779248,-0.101628
0.390209,-0.168326,0.525630,0.694969,-0.682297,0.226910
0.402071,-0.172974,0.559469,-0.224102,-0.097787,-0.969647
0.410207,-0.176083,0.592154,-0.732011,-0.244919,0.635747
0.350620,-0.142936,0.632271,-0.033856,0.999422,0.003177
0.244688,-0.084254,0.678774,0.923262,0.383413,0.024102
0.088274,0.001514,0.729101,0.858763,0.078720,0.506290
0.177794,-0.044754,0.754029,0.402686,-0.285024,0.869831
0.240690,-0.076075,0.816369,0.719727,0.683547,0.121477
0.034623,0.036210,0.871386,0.848783,-0.164369,0.502544
-0.535445,0.381096,0.253397,0.842123,0.535846,0.060819
0.189243,0.002779,0.374217,0.703911,0.549761,0.449747
0.480688,-0.150271,0.411123,0.833705,-0.104181,0.542293
0.492689,-0.151115,0.512642,0.230126,0.712771,-0.662571
0.261929,-0.341961,0.522672,-0.224908,0.909128,0.350574
0.401241,-0.358887,-0.070857,-0.043744,0.743730,0.667047
-0.524691,0.147082,0.286443,0.594159,0.232242,0.770090
0.170343,-0.205699,0.754462,-0.761540,-0.537151,-0.362664
0.031170,-0.127697,0.873081,-0.550122,0.049645,-0.833607
0.221933,-0.513349,0.281465,0.950021,0.288972,0.118129
0.190620,-0.484430,0.697930,0.883645,-0.251280,0.395007
0.438620,-0.526324,0.665353,-0.554868,0.314767,-0.770093
-0.311998,-0.430553,0.629566,-0.154114,0.292935,0.943630
-0.056139,-0.460875,0.430568,0.939290,0.189110,0.286306
-0.116000,-0.426316,0.539555,-0.508187,0.770755,0.384294
-0.375449,-0.284269,0.671126,-0.590918,0.804754,0.056451
0.647449,-0.017814,0.403691,0.821760,-0.041893,-0.568292
0.731033,0.040446,0.428656,0.087379,-0.878118,-0.470398
0.644414,-0.240404,0.356900,0.198000,-0.977690,-0.070133
0.700553,-0.259301,0.558387,0.172896,0.817982,0.548646
0.662068,-0.171993,0.565927,0.261910,0.950606,0.166585
0.455722,-0.021198,-0.962052,0.278021,0.096980,-0.955667
0.242483,-0.139974,-0.983193,0.212328,-0.000922,0.977198
0.471171,-0.135454,-0.975040,0.414755,0.079305,-0.906471
0.627311,-0.131787,-0.956893,-0.098541,0.243522,0.964876
0.517242,-0.248729,-0.959599,0.411071,-0.180782,-0.893498
0.505241,-0.358887,-0.942283,-0.704137,-0.356245,0.614232
0.481104,-0.359034,-0.900434,0.879965,-0.443170,0.171061
0.733516,-0.243787,-0.949534,0.429390,-0.226662,-0.874213
0.036550,0.332151,0.779499,0.638054,0.344247,0.688753
0.033520,0.330740,0.916121,0.915918,-0.155028,-0.370217
0.034757,0.240745,0.895268,-0.647943,-0.454723,-0.611062
0.139447,0.065835,0.840721,-0.042460,-0.882401,0.468578
0.130069,0.065267,0.910601,0.056822,-0.923467,-0.379448
0.347724,-0.140396,0.644393,-0.057976,-0.641018,0.765333
0.320966,-0.140818,0.681444,-0.200550,0.975952,0.085429
0.302895,-0.140956,0.718602,-0.000291,-0.981132,0.193338
0.106206,-0.145467,0.808216,0.961404,-0.244053,-0.127044
0.269241,-0.142368,0.826759,0.426692,0.676398,0.600349
-0.007450,-0.035309,0.864423,-0.054068,-0.865908,0.497273
0.862898,-0.128825,0.376742,0.043474,-0.703788,0.709079
0.513929,-0.352542,0.236874,-0.352812,-0.900846,0.252982
0.422208,-0.359739,-0.741373,0.878827,-0.477141,-0.000574
0.460690,-0.356072,-0.264119,-0.723763,-0.689022,-0.037617
0.453929,-0.358465,-0.594578,0.631140,0.668172,0.393964
0.397794,-0.359171,-0.551070,0.818346,0.027367,-0.574073
0.395862,-0.359317,-0.514597,0.941723,0.335612,0.022843
0.406894,-0.358612,-0.478232,-0.059703,0.985685,0.157675
0.482069,-0.243787,0.614991,-0.508336,0.382057,-0.771768
0.480275,-0.354376,0.097403,0.977970,0.151779,-0.143310
0.444690,-0.354798,0.174570,0.671353,0.558911,0.486728
0.453378,-0.443811,0.036795,0.840613,0.107348,-0.530892
0.362209,-0.446626,-0.134316,0.996136,-0.075250,0.045281
0.386483,-0.445076,0.007789,0.867917,0.375102,-0.325603
0.475035,-0.358043,-0.711285,0.964974,0.260654,0.029760
0.686069,0.072043,-0.943293,-0.205095,0.669043,-0.714365
0.618897,0.060893,-0.965588,0.422235,-0.696634,-0.580016
0.491447,0.047075,-0.975906,0.041259,-0.021496,-0.998917
0.818481,-0.095679,-0.959022,-0.613349,-0.083987,-0.785334
0.668550,-0.110771,-0.965263,0.584643,0.008154,-0.811250
0.506070,-0.125863,-0.967103,0.326052,0.236483,-0.915296
0.388138,-0.138985,-0.977746,-0.071656,-0.251458,-0.965212
0.274482,-0.151675,-0.990733,-0.033142,-0.250804,0.967471
0.793377,0.004751,-0.951698,0.410682,0.799135,-0.439004
0.512414,-0.023738,-0.965047,0.428279,-0.186959,0.884095
0.405930,-0.036575,-0.979297,-0.481592,-0.246959,-0.840881
0.832827,-0.189625,-0.952889,-0.517896,-0.534879,-0.667599
0.672001,-0.205139,-0.956677,0.039531,0.360904,0.931765
0.527449,-0.219664,-0.963459,0.396294,-0.198428,-0.896425
0.394481,-0.233775,-0.972442,-0.184713,-0.243122,-0.952246
0.259585,-0.247171,-0.979694,0.082921,0.358771,0.929735
0.123035,-0.261135,-0.986368,-0.326807,0.541491,0.774587
0.495033,-0.334772,-0.895167,0.220973,-0.782555,0.582047
0.568553,-0.339568,-0.945313,0.442588,0.131399,0.887046
0.495450,-0.350708,-0.965047,0.568474,0.574203,-0.589175
0.359173,-0.364535,-0.973489,0.713824,0.346464,0.608620
0.205655,-0.378922,-0.977782,0.416013,-0.263858,-0.870237
-0.418069,0.612287,0.297447,0.199992,0.655324,-0.728391
-0.308277,0.540914,0.275079,0.263307,0.516271,0.814944
0.331447,0.641206,0.680830,-0.035431,-0.925051,0.378187
0.110621,0.615111,0.654783,-0.538624,0.610039,-0.581152
0.009105,0.548249,0.653232,0.233052,-0.507519,0.829525
0.434208,0.535696,0.430316,0.938446,0.335749,0.081187
0.067447,0.523419,0.776072,0.849784,-0.526847,0.017321
0.132965,0.499158,0.644213,0.705611,0.053231,-0.706597
-0.085242,0.473769,0.620438,-0.465789,0.174483,-0.867523
0.016964,0.467002,0.807098,-0.632975,0.767988,-0.097657
-0.044277,0.457127,0.786282,0.945779,-0.199021,0.256696
-0.150205,0.410859,0.623397,0.119178,-0.467166,0.876101
-0.028829,0.484634,0.903818,-0.574793,-0.801367,-0.165601
0.001381,0.393933,0.796311,0.999388,0.008023,0.034043
0.052689,0.390403,0.757565,0.525556,0.526299,0.668431
0.161378,0.369387,0.619356,0.210681,0.250853,0.944821
-0.081378,0.349215,0.627834,-0.352144,0.062499,-0.933857
0.380552,0.299281,0.209420,-0.084108,-0.004414,0.996447
-0.020276,0.345694,0.927593,0.053689,0.996910,-0.057346
0.095035,0.319169,0.760162,-0.034097,-0.186624,0.981840
0.166483,0.295897,0.627004,0.325435,0.213254,0.921203
0.509379,0.233272,0.199030,0.764393,-0.639585,0.081450
-0.688825,0.162459,0.373063,-0.722318,0.538586,0.433800
-0.259862,0.177836,0.267467,0.959031,-0.282662,0.019021
0.233104,0.229036,0.737470,0.601306,-0.323790,0.730473
-0.375862,0.073308,0.287525,-0.729354,-0.679218,0.081889
-0.592549,0.055254,0.294705,0.257547,-0.607142,0.751697
0.087723,0.148073,0.857569,0.889254,0.335242,0.311191
0.405106,0.158929,0.778417,0.258986,0.859356,0.440945
0.442896,0.120143,0.589485,-0.342685,-0.606267,0.717640
0.337929,0.059206,0.360400,0.455642,-0.569449,0.684192
0.165654,0.012233,0.748185,0.691920,-0.126734,0.710764
0.170209,-0.072829,0.379340,-0.701463,0.155241,-0.695593
-0.295447,-0.164374,0.569787,-0.522964,0.835339,0.169464
0.391311,-0.319534,-0.379779,0.949391,-0.259285,-0.177282
0.077793,-0.068877,0.840504,0.483426,0.833219,-0.268412
0.302895,-0.076773,0.714309,0.169050,0.972765,-0.158590
0.229379,-0.087922,0.696524,0.835226,-0.414160,0.361758
0.372690,-0.134473,0.811716,0.158137,0.171934,0.972333
0.028274,-0.159716,0.835490,-0.554746,0.553503,-0.621202
0.155447,-0.166345,0.755544,0.424399,0.035587,0.904776
0.512691,-0.161972,0.636745,-0.219679,0.970878,-0.095586
0.404276,-0.174808,0.624407,0.103396,0.416665,0.903161
0.466069,-0.185105,0.553264,0.186721,0.956077,0.225949
0.374344,-0.196960,0.538329,0.257852,-0.906769,0.333591
0.408965,-0.289065,0.125434,0.520031,0.822103,0.231766
0.312829,-0.300636,0.111040,-0.062535,-0.369023,0.927314
0.357102,-0.350286,-0.122050,0.977501,-0.167679,0.127966
0.185379,-0.162118,0.874128,0.215310,0.780519,0.586883
0.180551,-0.169169,0.844581,0.042490,0.844415,0.534002
0.043311,-0.183134,0.835779,-0.475499,0.627600,-0.616456
0.153792,-0.189479,0.759621,-0.449057,-0.519749,-0.726779
0.521653,-0.183134,0.640316,-0.430394,0.901324,0.048744
0.347446,-0.199500,0.637358,0.633524,0.744279,-0.211417
0.506344,-0.204149,0.549368,-0.641831,-0.761693,0.088754
0.515036,-0.210357,0.517801,-0.088520,0.778481,0.621395
0.444277,-0.282435,0.218981,0.933811,0.328402,-0.141947
0.443170,-0.296546,0.154837,-0.150254,0.581845,0.799299
0.405106,-0.318689,0.066377,0.110741,0.943185,0.313269
0.440691,-0.346059,-0.069667,0.932865,-0.360194,-0.004748
0.394481,-0.355650,-0.094307,0.855194,0.034559,-0.517155
0.217656,-0.196254,0.884734,-0.084928,-0.995936,-0.029979
0.086759,-0.216142,0.845771,-0.318212,0.436085,0.841767
0.284138,-0.268471,0.508565,-0.712302,-0.022725,-0.701505
0.391446,-0.288221,0.368733,0.669863,-0.687294,0.280910
0.419312,-0.293016,0.332224,0.974713,-0.020212,0.222544
0.405379,-0.326731,0.176952,0.929712,0.279089,0.240300
0.371448,-0.335056,0.151806,-0.482583,-0.684765,0.546087
0.433518,-0.338155,0.108623,0.744905,0.502765,0.438570
0.421657,-0.345629,0.078102,0.800807,0.585456,-0.126292
0.358483,-0.375822,-0.038425,0.334839,0.939217,-0.075853
0.331312,-0.383717,-0.065049,0.415716,0.141029,0.898494
0.148000,-0.292310,0.782638,0.946368,-0.319934,0.045064
0.159862,-0.298518,0.750205,0.979274,-0.036322,0.199258
0.627311,-0.278346,0.644501,-0.071085,0.320970,-0.944418
0.478208,-0.299361,0.607415,-0.736827,-0.603026,0.305688
-0.287310,-0.354376,0.670982,0.119829,0.329683,0.936456
0.376554,-0.426179,0.028425,0.943512,0.317539,-0.094626
0.068276,-0.350571,0.795481,0.963261,0.266236,0.035318
0.294758,-0.343657,0.728740,-0.210376,0.937000,0.278879
0.247862,-0.364535,0.644934,0.894483,0.446112,0.029729
-0.042345,-0.417148,0.509215,0.877031,0.473958,0.078618
0.297380,-0.447754,0.202061,0.883938,0.112602,0.453845
0.209932,-0.458481,0.184960,0.808155,0.432445,0.399846
0.291585,-0.460169,0.139756,0.975918,-0.004929,0.218082
0.300550,-0.465533,0.107071,0.994106,0.073737,0.079481
0.342483,-0.470182,0.067171,0.814326,-0.580365,0.006985
0.135175,-0.401633,0.797537,0.777716,-0.297220,-0.553912
0.367310,-0.411508,0.640569,0.130456,0.902611,0.410212
-0.443998,-0.481469,0.650634,0.796357,0.101828,0.596194
0.187585,-0.511232,0.204658,-0.589369,-0.789086,0.173167
0.419173,-0.548752,0.671270,0.847623,-0.519614,0.107406
0.172414,-0.489088,0.813736,0.153993,0.852427,-0.499655
0.476689,-0.487676,0.674517,0.240388,-0.317413,0.917313
-0.361517,-0.565119,0.658571,0.268891,0.960370,-0.073392
-0.166760,-0.559195,0.596845,-0.031869,-0.998075,0.053204
0.448967,-0.434358,0.751432,-0.282667,-0.170449,0.943953
0.314895,-0.465111,0.651428,0.741589,0.621391,-0.252821
-0.301656,-0.524490,0.629602,-0.706668,0.485583,-0.514616
-0.097929,-0.524352,0.535154,-0.527104,-0.846701,-0.072514
0.678484,0.442172,0.425951,-0.513316,0.847893,0.132607
0.634067,-0.216702,0.607162,0.175698,0.953718,0.244034
0.805104,-0.220232,0.517657,-0.067702,0.956808,0.282728
0.761929,-0.228695,0.493197,-0.240373,0.492149,0.836666
0.769519,-0.444655,0.546410,0.820778,0.355427,-0.447208
0.620000,-0.021344,-0.959419,-0.332559,-0.423140,0.842827
0.403173,0.019990,-0.971180,-0.045948,-0.398656,0.915949
0.506895,0.028452,-0.967211,-0.454862,0.272268,-0.847921
0.600553,0.035788,-0.961439,-0.576595,-0.430073,0.694677
0.451033,0.091224,-0.963640,0.135963,-0.263757,0.954959
0.552276,0.099825,-0.960501,0.595441,0.382266,-0.706627
0.632413,0.105189,-0.950003,0.843267,0.425013,0.329036
0.417241,-0.037702,-0.968943,-0.490256,0.768837,-0.410536
0.581518,-0.021344,-0.986079,0.314622,0.767731,-0.558214
0.433518,-0.158734,-0.981498,-0.244966,0.073969,0.966706
0.510898,-0.153233,-0.969412,-0.337527,-0.273423,0.900731
0.382346,-0.097797,-0.973236,0.175198,-0.444381,0.878539
0.503999,-0.086794,-0.976808,-0.334416,0.282389,0.899123
0.578070,-0.081998,-0.964217,-0.148581,-0.312790,0.938129
0.418622,-0.269039,-0.973741,-0.409024,-0.356378,0.840056
0.511584,-0.261841,-0.965913,-0.456857,0.251783,0.853163
0.578483,-0.258174,-0.950833,-0.313547,0.529781,0.788049
0.629378,-0.255918,-0.930161,0.217991,0.973637,-0.067169
0.259312,-0.426033,-0.973056,0.161482,0.419019,0.893503
0.360967,-0.417431,-0.970314,0.857142,-0.030496,0.514176
0.455588,-0.409950,-0.963279,-0.285465,0.197263,0.937868
0.534205,-0.404879,-0.950580,0.294796,0.154102,-0.943052
0.216553,-0.370174,-0.958806,0.986486,-0.019167,-0.162718
0.368691,-0.355082,-0.973849,0.347820,0.673170,-0.652582
0.452136,-0.348875,-0.964758,-0.272430,-0.274066,0.922317
0.506205,-0.346903,-0.943509,0.744455,0.650536,-0.150297
0.523585,-0.349581,-0.911365,-0.285870,-0.948838,-0.134111
0.376689,-0.453824,-0.975509,-0.368297,-0.359421,-0.857423
0.438207,-0.450578,-0.958373,0.976924,-0.189180,-0.099150
0.521792,-0.444793,-0.949209,-0.013046,-0.152981,0.988143
0.424826,-0.502063,-0.959924,0.371871,0.066750,0.925882
0.401654,-0.569070,-0.959671,0.444429,-0.070802,-0.893012
0.660274,0.176561,-0.940984,-0.351084,-0.924062,0.151159
0.812277,-0.129393,-0.953827,-0.438465,0.197993,-0.876668
0.670759,-0.075369,-0.956244,0.374104,0.062364,-0.925287
0.770482,-0.067043,-0.952420,-0.058110,-0.260491,0.963726
0.870757,-0.059286,-0.947045,0.376805,0.120748,-0.918389
0.948137,-0.054069,-0.934057,-0.045406,-0.286109,0.957121
0.703723,0.109700,-0.934851,-0.749307,0.419338,-0.512538
0.716275,-0.013441,-0.954512,0.414912,-0.076478,-0.906642
0.812551,-0.005968,-0.949390,0.715495,0.625461,-0.311230
0.681102,0.041005,-0.949390,0.008525,-0.375601,0.926742
0.776965,0.048625,-0.942715,-0.482869,0.057082,0.873830
0.640137,-0.395986,-0.947514,0.314171,-0.057613,-0.947617
0.906343,-0.122196,-0.947947,-0.136444,0.619347,0.773171
0.750619,-0.245621,-0.932181,-0.453360,0.864336,0.217691
0.607860,0.831776,0.503479,0.009148,-0.638783,0.769332
0.145795,0.765199,0.700997,0.899820,0.337740,0.276144
0.172002,0.764347,0.724952,0.971034,0.237967,0.021541
-0.242342,0.550367,0.259783,-0.734771,0.160348,0.659090
-0.188964,0.552760,0.277027,-0.339947,0.126937,0.931838
0.357932,0.608197,0.207616,0.199722,0.282384,0.938281
0.441377,0.610031,0.248383,-0.135979,0.989904,0.039997
0.375447,0.572648,0.495722,0.779890,0.549352,-0.299973
0.516278,0.581542,0.519208,-0.698793,0.284334,-0.656386
0.047174,0.508327,0.777876,-0.455679,0.805841,-0.378124
0.097379,0.506924,0.825569,0.422750,0.828843,-0.366473
0.252829,0.517780,0.842272,0.456376,-0.097280,-0.884453
-0.437515,0.639510,0.303002,0.424847,-0.818319,0.387115
-0.231861,0.660956,0.272987,0.030161,0.461777,0.886483
-0.172826,0.663633,0.288463,0.464311,0.126929,-0.876529
0.392275,0.691278,0.442113,-0.302555,-0.302530,0.903845
-0.067172,0.622023,0.672208,0.366386,-0.186400,0.911601
0.570069,0.696504,0.518703,-0.743531,0.666765,-0.050854
0.144553,0.639656,0.674409,-0.451154,0.809275,-0.376209
0.141931,0.631193,0.735739,-0.307953,0.832141,0.461200
-0.443308,0.434131,0.283305,0.371363,-0.429855,0.822991
-0.230758,0.452753,0.281862,0.359146,-0.049270,0.931980
0.294345,0.504806,0.220568,0.212846,-0.866581,0.451370
0.512136,0.523282,0.222083,0.817326,0.089166,-0.569235
0.523034,0.491685,0.478478,-0.890553,0.447112,0.083705
0.352001,0.466717,0.559469,0.843294,0.357297,0.401490
0.106067,0.421294,0.756266,-0.791078,-0.215480,0.572506
0.243312,0.422706,0.839134,-0.605607,-0.667022,0.433961
0.042759,0.394493,0.924959,0.624694,0.394311,0.674000
0.157930,0.404230,0.923228,-0.852488,0.509586,-0.116557
-0.594481,0.309578,0.266529,0.568691,-0.558690,-0.603702
-0.182069,0.344282,0.269018,0.705100,-0.353071,-0.614959
0.025240,0.365582,0.238714,-0.115170,0.758617,-0.641276
0.298344,0.390687,0.222876,0.797679,-0.287181,0.530317
0.390482,0.397739,0.227350,0.118503,-0.548332,0.827822
0.131723,0.331299,0.595329,0.447955,0.499207,-0.741707
0.181380,0.333279,0.611491,0.828858,0.454145,-0.326723
-0.270759,0.271213,0.805835,0.969785,0.137782,0.201331
0.129517,0.311980,0.751793,0.029394,0.018821,0.999391
0.235449,0.313245,0.812581,0.880059,-0.298567,-0.369262
-0.571860,0.192506,0.276667,-0.555697,-0.491076,-0.670854
-0.472689,0.196449,0.311372,-0.245631,-0.958323,-0.145887
-0.227723,0.222269,0.269235,0.907429,0.352186,0.229210
0.048690,0.252032,0.217465,0.227275,0.734698,-0.639191
0.523311,0.290111,0.237812,0.126941,-0.869741,0.476903
0.523311,0.266840,0.434465,0.946991,-0.251088,-0.200406
0.196551,0.216905,0.625886,0.001304,0.182596,0.983187
-0.185517,0.167392,0.768352,-0.107991,0.990385,-0.086463
0.127451,0.198007,0.738192,0.916749,0.381650,0.117958
0.519860,0.226212,0.781628,0.818683,-0.351684,-0.453957
-0.675169,0.066395,0.314150,-0.310355,0.823513,0.474874
-0.697930,0.060049,0.354772,0.863487,-0.372649,0.339886
0.236829,0.110544,0.619031,0.874593,0.434780,0.214601
0.307310,0.115202,0.629133,0.984139,0.129798,-0.120925
-0.017519,0.073592,0.754679,0.185269,0.025805,0.982349
0.161516,0.091362,0.733249,-0.575697,0.509421,-0.639580
0.136139,0.077681,0.834119,0.396798,0.755399,-0.521463
0.116001,0.072180,0.869438,0.477652,0.680528,-0.555635
0.060139,0.062451,0.914641,0.396427,0.821816,-0.409225
0.391446,0.097853,0.852338,-0.022623,-0.986772,0.160526
0.506483,0.072748,0.433887,0.623285,0.228059,-0.748001
0.264691,0.033532,0.599478,0.962698,0.151840,0.223960
0.138205,0.008281,0.730111,-0.190079,0.940026,-0.283232
0.196828,0.011810,0.744686,-0.656706,-0.024527,-0.753748
0.262620,0.016322,0.755941,0.982291,-0.159783,0.097845
-0.249102,-0.037143,0.257979,-0.199637,-0.979264,0.034463
0.143034,-0.019648,0.401671,-0.634290,0.058622,-0.770870
0.587310,0.025913,0.334894,-0.139325,-0.031231,0.989754
0.489519,0.006869,0.427430,0.953309,-0.072934,-0.293059
0.542068,-0.004978,0.573215,0.517944,0.532106,-0.669774
0.143450,-0.055903,0.718963,0.817576,0.432353,0.380316
-0.478759,0.006025,0.275873,0.260285,0.494362,0.829372
-0.252137,0.025913,0.269992,0.403438,0.718694,0.566319
0.091309,-0.096101,0.405459,0.852167,-0.096088,0.514373
-0.140414,-0.130805,0.538004,0.926061,0.358994,0.116333
0.332689,-0.096238,0.589016,-0.499329,-0.773890,0.389569
0.204965,-0.118812,0.688695,0.817632,0.545871,0.183036
0.133794,-0.130805,0.739454,0.972819,0.230805,0.018745
0.125379,-0.135170,0.773150,0.725006,-0.665643,0.176876
0.171312,-0.133337,0.791332,-0.227199,0.959977,0.163784
0.159862,-0.137994,0.825785,0.379577,-0.922019,-0.076171
0.149516,-0.142936,0.858362,-0.737060,-0.477746,0.478019
-0.129516,-0.201050,0.548863,0.813149,0.347452,0.466976
0.409517,-0.158588,0.580322,0.939836,0.216449,0.264305
0.253515,-0.180594,0.657308,-0.932896,0.208901,-0.293369
0.093103,-0.210503,0.796780,-0.654325,-0.295671,0.696015
0.072965,-0.219948,0.863341,0.729794,0.523212,0.440057
0.283174,-0.198648,0.833433,0.500819,0.741700,0.446163
0.307171,-0.199354,0.857677,0.381642,-0.892301,-0.241138
-0.006069,-0.166070,-0.188106,-0.385280,-0.711780,-0.587307
0.412000,-0.142790,-0.076666,0.914558,-0.333681,0.228562
-0.191447,-0.271432,0.574188,-0.106601,0.719809,0.685938
-0.258208,-0.287093,0.657056,0.185071,-0.711312,0.678073
0.158347,-0.240541,0.564773,0.415814,-0.903130,0.107026
0.383448,-0.216986,0.530861,-0.753323,0.655833,-0.048865
0.175723,-0.245621,0.623902,-0.871662,0.206724,-0.444377
0.303172,-0.233490,0.618887,-0.664388,0.234472,-0.709656
0.532138,-0.210219,0.582991,0.423436,0.333914,-0.842142
0.372690,-0.236736,0.691617,0.712003,-0.659446,0.241211
0.050344,-0.286249,0.876220,0.042701,0.483697,0.874194
0.292414,-0.264527,0.868283,0.534478,0.179628,0.825874
0.324001,-0.191312,-0.240633,0.916145,-0.387645,0.102031
0.462761,-0.248023,0.331106,0.828864,-0.557497,0.046710
-0.312828,-0.350571,0.627365,0.079118,-0.696212,0.713463
0.459448,-0.256487,0.397162,0.854424,-0.458820,0.243812
-0.271585,-0.349296,0.647279,-0.301909,0.593075,-0.746400
0.365378,-0.275806,0.490852,-0.428620,-0.903472,-0.004886
-0.049105,-0.333928,0.675852,0.986909,0.152283,0.053105
0.533102,-0.266783,0.536380,0.651874,-0.742027,-0.156383
0.530068,-0.271010,0.570004,-0.024137,0.590017,0.807030
0.364826,-0.302753,0.712361,0.438002,-0.840858,-0.317981
0.403034,-0.301625,0.732744,-0.232283,0.766356,0.598951
0.485655,-0.302753,0.800676,0.661295,-0.122322,0.740085
0.508966,-0.196254,-0.620553,0.838244,-0.543250,-0.047179
0.405930,-0.213887,-0.547787,0.639922,0.248335,0.727206
0.475035,-0.289917,-0.759952,-0.748738,0.531919,-0.395544
0.449657,-0.297674,-0.712296,0.770555,0.574183,0.276694
0.456000,-0.301342,-0.675750,0.929970,-0.365748,-0.037203
0.416277,-0.310932,-0.625279,0.961663,0.021582,0.273383
0.415174,-0.315728,-0.588229,0.070149,0.860814,0.504062
0.436414,-0.317424,-0.557203,-0.729411,0.583879,0.356433
0.430896,-0.322219,-0.519034,0.896359,-0.440680,-0.048396
0.417241,-0.328427,-0.476825,0.496898,0.867748,-0.010271
0.418070,-0.332939,-0.439630,0.751540,-0.601842,0.270135
0.421518,-0.336890,-0.403446,0.756698,-0.653538,0.017189
0.412274,-0.342392,-0.364880,-0.190338,0.963409,0.188718
0.397516,-0.348736,-0.324691,-0.432926,0.885787,-0.167201
0.341380,-0.274256,-0.094920,0.858156,-0.329469,-0.393725
0.421657,-0.268471,-0.084927,0.777104,-0.102024,-0.621047
0.298622,-0.300636,0.091162,0.011229,-0.942059,0.335258
0.512275,-0.290476,0.161403,-0.023552,0.336199,0.941497
0.501381,-0.295978,0.197334,0.982225,0.147883,0.115603
0.445931,-0.306981,0.246867,0.685343,0.699777,0.201536
0.439862,-0.311638,0.282944,0.914569,-0.152561,0.374551
0.412139,-0.318827,0.323530,-0.450172,-0.889384,-0.079632
0.428000,-0.320808,0.352066,-0.479724,-0.876931,-0.029258
0.422482,-0.325887,0.387024,-0.701361,0.686682,0.191210
-0.251035,-0.416157,0.651212,0.897809,-0.440321,0.007566
0.363724,-0.348736,0.532701,-0.240431,0.935957,0.257251
0.166757,-0.391896,0.747103,0.060289,-0.797943,0.599711
0.300415,-0.379205,0.738949,0.418006,-0.879712,-0.226668
0.431586,-0.437319,-0.241968,0.768935,0.630487,0.105952
0.387309,-0.354238,-0.284718,-0.417803,0.530689,0.737435
0.394207,-0.357338,-0.251961,0.704297,0.700827,-0.113168
0.416829,-0.358749,-0.222919,0.963620,0.118469,-0.239586
0.396000,-0.365947,-0.180169,0.373730,0.826989,0.420017
0.422898,-0.367075,-0.152859,0.950138,-0.311507,-0.014156
0.379723,-0.376381,-0.104769,0.931757,0.198324,-0.304132
0.407033,-0.376803,-0.079371,0.492430,-0.645226,-0.584119
0.419173,-0.379490,-0.047732,0.857483,-0.507657,0.083707
0.411037,-0.384707,-0.011403,0.641383,0.755634,0.132836
0.395310,-0.390768,0.028569,0.803138,0.072969,-0.591307
0.429242,-0.390914,0.052740,0.890799,0.269593,0.365784
0.420415,-0.396269,0.090151,0.924237,0.156348,-0.348342
0.482898,-0.400221,0.171360,-0.150465,0.582484,0.798795
0.150345,-0.445076,0.305708,0.921350,-0.108253,0.373358
-0.159036,-0.502347,0.561598,-0.199556,0.975535,-0.092242
-0.192138,-0.510388,0.603699,0.275957,-0.590732,0.758211
-0.257239,-0.521813,0.653809,0.482891,-0.061893,0.873491
0.549380,-0.439153,0.544065,0.597383,0.765273,0.239774
0.614481,-0.454246,0.714562,0.170431,0.973643,0.151570
-0.168688,-0.596147,0.647748,0.349727,-0.025390,0.936507
0.229657,-0.566668,0.686458,-0.371121,0.089759,-0.924236
0.553791,-0.531266,0.624659,0.390261,0.888668,0.240761
0.453929,-0.381177,-0.693861,0.991025,-0.126656,0.042745
0.379723,-0.395288,-0.630077,0.940955,-0.338326,-0.011830
0.375034,-0.405017,-0.553090,-0.576178,0.425124,-0.698060
0.454759,-0.403889,-0.503918,0.903374,-0.352215,-0.244662
0.493240,-0.403605,-0.480649,0.972441,-0.232781,0.013083
0.443170,-0.440281,-0.210870,0.963903,0.266173,-0.006555
0.378621,-0.452696,-0.155565,0.978605,-0.008418,0.205578
0.371174,-0.457776,-0.117396,0.947082,0.197406,-0.253113
0.415309,-0.456079,-0.097373,0.942204,-0.333264,-0.034439
0.412139,-0.460591,-0.060756,0.425664,-0.120692,-0.896796
0.380414,-0.469054,-0.015552,0.524045,0.822578,0.220777
0.387447,-0.472584,0.017313,-0.672196,0.166427,0.721425
0.372412,-0.478369,0.055554,0.784719,-0.618576,0.039748
0.300138,-0.495580,0.145890,0.980893,0.004507,0.194497
0.283726,-0.501219,0.183842,-0.182325,0.983210,0.007460
0.253515,-0.509260,0.227278,-0.233274,0.971931,0.030534
0.045794,-0.542975,0.358127,0.908254,0.407855,-0.093430
0.117516,-0.537895,0.368409,-0.603357,0.206304,0.770324
0.007586,-0.554821,0.433491,-0.208601,0.976104,0.060879
-0.003724,-0.560177,0.469820,0.882238,0.308981,-0.355227
-0.264277,-0.599961,0.611564,-0.608686,-0.127979,-0.783021
-0.435449,-0.685582,0.665389,0.462331,0.136653,0.876114
-0.053243,-0.688544,0.582558,-0.614550,-0.454621,0.644707
