0.406031,-0.164094,0.626272,0.154077,-0.819426,-0.552089
0.411014,-0.492281,0.676262,0.568535,0.546350,-0.615036
0.417058,-0.115464,0.212468,0.409714,-0.329520,-0.850618
0.412392,-0.560893,0.672993,-0.713428,0.668695,0.209445
0.413878,-0.630155,0.674036,0.975601,-0.055219,-0.212493
0.444627,-0.104819,0.607556,-0.235055,-0.906155,-0.351614
0.449186,-0.468359,0.701136,-0.136992,-0.734604,0.664523
0.450881,-0.506480,0.663356,0.059996,-0.883829,0.463948
0.455440,-0.147537,0.219878,-0.502849,-0.745314,0.437778
0.504002,-0.182231,0.626968,0.198365,0.978059,0.063659
0.515557,-0.189595,0.190865,0.851668,0.510916,-0.116737
0.568361,-0.103769,0.531614,-0.393947,0.854301,0.339080
0.397760,-0.566805,-0.965455,0.144942,-0.224401,0.963658
0.261197,-0.482687,-0.967404,-0.682885,0.221771,0.696050
0.191324,-0.440363,-0.984137,-0.635212,0.359156,0.683749
0.490642,-0.348760,-0.976240,0.271623,0.047100,0.961251
0.478129,-0.618852,-0.964968,0.223302,-0.413958,0.882482
0.352062,-0.325103,-0.977423,0.281218,0.226150,0.932616
0.348141,-0.394364,-0.965247,0.470269,0.226111,0.853066
0.344215,-0.492674,-0.963925,0.388481,-0.015196,-0.921331
0.340294,-0.601372,-0.968691,0.251239,-0.106240,0.962077
0.336052,-0.714137,-0.973457,0.045083,-0.091660,-0.994769
0.194929,-0.425907,-0.971648,-0.571974,-0.820107,-0.016455
0.191111,-0.515673,-0.967717,-0.338327,0.154048,0.928334
0.179235,-0.260830,-0.727888,0.546607,0.830516,-0.107067
0.174993,-0.313664,-0.709450,-0.457571,-0.878739,0.135818
0.167678,-0.255705,-0.602686,-0.404457,0.899928,-0.162925
0.163863,-0.227836,-0.551060,0.093001,0.995216,0.029943
-0.605159,-0.480192,0.627594,0.997671,-0.055848,-0.039160
-0.016387,-0.207204,0.902802,0.645497,0.665882,0.374079
-0.038545,-0.195508,0.877233,0.837659,0.546028,0.013492
-0.035788,-0.198925,0.847420,-0.725591,0.448031,-0.522289
0.096427,-0.285931,0.738985,0.306169,-0.656355,-0.689536
0.095049,-0.287247,0.710738,0.728937,-0.083941,-0.679415
0.043733,-0.276474,0.334505,-0.666179,0.315462,0.675788
0.062711,-0.290135,0.301769,0.476196,0.878750,0.032183
0.093353,-0.314193,0.204119,-0.320080,-0.913680,0.250474
-0.745861,-0.148980,0.359552,-0.742345,0.484169,-0.463146
-0.742360,0.063410,0.473378,-0.626140,0.778863,0.036360
-0.753177,-0.304334,0.369258,0.144014,-0.527240,0.837424
-0.753388,-0.239797,0.428989,-0.356490,-0.924495,0.134996
-0.759963,-0.422361,0.394897,0.666164,0.113862,-0.737062
-0.773323,-0.730831,0.386756,-0.858616,0.486230,0.162355
-0.653828,-0.121120,0.334331,0.389936,-0.383053,0.837389
-0.658387,-0.226529,0.328834,0.831719,-0.212088,0.513091
-0.661781,-0.292638,0.339479,0.878845,-0.291670,0.377571
-0.657646,-0.021495,0.476405,0.070478,-0.332826,0.940351
-0.662309,-0.139257,0.467430,-0.614180,0.742613,-0.267036
-0.667081,-0.270160,0.452262,-0.591887,-0.709636,0.382213
-0.660930,0.079317,0.614722,-0.187585,-0.066310,0.980007
-0.531575,-0.240198,0.273869,0.627796,-0.626596,0.461789
-0.540697,-0.449700,0.263815,0.339606,0.697256,0.631270
-0.530941,0.238217,0.590962,-0.549386,0.831189,-0.085443
-0.532427,0.261745,0.633717,-0.576865,0.693018,-0.432380
-0.541014,-0.044759,0.554261,0.126876,0.991532,0.027696
-0.549071,-0.325761,0.485102,-0.466425,0.873773,-0.137725
-0.549495,-0.059342,0.682977,-0.210104,-0.929066,0.304454
-0.560629,-0.374390,0.635143,-0.489351,0.763950,0.420614
-0.563916,-0.429718,0.649058,-0.604764,0.091542,0.791126
-0.424065,-0.270553,0.253309,0.989177,0.146035,0.014259
-0.427670,-0.330886,0.266459,0.717045,-0.593762,0.365092
-0.425547,0.051850,0.480441,-0.589540,-0.757574,-0.280222
-0.439121,-0.316559,0.445235,0.131387,-0.101660,0.986105
-0.449511,-0.258857,0.635839,0.884664,-0.234728,0.402830
-0.453539,-0.361635,0.632499,0.953275,0.261498,-0.151278
-0.452798,-0.212202,0.718704,0.968987,-0.238154,0.065931
-0.311993,-0.105477,0.412012,0.672685,-0.469584,0.571826
-0.310297,0.483737,0.734359,-0.504115,0.826723,-0.249793
-0.318992,0.078395,0.616844,0.984086,-0.033844,0.174440
-0.322913,-0.019650,0.614862,-0.524017,0.707400,-0.474332
-0.332562,-0.308930,0.576525,0.439047,-0.231049,0.868248
-0.336484,-0.385556,0.582891,0.072031,-0.932567,0.353738
-0.334364,-0.114542,0.714877,-0.531620,-0.802412,0.271135
-0.340088,-0.326282,0.670905,0.307904,-0.785861,-0.536300
-0.346240,-0.559706,0.619245,0.289473,-0.495724,0.818818
-0.348680,-0.406590,0.739646,0.522684,0.790860,0.318343
-0.346663,-0.156737,0.861231,0.090469,-0.750704,0.654415
-0.354297,-0.461918,0.786401,0.220034,0.599771,0.769324
-0.361296,-0.597425,0.803308,-0.459712,0.017074,0.887904
-0.198966,0.131492,0.577569,-0.189533,-0.889761,0.415213
-0.196316,0.510547,0.752553,-0.366117,-0.022966,0.930286
-0.228443,-0.484395,0.622167,0.871262,-0.397164,-0.288381
-0.233109,-0.445096,0.702528,-0.725317,-0.636225,0.262932
-0.235545,-0.451930,0.732167,0.808362,-0.537877,0.239248
-0.237878,-0.446147,0.767546,-0.541237,0.811750,-0.219373
-0.240211,-0.444574,0.799447,-0.725555,0.596778,0.342675
-0.244664,-0.561542,0.791341,0.368806,-0.925565,0.085511
-0.247845,-0.593221,0.813084,0.802111,-0.342808,0.488979
-0.251239,-0.656178,0.823903,0.828947,0.349819,-0.436434
-0.254526,-0.719399,0.833330,-0.666390,-0.211921,-0.714852
-0.260781,-0.801673,0.868745,0.946874,-0.320826,0.022386
-0.168854,0.381088,0.324799,0.626071,-0.092063,-0.774312
-0.179351,-0.224162,0.126298,-0.471418,0.860696,0.192266
-0.176594,0.206016,0.327791,0.830167,0.316391,-0.459042
-0.192921,-0.013208,0.419457,-0.225430,-0.557500,0.798983
-0.194299,0.083657,0.491051,0.190304,-0.482980,0.854701
-0.195468,0.187221,0.563723,-0.632492,-0.134514,-0.762798
-0.046075,0.671420,0.364457,0.951516,-0.055480,0.302555
-0.063570,-0.206153,0.128629,-0.044515,0.954546,-0.294722
-0.066323,-0.196687,0.169088,-0.145259,0.978937,0.143463
-0.078305,0.049748,0.440713,0.446832,0.559877,-0.697767
-0.084774,0.226521,0.608704,-0.188184,-0.439029,0.878544
-0.093468,-0.055532,0.573255,-0.401632,-0.328431,0.854883
-0.110220,-0.316816,0.644988,0.723885,-0.585210,0.365403
-0.113614,-0.347965,0.667635,0.971455,0.218322,-0.092790
-0.116584,-0.354279,0.699153,-0.545668,-0.829920,0.116098
-0.119551,-0.374783,0.725348,-0.195358,0.620772,-0.759261
-0.120292,-0.231783,0.808179,0.143238,-0.485279,0.862547
-0.122415,-0.206683,0.848394,0.446139,0.584713,0.677547
-0.126653,-0.304206,0.846724,-0.267980,0.960733,-0.071960
-0.131640,-0.485711,0.814371,-0.295906,-0.796608,0.527119
-0.136199,-0.631077,0.796420,0.307926,-0.254539,0.916729
0.122934,-0.293688,-0.143135,0.989820,-0.127202,0.063845
0.119543,-0.220480,-0.077247,0.980705,-0.187467,0.055446
0.116042,-0.217721,-0.037971,-0.681807,0.708615,0.181668
0.112651,-0.202607,0.004436,0.947789,0.312868,-0.061727
0.109153,-0.212202,0.038354,0.945595,-0.016454,0.324930
0.105442,-0.246768,0.062392,-0.247129,-0.964512,-0.092972
0.102261,-0.220480,0.109948,0.908290,-0.418313,-0.004894
0.098867,-0.208391,0.150267,-0.089976,0.995220,-0.037979
0.095155,-0.227443,0.178272,0.856750,0.503455,-0.111857
0.091868,-0.215619,0.219426,0.926516,0.350921,0.135732
0.088901,-0.206024,0.257971,0.533646,0.845698,-0.004152
0.085613,-0.199318,0.296725,0.445375,0.891409,-0.083853
0.081795,-0.224026,0.323338,0.176602,0.977236,0.117566
0.078614,-0.182368,0.374754,-0.367656,-0.386760,-0.845722
0.074586,-0.339558,0.349812,0.359284,0.925757,-0.117853
0.071936,-0.263983,0.412256,0.948008,0.080399,-0.307924
0.068648,-0.264770,0.447496,-0.458490,-0.863016,-0.212108
0.065468,-0.247290,0.487607,-0.624056,-0.656638,0.423534
0.061863,-0.254782,0.519751,0.885764,0.114958,0.449673
0.058682,-0.264906,0.550643,0.722188,0.678284,-0.135553
0.055501,-0.279626,0.579691,0.164123,-0.983906,-0.070657
0.052321,-0.303147,0.604216,-0.794125,0.590455,0.143972
0.046276,-0.268187,0.683568,-0.401137,-0.916009,0.004181
0.043520,-0.208648,0.737246,0.843506,0.381405,0.378191
0.039384,-0.343104,0.722600,0.997259,-0.007585,-0.073606
0.039278,0.025827,0.886869,0.151129,-0.982652,-0.107496
0.032389,-0.432349,0.757040,0.951961,-0.117665,-0.282711
0.028677,-0.528556,0.754988,0.214621,0.026340,0.976342
0.024859,-0.642902,0.746535,0.177316,0.631256,0.755033
0.160045,-0.222710,-0.507645,0.990160,-0.132205,0.045881
0.202775,-0.376620,0.470039,0.388882,0.916984,-0.088944
0.200760,0.026878,0.652954,0.785402,-0.166073,0.596291
0.196838,-0.023990,0.668192,0.843286,0.048926,-0.535234
0.191748,-0.444702,0.548973,0.780036,0.538647,0.318439
0.184963,-0.489393,0.598581,0.976180,0.116926,-0.182757
0.181886,-0.429589,0.654068,0.583743,0.809472,0.063242
0.174783,-0.496091,0.696440,0.968453,-0.069368,-0.239346
0.171919,-0.338371,0.785775,-0.640909,0.703998,0.305979
0.162271,-0.314457,0.890174,0.921142,0.094398,0.377607
0.159090,-0.304334,0.926110,0.518000,0.276079,0.809602
0.273072,-0.676947,-0.341079,-0.320183,0.165141,-0.932851
0.269147,-0.834924,-0.364040,0.611913,-0.330907,0.718375
0.265118,-0.875274,-0.342019,-0.107514,-0.778311,0.618605
0.261514,-0.390290,-0.111791,0.593552,0.017199,0.804612
0.253667,-0.576006,-0.109774,-0.755016,0.652919,-0.060390
0.249852,-0.607677,-0.084170,0.128614,0.809949,0.572225
0.246141,-0.267008,0.086326,-0.078403,0.793358,-0.603685
0.242639,-0.167647,0.162095,0.460167,0.744144,-0.484248
0.231719,-0.242958,0.240125,-0.459667,0.877846,-0.134510
0.224193,-0.339029,0.274495,0.202252,0.920728,-0.333697
0.214330,0.031739,0.519647,0.486564,0.673288,0.556721
0.207759,0.157123,0.634134,-0.757875,0.371181,0.536516
0.422679,-0.306965,-0.338470,-0.312006,0.173949,0.934020
0.414408,-0.399226,-0.297768,0.807338,0.103511,-0.580940
0.409952,-0.405403,-0.260754,0.778108,0.620452,0.097916
0.405924,-0.524746,-0.269346,0.641663,0.766932,-0.009134
0.393732,-0.487548,-0.140039,-0.693198,0.118065,0.711011
0.389279,-0.503977,-0.108034,0.282302,0.638029,0.716397
0.385568,-0.572452,-0.097946,0.229129,0.552669,0.801284
0.372418,-0.082085,0.205267,-0.629179,0.776351,0.037579
0.368286,-0.087732,0.238246,-0.609940,0.565702,-0.554936
0.322905,-0.011106,0.683324,0.875073,-0.260935,0.407628
0.319404,-0.090757,0.687916,-0.751923,-0.648100,0.120745
0.304879,-0.247426,0.761667,-0.657675,0.202704,-0.725517
0.297139,-0.497014,0.739577,-0.326379,-0.603629,0.727398
0.293427,-0.507395,0.769251,0.338845,0.927485,0.157972
0.289506,-0.690087,0.736794,0.748345,0.574758,-0.331108
0.552667,-0.014788,-0.261241,-0.127386,-0.473092,0.871755
0.548532,-0.111919,-0.261241,0.790612,0.277769,-0.545690
0.537188,-0.458765,-0.284688,0.414093,0.560813,0.716949
0.533370,-0.554844,-0.283818,0.859680,-0.167869,0.482462
0.513861,-0.266879,-0.018768,0.267287,-0.803198,0.532382
0.511105,-0.557211,-0.094745,-0.170626,0.101528,0.980091
0.501349,-0.420781,0.034492,0.289906,0.095162,0.952312
0.497534,-0.520542,0.031814,0.413225,0.005088,-0.910615
0.491807,-0.153184,0.209407,-0.045960,0.570754,-0.819834
0.458831,-0.204837,0.472961,0.423435,0.678732,-0.600022
0.442187,-0.046203,0.668227,0.365673,-0.551334,0.749876
0.435081,-0.164623,0.690282,0.622925,0.688135,-0.372069
0.651910,-0.043050,-0.267190,0.523738,0.645912,0.555425
0.595926,-0.527898,0.033762,-0.434917,0.824661,0.361638
0.228435,-0.259250,-0.697031,0.728422,0.665409,-0.163195
0.219420,-0.272527,-0.733245,0.500065,0.831417,-0.242243
0.200549,-0.284488,-0.805048,-0.662186,-0.730228,-0.168160
0.176479,-0.574161,-0.974674,-0.630585,-0.235587,0.739501
0.165348,-0.474015,-0.986676,0.322087,-0.308348,-0.895087
0.171710,-0.244401,-0.536449,-0.085852,-0.995934,0.027282
0.181038,-0.261224,-0.662695,-0.066848,-0.997700,-0.011247
0.171285,-0.269896,-0.698979,0.235596,-0.968068,0.085666
0.108726,-0.487155,-0.989042,0.093567,0.015412,-0.995494
0.305727,-0.489521,-0.973387,-0.253478,0.104516,0.961678
0.293324,-0.279891,-0.959576,0.767616,0.550285,-0.328559
0.235220,-0.259387,-0.789463,-0.611189,-0.700857,-0.367760
0.226526,-0.307751,-0.834061,0.976311,-0.188171,0.106810
0.217407,-0.349939,-0.878764,0.804037,0.580411,0.129024
0.207335,-0.294475,-0.899671,-0.693337,-0.720603,-0.003883
0.199064,-0.411451,-0.961872,-0.664782,0.194420,0.721294
0.267768,-0.608993,-0.921135,0.972267,0.215140,0.091715
0.256424,-0.494912,-0.930041,0.938947,-0.117261,-0.323463
0.245186,-0.343634,-0.928371,0.947040,0.154908,-0.281279
0.234796,-0.260694,-0.942739,0.974734,0.083461,0.207190
0.571542,-0.336406,-0.969039,0.248268,-0.308055,-0.918403
0.505060,-0.550376,-0.965734,0.169585,0.122891,0.977824
0.493505,-0.419730,-0.970569,0.301269,-0.150025,-0.941663
0.868843,-0.473878,-0.236646,0.105496,-0.363616,0.925556
0.633460,-0.367154,0.027430,0.909927,0.401697,-0.103311
0.572072,-0.246632,0.038737,0.063798,-0.162357,0.984667
0.512696,-0.304598,0.034979,0.511669,-0.017844,-0.858998
0.502834,-0.687455,-0.106121,0.486629,0.291431,0.823565
0.505591,-0.231125,0.189682,0.057076,-0.830938,0.553430
0.475266,-0.412767,0.028509,0.267051,-0.073171,0.960901
0.464559,-0.309853,0.018977,0.154803,0.602274,0.783136
0.462756,-0.663799,-0.086535,-0.518374,-0.461646,-0.719842
0.449820,-0.535126,0.025308,-0.740784,-0.244097,0.625824
0.383976,-0.332066,-0.154615,0.743542,0.666423,0.054994
0.374648,-0.301574,-0.179524,0.884121,-0.360452,0.297330
0.463497,-0.779331,0.007253,-0.515256,-0.165660,-0.840873
0.407303,-0.116652,0.204676,0.425153,0.004254,-0.905111
0.371253,-0.224026,0.204432,-0.267571,0.962987,0.032590
0.359909,-0.102589,0.197614,0.810297,-0.580352,0.081306
0.319194,-0.550240,-0.081630,-0.715066,-0.383516,0.584462
0.299048,-0.426958,-0.120628,0.427599,0.401011,0.810153
0.189625,-0.220745,-0.463777,0.986908,0.146285,-0.067925
0.159197,-0.212594,-0.395731,0.992691,0.086679,0.083972
0.150502,-0.226657,-0.432120,0.975437,-0.181258,0.125177
0.380902,0.027664,0.495678,0.993387,0.040649,-0.107375
0.425432,-0.480978,0.694561,0.633142,0.441242,-0.635953
0.368920,0.151210,0.668296,0.748106,-0.267584,-0.607236
0.164817,-0.201292,-0.198657,-0.501822,-0.851010,-0.154778
0.156971,-0.228494,-0.235915,0.855856,0.512145,0.072235
0.146581,-0.155286,-0.252857,0.998435,-0.052469,-0.019356
-0.817853,-0.099429,0.475222,0.837800,0.324391,-0.439160
-0.825169,-0.474801,0.343132,0.537588,0.227878,0.811832
-0.732394,-0.055532,0.476788,-0.121582,0.398212,0.909200
-0.564657,-0.402643,0.643353,-0.647354,0.506751,0.569329
-0.609191,0.081684,0.616636,0.265138,0.023770,-0.963918
-0.618733,0.154499,0.601920,-0.127782,-0.543479,0.829640
-0.526065,0.225598,0.624254,-0.271126,0.828395,-0.490155
-0.325033,-0.320105,0.828425,0.123950,-0.116452,-0.985432
-0.225896,-0.066963,0.923849,0.150270,-0.877670,0.455099
-0.221975,-0.421968,0.830826,0.094254,0.101173,0.990394
-0.233957,-0.278439,0.827695,-0.265607,0.778615,-0.568518
-0.260250,-0.381883,0.693169,0.089965,-0.648733,0.755680
-0.119444,-0.365189,0.871319,0.832777,0.172717,0.525977
-0.130155,-0.255175,0.863248,0.857553,0.065628,0.510191
-0.135775,-0.297892,0.827382,0.286049,-0.941394,-0.178757
-0.147119,-0.174875,0.820598,-0.309308,-0.936034,0.167833
-0.079367,-0.222453,0.813710,-0.242988,0.467909,0.849717
-0.094316,-0.205230,0.759302,-0.441936,0.850362,0.285617
-0.174261,0.266607,0.585570,0.604836,0.486941,0.630128
-0.057312,-0.454169,0.830026,0.823812,0.566680,-0.014407
-0.010873,-0.038975,0.878242,-0.651149,0.670140,-0.356253
-0.008223,-0.344813,0.793011,-0.560446,0.244111,-0.791398
-0.039182,0.188801,0.834200,-0.488400,0.847964,-0.205966
-0.085198,-0.210100,0.525665,0.598051,-0.738545,0.311268
-0.125172,0.155807,0.477936,0.695749,0.631589,0.342094
0.071298,-0.288298,0.908890,0.662164,0.348690,-0.663291
0.060485,-0.171193,0.902141,-0.291812,-0.520109,0.802703
0.040446,0.000461,0.875285,-0.320303,0.941859,-0.101523
0.043413,-0.309588,0.789219,-0.476570,0.879136,0.001215
0.115301,-0.174610,0.931885,0.902474,0.416420,-0.110157
0.107454,-0.151611,0.908160,0.809736,0.292667,-0.508601
0.100883,-0.168169,0.877268,-0.294425,-0.901380,-0.317535
0.093777,-0.165409,0.848603,-0.352507,0.538220,0.765544
0.083597,-0.058556,0.840184,0.975137,-0.199211,0.097069
0.075964,-0.060923,0.810405,-0.428642,0.265554,-0.863566
0.078191,-0.373861,0.723122,-0.554890,-0.665207,-0.499596
-0.080321,-0.096404,0.359587,0.795280,0.096969,0.598437
0.044791,-0.242821,0.631456,-0.425855,-0.521871,-0.739119
0.107561,-0.218378,0.718286,-0.671215,-0.680574,0.293750
0.077132,-0.215354,0.600842,0.736076,-0.574080,0.358643
0.070664,-0.248084,0.565880,0.917800,-0.107052,0.382338
0.047548,-0.234278,0.478979,0.933813,0.326576,0.146089
0.006833,-0.156080,0.343967,0.766257,0.571094,0.294451
0.038220,-0.083136,0.349672,0.837834,-0.536032,-0.103460
0.154745,-0.074592,0.946079,-0.764402,0.633634,-0.119155
0.152835,-0.253467,0.884608,0.410638,-0.888491,0.204844
0.148276,-0.339422,0.839732,0.538423,-0.706355,0.459525
0.140747,-0.341395,0.810023,0.424850,-0.540554,0.726157
0.134916,-0.374646,0.775687,0.999237,0.014765,-0.036147
0.120284,-0.144905,0.789776,-0.616943,-0.663928,-0.422588
0.114663,-0.209963,0.748239,-0.009092,0.978595,0.205595
0.193020,-0.157524,0.921762,-0.434303,0.584489,-0.685386
0.180721,-0.224162,0.853681,-0.458400,-0.370532,-0.807821
0.174146,-0.248212,0.819972,-0.047862,-0.410347,0.910672
0.166196,-0.243479,0.792629,0.718992,0.565417,0.404171
0.160575,-0.311562,0.750639,-0.152830,0.062535,0.986272
0.154955,-0.383984,0.707572,0.841010,0.266455,-0.470854
0.144778,-0.298678,0.693726,0.798249,0.595834,-0.088208
0.123889,-0.366103,0.593815,-0.233224,-0.852338,0.468109
0.230871,-0.012294,0.960655,-0.041824,-0.903535,0.426469
0.215075,-0.221659,0.836531,-0.567747,0.510964,0.645429
0.204471,-0.140565,0.822129,0.963116,0.213868,0.163302
0.200549,-0.259122,0.771964,0.883659,0.455532,-0.107875
0.196094,-0.365317,0.723922,0.363928,0.839467,-0.403548
0.191217,-0.470990,0.674558,0.019067,-0.675347,0.737253
0.174359,-0.424856,0.624533,0.992980,0.115749,0.024335
0.164497,-0.351912,0.608356,0.586939,0.756649,-0.288073
0.152835,-0.220352,0.603208,-0.135114,0.237105,0.962042
0.057304,-0.188408,0.250491,0.987773,0.064462,-0.141947
0.046807,-0.091808,0.238803,0.851463,0.512901,0.109284
0.254622,-0.430511,0.742221,0.752527,0.563307,-0.341157
0.243491,-0.319976,0.733071,0.661752,0.746041,-0.074209
0.240413,-0.488735,0.671879,0.384740,0.787126,-0.482087
0.205533,-0.074328,0.662626,0.592133,-0.438544,-0.676060
0.201290,-0.211407,0.606791,-0.260546,0.964847,-0.034440
0.165875,-0.362164,0.428850,0.587198,0.605135,-0.537596
0.097171,-0.193013,0.220748,0.916852,0.398387,-0.025890
0.259077,-0.050013,0.869858,-0.513874,0.619085,0.593857
0.266920,-0.590855,0.741072,-0.239326,-0.190710,0.952026
0.329053,-0.551820,0.771025,0.354829,-0.781660,0.512937
0.309335,-0.688908,0.657442,0.065588,0.655651,0.752210
0.264164,-0.189203,0.633508,0.147899,0.956900,0.249937
0.178919,-0.273313,0.288584,-0.702310,-0.711797,-0.010272
0.332978,-0.049091,0.709207,0.967762,-0.217046,-0.127781
0.325345,-0.058292,0.677758,0.896921,-0.062023,0.437819
0.098126,-0.317346,-0.030526,0.870554,-0.309396,-0.382635
0.189946,-0.425121,0.064062,0.509217,0.250631,-0.823336
0.159197,-0.174081,0.020438,0.170267,0.939362,-0.297672
0.143400,-0.204573,-0.047155,-0.154158,0.979316,0.131055
0.134385,-0.184863,-0.075194,0.843700,-0.531087,0.078207
0.118164,-0.211808,-0.143831,0.998404,-0.016231,0.054097
0.109363,-0.211407,-0.176636,0.986440,0.160838,-0.032671
-0.236817,0.220215,0.612009,0.291411,0.313121,0.903900
-0.223777,0.462704,0.711120,0.589358,0.798867,-0.120284
-0.257387,0.357688,0.633299,-0.638187,-0.152779,-0.754570
-0.154012,0.242821,0.594963,0.982404,0.185574,-0.021106
-0.119127,0.079189,0.448366,-0.111070,0.986843,-0.117490
-0.153374,-0.174217,0.825573,0.409552,0.911635,0.034478
-0.191650,0.300122,0.591971,0.812487,0.578802,-0.069660
0.021889,-0.289742,0.660329,0.725686,-0.664739,-0.177489
0.017967,-0.329435,0.690073,0.535137,0.703496,0.467677
0.017013,-0.326017,0.725696,0.745689,0.401915,-0.531424
0.019346,-0.268981,0.766607,0.074229,0.765361,0.639306
-0.033352,-0.156866,0.743751,-0.364702,0.798569,-0.478832
-0.059114,-0.441285,0.844080,-0.391496,0.120776,0.912219
0.065257,-0.496621,0.815102,-0.379822,0.460943,-0.802039
0.079676,-0.273313,0.877233,0.388710,0.117997,0.913773
0.091868,-0.076694,0.935677,0.883850,-0.345649,-0.315175
0.130781,-0.218113,0.932650,0.955680,0.062289,0.287741
0.012984,-0.283172,0.900889,0.711298,0.478273,0.515082
0.089431,-0.308537,0.563688,0.540472,0.597202,0.592654
0.087522,-0.278575,0.670522,0.250134,-0.942233,-0.222780
0.093670,-0.168305,0.720234,-0.109547,0.701446,0.704254
0.086461,-0.255047,0.742255,0.385636,-0.500273,0.775250
0.098867,-0.054874,0.803517,-0.640755,0.473277,-0.604517
0.107775,-0.264112,0.182550,-0.569772,-0.311689,0.760401
0.107775,-0.246632,0.221165,0.630446,-0.347873,0.693919
0.107668,-0.225077,0.258910,0.736301,0.646444,0.199927
0.150292,-0.216012,0.451253,0.418203,-0.891751,0.172878
0.040763,-0.195901,0.360213,0.736387,0.176822,-0.653046
0.034294,-0.273842,0.383660,0.789467,0.552212,0.267963
0.037582,-0.208913,0.428397,0.747155,0.650520,0.136321
0.036841,-0.195243,0.465725,0.860886,0.345922,-0.373113
0.024966,-0.325231,0.517316,0.404260,-0.771682,-0.490999
0.029312,-0.247426,0.561984,-0.131915,0.926528,0.352342
0.021996,-0.312348,0.622167,-0.086382,0.411964,0.907096
0.246247,-0.054746,0.633299,-0.474049,-0.860366,0.187210
0.211787,-0.472041,0.716373,0.516205,0.307281,-0.799444
0.318239,-0.524874,0.771686,0.463146,-0.648929,0.603645
0.233418,-0.090492,0.868223,-0.204975,0.051259,0.977424
0.131735,-0.345864,0.676332,0.686618,0.707223,-0.168498
0.131842,-0.306171,0.748865,-0.455916,-0.587110,-0.668911
0.138521,-0.187093,0.799343,0.993935,0.049890,-0.098001
0.135129,-0.220215,0.828460,0.737913,0.483894,-0.470459
0.131418,-0.250314,0.859143,-0.589784,-0.438572,-0.678093
0.114877,-0.194722,0.123028,-0.094583,-0.994469,-0.045657
0.354712,-0.081684,0.694770,-0.056447,-0.718857,0.692862
0.374223,-0.153577,0.196013,0.829169,0.119366,-0.546105
0.254339,-0.132457,0.565306,0.097494,-0.967563,-0.233059
-0.059250,0.182018,0.695927,0.138960,-0.293913,0.945677
-0.244978,0.430093,0.649848,0.431119,0.798786,-0.419615
-0.009512,0.680055,0.337393,-0.688752,0.404605,-0.601594
-0.372790,0.033566,0.623926,0.292479,-0.245111,0.924325
-0.388276,-0.538079,0.560643,0.240617,-0.490552,0.837534
0.276220,-0.603889,0.675621,0.251079,-0.086133,0.964127
0.429005,-0.560453,0.681048,0.806788,-0.303849,-0.506724
0.019973,-0.530292,0.819652,-0.000729,0.913519,0.406796
0.088810,-0.221309,0.720792,0.782203,0.255154,-0.568379
-0.278517,0.103446,0.544616,-0.542494,-0.089813,0.835245
0.348583,-0.247468,0.045581,-0.562422,-0.794180,-0.230131
0.524905,-0.282479,0.742698,-0.602897,0.364726,-0.709571
-0.750407,-0.148416,0.353312,-0.736625,0.260538,-0.624102
0.467373,-0.493856,-0.959893,-0.309260,0.283555,0.907719
0.103411,-0.596002,-0.977764,0.589108,0.778395,0.216917
-0.094662,0.025839,0.298030,0.999900,-0.004220,-0.013493
0.210559,0.015442,0.844176,0.843657,0.346937,-0.409728
-0.401664,0.035184,0.658704,0.837351,-0.544869,-0.044284
0.115187,-0.204861,0.195640,0.274845,0.899636,-0.339287
-0.312056,-0.487073,0.598910,0.007109,0.999431,0.032965
0.395376,-0.753419,-0.330362,-0.298014,-0.512647,0.805221
-0.805769,0.011900,0.423027,-0.493627,-0.275216,0.824978
0.347672,-0.387652,0.497726,-0.054398,0.647591,0.760044
0.122083,-0.296098,0.697851,-0.691688,-0.605426,-0.393735
0.044908,-0.326769,0.516118,0.764033,-0.642131,-0.062613
0.039798,0.245978,0.923627,-0.605659,-0.757016,-0.245163
-0.454071,-0.239696,0.721526,0.990860,0.061204,-0.120207
-0.352249,0.453012,0.748069,-0.449346,0.891861,-0.051690
-0.184747,0.018942,0.511734,0.736355,-0.571115,-0.362781
-0.337122,-0.423804,0.399689,-0.382529,0.350169,0.855016
-0.335672,0.288221,0.605412,0.059335,-0.950490,0.305038
-0.100328,0.121901,0.528883,0.734250,0.480295,-0.479784
-0.487585,-0.547438,0.804089,0.767700,0.358767,0.530964
0.234986,-0.556798,-0.095500,-0.656752,0.682579,0.320564
-0.597281,-0.052861,0.495134,0.831996,0.552195,-0.053509
0.203064,-0.680598,0.639506,0.022713,0.679334,0.733478
-0.148365,0.002809,0.882320,-0.406153,0.912220,-0.053797
0.420881,-0.787229,-0.079908,0.493442,-0.319620,0.808924
-0.425174,-0.031029,0.727876,0.196198,0.939383,-0.281186
0.234332,-0.049884,0.737260,0.114763,-0.504625,-0.855677
0.320369,-0.320328,-0.115489,-0.329557,0.042673,-0.943171
0.408807,-0.395800,-0.983566,0.004565,-0.103330,0.994637
0.306079,0.080412,0.702118,-0.311205,0.910538,0.272163
0.209433,-0.516259,-0.976358,-0.174555,-0.160147,0.971537
0.332321,-0.236931,0.456336,-0.690078,0.721646,0.054948
0.120440,-0.250689,0.615277,0.365154,0.488738,0.792337
-0.185182,0.272840,0.600293,0.878792,0.344671,-0.330041
-0.042410,-0.074468,0.363900,0.738078,0.330904,-0.587999
-0.229490,0.416425,0.634615,0.127438,-0.988766,-0.078115
0.167281,-0.057696,0.619319,-0.618223,-0.420330,-0.664171
0.011947,-0.405289,0.827121,0.319336,-0.401019,0.858608
0.179408,-0.586988,0.597530,0.182511,0.981545,-0.057084
0.222562,0.218426,0.615285,0.994409,0.043546,-0.096200
0.118053,-0.251228,0.046992,0.402324,0.907528,0.120530
0.152535,-0.270504,0.856818,-0.037015,0.880161,0.473229
-0.053700,-0.399985,0.733469,0.189340,0.874796,0.445963
0.113574,-0.758901,0.659205,-0.348562,0.746615,0.566631
-0.026516,-0.208365,0.455918,0.253686,0.868165,0.426536
0.477073,-0.680751,0.674634,0.896777,-0.307951,-0.317736
0.068842,-0.034162,0.891852,0.051638,0.977716,0.203484
-0.047113,-0.196711,0.602809,0.731772,0.659373,0.172443
0.213572,0.125917,0.569911,0.926258,-0.357530,-0.119245
-0.379446,-0.343351,0.750241,0.752371,0.505687,0.422159
0.229117,-0.478860,-0.970321,-0.576268,0.520663,-0.629941
-0.140920,-0.300901,0.674094,0.829125,0.348037,0.437517
-0.628064,-0.432119,0.474730,0.461133,-0.043247,0.886277
0.170572,-0.716536,0.713974,0.327357,-0.526437,0.784667
0.205026,-0.434720,-0.060434,-0.480853,-0.275450,-0.832411
0.040498,-0.221360,0.577116,0.800763,-0.568073,0.189925
0.181021,-0.004740,0.616845,0.665965,-0.729998,-0.153602
0.307153,-0.050505,0.821394,-0.460305,-0.881096,-0.108577
-0.076198,-0.063788,0.859017,0.004954,0.645358,0.763864
0.451630,-0.184837,0.210681,0.075782,-0.492283,0.867130
-0.106420,0.121215,0.694153,0.386787,-0.358333,-0.849702
0.054161,-0.187984,0.695969,-0.194342,0.895843,-0.399621
-0.464013,-0.038776,0.463686,-0.440399,-0.248665,0.862679
0.307116,0.256795,0.660654,0.046982,-0.207894,0.977022
-0.319452,-0.273852,0.396983,0.539236,-0.628476,-0.560573
0.113503,-0.267111,0.715654,0.754368,0.261746,-0.602011
0.839139,-0.673189,-0.246281,-0.064857,0.014813,0.997785
0.096052,-0.186435,0.148944,-0.100597,0.983782,-0.148506
-0.366091,-0.421595,0.409023,-0.382529,0.350169,0.855016
0.022064,-0.057722,0.655064,0.662676,0.477398,-0.577020
-0.101806,0.038659,0.632634,-0.482376,0.875724,-0.020500
0.287141,-0.032827,0.706405,-0.536370,-0.753008,-0.381166
0.161591,0.424535,0.552782,0.333531,0.510429,0.792603
0.331341,-0.644318,0.565638,-0.109165,0.993935,0.013302
-0.347004,0.412548,0.689258,0.145331,0.873436,0.464745
0.603158,-0.305662,-0.214675,0.817898,-0.498486,0.287321
0.095043,-0.097397,0.572442,0.955934,-0.293103,-0.016734
-0.515317,-0.435152,0.434237,-0.488743,0.066535,-0.869887
-0.342595,-0.166923,0.692277,-0.421935,-0.817033,-0.392974
-0.346085,-0.396151,0.392523,-0.410584,-0.077429,0.908529
0.216605,-0.233268,0.811812,0.203521,-0.847866,0.489594
-0.698153,0.006927,0.385582,0.769694,0.629055,0.108909
-0.310570,-0.621521,0.810621,-0.098691,0.005498,0.995103
-0.001895,-0.218619,0.498871,0.688884,0.308780,0.655815
0.345810,-0.158353,0.654933,-0.721887,-0.664197,0.194219
0.152389,-0.367222,-0.198330,0.985905,-0.146660,0.080517
0.066663,-0.253016,0.674383,-0.431683,0.886113,0.168680
0.405730,-0.497543,0.522860,-0.462516,0.775346,0.430020
0.530627,-0.073922,0.273952,0.373493,-0.896834,-0.237046
-0.034993,-0.213496,0.186224,0.123118,-0.970087,-0.209219
-0.577051,0.164209,0.604297,-0.322395,0.601441,-0.730979
0.327199,-0.449239,-0.333423,0.250743,0.191720,0.948879
0.199974,-0.030515,0.609368,0.087452,0.823603,0.560383
0.107564,-0.332974,0.460730,0.215936,0.962688,0.163106
0.545141,-0.625415,-0.272000,0.887666,0.157755,-0.432622
0.209941,-0.019812,0.833784,-0.232277,-0.841139,0.488398
-0.129141,-0.245973,0.776183,0.413312,0.847778,0.332335
0.380854,0.208168,0.681072,-0.585991,0.022840,0.809996
-0.138264,0.190571,0.547632,-0.042756,0.476784,0.877980
-0.181383,0.426910,0.617261,0.777260,-0.465266,-0.423550
0.140617,-0.100150,0.989401,0.750539,-0.581156,0.314560
0.532339,-0.440250,-0.042408,-0.789013,-0.113266,-0.603846
-0.657927,0.091345,0.488727,0.540499,0.655345,-0.527621
-0.150541,0.281183,0.541309,0.482189,0.208200,-0.850968
0.439213,-0.648754,-0.953943,-0.518378,-0.132635,-0.844803
0.249132,-0.448200,0.720024,0.656083,-0.437226,0.615133
0.658496,-0.311971,-0.981986,-0.161046,0.219403,0.962251
0.042878,-0.091582,0.814756,0.412117,-0.417859,-0.809662
0.364088,-0.490435,0.526067,-0.444422,0.732150,0.516183
0.405635,-0.495996,0.536984,0.694432,-0.665540,-0.273532
-0.076738,-0.223426,0.817801,-0.022031,0.438002,0.898704
-0.093691,0.378721,0.682553,0.511288,0.859332,0.011551
-0.090155,0.333776,0.347579,0.928006,-0.069968,-0.365935
-0.732250,-0.436001,0.338517,-0.157624,0.750889,0.641342
0.068079,-0.289989,0.611629,-0.879150,0.073451,0.470851
0.541722,-0.215721,0.203348,0.091022,-0.710465,0.697821
0.144246,-0.450396,0.721694,0.611749,0.376969,0.695455
0.296762,-0.670446,-0.962351,-0.181567,-0.101459,-0.978131
0.493063,-0.356178,-0.973745,0.583442,0.227344,0.779686
0.208081,-0.608610,-0.992896,0.251018,0.209702,0.944995
0.032427,-0.250866,0.626825,-0.011710,0.997031,0.076109
0.092873,-0.136333,0.538514,0.786477,-0.605426,-0.122118
-0.290294,-0.564837,0.594688,-0.704006,-0.016802,-0.709995
-0.312495,-0.441603,0.405545,-0.620696,0.295253,0.726335
-0.292505,-0.235143,0.738115,0.306069,0.129904,0.943105
0.231667,-0.343060,-0.773912,-0.718420,-0.646751,-0.256097
0.087958,-0.189756,0.707562,-0.431595,-0.893446,0.124419
-0.551938,-0.041588,0.521773,0.282439,0.851369,-0.442040
0.125771,-0.261352,0.756445,0.079888,-0.095316,0.992236
-0.180028,-0.547352,0.780363,-0.511387,0.451818,0.730988
0.207804,-0.270534,-0.669453,0.468268,0.883368,0.019659
-0.147022,0.135019,0.622329,0.715040,0.471498,0.516147
0.520552,-0.365808,-0.983660,-0.014018,-0.006757,0.999879
0.224837,-0.251247,-0.628906,0.160125,0.974986,-0.154149
0.010950,-0.289215,0.785775,0.953917,-0.180808,0.239480
-0.061508,-0.035052,0.831309,-0.469973,0.667961,0.577021
-0.069830,-0.148739,0.374260,0.183316,0.955796,0.229889
0.145367,-0.533434,-0.983459,0.568716,0.070668,-0.819493
0.188350,-0.103712,0.812743,0.918851,-0.218375,0.328672
-0.119834,-0.056473,0.875736,-0.629769,-0.776782,0.000336
-0.162930,-0.262767,0.536947,0.123575,-0.835011,0.536178
-0.385035,-0.399855,0.588903,0.817640,-0.288781,0.498067
-0.087208,0.728864,0.370016,0.773606,-0.225778,0.592080
-0.253602,0.360988,0.732112,0.851240,-0.417614,0.317788
0.255974,-0.307074,-0.970934,-0.148958,-0.522259,0.839677
0.281221,-0.718563,-0.958354,0.611000,0.250103,-0.751085
-0.342676,-0.187211,0.580965,-0.532128,-0.332182,-0.778777
0.127071,-0.272048,0.577378,0.783915,0.388691,-0.484145
0.096788,-0.065746,0.819777,0.873379,0.313339,-0.372865
0.256212,-0.598052,-0.964550,-0.358124,0.277019,0.891632
-0.361716,-0.604260,0.590156,-0.126207,0.986488,0.104469
0.255308,-0.183609,0.671729,-0.525776,0.694765,-0.490775
-0.302239,-0.351777,0.577776,0.601433,0.149718,0.784769
0.348032,-0.113634,0.474305,0.967274,-0.177365,-0.181446
-0.175325,-0.291393,0.840303,0.297156,0.775876,-0.556521
0.596118,-0.286012,-0.212708,0.955392,-0.264428,0.131543
-0.036983,-0.209852,0.711626,-0.349523,-0.043927,-0.935898
0.068729,-0.438304,0.632750,-0.134530,0.829152,0.542595
0.808476,-0.253162,-0.219673,0.241581,-0.578650,0.778975
0.134587,-0.187578,0.746956,-0.225010,-0.541112,-0.810289
-0.557396,-0.032378,0.381368,-0.608728,-0.775179,-0.168963
0.552577,-0.788384,-0.179563,0.983459,0.026212,0.179224
-0.125846,-0.662478,0.740973,0.321290,0.552565,0.769054
0.015438,-0.288949,0.427601,0.773463,0.537222,-0.336374
-0.768864,0.065615,0.411197,-0.666052,-0.745878,0.006378
-0.028472,-0.481432,0.817006,0.313359,0.947623,0.061785
-0.004877,-0.471726,0.757741,-0.713824,0.560974,-0.419241
-0.406248,-0.030685,0.456497,0.296351,0.951282,-0.085076
0.124598,0.643027,0.327975,0.049020,0.702933,0.709565
0.272757,-0.402920,0.722952,-0.238446,-0.961322,0.137853
0.451844,-0.412766,-0.958628,-0.202590,0.396904,-0.895223
-0.136168,-0.290536,0.695828,0.890280,0.018069,0.455054
-0.159253,-0.388773,0.645409,0.353421,-0.046708,-0.934297
-0.394764,-0.348070,0.602219,0.590961,-0.125086,0.796944
0.136847,-0.106775,0.779759,-0.272239,-0.679160,0.681635
0.526138,-0.520045,-0.955522,-0.533961,-0.009475,-0.845456
0.357962,0.148255,0.540071,-0.653870,0.321203,-0.685042
-0.206634,-0.151151,0.204378,0.249326,-0.345091,0.904847
-0.199666,-0.093021,0.700412,0.841152,0.486162,0.236876
0.351811,-0.782129,0.665302,-0.039365,0.400518,0.915443
0.196538,-0.340980,0.797568,-0.757847,0.086587,0.646662
0.222123,-0.349742,-0.971984,0.886446,-0.267646,-0.377596
-0.154299,-0.345584,0.796466,-0.290166,0.617101,-0.731430
0.949217,-0.339105,-0.319366,0.912222,0.069269,0.403798
-0.130033,-0.286109,0.805209,0.883435,-0.204176,-0.421728
-0.371060,0.056140,0.529278,0.053804,0.246534,-0.967639
0.061131,-0.085383,0.172831,-0.446279,-0.884936,0.133125
0.011566,-0.243957,0.477510,0.736529,-0.588788,-0.332946
-0.381150,-0.421395,0.661014,-0.410395,-0.624179,0.664814
-0.423287,0.453596,0.748085,0.477616,-0.820528,-0.314032
-0.216522,0.151790,0.614264,0.229810,0.524256,0.819965
0.208758,-0.359060,0.037522,0.984955,0.033102,-0.169608
0.020346,-0.245565,0.547857,0.959030,0.282204,-0.024938
0.464997,-0.724218,-0.950859,0.923932,0.382556,0.000035
0.858983,-0.273644,-0.352029,-0.287617,0.599478,0.746929
-0.200518,-0.300593,0.534438,-0.547710,-0.235752,-0.802767
-0.817678,-0.303242,0.381567,-0.410441,0.383783,-0.827193
0.260805,-0.341553,-0.821603,0.142505,0.989343,0.029887
0.308182,-0.217134,-0.000190,0.109963,-0.990237,-0.085666
0.307882,-0.577249,0.738883,-0.905936,0.374282,0.197974
-0.369294,0.094238,0.701577,-0.446599,0.253404,-0.858100
0.258743,-0.027001,0.957340,-0.370987,-0.928630,0.003854
0.194224,0.150723,0.716302,0.856298,0.083216,0.509734
0.228848,-0.396468,-0.106028,0.871373,0.479249,-0.105020
0.212311,-0.215640,-0.429147,0.984882,0.172065,0.020010
0.170773,-0.262105,0.741580,0.896455,0.258593,-0.359858
-0.245881,0.396424,0.682476,-0.076481,-0.940834,0.330123
0.230498,-0.243916,0.849512,0.912833,-0.251446,0.321730
0.405338,-0.218321,0.656654,0.947046,0.304442,0.102076
-0.008727,-0.155497,0.156276,0.090818,-0.981024,0.171300
0.744214,-0.390819,-0.248515,-0.075978,-0.779607,0.621643
-0.005569,-0.326448,0.708627,-0.765870,-0.103020,-0.634689
-0.055604,0.139310,0.553221,0.833813,0.496831,-0.240656
0.313369,-0.410141,0.781444,-0.121454,-0.992510,-0.013146
0.391937,-0.250589,0.512190,-0.381850,0.056345,-0.922505
0.120422,-0.372270,0.607612,-0.527063,-0.565920,0.633987
0.259713,-0.323007,0.833899,0.451292,0.465326,-0.761451
0.124207,-0.192910,-0.057442,0.510384,-0.853082,-0.108442
-0.174404,0.420732,0.630972,-0.498201,0.753172,0.429566
-0.278308,-0.467057,0.742215,0.846956,-0.424592,0.319979
0.356280,-0.289935,-0.817413,0.293020,0.955112,-0.043585
0.359706,-0.368836,-0.304160,-0.659879,0.281045,0.696831
0.327163,-0.090704,0.665309,-0.645974,0.712677,0.273514
0.277765,-0.761526,-0.966099,-0.568888,-0.166025,0.805482
0.543245,-0.121847,-0.277593,0.803966,-0.074056,-0.590047
0.312593,-0.451721,0.672879,0.740152,-0.052740,0.670368
0.137549,-0.024391,0.859287,-0.125528,0.982355,-0.138639
-0.184754,0.424622,0.724299,-0.722125,0.442761,0.531505
0.184546,-0.449357,0.792244,0.728157,0.340765,-0.594698
0.518866,-0.233112,0.018875,-0.632450,0.072585,0.771193
0.068407,0.328349,0.884796,-0.619714,0.756946,-0.207334
0.058602,0.229613,0.852142,-0.515715,0.802111,0.301092
0.405236,-0.066585,0.208043,-0.710387,0.691772,0.129625
-0.281743,-0.558832,0.809234,0.049752,0.956065,0.288902
0.317563,-0.073293,0.718655,-0.434147,-0.755002,-0.491415
0.375012,-0.107286,0.191383,-0.510395,0.818145,-0.264832
0.445777,-0.342381,-0.975347,-0.029348,0.053399,0.998142
0.330084,-0.624687,-0.334374,0.245056,0.342379,-0.907041
0.192919,-0.429665,0.636102,0.913682,0.390799,-0.111632
-0.289225,0.225364,0.541379,0.679227,-0.022052,-0.733597
-0.428026,-0.225242,0.452743,-0.472585,0.433268,-0.767426
0.153164,-0.045228,0.647176,-0.289646,0.942807,-0.164984
0.156757,-0.200609,0.909103,0.867995,-0.263701,0.420770
0.081922,-0.253552,0.618545,0.845286,-0.443113,-0.298567
0.243393,-0.323761,-0.689257,0.410852,0.901861,-0.133591
0.147054,-0.192571,0.608059,-0.135114,0.237105,0.962042
-0.070472,-0.174935,0.801805,-0.565125,-0.219833,-0.795178
-0.004954,-0.426071,0.747583,0.968478,-0.225385,0.106074
0.175284,-0.371050,0.791416,-0.644032,0.163264,0.747373
-0.797067,-0.234938,0.378135,-0.366409,0.432032,-0.824071
0.622025,-0.049812,-0.259842,-0.454318,-0.588860,-0.668460
-0.522993,0.154378,0.588210,-0.653260,0.476827,-0.588122
-0.271645,-0.125648,0.857772,-0.028015,-0.823595,0.566486
0.010530,0.060503,0.797785,-0.209589,-0.716871,0.664957
0.594610,-0.376711,-0.977160,-0.157441,0.250149,0.955321
0.020325,0.098660,0.479697,0.028609,-0.864157,0.502408
-0.053714,-0.108407,0.876545,0.825621,0.562400,-0.045341
0.051901,-0.257549,0.263889,0.918444,0.373052,0.131506
-0.083171,-0.251060,0.132166,0.080094,-0.993351,0.082692
0.256202,-0.358921,-0.950694,0.545599,-0.098258,-0.832266
0.307002,-0.400355,-0.955739,-0.647187,0.111039,-0.754201
0.030213,-0.355100,0.397928,0.861319,0.508040,-0.005031
0.191625,-0.226971,-0.096076,-0.674512,-0.723728,0.145776
0.717137,-0.602730,-0.030738,-0.568560,0.714047,0.408505
0.334757,-0.589821,0.566777,-0.258004,0.965081,-0.045307
0.182049,-0.148839,-0.328455,0.873233,-0.485960,-0.036154
0.328434,-0.420278,-0.959572,0.706428,0.382466,0.595549
-0.352024,-0.418153,0.775899,0.421622,0.886469,0.190806
0.044177,-0.171934,0.738212,0.397085,0.721409,-0.567356
0.046672,-0.157722,0.218954,0.624774,0.324327,0.710260
-0.180119,-0.507300,0.556930,0.866489,0.098103,0.489462
0.402637,-0.258129,0.662130,0.936825,-0.349069,-0.022604
0.336326,-0.282860,-0.216376,0.487914,0.832947,0.261034
0.420417,-0.586957,0.660556,-0.430185,-0.309086,-0.848178
-0.082404,0.218027,0.610111,0.347979,0.027740,-0.937092
0.225922,-0.401758,0.055243,0.442942,0.399985,-0.802380
0.290481,-0.563898,0.743877,-0.377007,0.247989,-0.892394
-0.198406,-0.453343,0.618798,0.979137,0.186813,-0.079943
0.077411,0.021242,0.833334,0.166505,0.961153,-0.220140
0.449580,-0.301112,-0.991342,-0.098132,0.148182,0.984079
0.477279,-0.437339,-0.019239,0.925990,0.335088,0.173949
0.175820,-0.262093,-0.194134,0.915855,-0.071961,0.395008
0.989110,-0.456340,-0.418360,0.950079,0.302986,-0.074497
0.178877,-0.333576,0.632087,0.944342,0.225192,-0.239804
0.135995,-0.304014,0.681304,0.413438,0.820923,0.393898
0.244535,-0.781737,-0.341216,0.879068,-0.114549,-0.462730
-0.761483,0.469413,0.434078,-0.261273,-0.877064,-0.403107
0.518852,-0.203607,-0.287962,0.800637,-0.126536,-0.585636
0.024595,-0.459461,0.745439,0.340887,0.579315,0.740399
-0.095679,-0.060843,0.412333,0.818982,-0.415485,0.395778
0.259380,-0.262184,0.664478,-0.213992,0.923372,0.318735
0.053705,0.185200,0.931210,0.646373,0.755383,0.107694
0.067014,-0.181219,0.888545,0.270129,-0.945844,0.180028
0.104820,-0.507020,-0.045999,0.383521,0.865915,0.321096
-0.071190,-0.266126,0.651336,0.916469,-0.351905,0.190391
0.130966,-0.218859,0.633838,0.752701,-0.302923,-0.584533
0.021275,0.165504,0.826627,0.382670,0.531415,-0.755752
-0.256690,0.333569,0.605153,0.160913,-0.260837,0.951878
-0.126952,0.127131,0.526261,0.451668,-0.330431,0.828741
-0.549521,-0.314536,0.500627,-0.318130,0.848457,-0.422983
0.179389,0.063106,0.869746,-0.784561,0.617127,-0.060151
-0.318907,-0.441579,0.659886,-0.441806,-0.405121,0.800428
0.118144,-0.211032,0.755990,0.193073,-0.546703,-0.814763
-0.166845,-0.243762,0.690857,0.780848,0.305670,0.544832
-0.153625,-0.343675,0.754342,0.890518,-0.450641,0.062454
0.051381,-0.209542,0.381341,-0.870886,-0.209362,-0.444662
-0.224440,-0.101750,0.547061,0.859287,0.136085,-0.493058
0.135046,-0.246403,0.715332,0.842051,0.422469,-0.335365
-0.092157,-0.251157,0.729333,-0.560403,0.205755,-0.802255
-0.421848,0.442614,0.717275,0.938723,-0.101265,0.329460
0.206824,-0.580294,-0.109516,0.912254,-0.409072,-0.021287
0.365166,-0.490787,0.762872,-0.585610,-0.220976,-0.779891
0.338434,-0.092460,0.670236,-0.678690,0.517480,0.521146
0.311605,-0.310441,0.079214,-0.664063,0.256969,-0.702131
-0.427970,-0.118413,0.661870,0.848740,-0.183767,-0.495853
0.520594,-0.542167,-0.101182,0.194996,-0.104280,-0.975245
0.309045,-0.383877,-0.653157,0.641107,0.762210,0.089542
-0.186536,0.170699,0.562192,-0.503535,-0.363879,-0.783610
0.147577,-0.430508,0.772919,0.909735,0.229226,0.346177
0.271772,-0.653993,-0.984598,-0.072385,0.118293,0.990337
-0.090806,0.176132,0.702091,0.112347,-0.693577,0.711568
0.340660,0.194991,0.638075,0.633543,0.691188,0.347681
0.235335,-0.483534,0.725611,0.605977,0.641748,-0.470055
0.024445,-0.326643,0.726985,0.815218,0.344111,-0.465841
-0.313466,-0.204624,0.598918,-0.211433,0.876768,-0.431942
-0.381245,-0.355169,0.611901,0.242692,0.673357,0.698348
-0.389982,0.414235,0.596963,-0.376869,0.839874,0.390617
0.273950,-0.110891,0.611335,0.760687,0.292792,0.579334
-0.274306,-0.405930,0.781173,0.130667,0.469774,0.873063
-0.348820,-0.207693,0.407155,0.382912,0.735973,0.558320
-0.303557,-0.498497,0.585068,-0.406612,-0.468910,-0.784086
0.204533,-0.258559,-0.552809,-0.225076,-0.971600,-0.073037
0.237697,-0.049504,0.661292,0.042363,0.989772,-0.136222
-0.599603,-0.293126,0.368693,-0.483822,0.792530,-0.371231
0.631851,-0.393080,-0.132171,0.929560,-0.358518,0.085927
0.274401,0.115825,0.921013,0.999049,-0.043528,0.002344
0.194456,-0.236093,-0.893991,0.455297,0.889603,0.036216
0.023519,-0.179673,0.125164,0.262257,-0.962068,0.075137
0.131471,-0.226538,0.686975,-0.432017,0.894305,-0.116534
0.263251,-0.688889,-0.345450,-0.316491,0.084279,-0.944844
-0.813175,0.533300,0.415557,0.159779,0.987107,-0.009533
0.194118,-0.137807,0.149415,-0.084180,-0.961235,0.262567
-0.232575,-0.652220,0.799825,0.974636,-0.088442,0.205577
-0.124133,-0.274561,0.613567,0.956002,0.287214,-0.059740
0.357584,-0.071585,0.664446,-0.712269,0.071734,0.698231
0.168748,-0.191338,0.827637,-0.236779,-0.480324,0.844527
-0.402427,0.263568,0.647381,0.271127,0.951811,-0.143335
0.349714,-0.313258,-0.117994,-0.271675,-0.249885,-0.929382
0.386826,-0.208158,0.481225,-0.305762,0.788710,0.533335
0.058782,-0.610374,0.770706,-0.174711,-0.979640,0.098904
0.432665,-0.642092,-0.079406,0.567544,0.306453,0.764186
-0.004252,-0.200649,0.097703,0.310048,-0.873697,0.374866
-0.097866,-0.221013,0.812148,0.808725,-0.001372,-0.588186
0.062162,0.683434,0.321489,0.173870,0.512162,0.841106
-0.119955,-0.341050,0.751490,0.623013,-0.739479,-0.255001
-0.058627,-0.309508,0.808700,-0.159341,0.659681,-0.734460
-0.234270,0.418770,0.656662,-0.614863,-0.745406,0.257514
0.271315,-0.394039,0.758385,0.188896,0.872220,-0.451166
0.223971,-0.328461,0.908118,0.871533,0.198014,-0.448575
-0.013418,-0.037403,0.794994,-0.592284,-0.233364,0.771194
0.163218,-0.185832,0.207831,0.297778,-0.393919,0.869573
0.104935,-0.802674,0.700969,0.959653,-0.060178,-0.274671
0.530663,-0.492634,0.046358,0.604253,0.553436,0.573225
-0.418590,0.424721,0.582524,-0.604139,-0.793772,0.070305
0.110351,-0.775146,-0.351238,0.750524,0.243771,0.614239
-0.471854,-0.113394,0.616937,0.974029,0.186355,-0.128606
0.906492,-0.104307,-0.307470,0.811767,-0.087505,0.577388
-0.300875,0.185577,0.624947,0.211333,0.811810,0.544337
0.510680,-0.070051,0.227628,0.014191,-0.999817,-0.012812
-0.054485,0.770803,0.357468,0.667377,-0.393426,0.632317
0.359338,-0.314481,0.643679,0.572099,-0.455424,-0.682123
0.267185,-0.771268,-0.970751,-0.039454,0.279664,0.959287
0.652443,-0.197662,-0.194923,0.809979,-0.183225,-0.557102
0.127983,-0.196899,0.017964,0.965256,0.200608,-0.167444
0.305123,-0.652286,0.663145,-0.452722,-0.536918,-0.711872
-0.073345,-0.253201,0.819468,0.397845,0.576441,0.713747
-0.054753,-0.277785,0.543998,-0.077871,-0.780819,0.619885
0.210404,-0.536078,0.658937,-0.641343,0.714877,-0.278620
0.472605,-0.641568,-0.963433,-0.388568,0.418659,-0.820816
-0.076408,0.020057,0.401966,0.631745,0.395040,0.666964
-0.637550,-0.084638,0.479029,0.572609,-0.051113,-0.818233
-0.221258,-0.306746,0.417396,0.137940,0.220195,0.965654
0.106932,-0.057525,0.906650,0.414202,-0.452659,-0.789643
-0.084229,0.469930,0.335107,-0.557777,0.288272,0.778322
0.006955,-0.290190,0.507791,0.080067,0.496220,0.864497
-0.519774,0.215054,0.586305,0.481347,-0.876523,0.003602
0.127867,-0.158517,-0.182486,-0.281555,-0.934290,0.218696
-0.128689,0.010251,0.713225,-0.359883,0.382272,0.851089
0.034489,-0.361270,0.720105,0.969280,-0.242282,-0.042365
-0.080465,-0.364287,0.795395,-0.003334,-0.342613,0.939471
-0.362343,-0.441872,0.595300,-0.176687,-0.056140,0.982665
-0.299559,0.015061,0.425850,-0.528825,0.398591,-0.749313
0.683318,-0.039088,-0.281566,0.600798,0.563704,0.566815
-0.704213,0.524970,0.417041,0.055948,-0.933343,-0.354598
0.400346,-0.069509,0.495217,0.972289,0.184245,0.143902
-0.828797,0.264436,0.463666,0.967580,-0.163671,0.192356
-0.099543,-0.428206,0.781872,0.737918,-0.014761,-0.674729
-1.000000,-0.079667,0.366429,0.837814,0.471533,-0.275181
0.563378,-0.380223,-0.975685,-0.444939,0.351770,0.823582
0.400538,0.028433,0.713054,0.751243,0.568255,0.335738
0.177183,-0.539832,-0.977951,-0.396071,0.181268,0.900150
0.498179,-0.597405,0.691369,0.884477,0.212041,-0.415619
0.248779,-0.535014,-0.965242,-0.213697,0.189683,0.958308
-0.158231,0.167014,0.488856,0.965362,0.259676,-0.025377
0.449457,-0.643076,-0.963399,-0.453419,0.378195,-0.807081
0.208967,-0.147352,0.808913,-0.713491,0.246335,-0.655934
0.253051,-0.241268,0.814687,-0.737805,-0.637245,-0.222626
-0.230888,0.506347,0.749062,-0.411267,-0.219578,0.884672
0.475507,-0.261040,0.016971,0.545233,-0.810554,0.213829
-0.259245,0.089711,0.511458,-0.404607,0.884630,-0.231783
0.414080,-0.577309,0.741341,0.892073,0.345025,0.291829
0.103585,-0.047195,0.625671,0.314411,0.332196,0.889265
0.013727,-0.292297,0.763469,0.393167,0.656097,0.644171
0.169773,0.115087,0.277310,0.118506,-0.928501,0.351911
-0.089123,-0.408279,0.748144,0.884198,-0.122904,0.450654
0.268609,-0.323527,0.671529,-0.581248,-0.392935,-0.712568
-0.328089,-0.189266,0.218114,-0.755276,0.483279,-0.442719
-0.732917,-0.585439,0.386630,0.982089,0.088822,-0.166171
0.345443,-0.370720,-0.923592,-0.134475,-0.891672,0.432246
0.442898,-0.420908,-0.329201,0.862483,-0.398844,-0.311524
-0.015032,-0.247626,0.140373,-0.161043,0.961325,-0.223425
-0.235664,-0.265941,0.701683,0.793545,-0.038723,-0.607278
0.120371,-0.862609,0.675033,0.904483,0.415349,-0.096936
-0.299071,-0.132955,0.581468,-0.124691,0.666205,0.735270
-0.071020,-0.351703,0.533132,0.649759,-0.287577,0.703643
0.245545,-0.696543,-0.976342,-0.343465,0.236402,0.908926
-0.256499,-0.538279,0.602362,0.893732,-0.297387,0.335862
0.264142,-0.394571,-0.467588,0.834058,0.550560,-0.035089
0.201599,-0.377479,0.190856,0.462482,-0.734855,-0.496084
0.438969,-0.638825,-0.320654,-0.160122,0.091349,0.982861
0.518942,-0.277413,0.029331,0.660439,-0.160398,-0.733548
0.082646,-0.025043,0.881659,-0.078614,0.962572,-0.259373
0.262292,0.142631,0.608510,0.978536,0.054647,-0.198698
-0.352509,0.111682,0.581206,-0.701881,-0.102881,0.704826
-0.159267,-0.174685,0.645029,-0.194165,-0.846162,0.496297
0.578721,-0.219025,-0.242458,-0.697623,-0.005505,0.716444
-0.098943,-0.486813,0.727422,-0.519157,-0.701626,0.488054
0.125025,0.137599,0.921238,0.844540,0.527312,-0.093241
0.357789,-0.010768,0.500366,0.030422,0.777335,0.628351
0.039797,0.339019,0.599756,-0.129304,0.991098,-0.031707
0.273745,-0.636517,-0.957864,0.266577,0.049569,-0.962538
0.171353,-0.267534,-0.655652,0.221922,0.973114,0.061640
-0.014482,-0.189641,0.542945,0.027631,0.890978,0.453205
0.279083,-0.709130,-0.969848,0.759083,0.437851,-0.481746
-0.604940,-0.522034,0.620928,0.997671,-0.055848,-0.039160
0.341231,0.196069,0.673733,0.719415,-0.292419,-0.630027
-0.766851,-0.516353,0.368098,0.760206,0.649281,0.022827
-0.685388,0.015300,0.471375,0.303205,0.605615,-0.735729
-0.423874,-0.277857,0.507670,-0.675530,0.132994,0.725239
-0.558497,-0.478068,0.273048,-0.746411,0.184069,0.639523
-0.043893,-0.241535,0.355844,0.240541,0.958106,0.155474
