0.565958,-0.645991,0.679495,-0.007794,0.684201,0.729252
-0.159155,0.268278,0.870364,0.398722,0.897912,0.186478
0.189879,0.410850,0.886119,0.216544,0.974336,-0.061469
-0.865544,0.230848,0.744388,0.049162,0.960670,0.273307
0.912138,0.327927,0.593597,-0.259371,-0.959297,0.111699
-0.547669,0.015188,0.876553,0.292857,0.923620,-0.247309
0.391732,0.422752,0.930481,0.219580,0.537217,0.814360
0.061277,0.679775,0.777994,0.075458,-0.715944,0.694068
-0.184410,0.206565,0.750100,0.753568,-0.392963,0.526986
0.159349,-0.600258,0.833975,-0.659258,0.351235,-0.664841
-0.201103,0.920580,0.873295,0.813439,-0.417200,0.405293
-0.181604,0.873551,0.855770,-0.118393,-0.985220,-0.123792
-0.939473,0.174701,0.708669,-0.521065,0.549994,-0.652685
0.168493,-0.106078,0.545054,-0.757092,-0.622285,-0.198930
-0.152768,-0.751277,0.604115,0.741505,0.244011,0.625003
0.392506,-0.007078,0.547598,0.087626,0.777285,0.623017
0.286354,0.164432,0.842797,0.684136,0.589108,-0.430012
0.499045,0.286609,0.907124,0.939096,0.252946,0.232632
-0.194571,-0.456631,0.895179,-0.268076,-0.942204,0.200964
0.338027,0.318041,0.650411,0.594778,-0.281503,-0.752991
-0.543702,-0.220482,0.692736,0.864657,-0.095376,0.493225
0.103709,-0.496844,0.684420,0.817889,0.137651,-0.558668
-0.670368,-0.001031,0.788557,0.826266,0.485537,-0.285549
0.065051,-0.205893,0.898377,-0.438129,0.876725,0.198486
0.087355,0.739952,0.798063,0.318141,0.886045,-0.337210
-0.066018,0.176284,0.898466,0.288842,0.104967,0.951605
0.378233,-0.098111,-0.977819,-0.137908,0.024578,0.990140
0.448872,0.160784,-0.914503,0.763689,-0.633019,0.126751
-0.753973,-0.536340,0.549830,-0.452890,-0.334993,-0.826239
-0.471466,-0.358640,0.842411,0.843768,0.140668,-0.517945
-0.253114,0.505435,0.667148,0.100680,-0.702345,0.704681
-0.216247,0.893994,0.841801,-0.272205,-0.850116,0.450786
-0.339381,-0.431389,0.752823,-0.236255,-0.971454,0.021479
0.319158,-0.109244,0.585802,0.068566,0.375950,0.924100
-0.283353,-0.028721,0.908791,0.788077,-0.612905,0.057296
-0.463870,0.133862,0.639075,-0.225692,0.579852,0.782838
-0.346783,0.574586,0.732516,-0.045898,-0.993609,0.103126
0.280258,0.536148,0.619557,-0.418138,0.566691,0.709945
-0.706848,-0.547664,0.562371,0.036776,0.669607,0.741805
0.566346,0.650166,0.847365,-0.834989,0.534766,-0.129684
-0.637177,0.089617,0.933456,0.914208,-0.398967,-0.071050
0.484579,0.098543,-0.975855,0.018077,-0.007093,0.999811
0.598230,0.592101,-0.994421,0.103183,-0.028241,-0.994261
-0.677189,-0.639514,0.618635,-0.499726,0.317160,-0.806029
-0.585940,0.645367,0.689061,0.586815,0.363723,-0.723432
0.196362,0.477265,0.758952,-0.670818,0.599839,0.436116
0.624889,0.478993,-0.991193,-0.083172,0.105152,0.990972
-0.389070,-0.436907,0.854803,0.790598,0.479486,0.380851
-0.366039,0.020706,0.881165,-0.396766,0.398520,0.826897
-0.460096,0.142645,0.798197,-0.605200,0.361089,-0.709470
0.033167,-0.216786,0.628007,0.988052,-0.066029,0.139262
-0.215037,-0.555054,0.572100,-0.055175,-0.387844,0.920072
-0.429856,0.316937,0.899151,0.779633,0.042466,0.624795
0.468177,-0.124698,-0.973073,-0.127772,0.128927,0.983388
0.130658,-0.591142,0.806052,0.429566,0.397280,-0.810951
-0.223407,0.229838,0.932162,-0.203781,0.759837,0.617351
-0.755715,-0.331286,0.724155,0.038717,0.025779,0.998918
0.418633,0.125368,-0.961469,0.083652,0.867851,-0.489731
0.309820,-0.637497,0.800681,0.873399,0.086717,0.479223
0.357284,0.404132,0.880986,0.208400,-0.552475,0.807057
-0.666884,-0.680926,0.623827,0.625686,0.514500,0.586351
-0.079807,-0.096960,0.816599,0.146807,-0.971460,-0.186317
0.387668,0.184875,-0.933828,0.877342,0.243562,-0.413459
0.131965,-0.270053,0.691828,0.848027,-0.130154,0.513721
-0.264484,0.491663,0.657567,0.117302,-0.648935,0.751747
0.432615,0.582119,0.767223,-0.486748,0.368390,0.792064
0.365557,0.199559,-0.388893,0.234215,-0.701644,0.672933
-0.431066,0.299422,0.918803,0.963596,0.123692,0.237031
-0.242083,0.498188,0.670569,0.007084,-0.870019,0.492967
0.193169,0.442859,0.909118,0.961626,0.269466,0.051614
-0.598519,0.359504,0.670718,-0.553376,0.121243,0.824060
-0.389893,0.979125,0.775614,-0.093402,-0.806767,0.583441
0.149431,-0.558941,0.850533,0.763719,-0.545055,0.345902
-0.141785,0.959977,0.854803,-0.507168,0.561673,-0.653685
-0.133367,0.633132,0.844553,-0.413330,0.891676,-0.184585
0.119772,0.258920,0.715988,0.887664,-0.280759,-0.365003
0.209329,-0.387192,0.892887,0.999903,-0.008247,0.011240
-0.400198,-0.627852,0.647213,0.672782,0.420122,-0.608985
0.314464,-0.370637,0.605112,0.711340,0.491612,0.502309
0.225682,-0.183243,0.578453,0.758876,0.377454,-0.530694
0.134045,-0.671665,0.415463,0.349184,-0.086437,0.933059
-0.406439,0.158433,0.787798,0.475718,-0.081781,0.875788
0.024506,0.740049,0.868579,0.403660,0.914828,0.012162
-0.233181,0.296111,0.569988,0.235892,0.967037,-0.095885
0.337301,0.150178,-0.313557,0.963866,-0.255996,-0.073673
-0.727943,-0.669601,0.636784,0.567810,0.612843,-0.549560
0.551444,-0.717349,0.497344,-0.019391,0.080206,0.996590
0.068922,-0.623773,0.432839,0.602068,0.740413,0.298835
-0.154703,0.398613,0.931701,0.721286,0.549226,-0.422015
-0.167477,0.579577,0.803820,0.854889,-0.112401,0.506489
-0.613131,0.125992,0.926033,0.976414,-0.215015,0.019577
-0.700171,0.754588,0.808254,-0.212462,0.697258,-0.684610
-0.154993,0.182666,0.745013,0.816216,-0.373097,0.441124
-0.512881,0.260455,0.730240,-0.518357,0.236081,-0.821932
0.602874,0.458886,0.711213,0.871303,-0.159224,-0.464196
0.068632,-0.690765,0.453190,-0.727543,0.092941,-0.679738
0.100080,0.258488,0.777474,-0.719442,0.634831,0.281767
0.047779,-0.094608,0.626519,0.915195,0.121981,0.384108
0.007427,0.749070,0.899136,0.860232,-0.212955,0.463305
-0.506011,-0.186458,0.687068,-0.569289,0.574569,-0.588031
-0.455645,-0.204933,0.657507,-0.704231,0.658275,-0.265955
-0.243776,-0.464549,0.745355,0.990843,-0.129537,-0.038078
0.535284,-0.885212,0.528868,0.158502,0.554355,0.817048
-0.455983,-0.432013,0.743168,-0.673947,-0.658611,0.334705
0.195104,0.403892,0.851158,0.063171,0.903240,0.424460
-0.130222,-0.638026,0.615674,-0.897429,0.439791,0.034705
0.123013,-0.333636,0.836103,0.428047,0.534141,-0.729019
-0.784745,-0.548767,0.583838,-0.677785,-0.141156,-0.721583
-0.349251,-0.432300,0.845505,-0.363964,-0.801306,-0.474805
-0.037472,0.581784,0.887249,0.071644,0.988491,0.133241
0.085614,-0.698778,0.727622,-0.757582,0.647792,0.080216
-0.432034,-0.101855,0.747185,-0.375319,-0.626747,0.682879
-0.108450,-0.243563,0.811526,-0.515200,-0.649881,0.558770
-0.559571,0.404324,0.828635,0.376423,-0.214959,0.901165
0.327867,0.171725,-0.243369,0.473454,0.879293,-0.051814
-0.491206,0.228736,0.923489,-0.721523,-0.608147,0.331002
0.392264,0.097488,-0.978563,-0.181838,-0.256487,0.949289
0.351187,-0.472179,0.693241,0.983604,0.167101,-0.067824
0.032683,0.239293,0.920142,0.039478,-0.951341,0.305601
0.397151,-0.353889,0.829676,0.985920,-0.150873,-0.072110
0.229456,-0.445690,0.888662,-0.647164,0.689881,-0.324412
0.304885,-0.706889,0.723858,0.064999,-0.871577,-0.485931
-0.104725,-0.048444,0.705812,-0.520620,0.510116,-0.684643
0.065341,0.757804,0.809116,0.550501,0.741785,-0.383020
-0.428405,0.118075,0.919457,0.100872,0.391631,0.914576
-0.461692,-0.571658,0.694417,-0.136042,0.989727,-0.043968
0.031715,-0.291792,0.630640,0.064522,0.398834,0.914750
0.273484,0.341171,0.872387,-0.404391,0.272675,-0.872993
0.467935,0.262807,0.539818,0.793265,0.540805,-0.279751
-0.612744,0.129208,0.716866,0.098230,-0.912465,0.397189
0.278516,0.373084,-0.998274,0.338238,-0.368787,-0.865789
-0.670174,0.078773,0.948184,0.893247,-0.379500,-0.241019
-0.044294,-0.161216,0.939794,0.760770,0.166488,-0.627304
-0.503205,0.065336,0.810500,0.096896,0.893465,0.438556
-0.064615,-0.376970,0.836326,-0.485427,-0.366355,-0.793816
-0.599681,-0.428462,0.561538,0.606873,-0.500446,-0.617462
-0.057358,0.381578,0.784927,-0.799094,0.600926,-0.018323
0.293854,0.215539,-0.011663,0.250542,0.943389,0.217361
0.620051,-0.613216,0.577426,0.468728,0.268090,-0.841678
0.367492,-0.658133,0.711480,0.165664,-0.934831,-0.314081
0.062874,-0.475731,0.642378,-0.117171,-0.129780,0.984595
-0.105305,0.185834,0.938083,0.459720,-0.518957,0.720653
0.403344,-0.210308,0.599072,-0.122057,0.372334,0.920038
0.320271,0.236509,-0.986224,0.444443,0.179548,-0.877629
0.238019,0.262472,0.827445,0.056796,0.986238,-0.155272
-0.812517,0.123066,0.586055,0.274927,0.957984,0.081743
-0.054648,0.557982,0.748092,-0.040646,-0.889138,0.455830
0.281032,0.355904,-0.994808,0.330607,-0.383643,-0.862274
0.282629,0.160689,0.060325,0.961609,0.264867,0.071790
-0.116626,-0.871104,0.493506,0.911851,0.059742,0.406150
0.196652,-0.133047,0.577084,0.735854,0.674075,-0.064357
-0.198103,0.416561,0.914355,0.972266,0.059236,-0.226251
-0.620534,0.090865,0.936268,0.938288,-0.345064,-0.023359
0.062632,0.314106,0.913908,0.289551,0.435964,0.852113
0.505189,0.337525,0.781847,0.986686,-0.051986,0.154105
-0.265307,-0.116491,0.822491,0.142449,0.617503,0.773562
-0.716573,0.154018,0.869933,0.622283,0.586117,-0.518874
0.446550,0.185547,-0.748881,-0.810623,0.582559,0.059292
0.031909,-0.668545,0.702614,0.489070,0.828465,0.272867
0.222247,0.256760,0.853256,0.133148,-0.990747,0.026317
-0.756296,-0.397942,0.605632,0.030224,-0.948730,0.314639
-0.421051,0.647144,0.819188,-0.599714,0.797355,0.067583
0.753490,-0.259928,0.446570,0.004052,0.308142,0.951332
-0.582746,-0.428413,0.736563,0.947507,-0.136427,-0.289169
0.406247,0.167695,-0.597748,0.822627,-0.470895,0.318658
-0.635145,-0.292608,0.740237,0.690953,-0.704288,0.162977
-0.622614,0.190728,0.843571,0.148872,-0.425670,0.892548
-0.466192,-0.205077,0.742216,-0.686517,-0.454393,-0.567645
-0.617146,-0.287473,0.707984,0.862988,0.060319,0.501611
-0.294917,-0.659141,0.505646,0.280138,0.345178,-0.895754
0.216537,-0.569066,0.731564,0.188756,0.118296,0.974873
0.470838,0.054347,-0.976510,-0.198783,0.021518,0.979807
-0.790744,0.061977,0.668427,-0.456113,0.889793,-0.015145
0.216441,-0.156081,0.568307,0.706392,0.700208,0.103538
-0.602632,-0.388103,0.557997,-0.599249,0.303012,0.741002
0.450033,0.169615,-0.814457,0.231627,0.965718,-0.117212
-0.000894,0.122538,0.919889,0.664006,0.322977,-0.674375
-0.405133,-0.769417,0.667282,-0.225160,-0.659329,-0.717348
0.336092,-0.128201,-0.981761,-0.105181,0.054687,0.992948
-0.153736,0.265494,0.607046,-0.060026,-0.998031,0.018196
0.144496,-0.168989,0.913893,-0.774390,0.458869,-0.435613
-0.015167,-0.451016,0.429045,0.752397,-0.240027,-0.613421
-0.436002,0.004487,0.841860,0.763452,0.413073,0.496499
-0.107288,0.492525,0.882980,-0.630223,-0.753227,-0.188331
0.456081,0.030545,-0.977015,-0.131323,0.019113,0.991155
0.367250,-0.821149,0.677026,0.120753,0.046303,0.991602
0.607326,-0.508025,0.659620,0.166548,0.562254,0.810019
0.878850,0.136166,0.489326,0.778306,-0.537791,-0.324068
0.200813,0.452120,0.875214,0.858154,0.115049,0.500335
0.104290,0.252346,0.409706,0.237200,-0.970618,-0.040449
0.147834,-0.430717,0.738660,0.990086,0.124481,-0.065075
0.735444,0.558846,0.791562,0.619043,0.618604,-0.483855
0.175364,0.066776,0.241479,-0.359251,0.913378,0.191519
0.369234,0.260647,-0.381336,-0.261231,0.933167,-0.246898
0.522946,-0.567772,0.532290,-0.327126,0.257835,0.909126
0.016765,0.607266,0.935926,-0.252139,0.904973,0.342710
0.517334,0.435228,-0.991520,0.027614,0.184733,0.982401
0.311465,-0.683278,0.786162,-0.383581,0.884258,0.266370
0.505335,0.285026,0.888826,0.637514,0.754712,0.154873
0.172220,0.410371,0.864384,-0.469232,-0.821679,0.323520
-0.553572,-0.569882,0.620717,-0.386847,-0.763702,-0.516826
-0.172315,0.017924,0.561805,-0.638758,0.255419,-0.725775
0.256212,-0.337668,0.857659,-0.579442,-0.814961,0.009244
-0.468273,-0.167503,0.662194,-0.761480,0.536098,-0.364344
-0.506592,0.771144,0.856454,-0.712896,-0.638244,-0.290557
-0.398166,0.173453,0.644297,-0.124210,0.810720,-0.572105
0.390426,0.303692,-0.979664,-0.206072,-0.357791,-0.910780
0.165639,-0.308059,0.936595,0.238493,0.772932,-0.587960
0.203039,-0.133911,0.629346,-0.653167,-0.654530,-0.380740
0.206329,-0.116395,0.861066,0.939641,0.100882,0.326952
-0.162832,0.727091,0.874961,-0.342212,-0.938686,0.041956
-0.029731,0.537251,0.967703,-0.104749,0.517225,0.849415
-0.056486,0.306139,0.537660,-0.231038,0.782355,-0.578396
0.367879,-0.760300,0.708416,0.480490,-0.561491,0.673689
-0.678642,0.036975,0.765215,-0.166447,-0.521593,-0.836801
0.120159,0.815054,0.833812,-0.357502,0.662610,-0.658134
-0.562135,0.886268,0.746069,0.899569,0.150920,-0.409876
0.173816,-0.299133,0.899136,0.675599,0.706795,0.209778
-0.244163,-0.805600,0.642720,-0.211331,-0.107914,0.971439
-0.304594,-0.374523,0.905116,-0.254149,0.384386,-0.887500
0.758135,0.549536,0.776283,-0.521042,0.644296,0.559819
0.674046,0.556445,0.767774,-0.132441,0.408697,0.903010
-0.625178,0.172013,0.734465,-0.515598,0.109296,-0.849831
0.007185,0.763514,0.874292,-0.389358,0.514351,0.764096
-0.262307,0.816398,0.815513,0.241860,0.192298,0.951065
-0.309432,-0.732994,0.479448,-0.619851,0.524664,0.583534
0.768102,0.051419,0.511358,0.455833,0.815114,0.357500
0.031183,0.457830,0.757167,0.949939,0.212503,0.229037
0.323367,0.380617,-0.994882,0.297383,-0.317181,-0.900533
0.375814,-0.623053,0.699222,0.763942,0.597386,-0.243974
0.501948,0.215346,-0.963552,0.831026,-0.136229,0.539294
0.705785,-0.568059,0.571074,0.382578,0.481112,-0.788775
0.161913,-0.662835,0.818370,0.660936,-0.601816,-0.448308
-0.105547,0.458646,0.917345,0.636438,0.390829,0.664981
0.247164,0.165872,-0.992934,-0.125848,0.075921,0.989140
-0.533493,-0.237709,0.653699,-0.220874,0.438383,-0.871226
0.079372,0.209828,0.821643,-0.000113,0.904254,0.426995
-0.180782,-0.537971,0.595754,-0.653462,-0.404430,0.639863
0.275081,0.192600,-0.990910,-0.115616,0.103575,0.987879
-0.512495,0.358399,0.717193,0.802879,0.513055,-0.303580
-0.575779,0.397702,0.839316,-0.154248,-0.977949,-0.140797
-0.174686,-0.441371,0.537080,-0.697722,0.561461,-0.444912
0.729057,0.612496,0.775971,0.657137,0.133255,-0.741899
-0.145414,-0.860498,0.446094,-0.427591,0.892159,0.145665
0.245181,0.412289,0.876270,0.421651,0.634706,-0.647580
0.169558,-0.418144,0.766554,0.998809,-0.041960,0.024914
-0.754360,-0.208485,0.755828,-0.096273,0.763478,0.638617
-0.688705,-0.103006,0.634478,0.973366,0.195478,-0.119778
-0.303287,0.228544,0.919264,0.824354,0.045861,0.564214
-0.033698,-0.472131,0.678231,-0.583293,0.327437,-0.743340
0.043860,-0.750558,0.740936,0.517288,0.633430,0.575482
0.346833,-0.455478,0.677249,-0.745950,0.622619,0.236440
-0.024554,-0.052379,0.906455,-0.091065,-0.990844,0.099672
-0.243534,-0.379082,0.779973,0.921903,-0.237426,0.306143
0.061422,-0.495069,0.792678,0.625861,-0.035649,0.779119
0.587489,-0.513305,0.379580,-0.466762,0.701047,-0.539135
0.232795,-0.136358,-0.980779,0.120869,-0.109674,-0.986591
-0.484239,0.759244,0.867433,0.585355,0.588108,0.558111
0.119917,0.277588,0.936804,0.827139,-0.452706,0.333015
-0.129980,0.880702,0.834868,-0.025800,-0.692763,0.720703
-0.079710,-0.782470,0.560080,0.971299,0.162299,-0.173890
-0.172847,0.172349,0.963686,-0.286046,-0.871380,-0.398590
0.273049,0.381529,0.910740,-0.556753,-0.381730,0.737772
-0.108546,-0.295295,0.539193,0.864835,-0.464909,0.189526
0.506109,0.477889,0.600931,-0.447496,0.432714,-0.782627
0.264823,-0.568874,0.682471,-0.086111,0.989869,0.112893
0.429374,0.383833,0.618278,-0.579344,0.812553,-0.064168
-0.463725,0.569115,0.810560,-0.117097,0.901826,0.415930
-0.262500,0.176524,0.943855,0.701720,0.557034,-0.444187
0.296853,-0.616143,0.713697,-0.708719,-0.642405,-0.291606
-0.045310,-0.087027,0.779378,0.449764,0.855925,0.255155
0.508287,0.654006,0.739002,-0.410014,0.625422,-0.663879
-0.697462,0.125657,0.698523,0.108033,0.993713,0.029371
-0.128964,-0.055114,0.787605,0.662255,0.705430,0.252562
0.442679,0.051563,-0.977045,-0.081722,-0.027612,0.996273
0.263034,0.171870,-0.063375,-0.061795,-0.989703,0.129112
0.519462,0.827675,0.844211,0.216205,0.953121,-0.211696
0.240923,-0.112892,-0.982728,-0.055589,0.061399,0.996564
0.279145,0.568587,0.811571,0.948085,-0.314371,-0.048014
0.491884,0.433261,-0.993023,-0.025941,0.183978,0.982588
0.006992,-0.315689,0.812732,-0.283513,0.551210,-0.784722
-0.141495,0.434365,0.633258,-0.671970,-0.732370,-0.109954
-0.014442,0.398758,0.836698,0.732229,0.638269,0.237597
0.059681,0.254888,0.747676,0.255231,0.943260,-0.212409
-0.308803,-0.610769,0.661390,0.764167,0.383043,0.518968
-0.400924,0.068359,0.915143,0.733638,-0.194798,-0.651021
-0.138592,-0.048348,0.547687,-0.712393,0.300976,-0.633963
-0.651305,0.127769,0.649816,-0.049441,0.992238,0.114106
0.353800,-0.236317,-0.973638,0.227673,0.027905,-0.973338
-0.622324,-0.497805,0.687440,0.847893,-0.237149,-0.474171
-0.609454,0.814381,0.735536,0.949358,-0.077513,-0.304484
0.022813,0.694988,0.882608,0.302574,0.767181,0.565582
0.206620,0.230462,0.821315,-0.308287,0.942644,-0.127988
0.371218,-0.226527,0.670435,0.795406,-0.549941,0.254742
-0.239519,0.164671,0.947187,-0.419114,0.660597,-0.622860
0.131916,-0.381961,0.820780,0.773078,0.125586,-0.621754
-0.381619,0.661923,0.855041,-0.151623,-0.959647,0.236829
-0.443839,0.013413,0.847632,0.615779,0.644408,0.453381
-0.395166,-0.705401,0.506613,-0.673508,0.287879,-0.680818
0.541283,0.578953,-0.996236,-0.091818,0.096900,0.991050
0.055327,-0.622669,0.712462,0.605795,0.117225,-0.786938
-0.141834,0.011445,0.929544,0.989470,-0.012803,0.144167
0.927330,0.293183,0.518365,-0.618126,-0.536695,0.574351
0.795729,0.195864,0.466282,-0.373513,-0.796635,0.475248
-0.797615,0.267509,0.736339,-0.270630,0.889328,-0.368584
-0.276774,-0.741775,0.517324,0.151309,-0.037384,-0.987779
0.379298,0.021810,-0.978250,-0.100294,0.020405,0.994749
-0.824128,0.446601,0.846442,0.560625,0.444874,0.698417
-0.428260,-0.270148,0.580803,-0.415659,0.511626,-0.751975
0.433438,0.140101,-0.850265,0.366609,0.929912,-0.029362
0.151850,-0.243228,0.959238,0.538127,0.578649,-0.612849
0.112708,-0.388584,0.804549,-0.706472,-0.503758,0.497116
-0.573989,-0.163471,0.711986,0.784823,-0.167869,0.596551
-0.094757,0.270869,0.717520,-0.380219,0.688965,-0.617058
0.235891,-0.346306,0.833261,-0.188240,-0.892705,0.409443
0.126062,0.364590,0.890165,-0.617570,0.126913,-0.776209
0.704624,0.561725,0.768548,-0.480835,0.546725,0.685485
-0.150542,0.304605,0.876047,0.639444,0.578388,0.506536
-0.128964,-0.620414,0.741695,-0.676986,-0.733814,0.056639
-0.716670,0.279698,0.676416,-0.341665,-0.812080,-0.473066
-0.085758,-0.943615,0.482527,-0.135042,-0.338769,-0.931128
-0.476933,0.338676,0.921317,0.974303,-0.208787,-0.084507
-0.331591,0.282002,0.891191,-0.452283,0.789573,0.414746
0.051939,-0.612736,0.809072,0.457361,0.658764,-0.597369
0.021410,-0.146291,0.491305,0.072866,-0.965655,-0.249402
0.303627,-0.542145,0.821286,0.851107,-0.512862,-0.112204
-0.035827,-0.145188,0.527038,0.933895,-0.314095,0.170835
-0.357089,-0.425342,0.738467,0.131528,-0.968716,0.210451
0.107725,0.813087,0.829126,-0.286831,0.690558,-0.663971
0.380991,0.154882,0.799804,0.907796,-0.312963,-0.279213
0.555846,-0.681743,0.494786,-0.283249,-0.111442,0.952549
-0.104240,0.016533,0.890805,-0.502535,0.448666,-0.739025
-0.103466,-0.934735,0.497389,0.117482,0.070055,0.990601
0.363525,0.623869,0.576504,0.659985,-0.522989,0.539353
-0.064470,0.148451,0.592987,0.592027,-0.803496,0.062433
0.361880,0.193369,-0.635416,-0.369522,0.907715,0.198766
0.081937,0.226672,0.481203,-0.695302,-0.687691,-0.208894
-0.251179,-0.147252,0.934721,-0.292646,0.418757,-0.859652
0.010766,-0.065815,0.613457,0.602202,-0.729320,0.324723
-0.505189,0.305420,0.877460,0.361639,0.200879,0.910420
-0.112127,-0.214338,0.728098,0.847241,-0.497554,0.186074
-0.186153,-0.392759,0.789360,-0.164053,-0.962723,0.215062
-0.205748,0.761931,0.920915,0.916122,0.361561,-0.173190
-0.036505,-0.115148,0.671328,0.820592,-0.315602,0.476470
-0.132980,-0.102767,0.989795,0.305885,-0.802859,0.511715
0.654983,0.199846,0.452774,0.147331,0.989084,0.002391
-0.109127,-0.614175,0.720540,0.233809,0.736974,0.634195
-0.391585,-0.262231,0.564959,-0.574874,0.606887,-0.548824
-0.402617,0.961849,0.760812,0.330803,0.720153,-0.609877
0.412294,0.160929,-0.698791,-0.260401,-0.954031,0.148377
-0.279241,0.269286,0.799759,0.788952,0.610660,0.068192
0.347413,0.231423,-0.346390,-0.763391,0.566841,0.309718
-0.274838,0.214916,0.907958,0.418126,0.445279,-0.791768
-0.623049,0.080021,0.911974,0.909019,-0.366978,0.197512
0.299176,-0.486240,0.863878,-0.536078,-0.428628,-0.727254
-0.272758,0.193032,0.822357,-0.563794,0.823069,0.068508
-0.551201,-0.023250,0.840997,0.906669,-0.370826,-0.201097
-0.205263,-0.016339,0.962630,-0.189872,0.965631,0.177498
0.526768,0.264727,0.876225,0.868770,-0.455889,-0.193402
-0.141543,-0.559613,0.751588,0.826353,0.547866,-0.130317
-0.389264,0.062072,0.825273,0.153849,0.805488,0.572293
-0.050390,0.347170,0.592124,0.985191,0.169879,0.023215
-0.189297,-0.047533,0.884720,-0.371198,0.894855,-0.247884
-0.253163,0.803105,0.887026,-0.019051,0.534057,0.845234
-0.413019,-0.189961,0.714723,0.060664,-0.863658,-0.500415
-0.545394,-0.147828,0.754638,0.292536,0.795815,0.530189
-0.822483,-0.509850,0.595516,0.964193,0.074321,0.254574
-0.051551,-0.168702,0.664961,0.886502,-0.289724,0.360798
0.327963,0.509945,0.882697,0.803806,0.092725,0.587621
-0.555265,0.222400,0.735834,-0.445550,0.283614,-0.849146
0.127320,-0.534852,0.690757,0.667118,0.013125,-0.744836
-0.652031,-0.463302,0.555022,-0.484341,0.360471,-0.797167
0.365509,0.168751,-0.393773,0.925707,-0.336194,0.173322
-0.880059,0.043166,0.706690,-0.183619,0.672628,-0.716837
-0.281902,-0.107086,0.903019,0.554732,-0.817407,-0.155301
0.360477,-0.804448,0.677502,0.004926,0.412393,0.910993
0.197814,-0.138661,0.664381,0.811237,0.573699,0.112975
0.055278,-0.240684,0.859117,0.640589,-0.743601,0.191583
0.154173,-0.480433,0.870542,0.883747,-0.467940,-0.004747
-0.416068,0.595172,0.724349,-0.301557,-0.950146,0.079288
-0.231826,0.205701,0.818995,-0.809317,0.549822,0.206644
-0.519607,-0.082228,0.731385,0.939480,0.342187,-0.016873
0.246971,-0.611152,0.853404,0.002195,-0.762690,0.646761
-0.828241,0.203686,0.642006,-0.325373,-0.852048,-0.410056
-0.468225,0.425102,0.917003,0.515676,0.655747,-0.551430
0.496916,-0.745135,0.673247,-0.005903,0.109777,0.993939
0.245616,0.509370,0.937815,0.171757,-0.955090,0.241461
0.252728,0.149411,0.161323,0.911425,0.381360,0.154494
0.475821,-0.741488,0.677904,-0.352000,0.891391,0.285513
0.230908,0.192745,0.000446,-0.108290,-0.993736,-0.027605
-0.820452,0.099167,0.715765,0.066641,-0.032500,0.997248
-0.567700,0.255561,0.740282,0.285922,0.256101,0.923396
0.611341,0.490175,0.719529,0.929472,0.156620,-0.333995
0.192201,-0.113276,0.565450,0.684631,0.672886,0.280186
-0.451871,-0.098975,0.695949,-0.668163,0.518132,-0.533945
-0.016861,-0.507834,0.858091,0.517700,0.766018,0.381055
0.554879,0.007607,0.832042,0.826547,0.266474,-0.495794
-0.189781,0.581303,0.900103,0.580456,-0.503455,0.640003
-0.206425,0.580825,0.806275,-0.783911,0.132338,-0.606605
0.293708,-0.065191,-0.978087,0.163613,-0.168731,-0.971988
0.322109,0.231902,-0.638019,-0.367984,0.927506,0.065737
-0.115756,-0.216162,0.707583,0.904467,-0.325536,0.275619
0.158043,-0.141732,0.922775,-0.806245,0.529265,-0.264287
-0.085613,0.687645,0.824425,-0.471062,0.777459,-0.416722
-0.474466,0.275476,0.962778,0.895376,-0.287719,0.339881
-0.708445,0.535908,0.853122,0.928468,-0.367652,-0.052708
0.414036,-0.509561,0.559351,0.809745,0.390699,-0.437799
0.301305,0.441611,0.523215,0.442099,0.158382,-0.882872
-0.596003,-0.434125,0.734614,0.947507,-0.136427,-0.289169
-0.220069,0.803681,0.828932,0.325935,0.898855,0.292960
0.204877,0.093169,0.203573,0.888821,0.372186,0.267348
-0.390183,0.121530,0.884973,0.852164,0.358266,0.381394
-0.350654,-0.130648,0.846413,0.918162,0.387599,-0.082131
-0.298158,0.307724,0.800056,-0.089237,-0.909850,0.405227
-0.890413,0.464404,0.795534,0.648837,0.635083,-0.419142
0.630404,0.568156,0.814874,-0.278608,-0.867943,0.411160
-0.266662,0.317082,0.881179,-0.645333,0.751122,-0.139143
-0.818516,0.137319,0.714828,-0.122142,-0.487388,0.864601
-0.478143,-0.207621,0.674779,-0.621142,0.677699,-0.393582
0.387135,-0.456823,0.628706,-0.164852,-0.979888,0.112445
-0.011829,-0.795762,0.618099,-0.029222,0.112310,0.993243
0.211942,0.088275,0.251819,0.850411,-0.279647,-0.445644
0.445679,0.216786,-0.883337,0.756862,-0.645901,0.099865
0.132981,0.214292,0.288177,-0.222170,-0.970112,0.097586
0.011975,0.533267,0.907273,-0.129108,-0.989969,0.057374
-0.122965,0.201477,0.716300,0.817978,-0.285131,0.499612
0.811114,-0.495885,0.444785,0.052470,0.039006,0.997860
0.220844,0.162175,0.415240,0.058102,0.439284,0.896467
0.241697,-0.021522,0.852304,0.778070,-0.195723,0.596908
-0.162832,-0.571754,0.604070,0.912697,-0.072510,-0.402152
0.277452,0.612736,0.847796,0.939267,-0.316818,-0.131922
0.043762,-0.199702,0.892099,0.640927,0.602715,0.475339
0.283161,-0.200615,0.868311,0.986457,0.163255,0.015855
-0.486174,-0.481297,0.704949,0.204230,-0.978724,-0.019741
-0.551733,-0.410563,0.589937,0.612793,-0.399533,-0.681805
0.494352,-0.061161,0.811407,-0.783194,-0.073015,0.617475
-0.265645,-0.770617,0.641024,0.542445,0.614906,-0.572402
0.332802,0.431870,-0.994034,-0.176443,0.285994,0.941847
0.063600,-0.689085,0.703968,0.372937,0.908070,-0.190595
-0.440066,-0.252825,0.810336,-0.140973,0.361836,-0.921521
0.470306,0.314058,0.863580,0.389385,-0.920636,0.028446
-0.840094,0.020706,0.624496,-0.765522,-0.623790,-0.157680
-0.128384,-0.274515,0.711287,-0.777222,0.576240,-0.252732
-0.199797,-0.445209,0.873369,-0.462527,0.827060,0.319438
0.362170,-0.185977,0.434743,0.168417,0.031931,0.985198
0.263324,0.257576,-0.991654,-0.210738,0.080295,0.974239
-0.226891,-0.423903,0.755917,0.678207,-0.051624,-0.733055
0.535913,0.489503,0.774840,0.097955,0.456922,0.884097
0.201491,-0.039422,0.501242,0.459710,0.872439,0.165881
0.035441,-0.720661,0.437094,-0.379912,-0.532652,-0.756272
-0.010862,-0.418336,0.815037,-0.756315,-0.654103,0.011710
0.231101,-0.223121,0.716658,-0.018580,0.749293,0.661978
-0.362604,-0.584758,0.668948,0.621214,0.611114,0.490542
-0.141737,-0.622094,0.758788,0.811269,-0.583979,-0.028475
-0.177540,-0.279555,0.718324,-0.811214,0.570398,-0.128757
-0.493722,0.640521,0.846606,-0.634889,0.671977,0.381266
-0.079226,0.641961,0.814011,0.637534,-0.766368,0.078927
-0.217456,-0.015428,0.899225,0.869051,0.167350,0.465558
0.343446,-0.395733,0.524971,0.490635,0.103848,0.865155
-0.573699,0.167598,0.670123,-0.479159,0.522404,0.705337
0.023248,-0.878974,0.467710,-0.496751,0.517617,0.696642
0.194572,-0.274947,0.913879,-0.848911,0.367643,-0.379721
0.115079,-0.391798,0.817507,0.674026,0.025612,-0.738263
-0.282918,0.112652,0.892322,0.045427,-0.920309,0.388545
-0.675012,0.017635,0.891653,0.596310,0.449462,-0.665130
0.115370,0.088850,0.905384,-0.669664,-0.706041,-0.230338
-0.039359,-0.602418,0.701974,-0.450554,-0.840916,-0.299768
-0.419744,-0.242219,0.563888,-0.542403,0.533415,-0.649051
0.101870,0.428558,0.886490,-0.623498,0.533635,-0.571388
0.529865,0.391655,-0.994139,0.090089,0.105938,0.990283
-0.199071,-0.757804,0.654770,0.094711,-0.992520,-0.077038
0.319351,-0.391174,0.591217,0.711340,0.491612,0.502309
0.216199,0.384457,0.841875,0.566696,0.789856,0.234484
0.356509,0.430333,-0.995611,-0.146216,0.234826,0.960978
0.148608,0.012501,0.374344,0.684273,-0.715020,-0.143238
-0.258339,-0.747247,0.657284,-0.625330,-0.779861,-0.027917
0.330818,0.555054,0.904476,-0.076446,0.110548,0.990926
-0.384812,-0.623293,0.706764,0.716078,0.578640,-0.390394
0.084114,-0.217986,0.885166,0.502602,0.335249,0.796868
0.384475,0.404851,-0.993231,-0.035749,0.200258,0.979091
0.203619,-0.143028,0.875526,0.050845,-0.187650,0.980919
-0.401021,0.841351,0.724319,0.985105,-0.014175,-0.171366
0.327963,-0.777334,0.675865,-0.786388,-0.146836,-0.600027
0.036118,-0.848165,0.461149,0.631926,-0.370760,-0.680593
0.224038,-0.685822,0.710662,0.747285,0.554480,-0.366219
-0.425841,-0.646471,0.673664,0.911416,-0.178083,0.370955
0.642645,0.247307,0.435532,-0.485169,-0.726601,0.486479
0.188379,-0.525589,0.840744,0.890559,0.282456,0.356543
0.381426,0.243660,0.414674,-0.108526,-0.980002,0.166788
-0.531218,0.605634,0.896696,-0.010040,0.989522,0.144031
0.500786,0.572569,0.700040,0.190566,0.879388,-0.436304
0.727170,0.660100,0.787590,0.911938,0.296100,-0.284068
0.622276,0.687165,0.832771,0.965251,0.210026,-0.155496
-0.600310,-0.425918,0.753864,0.731131,0.506792,0.456738
0.144448,-0.323416,0.921897,-0.489441,-0.869887,-0.061183
-0.540266,0.666482,0.816034,0.537863,-0.601573,-0.590604
0.516995,0.121433,-0.973579,-0.103997,-0.017400,-0.994425
-0.591891,0.291120,0.831923,0.267509,0.262457,0.927122
0.170913,-0.364493,0.764293,0.982419,0.027772,0.184613
0.020200,0.410995,0.882980,0.742085,-0.551027,-0.381679
-0.039649,0.454232,0.938440,0.357150,-0.846940,0.393874
0.134287,-0.509945,0.872164,0.803731,-0.594598,-0.021694
0.242422,-0.296254,0.671373,0.570406,0.660377,0.488405
0.346978,-0.810495,0.692631,0.013321,-0.479578,0.877398
-0.022522,-0.619358,0.433583,0.501087,-0.212041,-0.839018
-0.251566,-0.502459,0.614648,0.779700,-0.552691,0.294280
-0.022715,-0.124649,0.911870,-0.735839,0.467237,-0.490133
-0.176427,-0.172254,0.575492,0.351021,0.590731,0.726513
-0.089387,0.282002,0.760633,-0.684466,0.600980,-0.412711
-0.153881,0.078965,0.631875,0.673466,-0.354499,0.648671
-0.517575,0.782758,0.818385,0.885129,0.057553,-0.461772
-0.397682,0.319961,0.570657,0.039166,0.394334,0.918132
0.283790,0.233438,-0.146625,-0.632957,0.752350,0.182578
-0.003943,0.808288,0.852988,0.010112,-0.235236,0.971886
0.276000,-0.607409,0.688764,0.519590,-0.659212,-0.543568
0.144738,0.270053,0.766435,0.798754,-0.522374,-0.298524
0.039264,-0.276532,0.839614,-0.355325,0.843966,-0.401827
0.612793,-0.662163,0.669825,0.020330,0.537274,0.843163
-0.497206,0.586967,0.890909,0.431715,-0.589225,0.682962
0.454243,0.195384,-0.843616,0.366609,0.929912,-0.029362
-0.705155,0.566524,0.796040,0.284606,-0.126647,0.950242
0.261098,-0.137414,-0.982743,-0.143533,0.129475,0.981139
-0.204683,-0.427789,0.606570,0.984995,-0.029514,0.170038
-0.158284,-0.073302,0.865440,-0.086516,-0.985773,0.144109
-0.268839,0.196343,0.768771,-0.458095,0.623466,-0.633593
0.358686,0.237662,-0.384311,0.047371,-0.882950,0.467070
0.265259,0.234974,0.824395,-0.347322,-0.932574,0.098349
0.666353,0.070182,0.488493,-0.231839,0.943375,-0.237265
-0.175508,-0.340739,0.800845,0.396456,0.494134,-0.773727
-0.654014,-0.690765,0.603044,0.791209,0.604517,-0.092452
-0.679561,-0.597668,0.661137,-0.647588,-0.639359,-0.414548
0.316545,0.490367,0.891474,0.032402,-0.532880,0.845570
-0.053148,0.829211,0.893081,0.884164,-0.450523,-0.123629
-0.124174,0.654246,0.933888,0.905548,0.414112,0.092163
-0.034036,0.189769,0.912093,-0.540440,0.840252,-0.043606
-0.013522,0.074214,0.524614,-0.611057,0.117018,-0.782890
-0.710041,-0.180316,0.748925,0.669982,-0.676789,0.305092
-0.467111,0.570219,0.838052,-0.451572,0.804832,-0.385133
0.006702,0.198071,0.861780,-0.466427,-0.642585,-0.607890
-0.582359,0.474002,0.736399,0.868851,0.468387,-0.160345
0.506932,0.006167,0.832488,0.260492,0.797898,-0.543602
0.189589,0.211604,0.250986,-0.565918,-0.817739,0.105073
-0.151462,0.108717,0.922061,0.808653,-0.320094,-0.493578
0.262743,0.162704,-0.988649,-0.137281,0.100662,0.985404
-0.495125,-0.511528,0.723248,-0.781004,0.046587,-0.622786
0.420133,-0.741343,0.675211,-0.257826,0.904001,0.341038
-0.531461,0.297599,0.839644,-0.180100,0.651684,0.736799
0.515108,-0.037215,0.812017,-0.811529,-0.025676,0.583747
-0.485981,-0.571850,0.601199,0.444681,0.784417,0.432376
0.441808,-0.794755,0.671358,-0.089853,0.214444,0.972595
0.352977,0.308491,-0.976346,-0.461659,-0.542496,-0.701833
0.040908,-0.244523,0.433553,0.231096,0.079111,0.969709
-0.745651,0.427119,0.633972,0.791093,0.515964,-0.328561
-0.709654,-0.543009,0.646320,0.611550,0.452712,0.648890
0.003315,-0.122826,0.647615,0.806457,0.143924,0.573510
-0.321915,-0.467237,0.863268,-0.497999,-0.862545,0.089516
-0.156155,-0.075845,0.891534,-0.775175,0.546706,0.316571
-0.334494,0.603906,0.802853,-0.372146,0.928138,0.008217
-0.696591,-0.121673,0.628126,0.973366,0.195478,-0.119778
-0.969761,0.278499,0.781684,0.770342,0.424763,0.475552
-0.042794,0.713511,0.616939,-0.118020,-0.572537,0.811340
0.332076,-0.441418,0.825912,-0.621170,0.249247,0.742983
-0.580956,0.380570,0.692245,0.661728,0.395033,-0.637232
-0.199264,-0.293999,0.751261,0.853983,-0.399678,0.333122
-0.157558,-0.010294,0.835642,0.773795,-0.614237,0.154773
-0.172218,-0.396309,0.597272,0.209063,0.498351,0.841391
0.195298,0.270437,0.396867,0.290240,0.956770,-0.018746
0.353655,0.185402,-0.529240,0.242837,-0.968619,0.052990
0.343446,-0.136071,0.596111,-0.194595,0.012550,0.980803
-0.158332,0.507738,0.921213,-0.728084,0.025963,0.684996
0.115950,-0.024738,0.522620,0.230499,0.952775,0.197711
0.609697,0.137127,-0.977358,0.036095,0.178439,0.983289
-0.072792,-0.592053,0.438775,0.999708,0.016501,0.017670
0.403344,-0.479857,0.574049,-0.007673,-0.254300,0.967095
-0.739700,0.107469,0.824737,0.688848,0.696099,-0.202322
0.184218,-0.471939,0.862822,-0.572290,0.817602,-0.063335
-0.097612,0.748111,0.932936,0.933900,0.020827,0.356928
0.047101,-0.113756,0.904417,0.326630,0.839185,-0.434835
0.204200,0.051611,0.247564,-0.200918,0.957557,0.206682
-0.623291,0.209204,0.751499,-0.395408,0.721240,0.568740
0.117643,0.274947,0.804415,-0.388158,0.803224,0.451847
-0.595132,0.338389,0.608905,-0.445494,-0.849781,-0.281794
0.071825,-0.166639,0.886609,-0.792930,0.598906,0.112137
-0.311803,0.893515,0.827400,-0.157431,0.385596,-0.909138
-0.725621,-0.312762,0.737589,-0.426055,-0.898085,0.109177
0.114837,0.306812,0.948988,-0.342955,0.857569,0.383351
-0.606212,-0.163471,0.749684,0.710265,-0.679526,0.183762
0.315239,0.292943,-0.964995,0.991351,0.090196,-0.095335
-0.024554,0.551119,0.885821,0.513198,-0.849813,-0.120190
0.592811,0.195384,0.423348,-0.429699,0.180074,0.884835
-0.350703,-0.712647,0.659590,-0.746465,-0.355408,-0.562561
0.065873,-0.330182,0.808045,-0.341807,-0.315685,0.885162
-0.603019,0.810063,0.726952,-0.301437,0.952291,0.047726
-0.028231,0.287760,0.546646,0.290079,-0.807758,0.513207
0.176284,-0.088753,0.628602,0.538278,-0.545991,-0.641989
0.371701,0.178588,-0.595665,0.895461,-0.401160,0.192927
0.508770,-0.627085,0.657998,-0.331908,0.404705,0.852086
-0.615792,0.071767,0.850995,0.559329,0.828103,0.037375
-0.338123,-0.118938,0.723516,-0.236811,0.733897,-0.636645
-0.333478,-0.069750,0.930942,0.207850,-0.435454,0.875887
0.233036,-0.670562,0.727220,0.279040,0.349194,-0.894539
0.540558,-0.319576,0.435308,0.161993,0.216089,0.962842
0.445679,-0.558892,0.503146,0.536775,0.265683,-0.800803
-0.120255,-0.245724,0.704845,-0.780033,0.588993,-0.211273
0.483708,0.498332,0.662833,0.930659,0.211651,-0.298460
0.154076,0.009286,0.396852,0.725550,-0.674245,-0.137739
0.452695,-0.485951,0.518886,-0.046558,-0.153185,0.987100
0.565136,-0.019747,-0.973148,-0.023003,-0.050554,0.998456
0.034908,0.728963,0.790982,-0.337156,-0.744903,0.575713
0.467015,-0.130696,-0.974516,-0.127772,0.128927,0.983388
-0.716573,0.092593,0.869471,0.514150,0.718445,0.468495
0.396183,0.235118,0.418557,-0.108526,-0.980002,0.166788
0.012992,0.583847,0.580550,-0.450336,0.434941,-0.779759
0.104000,-0.708617,0.674021,0.014557,0.756316,0.654044
-0.358105,-0.587831,0.673009,0.655716,0.445511,0.609554
-0.853206,0.208100,0.632217,-0.474496,-0.880195,0.010519
0.564169,-0.194088,0.603312,0.030062,-0.151964,0.987929
0.234536,0.464596,0.832042,0.723877,-0.634130,-0.271811
0.253502,-0.200423,0.576697,-0.570156,-0.127985,0.811506
-0.317754,-0.135302,0.838052,0.044044,0.941816,0.333231
0.078550,0.483120,0.827698,-0.015353,0.991707,0.127595
-0.010668,-0.407587,0.804713,-0.079553,0.946032,-0.314158
0.026200,-0.318952,0.632946,-0.915382,0.311583,-0.254935
0.572684,0.112748,-0.974486,-0.036216,0.149671,0.988072
0.196604,-0.631739,0.744403,-0.188738,0.941122,0.280478
-0.719912,0.227391,0.786980,0.924326,-0.169736,0.341776
0.158962,0.323319,0.470432,-0.734365,0.676853,-0.050776
0.254711,0.258391,0.877817,-0.383292,-0.858330,-0.341110
0.588989,0.054442,0.505720,-0.637640,-0.350451,-0.686002
-0.689140,0.663363,0.872045,0.888476,0.364831,-0.278404
0.311126,-0.361182,0.598417,0.711340,0.491612,0.502309
-0.139559,0.230607,0.897678,-0.648847,-0.459735,-0.606334
-0.248615,0.610000,0.780895,0.084720,0.968271,-0.235102
0.323996,0.222641,0.875556,0.068463,-0.796757,0.600409
0.373395,0.258920,-0.570642,-0.683732,0.716189,0.139943
0.319351,-0.310171,0.823547,-0.550236,0.476310,0.685835
0.528172,0.068551,-0.973043,-0.035232,0.096603,0.994699
0.357477,0.184826,-0.521638,-0.154482,0.985492,-0.070285
0.475579,0.368381,-0.987816,-0.071803,0.200986,0.976959
-0.656336,0.672529,0.874976,0.248568,0.206689,-0.946305
-0.096741,0.044654,0.819441,0.403406,-0.880422,0.249238
-0.154559,0.695083,0.926271,-0.039382,-0.922907,0.383003
-0.511962,-0.178060,0.683215,-0.582114,0.512658,-0.631130
0.418633,0.689037,0.832979,0.698973,-0.680308,0.220495
0.423761,0.614175,0.714247,0.161452,0.765046,-0.623408
-0.116288,0.290736,0.585578,-0.816673,0.424322,-0.391146
0.460435,0.374043,-0.987950,-0.083301,0.179703,0.980188
-0.543895,-0.036687,0.714381,0.669899,0.733487,0.115033
-0.701429,-0.491518,0.648492,-0.523327,0.408502,-0.747834
0.136126,-0.292703,0.845788,0.172958,0.942781,0.285043
-0.662869,0.160544,0.631458,-0.442296,0.888277,0.123851
0.152818,-0.431437,0.861974,0.942096,-0.323797,-0.087240
-0.699010,0.074166,0.610869,0.649579,-0.317405,-0.690870
-0.047632,-0.148260,0.899210,-0.247393,0.964145,-0.096023
0.297870,-0.586870,0.666196,-0.005335,0.952969,0.303021
-0.124852,-0.092401,0.893676,0.813084,0.309237,0.493220
-0.089774,-0.805217,0.463530,-0.154485,0.593028,0.790223
-0.416019,0.368093,0.937681,0.108217,0.950402,0.291590
0.259308,0.198647,0.121974,0.837893,0.523241,-0.155415
0.435083,-0.123065,-0.973549,-0.075030,0.162291,0.983886
0.246390,-0.171149,0.942457,0.841912,0.514114,0.163925
-0.697945,0.543297,0.689240,0.882610,0.060930,-0.466141
-0.410842,-0.664083,0.627799,-0.725076,0.493294,-0.480547
0.333866,-0.407587,0.821881,-0.489266,0.037056,0.871347
-0.663449,0.206468,0.850890,-0.709075,0.365175,-0.603208
-0.039504,0.739809,0.900683,-0.259150,0.347997,-0.900966
-0.245809,0.043358,0.649578,0.339926,0.074191,0.937521
0.598279,0.300526,0.450036,0.609827,0.022605,-0.792212
-0.895493,0.087602,0.706541,-0.274531,-0.440725,0.854631
-0.408423,-0.773688,0.691962,0.778334,0.361130,-0.513597
0.031329,0.201671,0.851783,0.010547,-0.993586,0.112585
-0.758231,0.098016,0.653788,-0.421960,0.878290,0.224849
-0.103514,0.208869,0.718130,0.867513,-0.221067,0.445590
-0.046858,0.330662,0.575447,0.931636,-0.142836,0.334145
0.509545,0.773688,0.851515,-0.595728,0.475536,0.647282
-0.137479,0.597716,0.905711,0.907848,-0.202368,-0.367233
-0.681205,0.156370,0.615020,-0.275809,-0.867693,0.413568
0.001863,-0.053483,0.652420,0.952592,-0.178787,0.246176
-0.289063,0.619406,0.870959,-0.142999,-0.636772,0.757676
0.000364,-0.719941,0.742781,0.707096,0.671628,0.221206
-0.310206,0.235790,0.661524,0.405145,0.131341,0.904769
-0.417664,0.807999,0.701201,-0.265113,-0.434748,0.860645
0.499432,0.476978,0.776566,0.026131,0.121774,0.992214
-0.095144,-0.314250,0.533331,0.870427,-0.477142,0.121210
-0.660691,0.091921,0.762567,-0.531272,-0.567295,-0.629227
0.077534,-0.578856,0.632887,0.911372,-0.276314,0.305045
-0.092629,0.501260,0.965620,0.845306,-0.040415,-0.532752
-0.239712,0.097344,0.850087,-0.194354,0.933568,0.301126
0.121272,-0.006742,0.486246,-0.312017,-0.941826,-0.124934
0.181121,0.271685,0.830360,-0.140732,0.981777,-0.127701
0.144012,-0.008709,0.840387,0.353163,0.920372,-0.167905
-0.746184,0.017300,0.606332,0.210025,-0.492400,-0.844649
0.435809,0.402356,-0.991699,-0.157343,0.227995,0.960865
0.038343,0.349522,0.901174,0.457749,0.752150,0.474063
0.051117,-0.165391,0.875645,-0.443219,-0.109728,-0.889672
0.260228,0.395446,0.642140,-0.339412,0.005171,0.940624
0.079953,0.482016,0.896562,0.553880,0.451659,0.699443
-0.278273,-0.287665,0.894211,0.786644,0.318208,0.529089
-0.566490,0.714855,0.807242,0.262281,0.783134,0.563835
-0.450371,0.180316,0.644044,0.271821,-0.598090,-0.753924
0.264194,-0.245195,0.579940,0.568276,-0.180523,-0.802791
-0.624452,0.489791,0.707136,0.357870,0.916713,0.177672
0.180977,-0.205701,0.879231,0.228772,0.326711,0.917019
-0.306432,0.314538,0.891995,-0.386831,0.921566,0.032830
-0.077920,-0.632316,0.746322,-0.306298,-0.720880,-0.621702
-0.719331,-0.583415,0.652762,-0.397184,-0.879887,-0.260851
-0.356508,0.101087,0.871227,0.912866,0.346364,0.216118
0.251519,-0.260168,-0.975766,0.061906,0.101358,0.992922
0.440115,0.669123,0.829275,0.652058,-0.670546,0.353819
-0.143382,-1.000000,0.488865,0.386992,0.461231,0.798438
0.372089,0.392375,-0.993886,0.014383,0.250485,0.968014
0.385104,0.101087,0.821658,0.612854,-0.514245,-0.599968
0.595085,-0.512968,0.376560,-0.466762,0.701047,-0.539135
-0.608002,-0.199942,0.721612,0.827139,-0.082803,0.555865
-0.205796,-0.328934,0.760202,0.990980,-0.132391,0.020759
0.488546,0.266215,0.899151,0.204899,0.946866,-0.247913
0.066019,-0.209684,0.845639,0.883966,-0.030192,-0.466575
-0.148123,-0.137462,0.811393,0.236929,0.434372,0.869014
-0.213150,0.572955,0.864086,-0.737587,0.425107,0.524642
-0.331252,0.112317,0.918609,0.229791,0.326443,-0.916860
-0.438227,-0.576696,0.723560,0.598509,0.734367,0.320144
0.350461,0.182042,-0.301894,0.971020,-0.215164,0.104038
-0.209086,-0.113276,0.563918,-0.630208,0.136624,-0.764312
0.605923,0.532548,0.747958,0.900395,-0.028187,-0.434160
0.492949,0.298318,0.562192,0.771627,0.450691,-0.448854
0.360864,0.009333,0.692007,-0.014265,-0.990440,0.137202
0.435954,-0.519015,0.573945,-0.687781,-0.430446,0.584529
-0.001137,0.231710,0.468365,0.318438,0.939691,-0.124812
0.018894,0.202630,0.903435,0.400933,0.534160,-0.744262
0.308707,-0.524006,0.806171,0.915077,0.249247,0.317033
-0.517865,-0.544593,0.705069,-0.092761,0.893585,-0.439206
-0.379055,-0.587158,0.681176,0.746829,0.151847,0.647448
-0.442872,-0.160112,0.668948,-0.595914,0.547184,-0.587772
0.270291,-0.319816,0.931002,0.060869,-0.623137,0.779740
-0.575247,-0.145572,0.705500,0.794753,-0.219662,0.565788
-0.793551,-0.401445,0.614157,0.496252,-0.611767,0.616015
0.275661,0.001032,0.852289,-0.372813,0.686069,-0.624755
-0.013716,0.212804,0.637483,0.540207,-0.839455,0.059097
0.004331,-0.611728,0.756408,0.842426,-0.530924,-0.091863
-0.480514,0.313386,0.966542,0.960808,-0.150455,0.232835
0.349493,-0.724644,0.673322,0.952796,0.142417,0.268135
-0.135447,0.611104,0.948214,0.993944,0.091630,0.060656
-0.630403,0.553903,0.769946,0.577100,-0.816175,-0.028520
0.158527,0.315497,0.781312,0.859668,-0.352641,-0.369616
0.111305,0.270821,0.937785,0.827139,-0.452706,0.333015
0.198829,-0.144133,0.956024,0.371513,0.343742,0.862450
0.353655,-0.411233,0.594133,0.619188,0.687856,0.378761
0.012507,0.791732,0.621595,-0.124087,-0.500345,0.856888
0.176042,0.467332,0.623053,-0.401230,0.908948,0.113265
0.041779,-0.319721,0.432913,0.084380,-0.073605,0.993711
0.299515,0.186122,-0.040926,0.719496,-0.687503,0.098311
0.487046,0.307627,0.835657,0.862736,0.465821,0.196716
0.181799,-0.221585,0.725866,0.854143,-0.377029,-0.358175
-0.515688,-0.195575,0.689210,0.547028,-0.534867,0.643955
-0.562522,0.098303,0.829587,0.623882,-0.742593,-0.243572
0.258050,-0.387863,0.808655,0.886791,-0.189391,-0.421583
-0.708009,-0.429853,0.710156,-0.323574,-0.603753,0.728548
-0.626775,-0.291503,0.778366,0.840868,0.283379,0.461127
0.287516,0.337285,-0.994540,-0.246552,0.282793,0.926952
0.422068,-0.312091,0.652926,0.926008,0.166258,-0.338922
0.336285,0.189961,-0.552121,0.520176,-0.822338,-0.230602
-0.113482,0.582600,0.962213,0.952702,0.168785,-0.252727
-0.131141,-0.429998,0.776462,0.294080,0.518208,0.803105
-0.192248,0.397270,0.664693,-0.729957,-0.641951,-0.234652
-0.874350,-0.252777,0.726372,0.617242,-0.137760,0.774619
0.404699,-0.014756,-0.977120,-0.041713,0.081028,0.995839
0.208507,-0.753773,0.419599,-0.412126,-0.075477,0.907995
0.485014,-0.534995,0.652970,0.261542,-0.330770,-0.906745
-0.274451,0.316073,0.571535,0.123599,0.970523,-0.206902
-0.402133,-0.702762,0.633348,-0.518345,0.848299,-0.108198
0.405908,0.012693,0.763534,0.872037,0.486098,0.057099
-0.496625,0.260360,0.908463,-0.430397,0.789235,-0.438026
-0.179621,0.325528,0.890076,0.363081,0.671966,-0.645472
-0.338171,0.589462,0.696827,-0.213273,-0.686509,0.695140
0.217747,-0.143364,0.648046,0.253294,0.866649,0.429839
0.444421,0.600260,0.705664,0.190051,0.781743,-0.593934
0.117208,-0.401397,0.762894,0.955259,0.004110,0.295742
0.341075,0.221730,-0.592005,0.886214,-0.430552,0.171027
0.187508,0.823836,0.832741,-0.319693,0.419846,-0.849427
0.395119,0.180891,-0.615168,0.831641,-0.548141,-0.088967
-0.673803,-0.467669,0.560154,-0.605762,0.628182,-0.488304
0.388249,0.514888,0.541796,0.585857,0.221634,-0.779519
0.662821,0.360750,0.612044,0.045996,-0.251117,0.966863
-0.760892,0.102959,0.683720,-0.387717,0.825025,-0.411107
0.179525,-0.103006,0.813907,0.749043,-0.472752,0.464154
0.198733,0.235405,0.653833,-0.244862,0.249059,0.937023
-0.280886,-0.324472,0.757122,0.625574,-0.715105,-0.311901
0.075841,-0.241692,0.879305,-0.533255,0.659506,0.529802
0.065196,0.209828,0.501138,0.914317,0.239734,0.326424
-0.203861,0.738561,0.900519,0.749955,0.641388,-0.161826
-0.532622,-0.480193,0.758922,-0.538507,-0.476508,0.694946
-0.668577,-0.719701,0.648299,-0.203994,-0.674890,0.709162
0.578828,0.214962,-0.978667,-0.088251,0.176751,0.980291
0.548976,0.228736,0.566789,0.338319,0.747334,0.571867
-0.406004,0.246875,0.709621,-0.305035,0.871842,-0.383204
0.192685,0.828779,0.832875,0.402782,-0.377419,0.833860
0.030071,0.269718,0.467472,-0.239750,-0.966567,0.090929
-0.413600,0.929458,0.748345,0.470773,0.848445,-0.241895
-0.027844,-0.573433,0.713890,-0.094388,0.872747,0.478961
-0.316737,0.574681,0.703075,0.364084,0.453359,-0.813578
-0.032682,-0.653334,0.430563,0.310421,0.418208,0.853663
-0.353460,0.445690,0.898228,0.952433,0.268539,0.144076
-0.068679,-0.737457,0.452506,-0.670716,0.390258,0.630744
0.066261,-0.822827,0.476666,0.798765,-0.424002,-0.426844
0.032296,-0.537059,0.648671,0.989554,0.078959,0.120616
0.694995,-0.484655,0.455065,0.014927,0.239003,0.970904
-0.555652,0.987571,0.735774,-0.311450,0.920200,-0.237128
-0.236423,0.531252,0.737455,0.187180,-0.971533,-0.145217
0.027361,0.806705,0.868311,0.990227,-0.139190,0.008734
0.309239,0.242076,-0.431574,0.833132,0.530382,0.156799
-0.631371,0.214530,0.748881,0.555945,-0.204841,-0.805584
-0.334639,-0.486240,0.868564,0.654366,0.577167,-0.488552
0.344220,-0.202293,0.594936,0.074648,0.399396,0.913734
0.265647,-0.163328,0.524212,0.888384,0.440029,0.130949
0.401602,0.169950,0.428718,0.226486,0.967692,-0.110796
0.381330,0.009046,0.693777,0.129041,0.990630,-0.044735
0.371943,-0.035344,0.436573,0.179715,-0.031617,0.983210
-0.305029,-0.680064,0.660810,-0.276880,0.836908,0.472147
0.365315,0.230367,-0.313036,0.941263,0.288384,-0.175668
0.176671,0.251290,0.302400,-0.218567,-0.949286,0.226020
-0.356702,0.498380,0.898035,0.611331,0.345662,0.711893
-0.143189,0.260408,0.583927,0.028524,0.999135,0.030269
-0.291095,0.250521,0.955013,-0.711276,0.065728,0.699833
0.053149,0.059481,0.731609,0.478082,0.622362,-0.619761
0.181944,-0.104685,0.637796,0.578382,-0.741936,-0.339124
-0.611534,0.328550,0.605811,-0.492570,-0.788418,-0.368471
0.283693,0.199319,-0.206236,-0.129457,0.988657,-0.076148
-0.154655,0.103151,0.897038,0.379613,-0.894032,-0.237910
0.501029,0.502651,0.666925,0.957795,0.238570,-0.160350
-0.108160,-0.047916,0.752510,0.932582,0.337301,0.128526
-0.501899,0.243755,0.849046,-0.655761,-0.000272,-0.754968
0.239810,0.169086,-0.987161,-0.125848,0.075921,0.989140
0.023345,-0.636635,0.707984,0.692388,0.644286,0.324799
0.547476,0.436188,-0.993558,0.090518,-0.099615,-0.990900
-0.097224,0.601459,0.771582,0.454396,-0.704161,0.545602
0.144061,0.012357,0.498966,-0.491265,-0.850965,-0.185786
0.082904,-0.168894,0.902423,0.434228,0.719282,-0.542290
-0.859545,0.255225,0.785046,-0.038479,0.651007,0.758095
0.235601,-0.369532,0.812732,0.985681,0.058886,-0.158006
-0.133899,-0.454471,0.853300,0.486264,-0.726832,-0.485038
-0.310013,-0.321880,0.798033,-0.015771,-0.298606,0.954246
-0.744490,-0.529909,0.628171,-0.736640,0.673827,0.057609
-0.509979,0.135542,0.801366,0.055914,0.745414,0.664253
-0.246099,-0.433261,0.885003,-0.351176,-0.660831,0.663308
-0.269613,0.613456,0.782100,0.035036,-0.990655,0.131818
-0.193700,0.232574,0.818816,-0.739351,0.673296,-0.005780
0.652177,0.245195,0.454812,-0.121602,0.692609,0.710989
0.011637,-0.179787,0.872298,0.772329,0.358471,0.524410
0.421294,0.663363,0.810619,-0.434923,0.872026,0.224530
-0.205989,-0.162128,0.562921,-0.153401,0.745254,0.648895
-0.710139,-0.269573,0.758491,0.787942,0.393519,0.473592
-0.367394,-0.041870,0.669409,-0.550282,0.544059,-0.633395
