-0.200602,0.762450,0.423027,-0.710741,0.689075,0.141499
0.137210,0.144358,0.503599,-0.559793,-0.091745,0.823538
0.023027,0.616061,0.494951,0.503293,0.316602,-0.804027
-0.107889,-0.068241,0.694101,0.753632,-0.150326,0.639876
-0.920749,-0.078618,0.493335,0.377166,0.656219,-0.653546
0.226389,-0.453154,-0.298851,0.833855,-0.315137,0.453182
0.096478,-0.272426,0.732748,0.387973,-0.642608,-0.660705
-0.181961,-0.060321,0.761913,0.667771,0.658784,-0.346534
-0.520209,0.216315,0.573819,0.093808,-0.799591,0.593173
-0.210171,0.461447,0.424171,0.917327,0.397476,0.022878
0.351694,-0.376557,0.567183,0.639601,0.262029,0.722670
-0.284801,0.088740,0.274468,0.714745,0.274493,0.643268
-0.465990,0.186682,0.517506,-0.546033,0.784725,-0.293352
-0.564145,0.359921,0.545301,0.643091,-0.743716,-0.182536
-0.396409,0.527293,0.574024,0.076313,-0.305863,0.949012
-0.234521,0.307082,0.412162,-0.708409,0.467011,-0.529205
0.005414,0.289755,0.551860,-0.486057,0.510597,0.709253
0.187795,-0.451633,-0.098831,0.909260,-0.312017,-0.275486
-0.205027,0.165364,0.712662,0.162507,-0.986524,0.018996
0.567741,-0.400402,0.583992,0.560961,0.817846,-0.128257
0.361653,-0.159321,0.590021,0.219138,0.519736,0.825744
0.329273,-0.068857,0.749863,0.776966,0.618714,0.116261
0.238509,-0.466240,-0.015384,0.642595,0.761802,0.082027
-0.361903,0.093244,0.687162,0.913583,0.125536,-0.386790
0.088584,-0.429733,0.669119,0.782847,-0.622213,0.001177
-0.525741,0.338258,0.526245,0.211562,0.325318,-0.921634
0.281784,-0.571872,0.109301,-0.644601,0.689458,0.330360
-0.052858,0.241031,0.772216,0.344463,-0.021928,0.938544
0.278358,-0.425776,-0.293640,0.699415,0.314496,0.641803
-0.100971,0.568916,0.507231,-0.568766,-0.620773,0.539579
-0.784456,-0.094368,0.483561,0.749220,0.609509,0.259169
0.371618,-0.570615,-0.688119,0.405827,0.821686,-0.400171
0.785395,-0.703676,-0.948571,-0.115535,-0.632831,0.765622
0.385234,0.091240,0.673823,0.695784,0.500330,-0.515320
0.554438,-0.300439,0.433348,0.974070,0.152052,0.167534
0.219658,-0.012409,0.690960,0.838701,-0.429914,-0.334296
0.036289,-0.078714,0.282916,0.611847,0.762738,0.209460
-0.204361,0.623705,0.531888,0.997077,-0.071556,0.026796
0.148984,0.043926,0.670286,0.564508,0.796117,-0.218011
-0.092769,-0.123319,0.833745,0.955845,0.084111,-0.281578
-0.444813,0.375556,0.605775,0.120667,0.120297,0.985377
-0.490257,0.365399,0.572036,-0.194703,0.852765,-0.484647
0.068791,0.200296,0.410489,0.575467,0.469942,-0.669322
0.329935,-0.440950,0.156918,-0.089147,-0.949102,0.302089
0.179315,0.635168,0.648990,0.231297,0.211953,0.949514
0.398381,-0.250877,0.563160,0.993050,0.117195,0.010829
-0.207355,0.233985,0.393731,-0.002175,-0.967930,0.251209
0.301430,-0.568102,0.671305,0.901586,0.180573,0.393110
0.750148,-0.892555,-0.965022,0.583801,0.404900,-0.703728
-0.046979,-0.276444,0.826904,0.106451,-0.102232,0.989048
0.142996,0.334160,0.791074,0.961183,0.182594,-0.206849
0.323132,-0.332295,0.404121,0.699090,-0.496256,0.514785
0.415473,-0.191545,0.296058,-0.709471,0.339651,0.617485
0.031604,-0.146613,0.388480,0.982870,-0.181734,-0.030635
0.316899,-0.133713,0.612376,0.939179,0.326227,-0.107321
0.481634,-0.621429,-0.970385,0.328163,0.317966,-0.889498
-0.222415,0.028193,0.447186,-0.438054,-0.891789,0.113235
0.730351,-0.824896,-0.938913,-0.644099,-0.264504,0.717756
0.316270,-0.538499,-0.475838,0.926008,0.331155,0.181233
0.260341,-0.416956,0.717688,0.005049,0.611686,0.791085
-0.089602,-0.103655,0.940178,0.886428,0.446509,0.121963
-0.338230,-0.183930,0.661717,-0.568666,0.061176,-0.820290
0.669735,-0.777639,-0.949483,0.558871,-0.169592,-0.811728
-0.071466,0.575920,0.524378,-0.579163,0.804476,0.131864
0.498058,-0.807465,-0.943971,-0.563381,-0.822121,0.081964
-0.490591,-0.130444,0.659082,0.823249,0.479984,0.303112
0.062368,0.937212,0.582134,0.829313,-0.004251,-0.558768
0.303327,-0.079124,0.642878,-0.051840,-0.613101,0.788302
-0.422560,0.401869,0.572682,-0.116699,-0.105816,0.987514
-0.009415,-0.118296,0.906825,-0.424649,-0.588025,0.688403
-0.207000,-0.235129,0.764001,0.199994,-0.944488,-0.260662
-0.865854,-0.046870,0.511001,0.118824,0.512688,0.850313
-0.079974,0.212487,0.690722,0.211067,-0.553139,0.805909
-0.102450,-0.094134,0.765382,0.582656,-0.211721,-0.784657
0.373861,-0.700911,-0.751315,-0.070610,-0.946119,0.316025
0.147901,0.671051,0.646778,-0.123509,0.052757,-0.990940
-0.142843,0.613979,0.609703,-0.612585,0.585297,-0.531193
0.457921,-0.647135,-0.741982,0.925929,-0.377528,-0.011272
-0.088564,-0.021767,0.874308,0.758713,0.036232,-0.650416
-0.435264,0.273288,0.532738,-0.521526,-0.831537,-0.191199
-0.155454,0.166734,0.725889,0.299128,0.923377,0.240617
-0.047536,-0.118312,0.944570,0.916342,-0.399659,0.024289
0.033508,-0.144524,0.222347,0.824056,0.080094,-0.560817
0.574564,-0.580638,-0.963476,0.935390,0.203193,-0.289410
0.224158,0.029837,0.676957,-0.648778,0.746572,0.147369
-0.035378,-0.349576,0.622188,0.853123,0.033984,-0.520602
-0.365385,0.121825,0.284701,0.870780,0.219692,0.439861
0.118822,0.531537,0.573967,-0.233657,-0.665783,0.708617
0.188116,-0.069189,0.691986,0.971006,-0.237002,0.031255
-0.034104,-0.180512,0.911213,-0.331748,0.325010,-0.885614
0.135033,-0.283078,0.072261,0.482509,-0.847014,0.223054
0.371574,-0.401084,0.216656,0.793182,-0.160834,0.587363
-0.574003,0.138349,0.567208,0.876293,-0.474141,0.085449
0.758335,-0.798481,-0.933120,-0.274622,0.363107,0.890357
-0.502583,0.215028,0.349529,-0.261501,0.545852,0.796029
0.072493,0.068412,0.371616,0.327399,-0.774407,0.541390
-0.035133,-0.126975,0.437741,0.116165,-0.006257,0.993210
0.394904,-0.300476,0.317841,0.804374,-0.557720,-0.204772
0.134791,0.302402,0.729853,-0.478366,-0.875651,-0.066343
0.614187,-0.672747,-0.954585,0.182966,0.277620,0.943107
-0.000338,0.203189,0.707384,-0.675282,0.280605,-0.682096
-0.238943,0.264285,0.701528,0.049311,0.950289,-0.307440
0.277155,0.344653,0.662449,0.990475,-0.013912,-0.136986
-0.449617,0.187921,0.500980,-0.700524,-0.519020,0.489780
0.403483,-0.290235,0.483343,0.867018,0.497402,0.029517
-0.064403,-0.051874,0.717510,0.042993,0.997199,0.061200
-0.064865,-0.103146,0.771632,0.941466,-0.307467,-0.138225
-0.127089,-0.332826,0.839153,0.437761,-0.561959,0.701831
0.038861,-0.502353,0.677103,0.482786,0.270987,0.832757
-0.783942,-0.015916,0.507787,0.886421,-0.097847,-0.452420
-0.319621,0.172411,0.490840,0.782729,0.621394,-0.034693
-0.928502,-0.015746,0.530885,0.916017,0.214756,-0.338810
-0.628470,0.275475,0.506207,0.538075,0.747733,-0.389063
0.533341,-0.591239,-0.982236,0.859444,0.408855,0.306909
-0.835387,0.020779,0.511949,-0.496610,0.254249,-0.829901
-0.064722,0.105714,0.764730,-0.020513,0.998870,-0.042869
-0.392383,0.170637,0.697502,-0.474436,0.244644,-0.845612
0.678980,-0.777931,-0.960246,0.180267,-0.040050,0.982802
0.037558,-0.484707,0.685875,0.440764,0.156127,0.883941
0.614028,-0.532412,-0.972451,0.222824,0.946258,0.234405
-0.270684,0.266251,0.646630,-0.737397,-0.371288,0.564261
0.142485,-0.400215,0.621828,-0.648753,0.720532,0.244854
-0.026271,0.118221,0.759656,0.978630,0.049660,0.199541
-0.020024,-0.161254,0.419084,-0.290494,-0.830060,0.476040
-0.001929,0.186855,0.635569,-0.529829,0.844658,-0.076377
0.001219,-0.164586,0.841582,0.114508,0.993347,-0.012258
-0.099781,0.150801,0.673181,0.219265,-0.199954,0.954956
0.027875,0.166115,0.655451,0.130643,0.981731,-0.138335
-0.043117,0.047618,0.730280,-0.331522,0.211415,-0.919455
-0.283545,0.209559,0.708852,0.884450,0.263922,-0.384830
0.072180,-0.213396,0.730875,-0.223389,0.106799,0.968861
0.014898,0.035937,0.869777,0.920339,0.244201,0.305520
-0.508452,0.375704,0.549237,-0.130746,-0.924276,0.358635
-0.059702,-0.276520,0.646948,-0.675984,-0.676958,-0.291158
-0.027310,-0.043476,0.861825,0.811565,-0.521887,-0.262671
-0.004275,-0.226565,0.701390,0.049160,0.980843,0.188496
-0.058233,-0.014520,0.821215,0.744148,-0.595104,0.303471
0.549584,-0.680242,0.428630,0.609147,0.255483,0.750778
0.793658,-0.859588,-0.947252,0.158883,0.167323,-0.973016
-0.078251,-0.172961,0.960072,-0.361246,0.201960,-0.910337
-0.546547,0.318704,0.333711,-0.250825,-0.223606,0.941853
0.106274,-0.331964,0.682127,0.693903,0.633009,-0.343218
0.303837,-0.243277,0.232663,0.891104,0.089371,0.444912
-0.428170,-0.236143,0.073176,0.709733,-0.060505,0.701867
-0.145456,-0.151997,0.829203,0.593655,0.693339,0.408479
0.304779,-0.128061,0.555456,0.336132,0.846065,-0.413751
-0.406085,0.424821,0.661989,0.771367,0.636275,-0.012142
-0.071503,0.279840,0.556472,0.578591,0.732281,0.359162
0.352724,-0.538707,0.396509,0.736800,0.668253,0.102775
-0.053492,-0.066688,0.820410,0.082937,0.163883,0.982987
0.334580,-0.425684,0.301829,0.792100,0.598343,-0.120682
-0.612775,-0.020423,0.531676,-0.660212,-0.605752,0.444056
-0.090926,-0.236544,0.056400,-0.137456,-0.520036,-0.843012
0.578886,-0.713099,0.436683,-0.402648,0.914312,-0.043689
0.202466,-0.433771,0.603160,0.952719,-0.027350,0.302620
-0.411922,0.351129,0.547712,0.884540,0.070365,-0.461126
0.306462,-0.453169,-0.392430,0.843659,0.518221,-0.140311
0.184092,0.174566,0.450719,0.792886,-0.040985,0.607990
0.328664,-0.307081,0.489822,0.256633,0.296760,0.919822
-0.084786,0.572382,0.474292,-0.760861,-0.517693,0.391260
0.251965,-0.461316,0.644797,-0.414037,0.775887,0.475996
0.229452,-0.022393,0.713180,0.943152,0.332260,0.008227
-0.053947,-0.178985,0.432169,0.250057,-0.942968,0.219734
-0.086712,0.060527,0.373344,0.912984,0.373308,0.164625
0.288691,-0.234927,0.221576,0.569944,-0.190438,-0.799311
0.721995,-0.646142,-0.948474,0.459263,0.001460,-0.888299
0.678196,-0.860262,-0.948058,0.452977,0.246749,-0.856695
0.234790,0.382995,0.580522,0.831374,0.199396,0.518709
0.147630,0.092094,0.521505,0.724552,0.532730,-0.437291
0.217579,-0.416962,-0.083525,0.850237,0.484475,0.205866
0.399638,-0.623736,-0.795764,-0.089930,-0.955494,0.280969
0.203729,-0.438303,0.609738,0.887262,-0.305356,0.345723
-0.088626,-0.160550,0.879830,-0.262919,0.954237,0.142498
0.248505,0.344478,0.561080,0.972674,0.019997,-0.231313
0.042998,-0.545928,0.595098,0.880837,0.435708,-0.185159
0.400140,-0.271507,0.261523,0.834568,-0.150574,-0.529928
-0.482673,0.259074,0.572176,0.868211,-0.481997,0.117848
0.014057,-0.078269,0.340401,0.954758,0.067097,-0.289714
0.097786,-0.388860,0.655144,-0.180149,-0.951749,0.248434
0.077495,-0.204013,0.234086,0.784558,0.076695,-0.615293
-0.218614,0.403242,0.437286,-0.682151,0.197881,-0.703927
0.388377,-0.093834,0.586222,0.833588,0.503452,0.227302
-0.389942,0.276826,0.518062,-0.100371,-0.520655,0.847847
0.698735,-0.709449,-0.953913,0.339664,-0.424450,-0.839327
0.008555,-0.077577,0.427393,-0.085892,0.790746,0.606088
-0.148026,0.258682,0.420652,0.979383,-0.197955,0.040278
-0.035117,0.179978,0.684899,-0.307672,-0.728397,-0.612190
-0.423482,0.187376,0.647234,-0.140997,0.512928,0.846773
0.495126,-0.701152,0.448393,-0.489695,-0.871844,0.009269
-0.156835,0.278840,0.691606,0.174055,0.761460,-0.624406
0.306658,-0.142395,0.552112,0.503749,0.540589,-0.673795
-0.052509,-0.111143,0.872398,0.932968,0.157108,0.323865
0.557008,-0.446209,-0.970292,-0.537116,-0.261007,0.802111
0.627413,-0.711745,-0.953546,-0.116981,-0.241015,0.963445
-0.934744,-0.006364,0.560569,0.941416,0.330258,0.068306
0.020620,0.211669,0.748183,0.694124,-0.713773,-0.093384
0.308181,-0.409372,0.307268,0.488456,0.363364,-0.793333
-0.338903,0.298831,0.551218,-0.231783,0.400077,-0.886688
0.282475,-0.243171,0.409998,0.810717,-0.503434,0.298818
-0.216022,0.136291,0.681305,0.073076,0.982055,0.173862
-0.086710,0.775445,0.547115,-0.130531,-0.091548,0.987208
0.003209,0.145165,0.707985,0.815798,0.469113,0.338241
-0.864319,-0.020931,0.515124,-0.472035,-0.877925,0.080193
0.099128,0.403919,0.781583,0.869556,0.487910,-0.076262
-0.352671,0.231185,0.413518,-0.215514,-0.970980,-0.103689
-0.055737,0.132670,0.399976,0.880819,0.407525,-0.241002
-0.064335,-0.048885,0.942879,-0.021391,-0.792863,0.609024
-0.060688,-0.139620,0.834933,-0.688545,0.719855,-0.087827
0.663103,-0.757349,-0.956181,0.490424,0.162635,-0.856174
-0.205202,0.079853,0.466394,-0.106487,-0.949870,0.293951
-0.337131,-0.421643,0.641161,0.158522,-0.578272,0.800295
0.273662,0.055255,0.667250,-0.634590,-0.579226,0.511657
0.329589,-0.490756,-0.488719,0.911470,0.399416,0.098437
-0.344971,0.192178,0.728181,-0.751802,0.653420,0.088522
-0.211543,0.816159,0.567487,0.031825,-0.600344,0.799109
-0.014326,-0.393664,0.623446,0.247152,0.286647,0.925608
0.072668,-0.334572,0.138303,0.054117,0.794422,0.604950
-0.747777,0.028402,0.529694,-0.786770,0.570811,-0.234880
-0.393728,-0.183720,0.667970,0.139028,-0.015194,0.990172
0.007949,-0.335590,0.773536,-0.387434,-0.917432,-0.090627
0.317339,-0.245884,0.420128,0.631907,-0.749698,0.196587
-0.423332,0.070888,0.704011,-0.659145,0.499965,0.561750
0.618290,-0.453397,-0.975894,0.888459,-0.274263,-0.367996
0.287282,-0.504219,0.107789,-0.597698,0.801579,0.015107
0.349252,-0.041115,0.693960,0.786829,0.273952,0.553037
0.728082,-0.560935,-0.968585,0.490680,0.025825,0.870957
-0.078366,-0.143272,0.858832,-0.294998,0.953789,-0.057123
-0.213997,0.498994,0.557913,-0.140699,-0.705153,0.694956
0.740423,-0.566777,-0.971889,0.789008,-0.352797,0.502992
0.091524,0.499300,0.489460,0.952532,-0.199358,0.230087
0.242444,-0.078234,0.701341,0.852629,0.518171,0.067257
-0.012819,-0.084335,0.311818,-0.132540,-0.989795,0.052334
0.253358,-0.483191,-0.343919,0.710650,0.621299,-0.330097
0.006709,-0.270035,0.767786,0.783566,-0.074539,-0.616821
0.505876,-0.301954,-0.977668,0.233900,0.926501,0.294765
-0.391974,0.289205,0.546572,0.637643,0.769148,0.042692
-0.017881,0.251145,0.709835,-0.083812,0.401519,0.912008
0.354695,0.057769,0.467090,0.466661,0.727976,0.502273
0.079872,-0.312825,0.603090,0.158254,-0.911140,0.380500
0.156962,-0.476236,0.644338,-0.039931,-0.011272,0.999139
0.377667,-0.099954,0.676141,-0.496622,0.574509,-0.650619
0.053887,-0.228490,0.203664,0.649121,-0.668846,0.362336
0.047734,-0.292942,0.013112,0.673983,0.500420,0.543439
0.192458,0.391153,0.641217,0.496432,0.608991,-0.618616
0.360902,-0.313135,0.495888,-0.195976,-0.192129,-0.961603
-0.075402,0.101032,0.720426,-0.015652,-0.294799,0.955431
-0.231986,0.158924,0.717860,0.370534,-0.551790,0.747149
-0.442709,0.474878,0.565479,0.160187,0.940458,-0.299799
0.024834,-0.020878,0.342814,-0.734852,-0.641189,0.221064
-0.031982,-0.346142,0.673970,-0.643760,-0.600177,-0.474722
-0.013399,-0.218104,0.745778,0.972241,0.226921,-0.057044
-0.431132,0.320151,0.582447,-0.765835,0.564484,-0.307985
-0.011938,0.306701,0.522068,0.922735,-0.134942,-0.361041
-0.544588,-0.153070,0.027023,-0.047423,0.628633,0.776255
0.004983,-0.364704,0.756631,-0.295270,-0.793422,0.532257
-0.083734,0.207771,0.391897,0.917795,0.295738,0.264938
-0.147076,-0.149953,0.881607,0.960027,-0.000866,0.279906
0.018709,-0.133318,0.774115,0.387800,-0.900767,-0.195526
-0.522598,-0.017700,0.294511,-0.309727,0.549149,-0.776211
-0.001441,-0.271673,0.127860,0.887681,-0.439267,0.138085
0.862921,-0.866978,-0.959290,-0.779680,0.560852,-0.278466
0.500865,-0.467642,-0.976693,0.971272,0.007377,-0.237860
0.262196,-0.257448,0.455905,-0.680544,0.656088,-0.326203
0.008495,-0.149026,0.420941,0.106498,-0.985816,0.129714
-0.109798,-0.108478,0.920633,-0.552631,0.652857,0.518051
0.580684,-0.549325,-0.961953,0.541342,-0.339937,-0.769020
0.104220,-0.190578,0.338219,0.999922,0.012073,-0.003335
0.315119,-0.315750,0.238586,0.948925,0.156989,-0.273673
-0.858366,-0.080085,0.521968,-0.181340,-0.981916,0.054371
0.033678,0.343997,0.477879,0.862911,0.461688,0.205495
0.642103,-0.783006,-0.959949,-0.065467,0.380986,0.922260
0.209280,-0.286636,-0.019730,0.946152,0.289445,-0.144974
0.764073,-0.593839,-0.950720,0.181222,0.465899,0.866081
-0.539678,-0.023019,0.302947,0.236133,-0.538004,0.809193
0.118691,0.449260,0.660454,0.833130,0.428445,0.349756
-0.177071,-0.224153,0.957224,-0.215862,-0.548978,0.807481
-0.232486,0.711532,0.491723,0.764439,-0.270480,-0.585213
-0.035942,0.053197,0.811729,0.939700,0.333639,0.075161
0.397168,-0.430914,0.349791,0.773413,0.496143,-0.394556
0.071348,0.848947,0.552617,-0.527431,0.622535,-0.578158
0.329979,-0.085424,0.253311,0.114712,-0.988984,-0.093549
0.326214,-0.139832,0.641904,-0.052769,-0.718795,0.693216
0.020446,0.167532,0.645470,-0.334871,0.940911,-0.050472
0.605406,-0.248086,-0.969059,0.664408,0.144140,-0.733338
-0.575065,0.056636,0.528602,-0.735641,0.269136,-0.621609
0.034533,-0.083376,0.854373,-0.387563,-0.660153,0.643423
0.594841,-0.195315,0.458217,0.923136,0.371465,-0.099163
0.273770,-0.229290,0.620732,0.793089,-0.604404,0.075537
-0.055197,-0.147622,0.376571,-0.202070,0.863187,0.462684
0.042270,0.441635,0.644335,-0.677503,0.732751,0.063761
-0.064780,0.350252,0.395138,0.540872,0.510347,-0.668583
0.376340,-0.679619,-0.803367,0.923899,0.356236,-0.139662
-0.132470,0.798308,0.535944,0.149620,0.611953,-0.776612
0.279565,-0.508458,-0.450865,-0.705425,-0.603304,-0.372020
0.278761,-0.215617,0.230873,-0.413185,0.275863,-0.867858
-0.379643,0.403459,0.643882,0.796690,0.603863,-0.025185
-0.320620,0.174753,0.687985,-0.488036,-0.368502,-0.791219
-0.128130,-0.238237,0.945569,-0.494898,0.858920,0.131654
0.316807,-0.420560,0.244950,0.745633,-0.092805,0.659863
0.203921,-0.231759,0.233554,0.277765,-0.761177,0.586051
0.379847,-0.495056,0.217170,0.598758,-0.763628,0.241582
-0.012076,-0.082266,0.969034,0.814115,-0.569960,-0.111187
0.223101,-0.471155,0.573552,0.920201,0.075593,-0.384077
-0.169774,0.688446,0.492673,0.731934,-0.473937,0.489547
0.529473,-0.435962,0.510899,0.712637,0.621046,0.326266
0.233441,0.234555,0.572096,0.810788,-0.567008,0.145347
0.109184,0.356240,0.777032,0.528550,0.816726,-0.231503
-0.059988,0.176205,0.757457,0.716043,-0.086287,0.692702
0.303391,-0.026900,0.718031,0.919061,-0.316644,0.234655
0.508582,-0.326640,-0.971676,0.817245,0.564765,0.114679
0.106266,-0.306899,0.688699,0.878900,0.443126,-0.176563
-0.108496,-0.158491,0.778280,-0.391915,0.664851,0.635906
0.007044,0.578702,0.537673,-0.550705,0.326434,0.768222
0.226304,0.004635,0.707985,-0.656031,-0.638936,-0.401726
-0.190588,0.467885,0.481306,-0.102877,-0.050231,0.993425
-0.370486,0.252926,0.590844,-0.627803,0.650456,0.427516
-0.472447,0.094915,0.527561,-0.282744,-0.592357,0.754433
0.017768,-0.487367,0.671691,0.894661,0.217733,0.390096
0.049440,0.266250,0.690850,0.947894,0.059912,-0.312900
-0.346842,0.230679,0.507397,-0.286869,-0.928735,0.234854
0.921321,-0.973730,-0.900927,0.417761,0.364043,0.832435
0.069737,-0.214663,0.251515,-0.315178,0.911710,-0.263529
-0.149942,-0.238497,0.055542,-0.103755,0.343350,0.933459
0.635677,-0.606481,-0.979197,0.004533,0.434385,0.900716
-0.045083,-0.163300,0.670643,-0.316660,-0.000216,0.948539
-0.000725,0.172956,0.779973,-0.232277,0.610655,0.757065
0.248387,0.293454,0.651761,0.857279,-0.082931,-0.508129
0.019830,0.381901,0.743010,-0.240932,0.095667,0.965816
0.356622,-0.078135,0.656307,-0.347852,-0.592192,0.726847
0.185361,0.292735,0.626542,0.569971,0.343892,-0.746238
-0.049680,0.031450,0.871694,-0.338798,0.811856,-0.475506
0.706539,-0.791951,-0.962236,0.347208,-0.090300,-0.933431
-0.341888,0.476010,0.455186,0.807901,0.223208,0.545412
-0.291477,0.076411,0.763991,0.935726,-0.315306,0.158113
0.471522,-0.638454,-0.979300,0.409599,0.043099,0.911247
-0.336914,0.279891,0.648200,-0.038415,-0.999201,-0.011031
-0.031646,-0.138260,0.729555,-0.756757,0.640868,-0.128866
0.337085,-0.202422,0.256522,0.318864,0.850024,0.419266
0.053343,-0.211739,0.639944,0.662153,-0.324454,-0.675487
-0.165037,0.224246,0.770453,-0.251783,0.889991,0.380159
0.080818,-0.339841,0.652268,0.737304,0.374951,-0.561956
-0.386722,0.124197,0.703317,-0.251605,0.130967,0.958928
0.320217,-0.387697,0.342438,0.417879,0.892409,0.170242
-0.039476,-0.459024,0.714410,0.794379,0.542925,-0.272387
0.014830,0.462154,0.557113,-0.712629,0.531074,-0.458389
-0.571312,-0.273864,0.652820,-0.563655,0.344955,0.750532
0.008222,0.376300,0.477038,0.930603,-0.350757,0.104630
-0.398958,0.296105,0.555435,0.962328,-0.258964,0.082844
-0.640561,0.337746,0.525499,0.412736,0.702188,-0.580156
0.489892,-0.578039,-0.963412,0.082596,-0.268634,0.959695
-0.030771,0.156937,0.627986,-0.395133,0.912093,-0.109344
-0.074378,0.212041,0.682194,-0.018212,-0.997327,0.070761
-0.022735,-0.091265,0.311113,-0.508875,0.855484,-0.095881
-0.219225,0.269092,0.390465,0.062893,-0.831371,0.552148
-0.004760,0.358716,0.718580,0.073109,-0.783362,0.617251
-0.303597,0.125038,0.784940,0.973738,-0.138990,-0.180321
0.530729,-0.303579,0.431919,0.905772,0.397376,-0.147203
0.077379,0.908055,0.580762,0.937764,0.142289,-0.316784
-0.455851,0.275617,0.540180,0.853623,0.361497,0.375029
0.005254,-0.023067,0.833336,-0.555760,-0.822203,-0.122936
-0.119368,0.574928,0.577192,0.988476,0.027177,0.148920
-0.259989,0.116811,0.667406,-0.208292,0.064068,-0.975966
0.332725,-0.337940,0.390845,-0.878594,-0.109799,0.464775
-0.005525,-0.448141,0.687327,0.501259,0.152587,0.851738
-0.271806,0.096894,0.719394,0.777298,0.628171,-0.034762
0.526444,-0.489255,-0.978856,0.198397,-0.725066,0.659484
0.049532,-0.235945,0.189283,0.731114,-0.681749,0.026279
-0.068857,0.562323,0.516518,0.283879,0.862999,0.417906
-0.061769,0.439829,0.544900,0.186027,0.862432,0.470749
-0.078760,-0.141476,0.876216,-0.398577,0.915168,-0.060031
0.485000,-0.039507,0.665011,0.279844,-0.790379,0.544967
0.561705,-0.484327,-0.976372,0.629827,0.770488,-0.098317
0.098838,0.388503,0.572131,-0.231017,0.856525,0.461514
-0.062032,-0.121331,0.844969,0.955361,-0.271164,-0.117284
0.027515,0.175393,0.667865,-0.399985,-0.916450,-0.011493
0.113150,0.331869,0.787657,-0.110170,-0.208107,0.971882
-0.012410,0.178325,0.678961,-0.627024,0.778383,-0.030999
-0.060827,-0.026156,0.835551,0.270420,0.573783,0.773076
-0.806570,-0.004370,0.527916,-0.595703,0.633340,-0.493983
0.144595,-0.528043,0.602149,0.088457,0.755404,0.649261
-0.319417,0.015837,0.409912,-0.041895,-0.909153,0.414349
0.384098,-0.499676,0.357411,0.818671,0.569139,-0.076537
0.004934,0.156601,0.725249,0.923311,-0.129205,0.361668
-0.603487,-0.022411,0.605173,0.790999,0.448308,-0.416341
-0.408020,0.381894,0.549557,0.242094,0.657235,-0.713746
0.634611,-0.578217,-0.979074,0.191168,-0.224071,-0.955640
0.077478,0.970392,0.583130,-0.461660,0.714841,0.525235
0.004988,-0.223402,0.051528,0.371264,-0.812586,0.449296
0.358560,-0.198553,0.278762,-0.423213,0.633101,0.648131
-0.120611,0.728335,0.494836,-0.551033,0.496817,0.670474
-0.646440,0.226378,0.547773,0.325756,0.843193,-0.427678
0.583795,-0.356891,-0.978114,0.220122,-0.037593,-0.974748
-0.132811,0.076279,0.770981,0.500347,-0.267099,-0.823597
0.740157,-0.687143,-0.953597,-0.075384,-0.056784,0.995536
0.056995,0.086352,0.364420,0.160526,0.836874,-0.523329
0.264667,-0.351820,-0.178281,-0.066383,0.997765,-0.007577
0.369553,-0.072045,0.676185,0.847650,0.440050,0.296387
-0.171991,0.007282,0.857725,-0.585077,0.810977,-0.001192
0.056981,-0.114663,0.302664,-0.106795,0.993719,0.033433
-0.342779,0.366911,0.635381,0.342320,0.938178,-0.051369
0.613934,-0.529363,-0.977288,0.126783,0.937193,0.324955
-0.565352,0.134618,0.590069,-0.502395,0.864589,0.009188
0.506533,-0.582022,-0.973642,0.107281,0.271549,0.956427
-0.163962,0.222122,0.384503,0.090794,0.874078,-0.477225
0.027687,-0.185221,0.400114,-0.572725,0.191031,-0.797179
-0.467853,-0.239362,0.055434,0.281176,0.890674,-0.357267
0.053989,0.770420,0.585892,0.894693,-0.315540,-0.316163
0.096099,0.058329,0.816318,-0.376651,-0.715666,-0.588180
0.056229,0.321469,0.675616,-0.710377,-0.687641,0.150046
-0.061594,0.247296,0.773305,0.826473,-0.089531,0.555811
-0.648436,0.136688,0.632636,-0.697212,-0.380517,-0.607537
-0.199737,0.429471,0.477071,0.377969,0.497410,-0.780848
0.045008,0.480303,0.501636,-0.790210,-0.609673,-0.062176
0.237069,-0.399458,-0.061563,0.982773,0.157386,-0.096887
0.276230,-0.102249,0.677941,0.458376,0.789250,0.408626
-0.443295,0.219526,0.535370,0.895316,-0.445429,-0.001644
0.355113,-0.189264,0.278359,0.325340,0.874204,0.360447
0.187138,-0.019866,0.630533,-0.085297,0.995506,-0.041139
0.271249,-0.082534,0.681628,0.679718,0.658749,-0.322542
-0.377265,0.175375,0.693930,-0.526926,0.428019,-0.734267
0.154166,0.064467,0.357874,-0.354199,0.711382,-0.607025
-0.675399,-0.160754,0.475315,-0.338609,0.903049,-0.264286
0.498054,-0.782510,-0.901433,-0.312595,-0.884820,-0.345512
-0.122147,0.168076,0.717639,-0.217262,0.768456,0.601891
-0.144885,0.181826,0.413960,0.895066,0.442720,0.053434
-0.126663,-0.198882,0.937297,0.876325,-0.240901,-0.417158
-0.067181,0.171788,0.743659,0.115181,-0.959508,0.257056
0.110489,0.227857,0.509753,-0.293908,-0.784418,-0.546174
0.295024,-0.472250,-0.557325,-0.777841,0.578704,-0.245082
-0.942099,0.021122,0.537532,-0.618312,-0.600827,0.506653
0.087128,-0.438892,0.644992,0.110500,-0.435295,0.893481
-0.083442,0.856749,0.529867,0.176531,-0.504627,0.845097
0.455431,-0.312840,0.628882,-0.693398,0.249856,-0.675849
0.708578,-0.795382,-0.948001,-0.349047,0.668033,-0.657190
-0.052765,-0.075875,0.766668,0.865659,0.174241,0.469334
-0.146344,-0.273836,0.057152,-0.095351,0.645110,0.758117
-0.256901,0.259924,0.679460,0.893113,0.034085,-0.448539
-0.041114,-0.068057,0.358727,0.782675,0.072085,0.618242
-0.010531,0.313107,0.766353,-0.381617,-0.465841,0.798349
-0.102144,-0.267389,0.881404,-0.004358,-0.226150,0.974083
-0.369718,0.068891,0.737211,0.817532,0.220320,-0.532071
0.111978,0.246484,0.637333,-0.463380,-0.534904,-0.706510
0.152746,-0.459115,0.634691,-0.321872,0.442818,0.836846
-0.045369,-0.105136,0.690960,0.948088,0.103072,0.300843
-0.244328,0.129886,0.759945,-0.232246,0.889524,0.393458
0.210868,-0.574387,-0.188043,0.622656,-0.702645,-0.344369
0.038855,-0.252118,0.114803,0.918457,-0.394359,0.030300
0.033930,-0.146869,0.372332,0.979564,-0.184562,0.079947
0.052978,0.314991,0.514178,0.255511,-0.431241,0.865301
-0.118426,0.000662,0.767839,-0.341740,-0.858625,-0.382068
-0.047200,0.031770,0.397083,-0.623525,0.041463,0.780703
0.729279,-0.815789,-0.954982,-0.228264,-0.775552,0.588569
-0.035782,-0.165654,0.860507,0.418600,0.618169,-0.665312
0.614037,-0.705478,0.437973,0.883785,-0.460002,0.085571
0.521386,-0.155029,0.488363,0.900279,0.364444,0.238073
-0.085393,0.909814,0.545886,0.492734,-0.624998,0.605467
-0.109043,-0.102153,0.901976,0.858533,-0.412610,-0.304424
-0.091871,0.239009,0.759712,-0.513092,0.677511,0.526987
-0.468134,0.018432,0.636562,0.857837,0.111163,-0.501756
-0.285038,0.161631,0.503352,-0.274731,-0.914536,-0.296895
0.153810,-0.269593,0.037995,-0.409610,0.910517,0.056373
-0.081551,-0.005674,0.388612,0.972715,-0.227813,0.043896
-0.571154,0.342785,0.595464,0.353089,0.838542,0.414941
0.256055,-0.211597,0.642276,0.658412,-0.122711,0.742587
0.208450,-0.445642,0.641435,-0.120528,0.539928,0.833037
0.316145,-0.232905,0.656375,-0.404608,0.246411,0.880667
0.469436,-0.694627,-0.813606,0.789881,-0.601914,0.117421
-0.060925,0.122562,0.630461,0.449001,-0.875326,0.179452
0.780144,-0.731324,-0.954842,-0.321551,-0.111735,0.940277
-0.106304,-0.188772,0.890942,-0.445903,0.816976,-0.365678
0.193015,0.128615,0.511941,0.752612,0.269660,-0.600715
0.087525,-0.181000,0.251300,-0.762665,0.637050,-0.111844
0.057408,-0.551028,0.590365,0.793611,-0.259373,-0.550369
0.318337,-0.514024,-0.509067,-0.252705,-0.794515,0.552164
-0.013040,0.061743,0.893422,0.273700,0.942300,0.192764
-0.580447,0.156747,0.329220,0.251173,0.540492,-0.802983
0.277598,-0.444048,-0.234254,-0.083998,0.991657,0.097776
0.173156,-0.294506,0.717250,0.016837,0.956840,-0.290126
-0.102052,-0.039571,0.828497,-0.543093,-0.440437,0.714888
0.128890,0.242866,0.629344,0.563000,0.792912,0.233071
0.599379,-0.246974,0.449608,0.791999,0.351930,-0.498881
0.638572,-0.702466,-0.954259,0.180465,-0.017072,0.983433
0.339476,-0.536437,0.081303,0.876266,0.477108,-0.067271
-0.391279,0.480697,0.610216,-0.700059,0.713971,0.012802
-0.025870,0.373708,0.526950,0.764949,0.403336,0.502168
-0.733468,-0.061029,0.469166,0.065378,-0.992887,0.099507
0.019466,-0.054764,0.271957,0.343982,0.938509,-0.029617
-0.034222,0.087611,0.670892,-0.640390,-0.315584,-0.700220
-0.460325,0.028585,0.625132,0.682432,0.427111,-0.593180
0.275335,-0.371034,0.421409,0.956465,0.107292,0.271409
0.092639,0.495044,0.669403,0.392384,0.202355,0.897266
0.217062,0.216155,0.489519,0.770972,-0.440039,-0.460400
-0.145103,-0.190926,0.878735,0.438567,0.272501,0.856389
-0.007283,-0.146274,0.899874,0.865294,0.408996,-0.289809
0.945120,-0.968854,-0.924280,0.319690,-0.395602,0.860986
-0.325537,0.313503,0.551823,0.308497,-0.473018,0.825278
-0.089595,-0.249237,0.689293,0.144997,-0.989342,0.013358
-0.224714,-0.281982,0.058830,-0.314900,0.656640,-0.685319
0.227534,-0.494155,-0.005854,0.466373,0.868455,0.168173
-0.137111,0.012847,0.764443,0.931092,0.207018,0.300351
-0.577764,-0.066545,0.494120,0.895029,-0.427914,-0.125748
-0.037635,-0.073866,0.820374,-0.379485,0.043376,0.924180
-0.030098,-0.063329,0.859810,0.849829,-0.526474,-0.024805
-0.433072,0.048030,0.674228,-0.088118,0.895511,-0.436227
0.739703,-0.543569,-0.971338,-0.476228,0.353430,-0.805167
-0.564908,0.352916,0.596895,0.142830,-0.618098,-0.773017
0.319528,-0.545490,0.123086,0.016190,0.411588,0.911226
0.118801,0.189920,0.429708,0.656270,0.567622,-0.497106
0.555766,-0.366195,-0.967006,-0.588535,-0.581826,-0.561342
0.008960,0.307765,0.631176,0.823482,-0.369689,0.430358
0.240152,-0.518790,0.074608,0.029735,-0.999408,-0.017283
-0.090625,0.636358,0.574125,0.883424,-0.342463,0.319813
0.308180,-0.063995,0.705701,0.862407,0.477557,0.167912
-0.099309,-0.093987,0.951998,-0.049196,-0.920841,0.386822
0.515657,-0.147335,0.424700,-0.673687,-0.009946,0.738950
0.304308,-0.234878,0.659058,-0.433264,0.148647,0.888924
0.071508,-0.449622,0.592365,0.240288,-0.950965,-0.194751
0.098758,0.860486,0.591206,0.898902,-0.209190,0.384987
-0.551540,0.203987,0.561212,-0.502956,-0.859739,0.088791
0.341317,-0.444252,0.306975,0.908560,0.415912,0.039201
-0.085969,-0.168881,0.832608,-0.177543,-0.515708,0.838167
0.111120,0.915256,0.601540,0.918639,-0.393660,0.033685
0.553231,-0.598190,-0.962003,-0.558153,0.231926,0.796665
0.041441,-0.463632,0.600243,-0.702906,0.572836,0.421643
0.039664,-0.488825,0.582388,-0.368673,0.129482,0.920497
0.675360,-0.571500,-0.975728,-0.218957,-0.597683,0.771254
0.299315,-0.432412,-0.395915,0.829664,0.508782,-0.229780
0.205927,-0.044921,0.659489,0.543617,0.839110,0.019357
-0.004357,-0.467623,0.589009,0.953382,0.260506,0.152312
0.046646,0.394340,0.756450,0.642447,-0.173096,-0.746525
-0.045133,0.082347,0.727748,-0.576434,0.602967,-0.551502
0.115759,-0.422849,0.594739,0.119643,0.529805,0.839638
-0.159075,-0.181849,0.885223,0.887522,-0.221658,0.403947
-0.072770,0.026699,0.701938,0.940508,-0.327042,0.092130
-0.304067,0.181716,0.647745,-0.705894,-0.033889,-0.707506
0.384155,-0.571087,-0.689713,0.405827,0.821686,-0.400171
0.270797,-0.446062,-0.378266,-0.724904,0.686418,0.057822
0.272983,-0.102166,0.238805,-0.621210,0.747585,0.234977
-0.007816,-0.181517,0.377609,0.447401,0.720279,0.530123
0.664463,-0.463289,-0.968087,-0.268158,0.071448,0.960722
-0.128212,-0.245848,0.885255,0.150625,-0.219070,0.964013
0.599629,-0.266247,-0.992078,0.353122,0.635429,0.686684
0.265868,-0.258526,0.510536,0.998089,0.061770,-0.001828
-0.364383,0.523333,0.572651,-0.775429,0.489699,-0.398629
0.120979,0.673430,0.652184,0.187240,0.212044,0.959155
0.070171,0.123974,0.496663,0.844338,0.522056,-0.120626
-0.117797,0.100703,0.687567,0.648050,0.721352,0.244302
-0.349274,0.502086,0.573379,-0.044230,-0.882152,0.468884
-0.013136,-0.054586,0.947139,0.968680,0.134858,0.208499
0.097924,0.369974,0.736459,0.395966,0.916887,-0.050282
-0.411039,0.192503,0.521666,-0.369028,-0.842835,0.391725
-0.964402,-0.081848,0.497541,0.271683,-0.948005,0.165752
-0.403187,0.438470,0.636790,0.856710,0.147346,0.494304
0.293632,0.026643,0.704862,0.306210,-0.411861,0.858257
0.055560,-0.501868,0.610870,0.936554,0.244491,-0.251179
0.554820,-0.694627,-0.973343,0.892510,0.309725,-0.327867
0.007197,0.264148,0.649588,0.818462,-0.389111,0.422745
0.181277,-0.505576,-0.038245,0.383804,0.900097,0.206202
-0.069147,-0.049116,0.816637,-0.701023,0.661078,0.267476
0.293803,-0.304384,0.298885,0.860896,-0.310114,-0.403345
-0.009698,0.247523,0.736698,0.995251,0.062415,0.074692
0.082318,0.569679,0.578074,0.222285,-0.260892,0.939428
0.036930,-0.269636,0.124937,0.835428,-0.549569,-0.005897
0.160214,-0.020185,0.723253,0.731645,0.680941,-0.031865
-0.103290,0.534035,0.576491,0.962275,-0.165010,0.216329
0.023346,0.367935,0.460685,0.739189,0.672507,0.036513
-0.382020,0.191846,0.515467,0.466866,0.790424,-0.396568
-0.361810,0.236303,0.552367,0.430111,-0.698800,0.571562
0.025280,0.179935,0.649633,0.813809,-0.212947,0.540711
-0.779495,0.092113,0.559791,0.496213,0.660681,-0.563270
-0.095687,0.403180,0.547833,-0.713851,0.326502,-0.619527
-0.772633,0.054935,0.555124,0.950071,-0.153509,-0.271660
0.352009,-0.077221,0.242157,0.091245,0.991207,0.095828
0.047662,0.420839,0.748087,-0.373465,0.035161,-0.926978
-0.329355,0.072803,0.744979,0.714128,0.440218,-0.544270
-0.141408,0.253046,0.737995,-0.115670,0.580526,0.805984
-0.342155,0.094025,0.662423,0.821622,-0.241556,0.516321
-0.083855,-0.113837,0.921881,-0.432918,0.666200,0.607255
0.265760,0.396467,0.644165,0.824122,0.321897,-0.466053
0.808442,-0.817842,-0.948378,-0.526926,0.423194,0.737059
0.135522,-0.345062,0.003299,-0.594110,0.463022,-0.657756
0.230261,-0.479447,0.673671,0.486468,0.271390,0.830480
-0.119631,0.256048,0.402557,0.918287,0.245585,-0.310542
-0.530197,0.140459,0.609508,-0.477717,0.204665,0.854341
0.277459,-0.029225,0.665908,0.919779,-0.193365,0.341493
-0.119665,0.683580,0.516861,0.466200,0.102144,-0.878763
-0.472988,-0.331775,0.060085,-0.309288,-0.141393,-0.940398
-0.260606,0.111078,0.487066,0.341829,-0.514327,0.786524
0.237735,-0.333642,0.748927,-0.629167,-0.608244,-0.483929
-0.533735,0.355346,0.526525,0.033093,-0.781552,0.622961
0.444906,-0.667797,0.374600,0.740177,0.670688,0.048133
-0.584255,0.283925,0.517928,0.547986,0.711517,-0.439836
-0.257010,0.300794,0.715007,-0.253457,-0.822828,-0.508639
-0.076661,-0.172922,0.830667,-0.007076,-0.482426,0.875908
0.375737,-0.376096,0.368537,0.423543,0.824532,-0.375178
0.169025,0.193896,0.443358,0.771987,-0.246440,0.585922
0.068143,0.512834,0.518581,0.894390,-0.145014,0.423129
-0.118475,-0.151539,0.968090,-0.436565,-0.150208,0.887045
0.616915,-0.239144,0.396964,0.840582,0.525703,-0.130610
0.715113,-0.485245,-0.957989,-0.541093,-0.143059,-0.828706
-0.363332,0.192594,0.514586,-0.333485,0.898398,-0.285777
-0.430883,-0.054756,0.623495,-0.023897,-0.469616,0.882547
-0.171211,0.189948,0.759536,0.292478,0.602402,0.742677
0.391761,-0.243911,0.273857,0.949389,0.152781,0.274442
0.273794,-0.380923,0.332651,0.983740,0.164621,0.071799
-0.041079,0.417267,0.499449,0.728675,-0.072541,-0.681007
-0.172591,0.470694,0.507110,0.401062,0.694782,-0.597015
0.579901,-0.727044,-0.934329,-0.716850,0.690967,-0.093221
-0.078902,0.090772,0.779683,-0.154538,0.901755,0.403678
-0.026993,-0.211067,0.963648,-0.466970,0.342243,-0.815358
0.239058,-0.048527,0.742739,0.897211,-0.434353,-0.079688
-0.075932,0.817197,0.531635,0.675145,0.149164,-0.722447
0.555239,-0.370519,-0.966572,0.434252,0.368580,0.821933
0.010698,-0.494143,0.604087,0.945908,-0.240101,-0.218195
-0.556908,0.107078,0.471937,0.984313,0.044231,-0.170797
0.037027,-0.305280,0.770462,0.931720,0.278567,-0.233020
-0.285564,-0.218470,0.074208,0.075974,0.424256,0.902349
-0.092871,-0.074273,0.417939,-0.271778,-0.741359,0.613615
0.725271,-0.659227,-0.956249,-0.359949,-0.241473,0.901181
-0.539079,0.382335,0.557485,0.215384,0.867217,-0.448937
0.575556,-0.537307,-0.963431,-0.507686,0.192268,0.839814
-0.140787,-0.204104,0.880023,0.371846,0.383072,0.845569
-0.158142,-0.002962,0.736781,0.855323,0.450137,0.256513
-0.194595,-0.146294,0.713997,0.806370,-0.401127,0.434586
-0.203058,-0.209531,0.319132,0.156380,0.890183,0.427924
0.458481,-0.713745,-0.826201,-0.678225,0.637150,-0.366129
0.358127,-0.372227,0.621909,-0.010420,-0.358325,0.933539
0.281535,-0.088194,0.221815,0.865179,0.499721,-0.041768
0.063412,0.314389,0.702638,0.831634,-0.128403,0.540275
0.108254,0.856453,0.578448,0.748675,0.661070,0.049716
0.423042,-0.533548,-0.583158,0.069080,-0.966948,0.245439
0.481703,-0.384553,0.487188,0.314708,0.601216,0.734506
0.077530,0.987185,0.590381,0.086259,0.839967,-0.535737
0.233591,0.299270,0.437198,0.347109,0.670041,-0.656171
0.343554,-0.516320,-0.504333,-0.451605,-0.629229,-0.632553
0.201756,-0.136391,0.701148,-0.584642,0.026689,-0.810852
0.147677,0.148241,0.515996,0.867635,-0.372404,-0.329430
0.150008,0.109901,0.418971,-0.039165,-0.807886,0.588036
0.049729,0.644795,0.677369,-0.600063,0.492461,-0.630402
-0.601431,0.182318,0.583650,0.770158,-0.535067,0.347217
0.094974,-0.274824,0.679175,0.900239,0.392009,-0.189468
0.022859,0.285854,0.744815,-0.532292,0.321671,0.783067
-0.030682,-0.203478,0.703138,0.869195,0.463644,0.171854
0.356053,-0.073025,0.569417,0.865276,0.292033,-0.407448
0.022416,-0.189191,0.296887,-0.066374,0.956367,0.284528
0.241171,-0.386528,0.643894,0.085401,0.558920,0.824812
0.008355,0.760863,0.565257,0.872670,-0.132535,-0.469980
0.300318,0.129375,0.677805,-0.177868,-0.607932,0.773810
0.073340,0.742739,0.553068,0.344205,-0.937538,-0.050447
0.581442,-0.608851,-0.974649,-0.320276,0.460740,0.827733
0.236871,-0.497100,-0.307472,0.878782,0.358521,0.314968
-0.091780,0.353128,0.530547,0.620847,-0.346572,-0.703162
-0.282264,0.651236,0.422212,0.954895,0.050671,0.292588
-0.428271,0.306222,0.560961,-0.530631,-0.791176,0.304090
0.356707,-0.115062,0.621360,-0.740822,0.645803,0.184719
-0.046613,0.153351,0.739094,0.854992,0.461280,-0.237084
-0.414560,0.210954,0.541018,0.516940,-0.301605,0.801129
-0.068769,0.309329,0.403012,-0.594949,0.166343,-0.786362
0.347870,-0.132623,0.734531,-0.478779,0.843597,0.243137
0.108429,0.807460,0.591258,-0.171184,-0.465605,-0.868279
-0.213427,0.442866,0.409586,0.781272,0.572999,-0.247563
-0.024806,0.440192,0.676598,0.912294,0.401147,-0.082469
0.615659,-0.633185,-0.956355,-0.052020,0.300678,0.952306
0.077579,0.769274,0.556185,-0.528405,-0.104252,0.842567
-0.402235,0.322110,0.558034,-0.799230,0.586830,-0.129852
0.123180,0.444815,0.659248,-0.725268,-0.577296,-0.375122
0.973980,-0.929041,-0.929272,-0.580806,0.182379,-0.793349
0.366002,-0.628568,0.093831,0.788633,0.614443,0.022751
-0.466805,0.430155,0.520852,-0.504466,-0.249556,-0.826581
0.175223,0.100612,0.423611,-0.791727,0.570201,0.219176
0.030713,-0.517247,0.583495,0.529737,-0.086034,-0.843787
-0.092382,-0.017155,0.870003,0.905031,-0.148902,-0.398431
0.108941,0.377864,0.542502,0.712660,0.129895,-0.689378
-0.623452,0.184492,0.602894,0.754209,-0.646859,0.112882
-0.324051,0.163139,0.684644,0.944058,-0.297985,0.141277
0.346433,0.002332,0.650078,0.270486,0.419341,-0.866597
-0.197621,-0.026554,0.836019,0.401998,-0.810933,0.425189
-0.058891,-0.193556,0.860126,-0.073593,-0.310397,0.947754
0.138769,0.455763,0.616155,-0.052412,0.764324,0.642699
0.053468,-0.188763,0.305118,-0.434817,-0.894104,0.107299
-0.107516,0.143585,0.721277,0.255674,0.574908,0.777246
0.054960,-0.488052,0.651863,0.920829,0.264633,0.286431
-0.133230,-0.199469,0.933813,0.742113,-0.632432,0.222031
0.326129,-0.132178,0.272124,0.678665,0.543511,0.493974
0.071254,0.433651,0.498520,0.981835,-0.162933,0.097224
-0.302700,0.079799,0.693656,-0.586106,-0.006827,0.810206
-0.139736,0.343158,0.460160,-0.066250,-0.918120,0.390726
0.158821,-0.481992,0.708984,0.911962,0.053771,-0.406736
-0.063661,0.049727,0.367782,0.911957,0.091419,0.399971
0.220241,-0.283411,-0.147597,0.453654,-0.885922,-0.096642
0.209394,-0.074624,0.710124,-0.737848,0.670960,-0.073438
0.314465,-0.297972,0.270637,-0.426291,-0.309231,0.850090
0.003046,0.342417,0.777199,-0.271155,0.683081,-0.678141
0.035754,-0.145683,0.316138,0.680013,-0.708128,0.190097
-0.190720,0.759266,0.491591,0.088260,-0.443391,0.891972
-0.010358,0.311402,0.712268,-0.424272,0.461347,-0.779199
0.192294,-0.229903,0.704331,0.915609,0.361829,-0.175327
0.411919,-0.600564,0.399679,0.515974,0.824390,-0.232707
0.816850,-0.789846,-0.953914,-0.470762,0.394311,0.789241
0.306904,-0.222189,0.470120,0.242638,-0.920781,0.305434
-0.719038,-0.145314,0.475434,-0.199575,-0.979813,-0.011689
-0.572802,0.033231,0.488219,0.914216,-0.364136,-0.177804
-0.205581,0.831001,0.554954,-0.200522,-0.905053,0.375060
-0.783257,-0.044472,0.533310,-0.800384,0.567002,0.194665
0.206204,0.143181,0.698137,0.965437,-0.192532,0.175680
0.087664,0.337282,0.614361,0.910909,-0.190001,-0.366257
0.086106,-0.230772,0.140798,0.451551,0.804680,-0.385476
-0.001468,0.335740,0.742144,-0.416920,0.077267,0.905653
-0.043525,0.038980,0.357334,0.887916,0.094826,0.450125
0.107595,-0.303555,-0.071116,0.749714,-0.587104,0.305348
0.565127,-0.454322,-0.979904,0.988217,0.146018,0.045898
-0.253923,0.425427,0.543208,-0.062709,0.063520,0.996008
-0.262960,0.128293,0.681564,0.187867,-0.976949,-0.101369
-0.392641,0.081879,0.681205,0.577429,-0.358141,0.733696
-0.172471,-0.136619,0.893725,0.838242,-0.464136,0.286231
-0.492077,0.346822,0.529229,0.510595,0.449150,-0.733183
-0.012299,0.449752,0.753496,0.065243,-0.516969,0.853514
0.201238,0.387557,0.487673,-0.242879,-0.188365,0.951592
0.313829,-0.527971,-0.396348,0.251801,0.813171,-0.524737
-0.004436,0.299094,0.631671,0.885684,-0.132575,0.444958
-0.022493,-0.162748,0.754489,0.971907,-0.079720,0.221453
0.099696,0.843684,0.586040,-0.257540,-0.353998,-0.899088
-0.008290,0.081602,0.387029,0.246243,-0.825749,0.507448
0.734892,-0.494567,-0.974916,0.721815,0.601459,0.342389
-0.696500,0.217306,0.537720,0.559694,-0.563415,0.607706
0.320616,-0.536961,0.093317,-0.641999,-0.548217,-0.535999
0.444555,-0.832563,-0.895474,-0.417180,-0.882806,-0.215905
-0.290931,0.299234,0.678790,-0.739275,0.390232,0.548809
0.168687,-0.170084,0.591720,0.293886,0.137013,0.945969
-0.034212,-0.203532,0.708639,0.793306,0.588498,0.155997
-0.127265,0.136970,0.692744,0.392799,0.919517,0.014066
0.041416,0.432067,0.529980,0.939618,0.216309,-0.265196
0.097910,0.355586,0.786457,0.251347,0.406335,-0.878474
-0.174601,0.016390,0.777380,-0.296279,0.850226,0.435126
0.615298,-0.656366,0.403611,-0.327181,0.917506,0.226133
-0.052700,0.111054,0.882488,-0.518730,0.846194,0.121962
-0.810112,0.048618,0.526674,0.648917,0.752009,0.115710
-0.356204,0.064242,0.669720,0.579922,0.532581,0.616480
-0.435307,0.102692,0.487864,-0.254956,0.475825,0.841777
-0.098402,0.203915,0.775553,-0.358244,0.610906,0.706013
-0.561290,-0.289941,0.049739,-0.136532,-0.971427,-0.194138
0.586630,-0.399978,-0.988410,0.366895,0.094921,-0.925407
0.199277,0.060791,0.511202,0.705452,0.332719,-0.625808
0.293955,0.010353,0.656289,0.087708,-0.384490,0.918953
-0.024436,0.396944,0.507726,0.962057,0.145722,-0.230676
0.259153,0.003247,0.741787,0.976019,-0.150080,-0.157682
-0.057624,-0.089040,0.849130,-0.549296,-0.835620,0.003520
0.235376,-0.409297,0.593075,0.350670,-0.236035,0.906266
0.071462,0.237936,0.621509,0.088384,-0.061241,0.994202
-0.055564,-0.079423,0.672970,0.694771,0.091486,-0.713388
-0.374463,0.218557,0.498544,0.303359,0.515212,-0.801580
-0.228839,0.533777,0.606799,0.159175,-0.891949,0.423190
-0.321902,0.329678,0.414704,0.203916,-0.248148,-0.947017
0.503335,-0.653188,-0.980726,-0.326662,-0.399816,0.856410
0.040501,-0.259993,0.027273,-0.628568,0.646751,-0.431991
0.240214,-0.495416,0.687031,0.486468,0.271390,0.830480
-0.023349,-0.090283,0.933310,0.583990,-0.732398,0.350068
-0.683074,0.089224,0.531821,0.258250,-0.087739,0.962086
0.886961,-0.871016,-0.944606,-0.713598,0.643226,0.277557
-0.503636,0.247713,0.555017,-0.369192,0.166740,-0.914273
0.393621,-0.581742,-0.596525,0.870200,-0.483603,0.094231
0.407137,-0.547906,-0.553994,0.961368,0.272007,-0.042232
-0.360167,0.360408,0.585434,0.875790,0.482468,0.014725
-0.069311,-0.160973,0.956235,-0.052357,0.365649,0.929279
0.205974,-0.474876,0.599118,0.927891,-0.326652,0.179768
-0.413105,0.259372,0.556827,-0.025844,-0.284884,0.958213
-0.805106,-0.109077,0.513394,0.698876,0.661022,0.273171
-0.057941,-0.266815,0.766094,0.984271,0.174278,0.028927
0.465984,-0.532630,-0.964731,-0.701991,0.679348,0.213762
0.109533,-0.343695,0.586867,-0.231320,0.642201,-0.730801
0.326325,-0.276955,0.406210,0.228611,-0.879246,0.417928
0.055067,-0.146257,0.682601,0.225071,-0.197355,-0.954146
0.497102,-0.691448,-0.960845,-0.336081,0.451511,0.826551
-0.184862,0.583035,0.486657,-0.587425,0.624226,-0.515047
-0.046180,0.029693,0.876175,-0.567736,0.749752,-0.339922
-0.038422,0.034281,0.798936,0.848904,0.428716,-0.309135
-0.090962,-0.101146,0.938674,0.889335,0.399365,0.222690
0.314068,-0.336022,0.450148,0.933566,-0.350893,0.072996
-0.630633,0.251334,0.503057,-0.696753,0.521699,0.492306
0.039175,-0.097128,0.230228,0.277142,-0.954747,0.107938
0.168184,-0.018128,0.243752,-0.479240,0.455939,-0.749966
-0.276994,0.149509,0.741145,0.303955,-0.256525,-0.917500
0.860404,-0.817273,-0.954632,0.872556,-0.396714,0.285068
0.284452,-0.440851,0.156755,0.016476,-0.966786,0.255056
-0.419421,0.088104,0.691451,-0.632140,0.760542,-0.148241
0.628650,-0.808660,-0.953682,-0.007876,0.152674,0.988245
0.223602,-0.297816,0.704277,-0.141870,0.016668,0.989745
0.339419,-0.550063,0.569233,-0.040473,-0.873017,0.486007
-0.103395,0.254953,0.380986,0.034689,-0.679093,0.733232
0.440478,-0.618840,-0.644554,0.784306,0.513351,0.348331
0.527222,-0.814141,-0.912429,0.409143,0.851634,0.327599
0.368301,-0.412694,0.235226,-0.719539,0.006505,-0.694422
-0.090407,-0.125445,0.947305,0.687665,0.527882,0.498455
0.076100,0.053449,0.662846,-0.118582,-0.916598,0.381819
0.570841,-0.720554,-0.975353,0.111556,-0.991043,-0.073405
-0.070969,0.050865,0.897159,-0.461971,0.875798,0.139862
0.062813,0.783110,0.579914,0.783621,-0.308231,-0.539381
0.059180,0.803138,0.573544,0.764736,-0.582571,-0.275300
-0.236719,0.725980,0.419138,-0.310214,0.817258,0.485651
-0.082288,0.075674,0.691211,0.698017,0.678648,0.228495
-0.771960,-0.081521,0.488020,0.381120,0.384179,0.840924
0.301542,-0.230859,0.605638,0.963506,0.029832,0.266018
0.139926,-0.118850,0.769100,-0.040945,-0.183151,0.982232
0.287246,-0.184729,0.271066,0.027684,0.578118,0.815483
0.251904,-0.331303,0.452305,0.404748,0.249794,0.879649
-0.113486,0.820431,0.533726,0.328639,-0.015051,0.944336
0.096431,0.430788,0.648213,0.132989,-0.959136,0.249743
0.261859,-0.170536,0.265310,-0.598580,0.755788,0.265495
0.315696,-0.398352,0.307782,0.591735,0.552781,-0.586757
0.248785,-0.372964,0.712279,0.870852,0.307878,-0.383180
0.981360,-0.977876,-0.922507,0.735339,-0.208743,0.644750
-0.052104,-0.277692,0.145532,-0.510981,0.769266,-0.383573
0.639903,-0.284023,-0.961707,-0.662343,-0.080679,0.744844
-0.610324,0.365912,0.562281,0.980810,-0.075126,0.179909
-0.000873,-0.345286,0.661339,-0.103046,-0.870261,0.481692
0.517061,-0.484850,-0.969561,0.849599,0.479411,0.219878
-0.102167,0.032805,0.826970,0.059801,-0.703136,0.708536
0.133012,0.077824,0.774050,0.529441,0.846425,0.057069
-0.059806,0.168698,0.696610,0.300881,-0.914673,-0.269896
-0.418866,0.225905,0.510630,-0.016806,-0.790580,0.612129
0.135685,-0.133085,0.230238,0.631970,-0.253651,-0.732308
0.262883,-0.151411,0.230895,0.898005,-0.062471,0.435527
0.523005,-0.504191,-0.964198,0.427662,0.045197,0.902808
0.381592,-0.503776,-0.475577,-0.549605,-0.835138,0.021868
0.019850,0.580097,0.577583,-0.650010,-0.145535,0.745860
-0.011183,-0.265805,0.823048,0.323577,0.494529,-0.806684
0.109711,-0.043583,0.439308,-0.179740,-0.787361,0.589709
-0.536746,0.222066,0.565030,0.890552,0.100897,-0.443550
-0.621009,-0.130952,0.461409,-0.372359,0.830182,0.414906
-0.003529,0.303643,0.741198,-0.160390,-0.372619,0.914019
-0.095313,-0.197037,0.923720,0.653071,-0.370890,-0.660257
-0.235919,0.499128,0.407981,-0.252892,-0.646774,0.719533
0.322596,-0.541458,0.256555,0.907662,-0.416044,-0.055286
0.019195,-0.130741,0.307977,0.306135,0.755236,0.579569
0.607290,-0.459088,-0.974618,-0.100214,0.994890,-0.012249
-0.350272,0.056463,0.679871,-0.446184,0.789330,-0.421756
-0.372826,0.126234,0.478457,0.061327,0.575258,0.815670
0.518494,-0.525769,-0.968588,-0.367349,0.578008,-0.728671
0.034847,0.319383,0.752258,0.795779,0.597702,-0.097401
0.335980,-0.152649,0.675671,-0.414274,-0.359487,-0.836150
-0.097009,0.100018,0.738811,-0.756286,0.648101,-0.089425
0.103609,-0.262535,0.697265,0.684021,0.569181,-0.456232
0.324692,0.039807,0.666063,-0.542094,-0.660476,0.519525
-0.091618,0.772322,0.495186,-0.728640,0.525112,0.439706
-0.458159,0.046156,0.600349,0.390018,-0.919544,-0.048222
0.615272,-0.358324,-0.968396,-0.381435,0.066278,0.922017
0.505465,-0.502592,-0.985602,0.679384,0.733043,0.032934
-0.086032,-0.205270,0.921667,0.758004,0.221736,-0.613402
-0.080504,-0.294361,0.719284,0.973630,0.012706,0.227778
0.023197,-0.255126,0.023585,-0.628568,0.646751,-0.431991
0.286561,-0.422935,-0.242326,-0.710804,0.081372,-0.698667
