-0.400271,-0.200658,0.190945,-0.484880,0.777851,-0.399799
0.064817,0.148170,0.894347,-0.623578,0.780386,-0.046342
-0.121077,0.096118,0.725102,-0.158033,-0.953625,0.256175
0.199459,0.060797,0.573270,-0.353040,0.610155,0.709277
-0.287753,-0.456283,-0.986438,0.162760,-0.206303,-0.964857
-0.031084,-0.334690,-0.280289,0.817332,-0.567245,0.101008
-0.667351,-0.262395,0.671221,-0.133548,-0.988119,-0.076061
0.373240,0.420189,0.447994,0.483271,0.745010,-0.459792
-0.028280,-0.582833,-0.950539,-0.394226,0.331776,0.857036
-0.131889,-0.086769,0.476291,0.967629,-0.000574,0.252374
-0.641124,0.688912,0.671723,0.535412,-0.596829,-0.597602
0.315181,0.089630,0.060445,0.313657,0.945007,0.092630
-0.142600,0.774303,0.632744,0.732749,-0.326643,-0.596979
0.190251,-0.106468,0.451176,-0.514468,-0.152858,0.843776
-0.028979,-0.137054,0.826569,0.270966,0.960286,-0.066543
0.958957,0.559064,0.379345,-0.246624,-0.157599,0.956211
-0.551730,0.470038,0.603409,0.208613,-0.951144,-0.227609
-0.579157,-0.206710,0.728317,-0.075548,-0.913099,-0.400679
0.205165,0.178098,0.817762,-0.528599,0.844029,-0.090546
0.526804,-0.734247,-0.915109,0.259319,-0.024213,-0.965488
-0.295360,0.178763,0.550432,-0.288983,0.828239,-0.480113
-0.178239,-0.428115,0.729422,-0.276721,-0.845998,0.455756
0.140696,-0.534086,0.543132,0.798032,0.294882,0.525538
0.085438,-0.431527,-0.950573,-0.029628,0.232231,0.972209
0.681266,0.138928,0.294455,0.274384,0.051905,-0.960218
-0.086941,0.073121,0.340935,0.914975,0.402963,0.021034
-0.453027,-0.533421,0.393309,0.807625,-0.587027,0.056048
-0.116171,0.487534,0.595540,-0.791944,-0.106713,-0.601197
0.167024,-0.168635,0.841170,0.924144,-0.379809,-0.041266
-0.454627,0.344482,0.500536,0.884878,0.440737,-0.150805
0.888384,0.391800,0.413067,-0.785719,-0.569650,-0.241133
-0.028579,-0.065202,0.669212,0.130764,0.898061,-0.419984
-0.082838,-0.165558,0.740172,-0.567913,0.794891,0.213595
-0.035486,-0.145087,0.660773,0.788727,0.542055,0.289976
-0.331198,0.289026,0.437178,-0.555570,0.670492,-0.491713
-0.063717,-0.269105,-0.337452,0.990091,-0.018470,-0.139208
-0.688073,-0.101954,0.496584,-0.700624,-0.098403,0.706713
0.580358,0.480603,0.322785,0.842782,0.027952,-0.537528
-0.056410,-0.478622,0.409618,0.608807,-0.635812,-0.474444
-0.359728,-0.288031,0.101266,-0.459599,0.888120,-0.003363
-0.096152,0.407314,0.698145,0.898737,-0.356334,-0.255535
-0.497773,0.323245,0.715558,0.955717,0.053773,-0.289332
0.465237,-0.624428,-0.921640,-0.181785,0.181039,0.966530
-0.355024,0.142891,0.651999,-0.640263,-0.761950,-0.097450
-0.607287,0.481926,0.574141,0.375575,0.911082,-0.169919
0.130386,-0.899751,-0.938819,-0.101228,0.059568,0.993078
-0.042296,-0.147619,0.109001,0.921051,0.281063,0.269571
0.170428,0.620908,0.405499,-0.735394,0.227351,0.638362
-0.021574,0.094029,0.890061,0.918457,0.024669,-0.394750
-0.025677,-0.098099,0.968556,0.843390,-0.030517,-0.536435
-0.118976,0.274498,0.486873,0.959039,0.158946,0.234480
0.174732,0.850232,-0.140245,0.725833,0.093868,0.681436
-0.098852,0.554879,0.735249,0.415759,0.364445,-0.833261
-0.078833,-0.323024,0.830521,0.931299,0.130870,0.339935
-0.245708,-0.098428,0.892974,0.891663,-0.433753,0.129593
0.475350,0.903600,0.332463,-0.579397,0.232128,-0.781291
-0.775365,-0.440661,0.600663,0.667862,0.535046,0.517385
-0.156714,-0.273289,-0.979707,-0.221354,0.084151,0.971556
-0.087543,-0.205064,0.866854,0.518387,0.786569,-0.335535
0.626008,0.321815,0.303898,-0.162094,0.057454,0.985101
0.282447,0.036148,0.001741,0.934740,-0.197723,-0.295240
0.687972,0.490288,0.297301,0.137057,-0.829815,0.540945
-0.469142,-0.366492,0.539147,0.210443,0.841121,0.498227
0.236497,0.145309,0.473880,0.475833,0.554406,-0.682801
0.739528,0.296722,0.502746,-0.711642,0.621723,-0.327148
0.031683,0.763302,0.639442,0.671976,-0.153413,0.724508
0.620002,-0.667123,-0.910622,-0.278253,0.032235,0.959967
-0.024177,-0.011828,0.699618,-0.418337,-0.813960,0.403068
-0.490765,-0.342394,0.674235,0.489892,-0.295136,0.820305
0.429201,0.064981,0.095975,-0.222726,-0.801267,0.555306
-0.030382,0.790698,0.642891,0.455596,-0.627071,0.631834
-0.360327,-0.340634,0.631706,-0.824732,0.393008,-0.406647
-0.096552,-0.702230,-0.955562,-0.363810,0.228652,0.902973
0.759046,0.505803,0.297401,0.951809,-0.300629,0.060683
-0.030583,-0.183934,0.207186,0.941005,0.306067,0.144333
-0.619101,-0.037471,0.785178,0.841118,-0.537153,0.063146
0.719805,0.348996,0.391802,0.597259,-0.784535,-0.166693
-0.263928,-0.498428,0.675307,-0.603933,0.781972,-0.154221
-0.028179,-0.181181,0.966178,0.902665,0.222856,-0.368145
-0.083037,-0.229928,0.177818,0.445692,0.892231,-0.072682
-0.302567,0.126825,0.719979,-0.206518,-0.670816,0.712289
-0.242305,-0.268446,0.930413,-0.118426,0.897752,0.424284
-0.059612,0.712237,0.369265,0.825878,-0.562289,-0.041913
-0.214477,0.012049,0.708258,0.956107,0.248575,0.155147
-0.139597,-0.261730,0.582547,0.415172,0.908701,0.043529
0.010860,-0.021291,0.724801,0.346459,0.932087,-0.105732
0.442014,-0.875324,-0.920267,-0.153615,0.067290,0.985837
0.307772,-0.903822,-0.925558,-0.026799,0.044666,0.998642
0.652336,0.195379,0.478870,-0.309607,0.781932,0.541041
0.283348,-0.134085,0.948195,-0.569861,-0.001203,0.821740
-0.144002,-0.082698,0.587938,0.674451,-0.723229,0.148510
0.579860,0.773202,0.369265,0.537942,0.643964,0.543993
-0.014966,-0.195601,0.433863,-0.622531,0.764098,0.169144
-0.228291,-0.256780,0.902753,-0.176493,0.898190,0.402622
-0.026679,-0.289241,-0.237425,0.902189,-0.332743,-0.274475
-0.452227,-0.121539,0.701862,0.507193,-0.839041,0.196891
-0.096351,0.448694,0.567477,0.816621,-0.330919,0.472888
-0.402874,0.276258,0.458677,0.745266,-0.378404,0.548989
-0.054406,-0.109437,0.675575,-0.618879,-0.066135,-0.782697
0.378147,0.333589,0.435939,0.556412,0.564956,-0.609286
-0.448521,-0.442971,0.694830,0.503631,0.491317,0.710607
0.089443,-0.614521,-0.933360,-0.274283,-0.411170,0.869315
0.456629,0.226187,0.088775,0.903677,-0.249734,-0.347852
-0.163123,0.721815,0.586967,0.359788,0.815756,-0.452874
0.704490,0.198126,0.256312,-0.529198,0.801987,0.277066
-0.077731,-0.451226,-0.969460,-0.264555,0.185412,0.946379
0.180038,-0.016233,0.839194,0.285233,0.280757,0.916416
-0.145102,0.125724,0.716027,-0.061026,-0.518091,0.853146
0.191052,-0.096561,0.851551,0.117528,0.544510,0.830479
-0.442716,0.187454,0.625812,0.782120,0.611747,-0.118551
0.262024,0.316643,0.564664,0.855225,0.512666,-0.075915
0.715302,0.227289,0.505894,0.954746,-0.115405,-0.274120
0.088845,-0.245006,-0.962461,-0.070931,0.001940,0.997479
0.092046,-0.508664,-0.900040,0.847953,0.238889,0.473188
-0.187547,-0.309819,-0.980912,0.272870,-0.200016,-0.941029
0.719304,0.369353,0.464169,0.491131,-0.865216,-0.100950
0.000250,-0.299039,-0.373351,0.924695,0.278007,0.260098
0.634916,0.229821,0.217400,0.765300,0.279417,-0.579864
0.063217,0.836476,0.633682,-0.152049,-0.852302,0.500463
-0.048201,-0.170179,0.118144,0.611612,-0.623827,0.486591
-0.121578,0.393344,0.496183,0.730211,0.460498,-0.504711
-0.259522,-0.522198,0.667738,0.528431,-0.844122,-0.090655
-0.145804,-0.247975,0.510783,0.111106,0.964361,0.240132
-0.173931,0.158735,0.691414,0.956131,-0.292820,0.008423
-0.644426,-0.078957,0.726107,0.995910,-0.049313,0.075706
0.787778,0.421734,0.398835,-0.469695,0.856606,0.213572
-0.478853,-0.145087,0.714688,0.612623,-0.768742,0.183654
0.145203,0.027235,0.797803,0.214011,-0.926852,-0.308456
0.029981,0.033615,0.842810,0.099192,-0.855356,0.508455
0.004353,-0.589764,0.955529,0.876780,-0.411429,-0.248965
-0.133090,-0.641816,-0.961992,-0.142812,0.132905,0.980786
0.522998,0.145309,0.158127,-0.010842,-0.955473,0.294878
-0.679565,-0.241158,0.336381,-0.705977,-0.631680,-0.320276
-0.451325,-0.570616,0.744491,0.686685,0.726760,0.016878
0.217877,0.268332,0.535698,0.873742,0.294477,-0.387114
0.051103,-0.121318,0.252060,-0.640644,0.697003,0.322121
0.882375,0.381349,0.291910,0.217946,0.286839,-0.932857
-0.602081,-0.191860,0.242214,0.714059,-0.463005,0.525115
0.134791,-0.491168,-0.942234,0.236752,0.534914,0.811059
0.594475,0.790261,0.355502,0.601662,0.617285,0.506914
-0.146204,-0.079723,0.280792,0.946460,-0.225793,0.230717
0.448420,-0.698267,-0.919128,-0.134806,0.163067,0.977362
-0.063116,0.499644,0.734747,-0.139050,-0.345727,0.927975
-0.212873,-0.315542,-0.056527,-0.079279,0.995313,-0.055382
0.420192,-0.786520,-0.916851,0.085464,-0.128450,-0.988027
-0.366834,0.165230,0.724298,0.208877,0.614950,-0.760399
0.836626,0.419860,0.346862,0.370188,0.893354,-0.254716
0.091444,0.178985,0.793651,0.665633,0.578619,-0.471310
-0.029981,-0.221237,-0.972641,-0.245777,0.070271,0.966776
-0.354021,-0.443851,0.622698,0.662493,0.381808,0.644458
-0.457231,-0.125394,0.688300,0.456987,-0.860913,0.223590
-0.177637,0.253261,0.724768,0.548001,0.072798,0.833304
0.458532,-0.643905,-0.922644,-0.205167,-0.120942,0.971226
-0.557036,-0.152569,0.733441,-0.469747,0.593984,-0.653086
0.276040,-0.798623,-0.930246,0.289843,-0.061232,-0.955113
-0.444617,0.284620,0.632175,0.452472,0.788056,0.417418
0.097854,0.483135,0.634820,-0.125171,-0.938121,-0.322894
0.606988,0.255679,0.305405,0.858619,0.458718,-0.228805
-0.827019,0.213862,0.569922,0.123923,0.234892,0.964090
-0.032584,0.002143,0.724667,0.552427,0.827879,-0.097162
0.140199,-0.830204,-0.931418,-0.176578,-0.066272,0.982053
0.046698,0.865310,0.659467,-0.533870,0.615903,0.579349
-0.008661,-0.320384,-0.328545,0.843252,-0.209473,0.495023
-0.801391,0.559615,0.683009,0.047463,0.983342,0.175460
-0.625305,-0.449459,0.558804,-0.382605,0.099824,-0.918503
0.515290,0.268883,0.280658,-0.689650,-0.127020,0.712916
0.382851,0.156646,0.365046,-0.589512,0.397280,0.703309
0.036589,-0.620243,-0.943875,-0.335707,0.270023,0.902435
-0.065819,-0.080495,0.478501,-0.323743,0.040461,-0.945279
-0.370940,0.017772,0.647813,0.222064,-0.055385,0.973458
-0.638320,-0.494687,0.743353,0.497051,0.772618,0.394971
0.234496,0.706186,-0.144063,0.886246,0.241877,-0.395049
0.082738,-0.607589,-0.930782,0.387022,0.462252,-0.797833
-0.609991,-0.196259,0.263144,0.475193,-0.758881,0.445299
-0.091145,-0.133978,0.675541,0.674346,0.263286,0.689883
-0.579557,-0.314225,0.666834,0.759784,0.633577,-0.145977
0.210270,-0.137383,0.439991,-0.576465,0.117347,0.808652
-0.024375,0.467620,0.557331,0.556727,0.808571,-0.190443
0.159616,-0.583055,-0.930547,0.480038,-0.119003,0.869139
0.178438,-0.131446,0.814949,0.638045,0.769660,-0.022825
0.737625,0.463550,0.337586,-0.569794,0.759172,0.314630
-0.273236,-0.549493,0.552542,0.034271,0.976188,0.214202
-0.232795,0.368474,0.603777,-0.132955,-0.460767,0.877506
0.525903,0.572047,0.262842,0.981739,0.005734,-0.190145
-0.359227,-0.172046,0.663084,0.312977,-0.359336,0.879160
0.454325,0.181181,0.425457,-0.672184,-0.708125,-0.216168
0.201060,-0.609900,-0.933360,0.117766,0.270627,0.955454
0.361030,-0.635980,-0.924486,0.241483,-0.245049,-0.938955
-0.074630,-0.126160,0.833668,-0.040779,0.631149,0.774589
-0.004955,0.004896,0.799277,0.507212,0.513943,-0.691808
0.366034,0.152019,0.332530,0.780827,-0.581150,0.229290
-0.004555,-0.210672,0.876666,0.762723,-0.613627,-0.204245
0.165023,0.518786,-0.178454,0.978758,-0.190226,0.076460
-0.579860,-0.220357,0.750687,-0.394179,0.318319,-0.862146
0.378446,0.808087,0.367424,-0.445888,-0.006836,-0.895063
0.015467,0.621895,0.626348,-0.611854,-0.699870,0.368533
-0.610190,-0.221895,0.634954,-0.056373,0.984976,0.163229
0.094249,-0.113836,-0.082278,-0.819291,0.561526,0.115977
0.096250,0.072241,0.740808,-0.592020,0.368410,-0.716789
0.003052,0.796091,0.636495,0.716785,-0.365699,0.593703
0.235797,0.681208,0.420501,0.421800,-0.503130,0.754285
0.099555,-0.633454,-0.938015,-0.231665,-0.301925,0.924755
-0.040692,-0.154336,-0.982587,-0.212916,0.195989,0.957212
-0.418389,0.357801,0.591052,0.901872,0.027813,-0.431108
-0.549325,0.587346,0.689539,0.365042,-0.014933,0.930871
0.331097,-0.791470,-0.924687,-0.102407,-0.112073,0.988409
-0.033284,0.448029,0.621124,-0.198044,0.937349,0.286628
0.041593,-0.358238,-0.967182,0.230287,-0.204997,-0.951286
-0.206366,-0.335677,0.647177,0.124053,0.345170,0.930306
-0.432904,0.332266,0.592392,0.724593,-0.252353,-0.641314
0.036287,-0.164128,0.645838,0.367976,0.909531,-0.193252
-0.577758,-0.227181,0.487509,0.121001,0.970867,-0.206824
0.005255,-0.139693,0.717032,0.454569,-0.601069,-0.657330
0.020172,0.527698,0.600395,0.898517,0.426233,0.104841
0.314680,-0.816556,-0.922845,-0.161654,-0.111707,0.980505
-0.065318,-0.155981,0.809290,-0.784263,-0.160194,0.599392
0.246508,-0.437685,-0.944377,0.204036,-0.265130,-0.942377
0.072427,-0.133091,0.246367,-0.672225,0.662121,0.331224
0.777666,0.477742,0.339696,-0.629241,-0.775719,0.048114
-0.511288,-0.409410,0.626850,-0.532120,0.834872,0.140843
0.023175,0.793888,0.620956,-0.323821,-0.414222,-0.850623
0.623604,0.210787,0.294254,0.970768,-0.227957,0.075141
0.033385,-0.401377,0.667571,0.856897,-0.486067,-0.171659
-0.142899,-0.761428,0.743219,-0.091617,0.268478,0.958919
-0.261624,-0.546188,0.752696,0.193941,-0.888563,-0.415743
-0.018571,0.541017,0.568415,0.420565,0.546513,-0.724188
0.033987,-0.025146,0.709263,0.514484,0.557986,-0.651121
0.058613,-0.325556,-0.968488,-0.140425,0.062711,0.988103
-0.678862,0.506797,0.649320,-0.357470,-0.929976,-0.085787
0.220782,-0.203083,0.912966,0.981526,-0.162482,0.101026
0.392062,0.337988,0.361563,0.860851,-0.002787,-0.508849
0.043396,-0.474444,-0.830621,0.999969,0.003272,-0.007183
-0.425899,0.269212,0.486237,-0.274602,-0.026781,-0.961185
0.405476,0.070152,0.618043,-0.056324,0.973381,0.222165
0.077330,-0.128141,0.822416,0.885977,-0.215979,0.410363
-0.045299,-0.403687,-0.575547,0.847570,-0.528218,0.051102
-0.071227,-0.191860,0.546380,0.781765,-0.621692,-0.048404
-0.673858,0.479173,0.590483,0.493064,0.862532,0.113691
0.203965,-0.384431,-0.955562,-0.082747,0.509944,0.856218
-0.097551,-0.261622,0.806343,-0.319905,-0.786693,0.527992
0.228191,-0.626959,-0.930782,0.127616,0.117813,0.984802
-0.081736,-0.251609,0.419798,0.983719,-0.099814,-0.149448
0.063317,-0.742830,-0.936073,-0.061375,0.224778,0.972475
-0.423296,0.018759,0.700121,-0.102700,0.809216,0.578466
-0.498472,-0.385640,0.664825,0.746338,-0.490805,0.449545
-0.420993,-0.200772,0.188567,0.377627,-0.866431,0.326643
-0.514890,-0.184922,0.724433,-0.603592,0.788691,0.116806
-0.330397,-0.428551,0.688266,-0.554260,0.200267,-0.807891
-0.245207,0.529680,0.731063,0.101387,-0.674195,0.731561
-0.097453,-0.116146,0.491863,0.937172,-0.002703,-0.348857
0.045397,-0.217718,0.620588,0.641851,0.541046,-0.543412
0.107461,-0.500081,-0.907474,0.547517,0.835312,0.049784
-0.064218,-0.210451,0.485500,-0.279422,0.824165,0.492620
0.079334,-0.489630,-0.900643,0.496345,0.848735,0.182458
-0.113471,0.700027,0.678722,0.894608,-0.171203,0.412755
0.218378,-0.584593,-0.942201,-0.015090,0.181545,0.983267
0.057210,-0.485446,-0.955428,0.381821,-0.358943,-0.851688
0.665949,0.421620,0.329985,0.031803,-0.815701,0.577599
0.445918,0.877850,0.355368,-0.434615,0.794329,-0.424442
-0.305472,-0.659749,0.694528,0.706418,-0.674971,-0.213046
0.323891,-0.535402,-0.942435,-0.140319,0.236304,0.961494
0.042895,-0.009188,0.704675,0.914614,-0.402090,0.042489
-0.004555,-0.642803,-0.930983,-0.460364,0.851279,-0.251772
0.467242,0.134744,0.121358,0.424350,0.766898,-0.481451
-0.687673,0.448143,0.719644,0.608599,-0.765014,-0.210620
-0.234896,-0.583491,-0.975889,0.242535,-0.247297,-0.938094
-0.000950,-0.225200,-0.267631,0.818552,-0.562357,0.117164
-0.100655,0.405669,0.514634,0.226935,0.942000,-0.247258
0.827019,0.258654,0.283337,-0.572656,-0.690622,0.441709
0.407178,-0.675707,-0.922209,0.000746,0.202467,0.979289
-0.175834,-0.284620,0.764416,0.946321,0.321963,0.028594
0.237398,0.140359,0.861195,-0.592841,0.554732,0.583791
0.656640,0.354718,0.520762,0.219520,0.730740,-0.646397
-0.051403,0.064867,0.628793,0.881031,-0.101587,0.462022
-0.681065,0.561482,0.641317,0.888844,0.444334,0.111909
-0.470346,-0.069931,0.634117,0.828581,0.242031,-0.504851
-0.434306,-0.085889,0.690644,0.272526,0.806769,0.524265
-0.401572,0.233118,0.694863,0.822233,0.543689,-0.168330
-0.862655,0.122641,0.599156,0.634964,0.575077,0.515855
-0.442814,-0.387622,0.111915,0.757269,-0.641350,0.123347
-0.089245,0.430425,0.719543,0.865778,-0.426224,-0.262225
-0.537915,-0.402143,0.547016,-0.473078,-0.531412,-0.702708
-0.369437,-0.523957,0.690543,-0.534854,0.508133,-0.675079
-0.127484,-0.198677,0.311031,0.900751,-0.378856,-0.212406
-0.107061,0.135187,0.366821,0.437265,-0.859935,0.263271
-0.229892,-0.263711,0.595071,0.314970,-0.949059,-0.009016
-0.787176,-0.237524,0.543467,0.166221,-0.834052,0.526049
-0.624105,0.711028,0.676813,-0.215517,0.476388,0.852412
-0.028280,-0.094251,0.747673,-0.603534,0.772018,-0.199337
0.223786,0.068057,0.774161,-0.320635,0.886860,-0.332673
-0.149507,-0.237632,0.523776,0.190042,-0.923712,-0.332626
-0.082838,0.536396,0.733541,0.207348,0.512181,-0.833473
-0.123280,-0.295628,-0.975688,-0.222105,-0.023773,0.974733
-0.207570,-0.569078,0.765019,0.358558,0.885981,0.294065
-0.201062,0.113836,0.671656,-0.218357,0.410864,0.885162
-0.120075,0.754275,0.626113,-0.247576,0.443456,0.861425
0.056208,-0.355706,-0.523642,0.340749,0.924443,0.171159
-0.222282,-0.125394,0.884435,-0.361749,0.145678,-0.920823
-0.092446,-0.324233,-0.114661,-0.096364,-0.764751,0.637079
-0.657340,-0.271858,0.691950,0.270297,0.946388,-0.176885
-0.560739,-0.267345,0.614259,0.083941,-0.885716,0.456576
0.602781,0.311908,0.445818,-0.758519,0.480737,0.439933
0.003153,-0.091826,0.668978,-0.107253,-0.919096,0.379155
-0.389059,0.170616,0.744625,0.425268,0.759831,-0.491735
-0.090946,0.161045,0.724265,0.897901,-0.090910,0.430709
-0.073927,-0.176123,0.236320,0.861758,-0.408630,0.300659
-0.308573,0.128034,0.392840,0.946176,0.198161,0.255898
-0.081235,-0.016892,0.334472,0.267340,-0.963508,-0.013477
0.632213,0.175129,0.199317,-0.703024,0.710566,-0.029210
-0.019970,0.873343,0.661075,0.400958,-0.910218,0.103618
-0.005255,-0.576009,0.954959,0.987444,0.002702,-0.157948
0.599079,-0.727537,-0.910689,0.467260,-0.373546,-0.801331
0.464938,0.386628,0.430045,0.702610,0.568634,0.427779
0.067020,0.564457,0.578528,0.496879,-0.665970,0.556413
-0.167226,-0.386520,-0.978903,-0.168370,0.109222,0.979654
-0.288053,-0.469488,0.407307,-0.755569,0.651066,0.072308
0.717804,0.304097,0.316020,-0.736278,-0.665534,0.122304
-0.068923,-0.587897,-0.957304,-0.218553,0.172021,0.960543
-0.030583,-0.156424,0.837620,-0.794239,0.526596,-0.303117
0.000651,-0.065202,0.598185,-0.417653,0.766568,-0.487790
-0.065120,-0.320492,-0.167169,0.848167,-0.396021,-0.351823
0.144301,0.483357,-0.226609,0.997151,-0.072938,-0.019239
0.831824,0.345477,0.472306,-0.720138,0.080420,-0.689154
-0.182342,-0.005776,0.719409,0.230225,-0.219141,-0.948142
-0.370240,0.146518,0.690945,-0.650055,0.660518,0.375692
-0.098755,-0.519887,-0.962929,0.326080,-0.336070,-0.883589
-0.353322,-0.200772,0.177349,-0.521795,-0.840177,0.147760
0.070023,-0.462120,-0.830621,0.999969,0.003272,-0.007183
-0.016466,-0.676587,-0.935872,-0.639449,-0.389904,0.662631
0.071926,-0.455403,-0.780055,0.657031,0.706320,0.263482
-0.163722,-0.533313,-0.969526,0.223937,-0.219465,-0.949572
-0.403274,-0.427456,-0.993537,-0.041347,0.099034,0.994225
0.944842,0.596917,0.387148,-0.246624,-0.157599,0.956211
-0.537915,-0.085996,0.757685,0.353953,0.919511,0.170933
-0.363232,0.132763,0.696738,0.605625,-0.573171,-0.551991
0.104159,0.061791,0.825966,0.096430,0.756057,0.647363
0.430002,0.404346,0.444512,-0.335752,-0.784211,0.521808
-0.415185,0.301128,0.468388,0.590212,-0.805635,0.051013
0.227589,0.012492,-0.004755,0.784842,-0.463152,-0.411720
-0.241904,-0.241265,0.706450,0.634109,0.763804,-0.120457
0.188748,-0.192955,0.860291,0.529135,0.656240,-0.537926
-0.144301,0.426355,0.739703,-0.467387,0.583135,-0.664457
-0.489164,0.389711,0.722088,0.958087,-0.286452,-0.003820
-0.077330,-0.037471,0.849675,0.909286,-0.168917,0.380350
-0.214776,-0.583384,0.719543,0.935564,0.155568,0.317045
-0.422593,0.256122,0.484931,-0.650249,-0.027477,-0.759224
0.338805,0.100081,0.092392,-0.705683,0.022389,0.708174
0.612792,0.373094,0.512893,0.039130,-0.608849,0.792321
-0.562141,-0.390261,0.683879,0.808762,0.584541,0.064930
-0.632915,0.216838,0.532181,0.573121,0.452315,0.683333
-0.552631,0.176782,0.504487,-0.485760,-0.242658,-0.839734
0.080636,-0.172382,-0.128692,0.840173,-0.471158,0.268551
0.106261,-0.110867,0.781093,0.983233,0.159996,0.087492
-0.139997,0.379475,0.628525,0.837611,-0.496487,-0.227834
-0.605186,-0.184156,0.275434,0.208450,-0.931039,0.299524
-0.249814,0.587010,0.753232,-0.440189,0.517298,-0.733919
-0.252114,-0.137605,0.923515,0.966539,-0.134733,0.218288
-0.744232,-0.173262,0.445483,0.521505,0.850780,-0.064847
-0.647930,-0.200000,0.728987,-0.379895,0.869507,-0.315653
-0.646528,-0.234334,0.592861,-0.137044,0.950467,0.278983
-0.074129,-0.504702,0.773927,0.990946,-0.133137,0.017310
-0.105060,-0.258318,0.812940,-0.373946,-0.806030,0.458781
-0.572952,-0.002807,0.722356,-0.726959,0.349676,-0.590981
-0.647530,-0.495352,0.587637,-0.668010,0.537887,-0.514237
-0.415686,0.655242,0.684047,0.535710,-0.835387,-0.123057
-0.383752,-0.632682,0.746032,0.351721,0.341048,-0.871767
0.182941,-0.329626,0.766794,-0.084354,0.988727,-0.123710
0.701988,0.308389,0.294120,0.624121,0.760634,0.178629
-0.722407,0.222339,0.526656,-0.643205,0.188125,-0.742224
-0.305872,-0.157855,0.672895,-0.583797,-0.650437,0.485914
0.252817,-0.624871,-0.935269,-0.179853,0.346803,0.920533
-0.303370,-0.278460,0.542797,-0.002800,0.998550,0.053764
0.367937,-0.647210,-0.924419,-0.153805,0.181049,0.971373
-0.014865,-0.629270,0.866988,0.137132,-0.949224,0.283141
0.228991,0.708832,-0.140479,0.807776,0.380930,-0.449879
-0.117873,-0.110316,0.389659,-0.041132,0.981866,0.185058
0.348715,-0.933971,-0.926529,-0.061337,0.120977,0.990758
0.211171,-0.442421,0.571630,-0.748710,-0.638933,0.176629
0.593974,0.814581,0.326067,-0.783118,-0.267797,-0.561258
-0.398169,-0.566217,0.710569,0.622001,0.667275,0.409706
0.130187,0.113728,0.705847,0.145969,0.834116,-0.531925
0.229190,-0.122312,0.918224,-0.931732,-0.077266,0.354831
0.144002,0.364067,-0.187228,0.999035,-0.017092,0.040447
-0.143201,-0.160938,0.588474,-0.401377,0.840471,-0.364011
0.036189,-0.379918,-0.518887,-0.392901,0.901018,-0.183834
-0.653738,-0.018759,0.801052,0.891298,-0.437919,0.117534
0.251815,0.517248,0.393376,0.251547,-0.174483,0.951987
-0.299063,-0.388938,-0.988346,-0.211571,0.367588,0.905603
0.266729,-0.279670,0.752461,-0.377035,0.718558,0.584396
-0.167226,-0.089630,0.637198,0.682863,-0.647144,0.338973
-0.030382,-0.267238,0.599993,0.736294,0.272422,-0.619401
0.125083,0.610672,0.402050,0.272986,0.343572,-0.898575
0.195356,-0.488085,-0.942368,-0.142038,0.168011,0.975499
-0.108766,-0.191638,0.228150,0.968118,-0.176839,0.177411
-0.036287,-0.358896,-0.238062,0.747890,-0.663252,-0.027506
-0.652736,0.173591,0.492465,0.539257,0.205529,0.816676
-0.113370,-0.137719,0.800080,0.765863,0.136306,-0.628390
0.368438,-0.551468,-0.929978,0.259113,-0.066500,-0.963555
0.912408,0.189657,0.273525,-0.412345,-0.700070,0.582986
0.273438,-0.568856,-0.937546,-0.150119,0.265317,0.952403
-0.248610,-0.458923,-0.981883,-0.194688,0.082296,0.977407
0.052005,0.295406,0.450037,-0.261360,0.960713,0.093386
0.033485,-0.377057,0.691615,0.829768,-0.525044,-0.189242
0.055609,-0.182175,0.656487,0.618272,0.644754,0.449480
-0.199058,0.149708,0.299913,-0.156471,-0.269254,0.950273
-0.363831,0.571610,0.538109,-0.709002,0.550123,-0.441226
-0.044297,0.008859,0.284944,0.799615,-0.191573,0.569136
0.061014,-0.829982,-0.935269,0.097508,0.053972,-0.993770
0.098553,-0.430976,-0.954323,-0.116114,0.226497,0.967066
-0.441314,-0.096561,0.296263,-0.133378,0.945676,-0.296492
-0.073026,0.486326,0.588306,0.878492,0.113127,0.464170
0.104058,-0.469931,0.620086,-0.177896,-0.921493,0.345258
-0.124982,-0.204621,0.750955,0.617896,-0.786192,0.010327
-0.186145,-0.163685,0.864209,-0.745409,0.325669,-0.581640
0.102659,0.570180,0.391534,0.476403,0.106317,-0.872775
-0.230393,0.336342,0.343145,-0.474303,-0.260204,0.841029
-0.080636,0.145087,0.316054,0.999382,-0.030557,0.017366
0.273438,0.870260,-0.155281,-0.706735,0.686999,0.168993
0.096552,0.104265,0.759125,0.802745,0.584645,0.117439
-0.855848,0.100524,0.591588,0.902427,0.049700,-0.427966
0.064218,-0.412049,-0.704876,0.493720,0.862464,-0.111339
-0.635818,-0.148062,0.319235,0.299009,-0.841974,0.449081
-0.022472,-0.529680,-0.956165,0.329107,-0.327177,-0.885801
-0.110467,-0.351528,-0.151798,-0.084467,0.820740,0.565023
-0.516692,-0.232131,0.182841,0.521847,-0.750585,0.405337
0.162820,-0.033179,-0.060177,0.906113,-0.418095,0.064468
-0.198860,-0.463328,-0.979841,-0.202324,0.096006,0.974601
-0.443214,0.544315,0.591153,0.860890,-0.484029,-0.156794
-0.414085,-0.081597,0.694796,-0.375723,-0.809398,-0.451339
0.072226,-0.178648,-0.141652,0.850413,-0.500196,0.163102
0.322488,0.093371,0.087770,-0.796219,0.390694,0.461946
0.027980,-0.542226,-0.913268,0.996544,0.043485,0.070770
-0.594673,0.405225,0.533019,0.237560,-0.761565,0.602979
0.622602,-0.659534,-0.911861,-0.275365,0.049772,0.960050
0.545223,0.288804,0.413301,-0.481157,0.830073,0.281897
-0.685171,0.472899,0.687295,0.822343,-0.537049,0.187964
-0.051103,0.361757,0.537104,-0.558836,0.804791,-0.200036
-0.051904,-0.146303,0.847900,-0.160607,0.702275,0.693552
0.436206,0.122641,0.620186,-0.212984,0.971940,-0.099849
-0.060714,-0.332050,-0.239100,-0.867284,0.243717,-0.434075
-0.296362,-0.406656,0.777242,-0.047566,0.647014,0.760993
-0.210472,0.270428,0.760800,0.521485,0.111541,-0.845938
0.365734,0.147512,0.361664,-0.545285,0.570370,0.614282
0.419089,0.198569,0.442134,-0.559225,-0.827526,0.049689
-0.450925,0.314554,0.701159,0.360902,0.878524,0.312963
-0.120876,-0.281651,-0.168877,0.290061,-0.943045,0.162884
-0.586865,-0.229599,0.701895,0.329463,-0.731805,0.596587
0.750037,0.449352,0.271348,-0.173914,-0.830307,0.529476
-0.024177,0.212432,0.943005,-0.202789,-0.978459,0.038673
-0.729016,-0.494687,0.598085,0.656359,0.717104,0.234426
-0.029080,-0.384317,0.870170,0.003739,-0.937753,0.347283
0.144503,-0.829431,-0.934465,-0.134164,-0.140799,0.980905
-0.094851,-0.228283,0.843748,-0.671992,0.719675,0.174630
0.690276,0.262503,0.243654,0.924836,-0.013280,-0.380135
0.295559,-0.618154,-0.934063,-0.195077,0.529108,0.825827
-0.403674,-0.047700,0.721586,0.115526,0.025451,0.992978
0.098052,-0.431748,-0.953888,-0.116114,0.226497,0.967066
-0.632314,0.499093,0.643359,-0.303196,-0.950299,-0.070743
-0.070524,-0.002586,0.652669,0.997458,-0.024956,-0.066748
0.591371,-0.714883,-0.913603,0.355280,-0.325897,-0.876109
-0.367234,-0.518457,-0.985500,-0.185261,-0.092151,0.978359
0.295760,-0.869380,-0.928504,-0.339238,-0.092108,0.936180
-0.009660,-0.284512,0.524011,0.098431,0.433261,0.895877
-0.099656,-0.273726,0.595004,-0.575462,-0.614724,0.539405
-0.461135,0.237303,0.487643,-0.272459,0.928496,0.252312
0.062816,-0.099973,0.833501,0.967588,-0.186263,0.170527
0.185446,0.066519,0.835309,0.922331,-0.369739,-0.112242
-0.319287,0.176782,0.407776,0.354977,-0.464477,0.811328
0.031182,-0.198462,0.980979,0.923070,0.182306,-0.338682
0.327092,-0.631688,-0.928538,-0.113268,0.515473,0.849387
-0.484459,-0.482363,0.715759,-0.603755,-0.736836,-0.304225
0.156613,-0.289025,0.735852,-0.504357,0.842033,-0.191322
-0.480555,-0.112183,0.268904,-0.122337,-0.896832,0.425119
-0.079735,-0.183820,0.799712,0.363173,-0.912955,0.186059
0.523798,0.195265,0.354966,-0.271497,0.936782,-0.220746
0.161220,-0.791692,-0.933092,-0.096214,-0.075934,0.992460
0.137794,-0.274605,0.542897,-0.483580,-0.538473,0.690071
-0.557534,0.479831,0.595238,-0.180440,0.641067,-0.745973
-0.390660,0.114279,0.701192,0.253311,-0.960988,-0.111065
0.249410,-0.183384,0.797971,0.870721,-0.471616,0.139369
-0.431202,-0.506575,0.715257,0.544921,0.627097,0.556606
-0.461135,0.220686,0.480243,0.251407,-0.934842,-0.250728
0.212974,0.342172,0.424620,-0.128444,-0.932300,-0.338112
-0.299365,0.096783,0.710971,-0.108251,-0.869054,0.482729
-0.120475,-0.162697,0.383732,-0.162505,0.891088,0.423738
-0.823014,0.578427,0.691381,0.213572,0.935569,0.281243
-0.245809,0.006878,0.960217,0.165838,-0.831715,0.529857
-0.884678,0.164235,0.593631,0.075867,0.740751,0.667482
-0.177338,-0.284948,-0.984328,-0.304155,0.141110,0.942113
0.799689,0.295514,0.465039,0.255943,-0.011232,0.966627
-0.295962,0.110317,0.694662,0.463070,0.857990,0.222306
-0.160319,0.006878,0.663050,-0.346576,-0.716495,0.605409
0.245506,-0.437685,-0.933929,-0.210521,0.431183,0.877361
0.027678,0.153563,0.709899,0.266593,0.862985,-0.429168
0.462736,0.278676,0.412129,-0.550615,0.773268,0.314452
-0.197757,0.074995,0.342810,-0.380573,-0.922695,0.061623
0.811503,0.288361,0.454223,-0.258335,0.537891,0.802456
-0.087042,0.420082,0.645335,0.485347,-0.829672,-0.275832
0.700586,0.580408,0.329851,0.448232,0.864122,0.228868
-0.591270,-0.031856,0.739401,0.945050,0.326925,-0.000220
0.540216,0.127040,0.285480,0.082150,-0.548004,0.832432
-0.118175,-0.152569,0.428705,-0.074953,-0.979680,-0.186036
0.522399,0.166768,0.475052,0.071474,0.989349,-0.126803
-0.195057,-0.488528,-0.975923,-0.275518,0.150054,0.949512
-0.447118,-0.105803,0.282198,0.017095,-0.949586,0.313040
-0.003455,0.793009,0.617876,-0.340571,0.930711,-0.133376
0.400271,-0.612983,-0.923079,-0.122270,0.150549,0.981012
0.728013,0.391141,0.314145,-0.057304,-0.742137,0.667794
0.653237,0.321707,0.195868,0.690214,0.276767,-0.668585
0.230390,-0.425583,-0.948999,-0.055107,0.301252,0.951951
0.442915,0.252381,0.160673,0.845746,0.494903,-0.199462
0.122577,0.112405,0.429342,0.636797,0.150346,-0.756231
-0.060613,-0.237854,0.184382,-0.651365,-0.757816,0.037921
-0.148007,-0.059258,0.767096,0.917374,0.248816,-0.310670
0.100056,-0.380684,0.523006,-0.244564,-0.089943,0.965453
0.205667,-0.226852,0.742750,0.331823,-0.931727,0.147574
-0.123179,-0.575237,0.855268,-0.536289,-0.777422,-0.328647
-0.446217,0.449023,0.351952,0.830587,0.495316,0.254534
-0.129085,-0.167755,0.432356,0.116521,0.948361,0.295017
-0.090344,0.450346,0.568147,0.920411,-0.333271,0.204385
0.500975,-0.640271,-0.921673,0.018383,-0.082011,0.996462
-0.082136,-0.210672,-0.017480,0.167306,0.943141,-0.287219
0.008658,0.835375,0.637600,-0.508622,0.666878,-0.544590
-0.172731,-0.204843,0.881287,0.454211,0.830478,-0.322488
-0.008358,-0.701565,-0.940660,-0.150703,0.026662,0.988220
0.289055,0.829324,-0.090751,0.714124,0.647868,0.265133
0.767056,0.328639,0.502880,-0.666614,0.673528,-0.319353
-0.115172,-0.169736,0.304032,0.820618,-0.541313,-0.183209
0.353820,-0.845611,-0.925424,-0.212607,0.230235,0.949626
0.404474,0.104043,0.371074,-0.543150,0.814579,0.203588
-0.035688,0.798623,0.643359,-0.419492,0.568029,-0.708074
0.034484,-0.062999,0.899337,0.361493,0.918751,-0.158807
-0.775665,-0.447041,0.615599,-0.591066,-0.801295,-0.092557
-0.050603,0.827450,0.671221,0.110832,-0.599869,0.792384
-0.126784,-0.369353,0.427969,0.920430,-0.305967,0.243294
0.441213,-0.254799,0.872145,-0.505437,-0.815549,-0.281803
0.409078,0.172712,0.348068,-0.666905,0.557708,0.494166
-0.350618,0.561482,0.601567,0.987840,-0.155268,0.008043
0.527403,0.686272,0.294019,0.176532,0.365796,-0.913800
0.306972,-0.021291,0.458442,0.656339,-0.157720,-0.737797
0.312780,-0.720821,-0.920702,-0.427714,-0.050937,0.902478
-0.049402,0.289684,0.760666,0.033820,0.194052,0.980408
-0.420091,-0.286493,0.588574,0.721450,0.240158,0.649488
-0.249313,-0.054194,0.705445,-0.666085,0.408327,0.624179
-0.073527,-0.231694,0.439589,0.728451,-0.589709,0.348715
0.659842,0.162919,0.486572,0.025392,0.811235,0.584169
0.006556,-0.382557,-0.644933,0.339708,0.939233,0.049405
-0.551528,0.576452,0.532014,0.374597,-0.104483,0.921282
-0.099155,0.245006,0.747472,0.520584,-0.507350,0.686723
-0.590971,-0.111196,0.305807,-0.409711,0.830860,-0.376575
-0.391763,-0.132212,0.689974,-0.061346,0.994132,0.089094
0.627407,0.129465,0.261737,0.927105,-0.078589,0.366470
-0.448222,-0.606602,0.735483,0.670667,0.725269,0.155534
0.017768,0.177769,0.752428,-0.515092,-0.173410,0.839410
-0.127884,0.221566,0.722725,0.408502,0.550739,0.727883
0.070124,-0.494029,-0.880986,0.940677,0.281119,0.189997
0.125883,-0.365283,-0.957404,-0.073025,0.272833,0.959286
0.131587,-0.210672,0.953084,-0.498849,-0.633235,-0.591746
-0.449523,-0.593834,0.735751,0.717989,0.673997,0.173836
0.169529,0.532433,-0.171757,0.952573,-0.265272,0.149116
0.673256,0.056834,0.266091,0.743403,-0.652940,-0.144985
-0.093748,-0.203741,0.147612,-0.025193,-0.997314,0.068771
-0.547725,-0.609571,0.779921,-0.103092,0.945367,0.309279
0.135992,-0.137934,0.590818,-0.225358,0.193652,0.954836
-0.072427,-0.244234,0.828980,0.909736,0.300214,0.286797
-0.670556,-0.196145,0.311399,-0.170812,-0.985138,-0.018043
0.819910,0.497220,0.310261,0.391015,0.778584,-0.490831
-0.664247,0.507126,0.643962,0.516755,0.756547,0.400750
0.014966,0.104043,0.859186,0.346518,0.614038,0.709142
-0.316782,0.154221,0.726609,-0.383814,-0.825990,0.412829
0.187047,0.649849,0.178756,-0.310950,-0.901273,0.301691
0.070124,0.921761,0.686123,-0.020871,-0.703403,0.710485
-0.020673,-0.297058,-0.318733,0.907907,-0.391174,0.150624
0.961459,0.378816,0.306209,0.968373,0.199962,-0.149227
0.482055,0.129686,0.382024,-0.777530,0.600299,0.187318
-0.034185,0.495567,0.593430,-0.462796,0.881067,-0.097674
0.331797,0.363523,-0.036133,0.930591,-0.346896,-0.116888
-0.435107,0.063879,0.726241,-0.706674,-0.102071,0.700138
-0.330596,-0.571496,0.729891,-0.443829,0.851199,0.280137
-0.238501,0.160716,0.591722,0.953739,-0.293602,0.064651
0.049301,-0.438565,-0.825162,0.992124,0.121763,0.029390
-0.588166,0.422171,0.595540,-0.720316,0.687659,0.090943
-0.722609,-0.144650,0.336079,0.531961,0.840093,0.106120
0.138897,0.508993,0.614728,-0.200973,0.857619,0.473391
-0.603383,-0.035596,0.732938,0.989453,0.119867,0.081326
0.038691,-0.312130,-0.556795,0.846827,0.510206,-0.150248
0.393962,0.932762,0.378508,-0.181136,-0.836007,0.517960
-0.236497,-0.102613,0.940560,0.155463,-0.875671,0.457199
-0.121578,0.269763,0.786585,0.737960,-0.015339,-0.674670
-0.027079,-0.220908,0.101232,0.971592,-0.073275,0.225034
0.260124,0.470260,0.173632,0.695909,0.701050,-0.155691
0.216176,-0.002142,0.720916,-0.087141,0.991513,-0.096484
0.229492,0.510753,0.166064,0.468899,0.161504,0.868361
0.434505,0.297387,0.550399,0.348025,-0.898113,0.268835
-0.078934,0.487864,0.707052,0.465901,-0.883684,0.045161
-0.186347,-0.278460,0.608432,0.314081,-0.922829,-0.223022
-0.146104,-0.296178,-0.978568,0.201484,-0.024034,-0.979197
-0.092446,0.353173,0.762206,-0.690109,-0.136445,-0.710726
0.087442,0.473229,0.642054,-0.058226,-0.953764,-0.294862
-0.444717,0.318625,0.535698,-0.333009,0.929866,-0.156378
-0.299365,-0.560051,0.666031,-0.149674,-0.978081,-0.144760
-0.097453,-0.276365,0.372447,0.999387,-0.025639,0.023829
0.022072,0.510975,0.595640,-0.599250,0.112557,0.792610
-0.083138,0.440439,0.717099,0.815083,-0.573921,-0.079091
-0.366235,-0.260521,0.048423,-0.387321,-0.821891,-0.417704
-0.095049,-0.196145,0.235584,0.989953,-0.141392,0.000831
-0.848742,0.184814,0.573337,-0.748478,0.256248,-0.611651
-0.007259,-0.202968,-0.974784,-0.226096,0.193271,0.954739
-0.027779,-0.157197,0.611245,0.843063,-0.003281,-0.537805
0.400570,-0.584922,-0.925122,-0.063436,0.158044,0.985392
0.110367,-0.090617,0.799243,0.117891,-0.986014,0.117802
-0.009260,-0.669541,-0.944947,-0.101527,0.401218,0.910338
0.053706,-0.834939,-0.930480,-0.176445,-0.117669,0.977252
-0.515192,0.460575,0.593631,-0.320209,0.946640,-0.036583
-0.424194,-0.237961,0.563626,0.902032,0.392519,-0.179631
-0.411782,0.614084,0.550633,0.406097,0.684468,0.605465
0.277540,0.560716,0.401916,0.510487,-0.147018,0.847224
-0.058713,-0.585036,0.945784,0.927724,0.123962,-0.352082
-0.253015,-0.223877,0.917521,0.658478,-0.746038,0.099163
-0.040793,-0.221788,-0.013797,-0.106490,-0.993411,0.042361
-0.452926,0.434939,0.561416,0.789619,0.590944,0.165188
-0.025976,0.430976,0.686156,0.093307,-0.944685,0.314428
0.096351,-0.700027,-0.936575,-0.039965,-0.040902,0.998364
0.063717,-0.000826,0.814279,-0.059130,-0.957743,0.281482
-0.041593,-0.308832,0.791340,0.848393,-0.144297,0.509321
0.436108,0.888307,0.339562,0.727522,-0.116471,0.676126
-0.535212,0.278346,0.623234,-0.285475,-0.958121,0.022534
-0.038489,0.294855,0.555355,0.582325,-0.750107,-0.313428
-0.068722,-0.384868,0.848738,-0.346025,0.891126,0.293533
-0.531109,-0.238075,0.618411,0.372471,0.861068,-0.346161
0.120277,-0.775183,-0.935168,0.013764,-0.104200,0.994461
-0.388359,-0.539808,0.510247,-0.382186,-0.923421,0.035049
-0.007659,0.098099,0.878943,0.979252,-0.110502,-0.169867
0.321887,0.949600,-0.093229,-0.708701,0.188341,0.679905
0.008160,-0.391799,-0.686391,0.257930,0.960756,-0.102077
0.169929,0.625637,0.190443,-0.310950,-0.901273,0.301691
-0.550828,0.538263,0.641886,-0.412285,0.750735,-0.516158
0.344713,0.343381,0.424888,0.814186,0.371795,-0.445948
-0.089746,-0.206381,0.138470,0.966000,-0.232200,-0.113700
-0.051204,-0.259970,0.531344,-0.121446,-0.939427,-0.320512
0.477152,0.268225,0.372112,-0.480308,-0.653496,0.585020
-0.147906,-0.230593,0.863204,0.873858,-0.394973,-0.283494
0.209870,-0.617496,-0.935704,0.265617,0.296092,0.917484
0.348917,-0.852985,-0.922309,-0.301084,0.022937,0.953322
0.256519,0.147841,0.857712,-0.388786,0.848421,0.359204
0.376745,-0.545530,-0.928940,0.247131,-0.060808,-0.967072
0.291355,-0.052985,0.459246,0.656339,-0.157720,-0.737797
0.160719,0.849023,-0.119617,-0.524152,-0.488711,0.697443
-0.010662,-0.500960,-0.958308,-0.384902,0.239344,0.891384
-0.076029,0.337551,0.473579,-0.698121,-0.682768,0.215535
-0.245607,-0.328746,0.944579,-0.636837,-0.378015,-0.671969
0.271736,0.437686,0.162548,0.634065,0.719937,-0.282228
-0.102057,0.648526,0.740942,-0.539966,-0.540664,0.645073
0.221482,0.045389,0.607461,-0.333074,0.485435,0.808341
-0.486060,0.308167,0.615464,-0.510557,0.852020,-0.115729
0.647931,0.231473,0.223160,-0.741545,0.171709,0.648557
0.457029,-0.610672,-0.921707,-0.320654,0.069831,0.944619
-0.212173,0.174800,0.718237,-0.763068,0.642070,-0.073977
-0.095850,-0.495903,0.888320,0.922319,0.113688,0.369326
0.084537,-0.203963,-0.162447,0.904063,-0.004005,-0.427380
-0.287653,0.180415,0.411962,0.070849,-0.707724,0.702928
-0.011563,0.578098,0.590014,-0.487100,-0.857965,0.163188
-0.083538,-0.274498,0.126549,0.971555,-0.231134,0.051546
-0.170229,-0.438787,0.205713,0.928168,-0.358791,0.098857
0.833526,0.275378,0.313375,0.887738,0.334827,-0.315930
-0.117375,-0.449352,0.887583,-0.262732,0.374598,0.889184
-0.078033,-0.317745,-0.361362,0.996123,-0.048891,-0.073137
-0.102158,-0.352515,0.195131,0.925162,-0.350332,0.146091
0.037689,-0.200772,0.984931,0.923070,0.182306,-0.338682
0.732019,0.123077,0.529871,-0.624592,-0.452413,0.636559
0.571749,0.370670,0.361396,0.392048,0.668457,0.632031
-0.231294,0.361757,0.616570,0.403085,0.556326,-0.726653
0.605186,-0.094251,0.330186,0.975716,-0.127265,0.178276
0.017768,0.793009,0.623334,0.088594,-0.781179,0.617989
0.301568,-0.524622,-0.938149,-0.038199,0.161769,0.986089
-0.333502,-0.382779,0.510415,0.192452,-0.088016,0.977351
-0.177035,-0.304755,0.655080,0.854850,0.229621,0.465302
0.374844,0.265807,0.342542,-0.519844,0.423160,-0.742091
0.039791,0.222446,0.439287,0.285503,0.415972,0.863397
0.289253,0.219914,0.558101,0.994626,-0.038018,-0.096298
0.729917,0.287595,0.292747,0.387939,0.677091,0.625341
0.026979,0.424045,0.665394,-0.245214,-0.954713,0.168501
0.431303,-0.798731,-0.920133,-0.271559,0.016096,0.962287
-0.597178,-0.417221,0.558469,0.190764,0.082312,0.978179
-0.116971,0.663382,0.758489,-0.521832,-0.551831,0.650518
-0.456329,-0.020082,0.721820,0.941585,-0.309818,-0.132026
0.145001,-0.045503,-0.045945,0.901169,-0.378949,-0.210456
0.015767,-0.501404,-0.954524,0.273983,-0.234158,-0.932793
-0.571752,-0.328088,0.741745,0.639114,-0.078150,0.765131
-0.156515,-0.666022,-0.957170,0.166036,-0.202704,-0.965061
0.142798,-0.225972,0.763010,0.835069,0.444981,0.323500
0.550227,0.181510,0.477095,0.255440,0.965371,-0.053009
0.570649,0.386299,0.262407,0.050654,-0.751494,0.657792
0.441213,-0.684512,-0.920267,-0.031948,0.105367,0.993920
-0.040093,-0.103607,0.616201,0.572642,0.805824,-0.150762
0.140296,-0.223769,0.810729,0.833621,0.512631,-0.205633
0.296961,-0.877520,-0.923146,0.343993,-0.118112,-0.931514
0.216878,-0.233783,0.736890,-0.241751,0.967014,0.080257
0.011261,0.765612,0.611948,-0.080455,-0.640931,0.763371
-0.083239,-0.085996,0.605820,-0.061877,-0.860875,0.505041
0.626708,0.900853,0.312739,-0.509961,0.643090,-0.571293
-0.036788,-0.175022,0.698748,0.421872,-0.906455,0.019039
-0.101055,0.159507,0.446487,0.877216,-0.446277,0.177001
0.314280,-0.615407,-0.931284,0.223600,-0.439100,-0.870169
0.077633,-0.366049,-0.519155,-0.656513,-0.748500,0.093478
0.029080,0.492491,0.741712,-0.332397,0.826868,0.453654
-0.172331,-0.167869,0.573136,0.979441,-0.111115,-0.168371
0.079735,-0.425583,-0.744290,0.940703,-0.128352,-0.314012
0.724109,0.197575,0.448195,-0.761722,0.642556,-0.083080
0.017869,0.030096,0.875862,0.853478,0.323159,0.408833
-0.062917,-0.192296,-0.086062,0.996274,0.016223,0.084701
0.153112,0.373752,0.567042,-0.189475,-0.958201,0.214357
0.344612,-0.834495,-0.922778,0.101630,-0.074428,-0.992034
0.648031,0.874988,0.310595,-0.295828,0.331675,-0.895811
0.054308,-0.338982,0.698748,0.836047,-0.531330,-0.136800
-0.692377,-0.413372,0.761938,-0.450664,0.458922,-0.765697
-0.278243,0.084673,0.408345,0.970316,0.051291,0.236337
0.556034,0.178649,0.207588,-0.451773,0.848084,-0.276865
-0.022173,0.780355,0.616570,0.137866,-0.707115,0.693528
-0.318184,-0.512627,-0.985567,-0.038514,0.265546,0.963329
-0.350117,0.039230,0.692285,-0.632707,-0.252697,-0.732001
-0.253318,0.419974,0.625913,-0.509448,-0.353908,0.784354
0.093849,-0.819531,-0.938350,-0.056363,0.009203,0.998368
0.001152,-0.175351,0.970665,0.917036,0.126556,-0.378191
0.035688,-0.396534,-0.754337,0.942076,-0.310066,-0.127878
0.147304,-0.517577,0.564765,-0.107604,-0.871795,0.477906
0.539415,0.224978,0.389291,0.750749,-0.660414,-0.015142
-0.691476,0.496783,0.609169,-0.546801,-0.819097,0.173459
0.854947,0.057163,0.401514,-0.018022,-0.991297,0.130403
-0.046298,-0.306737,-0.379814,0.255301,-0.895404,0.364790
-0.039592,0.665364,0.619583,0.224907,-0.955315,0.191806
0.615395,0.714219,0.289231,-0.061649,-0.372383,0.926029
0.540619,0.205172,0.258523,0.514488,0.856524,0.040866
-0.081837,0.392572,0.536937,0.435316,0.868615,-0.236661
0.101456,-0.832628,-0.937948,0.104397,0.090376,-0.990421
-0.604183,-0.051662,0.768536,0.896347,-0.185634,0.402618
-0.433906,0.487756,0.521466,0.785657,-0.422689,0.451749
-0.101556,-0.171167,0.791608,0.798298,-0.591107,0.115380
-0.076231,-0.120001,0.253901,0.911898,-0.161349,0.377371
0.123879,-0.880711,-0.931418,-0.107930,0.003035,0.994154
0.268232,-0.483135,-0.933896,-0.092723,-0.219044,-0.971299
-0.212574,-0.261179,0.525451,-0.293180,0.948841,-0.117246
0.221182,0.008415,-0.026890,0.796680,-0.513543,-0.318709
0.739928,0.336228,0.273692,0.830630,-0.164316,-0.532027
-0.458532,-0.572819,0.740406,0.708305,0.679209,0.192302
0.210371,-0.719390,-0.934097,-0.127694,0.180455,0.975259
-0.076331,0.147182,0.366888,0.970372,-0.183996,-0.156601
-0.318685,-0.122419,0.647077,0.085861,0.595445,0.798795
-0.054507,-0.116919,0.723093,-0.242825,0.910486,0.334741
0.035187,-0.039338,0.920501,0.781938,0.551611,0.290341
-0.004255,-0.588004,-0.887014,0.294530,-0.858271,0.420266
0.257619,0.021734,0.054785,-0.348660,-0.866476,0.357289
-0.114372,-0.287702,0.401916,0.987280,0.065027,0.145086
-0.938837,0.144872,0.597616,-0.000478,0.861591,0.507603
0.038489,-0.564343,-0.947726,-0.629194,0.137697,0.764954
-0.119575,0.422063,0.621593,0.459596,-0.882856,-0.096624
0.616898,0.665915,0.305505,-0.751628,-0.197460,0.629337
-0.075030,-0.755269,-0.950003,-0.322791,0.254414,0.911636
0.771559,0.481926,0.335142,-0.260036,-0.957883,0.121822
-0.009660,0.961152,0.691782,0.040965,-0.700592,0.712386
-0.141699,-0.134085,0.869165,0.007010,-0.868723,0.495249
0.420091,0.071583,0.578026,-0.394534,0.890746,-0.225643
0.613095,0.330291,0.509812,-0.001041,-0.570374,0.821385
-0.301766,-0.259749,0.951577,-0.707580,-0.407543,-0.577269
-0.055108,-0.367150,-0.328277,0.950322,-0.308550,-0.041052
0.179137,0.108335,0.455964,-0.595652,-0.563470,0.572451
-0.143000,0.296286,0.579566,-0.278200,-0.845176,0.456379
0.275640,0.755155,0.415444,-0.624105,0.328134,-0.709099
0.220581,-0.285614,0.724231,-0.578173,0.807308,-0.118192
0.447620,0.204292,0.341471,-0.405412,-0.468684,0.784842
-0.659543,-0.186467,0.750955,0.999991,0.003201,0.002868
0.277440,0.254470,0.589344,0.905000,-0.027112,0.424546
-0.345113,-0.263275,0.672360,-0.507693,0.237271,0.828221
0.458031,-0.796863,-0.918090,-0.118656,0.020102,-0.992732
0.370638,-0.796420,-0.922879,-0.192289,-0.097808,0.976452
-0.304769,-0.307401,0.937513,-0.544049,-0.576250,-0.609874
-0.667250,-0.473229,0.732469,0.651157,0.330257,0.683319
0.442215,0.173041,0.360492,0.779659,-0.465634,-0.418709
0.078232,-0.126053,0.771147,0.841754,-0.010975,0.539750
-0.710997,0.506905,0.655114,-0.128077,0.976685,0.172284
-0.168026,0.288690,0.391534,-0.164564,0.794094,0.585093
-0.447320,0.370233,0.525183,0.974508,-0.222890,0.025595
0.132289,-0.533535,0.553747,0.838391,0.084326,0.538507
0.272136,0.028336,0.016777,0.953072,-0.294217,0.071353
-0.134192,-0.327094,-0.171087,-0.364881,0.911721,0.188750
0.020771,-0.002364,0.620890,-0.553544,0.611103,-0.565811
-0.639022,-0.173148,0.297669,0.511675,-0.844498,0.158153
0.257720,0.030539,0.802157,-0.120128,0.189409,0.974522
0.307672,0.403466,0.595104,-0.418367,-0.700027,0.578732
-0.158718,-0.231473,0.554384,0.334721,0.804150,-0.491228
0.270835,0.035046,0.603007,0.052736,-0.939031,0.339763
0.067622,-0.394224,0.566205,-0.452942,-0.739916,-0.497361
0.379549,-0.898979,-0.919563,-0.257239,0.011353,0.966281
0.295158,0.331278,0.420267,-0.126182,-0.394630,0.910135
-0.064618,-0.504372,-0.963164,-0.274166,0.312882,0.909361
-0.507582,-0.539143,0.746501,0.384724,0.690145,0.612934
-0.228490,-0.556975,0.754939,-0.056881,0.899140,0.433949
-0.283748,0.622446,0.512692,-0.282356,0.349845,-0.893243
0.476651,0.300685,0.236421,0.776382,0.305458,-0.551295
-0.106062,-0.233891,0.534492,-0.240033,0.937334,0.252565
-0.168228,-0.263275,0.534291,0.093153,-0.983694,-0.153848
0.215977,-0.165558,0.864041,0.213488,-0.976859,-0.012991
0.201362,0.085009,0.849106,-0.630294,0.703534,0.328283
-0.655638,-0.179643,0.309524,-0.078899,0.994685,0.066159
-0.232596,0.084787,0.695834,0.641659,0.610424,0.464388
-0.144103,0.354275,0.578226,-0.406628,0.343603,-0.846517
-0.282047,0.091941,0.719610,-0.308877,-0.436084,0.845237
-0.275338,-0.285392,0.922108,-0.055284,0.931392,0.359796
-0.089245,0.183276,0.737091,0.975014,0.167407,-0.146023
-0.059712,-0.112956,0.786384,-0.038363,0.982764,0.180838
0.021971,-0.105037,0.426261,-0.099543,0.361099,0.927199
0.494669,-0.752844,-0.921472,0.008105,0.005003,0.999955
0.080232,0.430318,0.384134,-0.272113,0.505876,0.818562
0.089743,-0.154550,0.731733,0.616656,-0.063236,-0.784689
-0.020972,0.368144,0.505860,0.573254,0.612664,-0.544080
-0.059712,-0.125831,0.568750,-0.711533,0.544588,0.444009
0.251213,0.177003,-0.052274,0.939977,-0.317216,-0.125763
0.490365,-0.599671,-0.924452,-0.268291,0.077363,0.960226
0.146403,-0.749876,-0.936809,0.152959,-0.132521,-0.979307
-0.168628,-0.393895,0.198614,0.928168,-0.358791,0.098857
-0.094148,-0.165888,0.850278,-0.563439,-0.541587,-0.623875
-0.371740,0.139915,0.622363,0.622623,0.739788,-0.255056
-0.011163,-0.239177,0.522571,0.512519,0.577816,-0.635179
-0.029379,-0.079837,0.220481,-0.133158,-0.908342,0.396464
0.231291,0.157962,0.845322,-0.481326,0.736059,0.475965
0.229391,0.736006,0.408847,0.234496,-0.667814,0.706425
0.044196,-0.250400,-0.967718,0.177725,-0.061990,-0.982126
-0.031884,-0.374962,-0.479807,-0.440654,0.878576,-0.184195
0.375645,0.125939,0.092626,-0.538440,0.842601,0.010280
0.132088,-0.642582,-0.925390,-0.103318,0.040633,-0.993818
0.633215,0.392243,0.330855,0.094753,-0.842694,0.529989
-0.059914,-0.371113,-0.246199,-0.551721,0.827906,0.100875
-0.096152,-0.267896,0.280155,0.981255,-0.120042,0.150759
-0.264429,0.086769,0.697040,0.346097,0.899743,0.265857
0.458831,-0.625636,-0.920735,-0.155724,0.082656,0.984336
0.577056,-0.702995,-0.919262,-0.239206,0.042045,0.970058
0.230592,-0.005668,0.813208,0.073265,0.932874,0.352674
0.261325,-0.150151,0.736120,0.996587,-0.061012,0.055597
-0.033687,0.022506,0.835878,0.309238,0.108082,-0.944823
0.125281,-0.448579,-0.951711,-0.090911,0.264766,0.960018
-0.082838,0.459917,0.628625,-0.306277,0.940040,0.150065
0.169028,0.007099,0.686759,0.157831,-0.903180,0.399194
-0.113471,-0.257331,0.603845,-0.885311,0.415862,0.208044
-0.260625,-0.029545,0.691581,0.541113,-0.272598,-0.795542
-0.320487,0.378044,0.752294,-0.731687,0.307022,-0.608582
0.013964,-0.408087,0.696571,0.907032,-0.390471,-0.157559
0.055707,0.122419,-0.193490,-0.591891,0.306570,-0.745439
