0.391345,0.082583,0.706335,-0.189895,0.075809,0.978873
0.723861,0.270454,0.814025,0.817884,-0.145882,0.556583
0.223632,-0.188377,-0.389226,0.397574,0.882273,-0.252051
0.100520,0.026558,0.431120,-0.443948,-0.719522,0.534040
0.414800,-0.260421,-0.954929,0.161175,0.566377,0.808233
0.278259,0.303159,0.197836,0.938542,0.295784,-0.177908
0.405637,0.250322,0.820413,0.548847,0.796538,0.253562
0.230073,0.144211,0.810616,-0.736297,0.505107,-0.450259
0.472704,0.123860,0.293842,0.864401,-0.462739,0.196684
0.525813,-0.445987,-0.947685,0.638670,0.591991,-0.491577
0.699989,0.305799,0.861313,-0.066899,0.760963,0.645337
0.295948,-0.383775,-0.140081,-0.658415,-0.734391,-0.164798
0.192023,-0.364961,-0.362487,0.933173,0.357514,-0.037042
-0.188918,-0.344999,-0.974419,-0.544416,0.806178,-0.231707
0.214364,0.216598,0.704890,0.547940,0.635124,0.544407
0.236262,-0.382731,-0.439754,-0.587603,0.473447,0.656179
0.250203,0.421454,0.780490,0.627969,-0.647802,0.431287
-0.126309,-0.198522,0.702081,0.465839,0.021842,0.884600
0.157318,0.121765,0.441760,-0.176334,0.730584,-0.659661
0.214823,-0.064721,0.246591,0.939025,-0.337414,0.066204
0.324655,-0.510212,-0.964932,-0.593410,0.169968,-0.786750
0.090825,0.000631,0.145235,-0.579799,-0.057556,-0.812724
0.419345,-0.157948,-0.963590,-0.193336,-0.353180,-0.915361
0.538862,0.279966,0.976096,0.923692,0.369124,0.102668
0.141719,0.516036,0.886364,0.824397,0.187381,-0.534095
0.298854,0.682983,0.662037,0.917430,-0.155791,0.366130
0.540923,0.243581,0.786427,-0.068954,0.358817,0.930858
-0.461984,0.596458,0.802300,-0.504532,0.498438,-0.704987
0.474051,0.104879,0.244589,0.821838,-0.563858,-0.081528
-0.080497,0.020473,0.887374,0.627119,0.778553,0.024017
0.206931,-0.041285,0.526978,0.157019,0.167302,0.973322
0.284884,0.131857,0.636114,0.509590,0.836940,0.199624
0.497607,0.085656,0.780991,-0.693859,0.691357,-0.201456
-0.295433,-0.084861,0.718043,-0.522936,0.144660,0.840007
0.710383,-0.259440,0.647389,0.745907,-0.476817,-0.465046
0.269168,0.217643,0.928954,0.689673,0.372934,0.620702
0.227045,-0.137302,-0.960981,0.235315,-0.330229,-0.914098
-0.083778,0.232111,0.668716,-0.077909,0.943596,-0.321802
0.342770,-0.394220,0.696535,-0.446168,-0.471089,0.760926
0.208485,-0.073703,0.152181,0.533556,0.410975,-0.739201
0.457820,0.252578,0.391949,0.216117,-0.737723,0.639577
0.047862,-0.425230,-0.966581,0.337047,-0.527211,0.780031
-0.288587,0.375759,0.705177,-0.708167,-0.704576,0.045532
0.142805,0.116473,0.612113,0.566133,-0.724628,-0.392946
0.297720,-0.294826,-0.314732,0.860575,0.497162,-0.110637
0.171748,0.096521,0.241416,0.826872,0.531421,0.184051
0.346604,0.431182,0.679217,0.924225,-0.054466,-0.377944
0.297379,-0.317884,-0.937476,-0.169041,0.616367,0.769101
0.378361,-0.714170,-0.936060,0.566386,0.549829,-0.613917
0.130209,-0.202699,-0.975870,-0.220802,-0.135248,0.965896
0.358842,0.341123,0.645992,0.214000,-0.974919,0.061130
0.376688,0.220479,0.886556,0.878815,0.204512,0.431115
0.500856,-0.284034,-0.948515,0.767325,0.102173,-0.633066
0.163017,-0.450175,-0.514846,-0.551143,0.830188,0.083843
0.512390,0.144480,0.664523,0.416308,0.662688,-0.622520
0.416397,0.096851,0.576620,-0.504899,0.773686,0.382736
0.435296,0.240243,0.733751,-0.630325,0.602401,0.489697
0.458025,-0.226645,-0.953506,-0.112015,0.338226,0.934375
0.436431,-0.209405,-0.951767,-0.515548,-0.220303,-0.828056
0.127200,0.147344,0.784209,0.358990,0.866092,-0.347865
0.188697,-0.474064,-0.865372,0.990759,-0.070835,-0.115670
0.244648,-0.090928,0.622434,0.769624,-0.297671,-0.564863
0.010667,-0.189887,0.698881,-0.205167,0.960378,-0.188629
0.157215,0.094168,0.498624,-0.275710,0.851916,-0.445222
0.178598,0.017139,0.267061,0.760035,-0.388077,0.521290
0.075798,-0.228744,-0.547969,0.695903,0.713892,-0.077959
0.567520,-0.080938,0.678352,0.359426,-0.764861,0.534603
0.153001,0.244508,0.850862,-0.460110,-0.870618,0.174133
0.343844,-0.350848,-0.191455,0.906782,-0.421300,0.015876
0.450365,0.287094,0.435456,0.449976,-0.818701,0.356722
0.011841,0.166903,0.876078,0.500942,0.805154,0.317466
0.404441,0.002371,0.745865,-0.314398,0.865340,-0.390309
0.125077,-0.316285,-0.474190,-0.754832,-0.149494,-0.638655
0.088196,0.266768,0.567667,0.760215,0.645210,0.076003
0.832428,0.154026,0.755208,0.971706,0.001059,-0.236190
0.327764,0.100265,0.263735,-0.137766,0.923539,-0.357905
0.167609,-0.520901,-0.577485,-0.485165,-0.755739,-0.439856
0.250429,0.201921,0.785494,-0.655611,0.601827,-0.456047
0.393260,-0.037602,-0.976557,0.148012,0.150960,0.977396
0.145247,-0.396463,-0.548022,0.292701,0.775761,-0.559036
0.487686,0.242118,0.329437,-0.731139,-0.248277,0.635448
0.853180,0.426624,0.771158,-0.126602,-0.588310,0.798663
0.093164,-0.320128,0.674377,-0.315444,0.561997,0.764627
0.266194,0.552411,0.756650,0.158708,-0.467552,0.869601
-0.002283,0.508955,0.573341,0.732919,-0.605935,0.309309
0.160248,0.609761,0.888689,0.872913,0.378398,-0.307958
0.074335,0.889981,0.681647,0.954852,0.293652,-0.045018
0.455763,0.488739,0.924397,0.937159,0.254271,-0.238913
-0.650567,0.679010,0.705500,0.677127,-0.027463,0.735353
0.140321,0.309004,0.676665,-0.581750,0.452479,0.675891
0.243052,-0.129021,0.130188,-0.609451,-0.713728,-0.345198
-0.135382,0.229285,0.483591,-0.273546,-0.821027,0.501086
0.437840,-0.187371,-0.959778,0.255175,-0.263071,-0.930419
0.441274,0.014695,0.133564,0.760541,-0.269286,-0.590815
-0.495713,0.644322,0.830041,0.905434,0.178843,-0.384972
0.084296,0.032020,0.936450,0.777442,0.393776,0.490433
0.364753,0.151386,0.889939,0.808118,-0.270162,-0.523411
0.187591,-0.276523,-0.057652,0.985826,0.154636,-0.065081
-0.079131,-0.102278,0.058684,-0.226945,-0.971323,0.070905
0.440148,0.180237,0.404451,0.855065,0.509348,-0.097101
0.178120,0.203524,0.810327,-0.627038,0.778988,0.000857
0.246733,-0.357750,-0.459370,-0.502823,-0.775893,0.380997
0.256526,-0.213638,-0.002232,-0.640430,-0.732235,-0.231693
0.402059,-0.141931,0.094285,0.999224,-0.031143,-0.024109
0.367478,0.106981,0.749064,-0.276182,0.758391,0.590396
-0.062013,0.475802,0.674687,-0.109849,0.759269,0.641439
0.410965,0.120815,0.208856,0.405016,-0.737241,0.540775
0.564092,0.248266,0.827599,0.641218,0.766803,0.029215
0.350396,0.125553,0.910969,-0.556321,-0.462078,-0.690645
0.597258,-0.642469,-0.948976,0.890507,-0.434073,0.136298
0.293499,-0.108778,0.787688,-0.028816,-0.968757,0.246333
0.352060,-0.067130,0.784772,-0.310166,0.341592,-0.887193
0.342242,0.338112,0.912526,0.987311,-0.156998,0.023835
0.215829,0.232992,0.852345,-0.295992,-0.929733,-0.219056
0.459915,0.115290,0.510387,0.006816,0.895829,0.444348
0.147986,0.398766,0.670962,-0.424333,-0.886429,-0.184894
0.180365,-0.124645,0.089142,-0.280926,0.114436,0.952882
0.305471,-0.024345,0.822254,-0.294495,0.898217,0.326311
0.791944,0.518822,0.790267,0.315533,0.865279,0.389526
0.259657,-0.229707,-0.214485,-0.416746,0.125446,-0.900325
0.160877,-0.494026,-0.573578,0.139755,-0.116583,0.983299
0.281179,-0.366462,-0.250299,0.848024,0.516673,-0.117919
0.378696,-0.305822,-0.376032,0.474890,-0.841773,-0.256707
0.363508,-0.294042,-0.211349,-0.449340,-0.875911,0.175709
0.369805,0.424193,0.565061,-0.123342,0.436979,-0.890975
0.013921,0.120975,0.406255,0.186004,-0.865451,0.465185
-0.091189,0.559023,0.593421,0.015060,-0.355938,0.934388
-0.063781,-0.013720,0.082426,0.009838,-0.823484,0.567255
0.556068,0.107685,0.546791,-0.444198,0.424806,0.788814
0.864204,0.011079,0.760748,0.972232,0.233055,-0.021240
-0.168802,0.748156,0.640756,0.869724,0.302365,0.390072
0.247574,-0.153862,0.034342,0.161125,0.947860,0.274955
0.095701,-0.131215,-0.955860,0.820159,-0.516041,-0.247064
0.625944,0.292137,0.722663,0.534856,0.278583,-0.797697
0.225121,0.480480,0.906679,-0.351154,0.633150,-0.689791
0.388673,-0.085314,0.785915,0.189810,-0.612016,0.767729
0.374605,0.108584,0.493883,0.071486,0.943756,-0.322823
0.277722,0.804197,0.783687,-0.245633,0.739868,-0.626306
0.389593,-0.302027,-0.950123,-0.513033,0.250357,0.821047
-0.415638,0.578213,0.801055,0.461219,-0.579424,0.671971
0.545186,0.100416,0.653376,0.475072,0.508356,-0.718248
-0.019699,0.078042,0.751632,-0.096487,-0.941700,-0.322323
0.616567,0.444890,0.782214,-0.014280,0.778317,-0.627710
0.077731,-0.296088,0.651635,0.381207,-0.877952,0.289622
0.369650,0.333325,0.947940,-0.236203,-0.475727,-0.847285
0.003610,-0.308349,-0.964199,0.790418,-0.611898,0.028627
0.263754,0.255018,0.233358,-0.577157,0.430232,0.694111
0.390189,0.437470,0.508102,-0.324560,0.876248,-0.356160
0.625723,0.270544,0.756995,0.588816,-0.808240,0.006589
0.393959,0.053720,0.702762,0.252571,0.205318,-0.945543
0.209536,0.185074,0.695401,0.848526,0.524152,-0.072579
-0.423015,0.626082,0.781629,-0.670702,0.567983,-0.477025
-0.319091,0.397314,0.694832,0.863939,0.453101,0.219793
0.254685,-0.275206,-0.059748,0.022098,-0.917481,0.397165
0.282486,0.278790,0.940843,-0.576445,0.573283,-0.582287
0.360318,-0.558838,-0.951322,-0.234756,0.543174,0.806134
-0.087530,-0.649476,-0.969813,0.486062,0.252542,-0.836640
0.091411,-0.317933,-0.962222,-0.619612,0.149380,0.770563
0.249667,0.224058,0.589216,0.880094,0.474620,0.013060
0.322084,0.256352,0.713277,0.939284,0.111559,-0.324499
-0.055909,0.036600,0.641255,-0.004464,0.795347,0.606138
0.295825,0.200513,0.812168,0.647917,0.302133,0.699227
0.216913,-0.817171,-0.952000,0.176991,0.841445,-0.510534
0.276124,0.227599,0.421110,-0.316716,0.884508,0.342545
0.543389,0.001902,0.564104,0.975864,0.201736,0.083617
0.378895,-0.258819,-0.967261,0.953640,-0.281597,-0.106182
-0.110432,0.290937,0.697116,-0.369268,-0.135529,-0.919387
0.134258,-0.509180,-0.960779,0.660597,-0.447311,0.602930
-0.014668,0.276096,0.557846,-0.626087,0.294086,0.722169
0.292955,-0.115069,0.103880,0.601344,0.196755,-0.774386
0.443646,0.227559,0.803662,-0.573608,0.179383,-0.799247
-0.189897,0.374847,0.562584,-0.263876,-0.765714,0.586559
0.378058,0.335956,0.849790,-0.098951,-0.079107,0.991943
0.395866,0.091059,0.765545,-0.460706,-0.576262,-0.675035
0.419447,0.298078,0.785148,-0.240897,-0.846711,-0.474393
0.615328,-0.323224,0.635742,0.409564,0.911743,-0.031337
-0.246887,0.420923,0.772590,0.196932,-0.978747,0.057198
0.568314,-0.033678,0.639450,0.806729,0.249158,0.535825
-0.019058,0.198833,0.789690,-0.112153,-0.852083,0.511250
0.199637,-0.530279,-0.940490,0.360304,-0.570627,0.737947
0.148175,0.165929,0.705607,0.159394,-0.987139,-0.012238
0.406724,-0.501204,-0.964736,-0.220295,0.787058,0.576203
-0.110375,0.081718,0.099648,0.934637,0.354054,-0.033162
0.333946,0.122631,0.801657,0.628864,0.761195,-0.158469
0.418734,0.340324,0.414795,0.786390,0.476442,-0.393184
0.211429,0.117349,0.472030,-0.407876,-0.600609,-0.687681
-0.013415,0.765340,0.629185,0.213353,0.619304,0.755608
-0.211527,0.325381,0.706805,0.617147,0.778719,0.112814
-0.072086,0.838430,0.812849,0.455364,-0.845365,0.279289
0.127692,-0.120986,-0.023994,0.303198,0.931458,-0.201137
0.478333,-0.680338,-0.928815,-0.619290,0.236102,-0.748823
0.181671,-0.017892,0.241433,0.515403,0.178790,-0.838090
0.314953,-0.225888,-0.374752,-0.492992,-0.831237,0.256912
0.172045,0.207067,0.538714,0.626014,0.505872,-0.593464
0.029459,-0.674257,-0.985801,-0.158057,0.135855,0.978039
0.493041,0.153921,0.474833,-0.764919,0.166776,0.622162
0.703656,0.342747,0.859674,-0.022264,0.708917,0.704940
0.324495,-0.004184,0.039736,-0.422899,-0.874133,0.238846
-0.028558,0.176576,0.641428,-0.549778,0.799852,-0.240793
0.187166,-0.259423,-0.025099,-0.522330,-0.755960,-0.394583
0.193309,0.159999,0.736263,0.395849,0.774849,-0.492861
0.492574,0.174716,0.888139,0.508177,-0.786764,-0.350371
-0.025345,0.090825,0.831532,0.019154,-0.841932,0.539243
-0.147068,0.040810,0.933085,-0.775214,0.013169,-0.631561
0.361161,0.236361,0.726930,-0.047983,0.718596,0.693770
0.256575,0.182566,0.607645,0.107378,0.944654,-0.309998
0.193311,-0.053882,0.180708,0.617098,-0.570803,0.541639
0.463173,-0.339928,-0.951253,-0.709736,-0.034854,-0.703605
0.233530,-0.808528,-0.942867,0.001153,-0.475450,0.879742
0.423104,0.186729,0.820298,0.006374,0.389204,0.921130
-0.193300,0.501439,0.616122,-0.578410,0.405268,-0.707954
0.924822,0.442791,0.777861,0.832738,-0.363661,0.417490
0.049242,0.007133,0.943060,-0.386119,0.188983,-0.902883
0.392522,0.265917,0.814816,0.722048,0.362145,0.589489
0.063187,0.329501,0.912462,0.598907,0.547282,-0.584630
0.191714,-0.096943,-0.000909,-0.401749,-0.902050,-0.157809
0.596357,0.555483,0.743719,-0.462022,-0.605319,0.648169
0.327723,-0.053060,-0.951338,-0.315950,0.311539,-0.896169
0.226850,-0.231875,-0.258310,0.818219,-0.177401,-0.546851
0.127618,-0.285551,0.655323,0.303893,0.937284,0.170727
0.332459,-0.263438,-0.125200,-0.303139,-0.541416,-0.784203
0.291224,-0.302282,-0.953278,-0.391886,-0.255678,0.883773
0.119890,-0.207728,0.615023,-0.123309,0.743761,0.656973
0.140818,-0.109230,0.100679,-0.293580,0.909373,0.294707
0.123526,-0.192484,0.676306,0.378404,0.556665,-0.739550
0.049712,-0.232734,-0.496253,0.539279,0.413223,-0.733775
0.116937,0.409154,0.637759,-0.306001,-0.475021,0.825057
-0.212073,-0.577409,-0.983304,-0.335001,-0.131280,0.933027
0.286757,-0.374911,-0.960907,0.708732,-0.345957,-0.614828
0.214262,-0.068866,0.158602,0.892991,-0.234529,0.384139
0.383450,0.440506,0.948421,0.262027,0.246236,-0.933118
0.174258,0.160530,0.763495,0.877498,-0.478021,-0.038637
0.122545,0.119252,0.442121,-0.626084,-0.642496,0.441834
0.666062,0.382059,0.924344,0.473065,-0.870559,0.135413
-0.322838,0.406301,0.718448,-0.231938,0.956289,-0.178092
0.149462,0.169911,0.631216,0.998911,-0.036673,-0.028826
0.068239,-0.827611,-0.964201,-0.501337,-0.146559,0.852749
0.486087,-0.299623,-0.956842,-0.396068,-0.073588,0.915268
-0.162229,0.519561,0.589536,-0.735984,0.410576,-0.538289
0.197395,-0.248276,-0.013226,0.542073,0.432857,-0.720272
0.301288,0.010067,0.098339,-0.008147,-0.998585,0.052559
0.175956,-0.454166,-0.779232,0.465495,-0.876882,-0.119972
0.436915,0.123729,0.756216,-0.243490,0.956582,-0.160199
0.026678,0.318630,0.700593,-0.117312,-0.442473,0.889075
0.158202,-0.211007,0.655146,0.760174,-0.049341,0.647843
-0.091342,0.806511,0.661518,-0.374783,-0.208159,0.903442
0.339592,0.103129,0.584396,-0.532275,0.106587,-0.839835
0.699783,0.234621,0.801253,0.719348,-0.528225,-0.451129
-0.937488,0.743655,0.726850,-0.397169,-0.910129,0.117989
0.238918,-0.211712,-0.058693,-0.184484,0.781304,0.596263
0.697667,0.286201,0.781364,0.753355,-0.557347,-0.349029
0.523512,0.282519,0.477074,0.592915,-0.766037,-0.248273
0.574697,0.308903,0.348345,-0.623153,0.459408,0.632950
0.129411,0.018018,0.922211,-0.573483,0.251091,-0.779789
0.347009,0.501812,0.747790,-0.137922,0.130632,0.981791
0.199393,-0.036137,0.260189,0.830287,-0.284451,0.479282
0.304647,0.343266,0.941928,0.715468,0.641371,0.277035
0.238552,0.333050,0.918201,0.065348,0.997811,-0.010121
0.218602,-0.504236,-0.593910,0.968650,-0.096373,0.228974
-0.024522,0.035554,0.934531,0.820978,-0.549567,-0.154830
0.119823,-0.077830,0.139985,0.991436,-0.116568,-0.058875
0.412700,0.029739,0.143473,0.807638,-0.050345,-0.587525
0.045673,-0.397038,-0.957409,0.749405,-0.281445,-0.599317
0.244573,-0.737356,-0.955222,-0.042050,0.321241,0.946063
0.034184,-0.174496,0.699048,0.778658,-0.591856,0.208323
0.256182,-0.235385,-0.319532,0.791096,0.345887,-0.504510
0.129832,0.185989,0.377917,-0.291685,-0.943719,-0.155932
0.287238,-0.113253,0.107871,0.419744,0.239833,-0.875383
0.318731,0.050319,0.804739,0.903109,0.209416,0.374885
0.051889,0.252418,0.699741,0.312022,-0.136049,0.940284
0.418800,0.466081,0.500826,-0.368070,0.841293,-0.395917
0.259373,0.167516,0.653524,0.650053,0.602020,-0.463685
0.119706,0.023872,0.304351,-0.537788,-0.810165,0.233276
0.404556,0.038830,0.541430,-0.544142,0.834819,0.083592
-0.445200,0.405316,0.774795,-0.710156,0.414949,-0.568767
0.347967,0.182312,0.164987,0.922024,0.383951,-0.049536
0.457144,0.210650,0.956066,0.406009,-0.340097,-0.848228
0.193242,-0.319316,-0.204033,0.997994,0.010683,0.062396
0.051463,-0.060641,-0.030052,-0.286225,0.900414,-0.327613
0.409067,-0.174035,0.831805,-0.666831,0.218654,0.712409
-0.559212,0.707750,0.686203,0.024459,0.982641,-0.183899
-0.315944,0.484178,0.628854,0.503550,0.856357,0.114412
0.159364,-0.035096,0.914399,0.109839,-0.955177,0.274903
0.707531,-0.066209,0.663765,0.956620,-0.124134,-0.263571
0.121556,0.397464,0.650096,0.730259,-0.645015,0.225116
0.026557,0.420620,0.526637,-0.478032,0.468400,-0.743025
0.324712,0.825294,0.781885,0.082909,-0.713348,0.695889
0.018228,-0.408160,-0.964992,-0.701844,0.084770,0.707268
-0.360709,0.405954,0.712897,0.661121,0.642142,0.388036
0.183143,-0.780803,-0.947461,0.416899,0.262495,0.870225
0.509995,-0.144679,0.630051,0.641008,0.517772,-0.566587
0.530058,0.126700,0.266272,0.005459,-0.972340,0.233506
0.276439,-0.228967,-0.122589,0.905650,0.224920,0.359456
0.140566,0.146464,0.650630,0.173229,0.467211,0.867010
0.700546,-0.033789,0.650323,0.939402,0.269624,-0.211724
0.314372,-0.259078,-0.151561,0.909988,-0.381287,0.162917
0.171067,0.154083,0.628536,0.563956,-0.667385,0.486365
0.217396,0.675913,0.558425,0.706596,0.694565,0.135283
0.470413,0.183708,0.461641,-0.372870,-0.177689,0.910711
0.428025,-0.533177,-0.960402,0.038873,0.607017,0.793737
0.274641,-0.116227,0.651237,0.545161,-0.824852,-0.149732
0.301135,-0.335129,-0.956684,-0.159438,-0.300798,0.940266
0.247257,0.489191,0.955117,-0.532751,0.670534,-0.516295
-0.452409,0.711369,0.816453,0.989469,0.056528,0.133249
0.174601,0.181402,0.718496,-0.042335,0.990503,0.130815
0.214099,0.121792,0.812861,0.952827,-0.101257,0.286124
-0.023565,-0.260285,-0.984003,0.604687,-0.476761,-0.638006
-0.155262,-0.419093,-0.981720,-0.160282,0.015341,0.986952
0.513999,0.183353,0.713613,0.382587,-0.054919,0.922286
0.543931,-0.767408,-0.950506,0.028364,-0.147890,0.988597
-0.128122,0.476841,0.604875,-0.030061,0.963569,0.265766
0.323336,0.202749,0.481636,0.283900,0.215442,0.934337
0.233739,0.488746,0.536963,-0.639179,0.138504,-0.756484
0.437221,-0.069670,0.791330,0.111555,0.990758,0.077166
0.656262,-0.090468,0.634937,0.724644,0.441311,-0.529278
0.307545,-0.286668,-0.064364,0.694205,-0.696295,0.182356
0.468704,-0.459113,-0.956531,-0.012144,0.062731,0.997957
0.264993,0.240927,0.884876,0.570562,0.287578,-0.769258
0.257343,0.101797,0.538827,0.085312,0.814621,0.573685
-0.564068,0.560039,0.681766,-0.670861,-0.741236,-0.022660
-0.306380,0.643643,0.786638,-0.105379,-0.298057,0.948713
0.325573,-0.277021,-0.965053,0.254337,-0.140414,-0.956868
0.362896,-0.067996,0.623728,-0.393145,0.821957,-0.412098
0.091265,-0.396628,-0.593643,0.896230,0.113468,0.428833
0.518609,0.129539,0.264001,-0.137925,-0.986502,0.088260
0.287298,-0.299275,-0.399765,-0.523135,0.754750,0.395831
0.239286,0.350141,0.655914,0.998262,-0.058795,0.004109
-0.253703,0.585937,0.656677,-0.708462,0.703052,-0.061645
0.015085,0.251159,0.612972,-0.063367,0.144762,0.987435
0.208389,-0.252565,-0.327890,-0.819679,-0.566031,0.087951
0.380722,-0.129204,-0.106174,-0.903729,-0.118067,-0.411502
0.778153,0.410325,0.853816,-0.158822,0.551688,0.818789
0.141585,-0.377198,0.662990,0.206127,0.664908,-0.717920
0.375104,-0.168122,0.597183,-0.258682,0.393674,-0.882102
0.570369,-0.618410,-0.959625,0.327692,-0.091081,0.940384
0.241193,0.334827,0.760564,0.216758,-0.634035,0.742305
0.392968,-0.270233,-0.340906,-0.203935,0.845956,0.492716
0.418950,0.200998,0.304308,0.731042,-0.604844,0.315817
0.078819,0.402017,0.830163,0.525869,-0.304700,-0.794115
0.181399,0.656082,0.642626,0.112224,-0.220492,0.968911
0.053426,0.358148,0.700438,0.429543,-0.339327,-0.836869
0.086077,-0.358702,-0.518153,0.605102,-0.796145,0.002201
0.318613,-0.180745,-0.313301,-0.508206,0.847052,0.155661
-0.009168,-0.159782,0.619744,0.971090,0.235833,-0.036973
0.143439,0.269985,0.831352,0.261394,0.351056,0.899129
0.399727,0.458154,0.714277,0.793408,0.453607,-0.405886
0.229504,0.235167,0.811890,-0.148542,-0.739143,0.656964
0.029975,0.967856,0.802517,-0.822579,0.433648,-0.367848
0.296328,-0.216489,-0.213268,-0.467802,-0.251558,-0.847278
0.172963,-0.358763,-0.962361,-0.185549,-0.021133,0.982408
-0.457042,0.455699,0.779513,0.354979,0.830985,-0.428315
-0.425228,0.407836,0.739510,-0.308009,0.905953,0.290482
0.160686,0.265216,0.638527,0.151528,0.930740,-0.332811
0.248434,-0.697008,-0.963666,-0.318964,0.239542,0.916996
-0.092557,-0.617660,-0.969697,-0.043650,0.687357,0.725007
0.474873,-0.580584,-0.950939,-0.009180,-0.965610,0.259833
0.440109,0.992973,0.792251,0.229333,-0.859152,0.457453
0.262528,-0.115008,0.612382,0.747633,0.319024,-0.582467
0.324564,0.548375,0.910930,-0.106955,0.925274,-0.363907
-0.064762,0.473889,0.591943,-0.446221,-0.873748,0.193524
0.579394,0.292091,0.483573,-0.748526,0.663088,-0.004710
0.694833,0.380635,0.796319,0.826443,-0.552311,-0.109291
0.324357,0.150341,0.846232,0.544483,0.682440,-0.487661
-0.477070,0.548551,0.801351,0.730856,-0.056963,0.680150
0.525853,0.438962,0.481605,0.864033,0.424551,0.270560
0.229810,-0.176622,-0.211269,0.848367,-0.367254,0.381310
0.127046,0.700095,0.731280,0.920253,0.184742,-0.344970
0.431105,0.298017,0.283361,-0.748916,0.616491,0.243030
-0.516960,0.537524,0.652116,0.896764,0.396961,0.195543
0.389898,0.804035,0.772749,-0.403501,0.777806,-0.481877
0.207038,-0.294135,0.615232,0.883939,0.130094,0.449141
0.197970,-0.386453,-0.618373,-0.255108,0.212422,-0.943290
-0.024148,-0.387344,-0.574586,0.963037,0.250883,-0.098065
-0.560481,0.366080,0.764068,0.111141,0.649124,0.752520
0.155871,0.292037,0.800924,-0.091650,0.081783,-0.992427
0.522122,0.226866,0.949625,0.328779,-0.529616,-0.781927
0.478035,0.199110,0.383868,-0.181188,0.982806,0.035530
0.083305,0.035601,0.314455,-0.554034,-0.831000,-0.049844
0.137230,-0.116334,0.955954,0.997036,-0.075645,-0.014060
0.069016,0.217896,0.602667,0.507890,-0.414736,0.755011
-0.145800,-0.183225,0.704714,-0.493577,-0.061159,-0.867549
0.577708,0.292875,0.937499,-0.712544,0.431266,-0.553435
0.274603,0.089938,0.842862,0.688539,-0.097605,-0.718601
-0.273154,0.393585,0.718980,0.653034,-0.727474,-0.210545
0.566894,0.543888,0.556795,-0.073105,-0.950425,-0.302240
0.438243,0.189417,0.386341,-0.659557,0.464445,-0.590996
0.193969,0.122190,0.670265,0.790297,-0.582232,0.190882
-0.246411,-0.464084,-0.991287,0.899177,0.128895,-0.418170
0.606367,0.425838,0.861616,0.031840,-0.118389,0.992457
0.263587,-0.133584,0.765210,0.059532,0.652520,0.755429
0.280246,-0.587098,-0.970616,0.384601,-0.403027,-0.830453
0.343550,0.254447,0.430848,0.284960,-0.951952,-0.112180
0.148121,-0.177180,-0.054163,0.398376,0.749175,0.529182
0.573893,-0.577212,-0.951299,-0.466164,-0.082539,0.880840
-0.410990,0.357164,0.766513,0.780818,-0.425474,0.457488
0.067083,-0.773794,-0.984101,-0.209819,-0.208854,0.955173
0.180031,0.056553,0.268087,0.856703,0.140118,0.496415
0.117087,-0.706468,-0.973400,0.359297,-0.140509,-0.922585
0.203841,-0.278436,-0.756625,-0.524176,0.802109,-0.286114
0.122543,-0.296096,0.668641,-0.589991,0.006753,0.807382
0.155744,-0.422328,-0.433171,0.274100,0.785785,-0.554447
-0.746594,0.645281,0.705488,-0.707122,-0.531279,0.466606
-0.059438,-0.654759,-0.969297,0.172221,-0.281077,0.944106
0.241299,-0.152469,0.675603,-0.122510,-0.964274,-0.234877
0.431422,-0.401425,-0.942400,0.236097,-0.182104,-0.954514
0.232908,-0.039112,0.057417,-0.394087,0.818013,0.418987
0.263082,-0.251242,-0.167838,-0.138481,-0.510528,-0.848637
0.377479,0.681750,0.745944,-0.559448,-0.629391,0.539338
0.169593,0.233883,0.887035,0.792379,-0.229534,0.565199
0.076534,0.135850,0.373241,0.783959,-0.620567,-0.017472
-0.020219,0.107261,0.929965,0.351271,0.805798,-0.476759
0.257832,-0.231990,-0.265741,0.084607,-0.994587,-0.060325
0.397116,-0.002095,0.079208,-0.474491,0.871096,-0.126689
0.440967,0.208268,0.881956,-0.373941,0.856571,0.355603
-0.027200,-0.574146,-0.991828,0.584289,-0.223554,-0.780147
-0.031602,0.618022,0.624804,-0.181913,-0.964585,0.191006
0.520490,0.169904,0.897140,0.672153,-0.740189,0.018184
0.015856,0.165502,0.613956,-0.595119,-0.122222,-0.794289
0.270019,-0.166752,-0.968491,0.108064,-0.132520,0.985272
0.228959,0.034082,0.582179,-0.376685,-0.926177,0.017466
0.142953,-0.001856,0.656772,0.914234,-0.381271,-0.137147
0.557171,0.240107,0.769077,0.751016,-0.629244,-0.200066
0.202000,-0.023823,0.083736,-0.050187,-0.294771,-0.954249
0.270893,-0.242015,-0.962790,0.961924,-0.265124,-0.066415
0.706696,0.319591,0.801118,0.905872,0.105449,0.410215
0.336946,-0.000754,0.101780,0.341386,0.932847,-0.115120
0.124334,0.592639,0.905636,0.428200,-0.546539,-0.719680
-0.158199,0.278836,0.705363,0.884875,0.228371,0.406008
-0.478320,0.507574,0.679619,0.901913,0.177671,-0.393683
0.661127,0.560903,0.530727,0.463065,-0.853463,0.239106
-0.047836,-0.413888,-0.983694,0.022385,-0.587769,0.808719
0.670891,0.265903,0.364072,0.452794,0.879347,-0.147396
-0.041459,0.007098,0.934765,-0.640382,0.492588,-0.589295
0.172185,-0.170233,-0.967436,0.241539,-0.209416,0.947525
0.074640,0.125832,0.845525,-0.078294,0.838456,0.539315
0.121509,-0.245621,0.631075,0.456511,-0.156850,0.875783
0.181252,-0.022048,0.288097,0.721287,0.679560,-0.133955
0.151183,-0.838262,-0.945950,-0.234662,0.048100,0.970886
0.040596,0.035183,0.910574,0.321125,-0.940162,0.113902
0.364005,0.334620,0.877685,-0.384851,-0.570400,-0.725627
0.404732,-0.146138,0.774442,-0.381808,0.910292,-0.159975
0.799013,-0.276691,0.596047,0.388060,0.897581,0.209182
0.363865,0.268005,0.795806,0.925029,-0.378766,0.029274
0.084816,0.350467,0.913764,0.553934,0.784498,-0.278784
0.213896,-0.326256,-0.497987,0.963082,0.249964,-0.099952
0.227408,-0.414490,-0.964389,-0.420383,0.695091,0.583204
0.202476,0.434570,0.697372,-0.057439,-0.402915,0.913433
0.329935,0.149013,0.809238,0.956198,0.069123,-0.284443
0.421590,-0.436747,-0.952783,0.290066,0.340887,0.894236
0.396168,0.555741,0.912675,0.604734,-0.665565,0.437401
0.553656,0.218614,0.374887,-0.248448,0.929629,0.272147
0.179340,0.175892,0.719165,0.071231,0.969284,0.235402
0.147129,0.023879,0.532634,0.969993,0.193632,-0.147035
0.160718,-0.424200,-0.952156,-0.074444,0.790086,0.608458
0.185826,0.278804,0.658025,-0.288867,0.407346,-0.866386
0.441463,0.602502,0.595920,-0.345546,-0.933447,0.096304
0.153908,0.119262,0.538908,-0.277251,0.943324,0.182407
0.533668,0.220045,0.348825,0.138626,-0.432300,0.891010
0.248425,0.246464,0.643448,-0.366918,0.926916,0.078730
0.233166,-0.078170,0.002163,-0.496213,-0.499189,-0.710340
-0.121042,0.102094,0.949503,-0.827354,0.491316,-0.272203
0.540438,-0.132981,0.584727,0.476993,-0.177893,0.860716
0.215692,-0.172549,-0.949143,-0.200577,0.795054,0.572415
0.147180,-0.336490,-0.479027,-0.419234,-0.322311,-0.848739
0.360604,0.059671,0.600585,0.054573,-0.978480,-0.198994
0.136167,0.187880,0.883545,0.844398,-0.535716,0.000422
0.494349,0.301181,0.462091,-0.380718,0.825681,0.416298
0.269780,0.601426,0.534200,0.662522,-0.241531,0.709033
0.721059,0.420681,0.790020,0.755710,-0.469117,-0.456981
0.368120,-0.251773,-0.971165,0.854820,-0.289921,-0.430382
-0.094639,0.666881,0.647983,-0.583853,0.623569,-0.519883
0.182670,-0.104530,0.138613,0.738776,0.673754,-0.016290
0.415836,0.359579,0.856334,-0.486156,0.869281,-0.089464
0.387313,-0.050077,0.807429,0.973243,-0.118429,-0.196909
0.126823,-0.012113,0.225595,0.981804,0.139770,0.128553
0.254596,-0.398289,-0.178224,0.680004,-0.728431,0.083564
0.420334,0.036512,0.204010,0.273346,0.803977,-0.528112
0.226436,-0.161798,0.601577,0.719823,0.464360,-0.515969
0.416214,0.326998,0.754213,0.745254,0.665678,-0.038340
0.011563,0.378889,0.522024,-0.635634,-0.103409,-0.765033
0.166252,-0.031252,0.151234,-0.547875,0.508017,0.664644
0.038206,0.249362,0.411204,0.462716,-0.630443,0.623247
0.799906,0.128857,0.710588,-0.402942,-0.314465,-0.859505
-0.333238,0.531763,0.644854,0.812078,-0.500428,0.300168
0.333801,-0.112051,0.036038,0.915612,0.276810,-0.291601
0.215658,-0.076674,-0.014679,-0.183906,0.952064,-0.244444
0.489950,0.593140,0.964215,0.453835,-0.877773,-0.153455
-0.565152,0.498632,0.779877,0.214779,0.607338,-0.764860
0.373404,0.002991,0.200655,-0.032641,0.978702,0.202674
0.349751,0.425834,0.892619,-0.336136,0.941470,-0.025427
0.253627,0.137574,0.799228,0.218556,0.693956,0.686045
0.582120,-0.036883,0.630567,-0.364821,-0.451519,0.814270
0.182661,0.195655,0.752785,0.182724,-0.273293,0.944417
0.266786,-0.449245,-0.864747,0.760655,0.614542,-0.209145
0.293235,0.087063,0.728663,0.602783,0.741295,0.295185
0.270325,-0.406667,-0.960845,-0.425457,0.499695,0.754514
0.468789,0.137418,0.818320,0.876179,0.406590,0.258835
0.222748,-0.401660,-0.555576,-0.734444,-0.353821,-0.579139
0.284277,-0.021818,0.847488,0.929495,0.199154,0.310447
0.321583,-0.292175,-0.186170,0.978514,-0.121698,-0.166434
0.243093,0.358400,0.911587,-0.428640,-0.799279,-0.421214
0.288261,-0.420213,-0.776672,0.922727,-0.385149,-0.015345
0.607544,0.487443,0.573641,-0.574822,-0.762124,0.297903
0.109197,0.000246,0.820835,0.838566,0.116370,0.532226
0.338424,-0.129016,0.013279,0.993408,-0.110207,0.031535
0.244753,-0.435148,-0.943789,0.372234,0.927964,0.018046
-0.351046,0.438947,0.725298,-0.297708,0.652309,-0.697038
-0.147269,-0.357300,-0.975344,0.257643,-0.591927,0.763703
-0.311817,0.677111,0.796939,0.033717,-0.393270,0.918805
0.240789,0.163467,0.816712,-0.719851,0.597234,-0.353732
0.164079,0.642301,0.675118,0.954533,0.152404,0.256204
-0.034458,0.471088,0.905266,-0.107049,0.898312,0.426117
0.232109,0.466431,0.566914,0.452788,-0.889512,0.061246
-0.111808,-0.330818,-0.972999,0.031680,-0.278698,0.959856
-0.111652,-0.409126,-0.976124,-0.402677,0.014685,0.915224
0.118240,-0.349685,-0.541685,-0.480575,-0.811058,0.333516
-0.188510,0.297020,0.542840,-0.531829,-0.722134,-0.442357
0.100110,-0.172434,0.640453,-0.487885,0.378301,-0.786674
-0.036925,0.056607,0.931735,0.887525,-0.450695,-0.095780
-0.522606,0.360935,0.770658,-0.164415,0.602289,0.781163
0.246424,0.180663,0.761541,-0.832784,0.552947,-0.026845
-0.189910,0.024381,0.952132,0.895460,-0.424654,0.133491
0.165218,-0.284293,-0.467119,0.364645,-0.859053,-0.359252
0.417425,0.503352,0.554945,-0.078965,0.355191,0.931453
-0.411204,0.428942,0.773781,-0.667001,0.284522,-0.688590
0.083454,-0.063583,0.217619,-0.579633,0.799357,-0.158284
0.129283,0.367089,0.897557,-0.517879,0.780329,-0.350555
0.678531,0.297042,0.362324,0.798076,0.043476,-0.600986
0.038468,0.014706,0.766177,0.488628,-0.842028,-0.228542
-0.324481,0.551489,0.677022,-0.590622,0.027765,0.806471
0.441643,0.021392,0.774476,0.873834,-0.376921,-0.307157
0.356518,0.282102,0.889851,0.928801,-0.087146,0.360186
0.193244,-0.409935,-0.829630,0.667685,-0.742821,-0.049130
0.161585,-0.059305,0.954241,0.988952,-0.136747,-0.057221
0.152401,0.751403,0.677425,0.850542,-0.028843,0.525115
0.417484,0.773400,0.770482,-0.756923,0.456754,0.467379
0.220826,-0.158351,-0.014727,-0.254053,0.625826,0.737428
0.088603,0.149683,0.900051,-0.557667,0.724739,-0.404672
-0.595833,0.653146,0.684483,0.214830,-0.297847,-0.930127
0.054520,0.424242,0.685971,0.920105,0.337187,0.199277
0.180112,-0.013521,0.200196,0.949592,0.280185,-0.140608
0.093186,0.912193,0.781996,0.271437,0.848575,-0.454139
0.275630,-0.229344,-0.359685,0.904618,-0.426102,0.010111
0.507935,-0.144720,0.541441,-0.462303,0.331924,0.822255
0.051733,0.047544,0.339662,-0.608577,0.301456,-0.734001
0.242745,0.010696,0.923985,0.161070,-0.608485,0.777048
0.158842,-0.043583,0.109057,0.083421,-0.966066,0.244452
0.089697,0.324878,0.541772,-0.024523,-0.278039,0.960257
0.237997,0.038166,0.616485,-0.345004,-0.915283,0.207916
0.296916,0.074571,0.816514,0.051200,0.006417,0.998668
0.209470,0.163393,0.703692,0.222245,0.963325,0.150375
0.572634,-0.088551,0.655472,0.271204,0.954663,-0.122748
0.164731,0.620974,0.681981,0.803222,-0.033945,0.594712
0.161344,0.115679,0.930658,0.568222,0.297150,-0.767350
0.194729,0.089861,0.836690,-0.326071,-0.299284,0.896720
0.463091,0.168352,0.491736,0.601263,-0.696214,0.392135
0.206448,-0.025752,0.169495,0.777914,-0.602844,-0.177284
0.119165,-0.144038,0.653168,0.808978,0.447740,0.380899
0.005307,-0.321920,-0.961631,0.801316,-0.576109,0.161220
0.183256,-0.408670,-0.547985,0.690547,0.723277,-0.003904
0.349925,0.090429,0.176795,0.736856,0.315928,0.597689
0.593115,0.259451,0.785849,-0.047047,-0.400899,0.914913
0.170165,-0.311631,0.677189,0.573602,0.751385,-0.326193
0.252350,0.067965,0.932386,-0.223298,0.395183,-0.891049
0.033669,-0.186980,-0.479229,0.514025,0.835445,0.194447
0.666704,0.206146,0.804128,0.681137,-0.548461,-0.485019
0.085786,-0.359095,-0.954383,-0.443998,0.534347,0.719263
0.435661,0.235728,0.850518,-0.269941,-0.713002,-0.647117
0.127338,0.006887,0.702212,0.778511,0.440025,0.447547
0.109377,-0.028034,0.286299,0.366054,0.926828,0.083635
0.276586,0.131380,0.146499,0.038726,-0.653378,0.756041
0.634265,0.295165,0.648016,0.878176,-0.269183,-0.395408
0.423591,0.003357,0.821369,-0.674721,0.380183,-0.632623
0.332130,0.347289,0.408607,-0.110173,0.694199,0.711301
-0.754110,0.559091,0.691499,-0.443656,0.840281,0.311605
0.511257,0.428456,0.707733,-0.325148,-0.329611,0.886361
0.178324,-0.298666,0.672743,0.783401,0.343348,0.518068
0.226597,-0.427181,0.677243,-0.546116,-0.542464,-0.638350
-0.002323,0.089272,0.654587,0.824175,-0.117025,-0.554112
0.253411,-0.253197,-0.218633,0.836011,-0.218207,0.503459
0.275241,-0.238788,-0.030596,-0.600296,-0.797911,-0.054614
0.429269,-0.642967,-0.933763,0.082652,0.411321,0.907736
0.226412,-0.258578,-0.107873,-0.492110,-0.080751,-0.866780
0.705142,0.539085,0.796163,-0.302467,-0.864248,-0.401981
0.578216,0.094129,0.699637,-0.357031,0.931223,-0.073159
0.597270,0.182880,0.814995,-0.618502,0.600515,-0.506792
0.315652,-0.455794,-0.950661,0.817618,0.523340,0.240034
0.337289,0.176052,0.908874,0.949359,-0.270951,0.159069
0.391842,0.910368,0.813576,0.066249,-0.865923,0.495770
0.171420,-0.417289,-0.469313,0.401931,0.859853,-0.314808
-0.147189,0.350407,0.743793,0.792823,0.460571,-0.399131
0.398730,-0.223144,-0.970455,-0.180806,-0.621129,-0.762567
0.463542,-0.252804,-0.365198,-0.193529,-0.886660,0.419978
0.554995,-0.043338,0.600486,0.881498,0.395504,-0.257950
0.317537,-0.167464,0.041704,0.733376,-0.597953,0.323438
0.385350,-0.035551,0.102572,-0.291705,0.951664,-0.096145
0.210445,-0.128046,-0.018091,-0.008491,0.340584,0.940176
0.164063,0.026576,0.302302,-0.064388,-0.931952,0.356819
-0.139533,0.346181,0.603415,-0.602917,-0.785737,-0.138233
0.171945,-0.249467,-0.127620,0.998701,0.006168,-0.050580
0.055687,0.023865,0.891863,-0.601589,0.282866,-0.747046
0.000283,0.779054,0.619444,-0.063946,-0.822086,0.565762
0.611491,0.245295,0.237299,0.187494,-0.777871,0.599803
0.274019,-0.362638,-0.218940,0.902502,-0.091252,0.420908
-0.651444,0.616247,0.690198,-0.150700,0.592854,0.791084
0.069647,-0.465749,-0.566564,-0.172503,-0.863723,0.473525
0.044082,-0.043861,0.939785,-0.426690,0.276603,-0.861061
0.417041,0.106152,0.876737,0.301777,0.945167,0.124856
0.342474,0.261959,0.615240,-0.589021,0.644647,0.487324
-0.112669,-0.332083,-0.986059,-0.512377,0.798907,0.314988
0.085910,0.238998,0.448902,0.527487,0.823442,0.209049
0.557159,0.366691,0.639164,-0.657222,0.590334,0.468578
-0.179244,0.414481,0.591226,0.928233,0.157038,0.337229
0.192489,0.049691,0.484307,0.916807,0.382664,0.114163
0.366975,-0.295154,-0.243173,0.740064,0.671941,0.028287
0.109972,-0.437762,-0.838852,0.774765,-0.624632,0.097844
0.496709,-0.222231,-0.964516,-0.237994,0.400406,0.884892
0.286350,0.086971,0.733887,-0.538559,-0.839489,-0.072195
0.425649,0.218364,0.838509,-0.544157,0.781869,0.304260
0.476174,0.144196,0.249064,0.088947,0.992815,0.080042
0.865370,0.394823,0.765607,0.661883,0.179742,-0.727738
0.184355,-0.401035,-0.778736,-0.656336,0.751550,0.066298
0.152748,-0.043019,0.257740,-0.537626,0.487294,0.688116
0.437420,-0.320777,-0.946687,0.539831,-0.011888,0.841690
-0.460331,0.535603,0.657738,0.698685,0.353778,-0.621836
0.305210,0.183412,0.165843,0.924639,0.079329,-0.372490
0.119922,0.724070,0.707326,0.993088,-0.003923,-0.117303
-0.081469,0.304072,0.901030,0.367788,-0.507015,0.779530
-0.143728,0.466874,0.669595,-0.352938,0.651251,0.671794
0.394490,0.199892,0.694625,0.809396,0.056480,0.584540
0.404225,0.043561,0.679120,0.828763,0.552944,-0.086054
0.268971,-0.244977,-0.968050,0.954275,-0.187661,0.232683
-0.307320,-0.059291,0.711874,0.686389,-0.401736,-0.606200
0.204140,-0.393742,-0.724886,-0.199417,0.977998,-0.061258
0.237109,-0.179033,-0.963634,0.360270,0.907264,0.216972
0.644666,0.193467,0.972788,0.884780,-0.136432,0.445590
0.151833,-0.043208,0.888243,-0.451857,0.425951,-0.783831
0.119181,0.033990,0.908466,0.241007,-0.915771,-0.321371
0.274937,0.368186,0.820597,-0.174251,0.953555,-0.245701
-0.188874,0.044387,0.697962,0.351492,-0.838892,-0.415589
0.181471,0.144643,0.834517,0.251279,0.871609,0.420899
0.457117,-0.102396,0.175699,0.854102,0.510508,-0.099451
0.134310,0.014145,0.208923,-0.398275,-0.899564,0.179337
0.234199,-0.227929,-0.296862,0.917628,-0.365949,-0.155046
0.392166,-0.447587,0.690025,-0.284379,-0.773665,0.566190
0.319256,0.068628,0.124586,-0.372931,0.890331,-0.261213
0.225262,-0.014700,0.136295,0.430482,-0.714064,0.552085
0.169016,-0.241651,-0.088568,-0.008257,-0.946085,0.323813
0.164629,0.046141,0.795626,0.594414,-0.798348,-0.096501
-0.038560,-0.358136,-0.527840,0.979145,0.203040,0.007114
0.260331,0.471327,0.637396,-0.351962,0.654707,-0.668940
0.276001,0.194509,0.743656,0.941250,0.194542,-0.276047
-0.101245,0.398315,0.534910,-0.546839,-0.297514,-0.782593
0.312157,-0.394933,-0.428611,-0.612835,-0.376661,0.694665
0.516112,-0.069541,0.693445,0.201185,-0.799826,0.565511
-0.131419,-0.418079,-0.981952,-0.296887,0.059446,0.953060
0.106644,-0.064016,0.027900,-0.085420,-0.883841,0.459922
0.234989,0.112716,0.740863,0.816387,0.532693,0.223049
0.362801,0.463986,0.902207,-0.670274,0.679133,0.299184
0.167128,-0.048543,0.055721,0.066078,-0.016162,0.997684
0.515036,0.204170,0.387529,-0.136314,-0.943858,-0.300915
0.210145,-0.461106,-0.552035,0.956011,0.150345,0.251873
-0.098497,-0.162180,0.668113,0.073819,-0.270590,0.959860
-0.731780,0.818941,0.739720,-0.640630,0.394652,-0.658667
0.401610,0.151433,0.906548,-0.289590,0.821814,0.490673
0.331298,-0.340508,-0.418210,0.983944,0.056739,-0.169216
-0.467978,0.243556,0.748187,-0.330042,-0.912833,0.240434
0.344445,0.186741,0.793683,-0.173256,0.698578,0.694242
0.269088,0.341414,0.761090,-0.706255,0.549132,-0.446832
0.205682,-0.432333,-0.445404,0.807352,0.524191,0.270936
0.410505,-0.017042,0.164224,0.698379,0.654634,-0.289346
0.201878,-0.340128,-0.414007,-0.262754,-0.959311,0.103356
0.405914,0.478370,0.671296,0.910426,-0.394077,-0.125808
0.003178,-0.828675,-0.976058,-0.485049,0.279492,0.828620
0.584639,-0.655029,-0.959604,-0.229259,-0.853854,-0.467304
0.400143,0.346053,0.705500,0.782742,0.260486,-0.565210
-0.236178,0.426277,0.761309,0.438670,-0.845567,-0.304278
0.232854,-0.346965,-0.950986,-0.234427,0.467569,0.852305
0.229423,-0.443397,-0.943556,-0.180325,-0.945822,-0.270005
0.169473,-0.437515,-0.889485,0.758253,0.588316,-0.280956
0.376658,0.070071,0.191322,0.081457,0.970653,0.226271
0.237640,-0.350557,-0.358531,0.952891,0.303129,0.010536
0.131940,-0.185982,-0.961313,0.674013,-0.638891,-0.370842
0.145064,0.049176,0.487403,0.445154,0.862499,0.240695
0.328738,-0.468320,-0.960025,0.825181,-0.055514,0.562134
0.405964,0.107804,0.840471,-0.617733,-0.777653,-0.116883
0.288264,0.276391,0.659631,0.814190,-0.204903,-0.543240
0.499680,-0.333011,-0.965981,0.419226,0.602222,-0.679396
0.685480,0.322935,0.863713,-0.098888,0.734488,0.671378
-0.082286,0.396214,0.578770,0.324022,-0.533014,0.781605
0.651187,0.283022,0.786541,-0.708413,0.591562,0.384974
0.093127,-0.408975,-0.631274,0.997240,0.055198,0.049657
0.576374,-0.716863,-0.940888,-0.249633,-0.018611,0.968162
0.121671,-0.464783,-0.971964,-0.538004,0.093693,0.837719
-0.534784,0.549959,0.694557,-0.438578,-0.860426,0.259455
0.677347,0.340654,0.410105,0.502921,-0.711837,0.490264
-0.425582,0.510007,0.666171,0.381486,-0.835303,0.395900
0.149215,0.273419,0.802130,-0.242480,0.149354,0.958591
0.459750,-0.038379,0.623757,0.606839,0.593538,-0.528639
0.157705,-0.941157,-0.954085,0.500764,-0.666427,-0.552367
0.393013,0.196977,0.417966,0.521937,-0.710898,0.471388
0.162808,-0.065936,0.196686,0.726964,-0.317889,-0.608662
0.663591,0.387666,0.778240,0.930542,-0.004840,-0.366154
0.486641,0.379858,0.844657,-0.176977,-0.970910,0.161288
0.457223,0.291041,0.949316,0.578177,0.695908,0.425939
-0.160177,0.306849,0.741059,0.064984,0.717594,0.693423
0.360164,-0.303287,-0.228433,0.834568,0.520748,0.179770
0.093029,-0.367379,-0.959602,0.288104,0.522043,-0.802787
0.161476,-0.468838,-0.950883,0.668875,-0.252155,0.699303
0.176288,0.285461,0.800872,0.015260,0.411457,0.911301
0.195033,-0.307055,-0.163209,0.184488,0.940365,0.285793
0.062816,0.423576,0.584659,-0.492500,-0.508136,-0.706571
0.064089,-0.242003,-0.965455,0.443511,0.047380,-0.895016
0.296366,-0.173659,0.545576,-0.688062,0.387877,0.613287
0.182222,-0.019608,0.246700,0.774784,0.614395,0.149091
0.188709,0.138760,0.799045,0.500667,0.842231,0.199948
0.277519,0.278852,0.612505,-0.296433,-0.125836,-0.946727
-0.210387,-0.435436,-0.971465,-0.076053,-0.987308,0.139426
0.009519,-0.830946,-0.970337,-0.637544,0.149683,0.755734
-0.176611,-0.078364,0.942859,0.583575,0.601669,0.545376
-0.029727,-0.610108,-0.964463,-0.038451,-0.025662,0.998931
0.077426,0.193274,0.833450,0.869828,0.242517,-0.429634
0.154097,-0.226773,-0.965253,-0.345229,0.009307,-0.938472
-0.430147,0.548561,0.741589,0.827954,0.548273,0.117850
0.206099,-0.236374,-0.376513,0.973169,0.036536,0.227173
-0.033207,0.185876,0.956176,0.915493,-0.365056,-0.169137
0.433989,-0.350256,-0.949795,0.128958,0.002927,0.991646
0.387698,0.579214,0.756202,0.383879,-0.373815,0.844334
0.494620,0.208908,0.788285,-0.506759,0.841692,-0.186414
0.345368,0.262399,0.694076,0.174003,-0.007259,0.984718
0.189360,-0.184861,0.037865,0.592578,0.781830,0.193891
0.169383,-0.421418,-0.617865,-0.434549,0.806336,-0.401234
0.553898,0.219636,0.537424,-0.558376,0.790710,-0.250985
0.289361,0.013512,0.876297,-0.187990,-0.968091,0.165710
0.290844,-0.022616,0.808745,0.805652,-0.582928,0.105454
0.179200,0.340381,0.890229,-0.285835,0.338610,-0.896461
0.251459,0.371127,0.822994,0.115211,-0.913508,0.390166
0.245802,-0.369909,-0.551445,0.983898,-0.177289,0.022670
0.403405,0.075850,0.247671,0.779137,0.487582,-0.393966
0.214507,-0.379052,-0.964826,0.901266,0.237282,0.362515
0.265439,-0.945350,-0.943422,-0.516317,0.656643,0.549761
-0.077352,0.370396,0.585723,0.857870,-0.228358,-0.460339
-0.014352,0.824434,0.813428,-0.579329,0.608681,-0.542112
0.270924,-0.249998,0.601893,-0.562980,0.031838,-0.825857
-0.201651,-0.504268,-0.995111,-0.550996,-0.585805,0.594336
-0.032748,0.635861,0.603779,0.205411,-0.616291,0.760257
0.101707,0.110634,0.239517,0.884291,0.205117,-0.419471
0.374387,-0.276726,-0.185098,0.991333,0.124602,-0.041642
0.099243,-0.391026,-0.669237,0.991707,0.015610,0.127569
0.425887,0.269276,0.826623,0.678406,0.289487,-0.675250
0.218996,-0.182415,-0.168539,0.104514,0.963453,-0.246649
0.093908,-0.135296,0.068570,0.985685,0.150867,-0.075254
0.302777,-0.336352,-0.965286,-0.549498,0.388882,0.739475
0.512302,-0.305812,-0.950831,-0.736595,-0.255692,0.626139
0.402868,0.045059,0.779719,-0.207377,-0.760494,-0.615340
0.399851,0.294833,0.650342,-0.539895,-0.205461,0.816272
0.107398,0.132385,0.920850,-0.114896,0.901734,0.416743
0.845552,0.328844,0.765507,0.578157,0.003860,-0.815916
0.404567,0.160801,0.694272,0.184653,0.801657,0.568551
0.016949,0.393304,0.672177,0.989897,-0.131446,0.053167
0.183293,0.239102,0.696194,-0.476011,0.765676,0.432613
0.711584,-0.651751,-0.944035,-0.772194,0.555444,-0.308542
0.020589,0.104879,0.228242,-0.946927,0.035560,0.319474
0.499946,0.133930,0.935332,0.986790,-0.034407,-0.158311
0.448522,0.281983,0.809123,0.887879,-0.459022,-0.031150
-0.513210,0.712254,0.824040,0.927180,-0.237372,-0.289813
0.220140,-0.244870,-0.359370,0.986807,0.156435,-0.041718
0.103735,0.004350,0.970656,0.917682,-0.197616,0.344684
-0.017071,0.260929,0.585540,-0.092879,-0.176402,0.979926
0.215696,-0.245697,-0.109736,-0.602625,0.180261,-0.777399
0.340714,0.372724,0.770430,-0.171493,-0.981015,0.090548
0.623758,0.012985,0.651522,0.702226,0.450094,-0.551628
-0.114526,-0.814946,-0.981921,-0.016250,0.050580,0.998588
0.484322,-0.328981,-0.959481,0.102492,-0.961063,0.256618
0.120315,-0.484172,-0.821287,0.936352,-0.107352,-0.334247
-0.257643,0.406654,0.723003,-0.053886,-0.522374,0.851012
0.209194,0.096283,0.499397,-0.458478,-0.828894,-0.320519
0.255489,0.319250,0.839619,0.250835,-0.792168,0.556374
0.066323,-0.062683,0.186377,-0.092387,0.614709,0.783324
0.109806,-0.421045,-0.868046,0.051679,-0.997795,0.041635
0.318997,0.487701,0.746155,-0.200838,0.891237,0.406646
0.141915,0.165974,0.396240,0.240770,-0.891825,0.382985
0.011395,-0.428494,-0.983353,-0.423699,0.073747,0.902796
-0.337953,0.395983,0.710299,0.843363,0.492825,0.214157
-0.800452,0.862038,0.747283,-0.723015,0.498868,-0.477891
-0.049988,0.201279,0.765194,0.459700,0.886107,-0.059081
-0.170775,0.131322,0.727481,-0.380729,0.566067,-0.731173
0.251342,-0.429195,-0.920504,-0.616555,-0.746264,0.250897
0.667859,-0.054625,0.650488,0.847967,0.204023,-0.489210
0.251174,0.185541,0.710174,0.457499,0.820630,0.342433
-0.032806,-0.692436,-0.982340,0.261566,-0.291552,-0.920098
0.067098,-0.408511,-0.532809,-0.629532,0.765195,0.134785
0.135969,-0.328453,-0.505161,-0.348942,-0.103541,0.931407
0.480420,0.245787,0.529105,0.642238,-0.559831,-0.523565
0.078977,0.005716,0.958593,0.818784,-0.129943,-0.559203
0.145117,0.097543,0.651714,0.980698,0.136105,-0.140379
0.175632,-0.408565,0.682076,-0.156367,-0.641243,-0.751237
0.220478,-0.195088,-0.061111,0.410803,0.905301,-0.108035
0.651583,-0.319569,-0.959979,-0.284526,0.083194,0.955052
0.091672,-0.757585,-0.960822,0.596637,0.136009,-0.790902
0.252571,0.252418,0.823357,0.892765,0.322221,-0.314873
0.215349,0.501317,0.848539,-0.434275,0.628181,-0.645596
0.216120,0.204969,0.794980,0.230330,0.823540,0.518392
0.446880,0.846139,0.781205,0.066294,-0.847685,0.526342
0.092485,-0.166686,0.624322,-0.295364,0.934044,0.200806
0.403730,0.542489,0.717978,0.289751,0.580898,-0.760658
0.539662,0.179533,0.302923,0.857844,0.411205,-0.308243
0.168217,0.200691,0.906987,0.238376,0.885919,-0.397899
-0.085691,0.310603,0.556752,-0.485151,0.612446,-0.624130
0.436390,0.395269,0.716620,0.458875,-0.029162,0.888022
0.506412,-0.346943,-0.938639,-0.304547,0.149683,0.940663
0.120266,-0.028270,0.149690,-0.431703,-0.775725,-0.460309
0.185716,0.178121,0.552462,-0.334956,0.781160,-0.526871
0.417872,0.147152,0.710675,-0.726465,0.345803,0.593859
0.137316,-0.132845,0.088268,0.370702,0.814889,-0.445573
0.390086,-0.293756,-0.400083,0.079962,-0.996755,0.009194
-0.107539,0.728123,0.649010,0.776774,0.612237,0.147605
0.738329,0.508105,0.801495,0.262404,0.641391,0.720945
0.145252,-0.373888,-0.727185,0.006009,0.998527,0.053915
-0.791393,0.735396,0.720515,-0.088161,-0.630796,0.770924
0.469212,0.152649,0.306927,-0.473137,0.880955,0.007715
0.141024,-0.166790,-0.044831,0.580583,0.491620,-0.649025
0.219261,-0.296923,0.653464,0.854593,0.504003,0.125108
0.442688,0.093633,0.907249,0.538394,-0.639954,-0.548262
0.148936,-0.119310,-0.976293,-0.281338,0.389323,0.877084
0.260790,0.045683,0.886432,-0.485981,0.533215,-0.692462
0.254704,-0.114061,0.054516,0.247007,-0.744726,0.619976
0.161344,0.112910,0.419683,0.236035,-0.925524,-0.296131
0.281376,0.190416,0.928161,-0.211877,0.367953,0.905383
0.351502,-0.126880,0.934801,-0.467142,0.830910,0.302270
0.300647,-0.560009,-0.955652,-0.044896,-0.444600,0.894603
0.462073,-0.085740,0.771149,0.935204,-0.331498,0.124512
0.358955,0.287515,0.689330,0.679738,-0.560742,-0.472784
0.319288,-0.263461,-0.433834,0.951164,-0.246715,-0.185521
0.028409,0.154053,0.457863,0.854282,0.414368,0.313849
0.622611,-0.105592,0.564344,0.884208,-0.027316,-0.466295
0.361797,-0.401367,-0.957648,0.338410,-0.110349,-0.934506
0.433619,-0.402382,-0.947108,-0.509348,0.163057,0.844972
0.519662,0.460081,0.790149,-0.686174,0.580759,0.438046
0.231518,-0.090166,0.783337,-0.084725,-0.877325,0.472358
0.356021,-0.190512,-0.370504,0.285665,0.927463,-0.241262
0.432002,0.080746,0.217974,-0.406043,-0.800190,0.441391
-0.043475,-0.642843,-0.975372,0.918406,0.284504,0.274933
0.061413,0.144802,0.323662,-0.587839,0.808962,0.005075
0.142322,-0.522041,-0.572652,-0.340800,0.055048,-0.938523
0.001901,0.389094,0.908927,0.753701,0.228153,-0.616345
0.312255,-0.274911,-0.421433,0.995433,-0.018616,-0.093629
0.086546,-0.125682,0.160681,0.720798,0.350169,-0.598191
0.192613,-0.102918,0.145116,0.772006,0.460273,-0.438356
0.019421,0.099322,0.903725,0.829851,-0.445086,0.336519
-0.159331,-0.382987,-0.967416,0.462444,-0.626637,-0.627273
0.162522,-0.417685,-0.622948,-0.215087,0.944807,-0.247138
0.005081,-0.807560,-0.976691,0.930100,-0.047287,-0.364250
