-0.112233,-0.034264,0.134548,-0.291626,0.955242,0.049670
-0.110987,-0.035441,0.103219,-0.601478,-0.780232,-0.171647
-0.124599,-0.065300,0.080090,0.892128,-0.259084,0.370112
0.072889,0.244307,0.743005,0.398251,-0.639892,0.657218
0.232905,0.551483,0.635220,-0.335837,-0.411501,-0.847278
0.207673,0.496374,0.590347,-0.324296,0.943214,-0.071965
-0.090500,-0.084596,0.712864,0.873439,0.182148,0.451581
-0.143088,-0.191374,0.711054,-0.480533,-0.772394,-0.415325
0.173695,0.419537,0.520535,0.178683,0.700609,0.690811
-0.371557,-0.641570,0.770546,-0.406043,0.895065,-0.184355
-0.381922,-0.665060,0.748547,0.654724,-0.692229,-0.303570
0.183812,0.431870,0.457255,-0.529841,0.749413,-0.397051
-0.137343,-0.196745,0.565351,0.498847,-0.860562,0.102885
-0.374553,-0.659188,0.660809,0.007171,0.975479,0.219974
0.162328,0.381369,0.380883,-0.104007,-0.292429,0.950615
-0.372430,-0.659776,0.631120,0.834470,-0.541451,0.102422
-0.276747,-0.481526,0.522769,-0.557848,-0.820297,0.126171
0.051027,0.125027,0.111900,-0.555397,-0.830339,0.045506
0.067643,0.153294,0.073332,0.906265,0.417925,-0.063425
-0.013302,-0.010692,0.057583,-0.252500,0.822620,-0.509451
-0.051400,-0.088288,0.047856,-0.051016,0.968783,-0.242604
-0.027292,-0.204629,0.770037,-0.474761,0.814108,0.334411
-0.082255,-0.325671,0.686907,0.991600,-0.129311,0.002761
0.269127,0.348991,0.477868,0.184980,0.555532,0.810658
-0.326837,-0.811096,0.699094,0.876048,0.475673,-0.079213
0.315848,0.429520,0.365105,0.327888,0.758004,0.563843
-0.317967,-0.798849,0.667284,0.986101,-0.041342,-0.160921
0.260008,0.316783,0.365699,0.073102,0.790235,-0.608429
0.227781,0.250600,0.352721,0.783531,0.534409,-0.316995
-0.237646,-0.655163,0.539734,-0.604951,0.790394,0.096497
-0.154330,-0.498217,0.466444,-0.203272,0.908077,-0.366165
-0.101243,-0.399825,0.408763,-0.577632,0.787988,-0.213111
-0.161451,-0.519689,0.412636,0.907657,-0.219239,0.357902
0.143214,0.048861,0.099798,0.933584,0.357468,-0.025238
0.133970,0.026886,0.074180,0.936101,0.348325,-0.048840
0.117109,-0.009351,0.053850,0.982814,-0.180045,-0.040741
0.117483,-0.012710,0.024189,0.998061,-0.054312,0.030403
0.098994,-0.052552,0.003492,0.786936,-0.612066,0.078146
0.049155,-0.246657,0.804730,0.917629,-0.244728,-0.313154
-0.067514,-0.484291,0.778406,-0.461240,0.386867,0.798493
0.024422,-0.326761,0.591026,-0.568462,-0.822662,-0.008869
0.385799,0.366189,0.374069,-0.495567,0.181764,-0.849338
0.003563,-0.375665,0.543749,-0.166373,0.983375,-0.072764
0.365435,0.321396,0.355039,-0.652194,0.561455,-0.509325
0.380302,0.345807,0.318819,0.732851,-0.283260,0.618622
0.020423,-0.351172,0.479225,0.400963,0.915530,0.032156
0.017427,-0.361238,0.451572,0.536434,0.841254,0.067313
0.027670,-0.350000,0.388320,0.746893,0.664939,-0.002555
0.043159,-0.327770,0.320515,0.911751,0.397435,-0.103710
0.027419,-0.361407,0.300213,0.038120,-0.996476,-0.074720
0.015803,-0.388920,0.278046,-0.153209,0.960947,0.230453
-0.044157,-0.562721,0.791837,-0.054235,0.992225,-0.112018
0.112363,-0.273495,0.627331,0.372998,-0.913131,0.164515
0.449129,0.364259,0.367141,0.930953,-0.144174,0.335469
0.451004,0.359313,0.306660,0.954485,-0.208756,0.213026
0.100370,-0.341189,0.316811,-0.522419,-0.850683,0.058457
0.100244,-0.350251,0.257263,-0.627697,-0.585849,-0.512619
0.236026,-0.145911,-0.210581,-0.825990,-0.559219,-0.070812
0.210295,-0.199678,-0.227489,-0.594829,0.799519,-0.083352
0.188307,-0.314433,0.810810,0.884745,0.087020,-0.457880
0.237776,-0.232814,0.702967,-0.047154,0.853694,0.518636
0.081882,-0.537306,0.753552,-0.366760,0.831949,-0.416352
-0.004935,-0.719247,0.685013,0.996181,0.067668,0.055179
0.171195,-0.428260,0.278046,0.103473,0.993916,0.037750
0.191433,-0.402590,0.177216,-0.199935,-0.978641,0.047826
0.202297,-0.386319,0.142352,0.139606,-0.237399,-0.961328
0.263633,-0.366352,0.820819,0.405442,0.849769,-0.336911
0.268753,-0.362077,0.790225,0.247865,0.910317,0.331490
0.241272,-0.419199,0.775748,-0.804292,0.294673,0.516026
0.245271,-0.420545,0.718038,0.984782,0.172354,0.022347
0.234151,-0.446548,0.696351,-0.566340,0.651367,0.504955
0.205172,-0.505851,0.682298,-0.351969,0.931825,-0.088432
0.170322,-0.581598,0.644183,-0.554480,0.115226,0.824181
0.226409,-0.478506,0.586643,0.785524,0.576107,-0.225948
0.204547,-0.525060,0.569197,0.784071,0.576180,-0.230759
0.232653,-0.475567,0.526840,-0.020449,0.963915,0.265424
0.216913,-0.514743,0.478178,-0.333897,0.820889,0.463308
0.358566,-0.352851,0.817709,0.284032,-0.872719,-0.397097
0.354445,-0.366352,0.791696,-0.261994,-0.936326,0.233778
0.262883,-0.556347,0.754146,0.140978,0.228549,-0.963271
0.347576,-0.402759,0.655069,0.671607,-0.670096,0.316093
0.335582,-0.429013,0.633439,-0.547645,0.787044,-0.283982
0.337580,-0.455436,0.461383,-0.698270,-0.681783,0.218153
0.428895,-0.394957,0.858227,0.325104,-0.945626,-0.009908
0.475612,-0.311243,0.806993,0.561147,0.814340,0.148203
0.465243,-0.335736,0.785079,0.649579,0.659482,-0.378326
0.484730,-0.308140,0.719650,0.890059,0.295327,0.347242
0.391418,-0.524558,0.542590,-0.733389,-0.673126,-0.095095
0.550561,-0.369040,0.805664,0.180696,0.314302,0.931967
0.018052,0.801788,0.513353,0.814466,0.579150,-0.035072
0.043159,0.791554,0.517481,0.850868,0.516595,0.095672
0.042408,0.787612,0.510271,-0.686902,-0.502246,0.525275
0.078508,0.740725,0.516067,0.678892,0.648749,-0.343847
-0.162076,0.539237,0.698528,-0.764991,0.569446,-0.300865
-0.158077,0.537895,0.671327,-0.096592,-0.032077,0.994807
-0.357689,0.409809,0.647322,0.899031,-0.195752,-0.391694
0.150209,0.711112,0.512929,0.771429,0.636241,0.009723
0.127600,0.691483,0.461185,0.743908,0.649690,-0.156535
-0.408278,0.324499,0.744900,-0.502373,-0.612532,-0.610267
-0.087252,0.515916,0.668556,0.733198,-0.517762,0.440843
-0.178189,0.457454,0.655861,-0.314437,0.742329,-0.591672
-0.457870,0.284406,0.672345,0.276919,0.616790,-0.736808
0.186561,0.662208,0.461807,0.894106,0.217129,-0.391702
-0.158203,0.436396,0.378169,-0.178527,-0.965469,0.189729
0.008682,0.513402,0.644240,0.067137,-0.349960,0.934356
-0.555303,0.167470,0.703165,0.960712,-0.197280,0.195224
0.138841,0.572623,0.459177,-0.420576,0.871902,0.250804
-0.591655,0.121254,0.794353,0.771277,-0.508969,0.382209
0.085629,0.526570,0.637114,-0.094866,-0.780730,0.617625
-0.561676,0.129809,0.709018,0.919145,-0.172222,-0.354277
-0.661732,0.066227,0.697030,-0.692456,0.165707,-0.702172
0.249643,0.613304,0.500658,-0.511883,-0.149116,0.846015
0.235276,0.601396,0.475775,0.549764,0.835177,-0.015460
0.204547,0.579248,0.452420,-0.329680,-0.909270,0.254044
-0.024296,0.427339,0.376783,0.189706,-0.147016,0.970772
-0.468738,0.136434,0.786436,-0.556650,0.200220,0.806259
-0.486228,0.122595,0.762883,-0.039156,0.878016,0.477027
-0.638623,0.026886,0.759886,0.356767,-0.595101,0.720120
0.204547,0.539406,0.630668,0.156960,0.587261,0.794033
0.139467,0.496456,0.612656,-0.015475,0.967574,-0.252112
0.205046,0.533615,0.575615,0.521233,0.831455,-0.192351
0.057400,0.351259,0.513494,0.110420,-0.981226,0.158124
-0.407158,0.095921,0.802977,0.217357,0.422351,0.879986
-0.336955,-0.288511,0.775437,0.711765,0.131955,-0.689911
-0.133470,-0.200098,0.500771,0.877681,0.441769,0.185786
0.066519,-0.331712,-0.977578,-0.292122,0.286070,0.912595
0.177816,-0.289013,-0.977323,-0.391614,0.248003,0.886077
0.027670,-0.383550,-0.978030,0.495834,-0.057061,-0.866540
-0.126101,-0.238435,0.767859,-0.056686,0.990583,-0.124631
0.060149,-0.423141,-0.976107,0.420155,-0.033633,-0.906829
0.011305,-0.212181,0.778972,0.293078,0.862366,0.412833
0.373307,-0.300256,-0.971301,0.291599,-0.084654,-0.952787
0.391418,-0.333135,-0.565945,0.700434,0.712083,-0.048278
0.382551,-0.343037,-0.594588,0.904749,0.425255,0.024232
0.404783,-0.334062,-0.628123,0.989298,0.118236,0.085494
0.429017,-0.332214,-0.722308,-0.792518,-0.548148,-0.267298
0.424648,-0.348571,-0.814033,0.939980,-0.281963,0.192183
0.415525,-0.376674,-0.964203,-0.411316,0.025739,0.911129
0.271875,-0.467263,-0.966324,0.019946,-0.029471,0.999367
0.024922,-0.622950,-0.977125,-0.115303,0.185826,0.975794
-0.103492,-0.492764,0.462457,0.099615,-0.810918,0.576618
0.293112,-0.370714,-0.399234,0.931976,0.339694,-0.126604
-0.443506,-0.724869,0.705936,-0.675251,-0.345405,-0.651714
0.511586,-0.370551,-0.952045,0.518728,0.001128,-0.854938
0.395291,-0.444618,-0.958492,0.370233,0.048773,-0.927658
0.270004,-0.523800,-0.964317,0.318536,-0.036043,-0.947225
0.178190,-0.582939,-0.976899,-0.219308,-0.015278,0.975536
0.022173,-0.681417,-0.975966,-0.050344,-0.124908,0.990890
-0.031166,-0.459967,0.748576,-0.546772,0.390342,-0.740725
-0.424396,-0.709684,0.729971,0.963885,0.252667,-0.084169
0.313347,-0.335153,0.781799,0.512080,-0.691832,-0.509061
0.333208,-0.401499,0.798510,0.811055,-0.303374,0.500154
0.316347,-0.416096,0.773910,0.919237,-0.371251,0.131061
0.212293,-0.487061,0.736530,0.970925,0.202716,0.127325
0.228532,-0.481439,0.708001,-0.528196,0.558067,-0.639977
0.241646,-0.477497,0.678622,0.948526,-0.244654,0.201106
0.260759,-0.470534,0.649273,0.299225,-0.773054,0.559332
0.233526,-0.603827,0.750640,0.940293,-0.223065,-0.257083
0.422399,-0.495283,0.694032,-0.926885,0.288511,-0.240094
0.504217,-0.554673,0.727086,0.716728,0.598117,0.358550
0.472364,-0.446128,0.812223,-0.652259,0.717829,-0.243472
0.370558,-0.498888,0.454484,0.366673,0.914059,-0.173341
0.339955,-0.404269,-0.271825,-0.426355,-0.898599,-0.103637
0.381427,-0.306211,-0.556303,0.758144,0.638582,0.132022
0.365313,-0.331712,-0.515559,0.924988,0.343513,0.162467
0.369186,-0.332465,-0.484738,-0.444627,0.851073,0.279250
0.354818,-0.356625,-0.443683,-0.384217,0.916376,0.112390
0.322591,-0.430774,-0.232098,-0.747300,-0.614184,-0.253615
0.315222,-0.446128,-0.195764,-0.772368,-0.577398,-0.264686
0.372807,-0.501156,0.483353,0.947473,0.157031,-0.278633
0.409655,-0.461396,0.497406,0.807879,0.524113,-0.269512
0.333208,-0.427001,0.791639,0.873048,-0.464682,-0.147845
0.465369,-0.272241,0.767520,0.961443,-0.092821,-0.258867
0.404535,-0.351341,0.819208,0.279291,-0.686192,-0.671667
0.415152,-0.344040,0.842309,-0.305614,0.928498,0.210928
0.454874,-0.442268,0.679612,0.975300,0.219054,-0.028386
0.440510,-0.465338,0.714362,-0.481470,-0.861163,-0.163048
0.472364,-0.431363,0.729009,0.352024,0.796399,-0.491761
0.440384,-0.474896,0.769302,-0.481648,0.863134,0.151707
0.132472,-0.401837,0.332504,0.428031,0.891864,-0.146177
-0.234902,-0.859329,0.522486,-0.441958,0.537717,0.718007
-0.180439,-0.798686,0.527519,-0.155169,0.941633,0.298746
0.226409,-0.414253,0.099996,0.948868,0.018366,-0.315137
0.232405,-0.466428,0.400761,-0.602425,0.738482,0.302868
0.400037,-0.477497,0.530742,0.883298,-0.449997,-0.131480
0.442885,-0.431445,0.541204,0.921903,0.378682,-0.081820
0.414027,-0.481526,0.638472,0.812626,0.459813,-0.358066
0.450254,-0.442350,0.652552,0.676146,0.433934,-0.595422
0.547561,-0.360316,0.810612,-0.391175,0.768329,-0.506609
0.336955,-0.384138,-0.402655,0.946387,0.322377,0.020629
0.328835,-0.400409,-0.365134,0.888184,0.458963,-0.021958
0.341327,-0.391434,-0.337480,0.931397,0.363712,-0.014590
0.338579,-0.400409,-0.302984,0.402101,0.902384,0.154978
0.238901,-0.173511,-0.183691,0.963295,-0.012794,0.268139
0.096997,-0.426161,0.257122,0.162638,0.979870,-0.115774
0.229157,-0.417355,0.130222,-0.248824,0.964939,-0.083537
0.226031,-0.427421,0.161778,-0.025100,0.968236,0.248775
0.212540,-0.507950,0.498169,0.086795,-0.977225,0.193642
0.208545,-0.518686,0.528424,-0.828730,-0.189816,0.526476
0.192306,-0.544100,0.564899,-0.787629,0.403879,0.465320
0.243647,-0.486728,0.571685,-0.282648,0.885992,-0.367597
0.053775,-0.723860,0.679980,0.990448,0.000747,0.137885
0.258884,-0.479596,0.623627,-0.673476,0.714320,0.190204
0.258137,-0.486052,0.653033,-0.426809,0.899951,-0.089006
0.325713,-0.211930,-0.361486,0.933372,-0.275935,0.229513
0.319595,-0.225687,-0.326396,0.995935,-0.054555,0.071680
0.330963,-0.217884,-0.298376,0.913647,0.325411,0.243633
0.064895,-0.370632,0.432514,0.804534,0.573021,0.156112
-0.183435,-0.813866,0.586614,0.723251,0.589279,-0.360081
0.256760,-0.493266,0.681478,0.943242,0.044519,0.329108
0.328214,-0.411401,0.679867,-0.078922,0.870120,0.486480
0.289739,-0.463740,0.724513,-0.299351,0.952234,0.060328
0.320594,-0.431865,0.739641,-0.589064,-0.760735,0.272555
0.303356,-0.458206,0.775296,0.621833,-0.666704,0.410888
0.155454,-0.360147,0.260967,0.700233,0.699952,0.140502
0.142589,-0.382628,0.297442,0.239508,0.970764,0.015923
-0.099241,-0.480185,0.079383,-0.502583,-0.354727,-0.788403
0.203799,-0.203288,-0.231929,0.807237,-0.585330,0.075876
0.225909,-0.182399,-0.210581,-0.701610,-0.710017,0.060156
-0.023419,-0.339514,0.361147,0.954418,0.118142,0.274097
-0.166448,-0.521957,0.452335,0.348358,0.931729,-0.102604
0.009308,-0.352012,0.582797,-0.582028,-0.813034,0.014782
0.014678,-0.351592,0.608867,0.319930,0.944491,-0.074710
0.152832,-0.148762,-0.132032,0.943866,-0.325779,0.054638
0.158203,-0.148599,-0.103191,0.554984,-0.831845,0.005277
0.174694,-0.135092,-0.078280,-0.636116,0.739424,-0.220476
0.068516,-0.372480,0.460987,0.831183,0.553934,0.047873
0.070015,-0.376674,0.489036,0.750670,0.615732,-0.239519
-0.292109,-0.833997,0.700310,0.872533,0.481783,-0.081065
-0.120479,-0.641739,0.714051,-0.619606,0.457019,0.638139
-0.210668,-0.634612,0.731950,-0.136827,-0.979883,-0.145287
-0.048903,-0.448893,0.721714,0.151901,0.681642,0.715744
0.025920,-0.363839,0.719933,-0.061446,0.265558,0.962135
-0.008304,-0.411985,0.762826,0.754839,0.401109,0.518970
0.064769,-0.357044,0.371778,0.487996,0.872703,0.015804
0.060023,-0.369793,0.404295,0.664299,0.743989,0.072015
0.122103,-0.362497,0.698330,0.862687,0.489095,0.128674
-0.026793,-0.550894,0.788133,0.307853,0.672139,-0.673392
0.144590,-0.365938,0.832469,-0.346151,0.431814,-0.832896
0.088629,-0.125027,-0.029251,0.788903,-0.608710,0.084287
0.155207,-0.050033,-0.028403,0.877797,-0.351428,0.325532
0.153957,-0.059013,0.004340,0.891634,-0.428072,0.147454
0.240899,0.041565,-0.002785,0.960704,-0.089425,0.262776
-0.044904,-0.265861,0.382551,0.761966,0.646844,0.031643
-0.089250,-0.327268,0.432061,0.884413,-0.364810,-0.291079
-0.227156,-0.504089,0.521270,0.842310,0.113806,0.526842
-0.002060,-0.286417,0.686596,0.975186,0.187787,-0.117251
-0.220035,-0.594683,0.504305,0.956122,-0.160401,0.245157
-0.263881,-0.655665,0.553052,0.762541,-0.571756,-0.302697
-0.325587,-0.737699,0.607793,0.987103,0.153853,0.044237
-0.023671,-0.446799,0.321137,0.566979,-0.823345,0.025251
-0.115107,-0.565491,0.390440,-0.732817,0.664860,0.144706
-0.232527,-0.716898,0.471930,0.556741,0.765268,0.323116
-0.319842,-0.736865,0.634598,0.957711,0.070800,-0.278886
-0.015799,-0.369291,0.535153,0.088779,0.987980,-0.126544
-0.033289,-0.397808,0.572279,0.288499,-0.896872,0.335245
0.034665,-0.254373,0.728528,-0.248411,-0.543030,0.802129
0.113735,-0.020676,0.099063,0.961010,0.276458,-0.005529
-0.295109,-0.533113,0.312344,-0.172436,0.812446,-0.556953
-0.279495,-0.485970,0.585201,0.594844,-0.461988,-0.657821
0.375678,0.306548,0.366915,-0.444620,0.801713,-0.399461
-0.431639,-0.692906,0.735117,0.900523,-0.386947,-0.198320
0.421023,0.354951,0.378536,-0.424530,0.193712,-0.884449
-0.046029,-0.245818,0.690159,0.416529,0.875452,0.245126
-0.476732,-0.625888,0.554890,0.973846,-0.164089,-0.157157
-0.027917,-0.249673,0.795004,-0.438677,0.756763,0.484636
-0.058273,-0.107159,0.033605,-0.557149,-0.830357,0.009599
-0.044782,-0.098353,0.059619,-0.216861,0.891964,-0.396700
0.095247,0.067988,0.027300,0.891312,0.450668,-0.049606
0.094747,0.052803,0.090099,0.848430,0.463043,-0.256433
-0.365560,-0.522377,0.324559,0.716526,-0.589155,0.373479
-0.267628,-0.457535,0.520733,-0.557848,-0.820297,0.126171
-0.270000,-0.467683,0.551609,0.809454,-0.568203,0.148087
-0.358314,-0.678228,0.634004,-0.314796,-0.798185,0.513618
-0.376677,-0.706663,0.671158,-0.267584,0.941581,0.204510
-0.368057,-0.703391,0.695757,0.965383,-0.082770,0.247355
-0.289239,-0.613555,0.691827,0.166870,0.728702,0.664190
-0.392416,-0.746761,0.763901,-0.473231,0.243761,-0.846542
-0.338079,-0.686363,0.770150,0.451222,-0.892339,-0.011385
0.278623,0.267797,0.382410,0.944197,-0.320286,0.076870
-0.470987,-0.659776,0.726097,0.874778,0.220653,-0.431365
-0.330085,-0.486140,0.339629,0.716526,-0.589155,0.373479
-0.602523,-0.842808,0.548358,-0.699443,-0.446754,-0.557844
-0.579288,-0.820491,0.566709,-0.545569,-0.753491,-0.366886
-0.084378,-0.224596,0.412042,0.897526,0.440225,0.025480
0.018300,-0.110513,0.016471,-0.058662,0.995147,0.079008
0.141842,0.027726,0.023963,0.961879,0.273244,0.011231
0.126727,0.002225,0.061485,0.998346,-0.056368,-0.011309
-0.417648,-0.504427,0.321420,0.716526,-0.589155,0.373479
0.073263,0.100954,0.104039,-0.624129,-0.773601,-0.109567
-0.400284,-0.490333,0.343362,0.716526,-0.589155,0.373479
0.118356,0.141385,0.146085,0.986695,-0.140274,-0.082192
-0.397037,-0.514155,0.461977,-0.186858,0.966847,-0.174044
-0.099992,-0.238184,0.714843,0.428155,0.674251,0.601722
-0.114108,-0.201025,0.487594,0.930197,-0.058699,0.362337
-0.482103,-0.540409,0.433221,0.881167,-0.467594,0.070002
-0.166570,-0.207983,0.533513,0.206079,0.804369,0.557245
0.262883,0.311412,0.383965,0.582150,0.100713,-0.806820
-0.368309,-0.482699,0.734382,-0.737158,0.669902,0.088487
-0.073136,-0.225349,0.789518,-0.341691,0.781019,0.522740
-0.177816,-0.226270,0.735230,0.259293,0.578319,0.773508
-0.170070,-0.223839,0.760932,-0.183029,0.846650,0.499684
-0.048404,-0.081657,0.739528,-0.207804,-0.071842,0.975529
-0.006307,-0.036532,0.750300,-0.429498,0.500016,-0.752007
-0.024795,-0.065551,0.786521,0.966406,-0.197830,-0.164082
-0.015925,-0.061445,0.810612,-0.630890,0.627271,0.456627
-0.184685,-0.277606,0.743373,-0.031405,0.323586,0.945677
-0.122228,-0.207650,0.746738,-0.458141,-0.853664,-0.247718
-0.126601,-0.219727,0.776201,-0.472498,0.868009,0.152665
0.091252,0.039885,0.717303,0.797711,0.078799,0.597870
0.097248,0.171750,0.180948,0.827323,-0.289304,0.481498
-0.423393,-0.481777,0.466699,-0.653051,0.757296,0.005200
0.018800,0.178882,0.221184,0.862909,0.175274,-0.473991
-0.522450,-0.547039,0.444474,0.881167,-0.467594,0.070002
-0.591029,-0.678146,0.677491,0.274886,-0.759125,0.590056
-0.188432,-0.192552,0.537868,0.654189,-0.633891,0.412575
-0.208667,-0.223839,0.575898,0.802953,0.595196,-0.031752
0.268254,0.358975,0.377038,0.127138,-0.156045,0.979534
-0.290364,-0.343877,0.695390,0.547809,-0.039601,-0.835666
0.237025,0.299924,0.478405,0.249165,-0.955430,0.158334
0.090753,0.204629,0.178318,0.716268,-0.534342,0.448820
-0.448629,-0.470032,0.472523,0.794155,-0.581952,-0.175069
-0.040658,-0.022857,0.803571,0.058267,0.633086,0.771886
0.161577,0.348991,0.518556,0.029095,-0.765991,0.642193
0.140465,0.313593,0.229808,0.915687,-0.356291,0.185939
-0.250013,-0.225180,0.661148,-0.601582,-0.770766,-0.209806
0.222162,0.350169,0.467208,0.380871,-0.924606,-0.006433
-0.244020,-0.224008,0.686653,0.621222,0.783608,0.006420
0.260508,0.390600,0.480327,0.953025,0.018859,-0.302303
-0.160452,-0.129138,0.680885,0.785410,-0.521609,-0.333249
-0.119354,-0.085769,0.693354,0.714200,-0.298583,-0.633061
-0.154581,-0.135425,0.735541,0.333990,0.215565,-0.917596
-0.102116,-0.077966,0.743260,0.099975,-0.101033,0.989847
0.117231,0.350589,0.298036,0.608257,0.753199,-0.250429
0.158203,0.351679,0.489997,-0.231295,-0.948778,0.215229
-0.302226,-0.215284,0.707491,0.968730,0.248116,0.000055
-0.753043,-0.805479,0.726295,0.865025,0.090445,0.493510
-0.625631,-0.656924,0.701723,-0.341467,0.842627,-0.416389
0.209917,0.362748,0.352269,0.868337,-0.367034,-0.333582
0.208172,0.354024,0.382353,-0.495985,-0.200157,0.844948
-0.061769,-0.035273,0.755871,0.885009,-0.307550,-0.349531
-0.235401,-0.098686,0.846578,-0.611446,-0.722819,-0.321971
-0.179813,-0.050791,0.908473,0.759738,0.321450,0.565215
0.094499,0.348910,0.513296,-0.155021,0.987863,-0.009790
-0.475108,-0.349913,0.773486,0.406745,0.105023,0.907485
0.105989,0.356292,0.537613,-0.291991,0.328655,-0.898180
-0.296356,-0.139874,0.729999,0.904862,0.419452,-0.072699
0.281371,0.562056,0.496557,0.811520,0.501747,0.299476
-0.250013,-0.097176,0.769160,-0.026878,0.918075,0.395494
-0.162701,0.002558,0.761893,0.969757,0.196930,0.144186
-0.259135,-0.169313,0.718858,0.617187,0.770944,-0.157247
0.218037,0.411063,0.525370,0.253465,0.777995,0.574873
-0.207920,-0.113953,0.726069,-0.549975,-0.564836,0.615214
-0.212666,-0.126450,0.755673,-0.497508,0.502996,0.706739
-0.159075,-0.067819,0.762939,-0.617097,0.775316,0.134449
-0.016302,0.085938,0.791639,-0.692540,-0.681347,-0.236969
0.256013,0.510720,0.594984,0.960161,-0.177784,0.215602
-0.206170,-0.056243,0.806427,-0.464044,0.860485,0.210308
0.094499,0.396974,0.304992,0.992392,0.119087,-0.031240
0.098121,0.387830,0.363409,-0.316535,-0.385693,0.866629
0.238775,0.584117,0.494522,0.679188,0.718708,0.148872
0.079884,0.439417,0.351533,-0.629915,-0.601929,-0.490805
-0.268375,-0.051041,0.784825,0.942397,0.329420,-0.058058
-0.153582,0.081745,0.767859,-0.563256,-0.643233,0.518646
0.192058,0.500485,0.630950,-0.084141,0.862032,-0.499820
0.038786,0.289182,0.803543,0.982761,-0.163394,-0.086505
-0.327962,-0.022437,0.373729,0.919458,-0.354836,0.169374
0.031291,0.430273,0.353937,0.906726,-0.190584,-0.376200
0.212918,0.602906,0.487933,-0.590996,-0.782803,-0.194789
-0.357067,-0.106238,0.802327,0.885679,-0.460306,0.060760
0.164199,0.517007,0.624560,0.105045,0.687278,-0.718759
0.117109,0.524057,0.623316,-0.123145,-0.918609,0.375491
-0.506089,0.056494,0.821667,-0.048602,0.993452,0.103397
-0.061643,0.579586,0.676728,-0.454757,0.085182,-0.886532
-0.092997,0.574302,0.674409,0.329189,-0.178688,0.927203
-0.584408,0.050622,0.850141,0.735760,0.673196,0.073919
-0.550183,0.183659,0.736474,0.848323,-0.473296,-0.237357
-0.518329,0.306799,0.721460,-0.759659,0.633763,-0.145815
-0.557552,0.257312,0.763448,0.020098,0.889433,-0.456623
-0.094873,0.922246,0.525738,0.546046,0.559951,-0.623128
-0.428391,0.521707,0.709245,0.149465,-0.617697,0.772082
0.226656,0.041985,-0.984335,-0.282036,0.140590,0.949047
0.195428,0.013381,-1.000000,-0.159690,0.014582,0.987059
0.126853,-0.044079,-0.992959,0.164296,-0.027620,-0.986024
0.069889,-0.092900,-0.994628,0.999101,-0.041890,-0.006450
0.398413,-0.040474,-0.969576,-0.182405,0.207176,0.961149
0.331336,-0.097344,-0.964514,0.019767,0.532038,0.846490
0.294862,-0.130311,-0.978369,0.187712,-0.140579,-0.972112
0.234776,-0.181565,-0.978087,0.256515,0.091911,-0.962160
0.182814,-0.226270,-0.980942,0.187035,-0.121344,-0.974830
0.125229,-0.275343,-0.980405,0.366981,-0.003948,-0.930220
0.067266,-0.325087,-0.980716,-0.283954,0.313173,0.906252
0.204299,-0.388413,-0.971187,-0.262200,0.398305,0.878979
0.144339,-0.439166,-0.968841,-0.416029,-0.062523,0.907199
0.107739,-0.472552,-0.982441,-0.054030,-0.096900,0.993826
0.037662,-0.530932,-0.973732,-0.120465,0.068488,0.990352
0.255514,-0.344209,-0.968049,-0.019623,0.067468,0.997528
0.543066,-0.097595,-0.964995,-0.028179,0.036668,0.998930
0.490974,-0.143059,-0.969038,-0.230592,0.116930,0.965999
0.426272,-0.197584,-0.964288,0.306195,0.089712,-0.947732
0.374054,-0.242710,-0.968473,-0.134446,-0.018077,0.990756
0.319595,-0.289602,-0.971470,0.008966,0.147873,0.988966
0.764662,-0.156734,-0.947040,-0.405767,0.431716,0.805590
0.697333,-0.213020,-0.940989,0.607316,-0.012115,-0.794368
0.603400,-0.289269,-0.919274,-0.562327,-0.594526,-0.574741
0.546436,-0.338004,-0.920377,-0.121722,-0.589552,0.798506
0.539818,-0.349242,-0.950490,0.665261,0.132636,-0.734735
0.491973,-0.391685,-0.956993,0.289607,-0.179989,-0.940070
0.431765,-0.442939,-0.956088,-0.251384,0.023884,0.967593
0.387171,-0.482617,-0.964232,0.554738,0.050046,-0.830519
0.328961,-0.531936,-0.962959,-0.079548,0.158541,0.984143
0.275501,-0.577906,-0.964599,0.313119,-0.056904,-0.948008
0.873211,-0.218637,-0.930697,-0.328930,0.404482,-0.853346
0.829494,-0.257557,-0.939660,0.767937,-0.242970,0.592653
0.771783,-0.306799,-0.939010,0.377908,-0.360671,-0.852703
0.718444,-0.352764,-0.941159,-0.492530,-0.070959,0.867398
0.666730,-0.398146,-0.945287,-0.025956,-0.192966,0.980862
0.602774,-0.451914,-0.940763,-0.489621,0.229427,0.841210
0.562176,-0.488822,-0.951904,0.374419,-0.127090,-0.918509
0.508090,-0.535545,-0.954788,0.245658,0.203186,-0.947823
0.961902,-0.257056,-0.939717,-0.278561,0.014999,0.960302
0.893949,-0.314013,-0.934825,0.075397,0.294889,0.952552
0.747549,-0.492263,0.751347,0.795000,0.605856,0.030236
0.661858,-0.389089,0.794099,0.905015,0.420793,-0.062302
0.649366,-0.414253,0.725757,0.701392,0.712352,-0.024578
0.503466,-0.540496,0.720753,0.466218,0.319931,0.824794
0.370432,-0.432791,0.695644,-0.435930,0.835549,0.334399
0.239900,-0.536554,0.734438,0.967772,0.050629,0.246686
0.379551,-0.441429,0.614890,0.840948,-0.509075,0.183435
0.349074,-0.485131,0.526897,0.796859,0.601424,-0.057485
0.368809,-0.475403,0.491468,0.735720,0.629828,-0.249065
-0.093249,-0.850103,0.595012,0.743312,-0.057691,-0.666453
0.570795,-0.341358,0.807530,-0.329245,-0.933820,-0.139919
0.534569,-0.373986,0.800828,0.050789,-0.676246,0.734923
0.471239,-0.432454,0.780725,-0.632852,0.718571,-0.288365
0.476736,-0.433375,0.752958,-0.481920,0.464730,0.742818
0.478486,-0.436985,0.727793,0.016153,-0.828493,0.559766
0.410780,-0.493353,0.736021,0.966362,-0.246833,-0.072243
0.386424,-0.516925,0.722364,0.967998,-0.069471,0.241152
0.360064,-0.552742,0.659508,0.901148,0.398914,0.169704
0.273125,-0.628571,0.651421,0.395758,0.533556,0.747458
0.365062,-0.564482,0.580875,0.642599,0.637003,0.425786
0.217664,-0.697017,0.550705,-0.432840,-0.642070,-0.632769
0.179566,-0.500147,0.652128,0.425652,-0.536245,0.728877
0.431643,-0.341358,0.887860,0.502041,0.715368,-0.486008
0.436511,-0.342366,0.862016,0.269074,-0.940810,0.206095
0.416276,-0.362666,0.846861,-0.500436,0.832013,0.239411
0.462368,-0.332465,0.801337,0.868514,0.343517,-0.357323
0.314723,-0.455103,0.821385,0.892045,-0.225421,-0.391716
0.394666,-0.399405,0.758076,0.071113,-0.151453,0.985903
0.439759,-0.370131,0.712100,0.978758,0.187274,0.083436
0.372182,-0.426248,0.720216,-0.369265,-0.319122,0.872814
0.496097,-0.200267,0.800659,-0.700660,-0.320367,-0.637526
0.474861,-0.221238,0.785814,0.763343,-0.630761,0.139458
0.386672,-0.293293,0.803458,0.482710,0.516228,0.707460
0.340828,-0.333054,0.800291,0.801910,-0.555672,-0.219473
0.370059,-0.315692,0.761328,-0.653722,-0.086517,-0.751773
0.285992,-0.384558,0.776342,-0.346843,-0.170989,0.922205
0.209418,-0.447890,0.788811,0.227292,0.677374,0.699644
0.146835,-0.500229,0.794636,-0.066481,-0.904118,0.422080
0.282618,-0.406952,0.679103,-0.369029,0.927248,0.063469
0.224785,-0.455774,0.681507,0.803021,0.109194,0.585861
0.220286,-0.464247,0.658038,0.650599,0.677627,-0.342844
-0.312096,-0.802628,0.526982,0.756699,-0.607417,-0.241765
0.269253,-0.367192,0.196160,-0.706121,0.708041,-0.008477
0.214290,-0.418779,0.170486,0.307395,0.938079,-0.159737
0.239648,-0.404771,0.128356,-0.228719,0.966195,0.118972
0.245393,-0.406030,0.097819,0.975026,-0.125937,-0.182931
0.195680,-0.448980,0.095189,-0.758503,-0.499054,-0.419069
0.221911,-0.450572,-0.034736,-0.187579,-0.906405,0.378475
0.227156,-0.469111,0.603636,0.910698,0.411724,0.033339
0.213291,-0.484711,0.585455,0.982131,-0.089002,-0.165822
0.291115,-0.430943,0.520365,-0.333876,0.783405,-0.524217
0.269878,-0.451914,0.505662,0.342460,-0.928394,-0.144241
0.263881,-0.461728,0.481996,0.886322,-0.456939,-0.075094
0.268628,-0.463408,0.452731,0.664479,0.660439,0.349697
0.480983,-0.318964,0.264784,-0.094201,-0.853765,0.512067
0.313347,-0.450910,0.322890,0.821677,0.569649,0.018599
-0.332708,-0.943043,0.629367,0.987603,0.032584,0.153553
0.130474,-0.593926,0.390581,0.411762,-0.894117,-0.176085
-0.117231,-0.496205,0.051871,0.206151,-0.186934,0.960498
0.294736,-0.216205,-0.389168,0.954478,-0.239553,0.177724
0.289739,-0.225098,-0.417641,0.926086,-0.213857,-0.310854
0.258137,-0.254286,-0.432033,0.831463,-0.550657,-0.073797
0.221411,-0.287590,-0.443428,0.618661,-0.783455,-0.058799
0.401661,-0.157404,0.711450,0.398483,0.288435,0.870641
0.186310,-0.327099,0.788925,0.860126,0.285772,0.422514
0.146713,-0.361826,0.783750,-0.507646,0.556063,-0.658095
0.226031,-0.305622,0.721205,0.192009,0.073167,0.978662
0.299109,-0.254793,0.660583,0.996290,0.041588,0.075349
-0.080631,-0.554335,0.795343,0.123986,0.915972,0.381605
0.122728,-0.422726,0.567557,0.638408,0.640657,-0.426607
-0.180812,-0.673533,0.616332,-0.645150,0.578343,-0.499300
-0.389542,-0.836767,0.697256,0.976227,0.201280,-0.080422
-0.383046,-0.836516,0.668867,0.909240,-0.342054,-0.237239
-0.399286,-0.858828,0.625606,0.999661,-0.013027,0.022532
0.175193,-0.428010,0.301373,0.367175,0.926119,0.086526
-0.376677,-0.475905,0.560545,-0.703890,0.468632,-0.533782
-0.401283,-0.498806,0.547425,0.717994,-0.694468,0.046892
-0.745800,-0.770414,0.699207,-0.702426,0.710395,-0.043996
-0.076011,-0.250344,0.351449,-0.012810,-0.983285,0.181624
-0.132719,-0.302437,0.325096,-0.135467,0.984316,-0.113010
-0.783020,-0.822672,0.561025,-0.078415,0.404352,0.911236
-0.380424,-0.514994,0.318197,0.716526,-0.589155,0.373479
0.200799,-0.073942,-0.052521,0.956638,-0.063684,0.284231
0.136718,-0.140878,-0.135368,0.931314,-0.329200,0.155825
0.128598,-0.151701,-0.161495,0.947660,-0.318010,0.028456
0.026046,-0.261756,0.736785,-0.458599,0.531316,0.712313
-0.046780,-0.322066,0.747643,0.852589,0.522523,0.007866
0.017176,-0.276767,0.690583,0.073813,-0.498579,-0.863696
-0.061894,-0.342530,0.703674,0.997425,0.022744,-0.068021
-0.049402,-0.336996,0.671497,-0.661448,-0.743511,-0.098377
-0.076011,-0.365769,0.634541,0.757431,-0.652235,-0.029806
-0.438634,-0.654324,0.765230,0.162122,-0.983202,0.083847
-0.346572,-0.587470,0.692873,0.068410,0.935599,0.346374
-0.037410,-0.353271,0.509932,0.892190,0.442934,0.088356
-0.494096,-0.709935,0.715691,-0.659751,0.454529,-0.598441
-0.041157,-0.360567,0.484880,-0.169919,-0.955373,0.241641
-0.482980,-0.705409,0.684815,0.810140,-0.586200,-0.006490
-0.464743,-0.695507,0.650121,-0.898118,0.114267,-0.424649
-0.013927,-0.352514,0.390864,0.914168,0.400998,-0.059143
-0.075511,-0.408800,0.368583,-0.556831,0.830396,-0.019541
-0.015425,-0.367361,0.309431,-0.478519,0.866973,0.139205
-0.116106,-0.449313,0.334087,0.851911,-0.507582,0.128877
-0.512958,-0.758670,0.516350,0.816875,-0.518340,-0.253058
-0.625506,-0.849433,0.549687,-0.423449,-0.773499,-0.471582
-0.065768,-0.452083,0.053426,0.575494,0.557110,0.598695
-0.066389,0.017405,0.758755,0.387174,0.505562,-0.771040
-0.108737,-0.019335,0.754598,0.039315,-0.902518,0.428853
-0.195302,-0.091052,0.771196,-0.584897,0.739935,0.332253
0.022924,-0.103550,0.772723,0.873514,0.349265,0.339098
0.029542,-0.101957,0.744985,-0.280211,-0.402210,-0.871613
0.055277,-0.085518,0.707067,-0.399587,0.713293,0.575798
-0.075008,-0.191041,0.745833,0.800655,-0.301897,-0.517503
-0.184186,-0.283648,0.747840,0.833254,0.552882,-0.002954
-0.126974,-0.242797,0.693806,0.310662,0.948593,0.060497
-0.136844,-0.254542,0.673646,0.741433,0.662926,0.103951
-0.221411,-0.152121,0.471619,0.970517,0.241021,-0.002410
-0.160577,0.143479,0.821978,-0.879854,0.217739,0.422430
-0.202922,0.106576,0.818020,-0.409275,-0.889877,0.201526
0.289864,0.498637,0.554239,-0.564405,0.738256,-0.369357
0.334206,0.528583,0.478970,-0.724728,0.251127,0.641642
-0.207794,0.091979,0.718547,-0.393648,0.626010,-0.673166
0.231403,0.443446,0.503541,-0.455877,-0.597997,-0.659224
0.167947,0.386990,0.481854,0.457188,-0.023649,0.889055
0.119106,0.345136,0.479988,0.339722,0.832744,-0.437180
0.188810,0.391772,0.362674,0.851372,-0.495310,0.172726
-0.208419,-0.104727,0.752025,-0.096780,0.934035,-0.343819
-0.141216,-0.054984,0.693269,-0.593284,0.376895,0.711312
-0.312721,-0.193642,0.752817,0.923481,0.381513,0.040382
-0.302226,-0.188441,0.722789,0.978190,0.127400,0.164054
-0.176691,-0.092813,0.633947,0.907847,-0.366054,0.204495
0.388048,0.353103,0.352834,-0.411909,0.004647,0.911213
-0.212540,-0.124689,0.626511,-0.564116,0.785814,-0.253512
0.399911,0.358724,0.320402,0.619010,-0.527277,0.582070
0.291862,0.269891,0.346670,0.733020,-0.677359,0.062174
-0.291983,-0.194144,0.613250,0.973611,0.109138,0.200424
0.272001,0.250682,0.328885,0.806771,-0.478904,0.346080
-0.072137,0.395883,0.771931,0.543120,0.061047,-0.837433
0.115234,0.542595,0.629989,0.488549,0.688225,0.536345
0.103866,0.531101,0.610055,-0.212329,-0.059080,0.975411
-0.416776,0.107497,0.837445,-0.015269,-0.096003,-0.995264
-0.434387,0.090971,0.820395,0.776787,-0.396372,0.489377
-0.381300,0.131652,0.769895,0.134332,0.985486,0.103793
0.217039,0.615736,0.476793,-0.476472,-0.877655,-0.051923
0.218537,0.614482,0.448914,-0.165676,-0.822214,0.544533
-0.418521,0.097012,0.736304,-0.098628,0.983768,0.149912
-0.099992,0.349831,0.526218,0.067009,0.992973,0.097547
-0.038035,0.603157,0.661912,0.893767,0.113045,0.434053
-0.080257,0.566750,0.655946,-0.122180,0.931206,0.343406
0.076384,0.692912,0.553278,-0.705692,-0.683129,-0.187973
0.105490,0.714886,0.512109,-0.434967,-0.795916,0.421095
0.110487,0.717067,0.483268,-0.751547,-0.604140,0.264937
0.081135,0.691232,0.471449,0.722416,0.682991,-0.107882
-0.586657,0.143479,0.774645,0.820078,0.117955,-0.559963
-0.630877,0.105567,0.771563,-0.031600,0.846770,0.531020
-0.582285,0.143397,0.721092,-0.100517,-0.967652,0.231399
-0.669352,0.070082,0.738708,0.713163,-0.136416,0.687597
-0.594902,0.127208,0.649103,0.572105,-0.818260,-0.056093
-0.307975,0.510551,0.707689,0.071762,0.080702,0.994152
0.043284,0.797677,0.509621,-0.622438,-0.492874,0.607985
-0.008182,0.753724,0.508716,-0.188844,-0.209829,0.959328
0.015551,0.771592,0.469639,-0.591784,-0.805910,0.017350
-0.638246,0.229378,0.714391,0.046019,0.998925,0.005546
-0.688214,0.186347,0.714080,0.904454,0.398725,-0.151598
-0.689335,0.182148,0.662449,-0.592826,-0.610127,-0.525644
-0.226531,0.562138,0.428272,-0.510926,0.822532,-0.249792
-0.154456,0.482955,0.371637,-0.312278,0.786346,0.533051
0.029919,0.816974,0.513183,-0.515819,-0.612119,0.599367
0.011930,0.800447,0.494748,0.731659,0.648271,-0.210760
-0.010054,0.831821,0.514456,0.557139,0.376488,-0.740171
-0.023797,0.818484,0.494211,-0.497917,-0.413556,-0.762266
-0.030914,0.859166,0.523334,-0.271862,-0.448423,0.851474
-0.053401,0.838866,0.508348,0.682355,0.568759,-0.459244
-0.366811,0.575305,0.556586,0.980084,-0.086756,-0.178628
-0.383671,0.662966,0.708679,0.284059,0.765760,0.576995
-0.071013,0.911761,0.507359,0.999577,0.023569,0.017028
-0.100492,0.863021,0.519687,0.798423,0.259940,-0.543095
-0.139466,0.829302,0.512787,0.744182,0.617640,-0.254390
-0.160577,0.947323,0.527067,-0.400403,-0.625384,0.669756
-0.199049,0.994967,0.509988,-0.394887,0.910573,-0.122151
-0.210790,1.000000,0.531647,-0.308440,-0.949185,0.062558
-0.224533,0.964858,0.515219,-0.747126,0.615129,-0.251832
-0.205171,0.992116,0.539734,0.073237,-0.719285,0.690844
-0.196926,0.992623,0.536426,0.109936,0.833954,-0.540772
-0.205671,0.985322,0.537161,0.073237,-0.719285,0.690844
-0.201798,0.985573,0.509960,0.872014,-0.263882,0.412259
0.095998,0.080235,-0.989821,0.011932,-0.021788,0.999691
0.104243,-0.022186,-0.988916,-0.353456,0.046595,0.934290
0.144838,0.022018,-0.989849,0.186852,-0.111105,-0.976085
0.185185,0.065136,-0.988718,-0.245550,0.025435,0.969050
0.083380,-0.127541,-0.994204,0.445704,0.012405,-0.895095
0.122854,-0.086941,-0.987502,0.373519,-0.327534,-0.867874
0.165324,-0.040218,-0.988407,-0.016422,0.215805,0.976298
0.206296,0.005076,-0.991348,-0.614945,0.120759,0.779269
0.248141,0.048697,-0.987135,-0.320001,-0.000400,0.947417
0.183812,-0.089209,-0.982300,-0.139490,0.350079,0.926276
0.215914,-0.115545,-0.984986,-0.176353,0.358754,0.916621
0.310099,-0.072012,-0.976645,-0.214649,0.330948,0.918912
0.049403,-0.449400,-0.968586,0.357797,0.047793,-0.932576
0.029168,-0.749275,-0.971216,0.329988,-0.062491,-0.941915
0.070266,-0.708931,-0.960273,0.451402,-0.357917,-0.817393
-0.018048,-0.700038,-0.975655,-0.178520,-0.054066,0.982450
0.023046,-0.659940,-0.964034,0.179135,0.153752,0.971736
0.065017,-0.609951,-0.973987,-0.066077,-0.044000,0.996844
0.522953,-0.501238,-0.951480,-0.177793,-0.001702,0.984066
0.562676,-0.457786,-0.950320,-0.455654,-0.019514,0.889943
0.727810,-0.279874,-0.943506,0.369286,-0.406767,-0.835565
0.764662,-0.368370,-0.945089,-0.001761,0.342170,0.939636
0.846854,-0.276767,-0.948595,0.047206,-0.336070,-0.940653
-0.990755,0.174684,0.742581,0.824980,-0.345651,-0.447138
-0.825994,0.151113,0.694400,0.131702,-0.884300,0.447960
-0.803884,0.162944,0.735258,-0.593169,-0.725071,-0.349889
-0.475108,0.525480,0.718519,0.979720,-0.015180,0.199794
-0.359816,0.666320,0.667963,-0.578138,-0.515331,0.632606
-0.333833,0.688462,0.688491,0.424543,0.883551,-0.197738
-0.174942,0.915703,0.503513,-0.605257,-0.795475,-0.029733
-0.146210,0.942377,0.519885,0.489046,0.545843,-0.680360
-0.458621,0.673953,0.644692,0.977264,0.060580,-0.203188
-0.431891,0.696265,0.667821,-0.274036,-0.771266,0.574503
-0.248766,0.940867,0.514173,0.093959,-0.710856,0.697033
-0.847101,-0.011952,0.753326,0.874719,-0.426599,0.229957
-0.820371,0.011369,0.773543,0.964544,-0.162250,-0.208159
-0.788144,0.045507,0.776088,0.474898,-0.856062,0.204035
-0.700581,0.168479,0.680460,-0.739870,-0.672397,0.021789
-0.672722,0.192132,0.702487,-0.515242,-0.430703,0.740959
-0.656361,0.191128,0.768057,-0.685634,-0.332568,0.647537
-0.625132,0.225267,0.768255,0.245217,0.082579,0.965945
-0.592653,0.261167,0.765654,-0.068306,0.933524,-0.351948
-0.357566,0.587890,0.521553,0.988845,-0.132863,-0.067323
-0.327836,0.616407,0.533372,0.961101,-0.189326,0.201098
-0.286365,0.670600,0.503428,-0.734699,0.515073,-0.441495
-0.256386,0.699117,0.517792,0.617799,-0.709459,0.339105
-0.236899,0.707421,0.561478,-0.772879,0.630900,0.068001
-0.203296,0.743659,0.563287,-0.762222,0.631971,0.140104
-0.171568,0.775616,0.571261,-0.592913,0.778661,-0.205284
-0.115107,0.856396,0.503824,-0.907473,0.022251,0.419520
-0.086501,0.883827,0.517255,0.723408,0.269597,-0.635609
-0.706451,0.009269,0.749848,-0.110494,-0.952807,0.282755
-0.668975,0.055823,0.730338,0.760659,-0.071216,0.645233
-0.627503,0.111772,0.691346,0.885894,-0.459714,-0.062092
-0.608641,0.117813,0.742468,0.922428,0.296852,-0.246993
-0.573791,0.157574,0.736530,-0.575961,0.810721,0.104886
-0.502841,0.277524,0.586614,-0.832032,0.533719,-0.151221
-0.457496,0.303446,0.668896,0.031451,0.669770,-0.741903
-0.335079,0.461058,0.582910,-0.495505,-0.854720,-0.154690
-0.309847,0.480354,0.612345,-0.345951,-0.936584,0.055930
-0.292109,0.486221,0.660639,0.826381,-0.510596,0.237455
-0.261007,0.517263,0.669800,-0.539398,0.785612,-0.303092
-0.040158,0.805649,0.501336,0.760415,0.235534,0.605222
-0.010805,0.833833,0.513551,0.550254,0.405909,-0.729698
-0.082255,0.571701,0.674409,-0.236474,0.169704,-0.956703
0.003936,0.709684,0.514173,0.283275,0.600105,-0.748084
0.043033,0.756243,0.499809,0.775419,0.630985,-0.024155
-0.611264,-0.008348,0.687416,0.022555,-0.113163,0.993320
-0.602024,-0.024449,0.783439,-0.010126,0.993707,0.111548
-0.031791,0.523888,0.642204,-0.091242,-0.943841,0.317552
0.002186,0.560709,0.642204,0.303590,-0.513274,0.802735
0.034665,0.595605,0.642854,0.420774,-0.040298,0.906270
-0.540939,0.074444,0.665446,0.481359,0.867370,-0.126342
-0.544312,0.031080,0.809028,0.661186,0.586409,0.467929
-0.527322,0.033179,0.868661,0.721515,0.663641,-0.197475
-0.436137,0.161516,0.765230,-0.207845,-0.977469,0.036795
-0.381422,0.210671,0.801140,0.428795,0.857707,-0.283680
-0.332209,0.281467,0.739386,0.931762,0.014735,-0.362770
-0.200547,0.517764,0.402146,0.895047,-0.192658,0.402212
-0.179939,0.527077,0.450016,-0.415882,0.895547,-0.158232
-0.176066,0.503506,0.551468,0.339539,0.237722,0.910056
-0.131972,0.561718,0.515248,0.924274,0.311182,0.221097
-0.098243,0.568430,0.623005,0.127139,-0.937328,0.324424
-0.099619,0.396892,0.568320,0.281202,0.865544,-0.414438
-0.062394,0.440338,0.558085,-0.472048,0.315081,-0.823344
0.006185,0.545867,0.445803,-0.208832,0.977545,0.028196
0.048903,0.542006,0.628943,0.300944,0.660840,-0.687549
0.079007,0.572873,0.637086,0.731298,0.633311,0.253219
-0.556553,-0.081745,0.763222,0.922061,0.369983,0.113647
-0.481729,0.045758,0.594503,0.462104,0.884796,-0.059960
-0.497595,-0.024700,0.789745,-0.435148,0.741467,0.510758
-0.479980,-0.019166,0.840895,-0.351166,-0.917139,0.188517
-0.407158,0.102966,0.683458,0.477160,-0.868562,-0.133858
-0.372929,0.141385,0.679471,-0.441199,0.857888,0.263384
-0.339577,0.179466,0.673957,0.822082,-0.435839,-0.366369
-0.326963,0.172421,0.749339,0.961108,0.269711,0.059384
-0.240395,0.285916,0.679754,-0.180723,0.346345,0.920535
-0.149835,0.469449,0.367170,0.398750,0.576403,0.713272
-0.117482,0.503337,0.371920,0.026553,0.763000,0.645853
-0.145211,0.417525,0.576888,0.870323,-0.461475,0.171985
-0.078507,0.519694,0.469498,0.143266,0.967400,-0.208833
-0.045281,0.556603,0.467717,-0.020717,0.997916,-0.061109
-0.043280,0.530180,0.571940,0.189810,-0.793730,0.577897
-0.516957,-0.081576,0.451091,-0.116453,0.803093,0.584364
-0.498095,-0.119743,0.660583,0.487660,0.873023,0.004271
-0.444005,0.004488,0.426944,0.896325,-0.443379,-0.004196
-0.487974,-0.133751,0.751403,-0.466587,0.114099,0.877085
-0.425143,0.008768,0.486237,0.879341,0.465790,0.098992
-0.452251,-0.091810,0.739867,0.304001,0.548434,0.778976
-0.402034,0.021183,0.531732,0.760749,0.539855,-0.360302
-0.381422,0.028228,0.587435,-0.090880,0.995848,0.005308
-0.398413,-0.046260,0.788642,-0.309269,-0.843078,0.439968
-0.316842,0.062786,0.717331,0.039489,-0.154847,0.987149
-0.283989,0.097851,0.719282,-0.179411,-0.492273,0.851750
-0.259009,0.118653,0.743288,0.514651,0.775856,-0.364940
-0.240520,0.123855,0.796022,0.071807,0.993917,-0.083502
-0.213291,0.148517,0.815136,-0.358627,0.818231,-0.449316
-0.181563,0.181816,0.819179,-0.628478,0.767151,0.128430
-0.055147,0.442775,0.378480,0.489661,0.519991,0.699887
-0.168446,0.179046,0.881300,0.957188,-0.252299,0.141902
-0.069637,0.381369,0.542759,0.864341,0.410126,-0.291051
-0.039533,0.411821,0.551836,-0.779363,0.456675,-0.429000
0.104491,0.546537,0.631714,0.727655,0.684134,0.049782
0.176192,0.658517,0.511741,-0.626798,-0.590553,0.508302
-0.506836,-0.094913,0.740432,-0.240971,0.217345,0.945883
-0.451000,-0.007339,0.642628,0.904994,-0.424109,-0.033438
-0.409281,0.047017,0.609319,-0.569211,-0.819300,0.068903
-0.389542,0.055742,0.657105,0.976841,-0.153818,0.148737
-0.358813,0.086860,0.666775,0.484802,0.480316,-0.730933
-0.334706,0.103975,0.700903,-0.321849,0.931495,0.169502
-0.315218,0.111189,0.751601,0.305307,-0.480674,0.822034
-0.294358,0.123517,0.790536,0.477386,0.700689,-0.530223
-0.111234,0.435894,0.377829,-0.052591,-0.782782,0.620069
-0.077009,0.474231,0.375115,0.361186,0.713363,0.600548
-0.481729,-0.081908,0.450045,0.715052,0.591602,0.372435
-0.433636,-0.011532,0.388178,0.857176,-0.445734,0.258012
-0.490348,-0.188441,0.788925,-0.456828,0.624341,-0.633646
-0.408031,0.004739,0.428527,0.935283,-0.183634,-0.302529
-0.448751,-0.130311,0.744137,-0.476094,-0.243407,-0.845037
-0.419898,-0.101957,0.755475,0.748308,0.088843,-0.657375
-0.393042,-0.079057,0.778802,0.085744,0.966233,-0.242985
-0.261506,0.219144,0.238856,-0.353905,-0.866314,0.352492
-0.371431,-0.066728,0.818416,0.503940,0.761761,-0.407143
-0.321592,0.007007,0.750527,0.073553,-0.101675,0.992095
-0.318218,-0.022018,0.865155,0.158537,0.951260,0.264519
-0.173444,0.296734,0.304681,-0.621527,0.573356,-0.533823
-0.252262,0.086440,0.737859,0.779414,0.329925,-0.532600
-0.205419,0.153130,0.682638,0.204986,0.757911,0.619315
-0.194303,0.143479,0.758924,0.424508,0.901328,-0.086022
-0.168072,0.165540,0.782619,0.411326,-0.850097,0.328855
-0.136718,0.199433,0.784513,0.930993,-0.320058,0.175542
-0.026419,0.431281,0.395445,-0.441354,-0.151417,-0.884465
-0.488976,-0.232312,0.776427,-0.195527,-0.173942,0.965149
-0.034661,0.379193,0.545502,0.129680,-0.780362,0.611733
0.000063,0.417023,0.544795,0.855949,-0.259780,0.447063
0.149336,0.594515,0.495794,-0.448647,0.564305,0.693020
0.136345,0.538484,0.641186,0.053265,-0.844753,0.532498
0.193430,0.621777,0.568773,0.462470,0.668576,0.582347
-0.001435,0.302688,0.767492,0.950802,-0.002060,0.309791
0.179440,0.577737,0.503457,0.325865,0.787758,0.522732
0.225784,0.609613,0.566793,0.626798,0.431371,0.648879
-0.400284,-0.016985,0.372061,-0.111762,0.991050,-0.072998
-0.373303,0.003315,0.402627,-0.723740,0.678959,-0.123349
-0.418274,-0.147339,0.749593,-0.517072,-0.241866,0.821059
-0.385921,-0.112443,0.751771,0.141533,0.242270,-0.959830
-0.359938,-0.092061,0.779933,0.842311,-0.097024,-0.530187
-0.230777,0.206810,0.240892,-0.352829,-0.887980,0.294964
-0.337953,-0.079896,0.819745,0.502642,0.797647,0.333331
-0.321592,-0.079477,0.878840,-0.607016,-0.783467,-0.133079
-0.296356,-0.059934,0.906522,0.957040,-0.220292,0.188535
-0.223282,0.067149,0.744589,-0.668206,-0.197691,0.717230
-0.175315,0.136434,0.687558,-0.538776,-0.020193,-0.842207
-0.161576,0.130229,0.760112,0.258344,-0.955050,-0.145392
-0.111734,0.202617,0.699885,-0.201285,0.925847,-0.319830
-0.001935,0.403348,0.422617,0.170478,0.954823,0.243412
-0.002308,0.367699,0.542307,-0.518723,0.656110,-0.548129
0.032290,0.406118,0.540695,-0.667349,-0.393540,-0.632275
-0.375304,-0.004738,0.200854,0.353396,0.841713,0.408205
-0.366185,-0.032083,0.325520,0.988067,0.015955,0.153196
-0.406155,-0.218135,0.807813,0.870609,0.335475,-0.359857
-0.367310,-0.165959,0.774928,-0.478530,0.379680,-0.791740
-0.330585,-0.121085,0.758274,0.601461,0.744560,-0.289612
-0.202796,0.179635,0.213606,-0.281786,-0.928484,0.241896
-0.304476,-0.099863,0.782082,0.564159,0.733881,0.378343
-0.140839,0.281467,0.098101,0.684732,0.670229,0.286242
-0.285114,-0.094744,0.836880,0.351598,0.402190,-0.845353
-0.258632,-0.073522,0.861960,0.965329,0.106101,-0.238502
-0.225158,-0.035692,0.857605,-0.690299,0.573402,0.441245
-0.184434,0.020006,0.820536,0.899048,0.178939,0.399616
-0.133470,0.096843,0.748434,0.934110,0.214592,0.285288
-0.106740,0.119324,0.771705,0.663190,0.748434,0.005078
-0.095620,0.108250,0.848359,0.832796,-0.435200,0.342129
0.034665,0.391439,0.373164,-0.669258,-0.348871,0.656036
0.061647,0.375665,0.525709,0.185677,-0.576031,0.796060
0.093874,0.409051,0.531845,0.115498,0.208838,0.971106
-0.501343,-0.321647,0.554522,-0.389811,-0.158221,-0.907201
-0.420649,-0.306881,0.799132,-0.075406,-0.051722,-0.995811
-0.306977,-0.023446,0.265520,0.973223,-0.193313,0.124365
-0.349695,-0.219144,0.766106,0.875300,0.175965,0.450429
-0.301853,-0.147421,0.700536,0.720038,0.688228,0.088808
-0.280121,-0.139035,0.750696,0.279084,0.730679,0.623074
-0.151455,0.165960,0.199016,-0.384148,-0.885759,0.260503
-0.254263,-0.118064,0.775352,-0.083490,-0.876815,0.473523
-0.134842,0.162356,0.272984,0.869674,-0.416950,0.264236
-0.259009,-0.168223,0.925297,-0.681082,-0.687087,-0.253058
-0.098243,0.204886,0.263427,0.814211,-0.490210,0.311055
-0.175689,-0.015474,0.718660,0.915606,-0.379338,-0.133300
-0.146462,0.013043,0.729546,0.825745,-0.553385,-0.109136
-0.129597,0.012879,0.792289,-0.093877,0.250170,0.963640
-0.088125,0.067988,0.759603,-0.598050,-0.586532,0.546184
-0.003059,0.182906,0.685550,-0.420608,-0.197327,0.885523
0.081508,0.367530,0.375991,0.617645,0.583843,-0.526917
0.106115,0.384138,0.409526,0.399214,0.889629,0.221787
0.111985,0.359896,0.512279,-0.238599,0.929055,-0.282715
0.140591,0.386320,0.528141,-0.368799,-0.086845,-0.925443
0.177816,0.430191,0.517934,-0.022267,0.681847,0.731156
-0.786021,-0.746341,0.738340,0.908739,-0.348725,0.229311
-0.330832,-0.097764,0.235039,-0.860247,0.356680,-0.364356
-0.292235,-0.051461,0.221947,0.991146,0.013976,0.132041
-0.374805,-0.311243,0.781912,0.482084,0.803049,0.350295
-0.247641,0.010780,0.177923,0.887645,0.185456,0.421535
-0.345200,-0.281298,0.790366,0.108363,0.276725,0.954820
-0.301727,-0.217797,0.736813,-0.617558,-0.664277,-0.421138
-0.264628,-0.171832,0.717897,0.945707,0.255194,0.201281
-0.091499,0.203037,0.104916,0.737042,0.636101,0.228351
-0.205671,-0.115632,0.744278,-0.080634,-0.850294,0.520094
-0.086376,0.167890,0.238149,0.392215,-0.918753,0.045392
-0.181064,-0.099106,0.778830,-0.432166,0.800853,0.414570
-0.138715,-0.040894,0.740036,-0.608472,0.413549,0.677303
-0.104990,-0.002224,0.732883,0.114799,-0.882409,-0.456262
0.010806,0.264269,0.270779,-0.406857,0.780445,-0.474735
-0.072385,0.034269,0.730197,-0.605969,-0.261513,0.751274
-0.053275,0.038212,0.785051,0.673106,0.738867,-0.031697
0.000688,0.123015,0.700338,0.681497,-0.112745,-0.723084
0.123227,0.396723,0.238460,0.920361,-0.335788,0.200452
0.130600,0.372312,0.344521,0.500332,0.409271,-0.762998
0.152832,0.382377,0.391825,-0.668989,-0.404278,0.623709
0.157955,0.355366,0.498791,0.246389,0.931617,-0.267174
0.184312,0.377094,0.522260,0.420188,-0.549881,0.721854
0.219036,0.416854,0.516576,0.476892,0.826870,0.298093
-0.788895,-0.795747,0.682609,-0.705165,0.693941,-0.145564
-0.759164,-0.766472,0.694174,0.739986,-0.644171,0.193557
