0.113032,-0.357988,0.937226,0.505532,-0.746317,0.432953
-0.076065,0.251515,0.718109,-0.684134,0.073641,-0.725630
-0.113865,-0.504461,0.759204,0.398591,0.852589,-0.337959
0.091256,-0.061812,-0.099105,0.175283,0.983291,-0.049146
-0.679466,-0.204935,-0.967652,-0.732386,-0.077466,-0.676468
0.172801,0.008570,0.503120,0.050434,0.867447,0.494967
-0.017981,-0.580877,-0.918489,0.119100,-0.837519,0.533269
-0.694142,-0.361858,-0.941141,0.849011,-0.311260,-0.426964
0.037163,-0.118787,-0.140505,0.420638,0.737660,-0.528130
0.490695,0.171547,0.553900,0.115262,0.419085,0.900601
0.049939,-0.485488,0.732766,0.785931,0.518415,-0.336984
-0.435023,-0.390276,-0.937067,-0.671857,0.590556,-0.447047
-0.259731,-0.215534,0.815204,0.958676,0.126225,0.254966
0.545871,-0.130145,0.504039,-0.417979,0.377429,-0.826342
-0.242284,-0.139917,-0.937768,-0.017865,-0.140142,0.989970
-0.218831,-0.071022,-0.945951,0.360284,0.211102,0.908643
0.105241,-0.393358,0.887455,0.187357,-0.284066,0.940321
-0.529692,-0.497778,-0.939091,-0.679223,0.390824,-0.621219
-0.078000,-0.827472,0.606588,-0.657429,0.744503,0.116203
0.504409,0.067345,0.349309,-0.066421,-0.896692,-0.437643
-0.012928,-0.234855,0.115139,0.479546,-0.856765,0.189708
0.198699,-0.209074,0.277720,-0.290791,0.950998,0.105090
-0.266891,-0.475209,-0.917187,-0.254169,0.251586,0.933864
0.166770,-0.167192,-0.945398,-0.340639,0.738659,0.581677
-0.393421,0.526925,0.869827,0.162487,-0.915455,0.368158
0.323093,-0.524613,0.732250,-0.676070,0.142675,-0.722893
-0.730647,-0.162142,-0.989631,0.143930,0.263346,-0.953904
0.449003,-0.410532,0.446065,0.529475,0.814926,0.235693
0.424601,-0.302739,0.376229,-0.025029,0.191152,0.981241
-0.372781,-0.407289,-0.962761,0.320313,-0.346486,-0.881673
0.047838,0.483694,0.792384,-0.518716,0.530522,0.670433
-0.169989,0.505660,0.819393,-0.009153,0.753997,0.656814
0.664883,-0.351635,0.609628,0.973027,0.228755,-0.029820
-0.114840,-0.238492,-0.199257,-0.502569,-0.491776,-0.711042
-0.192578,0.138532,0.876008,-0.479254,0.707037,-0.520014
0.067286,-0.052367,0.660826,0.702791,0.253683,-0.664627
0.346272,-0.635656,-0.901214,-0.212769,-0.915444,0.341600
-0.464476,-0.510499,0.743183,0.754441,0.063085,-0.653329
0.206344,-0.073384,0.384042,-0.252574,-0.062170,0.965578
-0.257207,0.152020,0.888478,0.366609,-0.380185,0.849151
0.903324,-0.754610,0.639435,-0.249944,0.124266,-0.960253
-0.208495,-0.571298,-0.940418,-0.322274,0.592083,-0.738632
-0.152828,0.318318,0.679851,0.393146,0.874262,-0.284784
-0.826754,-0.019584,-0.990757,0.031312,-0.617306,0.786100
0.143908,0.062951,0.659782,0.661531,0.746723,0.069148
0.165156,-0.597231,0.718927,-0.282380,0.260276,0.923319
-0.066156,0.319515,0.716597,0.992019,0.084490,-0.093596
0.962268,-0.680904,0.653379,0.551941,0.347986,-0.757804
0.389829,-0.291538,-0.919539,0.525485,0.368860,0.766686
0.048397,-0.146928,0.436541,0.032995,0.396670,0.917368
-0.169215,-0.024144,0.859675,-0.259814,-0.921107,0.289928
-0.448313,-0.461242,-0.922400,-0.453944,0.310770,0.835079
0.499656,-0.516738,0.885539,0.706025,0.254438,0.660901
0.076468,-0.124030,0.110255,0.419449,-0.169308,0.891850
-0.223165,-0.001066,0.868995,-0.501301,0.843212,0.194140
0.384418,-0.466806,0.502987,-0.632913,0.310287,-0.709326
0.116975,-0.214200,0.816516,-0.302405,-0.907530,0.291446
0.332284,0.178460,-0.927427,-0.297830,0.504498,0.810419
0.077973,0.051585,0.313259,0.260307,0.952236,0.159646
0.015712,0.243578,0.913160,-0.271171,-0.489625,0.828694
0.069981,-0.130326,0.319016,0.855685,0.210232,0.472870
0.023454,0.232609,0.921819,0.485324,0.865342,-0.125072
0.243267,0.101810,-0.928418,-0.380220,0.002830,-0.924892
-0.395506,-0.528412,0.706291,0.864613,0.039919,0.500850
-0.733649,-0.013735,-0.969921,0.299399,-0.136185,-0.944359
-0.572524,-0.306884,0.850098,0.025909,-0.883132,0.468408
0.313559,0.000146,0.581886,-0.253838,-0.813505,-0.523237
0.034067,0.442370,0.834290,0.219998,0.065612,-0.973291
0.443718,-0.553755,0.680461,-0.261971,-0.840982,-0.473413
-0.281774,-0.517313,0.720065,-0.302847,0.336752,-0.891562
-0.216167,-0.306690,-0.200786,0.461125,0.637376,0.617345
-0.242059,0.113908,0.841732,0.920529,0.347482,-0.178558
-0.033790,0.257312,0.924521,0.188263,-0.614815,0.765871
0.094527,-0.238941,0.218163,0.914539,-0.340608,0.218183
0.228966,-0.002958,0.546733,0.957207,0.237556,-0.165297
0.327750,-0.435732,0.528346,-0.445823,0.224603,-0.866484
-0.281252,-0.441826,0.688308,-0.350520,0.069662,-0.933961
-0.666233,0.027254,0.802777,-0.665010,0.732121,0.147517
-0.535396,-0.258127,-0.952345,-0.715736,0.146907,-0.682745
-0.505703,-0.150713,0.733401,0.900044,0.421180,-0.111929
0.290738,-0.145497,0.848099,0.306243,0.574730,0.758881
0.121427,0.060481,0.515922,0.885349,-0.409494,0.220163
-0.079036,-0.123384,-0.946565,0.022680,0.220487,0.975126
-0.002194,0.422242,0.714767,-0.247277,-0.717700,-0.650969
0.181844,-0.271851,0.395264,0.779590,0.562713,-0.274944
0.440663,0.077106,0.092357,-0.709974,0.564263,-0.421361
0.294984,0.020019,0.471842,0.068765,0.925906,0.371442
-0.032676,0.320734,0.749365,0.917232,0.203017,0.342737
0.090681,-0.219770,-0.930862,0.569876,0.543233,0.616554
-0.749270,-0.460074,0.825607,0.885255,0.463693,-0.036233
0.264768,-0.008348,0.587657,-0.616543,-0.722547,-0.312732
-0.385105,-0.251900,0.689337,0.609814,0.526411,-0.592468
0.642341,0.049821,0.345874,0.446245,0.508854,0.736161
0.223411,-0.623761,0.666703,0.446976,0.894305,-0.020746
-0.793903,-0.383715,-0.989168,-0.304438,-0.129482,-0.943690
0.210880,0.135135,-0.930480,0.062599,-0.998029,-0.004448
-0.625338,0.038800,-0.981241,0.242844,-0.879257,-0.409797
-0.336903,-0.091935,-0.960755,-0.188273,0.162629,-0.968558
0.197876,-0.032475,-0.918301,0.839332,-0.011087,-0.543505
0.095133,-0.214336,0.691063,-0.683669,0.728368,0.045576
-0.318036,-0.337652,0.756962,-0.563167,-0.826314,-0.006982
-0.091506,0.150093,0.718764,0.371878,-0.061434,0.926246
0.021913,-0.077665,-0.932099,0.670067,0.700336,0.246048
0.033355,-0.492142,0.725174,-0.293134,-0.501391,0.814051
0.119955,-0.140931,0.319442,0.919052,0.338835,0.201331
0.017908,-0.205767,0.056623,0.589799,0.408517,-0.696599
-0.351400,0.051231,-0.939491,-0.017335,-0.987171,0.158721
0.012638,0.096197,0.925081,0.225660,0.845511,0.483931
0.266844,-0.027111,0.575373,0.756137,0.596249,-0.269710
-0.039817,-0.339385,-0.936782,0.417187,0.281886,-0.863999
-0.100949,-0.153623,-0.270050,0.980086,0.192951,0.046915
-0.383965,0.060405,-0.966010,-0.367134,0.619095,0.694215
0.097905,0.242613,0.895740,0.695033,0.690350,0.200863
0.696219,-0.165268,0.595905,0.694240,-0.607463,-0.386031
-0.072180,-0.387883,-0.913752,0.809282,-0.427125,-0.403270
0.063165,-0.160243,0.232228,-0.070199,0.726972,0.683070
-0.343266,0.023896,0.867419,0.183766,0.667248,0.721810
-0.162322,0.242547,0.662254,-0.453202,-0.768753,0.451251
0.130611,0.097255,-0.937858,0.324652,-0.781636,0.532584
-0.472481,0.004339,0.713544,-0.583399,0.562138,-0.586213
-0.107352,-0.332405,-0.924208,0.938024,0.194177,-0.287066
-0.214592,-0.231512,0.786581,0.721926,-0.006917,0.691935
0.421555,-0.302497,-0.928916,0.331974,0.165914,0.928583
-0.495314,-0.490027,-0.920733,-0.603185,0.296443,0.740466
-0.373386,-0.254290,-0.959498,0.537607,-0.261388,-0.801657
-0.054085,-0.198950,-0.363097,0.512390,0.557331,0.653329
0.139329,0.083524,0.218185,0.794565,-0.276435,-0.540602
-0.801405,-0.269303,-0.971090,-0.638478,0.439519,0.631797
0.103590,-0.369771,-0.899821,0.555665,-0.307358,-0.772507
-0.393466,-0.104887,0.720572,0.953382,0.275189,-0.123825
-0.193618,-0.273166,-0.178482,0.729497,-0.432245,-0.530093
0.303677,-0.066997,-0.883883,0.152159,0.023321,0.988081
-0.082020,0.145238,0.713306,0.731357,0.681392,0.028665
-0.071252,0.496597,0.671623,0.269933,-0.071629,-0.960211
-0.487022,-0.184928,-0.975025,-0.284317,0.222683,0.932511
-0.712505,-0.391464,-0.951435,0.393343,0.646786,0.653414
0.005130,-0.340886,0.942493,-0.527283,0.843130,0.105382
-0.169472,-0.234156,-0.779381,0.954295,-0.258526,0.149949
0.043977,-0.466501,0.938296,-0.773931,0.390011,-0.498921
-0.483132,0.154194,-0.960497,0.185672,0.973731,0.131811
-0.186018,-0.460737,-0.913101,0.719920,-0.364133,-0.590866
0.194553,-0.575364,0.685494,0.822623,0.068582,-0.564436
0.301963,-0.089951,-0.922945,0.669518,0.630198,-0.393189
0.171158,-0.345901,0.100528,0.948231,0.240088,-0.207886
-0.226658,-0.348946,-0.924237,0.716344,0.513877,-0.471998
0.690137,0.325328,-0.007742,0.738387,-0.674279,-0.011486
0.367720,-0.383963,0.478100,0.117442,-0.985310,0.123985
0.140239,-0.001161,-0.086465,0.118687,0.957272,-0.263711
0.008118,-0.111207,0.023635,-0.668859,0.698197,-0.255244
-0.101930,-0.134912,-0.334700,0.032914,-0.948423,-0.315293
-0.098720,0.331314,0.792645,0.697627,-0.685697,-0.207692
-0.151146,-0.443515,-0.915098,0.354931,-0.913983,-0.196620
-0.132180,-0.182473,-0.917036,0.672541,0.723173,0.157192
0.205846,0.400852,0.800055,-0.107853,0.558034,0.822779
-0.007256,0.575064,0.812917,-0.151707,0.984501,-0.087992
-0.450568,-0.427068,-0.941576,0.558201,-0.813854,0.161409
-0.178344,-0.526614,-0.945945,0.562116,-0.149319,-0.813468
0.413405,-0.387267,-0.907993,0.595538,-0.034881,-0.802570
0.506165,-0.064649,0.295105,-0.155857,-0.987741,-0.008782
-0.212899,0.020540,0.726231,0.438371,0.571859,0.693403
-0.060752,-0.187855,-0.358260,0.656940,0.358129,0.663456
0.216011,-0.414408,0.899641,0.193406,0.493225,0.848129
-0.618708,-0.087969,-0.977977,0.432171,-0.280261,-0.857136
-0.258953,0.025901,0.755394,0.876830,0.381447,0.292691
-0.171388,-0.306302,-0.923749,0.580016,0.225004,-0.782914
0.156188,-0.085697,-0.901893,0.267755,-0.962933,0.032669
0.780911,-0.140145,0.630455,-0.578402,0.689854,0.435376
-0.124043,-0.428028,-0.917670,0.382917,0.750785,0.538235
-0.040765,0.362180,0.766811,-0.853474,0.508381,0.114592
-0.485116,-0.382985,0.756921,0.714872,-0.695482,0.072539
0.196283,-0.357627,0.499472,0.504526,0.809954,0.299046
-0.205530,0.555113,0.626713,0.866597,0.306054,-0.394133
-0.094542,-0.126139,-0.901914,-0.624408,0.191090,-0.757363
-0.521618,-0.533452,-0.917306,-0.536044,0.024294,0.843840
-0.021604,-0.130955,-0.320124,-0.780003,0.625276,-0.024994
-0.173621,-0.213298,-0.329181,0.601111,-0.665323,-0.442732
-0.181816,0.285917,0.764804,-0.074273,-0.647141,0.758744
0.181375,-0.339953,0.390906,0.326520,0.163259,0.930984
-0.211618,-0.468556,-0.932051,0.027442,0.111954,0.993334
-0.512104,-0.336479,-0.954395,0.522779,0.463348,0.715549
-0.456109,-0.217527,-0.971267,0.303647,-0.201565,-0.931220
-0.447803,0.354308,0.799542,0.835688,0.300520,0.459688
0.408879,-0.243805,-0.456064,-0.546506,-0.833987,0.076136
-0.369961,-0.096418,0.859113,0.345434,0.120338,-0.930696
-0.645293,0.244876,0.729796,0.736066,0.106320,-0.668508
0.010353,-0.089195,-0.110027,-0.314319,0.937940,-0.146534
-0.088757,-0.177037,-0.334542,0.285396,-0.899322,-0.331313
-0.118187,0.530342,0.795514,0.770029,-0.341915,0.538654
-0.273803,0.098030,0.701496,-0.042388,0.334938,0.941286
-0.671211,0.025605,-0.988279,0.540896,0.642442,0.542862
0.031564,-0.237219,0.807573,-0.013601,-0.469805,0.882665
-0.615807,-0.487088,-0.935393,0.147263,0.136342,-0.979655
-0.169489,-0.391670,-0.923506,-0.756991,0.642764,0.117554
-0.532263,-0.406465,-0.937368,0.345248,0.872647,-0.345385
-0.666944,-0.383749,-0.975568,0.964303,-0.244476,0.101743
-0.592876,0.272107,0.759667,0.007718,-0.999576,0.028063
0.583316,-0.659760,0.688133,0.909935,0.206143,-0.359895
0.110303,-0.186756,0.093462,-0.536471,0.636827,-0.553760
0.478996,-0.133639,0.502166,0.372538,-0.109633,0.921518
0.040824,-0.603799,-0.907878,0.825111,0.418467,-0.379575
-0.095164,0.246315,0.800559,0.253783,0.561683,0.787468
0.004528,0.004315,0.993054,-0.462687,0.771423,0.436839
0.061017,-0.235358,-0.198067,0.842904,-0.536059,-0.046400
0.195511,-0.391560,-0.907689,-0.139167,0.176493,0.974414
-0.189876,-0.449943,0.751926,0.770978,0.465468,-0.434663
0.570281,-0.389795,0.366692,0.186298,0.979548,-0.076018
0.346777,-0.180614,0.519356,-0.228935,-0.162352,0.959808
0.322003,-0.414135,0.896714,-0.649093,-0.144278,-0.746902
-0.113279,-0.164450,-0.834201,0.158158,0.862807,0.480157
-0.570693,-0.058251,-0.965012,0.862475,0.505892,0.014476
-0.215747,-0.546331,-0.934208,0.234145,0.758427,-0.608248
-0.356916,-0.485764,0.726096,-0.746378,-0.423395,-0.513474
-0.194089,0.202328,0.928394,0.948354,0.167180,-0.269583
-0.500956,-0.267819,-0.958195,-0.317747,-0.024388,-0.947862
-0.279584,-0.001560,0.723483,-0.555179,0.774143,0.304104
0.065394,-0.194981,0.822029,0.302533,-0.939933,-0.158111
0.236932,-0.300416,0.417852,-0.513924,0.753521,-0.409987
-0.808441,-0.504538,-0.948867,-0.442008,0.584933,0.680061
-0.606709,-0.008926,0.935457,-0.207088,-0.970947,0.119903
-0.063850,-0.212688,-0.901464,-0.075736,-0.969943,-0.231248
0.066607,0.015904,0.177049,0.928753,0.354497,0.108398
0.406803,-0.398109,-0.910540,-0.527632,-0.063334,0.847109
0.398569,0.243667,0.533935,0.187737,0.603289,0.775111
-0.317001,0.047632,0.855569,0.410708,-0.774984,0.480332
0.202672,-0.405939,0.812656,0.252830,0.912275,0.322228
-0.139530,0.367909,0.683125,0.054372,0.804326,0.591695
-0.191393,0.547166,0.667847,0.734503,0.672377,-0.091731
-0.009840,-0.121502,-0.279391,-0.553932,0.831637,0.039223
0.327925,-0.533551,0.639675,0.773884,-0.256143,0.579218
-0.667099,-0.398212,0.841802,0.301805,0.569655,-0.764465
-0.340923,0.687356,0.749325,0.911621,0.360323,0.197773
-0.527547,-0.025263,-0.978533,-0.164922,-0.265569,0.949881
0.384967,-0.544846,0.869709,0.896086,-0.009965,-0.443769
0.740991,-0.285127,0.382941,0.370878,0.793876,-0.481883
0.392712,-0.368490,0.454289,0.372475,0.877347,0.302531
-0.136125,-0.377871,-0.924403,0.546385,-0.794895,-0.263827
-0.223725,-0.604979,-0.927925,-0.459406,0.211060,0.862786
0.103330,-0.176561,0.245733,-0.316880,0.924347,0.212534
-0.763401,-0.001256,-0.985029,-0.438329,-0.329500,0.836240
0.125470,0.016902,0.422587,0.494287,0.624737,-0.604471
-0.000430,-0.296919,0.757435,0.106691,0.134604,0.985139
-0.106521,0.468751,0.880309,-0.102815,0.969435,0.222764
-0.004530,-0.675693,-0.918345,-0.163745,0.966752,0.196415
-0.153071,0.035494,-0.954095,0.031367,0.745380,0.665902
-0.147146,-0.219116,-0.948858,0.862438,-0.277519,-0.423302
0.378293,-0.293505,-0.444441,-0.592303,-0.802774,0.068785
-0.222104,0.303922,0.835819,0.907607,-0.243123,0.342259
-0.626282,0.266885,0.762052,0.244009,0.902827,-0.354066
0.236865,-0.345490,-0.906652,0.992131,-0.119996,-0.035740
-0.284301,-0.262899,0.793388,0.929950,0.073235,0.360320
-0.713965,0.030828,-0.978649,0.508133,0.002316,0.861276
-0.197238,0.308161,0.849972,0.482706,0.072843,-0.872748
-0.600027,0.021964,0.910525,-0.179076,-0.973828,0.139967
0.610490,0.050625,0.014142,0.696080,0.565740,-0.442053
0.021330,0.451096,0.858556,-0.576878,-0.595276,-0.559337
-0.081199,-0.072397,0.858444,0.463533,0.152347,-0.872884
0.221748,-0.243549,0.268355,-0.650811,0.387761,0.652753
-0.673752,-0.396097,0.848799,-0.427083,-0.010041,-0.904157
-0.205622,-0.034102,-0.876238,0.993742,0.108905,0.024831
0.636030,-0.028713,0.548801,-0.612784,0.108091,-0.782823
-0.457495,0.061790,0.742176,0.986769,-0.053694,0.152986
0.188324,0.113715,-0.933888,0.376389,0.136914,-0.916289
0.032196,0.139873,0.954280,0.867978,0.484000,0.111169
-0.746724,-0.028687,-0.987614,0.174656,-0.271700,0.946401
-0.539999,-0.001001,0.803410,0.706828,-0.217821,-0.673015
0.053672,-0.152243,-0.211326,0.989394,0.005777,-0.145144
0.459569,0.094493,-0.148525,0.582798,0.455914,0.672673
0.133544,-0.146310,-0.033127,0.523131,-0.828145,-0.201271
-0.580125,-0.326852,-0.953925,0.363942,-0.614596,-0.699870
-0.071235,-0.601239,-0.920519,0.725613,0.069174,-0.684617
-0.042827,-0.176295,-0.288202,0.871896,-0.487115,0.050160
-0.141954,-0.345949,-0.935629,-0.682655,0.557972,-0.471856
-0.223453,-0.005376,-0.937082,0.356658,0.528330,-0.770495
0.437738,0.134325,0.543661,-0.439807,-0.590262,-0.676875
0.445105,-0.621580,0.730426,0.675847,-0.375392,0.634280
0.335744,-0.338451,0.531837,0.689997,-0.672462,0.267766
0.187211,-0.042307,0.387703,0.005717,-0.999659,0.025488
0.003753,-0.042104,0.177169,0.851237,0.448702,-0.272142
-0.790326,-0.108207,-0.963380,0.833096,0.439609,-0.335700
-0.119924,-0.533672,0.724120,0.533322,0.036915,-0.845106
-0.062858,0.340521,0.886293,0.684376,0.728086,0.038983
0.062405,-0.014813,0.333399,0.657024,0.753854,0.004832
0.023041,-0.194854,0.261754,0.743097,0.129192,-0.656594
-0.198253,-0.185230,-0.538520,-0.305141,0.926948,0.218306
0.062285,-0.198655,-0.154696,0.992492,0.045048,-0.113714
0.112293,-0.296885,-0.940846,0.451756,0.264246,0.852110
-0.009777,0.200907,0.683246,0.992707,-0.059009,-0.105119
0.215934,-0.037508,-0.396373,0.016875,0.708960,0.705047
-0.000257,-0.091056,-0.345542,-0.518345,0.637480,0.570033
-0.057294,0.174857,0.759579,0.729465,0.633276,0.258539
0.020554,0.395793,0.796201,0.905549,-0.024561,-0.423530
0.131367,0.521865,0.802655,-0.528932,-0.073140,0.845507
0.186832,-0.454161,-0.892093,-0.605334,-0.058727,-0.793802
-0.616396,-0.481267,0.828420,0.337946,0.293938,0.894088
0.365304,-0.326758,0.683792,0.983611,-0.179224,0.019720
-0.390389,-0.448507,-0.944239,-0.690318,-0.375630,0.618355
0.119796,-0.161093,0.431958,0.504405,-0.072005,0.860460
0.681940,-0.337409,0.353230,-0.464551,-0.213411,0.859446
-0.009580,0.170993,0.723055,-0.759648,0.618952,0.199585
0.767818,-0.112980,-0.225091,0.400227,0.696168,0.595960
-0.193184,-0.493224,-0.915425,0.969413,0.124185,-0.211697
0.073101,-0.519864,-0.911021,0.515878,0.238998,0.822648
-0.114440,-0.533977,-0.939905,0.216745,-0.834290,-0.506935
0.409123,-0.455952,0.835966,-0.224030,-0.544029,0.808605
0.172282,0.155787,0.140332,0.036804,-0.240968,0.969835
-0.132591,-0.464167,-0.925672,-0.848857,0.154853,0.505432
0.080648,-0.187461,0.260378,-0.548569,0.514856,0.658783
-0.728570,-0.014006,-0.971021,0.082307,0.910594,0.405023
0.056248,-0.347813,0.862324,0.395653,0.891914,0.218968
0.185034,-0.069272,0.523344,0.992333,-0.123566,-0.002692
0.188406,-0.218919,0.315197,0.500953,0.703164,-0.504585
0.517801,-0.172679,0.632422,-0.205895,-0.491948,0.845928
-0.016567,0.517364,0.854888,-0.456454,-0.706803,-0.540444
-0.286920,-0.309177,-0.947349,0.434703,0.247548,-0.865883
-0.372962,0.032287,-0.960296,0.875176,0.011090,-0.483677
-0.592578,-0.346187,0.831449,0.325407,-0.813156,0.482585
-0.358257,0.633677,0.751563,0.942090,0.333713,0.033214
0.299472,-0.558433,0.699493,0.844371,-0.374599,-0.383031
-0.583390,-0.064606,0.803966,0.212820,0.734307,0.644594
-0.204147,-0.480793,0.733353,0.230356,-0.969900,0.078933
-0.840384,-0.296903,-0.963537,0.795640,-0.470750,-0.381250
-0.088016,0.216236,0.664702,-0.532121,-0.559417,-0.635531
-0.459356,0.020662,0.886582,0.611275,0.639073,0.466827
-0.190030,0.455679,0.880703,-0.447686,-0.125876,0.885287
0.268282,-0.096968,-0.910174,-0.120674,0.632979,0.764706
0.137641,-0.181922,-0.921603,-0.022537,-0.730495,0.682546
-0.333682,-0.260565,-0.946907,0.393100,-0.230554,-0.890122
0.020733,-0.067523,-0.340162,0.911107,0.405970,-0.071225
0.052893,0.059842,-0.929524,-0.498627,-0.200547,-0.843298
0.205995,0.074777,0.134054,0.286539,-0.318730,0.903497
0.464274,-0.356089,-0.905542,-0.643939,-0.368545,-0.670460
0.282837,-0.194334,0.856238,0.400374,0.579265,0.710037
0.030330,-0.486115,0.727344,-0.070861,-0.496893,0.864914
-0.139741,-0.145050,-0.932956,-0.330909,0.006609,0.943639
-0.244130,0.455014,0.885768,0.108770,-0.055675,0.992507
-0.235471,-0.601197,-0.945390,0.534260,0.038932,0.844423
-0.049011,-0.092493,-0.912380,0.169532,0.676236,0.716913
-0.609541,-0.375083,-0.938039,0.302675,0.563249,-0.768855
0.052876,0.266027,0.923461,-0.687480,0.724534,0.049218
0.016824,-0.487509,-0.918248,0.451756,-0.338691,-0.825352
0.130253,0.106539,0.451667,0.942646,0.333779,0.003231
0.474130,-0.583615,-0.907329,0.771818,-0.446560,0.452639
-0.010726,0.389436,0.793572,0.803716,0.244325,-0.542537
-0.598998,-0.051772,-0.960713,0.027721,0.954590,0.296632
-0.405277,0.286254,0.796147,0.498987,0.228474,0.835950
0.297903,-0.077324,0.603658,0.561455,0.827081,0.026567
-0.278327,0.643402,0.641903,0.327084,0.797510,0.506946
-0.233700,-0.369912,0.715664,0.639308,0.424530,-0.641139
-0.492346,-0.062127,0.787391,-0.100244,-0.561641,0.821286
-0.487647,-0.120279,-0.946987,0.250660,-0.475074,0.843489
0.172570,-0.103462,-0.185286,-0.566813,0.823132,0.034298
-0.297060,0.084721,0.884330,0.415254,-0.034149,0.909064
0.158461,-0.334129,0.766119,0.887915,0.458069,-0.042173
-0.385635,-0.132745,0.739618,0.937865,-0.342472,0.055879
0.075197,-0.178871,0.011404,0.766214,0.193519,-0.612754
0.196207,0.040492,0.478832,0.168391,-0.962670,-0.211924
-0.303674,0.205791,0.801895,-0.306911,0.743145,-0.594594
-0.196135,0.015054,0.847016,0.860875,0.403419,0.310076
-0.677291,-0.419533,-0.958228,0.888235,0.222968,0.401651
0.236161,-0.420438,0.891206,0.747091,0.611355,0.260959
-0.630113,-0.233874,-0.974129,-0.510773,-0.094381,0.854520
-0.037887,0.041940,0.990127,0.911684,-0.373366,0.171553
-0.040042,-0.326180,-0.930261,-0.545761,0.052579,0.836290
-0.518197,-0.448460,-0.942973,0.799255,-0.275238,-0.534261
-0.586470,-0.021651,-0.957263,0.676854,-0.235937,-0.697282
0.028853,0.428649,0.834490,0.724207,-0.035662,-0.688660
-0.705018,-0.361393,0.838639,0.371436,0.861137,-0.347100
-0.002246,0.132219,0.665120,-0.499856,-0.678087,0.538834
-0.074304,-0.684148,-0.907418,-0.453590,0.863804,0.219317
0.035444,-0.098375,-0.952093,-0.293029,0.411030,0.863243
0.804105,-0.176430,0.650927,-0.773411,0.255950,0.579935
-0.118872,0.160722,0.969421,0.085580,-0.093312,0.991952
-0.437436,0.059888,0.883188,0.795263,0.221967,-0.564170
0.227422,-0.326639,-0.907957,0.957572,-0.274846,-0.086692
0.060499,-0.545240,0.727862,-0.446964,-0.856646,0.257644
-0.278010,-0.283604,-0.929547,-0.429539,0.557304,0.710569
0.301349,-0.236063,0.852274,0.326861,0.448893,0.831659
0.305991,0.045903,-0.935510,0.569661,-0.258772,-0.780079
0.332125,-0.654709,0.355622,0.705465,-0.626343,0.331683
0.373306,-0.635650,-0.899040,0.815667,0.547036,0.188253
0.329066,-0.308496,0.859505,-0.689688,-0.135577,-0.711301
0.167373,-0.347815,-0.936508,-0.214900,0.910220,0.354003
-0.281168,-0.426395,-0.927805,0.424264,0.722472,0.545925
-0.300780,-0.048782,-0.938852,0.615793,0.616245,0.490959
-0.337550,-0.451218,0.718516,0.642636,-0.311706,0.699899
-0.326035,0.151706,0.770945,0.874909,0.324332,-0.359643
0.869723,-0.901471,0.665582,0.414362,0.020177,-0.909889
-0.187727,-0.452218,0.769897,0.346011,0.879483,0.326782
0.232817,-0.592531,0.867317,0.938961,0.326138,0.109481
0.152455,-0.346349,0.836477,-0.385138,-0.881897,0.271893
-0.504299,-0.502082,0.796865,0.220872,0.670548,0.708223
-0.304181,-0.231364,-0.957349,0.344319,-0.183788,-0.920688
-0.147502,-0.209684,-0.434588,-0.039793,-0.993501,0.106645
-0.302482,0.186442,0.828564,0.708713,0.201617,-0.676075
-0.014028,0.164588,0.862153,-0.167930,0.690679,-0.703393
-0.655128,-0.205740,-0.972589,0.981938,-0.032216,-0.186442
-0.098730,-0.037258,0.145939,0.998167,0.041703,0.043847
-0.274559,0.458068,0.892761,-0.543330,0.045910,-0.838263
0.024261,-0.256390,0.877514,-0.096597,-0.176364,0.979574
0.388873,-0.586190,-0.915305,0.851292,0.052225,0.522087
0.140457,0.027860,-0.923083,0.411202,-0.055625,-0.909846
-0.608956,-0.338811,0.841865,0.385460,-0.606268,0.695601
-0.043929,-0.385186,0.701738,0.034122,-0.417450,0.908059
-0.134126,-0.233217,0.781756,-0.265059,-0.664916,0.698305
-0.661131,-0.025695,0.820877,-0.103085,0.992626,-0.063769
-0.667313,-0.050555,-0.973265,-0.641872,0.157721,-0.750416
-0.736610,-0.317973,0.883990,-0.514937,-0.840600,0.168025
-0.689372,-0.458993,-0.958282,0.350949,-0.167382,0.921313
-0.275809,-0.530728,0.737342,-0.600131,-0.085016,0.795371
-0.352982,0.971970,0.645466,0.475188,0.859586,-0.187903
-0.743549,-0.553948,-0.970854,0.581497,-0.170277,-0.795529
-0.671940,-0.387854,-0.961469,-0.874045,0.474362,-0.105002
-0.023672,0.051303,0.904353,-0.606018,-0.475437,0.637732
-0.668586,-0.106841,0.791779,0.565883,0.769963,-0.294845
0.369882,-0.267974,0.757887,-0.413974,0.820065,0.395120
-0.630208,0.288334,0.758791,-0.091094,-0.913220,0.397154
0.091646,-0.220045,0.394217,0.670672,0.602852,-0.432168
0.691668,0.034317,0.054516,-0.758160,-0.415313,-0.502701
-0.260612,-0.018433,-0.941561,0.256267,0.261493,0.930564
-0.280856,0.281990,0.792287,0.849961,-0.393312,-0.350531
-0.224969,-0.366044,0.724132,0.921366,-0.052161,-0.385179
0.058403,-0.091534,0.366552,-0.430066,0.536656,0.725978
0.052295,-0.242364,0.059588,0.210087,-0.941369,0.263985
-0.145075,0.324311,0.652017,-0.233882,-0.935733,-0.264013
0.169050,-0.182776,0.396351,-0.030763,0.985297,0.168056
0.741572,-0.264176,0.673846,0.462828,0.093240,-0.881531
0.339080,-0.472744,0.891739,0.322722,0.806759,0.494965
0.135709,-0.178257,0.520440,0.915072,-0.358436,-0.184844
-0.103754,-0.257290,0.054383,-0.369431,0.451141,-0.812399
0.146428,-0.375144,0.398160,0.321724,-0.946801,-0.007840
0.766183,-0.036308,-0.001068,0.604145,0.591824,-0.533623
-0.042805,-0.352423,-0.929041,0.781992,-0.425842,-0.455134
-0.429167,0.014089,-0.959898,0.899293,0.402011,-0.172216
0.037105,-0.017776,0.634793,-0.244734,-0.022639,-0.969326
-0.056748,0.385363,0.819350,-0.167447,-0.028054,0.985482
-0.188935,-0.576647,0.726511,0.017067,0.631791,0.774950
-0.094918,0.367007,0.666922,0.724608,0.106549,-0.680874
-0.026775,0.130155,0.924383,0.616438,0.662835,0.425034
0.248903,-0.551587,0.869444,0.743209,-0.232036,0.627534
-0.020068,0.524308,0.808157,0.868252,0.412380,0.275829
0.364758,-0.203581,0.600424,-0.592523,-0.429229,0.681674
0.396095,-0.508232,0.710877,0.794596,0.593180,-0.129439
0.132948,0.051217,0.624913,0.514771,0.691390,0.506943
-0.412956,-0.439124,-0.960876,0.107964,0.411453,0.905014
-0.142382,-0.179342,-0.446424,0.836683,0.356583,0.415704
0.032000,0.060987,0.528931,0.681194,0.075302,-0.728220
0.104718,-0.492166,0.700859,0.212400,0.229354,-0.949886
-0.161036,-0.250616,-0.954929,0.967142,0.029108,-0.252566
0.020426,0.410897,0.669887,-0.395732,-0.481199,-0.782204
-0.335658,-0.548679,0.729899,0.769587,0.599758,0.219150
-0.181253,0.016659,0.713965,0.426637,-0.835605,0.346041
0.372128,-0.561570,0.885012,0.974598,-0.222131,0.028574
-0.304267,-0.480743,0.734806,-0.044863,-0.684299,0.727821
-0.267041,0.181274,0.825801,-0.576855,0.811500,0.093305
-0.067332,-0.662189,-0.919776,0.906651,-0.386515,-0.169085
-0.324566,0.115390,0.812366,0.845718,-0.067620,0.529328
0.003380,-0.043560,-0.092769,-0.247325,0.967995,0.042617
-0.080076,0.045917,0.887563,0.961062,0.253949,0.108950
-0.599854,-0.327063,-0.965576,-0.157250,0.609714,0.776866
-0.474224,0.083120,0.732655,0.821875,0.103729,0.560145
-0.543755,-0.702864,-0.939035,0.115870,0.796903,0.592891
0.048601,0.043409,0.864613,0.974811,-0.222838,0.009339
-0.010749,-0.621558,0.697606,0.173682,-0.729789,0.661243
-0.072654,-0.207133,-0.932787,-0.255853,-0.175374,-0.950675
0.086191,-0.236335,-0.936669,-0.597259,-0.138990,-0.789913
-0.600551,-0.099028,0.768240,0.436352,0.885459,0.159873
0.146779,-0.167142,0.419328,0.872389,0.479583,0.094533
0.108470,-0.129089,-0.915918,0.405464,0.376811,-0.832834
-0.410448,0.029384,0.756389,0.834774,0.254674,0.488154
0.230591,-0.512077,0.574339,-0.709550,-0.695112,0.115583
0.027670,-0.551022,0.703025,0.613204,0.300007,0.730737
0.027114,-0.154169,-0.210357,0.767233,-0.297788,0.568046
0.222724,-0.452110,0.914562,0.046247,-0.707095,-0.705605
0.026269,0.070211,-0.949139,0.641603,0.722293,0.258144
0.026695,0.209008,0.707728,0.997728,-0.012340,-0.066225
-0.136640,-0.179755,-0.661529,0.484509,0.872469,-0.063628
0.344604,-0.517093,0.890719,0.776430,0.152927,-0.611367
-0.366666,-0.065328,0.881050,0.999893,0.002436,0.014422
-0.539908,-0.495228,-0.951320,0.941200,0.331451,-0.065436
-0.037312,0.543016,0.796721,0.951097,-0.132864,0.278858
0.306481,0.059001,-0.225098,-0.710841,0.263491,-0.652133
-0.248880,-0.393895,0.721481,0.588745,-0.774538,-0.231239
-0.155928,-0.032794,0.851488,0.019360,0.699100,0.714762
0.009469,-0.169555,0.107441,0.993732,-0.040213,-0.104310
-0.254269,0.070401,-0.949683,-0.227847,0.567876,-0.790950
-0.327832,1.000000,0.663927,0.763109,0.604240,0.229258
0.138318,-0.392071,-0.905659,-0.209765,0.020014,-0.977547
-0.173118,-0.397283,-0.943979,0.672477,0.032222,-0.739417
0.039679,0.019529,-0.927677,0.635493,-0.051337,0.770398
0.218015,0.056547,-0.937664,0.814516,-0.395279,0.424639
-0.032881,-0.573869,-0.906179,-0.570465,0.816722,0.086799
-0.361981,0.109754,0.841014,-0.631999,0.719915,-0.286880
-0.698708,-0.341546,-0.977080,0.014072,0.224586,0.974353
-0.382701,0.096925,0.836728,0.764420,-0.553434,0.330716
0.053431,-0.374016,0.706743,0.510020,0.650318,-0.562997
-0.266094,-0.038027,0.861931,-0.274393,-0.361022,-0.891275
0.282321,0.240788,-0.925912,0.332679,0.078596,0.939759
0.715012,-0.397522,0.620844,-0.007603,0.741956,0.670405
-0.166269,0.151637,-0.940964,0.230677,-0.926237,-0.298115
-0.084881,-0.376029,0.769691,0.926802,0.185313,0.326646
-0.139825,-0.158054,-0.835726,0.158158,0.862807,0.480157
-0.761295,-0.337212,-0.965560,-0.680243,0.684914,-0.261080
0.041461,-0.100298,0.131949,0.787329,-0.362344,0.498819
0.199451,-0.120557,-0.088655,0.371421,0.769364,0.519736
0.121796,0.410868,0.815239,-0.515003,0.285658,-0.808190
0.425154,-0.291248,0.913963,-0.381531,-0.749954,0.540374
-0.297278,0.081442,0.856717,0.809590,-0.026461,0.586400
-0.343383,-0.212309,0.712015,-0.639097,-0.369367,0.674628
0.016029,0.132281,0.724344,0.361425,-0.890711,0.275693
-0.165066,0.286557,0.939677,0.333601,0.908566,0.251434
-0.139470,-0.021070,-0.930822,-0.059414,0.000920,0.998233
0.089896,-0.170727,0.208181,0.942445,0.164135,0.291304
-0.590210,-0.423580,-0.953690,0.400596,0.915870,-0.026538
-0.761080,-0.117267,-0.979030,0.953932,0.244201,0.174297
0.393923,-0.544746,-0.893397,0.570255,-0.056246,-0.819540
0.296706,-0.459140,0.601416,-0.715862,0.412983,0.563016
-0.684852,-0.419847,-0.950853,0.634544,0.620437,-0.460881
-0.211284,0.519827,0.889407,0.110680,-0.079450,0.990675
-0.176893,-0.318699,-0.947862,0.749797,0.546930,0.372387
0.568171,-0.223736,-0.350607,-0.535031,0.633269,0.559207
0.607487,-0.577958,0.641586,0.773246,0.266610,0.575334
0.829652,-0.444957,0.355478,0.010951,-0.132308,0.991148
-0.334854,-0.389448,0.738793,0.204319,0.777387,-0.594914
0.016553,-0.258924,0.230503,0.798371,0.522018,0.300169
0.197868,-0.067952,0.541085,0.821123,0.171736,-0.544301
0.015927,0.039656,0.734244,-0.873477,0.242353,0.422259
0.105826,-0.569276,0.726151,0.258429,0.736403,-0.625240
0.164583,-0.271240,0.263544,-0.047683,-0.974048,0.221262
-0.518766,-0.461567,-0.941965,0.529503,0.013741,-0.848196
-0.740291,-0.276688,-0.982230,0.096845,-0.548161,0.830747
0.290500,-0.499837,0.912959,-0.006170,-0.615835,0.787851
0.130621,-0.440447,0.708959,-0.274200,0.165192,-0.947378
0.037347,-0.565081,-0.933302,0.422961,0.241726,-0.873311
1.000000,-0.732181,0.644739,0.957112,-0.277995,0.081579
0.709770,-0.428238,0.621169,-0.007603,0.741956,0.670405
0.030918,0.366324,0.807785,0.684947,-0.588742,-0.429221
0.068136,-0.212650,-0.325934,-0.033276,-0.992397,0.118495
-0.077846,0.025173,0.924708,-0.325729,-0.692826,0.643345
-0.632813,0.115237,0.812612,0.775834,-0.218728,-0.591811
0.063168,-0.584087,0.708781,0.565976,-0.677039,0.470414
-0.724122,0.256238,0.709723,0.921482,0.252632,-0.295040
-0.698198,-0.045394,0.821933,0.717500,0.692628,0.073898
-0.423301,0.067747,-0.963931,0.608925,0.159140,0.777101
-0.674595,0.154087,0.725408,-0.383442,-0.154317,0.910582
0.770790,0.018539,0.313146,-0.744830,-0.610750,0.268725
0.429346,-0.041895,0.246301,0.092128,-0.990214,0.104830
0.413994,-0.449449,0.892580,-0.444271,0.535250,0.718422
0.178193,-0.459135,0.453955,0.379423,0.893311,-0.240903
-0.538279,0.098050,-0.966444,-0.596484,0.732254,0.328650
0.843989,0.437594,-0.021407,0.529166,-0.791536,-0.305704
-0.582361,-0.274687,-0.973059,0.088672,0.358100,0.929463
-0.130088,0.150583,0.726594,0.823872,-0.487266,0.289493
0.059634,0.058469,0.954387,0.809912,0.373779,0.452031
0.004618,-0.049563,-0.323275,0.968867,-0.247579,-0.001425
-0.586425,-0.422133,-0.958799,0.386353,0.338785,0.857879
0.090984,0.489439,0.805881,0.200142,0.965645,-0.165751
0.014571,-0.358847,0.940268,0.778217,0.547747,-0.307166
-0.170996,-0.184504,-0.324604,-0.686062,0.627447,0.368278
-0.640825,-0.350529,-0.949740,0.293784,0.938622,-0.180777
-0.223052,0.122218,0.876798,0.558321,-0.659528,0.503290
0.292657,-0.556723,0.827570,0.418785,0.874087,-0.246150
-0.423525,-0.399239,-0.929230,-0.568035,0.805206,0.170233
-0.447492,-0.330518,-0.959312,-0.598735,-0.114740,-0.792686
0.500174,-0.414254,0.860545,0.508059,0.760616,-0.404152
0.388235,-0.567615,0.890661,0.844717,0.406190,-0.348514
0.615468,-0.764902,0.359736,0.041102,0.060261,0.997336
-0.209368,-0.383084,-0.938580,0.409318,0.894910,-0.177753
-0.185535,0.224193,0.724708,0.482252,0.202190,-0.852380
0.470511,-0.531086,0.893080,-0.461816,-0.330055,-0.823280
-0.224716,-0.084085,0.903657,-0.218464,-0.627310,0.747500
-0.321117,0.090478,0.863744,-0.361087,-0.057034,0.930787
-0.555861,-0.085794,-0.953054,0.392185,0.206239,-0.896469
-0.391669,0.053742,-0.964393,0.063564,-0.915495,-0.397277
0.121920,-0.095481,0.304708,0.969231,0.244171,0.031181
-0.009435,-0.111535,-0.005969,0.942381,-0.253171,-0.218684
0.666237,-0.680883,0.365790,-0.016499,-0.073380,0.997168
0.565334,-0.352894,0.390863,0.076342,0.811506,0.579336
-0.054203,-0.191481,-0.209113,0.448529,-0.094793,0.888727
-0.286226,-0.615418,0.719672,-0.155621,0.654251,0.740093
-0.021332,-0.057448,-0.344673,-0.608446,0.793582,0.004491
-0.566268,-0.412700,-0.943230,0.619921,0.700731,-0.353093
0.217330,0.122865,-0.908236,0.737606,-0.589545,-0.329203
0.445656,-0.228446,-0.373321,0.319809,0.945224,0.065372
-0.449219,-0.005989,0.907091,0.107706,-0.938435,0.328235
0.022805,-0.669342,0.784005,0.578699,0.323342,0.748704
0.110281,0.062798,0.502320,-0.679519,0.167776,0.714217
-0.219851,0.541065,0.869644,0.331934,0.551489,-0.765297
0.032077,-0.003803,0.402246,-0.638102,0.704654,0.310304
0.113314,0.011246,0.360514,-0.330660,0.623822,-0.708174
-0.564660,-0.469356,0.822514,0.416686,-0.863121,0.285298
-0.031982,0.558488,0.675840,-0.292762,-0.954413,0.058198
-0.120316,-0.247160,-0.937718,-0.476079,0.310374,0.822811
0.036335,-0.117379,-0.281294,-0.769971,0.624067,0.132989
0.406497,-0.371271,0.458787,0.407555,0.891797,-0.196461
0.180269,-0.117785,-0.090200,0.194306,0.012251,0.980864
-0.877870,-0.410243,-0.961799,-0.741905,-0.567995,-0.356313
0.260201,-0.611051,-0.913848,0.064245,0.375614,0.924547
0.335091,-0.503979,0.646022,0.345772,-0.783644,0.516085
0.197732,-0.081002,0.283044,0.445615,0.057911,0.893350
-0.538261,-0.575363,-0.935327,-0.266353,0.002885,0.963871
-0.174889,0.354599,0.658740,0.048500,-0.702756,0.709776
-0.064990,0.320906,0.802553,-0.503135,0.380016,0.776172
-0.308763,-0.438886,0.721391,0.816111,0.337687,0.468967
-0.254793,-0.016584,0.903491,0.239880,-0.730548,0.639342
-0.599173,-0.103218,0.813432,0.071500,0.907933,-0.412971
-0.524003,-0.038281,0.865340,0.840879,-0.175390,-0.512016
-0.679882,-0.002738,-0.967052,0.160850,0.584406,0.795359
-0.292267,0.321022,0.774772,0.415555,-0.704869,0.574868
0.296989,-0.089426,-0.909539,0.717297,0.423197,-0.553524
-0.059298,-0.460859,0.727447,0.441938,0.063035,0.894828
0.606230,0.168757,0.032906,-0.770578,0.363232,0.523709
0.019497,-0.565053,-0.909763,-0.645659,-0.762298,0.045018
-0.703547,-0.307553,-0.983862,-0.272517,0.288882,0.917759
-0.261805,-0.481712,-0.918688,-0.417242,0.147124,0.896808
-0.227348,-0.469364,0.735802,-0.571927,0.514822,-0.638637
-0.364520,-0.518080,-0.938220,0.178815,-0.168273,-0.969386
0.230490,-0.326710,0.303379,0.339225,0.934691,0.106203
-0.371132,-0.502354,-0.952491,-0.104744,-0.777177,0.620504
-0.428776,-0.471131,-0.955017,0.289329,0.384441,-0.876638
-0.009607,-0.015954,0.267981,-0.239813,0.888294,0.391694
-0.326163,-0.499072,0.748153,-0.631489,0.288912,0.719550
0.221592,-0.201493,-0.074006,-0.550511,0.752496,-0.361506
0.161693,-0.312852,-0.922441,0.264497,0.941533,-0.208702
-0.596463,-0.369933,-0.939744,0.375738,-0.603339,0.703422
-0.230733,-0.317800,-0.939561,-0.709652,0.600249,0.368911
0.208739,-0.494397,0.916167,0.236931,0.764625,-0.599344
0.195294,0.048502,0.554233,0.724656,0.534662,-0.434752
-0.041542,-0.491418,0.697179,0.488755,-0.069151,-0.869676
-0.210759,-0.378183,-0.949539,0.078251,0.327404,0.941639
0.367003,-0.287601,-0.917158,0.016412,0.284606,0.958504
-0.094683,0.427762,0.899817,0.174548,0.968787,0.176027
-0.230187,-0.039273,0.857628,-0.041423,0.746534,0.664056
-0.040585,0.218491,0.792664,0.841947,0.535446,-0.066509
-0.776591,-0.121579,-0.982403,0.939084,0.322855,0.117841
0.278961,-0.513431,-0.903791,0.832246,-0.317412,0.454550
0.109396,-0.522510,-0.921615,-0.376717,0.727775,0.573086
-0.522979,0.215088,0.810432,0.913616,-0.389479,0.116671
0.273787,0.140749,-0.934822,-0.134961,-0.545471,0.827192
-0.437768,-0.042340,-0.946543,-0.638584,0.500227,-0.584794
-0.742867,-0.446526,0.795373,0.026792,-0.727065,0.686046
0.417586,-0.591460,0.869813,-0.931963,-0.072927,0.355142
-0.317215,-0.162033,-0.948620,-0.253970,-0.184023,0.949544
0.042257,-0.327396,-0.926130,-0.398927,0.533413,-0.745874
0.045101,-0.576337,-0.906926,-0.233022,-0.669006,0.705785
-0.550266,-0.218630,-0.968087,0.322920,-0.211262,-0.922546
0.226621,-0.250793,0.806387,-0.143640,0.630358,-0.762900
0.294340,-0.307449,0.710897,-0.825588,0.324300,-0.461772
-0.239661,-0.144134,0.781524,0.818160,0.331359,-0.469910
-0.059701,-0.069685,0.866876,-0.382279,-0.247839,0.890190
0.050909,-0.293418,0.275227,-0.577295,-0.794627,0.187880
-0.011217,0.312854,0.926929,0.398973,-0.470494,0.787055
0.071583,-0.094766,-0.086128,-0.157133,0.986378,0.048657
0.772155,0.315554,0.038492,-0.622950,0.622328,0.473964
-0.191076,-0.115570,-0.952031,0.975128,-0.165104,-0.147871
0.401660,-0.428815,0.881893,-0.329183,0.833547,0.443664
0.284217,-0.169468,-0.381030,-0.256810,0.347304,0.901903
0.413905,0.221396,0.537967,0.187737,0.603289,0.775111
0.033246,0.189351,0.855765,0.496336,0.301915,0.813940
-0.733254,-0.336371,-0.973532,0.349773,-0.905369,0.240759
-0.414550,-0.054544,-0.949020,-0.438272,0.808163,0.393434
-0.140479,-0.120046,-0.685863,-0.683446,0.729033,0.037577
-0.670910,-0.338304,-0.939940,-0.414277,-0.910003,-0.016402
-0.096348,-0.374944,0.723219,0.707787,0.428226,0.561836
0.219642,0.033301,0.549209,0.905423,0.358015,0.228110
-0.321805,0.794208,0.675354,0.836679,-0.168191,-0.521229
0.064875,0.433414,0.703902,0.399663,-0.856015,0.327884
0.378075,-0.395865,0.871622,0.842552,-0.342572,-0.415633
-0.098836,-0.214030,-0.916037,0.526763,0.756697,-0.387209
0.241150,-0.486111,-0.910086,-0.130953,0.036976,-0.990699
0.047304,-0.169603,0.143821,0.843483,0.536237,-0.031412
-0.144535,0.376342,0.902340,0.925527,-0.272122,-0.263344
0.072922,-0.222681,0.235304,0.728443,-0.619904,0.291702
0.310812,-0.216049,0.849359,0.249195,0.656978,0.711535
-0.045245,-0.526122,0.714306,-0.705382,0.655086,-0.270737
-0.219718,-0.434900,-0.935103,0.040246,-0.833960,-0.550355
0.047260,0.452879,0.807490,-0.250908,0.907522,0.336822
0.181335,-0.394201,0.457756,0.864824,-0.129495,-0.485089
-0.386725,-0.113490,0.710988,0.149442,0.628761,0.763104
-0.507938,-0.057008,0.717528,0.922487,-0.322348,0.212390
-0.047791,-0.216598,-0.306703,0.287962,0.953739,-0.086369
-0.832720,-0.577424,-0.965965,0.666773,0.650780,0.363178
0.359275,-0.386944,0.375413,-0.478521,0.871991,-0.103196
0.881116,-0.793861,0.653658,-0.175051,-0.288607,-0.941309
-0.003513,0.083608,0.183229,0.922653,0.375118,-0.089428
-0.409431,0.735185,0.689951,-0.819940,0.489586,0.296656
0.369021,-0.634980,-0.922182,0.435395,0.028266,0.899795
0.081872,-0.258890,0.226436,-0.520650,-0.790538,-0.322449
-0.656875,-0.008241,0.840672,-0.280373,0.772726,0.569461
-0.041774,0.340092,0.935953,0.183240,0.374338,0.909007
0.179365,-0.361975,0.923427,0.910807,0.408593,0.059017
0.452554,-0.261969,-0.928795,-0.450366,-0.027436,-0.892422
-0.087648,0.258534,0.700156,0.748812,-0.385737,0.538968
0.368519,-0.137986,-0.903496,0.461573,0.528504,-0.712484
-0.039161,0.114889,0.784953,0.972903,0.148185,0.177484
-0.373242,-0.435552,-0.939867,0.605073,-0.021662,-0.795876
0.174903,0.484100,0.810698,-0.691599,-0.618045,-0.373779
-0.197299,0.078095,-0.912431,-0.593822,0.186531,0.782676
-0.206595,0.248761,0.902201,0.061553,-0.903776,0.423556
-0.290820,-0.248782,-0.954155,-0.077085,0.239430,0.967849
0.248757,-0.597206,0.699471,-0.224028,0.914327,0.337370
-0.015253,0.419355,0.707768,-0.393795,0.753015,-0.527156
-0.595333,-0.423657,0.825774,0.355130,0.666484,0.655502
0.251872,0.069693,-0.930673,0.622136,-0.317269,-0.715743
-0.418339,-0.156831,0.714897,0.365235,-0.807900,-0.462494
-0.332229,-0.529725,-0.918489,0.028357,-0.441003,0.897057
-0.740845,-0.394632,-0.949943,0.097205,0.487621,0.867627
-0.340810,-0.672959,-0.949775,-0.118732,-0.376600,0.918736
-0.747326,-0.504663,-0.944428,0.291434,-0.640337,0.710658
-0.509529,0.072374,0.779713,0.981048,-0.011238,0.193441
-0.015213,-0.117043,0.350174,0.064548,0.855343,-0.514026
-0.041745,-0.399950,-0.909390,0.791725,-0.123445,0.598275
-0.086844,-0.553807,-0.929637,0.811692,-0.402539,-0.423223
0.192719,-0.260922,0.230098,0.980616,-0.023384,-0.194537
-0.294606,-0.661201,-0.928194,-0.628091,0.614478,-0.477409
-0.028934,0.368485,0.725272,0.987049,-0.108512,-0.118152
-0.387233,0.173550,0.806029,0.132901,-0.824543,-0.549969
0.232932,-0.164175,-0.383520,0.335384,0.701887,0.628389
0.498211,0.068433,0.068697,-0.657340,-0.184692,-0.730611
0.002155,-0.226457,-0.313602,0.019534,0.995289,0.094963
0.715951,0.330043,0.029738,0.607186,-0.722193,-0.331305
0.201727,-0.489665,0.519433,0.878862,0.383097,-0.284320
-0.196170,-0.313499,0.721117,0.105104,0.986249,0.127539
0.311483,-0.111663,-0.922779,0.982296,0.158332,-0.100126
0.073408,-0.121996,-0.914009,0.279664,-0.288115,-0.915848
-0.146298,-0.282643,0.760141,0.399933,-0.467737,0.788210
0.081617,0.042671,0.495675,0.545476,0.717581,0.433051
-0.102442,-0.214711,-0.845088,0.158158,0.862807,0.480157
-0.307880,-0.445411,0.739319,0.189840,0.747726,0.636291
-0.018328,0.044416,0.800028,0.919889,0.198315,0.338343
0.222306,-0.158812,-0.922199,0.477500,-0.146460,-0.866339
-0.199083,-0.239797,-0.952425,-0.383790,0.543261,0.746708
-0.098778,-0.603405,-0.914410,-0.240453,-0.807895,-0.538041
-0.344919,-0.516295,0.742988,0.847103,-0.193677,0.494880
0.623446,-0.254350,-0.319499,-0.443401,0.716182,0.538960
0.007772,0.200673,0.692749,-0.488040,0.736603,0.468224
0.223551,-0.189020,0.706423,0.652318,0.745355,0.137575
-0.045729,0.031704,-0.922448,-0.297670,0.809466,-0.506120
0.251918,0.120669,-0.913735,0.014227,0.976755,0.213885
0.142446,-0.029287,0.637740,0.510183,0.071932,-0.857053
0.079948,-0.528479,0.698624,0.999234,0.037287,0.011865
0.353148,-0.433509,-0.908401,0.868957,0.246460,0.429153
-0.309190,-0.412575,0.770651,-0.370775,-0.217624,-0.902865
-0.655169,-0.013789,0.806460,-0.770271,-0.619621,0.150836
-0.058245,-0.062881,0.356004,-0.001109,-0.949082,0.315028
0.174246,-0.428849,0.469094,-0.482190,0.266297,0.834613
0.264040,-0.477807,0.916394,0.481153,0.704044,0.522315
-0.415759,-0.369862,0.747483,-0.365251,0.718500,-0.591903
-0.329713,-0.488414,-0.922126,0.968703,-0.213375,0.126832
0.308063,-0.494312,0.875915,0.399103,-0.522586,0.753406
-0.041702,-0.398564,0.700890,-0.095292,-0.859454,0.502253
0.403260,0.159021,0.451628,-0.369231,0.677842,0.635767
0.063104,0.137417,0.712597,0.813644,-0.553290,-0.178478
-0.641256,-0.003821,0.752191,0.175920,-0.972098,0.155172
0.022648,0.568340,0.799200,-0.075824,0.588138,0.805198
0.283216,-0.392158,0.654935,0.205764,0.948759,-0.239827
-0.049494,0.103364,0.928795,-0.478472,0.300572,0.825058
-0.337592,0.524896,0.652109,0.224909,0.790984,-0.569000
-0.430939,-0.175061,0.719776,-0.036027,-0.980703,0.192153
-0.281862,-0.258668,0.714547,-0.685122,-0.441895,0.579083
-0.369571,0.350243,0.776763,0.018908,-0.634389,0.772783
-0.106947,0.133669,0.850738,0.403113,0.915132,0.005773
-0.342441,-0.426273,-0.953049,-0.042734,0.683178,0.729000
0.112122,-0.090292,0.044521,0.963990,0.244596,0.104385
0.934589,-0.433330,-0.206048,0.459315,0.420211,0.782594
-0.349378,-0.127439,-0.948076,-0.396660,-0.414604,0.819002
-0.117776,-0.078993,0.889942,-0.748777,0.659681,0.064447
-0.114269,0.045684,0.718843,-0.098671,-0.088576,0.991170
0.245700,-0.413489,0.898385,0.472624,0.460179,0.751573
0.122718,0.019874,0.638579,0.548785,0.357655,-0.755591
-0.476699,-0.062519,-0.946822,0.915469,-0.365547,0.168203
-0.056167,0.246409,0.943614,0.712845,0.102743,0.693755
0.224111,-0.050335,0.484169,0.528660,0.669667,0.521598
-0.895248,-0.332267,0.908162,0.302407,0.476750,0.825384
-0.051622,-0.100176,-0.917387,0.191874,-0.971549,-0.138841
-0.191450,-0.298579,-0.960248,-0.301439,0.008236,-0.953450
0.298529,-0.464711,0.687333,-0.034457,-0.904824,0.424388
0.055647,0.495374,0.827882,0.793849,0.599192,-0.103788
0.304428,-0.573567,0.633860,0.875810,0.432800,-0.213639
0.208191,-0.111780,0.505384,-0.661141,-0.287459,-0.693008
0.139188,-0.229063,0.264860,0.163187,0.985908,-0.036813
0.078195,-0.407566,0.426505,0.355927,0.813492,0.459942
-0.507701,-0.356680,-0.951780,-0.011429,0.141948,0.989808
-0.706639,-0.080591,-0.957045,0.004809,0.394448,0.918906
-0.059653,-0.646636,-0.911779,0.374129,-0.581770,-0.722199
0.153997,-0.568603,0.882265,0.871976,0.395446,0.288584
-0.173695,-0.063699,-0.455767,0.803911,0.581928,-0.122829
0.181270,-0.190376,0.385078,-0.570063,-0.642804,-0.511694
0.009750,-0.511219,0.710783,-0.557024,-0.810561,-0.180874
0.290643,-0.551870,0.680994,-0.747418,0.455828,0.483309
0.147989,-0.511504,-0.914671,0.269615,-0.682187,0.679653
0.310183,-0.385897,0.878875,-0.468637,-0.532732,0.704682
-0.629546,0.043648,0.728328,-0.656631,0.290057,0.696206
-0.339541,0.011279,0.913242,-0.267501,0.203598,0.941802
-0.277241,0.299429,0.757594,0.329755,-0.767803,0.549309
0.041219,0.446376,0.715299,-0.635509,0.192287,-0.747766
-0.121579,-0.072951,-0.588983,0.000227,0.987237,0.159257
-0.199966,0.377093,0.743845,-0.119313,-0.644444,0.755286
-0.354471,0.459209,0.851197,0.711559,0.256074,-0.654301
-0.358270,-0.453613,-0.947648,-0.742337,0.580896,0.333909
-0.185808,0.407874,0.914861,0.960488,0.132451,0.244786
-0.188956,0.297007,0.728697,-0.447545,-0.205243,0.870390
0.092263,-0.191266,0.752437,0.876054,-0.453899,0.162802
0.703269,-0.764887,0.677558,-0.008732,-0.801220,0.598306
-0.054186,-0.703408,0.318121,0.292199,0.228184,0.928737
0.219388,0.017617,-0.929487,0.823149,0.394007,0.408881
-0.463713,-0.064737,0.699737,-0.141182,-0.486084,0.862433
0.263174,-0.570678,0.694686,-0.666386,0.544676,0.509174
0.010187,-0.548025,-0.915011,-0.618735,0.164671,0.768147
0.335478,-0.484859,0.885796,0.008653,0.954413,0.298364
0.437273,-0.477095,0.530468,-0.696879,0.317450,0.643106
0.221284,-0.087067,-0.931220,-0.282250,-0.105542,0.953518
0.036651,0.059269,0.147251,-0.500008,0.865990,-0.007317
0.210796,-0.006320,0.481613,-0.391315,-0.789327,-0.473112
-0.099125,0.176850,0.718012,0.810417,-0.165505,0.561989
0.330817,-0.262437,0.916361,0.587638,0.700958,-0.404151
-0.548032,0.440950,0.891721,-0.578490,0.320008,-0.750296
-0.663950,-0.313974,0.889936,0.971033,-0.188146,0.147298
0.103618,-0.276784,0.819994,0.620882,0.420659,0.661477
-0.766421,-0.349551,-0.962748,-0.666311,0.364487,0.650522
-0.724226,-0.309585,-0.953909,-0.130974,0.775482,0.617635
-0.789645,-0.306197,-0.953543,0.246082,-0.555781,-0.794072
-0.137215,-0.405056,0.703490,-0.323857,-0.918797,0.225673
0.221358,-0.148503,-0.930037,-0.390018,0.332494,0.858681
-0.342080,-0.058072,0.722981,0.304247,-0.008888,-0.952552
-0.541124,-0.452769,-0.959777,0.144669,-0.216540,0.965495
-0.288919,-0.431295,0.726634,0.104633,-0.814657,0.570426
-0.243334,0.092844,-0.954787,0.811478,-0.036970,-0.583212
0.316399,-0.416933,0.537110,-0.450907,0.089017,-0.888121
0.251375,-0.447859,0.896061,0.539413,0.840013,0.058402
-0.063331,0.187461,0.950120,-0.477931,0.300777,-0.825297
0.161091,-0.379520,0.418430,-0.647848,-0.659789,-0.380751
-0.009381,-0.067109,-0.350439,0.408194,-0.912895,0.000701
-0.665997,-0.382114,-0.971824,0.924545,-0.356747,-0.133970
0.234472,-0.068153,-0.128763,-0.161582,0.890336,0.425667
-0.024442,0.186927,0.937384,0.904547,-0.199731,0.376699
-0.088625,-0.141115,-0.353964,0.976204,0.091008,0.196834
0.527697,-0.064473,0.264071,-0.267775,0.791800,0.548953
0.374085,-0.126159,-0.906257,0.445490,0.266028,-0.854849
0.055947,-0.080481,-0.352155,0.591064,0.770902,-0.237388
0.324870,-0.424455,0.856285,0.632605,0.020952,0.774191
0.026994,-0.114327,0.366975,-0.581384,0.445125,0.681070
0.286904,-0.447207,0.474254,-0.661825,0.344160,-0.665989
-0.046251,-0.580481,-0.914666,0.858838,-0.507612,0.068757
0.012938,-0.267716,0.042803,-0.300961,0.951960,-0.056524
