0.498809,0.354889,0.660577,-0.002534,0.853857,0.520501
0.170583,-0.146723,0.515994,0.990893,0.122272,-0.056402
0.198859,-0.114029,0.530449,-0.730722,0.654428,-0.194344
0.234878,-0.070436,0.536873,-0.208456,0.722122,-0.659610
0.258726,-0.045231,0.559325,0.104975,0.952944,0.284391
0.224306,-0.121518,0.708526,0.994110,-0.073481,0.079657
0.289579,-0.042701,0.725524,0.842115,0.249935,0.477886
0.395303,0.097609,0.691226,0.332190,0.844635,-0.419812
0.458982,0.184503,0.661748,0.868673,-0.494816,0.023766
0.456401,0.168842,0.716556,-0.731404,0.681161,0.032682
0.573923,0.327741,0.666934,-0.424564,-0.904366,0.043216
-0.224275,-0.511226,0.457070,-0.121642,0.992283,0.024046
-0.188008,-0.465983,0.460316,-0.764821,0.638024,-0.089298
-0.319794,-0.685597,0.702703,0.374837,-0.552206,0.744691
-0.031027,-0.243346,0.349829,0.872663,0.486803,-0.038502
-0.109086,-0.378697,0.514890,-0.202869,-0.012558,0.979125
-0.046146,-0.304940,0.539416,-0.149835,-0.821202,-0.550614
-0.114005,-0.423845,0.688349,0.303772,-0.243058,0.921220
0.026999,-0.214446,0.547012,0.725758,0.662557,-0.185189
-0.163176,-0.559784,0.483470,0.957673,-0.240844,-0.157657
-0.210259,-0.646286,0.605902,0.950713,0.158337,-0.266596
-0.219480,-0.672947,0.674931,0.664063,0.414791,0.622069
-0.136007,-0.553364,0.610487,-0.531080,0.547263,0.646882
0.032161,-0.301727,0.430636,0.646917,0.525073,-0.552989
-0.050201,-0.443503,0.601854,0.885001,0.372740,0.278993
0.025153,-0.338216,0.553169,-0.483471,0.874940,-0.027116
0.071008,-0.277887,0.542996,0.339630,0.628318,-0.699905
-0.295945,-0.880795,0.626915,0.389135,-0.749456,-0.535621
-0.099253,-0.582555,0.395871,-0.532535,-0.793831,0.293664
-0.158506,-0.700777,0.594693,0.743213,-0.340911,-0.575686
-0.015169,-0.487292,0.444723,0.834356,-0.433849,-0.340036
-0.110932,-0.650473,0.637690,0.664968,-0.076131,0.742982
-0.050201,-0.567760,0.608044,0.167784,0.568320,0.805519
-0.019468,-0.543048,0.673426,-0.576087,-0.194062,0.794017
-0.015169,-0.547716,0.719902,-0.275659,-0.938348,-0.208602
0.048019,-0.461600,0.687780,-0.430274,0.009166,0.902652
0.193573,-0.246559,0.541926,0.924712,-0.141184,0.353518
0.352523,-0.046787,0.544134,-0.119660,-0.763227,0.634953
0.303839,-0.145066,0.712340,0.198503,0.595838,0.778186
-0.310573,-0.767532,0.583919,0.407018,0.815397,0.411661
-0.176821,-0.569221,0.447701,0.976814,0.149300,0.153441
0.634526,0.163586,0.658837,-0.544736,-0.675008,0.497622
0.703492,0.246881,0.673124,-0.045885,-0.118451,0.991899
0.743322,0.296698,0.674931,-0.381245,0.805933,0.452906
0.743074,0.285117,0.725892,0.890497,0.408928,-0.199481
0.767047,0.310417,0.746637,0.978592,-0.200826,-0.045011
0.329534,-0.116654,0.729137,0.580732,0.794013,-0.179702
0.431446,0.029013,0.649602,-0.274580,0.908829,0.314065
0.443244,0.025022,0.737603,0.251371,0.778250,-0.575447
0.493155,0.090411,0.723750,-0.734595,-0.027619,0.677944
0.591132,0.229848,0.649468,-0.757915,0.113251,0.642447
0.591995,0.220025,0.699525,-0.582953,0.491978,-0.646625
0.633052,0.271790,0.697316,-0.045649,0.975467,0.215359
-0.043441,-0.629455,0.387673,0.448936,0.807105,-0.383456
-0.207062,-0.898797,0.679950,0.986433,0.037333,-0.159863
-0.173257,-0.857734,0.687613,0.616799,0.191360,0.763505
0.012247,-0.591017,0.533661,0.949868,0.081005,-0.301976
0.064616,-0.521638,0.516630,-0.052232,-0.991736,-0.117185
0.162224,-0.381518,0.437161,0.784788,0.420269,-0.455502
0.149315,-0.425306,0.563307,0.292048,0.220656,0.930601
0.195047,-0.365856,0.555678,0.690715,0.686409,0.227497
0.242253,-0.304554,0.544335,0.067680,-0.095285,0.993147
0.264256,-0.294142,0.623503,-0.358778,-0.467876,0.807694
0.353874,-0.178640,0.609416,-0.599577,-0.237839,-0.764160
0.345392,-0.214541,0.725122,0.991505,0.128412,-0.020678
0.581422,0.092549,0.676838,0.798632,-0.334653,0.500195
0.632317,0.006142,0.634879,0.977800,0.066600,0.198677
0.677309,0.064042,0.629526,0.206523,0.277028,-0.938405
0.737053,0.133618,0.653985,-0.542832,-0.304559,0.782673
0.824582,0.234908,0.695777,0.248545,0.430920,0.867487
0.884817,0.315091,0.672556,-0.353984,-0.369789,-0.859041
-0.038523,-0.799347,0.465000,0.009908,0.357564,0.933836
-0.089049,-0.902004,0.648732,0.906461,0.408268,0.107919
-0.023772,-0.812681,0.612092,0.969809,-0.199644,-0.140049
0.170827,-0.544895,0.504952,0.137301,0.156398,0.978104
0.126449,-0.626046,0.623101,-0.551124,0.427366,-0.716673
0.309988,-0.376363,0.531754,-0.290079,0.595841,-0.748884
0.492296,-0.152757,0.556481,-0.696910,-0.579612,0.422333
0.363587,0.151031,-0.945326,0.558447,-0.340506,-0.756434
0.271264,0.064238,-0.947032,0.128906,0.437161,0.890097
0.224306,0.019380,-0.941177,-0.042057,-0.398783,0.916081
0.176728,-0.024699,-0.945928,-0.374128,0.084435,0.923525
0.131120,-0.067128,-0.954025,-0.193723,-0.271932,0.942616
0.085392,-0.109747,-0.959814,-0.420831,-0.159229,0.893055
0.038186,-0.154313,-0.960383,0.439453,-0.205406,-0.874465
-0.006930,-0.196932,-0.955565,-0.112751,0.087243,0.989786
-0.055120,-0.241498,-0.968347,0.055677,-0.059175,-0.996694
-0.102326,-0.285774,-0.966473,0.099929,-0.017704,-0.994837
0.355472,-0.175332,-0.939972,-0.250705,-0.251147,0.934918
-0.280699,0.216325,-0.993141,-0.022909,-0.157135,0.987311
0.097191,0.266729,-0.977715,0.334649,-0.220170,-0.916262
0.085145,0.194136,-0.397243,0.887514,0.377319,-0.264480
0.052198,0.223333,-0.969618,0.363477,0.546023,0.754813
0.030195,0.160373,-0.564780,0.913468,0.105251,0.393064
-0.022789,0.122232,-0.677809,0.759879,-0.581095,0.291396
-0.090156,0.090215,-0.973801,0.367923,-0.285907,-0.884810
-0.136007,0.047691,-0.977013,0.283158,-0.409309,0.867345
-0.181496,0.005174,-0.981062,-0.160517,0.067360,0.984732
-0.229069,-0.039589,-0.982902,0.219997,-0.224103,-0.949410
-0.273814,-0.082695,-0.974704,0.078321,0.164714,0.983227
-0.321512,-0.127166,-0.976745,0.008118,0.290457,0.956854
0.088465,0.246584,-0.971927,0.262830,-0.425405,-0.865997
0.041258,0.202897,-0.973466,-0.025636,0.267991,0.963080
-0.052291,0.117660,-0.968079,-0.388613,0.280288,0.877735
-0.097779,0.075623,-0.969049,0.433274,-0.257699,-0.863635
-0.145105,0.031733,-0.978753,0.228143,-0.323351,0.918366
-0.190589,-0.010006,-0.974436,0.230293,-0.018822,0.972939
-0.237919,-0.053599,-0.978050,0.547767,0.012074,-0.836544
-0.285617,-0.097293,-0.979522,0.075530,0.053371,0.995714
-0.332947,-0.140885,-0.979957,0.297338,0.229803,0.926704
-0.138712,0.192777,-0.981162,-0.407063,0.197069,0.891888
-0.186410,0.149184,-0.981664,-0.263791,0.168811,0.949693
-0.233248,0.105591,-0.987687,0.286740,-0.091853,-0.953595
-0.280823,0.062195,-0.984039,0.393467,-0.356465,-0.847417
-0.326186,0.020253,-0.982333,0.663357,-0.037540,-0.747361
-0.115970,-0.284117,-0.971191,-0.198821,0.175363,0.964219
0.328059,0.307109,-0.970521,-0.125462,0.166422,0.978040
0.280606,0.264004,-0.964365,-0.088046,0.233154,0.968446
0.235121,0.222650,-0.961688,-0.226343,0.110921,-0.967711
0.189390,0.180904,-0.957639,-0.115260,0.402200,0.908268
0.141692,0.137412,-0.954728,0.729477,-0.629911,-0.266599
0.092396,0.097805,-0.891488,0.997775,0.043112,-0.050857
0.018393,0.073580,-0.384762,-0.071871,0.676050,0.733343
0.043839,0.055477,-0.864385,0.996041,0.087871,-0.013426
0.002043,0.008090,-0.971492,-0.691842,0.155234,0.705164
-0.045287,-0.035794,-0.974470,-0.290250,0.164634,0.942683
-0.090647,-0.077539,-0.977582,-0.132402,0.031502,0.990695
-0.136994,-0.119475,-0.973667,-0.032378,0.338193,0.940520
-0.184444,-0.163068,-0.972228,-0.315061,0.435203,0.843407
-0.230176,-0.205104,-0.973867,0.096382,0.022450,-0.995091
-0.277750,-0.249285,-0.978385,-0.578078,0.548271,0.604338
-0.325447,-0.292390,-0.973198,0.228337,-0.356541,-0.905948
0.372561,0.064333,-0.937730,-0.471884,-0.660494,-0.584015
0.325478,0.020544,-0.945292,0.474187,-0.220814,-0.852284
0.278888,-0.020126,-0.931942,-0.006141,0.050195,0.998721
0.232540,-0.063915,-0.942615,-0.190849,-0.056439,0.979995
0.185458,-0.107508,-0.947400,-0.395074,0.047819,0.917404
0.138743,-0.151391,-0.955498,0.373645,0.029406,-0.927106
0.093135,-0.192941,-0.956100,0.872677,-0.260918,0.412743
0.046792,-0.234977,-0.955397,0.397894,-0.037752,-0.916654
0.397760,0.188785,-0.950010,-0.260780,0.246783,0.933323
0.350186,0.145389,-0.950679,0.505738,-0.302715,-0.807832
0.302856,0.102283,-0.946497,-0.648507,-0.716010,-0.258394
0.255039,0.058887,-0.944924,0.571301,0.541252,0.616977
0.208444,0.017723,-0.929767,0.431880,-0.135599,0.891680
0.164190,-0.024604,-0.946664,0.429047,-0.099488,-0.897787
0.117108,-0.068292,-0.950111,-0.138058,-0.272321,0.952251
0.071991,-0.110133,-0.956502,-0.450071,-0.100733,0.887293
0.024909,-0.153921,-0.963997,-0.414498,0.525659,0.742882
-0.023036,-0.197906,-0.961922,0.543744,-0.494126,-0.678367
-0.070610,-0.241695,-0.964733,0.348472,-0.053579,-0.935787
0.324987,0.057325,-0.945627,-0.109679,0.190960,0.975451
0.279379,0.016363,-0.943084,0.950797,-0.065182,0.302882
0.231557,-0.026552,-0.941679,-0.350172,-0.278698,0.894263
0.183860,-0.070531,-0.944121,-0.328167,0.053382,0.943110
0.136286,-0.113928,-0.947333,0.480846,-0.074391,-0.873644
0.091046,-0.155769,-0.949475,-0.166072,0.308438,0.936635
0.045805,-0.197906,-0.958375,0.138733,-0.177333,-0.974323
-0.001277,-0.240911,-0.961688,-0.313775,-0.103417,0.943848
0.338384,0.017337,-0.935789,-0.505511,0.160605,-0.847741
0.291549,-0.026256,-0.943151,-0.023636,0.412903,0.910468
0.243852,-0.069658,-0.942348,-0.308476,-0.169893,0.935937
0.198487,-0.111208,-0.945627,0.146990,-0.068854,0.986739
0.153619,-0.152757,-0.951349,0.569944,0.189004,-0.799651
0.106660,-0.196445,-0.956602,-0.583025,-0.403250,0.705316
0.060804,-0.237799,-0.956033,-0.211941,-0.113580,0.970660
0.330764,0.021910,-0.938433,-0.525057,0.067733,-0.848368
0.285892,-0.019740,-0.945928,-0.729559,0.625171,0.277318
0.238318,-0.062846,-0.946865,-0.322700,0.084765,0.942698
0.191112,-0.105952,-0.947568,0.159195,0.069830,-0.984774
0.143538,-0.149253,-0.950445,-0.399269,-0.104206,0.910893
0.098177,-0.191189,-0.954126,0.698370,0.059971,-0.713220
0.053181,-0.233131,-0.959580,-0.093718,-0.107459,0.989782
-0.046885,-0.282365,-0.960684,0.142277,-0.112611,-0.983400
0.418660,0.287647,-0.956936,-0.324131,0.330354,0.886457
0.370839,0.245224,-0.954695,0.065222,0.141572,0.987777
0.323632,0.202018,-0.958041,0.181294,-0.040470,-0.982596
0.277290,0.160955,-0.954828,0.176433,0.318423,0.931385
0.231433,0.119601,-0.953289,0.313680,0.253914,0.914950
0.183369,0.076787,-0.949073,-0.267675,0.670321,0.692112
0.135794,0.036603,-0.931072,-0.561991,-0.521209,-0.642267
0.090431,-0.007868,-0.955565,-0.597005,-0.131166,0.791442
0.043716,-0.051657,-0.967912,-0.336792,0.109715,0.935165
-0.049218,-0.136698,-0.975440,0.129499,-0.037467,-0.990871
-0.095689,-0.177666,-0.969451,0.151528,0.054043,-0.986975
-0.143631,-0.220480,-0.967912,-0.012745,-0.121727,0.992482
-0.189730,-0.262030,-0.969049,-0.235415,-0.268911,0.933952
-0.237428,-0.305332,-0.970588,-0.055888,0.069373,0.996024
0.326213,0.054017,-0.942983,-0.303845,0.250798,0.919118
0.279132,0.013251,-0.934183,0.230537,-0.122174,-0.965363
0.231925,-0.029760,-0.938165,-0.180082,-0.437639,0.880933
0.185826,-0.073744,-0.950847,-0.079691,0.017058,0.996674
0.138252,-0.116945,-0.951482,0.378484,0.106716,-0.919435
0.092892,-0.158690,-0.954561,0.280943,-0.194364,-0.939837
0.047404,-0.200145,-0.958442,0.305888,-0.208520,-0.928952
0.000321,-0.243928,-0.968079,0.333699,0.150377,-0.930608
-0.045163,-0.285287,-0.968614,-0.253680,0.358138,0.898545
0.173903,0.296502,-0.968915,-0.316294,0.287553,0.904031
0.125834,0.253396,-0.970521,0.265114,-0.231924,-0.935909
0.080598,0.211847,-0.975641,0.573506,0.417260,0.704972
-0.069012,0.163681,-0.406512,0.838268,0.455818,0.299227
-0.059791,0.085351,-0.979322,0.371405,0.056106,-0.926774
-0.108595,0.042827,-0.973533,-0.347463,-0.533272,0.771292
-0.156049,-0.000474,-0.977816,-0.064820,-0.023722,0.997615
-0.204114,-0.043770,-0.980760,0.612770,0.058221,0.788113
-0.250090,-0.084446,-0.976912,0.060658,0.187734,0.980345
-0.296436,-0.125509,-0.974972,-0.449030,0.385401,0.806125
0.259829,0.274028,-0.967610,-0.203673,0.195139,0.959395
0.211397,0.231404,-0.963160,-0.018702,0.122587,0.992282
0.161118,0.189469,-0.941110,-0.560748,0.218025,0.798766
0.115510,0.145585,-0.958978,0.218181,0.407946,0.886554
0.032408,0.126805,-0.592953,0.920336,-0.382219,0.083012
0.023311,0.062290,-0.963160,-0.623858,-0.159894,0.765007
-0.023404,0.018115,-0.977883,-0.199096,0.002020,0.979978
-0.069379,-0.023239,-0.976946,-0.179516,0.190146,0.965204
-0.117693,-0.066540,-0.977749,0.140431,-0.072122,-0.987460
-0.165022,-0.109260,-0.977983,-0.052900,-0.045873,0.997546
-0.213212,-0.151878,-0.975909,0.121510,-0.215948,-0.968814
-0.259187,-0.193333,-0.974737,0.148372,-0.087246,-0.985076
-0.305163,-0.234396,-0.974671,0.115905,0.179982,-0.976818
-0.353352,-0.277400,-0.974671,-0.319662,0.194054,0.927448
-0.151130,0.158621,-0.982099,-0.521236,0.184118,0.833315
-0.199071,0.115610,-0.985411,-0.285868,0.148454,0.946700
-0.246769,0.072701,-0.985077,-0.339317,0.314253,0.886628
-0.293484,0.031834,-0.981296,-0.145580,0.096785,0.984601
-0.198212,0.285117,-0.520779,-0.764546,-0.643920,-0.028934
-0.202883,0.215060,-0.989059,-0.090309,-0.085697,0.992220
-0.249230,0.173997,-0.988958,0.399828,0.061783,-0.914506
0.915550,0.268090,0.692498,-0.488808,-0.563567,0.665928
0.761146,0.123884,0.672121,0.615358,0.717865,-0.325584
0.684561,0.049835,0.709830,0.907022,-0.008549,0.420996
0.646820,0.019089,0.612728,-0.688219,0.101366,-0.718386
0.607852,-0.019640,0.652346,0.410962,-0.883343,0.225424
0.388295,-0.524269,0.415111,-0.527170,-0.842258,0.112666
0.349203,-0.561732,0.437596,0.571063,0.653855,-0.496348
0.309373,-0.598703,0.416884,0.879767,0.409706,-0.241144
0.277533,-0.631397,0.535501,-0.003652,0.994210,0.107397
0.240164,-0.667596,0.568025,0.894568,0.006949,-0.446878
0.204265,-0.702333,0.593187,0.366716,-0.163653,0.915826
0.165421,-0.739120,0.600348,-0.834884,0.497893,-0.234672
0.128787,-0.774439,0.635481,0.790211,0.488703,-0.369778
0.036588,-0.857538,0.475775,0.935022,0.247997,0.253437
0.019499,-0.878752,0.701365,0.217818,-0.876550,-0.429204
-0.063234,-0.955331,0.642742,0.802472,0.357919,0.477423
0.952184,0.302340,0.700997,0.116028,0.372329,0.920820
0.057856,-0.249766,0.541324,0.338672,0.614492,-0.712531
0.014952,-0.286938,0.502911,0.669371,0.536023,0.514414
-0.030412,-0.324693,0.439068,0.597032,-0.393662,0.698987
-0.134904,-0.433383,0.574951,0.959925,0.153139,-0.234717
-0.182479,-0.471138,0.484340,-0.742299,0.670026,0.007607
-0.225625,-0.509576,0.458074,-0.121642,0.992283,0.024046
-0.270742,-0.548886,0.414609,-0.101997,-0.189252,0.976617
-0.291270,-0.580802,0.581677,0.493251,0.868067,0.056247
0.292160,-0.309026,0.500267,0.890961,0.320316,-0.321850
0.253317,-0.346685,0.516730,-0.538448,0.593528,0.598162
0.209675,-0.384731,0.460951,-0.037281,-0.921764,0.385956
0.168861,-0.422485,0.444355,0.555780,0.453845,0.696515
0.055027,-0.531954,0.490598,-0.255241,-0.966726,-0.017085
-0.091878,-0.676160,0.601987,0.281903,-0.597396,-0.750765
-0.124453,-0.709436,0.650672,0.718814,0.286162,0.633576
-0.164159,-0.745831,0.632704,0.479488,-0.171336,-0.860660
-0.242714,-0.819101,0.621595,-0.028331,-0.533944,0.845045
-0.280946,-0.855590,0.630128,0.377394,-0.737695,-0.559804
-0.319914,-0.892472,0.633373,-0.414817,0.881301,0.226354
0.720213,0.358197,0.745968,0.828164,0.380003,-0.411998
0.681856,0.329493,0.648062,-0.058596,0.156572,0.985927
0.644363,0.294168,0.650204,0.225971,-0.431861,0.873174
0.605515,0.254465,0.688516,-0.596290,0.742892,-0.304220
0.527944,0.179152,0.720739,0.866725,0.496146,-0.051251
0.451359,0.112498,0.653684,0.620737,0.740761,0.256825
0.413003,0.074548,0.675534,0.266467,0.138962,0.953774
0.371946,0.043605,0.575587,-0.530300,0.395134,-0.750101
0.330025,0.008868,0.511075,0.408869,-0.740546,0.533308
0.299292,-0.035598,0.714716,0.941754,0.292861,0.165322
0.256389,-0.069658,0.632938,0.886730,0.262926,-0.380237
0.213119,-0.102840,0.532088,-0.410769,0.741310,-0.530781
0.176113,-0.139133,0.553537,0.950727,0.257485,-0.172684
-0.482308,-0.761498,0.593053,-0.198681,0.579647,-0.790276
-0.521524,-0.798766,0.594492,-0.150982,-0.080512,0.985252
0.531264,0.487709,0.796694,0.844145,-0.449453,-0.292252
0.494138,0.451707,0.810279,0.840272,-0.470253,-0.269823
0.413250,0.401012,0.568828,0.846100,-0.389098,-0.364304
0.376740,0.355376,0.677909,0.553907,0.490120,0.673030
0.182506,0.176622,0.643044,0.743285,0.632573,0.217667
0.143414,0.142176,0.619989,0.863644,0.307433,-0.399506
0.099896,0.108507,0.553470,0.689037,0.519116,0.505714
-0.045902,0.067742,-0.363414,0.839827,0.417984,-0.346382
-0.013323,-0.003681,0.608713,-0.140739,0.980576,-0.136610
-0.043565,-0.041727,0.699859,0.795095,0.479882,0.370861
-0.115235,-0.069949,0.325738,0.948977,0.301321,0.092999
-0.107120,-0.116458,0.840594,-0.177642,0.907433,0.380800
-0.144490,-0.108969,0.433648,0.864051,0.476070,0.163624
-0.322499,-0.294819,0.613832,-0.185517,-0.946597,0.263699
-0.367492,-0.332188,0.567557,0.480294,-0.865798,0.140398
0.361006,0.615085,0.604062,-0.409487,0.903947,-0.123289
0.323017,0.574022,0.644449,0.062057,0.992027,0.109686
0.212503,0.458905,0.731848,-0.043141,-0.044638,-0.998071
0.131368,0.393617,0.649367,0.730378,0.550311,-0.404606
0.083670,0.367925,0.498260,-0.029896,0.987965,0.151758
0.025525,0.350803,0.206183,-0.716957,0.686246,0.122629
0.017042,0.279766,0.697818,-0.163410,-0.205014,0.965022
-0.018118,0.313725,0.174329,0.171961,-0.965697,0.194574
-0.027583,0.250771,0.597972,0.802130,-0.256897,0.539065
-0.077246,0.292416,-0.093255,0.890040,-0.341431,0.302083
-0.060897,0.211657,0.658301,-0.613196,-0.693125,-0.378903
-0.118552,0.253687,-0.095563,0.867374,-0.328192,0.374101
-0.131093,0.135851,0.738105,0.621239,0.756336,0.204985
-0.170308,0.156970,0.284514,-0.218831,0.815537,0.535736
-0.166249,0.097609,0.777889,-0.145704,0.850975,-0.504590
-0.199567,0.059374,0.833601,0.021440,0.734497,0.678273
-0.249474,0.078539,0.316201,-0.351320,0.718046,0.600820
-0.238167,0.023365,0.830456,0.985385,-0.025965,-0.168354
-0.283651,-0.008842,0.750150,-0.649142,-0.519076,-0.556035
-0.315859,-0.044649,0.794452,0.756449,0.517909,0.399443
-0.363064,-0.079582,0.720304,-0.777152,0.392238,-0.492122
0.254300,0.742257,0.720571,0.882709,0.469916,-0.001909
0.092520,0.614205,0.559861,-0.576939,0.736581,0.352973
0.060437,0.563605,0.696379,0.815934,-0.320475,-0.481194
0.024542,0.628216,0.030917,0.572121,-0.618666,0.538451
0.031302,0.514566,0.843505,0.338995,0.940637,0.016873
0.008068,0.550960,0.448571,0.479726,-0.832147,-0.278198
-0.017135,0.590562,0.021147,0.753596,-0.478091,0.451134
-0.001892,0.474964,0.901860,0.773501,0.543859,0.325444
-0.040736,0.440227,0.890517,0.526070,0.006428,-0.850417
-0.076879,0.405875,0.893194,-0.091935,0.758864,0.644728
-0.114128,0.369095,0.906244,0.027284,0.654328,-0.755718
-0.206080,0.378823,0.254500,0.864463,-0.404130,0.298970
-0.240500,0.273441,0.752493,0.097006,0.768601,0.632330
-0.274801,0.237052,0.778692,-0.620232,0.215767,0.754160
-0.329874,0.268191,0.218731,0.367404,-0.914746,-0.168090
-0.326554,0.207470,0.651542,0.941055,0.047180,-0.334947
-0.396870,0.133029,0.709362,0.514527,0.534378,0.670598
-0.460182,0.056161,0.826842,0.436349,0.803269,-0.405411
-0.673714,0.187229,0.259821,0.744864,0.572755,-0.342241
-0.656502,0.132739,0.681088,0.061256,0.233765,0.970362
-0.697072,0.098096,0.661882,-0.718190,-0.627361,0.301034
0.012367,0.837716,0.219400,0.643239,0.558958,-0.523267
-0.077370,0.668310,0.729505,0.143554,-0.934545,0.325604
-0.117693,0.734477,0.107575,0.796542,-0.311537,0.518136
-0.117449,0.633667,0.710901,0.615767,0.299187,-0.728916
-0.158873,0.694193,0.116108,0.978066,0.000386,0.208295
-0.185919,0.555920,0.791575,0.353160,-0.144445,-0.924345
-0.224151,0.519335,0.794686,-0.366443,-0.402801,0.838732
-0.270127,0.493934,0.687077,-0.643771,0.742165,-0.186414
-0.343887,0.417943,0.730175,0.333148,0.574336,0.747764
-0.386913,0.384566,0.686810,-0.127837,0.105731,0.986143
-0.423547,0.348760,0.696814,-0.406024,0.511837,0.757078
-0.506649,0.398190,-0.065917,-0.099149,0.990960,-0.090370
-0.545740,0.358488,-0.048685,-0.099149,0.990960,-0.090370
-0.499765,0.277046,0.698086,0.011925,-0.994281,0.106127
-0.547215,0.299228,0.298936,0.651781,0.417387,0.633221
-0.537873,0.242207,0.692833,-0.141919,0.176892,-0.973945
-0.572909,0.204358,0.722780,0.992036,-0.124073,0.021709
-0.634252,0.226445,0.245834,-0.199437,-0.958501,0.203718
-0.609667,0.167381,0.738372,0.796251,-0.257501,-0.547428
-0.472105,0.591049,0.310948,-0.084559,-0.646205,0.758465
-0.617163,0.430297,0.444322,0.323844,-0.892585,-0.313715
-0.658468,0.395660,0.421301,0.535779,-0.844248,-0.013655
-0.745013,0.324433,0.369203,-0.274964,-0.955211,-0.109393
-0.636712,0.529746,0.376330,0.085335,0.995927,-0.029121
-0.872616,0.305844,0.391822,0.192101,0.742622,0.641568
-0.910481,0.266534,0.412333,0.074199,0.851678,0.518787
-0.871017,0.401012,0.351101,-0.081092,-0.928502,-0.362366
-0.877658,0.398867,0.354815,0.141117,0.933235,0.330393
-0.881098,0.402371,0.355250,0.253222,0.917408,0.306986
-0.820124,0.469708,0.319180,-0.151429,-0.261840,0.953157
-0.861308,0.431663,0.315934,-0.239960,0.090117,-0.966591
-0.893760,0.392839,0.371913,0.099855,0.771782,0.627999
-0.556560,0.640967,0.322659,0.615577,0.612223,0.496235
-0.759644,0.453168,0.316469,-0.226265,-0.259847,0.938767
-0.908759,0.303118,0.403901,0.015604,0.783844,0.620762
-0.618517,0.529746,0.376698,0.006516,-0.975139,0.221500
-0.855407,0.307988,0.393161,0.419684,0.673862,0.608092
-0.895238,0.270423,0.399752,0.074199,0.851678,0.518787
-0.694243,0.440613,0.330088,0.340858,0.929327,0.142014
-0.733458,0.404515,0.328850,0.242221,0.463799,0.852185
-0.887615,0.253200,0.411330,0.074199,0.851678,0.518787
-0.453789,0.583263,0.324232,-0.092648,-0.657087,0.748100
-0.606347,0.432732,0.434685,0.260474,-0.960145,-0.101367
-0.649374,0.396438,0.392190,0.872797,-0.483581,-0.066147
-0.770584,0.286287,0.372549,0.646328,0.491271,0.583877
-0.020208,0.854743,0.212139,0.643239,0.558958,-0.523267
-0.221446,0.638823,0.724720,-0.794048,0.125009,-0.594862
-0.461289,0.436236,0.405708,0.104286,-0.994459,-0.013278
-0.507632,0.402080,0.260624,-0.396017,-0.917704,0.031458
-0.562705,0.369190,-0.050291,-0.099149,0.990960,-0.090370
-0.603886,0.287356,0.700663,0.849666,0.465851,0.247084
-0.624910,0.290373,0.315465,-0.515784,0.746521,-0.420325
-0.669903,0.253010,0.247373,-0.618501,-0.784691,-0.041447
-0.708626,0.216420,0.257846,0.791677,0.570703,-0.218050
-0.758782,0.144997,0.694573,0.882715,-0.455329,-0.116148
-0.052415,0.618291,0.713980,0.325067,0.673589,-0.663784
-0.091263,0.582485,0.715519,0.197251,0.417213,0.887145
-0.078601,0.610606,0.042528,0.846928,-0.319973,0.424653
-0.128140,0.549695,0.670715,0.956273,0.184268,0.227127
-0.166740,0.510771,0.799070,0.447432,0.357646,-0.819691
-0.358270,0.335622,0.751388,0.281933,0.943781,0.172602
-0.433137,0.266729,0.739410,0.994885,-0.097997,-0.024514
-0.444935,0.267021,0.284180,0.420727,-0.750356,0.509859
-0.473579,0.230727,0.695342,0.588278,0.327033,0.739580
-0.488701,0.228779,0.205682,-0.353904,0.930193,-0.097434
-0.509721,0.196476,0.731680,0.034853,-0.965161,-0.259326
-0.551518,0.159791,0.660309,-0.452966,0.600567,-0.658894
-0.568730,0.154244,0.236565,0.629678,0.775502,-0.045852
-0.590613,0.123789,0.667135,-0.687349,-0.052640,-0.724417
-0.630811,0.087103,0.641973,-0.641663,0.392421,-0.658995
-0.667813,0.052751,0.659974,0.849727,-0.204197,0.486073
0.233032,0.723579,0.722010,-0.481602,0.430757,0.763222
0.041874,0.547260,0.720337,-0.548807,-0.796519,-0.253711
0.001675,0.510967,0.794385,0.960702,0.035912,0.275248
-0.116094,0.403832,0.951683,-0.006000,-0.792888,0.609338
-0.107120,0.409379,0.567590,0.851955,0.523360,-0.016350
-0.181248,0.338538,0.186743,-0.620729,0.218677,-0.752912
-0.221446,0.301758,0.192331,0.784587,-0.413843,0.461690
-0.262751,0.266824,0.674028,-0.338773,0.920121,-0.196495
-0.302949,0.226154,0.124406,-0.356456,0.931052,0.077984
-0.418014,0.124567,0.710801,0.278146,0.556013,0.783252
-0.491650,0.057426,0.807769,-0.090549,0.958252,0.271208
-0.566885,-0.011859,0.807201,0.263549,0.937684,-0.226473
-0.582742,-0.029469,0.374356,-0.132890,-0.986466,0.096050
-0.622205,-0.066154,0.358429,0.188306,0.980626,0.053977
0.334205,0.681251,0.568962,-0.831335,0.541841,0.123652
0.293638,0.644370,0.576892,0.756066,-0.241898,-0.608152
0.253808,0.607981,0.577294,-0.649147,0.728270,-0.219617
0.215944,0.572852,0.576524,-0.628581,0.629013,-0.457416
0.177711,0.537918,0.575922,-0.681740,0.673576,0.285528
0.095225,0.465331,0.669210,0.341174,0.939897,-0.013896
0.043963,0.426502,0.905541,-0.290883,0.952467,-0.090519
-0.060282,0.322485,0.675835,0.113217,0.992458,0.046997
-0.042458,0.321802,0.186442,-0.019799,-0.876663,0.480697
-0.097899,0.287944,0.672288,-0.621799,0.076889,0.779394
-0.117569,0.244541,-0.048284,0.966936,-0.240019,0.086177
-0.176330,0.218463,0.749280,0.924270,0.304464,0.230275
-0.214810,0.182460,0.725959,-0.615320,0.633236,0.469461
-0.207186,0.173415,0.265743,-0.527489,0.551942,0.645844
-0.084622,0.141202,-0.083584,-0.648269,-0.150773,-0.746335
-0.151130,0.128070,0.711972,0.747647,0.634363,-0.196488
-0.137238,0.114352,0.274175,-0.450420,-0.453271,-0.769199
-0.253286,0.147337,0.737369,0.915519,0.288595,0.280246
-0.248124,0.136534,0.290236,-0.247386,0.748497,0.615266
-0.291766,0.110164,0.682794,0.673676,-0.303978,-0.673616
-0.329011,0.075623,0.680118,0.967695,0.191825,0.163612
-0.366752,0.039911,0.646791,0.994048,-0.103359,-0.034443
-0.405353,0.010234,0.806899,0.552802,0.761365,-0.338722
-0.489069,-0.082790,0.347085,0.808506,0.514445,0.285770
-0.521524,-0.100310,0.704209,-0.027767,-0.967169,0.252614
0.381287,0.618879,0.744763,0.697030,0.595938,-0.398758
0.267700,0.513883,0.730074,0.801299,0.448157,0.396328
0.217422,0.475932,0.869303,-0.245757,-0.932895,0.263269
0.190988,0.442656,0.717393,0.474708,0.556517,-0.681866
0.165297,0.409279,0.554105,-0.062727,-0.796487,0.601393
0.121655,0.374054,0.637188,0.538490,0.746081,-0.391652
0.088341,0.337565,0.538915,-0.529255,0.436327,0.727672
0.049989,0.302536,0.543063,0.308572,-0.276832,-0.910026
0.002167,0.268090,0.698287,0.138289,-0.065855,0.988200
-0.034223,0.231309,0.646925,0.774341,0.501994,0.385225
-0.084746,0.201240,0.916549,0.518404,-0.095364,0.849802
-0.042826,0.178861,-0.095630,0.444714,0.328267,0.833349
0.229835,0.360044,0.687278,0.921819,-0.143967,-0.359894
0.195171,0.323459,0.631801,0.389704,0.786358,0.479344
-0.193050,0.095958,0.815164,0.732284,-0.045442,0.679482
-0.229684,0.062385,0.819112,0.860731,0.474172,0.185209
-0.218989,0.042441,0.326273,0.927309,-0.267861,-0.261435
-0.266319,0.022783,0.718631,-0.653798,-0.744524,-0.135024
-0.305534,-0.012827,0.723951,0.908541,-0.363424,-0.206100
-0.344254,-0.047761,0.735829,-0.641373,0.663931,-0.384494
-0.381751,-0.082011,0.736030,-0.061360,0.822921,-0.564833
0.586217,0.680176,0.610118,-0.438212,0.802773,0.404382
0.473486,0.573725,0.573579,-0.081865,0.722678,-0.686320
0.338508,0.465521,0.756006,0.145022,0.858343,0.492155
0.307160,0.430398,0.681356,-0.352140,0.830421,-0.431738
0.265239,0.395850,0.726260,0.893665,-0.408632,-0.185427
0.165788,0.159690,0.645754,0.762152,0.626171,0.164421
0.127556,0.122909,0.628321,-0.385326,0.572957,0.723356
0.095349,0.084864,0.556715,0.676613,0.510271,0.530866
-0.021930,-0.019931,0.577929,0.514180,0.380392,-0.768714
0.081213,0.218564,0.629425,0.721859,-0.146730,-0.676306
0.103463,0.154731,-0.348123,0.868378,0.495875,-0.005316
0.001428,0.149184,0.670615,0.993966,-0.018341,0.108143
-0.083272,0.082916,0.802115,0.036541,0.988173,-0.148924
-0.120521,0.046332,0.777086,0.810237,-0.269424,0.520507
-0.070854,-0.007868,-0.377869,0.370959,-0.121011,-0.920731
-0.160472,0.016458,0.854279,0.972229,-0.196557,0.127030
-0.181863,-0.043966,0.379241,0.968580,0.244192,-0.047152
-0.225625,-0.074326,0.494211,-0.684652,-0.580652,0.440563
-0.347451,-0.165794,0.728134,0.899326,0.392658,0.192440
0.458119,0.442852,0.781771,-0.779412,0.560344,0.280235
0.436608,0.406944,0.640601,0.138697,0.894608,0.424783
0.402311,0.370746,0.595998,0.905401,-0.271642,-0.326283
0.354733,0.337078,0.684300,0.638387,-0.753040,-0.159354
0.325354,0.301271,0.604899,-0.404255,0.156362,0.901182
0.274093,0.267507,0.722144,-0.444684,0.776080,-0.447164
0.213854,0.192385,0.544937,-0.176270,0.783026,-0.596489
0.073957,-0.019545,0.461487,-0.441720,0.804039,0.398000
0.020115,-0.043966,0.646557,0.923888,0.370331,-0.096368
-0.019468,-0.076369,0.672589,0.833241,0.414455,0.365973
-0.052047,-0.118014,0.583350,0.894897,0.436101,0.094736
-0.106873,-0.133295,0.842468,0.156690,0.933269,0.323199
-0.077370,-0.173675,0.342702,-0.575010,-0.719516,-0.389435
-0.122487,-0.200822,0.445091,0.779254,0.462802,0.422584
-0.165142,-0.233618,0.492371,0.842101,-0.414055,-0.345579
-0.067905,-0.048931,0.690825,-0.496272,-0.856187,-0.143729
-0.153835,-0.109646,0.846918,-0.581128,-0.665619,-0.468232
-0.134165,-0.140885,0.419059,-0.731338,-0.092500,0.675713
-0.190098,-0.144484,0.835374,0.502552,-0.864317,0.019969
-0.175103,-0.172802,0.468480,0.952290,-0.285414,-0.108084
-0.227595,-0.176692,0.851770,-0.505078,0.861062,0.058894
-0.333438,-0.312043,0.516563,0.425167,-0.905112,0.002164
-0.374376,-0.342795,0.576156,-0.374544,0.926724,0.030000
0.490450,0.381062,0.616007,0.813669,-0.581276,-0.007756
0.444475,0.345933,0.666365,0.343948,0.928928,-0.137087
0.374403,0.274320,0.609115,-0.213750,0.731227,0.647779
0.283187,0.205332,0.715318,0.885202,-0.448627,0.123089
0.263397,0.164560,0.546476,0.159361,0.672758,-0.722496
0.215208,0.134099,0.647962,-0.368807,-0.507469,0.778753
0.144645,0.059760,0.570936,-0.652249,-0.741964,-0.155114
0.097438,0.028912,0.664124,-0.103525,-0.805518,0.583458
-0.118552,-0.200632,0.423777,0.755893,0.535211,0.377061
-0.162317,-0.231764,0.484976,0.990176,-0.078799,-0.115507
-0.203375,-0.262416,0.530650,0.338947,-0.939314,0.052949
-0.241855,-0.297450,0.528910,0.233208,-0.912133,0.337086
-0.283283,-0.329949,0.565750,-0.123801,0.990277,0.063447
-0.322499,-0.361669,0.593756,0.459871,0.813022,-0.357090
-0.358637,-0.412757,0.469317,0.884506,0.119413,-0.450988
-0.397609,-0.456154,0.413772,0.425212,0.254566,-0.868556
-0.207434,-0.265629,0.540152,-0.198750,0.869690,0.451816
-0.246769,-0.302119,0.536371,-0.293722,0.926247,0.236209
-0.287339,-0.330632,0.599344,0.409481,0.858307,-0.309247
-0.324464,-0.368677,0.567389,-0.123220,0.991537,0.040879
-0.361590,-0.417039,0.460918,0.800915,0.573736,-0.171354
0.614245,0.487906,0.579903,0.972527,-0.038417,0.229600
0.436732,0.307210,0.445024,0.756849,0.652443,-0.038701
0.375386,0.275193,0.610922,-0.211619,0.452358,0.866366
0.289088,0.209709,0.701566,0.752500,0.622132,0.216091
0.217422,0.137799,0.651643,0.031367,0.942375,0.333083
0.141324,0.063846,0.619354,0.827439,0.002684,-0.561549
0.102972,0.026774,0.605568,0.967106,0.016587,0.253832
0.076538,-0.016723,0.470856,-0.400030,0.810843,0.427212
0.025892,-0.040854,0.620759,-0.148470,0.676178,0.721623
-0.017259,-0.072966,0.671250,0.849613,0.436452,0.296086
-0.050941,-0.111986,0.612126,0.987819,0.029966,-0.152695
-0.104783,-0.129696,0.828147,0.026267,0.925719,0.377298
-0.072208,-0.171341,0.338319,-0.575010,-0.719516,-0.389435
-0.145597,-0.160930,0.866995,-0.177409,0.885472,0.429494
0.025277,0.046040,0.813692,-0.569527,0.768410,0.291866
0.016059,-0.013605,0.467543,-0.509585,0.748247,0.424793
-0.080567,-0.063719,0.721441,0.504769,0.818704,0.273739
-0.115970,-0.102739,0.674329,-0.608049,0.785252,-0.116857
-0.165142,-0.121227,0.851335,-0.219416,0.975588,0.009223
-0.137114,-0.159469,0.421870,0.883861,0.459556,0.087170
-0.202515,-0.157621,0.832698,-0.661293,0.746719,0.071425
-0.181124,-0.190898,0.478217,0.615862,-0.392687,-0.683016
0.450008,0.424560,0.764806,0.570001,0.794689,-0.208730
0.433903,0.386217,0.607040,-0.584872,0.810283,0.036953
0.389154,0.353137,0.655892,0.220838,0.961717,0.162269
0.374774,0.311783,0.464866,0.714204,0.640541,-0.282170
0.316133,0.280354,0.613197,0.513252,0.856897,0.047948
0.263397,0.248532,0.719869,-0.631678,0.714549,-0.300672
0.207585,0.172150,0.547179,-0.284577,0.455501,-0.843525
0.121655,0.105686,0.626313,0.738003,0.539458,-0.405384
0.087482,0.066572,0.569129,0.647990,0.729673,-0.218370
-0.040616,-0.057685,0.650539,0.961969,0.259612,0.084956
-0.071716,-0.098944,0.571037,0.807208,0.536452,-0.246242
-0.130722,-0.111885,0.821221,0.937209,0.157798,-0.311029
-0.092984,-0.157331,0.328180,0.826820,0.427914,-0.365046
-0.169078,-0.143706,0.840427,-0.454156,0.879432,0.142624
-0.138960,-0.184282,0.419728,0.663375,0.744172,-0.078370
-0.206451,-0.179709,0.825805,-0.592229,0.805622,-0.015445
-0.184321,-0.213472,0.493207,0.839884,-0.341703,-0.421704
-0.299141,-0.301536,0.455865,-0.659383,0.683048,-0.314101
-0.342904,-0.322650,0.583183,0.202589,-0.977898,-0.051709
-0.382366,-0.359917,0.571137,0.442259,-0.894538,0.064880
0.517867,0.469608,0.782975,0.906109,-0.382018,-0.181740
0.477174,0.436432,0.806565,0.837175,-0.435820,-0.330452
0.466478,0.398677,0.631700,-0.862726,0.501991,-0.060906
0.431198,0.362087,0.604296,0.755538,-0.392722,-0.524339
0.354122,0.291543,0.598206,-0.056726,0.730819,0.680210
0.294130,0.262056,0.753061,0.028795,-0.995375,0.091652
0.262658,0.224206,0.694539,0.968783,0.197318,-0.150082
0.192586,0.153662,0.651375,0.268290,0.749523,0.605175
0.119074,0.081651,0.618015,0.872364,-0.188445,-0.451076
0.074940,0.048767,0.660343,0.738624,0.178377,-0.650089
0.100635,0.117558,0.663053,-0.208874,0.726521,0.654629
0.056501,0.085256,0.706719,0.575625,-0.449086,0.683358
0.008559,0.056356,0.794820,-0.846739,0.407518,0.341997
-0.108351,-0.041727,0.840326,0.807859,0.550475,-0.210573
-0.144738,-0.078703,0.814729,0.645591,0.080108,0.759470
-0.104663,-0.124339,0.322693,0.921377,0.371923,0.112863
-0.175594,-0.119867,0.734591,0.240214,0.902448,0.357610
-0.154079,-0.147210,0.453691,0.942673,0.318874,-0.098421
-0.218621,-0.149835,0.787860,0.813264,0.557235,0.167603
-0.264229,-0.287330,0.484173,-0.691458,0.721354,-0.039168
-0.302582,-0.323042,0.479087,-0.696872,0.714485,-0.062299
-0.346224,-0.345711,0.583350,0.202589,-0.977898,-0.051709
-0.379662,-0.400202,0.432008,-0.483175,-0.850120,0.209376
-0.417770,-0.438247,0.411397,0.344775,0.377107,-0.859605
0.577979,0.535192,0.585592,0.486152,0.873802,0.011193
0.503851,0.502498,0.790002,0.864332,-0.425996,-0.267316
0.469183,0.468538,0.775279,-0.761490,0.646987,0.039247
0.432672,0.434775,0.769926,0.460240,0.861328,-0.215156
0.415340,0.395464,0.628020,-0.582312,0.801250,0.137522
0.371578,0.362669,0.667169,-0.271531,-0.853236,0.445262
0.300523,0.288621,0.607977,0.474291,0.877029,-0.076605
0.251103,0.256217,0.680519,-0.006999,-0.676533,0.736379
0.173412,0.188982,0.697617,-0.429593,-0.539084,-0.724458
0.128910,0.156869,0.746972,-0.627882,0.726476,-0.279280
0.092276,0.245224,0.627953,0.893856,0.334140,-0.298951
0.012247,0.176622,0.651475,0.787395,0.351393,0.506489
-0.085853,0.122036,0.864686,-0.661953,0.546864,0.512599
-0.113022,0.078248,0.741250,-0.549940,0.411220,-0.726955
-0.159121,0.049930,0.826039,0.969091,0.148061,-0.197333
-0.201409,0.021809,0.887539,-0.163861,0.970133,-0.178862
-0.155801,-0.025769,0.328782,0.826215,0.456823,0.329669
-0.201041,-0.054674,0.404738,-0.141967,0.970178,0.196470
-0.269020,-0.055642,0.783176,-0.789038,-0.479108,-0.384545
-0.300000,-0.098748,0.685438,0.525849,0.668317,0.526152
-0.184812,-0.198001,0.314194,0.886897,0.436298,-0.151847
-0.259311,-0.182530,0.812889,-0.593171,0.798587,0.102014
-0.364171,-0.303870,0.650806,-0.547703,0.759605,-0.350744
0.568881,0.666748,0.580405,0.170772,-0.630819,0.756905
0.522166,0.632207,0.629157,-0.539207,0.513657,0.667392
0.414972,0.524104,0.555645,0.720255,-0.653939,0.231511
0.273478,0.423485,0.723851,0.590576,0.214881,-0.777847
0.245694,0.386900,0.651710,-0.575553,-0.636859,-0.512980
0.221601,0.346710,0.534129,-0.441758,-0.894676,0.066363
0.105429,0.426894,0.934350,-0.297073,-0.880219,-0.370084
0.155832,0.412979,0.548384,0.070875,-0.728292,0.681592
0.061663,0.394395,0.979756,0.028898,0.971015,0.237267
0.027734,0.360727,0.957773,0.191113,-0.727061,0.659438
0.030319,0.309253,0.606638,0.660503,0.743132,-0.107189
-0.005456,0.271593,0.570936,0.809303,0.262925,-0.525261
-0.074541,0.251935,0.848993,-0.741133,0.194449,0.642581
-0.140802,0.179253,0.762464,0.959022,0.209717,0.190515
-0.175594,0.140424,0.711805,0.614013,0.775606,-0.146368
-0.200917,0.095566,0.568828,-0.722703,-0.073650,-0.687224
-0.256114,0.074744,0.755604,0.754557,-0.216097,-0.619634
-0.222429,0.040297,0.332597,0.771991,0.513113,0.375161
-0.291394,0.036211,0.711169,-0.552504,0.687091,0.471853
-0.331840,0.002543,0.727364,0.820098,-0.568574,-0.064524
-0.340690,-0.131929,0.709463,-0.641372,-0.290735,-0.710011
0.362109,0.625787,0.730844,0.002151,-0.974054,0.226305
0.294130,0.556312,0.673225,0.312910,0.834691,0.453187
0.245202,0.522352,0.739610,0.823939,0.271101,-0.497623
0.189514,0.490335,0.856220,0.416346,0.864640,-0.281164
0.184843,0.449563,0.617781,-0.282364,0.324860,-0.902627
0.272862,0.614788,0.550659,0.312427,0.917323,0.246795
0.226887,0.579177,0.588904,-0.640531,0.765537,-0.060606
0.186441,0.544927,0.600549,-0.715926,0.403326,0.569894
0.119565,0.516514,0.807636,-0.570143,0.795125,0.206670
0.098913,0.477197,0.670481,0.336124,0.941098,-0.036798
0.028349,0.452681,0.925918,0.826221,-0.556463,-0.087794
-0.005208,0.417457,0.893161,0.180154,-0.983503,-0.016349
0.076047,0.389525,0.226527,-0.717331,0.476047,0.508739
-0.049098,0.385249,0.937763,-0.288355,0.516781,0.806095
0.035849,0.351480,0.212206,-0.505149,0.738475,0.446632
-0.064709,0.340778,0.735829,0.490583,-0.825335,0.279555
-0.094950,0.303219,0.667269,0.356924,0.490013,0.795293
-0.141297,0.274124,0.750920,-0.566799,-0.134817,-0.812750
-0.053769,0.222454,-0.109851,-0.254969,0.439279,0.861409
-0.214071,0.201632,0.701967,0.748455,-0.441978,0.494440
-0.174611,0.172049,0.273004,-0.081877,0.483992,0.871234
-0.250090,0.163681,0.663454,0.819202,-0.521362,0.238936
-0.364787,-0.038033,0.656495,0.968546,-0.112870,-0.221764
0.348588,0.686697,0.578230,-0.693356,0.711522,0.113988
0.308758,0.650891,0.578230,0.795451,-0.287475,-0.533494
0.098789,0.613718,0.634109,-0.380346,0.443242,-0.811710
0.062279,0.577621,0.608245,-0.657539,0.702923,-0.271185
-0.217391,0.135661,0.283778,0.081773,0.787658,0.610662
-0.288689,0.127292,0.652211,0.965400,-0.166722,0.200516
-0.331101,0.094693,0.686509,-0.262403,-0.964723,-0.021314
-0.366385,0.058109,0.654085,0.892967,-0.052735,-0.447023
-0.413711,0.037090,0.794619,0.486038,0.846783,-0.216160
-0.464361,-0.077052,0.339590,0.835932,0.540884,0.093076
-0.506649,-0.111594,0.360436,0.825742,0.296412,0.479886
-0.005088,0.550081,0.834437,-0.212707,0.684599,0.697195
-0.021930,0.509506,0.658301,0.472802,0.794500,-0.381089
-0.057949,0.473111,0.627250,0.442891,0.244283,-0.862655
-0.121380,0.445964,0.834605,0.912792,0.005574,-0.408387
-0.140191,0.404515,0.661413,0.915273,0.328753,0.232802
-0.076879,0.376685,0.072475,-0.484263,0.841012,-0.241223
-0.130969,0.346710,0.202001,-0.102309,-0.829494,0.549066
-0.167847,0.306135,0.147226,0.977253,0.206328,0.049047
-0.215054,0.274124,0.219735,-0.576899,-0.705741,-0.411239
-0.382243,0.203479,0.770729,0.466530,0.061555,-0.882361
-0.414326,0.163877,0.692833,0.932833,0.173801,0.315619
-0.451575,0.128166,0.674998,-0.115926,0.865026,0.488151
-0.491406,0.093137,0.679783,-0.044953,0.985113,0.165928
-0.533327,0.065402,0.746503,0.501464,0.836759,0.219927
-0.573648,0.032517,0.769357,0.837720,0.545121,-0.032682
-0.607698,-0.013219,0.660711,-0.569875,0.788419,0.231598
-0.004349,0.633864,0.723650,0.930023,0.367500,-0.001002
-0.047005,0.599417,0.749849,0.771616,0.612726,-0.170808
-0.080075,0.563023,0.700228,0.750502,-0.660466,-0.023047
-0.112159,0.528190,0.656695,-0.265210,-0.898863,0.348868
-0.143263,0.491600,0.592518,0.992855,-0.052589,0.107113
-0.178052,0.453845,0.544402,0.115017,-0.982048,-0.149510
-0.223292,0.365009,0.201767,0.659767,-0.216068,0.719738
-0.353723,0.324041,0.735863,-0.043102,-0.910345,0.411600
-0.346100,0.253396,0.186174,-0.331071,0.852694,-0.404110
-0.464729,0.218172,0.685338,0.648357,0.551644,-0.524712
-0.501611,0.182169,0.663889,-0.483605,0.743723,-0.461522
-0.540946,0.146262,0.657398,0.723937,-0.661535,0.195668
-0.515131,0.110651,0.241417,-0.679889,0.603455,0.416644
-0.582131,0.112890,0.681456,0.701362,0.464270,0.540874
-0.619253,0.073580,0.636184,-0.521631,0.793131,-0.314396
-0.657857,0.040297,0.644047,-0.544821,0.094921,-0.833162
-0.696085,0.008286,0.658603,-0.209285,0.075680,0.974922
-0.114988,0.599999,0.063575,0.892996,-0.196928,0.404694
-0.234355,0.585401,0.758081,0.835390,0.122842,-0.535755
-0.343643,0.481480,0.708593,0.394359,0.918515,0.028487
-0.354950,0.429329,0.390450,-0.161933,0.967541,-0.194018
-0.354950,0.368216,-0.073714,-0.304163,-0.902429,-0.305135
-0.463498,0.379310,0.743392,0.442376,0.268402,0.855724
-0.510337,0.277919,0.287727,0.277483,-0.590883,0.757536
-0.585818,0.201632,0.218664,-0.540000,-0.558030,-0.630082
-0.628966,0.166211,0.242555,0.801816,0.597233,-0.020103
-0.691906,0.171075,0.701867,-0.467292,0.134961,0.873741
-0.730754,0.134782,0.688684,0.457235,0.697376,-0.551908
-0.771690,0.103643,0.729873,-0.039802,0.841434,0.538892
-0.153220,0.708981,0.135816,0.998786,0.046804,0.015335
-0.376342,0.530619,0.295255,-0.200734,-0.817380,0.539996
-0.664369,0.280253,0.336679,-0.552825,0.593737,-0.584688
-0.701619,0.237343,0.256909,0.712969,0.641653,-0.282765
-0.467310,0.599221,0.322626,-0.092648,-0.657087,0.748100
-0.670027,0.417843,0.310446,-0.289317,-0.957209,0.006854
-0.797014,0.319860,0.434451,-0.681319,0.668533,0.298107
-0.878765,0.245806,0.421803,-0.088333,0.877311,0.471723
-0.833524,0.415022,0.325437,-0.062165,0.362196,0.930027
-0.834383,0.476129,0.323563,0.220061,0.404306,-0.887755
-0.877166,0.499291,0.322157,0.264324,-0.522544,0.810605
-0.957439,0.429911,0.338519,-0.620706,-0.654898,-0.431084
-0.885401,0.501916,0.325570,-0.297266,0.627460,-0.719671
-0.969241,0.431271,0.355384,-0.135078,0.753881,0.642975
-0.011357,0.181100,-0.512648,0.946946,0.306078,0.098031
-0.002627,0.204548,-0.549957,0.910416,0.148158,0.386254
-0.325447,-0.050778,-0.983236,-0.013631,0.339960,0.940341
-0.274677,0.010133,-0.976745,0.149204,0.055912,-0.987224
-0.051064,0.221385,-0.459781,0.809310,0.587079,0.018868
-0.194281,0.220506,-0.983538,-0.153540,0.029638,0.987698
-0.339464,-0.214250,-0.975708,0.629674,-0.035285,-0.776058
-0.298650,-0.161903,-0.979757,0.062498,0.277768,0.958613
0.035233,0.150645,-0.677642,0.710071,-0.608353,0.354551
0.018640,0.152296,-0.742622,-0.272799,0.957722,-0.091373
0.027123,0.169715,-0.551998,0.870875,0.122434,0.476011
-0.011477,0.166312,-0.681757,0.700999,-0.621273,0.350172
-0.051800,0.146654,-0.771833,-0.287227,0.957401,-0.029727
-0.252671,-0.031125,-0.983839,-0.424568,0.097415,0.900140
-0.240872,-0.304452,-0.966640,-0.051274,-0.155967,0.986431
-0.189978,-0.243251,-0.960416,0.647440,-0.330280,-0.686831
-0.115355,-0.143997,-0.977280,-0.111720,0.212007,0.970861
-0.057701,-0.076369,-0.965101,-0.221218,0.103132,0.969756
0.105061,0.100923,-0.889246,0.997775,0.043112,-0.050857
-0.311803,-0.291802,-0.969819,0.242493,-0.313564,-0.918082
-0.268528,-0.236825,-0.973566,0.471131,-0.604331,-0.642511
-0.222429,-0.178735,-0.973466,-0.301369,0.129992,0.944605
-0.174611,-0.120354,-0.969953,0.093753,0.529043,0.843400
-0.136870,-0.070822,-0.977314,-0.171217,0.092789,0.980854
-0.164898,-0.304648,-0.963729,0.160756,0.117597,-0.979963
-0.026233,-0.131151,-0.963963,0.205783,-0.147391,-0.967434
0.618548,-0.632080,0.432644,0.630744,0.714498,-0.302744
0.357929,-0.797013,0.487954,-0.685504,0.219280,0.694262
0.328059,-0.811219,0.423208,0.735228,0.655567,-0.172256
0.470537,-0.638987,0.442314,0.287374,0.903470,0.318053
0.570235,-0.505875,0.420531,0.891862,-0.337699,-0.300901
0.224306,-0.804800,0.468079,0.122208,-0.167983,0.978186
0.257248,-0.747582,0.423710,0.935327,0.342342,-0.089247
0.382761,-0.590530,0.425483,0.103829,-0.259672,0.960099
0.451483,-0.513662,0.452218,-0.034268,-0.999413,0.000150
0.131859,-0.827374,0.473131,-0.601269,0.712412,-0.361864
0.177591,-0.771517,0.476577,0.745814,0.230353,0.625060
0.227746,-0.698835,0.448939,-0.086930,-0.746253,0.659962
0.324124,-0.568835,0.424479,-0.862993,0.243750,0.442525
0.378582,-0.504610,0.436960,0.179010,0.615886,0.767229
0.889120,0.042928,0.689554,-0.289076,-0.130234,0.948406
0.033024,-0.959708,0.495215,0.270874,0.777461,0.567610
0.032285,-0.938006,0.692531,-0.392443,0.764262,0.511754
0.123625,-0.800517,0.629258,0.809969,0.525740,-0.259899
0.015196,-0.888772,0.498963,0.948177,0.190578,0.254246
0.041626,-0.851308,0.486515,0.968411,-0.027080,-0.247884
0.191235,-0.698443,0.582547,-0.221750,0.333074,0.916455
0.230818,-0.635584,0.545673,-0.091554,-0.932642,-0.348995
0.207709,-0.643465,0.487653,0.731116,-0.656006,0.187419
0.200209,-0.636754,0.443284,0.726220,0.567955,-0.387340
0.275320,-0.554142,0.475306,0.980771,-0.184761,0.062866
0.295728,-0.522226,0.457672,-0.529734,-0.834321,0.152616
0.783029,0.018697,0.649066,-0.694439,0.711756,-0.105632
0.854452,0.097223,0.678813,0.603637,0.511357,-0.611667
0.040891,-0.904344,0.698019,0.899904,-0.434015,0.042475
0.039413,-0.855299,0.554273,0.610312,-0.607776,0.508063
0.057484,-0.811997,0.496186,0.295070,-0.807181,0.511265
0.195538,-0.669936,0.584053,-0.078158,0.720373,0.689169
0.093135,-0.753029,0.456300,0.965264,0.219989,-0.140964
0.190496,-0.636267,0.470053,-0.557822,0.719170,0.414282
0.237703,-0.578949,0.475105,0.892869,-0.449390,-0.028878
0.293515,-0.513269,0.488556,0.975286,-0.118794,-0.186292
0.277901,-0.514344,0.436090,-0.686041,-0.639582,-0.346817
0.410546,-0.378501,0.522251,-0.513374,-0.760166,0.398240
0.534337,-0.225148,0.526099,0.909381,-0.043754,-0.413657
0.783397,0.044384,0.646356,-0.386487,-0.741592,0.548333
-0.012340,-0.886146,0.699859,0.020405,0.621456,0.783184
0.061787,-0.803535,0.728334,0.829682,-0.251524,-0.498360
0.025033,-0.812972,0.625611,0.203685,0.001607,-0.979035
0.116125,-0.714983,0.670782,-0.467356,-0.866646,0.174651
0.059454,-0.743105,0.548718,0.727225,0.668601,0.155296
0.080841,-0.709733,0.530850,-0.419106,0.896121,0.146005
0.057117,-0.718778,0.472328,-0.055856,0.991432,0.118081
0.082931,-0.681612,0.458241,0.141224,0.011532,-0.989910
0.128663,-0.626242,0.463428,0.141676,-0.065658,-0.987733
0.160011,-0.584401,0.455364,0.126419,-0.317281,-0.939868
0.249505,-0.487292,0.499565,-0.454101,0.890790,0.016907
0.253932,-0.470455,0.467275,0.437601,0.794261,-0.421491
0.346251,-0.370917,0.514053,0.127705,0.941932,0.310573
0.493894,-0.194984,0.538480,0.722740,0.638321,-0.264938
0.890350,0.248924,0.688951,0.410740,0.539898,-0.734712
0.932762,0.300398,0.693167,-0.353443,0.365747,0.860992
0.945668,0.427280,0.640902,-0.528899,0.678978,0.509171
-0.133550,-0.947057,0.707689,0.708603,0.667588,0.228490
-0.117816,-0.908139,0.652078,0.952796,0.224475,0.204429
-0.028937,-0.811416,0.693201,-0.341227,0.811397,0.474552
-0.041843,-0.798474,0.611289,0.785837,-0.424436,-0.449794
0.040891,-0.707785,0.647527,-0.028842,-0.873236,0.486444
0.028229,-0.707203,0.600180,0.486175,0.855360,-0.178866
0.029580,-0.680929,0.530784,0.915268,0.364366,-0.171817
-0.001153,-0.696792,0.465770,0.608347,-0.722094,-0.329384
0.026016,-0.658550,0.453691,-0.115196,0.225099,0.967502
0.070393,-0.603959,0.455999,0.534704,-0.089741,-0.840260
0.099280,-0.563870,0.444188,0.310860,-0.542208,-0.780626
0.175745,-0.478823,0.476310,0.493043,0.841147,0.222215
0.225532,-0.420050,0.485311,0.556805,0.009860,-0.830585
0.264380,-0.357488,0.446998,-0.522946,-0.631694,0.572268
0.459717,-0.150904,0.553871,0.733053,0.464001,-0.497328
0.671532,0.071537,0.677207,0.355014,0.933118,0.057061
0.665139,0.078153,0.634511,0.871837,0.459040,0.170830
0.198979,-0.368386,0.524326,0.545085,0.831907,-0.103985
0.196889,-0.357387,0.484273,0.558250,0.556486,-0.615370
0.433655,-0.098944,0.593154,0.558112,0.727619,0.398850
0.524751,-0.001739,0.640467,0.348112,0.805536,0.479510
0.608835,0.088463,0.683397,0.960627,-0.209502,-0.182498
0.663294,0.165237,0.659473,-0.485730,-0.741672,0.462590
0.753279,0.273731,0.670782,0.663868,-0.539057,-0.518360
0.802946,0.345059,0.644081,-0.507091,0.826631,0.244007
-0.201165,-0.933534,0.709998,0.679421,0.655788,0.329134
-0.181372,-0.902301,0.691394,0.606951,0.376174,0.700074
-0.148425,-0.858702,0.684367,0.250396,0.269784,0.929795
-0.145597,-0.843623,0.650840,-0.322951,-0.753413,0.572775
-0.116342,-0.804022,0.641638,0.223281,-0.150536,0.963060
-0.049710,-0.715957,0.629258,0.444105,0.866471,0.228034
0.083794,-0.565426,0.675366,0.550932,0.473142,-0.687467
-0.010742,-0.628285,0.517500,0.685897,0.724965,-0.063017
0.063262,-0.546451,0.548016,0.708927,0.699485,-0.090233
-0.003858,-0.596957,0.451482,0.825437,0.209626,-0.524128
