0.153444,-0.010811,-0.210501,0.620164,0.781039,0.073315
0.255469,0.401652,0.845533,0.981992,0.176089,0.068437
0.051876,-0.269374,0.572833,0.853009,-0.510808,-0.107009
-0.331861,-0.475302,0.978179,-0.567089,-0.726759,0.387596
-0.179686,-0.033606,0.716215,0.898959,0.320276,0.298824
0.527283,-0.058668,-0.979060,0.073181,0.085154,0.993677
-0.145627,0.087902,0.775346,0.242299,-0.585440,0.773661
0.197351,-0.408818,0.925576,-0.432836,-0.251871,-0.865572
0.160653,-0.021986,0.924123,0.983226,-0.134127,-0.123596
-0.194203,0.048547,0.691137,0.292867,0.955396,-0.038040
0.438861,-0.127419,0.823265,-0.004536,-0.981499,0.191414
0.299477,-0.300915,0.550523,0.554042,0.476956,0.682312
-0.223998,-0.396793,0.898737,0.230496,0.816127,0.529914
-0.315212,0.793667,0.183088,-0.090345,-0.150606,0.984457
0.578854,0.103531,-0.979759,0.093422,0.040126,0.994818
-0.015786,-0.055875,0.903993,0.034052,0.983840,0.175784
0.120857,0.000041,-0.115822,0.905934,-0.386778,0.172296
0.271255,-0.822253,0.871227,-0.518773,0.655143,-0.549238
0.366631,0.176857,0.699384,-0.212979,-0.928905,0.302945
0.689559,0.196494,-0.981422,-0.008615,-0.038426,0.999224
0.737324,-0.735080,0.742439,0.924923,-0.229684,0.302924
0.168317,0.069641,0.003026,0.054736,0.998501,-0.000281
-0.176996,0.310957,0.920432,-0.634229,0.288824,0.717170
0.252780,-0.133695,0.442648,0.916887,0.112161,-0.383063
-0.750520,-0.158595,0.849895,0.399454,-0.911943,0.093786
0.275926,0.085270,0.851656,-0.209934,0.596505,0.774667
0.257145,0.213580,0.817184,0.949756,-0.206630,0.235091
0.308970,-0.026682,-0.613987,0.167523,0.977507,-0.128127
-0.088319,0.782979,0.768076,-0.102599,-0.882031,0.459885
0.248972,0.407361,0.753161,-0.476227,-0.604474,0.638607
-0.472717,0.439995,0.688439,-0.337575,-0.424494,-0.840147
-0.815644,0.012471,0.770467,0.271344,-0.647252,0.712346
-0.746206,0.230100,0.796160,0.511650,0.791654,-0.333913
0.084616,0.494615,0.837272,-0.218186,0.669640,0.709913
0.148572,-0.532432,0.930735,-0.530335,-0.408988,0.742613
-0.042281,0.736335,0.732752,0.333024,-0.853756,0.400245
-0.017308,0.835331,0.799333,0.811581,0.575768,-0.099137
-0.099436,0.093449,0.913862,-0.535739,0.767079,-0.352949
0.052739,0.067698,0.879502,0.451397,0.749543,0.484175
0.830211,-0.570330,0.710665,0.667569,-0.215292,-0.712741
0.297448,-0.093692,0.934942,-0.393547,0.843628,0.365258
0.225776,0.281885,-0.995862,-0.209819,0.110071,0.971525
0.343688,0.034294,0.521825,-0.015975,-0.950891,0.309112
0.134613,-0.243744,0.823125,0.394315,0.882638,0.255861
0.822548,-0.866062,0.754335,-0.169123,0.973584,-0.153399
-0.169737,-0.186209,0.601029,0.262618,0.920425,0.289566
0.382671,-0.769455,0.815283,-0.333959,0.859522,0.386903
0.255420,0.193255,0.887666,-0.068484,0.519610,0.851655
0.251003,-0.798728,0.812292,0.469930,-0.763850,-0.442378
-0.491497,0.574500,0.674124,0.165863,0.973267,-0.158876
0.128014,0.556037,0.844149,0.328193,0.916806,-0.227500
-0.435764,-0.332253,0.908354,0.696635,-0.684229,0.215708
-0.577077,0.398940,0.585582,-0.032232,-0.668684,0.742848
-0.481143,0.150862,0.739546,0.058606,-0.675005,0.735482
0.650881,-0.890639,0.798061,0.373609,0.415917,0.829113
0.420589,0.111750,-0.876161,0.993026,0.011102,-0.117368
0.209584,0.086607,0.677409,0.524059,-0.699511,0.485846
0.026243,-0.326949,0.677927,0.729740,-0.681881,-0.050183
0.003604,0.175399,0.895256,0.322251,0.454712,-0.830296
0.691489,0.245162,-0.980094,0.160881,0.069413,0.984530
-0.407999,-0.120496,0.914114,-0.449854,-0.837336,-0.310645
0.270749,0.038789,0.603321,0.619558,0.348988,0.703104
0.723720,-0.508624,0.662578,-0.581872,0.755496,0.301081
0.274403,0.341081,0.931056,0.944153,-0.150286,0.293241
0.051369,-0.847923,0.825208,-0.106295,-0.784889,0.610451
-0.345059,-0.031176,0.796621,0.091108,0.296244,0.950757
0.174053,-0.034294,0.325659,-0.623267,0.652479,0.431056
0.194914,-0.747671,0.763995,-0.204414,0.817150,0.538963
0.090301,-0.256296,0.578187,0.832429,-0.541683,-0.116799
-0.131769,0.384282,0.876720,0.860626,-0.061743,0.505481
0.533323,0.001498,-0.977326,-0.027036,-0.056382,-0.998043
0.092382,-0.811482,0.715166,0.479023,-0.545566,-0.687673
-0.125019,0.023646,0.604971,0.621263,0.783583,-0.005491
-0.437185,-0.043647,0.913079,0.699933,0.519550,-0.490063
-0.039236,-0.110130,0.534657,-0.658754,0.671849,-0.338618
0.046344,-0.630051,0.958511,0.866302,0.462572,-0.188544
0.702097,-0.446595,0.819449,-0.454183,0.790882,-0.410150
0.798438,-0.626771,0.800997,0.553671,0.829906,-0.068592
-0.282168,-0.479513,0.844108,0.793307,0.456128,0.403250
-0.203339,0.091627,0.793406,0.437847,-0.745522,0.502481
0.072382,-0.208479,0.642672,0.453300,0.875437,0.167721
-0.166437,-0.395254,0.880047,0.944888,0.271406,0.183099
0.024771,-0.202648,0.898136,-0.397229,0.459937,-0.794146
0.371961,0.751113,0.786682,-0.218065,0.889575,-0.401377
0.142988,-0.226941,0.971427,-0.474609,-0.640412,0.603836
-0.195472,0.682768,0.797572,0.277073,-0.765956,0.580122
-0.086544,-0.396267,0.664060,0.542511,-0.829595,-0.132110
-0.044159,-0.022390,0.855486,0.646246,0.763124,0.002765
0.330390,-0.160823,0.912772,0.299155,0.649829,0.698733
-0.298411,-0.790307,0.802604,0.582407,-0.812790,-0.013218
0.104259,-0.223621,0.479455,0.993141,0.108445,-0.043712
0.451348,-0.232852,0.877140,0.559640,0.218207,0.799493
-0.474798,0.167099,0.810684,0.152339,-0.112920,-0.981856
-0.212476,-0.419629,0.774940,-0.723342,0.357106,-0.590975
-0.042383,0.779577,0.767378,0.008284,-0.906768,0.421548
0.177251,0.212042,0.846288,0.789391,0.422167,0.445687
0.753516,0.316909,-0.984931,0.030958,0.114286,0.992965
-0.039997,-0.112843,0.512920,0.553954,-0.832338,0.018692
0.570581,-0.527006,0.620068,0.842590,0.398978,0.361744
-0.271407,-0.379666,0.871185,-0.104504,0.915945,0.387459
0.236131,0.712771,0.748185,-0.193341,-0.599988,0.776295
0.648395,-0.555470,0.821196,0.163730,0.889912,0.425733
-0.091010,-0.513725,0.962173,-0.020447,-0.973362,0.228358
0.267753,-0.036440,-0.409043,0.930092,-0.321194,0.178220
-0.477640,0.729533,0.183717,0.457512,0.414879,0.786485
0.287347,0.194834,0.886953,-0.500624,0.692687,0.519193
0.171109,0.067253,-0.102892,0.989343,-0.120164,0.082222
0.047409,0.779092,0.752266,-0.636385,-0.697468,-0.329473
0.258922,0.330594,0.839103,0.785959,0.105951,0.609132
0.295925,-0.512835,0.925283,0.986837,0.150258,-0.059788
-0.364448,0.439104,0.769544,-0.455980,-0.870954,-0.183089
0.668850,-0.515021,0.876553,0.129514,-0.599347,0.789943
0.856861,-0.628553,0.804156,0.770936,0.523372,-0.362960
0.041267,0.170379,0.895186,0.285152,-0.815195,0.504129
-0.169280,-0.576767,0.706597,0.366320,0.267562,0.891190
0.277297,-0.381002,0.890769,-0.287520,0.353244,0.890253
-0.264554,0.487247,0.637723,0.016490,-0.920622,0.390107
0.377900,0.044538,-0.875378,0.989441,0.049080,-0.136375
0.295163,-0.230221,0.795643,-0.276946,0.771259,0.573115
0.387951,0.525832,0.674432,0.089180,0.786398,-0.611249
0.521498,0.124221,0.662718,0.377577,0.925974,-0.002664
-0.222678,-0.183820,0.956987,-0.299546,0.037988,-0.953325
-0.094411,-0.116123,0.615749,-0.769431,0.434245,-0.468408
0.774987,0.391287,-0.988621,-0.046889,0.087726,0.995040
0.179129,-0.591424,0.920125,0.659181,-0.733302,0.166578
-0.026445,-0.904162,0.810782,-0.269835,0.933835,0.234820
0.351049,0.275853,0.900750,0.621125,0.506075,-0.598408
0.132075,0.035023,0.948753,0.072850,0.492340,0.867349
-0.323943,-0.370840,0.865943,0.333904,0.935064,0.119008
0.086392,-0.076929,-0.982121,-0.010735,0.036634,0.999271
0.228060,-0.490971,0.764274,0.965852,-0.065870,-0.250583
0.108371,0.400195,0.808000,0.993884,0.110426,0.000481
0.413228,0.251235,0.937976,-0.397061,0.593411,0.700147
0.763871,0.311038,-0.986776,0.026045,0.107924,0.993818
-0.005430,0.050490,0.812431,0.954360,0.247839,-0.166650
0.068221,0.705360,0.700153,0.710992,0.479583,-0.514287
-0.108268,-0.600210,0.894166,0.935420,0.322471,-0.144918
0.564998,-0.470888,0.638912,-0.439620,0.897370,0.038221
-0.140957,-0.616001,0.786319,-0.159438,0.813953,0.558624
0.027309,-0.939104,0.760067,0.312895,-0.893791,0.321301
-0.256788,0.450968,0.149134,-0.209780,0.177634,-0.961477
0.233795,0.039761,0.963501,0.471402,0.264023,-0.841470
0.237552,-0.272208,0.913848,0.806587,-0.590482,-0.027346
-0.053753,-0.029881,0.954107,0.927619,0.171229,0.331970
0.206438,-0.817475,0.814738,0.533053,-0.831676,-0.155465
-0.240749,-0.398655,0.986664,0.755730,0.378634,0.534330
0.450536,0.278282,-0.984386,-0.117318,0.287622,0.950531
0.061876,-0.706738,0.856842,0.818562,0.530302,0.220760
-0.186030,-0.642400,0.716788,0.252308,0.117412,0.960497
0.351912,0.036562,0.619020,0.091695,-0.748586,0.656666
0.117355,-0.078994,0.337653,-0.655860,0.550557,-0.516464
-0.148063,-0.505304,0.913750,-0.586781,0.802186,-0.110387
0.136694,-0.106729,0.939276,0.291279,0.012872,0.956551
-0.342012,0.451535,0.169109,0.463810,0.873001,0.150827
0.414853,0.255527,0.948138,-0.178697,0.577083,0.796896
-0.220445,-0.411693,0.924556,-0.435595,0.899578,-0.031882
-0.303791,0.092518,0.945734,-0.588422,0.492626,0.641154
0.276281,-0.039922,-0.981967,-0.218706,0.086618,0.971939
0.440892,0.236700,-0.979689,-0.031068,0.107319,0.993739
-0.447591,0.624140,0.769866,0.825998,-0.197039,-0.528112
-0.012232,-0.426593,0.894571,0.244464,0.962940,0.113948
0.257043,-0.227265,0.794720,-0.474140,0.715896,0.512528
0.068880,-0.289011,0.399300,0.989695,0.139451,0.032524
0.300086,0.249494,0.879432,-0.617076,0.333058,0.712945
-0.044414,-0.781885,0.857639,0.407542,0.370744,-0.834541
0.557180,-0.441372,0.564502,0.542022,0.556028,0.630116
0.098676,0.104422,0.440481,0.349381,0.810975,-0.469311
0.156795,-0.172686,0.773137,-0.603581,0.776664,0.180229
0.350947,-0.186452,0.872191,0.677527,-0.421289,-0.602887
-0.174203,0.379788,0.809118,0.219024,0.929572,-0.296519
-0.119588,0.243987,0.835846,-0.366529,-0.594790,0.715459
0.348105,-0.239493,0.874064,0.611270,0.696161,-0.376442
0.131720,-0.074338,0.274552,0.526149,-0.847539,0.069599
-0.282473,0.449551,0.778658,0.002979,0.848886,0.528567
0.274606,-0.784436,0.810754,-0.581676,0.735333,0.347762
0.008579,0.195361,0.139418,-0.152456,-0.103859,0.982838
-0.458961,0.534781,0.805680,0.489031,-0.754034,0.438498
0.464444,-0.295692,0.900638,0.951207,0.059990,0.302667
0.332470,0.028748,0.515282,0.577014,0.799010,-0.169229
0.283691,-0.026722,-0.982722,0.294677,-0.083207,-0.951967
-0.197908,0.539599,0.705940,0.114335,0.444626,-0.888389
0.547384,-0.915378,0.827696,0.091657,0.441463,-0.892586
0.173647,-0.007085,0.008674,-0.717368,0.637422,0.281205
0.474494,-0.801725,0.807888,-0.651575,-0.228541,0.723339
0.157252,-0.231719,0.830870,-0.522225,-0.845968,0.107795
-0.242474,0.290793,0.566878,0.296743,0.572653,-0.764207
-0.215014,0.568953,0.142284,0.832618,0.273793,0.481440
-0.354702,0.073812,0.718983,0.299534,-0.316803,0.899953
0.653470,-0.456150,0.706961,-0.178532,0.812018,0.555655
0.103650,0.278768,0.584198,0.980447,0.136811,0.141442
-0.140855,-0.667706,0.898681,0.199605,0.975937,-0.087782
0.164358,0.164467,-0.994688,0.145527,-0.114619,-0.982692
-0.584742,-0.275002,0.861441,0.905258,-0.259463,0.336432
0.284351,-0.260021,0.901589,-0.594674,0.707818,-0.381257
0.268413,0.024941,-0.430445,0.980917,0.169991,0.094365
-0.683823,0.504049,0.691570,-0.591390,-0.638558,0.492445
0.075428,-0.475949,0.668141,0.706767,0.547026,0.448600
-0.087355,0.153332,0.981045,0.703703,0.623188,0.341231
-0.475001,0.546279,0.688970,0.432420,0.837823,0.333264
-0.205877,-0.331849,0.894487,0.896651,-0.422660,0.131815
-0.329272,-0.169892,0.697707,-0.488253,0.833126,-0.259825
-0.114054,0.302008,0.620446,0.000502,-0.658534,0.752551
-0.299781,-0.155843,0.750337,-0.378891,0.919576,-0.104024
-0.063397,-0.393554,0.760374,0.089853,0.814427,0.573267
0.410842,0.126488,0.819407,0.978622,0.164946,0.122849
0.147709,-0.603895,0.948530,0.900436,-0.385333,-0.201826
-0.405156,0.339825,0.531372,0.794773,0.529008,0.297465
0.424395,0.237266,-0.980807,0.063823,-0.089246,-0.993963
0.353130,0.097417,0.618279,-0.543447,-0.832598,0.106982
0.860921,-0.647785,0.807371,-0.641123,-0.653836,0.401821
0.204964,0.039761,-0.346040,0.968937,0.246470,0.020314
-0.217247,0.405337,0.830772,0.175772,0.937679,0.299771
-0.030049,0.739453,0.792302,0.993865,-0.094860,0.056875
0.205523,0.023038,-0.989935,-0.062118,0.049199,0.996855
0.194203,-0.244027,0.596933,0.132660,-0.971836,-0.194773
-0.007207,-0.318771,0.646097,0.554309,-0.831855,-0.027542
-0.250900,-0.083528,0.808573,0.198295,0.819906,0.537060
0.378509,0.216982,0.816164,0.943046,0.294039,0.155584
0.409269,-0.521418,0.857849,-0.281193,0.933548,0.222303
0.017208,-0.080411,0.374655,0.875799,0.331840,0.350510
-0.271306,0.183497,0.790708,-0.712814,-0.422608,-0.559730
0.154155,0.081343,0.370042,0.688897,0.099675,0.717973
0.293946,0.241113,0.924738,0.761633,0.158437,0.628341
0.075936,-0.450198,0.917217,-0.181955,-0.938773,0.292570
-0.612354,0.182282,0.769125,0.574979,-0.322966,0.751726
-0.298208,0.291765,0.898374,-0.670765,0.457363,0.583861
-0.142530,-0.012673,0.729439,0.876535,-0.273819,0.395865
0.369728,-0.380719,0.866865,0.998400,-0.044300,0.035132
0.478402,-0.567657,0.885541,0.899598,0.389946,-0.196636
-0.081010,0.269536,0.137853,0.145596,0.162210,0.975956
0.256231,0.215848,0.895606,-0.050369,0.276015,0.959833
-0.058626,0.045065,0.956568,0.745235,0.661582,0.083268
0.067459,0.148758,0.758641,0.992478,0.116475,-0.037689
-0.710725,0.529477,0.700796,-0.373458,0.113844,-0.920635
0.140146,-0.159810,0.927939,0.112578,-0.822672,0.557258
0.340643,0.607013,0.750449,0.794680,-0.575988,0.191628
-0.422973,0.740546,0.164790,-0.378645,0.917535,0.121479
0.397544,-0.773423,0.785033,0.497124,0.770346,0.399291
0.247653,-0.151996,0.775052,0.365576,-0.213500,-0.905965
-0.043246,0.007612,0.670532,0.744799,-0.622813,0.239540
-0.632658,0.381407,0.536027,-0.399264,0.914372,0.067166
-0.262017,-0.256215,0.945636,-0.756996,-0.279538,0.590606
0.312827,0.356507,0.911779,0.392394,0.851799,0.347081
0.406376,0.116609,-0.831611,-0.804296,-0.588607,-0.081548
0.480281,-0.401490,0.849266,-0.637152,0.138738,-0.758149
-0.748236,-0.174711,0.834490,0.857963,-0.433425,0.275757
-0.228160,0.607378,0.801472,-0.757323,0.369088,-0.538736
0.321557,-0.174548,0.442928,-0.687392,-0.724020,0.057335
-0.471701,0.876388,0.114466,-0.595220,0.783707,-0.177532
0.369119,0.217184,0.767867,-0.352101,-0.929038,0.113632
0.251815,-0.066159,-0.982373,0.147063,-0.165969,-0.975103
-0.477844,0.098510,0.908746,0.464503,0.147071,-0.873274
0.372976,-0.831849,0.843031,-0.744258,0.660180,0.101204
0.051825,0.716252,0.843464,-0.623834,0.134164,0.769956
-0.172072,-0.344076,0.870556,0.979008,-0.000579,0.203820
0.245013,-0.588226,0.904608,-0.678169,0.362604,-0.639222
0.691590,-0.881245,0.797935,0.795442,-0.074671,0.601411
0.176185,-0.142521,0.845799,0.946915,-0.316716,-0.055157
0.261561,0.282007,0.866068,-0.652421,-0.619811,-0.436099
-0.843256,-0.172362,0.849825,0.857464,0.389813,0.335858
-0.017308,0.138433,0.939108,-0.144799,0.944527,0.294790
0.561241,0.090777,0.161966,-0.316216,-0.129158,0.939854
-0.017816,0.223055,0.522677,-0.097647,-0.891721,0.441926
0.155982,0.777027,0.804156,0.212914,-0.896596,0.388308
0.168723,0.054863,0.367568,0.303654,-0.032876,0.952215
0.471551,0.030408,-0.978640,0.022964,0.045378,0.998706
0.156896,-0.144788,0.803527,0.883142,-0.412258,0.223836
-0.066392,-0.053041,0.894837,0.215989,0.964503,0.151927
-0.514542,0.421573,0.586700,0.104019,0.902792,-0.417309
-0.556164,0.326828,0.774507,0.312801,0.266913,0.911544
-0.316126,0.509434,0.713629,0.258194,0.577995,0.774117
0.161058,-0.669001,0.870010,-0.089989,0.987457,0.129732
0.442313,0.041542,-0.776324,0.861007,-0.506336,0.047857
0.039440,-0.091222,0.348486,-0.317420,-0.895461,0.312082
-0.565656,-0.274516,0.801067,0.216056,0.630495,-0.745517
-0.355667,0.594381,0.788737,-0.167207,0.634126,0.754935
-0.439013,0.595919,0.760025,0.795122,-0.252390,0.551434
0.377089,-0.786298,0.814962,0.547381,0.832197,-0.088441
-0.045987,0.112196,0.841326,0.998434,-0.018419,0.052817
0.425665,-0.493036,0.890615,0.374073,0.883210,-0.282858
-0.595350,-0.383837,0.848189,0.912970,0.207331,-0.351425
0.715395,-0.454773,0.873575,0.846163,0.531780,-0.034891
0.102026,-0.338084,0.503037,0.976787,0.180468,0.115409
0.319274,-0.266418,0.826089,0.233265,-0.972354,0.010684
-0.028627,-0.046562,0.873114,0.107913,-0.983466,-0.145430
0.174458,-0.203458,0.770075,-0.506211,0.614156,0.605445
0.777930,-0.670823,0.636745,0.489915,0.689117,0.533948
0.348662,-0.062717,0.877251,-0.277030,0.153007,-0.948601
0.817116,-0.853955,0.829835,0.109578,-0.374111,0.920887
-0.067407,-0.697020,0.893327,0.287845,0.924017,-0.251669
0.230446,0.308163,0.823013,0.924467,-0.103730,0.366879
-0.055022,-0.520245,0.919230,0.868107,-0.363777,-0.337722
-0.138926,-0.645639,0.706933,0.297665,0.153989,0.942169
-0.323587,-0.625678,0.778449,-0.338059,0.756673,0.559608
0.033197,-0.729411,0.920866,-0.182517,0.660437,0.728361
0.846557,-0.501903,0.726475,0.896716,0.292195,0.332448
-0.651236,0.254839,0.811802,0.022385,-0.926999,0.374396
0.385717,0.233703,0.919845,-0.708736,0.645372,0.284936
0.869805,-0.531865,0.718731,0.998138,0.060896,0.003632
-0.915689,-0.206211,0.848371,0.847420,0.489591,-0.205377
-0.082737,0.078833,0.876944,0.979139,-0.197701,0.046925
0.388305,-0.872176,0.870514,0.915342,0.366189,0.167495
0.091366,0.354968,0.602525,0.812982,-0.208785,0.543570
0.251764,0.379464,0.661613,-0.744836,0.096815,-0.660187
-0.546571,0.404284,0.525291,-0.008250,-0.280180,0.959912
0.062332,-0.156814,0.946754,-0.168162,0.941981,0.290506
0.504289,0.080493,-0.979269,0.087645,-0.015231,0.996035
-0.592457,-0.389829,0.810978,-0.527338,-0.812000,-0.250141
0.235166,0.439550,0.656371,0.958144,0.233308,0.165916
0.025329,-0.609523,0.826326,0.855325,-0.517736,0.019197
0.200396,-0.041825,0.193447,-0.477933,-0.784713,-0.394722
-0.061316,-0.399020,0.793057,0.990920,-0.124952,0.049641
-0.865083,-0.317394,0.842766,-0.258214,-0.965094,-0.043806
0.169383,-0.533363,0.842444,-0.642558,-0.048701,-0.764688
-0.074260,-0.011741,0.704808,0.901730,-0.112948,0.417284
0.571443,-0.622115,0.823223,0.975801,0.216173,0.032897
0.458607,0.052110,-0.975719,0.197779,-0.072777,0.977541
-0.101263,-0.565268,0.845659,0.644915,0.622607,0.443221
-0.292929,-0.406106,0.972014,0.859329,-0.468500,-0.205087
0.424141,0.097579,-0.942463,0.207597,0.883289,0.420363
0.011523,0.432991,0.849965,0.526651,0.363214,-0.768579
0.395869,-0.123694,0.798900,0.815712,-0.070403,-0.574159
-0.340744,-0.092558,0.836881,0.871140,0.089556,0.482799
0.347800,0.444449,0.892405,0.936029,-0.264855,-0.231737
0.413381,0.158839,0.139460,-0.454538,0.217775,0.863695
0.005077,-0.433031,0.870765,0.522057,0.848098,0.090473
0.199939,-0.022593,0.901673,-0.480431,-0.872458,0.089463
-0.684634,-0.167422,0.751861,-0.194198,-0.917580,-0.346893
0.090758,-0.124585,0.417528,0.627989,0.778139,0.011395
0.458302,-0.149445,0.867900,-0.607861,0.611211,-0.506879
0.394041,-0.278241,0.946880,-0.284972,-0.405865,0.868369
0.222832,0.062596,0.947425,0.098800,-0.797142,0.595653
0.574134,0.273423,-0.978501,-0.003053,-0.002925,0.999991
0.180499,0.010770,0.219322,0.976508,0.134716,0.168179
-0.195979,-0.580654,0.907096,0.404992,0.390855,0.826567
0.685144,-0.920844,0.762345,-0.316148,-0.828006,-0.463094
0.099590,0.347720,0.751749,0.802343,-0.278219,0.528053
0.401249,-0.130982,0.822846,-0.004536,-0.981499,0.191414
0.162987,0.533606,0.850957,0.854371,0.519102,-0.024144
-0.072331,0.182849,0.950710,-0.346989,0.868205,-0.354709
0.360591,-0.402259,0.891412,0.804995,0.587612,0.081818
0.206741,0.547251,0.728796,0.915085,-0.324563,0.239330
-0.781737,-0.166410,0.843842,0.056328,-0.982836,0.175671
-0.669102,0.209936,0.753413,0.560099,-0.176369,0.809434
0.026445,0.498016,0.642644,0.709668,-0.683176,0.172172
-0.437236,-0.480565,0.862378,0.312906,0.944737,0.097785
-0.435662,-0.509920,0.868039,0.759981,0.628309,0.166304
-0.187401,-0.865697,0.818107,0.193611,0.677035,-0.710027
0.025888,0.623937,0.664535,0.627914,0.219479,-0.746694
-0.289172,-0.685723,0.957644,0.897028,0.083688,-0.433978
-0.118065,0.163698,0.957434,0.000317,-0.998773,0.049532
-0.432972,0.543931,0.738036,0.445923,0.894823,0.021091
0.272220,-0.055024,0.894781,0.385721,0.042224,0.921649
0.039643,-0.316260,0.641064,-0.152608,0.985886,0.068847
-0.266432,0.220787,0.875784,0.160066,0.076468,0.984140
-0.228922,-0.361689,0.900233,-0.753447,0.377480,-0.538356
0.247501,-0.462669,0.648096,0.170575,0.686056,0.707271
0.632100,-0.812981,0.849070,-0.764208,0.073390,-0.640781
0.547943,0.112560,-0.980024,0.073884,0.066945,0.995017
0.322979,-0.161065,-0.114368,0.867649,0.482434,0.120176
0.329222,0.242814,-0.987014,-0.160531,0.313423,0.935947
0.415867,-0.316584,0.881823,0.859727,-0.195628,-0.471804
-0.064108,0.107135,0.992927,0.023264,0.000184,0.999729
0.240344,0.197992,0.694268,0.481643,-0.499562,0.720040
0.054820,-0.699814,0.863468,-0.237369,-0.953163,-0.187446
0.227655,-0.138634,0.972350,-0.047019,0.630124,0.775070
-0.130602,0.162321,0.979311,0.270421,0.960709,-0.062537
-0.301456,-0.790995,0.773668,0.991210,-0.114495,0.066282
0.381657,0.597093,0.727286,-0.837192,0.540515,0.083385
-0.183391,-0.032796,0.950655,-0.607527,0.600405,0.520024
0.371707,-0.177018,0.834574,0.875254,-0.468855,0.118766
0.085580,-0.337598,0.866837,0.985646,-0.143890,0.088301
0.628496,-0.697749,0.716215,0.141474,0.823895,0.548801
0.240191,-0.008219,0.367372,0.889058,0.382635,-0.251328
-0.019136,0.185562,0.137741,-0.034521,-0.034865,0.998796
-0.389624,0.344765,0.827864,0.195367,-0.747643,0.634714
-0.697680,0.471780,0.681016,0.204837,-0.946235,0.250363
-0.311354,-0.933679,0.671986,-0.291246,-0.406335,-0.866064
0.517385,-0.287837,0.565355,0.894780,0.316985,-0.314468
-0.374295,0.464410,0.633292,-0.707772,0.207410,-0.675308
0.414091,0.213135,0.742495,-0.562466,-0.756235,0.334275
0.177048,0.136975,0.534014,-0.606337,-0.765433,0.215565
0.476270,-0.235971,0.509635,0.749534,-0.348935,-0.562533
-0.519008,0.390234,0.534811,0.440444,0.896958,0.038399
0.369119,0.152644,0.701146,-0.212979,-0.928905,0.302945
0.278920,-0.727144,0.816975,0.320587,-0.364145,-0.874427
0.617329,0.145397,-0.983058,0.032906,0.015377,0.999340
0.103904,-0.699854,0.886967,0.449757,0.774367,-0.445056
0.126847,0.232772,0.573029,0.811485,-0.094593,0.576666
0.323334,0.128431,-0.944294,0.533403,-0.479347,-0.696927
-0.210801,-0.933476,0.700656,-0.737698,0.661554,0.134712
-0.218821,-0.603692,0.944001,0.837560,0.276120,-0.471434
-0.005279,0.108713,0.962495,-0.343637,0.399189,0.850037
-0.052180,-0.416916,0.900387,0.528686,0.847680,0.043937
-0.092330,0.510528,0.803625,0.020128,-0.977282,0.210987
-0.294451,0.204389,0.851544,0.053445,-0.382919,0.922235
0.163342,-0.228034,0.623786,-0.099468,0.992039,-0.077234
-0.228415,-0.539922,0.900890,-0.040859,-0.288592,0.956580
-0.629359,0.234797,0.801975,-0.289342,0.858976,-0.422424
0.438355,0.107904,0.856143,0.978828,0.200838,0.039506
-0.101213,0.088793,0.757998,0.783056,-0.430251,0.449119
-0.459722,-0.592396,0.815605,-0.504298,0.036747,-0.862747
0.135375,-0.211799,0.861441,0.833804,-0.550871,-0.036220
-0.232780,-0.746578,0.825642,-0.170669,-0.953147,-0.249765
-0.319121,0.069803,0.815451,-0.067873,0.994530,-0.079400
-0.426475,0.093935,0.803401,0.319384,0.892463,0.318596
-0.118572,0.085270,0.890923,-0.540298,0.196184,-0.818285
-0.264504,-0.277593,0.967150,0.918506,-0.019369,-0.394932
-0.021521,-0.054053,0.939863,0.379198,0.901028,-0.210612
-0.224252,-0.652280,0.907767,0.765382,0.336633,-0.548515
-0.710319,0.433477,0.596066,0.164133,0.695407,0.699621
0.273692,0.283707,0.927002,0.947578,0.214930,0.236434
0.275215,0.298324,0.815381,0.280650,0.233228,-0.931043
0.056444,-0.106729,0.355783,0.819661,0.537496,0.198126
-0.335007,0.098470,0.872499,0.350765,-0.893233,-0.281244
0.541850,0.099806,0.683490,0.531883,0.844227,0.066186
-0.094970,-0.474411,0.808937,-0.688895,0.723947,-0.036381
-0.140652,0.027492,0.953912,-0.703902,0.708466,-0.050980
0.229837,-0.179043,0.973440,-0.578627,0.619179,0.530856
-0.465814,-0.665074,0.765420,0.870327,-0.489885,-0.050433
-0.231358,-0.496356,0.863091,0.164881,-0.858566,-0.485468
-0.022282,0.770872,0.747849,-0.812489,0.568128,-0.130739
0.421046,-0.237064,0.816234,-0.248354,0.303290,0.919965
-0.304553,0.161835,0.884674,0.909798,-0.289055,0.297851
0.084970,0.259252,0.903909,0.869398,0.035862,0.492810
0.201158,0.013281,-0.126767,0.837174,-0.494393,0.233914
-0.800720,-0.055591,0.699720,-0.417704,-0.907189,-0.050318
0.238617,0.009353,-0.257009,0.992658,0.065320,0.101802
-0.425866,-0.039436,0.798327,-0.324745,-0.733608,0.596960
-0.333637,0.462993,0.147051,0.282070,0.793701,0.538957
0.747476,-0.802413,0.800186,-0.696238,-0.691308,-0.193253
-0.271306,-0.182444,0.942980,-0.589558,0.801759,0.097994
-0.450079,0.686656,0.121861,0.792948,0.605805,0.065067
-0.682605,0.434205,0.594822,0.299289,-0.948968,0.099430
0.340948,0.520043,0.743334,0.958016,-0.274353,0.083280
-0.403126,0.083570,0.841759,0.498688,-0.846170,0.187898
0.015482,-0.611507,0.752322,0.984838,-0.007073,-0.173330
0.480484,-0.689853,0.848455,-0.047639,-0.989552,0.136081
-0.609106,-0.262410,0.861022,0.085955,-0.597143,0.797516
0.080911,0.035145,0.896710,0.954702,-0.110563,-0.276261
0.288464,0.690137,0.767951,0.311211,-0.626538,0.714562
0.365668,0.072638,-0.667470,0.709042,-0.698676,0.095453
0.665144,-0.575998,0.792987,-0.778334,0.624493,-0.064840
0.359626,0.472508,0.666967,0.063718,-0.497977,0.864846
0.834628,-0.881853,0.750561,-0.617530,-0.773583,0.142218
-0.007258,0.107863,0.948795,-0.286921,0.500061,0.817077
-0.169179,-0.354361,0.853697,0.026070,0.995377,0.092435
-0.346631,-0.360069,0.833763,-0.666724,-0.743746,0.048180
0.270698,0.348692,0.756614,0.936226,0.258507,0.238024
0.352318,-0.440116,0.893816,-0.163213,0.046376,-0.985500
0.014111,-0.087578,0.436973,0.961061,0.250260,0.117182
-0.215217,-0.438375,0.693723,-0.723194,0.211694,-0.657401
0.413076,0.180055,0.743921,-0.730121,0.682663,0.029902
0.076951,-0.333023,0.603391,0.914427,0.403544,-0.031249
-0.804223,-0.171835,0.873477,-0.719997,-0.587888,-0.368771
-0.808639,-0.178800,0.883500,0.662796,0.586905,0.465020
-0.184762,-0.381731,0.882675,0.999105,-0.009914,0.041119
0.243136,-0.817151,0.802297,-0.519062,0.785217,0.337652
-0.492462,-0.630131,0.821671,0.416788,-0.546742,0.726196
0.023553,0.221233,0.923550,0.525281,0.701641,-0.481434
0.485611,-0.245121,0.520664,0.736496,-0.204026,-0.644939
-0.382975,-0.080735,0.934719,0.272207,-0.290772,0.917254
0.312776,0.098348,0.628190,-0.103114,-0.992098,-0.071474
-0.354803,-0.911491,0.706863,0.770796,0.301431,0.561261
-0.433277,-0.514981,0.801682,-0.058365,0.222842,0.973106
0.094869,-0.130820,0.442271,0.420473,0.903699,0.080812
-0.259936,-0.912422,0.696449,-0.150950,0.972250,0.178727
0.402620,0.141753,-0.960300,0.395737,0.878900,0.266321
0.332521,-0.307838,0.811830,0.244757,-0.376081,-0.893676
-0.418202,0.217508,0.919538,-0.545115,0.823545,-0.156917
-0.276077,-0.714673,0.861819,0.177404,-0.711003,0.680443
0.287499,-0.083650,0.921928,-0.716682,0.583499,0.381964
-0.161058,0.414609,0.138873,0.333863,-0.127624,0.933942
-0.726714,0.437040,0.718913,0.157125,0.578300,0.800551
-0.220140,-0.691999,0.638143,-0.905635,0.059963,-0.419798
0.572814,-0.452830,0.894921,-0.532538,0.238663,-0.812061
0.357546,0.338813,0.914240,0.996317,-0.081023,0.028069
0.160602,0.276986,0.825418,-0.837153,0.061901,-0.543455
0.138116,-0.601506,0.690592,0.698542,-0.171603,-0.694688
-0.020506,-0.725889,0.920502,-0.369352,0.343232,0.863580
0.010305,-0.338489,0.647718,0.509778,-0.860130,-0.017398
0.301203,-0.161956,0.429676,-0.645949,0.668794,0.368055
0.763414,-0.520366,0.802744,0.826812,0.530965,-0.185626
-0.024719,-0.119766,0.515492,0.533932,-0.844044,0.050052
0.158470,-0.264515,0.617468,0.025295,0.989682,0.141034
-0.147860,-0.109159,0.871059,0.588431,-0.580529,-0.562792
-0.875488,0.569885,0.618628,0.878139,-0.458991,-0.134903
-0.493579,-0.202891,0.755188,-0.506283,-0.610486,-0.609085
0.326025,-0.548506,0.667149,0.683576,0.024657,-0.729463
0.363992,0.625436,0.764791,0.501882,-0.057456,0.863026
-0.049236,-0.384727,0.730711,-0.248327,0.963368,0.101265
0.319071,-0.415094,0.913233,-0.718039,0.630642,-0.294467
0.137963,-0.732691,0.701789,-0.123262,0.220117,0.967654
0.246485,-0.435905,0.835203,-0.554065,0.831765,-0.034350
-0.144155,-0.613370,0.806001,0.861273,0.283439,0.421748
-0.668697,0.281116,0.767028,0.276489,0.576142,0.769165
0.134968,-0.151996,0.924850,0.271596,-0.797060,0.539380
0.087813,-0.868289,0.720115,0.455163,-0.695891,-0.555484
0.313132,0.230707,0.737910,0.078561,-0.895494,0.438086
-0.248819,-0.702365,0.803667,-0.021082,0.463360,0.885919
-0.558144,-0.155762,0.759969,0.252659,0.783238,0.568068
0.032892,-0.435339,0.868375,0.556164,0.822206,0.121077
0.583829,-0.335007,0.772424,0.045056,0.996698,0.067543
-0.756611,-0.216212,0.814878,0.510363,-0.813885,0.277707
-0.426323,0.569844,0.760989,0.929235,0.181693,0.321730
0.457795,-0.351041,0.531819,-0.369251,0.736010,0.567400
0.331202,0.209693,0.897605,0.513271,-0.858143,-0.011994
-0.856911,-0.177868,0.884996,0.833259,0.527113,0.166828
-0.644078,0.160296,0.775178,0.774862,-0.339478,0.533239
-0.126897,-0.012835,0.729439,0.876535,-0.273819,0.395865
0.623015,-0.585797,0.841941,0.955189,-0.159177,0.249554
-0.134307,0.386955,0.646949,0.088765,-0.668017,0.738833
-0.227552,-0.784315,0.720157,0.808228,-0.314466,0.497874
-0.326430,0.458783,0.743837,-0.595861,-0.188053,-0.780760
0.307498,-0.774637,0.845226,0.056520,0.997404,0.044616
0.027765,-0.876913,0.715250,0.482099,-0.599151,-0.639217
-0.084767,0.119119,0.823251,0.844234,0.438517,-0.308174
-0.110299,0.358369,0.559400,0.369548,-0.555288,0.745043
-0.292218,-0.663049,0.720339,0.328201,0.030856,0.944104
-0.130856,0.284679,0.607809,-0.148581,-0.759352,0.633488
0.396275,-0.591667,0.686761,-0.589477,0.237015,0.772231
0.198873,0.009637,0.171206,0.316727,0.914111,-0.253152
-0.059895,-0.444085,0.738623,0.746795,-0.025938,0.664548
-0.338714,-0.005507,0.968422,-0.253579,0.577912,0.775703
-0.078980,0.695482,0.727300,-0.652674,0.756982,0.031527
0.405766,0.137663,-0.941708,0.262383,0.821036,0.507006
0.221867,0.041056,-0.356245,0.952916,0.302369,0.022881
0.039491,-0.119645,0.417500,0.731275,0.678355,0.071213
-0.079640,0.262248,0.977774,-0.804492,-0.174065,-0.567885
0.110807,-0.202891,0.898513,-0.290660,-0.835684,-0.465992
-0.224557,-0.061057,0.838921,-0.738842,0.669811,-0.073925
-0.355768,0.081181,0.882731,-0.653378,0.756967,0.009864
0.601696,0.001944,-0.978473,0.016233,0.033816,0.999296
-0.199990,-0.652846,0.632943,-0.193979,0.485303,0.852557
0.017614,-0.093894,0.963599,0.565906,0.178799,-0.804848
-0.165321,-0.065592,0.975411,-0.048726,0.104698,0.993310
-0.327140,0.256094,0.875812,0.521541,0.583487,-0.622525
0.303488,0.363512,0.641568,0.658546,0.720306,-0.217893
0.028578,-0.536197,0.762317,0.977452,0.202519,-0.059787
-0.249226,-0.431371,0.800326,-0.651888,0.411332,-0.637062
0.666718,0.082841,-0.980989,-0.036222,-0.048623,-0.998160
0.162074,-0.599765,0.695344,0.821119,0.011407,-0.570643
0.618903,-0.781237,0.718074,0.668263,0.627196,0.400063
0.885032,-0.731476,0.820371,0.743518,-0.310840,0.592080
-0.091366,-0.375496,0.744256,0.428611,-0.898250,0.097155
0.470282,-0.675844,0.852746,-0.130249,-0.646248,0.751930
-0.138926,0.396915,0.810418,-0.118860,0.886340,-0.447520
0.389016,0.050247,0.615469,-0.117615,-0.991799,-0.050022
-0.206029,0.267228,0.563244,0.533125,0.304195,-0.789458
0.748948,-0.618795,0.695163,-0.735619,0.377685,0.562334
0.099336,-0.161511,0.481747,0.973062,-0.173824,-0.151448
-0.202375,-0.662078,0.636717,-0.964541,0.185776,-0.187478
-0.636312,0.405499,0.582143,-0.270416,-0.769257,0.578895
-0.061417,0.792737,0.767224,-0.233037,-0.405892,0.883711
0.070708,0.189165,0.913666,-0.132123,-0.846341,0.515994
0.366328,-0.569196,0.681729,0.680381,-0.030855,-0.732209
0.206335,-0.143655,0.924179,0.103437,-0.582726,0.806059
-0.260950,-0.512187,0.902931,0.268736,0.862408,-0.428991
-0.299325,-0.827840,0.842724,0.818449,0.410039,-0.402503
-0.064464,0.283748,0.773179,-0.503048,0.416177,-0.757456
0.073144,-0.172281,0.466273,0.855243,-0.442352,-0.269969
0.126492,-0.072475,0.319858,0.500061,-0.862471,-0.077989
0.662454,0.116609,-0.981883,-0.048086,-0.017250,0.998694
-0.384193,-0.298526,0.909766,-0.618993,0.728575,0.293302
0.042536,0.170540,0.929309,0.958445,-0.096961,0.268293
0.390844,-0.207263,0.875294,0.214102,-0.120282,-0.969377
-0.077052,0.191311,0.564278,0.415917,0.717247,-0.559080
0.319223,-0.760507,0.888295,-0.356557,-0.503511,0.786983
0.307904,-0.067131,-0.983477,0.175882,-0.024755,-0.984100
-0.237500,0.483278,0.713894,0.783719,0.482919,0.390608
0.232729,-0.006923,0.289006,-0.398800,0.916796,-0.021081
0.389016,0.637582,0.713265,0.639174,0.322278,-0.698279
-0.012385,-0.354765,0.581556,-0.657816,0.651646,0.377671
0.553526,-0.162645,0.831107,-0.472701,-0.817693,-0.328529
0.200548,-0.689368,0.860673,0.742881,-0.028593,-0.668813
0.002995,-0.399304,0.927198,-0.758296,0.628613,-0.172723
0.067459,0.379505,0.899716,-0.590502,0.791819,0.155981
0.290189,-0.879180,0.835608,-0.554320,0.830130,-0.060107
0.718898,-0.786500,0.820777,-0.136449,0.963637,0.229749
0.251409,-0.527978,0.760765,0.950110,0.127977,-0.284453
0.118827,-0.033525,0.300455,0.747477,-0.629985,-0.210703
0.291153,-0.874362,0.852411,0.790626,-0.590288,-0.162699
0.241359,-0.848894,0.823167,-0.223551,0.635720,0.738840
-0.174762,-0.408899,0.770942,-0.715633,0.495417,-0.492374
0.356937,0.257349,0.821727,0.683595,0.461315,0.565585
-0.001928,0.139162,0.835287,0.993704,-0.094645,-0.059959
0.312980,0.058345,0.551753,-0.275109,0.922785,-0.269784
0.533425,-0.489797,0.597842,0.907303,0.419267,0.031870
0.368916,0.250668,-0.986538,-0.115154,0.219920,0.968697
-0.126947,-0.709248,0.848832,-0.658610,-0.424868,-0.621064
0.079996,-0.699854,0.861749,-0.727536,-0.602399,-0.328340
-0.794223,-0.046158,0.700628,-0.417704,-0.907189,-0.050318
0.515659,-0.030933,0.874749,0.321424,0.069741,0.944364
0.239582,-0.006559,0.380428,0.865748,0.439342,-0.239707
-0.239023,-0.746943,0.649577,-0.408448,0.517662,0.751795
-0.619714,0.798607,0.161798,-0.007028,0.992511,0.121950
0.362012,-0.490282,0.796677,-0.562729,-0.010684,0.826573
0.103853,0.095473,0.743264,0.856198,0.505771,-0.105456
-0.303487,-0.070370,0.875113,0.925476,0.377080,0.036128
0.114563,-0.224755,0.865272,0.936811,-0.326488,-0.125661
-0.957413,0.593611,0.602427,-0.087176,-0.091925,0.991943
-0.218110,0.401774,0.802590,0.072610,0.967282,-0.243091
0.555657,-0.497652,0.602860,0.916059,0.398638,0.043858
0.698797,-0.545550,0.774507,0.807471,0.392752,0.440155
0.047308,-0.662887,0.912366,-0.674835,0.704768,-0.218863
0.208010,0.040692,-0.120659,-0.333121,0.915421,-0.225909
-0.637175,0.387724,0.532742,0.314564,-0.949216,0.006215
0.067459,-0.424042,0.895732,-0.090174,0.957968,0.272333
-0.745444,0.447769,0.595311,0.043032,0.043516,0.998126
-0.584742,0.679043,0.169068,0.068648,-0.447056,0.891868
0.360794,-0.771803,0.785899,0.145896,0.968578,0.201421
0.387645,0.695279,0.750603,0.991501,0.110304,-0.068984
0.358409,-0.819175,0.836433,0.771495,-0.611616,-0.175276
0.246029,0.028626,-0.507454,0.915613,-0.326879,0.234099
-0.413938,-0.213256,0.748436,0.132079,0.501782,0.854851
0.213137,-0.457041,0.813648,0.967602,0.247271,0.051018
0.620325,-0.439266,0.872065,-0.465920,-0.853202,-0.234447
-0.222932,-0.327354,0.942701,0.427133,0.605603,0.671419
0.432313,-0.368977,0.891384,0.947038,-0.301057,-0.111734
-0.079031,-0.420560,0.726238,0.841902,0.293183,0.453039
-0.857824,0.594219,0.607054,0.986095,-0.096417,-0.135351
-0.357240,-0.802089,0.803485,0.832249,0.538102,-0.133447
0.067408,-0.647097,0.866166,0.799583,0.296087,0.522493
0.605655,-0.636772,0.837873,0.800384,-0.426522,-0.421264
0.523324,-0.428334,0.570723,0.635534,0.710405,0.302360
-0.215826,-0.169811,0.655253,-0.635817,0.727410,-0.258093
0.680017,-0.180055,0.812641,0.766780,0.299342,0.567840
0.421452,0.217224,0.942938,-0.473515,0.655666,0.588120
-0.570986,-0.383472,0.850720,0.749386,0.444318,-0.490920
0.087661,-0.093975,0.323800,0.636277,-0.771444,0.005108
-0.144459,-0.527978,0.613708,-0.068647,0.437636,0.896528
-0.026039,-0.085472,0.567577,0.961428,0.188720,0.200103
-0.052991,0.498219,0.793602,0.367064,-0.775387,0.513847
0.246739,0.154912,0.690354,0.447788,-0.643928,0.620358
-0.369371,-0.796906,0.808839,-0.386010,-0.883237,0.266249
-0.630780,-0.102761,0.664577,-0.390409,-0.908302,-0.150229
-0.184102,0.239169,0.926876,0.888429,-0.319538,0.329528
-0.018780,-0.560976,0.932496,-0.003691,-0.121843,0.992542
-0.053804,0.010203,0.963669,0.988391,0.126010,-0.084886
0.000406,0.172848,0.721415,0.262949,0.733633,-0.626611
0.319629,0.332254,0.863902,-0.377989,0.640695,0.668307
0.528806,0.230990,-0.982429,0.069229,0.098947,-0.992682
0.718137,-0.729654,0.734932,-0.639406,-0.750966,-0.164958
0.026801,-0.137541,0.437532,0.536697,0.831330,0.144383
-0.246485,0.642886,0.137000,0.872496,0.191599,0.449489
-0.486574,0.388858,0.579376,0.034314,-0.955537,0.292867
-0.431653,-0.477650,0.876930,0.905428,-0.418719,-0.069815
0.341557,0.370516,0.906761,0.279264,0.805925,0.522012
-0.043905,-0.655964,0.939290,0.100161,0.994316,-0.036104
-0.044363,-0.030326,0.643790,0.733867,0.667051,-0.128384
-0.209634,0.641874,0.785662,0.214215,-0.616631,0.757548
-0.243947,-0.398534,0.914897,0.186289,-0.961563,-0.201727
0.617685,0.263787,-0.978333,0.134622,-0.045507,0.989852
-0.787371,0.362621,0.617552,-0.070002,-0.233903,-0.969737
-0.411451,-0.435298,0.935306,0.815269,0.522725,0.249189
-0.856454,-0.166208,0.868752,0.801044,0.597832,-0.030427
-0.023805,0.215726,0.500982,-0.077335,0.898469,-0.432172
0.456322,0.192161,0.896458,-0.590054,0.312002,-0.744641
-0.151616,0.219492,0.559805,0.457511,0.743331,-0.487998
0.009137,-0.046562,0.876860,-0.462468,0.882599,0.084511
0.687376,-0.612195,0.831764,-0.135592,0.032501,-0.990232
0.097559,-0.159891,-0.983169,-0.042326,0.149862,0.987801
0.266992,0.400033,0.871338,0.915647,0.350348,0.197097
0.344094,-0.155478,0.794091,-0.512489,0.373723,0.773101
0.093853,-0.865009,0.787773,0.287502,0.358806,-0.888032
0.729913,-0.393271,0.836895,0.835286,0.461736,0.298490
0.641034,-0.175723,0.818568,-0.032508,-0.988076,0.150495
-0.144002,0.763300,0.666450,0.364750,0.702535,-0.611066
0.068170,0.304033,0.777582,0.522873,-0.716311,0.462062
0.098473,0.158393,0.753427,0.983356,-0.118562,0.137676
0.228466,0.491174,0.656176,-0.551086,-0.737379,0.390609
0.156490,-0.090776,-0.986552,-0.113664,0.157838,0.980901
-0.239784,-0.015022,0.844932,0.361978,-0.604319,-0.709768
0.071165,0.093003,0.753133,0.307377,-0.020005,0.951377
-0.121922,0.304074,0.536181,0.011977,-0.778084,0.628046
0.481195,0.046968,-0.978235,0.058637,-0.040536,0.997456
0.626973,-0.420439,0.696365,0.125684,0.816432,0.563598
0.494899,0.047980,0.153900,-0.112186,-0.032484,0.993156
0.263388,-0.824237,0.822412,-0.324353,0.501501,0.802055
0.390234,-0.118795,0.894697,0.924697,0.320979,-0.204716
-0.369118,0.234715,0.943889,-0.183789,0.872335,0.453049
0.090758,-0.127986,0.430542,0.275944,0.925312,0.260102
0.584742,-0.622966,0.872890,0.966879,-0.160569,-0.198398
-0.517283,0.754474,0.176029,0.303536,0.214114,0.928451
0.342166,0.233663,0.737784,-0.154815,-0.900111,0.407225
-0.152986,0.511297,0.828325,0.282827,0.951379,-0.122010
0.088524,-0.208802,0.933628,0.946989,0.253366,0.197527
-0.456677,-0.181594,0.745347,0.353127,0.475840,0.805529
-0.168011,-0.039598,0.745892,0.926866,-0.358382,0.111723
-0.550428,0.415135,0.546134,0.305109,0.944599,0.121004
-0.363382,-0.690015,0.864447,-0.595323,-0.114182,0.795332
-0.186284,0.569560,0.717669,-0.261776,-0.794430,0.548046
-0.671032,0.307353,0.737826,0.693767,0.533203,-0.484130
0.479012,-0.039963,-0.979158,0.011774,0.030438,0.999467
0.145678,-0.152765,0.807902,0.942826,-0.332041,0.028773
-0.117455,0.173618,0.891286,0.590199,0.796231,-0.132971
-0.101365,-0.582355,0.960216,0.321401,-0.440534,0.838231
0.560479,0.058831,-0.979759,0.106019,0.056333,0.992767
0.189839,-0.535671,0.795978,0.959004,0.258387,0.116392
0.085630,0.147867,0.729103,0.876080,0.123718,-0.466023
0.042333,-0.583286,0.787912,0.936601,0.349741,0.021452
-0.079792,-0.862499,0.809370,0.289203,-0.955101,0.064375
0.898027,-0.784476,0.797754,0.998976,-0.015464,-0.042510
0.363231,-0.238845,0.907264,0.868332,0.488036,0.088435
0.110908,0.142765,0.565033,0.174516,-0.740012,0.649558
-0.057357,-0.053486,0.541045,-0.699645,0.712419,-0.054379
-0.066442,-0.033039,0.684245,0.982565,0.130242,-0.132674
0.375616,-0.845898,0.856549,0.732385,-0.592678,-0.335179
-0.832191,-0.064175,0.816318,0.702316,0.658344,-0.270804
-0.023298,0.107337,0.530156,-0.543882,0.606413,-0.580048
-0.262270,-0.457729,0.798606,-0.603343,0.612399,-0.510828
-0.705446,-0.077536,0.691081,-0.252528,-0.966506,-0.045770
0.224558,0.039882,-0.304509,0.973093,0.229460,-0.020930
0.081215,-0.710624,0.856367,0.728205,0.684488,-0.034553
-0.758083,0.372500,0.607529,-0.054571,0.530300,0.846052
0.190295,-0.028382,0.071579,0.981414,-0.143426,0.127495
-0.344093,0.107175,0.856227,-0.141112,0.987057,0.076197
-0.172833,-0.594623,0.624625,-0.178901,0.511532,0.840434
-0.521953,0.512835,0.688844,0.330398,-0.197747,0.922894
0.507183,0.016642,-0.982037,-0.012906,0.048461,0.998742
-0.429115,-0.219532,0.742719,0.324347,0.405797,0.854475
-0.261306,-0.795125,0.808140,-0.453582,0.891045,0.017360
0.480382,-0.119402,0.892474,0.777384,-0.628989,0.006814
0.180550,-0.033241,0.150294,-0.066131,0.985455,0.156540
-0.801076,-0.225565,0.885024,0.875078,0.420384,-0.239825
0.620222,-0.606689,0.865859,0.932504,-0.158372,-0.324584
-0.573676,-0.098510,0.670742,-0.317622,-0.944487,0.084023
-0.479468,0.134667,0.931587,0.929282,-0.307658,0.204406
-0.159128,-0.774597,0.824831,0.827259,0.432706,0.358342
0.111721,0.395174,0.796817,0.911462,-0.312503,-0.267542
0.147202,-0.785975,0.861148,0.251993,0.947900,0.194898
-0.958377,0.467002,0.630384,-0.030260,0.806314,-0.590713
0.251561,0.084623,0.508181,0.604572,0.795148,-0.047248
0.345668,0.335412,0.867760,-0.032139,0.613348,0.789159
-0.022739,-0.126609,0.511410,0.572997,-0.818961,-0.031278
0.073449,0.094178,0.142577,-0.657002,-0.573766,0.489021
-0.415715,0.487772,0.589077,0.561194,0.418742,-0.713944
0.239531,-0.067738,0.948949,0.980573,0.046739,-0.190506
0.291966,0.361527,0.644755,0.572900,0.810483,-0.122078
-0.842596,-0.154142,0.889832,0.857471,0.492957,0.147436
-0.026395,0.221840,0.857569,0.818819,-0.005874,-0.574022
0.255926,0.417443,0.624471,0.762626,0.640930,0.087231
0.147455,0.038141,0.394393,0.041901,0.944395,0.326131
-0.518755,-0.275528,0.710428,-0.642727,0.736892,-0.209503
0.062028,-0.277836,0.900554,0.947756,-0.258070,0.187507
0.362622,-0.139849,0.907320,-0.325149,-0.626559,-0.708309
-0.093802,-0.077374,0.879796,0.446879,-0.852720,-0.270495
-0.854271,0.081788,0.767084,-0.334401,0.348677,0.875557
0.012792,0.776906,0.726028,-0.436585,0.348942,-0.829236
-0.189685,-0.520123,0.898667,-0.557450,0.772492,-0.304147
0.267753,-0.084177,0.370266,0.934629,0.273602,-0.227179
0.396986,0.072840,0.902875,0.957321,-0.008953,0.288887
0.069388,-0.105677,0.897465,0.647160,0.626987,0.433672
0.111619,-0.664831,0.703606,0.698912,-0.289808,-0.653860
0.126542,-0.756458,0.954079,0.123213,-0.621962,0.773292
-0.041165,0.161957,0.897954,-0.459422,0.823310,-0.333305
0.040151,0.213783,0.962760,0.316105,0.270262,0.909415
0.628496,-0.911977,0.782768,-0.345350,-0.901125,0.262119
0.714381,-0.727225,0.814389,0.060900,-0.066021,0.995958
0.188164,-0.696493,0.733493,0.134931,0.696015,0.705235
0.252018,0.269050,0.932258,-0.575437,-0.389586,0.719093
-0.293487,0.212325,0.794007,0.847869,0.514774,0.126988
-0.565656,-0.244270,0.871744,0.944697,-0.212237,-0.250005
-0.395259,0.337113,0.531708,0.793179,0.552643,0.255839
-0.268463,0.636530,0.805526,-0.602372,0.700418,-0.382834
0.188773,-0.013037,-0.988006,-0.085340,0.068483,0.993996
-0.090807,0.327436,0.624374,-0.252937,0.661907,-0.705621
0.197097,0.558628,0.677340,0.443560,0.845899,-0.296157
0.269632,0.305328,0.792931,-0.692662,0.665084,-0.279075
-0.379016,0.551421,0.796314,-0.705688,0.495531,-0.506412
-0.250850,0.289943,0.897549,0.768899,-0.492403,0.407840
-0.513628,0.279415,0.748646,0.197738,-0.357007,0.912932
-0.375107,-0.480889,0.927212,0.723384,0.608554,0.326156
-0.236332,-0.886428,0.687446,0.824066,-0.341268,-0.452163
-0.352215,0.505628,0.636703,0.146960,-0.886718,0.438332
-0.577026,0.419751,0.546357,-0.635365,0.761890,-0.125839
-0.050454,-0.024981,0.622948,-0.735238,-0.677279,-0.026813
-0.087660,0.319500,0.793266,0.455091,0.630671,-0.628607
-0.687021,0.203377,0.788765,0.101207,0.993674,0.048674
-0.616262,-0.266459,0.749331,0.250275,-0.727585,0.638735
-0.124105,-0.546441,0.615553,-0.143252,0.473356,0.869145
0.159586,0.195482,0.560951,0.847490,-0.175621,0.500917
0.364805,-0.044902,0.893802,-0.454427,-0.257554,-0.852738
0.760215,-0.971374,0.774926,0.089532,-0.983351,-0.158128
0.329527,0.294801,0.905237,-0.165038,-0.880377,0.444634
-0.850769,0.593409,0.606089,0.905343,0.282344,0.317232
-0.364651,-0.792170,0.763785,-0.682615,-0.718999,0.130679
-0.268819,-0.600373,0.848357,0.429215,-0.879559,-0.205305
-0.361707,-0.845008,0.733633,0.924491,0.344388,-0.163441
-0.077559,-0.544700,0.910395,-0.534801,0.043820,0.843841
-0.177046,0.454248,0.670853,0.646770,0.128658,0.751755
-0.393279,0.491376,0.141166,0.364749,0.806436,0.465424
-0.220699,-0.565552,0.910437,0.981293,-0.186404,0.048137
-0.478655,-0.159325,0.891202,0.480292,-0.845182,-0.234492
0.544033,-0.172281,0.538264,0.900582,-0.345080,-0.264332
-0.428861,-0.155721,0.875770,0.474214,-0.869405,-0.138764
-0.180548,-0.344926,0.868221,0.983987,0.153092,0.091284
-0.241460,-0.504373,0.848860,-0.643990,-0.733704,-0.216694
-0.181462,0.740951,0.675299,0.364750,0.702535,-0.611066
0.382569,-0.530326,0.877503,0.887557,-0.304503,0.345718
-0.656362,0.465908,0.609276,-0.312578,0.927734,-0.203974
-0.088371,0.126690,0.882829,0.725858,-0.021073,0.687522
0.292118,0.548425,0.712482,0.218035,-0.945132,-0.243281
-0.125831,-0.046603,0.847267,-0.207344,0.889873,0.406366
0.245419,-0.059033,0.374823,0.838780,0.511128,-0.187605
-0.007207,0.208924,0.950571,0.003497,0.336696,0.941607
-0.546216,0.747916,0.179929,0.223871,0.290742,0.930242
-0.507487,-0.394040,0.851572,0.872708,0.485070,-0.055571
-0.139637,-0.702243,0.853012,-0.526224,-0.511178,-0.679548
-0.001218,0.261722,0.750449,0.365008,-0.677848,0.638194
-0.393381,-0.046765,0.888868,0.475992,0.649940,0.592461
-0.029541,0.069075,0.894096,0.668035,-0.742342,0.051549
0.879652,-0.868531,0.801164,-0.724760,0.633868,-0.270064
-0.018273,0.370395,0.848567,0.418474,-0.906454,-0.056760
0.498756,-0.158150,0.507650,-0.708931,0.535288,0.459221
0.222527,-0.765730,0.867354,-0.336513,-0.018795,0.941491
-0.523171,-0.710219,0.819686,0.213975,0.550698,0.806813
0.492768,0.164872,-0.980639,0.306184,0.323564,0.895297
0.052840,-0.778484,0.860896,0.717533,-0.531903,0.449695
0.379474,0.322415,0.579292,0.512930,-0.631272,0.581720
-0.002335,0.239088,0.518428,0.044264,-0.842793,0.536414
-0.509923,0.474938,0.695400,0.579621,-0.116748,-0.806480
-0.303842,-0.100413,0.847560,0.799754,-0.596833,-0.064678
0.076190,-0.170094,0.922361,0.849752,-0.508963,0.137399
-0.161514,0.229411,0.917860,-0.474478,0.740865,0.475384
-0.154611,-0.647664,0.799207,-0.680378,-0.549973,-0.484372
0.108218,-0.013037,-0.983799,0.006397,0.110533,0.993852
0.168114,-0.130375,0.829639,0.740582,-0.666925,-0.082152
0.729304,0.270629,-0.983910,0.077709,0.077683,0.993945
-0.391350,0.487854,0.778421,-0.689992,-0.642924,0.332504
0.667784,0.290793,-0.983309,0.141495,0.226574,0.963661
0.281103,-0.585594,0.788793,0.796430,-0.197490,0.571574
0.292118,0.115516,0.643804,-0.208681,0.953281,-0.218419
0.076291,0.089279,0.723148,0.615798,0.753114,0.231541
0.409574,-0.817192,0.838824,0.591074,0.789055,0.167401
0.201767,-0.120616,-0.981548,-0.081344,0.204326,0.975517
0.746714,-0.789092,0.780811,0.684628,0.457319,0.567577
0.206183,-0.452668,0.833889,0.675787,-0.729789,-0.103538
-0.355413,-0.665519,0.804645,0.143274,0.919287,0.366585
-0.878280,0.116164,0.755412,0.652817,0.409783,-0.637109
-0.066545,0.125962,0.908522,0.899486,0.376904,0.221061
-0.329577,-0.182120,0.943609,0.894321,-0.137552,-0.425757
-0.006903,0.234230,0.864880,0.825904,-0.510983,-0.238284
-0.429166,0.369423,0.530170,-0.412346,-0.494591,-0.765082
-0.140551,-0.389748,0.897423,0.186898,-0.974459,-0.124493
0.816761,-0.813831,0.826578,0.195543,-0.441525,0.875682
-0.073295,0.151227,0.966059,-0.182902,0.981989,0.047371
0.428151,0.108916,-0.934383,0.418879,0.892153,0.169127
-0.357544,-0.686614,0.844415,-0.370811,0.928350,-0.025792
0.099437,-0.932626,0.779218,-0.203343,-0.726547,0.656339
-0.641490,0.188477,0.777442,0.932657,0.204916,0.296916
-0.935790,0.501701,0.648515,-0.555466,0.489419,0.672254
0.051622,-0.054984,0.349046,-0.162049,-0.944600,0.285432
