0.273756,-0.768988,-0.958824,0.510324,0.329547,-0.794335
-0.003694,-0.081400,0.460549,0.949850,0.261764,0.171066
-0.069293,0.320208,0.345557,-0.045261,-0.488040,0.871647
-0.067169,0.345720,0.569739,-0.314402,0.524930,-0.790948
0.152402,-0.575518,-0.969474,-0.031806,0.072310,0.996875
0.072900,-0.292026,-0.952446,-0.692698,0.563996,0.449530
-0.076124,-0.552384,-0.621411,-0.366671,-0.912230,0.182724
0.037598,-0.055322,0.001981,0.818961,0.541203,-0.190790
-0.107549,-0.254825,0.775126,-0.813204,0.516085,-0.268988
0.217880,0.467409,0.899327,0.501042,0.832654,0.235891
-0.181472,0.503717,0.878523,-0.812225,0.486219,-0.322308
-0.136969,-0.118561,-0.039366,-0.422421,0.870043,-0.254137
0.071312,-0.118060,0.779052,0.807898,0.328119,-0.489529
0.173403,-0.606328,-0.940547,-0.152388,-0.162184,0.974923
0.476614,-0.345058,-0.458231,-0.409384,-0.824799,-0.390014
-0.100471,0.361666,0.710073,-0.134324,0.960410,0.244069
0.166139,-0.773910,-0.976610,0.649898,-0.019017,-0.759783
-0.142629,-0.059907,0.800591,0.814966,0.427147,0.391632
0.040392,-0.377019,-0.199255,0.257913,0.658793,0.706734
0.590747,-0.251507,-0.485384,-0.681675,-0.355134,-0.639686
0.049143,-0.614634,-0.443727,0.719088,0.038638,-0.693844
-0.341521,0.253919,0.248057,-0.389385,0.431787,-0.813597
-0.097186,0.075144,0.818553,0.365532,0.704825,0.607954
0.045585,-0.548812,-0.358736,0.683568,0.173012,0.709085
-0.294606,0.168743,0.083904,-0.365124,0.825728,-0.429951
-0.254631,-0.204963,0.627244,0.566562,-0.763466,0.310044
-0.195483,-0.125566,-0.069131,0.834537,0.539730,0.110633
-0.008626,0.322872,0.676081,0.640294,0.523423,0.562185
-0.126860,-0.027677,-0.033100,0.779525,0.625308,-0.036477
0.064508,-0.084097,0.826101,-0.333625,0.508716,-0.793664
0.231454,-0.703051,-0.955680,0.827831,-0.215223,-0.518048
-0.093289,0.276515,0.203663,-0.354765,0.914037,-0.196670
0.263973,-0.483187,-0.403377,-0.536525,0.816865,0.211832
-0.155554,-0.027351,0.901791,-0.674800,-0.246411,0.695648
0.054359,0.563744,0.824010,-0.354071,0.897906,0.261533
-0.170871,0.167894,0.250809,0.966679,0.050792,-0.250902
-0.059421,-0.404438,-0.958071,0.849416,0.130435,-0.511351
-0.214212,0.810134,0.311735,-0.614877,-0.095866,-0.782775
-0.014581,-0.754274,-0.951317,-0.250047,0.310402,0.917130
0.170291,0.364549,0.861493,0.441505,-0.845706,0.299758
-0.095895,0.356595,0.608519,-0.077412,0.995120,0.061187
-0.125338,-0.508683,-0.617256,0.950621,-0.150591,-0.271371
-0.001328,-0.302599,0.556671,0.955238,0.112192,-0.273740
-0.080137,0.050027,0.805024,0.833969,0.267322,0.482737
-0.081142,-0.077526,-0.036992,0.890248,0.124141,-0.438233
0.124806,-0.406152,-0.914264,0.816564,-0.478412,-0.323025
-0.004123,-0.091401,0.017341,-0.814266,0.579437,0.034976
0.123011,-0.571364,-0.973192,0.769034,-0.301196,-0.563797
-0.039117,-0.339169,-0.503022,-0.664845,0.480051,0.572305
0.025490,-0.405158,-0.319915,-0.639493,0.677597,0.363195
0.242547,-0.324843,-0.970128,0.028483,0.118250,0.992575
0.135510,-0.531125,-0.673560,-0.259087,0.734883,0.626754
0.104061,-0.238657,-0.129447,0.934893,0.318295,-0.157046
-0.071707,-0.251212,-0.116757,0.102532,-0.766107,0.634482
0.139764,-0.513794,-0.940047,0.856808,-0.438312,0.271593
-0.164040,0.013254,0.133795,0.386483,-0.914855,0.116928
0.036413,0.018520,0.421047,0.648079,0.538124,0.538903
-0.168611,0.372446,0.504430,0.814141,-0.571070,0.105137
0.066956,-0.464253,-0.950148,-0.088739,-0.075995,0.993152
0.102304,-0.265610,-1.000000,-0.218177,-0.757328,0.615511
0.334691,0.428419,0.911701,0.845406,0.141048,-0.515165
0.171528,-0.111145,0.910396,0.191512,0.567349,-0.800898
0.112165,0.388779,0.507424,-0.463993,0.486797,0.740094
-0.057860,0.361668,0.442647,0.434845,-0.826741,-0.356945
-0.237450,-0.209727,0.856460,0.394470,0.108062,0.912533
-0.080087,0.324355,0.332200,0.996332,-0.006578,-0.085320
0.165345,-0.595479,-0.938558,-0.173754,0.148418,0.973541
-0.074833,-0.606970,-0.507072,-0.364603,0.611722,0.702040
-0.163905,-0.085765,-0.015588,0.676794,0.700049,-0.227776
-0.427125,-0.224033,0.628659,-0.087061,0.394167,0.914906
-0.551151,-0.047500,0.215650,-0.354459,-0.206609,0.911960
-0.043132,-0.375489,-0.330351,-0.031903,0.931805,0.361554
0.109413,0.018698,0.640763,0.942317,-0.323765,0.084936
0.106874,0.443586,0.857842,0.431238,-0.829136,-0.355763
0.029645,0.316670,0.540511,0.820979,0.516585,0.243174
-0.086210,-0.002863,0.814238,0.130131,0.010789,0.991438
0.064243,-0.875323,-0.953720,-0.383678,0.264617,0.884742
-0.142711,-0.124792,-0.096881,0.532831,0.735933,0.417725
0.062249,-0.492969,-0.372926,0.987146,-0.111689,0.114315
-0.030712,0.186135,0.341471,-0.426931,0.797230,0.426795
-0.072833,0.324842,0.465814,0.584272,-0.603537,0.542558
0.189759,0.479550,0.893371,0.638377,0.447248,0.626453
-0.151454,-0.020150,-0.002128,0.163286,-0.803601,0.572331
-0.108698,-0.136320,0.474112,0.676794,0.713780,0.180191
-0.030261,-0.789263,-0.973551,-0.544231,-0.023228,-0.838614
0.020721,0.416182,0.840343,-0.324919,0.241004,-0.914519
0.054722,-0.658025,-0.958726,-0.640040,0.727386,-0.247502
-0.046100,-0.517965,-0.513375,-0.651567,-0.547800,0.524762
0.012462,-0.544560,-0.956393,0.796372,-0.124097,0.591939
0.342070,-0.189784,-0.946886,0.313998,0.489973,-0.813223
-0.024779,-0.259279,0.899241,0.121458,0.755497,0.643795
0.163151,0.405051,0.908779,0.102148,0.927470,0.359674
0.080363,-0.304491,0.973131,-0.600870,-0.635142,-0.485334
-0.191801,-0.065585,0.866822,0.852856,0.463458,0.240507
0.024217,-0.801836,-0.957501,-0.707969,0.550383,0.442560
0.064038,-0.388989,-0.194102,-0.659541,-0.108309,0.743825
0.004992,-0.079276,0.764208,-0.708136,-0.572797,0.412853
-0.110285,0.268335,0.222314,0.368965,-0.317524,-0.873523
-0.919022,-0.187537,0.205839,-0.602074,0.789539,0.118895
0.158351,-0.423296,-0.957220,-0.687185,0.089310,-0.720972
0.221657,-0.490780,-0.962541,0.889234,0.208219,0.407319
-0.034519,-0.345488,-0.998133,0.762298,0.221966,0.607974
0.843081,-0.407887,-0.353810,-0.219634,0.957161,-0.188690
0.017054,-0.307313,-0.224865,0.053943,0.720170,0.691698
0.078507,-0.316090,0.598039,0.848826,-0.482849,0.215294
0.152970,-0.611625,-0.449059,0.456490,-0.885000,0.091609
-0.173624,0.095339,0.056147,0.199621,-0.574419,-0.793847
0.009413,-0.538085,-0.411815,-0.590147,0.177988,-0.787431
0.291641,-0.375949,-0.389278,0.460187,0.078148,0.884376
0.112611,-0.830360,-0.957989,-0.264126,-0.538583,0.800104
-0.101005,0.352221,0.636121,0.114980,-0.896148,-0.428600
-0.124371,-0.157366,0.503057,0.840784,0.489378,-0.231496
0.167520,-0.232123,-0.191146,0.935155,0.014593,0.353938
-0.030223,0.382447,0.621001,0.962046,-0.251247,0.106497
0.080404,-0.175579,0.786466,-0.215491,-0.852706,-0.475874
0.065291,-0.589931,-0.948374,-0.666955,-0.665448,0.335185
0.061201,-0.609772,-0.657916,0.465310,0.765285,0.444775
-0.168115,0.108157,0.123619,0.887909,0.290184,-0.356946
-0.000618,0.268206,0.744801,-0.744956,-0.086427,0.661491
0.037837,-0.386335,-0.226705,-0.647890,-0.591775,-0.479625
-0.072943,0.408498,0.332968,-0.067249,0.579424,0.812247
0.201921,-0.682887,-0.974891,0.974580,-0.213253,0.068684
0.127353,-0.145995,0.896272,-0.503074,-0.837789,-0.212194
0.170129,-0.394968,-0.458304,0.376066,-0.837981,0.395425
0.087778,-0.058606,-0.345949,0.373953,-0.474880,0.796648
0.780216,-0.307536,-0.379575,0.823604,0.506473,0.255268
0.017498,-0.326035,0.991142,0.892968,-0.413587,-0.177633
-0.029798,-0.177867,0.848533,0.885820,0.333057,-0.323105
0.032941,-0.424695,-0.978281,0.567557,-0.019862,-0.823095
-0.115632,-0.429376,-0.477331,0.493358,0.836685,-0.237817
-0.561252,0.430753,0.049790,0.822913,-0.535713,0.189277
-0.795202,0.436961,0.225656,0.803288,0.522485,-0.285900
0.022743,0.479220,0.888655,-0.828499,0.422334,-0.367728
0.396767,-0.279533,-0.459235,0.017028,-0.149772,0.988574
0.086481,-0.148391,0.774967,0.152740,-0.951255,0.267925
-0.111150,-0.152379,-0.094227,0.447653,0.780712,0.436000
-0.053500,-0.110325,-0.063756,0.393172,0.016083,-0.919324
-0.024783,-0.294673,0.643942,-0.654671,0.742261,-0.143020
0.158451,-0.074948,0.805719,0.103351,-0.981907,0.158671
0.056697,-0.234659,0.602831,0.417219,0.901026,0.118663
0.175087,-0.331819,-0.979309,0.809735,-0.136848,-0.570616
-0.003145,-0.224324,-0.125136,-0.662250,0.389834,0.639886
0.743793,-0.285968,-0.414970,-0.363815,-0.725553,0.584134
-0.069712,0.250472,0.343443,0.905182,-0.121247,-0.407363
0.058564,0.264929,0.759388,-0.702922,0.700127,-0.125389
0.063969,-0.467278,-0.435368,0.613205,0.726745,-0.309550
0.500572,-0.182894,-0.487970,0.986167,-0.050613,0.157836
0.164451,-0.695852,-0.969454,-0.142194,0.536683,0.831717
0.001784,-0.885216,-0.971480,-0.045629,-0.996051,0.076165
0.319745,-0.471592,-0.440739,0.273602,0.447964,-0.851158
-0.248474,0.189282,0.236922,0.431814,0.182557,0.883295
-0.016841,0.286899,0.752054,-0.263218,0.961965,-0.073080
-0.215502,0.285679,0.286629,0.740663,-0.257850,-0.620429
-0.023579,-0.462522,-0.434808,-0.862933,-0.225689,0.452118
-0.198018,0.386305,0.307996,0.888426,-0.382547,0.253688
0.200223,0.349037,0.842800,0.826540,-0.485442,0.284916
0.732255,-0.432258,-0.382820,-0.316887,-0.322621,0.891907
-0.023655,-0.590970,-0.348654,0.699949,0.612607,0.367129
0.107917,0.261346,0.548365,0.051827,-0.505107,0.861499
-0.340359,-0.269053,0.608048,0.529266,-0.754338,-0.388397
-0.024473,0.273914,0.333402,0.437357,-0.537819,0.720742
0.183802,-0.067584,0.808306,0.768690,-0.600739,0.219611
0.326415,0.470866,0.865640,0.474994,-0.735009,-0.483883
-0.283061,0.395161,0.925645,0.799797,0.233480,0.553002
0.305404,0.057912,0.064494,-0.040372,0.997825,-0.052109
-0.078768,0.297000,0.281665,0.664411,0.024388,-0.746969
0.365812,-0.349440,-0.426954,-0.673278,0.183599,-0.716232
0.283866,-0.398637,-0.944296,-0.026018,-0.592645,0.805043
0.073721,-0.704284,-0.938550,0.851774,0.384464,0.355905
0.151786,-0.576261,-0.947366,-0.378732,0.812317,-0.443511
0.106368,-0.110487,-0.320809,0.052638,-0.506309,0.860744
-0.060429,-0.418998,-0.460152,0.006212,-0.962845,0.269984
-0.000353,0.250565,0.350152,0.995473,-0.082676,-0.046889
-0.733895,-0.078920,0.224996,-0.314403,0.896109,-0.313272
0.072452,-0.305424,-0.194326,-0.605028,-0.782466,0.147269
0.006483,-0.216956,0.516930,-0.885049,0.318961,0.339046
0.007333,-0.316976,-0.978431,-0.224521,0.064267,-0.972348
0.364676,0.482510,0.923391,-0.580444,0.735762,-0.348911
-0.117474,-0.618285,-0.603195,0.922239,0.326800,-0.206587
-0.293415,0.250527,0.535737,-0.500944,0.401005,0.766975
0.037517,-0.440978,-0.333086,-0.336031,-0.039418,-0.941026
0.293521,0.116165,0.077920,-0.314053,-0.908421,-0.275939
0.189475,-0.642955,-0.458586,-0.247727,-0.950035,-0.189908
-0.069118,-0.484834,-0.501441,-0.466361,0.846782,0.255867
-0.167581,0.583159,0.315563,0.723851,-0.652501,-0.224235
-0.047603,-0.456749,-0.337560,-0.394555,0.519038,0.758239
-0.119129,0.055500,0.156221,-0.367974,-0.705239,0.605997
-0.265895,0.065073,0.050570,0.472539,0.585030,0.659126
-0.163995,0.266392,0.289507,-0.680478,-0.521049,0.515226
-0.094085,-0.139501,0.482261,-0.624847,-0.724111,-0.291942
-0.263898,0.435720,0.326122,0.945061,0.115814,0.305691
0.074794,-0.777587,-0.953639,0.382942,-0.439002,-0.812793
-0.105059,-0.250114,0.543794,0.935692,-0.006744,-0.352753
0.041248,-0.418399,-0.536421,0.362610,0.208426,0.908335
0.135832,-0.587004,-0.418682,0.007322,-0.999839,0.016361
-0.038715,-0.006023,0.015781,-0.491110,-0.842513,-0.221323
0.103493,-0.747456,-0.948542,0.683537,-0.690931,0.235354
0.048158,-0.456727,-0.580154,-0.686667,-0.117601,0.717397
-0.014287,-0.097900,0.853998,0.983734,0.048866,-0.172856
-0.619932,-0.086354,0.223844,-0.065587,0.991678,0.110785
-0.410314,0.696795,0.194142,-0.656009,0.541994,-0.525257
-0.084884,0.282706,0.785608,0.556259,-0.174226,-0.812540
-0.128793,0.413832,0.299315,0.139369,0.811332,0.567730
-0.116550,-0.244854,0.861683,-0.445644,0.513268,0.733455
-0.415591,0.820249,0.207537,-0.622651,0.602574,-0.499210
-0.008061,-0.926137,-0.950163,0.367469,-0.124507,0.921664
-0.049160,0.465506,0.519735,0.398656,0.910883,0.106609
-0.036761,0.336072,0.420406,0.990617,-0.122078,-0.061439
-0.637684,0.507481,0.056289,-0.632915,-0.689055,0.353018
-0.112502,-0.227070,0.543385,0.973532,-0.036579,0.225604
-0.171679,-0.087275,0.861566,-0.699041,-0.383242,-0.603712
-0.174660,-0.129840,-0.057942,0.404534,0.912250,-0.064434
-0.252601,0.045112,0.078598,-0.584226,-0.775016,-0.240894
-0.130155,-0.056431,-0.048681,0.791725,0.583001,0.182432
-0.166447,0.628952,0.922745,0.523577,0.585363,-0.619045
0.116382,-0.496614,-0.394733,0.021004,-0.707448,0.706453
-0.648359,0.632232,0.233644,-0.676075,0.478121,0.560645
0.064060,-0.204306,0.883442,0.929509,0.222803,-0.293891
-0.294332,-0.236710,0.605550,0.096214,-0.992698,-0.072756
0.133444,-0.535510,-0.942922,0.053585,-0.943493,-0.327031
-0.133399,0.190161,0.223444,-0.786230,0.574495,-0.227593
-0.212229,-0.206887,0.847312,-0.130265,-0.645444,0.752617
0.186041,-0.658603,-0.945950,-0.053448,-0.630424,0.774409
0.041814,-0.495538,-0.426548,-0.723316,-0.372650,0.581331
0.106964,0.013316,0.754631,-0.713779,0.136930,-0.686855
0.116492,-0.283267,-0.919341,0.110815,-0.524639,0.844082
0.029714,-0.001781,0.786371,0.820034,0.119073,0.559791
0.087080,-0.421816,-0.960946,-0.188102,0.690893,0.698058
-0.038677,-0.408018,-0.513823,-0.709526,-0.290807,0.641876
-0.038668,-0.043126,0.030921,0.803547,0.072155,0.590851
0.090760,-0.039878,0.754215,0.135875,-0.697570,0.703516
-0.190282,0.346899,0.321803,-0.003026,-0.934341,0.356367
-0.135275,0.284910,0.276574,0.793597,0.226336,-0.564780
0.669023,-0.517763,-0.370853,-0.243800,0.512811,0.823156
0.117063,-0.573582,-0.958190,0.563506,0.228067,-0.794007
0.008012,-0.070327,0.847282,0.783651,0.543385,0.301038
0.101679,-0.018041,0.794487,-0.584951,-0.810646,0.026186
0.194092,-0.775921,-0.962082,-0.575392,-0.468826,-0.670168
0.017250,-0.756714,-0.960858,0.439868,0.554792,0.706203
0.235443,-0.223203,-0.519931,0.003533,0.824072,0.566474
-0.436863,0.054674,0.227480,-0.444158,0.394122,0.804607
-0.021371,-0.262210,-0.122588,0.163449,-0.178971,0.970182
-0.157961,0.275138,0.294440,0.469359,0.416888,-0.778400
-0.083758,0.041072,0.810275,0.933109,0.026440,0.358621
0.007686,0.522479,0.884807,-0.785108,-0.045264,0.617703
-0.212520,0.090641,0.053924,0.477673,0.781000,0.402327
0.178125,-0.677102,-0.946111,-0.436191,0.858825,-0.268621
-0.150508,0.326239,0.937524,0.253637,-0.195494,0.947338
0.180361,-0.284096,-0.932394,-0.146646,-0.943793,-0.296227
-0.091096,0.399905,0.420103,-0.058535,-0.390721,0.918646
-0.114855,-0.475362,-0.412793,0.679955,0.723405,-0.119775
-0.069623,-0.150785,-0.088173,0.870039,0.488128,-0.069018
-0.104860,-0.062120,0.829512,0.921721,-0.382202,0.065969
0.177647,-0.459097,-0.400133,-0.355142,0.895543,-0.268100
0.017184,-0.074784,0.776163,0.776821,0.583570,-0.236633
0.211427,-0.476922,-0.951546,0.894666,0.011240,0.446594
0.061054,-0.266135,-0.121151,0.076642,-0.936671,0.341721
-0.019000,0.313786,0.618639,0.081613,-0.992243,0.093776
-0.079578,-0.574811,-0.879641,0.523089,0.453691,0.721486
-0.051509,0.561425,0.288406,0.030766,0.522937,0.851816
0.148869,-0.823897,-0.977307,0.776160,0.405150,0.483145
0.020790,-0.899421,-0.964134,0.884893,0.319756,0.338705
0.097097,-0.468591,-0.414239,-0.128300,-0.927241,0.351799
0.123217,0.468128,0.789429,0.934308,0.241493,-0.262202
-0.031244,-0.164169,0.466866,0.541865,0.493566,-0.680276
0.341204,-0.359830,-0.936339,0.757591,-0.619795,0.204718
-0.022862,-0.162049,0.022237,0.573590,0.673339,-0.466486
0.259435,0.491737,0.858695,0.314803,0.880728,0.353859
-0.044626,-0.183570,0.460593,-0.090971,-0.976204,0.196849
0.227014,-0.292655,-0.943314,0.954343,-0.259519,0.147920
-0.159460,-0.034578,-0.004836,0.934747,0.193413,0.298061
0.263103,-0.644899,-0.946866,-0.138760,0.178583,-0.974091
-0.071301,-0.489558,-0.522853,0.940248,-0.288994,-0.180044
-0.259534,0.234391,0.268080,0.947855,0.314045,-0.054273
-0.005895,-0.302067,-0.167465,0.832916,0.424104,0.355510
-0.198668,0.255528,0.237076,0.212484,-0.941546,0.261424
0.048844,-0.366490,-0.169670,0.307609,0.944905,-0.111942
0.176211,0.514863,0.770652,-0.777467,0.034270,0.627990
0.050603,-0.699330,-0.980199,-0.214545,-0.719539,0.660480
-0.249663,0.251050,0.248410,-0.522882,0.840580,0.141490
-0.100533,-0.209424,0.871267,0.753276,0.602733,-0.263228
-0.044529,-0.312210,-0.968134,-0.122984,0.975635,0.181692
-0.236420,0.229010,0.185450,0.970633,-0.233352,0.058467
0.033853,0.924372,0.260995,-0.667917,0.665686,-0.332791
-0.650710,0.664709,0.200031,-0.710440,-0.213276,0.670662
-0.104491,-0.600388,-0.543023,-0.713226,-0.614984,0.336308
-0.073430,0.215822,0.749162,0.026543,-0.100385,0.994595
0.172689,-0.810589,-0.962770,-0.416555,0.886006,0.203653
-0.022457,-0.143148,-0.059989,-0.665603,-0.507058,0.547598
0.174354,-0.685009,-0.959710,-0.496844,0.801190,-0.333527
-0.061867,-0.288533,0.546346,0.076105,0.988312,0.132086
-0.097222,0.414341,0.375707,0.221793,0.946384,-0.234873
-0.035898,0.426959,0.563252,0.962968,0.245226,-0.112059
-0.084619,0.820211,0.296541,0.994801,-0.010161,0.101331
0.243177,0.529812,0.861505,0.200766,0.946948,0.250963
-0.144630,-0.122998,0.884319,0.839876,0.096875,-0.534063
-0.016680,0.133977,-0.002819,0.441869,-0.894492,0.068090
0.174056,-0.596397,-0.974019,0.214877,0.164268,0.962727
-0.032384,-0.294158,-0.126460,0.324202,0.315045,-0.891986
-0.150707,0.473289,0.282303,-0.633344,0.516539,-0.576249
0.031684,-0.808050,-0.950454,0.884441,0.314819,-0.344461
0.186351,-0.620038,-0.892820,0.890357,-0.083191,0.447598
-0.623073,-0.088991,0.617448,0.034357,0.254510,0.966460
0.178400,-0.539684,-0.342476,-0.540539,0.744515,-0.391809
0.667232,-0.444409,-0.384412,0.039354,-0.527506,0.848639
-0.030409,0.291608,0.352829,0.832785,0.532981,0.149664
0.282835,-0.332633,-0.926541,0.506566,-0.613679,0.605631
-0.689323,-0.147190,0.226599,-0.446140,0.755662,-0.479514
-0.238627,0.331807,0.544511,-0.289804,-0.304622,0.907314
-0.089482,0.306518,0.219822,-0.455840,0.004410,0.890051
0.154272,-0.821853,-0.943248,0.231271,0.968423,-0.093117
0.039744,-0.356539,-0.318216,0.897279,0.074231,0.435179
0.048448,-0.551044,-0.991826,0.610575,-0.305409,-0.730701
-0.177351,-0.121617,-0.082143,0.526075,0.848672,0.054779
0.228076,0.163110,0.569933,0.382326,-0.397363,0.834224
0.035736,-0.533228,-0.455196,0.952816,-0.042530,-0.300554
0.312133,-0.226957,-0.573878,0.833290,-0.492211,0.251708
-0.149563,0.386197,0.924327,0.571508,0.595808,0.564262
0.086153,-0.516146,-0.378699,0.850391,0.016513,0.525893
-0.309571,-0.329820,0.639098,-0.487474,0.460070,0.742095
-0.025796,-0.183674,-0.082487,-0.681024,-0.596543,0.424667
-0.066708,0.321017,0.352906,0.803267,0.593156,0.054112
0.029861,0.578110,0.896572,0.239054,0.865657,0.439877
-0.010420,-0.144766,0.016570,0.684571,0.534108,-0.496076
-0.031676,0.172811,0.746086,0.432504,-0.733466,-0.524374
-0.134175,-0.215600,-0.133687,0.963200,0.208149,0.170061
0.047783,-0.355887,-0.999183,0.076032,0.740395,0.667858
0.271972,0.486147,0.879340,-0.541669,-0.555790,0.630628
-0.119459,-0.110226,-0.095478,0.476820,0.757301,0.446249
-0.323293,-0.296055,0.884013,-0.773592,-0.583410,-0.247362
0.047771,-0.706114,-0.618596,-0.467688,0.175965,-0.866201
-0.690278,-0.107711,0.214791,-0.447081,0.696937,-0.560711
-0.225297,-0.219114,0.635328,-0.401827,-0.035437,-0.915030
0.134010,-0.586496,-0.973361,-0.244154,-0.585969,0.772677
-0.488689,-0.078188,0.203573,-0.042542,-0.609921,0.791320
-0.243901,0.430881,0.921975,-0.448393,-0.817873,0.360592
-0.169533,-0.078088,0.815955,0.536606,0.602457,0.590847
-0.421398,0.004092,0.247563,-0.444747,0.610483,-0.655371
-0.077541,0.365873,0.330392,-0.002801,-0.700252,0.713890
0.083583,-0.661710,-0.936500,0.440939,-0.201492,0.874628
-0.011310,-0.134223,0.809133,0.541922,0.629604,-0.556705
0.091845,-0.295024,-0.964089,0.621527,0.329991,0.710500
0.052488,-0.787925,-0.953296,-0.793772,0.594437,0.128726
0.005351,0.316683,0.434947,-0.078259,-0.828608,0.554332
0.340393,-0.270386,-0.963138,0.518722,0.454618,-0.724051
0.036897,-0.060690,0.763519,0.367518,-0.055173,0.928379
-0.094629,-0.308957,0.595211,-0.729320,-0.683069,0.038843
0.150033,-0.053531,0.861492,-0.441518,-0.323236,-0.837007
-0.247576,-0.111634,0.488151,0.033931,0.863569,0.503088
0.044135,-0.784239,-0.957726,-0.203852,0.578353,0.789907
0.030274,-0.315591,-0.121978,-0.562809,-0.079839,0.822722
-0.114002,-0.544340,-0.694151,-0.679235,-0.113106,0.725153
0.202574,-0.113084,0.913126,0.912891,0.313132,0.261877
-0.036288,0.274515,0.328123,-0.414820,0.250939,-0.874617
0.083825,-0.555823,-0.362194,0.833492,-0.048069,-0.550437
0.065488,0.509922,0.824496,0.713131,-0.600922,0.361023
-0.089727,-0.122026,0.789053,-0.109223,-0.295945,0.948940
0.606771,-0.261763,-0.397657,-0.021087,-0.885425,0.464305
-0.050433,-0.200195,0.492769,0.968108,0.182174,-0.171989
0.244650,-0.591575,-0.956567,0.900097,-0.402565,-0.166630
0.424947,-0.326234,-0.434536,-0.580262,0.043634,-0.813260
0.091811,-0.348640,-0.422238,0.198260,0.844633,0.497281
0.113173,-0.516777,-0.959367,0.973842,-0.021553,0.226202
-0.180016,0.078981,-0.029360,0.608519,0.782014,-0.134755
0.400336,-0.481869,-0.437537,0.600733,0.640406,-0.478539
0.180229,-0.307845,-0.967432,0.303108,-0.745989,0.592980
0.080742,-0.196260,-0.104739,0.928082,0.312276,0.202847
-0.150658,-0.021595,-0.032258,0.301988,-0.724049,0.620126
-0.033274,0.358238,0.402013,0.822018,-0.511014,-0.251298
-0.070147,-0.421123,-0.304860,-0.738462,0.048112,0.672576
-0.024863,0.154208,0.210039,0.931567,-0.046881,0.360536
0.081869,-0.225388,0.512009,0.982746,-0.176916,-0.053946
0.029452,-0.481032,-0.964833,0.861545,-0.484402,0.151971
-0.425397,0.117139,0.246748,-0.390243,0.363216,-0.846040
-0.044974,-0.201848,-0.053886,0.079353,0.918870,-0.386499
0.128135,0.186576,0.550962,0.282086,-0.777069,-0.562665
-0.298774,-0.016964,-0.039160,0.499635,0.772238,0.392446
-0.090947,0.245910,0.320603,0.810084,0.232677,-0.538169
0.029950,-0.929934,-0.958277,0.580591,-0.222997,0.783062
0.056773,-0.772210,-0.963362,0.566852,0.716464,0.406644
-0.163639,0.485657,0.539384,0.989859,-0.027668,0.139333
-0.217275,0.301620,0.881160,0.097432,0.993195,-0.063798
0.093520,-0.381219,-0.970441,0.815426,-0.118459,-0.566611
0.302275,-0.289839,-0.521141,-0.506057,0.488661,-0.710715
-0.128651,-0.610981,-0.516681,0.730668,0.560275,-0.390150
0.017527,-0.630953,-0.551211,-0.345309,0.928559,0.136160
0.101096,-0.451159,-0.954947,-0.662385,0.406398,-0.629354
-0.228337,0.096485,0.224830,0.032860,-0.930384,0.365110
-0.331710,0.548640,0.990824,-0.541844,0.422758,-0.726416
-0.218569,0.884133,0.296672,-0.476409,-0.729626,-0.490592
0.280407,-0.595398,-0.936956,-0.120258,0.059499,-0.990958
0.084241,-0.497640,-0.532974,-0.584128,-0.020098,-0.811413
-0.109307,-0.205204,0.884642,0.495753,0.736117,-0.460826
0.054835,0.450673,0.935289,-0.384216,-0.917213,0.105349
-0.628326,0.044829,0.217398,0.241484,-0.968714,0.057260
0.336154,-0.307831,-0.956920,0.921021,-0.388354,-0.030040
-0.001317,0.029267,0.780686,0.485804,0.871670,0.064702
0.064619,-0.032096,-0.015760,0.967619,-0.088417,-0.236425
0.075138,-0.330285,-0.240599,-0.583862,0.684142,0.437098
0.099402,-0.448594,-0.427594,0.231981,0.747440,-0.622510
-0.255304,-0.340259,0.918123,-0.544834,0.801733,0.245724
0.027551,-0.158684,0.487159,0.838214,-0.514212,-0.181612
-0.026582,0.428417,0.844974,-0.783458,0.524843,-0.332767
-0.271315,-0.058563,0.842416,0.977615,-0.188814,-0.092832
0.075463,-0.717623,-0.950603,-0.578317,-0.194112,0.792383
0.099557,-0.726187,-0.946689,0.986695,0.079348,-0.141905
-0.104971,-0.166752,-0.061730,0.712851,-0.670497,-0.205613
0.667068,-0.418904,-0.367736,-0.002512,0.989877,0.141908
-0.192220,0.062720,0.156168,-0.103206,-0.994470,-0.019418
-0.139748,0.255460,0.212527,0.232257,0.928636,-0.289295
-0.051796,-0.176651,-0.081863,-0.088741,0.995999,0.010562
-0.073270,-0.494164,-0.366461,0.409886,0.908137,-0.085323
0.034799,-0.789321,-0.984204,-0.290964,0.509612,0.809714
-0.160294,-0.042661,-0.126016,0.546633,0.039293,0.836450
0.015782,-0.517176,-0.375163,-0.202942,-0.855771,0.475888
0.044887,-0.593659,-0.958893,0.986728,0.033923,-0.158802
-0.017754,0.285821,0.765767,0.798498,-0.085061,0.595957
0.077672,-0.340578,-0.342130,0.976105,0.160888,-0.146059
-0.052713,0.325881,0.637428,0.173072,0.946890,0.271009
-0.092749,-0.105349,0.822993,0.386034,-0.850223,-0.357909
-0.085115,0.067723,-0.119158,0.526322,0.324757,0.785823
-0.203526,-0.108065,0.874126,0.781733,-0.008299,0.623559
-0.094895,0.330728,0.736660,0.466751,-0.702226,-0.537608
-0.143872,0.023927,0.803585,0.486125,0.873836,0.009700
0.184656,-0.576073,-0.366053,-0.370328,-0.893797,-0.252953
0.046300,0.396111,0.905019,-0.697386,-0.334333,0.633935
0.202050,0.070439,0.808064,0.846332,0.341227,0.409007
0.040175,-0.062734,0.912101,-0.241377,-0.823589,0.513263
0.029627,-0.511243,-0.962763,-0.286462,-0.803318,0.522130
0.093520,-0.050343,0.854917,0.630724,0.651469,-0.421634
-0.036840,-0.314459,-0.264209,0.350725,-0.682725,0.640998
-0.219873,0.192200,0.193505,0.735624,0.446656,-0.509269
-0.141606,0.263766,0.238818,0.908679,-0.317492,-0.271110
0.069499,-0.043765,0.797738,-0.613570,0.422866,0.666871
-0.199648,-0.145494,-0.026075,0.852139,0.434127,-0.292222
-0.005317,-0.462591,-0.470373,0.899002,0.409109,-0.156285
0.133225,-0.416674,-0.946131,0.842178,0.224016,0.490463
-0.110196,0.194882,0.739475,-0.339849,-0.086055,-0.936535
0.030631,-0.736824,-0.632216,0.207713,-0.956698,0.203921
0.199253,-0.362689,-0.954614,0.177999,0.424193,0.887906
-0.114847,-0.166521,0.793158,0.815913,0.103191,0.568891
-0.057082,0.005503,0.790750,0.876131,-0.480315,-0.041140
0.336540,-0.336346,-0.947868,0.261459,-0.609751,-0.748227
-0.066769,0.342586,0.348267,-0.686695,-0.491555,0.535559
0.189912,0.167360,0.757075,-0.421275,-0.841590,-0.338015
0.118930,0.038976,0.770414,0.762627,-0.477891,0.435914
0.198869,0.134487,0.760478,-0.581349,-0.572446,-0.578220
-0.178925,0.245546,0.274670,0.047645,0.874140,0.483331
0.039140,-0.048342,0.451252,-0.547161,0.148632,-0.823725
0.032644,-0.566855,-0.424749,-0.518972,0.838624,0.165464
0.044458,-0.344720,-0.311575,0.885036,0.001180,0.465521
0.107828,-0.705642,-0.946502,0.053833,0.774843,0.629858
0.228822,0.119405,0.079989,-0.008817,-0.921458,-0.388377
0.037273,-0.689698,-0.948958,0.344094,-0.085261,-0.935056
-0.228506,0.191792,0.276267,-0.100831,0.592926,0.798919
-0.022495,-0.736297,-0.926764,0.916342,0.272670,-0.293204
-0.154705,0.500663,0.899484,0.821090,-0.527409,-0.218291
-0.081529,0.414212,0.632672,-0.571817,0.818078,-0.061428
0.203544,-0.308300,-0.962496,0.776595,0.441799,0.449126
-0.545689,0.483119,0.067280,0.734910,0.021567,0.677821
0.029464,-0.923120,-0.966657,0.478562,0.655086,0.584672
0.160136,0.501567,0.893588,-0.043079,-0.923537,0.381082
-0.077743,0.124508,0.736695,0.183161,0.463740,0.866832
-0.236202,-0.073604,0.054025,-0.108202,-0.802138,0.587254
-0.135875,-0.176600,-0.076567,0.626520,0.733989,0.262171
-0.118964,0.307941,0.917620,-0.678475,-0.724907,-0.119089
-0.173153,-0.235341,0.784932,0.293376,-0.856685,0.424290
-0.079993,-0.000164,-0.051004,-0.278282,0.710119,0.646753
0.217796,-0.031335,0.850642,-0.751174,-0.578422,-0.318066
-0.063680,-0.289785,-0.319652,0.784317,-0.426870,-0.450142
0.289914,-0.352191,-0.943161,0.914848,0.370849,-0.159762
0.094534,0.319352,0.773413,0.890368,-0.433415,0.139267
0.233134,-0.582536,-0.966795,0.324420,-0.933676,-0.151661
0.090116,-0.318928,-0.964795,0.351757,-0.121163,0.928217
-0.229565,0.617286,0.892681,0.084801,-0.906675,0.413219
0.192360,-0.182705,0.896308,-0.170814,0.694206,0.699214
-0.078352,-0.106109,-0.036991,0.525446,0.573190,-0.628777
-0.026411,-0.615827,-0.512311,0.288837,0.949204,0.124841
-0.081710,0.025621,-0.117103,0.026294,0.190090,0.981415
0.021733,0.101505,0.451082,0.834320,0.300757,-0.462012
-0.089934,-0.153480,-0.038382,0.642362,-0.390529,-0.659438
0.002587,-0.610213,-0.501122,-0.070187,-0.225439,0.971726
0.198667,-0.702500,-0.976481,0.615437,0.350831,0.705801
-0.106200,-0.304069,-0.149044,0.124377,-0.986454,0.106950
0.218769,-0.260299,-0.964665,-0.234870,-0.831488,0.503451
-0.242688,0.093533,-0.004438,0.386648,-0.915645,0.109989
0.036125,-0.135870,0.845408,0.173532,0.816466,0.550700
0.096297,0.486959,0.780195,0.074331,-0.902366,0.424512
0.136299,-0.295981,-0.976430,0.739356,0.397057,-0.543782
-0.217151,0.232855,0.229081,0.849334,0.068092,0.523446
-0.239292,0.145730,0.184393,0.981607,0.016189,-0.190225
0.032922,-0.248694,-0.219529,0.465657,0.185480,-0.865310
-0.465489,0.499990,-0.026581,0.882575,0.238639,0.405109
-0.014016,0.034514,0.804642,0.133930,0.722061,-0.678742
-0.163487,0.339928,0.313147,0.841845,0.513472,-0.166261
-0.085357,0.353511,0.420533,0.107616,-0.534188,0.838488
-0.045340,-0.056542,0.394481,0.897579,0.096004,0.430273
0.112795,-0.613101,-0.975422,0.860340,-0.270954,-0.431739
0.078168,-0.139605,0.889478,0.616677,0.777127,0.125630
0.114004,-0.281457,-0.928660,-0.559028,0.539692,-0.629460
-0.162164,0.090688,0.770571,0.887279,0.212645,-0.409290
0.360833,-0.185516,-0.385358,0.015345,0.372003,0.928105
0.066518,-0.509116,-0.894163,-0.321343,-0.938149,-0.128901
-0.201200,0.348186,0.923550,0.143543,0.170032,0.974928
0.124246,-0.510360,-0.965707,0.350522,-0.936539,-0.005360
-0.011398,-0.372804,-0.191757,0.028272,-0.916277,0.399547
0.223884,-0.359566,-0.947719,-0.780058,0.491438,0.387295
0.013757,-0.232179,-0.162633,0.465376,0.171668,-0.868306
-0.196581,0.018249,0.821881,0.786189,-0.577800,0.219214
0.303856,-0.258108,-0.939928,-0.115428,0.648051,0.752799
0.117985,0.162764,0.052795,0.532244,-0.622482,-0.573788
0.064273,-0.381226,-0.349792,0.744227,0.379402,0.549709
0.059961,0.422276,0.815690,0.814783,-0.198668,0.544665
-0.025476,-0.107226,-0.041164,-0.712811,-0.696284,-0.084192
-0.070402,0.588302,0.917512,0.181563,0.705716,-0.684836
-0.057249,-0.164312,0.523933,0.014816,0.999890,0.000326
0.054587,-0.145561,0.898453,0.403779,0.909811,-0.095950
-0.082629,-0.202536,-0.070957,-0.026085,0.983079,0.181318
0.122346,-0.592608,-0.943647,0.631256,0.746196,0.211443
0.092778,-0.666508,-0.950693,0.412939,-0.237731,0.879184
0.139489,-0.587483,-0.405066,-0.576795,0.632930,-0.516437
0.303717,-0.614486,-0.470444,0.134726,0.989368,-0.054765
0.288162,-0.355643,-0.969770,-0.063132,-0.258341,0.963989
0.301201,0.485801,0.924745,0.008615,-0.390501,0.920562
0.006700,-0.634532,-0.986928,0.924726,-0.282643,-0.254940
0.320117,0.079028,0.084992,0.253081,0.890425,0.378276
0.151966,-0.455032,-0.228666,0.186494,-0.824922,0.533594
-0.128246,0.240105,0.231425,0.036086,-0.778518,0.626585
0.358351,-0.217072,-0.509655,-0.637096,-0.258028,-0.726312
0.206653,-0.450119,-0.952307,-0.736186,0.020353,-0.676473
-0.252783,-0.093345,0.881414,0.232685,-0.561161,0.794327
0.112754,-0.611349,-0.975593,0.860340,-0.270954,-0.431739
-0.133121,-0.184845,-0.071755,0.509367,-0.852448,-0.117806
0.223829,-0.234796,0.808061,0.515057,-0.855039,0.060207
0.059609,0.147810,0.049038,0.708429,-0.630592,-0.316989
-0.038511,-0.411692,-0.445085,-0.383003,0.922930,0.038845
0.186174,-0.607835,-0.945210,-0.772736,-0.330750,-0.541742
-0.025229,-0.093968,-0.043012,0.687429,0.631902,0.357969
0.339708,-0.381387,-0.953052,0.106674,-0.512002,0.852335
-0.195755,-0.129515,-0.028532,0.954177,0.062807,-0.292576
-0.066853,0.501473,0.935698,0.918894,-0.346251,0.189062
0.029947,-0.310318,0.565616,0.408588,0.292001,0.864749
-0.094032,0.420483,0.260498,-0.407461,-0.306462,0.860266
-0.018397,0.266216,0.681771,-0.757862,0.610232,-0.230788
0.003967,-0.441495,-0.948857,0.850881,0.401823,0.338438
-0.000126,0.633210,0.253595,0.813327,-0.172998,-0.555492
-0.369284,0.127072,0.043781,-0.580497,-0.682760,-0.443691
-0.156874,0.294748,0.190243,0.820055,-0.404815,-0.404518
-0.542791,0.494028,0.038920,-0.341846,-0.894620,0.287743
-0.099225,-0.220042,0.561978,-0.675905,-0.663656,0.320488
-0.004825,-0.198817,0.854131,-0.707799,0.176475,0.684015
-0.140792,-0.212337,-0.059598,0.494148,-0.861891,0.113850
-0.838589,0.290628,0.224974,0.857594,-0.151087,-0.491636
0.009464,0.546179,0.871385,0.108523,-0.672358,0.732228
0.033682,-0.154058,-0.061394,0.984902,-0.044080,0.167410
-0.336172,0.014818,0.073629,-0.442803,0.775108,0.450703
-0.107789,-0.261361,-0.136625,0.621266,0.507772,-0.596822
0.051785,-0.043046,0.859028,0.256698,0.966447,-0.009274
-0.227835,0.907935,0.328456,0.527820,0.530398,0.663388
0.057035,-0.475491,-0.974939,0.109110,0.551870,0.826762
0.016843,0.336767,0.643835,0.021743,0.990869,0.133066
-0.249883,-0.133053,0.843020,0.807344,0.144538,0.572105
0.055775,-0.263345,0.875840,-0.042909,0.882083,0.469136
-0.156002,-0.010742,0.846780,-0.418292,0.848095,0.325217
-0.102508,0.426851,0.439570,0.702879,0.711154,0.014867
-0.290813,-0.355916,0.639047,0.923688,-0.302783,-0.234782
-0.004107,-0.970471,-0.958471,0.270196,0.219374,0.937480
0.207542,-0.700427,-0.974378,0.896743,0.293187,0.331501
-0.230328,0.386026,0.324901,0.757930,0.336401,0.558907
0.139731,-0.462400,-0.948839,0.467275,0.751312,0.466030
0.222870,-0.238512,-0.938649,0.834384,-0.510894,-0.206860
0.044167,-0.158358,-0.023252,0.037429,-0.935894,0.350287
0.049274,-0.487658,-0.339062,-0.553305,-0.788407,0.268829
-0.112082,0.434245,0.530451,0.611142,0.744668,0.268280
0.055071,-0.427444,-0.971906,-0.391239,0.556116,0.733258
-0.066867,-0.148825,-0.044064,-0.538497,-0.032331,0.842007
-0.087868,-0.137426,-0.093886,-0.527401,-0.117533,-0.841448
-0.077358,0.070123,0.762815,0.479573,-0.546885,-0.686241
-0.146385,-0.101455,0.502934,0.442475,0.817991,0.367568
-0.009498,0.204342,0.329642,0.801795,-0.528176,-0.279562
0.049917,-0.241715,-0.118455,0.897143,0.000097,-0.441741
0.050238,-0.511997,-0.572302,-0.646126,0.192720,0.738499
0.067011,-0.264223,0.889448,-0.563167,0.821514,-0.089207
-0.157029,0.002230,0.879112,0.437103,-0.893894,0.099473
-0.141312,0.325432,0.345086,0.093161,0.752780,0.651646
0.206247,-0.432178,-0.961854,-0.696525,0.137759,0.704184
-0.085248,0.348752,0.634714,-0.090744,0.906628,0.412057
0.170481,-0.624811,-0.967103,-0.062533,-0.832667,0.550232
0.087676,-0.621914,-0.497520,0.166019,-0.817852,0.550958
0.098137,-0.361062,-0.200465,-0.742162,-0.218861,-0.633478
-0.253361,0.216096,0.159458,-0.533489,-0.548370,0.643957
-0.028118,-0.703145,-0.963589,-0.098639,0.939296,0.328622
-0.064880,0.303157,0.295198,-0.405274,-0.881495,-0.242322
0.151215,0.461798,0.892162,0.138825,-0.953404,-0.267858
-0.124452,-0.038177,0.853989,0.059496,-0.021203,0.998003
0.164418,-0.298018,-0.956669,0.055566,-0.996958,-0.054663
0.142897,0.430066,0.906832,-0.063301,0.953453,0.294823
0.112299,-0.631960,-0.950996,0.629433,-0.152350,0.761973
0.222551,0.525820,0.834827,0.012105,0.942689,0.333453
0.003985,-0.828838,-0.941262,-0.524446,0.184143,-0.831293
-0.176889,0.513087,0.313423,0.994140,0.100298,0.040320
0.050209,-0.152771,0.012652,0.035429,-0.663921,0.746963
-0.050366,-0.227547,0.496633,-0.565726,0.646275,0.512136
-0.457555,0.072864,0.225814,0.629983,0.071802,-0.773282
0.007168,-0.457766,-0.575791,0.819683,-0.012450,-0.572682
0.224269,-0.194453,-0.956303,0.201990,-0.971498,-0.124062
-0.014318,-0.361585,-0.309687,-0.641206,0.074369,0.763757
-0.647347,0.659740,0.256198,0.771248,0.053893,-0.634249
0.116809,-0.520450,-0.807281,0.194280,-0.977686,0.079912
0.309756,-0.552672,-0.472051,0.601458,0.795451,-0.074195
0.335150,-0.385963,-0.461335,-0.578459,0.280240,-0.766062
0.090383,0.041562,0.065224,0.756935,-0.008535,-0.653434
-0.054572,-0.476955,-0.543868,-0.600648,0.645728,-0.471441
0.155294,-0.547788,-0.971233,0.380369,0.792130,-0.477335
-0.024853,-0.440333,-0.486671,0.342194,0.898667,-0.274410
0.068515,-0.123038,-0.175730,-0.539998,0.841246,-0.026599
0.084936,-0.756229,-0.986465,-0.228838,0.274556,0.933944
0.655318,-0.542893,-0.373995,-0.019811,0.440678,0.897447
0.106416,-0.072898,-0.004396,0.855032,0.515920,-0.052408
-0.121985,-0.529093,-0.472416,0.930882,-0.357165,-0.076757
0.021322,-0.645073,-0.623529,0.448247,-0.156377,0.880126
-0.131801,0.369277,0.564191,0.766117,0.631069,-0.121724
0.133403,-0.714544,-0.512209,0.146129,-0.257040,0.955289
-0.041661,-0.075729,-0.022161,-0.663807,-0.646044,0.376813
0.045770,-0.367435,-0.357468,-0.012604,-0.760007,0.649793
0.227093,0.409871,0.869585,-0.430681,0.206745,0.878505
0.054644,0.534632,0.902844,-0.002011,0.752883,0.658152
-0.257881,0.116958,0.039318,0.100423,-0.939148,0.328507
0.284361,-0.641473,-0.951403,-0.698047,0.546646,0.462502
0.006850,-0.591714,-0.321189,-0.361447,-0.800355,0.478317
0.135352,-0.776557,-0.921006,-0.127692,0.263760,0.956099
0.199138,-0.394541,-0.963330,0.979103,-0.072630,-0.189954
-0.103977,0.024772,0.018211,0.033093,-0.997384,0.064266
0.092598,-0.080634,0.827947,0.036044,0.929436,-0.367218
0.108110,-0.092407,0.861923,-0.595065,0.436675,0.674694
0.325958,-0.510446,-0.964338,0.962404,0.166171,0.214863
-0.154469,-0.077010,-0.037209,0.187139,-0.298387,0.935919
-0.004940,-0.527486,-0.305855,0.818938,0.122448,-0.560667
-0.153972,0.454219,0.853859,0.781682,-0.118593,0.612299
0.117622,0.046293,0.765986,-0.623161,0.657284,-0.423849
-0.302082,-0.232813,0.870345,0.846848,0.269461,0.458519
-0.208522,-0.067109,0.841982,0.049602,-0.533377,0.844422
0.902652,-0.313902,-0.357015,0.145222,0.373396,-0.916235
0.060994,-0.149637,-0.109455,-0.443575,-0.894233,0.059915
0.113060,0.452362,0.891812,-0.530152,0.820898,0.212285
-0.163725,0.373462,0.304192,-0.473200,0.477282,-0.740462
-0.302076,0.031965,0.231124,-0.191116,0.733766,-0.651967
0.063402,-0.523692,-0.943400,0.792055,0.412014,0.450437
-0.148926,-0.156480,0.544624,0.935171,-0.336852,0.109478
0.542190,-0.397866,-0.364311,0.255937,0.479169,-0.839579
0.377011,-0.368210,-0.947664,0.652702,0.051625,-0.755854
0.233065,0.467466,0.813540,0.965054,-0.159847,-0.207655
0.366116,-0.419534,-0.945130,0.178651,-0.884573,0.430829
-0.101042,0.359976,0.618973,0.195035,-0.980631,-0.018028
-0.114591,-0.134172,0.834612,0.174493,-0.983576,-0.046148
-0.124887,0.445929,0.417549,0.345744,-0.507726,0.789098
0.101434,-0.439075,-0.962082,-0.501033,0.455661,0.735758
0.092111,-0.467073,-0.377919,0.857235,-0.014544,0.514719
-0.167775,-0.197426,0.800681,0.139933,-0.063670,0.988112
-0.004111,0.694598,0.269881,0.872485,0.486416,-0.046571
0.090062,-0.028156,0.015117,0.343953,0.267712,-0.900015
-0.038647,-0.219792,-0.165784,0.089205,0.927296,0.363544
0.112742,-0.692724,-0.950414,0.121119,0.664659,0.737264
-0.039607,-0.405433,-0.364518,-0.744787,0.608292,-0.274358
0.182529,-0.563546,-0.950669,0.833692,0.549530,0.054532
0.198227,0.244768,0.563266,0.745615,-0.308444,-0.590695
0.045506,-0.223721,0.871075,0.747597,0.121123,-0.653015
-0.034287,-0.053362,0.415329,0.820772,-0.571189,-0.008719
0.282433,-0.823353,-0.942602,-0.369713,-0.040806,0.928250
0.047200,-0.708690,-0.960792,0.350004,0.665023,0.659728
0.076678,-0.448091,-0.395922,0.686662,0.419364,-0.593825
0.115896,-0.889050,-0.938724,-0.538860,0.606723,0.584395
0.164336,-0.324903,-0.975345,0.927502,-0.179642,-0.327823
-0.127509,-0.097419,-0.011307,0.418653,0.902532,0.100829
0.656229,-0.437079,-0.403657,0.747556,-0.381653,-0.543600
0.027804,0.316342,0.674435,0.294424,-0.477956,-0.827570
-0.176927,0.067061,0.757913,0.728852,0.666032,0.158671
0.215562,-0.535542,-0.955582,0.010361,-0.433108,0.901282
0.083766,-0.381215,-0.973701,0.050023,-0.318645,0.946553
0.097787,-0.190095,-0.167956,0.920811,-0.365222,-0.136819
0.272222,-0.777088,-0.953122,0.912828,0.264730,-0.310907
-0.180186,-0.190623,-0.046953,0.754787,0.615842,0.225909
0.012525,-0.494053,-0.496775,0.816865,0.557384,0.148509
0.062907,-0.004592,0.089271,0.816392,0.356243,-0.454528
0.065444,-0.098347,0.745623,0.917422,-0.145340,0.370423
0.172955,-0.726499,-0.944475,0.626644,0.313718,0.713371
-0.150362,0.205842,0.694632,0.869297,0.011899,0.494147
-0.200495,-0.126251,-0.026463,0.951156,0.047219,-0.305078
-0.017420,0.439671,0.833428,-0.521840,0.846438,-0.105955
0.049372,-0.491995,-0.446715,0.757122,0.196342,-0.623070
0.174676,0.095848,0.071603,-0.214136,0.665831,0.714713
0.274984,-0.461044,-0.411297,-0.471037,0.875433,0.108357
0.073536,-0.131361,-0.315662,0.052638,-0.506309,0.860744
0.022799,0.480127,0.856778,0.132792,0.876326,0.463054
-0.211458,-0.159870,0.834552,-0.023204,-0.912519,0.408377
-0.258160,0.007931,0.079004,-0.300032,-0.616597,0.727866
-0.067672,-0.294770,-0.182169,0.769736,0.425380,0.475982
-0.037605,-0.567295,-0.427682,-0.763881,0.268338,0.586925
0.184698,-0.299627,-0.919943,0.180109,0.010675,0.983589
-0.027131,0.389403,0.435608,0.268253,-0.935658,-0.229315
0.131892,-0.676730,-0.939778,-0.071525,-0.122598,0.989876
0.041660,-0.080190,0.447276,-0.718214,-0.693907,-0.051587
0.090907,-0.767316,-0.982508,-0.027445,0.540113,0.841145
-0.106343,0.456582,0.841055,0.620299,0.185347,0.762152
-0.274640,0.013499,0.068103,-0.158652,0.983637,-0.085367
0.113529,-0.716970,-0.635981,0.764239,-0.620307,-0.176517
0.164374,-0.508395,-0.955191,-0.685450,0.430366,0.587319
-0.118733,-0.180675,-0.146611,-0.085266,0.985171,0.148889
0.241630,-0.719843,-0.926659,0.069984,0.704567,0.706178
-0.073785,0.016274,0.778082,-0.340647,-0.377259,-0.861182
0.268314,-0.750386,-0.952890,0.829306,0.146916,-0.539136
-0.230764,-0.077223,0.894138,-0.239111,0.075248,0.968072
0.003330,0.491297,0.914436,-0.494504,-0.790751,-0.360803
0.358264,-0.373552,-0.439549,0.849692,-0.477119,-0.224458
0.032963,-0.073458,0.831872,-0.312714,0.876248,-0.366604
0.098128,-0.047392,0.836056,-0.515345,0.835246,0.191787
-0.004534,0.392464,0.539982,0.637677,0.719893,0.274085
-0.827396,0.454351,0.251476,0.632826,0.773983,-0.021942
-0.583436,0.316578,0.054047,0.903624,-0.329179,0.274053
0.042662,-0.234570,-0.186499,0.943041,-0.044447,0.329695
0.229696,0.535586,0.843142,-0.040421,-0.964477,0.261056
-0.019177,-0.351965,-0.310736,-0.555749,0.380508,0.739160
-0.202547,0.803127,0.332517,0.638769,0.324648,0.697552
-0.173677,-0.092699,0.008306,0.850547,0.268867,0.451973
-0.037151,-0.503241,-0.417133,0.682271,0.655150,-0.324475
-0.188735,-0.013871,0.868330,-0.456811,0.887542,0.059944
-0.067267,0.439672,0.499782,0.325433,0.924067,-0.200484
0.022715,-0.374080,-0.454024,-0.767487,0.527582,-0.364171
0.210455,-0.362867,-0.968485,0.403365,0.529454,-0.746307
-0.014723,-0.397666,-0.326335,0.778572,0.300947,-0.550687
0.197722,-0.051411,0.811289,0.943042,-0.175986,0.282312
0.121108,-0.281822,-0.221497,-0.237272,0.884663,-0.401339
0.048295,-0.040627,0.465796,-0.062420,-0.998027,-0.006841
0.029801,-0.503056,-0.899755,0.949526,0.111944,0.293033
-0.097852,0.207139,0.700450,-0.599019,0.408784,0.688528
-0.009452,-0.491003,-0.960467,0.643720,0.240730,-0.726412
0.028653,-0.255951,-0.221200,-0.348567,0.274245,0.896265
-0.117468,0.286301,0.279584,0.271267,0.026058,-0.962151
0.057996,0.446694,0.239197,0.893590,0.128445,0.430116
0.047779,-0.541052,-0.432171,-0.235802,-0.138584,-0.961869
0.180773,0.481447,0.892149,0.045856,0.979898,0.194156
0.161393,-0.516849,-0.442553,0.429921,-0.836902,0.338766
0.118808,-0.262988,0.898141,-0.459908,0.047499,0.886695
0.029923,0.002969,0.005549,0.598869,0.392920,0.697832
0.042334,-0.134592,0.472203,0.413840,0.125259,-0.901691
0.184241,0.403805,0.810247,0.492141,-0.560771,-0.665833
-0.055134,0.279065,0.694373,0.303301,0.436741,0.846915
0.129828,-0.162568,-0.314387,0.194610,-0.659148,0.726396
-0.115851,0.234728,0.718604,-0.478684,0.577471,-0.661354
-0.162082,0.447993,0.289884,-0.507617,0.145628,0.849187
-0.097389,-0.479841,-0.442131,-0.355702,-0.676274,0.645081
0.709014,-0.390964,-0.375216,0.208598,-0.679525,0.703372
0.021022,-0.534598,-0.434417,-0.590927,0.265161,0.761902
0.135666,-0.293697,-0.227625,0.319727,-0.737804,0.594492
0.199164,-0.745563,-0.959403,0.304230,-0.360422,-0.881783
-0.136056,0.292249,0.357414,-0.533693,0.674312,0.510367
0.216536,-0.402103,-0.965794,0.036810,0.810110,0.585122
0.760621,-0.475923,-0.407358,-0.534918,-0.833965,0.135518
-0.003996,-0.282260,-0.223839,0.954070,0.195287,-0.227188
0.427995,-0.285366,-0.939664,0.986140,0.127650,-0.105986
0.081584,-0.289682,-0.224363,0.815409,-0.185684,0.548297
0.101453,-0.205092,-0.360940,0.355715,-0.684702,0.636121
0.057707,0.410001,0.782414,0.858483,-0.217129,0.464609
-0.063908,-0.499738,-0.517089,0.355501,0.349167,-0.867007
-0.021066,-0.101580,-0.032369,0.030014,0.991582,0.125955
0.012237,-0.050339,0.921075,-0.091760,-0.227632,0.969414
0.238947,-0.800499,-0.954983,-0.032598,-0.986496,0.160509
0.037025,-0.359431,-0.971289,0.299543,0.914234,0.272857
0.026678,0.470109,0.409342,-0.776334,0.406887,-0.481403
-0.094672,0.228064,0.381898,0.937170,0.264394,0.227614
0.237455,0.477095,0.892075,-0.559691,-0.679730,-0.474039
-0.134118,0.123494,0.716864,0.819706,-0.565059,-0.093759
0.366040,-0.298378,-0.586719,0.854001,-0.491997,0.169181
-0.119620,0.296644,0.305060,-0.066572,0.798899,0.597769
-0.218413,0.235398,0.214436,0.838865,-0.529927,-0.124432
-0.233037,-0.171211,0.852737,0.756357,0.368218,0.540685
-0.061734,-0.661326,-0.534553,-0.073632,-0.986787,0.144328
0.118832,-0.531141,-0.966362,-0.762764,-0.646022,-0.029097
0.115498,-0.353514,-0.965790,-0.239619,0.689199,-0.683804
-0.167709,-0.009370,0.004418,0.826550,0.249239,-0.504674
-0.108511,-0.186834,-0.062727,0.410428,-0.900019,0.146679
0.232249,-0.457014,-0.332284,-0.302419,-0.474111,-0.826899
-0.459852,0.103902,0.253702,0.022998,-0.135833,0.990465
0.069311,-0.504102,-0.953157,0.183468,-0.537249,-0.823227
-0.059026,-0.321483,-0.200086,0.870945,0.477042,-0.117842
-0.382487,0.372542,0.934832,-0.666855,-0.486680,-0.564311
0.033339,-0.507948,-0.583311,0.681479,-0.296468,-0.669098
-0.194422,0.132796,0.192090,-0.378826,-0.571214,0.728152
-0.042972,0.251296,0.730818,-0.347598,-0.700811,0.622928
-0.046592,-0.265728,0.509487,-0.136397,0.905493,0.401844
-0.008506,-0.068149,0.815064,0.115781,0.854894,0.505718
0.158069,-0.550773,-0.966147,-0.466872,-0.881428,-0.071522
0.353617,-0.393662,-0.956132,0.787933,0.592817,-0.166521
-0.066270,-0.185831,-0.143887,-0.432902,-0.899361,0.061207
0.138590,-0.607360,-0.609906,0.357488,0.395868,-0.845867
0.261791,-0.410958,-0.971032,0.743657,-0.062182,-0.665663
0.004648,-0.393815,-0.453661,0.887825,-0.446266,0.112311
-0.066485,0.199641,0.683036,-0.411011,0.804684,-0.428431
0.125845,-0.202118,0.863928,-0.693061,0.643457,0.325006
0.148711,0.032094,0.598467,0.974410,0.218527,0.052641
-0.014581,-0.326877,-0.973246,0.591507,0.125057,0.796542
-0.122440,0.449452,0.574303,0.897283,-0.259140,-0.357393
-0.149263,-0.096969,-0.024616,0.011885,-0.075306,0.997090
-0.319060,0.523780,0.984993,0.553543,-0.442850,0.705318
0.298686,-0.260824,-0.955017,0.085724,0.066394,0.994104
-0.071102,-0.250332,0.503376,-0.686637,0.570336,0.450828
0.129949,-0.869538,-0.971385,-0.166494,0.045374,-0.984998
-0.075729,0.662436,0.301529,0.765067,-0.277434,-0.581122
-0.006541,-0.314709,-0.978292,0.111502,-0.155403,0.981538
-0.531978,0.425454,-0.016189,0.882575,0.238639,0.405109
0.189033,-0.209019,-0.355484,-0.224301,-0.534152,0.815089
-0.099997,0.441523,0.587066,-0.472846,0.868711,0.147508
-0.044893,0.062867,-0.019487,-0.262223,0.178674,0.948322
-0.079363,0.712422,0.281315,0.762030,-0.592586,-0.261061
0.136208,-0.540568,-0.399845,0.338315,-0.371274,0.864695
0.039444,-0.057139,0.432354,0.694375,0.467242,0.547292
-0.008919,-0.482942,-0.944276,-0.774829,-0.561167,-0.291088
0.001401,0.035962,0.779629,0.182024,0.675295,0.714733
-0.200520,0.209056,0.232071,0.897489,-0.098861,0.429814
0.438766,-0.518508,-0.422861,-0.020601,-0.277729,0.960439
-0.032745,-0.383725,-0.252855,0.960116,0.274932,-0.050883
0.109355,-0.180207,0.852214,0.142397,0.912638,0.383165
0.114094,-0.430818,-0.229750,0.208524,-0.672729,0.709897
0.263803,-0.226642,-0.940196,0.053446,0.975926,0.211450
0.122575,-0.529374,-0.964657,0.183796,0.882554,-0.432801
-0.189655,-0.036479,0.811661,-0.380442,0.600625,-0.703216
0.222143,0.141090,0.757388,0.781966,0.518307,0.346248
0.161276,-0.601039,-0.957485,-0.319655,0.642597,-0.696340
-0.133752,0.221596,0.319631,0.654935,0.751480,-0.079616
0.080290,-0.445007,-0.926855,0.309574,-0.458836,-0.832847
-0.137239,-0.216933,-0.128646,0.964055,0.264784,-0.022092
0.071834,-0.325216,-0.211687,0.689581,0.579740,-0.434027
0.520408,-0.310950,-0.471417,-0.823245,0.531424,-0.199639
0.064266,-0.652897,-0.981736,-0.250230,0.850395,0.462831
0.016879,-0.551364,-0.430255,0.380995,-0.695475,-0.609226
-0.622169,0.049339,0.244947,-0.516967,0.736574,0.436123
0.243141,-0.115669,0.776992,0.786445,0.106106,-0.608479
0.156532,-0.085315,0.828063,0.372294,0.634736,-0.677132
0.070447,-0.282222,-0.324910,-0.542740,-0.735723,-0.405148
-0.111256,0.629920,0.267108,0.897426,0.150220,-0.414802
0.026229,0.467198,0.910043,-0.664314,-0.298209,0.685389
-0.135827,0.437500,0.342546,-0.191846,0.228478,0.954459
-0.837327,0.298289,0.225685,-0.011549,0.057275,0.998292
