-0.311462,0.278097,0.753432,-0.461187,0.885269,-0.060042
-0.482522,-0.512409,0.828810,-0.413711,0.902989,0.115992
0.325197,0.212267,-0.016669,0.257029,0.832698,-0.490459
-0.412019,-0.462103,0.739185,0.836549,0.479342,-0.265361
0.472494,-0.492389,0.675799,0.754027,0.592580,-0.283359
0.114560,-1.000000,0.524859,0.580659,0.478022,0.659037
-0.763212,0.605624,0.554816,0.155859,0.880606,0.447484
0.045489,-0.646874,0.725381,0.267258,0.613183,0.743357
0.174304,-0.683854,0.744991,0.949489,0.102935,0.296436
0.029423,0.119276,0.365387,0.903636,0.235643,-0.357652
0.021867,-0.916285,0.517835,-0.542708,-0.254297,-0.800500
-0.000660,0.436409,0.656067,-0.664349,-0.158617,0.730398
-0.178518,0.000750,0.905591,0.863114,0.084726,-0.497851
-0.381403,0.242010,0.340368,0.919328,-0.246445,0.306758
0.295142,0.507116,0.684956,-0.366115,0.349762,-0.862338
-0.257335,0.031608,0.949550,-0.077569,-0.210642,0.974481
0.198910,0.360090,0.620503,-0.696011,-0.701703,0.152254
0.337444,0.218803,-0.007070,0.264192,0.901392,-0.343067
0.327135,0.094218,0.857852,0.862096,-0.430364,0.267538
-0.358426,0.143919,0.952277,-0.798037,0.597051,0.081650
0.219218,-0.679105,0.376099,0.000780,0.656649,0.754196
0.045068,-0.523534,0.317360,-0.414350,-0.613718,-0.672060
-0.542323,0.713916,0.556873,0.895605,0.434676,-0.094599
0.541030,-0.651146,0.599994,0.846402,0.147056,0.511838
0.062455,-0.131166,0.111140,0.975757,0.008369,0.218695
-0.642122,0.605432,0.704277,-0.623869,-0.564575,-0.540410
0.147845,-0.154088,0.823538,-0.753154,-0.477217,0.452794
0.216213,0.056442,0.789560,0.785589,-0.616216,0.055921
0.072848,0.709645,0.688171,0.239664,-0.934954,-0.261578
-0.048916,0.363055,0.816880,0.265832,-0.959315,-0.095123
0.440866,-0.095876,0.753478,-0.054080,0.998249,0.023975
0.121076,-0.574350,0.810876,0.864106,0.084230,-0.496212
0.345309,-0.445749,0.776349,0.736648,0.295010,-0.608538
0.437383,-0.670529,0.608146,0.763230,0.358153,0.537780
0.528699,-0.626185,0.632525,-0.145079,-0.366337,0.919103
-0.745685,0.341665,0.908044,0.849468,-0.351494,0.393517
0.856748,-0.382693,0.515870,0.490477,0.221772,0.842763
0.363060,-0.410746,0.567112,0.775900,0.278258,-0.566173
0.330000,0.177551,0.171296,-0.635951,0.681796,0.361552
-0.287586,-0.012385,0.904417,0.971558,0.009285,-0.236621
-0.626336,0.642061,0.771275,-0.357472,-0.808672,0.467186
-0.269666,0.537753,0.740694,0.419553,-0.719158,0.553884
-0.198545,0.039960,0.920401,0.971590,-0.167781,-0.166919
0.133829,0.382501,0.665148,0.892629,0.217788,0.394692
-0.341882,-0.013819,0.923936,0.778591,0.455220,-0.431938
0.143856,-0.438162,0.648859,0.551978,-0.490198,-0.674556
0.419996,-0.361238,0.610172,0.391103,0.805868,-0.444539
-0.504206,-0.460446,0.792455,-0.609516,-0.502793,-0.612935
0.063579,-0.067727,0.082159,0.841733,-0.072939,-0.534944
0.212393,0.419131,0.162230,-0.277558,-0.586546,0.760871
0.805177,-0.331399,0.431593,0.457249,0.668275,0.586798
0.135289,-0.450213,0.866522,0.973656,0.207533,-0.094465
0.555580,-0.408164,0.762361,-0.135514,0.751379,0.645807
0.070797,-0.161101,0.792180,0.467132,-0.884106,-0.012036
0.066584,0.066293,-0.792135,-0.171047,0.906504,0.385997
-0.405840,0.104580,0.835682,0.180754,-0.898277,0.400532
0.067736,0.176499,-0.646025,0.682776,-0.725581,-0.085725
0.362246,0.258492,0.459766,-0.363448,0.924882,0.111795
0.060938,0.674259,0.632830,0.778854,0.233285,0.582207
0.393031,-0.431627,0.727102,0.830835,0.327993,0.449594
-0.437889,0.171557,0.436301,0.521387,0.843228,0.130852
0.560299,-0.575593,0.494477,0.392100,-0.097027,-0.914792
0.009873,0.099957,-0.836140,-0.337675,0.939611,0.055743
-0.187197,-0.083634,0.778482,0.859949,0.101122,0.500263
-0.132003,-0.916987,0.546755,-0.536132,0.774829,-0.334965
-0.091920,0.336277,0.280730,0.317572,-0.913720,0.253504
-0.448535,-0.468607,0.806183,-0.633022,0.770303,-0.076926
-0.235257,-0.013564,0.911792,-0.194785,0.891373,-0.409283
-0.187001,0.155649,0.082753,0.855204,0.009143,0.518211
0.207870,0.012800,0.530497,0.826356,-0.508033,-0.242980
0.147536,-0.282401,0.887687,0.524134,-0.834050,0.172175
0.047737,-0.809108,0.665011,0.707480,0.313177,-0.633555
-0.531818,-0.542248,0.804568,0.974698,-0.162915,-0.153044
0.164866,-0.753797,0.693261,0.640630,-0.607927,0.469061
0.075039,0.034031,-0.749608,-0.187347,0.982168,0.015726
0.565383,-0.443422,0.614500,-0.177534,-0.429595,0.885398
-0.671699,0.226039,0.900760,0.985266,0.167141,0.036269
0.103268,0.022874,0.715278,0.797300,-0.005118,0.603562
-0.250874,-0.377624,0.544820,0.134505,-0.291623,0.947029
-0.129306,-0.662751,0.786542,0.512408,0.843430,0.161442
0.352752,0.262349,0.369715,0.796727,-0.551017,0.248206
0.239639,0.159252,0.852733,-0.647208,-0.644792,0.406651
-0.188630,0.396465,0.759375,-0.499871,0.408859,-0.763520
-0.019536,-0.741683,0.662817,0.878522,0.267265,0.395940
-0.150289,-0.155362,0.398650,0.709414,-0.372724,0.598171
0.195820,0.010249,0.775983,0.143512,0.028812,0.989229
-0.289075,0.465005,0.618477,0.549799,-0.153520,0.821068
-0.171411,-0.155873,0.905392,0.007668,0.773955,0.633195
0.041445,0.798969,0.670740,-0.131187,-0.566025,0.813883
0.119082,-0.139264,0.856024,0.452003,0.792893,-0.408673
0.183798,0.495768,0.676393,-0.302494,0.929968,-0.208944
-0.084926,-0.068779,0.300690,0.917977,-0.226783,0.325403
0.383734,0.157754,-0.005699,0.604228,0.456929,-0.652782
-0.492634,-0.910547,0.487940,-0.464205,0.290626,-0.836690
0.340112,0.201396,0.607872,0.903648,-0.256103,0.343266
-0.035996,-0.109298,0.762117,0.786300,-0.205627,-0.582624
0.143997,0.236845,0.034512,0.773895,0.525008,-0.354194
-0.291603,0.024148,0.840680,0.942455,0.293856,0.159460
0.338483,-0.338699,0.743650,0.658220,-0.285614,-0.696543
0.471314,-0.093581,0.739505,-0.437856,0.806931,-0.396414
0.045518,0.049907,-0.220131,-0.007026,-0.973884,0.226937
0.296940,-0.026667,0.619528,-0.543125,0.793544,0.274415
-0.109420,0.002151,0.474226,-0.731719,-0.640098,-0.234224
-0.259357,0.110987,0.725914,-0.161293,-0.961388,0.222976
0.517773,-0.028739,0.379588,-0.640980,0.543728,0.541761
-0.275929,-0.293367,0.832589,-0.309563,-0.847896,0.430399
-0.066163,-0.750386,0.466257,0.409881,0.769888,0.489153
0.062315,-0.640372,0.359308,0.677202,0.545558,0.493724
0.116105,-0.022300,0.461214,0.454073,0.790927,-0.410186
0.448843,-0.648883,0.482576,0.236391,-0.698481,-0.675458
0.229414,0.322569,0.603392,0.669312,0.742500,-0.026742
0.181917,-0.664121,0.624312,0.502625,-0.794953,-0.339731
-0.410475,0.349730,0.391656,-0.046565,-0.940427,0.336792
-0.260958,-0.839074,0.670298,-0.151100,-0.987732,0.039431
0.239330,0.088767,0.780311,-0.714051,0.539479,0.446199
-0.467804,0.379792,0.400981,0.702335,-0.039674,0.710740
0.139053,-0.315077,0.715324,-0.089502,0.867195,0.489860
0.397329,-0.220938,0.803090,-0.753203,-0.599879,-0.269872
0.118408,0.387219,0.675601,0.900897,0.134988,0.412508
0.072286,0.058833,-0.255146,0.335294,0.937748,-0.090589
0.068466,-0.041076,0.815706,-0.068534,0.976155,-0.205973
-0.459545,0.076653,0.880678,-0.149203,-0.798771,0.582841
-0.654649,0.215295,0.929041,-0.408928,0.636485,0.653961
-0.138463,0.310997,0.220375,-0.468885,0.720685,-0.510647
-0.329944,-0.024595,0.245989,0.901217,0.222083,0.372139
-0.162030,0.432232,0.680248,0.490515,-0.172876,0.854113
-0.721220,0.542949,0.575675,-0.127297,-0.985172,0.115032
-0.365898,0.150518,0.232077,0.511304,-0.833177,0.210676
0.134362,-0.637758,0.810084,0.997082,-0.057953,-0.049681
-0.127986,-0.112645,0.381798,-0.764715,0.557720,-0.322737
-0.312641,0.207071,0.938868,0.155957,0.979304,0.129000
0.211466,0.454229,0.238660,-0.489354,0.868186,-0.082374
-0.304636,0.302867,0.809413,0.915320,-0.340385,-0.215237
-0.186158,-0.108213,0.831690,0.647573,0.729126,0.221412
-0.297277,-0.318425,0.457206,0.577938,-0.801117,-0.155558
-0.912616,0.723225,0.578190,-0.376714,-0.924265,0.061813
-0.344269,-0.149976,0.849381,0.180421,-0.906134,0.382583
-0.538924,0.719017,0.732938,-0.139929,0.848000,0.511191
0.075629,-0.046400,0.075287,-0.721450,0.534678,-0.440033
-0.081303,-0.826354,0.716848,0.275774,-0.894837,0.351021
0.230341,-0.327382,0.517119,0.139112,0.502012,-0.853599
-0.195708,0.577984,0.660455,0.706590,0.657176,-0.262393
0.033102,0.054880,-0.867833,0.724604,-0.687818,0.043065
-0.695771,0.850200,0.609212,-0.732047,0.590196,-0.340260
0.446849,-0.106779,0.785796,0.693430,0.437408,-0.572563
0.167760,-0.190175,0.787701,-0.193843,0.946276,0.258818
-0.208236,0.342334,0.774505,-0.292751,0.045480,-0.955107
0.289384,-0.069449,0.266041,0.336425,0.806380,0.486383
0.671418,-0.439788,0.506529,0.007969,0.316134,0.948681
0.007373,0.191450,0.097457,0.149481,-0.770704,0.619412
-0.268570,-0.852750,0.631215,-0.198981,-0.969666,0.141963
-0.143126,-0.153387,0.893660,-0.149119,0.921804,0.357828
-0.351713,0.223265,0.918938,-0.388319,-0.362857,0.847079
0.105571,-0.086089,0.527175,0.901909,-0.418277,-0.107721
-0.056725,0.058259,0.964071,0.863935,-0.499662,-0.062884
0.271323,0.382693,0.691691,-0.448222,-0.755250,0.478220
0.237335,0.127181,0.598577,0.940943,-0.067947,-0.331677
0.029282,0.642858,0.720962,0.472334,-0.700386,0.535127
0.045096,0.073625,0.388898,0.536086,0.655255,-0.532214
-0.278879,0.609194,0.620046,0.835350,0.176509,0.520610
0.052034,0.666289,0.726264,-0.433532,0.901129,0.004030
0.766302,-0.316607,0.433955,0.389039,0.397592,0.831005
-0.061978,0.303951,0.197443,0.361005,-0.671234,0.647396
-0.397104,0.477724,0.459462,0.737199,0.673981,0.047833
0.110655,0.525639,0.334075,0.788815,0.387268,0.477277
0.291378,-0.777356,0.736732,-0.527572,-0.675903,-0.514609
-0.215735,0.118415,0.627345,-0.313144,-0.920227,-0.234782
0.350364,-0.354862,0.569794,0.676153,0.503988,-0.537413
-0.237420,0.148445,0.139390,-0.420403,0.843483,-0.334362
0.306687,-0.259608,0.654208,0.689619,-0.133670,-0.711729
0.011390,0.042989,-0.594006,-0.058604,0.996728,-0.055673
0.219836,-0.557454,0.562571,0.958132,0.257507,0.125189
-0.155738,0.429650,0.678145,-0.664891,-0.016866,-0.746750
0.107706,-0.773531,0.419601,-0.395865,0.497159,0.772090
-0.234246,-0.184469,0.706410,-0.488072,-0.481870,-0.727727
-0.382779,0.107034,0.950098,0.618244,0.572838,-0.538173
-0.272334,-0.422414,0.712277,-0.211894,-0.800320,0.560882
-0.087707,-0.639925,0.496259,0.545099,0.489401,-0.680701
0.423591,-0.238216,0.773652,-0.799205,0.531031,-0.281561
0.172085,-0.400704,0.674641,0.775807,-0.546717,-0.314998
-0.403761,-0.287565,0.823904,-0.499931,0.095680,-0.860764
0.154333,-0.050863,0.829405,-0.530799,-0.621602,0.576076
-0.228347,-0.125779,0.421643,0.820574,0.335866,0.462442
-0.572911,0.785995,0.533697,0.798459,0.467225,-0.379690
-0.499993,0.584392,0.725579,0.985305,-0.057870,0.160702
-0.641139,-0.471731,0.782703,0.932337,-0.271940,0.238319
0.450557,-0.221002,0.829938,-0.203478,0.878614,-0.432012
0.600635,-0.635016,0.584315,-0.711874,0.657268,0.247453
-0.496735,0.210769,0.911289,-0.045033,-0.956633,-0.287795
0.139840,-0.381354,0.214600,0.585668,0.501708,0.636618
0.045265,-0.540239,0.121364,-0.063545,0.716858,0.694318
-0.188012,0.195466,0.153377,-0.283071,0.768855,-0.573353
-0.699086,-0.303345,0.749958,-0.660777,0.172561,0.730477
0.356207,0.076590,0.839751,-0.358086,0.858065,-0.368102
0.354381,-0.437652,0.777400,-0.483134,-0.145094,0.863440
-0.291125,0.183703,0.924728,0.407164,0.869137,-0.280745
0.124503,-0.144173,0.884624,0.806063,0.585186,0.088423
-0.427412,0.180069,0.367079,-0.818477,0.574088,0.022749
-0.254610,-0.208601,0.587926,-0.311270,-0.540616,0.781566
-0.506987,-0.516075,0.831797,-0.378205,0.925516,-0.019510
-0.363145,0.202894,0.568727,0.766857,0.578403,-0.278173
-0.482803,-0.649680,0.745082,0.848094,0.411308,-0.334010
0.551985,-0.559334,0.677170,-0.058801,0.148859,-0.987109
0.287951,-0.027751,0.625288,0.307296,-0.951493,-0.015195
0.562743,-0.213670,0.669978,0.815731,0.577620,-0.030629
-0.183883,0.458086,0.794893,-0.275226,0.352804,-0.894304
0.150401,-0.467236,0.450700,0.352733,0.578275,0.735648
-0.185821,-0.046369,0.691630,0.932858,-0.264727,0.244327
0.061893,-0.126481,0.142559,0.943427,-0.281195,-0.175713
0.685575,-0.483590,0.491673,0.861176,0.367804,-0.350851
0.035209,0.291901,0.420089,0.833952,-0.191456,0.517560
-0.331292,0.161930,0.255299,0.218610,-0.940982,0.258386
-0.320366,-0.445558,0.493501,0.946409,0.138074,0.291969
-0.169698,-0.114526,0.664234,-0.544248,-0.168647,-0.821798
-0.089224,-0.499402,0.077481,-0.095987,0.212062,0.972531
-0.705883,0.285780,0.851133,0.473371,0.164383,0.865389
-0.600382,0.146277,0.799570,0.462220,0.884569,0.062379
0.247672,-0.426718,0.782124,-0.692469,-0.021052,-0.721140
0.576956,-0.657013,0.689665,0.987914,0.137276,0.071977
0.166608,-0.132665,0.087873,0.013671,-0.763998,0.645074
0.059674,-0.718921,0.723704,-0.319853,0.592539,-0.739318
-0.073831,0.258173,0.184476,0.967065,0.204907,0.150989
0.042540,0.323748,0.454388,-0.657075,0.152766,-0.738183
-0.004677,0.148763,0.774231,0.802356,0.400863,0.442191
-0.541901,0.488819,0.760167,-0.798595,0.584037,-0.145418
0.357415,-0.368474,0.576574,0.666378,0.497521,-0.555350
-0.301911,-0.372587,0.468771,0.913576,0.260096,0.312616
0.245481,-0.225943,0.856131,0.950018,0.274070,-0.149505
0.120430,-0.290276,0.898536,-0.025212,-0.546978,0.836767
0.506172,-0.223010,0.561231,0.785373,0.384523,-0.485110
0.049029,-0.676299,0.367856,0.923275,0.360295,0.133236
-0.052287,-0.630330,0.624495,-0.609511,-0.310692,-0.729361
0.154193,0.357030,0.724725,0.577286,-0.410591,-0.705801
-0.657515,0.598131,0.741456,-0.810166,0.510097,-0.288844
0.488421,-0.196869,0.545171,0.889452,0.334299,0.311638
-0.305450,-0.604380,0.714699,0.340542,0.370670,0.864080
0.556873,-0.085930,0.423624,0.483007,0.796884,0.362877
-0.572630,-0.017422,0.775389,0.186919,0.271234,0.944189
-0.098914,-0.143854,-0.015816,0.357042,0.846564,-0.394779
-0.064618,-0.364745,0.773439,0.972150,-0.212884,-0.098008
-0.165625,0.649138,0.582532,-0.732623,-0.634351,0.246702
0.231942,0.424199,0.168173,0.577383,0.493067,-0.650780
-0.128773,0.407016,0.744884,-0.291906,-0.526064,-0.798779
-0.034591,-0.682388,0.432979,0.022727,0.630764,0.775642
0.348595,0.177455,0.216109,0.901946,-0.097921,-0.420600
0.104644,0.021407,-0.102043,0.168191,0.398514,0.901609
-0.185737,-0.055103,0.762178,0.839581,0.502134,0.207279
0.337809,-0.048185,-0.127383,0.809529,-0.335747,0.481597
0.512914,-0.604890,0.464124,-0.359039,0.726239,0.586232
0.032484,0.083634,0.790428,0.026906,0.909824,0.414122
-0.146693,0.646716,0.616861,-0.662030,0.443427,0.604225
0.039254,0.280871,0.422862,0.970049,-0.052048,0.237269
-0.182928,-0.040120,0.895976,0.667010,0.653617,0.357608
-0.068494,0.369048,0.258712,0.787584,-0.615183,0.035522
-0.572041,0.138977,0.868732,0.923407,0.383793,0.004770
0.271800,-0.674960,0.710235,0.331714,0.940159,0.077893
-0.119110,0.530930,0.606607,0.272118,0.880053,-0.389176
0.117874,-0.799480,0.429581,-0.380219,0.453011,0.806359
-0.197815,-0.036996,0.736184,-0.452463,0.889396,0.065208
0.249667,-0.167222,0.780783,-0.398639,-0.914476,0.069435
0.040602,0.505140,0.433558,-0.686101,-0.639135,-0.347524
-0.516565,0.591947,0.745753,0.894633,0.011827,0.446646
0.146159,0.440362,0.710768,0.088550,0.364075,0.927151
-0.372161,0.151505,0.704658,0.255785,0.865606,0.430465
0.248487,-0.463124,0.422496,0.265798,0.710384,0.651694
-0.658750,0.601000,0.735071,0.842148,0.100923,0.529717
0.103605,0.569218,0.549970,0.704314,-0.564236,0.430789
-0.464405,-0.596378,0.769370,0.484107,0.639629,-0.597089
0.010604,-0.790012,0.735955,-0.675188,0.734878,0.063844
-0.060574,0.280137,0.183897,0.074613,-0.748054,0.659430
0.024788,-0.457226,0.295708,0.584394,0.598200,0.548307
-0.413733,-0.612318,0.515184,-0.377447,0.514472,0.769969
0.060433,0.600937,0.711256,0.121355,0.347042,0.929965
-0.351404,0.409790,0.714136,0.985516,0.169080,-0.013054
0.896184,-0.377242,0.408249,0.503754,0.507694,0.698913
-0.501987,-0.301687,0.653187,-0.285968,-0.831558,-0.476165
-0.190146,0.769354,0.727773,-0.214618,0.233421,0.948395
0.005238,-0.414667,0.385500,0.593563,0.734963,-0.327891
-0.641448,0.308542,0.818541,0.965301,-0.210302,-0.154813
0.477887,-0.388176,0.599019,0.531307,0.725169,-0.437998
-0.064253,0.028962,0.320620,-0.575684,0.704678,-0.414749
-0.158771,-0.685002,0.469914,-0.775780,0.628644,-0.054505
-0.320085,-0.592681,0.719194,0.453436,0.398070,0.797456
0.243431,-0.413647,0.832772,0.593744,0.800971,-0.076903
-0.367358,0.574030,0.733731,0.954448,-0.096365,-0.282389
-0.435164,0.344757,0.382910,-0.590624,-0.806744,-0.018099
0.271772,0.506798,0.661567,-0.541964,0.328940,-0.773352
-0.757875,0.854503,0.525865,-0.381020,0.920582,-0.085749
-0.429182,-0.399843,0.676332,0.878673,-0.405415,0.252135
0.353904,-0.119690,0.757866,-0.086911,0.195418,0.976861
0.043186,-0.459266,0.819653,0.156344,-0.971818,-0.176427
-0.013862,0.008176,0.160021,0.854610,-0.210133,0.474853
-0.268711,0.265952,0.845221,0.912750,0.126296,-0.388507
0.064758,-0.191768,0.150589,0.510640,0.588689,0.626651
0.704113,-0.263880,0.445550,0.459218,0.023141,0.888022
0.529795,-0.058132,0.412836,-0.231412,0.820536,0.522656
-0.302304,0.294706,0.840589,-0.307973,0.704666,0.639217
-0.070686,-0.585188,0.618157,-0.788403,-0.323758,-0.523070
0.148406,0.053158,0.794953,-0.664000,-0.637337,-0.391033
0.192506,0.226358,0.889637,-0.687736,-0.671739,-0.275294
-0.074983,-0.674386,0.631459,-0.615074,0.133086,-0.777156
0.382891,0.232797,0.429033,-0.551560,0.829213,-0.090489
0.560945,-0.561790,0.677292,0.122068,-0.090143,0.988420
0.053888,0.129190,0.874644,-0.431850,-0.830019,0.352950
0.487943,-0.420724,0.599720,-0.464501,-0.652230,0.599028
-0.560552,0.689561,0.711088,-0.536870,0.711904,0.452729
0.286519,-0.631764,0.690807,-0.302523,0.062398,0.951097
-0.048945,-0.851187,0.561078,0.244858,0.867201,0.433598
-0.178911,0.655355,0.751192,-0.397308,0.401048,0.825413
-0.004059,0.285876,0.206753,-0.622134,-0.680346,0.387399
0.023159,0.068875,-0.301681,0.080565,-0.357963,0.930254
-0.070320,0.043945,0.873577,-0.560197,0.818361,0.128314
0.866494,-0.376731,0.466623,0.608762,-0.159824,0.777088
-0.595747,0.139742,0.896296,-0.264952,0.525384,0.808562
-0.129166,0.099224,0.768624,0.836248,0.529901,0.141048
0.338567,0.257886,0.665346,-0.453110,0.699795,-0.552249
-0.224415,0.018283,0.977876,0.986674,0.109086,0.120730
-0.438254,0.155904,0.878331,-0.109027,-0.406239,-0.907239
0.507408,-0.001323,0.375291,0.965642,0.190420,-0.176850
0.219808,0.113506,0.257356,0.690725,0.196417,-0.695930
-0.459292,-0.706075,0.744579,-0.381112,-0.905830,-0.185002
0.065011,0.073912,-0.987216,0.256678,-0.477594,0.840250
0.026811,-0.317404,0.031907,-0.365457,0.607576,0.705190
0.105206,0.195913,-0.015054,-0.624934,0.767597,0.142311
-0.295788,0.507500,0.773164,-0.691709,-0.239041,0.681467
0.076022,0.090680,-0.634719,0.908693,-0.400582,-0.117519
-0.310282,-0.314343,0.846836,-0.186652,-0.889162,0.417793
-0.452635,-0.747007,0.683661,0.681875,0.731428,0.007716
-0.551143,0.553406,0.643069,-0.696029,-0.474288,-0.539068
-0.231718,0.109106,0.824437,0.209883,0.942398,0.260450
-0.102172,0.146501,-0.001051,-0.772566,0.344081,-0.533619
-0.602770,-0.237771,0.761188,0.869431,-0.352170,-0.346506
0.246970,-0.366881,0.809124,0.950416,0.208576,-0.230664
-0.053664,-0.000366,0.260159,0.794498,-0.606802,0.023757
0.555749,-0.231586,0.628655,0.980539,0.128880,0.148099
0.402076,0.108022,0.578296,0.461578,0.067817,0.884504
0.067933,-0.059375,0.842295,0.038632,0.924704,0.378721
-0.176748,-0.375744,0.779930,0.738518,0.668812,-0.085332
0.009873,-0.301178,0.484710,0.724827,-0.286512,-0.626527
0.084055,0.050449,0.655731,0.881515,0.452315,-0.135434
-0.228628,-0.861134,0.657804,0.064746,-0.939787,0.335572
0.042034,-0.019558,0.078624,0.965576,0.056305,0.253954
0.271014,-0.474887,0.509561,0.800421,0.369163,0.472277
-0.124475,-0.244051,0.433360,-0.668095,0.420756,-0.613688
0.949356,-0.237229,0.491642,-0.046533,-0.194489,0.979800
-0.412300,0.178539,0.267854,-0.267014,-0.929296,0.255171
-0.388762,-0.220715,0.904798,0.773452,0.631079,0.059255
-0.553979,-0.638969,0.819638,0.935677,0.033064,0.351305
0.376599,-0.720229,0.740648,0.550793,0.819260,0.159499
-0.250509,0.174012,0.913057,0.281700,-0.616539,0.735203
0.074870,0.019334,-0.099362,0.854358,0.337531,0.395153
0.551451,-0.240543,0.645111,0.966410,0.166500,0.195778
-0.265733,-0.011397,0.168904,0.873212,0.029915,0.486421
-0.352387,0.130369,0.866172,0.874163,0.484554,-0.032340
-0.509908,-0.643783,0.750872,0.858449,0.043649,0.511038
-0.377498,-0.634442,0.533316,-0.466055,0.511563,0.721870
-0.449602,0.255495,0.793750,0.792711,0.147604,-0.591458
-0.624791,0.106300,0.881546,0.823168,0.134303,0.551686
-0.168687,0.054338,0.819104,-0.656300,0.568231,-0.496371
-0.504038,-0.614135,0.778802,0.976140,0.211092,-0.050899
0.143941,0.387474,0.081519,0.724147,0.601160,-0.337962
0.177338,-0.093741,-0.127444,0.342127,0.938556,0.045403
-0.010913,0.295535,0.020662,-0.202676,-0.925042,0.321278
0.144895,-0.204808,0.843057,0.505649,0.862619,0.014396
0.184529,0.241883,0.780112,0.833709,0.227519,-0.503155
-0.045995,0.191578,0.170382,0.029512,0.563719,0.825439
0.311462,-0.172227,0.303113,0.344967,0.655037,0.672253
-0.183012,0.470168,0.728306,0.340874,0.832419,0.436902
-0.429968,0.234391,0.889835,-0.664062,-0.069932,0.744400
0.115627,0.166425,-0.067866,-0.866643,0.350609,0.354969
-0.056500,0.100882,0.799052,-0.434752,0.775633,0.457585
0.323259,0.169167,0.418077,0.062694,-0.399560,0.914561
-0.377302,-0.034764,0.842524,-0.086377,0.663707,0.742989
-0.213292,0.133270,0.627847,-0.321246,0.946555,-0.028891
0.367021,-0.708944,0.737174,-0.216147,-0.961069,-0.172125
0.024676,0.048504,0.523503,0.451982,-0.613978,0.647104
-0.039984,-0.593637,0.597845,0.512291,0.599184,0.615254
0.809362,-0.492325,0.447805,-0.513471,0.014816,-0.857979
0.059674,-0.392798,0.262613,-0.146439,0.601403,0.785411
-0.402132,-0.761257,0.570373,-0.533878,0.594749,0.601039
-0.624089,-0.082806,0.788493,0.650188,0.281604,0.705659
-0.176523,-0.184979,0.363345,-0.876158,0.448030,-0.177809
0.547379,-0.136107,0.592421,-0.381732,0.284773,0.879309
-0.448450,0.053095,0.743833,0.025889,0.765121,0.643365
0.121638,-0.775188,0.424370,-0.395865,0.497159,0.772090
-0.003160,-0.313802,0.820095,-0.252256,0.962883,0.096040
-0.282811,-0.340994,0.396608,-0.851136,0.174436,-0.495117
-0.142367,-0.563862,0.446175,0.638154,-0.341699,0.689928
0.007823,0.059725,-0.483353,0.613941,-0.789034,0.022414
-0.413395,0.177359,0.890887,-0.613504,0.184805,-0.767763
0.356544,0.292316,0.700392,0.819203,-0.389759,0.420707
0.018946,-0.774647,0.661354,-0.566853,-0.584170,0.580881
-0.326601,-0.725903,0.413095,0.448601,-0.732755,-0.511691
-0.310422,-0.557900,0.723918,-0.615678,0.711550,0.338579
-0.466877,0.651529,0.771686,-0.597094,0.666441,0.446471
0.552407,-0.708370,0.699934,0.447398,-0.765192,-0.462943
0.102257,-0.021566,-0.085724,-0.349678,-0.275627,-0.895408
0.140458,0.187178,-0.004282,-0.823862,0.420030,0.380562
-0.284019,0.215837,0.833031,0.329359,0.445883,-0.832293
0.064843,-0.172131,0.132548,0.830084,0.387305,0.401192
-0.250930,-0.018505,0.591415,0.204097,0.526033,0.825611
-0.051894,-0.544575,0.369730,0.656013,-0.512205,-0.554339
-0.270677,0.783636,0.628731,0.393511,-0.282547,0.874824
0.236802,-0.480402,0.789331,-0.353011,-0.603788,0.714719
0.088465,0.614900,0.572186,0.983597,0.111842,0.141518
0.098605,-0.644579,0.781438,0.947771,0.061205,-0.313024
0.107313,-0.220747,-0.025065,0.622925,-0.727845,-0.286718
-0.009958,0.202321,0.130735,0.925016,-0.025389,0.379078
0.146862,-0.005881,0.678968,0.811543,0.518336,-0.269675
0.478449,-0.328754,0.658657,-0.810669,-0.301331,0.502011
-0.699535,0.487033,0.788310,0.805832,0.534949,0.253898
0.149137,-0.440362,0.871596,0.957181,-0.271986,0.099138
0.242392,0.407049,0.152311,0.594101,0.530915,-0.604295
-0.393424,0.195881,0.359399,-0.081039,0.795276,0.600807
0.371403,0.268215,0.588322,-0.619489,0.709829,-0.335226
0.065124,0.036294,-0.145225,0.680805,0.707385,-0.190030
-0.170962,-0.009484,0.705831,0.680967,-0.714254,0.161635
0.147788,-0.242361,0.569672,-0.534923,0.672678,0.511236
-0.550215,0.450818,0.467872,0.827647,0.201493,0.523833
0.173883,-0.183958,0.854272,-0.692232,0.546696,-0.471104
0.349353,-0.305449,0.708315,0.655253,-0.701351,-0.280626
0.496847,-0.293367,0.766384,-0.476792,0.832296,-0.282760
-0.681615,0.638235,0.548553,0.706437,0.701134,0.096735
-0.567153,-0.724309,0.698335,0.754323,0.139357,0.641543
-0.038917,0.299744,0.603788,-0.295788,0.531071,-0.794023
-0.653807,0.544288,0.538680,0.913745,0.390042,0.113743
-0.006138,0.141750,-0.954822,0.855354,-0.316542,-0.410086
0.089730,-0.765848,0.411434,0.865661,0.169827,-0.470946
-0.636588,0.001992,0.782870,-0.393806,-0.445840,-0.803830
0.192478,-0.404275,0.417331,0.400947,0.611577,0.682067
0.354381,0.098044,0.585717,0.247615,-0.033681,0.968273
0.068803,-0.043340,0.067760,0.959301,-0.277908,0.050077
0.096555,0.026348,0.012632,0.744442,0.482424,0.461599
-0.473758,0.432806,0.680446,0.550291,-0.573327,0.607022
0.003412,0.004448,0.859909,0.111240,0.993761,0.008024
-0.033973,-0.772574,0.562632,-0.553351,0.122037,-0.823960
-0.689620,-0.224573,0.737387,-0.748492,0.630654,0.205025
-0.230538,0.643942,0.732176,-0.117174,0.407247,0.905771
0.358988,-0.561375,0.710021,0.263744,-0.922739,0.281053
0.408283,-0.087588,0.772966,0.165319,-0.985338,-0.042172
-0.260537,-0.290976,0.804050,0.981546,-0.180120,-0.064213
-0.355757,-0.398122,0.818541,0.631054,0.752408,-0.188817
0.570945,-0.487383,0.621585,-0.035517,0.767569,0.639981
-0.175990,-0.805728,0.670572,0.978914,0.202603,-0.026044
0.305844,-0.478967,0.726386,0.974961,0.192948,-0.110555
-0.503926,-0.031895,0.777370,0.336884,-0.085493,-0.937657
-0.227139,0.101997,0.690731,0.914743,0.403891,0.010848
0.230622,-0.136681,0.741014,-0.137596,0.966345,0.217358
0.508110,-0.197411,0.695775,-0.646843,0.457060,-0.610484
0.267334,-0.669732,0.644060,0.649573,0.696300,0.305321
-0.169782,-0.113378,0.924622,0.962411,-0.048407,0.267250
-0.264497,-0.231841,0.836170,0.850947,0.256001,0.458642
0.180287,0.379505,0.645553,0.873027,0.192492,0.448074
0.183714,-0.401629,0.219126,0.694014,0.476879,0.539379
0.130683,-0.437525,0.792683,-0.325708,0.740525,0.587824
0.285816,-0.596474,0.687150,-0.235301,-0.094861,0.967282
0.024114,-0.399270,0.295357,0.584098,0.547863,0.598895
0.127902,0.194638,-0.009142,-0.676749,0.726672,0.118143
-0.160120,-0.749047,0.735650,0.884879,0.284623,0.368752
-0.073185,0.476162,0.651267,-0.514342,0.807266,0.289437
-0.439490,0.212745,0.517104,0.653093,0.704207,-0.278499
-0.116301,0.158455,0.597754,0.836748,0.214228,-0.503943
0.498027,-0.077961,0.445078,-0.196317,0.964930,0.174270
-0.222505,0.132027,0.097213,-0.473742,-0.755956,-0.451773
0.328849,0.514704,0.675845,-0.342444,-0.367119,0.864844
0.073157,0.092178,0.687897,0.777861,0.376735,-0.502994
-0.311069,0.234965,0.836840,0.164755,0.162410,-0.972871
0.160738,-0.173470,0.882003,0.008087,0.955923,0.293505
0.058045,-0.543554,0.325542,0.368494,0.424906,0.826842
-0.320281,0.343673,0.878346,-0.094525,-0.470177,0.877496
0.156721,-0.270000,0.874080,0.671589,0.717147,-0.186195
0.150738,-0.282306,0.060126,-0.586189,-0.043543,0.809003
0.050264,0.484897,0.486675,0.314407,0.791529,-0.524052
0.183630,0.462486,0.663335,0.259134,-0.776092,0.574918
-0.130711,-0.907263,0.550930,0.493041,-0.833195,0.250394
-0.287137,-0.338253,0.451919,-0.856468,0.076602,-0.510485
0.434069,0.090840,0.284402,0.974543,0.121733,-0.188275
0.333006,-0.415464,0.809002,0.877268,0.195675,-0.438307
-0.315478,0.167509,0.669719,-0.248491,-0.967453,0.047814
-0.150794,-0.647958,0.780646,0.177435,0.953611,0.243195
-0.170007,-0.670943,0.497219,0.728078,-0.668472,0.151812
-0.206410,-0.187306,0.852398,0.714580,-0.675991,-0.180033
-0.689311,0.686565,0.551052,0.754008,0.648858,-0.102253
-0.582995,0.789948,0.545856,0.692034,0.657797,-0.297308
-0.494628,0.596346,0.563958,0.894163,0.442625,0.067500
-0.180091,0.480211,0.770224,0.811992,-0.035068,-0.582614
-0.489404,0.514991,0.637066,0.456080,0.818161,0.350149
-0.022794,-0.437302,0.518445,0.891121,-0.290145,-0.348884
-0.185147,-0.122209,0.840299,-0.686432,-0.663961,-0.296591
0.683665,-0.410842,0.428164,0.594815,0.036883,-0.803016
0.087904,-0.126034,0.839568,0.976518,0.215415,0.002985
0.372105,-0.656311,0.633500,0.893071,-0.096142,0.439524
0.591815,-0.137383,0.433680,0.715036,0.363823,-0.596956
0.056557,0.160336,-0.106660,0.343195,0.638022,-0.689308
-0.019199,-0.233084,0.928553,0.319562,-0.755105,-0.572448
-0.170990,-0.620607,0.807494,-0.772710,-0.625058,-0.110555
-0.195147,-0.682835,0.743772,0.456194,0.713574,-0.531695
-0.070966,0.319668,0.203904,0.223971,-0.800506,0.555902
0.128099,-0.173470,0.840360,-0.690175,-0.516610,-0.506728
-0.209977,0.574796,0.757577,-0.651061,0.757075,0.054382
0.026782,0.680156,0.697298,-0.291822,0.907471,0.302218
-0.033889,-0.274208,0.355803,-0.825124,0.546918,0.141599
0.072343,0.678945,0.701138,0.216756,-0.949149,-0.228325
0.585467,-0.292730,0.604550,0.633576,0.773651,-0.006690
0.098016,0.172482,-0.081793,-0.092163,-0.933317,0.347025
-0.277952,-0.555541,0.762666,0.703681,-0.492960,0.511687
-0.486286,-0.751694,0.760670,0.990519,-0.083331,-0.109220
-0.091218,-0.280935,0.885081,0.941020,0.203475,0.270332
0.149249,-0.091764,0.880739,-0.376286,0.185083,-0.907829
-0.031979,-0.277460,0.349662,-0.825124,0.546918,0.141599
-0.236184,-0.338922,0.522178,-0.269024,0.667183,0.694617
0.508167,-0.124344,0.668485,0.948206,0.258716,-0.184313
0.985590,-0.426462,0.423685,-0.301856,-0.856621,-0.418430
0.557771,-0.236878,0.647427,0.966410,0.166500,0.195778
-0.491763,-0.541865,0.721312,-0.598975,-0.423632,-0.679533
-0.005772,-0.397868,0.545430,0.859991,-0.417016,-0.294130
-0.693159,0.534341,0.766887,0.857178,0.198699,0.475146
-0.585664,-0.233817,0.812461,0.947398,-0.319501,0.018894
0.110178,-0.533002,0.662085,-0.458169,-0.111381,-0.881859
0.318428,-0.670082,0.767389,0.021249,-0.774351,0.632399
0.455472,-0.090999,0.487605,-0.062061,0.998046,0.007186
0.333174,-0.321039,0.668454,-0.688312,-0.386982,0.613572
0.364268,-0.386678,0.473404,-0.112700,0.141141,0.983554
0.061079,-0.159507,0.120709,0.937573,0.209211,0.277828
-0.239751,0.576072,0.087903,-0.099342,-0.919612,0.380058
-0.608977,-0.292793,0.785385,0.957041,-0.285383,-0.051275
-0.189416,-0.318106,0.519694,-0.234400,0.829558,0.506843
-0.163855,0.083731,0.526322,0.644023,-0.699604,0.309497
0.653104,-0.288139,0.536836,0.543391,-0.815915,-0.197506
0.156131,-0.550823,0.807920,0.969620,0.028139,-0.242991
0.701332,-0.385594,0.449877,-0.070884,-0.027175,0.997114
0.232307,0.074166,0.565086,0.758037,-0.507281,-0.409933
-0.190877,-0.284760,0.804385,0.147012,0.072007,0.986510
-0.470781,0.265473,0.436728,0.188815,0.410940,0.891895
0.146974,-0.392670,0.850066,-0.723414,-0.118418,-0.680183
-0.009929,-0.128935,0.817383,-0.111744,-0.625293,0.772348
-0.366796,0.135630,0.217175,0.316073,-0.900309,0.299233
0.373313,0.194669,0.209084,0.891541,-0.024807,-0.452259
0.163097,-0.345777,0.405690,0.409361,0.623285,0.666288
-0.269385,0.115737,0.762453,0.993745,-0.064044,-0.091488
0.427187,-0.573171,0.607049,-0.406381,0.907529,-0.106047
-0.225847,0.210705,0.584376,0.945437,0.157951,0.284957
0.145710,0.095047,0.741928,0.781152,-0.602838,-0.162443
-0.063298,-0.807896,0.506834,-0.586638,0.550415,0.594053
-0.509571,-0.328594,0.800027,-0.783279,0.603983,-0.147235
0.039114,0.649775,0.672751,0.829315,-0.533117,0.167399
-0.062820,0.409981,0.256472,0.768672,-0.633320,0.089722
-0.205033,0.148923,0.551509,0.883248,0.256663,0.392425
-0.701221,0.553693,0.575645,-0.083531,-0.982379,0.167195
0.630268,-0.477119,0.733852,0.862023,-0.391287,0.322198
0.275929,-0.311252,0.714410,0.738482,-0.538702,-0.405519
0.580326,-0.469404,0.464947,-0.714764,-0.283202,0.639460
0.171439,0.000079,-0.089640,-0.247855,-0.028926,0.968365
0.401261,0.127500,0.408600,-0.053415,-0.169156,0.984141
0.757819,-0.483271,0.476664,-0.472437,0.772186,-0.424890
0.275620,0.399461,0.698091,0.925116,0.309931,0.219324
0.292642,-0.482028,0.565710,-0.339818,0.541272,0.769122
-0.403677,-0.468096,0.736260,0.836549,0.479342,-0.265361
0.804306,-0.386773,0.479895,-0.360749,0.905626,0.222938
-0.101246,-0.627843,0.698898,-0.564164,0.480899,0.671160
-0.037091,-0.393436,0.481098,-0.761392,0.468646,0.447944
-0.002486,-0.753637,0.454540,0.691066,0.463199,0.554865
0.609820,-0.307330,0.603483,-0.718374,-0.684810,-0.122371
-0.124278,0.038749,0.432187,0.253321,0.936475,0.242577
0.031193,0.090744,0.361365,0.880284,0.263630,-0.394461
0.214752,-0.532046,0.470615,0.037761,0.703138,0.710050
0.415558,0.029408,0.582928,0.758880,0.317615,0.568525
0.161384,-0.209972,0.517850,0.467698,0.872075,0.144027
-0.549120,-0.597335,0.682031,-0.448409,0.114178,-0.886506
-0.417581,-0.440011,0.748038,0.962538,0.244164,-0.117922
-0.284609,-0.464495,0.697588,0.079632,-0.154885,0.984718
0.695546,-0.345936,0.452590,0.139761,0.084181,0.986600
-0.641701,0.563192,0.532707,0.907680,0.417934,0.038049
-0.350000,-0.341696,0.620427,0.169046,0.696351,0.697509
0.009311,0.100053,-0.893233,-0.637394,0.714038,0.289619
0.347780,-0.765242,0.569733,-0.573459,0.100747,0.813016
-0.185400,0.565488,0.777949,-0.569134,-0.044739,-0.821027
0.064731,-0.099415,0.370400,0.990709,-0.104180,0.087419
-0.218320,-0.440107,0.783099,0.854723,0.134514,-0.501352
-0.171748,-0.885840,0.586722,0.258442,-0.953298,-0.156302
-0.604062,-0.804230,0.567112,0.074221,0.316650,0.945634
-0.236746,0.479382,0.727057,0.798358,0.381510,0.465913
0.155597,-0.255495,0.554374,0.041119,0.778849,0.625862
-0.462354,-0.053700,0.801825,-0.697462,0.593718,0.401305
-0.491903,-0.718284,0.766643,-0.596194,0.397150,0.697728
0.536480,-0.257121,0.551037,0.561233,0.827538,-0.014044
0.274216,-0.182684,0.120633,-0.672962,-0.171338,0.719559
-0.067174,0.059789,0.892090,0.572253,-0.345242,0.743865
-0.069815,-0.470807,0.743818,-0.616076,0.192113,-0.763899
0.218966,-0.607823,0.774749,0.332679,-0.134907,-0.933341
-0.178714,-0.235507,0.702205,-0.038164,0.269099,0.962356
-0.201101,0.191610,0.754743,-0.161507,-0.247169,0.955418
0.113857,-0.084081,0.533773,0.837096,-0.507418,-0.204444
-0.069955,-0.310805,0.832589,0.401514,-0.914214,-0.054769
0.341657,-0.772447,0.740526,-0.595774,0.435010,0.675145
-0.024170,-0.382980,0.477563,-0.761392,0.468646,0.447944
-0.326517,-0.035625,0.895839,0.372667,-0.275019,0.886275
-0.610129,0.162313,0.890277,-0.360778,0.679546,0.638793
-0.318175,-0.248864,0.788569,0.397853,0.631556,-0.665469
0.595607,-0.484482,0.734355,0.585763,-0.634357,0.504454
0.008047,0.631733,0.188621,0.351373,0.543884,-0.762055
-0.418845,0.055740,0.925658,0.526748,0.784812,-0.326506
-0.297698,0.379728,0.887870,0.428382,0.884875,0.182989
0.663329,-0.362641,0.650795,0.743296,0.391025,0.542781
-0.374999,0.182619,0.291578,0.164133,0.943621,-0.287471
-0.322163,0.041299,0.947935,-0.461703,-0.376148,0.803332
0.155878,-0.263019,0.915678,0.962106,-0.089019,0.257736
0.097257,-0.131772,0.441101,0.632286,0.741184,0.225522
-0.053551,-0.516840,0.654452,-0.510629,0.849696,0.131434
0.060826,-0.206879,0.003428,0.643937,-0.736319,-0.207799
0.498224,-0.522641,0.684118,-0.246432,-0.944114,0.218907
0.141525,0.072732,0.417224,0.852498,-0.064871,-0.518689
0.566507,-0.250777,0.756845,-0.629242,0.716832,-0.300342
0.374633,-0.180547,0.765332,-0.084657,0.302099,0.949510
-0.523475,-0.636642,0.752609,0.834589,-0.082858,0.544607
0.448731,-0.279021,0.817626,0.911550,-0.327583,-0.248528
0.093100,0.108469,0.421750,0.790247,0.431224,-0.435379
0.308344,-0.100308,0.287023,0.368824,0.741724,0.560191
-0.300001,-0.034860,0.911944,0.982448,0.080781,-0.168141
-0.218966,0.360186,0.753326,-0.444183,0.581726,0.681393
0.368369,-0.391555,0.598760,0.452780,0.628958,-0.631982
-0.104701,0.281923,0.632830,0.763261,-0.192121,0.616865
0.171214,-0.343992,0.843011,0.802243,0.346326,0.486277
-0.058017,-0.029154,0.276448,0.829735,-0.505303,0.237084
0.421176,-0.323015,0.802161,0.486064,0.601087,-0.634379
0.072539,-0.025966,0.101662,0.265498,-0.850070,0.454855
-0.374999,-0.321197,0.768075,-0.455807,0.563202,0.689234
-0.009789,-0.519358,0.553978,0.973087,-0.021566,0.229426
-0.264048,0.601957,0.616541,0.717921,0.289236,0.633192
-0.525722,-0.519900,0.810221,-0.715458,0.686039,0.132176
0.002570,0.252370,-0.327965,0.999221,0.038362,-0.009251
-0.161356,-0.163460,0.353822,-0.836922,0.492529,-0.238699
0.061641,0.016370,0.090554,0.236944,-0.921957,-0.306353
-0.101218,0.323940,0.214280,-0.459478,0.732503,-0.502315
0.195567,0.477119,0.260388,-0.063831,-0.979958,0.188701
0.069309,-0.051405,0.070365,0.895626,-0.379759,0.231597
0.437187,-0.655131,0.463972,0.066961,0.537391,0.840670
0.384352,-0.235539,0.709717,-0.595665,0.785400,0.168316
-0.114363,0.016530,0.469122,-0.597380,-0.770250,-0.223274
-0.232167,-0.646269,0.458867,-0.437484,-0.477080,0.762235
-0.507408,0.440904,0.818906,0.035694,-0.269937,0.962216
0.031614,0.602913,0.642993,-0.515619,-0.786926,-0.338947
-0.483112,-0.156096,0.693184,0.049048,0.844370,0.533510
0.590326,-0.590130,0.491170,-0.278993,-0.246761,-0.928047
0.566985,-0.660232,0.585488,-0.591458,-0.397098,-0.701777
-0.527548,-0.638618,0.770665,0.924979,-0.339344,0.171052
0.228740,-0.655418,0.527831,0.930371,-0.161376,-0.329193
0.318596,-0.410779,0.535434,0.682870,0.264028,-0.681159
-0.038130,0.039386,0.217785,0.968317,-0.214113,0.128524
0.252700,-0.820010,0.551418,-0.441956,-0.513001,-0.735870
-0.059028,0.530708,0.711210,0.188851,-0.272973,0.943303
0.028468,0.070564,-0.036783,0.675607,0.737260,0.001366
0.180119,0.053158,0.826769,0.336466,0.842051,-0.421592
0.004929,0.258141,-0.027732,-0.520834,0.703325,-0.483802
-0.492353,-0.727593,0.803486,0.619680,-0.226047,0.751598
0.094223,0.346446,0.459721,0.891024,-0.050433,-0.451147
0.433619,0.041491,0.311707,0.333077,0.692734,0.639672
-0.045799,0.144364,-0.010117,-0.467084,-0.879027,-0.095626
-0.111751,-0.315427,0.792043,-0.271223,-0.764695,0.584534
0.424856,-0.669095,0.677185,0.008308,0.673688,0.738969
0.004199,0.273443,0.447637,-0.698893,0.348020,-0.624845
-0.598331,-0.097948,0.804035,0.425372,0.778528,0.461468
0.183855,-0.188644,0.390239,0.859057,0.383097,-0.339498
0.275311,-0.336117,0.516525,0.655876,-0.089536,-0.749540
-0.352836,-0.548942,0.695638,0.042999,0.717764,0.694958
-0.133126,-0.838373,0.558960,0.489812,0.208056,0.846638
-0.580664,0.046464,0.889058,0.468950,0.879519,0.080816
-0.029732,0.669859,0.682808,-0.593783,0.338838,0.729802
-0.391430,-0.196104,0.846028,0.964221,0.179545,0.195043
-0.012879,0.529527,0.140563,-0.600976,-0.545077,0.584567
-0.003862,0.220236,0.203218,0.375007,-0.421678,0.825565
0.444742,-0.100212,0.787335,0.693430,0.437408,-0.572563
0.131216,-0.251988,0.885447,0.355070,0.803408,0.477976
-0.006390,-0.516808,0.538710,0.985151,-0.060892,0.160532
0.351263,-0.055932,0.882034,0.875667,0.263390,0.404762
-0.356375,-0.228844,0.844916,0.911890,-0.209929,-0.352683
0.284946,-0.350049,0.787396,-0.076101,-0.970483,0.228846
-0.521509,0.425538,0.812811,0.372237,-0.021673,0.927885
0.447860,-0.792275,0.706502,0.074053,-0.907669,0.413101
-0.276997,-0.856225,0.633820,-0.614841,-0.783329,-0.091469
-0.285367,-0.204966,0.853038,0.501769,0.297258,0.812321
0.158125,0.197475,0.910268,-0.328220,0.944396,0.019706
0.254666,0.111401,0.813009,0.900343,0.337052,-0.275280
0.298232,-0.357795,0.524326,0.716486,-0.061258,-0.694907
0.560552,-0.693164,0.676408,-0.603183,0.717635,0.348095
0.070320,-0.039578,0.062488,0.992741,-0.010388,-0.119826
0.557547,-0.271913,0.610203,0.902617,0.419020,-0.098511
0.244245,-0.045316,0.250667,-0.570554,-0.819108,-0.059407
-0.483758,0.544957,0.801719,0.963566,-0.251824,-0.090145
-0.194613,0.553309,0.613707,-0.321427,-0.926903,0.193741
-0.406626,-0.522897,0.739536,0.805821,0.258161,0.532922
0.027091,0.662049,0.196392,0.351373,0.543884,-0.762055
0.051360,-0.716881,0.770041,-0.279530,0.960066,0.011699
0.304524,-0.459202,0.694053,0.022392,-0.237952,0.971019
0.298765,0.150932,0.098036,0.890229,0.282781,-0.357109
-0.364212,0.576804,0.720398,0.577269,0.214643,-0.787838
0.859893,-0.282401,0.485548,0.527535,-0.339339,0.778817
0.345814,0.151729,0.748724,0.911897,0.407588,-0.048114
-0.264890,0.155809,0.171007,-0.715845,0.451383,-0.532748
0.291294,-0.247748,0.653050,-0.604297,0.527855,0.596820
-0.189219,-0.306661,0.434610,-0.319300,-0.379248,0.868457
0.165653,-0.364331,0.637889,0.737855,-0.557935,-0.379839
0.028833,0.092083,0.358073,0.880284,0.263630,-0.394461
0.421878,0.237706,0.372244,0.993525,0.047182,-0.103358
-0.023834,0.410619,0.060050,0.779101,0.449943,-0.436524
-0.139727,-0.750865,0.734005,0.357772,0.406090,0.840887
-0.627825,-0.596538,0.697573,-0.443457,-0.270078,-0.854637
0.312080,-0.146118,-0.090814,-0.742702,-0.291180,-0.603000
0.653077,-0.528221,0.682442,0.728917,-0.541211,0.419250
0.502128,-0.769641,0.631977,-0.659481,0.745268,0.098292
-0.067904,0.132091,-0.015329,-0.497082,-0.863412,-0.086190
0.006081,-0.229737,0.858614,-0.061592,-0.408542,0.910659
0.282081,-0.504057,0.442274,0.207987,0.644421,0.735842
0.190512,0.271849,0.660760,-0.421508,-0.760355,-0.494158
-0.190090,-0.608078,0.167472,-0.931980,0.164648,-0.322962
0.153856,0.518529,0.326685,0.738330,0.377127,0.559146
0.097398,0.582511,0.558716,0.960238,-0.174508,0.217922
-0.626280,0.162121,0.794786,-0.647650,-0.761920,-0.005176
0.108493,-0.269808,0.808088,0.136402,0.826604,0.546004
-0.355870,-0.242074,0.566350,-0.236812,0.865638,0.441124
0.064337,-0.290881,0.808438,0.086127,0.726641,0.681597
0.071247,-0.029441,0.479727,-0.066661,-0.945040,0.320089
-0.578417,-0.704385,0.684911,-0.204650,-0.610000,-0.765518
0.458955,-0.059024,0.572399,0.911084,0.378075,-0.164272
-0.361347,0.190270,0.684149,-0.195025,-0.968828,-0.152767
0.135795,0.050768,-0.097350,-0.209776,-0.350165,0.912896
0.024929,0.104899,0.803821,-0.119024,0.882040,0.455893
-0.754448,0.594816,0.581359,0.409942,0.901846,-0.136461
-0.307023,-0.813124,0.678496,0.628072,0.746880,0.218393
0.330169,0.009707,-0.042816,0.518124,-0.599128,0.610404
-0.003469,0.296014,-0.005988,0.259098,0.853231,-0.452620
-0.259245,0.441350,0.756800,0.782124,0.330987,0.527949
-0.552659,0.751694,0.557238,0.895499,0.422895,-0.138713
0.525582,-0.394870,0.713633,0.872150,-0.441302,0.211204
-0.320506,-0.631573,0.752960,0.641042,-0.765197,-0.059496
-0.167058,0.632338,0.159426,-0.094378,-0.949613,0.298879
0.056192,-0.402999,0.773027,-0.597385,-0.270434,-0.754981
0.351488,0.010568,0.648174,0.424460,-0.900642,-0.093160
0.121301,-0.100212,0.484207,0.925507,-0.201371,-0.320760
-0.023412,-0.273890,0.818800,-0.468864,0.500528,-0.727762
0.620859,-0.193905,0.771519,0.894426,-0.148651,0.421789
0.189921,0.315556,0.125463,-0.625538,-0.537120,0.565866
-0.696558,-0.616972,0.679075,-0.510089,0.053066,0.858483
0.378762,0.128552,0.262034,0.805260,0.568442,-0.168609
0.558277,-0.443709,0.674107,-0.614293,0.319041,0.721705
-0.262362,0.728581,0.641348,0.488980,-0.257452,-0.833437
-0.153407,0.152047,0.858660,0.725659,0.581272,0.368159
-0.650745,0.247716,0.689314,0.918079,-0.339985,0.203817
-0.370364,0.739069,0.616800,-0.477239,0.737741,-0.477473
0.088157,-0.694406,0.682305,0.523739,-0.136633,-0.840850
0.508532,-0.028293,0.382316,-0.640980,0.543728,0.541761
0.051950,0.268693,0.414177,0.980843,0.027967,-0.192780
0.934385,-0.433445,0.411632,0.321821,0.622741,0.713179
0.204331,-0.364075,0.849533,0.002519,0.174959,0.984572
-0.062034,0.268055,0.171631,0.179046,-0.557554,0.810602
-0.194303,-0.040949,0.811257,0.936269,-0.348902,-0.040846
0.141525,0.620670,0.720368,-0.134722,-0.381905,0.914330
-0.213207,0.203947,0.169270,-0.479952,0.716277,-0.506549
-0.026727,-0.392575,0.384571,0.978529,0.012261,0.205746
0.312697,-0.310615,0.738789,-0.693021,0.604685,0.392528
0.435866,-0.013150,0.573603,0.875024,0.449062,-0.180768
-0.027007,-0.346924,0.228984,-0.045607,0.749954,0.659915
0.011277,0.130784,-0.131162,0.273655,0.801979,-0.530983
-0.120908,0.527966,0.570114,-0.748683,-0.574987,-0.329945
-0.675182,-0.209079,0.702113,-0.677093,0.728783,0.102079
-0.559485,0.016625,0.772311,-0.132046,-0.359733,-0.923664
0.229387,-0.220843,0.621189,-0.705382,0.096141,0.702277
0.018974,0.055900,-0.307684,0.477546,0.877892,0.035433
-0.054225,0.189346,-0.999832,0.502001,-0.525663,-0.686785
-0.002037,-0.831104,0.543540,0.646002,0.757307,-0.095742
0.090712,0.553214,0.462631,-0.074358,0.967290,0.242529
0.036501,0.187338,0.785613,0.352037,0.544821,-0.761078
0.604595,-0.241436,0.784501,0.664101,-0.499146,0.556618
0.413452,0.214084,0.513294,0.858253,0.502676,0.103533
0.032400,-0.561503,0.685474,-0.134423,-0.289562,-0.947673
0.545777,-0.237101,0.494979,-0.333588,0.102820,0.937095
-0.282559,-0.488786,0.545628,-0.120685,-0.156906,0.980212
-0.497858,0.002151,0.780371,0.190711,-0.351470,-0.916568
0.075545,-0.129222,0.377257,0.996970,-0.042105,0.065399
-0.263037,-0.024914,0.934983,0.417156,0.210658,-0.884084
-0.548559,-0.535585,0.761051,0.603676,0.552634,-0.574605
0.601140,-0.186827,0.769340,0.915922,-0.182664,0.357380
-0.166720,-0.056059,0.660714,0.930258,-0.117539,0.347568
0.059983,-0.495098,0.065398,-0.249086,0.567937,0.784477
-0.027401,-0.640881,0.689253,0.039664,-0.636490,0.770265
0.683805,-0.325055,0.541407,0.792287,0.530354,0.301671
-0.204893,-0.858647,0.566213,0.257492,0.426124,0.867246
-0.370926,0.105663,0.908242,0.625037,0.703852,0.337522
0.974860,-0.198017,0.479285,0.104296,-0.400478,0.910352
-0.239948,-0.106046,0.437962,-0.631847,-0.582354,-0.511501
0.011193,0.248800,0.450258,-0.550223,0.185031,-0.814259
-0.165850,0.086185,0.535769,0.646067,-0.703468,0.296191
0.214808,-0.389292,0.077176,-0.609874,0.221469,0.760924
0.354465,-0.077355,0.742248,0.555346,0.699112,0.450369
-0.501285,-0.509635,0.795563,-0.737975,0.652245,-0.173120
0.331826,0.044679,0.826753,0.773421,-0.362031,0.520340
-0.309383,-0.191418,0.524875,0.934496,-0.007133,0.355903
0.209134,-0.578399,0.697557,-0.558811,-0.226308,-0.797819
0.033889,0.633199,0.713435,0.673549,-0.225005,0.704063
0.028411,0.051660,-0.534428,0.170921,-0.972121,0.160519
-0.544008,0.750036,0.762178,-0.552921,-0.540794,-0.633893
0.209865,0.411479,0.021119,0.904849,0.275039,-0.324963
0.397188,-0.713598,0.734614,-0.703352,-0.695018,-0.149151
0.150092,-0.207262,0.875071,0.952131,-0.124413,0.279228
0.319551,0.560482,0.678023,-0.329994,-0.199350,0.922694
0.145317,0.073912,0.820902,0.241228,0.967191,0.079685
-0.276688,0.469818,0.796889,0.942113,0.197732,0.270785
-0.369184,0.309530,0.863003,-0.257544,0.162600,0.952487
0.503504,-0.582384,0.633165,0.873581,0.426577,-0.234280
-0.259357,0.144109,0.633150,-0.718935,-0.619766,-0.314680
0.097229,0.001323,0.772844,0.926687,0.108011,-0.359978
-0.220819,-0.410045,0.776654,0.000353,-0.031069,0.999517
-0.380251,-0.221926,0.891725,0.773452,0.631079,0.059255
0.394997,0.096514,0.587042,0.461578,0.067817,0.884504
0.155878,-0.003841,0.269210,0.049483,0.699789,0.712634
-0.325618,-0.251032,0.870438,0.565312,0.795039,0.219851
-0.483814,-0.688063,0.733563,0.624200,0.748176,-0.224961
-0.069281,0.311411,0.205382,0.332120,-0.672309,0.661587
0.310703,-0.422159,0.779594,0.872506,0.281356,-0.399465
-0.353876,0.115355,0.885432,0.471824,0.369230,0.800657
-0.036670,0.075378,0.861936,0.897916,-0.099470,0.428780
-0.108493,-0.393946,0.738835,0.784336,-0.193238,0.589471
0.395250,-0.382374,0.474973,0.016121,0.005107,0.999857
0.104785,0.044169,0.664919,0.817431,0.540625,-0.198825
-0.379661,-0.288394,0.854302,0.858690,-0.230272,-0.457850
-0.361207,0.470934,0.675205,0.948708,0.192750,-0.250600
-0.071977,0.458883,0.679913,-0.232204,0.711417,-0.663301
-0.424238,-0.173151,0.805132,0.044703,0.964364,0.260776
0.338988,-0.509380,0.839934,0.723754,0.679035,0.122847
-0.003301,0.094218,-0.915617,-0.682324,0.656740,0.321133
0.143744,0.437652,0.709671,0.088550,0.364075,0.927151
-0.455304,-0.470552,0.783937,0.358163,-0.388388,-0.849043
-0.276828,0.143567,0.655472,-0.411931,-0.911201,-0.005134
0.016699,-0.228398,0.886163,-0.651589,0.631152,0.420807
0.338792,-0.598323,0.707142,0.664897,0.726187,-0.174827
-0.439911,0.727784,0.658779,-0.616629,0.641785,-0.455939
-0.156777,-0.419640,0.774216,0.490901,0.686933,0.535854
0.189585,-0.284824,0.795487,0.464401,0.130822,-0.875909
-0.373257,0.287533,0.911396,0.886396,-0.363434,-0.286736
0.240622,-0.567464,0.734538,-0.411858,0.884200,0.220370
0.113577,-0.153290,0.485410,0.763892,0.644460,-0.033750
0.409322,0.129764,0.325694,0.968347,0.229954,0.097083
-0.323259,0.641710,0.768304,-0.777781,0.436975,0.451784
-0.343707,-0.599567,0.562465,0.861760,-0.293153,-0.414042
0.016053,0.271052,0.776075,-0.057117,-0.793932,0.605318
-0.521621,0.695554,0.513904,-0.649761,-0.749149,0.128787
0.217954,0.326458,0.640311,-0.573196,-0.816852,0.064798
-0.266295,-0.585412,0.461884,0.231750,-0.713317,0.661415
-0.220623,-0.463506,0.767283,0.903614,-0.318464,0.286464
0.394688,-0.624463,0.604017,0.488182,0.482165,0.727458
-0.007626,0.047006,0.304454,0.191895,-0.908035,0.372355
-0.606393,-0.441987,0.782413,-0.548980,0.728156,-0.410378
