0.083912,-0.305624,0.857847,0.772999,0.029934,0.633701
0.351991,-0.178278,-0.118601,-0.772890,-0.302166,-0.557976
0.177067,-0.643435,-0.945357,0.981856,0.188772,0.018017
0.186825,0.196890,0.933762,-0.611830,0.697848,-0.372389
0.168072,-0.001980,0.830868,-0.529370,-0.839936,0.119482
-0.412698,-0.143079,0.687298,-0.215859,0.954581,0.205376
0.179359,-0.843933,0.409582,0.595775,0.774180,-0.213769
-0.394494,-0.315991,0.633614,-0.620085,0.430560,-0.655830
0.185980,-0.279654,0.443664,0.752528,-0.450680,-0.480198
-0.056476,-0.225098,0.545696,-0.646062,0.369350,-0.667971
-0.481751,0.169427,0.580959,-0.316344,0.927821,-0.197674
-0.516083,0.379289,0.645685,0.671154,0.522080,-0.526294
-0.380843,-0.139348,0.686037,-0.262209,0.923755,-0.279148
-0.033967,0.422891,0.759916,0.890933,-0.430816,-0.143650
0.025641,0.509704,0.643631,0.597501,0.117477,0.793216
0.478839,-0.958759,-0.926205,0.020425,-0.999433,0.026754
0.822300,-0.183768,0.482600,-0.494151,0.816459,0.298682
0.330443,-0.404359,-0.564148,0.213417,-0.968917,0.125108
-0.440948,-0.056483,0.662792,-0.076267,0.957133,0.279428
-0.414010,-0.176113,0.691678,0.893845,-0.448246,-0.010783
0.223659,-0.281285,0.355650,0.847897,-0.327534,0.416884
0.599520,-0.636768,-0.923079,-0.561849,0.487489,0.668342
0.092005,0.142590,0.809151,0.646493,0.315245,0.694742
0.085336,-0.166864,0.880504,0.854245,-0.341779,-0.391730
0.362592,-0.551059,-0.204563,-0.328795,-0.570222,-0.752822
-0.239877,0.190961,0.564854,-0.003545,0.995458,0.095139
-0.063093,0.073657,0.917090,0.885518,0.009972,0.464498
0.097859,-0.216172,0.424348,-0.264411,0.913195,-0.310100
0.216526,0.067175,0.674206,0.917680,-0.359955,0.168216
0.031772,-0.000575,0.895366,0.232850,0.246594,0.940730
0.271124,0.321137,0.815386,-0.302332,-0.644989,-0.701844
0.657306,-0.751292,-0.941870,-0.539260,-0.039760,-0.841200
0.670631,-0.629734,-0.944987,0.979033,0.029609,-0.201538
-0.262909,0.090510,0.652993,0.973490,0.176793,-0.145125
-0.703909,0.271723,0.468888,-0.487828,0.578764,-0.653496
0.159269,0.638507,0.653531,-0.680561,-0.561606,-0.470570
-0.422737,0.074503,0.700430,0.743629,-0.454952,0.489934
0.165647,-0.699375,-0.965966,0.836666,-0.431260,0.337647
0.325575,-0.292063,-0.993262,-0.137671,0.270899,0.952712
-0.664960,0.572592,0.576142,0.650653,0.418280,0.633792
0.096012,-0.541738,0.543355,-0.479342,0.034258,0.876959
0.084115,0.183969,0.422044,0.477427,0.875220,-0.077800
0.267645,-0.482033,-0.936166,-0.455141,0.409371,0.790735
0.580902,-0.395219,-0.948157,0.429794,0.700730,0.569433
0.400008,-0.113835,0.498577,0.536441,0.172889,0.826039
-0.619847,0.232671,0.468277,-0.102141,0.588743,0.801841
0.597850,-0.579464,-0.934402,0.161720,0.692982,0.702583
0.333734,-0.049528,0.870765,0.366609,-0.756744,0.541236
-0.054600,0.025985,0.895791,0.063022,0.331738,0.941264
-0.225681,-0.012374,0.680956,0.252140,-0.690852,0.677606
-0.416962,0.619717,0.699093,0.392482,0.777831,-0.490853
-0.248950,0.150505,0.539371,-0.230867,-0.951952,-0.201216
0.075616,-0.017201,0.701719,-0.696518,-0.223120,0.681968
-0.478019,-0.448283,0.658665,-0.745633,0.623963,0.233883
0.584251,-0.422833,-0.957225,-0.461187,0.331399,0.823093
0.226898,-0.011210,0.635215,0.815776,-0.355142,-0.456491
0.065728,-0.159586,0.568615,-0.217027,0.932620,0.288305
-0.128067,0.192427,0.532871,-0.579984,-0.652197,0.488116
-0.035242,-0.019533,0.731512,0.191463,-0.810599,0.553418
0.214335,-0.363877,0.455895,0.120051,0.327591,0.937162
0.810777,0.001443,0.818998,0.295029,-0.795099,0.529883
0.802038,-0.535243,-0.928428,0.602748,0.362640,0.710765
0.052791,0.133651,0.554600,0.867809,-0.398551,0.296758
0.293656,0.435529,0.549889,0.623257,0.548720,-0.557187
0.173428,0.103750,0.795944,-0.022777,-0.563738,0.825639
0.467911,-0.072132,0.548181,-0.607235,0.608315,-0.511096
0.307831,-0.366587,0.168366,-0.366481,-0.794370,-0.484425
0.309968,-0.306622,0.257983,0.762668,0.597417,0.247851
0.492021,-0.327790,-0.017807,0.882379,-0.422686,0.206747
0.349869,-0.398676,-0.988699,0.340343,0.646054,-0.683214
0.211839,-0.324742,0.591722,-0.279326,-0.473635,-0.835253
0.352855,-0.432089,-0.970487,0.574123,0.786276,0.228372
0.354505,-0.490435,-0.788761,0.999029,-0.005096,-0.043752
0.427399,-0.606313,-0.937335,0.470229,0.355947,0.807581
0.538083,-0.119078,0.265541,-0.642323,-0.760827,0.092540
-0.144749,0.411830,0.526887,0.249204,0.117670,0.961276
-0.105257,0.351935,0.721328,0.958102,0.211870,0.192748
0.284265,0.106327,0.877727,-0.262259,0.806694,-0.529590
0.770321,-0.259030,0.479780,0.139462,0.986035,-0.091029
-0.536794,-0.048867,0.682084,-0.725298,-0.248582,0.641989
0.306441,-0.102602,0.624407,0.461472,0.884463,0.069049
0.458608,-0.696918,-0.935395,-0.634183,-0.584569,0.506055
-0.532205,0.237100,0.672171,0.790763,0.018031,0.611856
0.490994,-0.895579,-0.931031,-0.250277,0.003580,-0.968168
-0.377254,-0.029343,0.749602,0.243442,-0.688905,-0.682748
0.020490,-0.430808,-0.849584,0.485400,-0.669370,-0.562433
0.673798,-0.630844,-0.913615,0.374107,-0.815836,-0.440971
0.221105,-0.426734,-0.944595,-0.535994,0.585112,0.608567
0.300658,-0.224365,0.345165,0.709672,-0.640157,0.294219
0.319527,-0.329424,-0.162098,0.121554,-0.877373,0.464157
0.568167,0.421990,0.851977,0.793250,0.433050,0.428044
0.048182,0.290105,0.752624,0.354230,0.755395,0.551271
-0.182488,0.029414,0.906499,0.960109,0.115007,0.254879
-0.451859,0.555431,0.714949,0.141548,-0.791549,0.594487
-0.260145,0.584772,0.615061,0.850894,0.524514,0.029398
-0.278140,-0.049886,0.604386,0.498773,0.770920,0.396115
0.562469,0.349114,0.829021,0.775180,0.470463,-0.421616
0.171823,-0.548696,-0.978748,0.750867,0.125843,0.648354
0.247108,-0.130038,0.532657,0.144581,-0.791240,0.594169
0.180700,-0.228055,-0.985884,-0.255240,0.798017,0.545913
0.393459,-0.792977,-0.923065,-0.573270,-0.628173,-0.526080
0.138994,0.105433,0.819996,0.976148,-0.074596,-0.203890
0.280376,0.370720,0.929856,0.065110,0.875330,0.479122
0.416964,0.336622,0.800734,0.752322,0.601991,0.267614
-0.385242,0.235830,0.613417,0.790631,-0.611274,0.035319
0.228949,-0.504780,-0.978873,0.974691,-0.037909,-0.220320
0.179398,-0.180909,0.852312,0.925797,0.355868,0.127507
0.438670,-0.500745,-0.223015,0.856482,-0.466209,0.221557
0.104812,0.248225,0.926389,-0.342720,0.530030,0.775636
0.202141,0.590380,0.742936,0.984708,0.026441,-0.172193
0.023111,0.233517,0.493911,0.845068,-0.025460,0.534053
0.489232,-0.992198,-0.939781,-0.178524,0.977621,0.111295
-0.252672,0.143653,0.882835,0.934985,-0.263735,-0.237165
-0.453063,-0.346011,0.624501,0.097770,0.944619,0.313266
0.692535,-0.533187,-0.942118,0.108497,-0.681198,0.724015
0.374780,0.233440,0.633971,0.333038,0.828361,0.450449
0.233419,-0.416643,0.186152,-0.183452,-0.948634,-0.257758
0.062785,-0.698109,-0.859449,0.828514,0.152618,-0.538769
0.554857,0.366278,0.906661,0.728823,-0.484501,0.483814
0.271235,-0.174207,0.165477,0.965614,-0.165234,-0.200716
0.229062,0.321134,0.830139,0.180998,0.935587,-0.303179
-0.729904,0.350482,0.565729,0.864054,-0.488943,-0.119771
0.035758,0.199409,0.802882,0.942497,0.235911,0.236741
0.237916,-0.192307,0.472480,0.797163,-0.510000,-0.323160
-0.140107,0.181435,0.774077,0.867297,0.175080,-0.465985
0.600677,-0.489148,-0.935169,-0.391777,-0.232674,-0.890154
0.426622,-0.438792,-0.973917,0.561354,-0.372549,-0.738978
0.109050,0.373782,0.575660,-0.718202,0.480241,0.503543
-0.461726,0.483816,0.556898,0.360752,0.888984,0.282073
0.679311,-0.695929,-0.912355,-0.775867,-0.431116,-0.460618
0.035682,-0.178528,0.585903,0.399207,0.900440,-0.172750
-0.064870,-0.194669,0.554678,0.106832,0.939472,0.325545
0.235378,-0.572383,-0.898178,0.025960,-0.999577,0.013147
0.111210,0.146414,0.909905,0.921450,-0.082161,0.379709
0.664195,-0.621756,-0.952934,0.146673,0.439181,-0.886345
-0.141525,0.191460,0.658430,0.884287,0.199182,-0.422330
0.380475,-0.329896,-0.272849,0.876498,-0.339830,0.340979
0.264628,0.186639,0.834334,0.040685,0.630817,0.774864
-0.053558,-0.454252,-0.040362,0.855885,0.491979,-0.159427
0.302799,-0.005147,0.272428,0.518314,0.843766,-0.139315
-0.043236,-0.218549,0.845279,-0.031328,0.068356,0.997169
0.139648,-0.353530,-0.854162,-0.040527,0.935774,0.350263
-0.482681,-0.247147,0.672449,0.919040,0.298887,-0.256968
0.404616,-0.634044,-0.714999,0.856171,-0.516561,0.011678
-0.009727,-0.196569,0.782033,0.014259,0.839937,0.542496
0.133107,0.413328,0.719364,0.649176,-0.732610,-0.204580
-0.020455,0.056987,0.358885,0.500909,0.865168,0.023984
0.242793,-0.463299,0.036304,0.170162,0.920842,-0.350850
-0.333045,0.346451,0.586156,0.848330,-0.408507,0.336836
0.397198,-0.395219,-0.562460,0.980767,0.169034,0.097593
-0.352915,0.149155,0.712423,-0.335176,-0.934406,0.120593
-0.595899,0.245823,0.463532,-0.267871,0.174956,-0.947436
-0.037991,-0.251629,0.529037,-0.687217,0.143774,-0.712082
0.002923,0.122538,0.474026,0.465128,0.656084,-0.594314
0.392448,0.129556,0.446306,-0.530267,0.846873,0.040275
0.608700,-0.535603,-0.948283,0.788828,-0.485710,-0.376613
0.231387,0.011926,0.912917,-0.542295,0.803926,0.244170
-0.408389,0.434666,0.477487,-0.395289,0.693375,0.602476
-0.430678,0.531701,0.694058,0.436520,0.893542,0.105037
0.074735,0.211689,0.456040,0.416196,-0.134294,0.899303
0.241019,-0.275425,0.306019,0.112368,0.993645,0.006592
0.246737,0.735611,0.818049,0.932924,-0.339046,0.121246
-0.062722,-0.060309,0.878274,0.382463,0.772368,-0.507119
-0.798785,0.336079,0.526427,0.785845,-0.090500,0.611765
0.579723,0.112188,0.796629,-0.770384,-0.540195,-0.338671
0.359470,-0.403443,-0.139164,-0.724411,0.424591,-0.543094
0.254802,-0.610045,-0.839773,-0.017488,-0.998758,0.046647
0.311447,-0.200937,-0.981369,-0.545154,0.540138,0.641138
0.348796,-0.322325,0.256497,0.915204,0.358387,0.184283
0.456381,0.126853,0.338982,-0.501243,0.865303,-0.002350
0.148433,0.024728,0.805890,-0.671938,-0.739462,0.041171
-0.188922,0.286665,0.432113,-0.104519,0.615153,0.781449
-0.245440,0.606200,0.580053,0.465790,0.774812,-0.427442
0.152030,0.205775,0.822632,-0.290268,-0.129128,0.948193
-0.821560,0.213985,0.479045,-0.466181,0.884689,-0.000879
0.424487,0.342757,0.856335,0.746487,0.382775,0.544280
0.241962,0.055410,0.669623,0.906601,0.185883,0.378842
-0.081684,0.191787,0.871219,0.128072,0.629779,0.766144
-0.877468,0.193126,0.482216,0.285369,-0.956675,-0.057774
-0.387316,-0.112735,0.632979,-0.092076,-0.196347,0.976202
0.360931,0.234361,0.832534,-0.561887,0.825379,-0.055064
0.417041,0.150058,0.435561,-0.481226,0.847523,-0.223889
0.623466,-0.591960,-0.937164,0.744148,0.494812,0.448782
0.302154,-0.153498,-0.001093,-0.455483,0.883253,-0.111352
0.365642,0.151880,0.540381,0.835383,0.545485,0.067687
0.297571,-0.407919,0.190715,0.135994,-0.938202,-0.318250
0.474746,-0.124441,-0.049475,0.588662,0.592217,0.550233
0.157169,-0.290593,0.439300,0.094198,-0.970481,0.222020
0.570702,-0.145894,0.600028,0.747501,-0.559214,-0.358499
0.125181,0.478891,0.770914,-0.673497,0.576044,0.463223
0.190712,-0.725550,-0.946496,0.230470,0.958880,0.165630
-0.090747,-0.279584,0.916705,0.822691,-0.223813,0.522577
0.340071,0.370171,0.874140,0.654773,0.740792,0.149999
0.488771,0.458981,0.836314,0.200697,-0.938575,0.280708
-0.834891,0.231520,0.478565,-0.495487,0.835402,0.237900
0.278686,-0.182735,-0.104863,0.733429,-0.351677,0.581725
-0.099908,-0.096290,0.907556,0.124267,-0.791354,0.598595
-0.811477,0.253635,0.488828,-0.507766,0.833508,-0.217804
-0.099413,-0.195775,0.893125,-0.161097,-0.843578,0.512273
0.860509,-0.205331,0.506597,-0.792563,0.544081,0.275352
0.624520,-0.798379,-0.954353,0.349949,0.056019,-0.935092
0.297791,-0.751649,-0.832510,0.683487,0.459031,-0.567570
-0.351923,0.317767,0.459659,0.042556,-0.911408,0.409298
-0.420028,0.489488,0.555775,-0.198894,-0.979784,-0.021562
-0.071857,0.418696,0.686031,-0.322609,0.885409,-0.334626
0.353880,-0.718609,-0.841030,-0.628776,0.750645,0.202910
0.073002,-0.383398,0.532975,-0.386887,-0.430667,-0.815380
-0.142728,-0.666789,0.023505,0.719352,-0.292246,0.630179
0.474121,-0.045340,0.305749,0.770993,0.636130,0.030145
0.089550,0.139286,0.896095,-0.539628,0.485922,0.687518
-0.289162,0.105928,0.590004,0.846607,0.358392,0.393461
0.631325,0.059989,-0.052184,0.630582,0.271209,0.727195
-0.412965,-0.366416,0.659501,0.958307,0.021307,-0.284946
-0.457365,0.194395,0.568144,-0.338224,0.936607,-0.091498
0.525433,-0.743731,-0.939409,0.173424,0.018911,0.984666
0.396205,-0.649015,-0.930035,-0.558391,0.777209,-0.290081
0.470325,-0.776257,-0.934761,-0.051075,-0.528913,-0.847138
0.426541,0.403899,0.794960,0.814685,0.360208,0.454466
0.047252,0.254644,0.544657,-0.709487,-0.455797,-0.537474
-0.157568,-0.059803,0.638638,-0.439975,-0.402371,-0.802820
0.033134,0.114192,0.633854,0.039037,0.459673,0.887230
-0.055675,0.340647,0.791938,0.048093,0.746067,0.664132
0.014273,-0.324588,0.817156,0.468872,0.141894,0.871794
0.207703,-0.117849,0.488365,0.812333,-0.057080,0.580394
0.363631,-0.417885,-0.069332,0.979193,0.094346,-0.179668
-0.189769,0.336516,0.723848,0.906282,0.026639,-0.421833
0.047665,0.587116,0.629961,0.919858,0.021949,0.391637
0.818877,-0.650494,-0.940909,-0.091140,0.988507,-0.120616
0.141468,-0.257938,0.442362,0.037316,-0.226454,0.973307
0.194626,-0.211064,0.488117,-0.112336,-0.350270,0.929888
0.157325,-0.058744,0.586977,0.505113,0.815978,0.281141
-0.346740,0.488094,0.571822,0.219431,-0.915193,0.338041
0.415232,-0.931685,-0.955375,-0.118142,0.453231,0.883530
0.528984,0.419607,0.914880,-0.210728,-0.926995,0.310279
-0.099676,0.330055,0.670374,0.867708,-0.421811,0.262979
0.124773,0.550942,0.703232,0.111562,0.875273,0.470585
-0.292524,0.231379,0.457207,0.984130,-0.049909,0.170283
0.242820,-0.736740,0.553201,-0.467584,-0.799843,0.376319
0.196972,0.055132,0.835513,-0.143626,-0.405321,0.902821
-0.053988,0.211147,0.541684,0.597637,0.093092,-0.796344
0.362641,-0.683022,-0.939951,0.704931,-0.406476,0.581249
0.030493,-0.007214,0.865356,0.910131,-0.401464,-0.102416
-0.750563,0.360629,0.538814,0.127975,-0.008638,0.991740
0.484069,-0.249639,-0.069434,0.072699,-0.568713,0.819317
0.285776,-0.464976,-0.568664,-0.411959,-0.900706,0.137909
-0.126240,0.248067,0.415675,0.700112,0.690805,0.180641
0.199251,0.212849,0.780806,0.881229,-0.425964,0.204915
0.348361,-0.574297,-0.455446,0.982706,0.044568,0.179732
0.176854,-0.629644,-0.876402,0.478373,0.788098,0.387376
0.564925,0.399466,0.876382,-0.495554,0.775038,-0.392100
-0.429020,-0.013697,0.746427,0.937315,0.299220,0.178628
0.088906,0.067531,0.473987,-0.020852,-0.986582,0.161929
-0.497689,-0.163167,0.747716,0.911096,-0.121704,0.393818
0.404256,-0.491823,-0.733874,0.841503,-0.538582,-0.042448
-0.455913,0.631050,0.542921,0.161384,0.673308,0.721534
-0.055754,0.032973,0.941236,0.942339,-0.171079,-0.287625
-0.444413,0.043536,0.743779,-0.659342,-0.652796,-0.372996
0.046595,0.025721,0.951078,0.860260,0.260803,0.438103
-0.177304,0.277265,0.452738,0.171544,0.970485,0.169505
0.400072,0.503700,0.763605,0.927211,-0.372078,-0.042875
0.614573,0.297502,0.822138,-0.520893,-0.838033,0.162391
0.296894,-0.466724,-0.585947,0.394419,0.886711,-0.241200
-0.242554,0.536632,0.564495,0.318154,0.820396,0.475110
-0.101747,0.722813,0.664577,-0.277870,0.926674,0.253106
0.021108,0.092930,0.917260,0.171087,0.908044,-0.382343
-0.507282,0.586718,0.559924,-0.550824,-0.824074,0.132271
0.014864,0.236347,0.444917,0.309359,0.242911,-0.919397
-0.010109,0.344360,0.609241,-0.687843,0.481746,0.542948
0.457141,-0.139635,0.659180,-0.400625,0.796862,0.452229
0.403240,-0.395661,0.593058,-0.751738,0.658081,-0.042654
-0.272902,-0.300060,0.569271,-0.091214,0.950882,0.295810
0.338000,0.114138,0.358843,-0.510348,-0.859229,-0.035651
-0.224958,0.306263,0.756950,-0.346123,0.722798,0.598131
-0.416964,0.021911,0.724661,0.240950,0.790799,0.562654
0.217172,-0.032263,0.664227,-0.495750,0.381764,-0.780056
0.472289,-0.479284,-0.954842,-0.716033,0.300521,0.630066
-0.285269,0.337261,0.478216,-0.314696,0.714526,0.624835
0.490701,0.377506,0.877132,0.175386,-0.503261,-0.846149
0.773900,-0.509304,-0.931502,0.743347,0.495943,0.448861
0.308293,0.514584,0.874012,0.746496,-0.384443,0.543091
-0.086208,-0.031679,0.626205,0.096485,0.973898,0.205457
0.154271,-0.699306,-0.946248,0.295610,0.112023,-0.948718
0.212936,0.025765,0.636962,0.784314,0.283615,-0.551738
0.140529,0.143704,0.726744,0.989236,0.080668,0.122081
0.010020,0.273822,0.622270,0.737736,0.596086,-0.316902
-0.116308,0.404148,0.764334,0.570939,-0.805512,-0.158679
0.330681,-0.297760,-0.989725,-0.174880,-0.131428,0.975779
0.756225,-0.565481,-0.926015,-0.133141,0.903689,0.406965
-0.268287,0.303331,0.455464,0.627207,0.778728,-0.013932
0.685632,-0.101817,-0.076616,-0.404396,0.511729,-0.758022
-0.183996,0.195240,0.435391,-0.392986,-0.919510,0.007922
-0.513168,0.511291,0.543462,0.438520,0.896947,-0.056451
-0.060763,0.220477,0.404506,-0.103328,-0.761754,0.639574
-0.104334,-0.104173,0.887778,-0.025639,0.927719,0.372397
-0.443686,-0.402391,0.658463,0.818703,-0.397059,-0.414812
0.118862,0.521278,0.709972,0.101095,-0.846641,-0.522473
-0.602941,0.697790,0.550428,0.795205,-0.433369,0.424077
0.357757,-0.426293,-0.566698,0.689784,0.463381,-0.556306
-0.187107,0.255783,0.417057,0.898356,0.435816,0.054956
0.003113,0.024944,0.845940,-0.128141,0.968477,-0.213617
0.434907,0.027002,0.432131,0.007092,-0.617600,0.786460
0.377900,-0.551803,-0.938120,0.339560,0.925436,0.168128
0.056222,-0.496842,-0.834191,-0.170483,0.970739,0.169120
0.320026,0.198493,0.850649,0.097642,0.962871,0.251685
-0.009234,0.640862,0.651992,-0.639832,0.190874,-0.744434
0.233748,-0.215371,0.289347,-0.398353,0.845283,-0.356105
-0.059332,0.119541,0.930176,0.957574,-0.204776,-0.202775
0.343135,-0.035203,0.064114,-0.684463,-0.715642,0.139161
-0.039029,0.445381,0.734742,0.164962,0.447989,0.878688
0.136979,-0.290446,-0.991572,0.815990,-0.255843,0.518367
0.440544,-0.077919,0.474692,-0.178329,-0.024566,0.983664
0.199960,-0.033962,0.744996,0.625705,0.685800,-0.371714
0.148286,-0.550628,-0.953025,0.909201,0.063318,0.411516
0.220100,-0.501865,0.401350,-0.883789,0.444185,0.147028
0.207797,0.048941,0.882192,-0.694591,0.602052,-0.393798
-0.280680,0.425901,0.442559,-0.186703,-0.696866,0.692474
0.088428,-0.434027,-0.854044,0.039815,0.871363,0.489021
0.452711,-0.789904,-0.954083,0.120606,-0.603804,0.787956
-0.340725,0.237804,0.603896,0.277707,0.529824,-0.801352
0.560829,-0.826313,-0.925563,-0.279302,0.389506,0.877653
0.180204,0.048306,0.745729,0.429490,0.514453,-0.742210
0.083355,0.187278,0.905387,0.417709,-0.506379,0.754387
0.331701,-0.413912,-0.965453,0.353910,0.833576,0.424145
0.178914,0.425846,0.738625,0.868640,-0.493342,-0.045581
0.532609,-0.326235,-0.971065,-0.159564,0.567969,0.807435
0.290762,-0.255527,0.260769,0.867937,-0.271557,0.415863
0.356359,-0.505621,0.504477,-0.254546,-0.957394,0.136395
0.371894,0.243053,0.526412,0.999576,-0.017228,-0.023466
0.481719,0.031312,0.402453,0.588739,-0.805638,0.065833
0.184134,0.492773,0.701518,0.932766,-0.353175,-0.072213
0.438620,-0.705705,-0.937727,-0.221398,0.028698,0.974761
0.442312,-0.613312,-0.967707,0.845734,0.204462,-0.492878
0.515471,-0.643276,-0.075387,0.492858,0.785034,0.375251
-0.460149,0.590635,0.555085,-0.664075,-0.058796,-0.745351
-0.201811,0.214973,0.610798,0.657386,0.749353,-0.079461
-0.276926,0.201937,0.635400,0.958379,0.205649,-0.198038
-0.101236,0.073612,0.892345,-0.018240,0.977740,0.209026
0.230177,0.317961,0.598939,0.388307,0.791687,0.471644
-0.509999,-0.202713,0.696497,0.398238,0.911440,-0.103364
0.171878,0.063032,0.753847,-0.728846,-0.571137,0.377605
0.276154,0.043166,0.670564,0.981253,0.182683,-0.061403
-0.498430,-0.306787,0.669416,0.785566,0.530925,-0.317813
-0.448612,0.569890,0.542147,0.996687,0.077385,0.025033
-0.292026,0.397314,0.616689,-0.242266,0.649011,0.721174
0.307901,-0.307841,0.095527,0.934776,-0.354821,0.017188
-0.136509,0.256938,0.577329,-0.795165,0.055880,-0.603813
-0.323291,0.607776,0.598612,0.897213,0.397762,-0.191816
0.193109,0.779899,0.619466,0.817977,-0.544726,0.184894
0.397840,-0.497188,0.593869,-0.619766,0.776905,-0.110941
0.159911,-0.051326,0.214593,0.792573,0.553621,0.255601
0.029663,0.060334,0.943492,0.546390,0.710600,-0.443289
0.240812,-0.227540,0.468932,-0.237665,-0.686348,0.687344
-0.311583,0.491565,0.571509,-0.080199,0.826185,0.557661
0.078282,0.506821,0.638640,0.672609,-0.591813,-0.444247
-0.443572,0.472993,0.714142,0.254413,-0.408868,0.876414
0.497231,-0.152716,0.497557,-0.000445,0.974530,0.224258
0.333149,-0.399525,-0.425457,0.578220,-0.811252,0.086785
0.066703,0.493571,0.636280,-0.838927,0.452997,0.301655
0.181290,-0.024502,0.736172,-0.224336,-0.954072,0.198546
0.394492,-0.427695,-0.745479,0.939446,-0.335328,-0.070682
0.126247,-0.641567,0.346832,0.782104,-0.051564,-0.621010
-0.284920,-0.216256,0.654022,0.968769,-0.231350,0.089244
0.065088,0.224006,0.549207,0.972536,-0.033291,0.230360
-0.447196,0.254457,0.677462,-0.603418,-0.794973,-0.062497
-0.096347,0.276305,0.376526,0.795637,0.579397,0.176806
0.082945,0.025554,0.226280,0.933437,0.347434,-0.089360
0.059163,-0.539999,-0.025227,-0.053717,0.926733,0.371861
0.560542,-0.101218,-0.076824,0.209766,0.248484,0.945650
0.079436,-0.013259,0.841624,0.132554,-0.831902,0.538858
0.161591,0.380365,0.649505,0.523448,0.449190,-0.724038
0.005386,0.226008,0.814742,0.593662,-0.746679,-0.300059
-0.098444,0.352239,0.752285,0.290228,-0.807652,0.513290
0.280990,-0.334887,0.439797,0.860550,0.393082,0.323946
0.323220,-0.482277,-0.979546,-0.566800,-0.028136,0.823375
-0.129225,-0.339251,0.927184,0.523459,-0.666180,0.531220
-0.340510,0.342552,0.470129,-0.350126,-0.138023,0.926478
0.265336,-0.880220,-0.910585,0.362104,0.860755,-0.357746
-0.290345,0.216383,0.480105,-0.337954,0.636730,-0.693082
0.244206,-0.428720,-0.608812,0.808597,0.566549,-0.158720
0.515206,-0.053259,0.486701,0.575685,-0.066790,-0.814939
-0.459674,-0.385906,0.647138,0.253547,-0.960943,-0.110913
-0.147948,0.059935,0.826967,0.905728,-0.350356,-0.238555
0.379620,-0.513113,-0.560603,0.949529,-0.149063,0.275999
-0.288029,-0.306862,0.585096,-0.132138,0.956943,-0.258457
0.011749,-0.097017,0.649855,-0.781463,-0.621749,-0.052384
0.476471,0.202931,0.618619,0.659570,0.743305,0.111651
0.477080,-0.186796,-0.027772,-0.036318,0.125034,0.991488
0.843776,-0.608618,-0.936643,0.954268,-0.298944,0.002152
-0.515061,-0.411877,0.635965,-0.507050,0.811436,-0.290642
-0.457011,-0.322071,0.666218,-0.670613,-0.731628,-0.122468
0.578993,-0.562005,-0.118149,0.812753,0.496190,-0.305332
0.069844,-0.573238,-0.966306,-0.652260,-0.566567,-0.503546
0.710581,-0.510359,-0.945967,-0.552042,-0.153790,0.819511
-0.776482,0.696019,0.574420,0.722104,0.667350,0.182233
0.295881,-0.267698,-0.115638,0.046723,0.872567,-0.486255
0.678373,-0.644460,-0.951849,0.993802,-0.085428,-0.071135
-0.381239,0.041978,0.708746,0.831908,0.023337,0.554423
0.041417,0.150061,0.484144,-0.476389,0.782933,0.400087
0.481306,-0.094632,0.272162,0.456484,0.802507,-0.384194
0.257479,0.049022,0.290193,-0.026972,-0.861492,0.507055
-0.022361,-0.041038,0.893421,0.661652,0.152114,-0.734220
-0.096126,-0.162929,0.649714,0.833481,-0.315668,-0.453502
0.340095,-0.740865,-0.946617,-0.189742,-0.693471,0.695051
0.127140,-0.277568,0.576685,0.478991,0.751223,0.454128
-0.192001,0.291569,0.483067,0.442981,0.785240,0.432627
0.109799,-0.662410,-0.847451,0.990731,-0.073484,0.114248
0.082541,-0.045251,0.961799,0.446238,-0.869679,0.211024
0.193001,0.200948,0.782053,0.945656,-0.118821,0.302680
0.541174,0.004363,0.480391,0.913844,0.398145,-0.079810
0.030143,0.529845,0.637527,-0.209352,0.087519,-0.973916
0.700312,-0.648773,-0.924099,0.305803,-0.521854,0.796337
0.163257,-0.088286,0.552516,0.223220,-0.942002,0.250610
-0.084273,-0.091354,0.919108,0.768250,0.592101,-0.243327
-0.472586,0.437264,0.634280,-0.717112,0.364915,-0.593791
-0.015008,-0.057119,0.602702,0.507483,0.844781,0.169721
0.085629,-0.169736,0.880038,0.854245,-0.341779,-0.391730
-0.070076,-0.157332,-0.010644,-0.044791,-0.765787,0.641533
-0.028446,-0.157200,0.523828,-0.527978,0.576258,-0.623831
0.033555,-0.281446,0.850154,-0.333019,0.074896,0.939941
-0.533326,-0.364720,0.631297,0.456663,0.644376,0.613383
-0.119516,0.206469,0.404692,0.829331,0.251531,0.498941
-0.031011,0.201747,0.934102,-0.480916,0.795334,0.369003
-0.323465,0.128501,0.593758,0.728845,0.513430,0.452963
0.002511,0.291482,0.538413,0.564691,-0.036580,0.824492
0.308754,0.793781,0.844735,0.823124,-0.012622,-0.567721
-0.202967,0.436128,0.648961,0.641528,-0.762345,-0.085279
0.655937,-0.682692,-0.918747,0.200425,-0.758922,-0.619570
0.567553,0.056918,0.597957,0.445548,0.017235,-0.895092
0.419973,0.048193,0.737251,0.875143,-0.173683,-0.451619
-0.507188,0.203958,0.715623,-0.196203,0.095637,0.975888
-0.029351,0.292213,0.468872,0.452796,0.726939,0.516271
0.167764,-0.306555,-0.910208,0.904422,-0.007504,0.426573
0.408749,-0.963362,-0.939455,0.260016,-0.957174,0.127315
0.279907,0.410011,0.875823,0.794302,0.482531,0.369117
0.274338,-0.059364,0.743795,-0.536504,-0.722553,0.435982
-0.036879,-0.092405,0.852922,-0.647465,0.758864,-0.070104
0.109224,-0.014625,0.742440,0.641415,0.612966,-0.461367
0.278694,-0.003918,0.655813,0.968679,-0.240866,0.060378
0.763569,-0.239655,0.470597,0.192044,0.980928,0.029979
-0.044173,-0.598399,-0.977755,0.982960,-0.060100,-0.173719
0.438175,-0.533461,-0.950753,-0.326337,-0.104234,-0.939489
-0.608878,0.621407,0.540359,0.478058,-0.539206,0.693337
-0.275735,0.412169,0.531234,-0.726552,-0.465233,0.505648
0.087669,-0.486552,-0.980248,-0.249581,0.418076,0.873454
0.341657,0.432363,0.792424,0.022629,0.840408,0.541481
0.581948,-0.008503,0.560583,0.400120,0.916313,0.016597
0.214817,-0.548710,-0.970408,-0.572096,0.771530,0.278295
0.356578,-0.451426,-0.538365,0.728087,-0.569855,0.380992
0.424340,-0.671902,0.479465,-0.373659,0.375515,0.848155
-0.058311,-0.069906,0.661432,-0.750383,-0.426005,0.505416
-0.317858,0.335426,0.472813,0.120681,-0.944397,-0.305860
0.740113,-0.636434,-0.928717,0.080897,0.448530,-0.890099
-0.234777,-0.221741,0.678503,0.113804,-0.371361,0.921488
0.017350,-0.103816,0.833438,0.327683,0.372175,0.868395
-0.241151,0.696225,0.655743,0.750994,-0.207170,-0.626968
0.202233,0.786230,0.744744,0.593347,-0.155795,-0.789726
0.507346,-0.581446,-0.968018,0.996156,0.064806,-0.058937
0.020365,-0.166648,0.891421,0.092068,0.102086,0.990506
0.100235,0.194759,0.837052,0.929173,-0.322931,-0.179867
0.294576,0.088329,0.914049,0.744008,-0.311222,0.591264
0.391291,-0.297946,0.014698,0.856696,-0.223932,-0.464678
-0.387968,-0.157800,0.706905,-0.543088,0.836254,0.075724
0.302510,0.362019,0.782481,-0.376601,-0.791368,0.481569
-0.260601,-0.318965,0.587989,-0.148160,-0.688676,0.709770
0.546809,-0.420308,-0.943812,0.025788,0.830092,0.557030
-0.597907,-0.242151,0.698418,0.814026,0.302082,-0.496093
0.550039,-0.577854,-0.934848,0.017189,0.539403,0.841873
0.274125,-0.702233,-0.910667,0.855142,-0.315492,-0.411334
0.041012,-0.180760,0.864333,0.678581,-0.640537,-0.359500
-0.056371,0.176026,0.385363,-0.578447,-0.789538,0.205007
-0.346994,0.126050,0.607821,0.791602,0.518759,0.322885
0.678861,-0.145851,0.812110,0.206839,-0.293720,0.933245
0.425104,-0.624864,-0.937838,0.409232,0.330455,0.850487
-0.483344,-0.112056,0.680314,0.296743,-0.175143,0.938759
0.056171,0.072226,0.870667,-0.130862,-0.130372,-0.982791
-0.013026,0.648546,0.676601,-0.494877,0.634948,-0.593243
0.608462,-0.350868,-0.971976,0.049742,0.577924,0.814573
0.149956,0.054826,0.702987,-0.660865,0.703523,-0.261368
-0.426645,0.544066,0.538677,0.828033,0.555933,-0.072797
0.500236,-0.741050,-0.937659,-0.126848,0.512317,0.849377
0.078010,0.574284,0.632639,0.421069,-0.787707,-0.449687
0.396804,0.127690,0.539285,-0.285517,0.853057,0.436776
0.184430,0.008979,0.750651,0.512704,0.598521,-0.615555
-0.366326,0.182202,0.613431,0.555261,-0.323287,0.766271
0.379654,-0.173630,0.659732,0.871129,-0.446489,-0.204405
-0.018874,0.333143,0.648943,0.188268,0.953850,-0.233934
-0.450386,0.092558,0.542092,0.002756,-0.992286,0.123937
0.645740,-0.221477,0.826813,-0.455683,-0.208591,0.865357
-0.204817,0.422474,0.675256,-0.314869,-0.856363,-0.409268
0.267424,0.658426,0.828156,-0.483004,0.594996,-0.642408
0.099201,-0.095061,0.822358,0.813455,0.496189,-0.303460
0.028782,-0.463540,-0.029899,0.248251,0.955615,0.158657
0.262073,-0.127873,0.585670,0.917936,0.017886,0.396326
-0.168681,0.184496,0.614468,0.652220,0.524690,0.547092
0.329912,-0.303340,-0.098242,0.110708,0.336951,0.934991
-0.348735,0.078490,0.691432,0.890464,-0.304152,0.338476
-0.136203,0.179808,0.470317,0.705974,0.555785,-0.438979
0.127501,-0.020068,0.675995,-0.061094,-0.986402,0.152574
-0.486681,-0.105726,0.742421,0.989019,-0.051274,0.138606
-0.000153,0.012033,0.896288,0.455692,0.170771,0.873603
-0.321399,0.501255,0.531385,0.975534,-0.200437,0.090320
0.510753,-0.785141,-0.931835,0.574012,0.240186,0.782829
0.247569,0.296358,0.827468,-0.649291,0.679428,0.341758
0.124117,-0.364220,-0.869025,0.818287,0.441987,0.367497
-0.058055,-0.182273,0.532471,0.599958,-0.401101,0.692219
0.631586,-0.575879,-0.945776,0.321220,0.546518,0.773393
-0.174578,0.035448,0.868524,0.559602,0.388931,-0.731832
0.285045,0.178902,0.857776,-0.708073,0.610688,0.354531
0.259318,0.263992,0.840506,0.527781,-0.311595,-0.790162
-0.441948,0.461756,0.694773,-0.208862,0.977902,0.009227
0.286209,-0.277638,0.187611,0.820507,-0.484078,0.304034
0.279212,-0.519676,-0.990394,0.035756,0.300686,0.953053
0.787726,-0.640174,-0.925786,0.163146,-0.539476,0.826044
-0.290720,0.127028,0.715663,0.191321,0.463545,-0.865172
0.308512,-0.276121,0.427459,0.972384,0.041572,-0.229654
0.668577,-0.663973,-0.954338,-0.885459,0.447671,0.124711
0.121129,0.634090,0.592096,0.995431,-0.094199,0.015584
0.649627,-0.755569,-0.934353,-0.621800,0.539536,0.567684
0.435191,0.170942,0.829423,0.558233,0.816408,-0.147827
0.155441,0.550872,0.662516,0.535956,0.497185,0.682318
-0.180550,0.242269,0.464219,0.185402,0.914514,0.359568
-0.145685,0.130786,0.636956,0.410719,0.891695,-0.190236
0.125675,-0.675583,-0.846188,-0.738164,0.070765,0.670899
-0.569498,0.111183,0.561482,0.454566,-0.888420,-0.063871
0.341368,-0.336121,-0.985418,0.823324,-0.369868,-0.430505
0.240926,0.162373,0.908257,-0.079341,0.926167,0.368674
0.310916,-0.410756,-0.082088,0.665291,0.184969,-0.723308
0.296706,0.055050,0.279181,-0.375425,0.856571,-0.354038
-0.356121,-0.107857,0.714360,0.923715,-0.302140,-0.235503
0.108753,0.427265,0.767804,0.162431,-0.975004,0.151603
-0.026514,-0.143111,-0.030064,-0.044791,-0.765787,0.641533
0.603522,-0.782773,-0.948983,0.844639,-0.093841,-0.527048
0.490752,0.441370,0.933311,0.069616,0.997093,0.030979
-0.412651,-0.276376,0.621673,0.166314,0.957507,-0.235626
0.304720,0.430530,0.888263,0.935724,0.261901,0.236280
-0.062885,-0.180147,-0.040800,0.932807,-0.167646,0.319008
-0.198293,0.199347,0.433167,0.609263,0.783034,0.125124
0.242964,-0.293185,-0.149610,-0.747818,0.171804,0.641289
0.608094,-0.881625,-0.931815,0.856759,-0.463350,-0.226428
-0.102223,0.550186,0.673906,-0.030782,-0.886173,0.462331
-0.440442,0.516947,0.545142,0.791905,0.548421,0.268554
0.227627,0.331635,0.823452,0.170213,0.933910,0.314386
-0.417316,-0.348995,0.655961,0.822600,-0.562771,0.081353
0.630638,-0.593361,-0.930945,0.326093,-0.643303,-0.692694
-0.378770,0.194160,0.623592,0.772987,0.459610,-0.437321
0.065022,0.459131,0.612934,-0.392043,-0.354811,-0.848771
0.084607,0.121698,0.865927,0.233151,-0.425276,0.874518
0.228492,-0.162425,0.063990,0.797175,0.585980,0.145396
-0.100367,0.005133,0.628007,0.242754,-0.936833,-0.251824
0.580341,0.420466,0.806626,-0.435389,0.441640,0.784468
-0.427983,0.008310,0.754324,0.745744,0.610319,0.267163
0.176130,-0.072664,0.510513,-0.435756,-0.823931,-0.362290
-0.216635,0.726392,0.660030,0.596959,-0.187760,-0.779991
-0.514245,0.309863,0.455856,0.725593,-0.585714,0.361184
-0.073723,0.001717,0.862102,-0.493651,0.053011,-0.868043
-0.219335,0.404540,0.451270,0.961497,0.227678,0.153905
0.243305,-0.444221,-0.845952,0.330866,0.648835,0.685230
-0.569301,0.009082,0.761549,0.178538,0.956912,0.229004
0.526597,-0.927064,-0.924618,-0.284304,0.781035,0.556017
0.433135,0.230843,0.773023,-0.543190,-0.834847,0.089306
-0.471465,0.186567,0.547584,0.413099,-0.908990,-0.055552
-0.256555,0.482968,0.616460,0.848911,-0.210129,0.484971
0.134633,-0.376861,-0.957670,-0.563838,0.596221,0.571495
0.080394,-0.321649,0.850143,-0.778472,0.480625,-0.403709
0.511825,0.366583,0.904927,-0.041095,-0.354630,0.934103
0.024303,0.334386,0.525052,0.913462,-0.380108,-0.145276
0.158579,-0.254562,0.410551,-0.028694,-0.998470,0.047272
0.344887,0.493217,0.864054,0.178376,-0.590455,0.787112
-0.397435,0.383271,0.500488,-0.706711,0.697167,-0.120491
0.248247,0.308729,0.904026,-0.734754,0.469191,0.489894
0.257458,-0.227449,-0.996425,-0.140050,-0.066131,0.987934
0.259644,-0.388990,0.076904,-0.539707,0.782476,0.310561
-0.250555,0.402325,0.711607,-0.245571,0.948580,-0.199728
-0.387723,0.517179,0.553176,0.293531,-0.744809,-0.599249
0.439192,0.678271,0.815840,0.776565,0.546053,-0.314282
-0.184658,-0.098276,0.651109,-0.113962,0.993484,-0.001305
0.439309,0.330440,0.512209,0.969316,0.230277,-0.086016
0.012466,0.274314,0.677178,0.721572,-0.515259,-0.462430
-0.546741,0.595785,0.539253,0.609296,0.288119,0.738746
0.250612,0.183623,0.914388,-0.010207,-0.680081,0.733066
-0.649400,0.368810,0.613836,-0.221836,-0.956745,0.188220
-0.049396,-0.372727,0.843490,-0.200885,-0.918718,0.340004
0.469096,-0.519223,-0.960637,-0.674963,-0.436929,-0.594573
-0.360940,0.010464,0.703621,0.883761,0.293057,-0.364806
0.374371,-0.179799,0.500954,-0.270676,0.952772,0.137696
0.151431,-0.462814,-0.983243,0.412738,0.533504,0.738255
-0.302311,0.571347,0.559580,-0.303126,0.830509,0.467300
0.188909,-0.708936,-0.991334,-0.020785,0.496899,0.867559
-0.527329,0.410645,0.657204,0.409464,0.787296,-0.460982
-0.498449,0.113154,0.803526,-0.649605,0.724222,-0.231337
0.108338,0.249796,0.745034,0.837976,0.040429,-0.544208
-0.124203,0.232308,0.403989,0.281423,0.931643,0.229875
-0.007054,-0.566781,-0.977219,0.891137,-0.398415,-0.217116
0.347711,0.192352,0.808973,0.528044,0.658089,-0.536738
-0.033506,-0.339351,0.880432,0.953452,0.300560,0.024357
0.661329,-0.482293,-0.969368,0.835040,0.040912,-0.548666
0.269838,-0.669531,-0.961161,0.777970,0.234760,-0.582795
-0.167526,0.284752,0.427859,0.556726,0.804073,0.208621
0.164907,-0.373948,0.021779,0.698812,-0.115019,0.705998
-0.155009,0.224008,0.598641,0.905621,-0.093215,0.413716
0.388150,-0.641833,-0.930616,-0.578170,0.566718,0.586984
0.358450,-0.132107,0.508759,0.947518,-0.173752,-0.268365
0.088717,0.358255,0.508343,0.104884,0.751025,0.651890
-0.105508,0.227914,0.515994,0.980936,0.159545,-0.110949
0.056492,-0.024584,0.949120,0.650303,-0.260026,-0.713788
0.101033,-0.786732,0.392465,0.262184,0.845361,-0.465430
0.282339,0.397744,0.801523,-0.301418,0.949119,0.091217
0.005334,-0.576735,-0.984902,-0.597745,-0.675502,0.431738
0.059962,0.564325,0.663410,0.476567,0.524102,0.705834
0.014580,0.116430,0.821801,0.834288,0.422775,0.353872
-0.275316,0.129900,0.747822,0.420729,-0.006582,-0.907162
0.613674,0.314876,0.769263,0.972487,-0.068471,-0.222668
0.579861,-0.794921,-0.953317,0.334904,0.238359,-0.911606
-0.203645,-0.007358,0.775591,0.784113,-0.610238,-0.113037
0.512194,-0.031930,-0.040971,-0.448217,0.586286,-0.674811
0.195282,0.098137,0.700000,0.855028,-0.002008,0.518578
0.343039,0.226521,0.939032,0.152923,0.562178,-0.812755
-0.036081,0.781514,0.673353,0.324354,-0.863195,0.386896
0.300820,-0.228477,-0.109067,-0.661127,0.133828,-0.738242
-0.282921,0.239799,0.627818,0.340144,-0.940263,-0.014415
-0.099634,-0.034590,0.925984,0.693961,-0.205546,-0.690050
-0.006763,0.698579,0.652371,-0.020812,-0.561325,0.827334
-0.310362,0.040730,0.684518,0.798549,0.111386,0.591534
-0.253928,0.617470,0.629879,0.993994,-0.108574,0.013664
0.162733,-0.140401,0.501338,-0.681048,0.727383,-0.084185
0.010376,0.267385,0.573850,-0.619858,-0.193738,0.760422
-0.097745,-0.042829,0.881352,0.173014,0.495526,-0.851188
0.107851,-0.009795,0.734490,-0.188211,-0.668112,0.719863
-0.420410,0.328001,0.476699,-0.543131,0.824893,-0.156716
-0.463877,0.428591,0.460551,-0.587035,0.452215,0.671485
0.201708,0.303793,0.935341,-0.057416,-0.460040,0.886040
-0.415226,0.514860,0.564577,-0.456673,-0.618447,0.639510
0.452697,-0.879554,-0.933388,-0.195259,-0.023157,0.980478
0.418403,-0.793973,-0.938481,0.268487,0.138528,0.953271
0.376630,-0.774440,-0.883612,0.853938,-0.048435,0.518116
0.174703,-0.016160,0.656818,-0.209227,-0.602999,0.769816
-0.375833,0.066227,0.625757,0.863023,-0.358026,0.356383
-0.812307,0.348119,0.487225,0.002311,0.987478,-0.157737
0.116340,0.109788,0.426977,-0.142598,0.964072,-0.224125
0.321298,0.479212,0.481504,0.845991,0.491970,0.205583
0.167439,-0.187789,0.380569,0.980649,-0.192894,0.033455
-0.251317,0.491690,0.582927,0.238330,0.970846,-0.025615
0.384892,0.396450,0.862337,0.541184,0.781654,0.310061
0.309706,-0.246435,-0.991582,-0.125503,-0.093955,0.987634
0.418696,-0.837974,-0.968983,-0.257304,0.083158,0.962746
-0.365955,0.179063,0.485350,0.228390,-0.969288,0.091208
0.152626,0.119593,0.851343,0.831837,-0.509133,0.220977
0.359413,-0.827602,-0.918339,0.851419,-0.405415,0.332754
-0.463956,0.267949,0.614035,-0.447522,-0.891867,-0.065553
0.524625,0.229617,0.871758,-0.206078,-0.138995,0.968614
0.457330,0.082170,0.323275,-0.407331,0.846282,-0.343349
0.238654,-0.172207,0.561348,0.959120,-0.247437,-0.137348
0.542485,-0.186232,-0.029831,0.201886,-0.095444,0.974747
-0.177334,-0.272893,0.928540,0.799172,-0.089397,0.594418
-0.451011,0.368943,0.461385,-0.056370,-0.186264,0.980881
0.385897,-0.055499,0.222523,0.841854,0.531071,0.096152
0.394204,-0.419352,0.624276,-0.583957,0.617117,-0.527409
0.294135,0.238218,0.860077,0.893281,0.088673,-0.440666
-0.043245,-0.152156,0.921068,-0.671639,0.735311,0.090659
0.383689,-0.327596,-0.092389,0.144245,0.437249,0.887698
0.220743,-0.404974,0.173771,-0.398997,-0.770483,-0.497149
0.375883,-0.608388,-0.916344,0.872216,0.145204,-0.467072
-0.346246,0.564042,0.570210,0.234807,-0.958823,0.159760
0.134636,-0.104016,0.602742,0.903342,-0.322141,0.283195
0.182712,0.044523,0.270110,-0.523597,-0.785378,-0.330194
-0.327928,0.008101,0.715407,0.418534,0.722492,0.550304
0.371020,-0.410806,-0.560636,0.908233,0.381540,0.171870
0.812293,-0.621475,-0.946442,-0.119158,-0.498351,0.858748
-0.004615,-0.532094,-0.048780,0.248251,0.955615,0.158657
0.581676,0.377441,0.794606,0.755444,-0.015683,-0.655026
-0.296908,0.417278,0.496562,0.637257,0.543883,-0.545980
-0.543351,0.621958,0.576816,0.163568,0.874307,0.456982
0.234226,-0.699693,-0.966877,0.050393,0.552751,0.831821
0.186245,0.205520,0.532309,-0.543519,0.197674,0.815789
-0.444736,0.262118,0.471716,-0.668764,0.476279,0.570887
-0.049317,0.789597,0.687781,0.949643,0.010372,0.313163
0.319944,-0.452887,-0.988397,-0.371313,0.268886,-0.888722
0.476968,0.423988,0.908391,-0.321988,0.571720,-0.754625
0.313129,0.161076,0.908235,0.965756,0.053514,0.253873
0.299000,-0.690588,-0.858389,0.081152,0.930470,0.357268
0.263533,-0.331557,-0.007305,0.994601,0.069723,-0.076860
-0.021920,0.823606,0.623191,0.433067,0.897815,-0.079888
0.386765,-0.142979,0.066682,0.987274,0.148867,-0.055932
0.339097,-0.541459,0.475879,0.664958,-0.449636,-0.596371
-0.055020,0.249714,0.515494,-0.130755,0.784322,-0.606417
0.016979,-0.369036,0.839263,-0.307042,-0.930833,-0.198177
0.074847,0.506093,0.674669,0.280292,0.420885,0.862724
0.126173,-0.639619,-0.959426,0.387682,-0.111193,0.915062
-0.253399,0.509406,0.616172,0.452400,-0.683666,0.572656
-0.187713,0.260520,0.608237,0.515638,0.856610,-0.018342
0.645846,0.390075,0.879366,-0.725941,0.378306,-0.574365
-0.027400,-0.144704,0.887017,-0.272096,0.704598,0.655367
0.298161,0.070038,0.247986,-0.220810,0.958745,-0.179028
-0.035972,-0.364428,0.852152,-0.300744,-0.819499,0.487826
0.029709,-0.614138,-0.958593,0.279859,0.735171,-0.617415
0.379683,-0.568157,-0.971131,-0.529681,0.017411,0.848018
-0.034515,0.075372,0.540393,0.310311,0.916462,-0.252597
0.705695,-0.722264,-0.954918,-0.032882,0.335474,0.941475
0.227587,-0.098520,0.475690,0.870498,0.486768,0.072729
-0.499760,-0.120854,0.681026,0.945295,0.259394,0.197817
-0.172565,0.216252,0.609121,0.440188,0.863055,0.247729
-0.513591,0.448754,0.519136,-0.272283,0.585807,-0.763343
0.314848,0.232873,0.839106,-0.554173,0.661519,0.505257
0.359994,0.019691,0.302401,-0.580483,-0.742499,0.334267
-0.085429,-0.075225,0.896888,0.732819,0.057884,0.677957
-0.397434,0.480693,0.558622,-0.127978,0.989577,0.066017
0.035780,0.281848,0.800043,0.883466,0.364991,0.293715
0.149794,0.473443,0.672823,0.991576,0.128840,0.013338
0.599919,-0.692153,-0.909349,0.037966,-0.997573,-0.058361
0.633403,-0.461962,-0.972388,0.727741,0.419785,-0.542377
-0.262986,0.311958,0.656065,-0.064949,-0.130480,0.989321
-0.594152,0.186945,0.545409,-0.695179,0.602734,0.391712
0.526040,0.188561,0.853284,0.749578,0.661821,0.011217
0.609715,-0.656035,-0.948569,0.351489,0.774939,0.525286
0.198736,-0.749729,-0.912779,-0.426488,0.406579,0.807961
0.557194,-0.343922,0.642599,0.880051,-0.352869,-0.317796
0.012194,0.012891,0.349504,0.684269,0.728624,0.029721
0.408001,0.370848,0.858922,0.746824,-0.004210,0.665009
0.473316,-0.363272,-0.095418,0.097770,0.613328,0.783754
0.062274,0.651926,0.649160,0.469991,-0.752904,0.460699
0.388733,0.293311,0.466336,0.402002,0.463433,0.789699
-0.519161,-0.405149,0.641972,-0.341252,0.933582,0.109416
0.367453,-0.364721,-0.219756,0.613357,-0.075472,0.786191
0.219862,-0.285243,-0.981891,0.107463,0.348229,0.931230
0.237785,-0.324649,-0.958232,0.691998,-0.174958,0.700378
0.274266,-0.589194,-0.639489,0.794790,0.606466,0.022519
0.395801,-0.404972,-0.955277,0.420246,-0.156357,0.893838
0.642166,0.425764,0.861764,0.949246,0.306554,0.070401
-0.495822,0.579376,0.573339,0.889837,0.325881,0.319362
0.330430,0.293682,0.771222,0.565503,-0.661466,0.492614
0.059961,0.446549,0.749663,0.287898,0.956253,0.051911
-0.002413,-0.143142,-0.045465,0.044566,-0.732435,0.679377
-0.076804,0.253760,0.595695,-0.246010,-0.225349,0.942707
0.300452,-0.675767,-0.901535,0.281281,-0.821514,0.495980
0.159764,-0.397765,-0.875493,-0.310863,0.583953,0.749908
-0.260139,-0.123328,0.703794,0.714010,0.654722,0.248050
0.629709,-0.722692,-0.933226,0.895020,-0.334111,0.295482
0.432193,0.137686,0.547004,0.234097,0.972073,0.016490
-0.619494,0.384285,0.521918,-0.292425,0.909673,0.294930
0.672942,-0.632620,-0.933410,0.739247,0.632572,-0.231010
0.035624,-0.434570,-0.959476,-0.631341,0.446803,0.633858
0.339503,-0.455924,-0.622377,-0.476349,-0.852313,0.215993
0.123951,0.008405,0.900135,0.933494,-0.348290,-0.085341
0.794055,-0.448622,-0.941016,0.247766,0.964614,-0.090178
0.377738,-0.799203,-0.963938,-0.380027,-0.557322,0.738222
-0.123088,0.331138,0.517986,0.450526,-0.178630,0.874710
-0.138341,0.247799,0.443563,0.019284,0.747746,0.663705
-0.568517,0.563360,0.582260,-0.456655,0.087076,0.885372
0.338696,-0.056277,0.143167,0.206896,0.977792,0.033418
-0.389521,-0.183573,0.659891,-0.122739,0.156844,0.979967
0.314454,-0.592720,-0.965224,-0.189454,0.449809,0.872799
-0.519422,-0.127868,0.693163,-0.684022,-0.368497,-0.629543
0.409199,-0.418525,-0.089327,-0.353418,0.773363,-0.526313
0.219182,-0.506552,-0.985092,0.617910,0.676696,0.400337
0.012587,-0.076839,0.862853,-0.530980,0.807015,0.258433
-0.312307,0.268063,0.469574,0.681312,0.438593,0.586046
0.171081,0.301680,0.837064,0.236282,0.450028,0.861188
-0.115709,-0.248868,0.548390,0.825942,0.233148,0.513285
-0.470026,-0.139019,0.640051,-0.648143,0.743627,0.164102
0.372279,0.356432,0.762706,-0.531478,0.831037,0.164040
-0.369950,-0.342088,0.617783,0.824463,-0.317913,0.468180
0.372428,-0.870776,-0.931800,0.100385,-0.233067,0.967266
0.609314,-0.640637,-0.938431,-0.735216,0.625705,-0.260674
-0.538282,0.347846,0.537173,-0.169823,0.073582,0.982724
0.219894,-0.200281,0.438450,0.202398,-0.423745,-0.882879
0.507822,-0.021494,0.574068,-0.287912,-0.953533,0.088777
0.029248,-0.254941,0.852188,0.427539,-0.660868,-0.616818
0.357576,0.032018,0.297151,0.323672,0.771882,-0.547207
0.166918,0.024568,0.841361,0.192797,0.950833,-0.242377
-0.297513,0.342975,0.463319,-0.197610,-0.961418,0.191378
0.221384,-0.700952,-0.934786,0.738328,0.232997,-0.632917
-0.323329,0.343970,0.462403,-0.415854,0.770626,-0.482908
0.633170,-0.120775,0.627936,0.920968,-0.097133,0.377337
0.186269,0.132802,0.481664,0.831718,-0.553749,0.040090
-0.142831,-0.134550,0.899125,0.279524,-0.737793,0.614433
0.796701,-0.250971,0.530530,-0.086677,-0.898566,0.430194
-0.409424,0.192513,0.658478,0.428035,0.568190,0.702813
0.645969,-0.696064,-0.929266,0.818432,-0.541595,0.191949
-0.036532,0.214245,0.560980,0.501757,0.432467,-0.749141
-0.251108,0.296381,0.434640,0.652570,0.631922,0.418124
0.365633,-0.210004,-0.114257,-0.365020,-0.635019,-0.680817
0.394788,-0.415861,-0.162076,0.886262,-0.082937,-0.455698
0.418725,0.492396,0.765121,-0.830466,0.411613,0.375367
0.239860,-0.518055,-0.972491,0.915928,0.385873,-0.110353
0.602656,-0.910256,-0.918374,-0.599675,0.239823,0.763462
0.356931,0.589964,0.789637,0.872226,-0.306031,0.381533
-0.326618,0.689111,0.588996,0.156025,-0.902125,0.402278
-0.591070,0.371147,0.614803,0.484725,0.684491,-0.544531
-0.674865,0.592454,0.564883,0.037920,-0.130864,0.990675
0.256104,-0.418875,-0.960954,0.551342,0.644133,0.530203
0.270858,-0.516425,-0.249912,0.952668,0.299427,-0.052599
0.148783,0.106622,0.410131,-0.377406,-0.791367,0.480939
-0.003717,0.241048,0.508076,0.350665,-0.351584,0.867999
0.288834,-0.308011,0.078907,-0.582130,0.002847,0.813090
0.370346,-0.442247,-0.102228,-0.334593,0.884606,-0.324838
0.615757,-0.565732,-0.958574,0.969053,0.093383,-0.228508
0.321077,-0.419603,0.040054,0.874943,-0.414447,-0.250416
-0.002363,0.091853,0.937069,-0.173175,0.773315,0.609913
0.259787,-0.426244,-0.232358,0.926523,0.345280,-0.149457
0.029190,0.372529,0.547499,-0.917057,0.073221,-0.391977
0.382607,0.036931,0.421147,0.273922,0.918434,-0.285387
0.191551,0.220714,0.482781,0.255858,-0.940203,-0.224845
0.152337,0.495118,0.616299,0.262137,-0.622977,0.737010
0.001386,-0.408002,-0.863968,-0.662195,0.332162,-0.671689
0.166993,0.043205,0.791244,0.930816,0.356132,-0.082168
0.260171,0.202119,0.748364,0.747019,-0.125835,0.652785
0.290337,-0.286162,0.223818,0.990585,-0.129914,0.043160
0.299796,0.198857,0.736855,0.271544,0.146264,0.951247
0.304990,-0.443853,-0.142821,0.524117,0.837937,0.152193
-0.206903,-0.287697,0.568961,-0.277569,0.954200,0.111610
0.570009,-0.532874,-0.109638,0.860017,0.505285,-0.071114
0.322142,-0.749754,-0.861060,-0.236237,0.971628,-0.011470
0.140932,0.102083,0.472823,0.879704,-0.473571,-0.043024
-0.177248,-0.090859,0.642854,-0.138070,0.941540,0.307309
-0.266363,0.420941,0.509427,-0.659331,-0.741403,0.124917
0.087065,0.564443,0.653585,0.870194,0.492610,-0.009902
0.368480,-0.459086,-0.497890,0.688313,-0.723256,-0.055908
-0.251417,0.048681,0.662566,-0.236251,-0.970799,0.041648
0.115682,0.093362,0.839246,0.973268,0.007846,0.229540
0.402347,0.508402,0.872336,0.406028,0.713411,-0.571127
0.598670,-0.185484,0.791968,-0.674699,-0.182641,-0.715138
0.286253,-0.427542,-0.969539,-0.387858,0.154676,-0.908648
0.003874,0.437931,0.616058,0.989608,-0.138455,0.038813
0.334762,0.648393,0.804501,0.899002,0.265954,0.347943
-0.568577,0.453864,0.660896,-0.258573,-0.461488,0.848628
-0.068032,-0.140260,0.841536,0.077619,-0.052322,0.995609
-0.177335,0.036663,0.749672,-0.399612,0.537680,-0.742435
0.182017,0.251872,0.859713,-0.513899,0.796304,-0.319072
0.318532,0.545890,0.609090,0.863301,0.503806,0.029858
0.426860,-0.403643,-0.970658,-0.333998,-0.837567,-0.432351
0.232726,0.284588,0.834828,0.332322,-0.705477,-0.625991
0.275883,-0.122626,0.565729,0.970093,0.177517,0.165549
0.301170,-0.334605,0.049111,0.924449,0.277207,-0.261821
0.410366,0.297811,0.777138,0.914228,0.341544,-0.218023
-0.144047,0.199552,0.532990,-0.456860,0.858688,0.232237
0.184664,0.247379,0.762533,-0.616396,0.355772,-0.702483
0.435134,-0.055285,0.477101,0.010726,-0.454312,0.890778
0.167385,0.117601,0.743472,0.819060,0.573599,-0.011210
0.074812,-0.755792,0.383683,0.909343,-0.324300,0.260623
0.283675,-0.659466,-0.888178,0.954047,-0.199214,0.223849
0.617929,-0.545807,-0.949161,0.787439,0.578105,0.213855
0.206163,0.023138,0.902638,-0.068320,0.844336,0.531441
0.050875,-0.249742,0.853352,-0.478148,0.321681,0.817249
-0.034946,0.361567,0.708517,-0.764726,-0.644355,0.001321
-0.019308,-0.531220,-0.046141,0.248251,0.955615,0.158657
0.150203,-0.294138,0.420211,-0.026479,0.991065,0.130723
0.203053,-0.695180,0.400957,0.602419,0.666618,0.438989
0.095537,0.078294,0.394600,0.363999,0.912103,-0.188608
-0.123466,0.343046,0.742726,0.996723,-0.078758,-0.018447
-0.240055,0.242857,0.587033,0.120221,-0.725221,0.677939
0.119000,-0.433221,-0.869189,-0.626220,0.659707,-0.415493
0.410590,0.127909,0.815140,-0.279444,-0.128478,0.951527
