0.198898,-0.042644,0.427800,0.662125,0.188924,-0.725188
0.237618,-0.465668,0.717199,-0.673538,-0.734434,-0.083385
0.263736,-0.233963,0.808114,0.730402,0.438514,0.523659
-0.619169,0.348506,0.801813,0.504888,-0.794810,0.336698
-0.102575,-0.365749,0.910507,0.907850,0.283395,0.309024
-0.032371,0.238276,-0.985773,0.257610,0.004037,-0.966240
0.402851,0.690549,0.784128,0.466000,0.873089,0.143383
0.814449,-0.008005,0.571509,0.544345,0.438671,-0.715022
-0.309836,0.330135,0.286521,0.506455,0.227490,0.831716
-0.170863,-0.113671,-0.463227,0.289513,0.863121,0.413769
0.536552,-0.188545,-0.031258,0.902319,-0.279966,0.327780
0.174506,0.804989,0.861675,-0.685655,0.105703,0.720212
0.195112,-0.779943,0.482838,-0.441606,-0.311748,-0.841307
0.173595,-0.006927,0.500935,0.743994,0.488583,0.455807
-0.020486,0.437033,0.249505,-0.157602,0.423337,0.892159
0.159459,0.014369,0.801140,0.458225,-0.157592,-0.874754
-0.796910,0.134867,0.050383,0.917168,-0.074400,0.391494
0.120020,0.298011,0.942868,0.752363,-0.262592,-0.604149
-0.441189,0.066715,0.746569,0.958475,-0.156845,0.238173
0.322440,0.237452,0.543578,0.565763,0.505896,0.651138
0.086666,-0.129530,0.288615,-0.102975,-0.497325,0.861431
0.292344,0.525557,0.739390,0.054478,-0.770325,0.635321
0.420822,0.239557,0.208450,0.893288,-0.367980,0.258121
0.658465,-0.119623,0.043896,-0.355467,-0.758072,0.546781
0.255445,-0.282869,0.786371,-0.191697,-0.143715,0.970875
-0.192525,-0.245098,-0.204767,-0.209952,0.825448,-0.523981
0.045693,-0.223595,-0.039821,0.324743,0.930402,0.169983
0.230095,-0.158936,0.788260,0.881436,0.132530,0.453328
-0.198035,0.038951,0.939596,0.973483,0.021949,0.227702
-0.022739,0.274506,0.631557,0.205102,-0.845790,0.492516
-0.122750,0.039978,0.048476,0.054892,-0.182003,0.981765
0.078184,-0.541055,0.713909,0.269112,0.586463,0.763963
0.050102,0.133840,0.914059,0.715314,0.112889,-0.689624
-0.192332,0.081393,0.311348,0.597213,0.771955,-0.217765
0.337391,0.566408,0.770630,-0.323645,0.926354,-0.192670
-0.735905,-0.127578,-0.106768,-0.493079,-0.864247,0.099748
-0.195351,-0.219952,-0.980856,-0.417980,0.392403,0.819336
0.463136,-0.201478,0.767901,0.760318,0.628895,-0.162502
0.041188,-0.411424,-0.094354,0.411445,0.412171,0.812913
-0.012819,0.460691,-0.477304,0.053934,0.127005,0.990435
0.128932,0.404238,0.854178,-0.565085,-0.819347,0.096691
-0.554810,-0.153341,-0.102038,-0.341097,0.669313,-0.660056
0.602588,0.216002,0.509834,0.298365,0.294340,0.907933
-0.133629,0.596224,0.813143,-0.430659,0.703635,-0.565181
0.809705,-0.028223,0.488334,-0.413787,0.805391,0.424413
0.255685,-0.194242,0.279884,0.162519,-0.922507,-0.350098
0.372277,0.466799,0.804244,-0.020271,-0.463444,0.885894
-0.770408,-0.126348,-0.041129,0.556301,0.829244,-0.053695
0.267857,-0.305397,-0.330679,0.170221,-0.568252,-0.805055
-0.042530,-0.200811,-0.150925,0.775241,0.631653,0.003853
0.452881,-0.130504,-0.170350,0.183721,0.160686,-0.969756
0.281993,-0.439135,0.881697,0.825588,-0.560667,0.063690
-0.379609,0.215592,0.785773,0.883298,-0.297968,0.361938
-0.708015,-0.179461,-0.102599,0.850571,0.496035,-0.174580
0.183612,-0.134711,0.290503,-0.592632,-0.352931,-0.724036
-0.059973,0.245151,0.870200,0.499523,0.845851,-0.187117
-0.005056,-0.087601,0.661189,0.815028,0.567869,-0.115129
-0.217396,0.759624,0.897457,0.958265,-0.252580,0.133911
-0.512592,0.546599,0.741578,-0.365890,0.918120,-0.152254
0.763413,0.182697,0.281810,0.344937,0.002611,0.938622
0.481107,0.319357,0.221724,0.389948,-0.315546,0.865084
-0.002036,-0.023656,0.403645,0.999140,0.026799,-0.031642
0.488488,-0.119265,-0.153524,0.124317,0.936361,-0.328289
0.317791,-0.226520,-0.076725,0.478464,-0.417582,0.772462
-0.247730,0.698912,0.897233,-0.141403,-0.693683,0.706264
-0.483695,-0.070101,0.697102,-0.536228,-0.516979,0.667228
0.144507,-0.329878,-0.951225,-0.143230,0.215226,0.966004
0.264071,-0.208150,0.701440,0.456883,0.870327,0.183817
0.538996,0.016321,0.242326,-0.537838,0.162518,0.827235
0.043394,0.094223,0.089362,0.066027,0.745794,0.662896
-0.320235,0.319307,0.782838,0.200227,0.768599,-0.607589
0.040710,0.605154,0.761600,0.879583,0.088087,-0.467519
0.145945,-0.212563,-0.322191,0.222260,-0.004156,-0.974979
-0.722056,-0.207943,-0.120770,-0.203878,0.851636,-0.482856
0.076794,-0.138046,-0.343130,-0.414467,0.579678,0.701563
-0.024081,-0.066969,-0.241466,-0.881101,0.439080,-0.175698
-0.337151,0.353690,0.515311,0.081150,0.426146,0.901008
0.558069,0.094580,0.103571,0.846280,-0.017631,0.532446
0.002948,0.159242,0.841428,0.389347,0.916303,-0.093796
0.042674,-0.418452,-0.319518,0.139983,0.807084,0.573603
-0.232203,-0.256133,0.671845,0.038292,0.218904,0.974995
-0.031413,-0.008315,0.883287,0.825465,-0.546712,0.140404
0.103630,-0.309453,0.542475,0.323930,0.656153,0.681566
0.344818,-0.044902,0.032810,0.037088,-0.347201,0.937057
0.307248,-0.232525,0.711535,0.850619,0.525522,-0.016560
0.695412,0.667404,0.475023,-0.636052,0.770819,0.035732
-0.044447,-0.440469,-0.248252,0.701997,0.692184,-0.167576
0.263161,0.274710,0.487269,0.669997,0.112072,-0.733856
0.097209,0.319924,-0.074986,0.534679,0.759371,0.370776
0.634024,-0.061685,0.062068,0.355182,0.544344,-0.759957
-0.280172,0.309813,0.817592,0.043354,-0.260271,0.964562
0.111538,0.435645,0.657599,0.517108,-0.126135,-0.846575
0.005344,0.122448,0.367545,0.741947,-0.004312,0.670445
0.173069,0.082728,0.816433,0.784289,0.152099,-0.601462
-0.666132,0.113314,0.109048,-0.481250,0.702849,0.523834
0.885180,-0.114542,0.253786,0.542935,0.802744,0.246624
0.686978,0.057682,0.577005,-0.189772,0.371503,0.908830
-0.033569,-0.073591,0.359413,0.989997,-0.058225,-0.128514
0.455134,0.438367,0.233520,0.070707,-0.700738,0.709906
0.789003,0.164633,0.596710,0.704397,0.428934,-0.565545
-0.261243,0.047214,0.790970,0.991619,0.106525,0.073104
0.255445,0.557991,0.768947,0.019127,-0.842176,0.538864
0.637906,-0.178487,0.242195,-0.215191,-0.761664,-0.611196
-0.058680,-0.303602,-0.202617,-0.793012,-0.098043,0.601265
-0.082784,0.230883,0.041260,-0.423356,-0.443256,0.790123
0.746209,0.592324,0.445485,-0.057346,-0.133358,0.989407
0.275908,-0.308786,-0.136007,0.775525,-0.610067,-0.162419
-0.259039,-0.285385,0.031445,-0.390995,0.915068,-0.098858
0.761064,0.327620,0.452851,0.110180,0.986495,-0.121197
0.324501,-0.353483,0.419555,0.626762,0.159483,0.762716
0.210399,-0.828954,0.489344,0.249515,0.705290,0.663558
0.629377,-0.037000,-0.165283,-0.039567,-0.343991,0.938139
-0.253864,-0.154932,-0.445896,0.288322,0.386146,0.876220
0.521170,-0.076567,0.074631,-0.411762,0.771146,-0.485578
0.804290,0.095351,0.250720,0.074946,0.022526,0.996933
0.294933,0.577029,0.777958,-0.084124,-0.805176,0.587039
0.298574,0.640564,0.805272,0.874672,0.484661,0.007259
-0.190224,0.683980,0.815910,0.904363,0.113510,0.411392
0.537127,0.385611,0.808731,0.999135,-0.003684,-0.041425
0.005007,0.497539,0.423406,0.881131,-0.030092,0.471914
0.424465,0.156113,0.497925,0.220380,-0.673702,0.705378
-0.234886,0.216362,0.654178,0.679290,0.729465,0.080289
-0.197604,0.638409,0.867041,0.576905,-0.117873,0.808261
0.028345,-0.117211,0.057095,0.095870,0.970169,-0.222668
0.727998,0.164633,0.258478,0.467454,0.178227,-0.865865
0.197604,0.570204,0.873920,0.285895,0.564729,0.774174
0.171008,-0.500768,0.681342,0.835947,0.237138,0.494932
-0.436109,0.288207,0.048794,-0.204570,-0.063300,0.976803
0.807500,0.358617,0.475696,0.267437,0.480582,-0.835176
0.415983,-0.070048,0.203290,-0.204434,-0.271759,0.940401
0.053408,-0.234526,-0.155076,0.472945,-0.785480,-0.399180
0.418666,-0.328391,0.745672,0.282109,-0.946279,0.158022
-0.799018,-0.069538,-0.084539,0.464046,0.877438,0.121510
-0.174457,-0.265987,0.049411,0.136457,-0.981503,0.134279
0.096394,-0.465925,0.432174,0.969151,-0.239889,-0.056556
-0.731928,-0.133583,0.000019,-0.395604,-0.912735,-0.102043
0.502480,-0.141742,0.834212,0.107589,0.987402,-0.116027
0.470660,0.187674,0.417237,-0.646587,0.717349,-0.259491
0.385360,-0.127782,-0.168555,0.225312,0.249638,-0.941762
-0.703079,0.198245,0.012619,0.535781,-0.840722,0.078265
-0.065724,-0.045930,0.886689,-0.669508,0.463759,-0.580247
-0.062657,-0.113311,0.151935,-0.379381,0.924068,-0.046575
-0.183611,-0.233655,-0.680052,-0.060536,0.994414,-0.086464
-0.629663,0.354821,0.791886,0.652525,-0.723602,0.224970
-0.209105,0.797703,0.884913,0.992168,0.093559,0.082761
0.713862,-0.201324,0.240269,-0.454101,0.146600,0.878806
-0.250940,-0.375860,0.601944,0.605125,-0.779396,0.162373
-0.003330,0.150879,0.811292,0.793537,-0.592097,-0.140427
0.295796,-0.181413,-0.013180,0.295957,-0.945485,0.135894
-0.106122,-0.179514,-0.451785,0.997704,-0.036313,0.057163
-0.047610,0.809609,0.778688,0.669685,-0.119256,0.733008
0.280317,-0.384944,0.432342,0.937349,0.215886,0.273442
0.099989,-0.206815,-0.960722,-0.130244,0.204010,0.970266
0.377070,0.029304,0.583642,0.477987,0.446412,-0.756469
0.085037,0.626093,0.787063,0.963975,0.049487,-0.261348
-0.058440,-0.294262,-0.931819,0.771429,-0.195797,0.605443
0.416317,0.602332,0.803739,0.853043,0.339684,-0.396148
-0.194777,-0.195010,-0.983885,0.297666,-0.221059,-0.928724
-0.007260,0.484042,0.424023,0.356242,0.887612,-0.291951
0.049671,0.519963,0.751505,0.881428,-0.042549,-0.470399
-0.592860,-0.034845,-0.076332,-0.340697,0.884077,0.319894
-0.062370,0.432209,0.757506,0.858182,-0.509773,-0.060467
-0.255876,-0.342245,0.669078,0.321695,0.273622,0.906445
0.224968,0.222827,0.795719,-0.104379,-0.993845,-0.037104
-0.017946,-0.233552,0.694915,0.568070,-0.820811,-0.059709
-0.000455,0.551780,0.723780,0.716996,0.035045,-0.696196
-0.076794,-0.247306,0.773023,0.669332,0.407443,0.621276
0.368253,0.563789,0.514414,-0.734964,0.610152,-0.295877
-0.269103,-0.360565,-0.976257,-0.258504,0.169043,0.951105
0.690285,0.264702,0.267770,-0.396392,0.791471,-0.465239
-0.199425,0.068921,0.611086,0.572661,-0.468014,-0.673070
-0.423984,0.149955,0.057674,0.282641,0.349733,0.893197
-0.160656,0.157961,0.580351,0.751041,0.311180,0.582327
-0.028441,-0.073334,-0.239596,0.946224,-0.293823,-0.135384
-0.489302,-0.202555,-0.124790,0.120333,-0.239038,0.963525
0.024416,0.226317,0.567564,-0.581938,0.339215,-0.739109
0.588020,-0.198295,0.277173,0.249169,0.312997,-0.916487
0.300204,-0.091451,0.184277,-0.464960,0.146745,-0.873085
0.375153,-0.338909,0.006113,0.012835,0.453328,0.891251
0.525243,0.012985,-0.113199,0.968593,0.155413,0.194101
0.012820,-0.224262,0.380015,0.860614,0.390534,-0.326843
0.054989,-0.219798,-0.964760,-0.156909,0.234553,0.959356
-0.850821,0.023556,-0.007721,-0.233993,0.830582,0.505352
0.086186,0.667351,0.766031,0.916069,0.300480,-0.265573
-0.310123,0.312429,0.297158,0.579976,0.388222,0.716179
-0.022163,0.905011,0.782670,0.357136,0.111605,0.927361
0.041525,-0.243817,-0.191849,-0.147356,0.031540,0.988581
0.120930,-0.244330,0.059189,0.212470,0.974333,-0.074379
0.355121,0.616136,0.541503,0.037607,-0.007328,0.999266
0.656213,0.517758,0.473883,0.936671,0.029128,-0.348996
0.946042,0.169917,0.398168,-0.421177,0.677728,-0.602739
-0.429831,0.587757,0.731034,-0.540572,0.350639,-0.764744
0.065820,-0.116647,0.730866,0.454690,0.690853,-0.562120
0.135642,-0.177667,0.832025,0.760346,0.649185,-0.020826
0.774818,0.411577,0.424883,0.382583,0.907086,-0.175571
0.721194,-0.035152,0.534100,0.305636,0.706218,0.638626
0.201246,0.267628,0.614133,0.282995,-0.959074,0.009547
-0.104444,0.641845,0.048682,0.058138,0.076080,0.995405
0.179873,-0.708713,0.733558,-0.518280,0.583495,0.625235
0.095819,0.110028,0.288540,0.073768,-0.366274,0.927578
-0.225302,-0.241865,-0.119181,0.397901,-0.287503,-0.871216
0.316545,-0.509084,0.542157,0.654271,0.521124,0.548051
0.576903,0.154369,-0.448065,-0.431586,0.401547,-0.807771
0.065006,0.433337,0.856141,0.205366,0.012157,0.978610
0.656739,-0.090577,0.053356,0.702509,0.620795,-0.347987
-0.490931,0.165554,0.300411,-0.253334,0.533701,0.806836
0.243322,0.213487,0.818882,-0.538141,-0.765240,-0.353287
0.428777,0.111002,0.224154,-0.280363,-0.613973,0.737857
0.538518,0.269783,0.753281,-0.539690,-0.338578,0.770779
-0.315155,0.291186,0.667919,-0.181841,0.092518,0.978966
-0.203882,-0.017295,0.893307,0.786682,0.592780,-0.172462
-0.420678,-0.434568,-0.394597,-0.125996,0.282531,0.950948
-0.231580,0.099047,0.813274,0.946222,-0.318258,0.058105
0.677585,0.179514,0.239185,0.068637,-0.765095,0.640249
0.366384,0.042954,0.435465,-0.239757,0.179338,0.954125
0.285445,-0.011804,0.816209,0.733193,0.644563,0.216717
-0.108422,0.437647,0.655842,-0.504227,-0.088003,0.859076
0.166695,-0.156831,0.286801,0.208538,0.030334,0.977544
0.117288,-0.226263,-0.349336,0.191203,0.224992,-0.955416
0.129268,0.309763,0.590222,-0.460728,0.781325,0.421025
0.183180,-0.174124,0.036343,0.214855,-0.937298,-0.274428
-0.262106,0.272965,0.665807,-0.009623,-0.236480,0.971589
-0.053696,-0.196090,-0.123518,0.786519,0.455062,0.417501
0.601295,0.207279,0.480595,-0.630586,-0.510461,-0.584628
0.229041,-0.247306,0.800953,-0.704711,0.134656,-0.696599
0.633066,-0.358360,0.208861,-0.537590,-0.512542,0.669551
-0.032946,-0.072410,0.391438,0.983706,-0.138752,-0.114328
0.047227,-0.104691,0.855693,0.061407,-0.920471,0.385956
0.365329,0.139331,0.233707,-0.553166,0.098322,-0.827249
0.728381,0.370576,0.378052,-0.091108,0.382474,-0.919463
-0.404769,0.140665,0.784932,0.886425,0.392483,-0.245374
0.394609,0.177973,0.767938,0.033060,-0.174357,0.984127
-0.161855,0.520887,0.809048,0.837214,-0.413518,0.357877
0.239152,-0.182337,0.692578,0.350236,0.888387,-0.296822
0.277968,-0.230780,0.302617,0.670979,0.662212,-0.333560
0.247106,-0.159446,0.730978,0.632591,0.760917,-0.144336
0.068456,0.131992,0.846850,-0.260761,-0.927808,0.266786
0.723206,0.436726,0.459320,-0.656248,0.156840,-0.738065
0.459446,0.096738,-0.148645,-0.298832,0.676816,-0.672770
0.231101,-0.699476,0.539035,0.466208,0.865102,-0.185063
-0.254774,-0.295903,-0.440082,0.220609,0.229285,0.948029
0.051683,-0.004105,0.473490,0.075620,-0.633050,0.770408
-0.159315,0.593862,0.886932,0.201043,-0.799975,0.565351
0.095291,-0.222877,0.649598,-0.753270,-0.454402,-0.475503
0.164347,-0.036229,0.406693,0.427780,0.672192,-0.604286
0.258704,-0.009339,0.430492,-0.226250,0.045514,0.973005
0.181598,0.008314,0.807889,-0.242478,-0.288445,0.926285
0.293304,-0.372881,0.815741,-0.088685,0.884252,0.458511
0.193052,-0.153188,0.316657,-0.638716,-0.248514,0.728205
0.351385,0.207279,0.151842,0.150244,0.408645,0.900242
0.640974,-0.291646,-0.199477,0.316649,0.273563,-0.908238
-0.406494,0.111413,0.640980,-0.096293,-0.494128,-0.864040
0.142063,0.165197,0.627276,-0.374939,-0.093646,-0.922307
-0.470277,-0.103100,0.680856,-0.365254,0.251487,-0.896295
-0.450294,-0.302474,-0.063152,0.644663,0.591879,0.483827
0.609058,-0.268192,0.286371,0.677489,0.492181,-0.546595
0.058727,-0.411217,0.398934,0.950626,0.261565,-0.167013
0.204505,0.369188,0.875005,-0.698377,-0.218328,0.681617
0.330586,-0.069895,0.181772,-0.553339,0.346493,0.757468
0.240398,0.420304,0.526229,-0.772738,0.122262,-0.622839
0.337630,0.300063,0.512657,-0.545205,-0.755054,-0.364205
-0.115610,-0.419583,-0.456534,-0.175592,-0.809172,0.560722
0.319468,-0.107617,-0.337035,-0.058788,0.120730,0.990943
-0.662250,-0.181719,-0.459133,0.430209,0.016766,-0.902574
-0.202204,0.146106,0.632604,0.911291,0.247658,-0.328958
-0.008314,0.043518,0.887007,0.699963,0.601816,-0.384537
0.121649,0.405162,0.867153,-0.390359,-0.205157,0.897513
-0.246579,-0.243250,-0.124528,-0.413739,0.299135,0.859848
-0.070133,0.228422,-0.989849,-0.197445,-0.016590,0.980174
0.076555,0.186646,0.093401,0.997621,-0.048288,-0.049200
0.111393,-0.280714,-0.005253,0.997716,0.057359,-0.035663
-0.034958,0.037360,0.871789,-0.679921,-0.695152,0.233390
-0.115035,0.482551,0.740419,-0.406993,-0.644892,0.646893
0.334755,0.146823,0.576725,-0.655767,0.054525,0.752992
0.696035,-0.117878,0.020060,-0.492762,-0.531316,0.689122
0.395855,0.483885,0.692428,0.623951,-0.190471,-0.757896
-0.859542,-0.064661,-0.105534,0.564607,0.824936,0.026471
0.662969,0.548958,0.437502,0.891302,0.419771,0.171388
0.356752,0.278610,0.788147,-0.263091,0.244526,-0.933269
0.259855,-0.138664,0.024977,-0.803783,0.592231,0.056528
-0.317934,0.579237,0.653430,-0.037844,-0.189364,0.981177
0.017516,0.349020,0.902823,0.533213,-0.530706,-0.658813
0.129652,-0.267114,-0.957936,-0.148730,0.146165,0.978016
-0.068839,-0.400542,-0.616695,0.760944,-0.269599,-0.590153
-0.198035,0.179464,0.593980,0.851377,0.295611,0.433326
-0.070948,0.073951,-0.983773,-0.190977,0.152150,0.969731
0.195209,0.154315,0.581679,0.855296,0.277145,-0.437789
-0.081442,-0.349737,-0.595364,-0.677056,-0.401203,0.616953
0.085133,-0.104281,0.816358,0.105726,0.639354,0.761609
-0.185240,0.252386,0.518003,-0.767260,-0.206336,0.607238
0.203163,0.432773,0.336755,0.563691,0.600322,0.567332
-0.221900,-0.353226,-0.976070,-0.298125,0.159537,0.941100
0.250030,-0.543877,0.426753,-0.088932,-0.321252,0.942809
0.440278,-0.077387,0.198112,0.218445,0.236641,-0.946722
0.088535,-0.299702,-0.093176,0.382500,0.863566,-0.328554
0.908949,0.302114,0.260572,0.241644,-0.550911,0.798815
0.973500,0.182233,0.406188,0.469202,-0.668762,0.576721
0.004193,0.202045,0.654534,-0.589027,-0.438309,0.678920
0.532383,-0.085547,-0.164068,-0.410082,0.277732,-0.868733
0.397292,-0.058453,0.205534,-0.204434,-0.271759,0.940401
0.760538,0.183517,0.487325,0.322761,0.626228,0.709692
0.849384,0.325772,0.400467,-0.690546,0.676133,-0.256887
0.704900,-0.002103,-0.144663,0.647957,0.203652,-0.733947
0.561471,-0.131888,0.310207,0.533114,0.238495,-0.811732
-0.000551,-0.077287,0.120191,-0.284212,0.580272,0.763222
0.225638,-0.237145,0.056908,0.043494,0.402556,0.914362
0.561328,-0.247099,0.278613,0.365926,0.583193,-0.725247
-0.541536,-0.140665,0.054851,0.024471,-0.349641,0.936564
-0.205511,0.676538,0.846196,0.995934,0.088810,0.015118
0.330538,0.025301,0.435670,0.070818,-0.058607,0.995766
0.251804,0.048805,0.471228,0.770924,0.600841,0.211344
-0.056763,-0.085600,0.313217,0.734944,0.518610,-0.436921
0.235463,0.146209,0.612152,0.757255,0.414504,-0.504729
-0.033138,-0.345787,-0.584651,-0.647854,-0.200060,0.735025
0.017036,-0.201581,0.667751,-0.786215,0.600007,0.147846
0.059350,0.679463,0.799551,0.970405,0.212835,0.114082
-0.156343,0.471776,0.679361,0.007288,-0.076584,0.997037
0.180736,0.294572,0.605291,-0.498231,0.296207,0.814878
0.165066,0.212153,0.806992,0.478943,-0.685948,-0.547803
-0.196214,-0.366673,-0.126884,0.518660,0.632856,0.574878
0.519971,0.102279,0.453374,0.596451,0.632849,-0.493709
0.733414,0.078314,0.248158,0.263470,0.020235,-0.964455
-0.951600,-0.032536,-0.066685,0.769519,0.509233,0.385385
-0.556631,0.187417,0.281268,-0.321229,0.326393,0.888977
0.854751,-0.188905,0.274986,-0.306458,0.277790,-0.910449
0.352103,0.592734,0.533202,0.113551,-0.411316,0.904392
-0.119924,0.640564,0.042662,0.058138,0.076080,0.995405
-0.410710,-0.182337,0.103627,0.729468,0.586278,-0.352355
-0.256739,0.310634,0.807123,0.023954,-0.397652,0.917224
-0.198035,0.373245,0.842980,0.097044,0.082172,0.991882
0.346304,-0.602585,0.678258,0.213877,0.762817,0.610218
-0.043249,-0.326543,0.715106,0.474581,-0.712872,-0.516320
0.321386,0.465258,0.658946,0.659989,0.418338,-0.624026
0.172589,-0.212049,0.000692,-0.158895,0.583354,-0.796524
0.054751,0.190703,-0.043840,-0.414243,0.064899,-0.907849
0.334804,-0.143948,-0.036268,0.158890,0.986450,-0.040878
0.865917,-0.116954,0.263881,-0.009547,0.502253,0.864668
0.746928,0.251926,0.262255,-0.236456,0.945630,-0.223321
0.072722,0.687366,0.768237,0.879057,0.293334,-0.375784
0.074014,0.063790,-0.247766,0.811919,-0.341466,0.473486
0.089350,0.135227,0.850271,-0.098256,0.903062,-0.418122
0.567318,0.154369,0.406263,0.390815,0.003858,0.920461
0.052114,-0.173767,0.624752,0.705574,0.706613,0.053515
0.056475,0.578263,0.821331,-0.124980,-0.983605,0.130002
0.705763,0.064250,0.558740,-0.479187,0.867979,-0.130356
0.176230,0.621166,0.847112,0.541502,-0.282312,-0.791881
0.339643,0.569180,0.684707,-0.083205,-0.076893,0.993562
0.538948,0.215078,0.146943,0.970544,0.044609,0.236756
-0.435581,0.562251,0.746382,-0.190209,0.961353,0.199051
-0.172732,-0.415940,-0.476986,0.104642,-0.850787,0.514986
0.052737,-0.272655,-0.957375,-0.075915,0.155650,0.984891
-0.151168,-0.480446,-0.961096,0.190209,-0.083330,-0.978201
0.088727,-0.166938,-0.964853,-0.189845,0.134209,0.972598
0.425088,-0.227341,-0.007104,0.758610,0.593672,-0.268448
0.118151,0.902239,0.851112,-0.423205,-0.778607,0.463324
-0.637283,-0.208096,-0.126248,0.369070,0.508738,-0.777800
-0.325938,-0.012571,0.885119,-0.048607,-0.922613,0.382652
0.221325,0.093503,0.614750,0.574587,0.475134,-0.666406
0.286691,0.048241,0.590166,0.173344,0.001432,0.984860
0.252713,-0.361386,0.824023,-0.134234,0.735554,0.664034
0.427580,-0.207019,0.769022,-0.590056,0.197701,0.782783
-0.145465,-0.007851,0.753748,0.954219,-0.292798,0.061122
-0.033042,0.405009,0.255599,-0.281295,0.498182,0.820175
0.857866,0.322179,0.461563,0.423924,0.886045,-0.187649
-0.759051,-0.220055,-0.083567,0.756819,0.544630,0.361390
-0.052162,-0.282663,0.789849,0.465280,0.708484,0.530628
0.148677,0.058606,0.498374,0.037684,0.730809,0.681541
-0.180160,0.183774,-0.992784,-0.121041,0.074820,0.989824
0.204361,-0.233089,0.283978,-0.496884,-0.806337,-0.320821
-0.275428,0.561327,0.664835,-0.218239,-0.271803,0.937281
-0.139379,-0.456788,-0.967284,-0.227108,0.093767,0.969345
0.423650,-0.193112,0.431969,-0.029856,-0.894250,0.446571
-0.010759,0.765115,0.770050,0.053523,-0.437366,0.897689
0.784210,0.435699,0.496093,-0.260391,-0.606760,0.751025
-0.441236,0.321565,0.289419,0.752880,0.385921,0.533139
-0.281419,-0.217283,0.661563,-0.560166,-0.533343,-0.633845
0.142973,0.766756,0.826584,0.483708,0.652007,-0.583878
-0.037690,0.387509,0.263040,-0.352720,0.436126,0.827878
0.821925,0.069331,0.247467,0.037051,-0.019834,0.999117
0.983372,-0.080980,0.244457,0.524344,-0.134309,0.840847
-0.273895,0.288053,0.280632,-0.018622,0.393593,0.919096
-0.115802,0.647029,0.938680,0.229586,0.968347,0.097952
-0.269055,-0.027146,0.854777,0.850800,-0.492182,-0.184112
0.705380,0.505698,0.497233,0.794527,0.415137,-0.443157
-0.015454,-0.190906,0.375192,0.967136,0.112362,-0.228086
0.530274,-0.107667,0.045354,0.154839,-0.857451,0.490716
-0.140913,0.150366,0.817779,-0.114436,0.513413,-0.850477
0.078136,0.323874,0.809105,0.943364,0.043781,-0.328858
-0.047418,-0.192958,-0.972836,0.193339,-0.330052,-0.923951
0.251564,-0.055631,0.327650,-0.573338,0.384965,-0.723246
0.113598,0.902546,0.799701,-0.295942,-0.955197,-0.004083
-0.154091,-0.297804,0.611423,-0.396096,-0.418923,-0.817075
0.364849,0.041620,0.319929,0.150288,-0.471291,0.869079
-0.253720,-0.280405,0.039260,-0.390995,0.915068,-0.098858
0.113262,-0.158625,0.798355,0.130701,0.143968,0.980913
0.275093,0.687366,0.817424,0.979953,-0.165290,0.111224
0.477225,0.365082,0.752702,0.558212,-0.203905,-0.804253
0.754020,0.185979,0.436343,0.394443,0.566042,-0.723886
-0.092799,-0.133326,-0.073808,0.491932,0.870553,-0.011828
0.107177,0.247769,-0.057188,-0.253539,0.507611,0.823437
0.408698,0.700299,0.788353,-0.600803,-0.797098,-0.060577
0.799689,-0.121677,-0.184334,0.256232,-0.423856,0.868730
0.048281,0.914915,0.851598,-0.604162,-0.686923,0.403888
0.110675,-0.000102,0.106132,-0.603284,-0.149127,-0.783460
0.131041,-0.175922,0.000748,-0.024351,-0.949847,-0.311766
0.014161,-0.319461,-0.172406,0.546016,-0.666500,-0.507587
-0.058296,-0.216156,-0.089475,0.835044,0.543718,0.084100
0.346401,0.357900,0.742363,-0.612340,0.667169,0.424176
0.298623,-0.378629,0.448364,0.740172,-0.495097,-0.454999
0.443490,0.550396,0.788166,0.813998,0.355593,-0.459304
0.618929,-0.239504,0.294261,-0.505110,-0.483912,0.714628
-0.141871,0.742431,0.888858,0.870478,0.479625,-0.110584
0.370408,-0.106589,-0.348476,-0.054730,0.642219,0.764565
0.060836,0.448425,0.650215,0.399148,0.018225,-0.916705
0.126154,0.067433,0.773210,-0.276797,-0.674823,-0.684104
0.687313,0.576722,0.456983,0.319091,0.480218,-0.817050
-0.028393,0.856051,0.760740,-0.535209,0.374628,-0.757104
-0.112495,-0.422559,-0.289400,0.194308,0.394808,0.897982
0.325985,-0.944218,0.491606,-0.112757,0.310475,-0.943870
-0.088199,-0.043108,0.688689,-0.065189,-0.980696,0.184350
0.053552,0.504774,0.414545,0.951507,-0.303915,-0.047643
0.169234,0.054706,-0.156067,0.343766,-0.689686,-0.637305
-0.263112,-0.281585,0.655169,-0.357359,-0.487484,-0.796652
0.517336,-0.294262,-0.109778,-0.130162,0.276312,0.952213
0.170337,0.352099,0.376781,-0.609383,-0.530146,-0.589574
-0.567797,-0.110539,0.063975,-0.118218,0.436057,-0.892120
0.110100,-0.217490,-0.342270,0.242117,0.154292,-0.957900
0.434959,-0.171609,0.773210,-0.811443,0.281210,0.512329
0.400167,0.106282,0.424173,-0.629660,0.735439,0.250314
-0.174745,0.192651,0.593176,0.893411,0.094504,0.439189
-0.122846,-0.185209,-0.424322,-0.716197,-0.679848,0.157697
-0.569666,-0.139074,-0.128286,-0.143912,-0.248545,0.957870
-0.433233,0.641845,0.716751,0.565518,0.824642,0.012443
0.409417,-0.019346,0.041634,0.041558,-0.218646,0.974919
-0.097783,-0.438521,-0.466480,0.351271,0.657102,-0.666953
-0.173068,0.568102,0.868405,-0.094385,-0.812907,0.574695
0.027292,0.409475,0.440699,0.947979,0.302859,-0.098044
0.977190,-0.136302,0.236044,0.476763,0.124655,0.870149
0.054511,-0.066459,0.839521,0.572736,0.812152,-0.111275
-0.315586,0.575645,0.661152,-0.037844,-0.189364,0.981177
0.157350,-0.823823,0.490447,0.763211,0.632113,0.133946
-0.487768,0.641845,0.696504,-0.768696,-0.514986,-0.379335
-0.093423,0.328751,0.842419,-0.772843,-0.000072,0.634598
0.510771,0.034024,0.216433,-0.217346,-0.337756,0.915796
0.689565,0.380170,0.430155,0.788197,-0.612640,-0.058472
0.750858,-0.021555,0.505272,0.080022,0.958705,0.272911
-0.451779,0.300523,0.058011,0.278107,0.113539,0.953816
0.297042,-0.980909,0.482987,0.063602,-0.108700,0.992038
0.106697,-0.037617,0.626996,0.444135,0.096266,-0.890773
0.594154,0.138563,0.552515,0.387194,0.808000,-0.444092
0.425039,-0.071743,0.202580,0.214398,0.266963,-0.939555
0.544508,0.424407,0.767770,0.971054,0.235374,0.040659
0.092704,0.746741,0.811684,-0.505320,0.736013,0.450484
0.073631,0.827519,0.806618,0.396036,0.816196,-0.420690
0.097114,-0.458686,0.410544,0.823805,0.132184,-0.551246
-0.109381,-0.372318,-0.609871,-0.411632,0.204849,0.888029
-0.156871,-0.235757,0.782670,-0.427896,0.703320,0.567667
-0.012819,0.277022,-0.085530,-0.523084,-0.340795,-0.781180
0.617205,-0.166735,-0.154291,0.459092,-0.439589,0.772008
0.019385,0.170071,0.574799,-0.645870,0.740482,-0.185847
0.072194,0.258598,0.552645,-0.669879,0.497855,-0.550820
0.515658,-0.089500,0.074556,-0.305136,0.829303,-0.468133
-0.076506,-0.770092,0.584876,-0.476788,0.037818,0.878204
0.439129,0.381661,0.746158,-0.006161,0.622257,0.782789
0.436205,0.315971,0.753954,0.406591,-0.429117,0.806562
0.193340,-0.175972,0.691456,0.358893,0.709014,-0.607038
-0.086762,-0.355074,-0.466685,0.399153,0.243473,-0.883967
0.253480,-0.189469,0.704879,-0.506380,-0.752282,0.421486
0.507799,-0.346248,0.708955,0.668979,-0.743096,0.016598
-0.129651,-0.166271,-0.223294,0.433924,0.434881,0.789043
0.576854,-0.168326,-0.064442,0.859176,0.481912,0.171981
-0.151887,-0.398337,0.767190,0.872344,0.477185,0.106354
-0.100755,-0.369959,-0.741372,0.863208,0.504012,-0.029069
-0.036492,-0.084059,0.271266,-0.585496,-0.809945,-0.034405
0.151935,-0.783743,0.460273,-0.507009,-0.450160,-0.735049
0.356704,0.377348,0.473341,0.433395,0.856033,-0.281737
0.787085,0.459253,0.443765,-0.195952,0.642662,-0.740667
0.002516,-0.134764,0.188802,0.030350,0.986417,-0.161434
-0.461171,0.208510,0.049673,0.293735,0.188532,0.937110
-0.358141,-0.055631,0.067433,0.605074,-0.589894,0.534706
0.337870,0.303448,-0.166125,0.312456,-0.857679,-0.408360
0.210879,0.654728,0.837428,0.134135,0.177600,0.974918
-0.109477,-0.209073,0.574818,0.142262,0.151704,0.978135
0.365809,0.392076,0.752776,0.303728,-0.903759,0.301610
0.558021,0.697734,0.427912,0.088873,0.362208,-0.927851
0.308974,-0.409369,0.837801,0.790658,-0.544269,-0.280412
0.242076,0.284564,0.647392,0.898880,-0.437946,-0.014751
-0.111393,-0.154419,-0.551393,0.983413,-0.170609,-0.061575
-0.707632,-0.085496,-0.154646,0.392526,0.904355,0.167525
-0.194201,0.480139,0.644120,-0.378135,0.056659,-0.924015
0.368684,0.014679,0.180408,0.883758,-0.278306,0.376189
0.179585,0.281895,0.850196,-0.582553,-0.519401,0.625184
-0.184186,-0.012008,0.918527,0.879419,0.474090,-0.043140
-0.133485,-0.270347,-0.494186,-0.273322,0.927315,-0.255699
0.144747,-0.127272,0.287643,-0.137114,0.399587,-0.906383
-0.152989,0.459407,0.646663,-0.491550,-0.189343,0.850016
-0.094381,-0.108744,0.848065,-0.425647,-0.723195,-0.543888
0.052162,0.272505,0.388484,0.288066,-0.657536,0.696179
-0.046987,0.851023,0.795906,0.921760,0.183940,-0.341357
0.185144,0.020477,0.638007,-0.623991,0.513311,-0.589191
0.379082,0.131838,0.224603,0.374644,-0.316453,0.871493
0.642267,0.072770,0.490447,0.824003,0.521527,-0.221425
0.368156,0.138203,0.240512,-0.476926,0.136072,-0.868347
0.296274,-0.232678,0.424939,-0.261925,-0.310338,0.913830
-0.190511,-0.181616,0.840456,-0.639873,-0.545181,0.541609
0.429449,0.364518,0.745018,-0.153273,0.321938,0.934271
0.015982,0.937496,0.831838,0.822257,0.346604,-0.451397
0.029496,-0.179821,0.549187,0.954542,-0.258007,0.149269
0.252713,-0.129683,-0.157712,0.738988,-0.427376,0.520814
-0.520403,0.000155,0.624378,-0.559229,-0.017572,-0.828827
0.107177,-0.310634,0.445111,0.774360,0.460602,-0.433834
-0.457434,0.551680,0.635390,0.876306,0.374151,0.303478
0.604410,0.240327,0.442307,0.833815,0.261578,-0.486137
-0.281514,-0.238069,0.667003,0.329902,0.474460,0.816120
-0.089350,-0.153341,0.627930,0.123154,-0.863671,0.488780
0.212748,-0.143794,0.443896,0.973021,0.217043,0.078247
0.599666,-0.155650,0.218078,-0.321380,0.263860,0.909446
0.206804,-0.445703,0.787082,0.757336,-0.512863,-0.404245
-0.136360,-0.212256,-0.378557,-0.006934,0.996635,0.081670
-0.427626,0.433954,0.652832,-0.646854,-0.301194,0.700615
-0.050389,0.261317,0.638418,-0.010427,-0.953284,0.301895
0.717839,0.663041,0.484090,-0.714891,0.698619,0.029365
-0.264263,-0.066405,0.088091,-0.597483,0.778797,0.191021
-0.398347,0.141999,0.785063,0.886425,0.392483,-0.245374
0.651277,0.062352,0.432716,-0.026876,0.777426,0.628401
-0.595496,0.208870,0.782819,0.116387,0.713621,0.690796
0.365617,0.374629,0.721032,-0.354377,0.734005,0.579356
0.421685,0.121063,-0.150084,-0.290764,-0.829984,0.476007
0.288846,0.176949,-0.164236,-0.833342,0.373596,0.407390
0.278303,0.474802,0.721761,0.763012,0.369194,-0.530574
0.503343,0.026942,0.219892,-0.217346,-0.337756,0.915796
0.434431,0.183878,-0.447672,-0.215161,0.358407,-0.908433
-0.006254,-0.040953,0.367265,0.997595,-0.031265,-0.061866
0.727040,0.383713,0.384838,0.225854,-0.366182,0.902719
0.013586,0.520219,0.410151,-0.519629,0.388935,0.760734
0.029736,-0.451658,0.022023,-0.113446,-0.979464,-0.166672
0.218067,-0.802167,0.458590,0.053681,0.535179,0.843031
-0.132526,-0.137740,0.053281,0.989770,0.085120,0.114497
-0.000311,-0.131171,0.453505,0.969966,-0.192500,-0.148693
0.888775,0.345737,0.404375,0.932683,-0.316729,0.172586
0.004529,-0.747819,0.610451,-0.405504,0.195838,0.892868
0.807788,0.109875,0.614732,0.668654,0.552689,-0.497430
0.228705,-0.021501,0.794915,-0.524791,-0.847331,0.081392
-0.043776,-0.249254,-0.142531,0.592396,0.791337,-0.151172
0.228513,-0.014676,-0.155281,0.097990,0.110306,0.989055
-0.170624,0.296520,0.294167,0.421252,0.235196,0.875917
0.233977,-0.235143,-0.044532,0.706629,0.702901,-0.081276
-0.979682,0.075646,0.024846,-0.473595,-0.177679,-0.862635
0.245477,-0.166685,0.024117,-0.212041,-0.959994,-0.182895
0.044255,0.416864,-0.133576,0.396813,0.866255,0.303549
0.198275,-0.465768,0.660423,0.465419,0.471399,0.749112
-0.461028,0.177716,0.759226,0.706040,0.256003,0.660280
-0.067641,-0.016985,-0.288334,-0.624228,0.220489,0.749482
-0.008602,0.644207,0.026996,0.401899,0.257069,0.878859
-0.134395,-0.193832,-0.660366,0.012504,-0.995244,-0.096604
0.767821,0.404291,0.469191,0.373495,0.436361,-0.818591
-0.038361,0.030588,0.868686,0.796359,0.313856,-0.517017
0.887049,0.428463,0.478108,-0.623451,0.257212,0.738343
-0.130418,-0.000512,0.287624,-0.315295,-0.379301,0.869896
-0.230334,0.037257,-0.995868,0.191829,-0.037625,-0.980707
-0.035246,-0.187314,-0.194373,-0.463377,0.391292,0.795093
-0.279549,0.110489,-0.053318,0.895071,-0.333767,0.295714
0.046939,0.202248,0.526996,-0.629705,0.718377,-0.295646
0.511057,-0.434568,0.435539,-0.096243,0.623925,0.775535
-0.010710,0.169096,0.809890,0.934815,0.305319,0.181390
0.162046,0.163195,0.812301,0.774867,-0.322646,-0.543581
0.191039,-0.159396,0.486371,0.851359,-0.175540,0.494342
-0.118102,0.409782,0.770967,-0.269446,0.722885,-0.636268
-0.298670,-0.042697,0.853973,-0.145058,0.632416,-0.760926
-0.466155,-0.040029,0.079062,-0.252716,-0.284164,0.924870
0.048473,0.414759,0.644270,0.348352,-0.262984,-0.899717
0.174410,0.688083,0.867957,0.299586,-0.455920,0.838084
-0.614185,-0.077747,0.078370,-0.561396,0.406331,-0.720923
-0.104301,-0.457969,-0.963975,0.185285,-0.070073,-0.980183
0.087146,0.861185,0.813704,-0.420177,0.813353,-0.402377
0.543597,-0.430104,0.015199,-0.063655,-0.592298,0.803201
0.657842,0.022479,0.509030,0.831639,0.250332,-0.495693
0.275620,0.540798,0.777977,0.294168,0.925581,-0.238254
0.239919,0.243766,0.048962,0.309814,0.262687,0.913789
-0.058919,-0.265113,-0.273135,0.910017,0.374413,0.177997
-0.214185,0.118085,0.293756,-0.094180,0.048969,0.994350
-0.092656,-0.141589,-0.081137,-0.818116,0.492740,0.296467
0.100420,-0.433080,0.665844,0.480066,0.341075,0.808210
0.497353,0.200964,0.499925,-0.468190,0.581114,-0.665661
0.278975,-0.809195,0.467845,0.815495,0.436763,0.379745
0.048953,0.476753,0.747224,0.949974,-0.303762,-0.072653
-0.051874,-0.364722,-0.682445,0.940021,0.306179,-0.150379
0.162861,-0.212923,0.859712,0.815349,0.578473,0.023965
0.531905,-0.109515,-0.159843,-0.403249,0.818244,-0.409715
-0.104492,-0.208406,0.934848,0.898344,0.425757,-0.108203
-0.301018,-0.038334,0.865152,-0.099677,-0.927021,0.361520
-0.271546,0.611619,0.866311,0.791056,-0.209360,0.574804
0.673752,0.161090,0.263302,-0.044294,-0.700912,0.711871
0.260333,-0.276712,-0.127837,0.904193,-0.359218,-0.231080
0.356512,-0.066048,0.198972,0.604431,0.272310,-0.748672
-0.077848,0.507340,0.425238,-0.371326,-0.916590,-0.148257
-0.014304,-0.154265,0.199850,-0.217615,0.957570,-0.188951
0.255925,-0.007337,0.201496,-0.169688,0.625327,-0.761690
-0.057338,0.856308,0.784595,0.664040,-0.005898,0.747674
0.247969,0.376323,0.520359,0.861461,-0.368402,0.349521
0.023889,0.283230,0.634362,-0.379143,0.851842,-0.361407
0.002803,-0.362567,0.898990,0.475358,0.879783,-0.004124
-0.064574,-0.309556,0.588577,0.331942,0.279538,0.900929
-0.062993,-0.136662,0.280258,-0.731112,-0.518523,-0.443405
0.487242,-0.106846,0.468929,-0.062160,-0.541060,0.838684
0.901378,-0.237145,0.263208,-0.169004,-0.210272,0.962924
0.695172,0.249924,0.381006,0.003521,-0.709202,0.704996
-0.115658,0.349380,0.839764,0.471163,0.789077,0.394160
0.613850,0.001232,0.250271,-0.048151,0.646986,0.760980
0.074926,0.037670,0.482782,-0.193538,0.643930,-0.740201
0.585337,0.708152,0.412170,-0.008473,-0.055397,0.998428
-0.230430,0.412298,0.503963,-0.039962,0.565342,0.823888
0.074063,0.128656,0.621836,-0.136818,-0.987417,-0.079307
0.028968,0.334959,0.887680,0.158532,-0.353402,0.921941
-0.621660,-0.067483,0.089325,0.561132,-0.423845,0.710976
0.320763,0.116650,-0.437502,-0.055119,0.527221,0.847939
0.642220,-0.093246,-0.126360,-0.500633,0.661472,-0.558410
0.122319,0.076723,-0.479080,-0.444418,0.328013,0.833607
-0.348173,0.211539,0.291176,-0.023752,0.298383,0.954151
0.163101,-0.131581,0.076295,-0.315952,-0.555253,0.769330
0.069030,0.479936,0.863732,0.324235,-0.195767,0.925498
0.066923,0.829674,0.803365,0.573260,0.658587,-0.487480
0.231820,-0.615415,0.420714,0.138460,-0.000365,0.990368
-0.093758,-0.262651,0.795625,0.417862,-0.172234,0.892035
-0.167078,0.532639,0.850028,-0.009156,-0.928278,0.371774
0.596359,-0.336240,0.216900,0.329489,0.863015,-0.382939
0.248592,0.281075,0.655113,-0.685499,-0.704595,-0.183403
-0.004097,0.095147,0.374537,0.993356,-0.068008,0.092833
0.217732,-0.733501,0.504412,0.274386,0.961581,-0.008551
0.152415,0.548087,0.847972,0.685162,0.644938,-0.338537
0.846652,-0.234990,0.276482,0.157937,-0.402828,0.901546
-0.026764,0.099047,0.747915,0.894990,-0.079599,-0.438926
0.048090,-0.427436,0.037166,0.036190,0.992983,0.112587
-0.177093,-0.074565,-0.987250,-0.276738,0.036635,0.960247
-0.159219,0.098993,-0.988671,-0.114816,0.012100,0.993313
0.403331,0.352973,0.772051,0.841283,0.291595,0.455208
0.290140,-0.492815,0.593176,0.479881,0.869736,-0.115208
0.561041,0.101869,-0.444270,-0.327894,0.449960,-0.830675
0.463521,0.170124,0.497514,-0.003197,-0.752195,0.658933
0.522032,0.433901,0.777529,0.984462,-0.111753,-0.135450
0.105931,-0.326953,0.684408,0.969670,0.243878,0.016201
-0.160273,0.110389,0.294186,0.162462,0.057209,0.985055
-0.617731,0.172636,0.286820,-0.473823,0.266669,0.839273
0.018234,0.944781,0.833352,0.822257,0.346604,-0.451397
0.216149,0.098943,-0.431034,0.242092,-0.366203,-0.898491
0.015647,0.073747,0.891774,0.531910,-0.203930,-0.821879
0.475788,-0.281022,0.707759,0.106684,0.863546,0.492855
-0.071283,0.604640,0.903814,-0.038569,-0.987947,0.149913
-0.477273,0.196347,0.308432,-0.137961,0.347763,0.927377
-0.014017,0.041056,-0.353001,0.675584,0.199018,0.709914
0.209919,0.420354,0.544532,0.983308,0.006742,0.181825
-0.385648,0.031305,0.091139,-0.274687,0.792152,-0.545016
-0.066778,0.562198,0.055412,0.109199,-0.354611,0.928615
0.296131,-0.267064,0.422602,0.300173,-0.064625,-0.951693
0.011094,-0.393513,0.928099,0.836298,0.416246,0.356854
-0.240925,-0.124346,0.619892,-0.182302,-0.270794,0.945218
-0.105403,0.155343,-0.992279,-0.090367,0.099939,0.990881
0.128932,-0.168223,-0.121350,0.725133,-0.062523,0.685764
-0.365952,-0.271681,-0.130585,0.193816,0.739137,0.645067
-0.099508,0.559019,0.045448,-0.338895,-0.099457,0.935553
-0.013825,-0.063276,0.407497,0.908120,0.384726,-0.165241
-0.251611,0.072360,0.623574,0.387186,0.215760,0.896401
0.564731,0.740583,0.421499,0.059849,-0.606420,0.792889
-0.712951,-0.122241,-0.046775,-0.438658,0.849928,0.291892
0.690620,0.573440,0.492840,0.981753,0.008809,-0.189957
-0.242411,0.234066,0.656871,0.272693,-0.511890,0.814621
-0.986965,0.067076,0.033184,0.173635,-0.209242,0.962325
0.246052,-0.561071,0.446457,-0.381451,0.471907,0.794858
-0.226931,0.274196,0.782053,0.170619,-0.538757,0.825003
-0.025230,-0.356819,-0.575266,0.873588,0.036014,-0.485333
0.190128,-0.137176,0.502374,0.729204,-0.389251,0.562801
-0.171391,0.576312,0.870331,-0.102324,-0.711241,0.695461
-0.277585,0.546086,0.729576,0.151650,0.365095,-0.918536
-0.093854,0.113414,-0.321331,0.091972,0.653241,0.751544
-0.025039,-0.344400,0.040381,0.057560,-0.067038,0.996089
-0.215287,-0.054550,0.935764,0.872411,0.191110,0.449861
-0.004960,-0.329211,0.746906,-0.770629,0.631562,-0.085205
0.213083,-0.718463,0.499533,0.312596,0.897348,-0.311528
0.371416,0.638923,0.759843,0.668391,0.042533,-0.742593
-0.098742,-0.150005,0.155057,0.970423,-0.235230,-0.054271
0.337056,0.526174,0.678145,0.640449,0.328566,-0.694168
-0.345920,0.145285,0.707310,-0.749624,-0.463003,-0.472961
-0.637091,0.119983,-0.070817,-0.037225,-0.748483,0.662109
0.037355,0.311251,0.397962,-0.298967,0.920339,-0.252180
0.516186,-0.090987,-0.103159,-0.457302,-0.186388,-0.869560
0.513023,0.216206,0.431651,-0.236437,0.948680,0.210011
0.213083,-0.114952,0.186876,-0.106922,0.688289,-0.717514
-0.025710,0.242739,-0.576687,0.928845,-0.302338,0.214098
-0.494477,0.568306,0.721985,-0.306190,0.553939,-0.774209
0.487193,-0.133583,0.292372,-0.134310,-0.414807,0.899942
-0.626021,0.332033,0.811236,0.504888,-0.794810,0.336698
-0.146232,0.194859,-0.992466,-0.089977,0.086312,0.992197
0.710507,-0.190957,0.236437,-0.395952,0.237324,0.887073
-0.026716,-0.108180,-0.460927,-0.604821,0.778757,-0.166522
0.260956,-0.539157,0.738344,0.600006,-0.028814,0.799477
-0.139139,0.548601,0.795906,0.666026,-0.588992,0.457709
0.643034,-0.140562,0.019761,0.028844,-0.202117,0.978937
-0.388859,-0.023606,0.688633,0.159139,0.465360,0.870698
0.646148,0.609207,0.451206,0.508846,0.591528,-0.625436
0.251036,-0.550909,0.671471,0.667226,0.366772,0.648296
0.745682,0.387662,0.451879,-0.010509,0.081058,0.996654
0.513743,-0.071539,-0.152552,-0.590958,0.758450,-0.274812
0.473872,0.148261,0.460516,0.468481,0.874551,-0.125242
0.167653,-0.359131,-0.155524,-0.370524,-0.688575,-0.623359
0.019911,0.297033,0.666984,0.257678,-0.767714,0.586700
-0.819576,-0.021708,-0.002655,0.640317,0.459983,0.615150
0.645718,-0.119623,-0.182688,0.132667,-0.392848,0.909983
-0.053552,-0.268345,0.666237,-0.405785,0.910577,0.078658
-0.152366,-0.072206,0.954982,0.727868,0.606717,0.319535
-0.077896,-0.232731,-0.309703,0.879427,-0.017067,-0.475727
0.137368,-0.439905,0.586913,0.354971,0.801510,0.481224
0.149586,0.400238,0.667284,-0.478253,0.298409,0.825970
-0.041380,-0.337885,-0.260460,0.904154,0.405520,0.134380
0.849239,0.249771,0.240344,0.258792,-0.306464,-0.916028
-0.184857,-0.366366,-0.968910,-0.368375,0.039475,0.928839
-0.071810,-0.226213,-0.338213,-0.704083,-0.520319,-0.483255
0.080149,0.031049,0.900037,0.674654,-0.315737,0.667197
-0.401078,-0.273632,-0.433857,0.086780,-0.477312,0.874438
0.389050,0.620395,0.417442,-0.390399,-0.141746,0.909668
0.458297,0.317666,0.744606,0.096618,-0.075620,0.992445
0.457674,-0.182437,0.761040,0.563586,0.823049,0.070436
-0.056954,0.869701,0.786521,0.735695,0.128246,0.665061
-0.231149,-0.131221,-0.990148,-0.225676,0.109385,0.968042
0.167030,-0.092015,0.118284,0.486463,0.263554,0.833002
0.468552,0.265319,-0.133352,-0.319390,-0.168956,0.932440
0.100132,0.234733,-0.374033,-0.819964,0.447820,-0.356532
0.341272,-0.208867,0.684221,0.341823,0.926558,0.156995
0.438697,0.250438,-0.139091,-0.446577,0.024655,0.894406
0.229856,-0.050754,0.456179,0.887435,0.453110,-0.084562
-0.228273,-0.081444,0.744868,0.304785,-0.945280,-0.116414
-0.297041,0.272298,0.652683,0.511047,0.365595,-0.777928
0.179442,-0.205017,-0.361357,-0.208240,0.097487,0.973207
-0.238289,0.204200,0.619181,-0.345842,-0.873061,0.343742
0.559459,-0.151493,-0.084857,0.560005,0.713539,0.421020
-0.096059,-0.406907,-0.679996,0.948502,0.296657,-0.111081
0.003523,-0.130914,0.487119,0.980167,-0.047971,-0.192279
0.045741,-0.665453,0.623911,0.790971,0.432723,-0.432568
0.103199,0.638716,0.835091,-0.363020,0.925041,-0.111871
0.110818,-0.338345,0.187157,0.891044,-0.390911,-0.230714
0.950403,-0.075642,0.242027,0.208148,-0.098182,0.973157
-0.433569,0.058453,0.102860,-0.102659,-0.386034,0.916755
-0.344867,0.351842,0.655113,0.060547,0.260846,0.963480
0.146473,-0.309556,-0.107347,0.339907,0.833784,0.435049
-0.193674,-0.009236,0.926080,0.985954,0.163918,0.032017
-0.298335,-0.187774,-0.148701,0.857109,-0.503953,0.106749
-0.303702,0.556810,0.667994,-0.037844,-0.189364,0.981177
-0.096489,-0.199426,0.941896,0.876868,0.413416,-0.245336
-0.087432,-0.204917,-0.017181,-0.602815,0.797745,-0.014731
0.371128,-0.522324,0.523275,0.332457,0.638819,0.693817
0.542542,-0.142563,0.293027,0.561700,0.319266,-0.763258
0.283431,-0.324334,0.045410,0.730123,0.089893,0.677377
-0.158308,-0.118802,0.908880,0.956014,0.282207,-0.079978
-0.048952,0.132148,0.295775,-0.057247,0.089058,0.994380
0.171056,-0.721029,0.497906,0.291492,0.754078,-0.588556
0.514796,-0.266497,0.683343,0.110028,0.851253,0.513091
-0.094764,0.513241,0.813890,-0.170441,0.273829,-0.946556
0.647874,0.018115,0.566255,0.966582,0.163101,0.197782
-0.326081,0.349944,0.790615,0.083475,-0.877098,0.473001
0.148102,-0.434108,0.593232,0.337136,0.810577,0.478856
0.396430,0.383406,0.774313,-0.039308,0.184490,0.982048
0.255589,0.382378,0.462124,-0.034418,0.962421,0.269373
-0.024128,0.248694,0.912301,0.488359,0.651177,-0.580925
-0.170049,0.052912,0.884334,-0.523644,-0.833909,0.174335
-0.237044,-0.007441,0.795064,0.765680,0.622008,-0.163831
-0.273511,-0.037103,0.760011,0.442214,0.713007,-0.544121
0.080964,0.197425,0.100299,0.997603,0.016950,-0.067085
-0.222379,0.779072,0.900355,-0.707292,0.693418,-0.137512
-0.096777,-0.134354,0.612208,0.244655,-0.761259,0.600524
-0.361495,0.157191,-0.048794,0.015144,-0.915664,0.401660
0.125865,-0.154676,-0.335726,-0.331726,0.795686,0.506795
0.554283,-0.092272,-0.166293,-0.291216,0.281003,-0.914456
0.558741,0.171919,0.206132,0.147073,0.845631,0.513106
-0.371319,0.113928,0.777454,0.954461,0.103923,-0.279650
-0.020247,0.003131,0.528529,-0.933578,0.174479,0.313033
-0.144986,0.027149,0.046177,0.140616,-0.101765,0.984820
0.452163,0.280714,0.743485,-0.410324,-0.211265,0.887131
0.856332,-0.450990,0.270462,-0.498018,0.057211,0.865277
-0.232539,-0.225803,-0.983698,-0.198483,0.196970,0.960108
0.800983,0.560507,0.459544,0.018467,-0.112144,0.993520
0.578149,0.310120,0.396448,-0.078985,0.326355,0.941941
0.061747,0.054450,0.111460,0.004045,0.511058,0.859537
0.228561,0.310120,0.354982,0.965931,0.080685,0.245899
0.406926,0.423996,0.762479,-0.577095,0.800131,-0.163557
0.524189,0.064457,0.071826,-0.788169,0.394650,0.472273
0.549444,0.321976,0.389718,-0.013683,0.343159,0.939178
-0.064957,-0.166271,-0.519219,0.990689,-0.062858,-0.120765
0.417900,-0.041210,0.205141,-0.204434,-0.271759,0.940401
0.467642,0.177616,0.226528,0.224232,0.131148,0.965671
0.040134,-0.110539,0.686259,-0.592390,-0.571962,0.567392
-0.061028,0.605718,0.056403,0.164699,-0.098172,0.981446
0.041188,0.533770,0.885231,0.858411,0.411320,0.306508
0.616390,0.085036,0.555281,-0.689092,-0.610390,0.390610
0.166887,0.054860,0.210021,0.900455,-0.388346,-0.195880
-0.273703,0.012061,0.023948,-0.897897,0.438366,-0.040215
0.598611,-0.142103,0.498018,-0.462396,0.245174,0.852103
-0.400024,-0.143437,0.069733,-0.552467,-0.479785,-0.681606
-0.139523,-0.135531,0.778968,0.570543,-0.232824,-0.787575
-0.030406,-0.141946,0.211086,-0.248087,0.956333,-0.154532
0.192764,-0.255876,-0.329875,0.187863,0.367740,0.910755
0.707680,0.140461,0.601832,0.219304,0.701416,-0.678175
-0.593004,0.179051,0.292896,-0.473823,0.266669,0.839273
0.455757,-0.206352,0.769658,-0.556759,0.224967,0.799631
0.013634,0.184131,-0.981436,-0.183596,0.031245,0.982505
0.287745,-0.739709,0.673677,-0.093508,0.345164,-0.933873
-0.001270,-0.133376,0.177248,0.046852,-0.998471,-0.029347
-0.439894,-0.045213,0.694279,-0.298430,0.576473,-0.760670
0.599666,0.219031,0.404936,-0.376950,-0.372766,-0.847912
-0.381047,-0.273836,-0.455001,-0.207383,0.866801,-0.453484
0.380425,0.365699,0.746121,0.151029,-0.949483,0.275085
-0.092368,-0.144975,0.183399,0.984974,-0.151965,-0.082058
0.534780,-0.321152,0.053468,0.860786,0.173266,-0.478567
0.260956,-0.303345,0.724117,0.152029,-0.729647,0.666711
0.345586,0.008828,0.218994,0.262621,0.039470,0.964091
0.161183,-0.069331,0.799682,0.315257,0.688460,0.653174
0.666707,-0.045980,0.259843,-0.132423,0.246733,0.959993
-0.167222,-0.065585,0.862012,0.958254,0.279216,0.061552
0.692968,0.502516,0.460348,0.759126,0.545426,0.355302
0.390201,0.563943,0.793120,-0.084296,-0.807102,0.584363
0.064909,-0.173560,-0.051094,0.197491,0.959029,0.203127
-0.242267,0.135021,0.299794,0.067548,0.072329,-0.995091
-0.135450,-0.147027,0.880819,0.249343,0.126694,0.960092
0.836972,0.410039,0.469695,0.318232,-0.046230,-0.946885
0.296227,0.508314,0.737241,-0.292675,-0.594785,0.748714
-0.247298,-0.076106,0.719050,0.178381,-0.940742,-0.288417
0.355698,0.617009,0.535577,0.144558,0.554897,-0.819263
0.018187,-0.290772,-0.960086,-0.014355,0.226679,0.973864
0.546855,0.416761,0.770387,0.966444,-0.254494,0.034898
0.046747,-0.187210,0.497925,-0.508466,0.662622,0.549903
0.428154,0.586063,0.805029,0.815913,0.406126,-0.411520
0.472818,-0.378425,0.423350,-0.032501,0.522830,0.851817
0.520930,0.434108,0.761058,0.923156,-0.298249,-0.242549
0.403427,0.106743,-0.145167,-0.228255,-0.334158,0.914461
0.017851,-0.141125,0.827575,-0.501315,-0.364693,-0.784654
0.235223,0.151033,-0.440232,-0.132873,0.399703,0.906963
-0.342518,-0.069228,0.722098,0.092828,0.981530,0.167275
-0.440661,-0.013085,0.088409,-0.248379,-0.416627,0.874489
0.531665,0.479729,0.411161,0.263132,-0.025640,0.964419
-0.545418,0.393617,0.067414,0.570248,0.053434,0.819733
0.221133,0.016321,0.769247,0.693706,0.637703,-0.334824
0.200814,-0.114699,0.793195,0.716168,0.682930,0.143908
0.022068,-0.398747,0.836680,0.626800,0.757568,0.182243
-0.039080,0.743048,0.758291,-0.356164,-0.281442,-0.891032
0.089493,0.150005,0.609048,0.904595,0.411389,0.111653
0.598658,0.259778,0.389437,-0.254368,-0.197675,-0.946690
-0.629376,0.090167,0.150907,-0.029425,0.976176,0.214975
0.147862,0.689061,0.872163,0.399502,-0.346331,0.848795
-0.065053,0.062302,-0.979286,0.180160,-0.138142,-0.973889
-0.247107,0.711127,0.875659,0.364480,0.062915,0.929084
0.801031,0.564510,0.449187,-0.160016,-0.269125,0.949719
0.714149,0.678950,0.474294,-0.453615,0.746791,-0.486351
0.645478,0.072513,0.565638,0.778357,0.617490,-0.113429
0.245909,-0.108694,0.448794,0.987926,0.147140,-0.048488
