-0.437255,-0.047038,0.629419,0.168754,0.972646,0.159630
-0.584345,0.133943,0.865861,0.918417,-0.189378,-0.347343
-0.434946,-0.037107,0.698937,0.069583,0.991331,-0.111451
-0.455173,-0.007184,0.760803,0.312366,-0.949950,0.004793
-0.235309,-0.267073,0.468280,0.965013,-0.250535,0.077339
-0.412080,-0.051806,0.739559,-0.606983,-0.562333,-0.561563
-0.542900,0.108522,0.944961,-0.512281,-0.079945,0.855089
-0.315010,-0.160231,0.646714,0.833481,-0.218954,0.507316
-0.410983,-0.040679,0.807424,-0.201193,-0.956561,0.210978
-0.378222,-0.072985,0.799801,0.435880,0.896678,0.077313
-0.369976,-0.076823,0.823434,0.832034,0.493167,0.253980
-0.065794,-0.433493,0.435312,-0.780853,-0.616046,-0.103710
-0.438026,0.008564,0.942114,0.224211,-0.784888,0.577651
-0.220031,-0.240730,0.699733,-0.279180,0.870676,-0.404947
-0.224207,-0.230007,0.739222,-0.480015,0.846715,0.229475
-0.226076,-0.221926,0.774547,0.888130,0.376306,0.263856
-0.230142,-0.211204,0.812964,0.897714,-0.324590,0.297910
-0.138350,-0.311686,0.734477,0.688414,-0.419005,0.592048
0.025230,-0.496109,0.570308,0.671890,0.184685,-0.717255
-0.020832,-0.437064,0.658285,0.066856,-0.963683,0.258545
-0.026770,-0.413235,0.761292,-0.201873,0.530469,0.823317
0.177484,-0.643201,0.555951,-0.376053,0.351044,0.857527
-0.012696,-0.418269,0.808709,-0.692768,0.720778,-0.023498
0.151652,-0.601497,0.652224,0.926163,-0.259116,-0.274010
0.187049,-0.631282,0.673927,0.890723,-0.128718,-0.435940
-0.288846,-0.350351,-0.292627,0.994624,0.101096,0.022408
-0.296870,-0.331677,-0.228343,-0.349406,0.044097,0.935933
-0.938985,0.462016,0.819393,0.843562,-0.443717,-0.302521
-0.548177,-0.015524,0.212553,0.034167,0.923593,0.381848
-0.803660,0.303935,0.651306,-0.843616,-0.044016,-0.535139
-0.241576,-0.381324,-0.212670,-0.017592,0.369560,0.929040
-0.807947,0.316517,0.698386,-0.181783,0.940597,0.286762
-0.200133,-0.423029,-0.227302,-0.628790,0.044093,-0.776324
-0.879842,0.417265,0.884748,0.755022,0.574880,0.315365
-0.631944,0.117128,0.514412,0.351695,-0.748789,0.561805
-0.847632,0.384692,0.873636,0.845835,0.167064,-0.506609
-0.479691,-0.060145,0.328907,-0.513973,0.857328,0.028643
-0.733963,0.254425,0.745191,0.349008,0.929015,0.122980
-0.294016,-0.327443,-0.255403,0.847288,0.011624,0.531006
-0.285108,-0.329302,-0.220047,-0.055437,0.272198,0.960643
-0.917219,0.460157,0.813118,0.878309,-0.423471,-0.221912
-0.526521,-0.021883,0.206063,0.390079,0.877703,0.278344
-0.783323,0.302351,0.645582,0.820574,-0.139664,0.554214
-0.217830,-0.394035,-0.224761,0.723088,-0.272969,0.634533
-0.180343,-0.430713,-0.231802,0.990986,-0.129337,-0.034897
-0.449456,-0.091788,0.224002,0.685209,0.633034,0.360218
-0.870827,0.431698,0.898585,0.316451,0.931364,0.180056
-0.590941,0.089193,0.480096,-0.484530,0.477261,-0.733112
-0.618974,0.130897,0.561982,0.121975,0.959540,0.253781
-0.397681,-0.139181,0.234226,0.767052,0.589269,0.253758
-0.718352,0.259322,0.747334,0.401669,0.605687,0.686881
-0.363710,-0.172546,0.226757,0.304725,0.910502,0.279516
-0.768920,0.328161,0.859953,0.841639,0.538319,-0.043079
-0.486175,-0.015661,0.448811,0.653877,0.052731,0.754761
-0.735174,0.293746,0.847341,-0.250132,0.942470,-0.221777
-0.455394,-0.045842,0.443975,-0.315473,-0.258182,0.913137
-0.716483,0.277988,0.857963,0.073594,0.932449,0.353727
-0.681855,0.242773,0.845780,0.524998,0.774664,0.352522
-0.555651,0.097136,0.705488,0.959679,-0.015240,0.280685
-0.692959,0.269253,0.932839,0.888025,0.369655,-0.273437
-0.496069,0.039150,0.695509,0.962202,0.271621,0.019739
-0.445172,-0.014998,0.663244,0.967316,-0.198472,-0.157824
-0.624580,0.206233,0.942144,-0.496795,-0.590102,0.636376
-0.300061,-0.175326,0.541135,0.817885,-0.575381,-0.000049
-0.422745,-0.021883,0.742558,-0.126699,0.991616,0.025379
-0.364481,-0.084904,0.701202,0.371442,0.497576,-0.783868
-0.473313,0.050931,0.878320,0.395340,-0.399274,0.827216
-0.389656,-0.042141,0.802710,-0.304346,-0.940424,0.151577
-0.383828,-0.042933,0.829433,0.662668,0.748800,-0.012995
-0.336669,-0.092710,0.801822,0.789642,0.608719,-0.076981
-0.087121,-0.374706,0.555921,-0.153883,-0.028954,-0.987665
-0.243444,-0.184061,0.786302,0.962155,-0.073172,-0.262496
-0.198153,-0.231462,0.762425,-0.548193,0.586742,-0.596001
-0.199911,-0.223647,0.796710,0.899544,0.066906,0.431676
-0.127577,-0.302021,0.741793,-0.488840,0.546386,-0.680071
0.049194,-0.502994,0.560359,0.865819,-0.358194,0.349364
0.070303,-0.515180,0.603491,0.000120,0.434929,0.900465
-0.009070,-0.411118,0.761782,-0.479584,0.229430,0.846972
0.160666,-0.590507,0.659785,0.916769,-0.317807,-0.241938
0.185509,-0.613545,0.663734,-0.680737,0.627620,0.377744
0.192326,-0.615662,0.687947,0.915915,-0.397489,0.055703
-0.336119,-0.284284,-0.238414,0.822385,-0.563154,-0.080880
-0.333260,-0.271307,-0.232720,-0.692249,0.695585,0.192230
-0.290057,-0.314999,-0.248332,0.929943,0.312943,0.193059
-0.274775,-0.324138,-0.220506,-0.256876,0.183976,0.948772
-0.823007,0.368806,0.684825,-0.466749,-0.108376,-0.877724
-0.513437,-0.016986,0.202390,-0.328432,-0.932178,-0.152242
-0.769470,0.309761,0.642092,0.801758,-0.139689,0.581094
-0.207718,-0.388743,-0.225067,0.608942,-0.272361,0.744989
-0.765293,0.311878,0.675274,0.198280,0.920446,-0.336845
-0.862145,0.439641,0.863075,0.746853,-0.576369,-0.331677
-0.432528,-0.092047,0.212339,0.944455,0.285093,0.163482
-0.591931,0.113023,0.494973,-0.424319,0.596496,-0.681283
-0.395262,-0.121444,0.244481,0.888313,0.432721,0.153795
-0.359972,-0.156126,0.236889,0.922590,0.379345,0.070181
-0.779253,0.366956,0.892707,0.677796,0.557738,0.479083
-0.473424,-0.007985,0.446852,0.221298,0.181630,-0.958143
-0.713075,0.292549,0.832954,0.247899,-0.607121,0.754950
-0.460782,-0.016324,0.468403,0.817835,-0.505606,0.274787
-0.691748,0.273221,0.838433,-0.054262,0.991074,-0.121767
-0.639862,0.217222,0.802097,0.366676,0.166065,-0.915408
-0.541802,0.104417,0.699978,-0.602148,-0.680761,-0.417112
-0.529051,0.096474,0.719998,0.648480,-0.653823,-0.389859
-0.479469,0.043125,0.688682,0.639451,0.079815,0.764678
-0.460121,0.026972,0.699794,0.605136,0.683514,-0.408190
-0.631398,0.240785,0.968072,-0.433885,-0.320438,0.842059
-0.604572,0.214572,0.964950,-0.354536,-0.661524,0.660825
-0.287859,-0.167253,0.538503,0.797855,-0.598858,0.069254
-0.412519,-0.009835,0.743201,0.724814,-0.568006,0.389890
-0.383168,-0.038699,0.738793,0.370173,0.770706,0.518637
-0.159455,-0.307322,0.442720,0.670979,0.331779,0.663106
-0.466717,0.068143,0.884197,0.570537,-0.032202,0.820640
-0.368437,-0.042804,0.790679,-0.341286,-0.873949,0.346031
-0.357114,-0.049551,0.810883,0.412251,0.871732,0.264824
-0.304016,-0.106616,0.775557,0.264741,-0.922701,-0.280242
-0.404055,0.018633,0.935624,-0.697369,0.695016,-0.175010
-0.057219,-0.387417,0.531554,-0.545152,0.739817,-0.394309
-0.194634,-0.217822,0.737691,-0.518984,0.748955,0.411974
-0.019403,-0.425946,0.518636,-0.576637,0.327115,-0.748656
-0.183093,-0.225239,0.757191,-0.618228,0.507911,0.599851
-0.153742,-0.253303,0.755232,-0.552444,0.643687,0.529597
0.088221,-0.513588,0.595195,0.271844,-0.539212,-0.797089
0.138021,-0.565886,0.568655,-0.458135,-0.733056,0.502733
0.162756,-0.575679,0.640163,0.155365,0.878426,0.451918
0.176937,-0.586006,0.655683,0.887318,-0.311269,0.340263
0.186720,-0.591566,0.675550,0.906381,-0.118773,-0.405421
0.198482,-0.599380,0.694284,0.453387,-0.721479,-0.523363
-0.320069,-0.269586,-0.239240,0.815750,-0.571945,0.086208
-0.274886,-0.316195,-0.258893,0.378086,-0.295371,0.877387
-0.910845,0.495906,0.795883,-0.569340,0.754434,0.326621
-0.271259,-0.310764,-0.214568,0.215206,0.015335,0.976448
-0.508931,-0.001496,0.208298,0.118814,0.851705,0.510375
-0.765733,0.329753,0.652194,0.927354,-0.288403,0.238408
-0.200790,-0.379207,-0.222619,-0.240832,-0.905901,0.348343
-0.755729,0.325381,0.678734,0.299746,0.781087,-0.547773
-0.851151,0.452351,0.863045,-0.720535,0.547392,0.425666
-0.417907,-0.088871,0.204992,0.943846,-0.325905,0.054226
-0.594678,0.139899,0.514320,0.358106,-0.800980,0.479782
-0.510032,0.042988,0.430200,0.809400,-0.319152,0.492964
-0.786181,0.393961,0.878993,0.989033,-0.126156,-0.076796
-0.769031,0.380459,0.892554,-0.444294,-0.606208,-0.659632
-0.441103,-0.025592,0.412598,0.947066,-0.320940,0.008031
-0.457263,0.002480,0.478076,0.792118,-0.591086,-0.152205
-0.678228,0.282756,0.836260,0.201317,-0.464199,0.862549
-0.440442,-0.010360,0.494698,0.244535,-0.503279,-0.828802
-0.554883,0.138315,0.696702,0.825572,-0.409045,0.388732
-0.532127,0.117394,0.701355,0.872916,0.481646,-0.077679
-0.321056,-0.133751,0.444067,0.649544,0.624565,0.433602
-0.458031,0.041533,0.672397,0.934386,-0.145962,0.324990
-0.487494,0.084692,0.750395,0.394467,0.583780,-0.709646
-0.623369,0.257601,0.972358,0.466761,0.338738,-0.816940
-0.588744,0.222119,0.959960,-0.406217,-0.694038,0.594390
-0.245974,-0.194525,0.497300,0.992970,-0.028540,0.114875
-0.388334,-0.014336,0.724896,0.707604,0.704532,-0.054143
-0.167812,-0.282168,0.429496,0.729856,0.100358,0.676194
-0.395041,0.000363,0.768333,-0.168235,0.953750,0.249115
-0.503326,0.138581,0.946644,-0.819982,0.514131,0.251592
-0.268401,-0.138915,0.672152,-0.484841,0.783792,0.388071
-0.067112,-0.381858,0.409262,0.871411,0.181481,0.455749
-0.311273,-0.080265,0.763405,0.566919,-0.822727,0.041522
-0.404166,0.044976,0.950961,-0.641730,0.692852,-0.328844
-0.041719,-0.383046,0.524636,-0.573731,0.716991,-0.395924
-0.182761,-0.207632,0.735854,0.563951,0.796489,0.218093
-0.167262,-0.219680,0.750701,0.928741,0.175195,-0.326720
-0.139890,-0.245894,0.749324,0.385890,0.910864,-0.146340
-0.069971,-0.315532,0.731232,0.739576,-0.001117,-0.673072
0.137142,-0.555025,0.515177,0.059811,0.545117,0.836224
0.098994,-0.503390,0.594338,-0.330459,0.575662,0.747937
0.124608,-0.527090,0.596756,0.073955,0.528218,0.845882
0.068434,-0.454147,0.696427,0.531037,0.754477,0.385699
0.151870,-0.546419,0.630490,0.200034,0.502934,0.840859
0.172100,-0.563768,0.640102,0.148435,0.841805,0.518971
0.193427,-0.582435,0.647908,0.900693,-0.433456,-0.029455
0.188700,-0.570516,0.685835,0.729957,-0.662851,0.166709
0.216183,-0.596729,0.685346,0.902456,-0.309808,-0.299320
-0.316440,-0.243639,-0.226598,-0.226493,0.823227,0.520574
-0.918208,0.533109,0.788016,0.734182,-0.637831,-0.232698
-0.287088,-0.270386,-0.221333,0.149841,0.578724,0.801640
-0.876766,0.488755,0.762578,-0.719084,-0.268201,-0.641082
-0.348431,-0.182210,-0.074276,0.994802,0.100866,-0.013961
-0.791019,0.388272,0.667897,0.863379,-0.008351,0.504487
-0.753750,0.349477,0.651918,0.936184,-0.335199,0.105834
-0.459900,-0.021883,0.195472,-0.232566,-0.925422,0.299177
-0.189797,-0.363321,-0.224088,0.936735,-0.190227,0.293838
-0.818062,0.438841,0.791200,-0.364427,0.928949,0.065167
-0.831472,0.463600,0.851688,-0.514438,0.462886,-0.721866
-0.402408,-0.076160,0.197890,0.785120,-0.530570,-0.319503
-0.807397,0.441095,0.854412,0.240131,-0.908978,0.340728
-0.598527,0.179090,0.539207,-0.110980,0.950010,0.291829
-0.428462,-0.034456,0.282469,0.848000,-0.525193,0.071193
-0.790468,0.427859,0.867943,0.504183,-0.728235,-0.464191
-0.467925,0.024055,0.385813,0.968616,-0.244902,0.042510
-0.768480,0.407997,0.872412,-0.685112,0.406194,0.604672
-0.542349,0.125337,0.537370,-0.035220,0.968578,0.246204
-0.772218,0.420175,0.915023,0.939229,-0.236064,-0.249244
-0.401858,-0.041478,0.371518,-0.382885,-0.922399,-0.050792
-0.667563,0.297317,0.800108,0.631464,-0.774611,-0.035093
-0.649534,0.282223,0.810852,0.457308,-0.875597,0.155561
-0.539602,0.153806,0.691743,-0.247780,0.193792,0.949237
-0.364699,-0.054714,0.482790,0.050853,0.941796,0.332316
-0.309954,-0.114163,0.445781,-0.649594,-0.551507,-0.523323
-0.436486,0.049348,0.660183,0.985765,-0.136014,-0.098827
-0.496730,0.130630,0.779567,-0.727291,0.339047,0.596736
-0.606991,0.273350,0.966878,0.090503,0.971699,0.218199
-0.252240,-0.154147,0.519615,-0.650242,0.352409,-0.673048
-0.333260,-0.047563,0.666550,0.480315,0.844894,0.235484
-0.157919,-0.261513,0.431271,0.786007,-0.101019,0.609909
-0.259605,-0.129912,0.605419,0.844738,-0.517693,0.135694
-0.506402,0.177902,0.968011,-0.512854,0.849517,-0.123699
-0.083162,-0.337107,0.409568,0.745594,0.428464,0.510400
-0.258397,-0.116943,0.675764,0.317758,-0.727071,-0.608603
-0.063814,-0.353260,0.421169,0.716362,0.545046,0.435604
-0.214314,-0.163407,0.653020,0.880225,0.005634,-0.474523
-0.396030,0.070131,0.954756,-0.677435,0.495602,-0.543563
-0.033366,-0.360541,0.528309,0.894185,-0.444126,-0.056435
-0.171110,-0.187640,0.737293,-0.641595,-0.700240,-0.313080
-0.130546,-0.229603,0.721008,0.649787,0.666865,0.364784
-0.108119,-0.249732,0.726059,0.941298,0.335389,0.038364
-0.113286,-0.236892,0.764935,-0.686070,0.501215,0.527344
0.057880,-0.434818,0.590083,0.826180,0.469774,0.311028
0.088879,-0.465395,0.585644,0.846730,0.483635,0.221689
0.095806,-0.459836,0.645428,-0.593381,0.165651,0.787692
0.115922,-0.477314,0.655010,-0.127502,0.659387,0.740913
0.161874,-0.525507,0.632939,0.404524,0.704759,0.582816
0.180893,-0.541393,0.642643,0.232046,0.929621,0.286287
0.202880,-0.554629,0.681182,0.859711,-0.319116,-0.398825
0.187160,-0.500085,0.682132,-0.778572,0.162506,0.606150
0.231021,-0.539672,0.693703,-0.662261,0.363538,0.655172
-0.353376,-0.145670,-0.102163,0.994085,0.101381,-0.038959
-0.810917,0.448109,0.675305,-0.445703,0.749659,-0.489245
-0.344251,-0.147124,-0.066194,0.934455,0.183181,-0.305350
-0.768041,0.402438,0.650296,0.595921,-0.597264,0.536800
-0.785631,0.441225,0.759639,-0.352124,-0.857689,0.374672
-0.416149,-0.026513,0.189533,0.107600,0.989310,0.098432
-0.803881,0.472343,0.826495,0.820721,0.551033,-0.150934
-0.392843,-0.046771,0.198410,0.709966,-0.634971,-0.304565
-0.797393,0.472076,0.856188,-0.428350,-0.796607,-0.426536
-0.409772,-0.016324,0.269582,-0.166557,0.949675,0.265285
-0.772000,0.447980,0.855514,-0.090146,-0.995893,-0.008434
-0.422084,0.007910,0.330713,-0.386030,0.904423,0.181661
-0.744627,0.421637,0.853555,0.468243,0.840929,-0.271268
-0.462211,0.067351,0.434057,-0.047933,-0.742771,0.667827
-0.744956,0.429977,0.892860,0.940678,-0.339208,-0.007946
-0.454183,0.066155,0.465097,0.844126,-0.429363,-0.321088
-0.730336,0.419116,0.909115,0.958632,-0.156413,0.237825
-0.578079,0.236551,0.724865,0.005005,-0.789920,0.613189
-0.633484,0.313204,0.841464,0.245594,-0.641510,0.726738
-0.362391,-0.015661,0.494055,0.537048,-0.830572,-0.147413
-0.352279,-0.020291,0.518146,-0.269248,0.724151,0.634910
-0.602043,0.296258,0.905564,0.813725,-0.581192,-0.008211
-0.611278,0.315054,0.954297,-0.645934,0.701369,0.301415
-0.471005,0.149700,0.797353,0.488093,0.400276,0.775593
-0.578300,0.288445,0.977684,0.550987,0.782355,-0.290403
-0.190458,-0.187899,0.451138,-0.557245,0.738965,-0.378693
-0.477929,0.172334,0.875687,0.167126,-0.050734,-0.984629
-0.505744,0.219864,0.980531,-0.106610,-0.066626,0.992066
-0.234319,-0.111642,0.621276,-0.138366,0.738120,0.660328
-0.481999,0.197893,0.983164,0.721942,-0.689060,0.063206
-0.190018,-0.158114,0.599909,0.573253,-0.750821,0.328099
-0.184191,-0.157718,0.628898,0.907399,-0.365044,-0.208256
-0.226187,-0.099198,0.719569,0.233201,0.906153,0.352852
-0.349528,0.063780,0.943216,0.780210,-0.570613,0.256267
-0.174958,-0.140506,0.756272,0.971376,-0.237322,-0.010387
-0.151762,-0.161952,0.760037,-0.514903,0.055063,0.855478
-0.145606,-0.162486,0.785935,0.297367,-0.113376,0.948008
-0.139118,-0.163277,0.811465,0.398655,-0.715936,0.573158
0.054693,-0.396152,0.573308,0.342982,-0.937902,-0.052000
0.066673,-0.403441,0.593481,0.972016,-0.105123,-0.210079
0.092837,-0.428063,0.594981,-0.635380,-0.441412,0.633599
0.112957,-0.445670,0.603981,0.860293,0.296349,-0.414818
0.115154,-0.441170,0.635357,0.938702,-0.141146,0.314510
0.155278,-0.482744,0.620113,0.866475,0.307744,-0.393082
0.181225,-0.506437,0.623327,0.779765,-0.363929,-0.509433
-0.435275,0.125734,0.651857,0.945740,-0.319135,0.061066
-0.584674,0.318900,0.897758,0.831997,-0.305396,-0.463157
-0.237070,-0.112305,0.411925,0.283347,0.874117,0.394504
-0.495408,0.215759,0.810026,0.489936,-0.425789,0.760701
-0.282142,-0.048096,0.514687,-0.090928,-0.209771,0.973513
-0.453086,0.171146,0.787251,-0.516672,0.686033,0.512259
-0.241686,-0.090197,0.496902,0.895040,-0.356159,0.268430
-0.447041,0.170880,0.815291,0.804230,0.321827,-0.499642
-0.182211,-0.155730,0.454689,-0.760711,-0.192847,-0.619782
-0.469797,0.206362,0.881901,-0.423602,0.153550,0.892739
-0.133183,-0.207632,0.427781,0.857177,-0.148342,0.493196
-0.268730,-0.033398,0.647939,0.295588,0.636319,-0.712549
-0.213982,-0.093372,0.610685,-0.432787,0.886973,0.161167
-0.470237,0.227549,0.983164,0.865765,-0.500151,0.017348
-0.192987,-0.111642,0.618368,0.152732,-0.544137,-0.824978
-0.190568,-0.107012,0.651796,0.837336,-0.463010,-0.290672
-0.177377,-0.115747,0.669458,0.410942,0.901318,0.136940
-0.195735,-0.086091,0.728569,-0.490491,-0.709840,-0.505515
-0.153849,-0.130179,0.709835,0.942716,0.295703,0.154424
-0.157258,-0.118527,0.749170,0.880842,0.134141,-0.454008
-0.163303,-0.104758,0.789455,0.254489,-0.505621,0.824368
-0.168469,-0.091651,0.828546,0.887619,-0.292908,-0.355440
-0.149233,-0.107804,0.838096,0.814828,-0.575010,-0.073611
-0.126587,-0.128725,0.841923,0.140834,0.979318,0.145268
-0.073379,-0.185782,0.810179,0.631405,0.558882,0.537567
0.024130,-0.282959,0.789638,0.781921,0.617810,-0.083135
0.173857,-0.455335,0.644510,0.544537,0.491549,0.679602
0.246413,-0.515309,0.689907,-0.701440,0.280046,0.655405
-0.330731,-0.177176,-0.333401,0.919067,-0.385558,-0.081617
-0.233661,-0.279913,-0.383420,-0.458517,-0.887307,0.049485
-0.831143,0.509408,0.684335,-0.748410,0.559544,-0.356081
-0.349750,-0.108862,-0.090500,0.993377,-0.029901,-0.110945
-0.822897,0.507558,0.712529,0.917352,-0.397635,0.018772
-0.835209,0.531784,0.774088,0.941511,0.041773,-0.334382
-0.374485,-0.057099,0.046853,0.170101,-0.947328,-0.271358
-0.821578,0.522653,0.792179,0.867784,0.277234,-0.412422
-0.395041,-0.020825,0.125739,-0.095516,-0.950850,0.294553
-0.818502,0.527016,0.828117,0.252357,0.772252,0.583046
-0.398449,-0.006918,0.178084,0.375718,-0.918404,-0.123980
-0.777385,0.483324,0.805679,0.905845,-0.298359,0.300711
-0.770899,0.483324,0.835586,0.214394,0.554552,0.804057
-0.390424,0.001946,0.258286,-0.082443,0.994945,0.057339
-0.747815,0.462016,0.838709,0.547359,0.142350,0.824703
-0.402736,0.026439,0.319968,0.017900,0.972059,0.234051
-0.729014,0.445992,0.848168,0.263150,0.557838,0.787127
-0.488923,0.143608,0.490535,0.240556,-0.541710,0.805408
-0.718902,0.441225,0.871677,-0.516552,0.639558,-0.569332
-0.467707,0.125604,0.501157,0.890713,0.221441,-0.396981
-0.434728,0.092506,0.492433,-0.732609,0.204408,0.649232
-0.455723,0.127325,0.564033,0.185860,-0.973635,0.132251
-0.587972,0.300493,0.793832,-0.755441,0.647963,-0.097232
-0.502554,0.201861,0.710202,0.675581,-0.735865,0.045747
-0.704500,0.458307,0.777884,0.789217,-0.590120,0.169987
-0.353266,0.014262,0.246777,-0.563449,0.777633,0.278950
-0.540041,0.259322,0.571349,0.196354,-0.868411,0.455310
-0.399660,0.090785,0.404088,-0.438573,0.799760,-0.409923
-0.691198,0.465984,0.875350,0.163846,0.884580,-0.436660
-0.406034,0.107859,0.456219,0.135788,-0.989028,0.058180
-0.632934,0.400716,0.826923,0.507876,0.165196,0.845442
-0.590830,0.355303,0.802312,-0.683817,0.724792,-0.084088
-0.238389,-0.085429,0.293520,0.865711,0.493393,-0.084308
-0.582916,0.353315,0.828913,-0.497831,-0.089209,-0.862674
-0.202330,-0.121444,0.284551,0.669892,0.718397,0.187486
-0.411533,0.147180,0.621613,0.731612,-0.675727,-0.090205
-0.175837,-0.146332,0.287520,0.654384,0.754459,0.050725
-0.547519,0.324193,0.852055,-0.550378,-0.170404,0.817341
-0.166494,-0.149241,0.316754,0.683304,0.670544,-0.288905
-0.552904,0.338625,0.896319,0.397949,-0.913178,-0.087989
-0.125598,-0.191479,0.301111,0.293894,0.886652,0.357035
-0.441871,0.208745,0.779016,-0.259078,0.478735,0.838863
-0.216293,-0.070601,0.467637,0.993779,0.068870,-0.087525
-0.522562,0.315716,0.924543,0.812457,-0.209223,-0.544187
-0.217612,-0.060936,0.507432,0.933450,-0.349896,-0.079018
-0.481338,0.271629,0.902319,0.547519,-0.790401,-0.274754
-0.222667,-0.047305,0.551329,0.967977,-0.034154,-0.248704
-0.209476,-0.055377,0.571532,0.837250,0.546486,-0.019151
-0.179574,-0.084904,0.567584,0.385812,0.688449,0.614155
-0.449017,0.252962,0.961246,0.980782,-0.160497,0.110940
-0.160884,-0.100257,0.580257,0.554322,0.450550,-0.699808
-0.122629,-0.139181,0.567308,0.732966,0.355810,0.579794
-0.087232,-0.174533,0.558217,0.818447,0.122504,0.561370
-0.169130,-0.067425,0.698968,0.673507,-0.722190,0.157573
-0.312923,0.114348,0.916768,0.873095,-0.486974,0.023698
-0.279723,0.080587,0.907645,0.537632,0.185739,0.822467
0.143077,-0.432830,0.371365,-0.643934,0.551475,0.530306
-0.176716,-0.037503,0.809842,0.300602,0.346473,0.888592
0.166601,-0.453613,0.377854,0.069999,0.995541,-0.063231
-0.125816,-0.092451,0.779690,0.164224,0.975445,-0.146757
-0.102731,-0.113234,0.784924,-0.021214,-0.952691,0.303199
-0.121971,-0.082916,0.842045,-0.551804,0.687053,0.472727
0.112625,-0.358553,0.587726,0.999365,0.000891,-0.035622
-0.078767,-0.122107,0.852147,-0.444699,0.755463,0.481163
0.100312,-0.337245,0.635724,0.917225,0.044786,0.395843
-0.083055,-0.110454,0.889432,0.310531,-0.137814,0.940520
-0.057769,-0.134018,0.890258,-0.478863,-0.031273,0.877332
-0.033255,-0.157056,0.892738,-0.750405,-0.134169,0.647218
0.267519,-0.483407,0.700223,-0.616147,-0.014293,0.787501
-0.323474,-0.147658,-0.398481,0.443135,0.885742,0.138176
-0.323035,-0.136401,-0.342860,0.674460,-0.699974,0.234822
-0.309186,-0.143553,-0.312953,0.931509,-0.335633,-0.140149
-0.315010,-0.125145,-0.250781,0.969299,-0.239731,-0.054667
-0.304348,-0.127666,-0.214568,0.206757,0.962609,-0.175032
-0.872917,0.614529,0.757129,-0.326463,0.751301,-0.573559
-0.328534,-0.086358,-0.124846,-0.716410,0.664008,0.214128
-0.331392,-0.071660,-0.068704,0.992131,-0.060422,-0.109660
-0.804099,0.543832,0.731722,-0.325362,0.714710,-0.619136
-0.356785,-0.028897,0.021752,0.087696,0.996047,0.014129
-0.806847,0.555880,0.777853,0.047376,0.500009,0.864723
-0.364810,-0.008639,0.083220,-0.468548,0.819199,-0.330719
-0.796843,0.551380,0.801638,0.967543,0.252637,0.005990
-0.366568,0.003272,0.132045,-0.423244,0.861757,0.279713
-0.768813,0.523711,0.797108,-0.465941,-0.058802,-0.882860
-0.754082,0.513384,0.814893,0.831119,-0.556079,-0.004234
-0.300829,-0.102511,-0.304259,0.994581,-0.102895,-0.014861
-0.299182,-0.093510,-0.252250,0.952321,-0.299682,-0.057241
-0.303687,-0.076160,-0.190752,0.486871,-0.831248,0.268298
-0.319409,-0.045446,-0.114805,-0.484573,0.855943,-0.180417
-0.848403,0.644719,0.783945,-0.721102,0.688726,0.075283
-0.321717,-0.032606,-0.062001,0.736874,0.674817,-0.040481
-0.833012,0.633729,0.800904,0.899370,0.434761,0.046007
-0.323696,-0.019629,-0.009074,-0.063326,-0.997755,0.021766
-0.810917,0.613738,0.805771,0.744325,0.657430,-0.117325
-0.332049,0.001026,0.051629,0.024926,-0.981249,-0.191125
-0.747486,0.541578,0.747885,-0.542910,-0.634805,-0.549792
-0.348649,0.032532,0.125923,0.450814,-0.874651,-0.178191
-0.692627,0.480019,0.704080,-0.230737,0.955139,-0.185660
-0.341943,0.033590,0.162473,-0.590080,0.806775,-0.030317
-0.734952,0.542111,0.809903,0.950245,-0.165512,0.263894
-0.341836,0.042859,0.208757,-0.618950,0.747785,-0.240246
-0.374485,0.093435,0.301969,-0.761464,0.646347,0.049077
-0.531248,0.300364,0.579736,-0.040914,-0.845543,0.532338
-0.481009,0.245553,0.546217,-0.130959,-0.930540,0.341971
-0.364370,0.107204,0.414190,-0.643663,-0.667219,0.374857
-0.627989,0.446921,0.841188,-0.168693,0.703817,0.690061
-0.387677,0.145329,0.490565,-0.737889,0.639592,-0.215505
-0.598966,0.418324,0.836903,0.434357,0.834377,-0.339336
-0.398120,0.166912,0.546768,0.685569,0.145289,-0.713362
-0.403065,0.181344,0.593971,-0.246814,0.946136,0.209547
-0.475621,0.279572,0.734936,-0.640327,0.450780,-0.621915
-0.207936,-0.045979,0.394568,0.158436,0.854716,0.494327
-0.533117,0.366560,0.889401,0.271974,-0.961877,0.028688
-0.211016,-0.033665,0.440057,0.869876,0.421414,-0.256371
-0.208597,-0.028234,0.475474,0.980977,0.010701,-0.193830
-0.467378,0.299701,0.869320,-0.649468,0.680343,0.339593
-0.468036,0.308040,0.905931,0.933574,-0.028804,-0.357225
-0.217941,-0.000566,0.566329,0.957216,0.289300,-0.006590
-0.467596,0.314658,0.940400,0.616484,0.752281,0.232422
-0.163303,-0.060274,0.530666,0.464301,0.644235,0.607772
-0.450117,0.300097,0.950012,0.976657,-0.152921,-0.150851
-0.127027,-0.097081,0.518514,0.644261,0.764702,-0.012602
-0.414938,0.263686,0.936236,0.310951,0.949065,-0.050851
-0.144395,-0.068355,0.577838,0.307105,0.949582,0.063093
0.076238,-0.330885,0.325356,0.096338,0.775847,0.623523
-0.305996,0.144004,0.860443,0.970473,-0.030290,-0.239302
-0.201780,0.023926,0.760007,0.352711,-0.900032,0.256004
0.134723,-0.378545,0.363926,0.650387,-0.727658,-0.217969
-0.186831,0.020217,0.810148,0.994655,0.072116,0.073897
0.077449,-0.293682,0.509759,-0.517574,0.155643,-0.841363
0.198811,-0.433759,0.392670,-0.621117,0.428766,0.656029
-0.111417,-0.051005,0.814189,0.619278,-0.561631,-0.548694
-0.052824,-0.115085,0.773904,0.001080,-0.998530,0.054190
-0.105589,-0.044387,0.871646,0.746759,0.479127,-0.461290
0.112517,-0.300042,0.640010,0.875216,0.131455,0.465528
-0.065244,-0.079603,0.887320,0.882473,0.001283,-0.470362
0.281260,-0.447925,0.702672,-0.681902,-0.025100,0.731013
0.306435,-0.471488,0.704784,-0.616147,-0.014293,0.787501
-0.302919,-0.111642,-0.357400,0.435326,-0.830500,0.347507
-0.289835,-0.045842,-0.235108,0.093921,-0.987976,0.122808
-0.277523,-0.051272,-0.203793,0.203052,0.953896,-0.221024
-0.121532,-0.230007,-0.349595,0.688405,0.716111,-0.115259
-0.809705,0.663514,0.797016,-0.735751,-0.513546,-0.441522
-0.265872,-0.033931,-0.067388,-0.679770,0.574063,0.456470
-0.679547,0.505304,0.631837,0.014024,0.505861,0.862501
-0.262352,-0.028234,-0.024900,0.159717,-0.967750,-0.194811
-0.768920,0.627765,0.812046,0.501357,0.548595,-0.669092
-0.241904,-0.044783,-0.009900,0.036629,-0.993810,0.104883
-0.682955,0.526750,0.719600,0.988068,0.000710,0.154015
-0.285440,0.021017,0.105964,-0.675162,0.723356,0.144608
-0.674048,0.523574,0.745344,0.924398,0.124029,0.360700
-0.336008,0.094227,0.228318,-0.441220,0.604217,-0.663511
-0.628868,0.474718,0.717641,0.989520,0.137773,0.043225
-0.323914,0.088668,0.255960,0.830734,-0.555092,-0.041888
-0.567964,0.406146,0.666734,-0.626784,-0.778917,0.020762
-0.305556,0.074502,0.272980,-0.813124,0.158517,-0.560092
-0.495740,0.323660,0.600001,-0.217284,0.659818,-0.719325
-0.285548,0.058745,0.287887,0.185227,-0.982382,-0.024847
-0.270048,0.047626,0.306683,0.599103,-0.685025,-0.414509
-0.284229,0.074236,0.369130,0.241435,0.970335,-0.012642
-0.619524,0.503057,0.895799,0.140894,-0.935811,-0.323119
-0.245645,0.034915,0.355416,-0.586624,0.794525,0.156854
-0.595118,0.479753,0.896227,0.146341,-0.644890,0.750134
-0.257736,0.058083,0.412935,0.934543,0.343448,-0.093128
-0.538172,0.416603,0.852361,0.917367,0.396432,0.035764
-0.502775,0.380062,0.839260,0.610972,0.771257,-0.178539
-0.236959,0.049210,0.465219,0.938430,0.340545,-0.058132
-0.469025,0.345639,0.829188,-0.085875,0.974819,0.205799
-0.249271,0.072781,0.522891,0.871613,0.160475,0.463183
-0.450446,0.330019,0.838678,-0.009424,0.945893,0.324341
-0.208926,0.030811,0.504892,0.986642,-0.154462,0.051762
-0.461769,0.351336,0.889218,-0.717319,-0.693088,-0.071295
-0.204310,0.033057,0.536452,0.861840,-0.485517,-0.146648
-0.351729,0.223178,0.775312,0.224031,0.229426,0.947193
0.112625,-0.350085,0.144504,-0.228067,0.368724,0.901126
-0.381738,0.274546,0.885483,0.496588,0.799556,0.337801
-0.077996,-0.098931,0.479882,0.008557,0.228610,0.973481
-0.394162,0.296784,0.936573,0.336609,0.870584,-0.358857
-0.342933,0.240915,0.903238,0.854592,0.140772,0.499856
-0.311823,0.209933,0.895554,0.629734,0.260803,0.731721
-0.169130,0.042592,0.743875,-0.679114,0.504569,-0.533118
-0.168141,0.048685,0.777547,-0.375395,-0.886859,-0.269370
0.125927,-0.302159,0.436965,-0.041867,-0.917511,0.395500
-0.139779,0.027764,0.808526,0.635108,0.769325,0.069114
-0.110645,-0.000299,0.805985,0.270947,-0.622602,-0.734136
0.276094,-0.453743,0.395762,-0.621117,0.428766,0.656029
-0.099544,0.006448,0.889187,0.505109,0.843161,-0.184239
-0.056340,-0.039095,0.868983,-0.296115,-0.912285,-0.282935
-0.046117,-0.044783,0.887656,0.478629,0.427549,0.766887
-0.327322,0.050406,-0.165406,0.998176,0.050992,0.032322
-0.280052,-0.000437,-0.192497,0.963704,0.266933,-0.004590
-0.795746,0.694228,0.783027,-0.687915,0.656086,-0.310361
-0.737810,0.628566,0.732793,-0.505852,0.838427,-0.202864
-0.237177,-0.013544,-0.059246,-0.588630,-0.309234,0.746920
-0.055461,-0.235566,-0.294188,-0.739236,-0.589196,0.326157
-0.588633,0.455657,0.584206,0.797855,-0.036728,0.601730
-0.209147,-0.028372,-0.004145,0.023091,-0.994663,0.100556
-0.633813,0.521724,0.694651,0.633513,-0.626822,0.453603
-0.018742,-0.261513,-0.250567,-0.816345,-0.461517,0.347251
-0.639969,0.537610,0.743109,0.805143,-0.391031,-0.445914
-0.674380,0.589770,0.835464,-0.558878,0.266533,0.785248
-0.298632,0.113556,0.268878,0.291047,0.854183,-0.430886
-0.270159,0.086284,0.269000,0.385398,-0.875187,-0.292433
-0.494640,0.378737,0.645367,0.795410,0.603712,0.053426
-0.256307,0.078074,0.292632,0.608880,-0.789823,-0.073785
-0.224425,0.047093,0.289265,0.799143,-0.557867,0.223954
-0.587093,0.511526,0.859402,0.604815,0.755279,-0.252494
-0.523992,0.440037,0.804914,0.054187,-0.438701,0.896998
-0.453526,0.359409,0.740630,0.766426,-0.617228,0.177822
-0.447041,0.359409,0.769680,0.131619,0.502690,-0.854388
-0.436265,0.353315,0.790526,0.843583,0.505628,0.180855
-0.222228,0.086809,0.490565,0.967490,-0.037450,-0.250120
-0.432199,0.356095,0.821689,-0.699318,0.633522,0.331065
-0.430988,0.362059,0.856341,-0.180839,0.966920,-0.179899
-0.451329,0.394761,0.919890,-0.311019,0.813388,0.491597
-0.391085,0.327498,0.872167,0.035179,0.873466,0.485612
-0.205078,0.097669,0.620480,0.997217,-0.074556,-0.000111
-0.353598,0.288049,0.855576,0.836635,0.536940,0.108339
-0.166161,0.065097,0.641571,0.938903,-0.058689,0.339142
-0.327544,0.270441,0.889554,0.908504,0.397332,-0.129411
-0.345462,0.299434,0.947348,-0.146874,-0.819937,0.553292
-0.140769,0.056095,0.715467,0.938812,0.078280,-0.335417
-0.092176,0.004201,0.688407,-0.626904,0.713079,-0.313862
-0.109109,0.031999,0.743783,-0.179397,0.916750,-0.356913
0.195184,-0.338829,0.355692,-0.626240,0.694638,0.353981
-0.100862,0.042592,0.832923,0.043363,-0.940603,0.336729
0.111856,-0.215308,0.568073,0.742827,-0.646456,0.174076
0.118341,-0.208295,0.630766,0.775972,0.586499,0.232135
-0.015226,-0.040016,0.827352,0.691303,0.682850,-0.236255
0.004782,-0.057494,0.834729,0.173370,-0.959777,-0.220842
0.011600,-0.059215,0.857535,-0.318526,0.749557,0.580263
0.031937,-0.077356,0.864912,-0.278235,0.897869,0.341199
-0.299950,0.075828,-0.160294,0.975558,0.183016,-0.121621
-0.804868,0.758841,0.806505,0.926945,-0.353057,0.126977
-0.774087,0.727593,0.797475,0.934937,-0.311650,-0.169611
-0.755729,0.712369,0.808618,0.854097,0.218218,0.472121
-0.030836,-0.205911,-0.281545,-0.922947,-0.199539,0.329171
-0.554662,0.472739,0.577502,0.850319,0.017528,0.525976
-0.010939,-0.220739,-0.262811,-0.951638,-0.028027,0.305939
-0.162424,-0.017649,0.019548,0.262556,-0.960750,0.089578
-0.623369,0.577197,0.765119,0.869703,-0.015302,0.493339
-0.321499,0.193918,0.307571,-0.519917,0.761582,-0.386884
-0.537622,0.477240,0.676468,0.804297,0.411055,0.429115
-0.246742,0.117524,0.282347,0.900613,-0.087777,-0.425666
-0.229152,0.104288,0.298632,0.836833,-0.537676,-0.103032
-0.549167,0.516027,0.809169,0.997453,0.065782,-0.027575
-0.547298,0.521328,0.843300,0.864414,-0.164313,-0.475174
-0.477490,0.441887,0.780884,-0.468699,-0.875815,-0.115198
-0.239818,0.144004,0.439965,0.130267,0.991352,-0.015866
-0.504094,0.482799,0.856310,0.744874,0.579079,-0.331407
-0.430770,0.399124,0.789975,0.898236,0.418167,-0.135307
-0.389985,0.355700,0.768578,0.001616,-0.525002,0.851099
-0.204199,0.124408,0.509300,0.989067,0.073990,0.127564
-0.401636,0.377945,0.820954,-0.144647,-0.845214,-0.514481
0.238939,-0.417606,-0.065368,-0.065070,0.313160,0.947469
-0.377561,0.355700,0.824352,-0.445226,-0.826115,-0.345409
-0.395373,0.384959,0.883156,0.138497,0.767379,-0.626058
-0.170888,0.115277,0.616072,-0.539781,-0.838852,-0.070454
-0.292915,0.273221,0.816362,0.992818,0.016164,-0.118538
-0.328094,0.323926,0.898003,0.571435,0.707162,-0.416395
-0.244763,0.228470,0.821566,-0.021095,-0.955832,0.293156
-0.346563,0.360071,0.987480,0.511653,-0.846452,0.147409
-0.275654,0.280501,0.929196,0.512807,-0.858363,0.015579
-0.050073,0.012007,0.672060,0.830814,-0.480211,-0.281327
0.272246,-0.373122,0.297867,0.317718,0.716480,0.621057
-0.070521,0.058616,0.802067,-0.304758,0.791179,0.530244
-0.005990,0.000759,0.820066,0.945944,0.299200,-0.125178
-0.013686,0.016645,0.860871,0.287675,0.902502,0.320519
0.025670,-0.023733,0.846025,0.122191,-0.985935,0.114021
0.087342,-0.091385,0.804424,-0.575257,0.729089,-0.370822
-0.178806,0.154993,0.539605,-0.567756,0.269369,0.777878
-0.300390,0.321414,0.780639,-0.127318,0.983728,-0.126763
-0.182654,0.190871,0.693672,0.574092,0.794270,-0.198883
-0.167151,0.186766,0.743844,-0.497679,-0.867255,-0.013554
-0.130764,0.149434,0.731814,-0.289917,-0.812537,0.505700
-0.124279,0.149038,0.758844,-0.743800,0.294564,-0.599994
0.102513,-0.121048,0.501494,0.257469,0.789656,-0.556914
0.128127,-0.144611,0.504555,0.210162,0.715961,-0.665757
-0.034356,0.060733,0.745711,-0.531202,0.192345,0.825123
-0.000055,0.033057,0.769680,0.710721,0.676552,-0.192753
0.083162,-0.027046,0.862035,0.425805,0.841984,0.331290
-0.322485,0.148901,-0.141192,0.997342,0.062001,-0.038272
-0.744735,0.727060,0.696702,0.705109,0.410129,-0.578460
-0.784641,0.787301,0.802465,0.849493,-0.406285,0.336593
-0.734513,0.740304,0.805863,-0.291341,0.842074,0.453908
-0.714726,0.723488,0.815811,0.424260,-0.703053,0.570718
0.009620,-0.193200,-0.264923,-0.951638,-0.028027,0.305939
-0.622383,0.622077,0.751252,0.957377,0.247350,0.149158
0.016873,-0.192271,-0.227547,-0.663897,-0.581472,0.470246
-0.599295,0.601027,0.756548,0.937276,0.121767,0.326629
-0.341943,0.273883,0.366314,0.979634,-0.073879,0.186708
0.068874,-0.238080,-0.208782,0.992660,0.076114,-0.093982
-0.577750,0.590166,0.802312,0.965415,-0.193726,-0.174485
0.071950,-0.231857,-0.164732,-0.579554,0.135451,0.803598
0.088550,-0.242581,-0.140978,-0.257876,-0.694329,-0.671868
-0.543232,0.563032,0.829035,0.933178,-0.335568,0.128738
0.113836,-0.264422,-0.130509,-0.042849,0.556758,0.829569
0.162646,-0.316454,-0.156100,0.875739,0.414378,-0.247735
-0.307535,0.282885,0.563512,-0.354496,0.849037,0.391751
-0.489252,0.518281,0.861514,-0.675339,-0.641242,0.364315
-0.200680,0.157248,0.451261,-0.737859,0.660725,0.137862
-0.356456,0.359942,0.709743,-0.067667,-0.534829,0.842246
0.225086,-0.356573,-0.064205,0.037066,0.207208,0.977595
0.101523,-0.212925,-0.179303,0.913512,0.393923,-0.101589
-0.552575,0.623265,0.833046,0.809828,-0.586661,0.002636
-0.190129,0.165587,0.298724,-0.642546,0.697306,-0.317645
0.124279,-0.231324,-0.164671,0.717753,0.363997,-0.593580
0.181664,-0.283889,-0.154753,0.876518,0.226531,-0.424736
-0.280602,0.305923,0.555064,0.246610,-0.817351,-0.520693
-0.155610,0.166112,0.456924,-0.502648,0.851044,0.151887
-0.155278,0.182136,0.534248,0.554004,-0.425478,-0.715575
-0.252130,0.317971,0.741609,0.441309,0.861556,-0.250934
-0.328973,0.420570,0.881565,0.275968,0.957414,-0.084854
-0.207497,0.278117,0.754344,0.806808,0.588126,0.056289
-0.150333,0.215097,0.713416,0.960474,-0.257268,-0.106317
-0.191008,0.272292,0.801546,-0.356359,0.932710,0.055315
0.308525,-0.341746,0.145085,-0.204824,0.389186,0.898099
-0.161874,0.243694,0.798485,0.226873,-0.307781,0.924012
0.075248,-0.039491,0.525524,0.214622,0.898456,-0.383032
-0.079207,0.157111,0.760405,-0.274309,-0.949385,0.153047
-0.041609,0.118719,0.747058,0.642681,0.341804,-0.685661
-0.015665,0.094227,0.748650,0.182097,-0.186692,0.965395
0.173089,-0.135610,0.510769,0.155582,0.574064,-0.803893
0.009510,0.070664,0.750181,-0.533728,0.069162,0.842823
0.031165,0.051069,0.755691,0.801152,0.065501,-0.594865
0.229813,-0.190024,0.509300,-0.033906,-0.643431,0.764753
0.052931,0.031602,0.762609,-0.542685,0.167158,0.823135
0.074808,0.012144,0.768119,0.226116,-0.891499,-0.392557
0.095585,-0.005997,0.776139,-0.427734,0.828572,0.361265
-0.347770,0.227282,-0.119244,0.987842,0.154404,-0.018107
-0.760345,0.813247,0.796373,0.733188,-0.414303,0.539248
-0.758259,0.818945,0.833046,0.627410,0.587036,0.511610
-0.730886,0.792594,0.830964,0.751171,0.617032,-0.234547
0.033366,-0.156659,-0.220782,0.758669,0.237946,-0.606467
-0.599734,0.658746,0.788598,0.678016,-0.276805,-0.680935
-0.383278,0.383505,0.460536,-0.144481,-0.984526,0.099164
0.091737,-0.210274,-0.211751,0.915803,0.324642,-0.236456
0.238717,-0.267202,-0.062643,0.767066,0.538940,-0.348070
-0.308196,0.423488,0.743997,0.776017,0.628831,-0.048674
-0.121971,0.191534,0.484535,0.873203,-0.472697,0.118631
0.275325,-0.303484,-0.068980,-0.460346,-0.117616,-0.879914
-0.132194,0.212454,0.536972,-0.585861,0.105483,0.803518
0.302919,-0.328639,-0.064052,0.238119,0.009787,0.971187
0.242565,-0.235566,0.103760,-0.762989,0.557259,0.327582
-0.142198,0.248332,0.661897,-0.775130,0.627363,-0.074763
-0.177045,0.299038,0.745344,0.617463,-0.783066,0.074482
-0.170670,0.306052,0.808250,0.427832,0.341651,-0.836800
-0.167923,0.309891,0.838219,0.767450,0.315671,0.558008
-0.106361,0.241577,0.791934,-0.121823,0.971541,0.203146
-0.028746,0.153935,0.727130,0.450295,0.065725,-0.890458
0.099983,-0.003346,0.562349,-0.030110,0.991655,0.125353
-0.059859,0.198952,0.799955,0.036064,-0.934050,0.355316
0.002474,0.130105,0.755476,0.902083,0.031715,-0.430396
0.210684,-0.115747,0.529473,-0.287003,0.744422,0.602881
0.180782,-0.072056,0.602328,0.951196,-0.153605,-0.267641
0.058648,0.082971,0.785904,-0.548239,-0.384294,0.742801
0.260265,-0.154147,0.571930,0.557657,-0.632158,0.537954
0.143738,0.000621,0.779506,-0.545460,0.583934,0.601245
-0.761667,0.875476,0.838158,-0.162281,0.986716,-0.007536
-0.667563,0.779891,0.809842,-0.728240,-0.682293,-0.064363
-0.477272,0.553892,0.597552,0.546818,0.727143,-0.415034
-0.004232,-0.048889,-0.125458,-0.270791,0.588175,-0.762051
-0.404494,0.470355,0.529289,0.760633,-0.249963,0.599129
-0.547077,0.659942,0.785016,0.052019,0.997007,0.057185
-0.550374,0.672249,0.829127,-0.485300,0.853974,0.187650
-0.336887,0.402171,0.512208,-0.158218,0.973052,-0.167739
0.112625,-0.166590,-0.155273,0.776090,0.527670,-0.345324
-0.503876,0.621414,0.797842,0.726124,-0.532745,-0.434657
-0.173089,0.203978,0.311213,-0.430460,0.670547,-0.604211
0.147586,-0.200876,-0.160661,0.895363,0.281429,-0.345142
-0.505852,0.631870,0.837974,0.725016,-0.593771,-0.348982
0.194856,-0.240593,-0.136294,0.736418,0.388292,-0.554002
0.200901,-0.239009,-0.100418,0.924060,0.356646,0.137535
-0.369208,0.483858,0.754221,0.815377,-0.036679,0.577767
0.212774,-0.244431,-0.071398,0.777189,0.618696,-0.114855
-0.331392,0.444804,0.738885,-0.386251,-0.817057,0.428051
-0.141208,0.207420,0.471617,0.723705,-0.688883,0.041128
0.252459,-0.223381,-0.122611,0.710721,0.566748,-0.416740
-0.244545,0.404684,0.623511,0.579895,0.814668,0.006161
0.253777,-0.215704,-0.080367,-0.461137,0.504806,0.729742
-0.195184,0.351336,0.593175,-0.141796,0.930879,-0.336688
0.304566,-0.269723,-0.106540,0.393320,0.919384,0.005624
-0.092837,0.232179,0.488361,0.763037,-0.586269,0.272147
0.329523,-0.291565,-0.097785,-0.643913,-0.764121,0.038675
-0.106690,0.257334,0.546768,0.242201,-0.827882,0.505915
-0.270816,0.468367,0.809352,0.706997,-0.607631,0.361854
-0.228495,0.423617,0.788077,0.517714,-0.354623,0.778598
0.268291,-0.188699,0.116555,0.657655,-0.638822,-0.399245
-0.186170,0.378608,0.765609,-0.821085,0.399315,0.407881
-0.107898,0.297188,0.732793,0.851654,0.499934,0.157324
-0.114933,0.312808,0.776292,0.651761,0.181797,-0.736314
0.310394,-0.199155,0.260368,0.689180,-0.451166,-0.566992
-0.059309,0.266732,0.808832,-0.851359,0.433697,0.295120
0.165944,-0.007055,0.521911,-0.052277,-0.474034,0.878953
0.041609,0.157644,0.746936,0.330153,0.400396,-0.854799
0.256196,-0.094964,0.514136,-0.031053,-0.707671,0.705859
0.282582,-0.119852,0.515820,-0.606591,0.720901,0.335186
0.118452,0.092635,0.785690,-0.174668,-0.050803,0.983316
-0.766062,0.949220,0.854382,0.925382,-0.097232,-0.366352
-0.724948,0.913342,0.869993,0.761084,0.228015,-0.607257
-0.396802,0.529400,0.526626,0.472242,-0.712038,0.519605
-0.013029,0.071585,0.080159,-0.585885,0.806890,0.075279
-0.290936,0.446784,0.613746,0.657664,0.751689,-0.049413
-0.276865,0.437119,0.631745,0.797689,0.585099,-0.146125
-0.180893,0.399658,0.539789,0.573946,0.815123,-0.078485
0.297531,-0.193596,-0.139417,-0.223799,-0.364117,0.904065
0.246635,-0.121048,-0.021808,0.430711,0.896073,-0.107428
-0.023361,0.236947,0.475750,-0.083327,-0.979891,0.181301
-0.057440,0.286198,0.559533,0.114984,-0.895686,0.429564
0.268291,-0.113630,0.116984,-0.813680,0.549570,0.189464
-0.181332,0.445863,0.764568,-0.411049,-0.428312,0.804728
0.323585,-0.140377,0.244878,0.865272,-0.412226,-0.285263
-0.063597,0.337567,0.784251,-0.713800,-0.016205,0.700162
-0.104160,0.393832,0.869993,0.674723,-0.738012,0.009317
-0.012918,0.296921,0.821842,-0.727740,0.661451,-0.181321
0.220359,0.015191,0.527973,-0.221467,-0.567030,0.793366
0.190568,0.058479,0.601225,0.733216,-0.557902,0.388766
0.087121,0.189813,0.763221,-0.491479,0.850045,0.189395
0.308196,-0.069542,0.523258,0.752852,0.398744,-0.523657
0.330952,-0.089534,0.530820,0.839198,0.169359,-0.516783
0.158908,-0.058690,-0.125611,-0.605349,-0.665874,0.436079
-0.155610,0.527016,0.837117,-0.691808,0.612699,0.382103
0.036332,0.295200,0.583655,-0.103211,-0.994226,-0.029361
0.328973,-0.058157,0.197094,0.720400,0.666192,-0.192902
0.330070,-0.051935,0.235818,0.828350,-0.492159,-0.267612
0.361294,-0.081591,0.235052,0.881251,-0.443717,-0.162822
0.401968,-0.123165,0.220420,0.997069,0.074821,-0.015951
0.413730,-0.122503,0.281735,-0.468224,0.879034,-0.089813
0.209366,0.128780,0.575328,0.604731,-0.784059,0.139826
0.258615,0.077145,0.549492,0.204903,-0.706157,0.677759
0.281700,0.056232,0.556135,0.342705,-0.636085,0.691338
0.277744,0.068014,0.596848,0.768572,-0.437611,0.466684
0.155610,0.219339,0.778741,-0.533124,0.430567,0.728279
0.405373,-0.063587,0.543921,0.858637,0.332891,-0.389777
0.132304,0.117128,0.134984,-0.432259,-0.890273,0.143407
0.367997,-0.137460,-0.020339,0.774497,0.521674,0.357786
0.304237,-0.043862,0.149555,0.019338,-0.999267,0.033043
0.437144,-0.036315,0.280112,-0.370764,0.611581,0.698930
0.460782,-0.057890,0.286816,-0.370764,0.611581,0.698930
0.296763,0.148505,0.563298,-0.267199,0.851204,-0.451726
0.433189,0.037824,0.100087,-0.546192,0.803857,0.235559
0.439016,0.058349,0.250174,-0.510290,0.573752,0.640635
0.282142,0.266336,0.594277,0.882066,0.400729,0.247740
0.461551,0.169425,-0.013757,-0.559006,0.768519,0.311275
0.525750,0.133814,0.146157,-0.181883,0.897406,0.401972
0.564008,0.096078,0.137096,0.417835,0.862903,-0.284275
0.705050,-0.029697,0.189533,-0.275572,0.858162,0.433148
0.492771,0.211000,-0.007972,-0.531341,0.820516,0.210787
0.535975,0.192988,0.139912,0.992468,0.120289,0.023196
0.621722,0.112627,0.148024,-0.052294,0.984981,0.164555
0.716373,0.028031,0.182217,-0.439249,0.676923,0.590623
0.767602,-0.018837,0.194523,-0.134790,0.983663,0.119324
0.713186,0.048548,0.296795,0.208331,-0.936620,0.281675
0.776506,-0.011952,0.292847,0.367986,-0.559450,0.742699
0.692188,0.113160,0.152279,0.166254,0.955385,-0.244131
0.719560,0.087472,0.155463,0.133997,0.920677,-0.366604
0.751331,0.057154,0.153473,0.406242,-0.220671,-0.886720
0.756719,0.073444,0.294714,-0.361574,0.652848,-0.665623
0.851040,-0.022409,0.254337,-0.188823,0.930406,0.314150
0.539491,0.313866,0.134371,0.830666,0.117332,0.544268
0.560049,0.295725,0.145912,0.870387,-0.013433,-0.492185
0.730665,0.136594,0.163330,-0.063444,-0.631535,0.772747
0.769031,0.098599,0.152922,-0.358865,-0.439246,0.823577
0.789808,0.080458,0.164126,0.521138,0.050105,-0.852000
0.815311,0.057557,0.171258,0.137375,0.795005,0.590843
0.864782,0.012807,0.185401,0.192279,0.607233,0.770907
0.805639,0.084830,0.292142,-0.289361,0.597989,-0.747448
0.862803,0.025914,0.260980,-0.252864,0.936649,0.242382
0.939317,-0.055111,0.206339,0.853980,0.446651,-0.266872
0.914253,0.017437,0.191156,0.822625,0.270684,-0.500019
0.872696,0.069864,0.276776,-0.361614,0.864014,-0.350306
0.596658,0.290828,0.005467,-0.745427,0.666346,0.017928
0.721871,0.195905,0.164217,-0.003281,-0.332357,0.943148
0.782333,0.138978,0.166666,0.290565,0.656465,-0.696151
0.841365,0.083108,0.167799,-0.523105,-0.275386,0.806550
0.865661,0.061395,0.176187,-0.358899,0.041433,0.932456
0.892265,0.036636,0.180135,-0.310636,-0.097179,0.945548
0.582695,0.347360,0.020956,0.475431,0.781282,-0.404431
0.623920,0.306319,0.006814,-0.621272,0.766944,0.160681
0.681526,0.277059,0.173493,-0.053971,-0.313290,0.948123
0.717362,0.241973,0.165901,-0.056960,-0.378615,0.923800
0.772989,0.190604,0.174687,-0.169413,-0.302958,0.937825
0.803660,0.161353,0.175237,0.883521,0.017706,-0.468057
0.819381,0.149038,0.192472,0.466190,-0.428146,-0.774182
0.893584,0.076223,0.176738,-0.435957,-0.029023,0.899499
0.923157,0.048151,0.177258,-0.553460,-0.296852,0.778178
0.887867,0.099391,0.291683,-0.119613,0.747813,-0.653045
0.971088,0.010949,0.230705,0.829156,0.466762,0.307625
0.831143,0.162541,0.175972,-0.531840,0.116598,0.838779
0.853788,0.142679,0.184941,0.383966,0.415693,-0.824481
0.917551,0.081517,0.181941,-0.592451,-0.300033,0.747651
0.919527,0.096474,0.287734,0.130809,0.962906,-0.236012
0.797503,0.225691,0.173799,-0.151152,-0.142882,0.978130
0.851920,0.175914,0.183809,-0.800946,0.275841,0.531411
0.883801,0.145596,0.182829,0.679812,0.332745,-0.653556
0.925354,0.109322,0.204655,0.746582,0.646225,-0.158139
0.942394,0.107334,0.292908,0.130809,0.962906,-0.236012
0.813335,0.245019,0.173615,-0.358386,-0.349696,0.865605
0.690648,0.370398,0.013365,-0.501753,0.422325,-0.754908
0.862363,0.236551,0.187543,-0.687169,-0.058792,0.724115
0.666905,0.448247,0.017834,0.399362,0.517508,0.756767
0.697904,0.418987,0.018875,-0.014813,0.997948,0.062296
0.731655,0.386681,0.016885,-0.055861,-0.924652,0.376693
0.750012,0.422033,0.005773,-0.138058,0.554350,0.820753
0.772218,0.402963,0.018660,-0.355375,0.823094,0.442972
0.784530,0.458970,0.002498,-0.144775,0.427512,0.892342
1.000000,0.010819,0.230001,0.885613,-0.387548,0.255923
-0.820038,-0.440377,-0.987842,-0.071890,-0.244847,0.966893
-0.702192,-0.514913,-0.981628,0.090055,0.194126,-0.976834
-0.583684,-0.374044,-0.982638,0.271154,0.001768,-0.962534
-0.495851,-0.429121,-0.970424,0.230230,0.229126,-0.945778
-0.377561,-0.504053,-0.962832,0.264136,-0.058085,-0.962735
-0.244655,-0.587461,-0.957659,0.005605,0.459136,0.888348
-0.152202,-0.645051,-0.944741,0.016788,0.334636,0.942198
-0.035342,-0.718270,-0.937455,-0.414907,-0.079201,0.906410
-0.699334,-0.395361,-0.987566,-0.140029,0.073230,0.987436
-0.566645,-0.478769,-0.982699,0.993147,0.004791,0.116775
-0.477822,-0.534509,-0.969444,-0.481400,0.075419,0.873250
-0.382510,-0.593683,-0.958424,-0.118966,0.048418,0.991717
-0.264882,-0.157451,-0.617995,-0.057132,-0.989495,-0.132797
-0.272689,-0.145274,-0.530385,-0.224149,-0.973457,-0.046244
-0.304788,-0.342408,-0.957230,-0.608472,-0.472029,0.637926
-0.272356,-0.361470,-0.934211,0.913158,-0.407197,-0.018237
-0.169241,-0.425808,-0.924568,-0.197820,-0.938353,0.283480
0.053482,-0.567607,-0.936170,0.455266,-0.125642,-0.881446
-0.193427,-0.373648,-0.450704,-0.314018,-0.922106,0.226085
-0.481120,-0.334465,-0.971679,-0.148111,0.363714,0.919660
-0.383500,-0.395894,-0.961210,0.047162,0.220186,0.974317
-0.251690,-0.478639,-0.955975,-0.195067,0.096328,0.976048
-0.146485,-0.544302,-0.946700,-0.319622,0.924671,-0.206942
-0.011157,-0.629431,-0.941741,0.156746,-0.224025,0.961896
-0.076788,-0.230265,-0.955914,0.113238,0.031536,-0.993067
-0.193205,-0.116143,-0.465765,-0.597856,0.795340,-0.100014
-0.032044,-0.332210,-0.957537,-0.787109,-0.586775,0.190144
0.076566,-0.399999,-0.948720,-0.287011,0.383610,0.877763
0.142859,-0.028234,-0.945537,0.534601,0.210171,-0.818554
-0.610728,-0.814518,-0.220598,-0.031502,0.291566,0.956032
-0.480241,-0.728726,0.526350,0.941683,0.316961,0.112999
-0.376793,-0.535696,-0.203793,-0.410566,0.271380,0.870511
-0.316329,-0.529870,0.338059,0.828218,0.095490,0.552211
-0.674491,-0.054981,0.964705,0.232762,0.954511,-0.186359
-0.440553,-0.202468,0.983347,-0.402813,-0.820561,0.405488
-0.227945,-0.446600,-0.374971,0.955619,-0.156276,-0.249740
-0.523663,-0.180093,0.605358,0.789260,0.574252,0.217494
-0.006980,-0.500352,0.690580,0.288448,0.878864,0.379994
-0.550485,-0.048363,0.806505,0.445933,0.882916,-0.146978
-0.538062,-0.053923,0.831209,-0.434442,0.790456,0.431786
