-0.682356,0.162185,0.533400,-0.638410,0.286327,0.714457
-0.691432,0.177668,0.560606,0.911925,0.218174,-0.347553
-0.719339,0.211295,0.593021,0.048554,-0.103025,0.993493
-0.811623,0.306643,0.643199,-0.441595,-0.730930,0.520322
-0.543675,0.085778,0.359605,-0.768757,0.511063,0.384483
-0.672424,0.215983,0.421504,0.637741,-0.229669,0.735213
-0.763166,0.310311,0.472948,0.155369,0.948625,0.275627
-0.780806,0.334151,0.502035,0.790218,-0.599550,-0.126869
-0.726356,0.317039,0.607890,0.172903,0.813686,-0.554995
-0.697765,0.297278,0.624350,0.947324,-0.092643,-0.306587
-0.235148,-0.129789,0.544217,0.678028,-0.225427,0.699615
-0.240112,-0.118385,0.570157,-0.025579,0.953001,0.301884
-0.292676,-0.061528,0.608939,-0.277170,0.605062,0.746376
-0.290277,-0.056851,0.631730,-0.644393,0.744166,-0.175999
-0.478101,0.129180,0.706075,0.075765,-0.973361,-0.216398
-0.332741,0.004285,0.713708,-0.414003,-0.906287,-0.085122
-0.121463,-0.183177,0.704917,0.414250,-0.317469,0.853001
0.039133,-0.322138,0.709186,0.902591,-0.401066,0.156446
-0.158617,-0.127351,0.784399,-0.368452,0.834300,-0.410105
-0.155535,-0.117154,0.829584,0.851323,0.107942,-0.513417
-0.054520,-0.206407,0.826871,-0.232207,0.354606,0.905723
-0.188750,-0.071924,0.885153,0.653883,-0.744471,0.134908
-0.452587,0.085579,0.321076,-0.453330,0.798932,-0.395222
-0.702044,0.353912,0.493642,-0.628405,0.769093,-0.116637
-0.592126,0.290550,0.607781,0.002023,0.834221,0.551427
-0.241141,-0.037289,0.534739,0.904475,-0.377129,0.199247
-0.413723,0.134676,0.606225,-0.116525,-0.082015,0.989796
-0.303805,0.036680,0.599496,0.508436,0.227194,0.830587
-0.250045,-0.007741,0.608975,0.059695,-0.996933,0.050599
-0.218710,-0.023634,0.648119,0.062571,-0.980034,0.188727
-0.126944,-0.096982,0.671670,0.918079,-0.254192,-0.304168
-0.105882,-0.110227,0.689144,0.850541,-0.385767,0.357441
-0.109649,-0.100241,0.713129,0.150553,-0.075382,0.985724
-0.175050,-0.010589,0.824302,0.604200,-0.613036,0.509048
-0.149887,-0.027303,0.841161,0.044682,-0.028572,0.998593
0.059165,-0.219851,0.809036,0.925609,0.052905,0.374765
-0.056573,-0.096584,0.884900,-0.119187,-0.820358,0.559292
-0.377086,0.138345,0.286020,0.884435,0.254719,0.391015
-0.682869,0.467403,0.499683,0.768503,-0.512432,-0.383166
-0.147316,-0.001424,0.495306,0.198608,-0.691137,0.694899
-0.540419,0.380612,0.629343,0.981657,0.116582,-0.150855
-0.286510,0.145483,0.582457,0.410142,0.793507,0.449589
-0.433928,0.293199,0.647576,0.140996,0.906920,-0.397008
0.002150,-0.087618,0.647974,0.886118,0.399526,0.234890
-0.070101,-0.012019,0.690591,0.916770,0.211894,-0.338577
-0.024387,-0.048693,0.702349,0.908775,-0.398871,0.122598
-0.308084,0.227388,0.801692,0.356858,0.015375,0.934032
-0.066846,0.005292,0.761354,0.712163,0.462936,0.527743
-0.117183,0.059290,0.797242,0.708611,0.670973,0.218327
-0.132420,0.080692,0.823941,0.783958,0.610497,0.112708
-0.217514,0.128359,0.256716,-0.373432,0.899206,-0.227987
-0.598803,0.514884,0.443464,0.693160,-0.550416,0.465373
-0.628252,0.550128,0.477109,0.767214,-0.617043,0.175046
-0.619866,0.548909,0.499611,-0.701360,0.653685,-0.284236
-0.602916,0.539334,0.518929,-0.421664,0.677423,0.602741
-0.412182,0.364110,0.488758,-0.144742,-0.904791,0.400504
-0.147489,0.118385,0.438761,0.914730,0.347078,0.206898
-0.161011,0.138557,0.466870,-0.587931,0.807758,-0.043180
-0.076261,0.064997,0.468100,0.922084,0.286860,-0.259756
-0.127629,0.121034,0.507280,0.097061,0.365627,0.925687
-0.090818,0.092705,0.521751,0.823575,0.033124,-0.566240
-0.013598,0.025463,0.524067,0.751924,0.554128,0.357144
-0.055032,0.071925,0.559303,-0.713923,-0.652128,-0.255034
-0.059311,0.083340,0.585134,-0.346171,0.866139,-0.360513
-0.019591,0.052362,0.597796,-0.517307,-0.649025,-0.557818
0.030063,0.011609,0.608613,0.379746,0.729364,0.569053
-0.030036,0.075394,0.649096,-0.701027,0.112062,-0.704275
-0.079344,0.129591,0.686648,-0.435391,0.133044,0.890356
-0.140466,0.194170,0.726045,-0.363803,-0.906395,0.214698
-0.150399,0.210276,0.751622,-0.619833,-0.716283,0.320541
-0.209640,0.273027,0.791055,0.812302,0.517192,-0.269589
-0.045099,0.122663,0.769928,0.912441,-0.408987,0.013463
-0.215461,0.291371,0.838556,0.100278,-0.990252,0.096670
-0.210152,0.292589,0.860371,-0.613139,-0.772301,0.166168
-0.173509,0.264670,0.874119,0.885297,0.459943,0.068576
-0.137044,0.236553,0.886853,-0.509443,-0.364376,0.779550
-0.094580,0.202938,0.898140,0.298619,-0.450916,-0.841131
0.013113,0.263452,0.921185,0.097584,-0.697875,0.709541
0.024241,0.067646,0.244597,0.779036,0.575049,-0.249843
-0.009318,0.106969,0.279363,0.345853,0.926056,-0.151018
-0.018906,0.123062,0.306930,0.357339,0.892636,-0.274791
-0.044075,0.154450,0.339960,0.656997,-0.753502,-0.024281
-0.067530,0.183178,0.371145,0.847040,0.424975,-0.319249
-0.115814,0.235745,0.410108,0.110503,0.584006,-0.804192
-0.048354,0.178900,0.416403,0.925300,-0.369370,-0.085944
-0.048867,0.185826,0.441619,0.908785,-0.210218,-0.360442
-0.042534,0.186635,0.464048,-0.415432,0.827727,-0.377206
-0.043046,0.193972,0.488143,0.764757,-0.642409,-0.049584
-0.046301,0.216792,0.562198,0.830431,0.552985,0.067770
0.041359,0.147510,0.587305,0.593755,0.782459,-0.187651
-0.035684,0.227388,0.632020,0.926287,0.311743,0.211682
-0.018562,0.216991,0.650615,0.519252,0.795242,-0.312999
0.020475,0.199680,0.711429,-0.567406,0.690439,-0.448714
0.035198,0.192542,0.731182,0.338140,0.744761,0.575319
-0.081398,0.332932,0.252990,0.986497,0.095230,0.133249
-0.229155,0.480648,0.321980,0.268441,-0.932678,0.240938
-0.238403,0.567451,0.619502,0.768042,0.262759,0.584012
-0.039451,0.429100,0.753576,0.765480,0.599939,-0.232626
0.009173,0.401393,0.810772,0.956532,0.076138,0.281515
0.148539,0.281994,0.821046,-0.461465,0.861449,0.212028
-0.012574,0.440305,0.885297,0.318927,-0.499428,0.805517
-0.025072,0.463735,0.933558,-0.341485,0.936849,0.075514
0.016190,0.430941,0.944954,0.902454,0.412448,-0.124355
-0.267679,0.780779,0.727962,-0.238881,0.956948,0.164885
-0.115814,0.642839,0.709620,0.101845,0.955951,0.275291
0.112241,0.433789,0.671887,0.812773,-0.329562,-0.480406
-0.165463,0.707830,0.793081,0.268417,0.591018,-0.760691
-0.080885,0.634072,0.793986,0.481435,0.650034,-0.587942
0.132958,0.449682,0.805816,-0.491528,0.432480,0.755885
0.118234,0.580696,0.558218,-0.444868,0.809393,-0.383374
-0.050753,0.768555,0.723368,0.869529,-0.335416,0.362512
0.138951,0.596179,0.696090,-0.084666,0.023229,0.996139
-0.227442,0.945620,0.817067,0.495159,0.751638,-0.435727
-0.051609,0.791985,0.815945,0.510520,0.546115,0.664175
0.018076,0.731670,0.819961,0.323591,0.827176,-0.459422
0.121490,0.651806,0.862469,0.994290,0.098843,-0.040212
0.147170,0.747974,0.615234,0.027269,-0.927136,0.373732
0.157443,0.743285,0.635638,0.289220,-0.955197,-0.062855
0.199050,0.709870,0.647468,0.048052,-0.996050,-0.074670
0.229521,0.687049,0.663349,-0.157942,0.935877,0.314943
0.071152,0.876948,0.889530,0.746437,0.243138,-0.619447
0.257600,0.708041,0.864025,0.879555,0.407492,0.245628
0.285340,-0.146291,-0.944841,0.072833,-0.759544,0.646366
0.377964,-0.239611,-0.966475,0.983744,0.164369,0.072317
0.436008,-0.283014,-0.958770,-0.111260,0.741889,0.661227
0.488567,-0.320296,-0.948242,0.977640,-0.146576,0.150783
0.544213,-0.361659,-0.940681,-0.363116,0.337081,-0.868633
0.580851,-0.050733,-0.961085,0.019315,0.673578,0.738864
0.653275,-0.115524,-0.966729,0.765515,0.061661,0.640456
0.723473,-0.176449,-0.968972,0.038227,0.641454,0.766209
0.795212,-0.240022,-0.972481,-0.703512,-0.506633,0.498392
0.859756,-0.292179,-0.969587,-0.060475,-0.045359,0.997139
0.917456,-0.337210,-0.963473,0.855996,0.032830,-0.515940
0.237913,-0.117365,-0.961302,0.075880,-0.001386,0.997116
0.562020,-0.348215,-0.899837,0.976305,-0.171576,0.131874
0.514592,-0.243082,-0.808019,0.843287,-0.455960,0.284546
0.521098,-0.214553,-0.759614,0.926443,-0.374767,0.035398
0.459119,-0.089447,-0.656834,0.064878,-0.871944,0.485288
0.849656,-0.641620,-0.971432,0.444630,0.852812,0.273891
0.469736,-0.067845,-0.613421,0.876586,0.366640,0.311724
0.897596,-0.671367,-0.955514,0.968861,-0.142523,0.202473
0.331566,-0.453549,-0.975013,0.205081,0.963091,-0.174351
0.395431,-0.506738,-0.974326,-0.726854,0.404733,0.554865
0.324032,-0.036879,-0.394946,0.856622,0.501294,-0.122076
0.316670,0.006933,-0.342199,0.944226,0.028089,0.328098
0.314961,0.041767,-0.294771,-0.287746,0.349071,0.891825
0.328316,0.056640,-0.257508,0.971013,-0.211404,-0.111542
0.352967,0.054601,-0.231027,0.074851,-0.896546,-0.436582
0.429158,-0.515493,-0.945746,0.816050,0.396107,-0.420906
0.518187,-0.603106,-0.963617,0.603866,0.342683,0.719663
0.575030,-0.645288,-0.954826,-0.320962,0.745410,0.584249
0.642662,-0.703353,-0.956635,0.875159,-0.203351,0.439028
0.712688,-0.766105,-0.960868,0.135243,0.318944,0.938075
0.775691,-0.816434,-0.957214,-0.029741,-0.250323,-0.967706
0.843324,-0.875119,-0.959204,-0.081870,-0.653666,0.752342
0.359473,-0.156688,-0.522290,0.224327,-0.806032,-0.547714
0.904101,-0.922190,-0.953415,0.293132,0.052555,-0.954626
0.379505,-0.148941,-0.487741,-0.773192,0.282433,-0.567807
0.150081,0.399353,0.013460,0.977355,0.211563,-0.004168
0.047697,0.123273,-0.074234,0.546221,0.482788,0.684513
0.238597,-0.045646,-0.084147,-0.746462,-0.651349,0.136156
0.212404,0.022815,-0.019968,0.856833,0.404464,0.319759
0.214797,0.051753,0.022685,-0.095218,0.987841,0.122900
0.210691,0.088427,0.069354,-0.792231,0.354698,0.496547
0.268730,-0.403631,-0.978957,0.624722,0.430651,0.651354
-0.057603,0.090466,0.173255,-0.682407,-0.273117,-0.678032
0.039990,0.049514,0.230126,-0.475312,0.761020,-0.441504
0.200074,0.935423,0.830670,-0.458854,0.872843,-0.166124
0.284138,0.850061,0.810121,0.484559,0.352707,-0.800500
-0.060680,0.890192,0.867028,0.833519,-0.539109,-0.120861
-0.285826,0.739617,0.798906,-0.272652,0.603825,0.749037
-0.228644,0.689499,0.796482,-0.572742,0.128588,-0.809588
-0.066846,0.500011,0.723259,0.862151,0.407081,0.301630
-0.085682,0.550949,0.771845,0.397394,0.750505,-0.528034
0.033997,0.444583,0.764646,-0.688491,-0.711222,0.141927
0.019106,0.489005,0.808312,-0.045467,-0.737673,-0.673626
0.028861,0.500819,0.835626,0.743376,-0.590423,0.314313
0.060707,0.484727,0.849916,0.267978,0.124980,0.955284
0.075776,0.555227,0.561438,-0.435804,0.818518,-0.374304
0.014993,0.112876,0.287756,0.856077,0.429409,0.287647
-0.041677,0.218832,0.367346,0.124100,-0.966618,0.224164
-0.006408,0.843532,0.866377,-0.671100,0.234745,0.703221
-0.260829,0.133869,0.514697,-0.732036,0.678539,0.060901
-0.139097,0.024854,0.506448,-0.082173,0.921185,-0.380351
-0.139781,0.053581,0.543964,-0.642044,0.756616,-0.123742
-0.156904,0.162396,0.668993,0.343177,-0.938888,-0.026805
-0.227274,0.554617,0.613135,-0.708453,-0.347406,-0.614331
-0.306031,0.688281,0.705243,0.196283,-0.754662,0.626066
-0.216312,0.594960,0.681149,-0.268384,-0.522565,0.809256
-0.252271,0.669129,0.741167,0.811422,0.530667,-0.244922
0.085531,0.476370,0.867136,0.809746,0.584505,-0.051614
0.181070,0.376334,0.840763,0.590710,0.805019,0.054822
0.237401,0.376123,0.905738,0.973708,0.172537,-0.148744
-0.166492,0.202118,0.710742,-0.000965,-0.880874,0.473350
-0.056401,0.080281,0.672647,0.946545,-0.273338,0.171287
-0.023013,0.063169,0.687009,0.359175,-0.342320,0.868222
0.017220,0.035449,0.695511,0.887675,-0.385323,0.252109
-0.200219,0.378573,0.907727,0.364797,-0.472200,-0.802465
-0.162212,0.354123,0.917748,-0.090586,-0.983992,0.153473
-0.107251,0.306444,0.915505,0.067244,0.944866,-0.320478
-0.090646,0.308682,0.937465,0.951201,0.271941,-0.145824
-0.265793,-0.080890,0.758930,0.704983,0.542574,0.456741
-0.182245,-0.167072,0.738598,0.872382,0.021858,0.488336
-0.313905,0.038098,0.859322,0.658809,-0.416859,0.626258
-0.465769,0.178278,0.343759,0.649255,-0.588886,0.481332
-0.394720,0.289742,0.571206,0.434139,-0.099292,0.895357
-0.699134,0.075593,0.492846,0.817078,-0.504961,-0.278204
-0.780973,0.223309,0.592912,-0.416333,0.081026,0.905595
-0.548299,0.107790,0.695583,0.302301,0.671752,0.676287
-0.466459,0.022615,0.675179,-0.187834,0.430575,-0.882793
-0.334450,-0.131418,0.620769,0.889884,0.456100,0.008917
-0.378455,-0.040958,0.688782,0.398714,-0.905213,0.147025
-0.140811,-0.309291,0.601522,-0.565951,-0.493406,0.660493
-0.426733,0.110638,0.830018,-0.225890,0.737255,0.636733
-0.092015,0.336191,0.972123,0.916527,-0.262941,-0.301397
-0.117183,-0.173190,0.800715,0.042781,0.855763,0.515595
-0.094068,-0.177058,0.820576,-0.394091,0.470424,-0.789552
0.077830,-0.353713,0.780672,-0.745808,0.339363,0.573240
-0.408759,-0.407909,0.656512,-0.364284,-0.908755,0.203623
-0.273672,-0.566232,0.601197,0.760663,-0.174211,-0.625334
-0.262543,-0.551558,0.631369,-0.594730,-0.190042,-0.781140
-0.352429,-0.398942,0.726949,-0.006315,0.998474,-0.054865
-0.186524,-0.106359,0.811604,0.838868,-0.431107,-0.332337
-0.332568,-0.367977,0.786280,0.945181,0.108034,0.308159
-0.229667,-0.479839,0.754770,0.719159,0.054093,0.692737
-0.168205,-0.536274,0.749090,0.091888,0.809851,0.579395
-0.652052,-0.250008,0.597724,0.147243,0.846586,0.511479
-0.645546,-0.198250,0.669029,0.652150,0.723486,-0.226424
-0.659586,-0.147920,0.716856,0.968376,-0.158855,-0.192387
-0.705811,-0.052772,0.786750,-0.404582,-0.911993,-0.067690
-0.588358,-0.186845,0.743229,-0.357394,0.414272,-0.837047
-0.839357,-0.430120,0.637881,-0.396356,-0.587757,-0.705297
-0.802035,-0.451510,0.650253,0.059653,0.753630,0.654586
-0.761630,-0.416266,0.734076,0.410594,-0.843345,0.346672
-0.726189,-0.316218,0.890471,0.902419,0.183257,0.389944
0.732721,-0.121842,-0.974507,-0.128461,0.043386,0.990765
0.802061,-0.184595,-0.967452,0.647349,0.561033,-0.515927
0.865237,-0.243479,-0.968284,-0.579049,-0.611171,0.539604
0.129024,0.544221,0.087479,0.999622,-0.026087,0.008650
0.144772,0.521811,0.059188,0.894714,-0.423181,0.142847
0.453126,-0.102081,-0.618594,0.934549,0.212719,0.285251
0.490625,-0.142225,-0.637153,0.826253,-0.560696,0.054095
0.508599,-0.169111,-0.672535,0.810318,-0.506330,0.294983
0.524692,-0.194792,-0.712257,0.885268,-0.461398,0.058413
0.505350,-0.196620,-0.781211,-0.369842,0.917143,0.148548
0.362383,-0.114716,-0.961157,0.514171,-0.112846,0.850232
0.454327,-0.193362,-0.936738,0.784493,0.614473,-0.083627
0.531715,-0.261823,-0.924148,0.446504,-0.743741,-0.497477
0.578286,-0.308682,-0.937244,0.389693,-0.120833,0.912983
0.630504,-0.359831,-0.945312,-0.707316,-0.691004,-0.149057
0.676045,-0.406491,-0.961989,-0.068622,0.525255,0.848174
0.268730,0.112466,-0.988471,0.110421,0.805764,0.581852
0.379505,0.021396,-0.946433,0.994444,0.097360,0.040036
0.399711,-0.007741,-0.982755,0.723278,0.551550,-0.415526
0.548320,-0.139775,-0.963183,-0.717796,0.682247,-0.138952
0.596259,-0.188474,-0.977473,-0.318817,0.486300,-0.813553
0.671253,-0.255505,-0.967886,0.764597,-0.642636,-0.049094
0.728269,-0.310311,-0.974326,-0.240309,-0.213527,-0.946920
0.807365,-0.378771,-0.958082,-0.105781,-0.110609,0.988219
0.871915,-0.437867,-0.955514,-0.651798,0.155720,0.742233
0.135869,0.371646,0.014328,0.868889,0.494664,-0.018427
0.141862,0.210686,-0.071050,-0.378483,0.789687,-0.482852
0.222332,0.103512,-0.185371,-0.090610,-0.866728,-0.490482
0.277461,0.051554,-0.188084,0.279382,0.138335,0.950163
0.348861,-0.011210,-0.178135,0.788904,0.582874,-0.194652
0.348516,-0.023833,-0.223212,-0.310513,0.647204,0.696210
0.345778,-0.061328,-0.365136,0.783510,0.621329,-0.007932
0.368204,-0.090665,-0.395887,-0.477681,-0.713900,-0.512023
0.378820,-0.112266,-0.436586,-0.736568,-0.176134,-0.653027
0.396455,-0.138755,-0.472076,0.974166,0.225064,-0.018642
0.404502,-0.158118,-0.513861,0.427659,-0.871685,0.239319
0.415803,-0.180117,-0.553330,0.145257,0.973296,0.177748
0.432069,-0.205586,-0.591425,0.992440,-0.084615,-0.088895
0.423678,-0.214142,-0.648730,0.536814,-0.832905,0.134538
0.187403,-0.082519,-0.958842,0.828335,0.312875,0.464726
0.267188,-0.153019,-0.945239,0.968907,-0.053217,0.241633
0.487715,-0.317860,-0.806499,0.968439,-0.170341,0.181958
0.489941,-0.334362,-0.857546,-0.146915,-0.862644,0.484005
0.483263,-0.346176,-0.920277,0.759529,0.051526,-0.648429
0.547296,-0.405061,-0.917600,0.542065,-0.125162,-0.830963
0.577256,-0.441536,-0.948206,-0.671982,-0.038645,-0.739558
0.620059,-0.486356,-0.967308,0.173763,0.568656,-0.804013
0.691287,-0.550737,-0.961121,-0.112312,0.770465,0.627510
0.752748,-0.607384,-0.961121,-0.211841,0.072078,-0.974643
0.818155,-0.667089,-0.957286,-0.278310,0.248565,0.927771
0.888180,-0.729841,-0.951245,0.805564,-0.049351,-0.590450
0.195966,0.076401,-0.034475,0.596664,0.801068,0.047773
0.242365,0.030972,-0.043375,-0.583738,-0.804781,0.107596
0.280889,-0.033621,-0.145286,0.823614,0.536909,0.182724
0.280716,-0.084758,-0.330912,0.955469,0.217736,0.199174
0.281400,-0.354533,-0.961230,0.714063,-0.100904,-0.692772
0.350229,-0.416875,-0.954863,-0.802586,0.595959,-0.026235
0.414090,-0.476170,-0.955043,0.952551,0.299124,0.056314
0.467165,-0.526910,-0.962785,-0.435943,0.650214,-0.622235
0.525722,-0.582934,-0.968067,-0.432411,0.146718,-0.889660
0.595063,-0.645488,-0.962677,-0.375340,-0.382042,0.844490
0.662523,-0.707220,-0.959131,-0.331712,-0.220196,-0.917323
0.724329,-0.764476,-0.958408,0.153017,0.015224,0.988106
0.787338,-0.821942,-0.956780,0.163588,0.147983,0.975367
0.852394,-0.882046,-0.955514,-0.559696,0.492704,0.666320
0.311021,-0.119405,-0.354934,0.849657,-0.287434,0.442113
0.329852,-0.145483,-0.386336,-0.766681,-0.613824,-0.188202
0.337559,-0.164025,-0.427506,0.817836,0.555443,0.150424
0.341666,-0.194792,-0.523086,0.162970,0.942313,0.292381
0.198192,-0.182567,-0.961013,0.929401,0.335830,0.153075
0.296470,-0.265280,-0.928706,0.846838,0.525863,0.079590
0.344409,-0.313780,-0.942960,0.667642,-0.073960,-0.740800
0.403133,-0.369805,-0.948134,0.373422,0.565508,-0.735361
0.468367,-0.430120,-0.947193,-0.041087,-0.747621,0.662854
0.510998,-0.473932,-0.964088,-0.597916,-0.139225,-0.789375
0.577768,-0.534856,-0.959602,-0.056328,-0.101639,0.993225
0.635640,-0.590072,-0.964450,0.515889,0.527598,0.674906
0.698304,-0.647527,-0.963437,0.242410,-0.016824,0.970028
0.768502,-0.710888,-0.957106,-0.613024,0.479132,-0.628199
0.832707,-0.769985,-0.956671,0.086505,0.191665,0.977641
0.899649,-0.831307,-0.953705,0.293380,-0.473326,-0.830597
0.248358,-0.424623,-0.962966,0.563927,0.416471,-0.713118
0.321294,-0.490435,-0.955116,0.922638,0.018771,0.385211
0.378649,-0.544830,-0.961374,-0.280910,-0.211987,0.936029
0.439431,-0.602085,-0.964413,0.489611,-0.031503,0.871372
0.502606,-0.660361,-0.962351,0.360189,-0.771817,-0.523988
0.565787,-0.718027,-0.960796,-0.021307,-0.198952,0.979777
-0.015651,0.242460,0.216306,0.673914,-0.691324,0.260597
0.042900,0.178079,0.179007,-0.289914,-0.285693,0.913416
0.112241,0.105141,0.148582,-0.035705,-0.982676,-0.181859
0.162239,0.057871,0.145507,-0.289331,-0.954061,-0.077813
0.181582,0.032601,0.116999,0.825010,-0.557630,0.091692
0.219594,-0.018536,0.059875,0.456223,0.377554,-0.805800
0.228325,-0.109816,-0.244593,-0.557134,0.344286,-0.755691
0.035883,0.011821,0.205525,0.464664,0.800617,-0.378284
-0.088592,0.047885,0.208058,-0.643793,-0.764269,0.037718
-0.066846,0.021595,0.184325,0.208218,0.747151,0.631198
0.237401,-0.482078,-0.971649,0.702519,0.419451,0.574916
0.323519,-0.556246,-0.949653,0.982234,-0.186870,0.017201
0.360842,-0.595979,-0.971540,-0.584580,0.585203,0.561964
0.309653,-0.615940,-0.952439,-0.005958,-0.938731,0.344600
-0.168205,0.070494,0.230054,0.607129,0.341717,0.717373
-0.118208,0.023635,0.225821,-0.369626,0.886254,-0.279161
-0.840386,-0.500421,0.656801,0.645917,-0.742318,-0.178201
-0.870347,-0.368997,0.690808,0.934931,-0.081429,-0.345360
-0.910584,-0.342097,0.628294,0.741673,0.025383,0.670281
-0.837477,-0.407710,0.641571,-0.420667,-0.369894,-0.828382
-0.854426,-0.228208,0.873540,0.205359,0.955427,-0.212099
-0.803404,-0.287702,0.806648,-0.459295,-0.035131,-0.887589
-0.851688,-0.265491,0.669102,0.851080,0.472527,0.228868
-0.841243,-0.280364,0.639906,-0.248806,0.511436,-0.822514
-0.791418,-0.327224,0.637048,-0.621945,-0.528269,0.578028
-0.763166,-0.356163,0.620950,-0.594781,0.666703,0.449158
-0.658044,-0.453960,0.620950,0.668483,0.088235,0.738475
-0.407046,-0.676056,0.686973,0.968832,-0.157956,0.190828
-0.782347,-0.178488,0.883525,0.888011,0.450956,0.089863
-0.799982,-0.169721,0.839280,-0.234659,0.952911,0.192081
-0.778235,-0.193362,0.819020,-0.600317,0.503526,-0.621353
-0.801690,-0.192143,0.698405,0.832250,0.491385,0.256710
-0.760773,-0.231055,0.691423,-0.659030,0.358044,-0.661425
-0.634072,-0.346587,0.706871,0.527906,0.181539,-0.829674
-0.656158,-0.334760,0.655137,0.371995,0.921519,-0.111451
-0.642636,-0.352282,0.627570,-0.553475,-0.209376,-0.806118
-0.564047,-0.421974,0.644899,-0.307076,-0.557588,0.771233
-0.476386,-0.504898,0.634878,0.887273,0.030846,-0.460212
-0.306715,-0.661381,0.644356,0.967143,0.077270,0.242207
-0.843124,-0.003264,0.818044,0.310588,0.620025,0.720489
-0.802892,-0.041978,0.811387,0.472689,0.594356,0.650619
-0.739711,-0.099432,0.819889,0.159005,-0.349335,-0.923408
-0.757006,-0.091287,0.773654,0.592522,0.794976,-0.130119
-0.700503,-0.142835,0.777091,0.926015,0.368309,-0.082732
-0.657700,-0.189494,0.734763,0.848109,-0.513300,-0.131279
-0.681160,-0.176860,0.682849,-0.232654,0.899727,-0.369274
-0.635786,-0.225957,0.643669,-0.106536,0.982572,-0.152323
-0.440945,-0.390386,0.741456,0.693833,-0.437049,-0.572349
-0.539395,-0.316218,0.637881,0.613487,-0.573846,-0.542526
-0.370747,-0.465376,0.681872,0.875340,0.480210,-0.056378
-0.410468,-0.446013,0.579816,0.356681,0.530725,0.768836
-0.256722,-0.583344,0.615414,0.776559,0.055290,-0.627613
-0.882506,0.137935,0.753793,0.922295,-0.125954,-0.365387
-0.811451,0.073964,0.765659,0.955747,-0.055955,-0.288818
-0.826520,0.080070,0.720690,0.009383,-0.549146,0.835674
-0.771385,0.029542,0.723006,0.311312,0.181224,-0.932868
-0.693658,-0.039727,0.740516,0.615779,-0.752260,-0.234352
-0.768135,0.014669,0.654956,0.940392,0.339081,0.026230
-0.664549,-0.074983,0.689976,0.781156,-0.507483,0.363671
-0.639380,-0.101882,0.670910,0.933516,-0.126871,0.335339
-0.570384,-0.164423,0.681619,-0.158418,0.593811,0.788855
-0.355512,-0.344746,0.792792,0.829631,0.030096,0.557500
-0.329146,-0.372255,0.776440,0.953592,0.161915,0.253861
-0.345578,-0.364917,0.730133,0.033593,-0.998985,0.030017
-0.317672,-0.393645,0.712659,-0.158745,0.984168,-0.078830
-0.233779,-0.467005,0.736608,-0.808498,0.095040,0.580773
-0.297127,-0.422583,0.654703,-0.450732,-0.827374,-0.335101
-0.181900,-0.522010,0.699165,0.714686,0.697329,0.054367
-0.236690,-0.484527,0.622180,-0.791757,-0.437433,0.426349
-0.063079,-0.630614,0.710923,0.785742,0.444814,-0.429826
-0.814021,0.165655,0.782843,-0.592794,0.381070,0.709493
-0.815046,0.160145,0.747606,0.714680,-0.688384,-0.123933
-0.604456,-0.016708,0.852412,-0.806248,0.451736,0.381967
-0.840899,0.168913,0.661830,0.952769,0.258602,-0.159236
-0.772927,0.107578,0.671272,0.986951,-0.144797,0.070439
-0.847236,0.161377,0.585713,-0.176027,-0.965095,0.193922
-0.810421,0.125512,0.575294,0.330574,0.937112,0.111991
-0.702044,0.031582,0.613425,-0.604547,0.553621,0.572737
-0.568159,-0.082930,0.667401,0.541472,0.745814,0.388032
-0.540764,-0.111458,0.651049,0.750794,0.005191,0.660517
-0.339758,-0.279954,0.752888,-0.613507,0.406764,0.676869
-0.309798,-0.310311,0.737224,0.848100,0.519165,-0.105806
-0.336336,-0.295649,0.681981,0.875611,0.433682,-0.212663
-0.205355,-0.406889,0.738779,0.808273,-0.223968,-0.544548
-0.355684,-0.292788,0.596964,-0.326152,0.695439,-0.640304
-0.081570,-0.519361,0.754118,-0.107991,0.222292,0.968981
-0.259972,-0.382850,0.590524,-0.007744,-0.739427,0.673192
-0.232750,-0.411578,0.571785,-0.195446,-0.971954,-0.130789
-0.753067,0.200699,0.770543,0.852382,-0.516064,-0.084398
-0.504811,-0.005913,0.899804,-0.760330,0.549679,-0.346051
-0.878911,0.283425,0.584121,0.819707,-0.453795,-0.349500
-0.447623,-0.070705,0.836856,-0.416560,0.048217,0.907829
-0.753578,0.169323,0.596566,0.050042,0.116597,0.991918
-0.764541,0.171562,0.552683,-0.152658,-0.944189,0.291894
-0.710947,0.121432,0.551959,-0.436398,-0.831283,0.344275
-0.669174,0.081089,0.544905,0.569064,-0.749193,-0.338935
-0.533574,-0.034429,0.602174,0.743997,-0.114969,-0.658218
-0.346096,-0.190912,0.694245,0.830638,0.263414,-0.490565
-0.357565,-0.188474,0.651049,0.904543,-0.129416,0.406268
-0.190632,-0.328244,0.730820,0.442736,0.346330,-0.827067
-0.046301,-0.450502,0.795578,-0.566416,-0.812694,0.136755
-0.020448,-0.477998,0.777525,0.886573,0.298555,0.353346
-0.021817,-0.483508,0.741022,0.517001,0.432273,0.738817
-0.232750,-0.322138,0.553768,0.891896,-0.354850,0.280364
-0.888153,0.385699,0.646780,0.864399,0.501434,-0.037115
-0.525868,0.088016,0.848722,-0.596926,-0.799501,-0.066913
-0.446766,0.005702,0.799412,0.372861,-0.343718,-0.861878
-0.341984,-0.084758,0.834468,0.324266,0.901781,-0.285733
-0.385132,-0.056851,0.771592,-0.632690,0.508785,-0.583817
-0.507549,0.020377,0.579129,0.281072,0.075114,0.956743
-0.390608,-0.079671,0.624242,0.370873,0.622135,0.689494
-0.035511,-0.368997,0.835843,0.046421,-0.556869,0.829302
-0.337877,-0.128570,0.625544,0.051472,-0.909305,0.412934
-0.123861,-0.305224,0.737802,-0.190280,-0.094214,0.977199
-0.011889,-0.400982,0.781324,0.791540,-0.102008,0.602544
-0.590073,0.057871,0.374293,-0.158381,0.985872,0.054518
-0.028149,-0.395075,0.733244,0.814490,-0.285482,-0.505080
-0.133961,-0.318668,0.620479,-0.324261,0.923357,0.205590
-0.186864,-0.284033,0.544000,0.463904,-0.154902,0.872237
-0.157933,-0.313780,0.527576,0.432055,-0.679271,-0.593228
-0.353458,-0.036270,0.616898,-0.509177,-0.549438,-0.662463
-0.288052,-0.095154,0.624893,0.762829,-0.645903,0.030014
-0.319386,-0.077632,0.567262,-0.406201,0.725207,-0.555946
0.034854,-0.364109,0.779804,-0.602045,0.376844,0.703939
-0.530832,0.073753,0.342891,-0.244064,0.968795,0.043228
-0.516964,0.055223,0.314600,-0.425384,0.783331,-0.453256
-0.165123,-0.228605,0.526816,-0.684147,-0.727367,-0.053667
-0.492824,0.156688,0.937972,-0.260946,-0.179102,0.948594
-0.456354,0.121034,0.929506,-0.306666,0.813879,-0.493515
-0.486831,0.138755,0.876000,-0.742376,0.668617,0.042768
-0.481523,0.127961,0.846732,0.218140,-0.964332,0.149927
-0.450706,0.096784,0.832985,0.474126,-0.350265,-0.807787
-0.364587,0.014669,0.820757,0.429670,-0.889029,-0.158153
-0.199707,-0.123061,0.897561,0.090558,-0.731850,0.675422
-0.267679,-0.076003,0.818297,0.238587,-0.458566,0.856033
-0.176424,-0.155469,0.844815,0.636326,0.641915,0.427825
-0.404820,0.140583,0.887179,0.114831,-0.992945,-0.029551
-0.406873,0.135908,0.853425,0.325734,-0.944131,-0.050142
-0.320927,0.060719,0.875783,0.676604,0.468267,-0.568272
-0.216830,-0.042786,0.843042,-0.244481,0.802275,0.544596
-0.184638,-0.075393,0.829259,0.952579,0.173293,0.250124
-0.279320,-0.008152,0.731290,0.076895,-0.995711,0.051442
0.008316,-0.255704,0.823398,0.868350,0.200804,0.453483
-0.105542,-0.173601,0.708209,-0.071089,-0.353998,0.932541
-0.272131,-0.051143,0.555071,-0.453878,0.624127,-0.635971
-0.037910,-0.249598,0.646020,-0.695476,0.692783,0.190697
-0.450021,0.063977,0.316662,-0.499062,0.501553,-0.706669
0.035883,-0.354123,0.470633,0.825273,0.175390,0.536808
-0.525868,0.330085,0.916265,-0.320950,-0.128186,-0.938381
-0.360648,0.171351,0.891773,-0.400355,0.721135,0.565403
-0.300722,0.116956,0.896621,-0.324937,-0.731825,0.599039
-0.347293,0.146093,0.831900,-0.288117,0.870011,0.400087
-0.165980,-0.003264,0.918617,0.539796,0.780368,0.315668
-0.125402,-0.041978,0.912720,0.018854,0.998150,-0.057802
-0.146972,-0.032402,0.863844,-0.232167,-0.393107,0.889700
-0.108453,-0.070096,0.856356,0.189527,0.918547,0.346917
-0.119921,-0.068665,0.813630,-0.341197,0.930623,-0.132387
-0.181388,-0.059289,0.593021,0.134368,0.850293,0.508868
-0.379823,0.060918,0.299116,-0.542937,-0.718743,-0.434313
-0.358250,0.035860,0.276180,-0.604614,-0.603215,-0.520167
-0.514911,0.341078,0.706328,0.708232,-0.686664,-0.164010
-0.163581,0.052362,0.868547,0.511952,0.003936,-0.859005
-0.114785,-0.001013,0.832876,0.007962,0.619090,0.785280
-0.088075,-0.029753,0.817320,0.529530,0.791850,0.304255
-0.090473,-0.036058,0.780383,0.980937,-0.176978,-0.080257
-0.208783,0.022815,0.554383,0.852404,-0.378746,0.360499
-0.362189,0.106161,0.295969,-0.515550,-0.773481,0.368693
-0.338049,0.078441,0.273322,0.712673,0.267488,0.648496
-0.505835,0.379592,0.911453,0.030426,-0.787145,0.616018
-0.465769,0.340680,0.903892,0.131903,-0.706488,0.695325
-0.414407,0.293000,0.903458,0.039877,-0.513332,0.857263
-0.444201,0.308682,0.852268,0.953144,0.139168,0.268606
-0.371265,0.244500,0.866774,-0.690968,0.052526,0.720975
-0.450706,0.299106,0.781505,0.700501,-0.186813,-0.688766
-0.375027,0.334363,0.869777,-0.781804,0.017717,0.623272
-0.300549,0.268340,0.884103,0.029439,0.722626,0.690612
-0.306031,0.265081,0.847166,0.989551,-0.141471,-0.027833
-0.236690,0.203747,0.859611,0.583645,-0.627837,-0.514956
-0.267334,0.219441,0.806756,0.781301,0.593569,0.192989
-0.242338,0.192342,0.788740,0.827332,-0.314523,0.465400
-0.247991,0.188873,0.751477,0.921746,-0.273451,-0.274971
-0.350203,0.250407,0.611290,0.931855,0.347081,-0.105738
-0.308429,0.201719,0.567769,0.249661,-0.117129,0.961223
-0.163070,0.056031,0.522041,-0.045666,0.695433,0.717138
-0.106739,-0.004893,0.485393,-0.202647,0.008980,-0.979211
-0.256038,0.081910,0.263156,-0.135924,0.987241,-0.082944
-0.235493,0.057051,0.239062,-0.528705,-0.846209,0.066341
-0.353625,0.412187,0.930845,0.123846,0.856506,-0.501059
-0.326920,0.383870,0.916229,0.988296,0.148586,-0.034556
-0.297300,0.353303,0.903386,0.164697,0.739354,0.652863
-0.282743,0.333542,0.879581,0.319763,-0.943940,0.082034
-0.306543,0.344137,0.831755,0.764887,0.496680,0.410191
-0.274696,0.311542,0.818007,-0.674422,-0.730451,0.107687
-0.269733,0.299317,0.786786,0.699783,-0.107116,0.706279
-0.265793,0.288100,0.754733,-0.662423,-0.337260,-0.668918
-0.113417,0.094545,0.539008,0.546818,-0.837249,-0.002225
-0.082939,0.062149,0.522656,0.418346,0.751141,0.510660
-0.112387,0.066427,0.426424,0.950355,0.302971,0.070945
-0.221109,0.128981,0.269812,-0.315345,-0.889252,-0.331343
-0.193714,0.099433,0.250747,-0.613758,0.766987,-0.187166
0.185522,-0.213533,0.409602,0.764349,0.429312,0.481105
-0.078660,0.109008,0.487491,0.975910,-0.048383,0.212743
-0.092354,0.109618,0.441184,0.684294,0.413369,-0.600723
-0.091330,0.099632,0.403379,0.734437,0.668437,0.117452
-0.059311,0.056230,0.349330,0.835293,-0.497292,-0.234491
-0.097835,0.064176,0.240762,-0.163208,0.934183,-0.317277
-0.327944,0.456410,0.946401,-0.095547,0.883866,-0.457877
-0.291307,0.420345,0.936886,-0.216349,-0.876110,0.430841
-0.231726,0.366348,0.941806,-0.257878,-0.501506,0.825827
-0.271786,0.388559,0.883416,-0.339744,-0.238831,-0.909689
-0.294902,0.389977,0.803356,-0.593041,-0.212009,-0.776759
-0.265281,0.358401,0.788378,0.788724,0.108312,0.605131
-0.275898,0.357991,0.748185,0.372038,0.513844,0.773015
-0.020103,0.155060,0.881860,0.453888,-0.224038,-0.862434
0.016362,0.109618,0.837362,0.828139,-0.542127,-0.142419
-0.021644,0.075394,0.563753,-0.627950,0.776472,-0.052632
-0.300895,0.517533,0.949367,-0.011677,-0.868887,0.494874
-0.325379,0.511216,0.837579,0.957651,-0.282562,-0.055351
-0.310310,0.491044,0.813739,0.982542,-0.185240,-0.017248
-0.094580,0.301345,0.853244,0.217614,-0.912232,-0.347098
0.072008,0.167284,0.929578,0.103718,-0.103108,-0.989248
-0.127796,0.290961,0.695005,0.989842,0.094673,-0.106061
-0.028322,0.206607,0.726081,0.632542,-0.774518,-0.003622
-0.040135,0.206607,0.682342,0.234392,0.421844,0.875847
-0.059139,0.211494,0.634878,0.698364,0.571650,-0.430702
-0.087391,0.194792,0.469511,0.079855,-0.994568,-0.066767
-0.042534,0.121643,0.349149,0.960503,-0.107498,-0.256667
-0.011372,0.088638,0.331567,0.555961,0.488124,0.672787
0.007292,0.064798,0.306605,0.887942,0.315223,0.334954
0.031432,0.025873,0.243511,0.679878,0.594327,-0.429582
-0.338389,0.606575,0.851110,0.862381,-0.442998,-0.245055
-0.297812,0.567253,0.844923,0.951302,-0.265511,0.156614
-0.116672,0.412797,0.895065,0.819895,-0.484297,-0.305334
-0.146459,0.417895,0.810049,0.595741,-0.131844,-0.792281
-0.305346,0.527918,0.672358,0.970312,-0.073119,-0.230539
-0.159302,0.399764,0.699454,0.471627,0.873861,0.118046
-0.146120,0.380811,0.673949,0.520620,0.687467,-0.506303
-0.099376,0.336191,0.669463,0.552176,0.678520,-0.484471
-0.374003,0.521811,0.413111,-0.427826,0.816151,-0.388411
-0.387525,0.521811,0.366116,0.544349,-0.652768,0.526856
-0.351060,0.484727,0.352948,-0.600252,0.520435,-0.607326
-0.021477,0.220261,0.506846,0.918351,-0.263326,0.295450
-0.089617,0.512434,0.954288,-0.218881,-0.958223,-0.184120
-0.074380,0.492064,0.931134,0.793000,-0.542841,0.276540
-0.111875,0.511017,0.874191,-0.186378,0.924495,-0.332523
-0.150054,0.530778,0.817501,0.113818,-0.883172,0.455030
-0.053663,0.449881,0.847166,0.939510,0.180246,-0.291259
-0.139097,0.504488,0.757555,0.187173,-0.790320,0.583405
-0.091503,0.459668,0.755421,0.135312,-0.942438,0.305781
-0.007438,0.387738,0.775897,0.967738,-0.155297,0.198411
0.007976,0.366547,0.751333,0.351502,0.517917,0.779877
-0.230184,0.474330,0.337717,-0.455282,-0.874567,-0.166888
-0.215288,0.452741,0.309318,0.914585,-0.381701,0.133565
-0.185155,0.420134,0.292640,-0.446523,0.644141,-0.621047
-0.138073,0.374904,0.287973,0.282470,-0.640800,0.713853
-0.109822,0.343727,0.268040,0.837466,0.412402,0.358574
-0.043219,0.580895,0.985074,0.748175,-0.119561,-0.652641
-0.246789,0.725364,0.825496,0.864229,-0.343966,-0.367145
-0.232578,0.705393,0.800859,-0.540959,0.837787,-0.074005
-0.131223,0.620218,0.833310,0.337718,-0.385176,0.858828
-0.017537,0.525679,0.872635,0.704830,-0.684429,0.186475
-0.078660,0.562154,0.799702,0.697193,0.626666,0.348155
-0.016335,0.506328,0.806141,0.762319,0.614615,0.202775
0.076972,0.427471,0.834287,-0.667565,0.325747,0.669512
0.066188,0.426862,0.794384,-0.774863,0.032338,0.631301
0.225754,0.298497,0.865183,0.202056,-0.864011,0.461150
0.035026,0.381421,0.526454,0.897442,-0.439264,0.040569
-0.326236,0.902218,0.840474,-0.365401,0.069807,0.928229
-0.192690,0.793415,0.892099,-0.491645,0.638980,-0.591600
-0.213235,0.799521,0.846443,0.777325,-0.602720,-0.180263
-0.131223,0.729021,0.864893,-0.015647,0.993254,0.114897
-0.113588,0.706201,0.842753,0.847174,-0.512263,-0.141009
0.009512,0.605345,0.889313,0.478786,-0.797303,-0.367521
0.010030,0.595768,0.857549,0.898132,0.060074,0.435604
0.048554,0.557465,0.848903,0.336724,0.208369,0.918259
0.074062,0.529546,0.832732,0.907091,0.397711,0.137884
0.089298,0.508368,0.808638,-0.197135,0.934908,0.295101
0.059511,0.461496,0.544941,-0.652652,0.636454,-0.411061
-0.132764,0.852088,0.830344,-0.600822,0.284400,-0.747081
0.093922,0.664229,0.909030,-0.590120,0.640886,0.490940
0.084507,0.661991,0.869922,0.851468,-0.412658,0.323598
-0.056573,0.945408,0.904761,-0.211904,0.954543,-0.209629
0.167031,0.750834,0.949006,0.656318,-0.669919,-0.347067
0.115151,0.780979,0.884357,0.830881,0.135696,0.539651
0.108134,0.767337,0.814426,-0.439697,0.640411,-0.629715
0.058826,0.989631,0.804332,-0.365188,0.901783,0.231137
0.054714,0.974348,0.735017,0.583437,-0.811154,-0.040385
0.202644,0.854128,0.797929,-0.003192,-0.689015,0.724740
0.428302,0.813586,0.782047,-0.266237,0.923868,-0.274929
0.324549,-0.573769,-0.975737,-0.407330,-0.407525,-0.817316
0.447478,-0.645077,-0.962930,0.420899,0.862196,0.281891
0.632385,-0.753482,-0.960832,-0.296922,0.526436,0.796682
0.825517,-0.866563,-0.960072,0.085406,-0.299137,0.950380
0.451244,-0.464555,-0.970455,0.699983,0.235348,-0.674266
0.509284,-0.496752,-0.947410,0.730600,-0.146763,-0.666846
0.732031,-0.627766,-0.951968,-0.467916,-0.833864,-0.292790
0.902559,-0.727193,-0.948495,0.970177,-0.083920,-0.227406
0.068242,0.061938,0.091603,-0.265760,0.875763,-0.403003
0.052488,0.074772,0.124380,0.079506,0.988501,0.128629
0.086733,0.056640,0.149306,0.165059,0.793363,0.585944
0.104194,0.049514,0.178103,0.991050,0.132875,-0.012836
0.416661,-0.003053,-0.386734,0.970013,-0.243008,-0.004649
0.302630,0.071315,-0.302079,0.825277,-0.559879,-0.073850
0.246989,0.110638,-0.230267,0.866051,-0.496075,0.062165
0.040847,0.273438,0.210699,0.988747,0.105174,0.106383
0.397485,-0.048295,-0.984094,-0.453521,0.308390,0.836190
0.522467,-0.120412,-0.972915,0.426276,-0.714221,-0.555136
0.490625,-0.098412,-0.932396,0.895346,0.443949,-0.035551
0.852054,-0.314190,-0.963292,0.061207,0.147667,0.987141
-0.240457,-0.795454,0.660455,-0.124280,-0.985388,-0.116471
-0.584424,-0.298298,0.605068,0.852889,0.353983,0.383766
-0.502924,-0.340879,0.652207,-0.120119,0.398718,0.909173
-0.347465,-0.432159,0.658502,0.449581,0.893239,0.000368
-0.357225,-0.422385,0.689976,0.735260,-0.074073,-0.673726
-0.372462,-0.406690,0.751767,-0.422640,0.690755,0.586713
-0.239939,-0.483296,0.761679,-0.380510,0.679468,0.627323
-0.455497,-0.350043,0.820504,0.556244,0.629123,0.542952
-0.761970,-0.331302,0.612918,0.925823,-0.191889,0.325623
-0.705984,-0.362269,0.634661,0.143029,-0.470851,-0.870541
-0.405504,-0.540154,0.621203,0.221066,0.823323,0.522752
-0.498473,-0.481058,0.664579,0.767212,0.639831,0.044744
-0.147316,-0.689909,0.643054,0.746114,-0.289519,-0.599577
-0.328117,-0.338429,0.564404,0.691630,0.433979,0.577331
-0.419889,-0.275875,0.638134,0.239189,0.538029,0.808278
-0.714030,-0.094744,0.709186,0.340261,0.807621,-0.481634
-0.735944,-0.077831,0.740950,0.945937,0.125321,0.299162
-0.578943,-0.169721,0.748113,0.354254,-0.664523,0.657961
-0.487004,-0.221679,0.763633,0.459776,0.686985,-0.562724
-0.791079,0.087209,0.444802,0.765450,-0.606841,0.214080
-0.323838,-0.174820,0.553949,-0.642978,0.081088,-0.761580
-0.419032,-0.111048,0.626883,0.120989,0.411074,0.903537
-0.407558,-0.114306,0.655282,0.191383,0.976668,0.097428
-0.654622,0.038098,0.720690,0.877950,0.468035,-0.100734
0.014993,-0.359421,0.683428,0.323715,-0.940801,-0.100508
0.020475,-0.356163,0.741420,0.916691,-0.040973,-0.397490
-0.330855,-0.133868,0.878424,-0.587926,-0.790051,0.173673
-0.702901,0.198448,0.532460,-0.588902,0.185629,0.786598
-0.690231,0.194581,0.560750,0.958490,-0.055465,-0.279679
-0.334967,-0.013238,0.568927,-0.566081,0.547223,-0.616522
-0.411497,0.036058,0.608975,-0.603068,-0.255664,-0.755609
-0.246105,-0.061328,0.613533,-0.674553,0.738196,-0.006755
-0.012913,-0.192143,0.668812,-0.347746,0.194592,-0.917173
-0.116672,-0.113087,0.830416,0.324721,-0.474125,0.818390
0.506546,0.814606,0.771664,-0.316448,0.915021,-0.250195
0.491138,0.824990,0.802307,-0.420294,-0.905591,-0.057079
0.081424,0.478210,0.531845,-0.818976,0.563455,-0.108614
-0.057603,0.579266,0.758134,0.034243,-0.411358,0.910831
0.118406,0.476370,0.761716,-0.856275,0.504224,0.112033
-0.039624,0.574179,0.813304,0.809343,0.587086,0.017156
0.131762,0.473323,0.817610,0.514732,0.845516,0.141963
0.281746,0.765496,0.808602,0.488581,0.140997,-0.861051
0.083138,0.887954,0.893907,0.565770,0.430936,-0.702992
0.054374,0.309291,0.688963,-0.295415,-0.614067,0.731882
0.062420,0.689698,0.817031,0.120289,-0.248828,0.961049
0.285680,0.559704,0.843549,0.658266,0.022671,-0.752444
-0.056913,0.158728,0.325779,0.479179,0.869483,-0.119948
-0.021477,0.140583,0.350524,0.885095,-0.373284,-0.277966
-0.058287,0.165244,0.385652,-0.654835,-0.719838,-0.230272
-0.058627,0.168913,0.416511,0.925300,-0.369370,-0.085944
-0.123176,0.210475,0.455474,-0.754320,0.614410,0.231307
-0.022674,0.152199,0.470777,-0.195602,0.681575,0.705121
-0.030208,0.160357,0.502360,0.568608,0.439769,0.695190
-0.024554,0.159947,0.531990,-0.806916,-0.153269,0.570434
-0.014966,0.157497,0.559738,-0.733014,0.121089,-0.669349
-0.061710,0.188064,0.595481,0.370627,-0.832654,-0.411488
0.104879,0.095963,0.660528,0.748335,0.132123,0.650029
0.116181,0.484727,0.849156,0.732813,-0.157308,0.661996
0.241168,0.412598,0.861348,-0.177855,-0.695674,-0.695992
0.172679,-0.150980,0.426135,-0.604859,-0.344798,-0.717816
-0.204844,0.084149,0.541685,0.991068,-0.132718,-0.013035
0.031259,-0.045845,0.626955,0.950132,0.270753,0.154735
-0.074720,0.020787,0.670947,0.830468,-0.556711,0.019875
-0.122832,0.053382,0.706581,-0.186104,-0.908715,-0.373634
-0.027125,-0.000814,0.722933,0.868333,0.220847,-0.444098
-0.032434,0.005702,0.752418,0.819783,0.297441,0.489371
-0.046474,0.016907,0.784037,-0.380186,0.611722,-0.693725
-0.120606,0.064388,0.823977,0.813092,0.553473,0.180414
0.065504,0.326814,0.949078,0.132986,-0.688586,0.712856
0.020129,0.164635,0.847673,0.879470,-0.474347,0.039083
-0.033118,0.202528,0.913950,0.247612,0.674913,0.695112
0.094952,0.773443,0.891520,0.835079,0.381886,-0.395987
0.147855,0.748384,0.825424,-0.364812,0.807628,0.463303
-0.177276,0.708240,0.784326,-0.613152,-0.053342,-0.788162
0.057624,0.670957,0.661432,-0.203758,0.977312,-0.057820
0.264451,0.661580,0.837290,-0.708630,-0.522913,-0.473714
0.051292,0.635303,0.809325,-0.359948,0.810781,-0.461597
-0.065989,0.622668,0.797748,0.805978,0.547135,-0.225924
-0.017537,0.533625,0.582167,0.446885,-0.809545,0.380697
0.246304,0.594550,0.840076,0.046719,0.203890,0.977878
0.018588,0.555637,0.784616,-0.635948,-0.422049,-0.646099
-0.175735,0.542393,0.784290,0.867098,-0.486810,0.105628
0.047180,0.552379,0.979322,0.031361,-0.823360,0.566652
0.085364,0.539744,0.944339,-0.320061,0.790987,0.521440
0.079371,0.503070,0.858345,-0.742447,0.197788,0.640040
0.071324,0.490435,0.829729,0.370828,0.846592,0.381796
0.181070,0.480250,0.784978,0.919196,0.142436,-0.367140
-0.012574,0.465774,0.783277,0.951746,0.132576,0.276772
-0.105542,0.453139,0.766925,0.064005,-0.242419,0.968058
-0.139097,0.352494,0.532713,0.952516,0.100833,-0.287310
0.132101,0.004894,-0.102416,0.580517,0.797651,0.163565
0.193057,0.457430,0.987607,0.979123,0.055532,0.195535
0.202816,0.409949,0.869886,0.405373,0.359526,0.840484
0.017220,0.395896,0.866919,0.801929,-0.596731,0.028678
-0.123689,0.382030,0.857585,-0.643985,0.500286,-0.578790
0.070122,0.372056,0.800606,-0.313466,0.949593,0.003645
0.088446,0.360851,0.769096,0.899613,-0.383329,0.209179
-0.114273,0.347197,0.768951,-0.584948,0.351250,0.731067
-0.011544,0.335581,0.724815,0.513224,0.738680,-0.436981
-0.087735,0.312351,0.921619,0.514807,0.854115,0.073904
-0.086194,0.300126,0.891773,0.930744,0.282988,-0.231589
-0.219395,0.287093,0.882548,0.610199,0.790931,-0.045663
-0.234291,0.274458,0.854764,-0.512271,-0.643485,0.568775
-0.188750,0.263452,0.818261,0.562804,-0.819105,0.110991
-0.214776,0.239811,0.763380,-0.343869,-0.896290,-0.280034
-0.122659,0.227997,0.720727,-0.203213,0.542813,0.814898
-0.050753,0.216382,0.680136,0.196723,0.417298,0.887222
-0.124545,0.203747,0.662011,-0.566642,0.134011,-0.812993
-0.126260,0.129790,0.480726,-0.053322,0.684753,0.726822
-0.205528,0.117154,0.463216,0.436250,-0.890799,0.127134
-0.084308,0.105141,0.413292,0.930298,-0.361179,0.063994
0.038449,0.031171,0.208890,0.813900,0.247318,-0.525738
0.065843,0.017317,0.172604,-0.129760,0.959231,0.251075
0.168227,-0.020986,0.061395,-0.010163,-0.256706,0.966436
0.285513,-0.072334,-0.085196,-0.106810,-0.941347,0.320089
-0.206213,0.165655,0.809397,0.157907,0.816544,0.555266
-0.096121,0.155060,0.764393,0.057479,0.958301,0.279921
-0.094068,0.081699,0.584483,-0.370882,0.863511,-0.341753
-0.128825,0.213533,0.914746,0.880371,0.147438,-0.450787
0.012767,0.123882,0.917676,-0.018859,-0.256267,0.966422
-0.342841,0.095565,0.911128,0.855076,-0.469191,0.220690
-0.237547,0.084759,0.866051,-0.393536,0.321180,0.861379
-0.244564,0.072533,0.837218,0.069240,-0.355056,0.932278
-0.049723,0.027503,0.690519,-0.638404,0.054674,-0.767758
-0.105542,0.015278,0.669717,0.779254,-0.625449,-0.039707
-0.294902,0.001225,0.667799,0.104494,-0.930773,0.350347
-0.191833,-0.020177,0.856464,0.112397,-0.718234,0.686664
-0.076261,-0.030972,0.809578,-0.846613,-0.120305,-0.518433
-0.157077,-0.043395,0.792358,-0.142526,0.709536,-0.690105
-0.642808,-0.118994,0.686756,-0.556417,-0.033212,-0.830239
-0.034660,-0.092505,0.821191,-0.399920,-0.397021,-0.826098
-0.650337,-0.144053,0.796012,-0.103587,0.796766,0.595343
-0.625686,-0.156277,0.762403,-0.431805,-0.864242,-0.258128
0.113098,-0.244711,0.688239,0.993240,-0.114087,-0.021418
-0.268364,-0.406491,0.751260,-0.615701,-0.349401,-0.706280
-0.372973,-0.418915,0.736753,0.433976,-0.898746,0.062612
-0.251586,-0.654454,0.607600,-0.720401,0.337545,0.605877
0.104879,-0.013648,0.184796,-0.348639,-0.789652,-0.504876
-0.036029,0.093115,0.179441,0.050384,0.868822,0.492554
-0.000076,0.037700,0.140515,-0.442044,0.853475,0.276003
-0.121974,0.089248,0.223361,-0.789835,-0.286284,-0.542404
0.083995,0.027913,0.220792,-0.194628,-0.831947,-0.519601
0.028861,0.251426,0.210409,-0.931997,0.361420,0.027530
0.221135,0.146703,0.052929,0.970501,0.133441,0.200799
0.252125,0.095764,0.014437,-0.611629,0.640556,-0.464325
0.260684,0.043607,-0.050610,-0.558394,0.568277,-0.604365
0.322323,-0.035859,-0.095398,0.051886,0.871380,0.487857
0.137755,0.110836,-0.092467,-0.654493,0.574657,-0.491333
0.271985,0.143643,-0.122350,0.777884,-0.219505,-0.588825
0.365977,-0.104730,-0.372986,0.917445,-0.336148,-0.212834
0.119436,0.147510,0.161751,-0.660559,0.737982,-0.137999
0.173881,0.076203,0.120689,0.965364,0.200819,0.166566
0.165317,0.062547,0.091024,0.237045,0.822180,-0.517523
0.853423,-0.890403,-0.957901,0.713035,-0.143968,-0.686189
0.655501,-0.733709,-0.953162,0.392984,0.429283,0.813191
0.392861,0.031992,-0.415061,0.646674,0.560328,-0.517539
0.431384,-0.026283,-0.457135,0.192775,0.956427,0.219282
0.373173,0.003874,-0.478877,0.897102,0.140444,0.418907
0.392176,-0.036680,-0.517189,0.915538,0.379606,0.133000
0.258802,0.132637,-0.153281,0.625610,-0.660909,0.414501
0.282430,0.089248,-0.189893,0.705528,0.708604,-0.010499
0.240824,0.103711,-0.214276,-0.354459,0.269153,0.895497
0.306058,0.020787,-0.260547,0.995715,-0.066262,-0.064505
0.315813,-0.011210,-0.295024,0.669065,0.136806,-0.730504
0.657554,-0.523440,-0.920892,-0.022071,-0.703616,0.710237
0.607049,-0.500819,-0.945203,0.390650,0.787129,0.477306
0.525722,-0.637951,-0.960832,-0.422846,0.770770,0.476565
0.501582,-0.100241,-0.660886,-0.461573,0.817739,-0.343880
0.608930,-0.248777,-0.753717,0.782275,-0.613375,0.108709
0.540446,-0.232486,-0.807729,0.799818,-0.546211,0.248887
0.591980,-0.305013,-0.854362,0.995898,-0.082174,0.037874
0.244590,-0.427471,-0.972951,-0.458861,0.279067,0.843545
0.437377,-0.103101,-0.561036,-0.063384,0.545280,0.835854
0.458946,-0.147311,-0.600361,0.889378,0.169334,0.424655
0.403305,-0.119405,-0.622863,0.806245,0.187420,-0.561108
0.510313,-0.436437,-0.961230,-0.592940,0.541499,-0.595987
0.432753,-0.389168,-0.979861,0.568716,0.692727,-0.443499
0.267533,-0.261213,-0.981200,-0.429778,0.267111,-0.862521
0.440972,-0.020177,-0.613421,0.879604,-0.469456,0.076860
0.754634,-0.478620,-0.922882,0.856499,-0.079697,0.509958
0.610132,-0.371235,-0.928960,-0.561451,0.651952,0.509638
0.451756,-0.250008,-0.932179,-0.671496,0.367459,-0.643480
0.437377,-0.262022,-0.965571,0.264672,-0.791815,-0.550433
0.325918,-0.183177,-0.976895,0.572116,-0.110903,-0.812640
0.474015,-0.142623,-0.984854,-0.752611,0.443257,-0.486929
0.273181,0.018138,-0.978486,-0.059805,-0.120696,0.990886
0.590611,-0.200699,-0.938076,0.342674,0.789942,0.508494
0.576399,-0.213123,-0.971576,-0.521735,0.688400,-0.503883
0.778774,-0.198659,-0.953343,-0.449237,0.725028,0.522035
0.757545,-0.330892,-0.938185,-0.791741,0.357192,-0.495541
0.536166,-0.024853,-0.974977,-0.003088,-0.465874,0.884845
-0.626883,-0.307264,0.881281,-0.073463,0.839251,0.538759
-0.733718,-0.231665,0.868909,-0.468047,-0.860403,-0.201589
-0.597607,-0.457827,0.696850,0.767743,-0.186863,0.612905
-0.308429,-0.453151,0.780528,0.696705,0.714904,-0.059277
-0.681844,-0.140795,0.812147,-0.242114,-0.865947,0.437625
-0.614384,-0.221281,0.771773,0.566376,0.718692,0.403360
-0.663353,-0.219851,0.719243,-0.892477,0.197232,0.405690
-0.472620,-0.412187,0.656765,-0.033517,0.564575,0.824701
-0.353970,-0.538512,0.607202,0.622399,0.765656,0.162451
-0.761457,-0.192951,0.647178,-0.020290,0.574889,0.817980
-0.743823,-0.229426,0.613533,-0.687242,0.724984,-0.045783
-0.758375,-0.375923,0.633395,0.214571,0.532884,0.818531
-0.180704,-0.376122,0.742578,-0.637911,0.585167,0.500648
-0.108792,-0.461496,0.699997,0.810160,-0.331225,-0.483663
-0.651712,-0.016098,0.732303,-0.583798,0.811891,0.003539
-0.524326,-0.151391,0.680353,0.235337,0.962512,-0.134856
-0.465942,-0.223308,0.641064,-0.448504,0.077343,-0.890428
-0.526212,-0.210885,0.589765,-0.594883,0.548285,-0.587790
-0.023530,-0.218221,0.837037,0.899273,0.373940,-0.226883
-0.169574,-0.107789,0.830634,0.851463,0.349793,-0.390711
-0.383590,0.062348,0.835662,0.989309,-0.134612,0.056101
-0.652563,0.232884,0.538501,-0.794291,0.101712,0.598962
-0.657872,0.155060,0.417307,0.359714,0.111228,0.926409
0.008143,-0.483097,0.801583,0.268461,0.887236,-0.375154
0.021326,-0.317860,0.739792,0.852508,0.195305,-0.484857
-0.219567,-0.123683,0.750320,0.512742,0.846013,-0.146141
