-0.468561,0.081955,0.699287,0.055289,-0.450595,0.891015
0.165239,-0.359654,0.887195,-0.444929,0.880775,-0.162093
-0.600310,0.188491,0.512219,-0.503925,0.483327,-0.715860
0.108188,-0.480815,0.678438,0.554502,-0.823033,0.123066
-0.266062,-0.036597,0.380578,0.706019,-0.552394,0.443168
0.588229,-0.044327,0.587232,-0.005961,-0.920792,0.390009
0.159927,-0.726951,0.193932,0.173614,0.968851,0.176597
0.419136,0.732447,0.600871,-0.334279,-0.796060,-0.504525
-0.172177,-0.513873,0.644972,0.774862,-0.437147,0.456609
0.595939,0.508661,0.641036,0.614918,-0.781442,0.105944
0.097480,-0.365986,0.716230,0.964323,0.253200,0.077267
-0.211753,0.652825,0.684927,0.981620,-0.169908,0.086908
0.055594,-0.297539,-0.118738,-0.544278,0.753331,-0.369124
0.149306,-0.219315,0.545325,0.994604,0.026886,-0.100199
-0.103307,-0.351742,0.793286,-0.018847,-0.861657,0.507141
0.302038,-0.745480,-0.978881,-0.462305,0.490401,0.738770
-0.082663,-0.657293,0.395238,0.728089,-0.639430,0.247014
-0.316172,-0.377445,0.648276,-0.362969,0.760171,0.538882
-0.059363,0.774822,0.710221,-0.374905,0.898057,-0.230087
-0.137485,-0.330603,0.672309,0.904727,-0.338890,-0.258114
-0.383502,0.131406,0.544003,-0.218189,0.545917,-0.808930
0.019017,-0.389922,0.500653,0.664772,0.384331,0.640600
-0.416908,-0.093221,0.597987,-0.655831,0.677540,-0.332904
0.217065,-0.657196,-0.671558,0.866916,0.494911,0.059331
-0.108789,0.090055,0.714608,-0.137105,0.943300,0.302304
-0.054480,-0.235612,0.615952,0.421618,-0.855006,0.301998
0.129004,-0.464701,0.651761,0.292164,0.825787,0.482406
-0.253297,-0.006892,0.663087,-0.456013,0.879888,-0.133601
0.109903,-0.571430,0.765948,-0.327866,-0.773122,0.542942
0.015503,-0.050471,0.845167,-0.556012,0.521218,-0.647443
0.232653,-0.555969,-0.302651,0.603099,0.759076,-0.245103
0.461025,0.680296,0.534270,0.082336,-0.385009,0.919233
-0.053623,-0.426521,0.584168,0.774794,-0.369505,0.512992
-0.376820,0.121437,0.592249,-0.388958,0.910720,-0.138928
-0.222204,-0.373716,0.754593,-0.206922,0.869527,0.448448
-0.463079,0.109147,0.605468,0.166462,0.429322,0.887679
-0.084718,-0.804896,-0.290214,0.903504,-0.253849,0.345312
0.004283,-0.329205,-0.087165,-0.327453,-0.940750,0.088116
-0.116412,-0.211023,0.204446,0.823926,-0.456245,0.336135
-0.302552,-0.028400,0.342846,0.725499,0.688044,0.015697
0.331334,0.168653,0.355163,-0.550877,0.802336,-0.229763
0.236509,-0.600765,-0.038738,0.520220,-0.789766,-0.325023
0.135514,-0.427266,0.532798,0.953931,0.099507,-0.283046
-0.350951,-0.457533,0.775742,0.945515,0.158662,-0.284301
-0.001457,-0.210562,0.068209,-0.542226,0.774123,-0.326686
0.207128,-0.403614,0.774149,-0.719418,-0.296097,0.628303
-0.652132,0.041348,0.598198,0.992916,0.088186,-0.079628
0.134144,-0.344666,0.467187,0.993957,0.107955,-0.019861
0.040518,-0.084649,0.772707,-0.315036,-0.330689,0.889605
0.156586,-0.444869,0.805603,-0.084584,-0.993811,-0.072011
0.063645,-0.562768,0.832099,0.001450,0.985866,0.167532
0.053965,-0.353601,0.938205,0.093720,-0.958658,0.268683
0.215436,-0.591449,-0.375862,0.460316,-0.887592,-0.017018
-0.085745,-0.208232,0.744258,0.992411,0.026362,0.120102
-0.493404,-0.141177,0.572422,-0.801554,-0.163513,0.575129
-0.323197,0.192402,0.667953,0.686574,0.681692,0.252808
0.204815,-0.381356,0.724641,0.866493,0.351983,0.353974
0.215007,-0.589869,-0.332212,0.061050,0.996664,0.054166
-0.245418,0.708233,0.705655,-0.497722,-0.797904,-0.340033
0.244560,-0.689885,0.267683,0.918761,-0.393187,0.035806
-0.528611,-0.105419,0.539797,-0.640631,-0.761053,0.101931
-0.274884,0.118271,0.494255,0.885629,-0.446060,0.129197
-0.132089,-0.341960,0.456433,0.258247,0.963452,0.071190
0.226829,-0.503165,0.049974,-0.534063,-0.543389,-0.647692
-0.075124,-0.273234,0.087375,0.780588,0.625005,-0.007134
0.203272,-0.516295,-0.188584,-0.414837,0.847126,-0.332095
0.168666,-0.453901,0.284506,0.876456,0.477506,-0.061752
0.253726,-0.742224,-0.992309,0.602725,-0.356885,-0.713692
0.024156,-0.062021,0.773158,0.401027,0.060338,-0.914077
0.650590,0.001213,0.619917,0.796677,0.311010,-0.518246
0.411341,-0.498231,0.578430,0.905535,-0.319426,-0.279237
-0.542145,-0.274536,0.200661,-0.492817,-0.807799,-0.323406
0.135001,-0.283289,0.504228,0.996442,-0.082063,-0.019183
-0.303752,-0.030918,0.667413,-0.179773,0.827898,-0.531288
0.419308,0.154779,0.303492,-0.672021,-0.738685,-0.052282
0.318572,-0.838420,-0.922734,-0.393270,-0.899907,0.188429
-0.358061,0.275655,0.585971,-0.222761,-0.551924,0.803590
-0.183486,-0.703481,0.629200,0.846155,0.382778,-0.370812
0.066900,0.059139,0.749065,0.953864,0.291940,-0.070096
-0.287819,-0.672748,0.630041,0.003380,-0.776222,0.630451
0.030924,-0.431830,0.778686,0.348951,-0.888501,-0.297991
-0.188024,-0.470385,0.635539,0.574656,-0.194388,-0.794974
-0.292530,0.217730,0.734375,-0.489506,0.087424,0.867607
0.126607,-0.165391,0.685828,0.656510,-0.674146,0.338411
0.680572,-0.255727,0.512970,-0.289529,-0.884485,0.365868
-0.413311,0.923356,0.659512,0.263645,0.915537,-0.303782
-0.373652,-0.036131,0.734525,0.753631,-0.100056,-0.649638
-0.202587,-0.645931,0.508584,0.997206,-0.066828,0.033393
0.629862,0.015276,0.704423,-0.023653,-0.993843,0.108243
-0.126435,0.713076,0.767811,0.964042,-0.148004,0.220719
0.434212,-0.088469,0.657709,0.243085,-0.966672,0.080344
0.026639,-0.779659,-0.365948,-0.802532,0.467394,-0.370790
0.015590,-0.228717,0.432099,0.234561,0.807530,-0.541180
0.200616,-0.726297,0.094134,0.936810,-0.332570,0.108558
-0.295100,-0.743156,0.167886,-0.718782,0.579087,-0.384722
0.062445,0.037716,0.635989,-0.727498,0.575054,-0.374246
-0.375451,0.896255,0.633977,-0.385203,-0.798671,0.462323
0.181601,0.103282,0.543793,0.858481,-0.440493,0.262636
-0.609475,-0.225926,0.220068,0.288586,-0.781441,0.553234
0.604764,-0.065375,0.612077,0.037669,0.804717,-0.592462
0.324224,-0.161759,0.208622,0.992577,-0.066786,0.101637
0.442007,0.274820,0.411791,0.130868,0.974651,-0.181462
-0.004111,0.050943,0.665821,0.890622,0.411209,-0.194164
0.102107,0.128797,0.679129,0.724512,-0.688374,0.034984
-0.188196,-0.090612,0.318573,0.181230,-0.940683,0.286830
0.112473,-0.348667,0.933939,0.894626,0.399613,-0.199886
0.476530,0.336935,0.575306,0.761065,0.474372,-0.442438
-0.379647,0.078971,0.309200,0.288294,-0.940739,0.178596
-0.162413,-0.165300,0.744258,-0.604623,0.791128,-0.092456
0.674233,-0.044515,0.637161,-0.642185,-0.702560,0.306607
0.226400,-0.648630,-0.303222,0.968524,0.222836,-0.110927
-0.187681,0.637268,0.575937,0.186607,0.518401,-0.834529
-0.375278,-0.286177,0.126158,0.665087,-0.209597,0.716749
0.169864,-0.466941,0.659722,-0.492857,-0.812738,-0.310722
-0.375022,0.118458,0.548750,-0.349399,0.536415,-0.768231
0.222374,-0.663807,-0.290394,0.957467,-0.262431,-0.119949
0.089601,0.033340,0.856823,-0.448855,0.882849,0.138228
0.324483,-0.691931,-0.961457,0.243088,0.535010,0.809118
-0.110501,-0.189417,0.220729,0.823010,-0.470179,0.318725
0.022101,-0.348479,-0.128922,0.876052,-0.447096,0.180659
0.138771,-0.144531,0.670056,0.931897,-0.293813,0.212703
0.220405,-0.707022,0.194593,-0.238053,0.966882,0.092037
0.260750,-0.623950,-0.542381,0.952989,0.255949,0.162178
-0.446634,0.088287,0.612107,-0.740773,0.658489,0.132842
-0.000001,-0.422423,-0.139467,-0.644550,0.757719,-0.102060
-0.350522,-0.618272,0.564551,-0.343045,-0.346864,-0.872929
-0.093627,-0.153847,0.696282,-0.713688,-0.510880,0.479219
-0.216806,0.136806,0.801247,-0.610867,0.770118,0.183739
-0.048397,-0.074407,0.708479,0.602860,-0.575021,-0.553092
0.669352,-0.048800,0.657139,-0.110180,0.850417,0.514443
-0.037263,-0.312721,0.459497,-0.351024,-0.277975,-0.894154
-0.164125,-0.307412,0.044957,-0.596672,0.502586,-0.625612
-0.124550,0.811233,0.771175,-0.520019,-0.853259,-0.039114
-0.190766,0.065096,0.733323,0.816673,0.493254,-0.299575
-0.061674,-0.188861,0.742907,0.916212,-0.333637,0.221907
0.300840,-0.718379,-0.829245,0.883057,0.464740,-0.065007
-0.287477,0.042747,0.761472,0.490653,0.662557,0.565931
0.128406,-0.310669,-0.136342,0.042827,-0.991389,0.123745
-0.010623,-0.333951,-0.027893,0.884338,-0.425493,0.192096
0.519958,0.383965,0.625565,0.856244,-0.283193,-0.432027
0.303324,0.604676,0.529103,-0.108250,0.853947,0.508977
-0.856261,0.212893,0.471393,0.922550,-0.026201,-0.384987
0.250814,0.134572,0.273751,0.931814,-0.355498,-0.073104
-0.262634,-0.553360,0.714097,0.855419,-0.516874,-0.033164
-0.341271,0.191378,0.732542,0.297314,0.725826,0.620307
0.063559,0.015179,0.726984,-0.329122,0.927371,0.177938
0.169095,-0.757963,-0.992550,-0.170703,0.358747,0.917693
0.229142,-0.484913,0.156470,0.818240,0.545981,-0.179968
-0.285764,0.124421,0.485062,0.876840,0.376596,-0.298877
-0.434470,-0.483890,0.634127,0.554324,-0.098837,-0.826411
0.200873,-0.573851,0.730710,0.987535,0.112912,-0.109659
0.360030,0.150681,0.320345,-0.167993,0.835439,0.523279
-0.018930,-0.342244,0.881397,0.367249,-0.925133,0.096213
-0.170893,0.090800,0.700849,0.013146,0.979175,0.202592
-0.201474,-0.139222,0.679940,0.263813,-0.900781,0.344958
0.012079,0.465451,0.507052,-0.606737,0.626285,0.489527
-0.265377,-0.010149,0.393917,0.130206,0.886885,-0.443263
0.168238,-0.329392,0.974886,0.715258,0.698778,-0.010724
0.047114,0.056900,0.732392,0.624610,0.773293,-0.109002
0.157015,-0.071519,0.692527,-0.488889,0.716788,0.497194
-0.189739,0.080091,0.793466,0.530218,-0.842526,-0.094963
-0.380590,0.214194,0.563169,0.786299,0.336971,-0.517865
0.104677,-0.150118,0.615081,0.921868,0.268418,-0.279483
-0.075467,-0.211023,0.130695,-0.241783,-0.909926,0.337009
-0.212953,0.716151,0.731791,0.681942,0.703081,-0.201577
0.360116,-0.156268,0.632324,0.270999,-0.955006,0.120512
0.299727,0.630936,0.526549,-0.192863,0.765632,0.613687
-0.367911,-0.530920,0.423718,-0.737900,0.602070,-0.304984
-0.099282,-0.338516,0.902155,0.061830,-0.996065,0.063501
0.238137,-0.556526,0.047060,0.194952,0.834529,0.515321
0.083777,-0.457255,0.687240,0.959917,-0.279521,0.020695
0.403890,-0.959211,-0.970379,0.041270,0.016306,0.999015
0.144509,-0.494599,0.694300,0.094349,-0.869543,0.484761
0.147680,-0.059231,0.789651,0.851716,-0.274084,-0.446607
0.314889,-0.538741,0.502366,0.987734,0.150990,0.039793
0.117526,-0.119856,0.614840,0.942497,0.319651,0.097584
0.164125,-0.319707,0.833301,0.712175,0.589801,-0.380711
0.155389,-0.347923,0.772197,0.015421,0.979860,0.199089
0.402604,0.386665,0.533218,0.978787,0.009360,-0.204668
0.278654,-0.757400,-0.750327,0.246096,0.963432,-0.105996
0.020729,-0.335628,0.706617,0.583663,0.096245,0.806272
-0.894895,0.382197,0.560976,0.964319,0.264511,-0.011032
-0.523814,0.116224,0.490439,-0.074402,-0.960794,0.267094
-0.268203,0.712331,0.760631,0.978588,0.149706,-0.141255
0.093285,-0.267181,0.826962,0.536138,-0.435149,-0.723326
-0.016875,0.795028,0.699557,-0.320743,0.884652,-0.338400
0.040259,-0.626650,0.319444,-0.325476,0.906389,-0.269303
0.432756,-0.412834,0.134540,0.750781,0.134103,-0.646795
0.174148,-0.671168,0.690905,-0.326570,-0.693356,-0.642347
0.301439,-0.017788,0.535141,0.492272,-0.460473,0.738670
0.216892,0.148072,0.837326,0.870437,-0.408236,-0.275105
0.353863,-0.876230,-0.955058,-0.055715,-0.637692,0.768274
0.127206,-0.206089,0.650620,0.962316,-0.107643,0.249723
0.190165,-0.439094,0.675644,-0.126311,-0.730256,0.671395
-0.289275,0.173872,0.589936,0.911065,0.162090,0.379062
0.431814,0.714474,0.582997,0.836221,-0.481216,0.262991
0.162155,-0.725365,-0.541540,-0.848416,0.523224,-0.080167
-0.236681,0.339544,0.709020,0.775100,0.056762,0.629284
-0.059105,-0.434439,0.778355,-0.539313,0.472713,0.696910
0.288504,0.128700,0.355614,0.594130,-0.580100,0.557219
-0.300582,0.162231,0.731881,0.562291,0.054724,-0.825127
0.655387,0.397749,0.587082,0.912430,-0.351155,-0.210145
0.333734,-0.509872,0.596005,-0.730163,0.683159,-0.012486
-0.254068,-0.337771,0.676155,0.765245,0.607894,-0.211813
-0.261265,0.587357,0.592640,0.889647,0.421276,0.176226
0.365086,0.257313,0.388659,0.947079,-0.319955,0.025878
0.198047,-0.467407,0.743928,0.826391,-0.544751,0.142562
0.110245,-0.380333,0.671168,0.526613,0.494894,-0.691201
0.333734,0.567707,0.532017,0.225197,0.860994,-0.456042
-0.339302,0.016390,0.728427,-0.842591,0.325304,0.429206
-0.499487,0.544050,0.540308,-0.314614,-0.947222,-0.061554
0.226659,0.341687,0.493113,-0.472152,-0.866352,0.162805
0.039146,-0.545352,0.741615,0.491933,0.754951,-0.433649
-0.385816,0.310021,0.766339,-0.542077,-0.811555,-0.218017
-0.682629,-0.164459,0.293729,-0.250705,0.926288,-0.281315
-0.268631,-0.260570,0.422546,0.678872,0.133839,0.721956
0.371080,-0.054479,0.620999,-0.366344,-0.920102,-0.138583
0.013877,-0.422423,0.815006,0.513960,0.096400,-0.852380
0.396178,-0.947286,-0.968367,0.037832,-0.057993,0.997600
-0.176804,-0.540600,0.497860,-0.690505,-0.198872,-0.695451
0.007880,-0.040974,0.780278,-0.333224,-0.862299,0.381317
-0.197960,-0.322310,0.414104,0.139823,-0.851330,0.505654
-0.206869,-0.409202,0.746601,-0.203296,0.913442,-0.352555
-0.080177,0.092755,0.734435,-0.005678,0.839791,0.542880
-0.269316,-0.587351,0.630552,-0.611522,-0.005725,-0.791207
-0.320028,0.232724,0.728607,-0.403571,0.809465,-0.426493
-0.699932,0.089776,0.589425,0.973142,-0.226155,0.042983
-0.343156,0.225926,0.798934,0.122500,0.971292,0.203927
0.333734,0.039023,0.308750,0.055419,-0.870251,0.489481
-0.315488,0.041070,0.414074,-0.375359,0.926132,-0.037226
0.106562,-0.589403,0.694901,-0.727638,-0.645644,-0.231704
0.097224,-0.534455,0.190267,-0.114980,0.982121,0.149058
-0.211753,0.082978,0.696883,-0.326189,0.927366,-0.183284
0.381531,-0.887127,-0.966053,-0.012985,0.257810,-0.966108
-0.503427,-0.099456,0.551633,0.649127,0.739533,-0.178113
-0.162669,-0.138108,0.763034,-0.413004,0.876269,0.248155
-0.474817,0.054575,0.613939,-0.941918,0.092917,-0.322734
-0.543344,-0.027099,0.731401,-0.011009,-0.473680,0.880628
0.161642,-0.519557,0.573804,0.785599,0.614888,0.068895
-0.209183,-0.030543,0.576388,-0.470165,-0.859384,0.201005
0.171749,-0.706556,0.120000,0.776129,-0.616484,0.132556
-0.489208,-0.470942,0.593090,-0.664853,0.451632,-0.594979
0.246618,-0.702549,-0.623372,0.788503,-0.595803,0.152582
-0.546429,0.016202,0.722298,0.731565,0.497224,0.466455
0.165924,-0.209721,0.589215,0.946447,-0.311038,0.086570
0.377419,0.550382,0.598949,0.711086,0.075528,0.699037
0.103650,-0.401193,0.776583,-0.391581,0.873458,-0.289371
0.465736,-0.289530,0.415186,0.186177,0.909244,-0.372309
0.352321,0.120226,0.071543,-0.077099,-0.800960,0.593733
0.380933,0.451758,0.597236,0.291299,0.898591,-0.328145
0.063217,-0.287575,0.801367,-0.365123,0.909231,-0.199958
0.345982,-0.059691,0.495877,-0.316080,0.556660,-0.768260
0.420422,0.575619,0.620548,0.033433,0.163488,0.985979
0.165325,0.462751,0.576658,0.908635,-0.379379,-0.174512
0.278740,-0.395140,0.133669,-0.881289,-0.099185,0.462052
0.306578,-0.142763,0.683004,0.756976,0.459569,-0.464526
0.338701,-0.375490,0.375111,-0.225578,-0.897605,0.378707
0.092942,-0.138943,0.758828,-0.658740,0.728702,-0.187229
0.304866,-0.030362,0.265220,0.487679,0.726180,-0.484594
-0.002913,0.114638,0.683215,0.917306,0.331439,-0.220674
-0.212524,0.650216,0.656958,0.317613,-0.898438,-0.303201
-0.466078,-0.527469,0.625115,0.167764,0.981329,-0.094069
0.407231,0.167352,0.253744,0.292858,0.921621,-0.254654
-0.299298,-0.427357,0.735696,-0.707719,-0.604096,-0.366335
0.352749,-0.085212,0.211085,0.900196,-0.394757,0.183886
0.042317,0.477370,0.514172,-0.554884,0.563624,0.611908
-0.109560,-0.173030,0.169238,0.981289,0.189699,0.032952
0.259466,-0.879027,-0.969628,0.137170,0.060743,-0.988683
0.036918,-0.042281,0.876020,-0.362799,0.921889,0.136002
-0.281480,-0.550751,0.722208,0.969488,-0.093758,0.226500
0.093714,-0.326783,0.958603,0.019025,-0.998218,0.056551
-0.656929,0.871115,0.547668,0.971986,0.235007,0.003869
0.106220,-0.453247,-0.350837,0.993758,-0.033421,0.106429
-0.074353,-0.265038,0.757326,0.185007,0.436693,0.880382
-0.274798,0.155615,0.656177,-0.714806,0.644346,0.271792
0.206441,-0.413016,0.716500,0.957184,-0.285370,0.048606
-0.159585,0.822687,0.866977,0.645010,-0.755152,0.117075
0.586774,0.643139,0.613729,0.086965,-0.949868,0.300313
0.082833,-0.104862,0.748825,0.846087,-0.235616,-0.478144
-0.221090,-0.563512,0.751018,-0.834025,0.551715,-0.003549
0.106047,-0.355931,0.702681,0.413247,0.872211,-0.261677
0.009080,-0.308532,-0.048021,-0.523182,-0.840199,0.142644
-0.264091,0.651705,0.575576,0.580358,-0.394547,0.712403
0.325167,0.147049,0.038528,0.620390,0.655012,-0.431364
0.213465,-0.659618,-0.693278,0.899737,-0.310919,0.306272
0.147079,0.059509,0.720856,0.993155,-0.116773,-0.002843
0.116156,-0.615475,-0.038047,-0.617634,0.772658,-0.146722
-0.362430,0.633545,0.570950,0.549672,-0.835228,0.015973
0.166782,-0.622086,-0.387968,0.781805,-0.617249,0.088236
0.164468,-0.121624,0.664379,0.758530,0.469027,0.452378
0.631661,-0.095177,0.581495,0.948904,-0.038176,-0.313248
0.593884,-0.050193,0.636620,0.059851,0.996598,-0.056662
0.019702,-0.475131,0.786466,0.717568,-0.445335,-0.535512
-0.095083,-0.171723,0.182456,0.884452,0.454665,-0.104994
0.512764,0.391320,0.617394,0.869255,0.001800,-0.494360
0.083176,-0.481560,0.865325,-0.358997,0.338133,-0.869935
0.267432,-0.708046,-0.970590,-0.115518,0.892650,0.435696
0.704473,-0.388154,0.431138,-0.663514,-0.741371,-0.100588
-0.448433,0.129263,0.486864,-0.345358,0.896977,-0.275973
-0.582578,-0.216428,0.207691,-0.474310,-0.710463,-0.519877
-0.004027,-0.394856,0.747893,0.058153,0.997171,0.047635
0.256554,0.104208,0.533969,-0.621008,0.455615,-0.637781
0.659758,0.412180,0.589155,0.978862,-0.198772,-0.048147
0.146822,-0.087912,0.704814,-0.648020,0.540521,0.536570
-0.022956,-0.302382,-0.024859,-0.283122,-0.888775,0.360446
0.098510,-0.389086,0.675284,0.078603,-0.318446,0.944676
0.117097,-0.333303,0.767480,-0.547197,0.551993,0.629189
-0.047712,-0.286461,0.416598,0.083471,-0.747846,0.658604
0.142797,-0.358262,0.848862,0.880178,0.219955,0.420603
-0.575810,0.151147,0.617003,-0.060966,0.882289,0.466744
-0.278910,0.017322,0.611686,0.244988,-0.339007,-0.908325
0.042403,-0.596849,0.330890,-0.572840,0.684414,-0.451034
-0.294158,-0.507729,0.390852,-0.702674,0.553015,-0.447687
0.401148,-0.443841,0.588224,0.913528,0.272905,-0.301645
-0.499228,0.423355,0.737559,-0.624110,0.389993,0.677047
0.115129,-0.356210,0.729538,0.849289,-0.527867,0.008059
0.058250,-0.295771,0.781780,-0.035798,-0.852709,0.521157
-0.044714,-0.556248,0.727075,-0.169595,0.981555,0.088245
-0.073924,0.752466,0.615051,-0.572822,-0.779635,0.253069
0.344183,0.143508,0.380638,0.021658,0.995390,-0.093430
0.210812,-0.847458,0.272760,0.958513,-0.272023,0.085183
-0.325337,0.604300,0.576628,0.135811,-0.889135,0.437030
0.054480,-0.016299,0.769283,0.676123,-0.494728,0.545987
-0.392069,-0.371017,0.567916,0.671394,0.696223,0.253977
-0.348554,0.490222,0.534540,0.096115,0.995361,-0.004277
-0.284136,-0.472431,0.737980,-0.488279,-0.286431,-0.824343
-0.093285,-0.652820,0.490770,0.861120,-0.385299,0.331687
0.248759,-0.590051,-0.305355,0.860643,0.468920,-0.198513
0.315059,0.236822,0.500113,0.884363,-0.222965,0.410107
0.584462,-0.023376,0.657950,0.238305,0.944218,-0.227296
-0.275399,0.707858,0.807826,0.171880,-0.957194,0.232890
0.609817,0.640809,0.630762,0.282809,0.876395,0.389808
-0.362257,0.213540,0.575426,0.882199,0.238373,0.406083
-0.201644,0.758338,0.832910,-0.712974,0.560687,-0.421068
-0.410399,0.572731,0.546707,0.067805,-0.949363,0.306776
0.379989,-0.440396,0.596005,0.951396,0.247666,-0.183049
-0.186226,0.735704,0.596485,0.301643,-0.944531,-0.129896
0.279768,0.046379,0.288321,0.750732,0.520816,-0.406390
0.276939,-0.672748,-0.668194,0.879773,0.131895,0.456730
-0.189739,-0.653007,0.157071,0.505556,-0.807221,0.304643
0.227430,-0.604676,-0.036155,0.942146,0.333584,0.032890
-0.192565,-0.705249,0.121923,-0.660961,0.623596,-0.417444
-0.254583,0.211306,0.674623,0.625328,-0.771911,-0.114535
0.422220,0.158781,0.318062,-0.650869,-0.731450,-0.203348
-0.314973,0.718197,0.565573,0.141238,0.806274,-0.574433
0.116498,-0.329574,0.864213,0.883955,-0.211582,-0.416962
0.085659,-0.460421,0.361232,0.188519,0.981281,0.039338
-0.229228,0.009313,0.641307,0.886928,-0.431979,0.163563
0.013621,-0.506052,0.851836,0.665272,0.451240,-0.594807
0.106818,-0.232349,-0.075749,-0.333366,0.802641,-0.494605
0.046170,-0.434064,0.905881,-0.194829,0.977296,-0.083275
0.252099,0.652638,0.486023,-0.579225,0.702799,0.413003
0.328851,-0.290650,0.151633,-0.763478,0.613089,-0.203035
-0.136627,0.755075,0.745791,-0.465964,0.884769,-0.007829
0.153162,-0.393185,0.498851,0.997476,0.068646,0.018129
-0.196075,-0.078880,0.317041,0.346679,0.900405,-0.262839
-0.547799,-0.170513,0.468569,0.914769,0.130152,0.382437
-0.239850,0.729747,0.676335,0.278502,-0.516050,-0.810018
0.009852,0.124142,0.678648,0.786373,0.495244,-0.369258
0.247559,0.622836,0.515554,-0.235842,0.892199,0.385174
-0.521587,0.101230,0.680270,0.044882,0.771086,0.635147
-0.284392,0.178527,0.570349,0.860967,-0.085788,0.501374
0.798784,0.033249,0.539076,-0.491626,-0.201037,0.847283
-0.339645,0.193237,0.565332,0.041386,-0.594744,0.802849
-0.478584,0.151516,0.520030,-0.059979,0.101497,0.993026
0.077694,-0.315887,0.407736,-0.440102,-0.855119,-0.274011
0.294843,0.583162,0.543643,-0.688797,0.541719,0.481767
0.244560,-0.681132,-0.607781,0.875855,-0.464359,0.131332
0.140912,-0.410594,0.438468,0.988653,-0.073928,-0.130767
0.351722,0.708512,0.572813,0.053080,-0.970931,0.233401
-0.219548,-0.549359,0.603034,0.952053,0.084817,0.293940
-0.577352,0.180852,0.514112,0.420719,-0.564147,0.710446
0.012335,-0.120783,0.465866,-0.714015,0.516292,-0.472889
-0.476616,0.481656,0.665550,-0.468216,0.499060,-0.729187
-0.200530,0.647050,0.600391,-0.240735,0.869855,-0.430580
0.229312,-0.748277,0.248517,0.869861,-0.365146,-0.331678
-0.282936,-0.334229,0.696162,0.288404,0.925923,0.243904
0.014476,0.807783,0.687270,-0.549190,-0.813516,0.191268
-0.405346,-0.451201,0.608772,0.963069,0.268255,0.023180
0.227856,-0.025234,0.764777,0.576159,-0.762532,0.294254
-0.252442,0.788230,0.768352,-0.669300,0.733920,0.115754
0.455713,-0.876515,-0.965813,-0.030507,-0.141536,0.989463
0.126950,-0.064818,0.818190,0.326990,-0.759646,-0.562152
0.446804,-0.423264,0.133549,-0.789727,0.230671,0.568438
0.175774,0.134754,0.824319,-0.739270,0.475938,0.476406
0.494604,-0.105140,0.540068,-0.632269,0.774065,-0.032557
-0.301781,0.085400,0.493053,-0.357722,0.903055,-0.237754
0.115813,-0.335724,0.885663,0.448597,-0.893628,-0.013759
-0.257239,-0.001771,0.388299,-0.151366,-0.931327,0.331237
0.436611,0.716054,0.537304,0.293876,-0.600258,0.743860
0.032893,-0.021602,0.775411,-0.568461,0.794440,-0.213818
-0.284651,-0.298102,0.081908,0.336553,-0.719500,0.607496
-0.065786,-0.528402,0.458475,-0.646685,0.592516,-0.480337
-0.385729,0.139784,0.623492,0.233254,-0.964946,-0.120302
-0.127634,-0.586981,0.701059,0.065907,0.980499,0.185143
-0.192392,0.705346,0.756846,0.163657,0.352247,0.921487
0.329878,-0.049636,0.260954,0.248047,0.815623,-0.522716
0.414339,0.715588,0.552835,0.172698,-0.911595,0.373054
-0.303496,-0.102531,0.425340,0.827689,-0.319743,0.461190
0.213036,-0.638291,0.024619,0.990078,0.132053,0.048026
-0.335533,-0.606910,0.568397,-0.053267,0.725381,0.686284
-0.490921,0.258615,0.691956,0.553131,0.137779,0.821622
0.124636,-0.394952,0.643770,-0.563805,-0.824613,0.046227
0.221603,-0.426800,0.684176,0.957396,-0.288772,-0.002133
-0.408857,0.103463,0.616853,-0.540942,0.828728,0.143501
-0.101336,-0.462279,0.772317,0.822255,0.558426,-0.109801
0.278824,-0.318866,0.130605,-0.932129,0.130239,0.337896
-0.482955,0.142672,0.713165,0.008397,0.961696,0.273991
0.115983,-0.699105,0.246354,0.807374,0.487031,0.333088
0.060647,0.026729,0.725843,0.889778,0.152965,-0.429997
-0.596367,-0.011547,0.691896,0.791808,-0.607862,-0.059534
-0.372881,0.682342,0.548599,-0.634158,-0.217103,0.742099
-0.353434,-0.557459,0.609012,0.935956,0.019549,-0.351575
-0.350778,0.144070,0.583567,-0.576376,0.810680,0.102902
-0.624378,0.647329,0.523064,0.998017,0.024969,0.057781
0.220147,-0.684389,0.120751,0.994189,-0.017509,0.106220
-0.172862,-0.241853,0.643890,-0.589703,0.518391,-0.619291
0.307865,-0.771184,-0.959564,0.584500,-0.662983,-0.467775
-0.550884,0.085400,0.714007,0.811398,-0.485909,0.324849
-0.031436,-0.245667,0.121442,0.982606,0.067472,0.173009
0.471476,0.220805,0.048141,0.127365,-0.853006,0.506122
-0.358833,0.139415,0.643620,-0.259442,0.960693,-0.098790
0.118469,-0.466474,-0.387578,-0.789578,-0.602106,0.118464
-0.245418,0.854909,0.693699,-0.198336,0.624586,0.755351
-0.253642,-0.012479,0.192970,0.807840,0.521055,0.275492
-0.606905,0.344944,0.554457,0.552777,-0.589435,0.589070
-0.227344,0.135874,0.804551,0.627121,-0.751784,-0.203816
-0.374936,-0.073662,0.517176,0.028776,-0.045360,0.998556
-0.870226,0.387688,0.560676,0.884121,0.466833,-0.019935
-0.415283,0.079346,0.458535,0.243037,0.940937,-0.235734
-0.235738,0.337680,0.703252,0.647833,-0.082036,0.757352
-0.180571,0.724063,0.750868,-0.291578,-0.163944,0.942393
0.175947,-0.247906,-0.100984,-0.300543,0.778415,-0.551130
0.715264,-0.035852,0.648697,0.066529,0.891110,0.448884
-0.168580,0.628793,0.807856,0.550346,0.732832,-0.400096
-0.548826,-0.410038,0.660623,-0.123466,-0.626956,0.769209
-0.216892,-0.300427,0.738040,0.903058,0.057750,-0.425619
0.187169,-0.659248,-0.481577,-0.710754,-0.699778,-0.071690
-0.390613,0.738966,0.593721,-0.402190,0.209771,0.891201
-0.152132,0.178993,0.670447,0.627144,0.187601,0.755973
0.125407,-0.192027,0.941720,0.780549,-0.625030,-0.008981
0.161556,-0.043958,0.775982,0.930389,0.059938,0.361640
0.002571,-0.367851,-0.085152,-0.327453,-0.940750,0.088116
-0.483982,0.056343,0.618836,-0.770453,-0.490977,-0.406625
-0.204901,0.044327,0.664288,0.867982,-0.492855,-0.060840
-0.723488,0.052523,0.458385,-0.003506,0.972160,0.234293
-0.627549,-0.235981,0.254104,-0.513159,-0.803752,0.301082
-0.016191,-0.312812,0.019001,-0.162531,0.971374,-0.173251
0.307436,-0.676755,-0.987473,-0.490340,0.543227,0.681522
0.240707,-0.666694,-0.571431,0.728078,-0.637913,0.250938
0.214236,-0.577108,-0.151033,0.794363,-0.607060,0.021559
0.689823,0.553082,0.613248,0.954770,-0.031166,0.295706
-0.447405,0.086701,0.451145,-0.183803,-0.898479,0.398688
-0.261607,0.682342,0.543943,-0.387382,-0.502461,0.772960
-0.452288,0.527288,0.719414,-0.586481,0.678932,0.441692
-0.045056,-0.016481,0.782831,0.025346,0.984469,0.173720
-0.290389,-0.681967,0.561337,0.042330,0.403392,0.914047
0.060305,-0.618084,0.294630,0.595189,-0.731547,0.332551
0.277883,-0.687185,-0.795749,0.998821,0.021414,-0.043558
0.462567,0.366180,0.576478,0.782463,0.543821,-0.303332
-0.257153,-0.035665,0.377184,0.855548,-0.323623,0.404111
0.069729,-0.391229,0.376403,0.223855,0.178677,-0.958104
0.257066,-0.669860,-0.607450,0.911164,-0.384202,0.148896
0.258439,-0.644998,0.288772,0.483895,0.831162,-0.273888
-0.169694,-0.462564,0.663177,0.723993,-0.227646,0.651162
0.614442,-0.113149,0.562809,-0.708762,0.551873,0.439423
-0.081806,0.685974,0.779016,0.892637,-0.449943,0.027413
-0.407743,0.537252,0.540368,0.280639,0.721333,-0.633183
0.035807,-0.340471,0.833421,0.198438,0.975846,-0.091358
0.128748,-0.326596,0.492783,0.886066,-0.055616,-0.460212
0.255441,0.075901,0.287000,0.898417,0.271289,-0.345326
0.417337,0.415068,0.510237,0.790303,0.610700,0.049678
-0.194792,0.808994,0.622861,0.824303,0.479046,0.301727
0.148449,-0.108397,0.707037,-0.394484,0.845600,0.359643
-0.290988,0.385829,0.650139,0.794506,0.543213,-0.271442
-0.244989,-0.002515,0.638633,-0.659814,0.744417,-0.102420
0.289103,-0.747345,-0.973804,-0.087747,0.884638,0.457948
-0.570926,0.149936,0.675644,0.246255,0.175171,0.953244
0.008652,-0.243064,0.073586,0.729436,-0.631882,0.262007
0.094654,-0.325010,-0.129733,-0.012878,-0.906816,0.421329
-0.207128,0.069660,0.750958,0.801281,-0.506264,0.318820
0.173377,-0.418888,0.685498,0.263537,0.925004,0.273706
0.363457,-0.055132,0.704604,-0.252830,-0.897943,0.360244
0.354807,0.260292,0.395599,0.947079,-0.319955,0.025878
0.469675,0.363758,0.577379,-0.659875,-0.651891,0.373635
-0.323453,-0.101696,0.288111,0.024349,0.832991,0.552750
0.375707,-0.554571,0.451656,-0.385286,0.879124,-0.280526
0.531524,-0.029150,0.642569,0.890203,-0.400981,0.216222
-0.143568,0.808624,0.671378,0.981706,-0.153055,-0.113258
0.528439,-0.161856,0.520721,-0.234993,0.869674,-0.434103
0.096539,-0.324641,0.391934,0.960224,0.246436,0.131302
0.459569,0.563046,0.558783,0.569320,0.403519,0.716273
0.101851,-0.096478,0.782922,0.795642,0.272039,0.541247
-0.104504,0.760662,0.721337,-0.486150,0.841937,-0.234094
0.125577,-0.389086,0.803440,0.811984,0.328150,0.482701
0.058077,-0.461819,0.411701,-0.615133,0.713539,-0.335370
-0.283451,0.253772,0.763485,-0.711741,-0.699777,0.061138
0.281480,-0.282266,0.145235,-0.822750,0.523802,-0.220711
0.426333,0.163907,0.356605,-0.577629,-0.815220,0.041968
-0.297413,-0.333207,0.610484,-0.369188,0.884301,-0.285853
-0.010450,0.097410,0.717101,-0.317337,-0.947245,-0.044996
-0.073239,-0.466941,0.563410,0.751962,-0.616926,0.232283
-0.459482,-0.045071,0.571791,0.198724,-0.646096,-0.736932
-0.172520,0.100576,0.805483,0.633481,-0.768836,0.087140
-0.000600,-0.012104,0.800976,0.095332,-0.923730,0.370992
-0.483381,-0.431643,0.539677,0.856931,0.117187,-0.501933
-0.047370,-0.349878,0.816808,0.175847,0.977522,-0.116314
0.003598,-0.196870,0.088907,-0.497750,0.845066,-0.195216
-0.113842,-0.500653,0.577078,-0.617184,0.724682,-0.306464
-0.773941,0.180669,0.595764,0.988395,-0.151085,-0.015737
0.237622,-0.599179,-0.019602,0.980803,0.194930,0.005251
-0.141340,-0.710836,0.665400,0.368735,0.599479,-0.710394
-0.127462,-0.794932,-0.287330,-0.784150,-0.145938,-0.603167
0.106047,-0.051034,0.749726,-0.599409,-0.227665,-0.767383
0.020559,-0.329108,0.804792,-0.386215,0.864370,0.322028
-0.874251,0.390018,0.524777,-0.822924,-0.543156,0.166666
0.135686,-0.481651,0.781119,0.771623,-0.614792,0.163183
0.184171,-0.539019,-0.160616,0.764401,-0.582221,-0.276967
0.322169,0.101321,0.334315,0.431670,-0.855707,-0.285352
-0.265633,0.637268,0.615682,0.809716,0.585749,-0.035469
-0.369883,0.176106,0.574074,0.849633,0.379726,0.365968
-0.067501,-0.259826,0.459737,-0.504866,0.367197,-0.781202
-0.160186,-0.813280,-0.229200,-0.762005,0.615313,-0.201837
-0.371937,0.101508,0.317462,-0.097030,0.994906,-0.027348
0.146566,-0.433319,-0.344979,0.983596,0.149296,0.101236
-0.065530,-0.328830,0.013714,-0.534211,0.758080,-0.374076
-0.236595,-0.559971,0.753060,0.815208,-0.575810,-0.062284
-0.647764,0.071150,0.569718,-0.088233,0.930813,0.354687
0.497688,0.648630,0.519880,-0.435521,-0.804027,0.404799
-0.184769,0.795216,0.828734,-0.591368,0.722682,-0.357791
0.087803,-0.549171,0.686309,0.630593,0.612529,-0.476614
-0.443722,-0.498879,0.616583,0.360117,-0.837948,-0.410072
0.099966,-0.377258,-0.220158,-0.809444,-0.561262,-0.172585
-0.479528,-0.655616,0.645302,0.700301,0.645136,-0.305577
0.227514,-0.455947,0.680721,0.902412,0.294331,0.314677
0.607075,-0.047305,0.581885,-0.515358,-0.826662,0.225912
0.196076,-0.517602,-0.051326,0.661562,-0.736628,0.140410
-0.405430,-0.533711,0.522523,-0.585281,0.769520,0.255511
0.154189,-0.559414,-0.077371,0.531323,-0.843897,0.074383
-0.642196,-0.239710,0.560856,-0.241368,-0.907625,0.343450
-0.167723,-0.432762,0.640376,0.963923,0.223302,0.144876
0.021500,-0.314580,0.719925,0.200036,0.747675,0.633220
-0.570926,0.003538,0.646504,0.491708,-0.869181,-0.052408
0.452631,-0.203389,0.501735,-0.614920,0.721905,0.317375
-0.075124,-0.171257,0.640195,0.184753,-0.906464,0.379722
-0.177745,0.804435,0.602644,0.031625,-0.705348,0.708155
-0.298869,-0.558760,0.682283,0.403280,-0.911461,0.081268
0.020559,-0.779755,-0.359009,0.848269,0.203883,0.488745
-0.572126,-0.514340,0.628659,0.858050,-0.465073,0.217847
0.505910,0.588379,0.506001,0.826505,0.561825,-0.035243
0.066215,0.115946,0.707488,-0.484722,0.141255,0.863187
-0.222633,-0.058765,0.559144,-0.412187,-0.858279,0.305711
0.135344,-0.406963,-0.275043,0.981049,0.132149,0.141705
0.166439,-0.462564,-0.369733,0.606138,0.783547,-0.136568
-0.170122,0.684673,0.793947,0.849117,0.466171,0.248365
0.261435,-0.675266,-0.798483,0.998193,0.053772,-0.026817
-0.399864,-0.133077,0.428314,-0.718143,-0.215137,-0.661806
-0.145965,0.673310,0.770605,0.820488,-0.533020,0.206612
0.407231,0.475972,0.600631,0.929959,-0.367605,-0.006532
-0.204044,0.852209,0.629651,-0.323694,-0.907387,0.268087
0.077866,-0.498879,0.848862,0.802487,-0.345707,-0.486314
-0.211154,-0.487522,0.666001,0.829900,-0.081815,0.551880
-0.260750,-0.047681,0.750176,-0.043158,-0.723468,0.689008
-0.210895,0.117060,0.727886,0.978074,0.038930,-0.204587
0.199675,-0.522723,-0.057935,-0.539688,0.806005,0.243092
-0.752014,0.023285,0.457905,-0.003506,0.972160,0.234293
0.098853,-0.386477,0.485873,-0.636202,-0.117284,0.762556
0.170379,-0.109426,0.502906,-0.613114,0.763866,-0.201493
0.790304,-0.312721,0.507052,0.619259,0.785077,0.013157
-0.522272,-0.659430,0.604536,0.709358,0.566394,-0.419535
-0.084033,-0.083814,0.753211,0.893275,-0.441682,-0.083531
-0.160013,-0.183086,0.653203,0.462535,-0.612148,0.641355
0.365684,-0.773884,-0.975216,-0.038263,0.370642,0.927987
0.333991,0.186257,0.403410,0.859727,0.510697,0.007629
-0.309491,0.181693,0.625565,0.851420,-0.281116,0.442784
0.198303,-0.517415,-0.029305,0.351101,0.934492,0.058763
-0.195477,0.712240,0.649538,-0.383004,0.901373,-0.202075
-0.370395,-0.244831,0.716500,-0.470783,0.760124,-0.447855
-0.511478,-0.019556,0.731491,0.045135,-0.187191,0.981286
-0.259294,-0.283198,0.687120,-0.566774,-0.551869,0.611726
0.187938,0.159525,0.464303,0.891695,-0.440322,0.104866
-0.136371,0.680853,0.838288,-0.008839,0.532704,0.846256
-0.418710,-0.044236,0.606879,0.824312,-0.500643,0.264322
0.394895,0.267277,0.385265,0.031938,0.976230,-0.214373
-0.331421,-0.372694,0.610575,-0.464915,0.863590,-0.195107
0.085233,-0.386386,0.637071,0.605167,0.600232,0.522967
0.125321,-0.636990,0.721697,-0.588618,0.469709,-0.657954
-0.268289,-0.805458,-0.159294,0.884298,-0.267823,0.382477
-0.403890,-0.046004,0.643830,0.096694,0.966071,-0.239492
-0.362772,-0.433785,0.746481,0.669579,-0.686920,-0.282499
-0.206956,-0.299682,0.419962,-0.063387,-0.937013,0.343495
-0.053539,-0.839631,-0.315929,-0.763645,0.572217,-0.299020
-0.449975,-0.629634,0.655697,-0.275755,0.459998,0.844015
-0.119068,-0.499345,0.484581,0.655231,-0.713509,0.248148
-0.216293,0.673310,0.797131,-0.466139,-0.668080,0.579985
-0.000344,-0.799587,-0.340113,-0.683971,-0.664844,-0.300275
-0.184084,0.745856,0.630252,0.359189,0.860755,-0.360672
0.012934,0.059975,0.734465,0.772160,0.589376,-0.237498
-0.133631,-0.334417,0.401127,0.037306,-0.973992,0.223490
0.283278,-0.428010,0.791814,0.332762,0.942801,0.019878
0.138771,-0.305360,-0.112099,-0.088909,0.800903,-0.592157
0.118553,-0.748465,-0.430417,0.714696,-0.690344,0.112407
-0.098680,-0.798939,-0.277477,-0.515322,-0.528910,-0.674313
-0.091486,-0.671815,0.388359,-0.767545,0.585693,-0.260457
0.217663,-0.699105,-0.634217,0.971240,-0.008331,-0.237958
0.392239,0.559044,0.613398,0.924665,0.149361,0.350265
-0.023557,-0.288877,0.710642,0.887437,0.433573,0.156427
0.305894,-0.739802,-0.843545,0.825983,0.555039,-0.098409
0.231113,-0.089492,0.509005,-0.429032,0.848693,-0.309275
0.263578,-0.009592,0.252753,0.544814,0.629824,-0.553623
0.070500,-0.322964,-0.129072,0.657938,-0.632036,0.409450
-0.311375,-0.629913,0.656718,-0.107894,-0.922628,0.370291
-0.402518,-0.556060,0.605468,0.750420,0.537685,0.384402
0.301781,-0.212051,0.199820,0.933335,-0.264798,0.242420
0.254241,-0.516107,0.035193,0.776904,0.566149,-0.275492
-0.589516,-0.190446,0.230161,0.189837,-0.788547,0.584940
-0.059962,-0.266527,0.109936,0.998332,0.052175,0.024699
0.161642,-0.482770,0.622831,-0.003539,0.909258,0.416218
0.022185,0.172473,0.511889,-0.091072,0.044625,0.994844
-0.472248,0.114269,0.734615,0.121728,-0.984424,-0.126853
-0.342384,0.207118,0.735216,-0.695435,0.436397,-0.570901
-0.060820,-0.224158,0.120120,0.884524,0.424239,0.194006
-0.382645,-0.616317,0.584529,0.843611,-0.483561,0.233429
0.216722,0.307043,0.481547,0.484272,0.279623,-0.829031
0.030239,-0.484072,0.289914,-0.447666,0.893921,-0.022354
-0.515420,0.808158,0.557011,0.372074,0.527397,-0.763815
0.216293,-0.542464,-0.174195,0.965213,0.148177,0.215425
-0.363972,0.113058,0.481127,0.068432,0.996846,0.040195
0.206357,-0.483890,0.557522,0.855099,0.434841,0.282346
0.206271,-0.489193,0.092632,0.885954,-0.417491,0.201957
0.003941,0.140904,0.510537,-0.119706,-0.247915,0.961358
-0.575553,0.714378,0.543643,0.868172,-0.480101,0.125619
-0.298012,0.213262,0.583477,0.689360,-0.514791,0.509679
0.286107,0.066960,0.341555,0.809811,-0.435392,0.393243
0.090030,0.105140,0.823748,0.071154,-0.997451,-0.005378
-0.420249,-0.011172,0.682614,0.475410,0.878508,-0.047011
0.477042,0.502141,0.625024,-0.118947,-0.179449,-0.976550
-0.241133,-0.561926,0.759369,-0.432558,0.892771,-0.125909
0.294757,-0.704322,-0.986271,0.347340,-0.545007,-0.763101
0.230854,-0.574687,-0.112910,0.925037,0.379318,-0.020623
0.332106,0.770348,0.612197,-0.067627,0.990096,-0.123032
0.468392,0.224437,0.411851,-0.550079,0.834855,0.020729
-0.083604,-0.669025,0.065265,-0.349785,0.936822,-0.003795
-0.311634,0.026172,0.379106,-0.636018,-0.715226,0.289712
0.331421,-0.682712,0.665310,0.879502,0.384040,0.281052
0.129004,-0.373535,-0.160466,-0.474283,0.880372,0.000407
0.333648,0.736266,0.580233,0.088870,-0.959488,0.267367
-0.145709,-0.562955,0.713106,0.265098,0.951654,-0.155167
0.041117,-0.246877,0.689523,0.823636,-0.092624,0.559504
-0.938839,0.012576,0.404611,-0.672737,-0.498318,0.546904
-0.192821,0.528777,0.746992,-0.627493,0.690703,0.359420
-0.007794,-0.230303,-0.000766,-0.553714,0.707093,-0.439796
0.069300,-0.553826,0.791363,-0.108613,0.993630,0.030030
0.456228,0.588937,0.567706,-0.628385,-0.484816,-0.608346
0.412028,0.453344,0.623192,-0.057180,-0.680317,0.730684
-0.075210,-0.445801,0.560315,0.874966,-0.447940,0.183807
0.536321,-0.071053,0.588524,-0.225650,0.578943,-0.783522
-0.712694,0.036693,0.460458,-0.051496,0.988303,0.143545
0.110844,-0.420934,0.553947,0.641734,-0.724186,0.252452
0.149306,-0.380702,0.374210,0.772817,0.246495,0.584802
0.069300,-0.384244,-0.182756,0.843629,-0.351769,0.405647
-0.623952,-0.209442,0.596876,0.664323,0.747444,0.001795
0.494946,-0.198268,0.503267,-0.130245,-0.733279,0.667336
-0.295100,0.050943,0.457154,0.132930,0.810960,-0.569801
0.434727,0.248651,0.485963,-0.713901,0.150020,0.683988
-0.154960,-0.577296,0.722358,0.143100,0.913176,0.381617
0.248929,-0.479883,0.638333,0.578856,0.763065,0.287502
-0.278053,-0.140808,0.689823,0.598199,0.589998,0.542273
0.713296,-0.529988,0.403680,0.954946,0.223556,-0.195196
-0.572383,0.097410,0.491070,-0.303683,0.609428,-0.732375
0.447918,-0.074037,0.662726,0.339199,-0.927895,0.154771
-0.159671,-0.361797,0.613459,0.886572,0.088779,0.453992
-0.340586,0.208231,0.689793,-0.478380,0.869055,-0.126083
0.367140,-0.429875,0.629651,0.552572,-0.756202,0.350462
-0.130461,-0.547773,0.481066,0.406009,-0.876601,0.258315
0.012335,-0.411248,0.921292,0.898775,-0.121798,-0.421151
-0.334761,-0.307225,0.680721,0.051827,-0.948980,0.311047
0.132089,-0.220708,0.584288,0.852785,-0.515085,0.086291
0.149050,-0.747158,0.206699,-0.192445,0.975685,0.104897
0.239507,0.146958,0.556590,-0.509556,0.773014,-0.377891
-0.054823,0.008290,0.762884,-0.690642,0.283734,0.665213
0.060990,-0.542277,0.230943,0.600477,-0.749727,0.278094
0.409542,0.376513,0.524987,-0.703777,0.435035,0.561643
-0.457770,0.123676,0.689914,-0.066516,0.442580,0.894259
0.102450,-0.352112,0.681202,-0.414896,-0.881149,-0.226801
0.317116,0.239056,0.074187,-0.301090,-0.810198,0.502915
-0.474558,-0.066120,0.599670,0.278421,0.960442,0.005717
-0.477729,0.059043,0.493293,-0.161248,0.664404,0.729771
-0.625322,0.061930,0.432099,-0.062536,-0.988858,-0.135087
0.333306,0.289815,0.592309,-0.456377,0.628069,-0.630278
0.293131,-0.582787,0.411851,0.183854,-0.959335,0.214181
-0.330307,0.194914,0.654555,0.567755,-0.765536,0.302668
0.071354,-0.003163,0.788209,0.051026,0.971685,0.230706
-0.212095,-0.068075,0.172332,0.013220,-0.764072,0.644996
-0.254240,0.174707,0.625385,0.443594,-0.876641,0.186349
-0.216806,0.135408,0.594232,0.729348,0.452243,-0.513350
-0.312233,-0.270625,0.440180,0.722535,0.527968,0.446311
0.011650,-0.322776,0.890469,0.019671,0.998385,0.053297
0.009080,-0.430807,0.728547,-0.724683,-0.688944,-0.013807
-0.123695,-0.684667,0.405272,0.270866,0.926049,0.262804
0.199503,-0.607933,-0.205588,-0.243508,0.964509,0.102108
-0.147079,-0.230115,0.113030,-0.300746,0.934227,-0.191759
0.260750,-0.588749,-0.241337,-0.155332,-0.957489,0.243079
0.110588,0.305553,0.428855,0.287983,0.953839,-0.085192
0.236423,-0.775657,0.455832,0.937958,-0.343914,-0.044247
0.149050,-0.121624,0.767781,0.718294,-0.690218,0.087474
-0.117097,-0.437326,0.595944,0.846551,-0.191364,0.496720
-0.506252,-0.226392,0.166744,-0.190968,-0.977816,-0.086061
0.307692,-0.485749,0.496538,0.801246,0.512699,-0.308455
0.183828,-0.707204,-0.557822,0.911533,-0.398855,0.100107
-0.505225,0.136709,0.702801,0.875646,-0.397056,0.274939
0.073069,0.071241,0.791844,-0.681577,-0.333154,-0.651507
-0.474731,-0.010427,0.453579,0.687420,0.496579,-0.529966
0.068186,-0.707949,-0.057454,0.745705,-0.619333,0.245665
0.237622,-0.610445,0.008517,0.999329,0.036510,0.002818
-0.157274,-0.137829,0.272219,0.898839,0.406180,0.164638
0.112729,-0.283664,0.477341,0.885409,0.060885,-0.460808
0.664040,0.014901,0.634878,-0.216540,0.974235,-0.063066
-0.205157,-0.086605,0.307458,0.057413,-0.970474,0.234275
0.469249,0.553645,0.573443,0.715335,0.670744,0.195954
0.202501,-0.521979,-0.025520,-0.120343,0.992472,0.022746
-0.101679,-0.451667,0.763545,0.156747,-0.372084,0.914868
0.592172,0.538838,0.662846,-0.557968,0.800649,-0.218248
-0.507795,0.092942,0.694750,0.420726,-0.900549,0.109545
0.146137,-0.521695,0.226406,-0.111923,0.922783,-0.368708
-0.435242,0.132611,0.749606,-0.206269,0.971429,-0.117386
0.211154,0.587072,0.512610,0.432372,-0.775137,-0.460671
-0.035462,-0.563421,0.769163,0.122953,0.927558,-0.352873
-0.303237,0.140063,0.575126,0.527814,-0.782544,0.330208
0.243018,0.428016,0.526369,0.865156,0.437388,-0.245350
0.676203,0.427175,0.629020,0.919854,-0.172834,0.352132
-0.202930,0.140808,0.499512,0.500371,-0.154450,-0.851924
0.531866,0.584651,0.504919,-0.519161,-0.746687,0.415849
0.442865,-0.157848,0.525738,-0.495588,0.820478,-0.284972
-0.222374,0.061839,0.556440,0.808245,0.272116,-0.522200
-0.399007,-0.564632,0.614089,0.412005,-0.260777,0.873068
-0.095854,-0.210278,0.465024,0.344202,-0.670882,0.656842
0.022101,-0.197989,0.101134,-0.567560,0.757991,-0.321443
0.351124,-0.349133,0.394397,0.353299,-0.912529,0.206084
0.169694,-0.559601,0.861450,-0.611146,-0.741478,-0.276967
0.654875,-0.027099,0.631303,-0.945931,0.040274,0.321858
0.123180,-0.359097,0.846189,0.915506,-0.060617,0.397712
-0.192565,-0.204321,0.776673,0.908535,-0.163977,0.384286
-0.279681,-0.384334,0.534630,-0.597125,-0.284920,-0.749842
-0.246445,-0.322032,0.705896,0.797636,-0.054642,-0.600659
-0.342727,0.087542,0.477221,-0.079495,0.995074,0.059228
-0.154618,-0.734118,0.574014,0.436220,0.768488,-0.468121
0.080948,-0.804896,-0.410079,-0.861997,0.463331,-0.205634
-0.310006,0.659623,0.756846,-0.569478,0.349949,-0.743795
-0.321654,0.086423,0.497529,0.311513,-0.898462,0.309394
0.198389,-0.620040,-0.365468,0.855347,0.233579,-0.462408
0.028438,-0.838329,-0.366339,0.929334,-0.173332,0.326029
0.081291,-0.459580,0.564792,0.594637,0.769259,-0.233767
0.753726,-0.542185,0.416448,0.981375,0.141161,-0.130292
-0.184513,-0.375769,0.761112,-0.405306,0.844981,0.348904
0.061418,-0.341215,0.968397,-0.177879,0.951948,0.249306
-0.413996,-0.523468,0.489778,0.209957,0.972919,-0.096676
0.053709,0.022631,0.803740,0.199865,0.208390,-0.957407
0.061505,-0.272581,0.680331,0.760173,-0.147681,0.632715
0.106389,-0.437417,0.328517,0.004742,0.999904,0.012998
0.104335,-0.382288,0.625024,0.907654,0.412636,0.076784
0.229142,-0.894766,-0.973353,0.461316,-0.196017,-0.865312
-0.233939,0.214097,0.706587,-0.661626,0.471125,-0.583345
-0.346753,0.219037,0.721247,0.220256,0.938447,-0.266090
-0.638426,-0.012479,0.498581,0.714528,0.175616,-0.677207
0.248244,-0.654127,-0.444536,0.964016,0.263277,0.036845
-0.218777,0.688674,0.676365,0.352605,-0.440443,-0.825639
0.591401,-0.442539,0.236380,0.967624,-0.161947,-0.193588
-0.028867,-0.325385,0.949200,0.379831,0.922197,-0.072665
-0.520473,0.448501,0.631273,-0.695881,-0.601994,0.391603
0.103906,-0.352208,0.673271,-0.180063,-0.403317,0.897169
-0.118812,-0.570589,0.306076,-0.592700,0.398779,-0.699772
0.275569,-0.740638,-0.955028,0.843829,-0.438343,-0.309530
-0.296043,-0.412925,0.711874,0.394928,-0.012949,0.918621
-0.602963,0.142115,0.523094,0.536757,-0.799176,0.270572
0.224857,-0.524116,-0.274563,0.303406,0.941043,0.149609
-0.428045,0.171916,0.620218,0.752479,-0.429200,0.499562
0.052682,-0.431455,0.773428,0.467550,-0.871497,0.147953
0.347438,0.710745,0.601562,0.375592,0.845679,-0.379153
0.114786,-0.353419,0.903027,-0.365538,0.930775,-0.006285
0.094056,-0.298750,0.385385,0.214718,-0.905328,0.366438
0.087460,-0.471783,0.700488,0.933567,-0.109117,0.341389
-0.277454,0.190446,0.745190,-0.547843,0.769670,0.327837
-0.119839,-0.819521,-0.267833,-0.558173,-0.760985,-0.330674
-0.307263,0.189327,0.710973,0.385489,0.532015,-0.753895
0.068785,-0.170979,0.607030,-0.566056,0.154332,-0.809792
-0.349495,0.065562,0.507232,0.147427,0.839533,-0.522925
0.141683,-0.188770,0.904258,-0.716038,0.497350,-0.489829
-0.347610,-0.823335,-0.103117,0.894444,-0.274158,0.353281
-0.563989,-0.441050,0.636831,0.923062,0.017586,0.384248
-0.540775,-0.002606,0.651911,0.685116,-0.723609,0.083697
0.095339,-0.105419,0.815877,-0.717650,-0.691347,0.083773
-0.116412,-0.027377,0.698205,-0.234911,-0.030483,0.971539
0.678175,-0.618363,0.493053,0.819381,-0.570505,-0.056025
0.163697,0.080460,0.836005,-0.679092,0.635691,0.367058
0.271374,-0.500374,0.497199,0.449957,0.819436,-0.355055
0.628490,0.599554,0.643440,-0.480478,0.763005,0.432394
0.098939,-0.312255,0.840661,0.372341,0.922738,-0.099585
0.124380,0.377633,0.563890,0.937134,-0.256291,-0.236843
0.019189,-0.407429,0.733774,0.465516,0.844019,-0.266321
-0.259037,0.619113,0.644401,0.812010,0.538964,0.223958
-0.826538,-0.109887,0.407856,-0.666336,-0.590415,0.455419
0.203100,-0.712422,-0.546767,0.754730,-0.634934,-0.165048
0.639799,0.000935,0.666632,0.018163,0.999669,0.018211
0.189567,-0.510895,0.106722,0.772165,0.241067,0.587918
0.143652,-0.206089,0.914532,0.901091,-0.433629,-0.000871
0.312060,-0.967590,-0.969899,-0.197309,-0.288521,0.936923
-0.564075,-0.235146,0.215531,-0.118499,0.981951,-0.147415
-0.251841,-0.542561,0.346121,0.405954,-0.870382,0.278634
0.030153,-0.200223,0.788059,0.985472,-0.067125,-0.156013
-0.391298,0.737290,0.614690,0.874308,0.453438,-0.173146
-0.183998,-0.650029,0.595103,0.838081,0.526807,0.141758
-0.327222,0.271188,0.580984,0.259689,0.322250,-0.910339
-0.570756,-0.284318,0.257980,0.720582,0.518709,-0.460111
0.244218,-0.727604,-0.765377,0.998243,-0.055869,0.019716
-0.588402,0.637552,0.512159,0.014945,-0.822397,0.568718
-0.329107,-0.268767,0.695021,-0.282161,0.904173,-0.320713
0.125920,-0.667160,0.723260,-0.015918,0.707142,0.706892
0.153674,0.398959,0.581525,0.850820,-0.525267,-0.014155
-0.067501,0.754421,0.637672,0.555256,0.631422,-0.541291
0.154189,-0.080648,0.600000,0.643854,0.000251,0.765149
0.005224,-0.375490,0.724161,0.339902,0.479988,0.808751
-0.116841,-0.138296,0.223402,0.926397,0.292997,0.236520
0.199417,-0.534086,0.106151,0.912158,0.090065,0.399820
-0.217065,-0.717356,0.617995,0.589902,0.752353,-0.293225
0.315315,-0.329392,0.474427,-0.597564,0.766354,-0.235835
-0.529552,0.102816,0.684356,-0.006245,0.636342,0.771382
-0.220405,0.202923,0.741705,-0.015930,0.014949,0.999761
0.269147,-0.642389,-0.627127,0.996480,0.038322,0.074554
0.018076,0.111751,0.697364,0.876452,-0.348474,-0.332263
0.217065,-0.077482,0.503057,-0.341647,0.798690,-0.495351
-0.449546,0.070593,0.456192,0.088452,0.971286,-0.220861
0.120095,-0.403614,-0.186361,-0.555908,0.748005,-0.362567
0.062532,-0.140717,0.745760,0.497492,0.793945,-0.349503
-0.092257,-0.542930,0.301299,-0.733747,-0.112724,-0.670006
0.294159,0.156922,0.511679,0.987329,-0.146929,0.059948
0.131747,-0.448405,0.287390,0.979239,0.184865,-0.083167
-0.047200,-0.272024,0.039189,0.908709,-0.396300,-0.131124
0.056535,-0.658503,0.726534,0.111716,-0.076514,0.990790
0.450487,0.241665,0.378716,0.431260,0.717484,-0.547020
-0.272571,0.044327,0.490289,0.583611,-0.780143,0.225334
-0.283022,0.541537,0.543102,-0.307114,-0.469850,0.827600
-0.322940,0.146583,0.748524,0.978416,-0.200607,0.049589
0.271630,0.262804,0.443485,0.039685,-0.882256,0.469094
0.356775,-0.739427,-0.961457,-0.507658,-0.830792,-0.228185
-0.367825,-0.788321,-0.053489,0.890334,-0.348578,0.292915
-0.053539,-0.814769,-0.299767,-0.794690,0.487647,-0.361481
-0.473960,0.139597,0.657980,0.854459,0.516125,-0.059291
-0.324054,0.207953,0.792114,0.209860,-0.931325,-0.297644
