0.113100,0.331314,0.323692,0.308058,0.926379,-0.216617
0.494032,0.525180,0.745748,-0.338155,0.917489,-0.209441
0.380598,0.085599,0.603645,0.899217,-0.426319,-0.098286
-0.447060,0.330626,0.670576,0.823110,0.471937,-0.315856
0.239887,-0.640856,0.523411,0.858277,-0.370706,-0.354877
-0.072777,-0.543809,0.613427,0.769460,-0.170181,-0.615605
0.179716,0.015899,-0.121262,0.984202,0.124325,-0.126052
0.675940,0.072430,0.845561,0.062238,0.951775,-0.300416
0.306866,0.479203,0.545405,0.671237,0.416052,0.613467
-0.390394,-0.432216,0.707259,0.585869,0.142457,-0.797786
0.466757,0.740611,0.707757,0.597309,0.481870,-0.641111
0.491609,0.029022,0.694642,0.563321,0.746118,-0.354932
0.059477,0.804345,0.699268,-0.664462,-0.704709,0.248748
0.331047,-0.152362,0.546480,-0.448382,0.839802,0.306082
0.324140,-0.020396,0.567009,-0.893075,0.386834,0.229732
0.053957,-0.281529,0.377570,-0.641077,-0.745255,0.183347
0.257624,-0.279235,0.532632,0.203884,0.234070,0.950601
-0.207611,0.676830,0.633240,0.861350,-0.237987,0.448819
0.763437,0.622227,0.740467,0.924098,-0.154768,0.349414
0.529094,-0.484342,0.737897,0.886949,0.447725,-0.113417
0.258656,-0.067199,0.429502,0.991136,-0.100551,0.086832
-0.174458,-0.450524,0.727773,0.435158,-0.866402,-0.244918
0.123771,0.711703,0.629751,-0.515720,0.791640,-0.327626
0.317437,0.365178,0.436854,-0.379390,0.002888,-0.925232
-0.251129,-0.111845,0.349299,-0.483757,-0.653408,-0.582269
0.022559,0.476266,0.497586,-0.544868,-0.836793,0.053816
-0.289592,0.413082,0.685125,-0.597119,0.705837,-0.381109
0.200804,-0.085094,0.058692,-0.675402,-0.734575,-0.065051
-0.482017,-0.206598,0.466262,-0.471776,0.862804,-0.181652
-0.244271,0.318971,0.653271,0.923613,0.383131,0.012209
0.593287,0.517012,0.686277,0.953384,-0.267747,0.139180
0.249376,-0.029894,-0.784065,0.935016,0.048249,0.351308
0.262625,-0.456443,0.756760,0.766921,-0.600801,-0.225547
-0.102479,0.368940,0.802150,-0.322048,-0.919381,0.225885
-0.279021,0.631129,0.647259,0.730676,0.493466,0.471810
-0.174096,-0.104412,0.842150,0.668537,0.697189,0.258816
-0.472790,-0.397527,0.516106,-0.919569,0.122066,-0.373488
-0.247466,-0.878679,0.673209,0.989741,-0.096347,-0.105502
-0.490165,-0.611857,0.641231,-0.305184,0.702703,0.642706
-0.387505,0.159245,0.734813,-0.678646,0.491684,-0.545607
0.221688,-0.131117,0.174470,0.485145,-0.782681,-0.389930
0.353168,-0.698075,0.612835,0.933238,-0.045814,-0.356325
0.182914,-0.051277,-0.028146,0.964667,-0.075300,-0.252484
-0.666761,-0.381513,0.611807,0.163448,-0.331098,0.929333
0.022918,0.286255,0.858037,0.760207,-0.612426,-0.216839
0.445307,0.267717,0.819268,0.721415,0.672959,0.163362
-0.005389,0.017643,0.873723,0.955523,0.276854,0.101627
-0.187244,-0.087847,0.319455,-0.178984,-0.981836,0.062958
-0.082111,-0.659210,0.679829,-0.046466,0.998760,0.017847
0.019671,-0.053755,0.128738,-0.223672,-0.974255,0.028242
-0.655107,-0.066281,0.537788,-0.085018,-0.032694,0.995843
0.230607,-0.114782,0.461215,0.963379,0.263432,0.050045
-0.737966,-0.056324,0.541978,0.889272,0.166884,0.425846
0.432108,0.245647,0.931371,-0.482848,0.793006,-0.371483
-0.923121,-0.077156,0.641682,0.462865,0.870193,-0.168881
0.210497,0.099227,0.182446,0.822575,0.537199,-0.186513
0.168887,-0.056783,-0.047025,0.987501,-0.132349,-0.085590
0.284695,-0.501365,0.776822,-0.449452,0.682975,0.575793
0.522186,0.248033,0.924689,0.216378,0.820959,-0.528400
-0.073293,-0.083029,0.218162,-0.408624,-0.896955,-0.168815
0.058857,0.415147,0.497508,-0.490576,-0.859766,-0.141908
0.214727,-0.118407,-0.607632,-0.655581,-0.705226,-0.269945
0.284333,-0.198018,0.628754,-0.657374,-0.744172,-0.118605
0.015856,0.431941,0.896791,0.692173,0.283082,0.663899
0.819433,-0.222704,0.793770,-0.534465,-0.841298,0.081023
0.220190,0.072430,0.589813,-0.746495,-0.665290,-0.011610
0.770503,-0.283731,0.808551,0.091857,-0.305345,0.947801
-0.269794,0.271296,0.810405,0.575401,-0.188571,-0.795836
0.253190,-0.015624,0.308287,0.959314,-0.171672,0.224155
0.351157,-0.007456,0.542150,0.997185,-0.025322,-0.070576
-0.167908,0.291670,0.843131,-0.705497,-0.675614,0.214055
0.215963,0.067704,0.008365,-0.511005,0.859174,0.026322
-0.258656,0.216005,0.805997,0.231078,0.580444,-0.780825
-0.415247,-0.779843,0.685701,0.999115,-0.040107,-0.012707
-0.008584,0.733728,0.747150,-0.058481,0.995529,-0.074176
-0.324807,-0.053020,0.389206,0.463197,-0.756040,0.462440
0.380547,-0.097254,0.582305,0.982031,0.130165,-0.136645
0.215139,-0.167917,0.936822,0.940863,0.233856,-0.245129
-0.396943,0.058251,0.539143,-0.490870,0.867280,0.082896
-0.240662,-0.017505,0.829891,0.782155,-0.613299,0.109992
-0.082111,-0.054305,0.728925,-0.428251,0.901775,0.058336
0.115111,-0.437172,0.768676,-0.132280,0.985559,0.105710
0.417619,-0.597632,0.674190,-0.027003,0.838475,0.544270
0.086029,-0.053525,-0.993769,0.412907,-0.415227,-0.810614
0.356054,0.158924,0.322819,0.417551,0.762230,-0.494627
0.099643,-0.521692,0.871573,0.845784,0.451370,-0.284453
0.297277,-0.131897,0.942539,0.455527,0.548589,0.701103
0.367811,0.199945,0.938131,0.987915,-0.140155,-0.066179
0.116863,0.853259,0.743660,-0.603248,-0.758681,0.245959
0.022301,-0.251015,0.509782,0.884630,-0.463766,0.048491
0.476554,-0.474798,0.716589,0.863000,-0.455943,-0.217595
-0.791849,0.018331,0.540826,-0.249140,-0.967207,-0.049390
-0.897187,-0.160897,0.595545,0.288332,0.733716,-0.615244
0.423961,-0.365178,0.862399,0.718925,0.662664,-0.209817
-0.418494,-0.138642,0.736916,0.865472,0.454113,0.211518
0.194051,0.084498,0.456776,-0.754732,-0.655990,-0.007548
0.130940,-0.447679,0.787710,-0.496849,0.849833,0.175852
0.184871,0.769243,0.794455,0.880134,0.472816,0.042544
-0.189667,-0.042880,0.868256,0.919445,-0.232894,-0.316830
-0.024517,0.012550,-0.135125,0.902409,-0.168917,0.396389
0.532857,0.002317,0.700062,0.843428,0.287266,-0.453990
-0.370851,0.521738,0.700031,0.840792,-0.099599,-0.532117
0.095209,0.750338,0.759766,-0.378687,0.874988,-0.301649
0.257316,-0.122353,0.342539,-0.768744,0.638748,-0.032145
-0.630513,-0.240783,0.499922,-0.237107,-0.949366,-0.206117
-0.064012,0.596669,0.769143,-0.412247,0.657700,-0.630463
-0.067314,0.569183,0.616199,0.166549,0.968685,-0.184147
-0.399675,0.236332,0.662414,0.905613,0.401678,0.136089
0.128259,0.213986,0.297461,0.871575,0.211765,-0.442168
0.076644,-0.378576,0.882788,-0.596208,-0.134206,-0.791533
-0.678414,-0.270333,0.577041,-0.062043,0.983082,0.172337
0.328520,-0.638700,0.668442,0.297026,0.437445,0.848774
0.285519,0.527382,0.553365,-0.726969,-0.577557,0.371408
-0.713579,0.062381,0.619175,-0.267756,-0.817923,0.509223
0.050659,0.131897,0.809424,0.940237,0.114972,0.320525
0.147182,0.586528,0.542726,-0.716205,0.275585,-0.641173
0.369152,0.105467,0.835436,-0.036796,-0.897261,0.439963
0.451856,0.508936,0.472555,0.959864,-0.251288,-0.124564
-0.480884,0.052516,0.670125,0.849231,-0.527847,0.013601
0.620974,0.391791,0.535857,0.122620,0.927878,-0.352146
0.235145,0.808704,0.738832,0.747286,-0.015793,0.664315
0.102425,0.260926,0.804564,0.343090,0.897054,0.278539
0.219520,-0.071466,-0.989439,0.582144,0.579066,0.570781
0.080049,0.161768,0.832368,-0.452500,0.889603,-0.062058
0.200238,-0.067887,-0.409393,-0.644152,-0.716460,-0.267867
0.090000,0.821323,0.699019,0.202938,-0.839622,0.503836
-0.480884,-0.622915,0.631667,-0.100636,0.909257,0.403887
0.445873,0.087756,0.432617,0.763893,0.478833,-0.432651
0.222201,-0.204992,0.521760,-0.246987,0.116428,0.961999
0.201371,-0.136577,-0.734564,0.888484,-0.455812,0.053219
0.256233,-0.111708,0.475950,0.939472,0.335792,-0.068091
0.005698,0.698626,0.680826,0.236347,-0.943370,0.232796
-0.013175,0.268452,0.822617,-0.549973,0.835181,-0.001220
0.033385,0.018836,0.698349,-0.691284,0.645251,-0.325235
0.225553,-0.070916,0.467305,-0.713651,-0.396385,-0.577565
-0.084071,0.452589,0.589907,0.308948,0.949261,-0.058769
0.159452,-0.838851,0.688240,0.449203,0.860309,-0.241010
0.313207,-0.390919,0.719517,-0.780233,0.457963,0.426035
0.287068,0.010209,0.803707,0.826142,0.554640,0.099322
-0.485523,0.047560,0.548598,0.432862,-0.901367,0.012988
0.774471,-0.188749,0.765203,0.837292,-0.038137,-0.545425
0.305267,0.201367,0.367414,0.923130,0.253313,-0.289248
0.026528,-0.092528,0.113037,-0.195707,-0.980087,-0.033575
-0.133310,0.037741,0.661464,-0.366248,-0.929045,0.052323
-0.277680,0.600569,0.646059,-0.378922,-0.847683,-0.371284
0.436388,0.170762,0.704564,-0.786636,0.617415,0.001479
-0.061898,0.173010,0.886495,0.806970,0.384802,-0.448025
-0.317333,0.097713,0.709611,-0.125246,0.990586,-0.055259
-0.860476,-0.093629,0.617414,0.930709,0.364463,0.030776
-0.484028,-0.225319,0.592150,-0.752625,-0.649988,-0.105220
0.251953,-0.123867,0.481620,0.972529,-0.222191,-0.069415
0.287943,-0.441301,0.749268,0.575381,-0.816697,0.044076
0.103561,0.816688,0.794704,-0.277572,0.662885,0.695369
0.120265,0.196320,0.601620,-0.246211,-0.782401,0.572040
0.195442,-0.189162,0.925389,0.907298,-0.225058,0.355190
0.437779,-0.396242,0.850514,0.919514,0.199348,-0.338755
-0.388229,-0.483653,0.653053,0.152151,0.866657,-0.475138
0.082885,-0.274646,0.384642,0.750290,0.606007,0.264235
-0.034263,-0.060500,0.424174,0.308273,-0.042693,0.950339
-0.355849,-0.811549,0.651651,-0.660050,-0.440021,-0.608864
0.051072,0.131851,0.877352,-0.220835,-0.975308,-0.002375
0.531621,-0.446349,0.768256,0.934995,-0.347564,0.070600
-0.118308,0.226008,0.887212,0.653400,-0.512898,-0.556780
0.460982,0.018606,0.199860,-0.246043,0.579731,0.776772
0.358839,0.032556,0.821215,0.657964,-0.752934,0.013156
-0.189101,-0.118636,0.834034,0.502689,0.708371,0.495493
0.219265,-0.005896,-0.033224,0.989712,0.042202,-0.136710
0.215035,-0.171771,0.669984,0.662610,0.737307,-0.131626
0.235969,0.458233,0.821791,0.735837,-0.676129,0.037313
-0.256079,0.242389,0.684112,0.896489,-0.152605,0.415955
0.492125,0.629844,0.521199,-0.907923,0.402800,0.115876
0.234887,0.476220,0.803489,0.771235,-0.604792,-0.198556
0.651447,0.484755,0.716729,0.418910,0.904716,0.077481
-0.251387,-0.317411,0.723770,0.872327,-0.247159,-0.421851
-0.183685,0.675958,0.620966,0.860141,-0.151413,0.487064
0.386630,0.446899,0.421340,-0.594125,0.556368,0.580921
-0.177498,0.568495,0.821168,-0.556994,0.829173,-0.047218
0.139550,0.759607,0.715078,0.886480,0.052476,0.459783
0.755293,-0.257714,0.805888,-0.408560,0.028004,0.912302
0.213849,-0.132998,0.062383,-0.682242,-0.730913,-0.017674
0.183222,-0.047698,-0.985966,-0.282206,-0.876624,-0.389731
0.711464,0.016312,0.889673,0.530906,0.704197,0.471429
-0.108354,-0.035079,0.868396,-0.604007,0.230253,-0.762994
-0.128464,0.127767,0.873302,0.003936,-0.971424,0.237318
-0.459743,0.043384,0.522835,-0.399686,0.916160,0.030033
-0.186728,-0.022186,-0.031713,0.511300,-0.857567,0.056138
0.533578,0.097942,0.862025,0.097168,-0.044142,0.994289
-0.475726,0.382339,0.719860,-0.236135,-0.970531,0.048059
0.267474,-0.089086,0.212461,0.996729,-0.011915,0.079929
-0.054681,-0.432767,0.457757,0.873106,-0.367747,0.320075
0.540281,0.828756,0.574704,0.122766,-0.553608,0.823678
0.277992,-0.193337,0.668614,0.874546,0.475533,-0.095068
0.234113,-0.099089,-0.656745,0.831234,0.531408,-0.163264
-0.528939,0.139652,0.577009,-0.923248,0.202789,0.326329
0.461703,0.541469,0.797944,-0.212667,-0.964346,0.157510
-0.056793,0.506275,0.753318,-0.227512,-0.973677,-0.013836
-0.856351,-0.172964,0.613925,0.723433,0.583187,-0.369511
-0.269124,-0.070319,0.360857,0.763296,-0.499667,0.409528
-0.217509,-0.249593,0.641028,0.824283,-0.500351,0.264967
0.754881,0.087664,0.825857,-0.845240,0.171287,0.506192
-0.232102,0.671966,0.641044,0.816257,-0.337488,0.468856
0.672177,0.039943,0.875530,0.651728,0.535509,0.537104
0.077831,0.506871,0.855981,0.790506,-0.582253,-0.189952
-0.269740,0.273958,0.773863,0.922236,0.363012,-0.133049
0.253344,-0.122124,0.286371,0.758421,0.606336,-0.239071
-0.393900,-0.231927,0.533084,0.625797,-0.704472,0.334809
0.345074,0.140707,0.788551,0.987875,-0.115679,-0.103544
-0.293563,0.262532,0.671168,0.045326,0.563601,0.824803
-0.282630,-0.368619,0.735374,0.941079,0.338184,0.001117
0.254172,-0.463280,0.550576,0.574647,0.048744,-0.816949
0.035550,0.270287,0.919907,0.956319,0.289531,0.040327
-0.097887,-0.060041,0.691511,0.763319,-0.546976,0.343747
-0.067572,0.081056,0.896168,0.955561,-0.058621,-0.288905
0.108149,0.310070,0.911994,0.987112,0.128584,-0.095267
0.587924,0.410145,0.833271,0.552305,0.787520,-0.273443
0.204930,0.525455,0.514081,-0.597031,-0.656091,0.461626
-0.081491,0.367059,0.771199,-0.137554,-0.989252,-0.049596
0.018021,0.060591,0.761807,-0.208216,-0.972988,0.099699
0.211891,-0.449148,0.675249,-0.580394,0.323845,-0.747172
0.108303,-0.544681,0.688629,0.202232,0.853189,0.480802
0.293925,-0.691605,0.688053,-0.697945,0.015084,-0.715992
0.485111,-0.499897,0.734533,0.356739,0.916094,0.183052
0.097062,0.569138,0.583365,-0.570755,-0.725454,0.384648
-0.202762,-0.069860,0.302695,0.957574,-0.058111,0.282266
-0.210548,-0.092115,0.839377,0.973501,0.187008,-0.131618
0.729770,-0.122307,0.857134,-0.491730,0.214641,-0.843878
-0.123413,-0.466951,0.681044,0.092694,0.941502,0.324008
0.313415,-0.251245,0.845125,-0.345244,-0.856533,0.383611
0.074379,0.261385,0.907679,0.952350,-0.057538,0.299530
0.260047,-0.115562,0.103240,-0.261963,0.960818,-0.090577
0.190646,-0.068208,-0.859735,-0.163646,0.982260,0.091576
0.206117,-0.249317,0.895078,0.764423,0.597698,0.241690
-0.097528,0.294101,0.552788,0.930928,0.317553,0.180370
0.004615,0.038980,0.838146,0.950442,0.310903,-0.000440
0.455620,0.159336,0.882664,-0.733580,0.661301,-0.156654
-0.276497,0.313603,0.739065,-0.505713,-0.776119,-0.376689
0.006472,0.716659,0.699642,-0.387655,-0.780859,0.489881
-0.962516,-0.127171,0.595094,-0.021342,0.440637,0.897431
-0.192298,0.111754,0.773380,0.565945,0.090004,0.819515
0.153627,-0.006263,-0.125296,0.904809,-0.420097,-0.069565
0.247056,-0.081469,0.909393,-0.551105,0.821430,-0.146754
0.312433,-0.697983,0.583333,0.847173,-0.464910,-0.257208
0.232567,0.431711,0.444984,-0.002257,-0.816290,0.577638
-0.398901,0.629293,0.759470,0.903492,0.295691,0.310272
0.375339,0.404731,0.430109,-0.675451,0.712493,0.190055
0.141508,0.025306,0.561682,0.805434,-0.250564,0.537117
0.155122,-0.112625,-0.047944,-0.672568,0.569345,0.472756
0.241023,-0.659761,0.689112,0.782355,0.171442,0.598772
0.229937,-0.083993,0.112243,0.312265,-0.931047,0.188788
0.128567,-0.328378,0.702492,-0.807773,0.585359,-0.069691
-0.210189,0.694450,0.653738,0.852038,-0.051589,0.520932
0.019774,-0.373253,0.769907,-0.796769,0.600343,0.068904
0.061642,0.297818,0.912960,0.837232,-0.057898,0.543774
-0.154452,-0.064951,0.300997,0.764795,-0.586472,0.266720
0.389416,0.257347,0.427336,0.831595,-0.494649,-0.252531
0.324344,-0.393351,0.832181,-0.222170,-0.025208,0.974682
-0.112946,-0.406658,0.662025,-0.605940,0.699787,0.378332
0.137798,-0.444743,0.820467,0.625533,-0.780164,-0.007170
0.434273,0.154381,0.654486,-0.037562,0.876163,-0.480549
-0.120215,-0.049074,0.299159,-0.461291,0.869743,-0.175379
0.179096,-0.098171,0.481713,-0.749524,-0.661273,0.030525
-0.615149,-0.307683,0.603910,0.023726,-0.232108,-0.972401
0.888217,0.718219,0.856184,-0.463389,-0.874225,-0.144920
0.502901,-0.437860,0.709907,0.913549,-0.374051,-0.159732
0.613034,0.861014,0.637757,0.529499,0.774060,-0.347077
0.291810,-0.244867,0.955561,-0.789101,0.278027,0.547741
0.269227,-0.488150,0.842632,0.964378,0.262994,-0.028459
0.444999,-0.342740,0.889019,0.925820,0.371491,0.069649
0.229266,-0.246381,0.847212,-0.262254,0.964905,-0.013457
-0.298926,0.370133,0.744673,0.718746,0.523668,-0.457357
0.365492,0.078120,0.595810,0.965457,-0.211091,-0.152751
0.186574,-0.706013,0.569470,-0.329515,0.870941,0.364529
0.299442,-0.824535,0.725047,-0.306617,0.791276,-0.529026
-0.165690,0.481772,0.577617,0.968619,-0.217018,0.121160
0.009257,-0.674903,0.646947,0.726733,-0.456462,-0.513325
0.062209,-0.429601,0.862819,0.687818,0.722250,-0.072532
0.037615,0.043935,0.755498,-0.305272,-0.945416,-0.114007
-0.346311,-0.250878,0.511885,0.478764,-0.601843,0.639194
0.010752,-0.307087,0.768271,0.502111,-0.544739,0.671672
-0.274278,-0.338151,0.723816,-0.425636,0.684407,0.591963
0.674442,-0.065822,0.863520,0.240105,-0.963051,-0.121989
0.041583,-0.497740,0.780794,0.966790,-0.214831,-0.138433
0.437571,0.522105,0.761215,-0.515084,0.856454,-0.034288
-0.169765,0.765435,0.747601,0.552364,0.833107,-0.028766
-0.720178,-0.013972,0.492804,0.297637,0.932830,0.203076
0.469901,0.498153,0.582710,0.436812,0.202242,-0.876523
0.122431,0.352192,0.382913,0.754457,0.654094,-0.054362
-0.235145,0.664992,0.695748,0.826686,0.058310,-0.559634
0.049369,0.317732,0.877072,0.767387,-0.395865,-0.504388
-0.065819,-0.453828,0.838115,0.058608,-0.957699,0.281742
0.101962,-0.039805,0.597414,0.890320,0.257859,0.375286
-0.233855,-0.045771,0.336947,-0.507564,-0.838853,-0.196732
-0.256800,-0.777044,0.624517,0.576018,0.816809,0.032043
0.353426,0.200587,0.758411,0.683527,-0.600130,-0.415495
-0.590914,-0.540000,0.704424,-0.562126,-0.818816,-0.116423
-0.393692,-0.274417,0.573972,-0.567681,-0.749941,-0.339598
0.267474,0.307454,0.429798,-0.389207,-0.479318,0.786621
0.106913,0.432308,0.859143,0.396061,0.861035,-0.318989
-0.771739,0.071558,0.603224,-0.810782,0.458479,0.363909
0.042719,-0.694909,0.665826,0.857070,0.474290,-0.201196
-0.029725,0.714227,0.800935,0.832152,-0.241002,-0.499442
-0.628140,-0.027875,0.468442,0.460327,0.809865,0.363618
0.249530,-0.040264,-0.998879,0.418637,0.309261,0.853874
-0.054112,0.561934,0.687430,0.901002,0.305457,0.308045
0.377554,0.447588,0.428660,-0.677208,0.734943,0.035328
0.089742,0.400876,0.530421,0.718963,0.525985,-0.454348
0.197557,-0.305022,0.967150,0.940335,0.085121,-0.329430
0.226585,-0.088581,0.160841,-0.370310,0.857350,0.357520
0.129187,-0.115241,-0.805919,0.785672,-0.617861,-0.031107
0.085000,0.666552,0.628785,-0.620412,0.779587,-0.085635
-0.023897,-0.670682,0.702991,0.627228,0.361736,-0.689733
-0.409730,-0.555280,0.709829,0.063496,-0.715136,0.696095
0.254996,-0.495721,0.805296,0.980728,-0.184263,0.064956
0.142078,-0.368206,0.683411,0.879197,0.317774,0.355012
0.221584,-0.114277,-0.812274,0.636041,0.743383,-0.206964
-0.716002,-0.083534,0.619159,0.327439,-0.772048,-0.544726
0.085308,-0.180123,0.248832,0.892001,0.419156,0.169242
0.168217,-0.220364,0.169128,-0.574250,0.805559,0.145985
0.208178,-0.813476,0.659642,0.276701,-0.952014,-0.130786
0.099847,0.024709,0.571246,0.925344,-0.070698,0.372479
-0.098815,0.365820,0.396433,-0.269412,0.937780,0.219057
0.184871,-0.113222,0.016620,-0.529797,-0.755891,-0.384635
0.458817,0.674077,0.701402,0.687635,0.241860,-0.684589
0.184459,-0.109276,-0.324128,0.125308,0.974216,-0.187620
-0.579984,-0.484755,0.555592,0.633975,0.531601,0.561672
0.191574,0.811274,0.736511,0.514094,0.534923,-0.670496
-0.349558,-0.140707,0.385763,-0.446899,-0.428924,-0.785051
0.027302,-0.143736,-0.038910,-0.129923,0.976041,0.174537
0.445099,0.572028,0.509003,-0.708849,0.676787,-0.198726
0.243755,-0.541239,0.814502,0.437420,-0.873798,-0.212463
0.318157,0.107807,0.913396,0.884261,-0.448094,0.131510
0.008791,0.423452,0.589393,0.863822,0.237243,-0.444440
0.122484,-0.028655,0.574673,0.936390,0.126418,0.327403
0.173321,0.781127,0.705919,0.952591,-0.116865,0.280915
0.081749,0.173331,0.831963,0.783525,-0.583044,0.214820
-0.224624,0.581572,0.665452,-0.016900,0.963067,0.268732
0.441131,0.583454,0.700654,0.974485,0.146790,0.169799
-0.057309,0.529034,0.548816,-0.137767,-0.968427,0.207772
-0.236486,-0.491729,0.745047,0.343195,0.780515,-0.522507
0.192760,-0.053296,-0.425779,-0.550021,-0.834036,-0.043142
-0.673980,-0.320027,0.601511,-0.353698,-0.360370,-0.863152
-0.168012,0.476449,0.586885,0.982912,-0.184047,0.003144
0.633918,0.890105,0.714393,0.779788,0.604179,0.164005
-0.386992,0.347328,0.638380,-0.479454,0.226974,-0.847707
0.292015,0.206094,0.909128,-0.607986,0.393868,0.689362
0.250096,-0.432813,0.543660,-0.297264,-0.056345,0.953131
0.676353,0.652328,0.829237,-0.232184,0.971292,-0.051795
0.231485,-0.114277,0.224548,0.754850,-0.627456,0.191053
0.538220,0.171542,0.862274,-0.235273,-0.440901,0.866171
-0.824229,0.012595,0.609798,0.079553,-0.996808,0.006675
-0.271185,-0.375685,0.744689,0.820278,0.560620,-0.113355
0.127277,0.772593,0.658645,0.901550,0.139545,0.409553
0.393126,-0.736114,0.675810,0.851726,-0.199692,-0.484443
0.461445,-0.510634,0.782134,0.730881,0.154120,-0.664876
0.270826,-0.301443,0.668411,-0.648483,0.624403,0.435420
-0.317437,0.569000,0.717181,0.765114,-0.430785,0.478566
-0.162650,-0.393902,0.614798,0.068690,-0.767797,0.637000
0.271751,-0.202560,0.796745,-0.073341,0.997168,0.016623
0.499445,0.902127,0.592928,0.832090,0.025797,0.554041
0.533735,0.362103,0.501449,-0.688474,-0.581576,0.433328
-0.418340,0.412715,0.728816,-0.328498,0.913188,0.241199
-0.925032,-0.038612,0.654268,-0.570130,0.818700,-0.068426
0.022764,-0.280474,0.889595,0.930256,-0.151011,0.334394
0.174974,-0.062060,-0.653162,-0.390369,0.919823,-0.039220
0.301607,-0.328699,0.673162,0.798195,-0.526245,-0.293172
0.005131,0.539220,0.534361,0.040823,0.939899,-0.339003
-0.085154,0.597586,0.689424,0.915447,0.330345,0.229847
0.212096,-0.214169,0.823707,0.803369,-0.584589,-0.113370
0.276289,-0.178195,0.853551,0.987798,0.119304,0.100110
0.715694,0.084957,0.812337,0.797777,-0.602030,-0.033337
0.442729,-0.467456,0.743988,0.560938,-0.016197,0.827700
0.058908,0.306353,0.522477,-0.015802,-0.136201,0.990555
0.612056,0.908092,0.639579,0.491618,0.834169,-0.249948
0.256954,0.703306,0.631776,0.786877,0.466154,-0.404384
-0.131765,-0.029160,0.293614,-0.219671,0.898382,-0.380335
-0.504654,-0.445477,0.556854,-0.551418,0.137092,-0.822888
0.982056,0.543947,0.838801,0.974366,-0.116467,0.192475
0.149139,-0.433547,0.780452,-0.366868,0.924862,0.100191
-0.211064,-0.686925,0.549470,-0.959765,0.093023,-0.264948
-0.388846,-0.535458,0.720935,0.090170,0.552628,0.828536
0.158886,-0.022644,0.545125,0.909815,-0.102351,0.402195
0.258861,-0.672655,0.529470,-0.773553,0.441724,0.454418
-0.286294,0.091426,0.691199,0.704713,0.515484,0.487500
0.372038,0.150114,0.871994,0.096408,0.964593,0.245491
0.223183,-0.094134,-0.039174,0.865290,0.492859,-0.091444
0.224265,0.065731,0.388100,0.600759,0.797617,0.053811
0.146304,-0.411430,0.863551,-0.671884,-0.592680,-0.444187
-0.356312,-0.599835,0.614408,0.693156,0.523961,0.494975
0.212045,0.373712,0.707118,-0.064118,-0.761709,0.644739
-0.523473,-0.066648,0.437586,0.719247,0.488848,0.493671
0.219365,0.732489,0.653302,0.027035,0.960571,-0.276718
-0.030084,-0.090004,0.519252,-0.652725,-0.503887,0.565728
-0.153678,-0.777089,0.678505,-0.651499,0.380427,-0.656372
-0.418548,-0.763966,0.656324,0.908338,0.326175,0.261787
0.172393,-0.039851,-0.267819,0.757603,0.647769,-0.080212
0.098095,0.354165,0.432041,0.990162,0.003359,0.139887
0.089330,-0.030261,0.694720,-0.458511,0.876778,-0.145009
0.967208,0.617730,0.816729,0.915288,0.291608,-0.277872
0.079225,-0.125657,-0.233318,0.754978,0.026452,0.655217
0.145788,-0.043384,-0.308598,-0.096475,0.978825,0.180540
0.593390,-0.362470,0.796947,0.358683,-0.918375,0.167133
0.635721,-0.169707,0.811838,0.749563,0.661929,0.002217
0.186111,-0.865602,0.635623,0.954454,-0.055417,0.293166
0.234733,-0.804208,0.614657,0.886693,-0.448557,0.112127
-0.448709,-0.464244,0.708427,0.975989,-0.190576,0.105482
0.180799,-0.018515,-0.161963,0.834888,0.549161,-0.037211
-0.414938,0.371510,0.692041,0.962414,0.202849,-0.180588
-0.027406,0.011999,0.715047,0.780205,-0.549461,0.298954
0.590760,0.367655,0.824097,-0.685431,-0.689847,0.233013
0.709041,0.695093,0.796511,0.903003,-0.428412,0.032374
0.597567,-0.141808,0.787944,0.846222,0.379017,-0.374506
-0.345537,0.663753,0.661231,-0.642538,-0.102083,-0.759424
0.163424,-0.152362,0.149642,0.595953,-0.802347,-0.032863
0.312537,-0.596164,0.551059,0.762471,-0.270573,-0.587731
-0.124442,-0.342923,0.559143,0.846165,0.379488,0.374157
0.146254,-0.116847,-0.501262,0.847363,0.503911,-0.167483
0.231843,-0.522426,0.628178,0.827502,0.552499,-0.099927
-0.402976,0.342143,0.699642,0.543233,0.818268,-0.187976
0.178995,-0.159749,0.782726,0.675463,0.735967,0.045846
0.252520,-0.187739,0.732087,0.666455,0.726917,-0.165616
0.179716,0.039347,0.015701,-0.321441,0.946885,-0.009168
-0.093711,0.201826,0.870016,0.812982,0.543500,-0.208967
0.684755,0.019157,0.816713,0.062396,0.267309,0.961589
0.387301,-0.798197,0.735452,-0.579882,0.802503,0.140449
0.562506,0.228073,0.861246,0.952948,-0.176879,-0.246177
-0.148882,-0.614197,0.601822,-0.527320,-0.714565,-0.459707
0.146458,-0.328148,0.694143,0.960692,-0.204986,0.187218
0.543633,0.210131,0.802134,0.650900,0.712775,-0.261308
0.277271,-0.260192,0.900779,0.428910,-0.610257,-0.666050
0.346515,-0.453002,0.791636,0.865027,-0.000628,0.501725
0.624638,0.321403,0.809704,0.775509,0.540440,-0.326358
0.302690,-0.271939,0.928832,0.514153,-0.822483,0.243247
0.076594,0.861885,0.755981,0.061725,0.962527,0.264067
0.054835,0.315805,0.793754,-0.006149,0.408838,0.912586
0.941374,0.515819,0.813629,0.959642,-0.249213,-0.130307
-0.095826,-0.761030,0.682181,-0.397500,0.890428,-0.221657
0.173734,-0.122537,0.035794,-0.602046,-0.797503,0.039109
-0.625771,-0.227201,0.459486,-0.794559,0.145538,-0.589486
0.238031,0.053433,0.861277,0.484937,-0.861449,0.150804
-0.053495,-0.089683,0.181682,-0.529213,-0.809096,-0.255532
0.470209,0.228164,0.835935,-0.390683,0.815780,0.426462
-0.893476,-0.020947,0.611231,-0.763298,0.637458,0.104991
0.172034,-0.828252,0.651168,0.905196,-0.301858,0.299171
0.591638,0.888637,0.792492,0.686890,-0.481102,0.544723
-0.435148,-0.006309,0.449673,-0.419020,0.786504,-0.453690
0.178067,-0.083626,-0.702227,0.932081,-0.318892,0.171849
-0.215189,0.053479,0.901963,-0.100426,0.950926,0.292669
0.024054,-0.738408,0.673785,-0.305404,0.836365,0.455217
-0.018793,0.043752,0.722664,-0.185083,0.960452,-0.208029
0.298872,-0.074954,-0.997788,0.133097,0.309147,0.941655
-0.163628,-0.138688,0.904844,-0.431250,-0.539124,0.723442
0.174920,-0.321633,0.552695,-0.455118,-0.275804,-0.846640
0.728996,0.007365,0.862477,0.771863,0.521599,0.363541
-0.402718,0.071742,0.639252,-0.355695,0.904815,-0.234076
0.279383,-0.187785,0.528738,-0.646058,0.759262,0.078297
0.481554,-0.386468,0.717866,-0.660857,0.511922,0.548820
-0.312329,-0.079817,0.404190,0.777764,0.154731,-0.609213
-0.571682,-0.072155,0.542103,0.196633,-0.949532,0.244385
-0.130062,-0.493565,0.495779,0.919856,-0.308231,0.242607
0.412874,0.104595,0.857928,0.883755,0.257225,-0.390913
-0.093453,0.411889,0.838115,-0.560871,0.564853,0.605281
-0.052463,-0.366738,0.785296,0.914798,-0.397635,-0.070938
0.197402,-0.229403,0.940670,0.774642,-0.623614,-0.105046
-0.089123,-0.423727,0.778037,0.992505,0.118459,0.030016
0.352085,-0.744649,0.637321,0.160647,0.854112,0.494657
0.149243,0.433868,0.790888,0.794940,-0.496739,0.348312
0.181211,-0.423911,0.426729,0.905527,0.420098,0.059483
0.248756,0.468374,0.797243,0.752931,-0.645564,-0.127835
0.269381,-0.479157,0.762539,-0.610636,0.696310,0.377194
0.330273,0.101429,0.866511,0.384630,-0.580874,0.717387
0.807213,-0.218161,0.801059,-0.141636,-0.692690,0.707192
-0.018742,-0.741345,0.702508,-0.395122,0.242342,-0.886086
0.283971,0.208617,0.364393,0.830843,0.336412,-0.443313
-0.094589,-0.427995,0.473193,0.828660,-0.526471,0.190136
0.052463,0.121206,0.857944,-0.023022,-0.975115,0.220503
-0.540281,-0.028609,0.566947,-0.628454,-0.777835,0.004357
0.780453,-0.125611,0.835467,0.537563,0.736907,0.409871
-0.411895,0.067245,0.530670,0.444016,-0.895978,-0.008536
0.310321,-0.670085,0.565810,0.847242,-0.276300,-0.453694
0.168424,-0.162916,1.000000,0.818621,-0.499768,0.283006
-0.403851,-0.317365,0.608801,0.941170,0.295255,-0.164391
0.408905,-0.305389,0.831745,0.984059,0.105459,-0.143198
0.040450,0.760296,0.785498,-0.396110,0.874980,-0.278402
0.150584,0.581205,0.534782,-0.503976,0.497679,-0.705920
-0.104077,0.613004,0.591511,0.160366,0.952648,-0.258352
-0.109902,-0.113130,0.688629,-0.751571,0.477966,-0.454631
-0.410400,-0.228899,0.743801,0.796491,0.602961,-0.045179
0.310733,-0.198660,0.855156,0.617943,0.528520,0.582076
0.173321,0.113681,0.529050,0.698069,0.708359,-0.104536
0.128051,-0.071742,-0.354704,-0.301234,0.950347,-0.078090
0.122122,-0.215454,-0.985327,0.527665,0.665513,-0.527885
0.029263,0.062473,0.736059,0.157526,0.983939,-0.083960
0.131869,-0.050451,-0.294315,0.250126,0.966488,-0.057774
-0.007863,0.036961,0.732695,0.041123,0.981079,-0.189191
0.213798,0.201046,0.240218,0.654600,0.658131,-0.371971
0.879966,0.444284,0.895140,0.714848,0.677169,0.174454
0.512285,0.251061,0.918084,0.847409,-0.530827,-0.010955
0.003224,0.048937,0.748022,0.301375,0.915294,-0.267228
-0.198639,-0.055223,0.878396,0.894385,-0.169016,0.414137
0.593029,0.429601,0.597305,-0.683261,0.401482,0.609890
-0.025650,0.008558,0.734455,0.909502,-0.385928,-0.154487
-0.229213,-0.157868,0.356059,0.213640,0.728837,0.650503
-0.584160,-0.135706,0.470888,0.141018,-0.107701,0.984131
-0.119287,-0.360681,0.573115,0.925997,0.329682,0.183954
0.335327,-0.126391,-0.990966,0.384058,0.276055,0.881075
0.138056,0.769748,0.654564,0.055111,-0.851575,0.521328
-0.270823,0.681281,0.704704,0.133902,0.812574,0.567269
0.034779,-0.329295,0.815327,0.942025,-0.075647,0.326905
0.492280,0.009659,0.222648,-0.246043,0.579731,0.776772
-0.528886,-0.382476,0.574704,0.697447,-0.212164,0.684510
0.534506,0.631312,0.693707,0.709532,-0.390247,0.586747
-0.080408,-0.374951,0.510062,0.970159,-0.104192,0.218944
0.004511,-0.008420,0.634642,-0.376517,-0.926111,-0.023509
0.389519,0.090876,0.932305,-0.713798,0.687255,0.134809
0.165227,0.289467,0.426199,0.058296,-0.799856,0.597355
0.167546,0.020488,-0.043816,0.984598,0.121742,0.125485
-0.603804,0.033382,0.581246,-0.278325,-0.936132,-0.214924
0.180232,-0.537431,0.528146,0.809143,0.479110,-0.340208
0.135271,0.348659,0.551729,-0.501236,0.820827,-0.273873
0.183480,0.316080,0.510919,-0.327441,0.944507,-0.026228
0.269794,-0.205681,0.894844,-0.597817,-0.155541,-0.786398
-0.061485,0.141074,0.846418,0.769972,0.545200,0.331512
-0.208486,-0.494345,0.710966,0.877458,0.376781,-0.296824
-0.851454,0.011265,0.605794,0.544659,-0.835812,0.069033
0.000335,-0.164934,-0.014424,0.273546,0.923008,0.270609
0.392818,0.063666,0.653738,0.783642,-0.593755,-0.182646
0.255150,0.099594,0.934657,0.869393,-0.492334,-0.041990
0.453555,0.004933,0.893801,0.390529,-0.908802,0.146853
0.179200,-0.072935,0.010530,0.534522,0.777006,0.332488
0.070715,0.501365,0.849735,0.782201,-0.434030,-0.446966
0.152544,-0.141395,0.988458,-0.709339,0.645981,-0.282042
0.107995,0.414917,0.440125,0.985561,0.166133,-0.032710
-0.072676,0.006447,0.654502,0.137680,0.738102,0.660492
0.177705,0.827976,0.704330,0.904599,-0.078675,0.418939
0.642116,0.010209,0.822741,0.768830,0.539112,-0.343887
0.861609,0.353202,0.855794,0.895071,-0.307620,0.322828
-0.027406,0.467181,0.908411,0.840371,0.200252,0.503662
0.051896,-0.029665,0.613053,0.827217,0.206873,0.522414
-0.498054,0.022782,0.679517,-0.587338,0.597226,-0.546219
0.567506,0.029389,0.774860,-0.657946,-0.480975,0.579456
0.415762,-0.034666,0.603287,0.797494,0.565383,-0.210583
-0.365388,-0.192420,0.534626,0.479420,-0.813280,0.329746
0.223029,0.730975,0.729112,0.062045,-0.575116,0.815715
0.224782,-0.238810,0.832477,0.458331,-0.868938,-0.186761
0.170486,0.441806,0.622960,0.880383,0.057098,-0.470813
0.226689,0.069218,0.558115,-0.052379,-0.990264,0.128975
-0.122226,-0.033290,0.840452,-0.449380,-0.781936,0.432011
0.403388,-0.368481,0.762991,-0.550964,0.635465,0.540947
0.003533,-0.071420,0.114190,-0.811728,0.528202,-0.249199
-0.131557,-0.092803,0.806620,0.756554,0.611903,0.230654
-0.473973,0.037924,0.538037,-0.623734,0.781308,0.022677
0.010236,-0.369674,0.832601,0.947868,-0.316113,-0.040228
0.250974,0.068897,0.897788,0.828608,0.251161,-0.500327
0.341877,0.012963,0.533006,0.905207,0.262308,-0.334358
-0.008996,-0.357561,0.477928,0.763140,-0.645169,0.037064
0.143264,0.546929,0.792399,0.970140,-0.114495,-0.213819
0.240765,0.083442,0.559377,0.254447,0.964768,0.066936
0.622935,-0.165990,0.799611,0.748558,0.660257,-0.061012
-0.409988,-0.718127,0.667773,-0.079592,0.015969,0.996700
-0.593545,-0.013880,0.623598,0.409575,-0.875494,0.256435
-0.728014,0.139468,0.640389,0.907201,0.179645,-0.380413
-0.067056,0.110469,-0.066355,0.526299,-0.838008,0.144052
0.158832,0.452038,0.790374,-0.654745,-0.441973,-0.613162
0.568589,0.282814,0.851963,0.759386,-0.020156,0.650328
0.144605,0.180123,0.579657,0.850060,-0.500710,0.163363
0.227513,0.120518,0.165280,0.653055,0.754586,0.064178
0.065611,0.378347,0.830389,0.583790,0.388867,0.712721
0.068654,0.248950,0.908988,0.936429,-0.042875,0.348229
-0.430972,-0.558355,0.661822,0.679350,0.675988,0.285524
0.402306,0.124739,0.871137,0.737311,0.674958,-0.028345
0.126865,-0.166678,0.206324,0.819625,0.554257,0.144962
-0.169712,-0.214582,0.682835,0.818027,0.331248,-0.470220
-0.087835,0.188336,0.858411,0.704289,0.646158,0.294034
0.611798,0.161998,0.551293,-0.551995,0.816711,-0.168180
0.056742,0.302361,0.916153,0.976368,-0.030906,0.213891
-0.006419,0.113864,0.836932,-0.411028,-0.424230,-0.806898
0.120627,-0.247023,0.967586,0.932847,0.328340,-0.148288
0.414784,0.010209,0.911355,0.693277,-0.290462,0.659544
0.184562,0.889554,0.716776,-0.029822,-0.643714,0.764685
-0.251900,0.684723,0.706122,0.157648,0.845369,0.510391
0.030962,-0.498107,0.798489,-0.399365,0.904019,-0.152505
-0.219520,0.309702,0.727773,0.342527,-0.923583,-0.172250
0.171156,-0.281621,0.947352,0.770773,-0.607452,0.192121
0.089484,0.455755,0.863224,0.906574,-0.202774,-0.370144
-0.021732,0.007089,-0.147975,0.783135,-0.393510,0.481507
0.581325,-0.105375,0.687913,-0.612251,-0.761782,0.211747
-0.400758,-0.540964,0.670997,-0.634540,-0.535739,0.557084
-0.447214,-0.252071,0.568069,-0.790842,-0.544789,-0.278878
0.098560,0.101934,0.890125,-0.554578,-0.028263,-0.831652
0.328162,0.189621,0.463879,0.437528,-0.734173,-0.519191
-0.265718,-0.695184,0.573816,-0.680300,0.704631,-0.201710
0.462889,0.174846,0.671371,0.677449,0.622118,-0.392468
0.249942,-0.207332,0.528801,-0.201176,-0.071136,0.976969
-0.393642,0.202882,0.755327,-0.375380,0.047739,0.925641
0.346723,0.198247,0.931682,-0.630784,0.750132,0.198526
0.021219,-0.373804,0.901059,0.929393,0.346176,0.128027
-0.320168,-0.231514,0.723146,-0.026679,-0.981793,0.188074
0.205755,0.771446,0.728224,-0.283587,-0.478223,0.831193
-0.017660,0.401702,0.911838,0.893206,0.413240,-0.177243
0.226997,-0.122812,-0.496713,0.955623,-0.063595,-0.287646
0.169403,-0.026361,-0.030109,0.993790,-0.086494,0.069995
0.233080,-0.127951,0.192523,-0.522970,0.841386,0.136281
0.137436,0.337784,0.820966,-0.599295,-0.196709,-0.775984
0.114078,0.436300,0.811137,0.055029,0.779365,0.624149
0.520175,0.385184,0.562508,0.581205,-0.764454,0.278946
-0.225449,-0.056186,0.838972,0.846783,-0.252030,-0.468443
-0.242518,-0.104091,0.728629,0.729898,0.363734,0.578745
0.265772,-0.241609,0.579922,-0.762798,-0.574369,-0.297052
-0.403747,0.256384,0.683053,0.960270,0.278853,-0.011073
0.208899,0.777824,0.726184,-0.497579,0.185667,0.847315
0.330739,0.451901,0.568458,0.038691,-0.059359,0.997487
0.161205,-0.202927,-0.978785,-0.016944,-0.766527,0.641989
0.191266,0.036456,0.035514,0.989504,0.075356,0.123303
0.420093,0.174157,0.842150,0.625163,-0.755044,-0.197685
0.406636,-0.766903,0.727523,0.708454,-0.537167,-0.457762
-0.164865,-0.407484,0.697679,0.851793,0.161972,-0.498210
0.428445,0.639021,0.703411,-0.296773,0.264744,0.917516
0.233650,0.709271,0.682664,-0.536991,0.779106,0.323473
0.424993,-0.738500,0.671215,0.908020,-0.258963,-0.329300
0.380185,-0.213665,0.864128,-0.264151,0.964327,-0.017225
-0.171364,-0.076055,0.820670,0.627058,-0.163277,0.761668
-0.107117,-0.445569,0.611075,0.057647,-0.979138,0.194848
-0.329707,0.309335,0.706184,0.243071,0.959715,0.140938
0.151204,-0.354119,0.551745,0.414751,0.660056,0.626345
-0.169042,0.255512,0.801838,-0.444611,0.310865,-0.840050
0.610249,0.452864,0.618847,-0.478184,-0.438636,-0.760880
-0.721415,0.139514,0.649408,0.966637,-0.225056,0.122322
0.465105,0.677519,0.702399,0.885688,-0.070317,-0.458925
0.223029,-0.119233,0.020093,-0.483356,-0.800966,-0.353299
0.133672,-0.147911,-0.249252,-0.890880,0.292526,-0.347508
0.072264,0.426067,0.822383,-0.877356,0.426540,-0.219795
0.370439,-0.756579,0.641386,0.900486,0.018641,-0.434486
0.359201,-0.250281,0.764065,0.767087,0.505923,-0.394486
-0.967413,-0.128089,0.596713,-0.021342,0.440637,0.897431
-0.396169,-0.802969,0.687368,0.999117,0.016680,0.038572
-0.308310,-0.309978,0.749673,-0.485512,-0.860957,-0.151761
-0.303565,-0.020167,0.394844,-0.432535,0.815626,-0.384276
-0.234833,-0.073806,0.341978,-0.352625,-0.885413,-0.302820
0.367399,-0.038750,0.580950,0.432083,0.895943,0.102906
0.187193,0.523298,0.839642,-0.171172,0.451343,0.875780
0.736936,0.742492,0.799377,0.134347,0.977292,-0.163864
0.017298,0.450570,0.609346,-0.341486,-0.366399,0.865528
0.323211,0.585886,0.863069,0.817415,-0.558288,-0.141941
-0.201267,-0.034391,0.726168,0.405674,0.074992,0.910936
-0.047358,-0.395600,0.767695,-0.485066,-0.757135,0.437558
-0.270052,-0.284420,0.704579,-0.506628,-0.778818,-0.369826
0.238342,0.173286,0.302087,0.349665,-0.932742,-0.087905
0.139705,-0.468328,0.655109,-0.790808,-0.366218,-0.490415
-0.039210,-0.370959,0.481885,0.999422,0.015585,0.030201
0.208694,-0.065088,-0.536635,-0.116528,0.990152,0.077588
0.440873,0.429188,0.424953,-0.622978,0.782182,0.009499
-0.006060,-0.328791,0.927617,0.980855,-0.169825,-0.095301
0.358272,0.103632,0.917539,-0.552292,0.733887,0.395453
0.722035,0.036089,0.809907,-0.776248,0.538469,0.327856
0.177397,0.168789,0.250748,0.928097,0.348399,-0.131352
0.969993,0.573221,0.809206,0.944400,0.050100,-0.324961
-0.252882,-0.092941,0.856449,0.953870,0.147885,0.261270
-0.052205,-0.354808,0.492414,0.931079,-0.251130,0.264624
-0.584623,-0.238856,0.643006,-0.259442,0.964595,0.047394
0.232876,0.159749,0.909533,0.833768,-0.256601,-0.488862
0.254892,-0.055498,-0.736947,0.977927,0.193179,-0.079629
0.446440,0.370913,0.496137,-0.302331,-0.949697,-0.081676
0.313002,-0.258449,0.928941,-0.351845,0.816157,-0.458359
-0.228542,-0.740978,0.684564,0.216690,0.898048,0.382825
0.321613,-0.097850,0.765483,0.896207,-0.312721,-0.314673
-0.066848,0.132402,-0.094143,0.646705,-0.642553,0.410973
-0.160072,-0.409549,0.641932,0.956676,-0.219422,0.191376
0.059270,0.278225,0.929938,0.998284,-0.035681,0.046434
0.026994,-0.456489,0.766153,0.963677,-0.184659,0.192944
0.212920,-0.103907,-0.759268,0.981379,0.154915,-0.113561
0.848977,0.094684,0.747913,0.611564,-0.788325,-0.067339
0.240765,-0.122995,0.879502,0.744686,0.626143,0.231058
-0.895795,-0.050084,0.617804,0.982704,-0.182814,0.029530
0.273866,-0.850827,0.673816,0.171291,0.900348,-0.400041
0.321871,-0.300112,0.651137,0.807973,0.588303,0.032860
0.239579,-0.087343,0.497383,-0.702655,-0.644243,0.302037
0.667639,-0.170854,0.888427,0.938404,0.341036,0.055606
-0.795251,0.153234,0.622336,-0.263052,0.823297,-0.502977
0.417412,-0.521188,0.781106,-0.606373,-0.044552,0.793932
0.535797,-0.388900,0.711168,-0.521830,0.810625,-0.265669
-0.018742,0.910432,0.702134,-0.487708,0.871772,0.046409
0.218233,0.487600,0.843614,-0.501760,0.857992,-0.109941
0.209106,0.031776,-0.077336,-0.792668,0.603704,-0.084970
0.209569,-0.198568,0.609361,0.978914,0.010799,0.203988
0.539353,0.358937,0.498770,0.589700,0.610945,-0.528205
0.415504,-0.463418,0.743505,0.305618,-0.643488,0.701798
0.177139,0.163925,0.592586,0.991616,-0.060969,0.113933
0.685684,-0.003786,0.824486,0.137404,0.888337,0.438151
-0.083451,0.337050,0.758754,-0.455903,-0.881461,0.123204
0.503725,-0.071329,0.670452,0.866162,0.446886,-0.223731
0.224782,-0.167733,0.598474,0.583127,-0.803359,0.120737
0.130578,-0.114277,-0.111947,0.303726,-0.929616,-0.208721
0.639539,0.846193,0.716184,0.817597,0.513486,0.260512
-0.481709,0.088765,0.611464,0.486894,-0.818958,0.303715
0.396119,-0.355266,0.751760,-0.460532,0.883951,0.080880
-0.429682,-0.847019,0.677056,0.941438,0.142890,0.305413
0.058392,-0.343153,0.791090,0.998692,0.004915,-0.050889
-0.400345,-0.792599,0.691667,0.962829,-0.268567,-0.028862
0.082989,0.394911,0.811199,0.001656,0.998023,0.062832
0.146716,-0.209627,0.974735,-0.878208,0.470095,-0.088099
-0.388745,-0.227751,0.784455,0.773160,0.548491,-0.318404
0.202145,0.116939,0.114751,-0.794134,-0.606815,0.033558
0.013379,-0.504669,0.822804,-0.101574,-0.966622,0.235212
0.409780,0.458187,0.737274,0.800295,-0.592201,0.093949
0.143418,-0.084589,-0.683364,0.887261,-0.355582,0.293820
0.558122,0.537569,0.656729,-0.357810,0.295034,0.885961
0.346311,-0.459839,0.812991,-0.181647,-0.983094,0.023026
0.053957,0.040448,0.737664,0.149615,0.988397,-0.026218
0.352857,0.267350,0.415452,0.909077,-0.210241,-0.359690
-0.047770,0.591254,0.654595,0.982090,0.095325,-0.162516
0.175644,0.009934,-0.106542,0.974653,0.159047,-0.157337
0.069324,0.286163,0.811636,0.094997,-0.881584,-0.462369
0.325839,-0.258540,0.913209,0.085148,-0.996033,0.025861
-0.000127,-0.329020,0.392570,0.371126,0.773083,0.514401
-0.278609,-0.012228,0.782586,0.811020,-0.541699,-0.220925
0.136611,0.874504,0.734346,0.434662,0.702297,0.563780
-0.009049,-0.419139,0.820545,-0.637514,0.744099,-0.199730
-0.120832,0.668158,0.784065,-0.201269,0.856669,0.474983
0.211684,-0.084681,-0.180966,0.864091,0.467931,-0.185440
-0.139809,-0.133136,0.805794,0.438808,-0.726263,0.529140
0.019567,0.804070,0.779673,-0.264454,0.934143,0.239667
-0.109594,-0.718035,0.682570,0.194888,-0.073513,0.978067
0.386785,-0.762498,0.726293,-0.644265,0.636321,0.424286
-0.438295,0.009062,0.564315,0.929482,-0.368166,-0.022740
0.233855,0.476358,0.816168,-0.683382,0.730033,0.006336
-0.724871,-0.352513,0.564564,0.465458,-0.308771,0.829463
0.567456,0.922408,0.657025,0.313035,0.910593,-0.269871
-0.112222,0.176865,0.777165,-0.141899,-0.898753,0.414858
-0.363635,-0.283318,0.506558,0.606861,-0.522553,0.598881
0.251283,0.002271,0.333069,0.669893,-0.729585,0.137658
0.095929,0.407530,0.570608,0.022360,-0.909051,0.416084
0.591996,0.309244,0.894361,-0.794067,0.319180,-0.517283
-0.008996,0.432445,0.549003,0.864920,-0.199646,0.460494
0.145479,0.328653,0.328723,-0.670915,-0.723073,0.164436
0.277888,-0.875238,0.662617,0.385593,0.311499,-0.868497
0.699968,-0.188887,0.795530,0.554736,0.816874,0.158067
0.257366,0.477046,0.802866,0.829212,-0.557963,-0.032949
-0.151459,-0.137495,0.834424,-0.178835,-0.981341,-0.070628
-0.403801,0.341593,0.761745,-0.813346,0.543824,0.206695
0.302535,-0.337050,0.701527,0.722453,-0.633083,-0.277970
0.244838,0.374079,0.443598,0.302441,-0.572057,0.762417
0.276701,0.691468,0.727975,-0.383398,0.893931,-0.232149
0.221688,-0.144011,-0.636153,0.210323,0.964374,-0.160456
0.298926,0.096474,0.546542,-0.163246,-0.348957,0.922811
-0.439945,-0.046367,0.430608,-0.647556,0.695991,0.310270
-0.234062,-0.437722,0.745670,0.910663,0.411930,0.031725
0.218233,0.035722,0.422695,0.592772,0.801886,-0.074833
0.849855,0.688256,0.863442,0.586981,0.429651,-0.686187
0.206425,-0.102439,-0.409657,-0.644152,-0.716460,-0.267867
-0.584418,-0.258357,0.599766,0.225933,0.496842,-0.837915
-0.040243,0.576709,0.609860,0.089511,0.995156,0.040651
0.008275,-0.724367,0.670561,-0.293432,0.340735,0.893195
-0.986594,-0.120380,0.598006,-0.173008,0.290095,0.941230
0.410038,-0.394865,0.780794,-0.824684,0.350168,0.444161
-0.457527,-0.263404,0.584486,0.930873,0.345133,0.119827
0.313673,-0.798197,0.596745,-0.873747,0.469951,0.125351
0.179924,-0.243903,0.969642,0.714756,0.620684,0.322296
0.584469,-0.126850,0.713022,0.715360,0.696910,-0.050755
0.329140,0.184115,0.853738,0.444231,0.628900,-0.638079
-0.192761,0.066419,0.685327,0.754605,0.451857,0.475811
0.147028,-0.146167,0.823084,0.783692,0.597837,-0.168575
0.520638,0.007135,0.855436,0.167543,0.982132,-0.085709
0.552142,0.315209,0.769455,-0.531390,0.844608,-0.065279
0.212045,-0.126758,0.963224,-0.838788,-0.297951,-0.455698
-0.767768,-0.287540,0.615218,0.821643,0.320656,-0.471257
-0.297997,0.325212,0.713832,0.550437,0.805181,-0.220686
0.467890,0.701608,0.714377,-0.475584,0.288253,0.831102
0.196732,0.372749,0.702913,-0.044717,-0.744438,0.666192
-0.434170,-0.743089,0.661402,0.831771,0.408701,0.375659
0.685737,-0.048478,0.842773,0.833416,-0.546056,0.085092
0.175436,-0.298598,0.549393,-0.531845,-0.263137,-0.804922
0.106655,0.457178,0.748567,0.730053,0.614321,-0.299386
0.263606,0.024113,0.362072,-0.694708,-0.668393,0.265767
0.408184,0.158511,0.913567,0.770116,-0.326500,0.548014
0.040759,-0.101016,0.103723,-0.106560,-0.993891,-0.028740
0.131145,-0.144011,0.120093,0.431324,-0.863037,-0.262919
0.460259,-0.371051,0.887897,0.878840,-0.474328,0.051517
-0.128618,0.568771,0.770156,0.551670,0.822715,-0.137113
0.819175,0.406612,0.857944,0.688739,-0.416440,0.593478
0.383329,-0.415881,0.832212,-0.511945,0.632253,0.581522
0.218903,0.462959,0.473271,-0.296474,0.882872,-0.364198
0.620512,-0.050910,0.743084,0.678769,0.667688,-0.305721
0.034779,0.718356,0.710265,-0.161057,0.800091,-0.577854
-0.234629,-0.064951,0.746231,0.968016,0.211440,0.135046
0.710278,0.694129,0.763380,0.839150,-0.369391,0.399222
-0.229213,-0.324019,0.556604,-0.054312,-0.858746,0.509515
0.207558,-0.530319,0.443255,0.883156,0.446874,0.142615
-0.122226,-0.111983,0.814455,0.390857,-0.862919,0.320316
-0.155481,-0.752082,0.623505,-0.656899,0.606567,0.447839
-0.206579,-0.762773,0.714237,0.790142,0.492283,-0.365149
0.061073,0.074816,0.796760,0.524312,0.720301,-0.454162
0.226793,-0.250006,-0.985966,-0.148525,0.005930,-0.988891
-0.113459,-0.162961,0.301153,-0.577871,-0.337327,-0.743152
0.177139,0.047973,0.444533,0.954090,0.294761,0.053178
-0.408801,-0.703581,0.659564,0.888498,-0.067721,0.453856
0.523989,0.520270,0.648178,0.483493,0.695369,-0.531693
-0.231894,-0.904467,0.679984,-0.548658,0.737642,-0.393521
-0.273658,-0.046367,0.898084,0.992885,-0.059273,-0.103272
0.353272,-0.482323,0.859611,-0.293882,0.934350,-0.201554
0.075974,-0.267029,0.341963,0.660444,0.683087,0.311779
0.003274,-0.304563,0.425530,0.927484,-0.308599,0.211044
0.236020,0.188152,0.354953,-0.628032,-0.031295,0.777558
0.781486,0.640168,0.722819,0.924844,-0.183863,0.332952
0.273762,-0.148278,0.927570,0.905825,0.344784,-0.246181
0.295936,-0.876339,0.665919,0.343681,-0.278940,0.896703
0.463405,-0.394728,0.702679,-0.708798,0.392868,0.585884
0.053907,0.161539,0.792788,-0.696783,-0.684264,0.215118
-0.222613,0.288182,0.672617,0.998512,-0.053164,-0.012134
0.156255,-0.090325,0.936885,0.872271,-0.485567,0.058039
0.205805,-0.194026,0.526449,0.583248,-0.166097,-0.795131
-0.393746,-0.799390,0.700452,0.977014,-0.165457,-0.134413
-0.040088,0.789157,0.772819,0.569826,-0.680612,0.460506
0.036686,-0.439099,0.802851,-0.525526,-0.513635,0.678235
0.153215,-0.250465,0.949455,0.447201,-0.542235,0.711332
0.236536,-0.116893,0.463240,0.963379,0.263432,0.050045
-0.164762,-0.269828,0.516122,0.120669,0.980627,-0.154301
0.558638,0.379356,0.894595,0.462248,0.489088,0.739675
-0.262266,0.290798,0.654642,0.898352,0.064537,0.434509
0.446389,0.020671,0.833022,0.446890,0.805689,-0.388787
-0.200908,-0.429188,0.676495,0.849556,0.504664,0.153518
-0.079379,-0.405006,0.831199,0.969958,-0.230022,-0.079192
0.336977,-0.095969,0.883411,-0.875119,0.386369,0.291350
0.367037,-0.013926,0.560436,0.157057,0.914765,0.372207
0.012917,0.716796,0.728707,-0.317403,0.905157,-0.282748
0.435406,-0.388625,0.679673,0.606846,0.275117,-0.745687
-0.157183,-0.541744,0.514533,0.614633,-0.749726,-0.245230
0.014412,0.445982,0.868333,0.213902,-0.876332,0.431611
-0.109437,0.314704,0.782430,0.206750,0.814150,0.542599
0.254326,0.726937,0.699673,0.954390,-0.171134,-0.244650
0.173375,0.568403,0.796246,0.878161,-0.476717,0.039675
0.524401,0.271572,0.888287,0.910160,-0.198547,0.363576
0.098765,0.261339,0.669844,0.495796,-0.781449,0.378845
-0.147078,-0.396655,0.747430,-0.322907,-0.854154,0.407618
0.512336,0.311217,0.486122,-0.731783,-0.373123,0.570327
0.280364,-0.270058,0.871651,0.196068,0.822985,0.533154
0.736008,-0.202515,0.874611,0.978178,-0.042748,0.203323
-0.114595,0.290155,0.790171,0.276960,0.119076,0.953475
-0.139963,0.515360,0.508271,0.877629,0.251886,0.407824
0.542191,0.268681,0.912726,0.645290,0.760534,-0.072035
-0.074221,0.630440,0.678723,0.951087,0.026728,0.307763
-0.897083,-0.074678,0.628287,0.947076,-0.235442,0.218208
-0.083813,-0.086241,-0.116994,0.906475,0.407971,0.108917
-0.284179,-0.012595,0.771573,0.983998,-0.128899,0.123017
-0.278609,-0.254365,0.223583,0.812402,-0.566152,0.139556
-0.140684,0.535412,0.504097,0.955825,0.148932,0.253414
0.395499,-0.039622,0.902788,-0.658330,0.324199,-0.679336
-0.044472,0.288916,0.780794,0.896663,0.339570,0.284057
0.213644,0.215821,0.296464,0.675879,0.654760,-0.338345
-0.618602,-0.353706,0.568333,0.722845,0.589454,-0.360610
0.637732,0.353844,0.840903,-0.642761,-0.681036,0.350782
-0.148882,-0.324110,0.728349,0.658128,0.634283,0.405651
-0.190492,-0.128135,0.738302,-0.528103,0.545301,-0.650964
0.120577,-0.235965,0.276667,-0.776225,-0.550529,-0.307233
