0.194391,-0.311329,0.635674,0.646008,0.212653,0.733112
0.553896,0.063347,0.561721,0.155985,0.800826,-0.578227
0.166236,-0.311725,-0.982219,-0.137325,0.189510,0.972228
-0.370722,-0.251723,0.680562,0.226027,-0.926334,-0.301359
-0.721368,0.608201,0.376387,0.277145,0.624688,-0.730038
0.458215,-0.694963,-0.938916,-0.139918,0.098098,0.985292
0.343802,-0.606238,0.246417,0.902591,0.429248,-0.032783
0.073694,0.331298,0.605428,-0.381613,0.742950,-0.549907
0.539988,-0.509048,-0.946128,-0.144110,0.179990,0.973055
-0.025013,0.169783,0.653269,0.824655,0.243800,-0.510397
-0.291644,-0.215027,0.807859,-0.693258,-0.051531,0.718845
-0.127315,0.006196,0.747925,0.465093,0.880300,0.093595
-0.638476,-0.219849,0.535267,-0.713765,-0.158174,-0.682291
0.059785,-0.683453,-0.962386,-0.260350,-0.086826,0.961602
0.256981,-0.482787,-0.952377,0.026217,0.833459,0.551959
-0.470220,0.186011,0.351301,0.678934,0.721867,0.134001
-0.087719,-0.211587,0.250428,0.937615,-0.161306,0.307991
0.206167,-0.656598,0.399888,0.231240,-0.656053,0.718416
0.522266,-0.193390,0.522366,-0.121001,-0.597063,0.793016
0.360853,-0.437734,-0.956791,0.103522,-0.203363,-0.973615
0.434212,0.676075,0.267680,-0.787304,0.547663,-0.283229
0.195063,-0.608105,-0.955143,0.419192,0.260669,-0.869672
-0.267079,-0.119026,0.686251,0.778895,-0.389340,0.491668
-0.443074,-0.119416,0.912214,-0.033195,0.999438,-0.004694
0.238362,-0.185321,0.143337,0.069240,-0.917698,0.391198
0.405721,0.752510,0.369424,0.613907,0.653306,0.443070
0.234323,-0.231754,0.609655,0.203080,0.978805,-0.026456
0.382162,-0.491636,-0.953091,0.010190,0.200363,0.979669
-0.140997,-0.430848,0.238646,0.992440,-0.119190,0.029254
-0.526305,-0.236870,0.338556,-0.627970,0.748513,-0.213033
-0.010321,-0.622172,-0.969660,-0.196801,0.221071,0.955195
-0.593157,-0.022430,0.661413,0.970310,0.175500,-0.166427
-0.257655,-0.205782,0.611862,-0.317739,0.843248,-0.433560
0.207738,-0.756244,0.450620,0.695755,0.688313,0.205305
0.425685,0.013671,0.506419,-0.447643,-0.801213,-0.397081
0.342906,-0.673619,-0.941248,0.175722,-0.115585,-0.977631
0.068871,0.006785,0.702042,-0.670713,0.653307,0.351189
-0.210546,-0.421308,0.597843,0.767805,0.279839,0.576339
0.029836,-0.482493,0.821163,-0.050326,0.979023,0.197438
-0.445204,0.448259,0.234543,0.904835,0.418946,-0.075884
-0.314079,0.361401,0.602785,-0.496128,-0.820874,-0.282883
0.397420,-0.519771,0.513009,0.646870,-0.668378,-0.367192
-0.535278,-0.020557,0.803413,0.653118,-0.578624,0.488498
-0.108470,-0.091582,0.369331,0.985539,0.078621,0.150104
0.780592,0.878614,0.375890,-0.037659,-0.968026,0.248006
0.109254,-0.430848,-0.673506,-0.257736,0.953330,-0.157273
0.296576,-0.718672,0.369331,-0.619264,-0.685868,-0.382227
0.087941,-0.459474,-0.621872,0.913329,-0.043194,-0.404924
-0.133370,0.482787,0.664242,-0.589518,0.805208,-0.064103
-0.264946,-0.133285,0.955019,0.144338,0.958339,0.246480
0.494333,0.416385,0.445895,0.208768,0.297697,-0.931554
0.206057,-0.540526,0.040474,0.878020,-0.412088,-0.243444
-0.264276,-0.050858,0.686344,0.945309,-0.248101,-0.211749
-0.538420,0.468720,0.388573,0.864063,0.503381,-0.001430
0.056308,-0.353728,0.461531,-0.430062,-0.787590,0.441304
-0.443858,-0.116468,0.538717,-0.708838,-0.338032,0.619099
-0.380482,0.196440,0.568063,-0.748824,0.617084,-0.241805
-0.177341,-0.216408,0.168516,0.094438,0.939968,0.327935
-0.256984,0.292838,0.606733,0.935111,0.344803,-0.081717
-0.327988,0.137320,0.095496,0.783366,-0.315998,0.535242
0.706563,0.794807,0.348907,-0.629605,0.705036,0.326377
0.096804,-0.737656,0.434735,0.506123,0.849451,0.149241
0.312843,0.028921,0.540831,0.152396,0.985283,0.077417
-0.028269,-0.164469,0.905251,0.844493,0.489316,-0.217717
0.163097,-0.519278,-0.782803,0.843784,0.511883,0.161259
0.443297,0.695161,0.344680,0.396528,0.223085,-0.890505
0.476276,-0.466258,-0.957039,-0.032826,0.027774,0.999075
-0.458441,-0.159258,0.822251,0.975729,-0.181859,0.121987
-0.606842,-0.275426,0.470795,-0.494793,0.697980,-0.517691
0.152327,-0.427504,-0.645249,0.800530,0.596623,0.056506
0.427143,-0.916385,0.422146,0.183206,0.593599,-0.783630
0.125182,-0.843299,-0.957226,-0.283250,0.044044,0.958034
0.495233,-0.438028,-0.949579,-0.424701,0.153182,0.892280
0.554570,0.624237,0.272250,0.105275,0.941537,-0.320039
-0.130679,0.219459,0.522335,0.997916,-0.022260,0.060566
0.101179,0.409012,0.234232,0.285471,-0.862418,0.418021
0.518339,-0.079383,0.295471,0.926245,-0.062711,-0.371668
0.395177,-0.010723,0.532998,0.384985,0.893089,0.232763
0.359395,0.840154,0.295751,-0.614335,0.306643,-0.727023
-0.178350,-0.451993,0.367777,0.557674,-0.743215,-0.369636
-0.032866,-0.200174,0.182629,0.510547,0.755405,-0.410739
0.400449,-0.189157,0.547048,0.924478,0.136490,-0.355966
0.138755,-0.113713,-0.125369,-0.714392,0.699244,0.026518
-0.093103,-0.310446,0.180515,-0.658193,0.647550,-0.384006
-0.156929,0.070035,0.509808,0.725728,0.681813,0.091928
-0.676165,0.695845,0.366036,-0.575491,0.297529,-0.761766
-0.166910,0.195749,0.544344,0.529573,-0.634407,0.563098
0.764554,-0.448259,0.528242,0.810445,-0.529662,0.250274
-0.257433,0.080662,0.782555,0.363162,-0.277727,0.889371
0.535165,-0.417964,-0.944885,0.407522,-0.281105,-0.868853
0.215591,0.956226,0.295253,0.081404,0.970104,0.228631
-0.436232,0.195947,0.683826,0.546540,-0.836034,-0.048384
0.020864,-0.329335,-0.275514,0.664963,-0.735235,0.131351
-0.092316,0.536888,0.724082,-0.440134,0.708511,-0.551629
-0.126305,0.369170,0.523330,0.692800,-0.621320,0.366045
0.253615,-0.757523,-0.946968,0.256237,-0.254863,-0.932409
0.138867,-0.680109,-0.959806,-0.218696,-0.108370,0.969757
0.317780,-0.602498,0.558115,0.874688,0.466468,0.131639
0.633539,-0.229197,0.495757,-0.673615,0.735109,-0.076537
0.392483,-0.026657,0.220523,-0.369056,-0.772668,0.516509
-0.184409,-0.519867,0.107775,0.894072,0.366768,0.257131
0.188781,0.003248,-0.063415,-0.603859,0.742746,-0.289281
-0.005159,-0.548103,0.733004,0.048624,-0.499714,0.864824
0.122601,-0.094236,0.844882,-0.816357,-0.187365,-0.546311
0.105105,-0.429371,-0.695017,-0.393606,0.911484,-0.119464
0.841839,0.152174,0.191364,0.774820,0.317687,-0.546560
-0.281100,-0.208831,0.729056,-0.704690,0.372666,-0.603765
0.082334,0.004329,0.657092,0.193043,-0.519557,0.832343
-0.128886,-0.383825,0.761199,0.961167,-0.166538,-0.220053
-0.008414,-0.301098,0.143275,0.760301,-0.616834,0.203613
0.696129,0.055968,0.536293,-0.707636,0.426181,0.563579
-0.047562,-0.552725,0.510554,-0.010726,-0.999773,-0.018410
0.536848,-0.326086,0.461656,0.010360,-0.187069,0.982292
-0.213123,0.323727,0.682707,0.766817,-0.629555,0.125105
0.062367,-0.745329,-0.964749,-0.240652,0.063892,0.968506
0.276164,-0.561972,0.104262,0.959348,0.259493,-0.110972
-0.388109,0.019477,0.802512,-0.345429,-0.220185,0.912248
-0.478631,0.603188,0.332370,-0.150739,0.437741,-0.886375
-0.030511,-0.447862,-0.992912,-0.196836,0.038506,0.979680
0.359169,-0.811233,0.423700,0.071457,-0.661715,0.746342
0.251822,-0.558135,0.116106,-0.867143,-0.442252,0.229078
0.117778,-0.440388,-0.723802,-0.797733,0.601942,-0.035894
0.104205,-0.150696,0.607044,0.507731,0.731410,0.455246
0.574538,0.173517,0.589667,-0.321727,-0.766210,0.556249
0.570163,0.672340,0.252293,0.840401,0.496900,-0.216371
0.135054,-0.077906,-0.115577,-0.948458,0.176589,0.263140
0.109928,-0.621482,-0.299885,0.854580,-0.428352,-0.293610
-0.351991,-0.484066,0.629395,-0.810909,0.535952,0.234908
0.004710,-0.560693,0.729056,-0.382041,0.617214,-0.687817
-0.462142,-0.145581,0.889801,0.775451,0.630554,0.032832
0.087715,-0.574363,0.541111,-0.805624,0.543727,-0.235225
0.474704,0.475504,0.474090,-0.222564,-0.906141,0.359685
-0.423107,-0.226639,0.686686,0.252555,0.963976,0.083465
0.207738,-0.271884,-0.979172,-0.160001,0.075837,0.984199
-0.075156,-0.210014,0.682334,-0.561690,0.127684,0.817436
0.259674,-0.534822,0.072554,0.950722,0.163646,-0.263341
-0.014696,-0.361107,0.430414,0.887325,0.454480,-0.078113
-0.179922,-0.269326,0.850011,0.278168,0.057542,-0.958807
-0.195850,0.146668,0.774690,0.889517,-0.368852,0.269644
-0.096020,0.415598,0.572228,-0.685751,0.613420,-0.391742
0.473695,-0.577612,-0.947092,-0.224170,0.311614,0.923388
0.510935,0.034726,0.524138,0.332653,-0.873864,0.354547
0.202693,-0.129257,0.532718,-0.092004,0.987171,-0.130491
-0.432531,-0.170371,0.871523,0.965077,-0.161581,0.206199
-0.189007,-0.477378,0.312444,0.806751,0.541346,0.236847
0.420526,0.145683,0.537443,0.967899,0.060491,0.243950
-0.784518,-0.222406,0.511859,-0.635163,0.356736,-0.685059
-0.235446,-0.015544,0.831204,0.009458,-0.997943,0.063407
0.487267,0.689259,0.297802,0.330598,-0.932221,0.147202
0.132586,-0.254281,0.118095,-0.680464,0.684255,0.262229
0.065844,-0.123943,0.177624,-0.650131,0.733179,-0.199444
0.305774,0.589217,0.273959,-0.559701,0.730386,-0.391500
-0.113964,-0.310837,0.383692,0.807810,0.589372,-0.009157
-0.291308,0.024790,0.863626,0.299295,0.927717,-0.223077
0.109476,0.316739,0.439149,0.521104,0.602053,0.604965
0.197195,-0.408520,0.557493,-0.359884,0.803942,0.473457
0.203254,-0.493408,-0.931611,0.180623,0.944419,0.274679
0.393828,-0.040922,0.204389,-0.289662,-0.660075,0.693107
-0.055411,-0.269819,-0.050328,-0.644086,-0.736809,0.205588
0.933594,0.458093,0.445087,-0.653058,0.733196,-0.189575
0.480873,0.044362,0.533340,-0.098852,0.435823,-0.894588
-0.334830,0.374285,0.596693,0.711101,0.590815,-0.381147
-0.406283,-0.392093,0.124779,-0.150403,0.987385,0.049486
0.399775,-0.632991,0.297523,0.891032,-0.433391,-0.135032
-0.511945,-0.184342,0.522864,-0.573925,0.476256,-0.666175
-0.545486,-0.178338,0.649849,0.570418,0.770402,-0.284789
-0.138532,-0.259888,0.477167,0.929101,-0.171661,-0.327572
0.391922,-0.159258,0.553576,0.387012,-0.827712,-0.406342
-0.223218,-0.184636,0.485747,-0.434918,0.888912,0.143814
-0.019406,-0.188569,0.499114,-0.440025,0.893593,-0.088714
0.261246,-0.179419,0.055830,0.332621,0.512628,-0.791565
-0.101850,-0.244344,0.700519,0.878153,0.369073,0.304356
0.533032,-0.477474,-0.949610,0.145008,-0.175043,-0.973824
-0.342122,-0.040526,0.737201,0.925997,0.171805,0.336173
0.543017,-0.706376,0.482701,0.000119,-0.718745,0.695274
0.015480,-0.489673,0.463334,0.851224,0.290068,0.437354
0.420526,-0.526561,0.483944,-0.411397,0.760550,-0.502310
0.088838,-0.385500,-0.470608,-0.285244,-0.044149,-0.957437
0.060234,-0.172538,0.839753,-0.018675,-0.879923,0.474749
-0.655523,0.629353,0.382231,-0.635127,0.081594,-0.768086
0.400897,-0.219062,0.637228,-0.446095,0.877597,0.175564
0.578238,0.083021,0.553048,-0.421838,0.781204,-0.460187
0.488051,-0.498625,-0.961951,-0.113076,0.195073,0.974249
0.130453,-0.519080,0.654854,0.582090,-0.769875,0.261655
0.507235,0.066889,0.376014,-0.482333,0.228991,-0.845528
-0.410993,-0.416385,0.766514,-0.542001,0.592934,-0.595537
-0.415367,0.214439,0.429668,0.914757,0.245237,-0.321057
0.000335,-0.406352,-0.985794,-0.124358,0.177233,0.976280
0.332585,-0.550954,0.180142,0.904445,0.417824,-0.086038
-0.356366,0.219459,0.468992,0.657061,-0.412711,0.630825
0.456308,0.462914,0.468184,0.080770,-0.807435,0.584401
-0.251935,0.170665,0.737791,0.934631,-0.271928,-0.229172
-0.845879,-0.273853,0.556405,0.602939,0.696691,-0.388699
0.043187,-0.114895,0.629985,0.835373,0.190928,-0.515460
0.067190,-0.362188,-0.982126,0.304966,-0.244992,-0.920312
0.368141,-0.366415,-0.968106,-0.277024,0.251979,0.927235
0.135054,0.674111,0.334173,0.350322,-0.559092,0.751459
0.198205,-0.419633,0.546458,-0.396537,0.730904,0.555462
-0.656420,-0.257331,0.463396,0.927261,-0.306124,0.215583
-0.337072,-0.241588,0.605148,0.379128,0.906115,0.187664
-0.321032,0.683159,0.320184,-0.448228,-0.416510,-0.790956
-0.785867,-0.134564,0.550655,0.478207,-0.196270,0.856035
-0.089064,-0.593054,-0.984271,-0.195028,0.296826,0.934804
-0.023555,-0.311137,-0.121887,0.967585,0.251552,0.022355
-0.000449,-0.560002,0.513787,0.069107,-0.838975,0.539763
0.058327,-0.367009,-0.399857,-0.282560,0.953212,0.107457
-0.333482,0.039349,0.742827,-0.197333,-0.353139,0.914523
0.223557,0.525871,0.277223,-0.375541,0.762040,0.527506
0.268873,0.839757,0.331624,0.856614,0.372974,-0.356514
0.215255,-0.092958,0.806553,0.736370,0.622590,0.264841
0.534041,0.142039,0.469893,0.956718,-0.239792,-0.164895
-0.018845,-0.201357,0.699711,-0.051587,-0.966536,0.251292
-0.420191,0.154041,0.465293,0.723425,-0.574758,0.382505
-0.137297,0.026069,0.370388,-0.890061,-0.205832,0.406724
-0.963656,0.001183,0.579098,0.150426,0.494462,0.856084
-0.483567,-0.426717,0.623271,0.914199,0.316783,0.252764
0.237239,-0.214049,0.062265,0.448813,0.302897,-0.840726
0.225573,-0.827365,0.536137,0.789061,0.614154,-0.014025
-0.409870,0.364841,0.208928,0.974571,0.175811,0.138927
-0.233765,0.174111,0.708570,-0.721492,-0.138359,-0.678459
-0.154796,-0.281328,0.681588,0.830441,0.328498,-0.449952
-0.142120,-0.359924,0.136498,-0.729624,0.682495,0.043006
-0.389119,-0.172238,0.438528,0.669397,0.671307,0.318206
0.579248,-0.494789,-0.943113,-0.250339,0.130797,0.959282
0.361302,-0.107222,0.475271,0.616567,0.770946,-0.159647
-0.051375,-0.280740,0.051012,-0.525766,0.781548,-0.335786
-0.166127,-0.077612,0.908639,-0.563907,0.787599,-0.248388
-0.421536,-0.508165,0.599895,0.424740,0.895750,0.131254
0.333930,-0.603482,0.269110,0.924591,-0.137111,-0.355431
-0.134493,-0.266672,0.740465,0.695299,0.685106,0.217228
-0.538755,0.028921,0.455221,0.012311,-0.260234,0.965467
0.216714,-0.505313,0.027822,0.843311,-0.516636,-0.148034
0.231184,0.894549,0.343623,-0.607089,0.272419,0.746479
-0.013237,-0.258801,0.107681,0.068127,-0.910126,0.408692
-0.046326,-0.175192,0.503870,0.064005,-0.862948,0.501223
-0.461471,-0.129449,0.844633,0.988417,-0.106318,0.108296
0.077172,-0.212668,0.207187,0.177955,-0.976241,-0.123634
-0.130344,-0.431928,0.746247,0.186930,0.784337,0.591501
0.277396,-0.535705,0.539712,0.872842,-0.469872,-0.131786
0.741893,0.042886,0.163201,0.718722,0.266276,-0.642289
-0.177118,-0.061575,0.558333,-0.335235,0.862923,-0.378128
0.126753,-0.344873,-0.983400,-0.161299,0.215693,0.963047
-0.378127,-0.046229,0.709006,0.749947,0.441247,-0.492829
-0.067864,0.017411,0.626535,0.881075,-0.438948,-0.176161
0.073694,-0.717291,-0.963598,-0.237471,-0.012462,0.971315
0.082782,-0.445995,-0.981224,-0.167728,0.318454,0.932982
-0.174424,-0.069350,0.760266,0.988940,0.066901,0.132367
-0.821201,-0.040136,0.576611,-0.529875,0.660811,-0.531565
-0.146272,-0.178140,0.409121,0.860856,-0.333836,-0.384033
0.376333,-0.190634,0.490534,0.569244,-0.403127,-0.716554
0.400897,-0.522820,-0.953247,-0.086883,-0.232609,-0.968682
-0.169601,-0.342417,0.257173,-0.821935,0.569290,0.018198
-0.024678,-0.275720,-0.009295,-0.347502,0.937636,0.009034
0.568366,0.761161,0.310485,0.373492,-0.925858,-0.057371
0.298822,-0.736179,-0.946968,-0.212694,0.023096,0.976846
-0.525744,0.348319,0.434798,0.746167,-0.525390,-0.408901
-0.251038,0.093942,0.681091,-0.283817,0.958673,0.019858
0.633314,0.772670,0.340608,-0.295506,0.955255,-0.012804
-0.171172,-0.187290,0.641860,0.277591,0.952185,0.127618
-0.166462,-0.064235,0.909820,-0.563907,0.787599,-0.248388
-0.415816,0.191127,0.605676,-0.641099,-0.745599,-0.181864
-0.077846,-0.138797,0.884299,0.423770,0.874773,0.234928
-0.413796,-0.415598,0.149057,-0.161617,0.973184,0.163683
0.274815,0.713256,0.317044,-0.711773,0.514227,0.478487
0.485248,-0.294807,0.525662,0.696083,0.381022,0.608515
0.015480,-0.439211,-0.385184,0.996000,0.072027,-0.052884
-0.448346,-0.087350,0.893624,0.499101,-0.866462,-0.011888
0.197195,-0.226933,0.590662,0.187647,0.981216,-0.044769
-0.057095,-0.274148,0.119991,0.946067,-0.310803,0.091420
0.329555,0.660537,0.317200,0.380828,0.838650,-0.389406
0.215817,-0.157385,0.642979,0.948274,-0.062653,0.311209
0.498259,-0.507673,0.566415,0.969708,-0.062995,0.236003
0.899383,0.491541,0.458951,0.482791,0.850950,-0.206873
-0.596970,-0.190142,0.713451,0.542903,0.617639,0.569016
-0.592708,-0.147454,0.681805,-0.317065,-0.947262,0.046527
0.173192,0.028230,0.744972,0.625080,0.743383,-0.238027
0.223444,-0.124532,0.372346,0.948246,0.254311,-0.190148
0.380146,-0.580956,0.542137,-0.250216,0.602150,0.758160
0.267079,-0.207847,0.129846,-0.313281,0.933281,-0.175614
0.102076,-0.149712,0.520470,0.086746,-0.986281,0.140446
-0.126640,-0.207751,0.636109,0.316207,-0.299888,0.900045
-0.118116,-0.098763,0.544499,0.827873,0.550712,-0.106504
0.235668,-0.841823,0.422923,0.806374,0.442430,-0.392449
-0.555694,0.174502,0.778793,-0.708515,0.256472,-0.657441
0.174202,-0.221620,0.075414,0.573214,-0.817102,-0.061399
-0.469211,-0.170371,0.648171,0.995510,-0.080445,0.049893
0.406282,0.037674,0.496441,0.590606,0.774345,0.227099
-0.283007,-0.191522,0.863502,0.952891,-0.192332,0.234537
-0.070333,-0.142831,0.213995,0.945300,0.064794,0.319704
-0.126976,0.288707,0.623551,0.965149,-0.164308,0.203692
-0.138307,-0.365922,0.033231,-0.269469,0.954630,-0.126761
-0.101514,-0.580169,0.634928,0.719919,0.690342,-0.071734
0.409982,0.571806,0.255899,-0.618123,0.775101,-0.130930
-0.154121,-0.290574,0.625136,0.762492,0.601014,0.239560
-0.158945,-0.378614,0.657155,0.946411,0.181007,0.267475
-0.208191,0.315460,0.670490,0.917082,-0.398638,0.007000
0.313405,-0.629251,0.177314,0.993874,0.109633,-0.013979
0.188110,-0.118630,0.701794,-0.437135,0.801990,0.407094
-0.227035,-0.134564,0.671112,-0.876662,-0.013056,-0.480929
0.334043,-0.493018,-0.952781,0.114248,0.348107,0.930467
0.197082,-0.487800,-0.959930,-0.442899,0.599083,0.667038
0.511271,-0.741391,0.460101,0.752360,-0.513225,0.412982
-0.591363,0.134564,0.778731,-0.705966,0.132270,-0.695785
-0.086035,0.244735,0.588517,0.208847,0.952052,-0.223561
-0.513742,0.560987,0.317853,-0.092696,0.582561,-0.807484
0.001010,-0.038166,0.722310,-0.160011,0.936114,-0.313188
-0.194617,-0.437338,0.082533,0.896136,0.293712,0.332675
-0.488952,0.179617,0.360254,0.479078,0.777676,0.407067
0.597305,0.172833,0.593833,-0.349665,-0.818215,0.456354
-0.380595,-0.035903,0.712829,0.762869,0.528341,-0.372675
-0.291757,-0.647844,0.655196,0.922513,0.251967,0.292374
-0.082447,-0.054593,0.227735,0.611232,-0.432633,0.662740
-0.527873,-0.061083,0.505300,0.051482,0.991523,-0.119295
-0.102859,-0.194669,0.314216,0.981370,-0.178290,0.071599
0.352104,-0.726243,0.491592,0.666216,-0.607133,0.433067
0.594727,-0.144404,0.538935,0.151589,0.444109,-0.883056
0.241279,-0.463208,-0.964624,-0.305832,0.475749,0.824700
-0.170837,0.287824,0.573907,0.809834,0.118160,-0.574636
0.361859,-0.276411,0.598775,-0.422059,-0.844331,0.330108
-0.639373,0.718372,0.365663,-0.638421,0.122034,-0.759951
-0.388896,0.255854,0.474991,0.947463,0.302174,-0.104907
-0.015706,-0.307889,0.503746,-0.640452,-0.484158,0.596165
-0.067751,-0.575252,0.509652,-0.315640,0.196584,-0.928292
-0.338196,-0.213064,0.495570,0.043412,-0.991140,0.125529
0.322938,-0.301495,-0.975318,-0.141167,0.222170,0.964734
-0.126866,-0.248379,0.335012,0.957082,-0.272427,0.098885
0.083118,-0.411761,0.518916,0.008230,0.991839,0.127229
-0.275268,0.039247,0.054867,0.798230,-0.135189,0.586986
0.128882,-0.347334,-0.185769,0.350362,0.936586,-0.007243
-0.130792,-0.745719,-0.973888,-0.014924,0.156431,0.987576
0.039822,0.252216,0.452454,0.103451,-0.438334,0.892839
0.101627,-0.575937,-0.308807,0.922302,0.379299,0.074109
0.556142,0.692009,0.301688,0.218840,-0.857296,0.465996
0.069545,-0.468522,-0.497684,0.835921,-0.516144,0.186630
0.282781,-0.147646,0.161087,-0.089992,-0.836333,0.540785
0.277958,-0.717687,0.477167,-0.441926,0.871723,0.211660
0.054627,0.188473,0.718953,-0.275857,-0.036516,0.960505
0.921592,0.473343,0.445056,0.236664,-0.957421,0.165334
-0.343467,-0.332577,0.740900,0.950719,-0.218415,-0.220066
-0.712731,-0.230277,0.577823,0.666638,0.673783,-0.318763
-0.644196,-0.222310,0.532003,-0.347622,-0.702347,-0.621183
0.177454,-0.454851,0.604899,0.921510,0.159819,0.353944
0.374984,-0.180896,0.535547,0.972377,0.152408,-0.176788
0.062367,-0.309660,-0.990519,0.197468,-0.188380,-0.962039
-0.022771,-0.312908,-0.103174,0.949497,-0.281811,0.137976
0.515087,-0.413929,-0.953309,0.401224,-0.376716,-0.834928
-0.104095,-0.750540,-0.979048,-0.141365,0.140712,0.979906
-0.442400,-0.228410,0.608692,0.794007,0.057963,0.605139
-0.016263,-0.268738,0.059840,0.209983,0.878896,-0.428309
-0.536849,-0.082631,0.485032,-0.837775,0.509373,-0.196656
0.393158,-0.591775,-0.944729,-0.037167,0.239906,0.970085
0.155806,-0.026951,0.412198,0.858149,-0.513234,0.013085
-0.395626,0.160831,0.463365,0.718049,-0.580685,0.383680
0.017609,-0.290676,0.046629,-0.161920,-0.889330,0.427638
-0.645428,0.073871,0.562405,-0.798345,0.252362,-0.546771
-0.572292,-0.060987,0.606920,0.292994,0.767452,0.570238
-0.615705,0.499213,0.374802,0.894167,0.057774,0.443990
-0.288392,-0.125120,0.908110,0.949651,0.222876,0.220203
-0.586875,0.700571,0.369517,-0.477322,-0.005654,-0.878710
-0.150421,0.208442,0.519134,0.886486,0.417287,-0.200037
0.629613,0.040922,0.495104,-0.471216,0.863612,0.179249
0.230735,-0.767951,0.437222,0.772922,0.632281,0.053031
-0.296915,-0.354809,0.566135,-0.221215,0.915963,0.334776
0.398429,-0.589511,0.205944,0.789273,0.604155,0.109753
-0.097365,-0.794512,-0.977214,-0.328785,0.403533,0.853851
-0.151544,-0.281820,0.465013,-0.695325,0.671793,0.255377
0.477956,-0.205782,0.554758,0.908064,0.068061,0.413264
0.477172,-0.262836,0.556250,-0.571719,0.271483,-0.774231
0.356365,-0.958195,0.387951,-0.400739,-0.900164,-0.170625
-0.346945,-0.607517,0.650720,0.949920,0.073012,-0.303845
0.178686,-0.682667,0.540800,0.182202,0.504743,0.843823
0.473808,0.666241,0.323883,0.015477,-0.992863,0.118248
-0.093774,0.037770,0.367808,0.446385,0.836618,-0.317509
-0.579474,0.454455,0.415804,0.913343,0.333853,-0.233124
-0.012341,-0.144110,0.858560,0.707584,0.597720,-0.376902
0.050926,0.127978,0.667941,0.281463,0.473431,0.834651
0.264833,-0.582433,0.094035,0.978889,0.015080,-0.203833
-0.228267,-0.172436,0.962293,0.508884,0.785340,0.352531
0.540885,-0.515544,-0.944046,-0.160887,0.194949,0.967528
0.413796,0.679323,0.315428,0.341899,-0.846940,0.407184
-0.180035,-0.502263,0.550841,0.186493,0.968568,0.164607
0.274593,0.445407,0.133731,-0.943576,0.328226,0.043944
-0.222996,0.233718,0.599179,-0.147385,-0.988723,0.026526
0.010431,-0.314379,-0.197488,-0.782322,0.379339,-0.494038
-0.005720,-0.284672,0.002984,-0.392589,0.912640,-0.113849
0.048010,-0.343402,-0.348534,0.447190,0.894373,0.010905
0.305774,0.064920,-0.068700,-0.492868,0.863700,-0.105370
0.167472,0.068366,0.698530,0.868539,-0.194528,-0.455849
-0.120920,0.440388,0.329261,-0.384471,-0.878293,0.284224
-0.464161,0.213064,0.617147,0.076853,0.966698,0.244108
0.651936,0.214536,0.351114,-0.710558,0.576185,-0.403879
-0.683456,-0.293822,0.398645,-0.146616,0.933076,-0.328439
0.285811,-0.859432,-0.938637,-0.250854,0.036475,0.967338
0.486932,-0.439997,0.450589,-0.283750,-0.266245,0.921195
0.215927,0.030001,0.587709,-0.119616,0.958331,0.259409
-0.084689,-0.126501,0.305263,-0.629793,-0.773851,0.067192
0.470556,-0.743359,0.476577,-0.137788,-0.531657,0.835676
0.512393,0.720929,0.316703,-0.429438,0.900248,-0.071669
-0.386876,-0.037968,0.754826,-0.809540,-0.079373,-0.581675
-0.177341,-0.005902,0.718114,-0.114918,-0.930563,0.347631
0.017386,-0.317231,-0.186204,0.575860,0.796195,-0.185631
-0.656646,0.733033,0.384470,0.593285,-0.181720,0.784213
0.469994,-0.609384,0.418198,0.938390,0.197154,-0.283820
0.283116,-0.439211,0.557245,0.095531,0.774316,0.625547
0.037463,-0.312710,-0.989959,-0.168352,0.107483,0.979849
0.088725,-0.535609,-0.656844,0.873193,0.487153,0.014683
0.155806,-0.334546,-0.981069,0.212180,-0.191386,-0.958306
0.066516,-0.435177,-0.426062,0.992812,-0.009707,0.119292
-0.202693,-0.141354,0.640368,0.853653,-0.429505,0.294623
-0.515201,0.514853,0.355218,0.135905,0.413888,0.900126
0.083118,0.298841,0.429606,0.551198,0.173197,0.816201
0.168930,-0.667909,-0.958190,0.203535,0.067624,-0.976730
0.732695,0.147550,0.544189,-0.007562,-0.933261,0.359120
-0.118565,-0.085675,0.317076,-0.596860,0.586587,-0.547424
-0.460461,0.434486,0.649414,-0.572110,0.331640,-0.750137
-0.549299,0.432223,0.405079,0.931342,0.297041,-0.210639
-0.345822,-0.147748,0.949081,0.046990,0.995205,0.085787
-0.166349,0.408123,0.334639,-0.728504,-0.661191,0.179188
0.277174,-0.132499,0.062110,0.262879,0.413155,-0.871893
-0.625013,0.335333,0.209581,-0.192966,0.666948,-0.719684
0.441951,0.683057,0.302901,-0.554134,0.828971,0.075787
-0.744252,-0.549772,0.270416,0.561939,-0.801657,0.203890
-0.046216,-0.350876,0.428829,0.769876,0.638146,-0.007806
-0.176557,-0.726243,-0.983245,-0.230380,0.247792,0.941023
0.042399,-0.520359,0.484411,0.714379,0.650237,0.258561
-0.256871,-0.530199,0.601604,0.437304,0.832812,0.339396
-0.016489,-0.047118,0.584724,-0.671668,-0.506198,0.540949
-0.308804,0.079677,0.865399,-0.348673,-0.920940,0.174058
-0.166349,-0.244933,0.667382,0.990756,0.116504,-0.069493
-0.125182,-0.470983,0.578911,0.970684,0.240184,-0.009197
0.273809,-0.726044,-0.951289,-0.194092,0.030115,0.980521
-0.289737,0.091187,0.786596,-0.758910,0.334941,-0.558454
0.491307,-0.618534,-0.944543,-0.026394,0.244525,0.969284
0.796185,0.164667,0.221331,0.815695,0.437808,-0.378107
0.647448,0.845269,0.259411,-0.737663,0.232324,0.633939
-0.644980,0.784672,0.373123,0.693696,-0.000555,0.720268
0.400784,-0.338779,-0.969816,0.347905,-0.132893,-0.928063
-0.229390,0.434684,0.345115,0.755761,0.545085,-0.362914
-0.015928,-0.250739,0.173987,-0.042192,-0.249259,0.967517
-0.300955,-0.361005,0.864497,-0.139699,-0.871400,0.470263
0.367357,0.739229,0.290186,0.955076,0.229149,0.187937
0.191475,-0.169290,0.271846,0.638029,0.576432,-0.510535
0.246102,-0.418942,-0.966148,-0.298397,0.466585,0.832621
0.247334,-0.139289,0.370637,0.944848,-0.190850,-0.266157
0.181603,-0.011804,0.556001,0.880020,-0.357115,0.313103
0.087380,-0.213947,0.219342,-0.403458,-0.833253,0.378037
-0.479079,0.109780,0.437440,-0.691860,0.710159,0.130394
0.497701,-0.531478,0.399702,-0.413463,0.887528,-0.203328
0.293212,0.638797,0.302248,-0.150364,-0.933862,0.324487
0.111387,-0.546722,-0.967702,-0.171768,0.186319,0.967358
0.501624,-0.602203,-0.944232,0.012148,0.142673,0.989695
0.370948,0.891205,0.304641,-0.609271,0.191541,-0.769481
0.339428,0.174796,0.494296,-0.287448,0.826561,0.483912
-0.666066,0.328843,0.362057,0.129142,-0.828772,0.544481
0.487942,-0.645383,-0.941559,-0.078002,0.212416,0.974061
-0.584746,0.292543,0.388418,0.779575,0.045450,-0.624657
-0.046552,-0.224279,0.480183,0.859845,-0.200320,-0.469615
0.709253,0.772082,0.349840,0.436566,-0.717562,-0.542692
-0.164329,-0.170569,0.848612,-0.235657,0.929855,-0.282551
-0.075604,0.442357,0.583263,0.812897,-0.576101,-0.085475
-0.061805,-0.153548,0.238086,0.986047,-0.160574,0.043897
-0.589343,0.446686,0.534024,-0.284803,0.759940,-0.584275
0.634885,-0.125811,0.136405,-0.165162,-0.890391,0.424176
0.373416,0.310645,0.419037,0.527666,0.367207,-0.765982
0.063938,-0.265688,0.114023,0.015138,0.972601,-0.231988
0.034437,-0.473637,-0.535764,-0.576882,0.806754,0.127887
-0.184745,0.101417,0.657434,-0.744691,-0.667243,-0.014888
0.577564,-0.414517,-0.947651,-0.285588,0.214078,0.934136
0.007514,0.086467,0.456029,0.573560,0.620136,-0.535220
0.189791,-0.331694,0.585408,0.858718,0.231175,0.457342
0.214694,-0.593347,-0.945351,0.162374,0.749359,-0.641948
-0.445765,-0.232637,0.624235,-0.487177,-0.870082,0.074936
-0.410880,-0.126207,0.745656,0.570719,-0.257895,0.779596
0.225238,-0.296968,0.552022,0.207748,-0.936165,0.283611
0.093100,-0.006688,0.604899,0.723640,-0.455119,-0.518856
0.366796,-0.318018,-0.974261,-0.215996,0.150839,0.964673
-0.195624,0.431731,0.671143,0.696240,0.391558,-0.601608
0.154683,0.122959,0.721844,0.943719,0.217590,0.249095
0.363208,0.395533,0.450900,-0.158677,0.740013,-0.653607
-0.237353,0.603482,0.385931,0.806513,0.023392,-0.590754
0.757711,-0.292447,0.446517,0.965319,-0.090669,0.244823
-0.090635,-0.028428,0.852560,-0.133536,0.860891,0.490952
0.466742,-0.195257,0.583139,0.824532,0.169757,0.539749
-0.128773,-0.004329,0.810656,-0.431694,0.459719,0.776079
-0.257320,-0.006394,0.832727,-0.191952,-0.947914,0.254192
-0.124733,-0.788509,-0.978395,-0.020587,0.236891,0.971318
0.248121,-0.277594,0.555100,-0.440886,0.880808,-0.172618
0.326190,0.676861,0.339706,0.802545,0.157645,-0.575386
0.026023,-0.278674,-0.002611,0.027169,-0.952437,0.303523
-0.393942,0.413635,0.517175,-0.516648,-0.718410,0.465792
-0.055411,-0.249850,0.193012,-0.392102,0.503825,-0.769686
0.089399,-0.431928,-0.980012,-0.158819,0.229230,0.960328
0.382162,-0.246800,0.629550,0.265918,-0.963894,-0.014020
0.436902,-0.934390,0.389226,-0.234816,0.830273,0.505478
-0.073359,0.389139,0.690199,0.371469,0.391007,0.842095
-0.315311,-0.148043,0.621903,-0.087182,0.025875,0.995856
-0.122153,-0.020851,0.343996,0.869740,0.471640,-0.145287
0.331575,-0.645977,0.546769,0.930117,-0.217049,0.296263
-0.370835,-0.041414,0.820635,-0.808959,-0.323101,0.491112
0.050365,-0.341036,-0.340172,0.814188,-0.554610,0.171774
0.459002,0.666438,0.312164,0.254507,-0.903857,0.343902
-0.243521,-0.236275,0.563804,0.372221,0.120669,0.920267
-0.438138,0.588136,0.284498,0.887327,-0.407196,0.216431
-0.454628,-0.038953,0.779260,0.870174,-0.127490,0.475966
0.590801,-0.741096,0.464702,0.908053,0.418815,-0.005720
0.451821,-0.000492,0.521558,0.353655,-0.878965,-0.319920
-0.726078,-0.465274,0.247692,0.461719,-0.821138,0.335482
0.460683,-0.015736,0.505363,-0.300342,0.106557,-0.947861
0.462590,-0.383333,-0.959278,0.322501,-0.124157,-0.938391
0.605384,0.483279,0.340763,0.002568,0.595642,0.803246
0.099830,-0.873793,0.484628,0.877362,-0.393038,-0.275240
0.201905,0.042099,-0.057788,0.297934,-0.843358,0.447194
-0.058553,-0.167813,-0.137710,-0.042646,-0.540265,0.840413
0.008750,-0.307102,-0.255805,-0.512813,0.853899,-0.088761
0.632639,-0.071710,0.161740,0.009396,-0.743392,0.668790
0.586539,0.653452,0.346265,0.764261,0.588408,-0.263973
0.151318,-0.237164,0.124872,-0.638566,0.700083,-0.319559
0.377565,-0.311629,0.402158,-0.579684,-0.789140,-0.203038
-0.698484,0.664469,0.382418,-0.284766,-0.288634,-0.914111
-0.315534,0.230668,0.158103,-0.314869,-0.868576,0.382665
-0.090074,0.012986,0.643694,-0.891131,0.175171,-0.418570
0.522375,-0.144110,0.532127,0.772050,0.615603,0.158021
0.430734,0.633285,0.305729,0.534273,-0.829938,0.160484
0.822320,0.445305,0.396749,-0.203565,0.830922,-0.517813
-0.443523,-0.099742,0.771675,0.775592,0.622039,0.107352
0.117106,-0.406454,-0.618888,-0.458846,0.876859,0.143453
0.210768,0.154929,-0.018807,0.992379,-0.122203,0.015830
-0.403140,-0.406748,0.568809,0.935681,-0.299829,-0.186020
-0.475827,0.200865,0.735584,0.789347,-0.397879,0.467572
0.392819,-0.711095,-0.945538,-0.012946,0.121610,0.992493
0.455411,0.114992,0.566104,0.858063,0.349936,-0.375863
-0.471453,-0.171061,0.460133,0.616199,0.645588,0.451127
0.751539,-0.283885,0.573285,0.385435,-0.790880,-0.475340
0.863262,0.222112,0.288570,0.360628,0.921515,-0.144071
0.721481,0.259492,0.317728,-0.172788,0.947610,0.268661
-0.145933,-0.242963,0.694520,0.793313,0.596364,0.122490
0.186316,-0.192111,0.354503,0.833153,0.536910,-0.132601
-0.432418,-0.057739,0.599086,0.256119,-0.915806,-0.309357
0.583510,0.106532,0.546644,-0.421838,0.781204,-0.460187
0.110377,-0.080265,0.661413,0.902108,0.325903,0.282822
0.495791,-0.742279,0.450962,0.598132,-0.630774,-0.494331
0.283791,-0.566493,0.126209,0.901171,0.375331,-0.216837
-0.043187,-0.181880,0.846933,-0.551596,0.832177,0.056773
0.332920,-0.082331,0.188567,0.457391,0.535272,-0.710125
0.507906,-0.617153,-0.942678,-0.088272,0.246970,0.964994
0.296915,-0.491835,0.643135,0.074439,0.044653,0.996225
0.049468,-0.037872,0.705027,0.579221,0.761909,0.289824
-0.210994,0.000787,0.035687,0.808178,0.559841,-0.182830
0.870330,0.176861,0.294414,0.281104,-0.769944,0.572859
0.450811,-0.352546,0.453263,0.599062,0.481222,0.639961
0.502860,-0.352053,0.534024,-0.553210,0.596774,0.581223
-0.004601,-0.259984,0.797600,-0.095232,-0.814201,0.572720
-0.403030,0.683850,0.333395,-0.321780,-0.156444,-0.933800
0.332023,0.039643,0.580528,0.425880,-0.747104,0.510354
0.162310,-0.245131,0.032050,-0.601286,0.682420,0.415643
0.247560,0.004035,0.635736,0.645668,-0.751249,-0.136884
0.358834,0.786840,0.346110,0.255288,0.193245,0.947357
0.307010,-0.586269,0.471168,0.980216,0.055126,-0.190097
0.007178,-0.283393,-0.007367,0.157923,-0.953321,0.257369
0.071900,-0.272082,0.090646,0.116923,-0.985824,0.120337
-0.088054,-0.102695,0.543816,-0.765032,-0.580214,0.279425
0.253615,-0.523217,-0.928720,0.844608,0.514548,0.147909
-0.059450,0.260081,0.596755,-0.149877,0.846071,-0.511567
0.410879,0.476099,0.488452,0.196972,0.615924,-0.762784
0.545934,-0.170077,0.490130,0.403117,0.400191,0.823009
-0.598767,0.197226,0.790295,-0.522833,0.200073,-0.828623
0.201905,-0.280836,0.769343,0.619779,-0.701345,-0.352121
0.305665,-0.169681,0.568622,0.295552,0.796170,0.527980
0.515872,-0.548397,0.511331,0.750263,-0.031370,-0.660395
0.038473,-0.304545,-0.216575,0.935589,0.314441,0.160621
0.203028,-0.112824,0.771954,0.670905,0.703303,-0.235056
0.036344,-0.348907,-0.988001,0.239355,-0.251656,-0.937752
0.330678,0.020359,-0.041686,0.699511,0.351109,0.622420
-0.206280,0.132109,0.697659,0.855368,-0.423165,0.298792
0.112170,-0.425534,-0.977867,-0.222447,0.145417,0.964039
-0.342009,-0.382649,0.476297,0.744554,0.396264,0.537229
0.053281,-0.341234,-0.345022,0.991240,-0.048392,0.122888
-0.314528,-0.167225,0.852125,-0.635004,-0.746747,0.197836
0.197195,-0.446782,0.515403,0.987447,0.117655,-0.105382
-0.029278,-0.230181,0.190712,0.678613,-0.720992,-0.140194
0.302410,-0.490556,-0.952003,-0.267119,-0.527147,-0.806699
0.373526,-0.515244,0.505673,-0.674017,0.650546,0.349986
-0.468314,-0.194765,0.875284,0.896884,-0.097934,0.431286
0.585194,0.559612,0.311822,0.992729,-0.023014,-0.118147
-0.495569,0.619615,0.343934,0.765772,-0.393987,0.508298
0.928545,0.487800,0.478194,-0.666540,0.724280,-0.176475
0.158161,-0.717195,0.474028,0.648633,0.716854,-0.255726
0.313179,0.740112,0.345457,0.851412,-0.454893,0.261096
0.124172,-0.561773,-0.965743,-0.201151,0.177779,0.963293
0.065170,-0.116468,0.578041,0.969566,-0.105211,-0.221072
0.198427,-0.193390,0.045168,0.326955,0.537472,-0.777318
0.654400,0.208634,0.327210,0.942457,-0.186353,-0.277574
0.629723,-0.379695,-0.948646,-0.097397,0.322237,0.941635
0.289398,0.076135,0.435917,0.829168,-0.098140,0.550317
-0.011440,-0.167717,0.501383,0.084356,0.921026,-0.380256
0.334604,-0.280445,0.452019,0.799348,0.600819,0.007710
0.569602,-0.521344,-0.944263,-0.107414,0.133055,0.985271
-0.274031,0.080758,0.372626,-0.413810,-0.900669,0.132506
0.284801,0.554101,0.284062,-0.658735,0.744908,0.105740
0.108692,-0.110465,-0.127825,0.897940,-0.437717,-0.045909
0.260571,-0.753590,-0.947993,-0.215787,0.218665,0.951642
-0.339315,0.137026,0.110230,0.847969,-0.256060,0.464092
-0.030511,0.395335,0.488265,0.729429,-0.484157,0.483246
0.114190,-0.691126,-0.240698,-0.776354,0.568498,0.272184
0.233426,-0.091877,0.718300,0.969769,-0.196427,-0.144793
-0.096020,0.001183,0.576611,0.737725,0.568591,-0.363959
0.353671,-0.069741,-0.024589,0.548526,0.023387,0.835806
-0.254965,0.137416,0.749821,0.926957,-0.269866,-0.260622
0.579470,0.122761,0.570052,0.020923,-0.886488,0.462277
-0.303197,-0.194470,0.569772,0.757441,0.391177,0.522747
-0.078630,0.059414,0.384998,-0.710357,0.667911,-0.222009
-0.114412,-0.050168,0.698001,0.484810,0.717844,-0.499659
0.580594,0.629941,0.208897,0.222563,0.911967,-0.344647
0.158383,-0.364349,0.603811,0.939889,0.211521,-0.268083
-0.197869,-0.787332,0.250303,0.953570,-0.296884,0.050644
0.213010,-0.105349,0.641798,0.275184,-0.389089,0.879138
-0.090074,-0.473835,-0.268333,0.757142,-0.651986,0.040622
0.795175,0.260969,0.356679,0.050132,-0.819962,0.570218
0.756027,0.071512,0.159035,0.743795,0.136097,-0.654405
0.093887,0.061575,0.737760,-0.622863,0.734864,0.268359
-0.770497,-0.160243,0.766670,-0.390212,-0.333776,-0.858096
0.225463,-0.080463,0.376791,0.999970,-0.006123,-0.004763
0.111835,-0.181586,-0.176940,-0.746533,0.662186,-0.064794
-0.223779,0.303957,0.695514,-0.781224,0.582913,-0.223388
-0.214807,-0.079287,0.676148,0.973261,0.228514,0.023337
0.064722,-0.905962,0.479996,0.877362,-0.393038,-0.275240
-0.090971,-0.044164,0.352358,0.925529,0.367656,-0.090697
0.332698,-0.651585,-0.944481,-0.203048,0.123725,0.971321
-0.391138,-0.137122,0.938823,0.072728,-0.948176,-0.309310
0.203364,-0.337104,-0.980509,0.131737,-0.190570,-0.972794
-0.670219,0.417177,0.529392,0.158575,-0.765109,0.624069
-0.025462,-0.610074,0.589481,0.078504,0.967988,0.238404
0.301177,-0.764019,-0.948398,-0.092316,0.110672,0.989560
0.059672,-0.382745,-0.981597,-0.218498,0.359332,0.907270
-0.229277,-0.145977,0.712425,-0.508981,-0.858893,-0.056932
0.091084,-0.784966,-0.962231,-0.372113,0.113467,0.921226
0.015480,-0.434978,0.448444,0.857698,-0.317447,-0.404451
0.737518,-0.208147,0.549598,0.437972,-0.547121,-0.713330
0.635220,-0.095413,0.555162,0.747005,0.291648,-0.597433
0.228602,-0.578200,-0.923373,-0.361138,0.796766,-0.484502
-0.030285,-0.189457,0.539401,0.745843,0.639071,-0.187901
-0.640492,-0.132991,0.720041,0.156226,-0.958697,0.237682
0.034772,-0.327762,-0.277534,0.561424,-0.814752,0.144850
-0.180483,0.333562,0.536977,0.855340,-0.031595,0.517102
-0.758496,-0.156106,0.563586,0.685150,0.716991,-0.128424
0.499943,-0.408813,-0.956107,-0.308344,0.286166,0.907212
-0.462816,0.137416,0.600143,-0.645728,0.405387,-0.647068
-0.302187,-0.147454,0.787653,-0.142410,-0.715660,-0.683777
0.128098,-0.651285,-0.956977,0.215702,0.011313,-0.976394
0.677061,0.778674,0.336877,0.029442,0.993210,0.112546
0.537407,-0.541510,0.393795,0.560416,-0.781114,0.275310
-0.567360,0.427107,0.380864,0.959156,-0.021046,-0.282094
0.180035,-0.439403,0.592993,0.935463,-0.098910,0.339302
0.102411,-0.257331,0.017501,-0.622004,0.736416,0.266087
-0.141449,-0.222310,0.502098,-0.525129,0.615108,0.588117
0.099720,-0.609678,-0.296341,0.854580,-0.428352,-0.293610
-0.677623,-0.034918,0.530697,0.699927,-0.292408,0.651613
-0.140997,-0.258904,0.534241,0.956090,0.289723,-0.044182
0.243185,-0.813497,0.533402,0.825530,0.509626,-0.242450
0.601570,-0.219950,0.368523,0.205948,0.952215,-0.225547
0.008862,-0.158471,0.865771,0.891490,-0.443179,0.094008
0.631633,0.686798,0.312382,0.466729,0.855858,-0.222870
0.168930,-0.076038,0.378377,0.966580,-0.069500,-0.246763
0.688389,-0.279365,0.558985,-0.403667,0.779612,0.478809
0.354572,0.735885,0.365072,-0.681213,-0.657039,0.322876
0.430734,0.301201,0.438466,-0.221170,-0.575823,0.787091
-0.199663,-0.081742,0.589418,-0.830620,0.550974,-0.080609
0.456644,-0.533441,0.404924,0.421369,-0.880956,0.215324
0.609533,0.160537,0.298331,0.953349,-0.300764,0.025841
0.459451,-0.581346,-0.947683,-0.042011,0.380822,0.923693
0.217385,-0.306316,0.128167,-0.483721,-0.475761,0.734619
-0.044306,-0.245425,0.890298,0.958732,0.037554,-0.281822
-0.268425,0.064331,0.318008,0.430939,0.766542,-0.476136
-0.356701,-0.158471,0.442942,-0.627714,-0.637698,-0.446449
-0.117107,-0.203914,-0.008238,0.983263,0.152999,0.098924
0.225799,-0.776609,-0.945258,0.282976,-0.255497,-0.924470
0.413683,-0.178440,0.508253,0.193225,0.847890,0.493707
0.320135,-0.468227,-0.937051,-0.437624,-0.283275,-0.853370
0.207290,-0.272376,0.113992,-0.382656,0.175901,0.906992
0.339092,-0.133879,0.441139,0.958295,-0.019069,-0.285145
-0.075378,-0.202636,0.616152,0.184154,0.753927,-0.630620
-0.202357,-0.198601,0.552644,0.260914,-0.759206,-0.596264
-0.177789,-0.220737,0.594579,0.755567,0.609920,0.238990
0.078969,-0.614889,0.498741,0.972930,-0.000666,0.231098
-0.417609,-0.216901,0.610059,0.001510,0.976235,0.216710
-0.373304,0.340250,0.191893,0.991596,-0.070050,0.108764
0.248793,-0.310542,0.538003,-0.174886,-0.466447,0.867088
0.070668,-0.377041,-0.394852,-0.590231,0.802077,0.091107
-0.180819,-0.506784,0.086450,0.840642,0.457826,0.289340
0.029614,-0.349796,-0.138394,0.879452,0.417319,0.228930
0.053056,-0.414715,-0.445336,0.997649,-0.001491,0.068514
-0.008414,-0.280836,-0.005253,-0.318398,0.912891,-0.255447
0.013124,-0.516919,-0.976934,-0.472763,0.251815,0.844443
0.489174,-0.214931,0.346825,-0.222633,-0.804822,0.550178
-0.154909,-0.241198,0.322267,0.924978,-0.366253,0.101362
-0.086483,-0.413040,0.705307,-0.537665,-0.828463,-0.156737
-0.026584,-0.122370,0.652678,-0.448847,0.631956,-0.631798
-0.317893,-0.296284,0.260313,0.217710,-0.796504,0.564078
-0.284914,-0.113809,0.750723,0.518850,0.733509,0.439043
0.223444,-0.438226,-0.966800,-0.244510,0.429378,0.869396
0.096913,-0.402023,-0.563400,0.059478,-0.988728,0.137400
-0.172518,0.014757,0.782617,0.982642,0.110454,-0.149043
-0.144814,-0.211882,0.422146,0.997120,0.008400,-0.075379
-0.048123,-0.725162,-0.975256,-0.279656,0.018630,0.959919
0.483454,0.304347,0.425565,0.411539,-0.884023,-0.221672
-0.491869,-0.148829,0.931021,0.923202,0.076295,0.376665
0.040941,0.069645,0.471665,0.616176,0.453592,-0.643880
0.204374,-0.411569,-0.970282,-0.064985,0.293693,0.953688
0.222321,-0.102990,0.314216,0.265696,-0.950817,0.159227
0.503082,-0.347136,0.526936,0.490998,-0.639328,-0.591761
0.393719,-0.588923,0.278809,0.909499,-0.408913,-0.074846
-0.126866,-0.015838,0.732786,0.424190,0.900603,-0.094749
0.449017,-0.531772,0.405266,0.421369,-0.880956,0.215324
0.445878,0.869663,0.289658,0.863266,-0.098100,0.495124
0.218956,-0.731947,0.513258,-0.677796,0.050276,-0.733529
-0.296241,-0.148925,0.948677,0.122167,0.963222,0.239331
-0.030398,-0.468918,-0.985763,0.248781,-0.157479,-0.955672
0.127201,-0.298739,0.553670,0.165856,-0.389261,0.906073
0.328097,-0.575642,0.366626,-0.693058,0.710567,-0.121512
0.507457,-0.881076,0.431471,0.065877,-0.515747,0.854204
0.086257,-0.338971,-0.983960,0.234005,-0.195044,-0.952470
0.633087,0.250637,0.234760,0.612266,-0.614610,0.497378
0.453392,0.726339,0.379341,0.309952,0.894460,0.322291
-0.430734,0.182667,0.470857,-0.651704,0.404021,-0.641911
0.167920,-0.450420,-0.967733,0.322456,-0.334298,-0.885589
-0.098710,-0.286443,0.191022,-0.385133,0.716246,-0.581948
0.327988,0.204899,0.465852,0.735496,-0.627385,-0.255799
0.452269,0.808874,0.343965,0.262253,0.719781,-0.642758
0.363208,0.214637,0.452143,-0.445671,0.713854,0.540175
-0.041167,-0.243948,0.140415,0.864048,-0.412841,0.288070
-0.028717,-0.201357,0.828344,0.094050,-0.845564,0.525524
-0.483232,0.220737,0.385278,-0.401596,-0.693206,0.598486
0.111609,-0.597676,-0.962044,0.149495,-0.307496,-0.939733
0.474143,-0.518293,-0.950605,0.218190,-0.101670,-0.970596
-0.257207,-0.160044,0.771208,-0.046190,0.980767,-0.189637
-0.076275,-0.088430,0.623302,0.562162,0.664428,0.492452
-0.649916,0.199490,0.406136,-0.430680,0.830407,-0.353467
0.159841,-0.150696,0.268706,0.634692,0.575889,-0.515284
-0.331465,-0.506688,0.692033,0.691506,0.715335,-0.100573
0.325519,-0.078596,0.441574,0.812638,0.286271,-0.507611
0.077285,-0.428878,-0.608847,0.826783,-0.562490,-0.005960
0.091981,-0.321464,-0.989680,-0.163942,0.197231,0.966552
0.268647,-0.452390,-0.970313,-0.084094,0.280667,0.956114
0.043187,-0.229881,0.558892,0.689900,0.313011,-0.652735
-0.144366,0.259786,0.654730,0.741539,0.064178,-0.667833
0.413574,-0.603974,0.521403,-0.621575,0.604053,-0.498764
0.690073,0.866811,0.372844,0.008007,-0.723898,0.689861
0.271902,-0.855890,0.433306,-0.477578,-0.689264,0.544824
0.430960,-0.600924,0.504834,0.694818,0.696621,-0.178734
0.107795,-0.268540,0.108769,0.303395,-0.950369,-0.068926
-0.336398,0.639289,0.340981,0.053197,0.512426,0.857082
0.330565,0.111648,0.614940,-0.456077,0.873621,-0.169648
-0.150421,-0.267069,0.261059,0.846502,-0.502138,0.176895
-0.120023,-0.225066,0.312537,0.872517,-0.460696,0.162704
-0.128547,0.153650,0.485001,0.109396,0.993785,-0.020599
0.396971,-0.171260,0.086854,0.043415,-0.942876,0.330303
-0.146046,-0.018594,0.754920,0.870534,0.489747,-0.048152
-0.011218,-0.288118,-0.031117,0.558509,0.684025,-0.469231
0.198092,-0.442651,-0.967702,-0.171190,0.400755,0.900050
0.430621,-0.700078,-0.943020,-0.016252,0.087673,0.996017
0.062031,-0.459180,-0.506792,0.799879,-0.445393,0.402266
0.398765,-0.548397,0.541609,0.047165,0.545878,0.836536
-0.656198,-0.182571,0.646958,0.634471,0.766801,0.097272
-0.315425,-0.178632,0.865927,0.378388,0.761332,0.526494
0.076388,-0.381172,-0.451459,0.891568,-0.329861,0.310318
-0.463826,-0.204803,0.669496,0.816687,0.355799,-0.454344
-0.238249,-0.123745,0.554385,-0.028650,0.344479,0.938357
0.578687,0.163587,0.600765,0.683446,0.671679,-0.285918
0.710376,0.080073,0.199913,0.461055,-0.565148,0.684132
-0.615592,0.606334,0.361311,-0.673245,0.448572,-0.587813
0.295906,0.630043,0.288010,-0.477928,0.784756,-0.394642
0.012898,-0.547905,-0.948988,-0.260217,0.164224,0.951482
-0.267640,-0.397598,0.737667,-0.039325,0.785653,0.617417
-0.524508,-0.351561,0.664677,0.901025,-0.427564,0.073089
-0.175882,0.102300,0.644378,0.960146,-0.025218,0.278358
-0.006168,-0.001279,0.730579,-0.509944,0.850206,-0.130797
0.396971,0.562068,0.198079,0.581619,-0.787548,0.203683
0.254064,0.324712,0.050235,0.995863,-0.010858,0.090216
0.070106,-0.212668,-0.212627,0.862968,-0.460323,0.208299
0.310824,0.067477,-0.069352,-0.513057,0.849457,0.123271
-0.154012,-0.140172,0.862041,0.853249,-0.399843,0.334802
0.773862,0.123355,0.563089,-0.702671,0.636772,0.317451
-0.172182,-0.767165,-0.976810,-0.179422,0.074800,0.980924
0.035895,-0.301987,0.082564,0.399917,0.641723,-0.654414
-0.172966,-0.714439,0.189375,-0.648755,-0.627117,-0.431092
0.312282,-0.596890,0.236408,0.897117,0.440382,-0.035285
-0.585978,0.626693,0.350089,-0.243287,0.498954,-0.831779
-0.392709,-0.311431,0.809040,0.979211,-0.008305,-0.202672
0.325519,0.800216,0.342690,0.480395,0.690015,0.541387
0.067638,-0.159648,-0.174889,-0.745876,0.663040,-0.063620
-0.230622,-0.638503,0.469831,0.958550,0.267458,-0.098228
-0.508468,-0.192015,0.980261,-0.324156,-0.821944,0.468328
-0.310601,-0.045743,0.778576,-0.561284,0.422243,0.711808
-0.091868,-0.301201,0.773384,0.836937,-0.392407,-0.381514
0.396184,-0.162404,0.528552,-0.359724,0.929618,-0.080052
-0.125182,0.300414,0.284373,0.345111,0.295239,-0.890917
-0.076275,-0.599543,0.311325,-0.545874,-0.744732,-0.383923
0.705888,0.184240,0.364171,-0.628305,-0.760523,0.163821
0.417835,-0.607907,0.502751,0.634756,0.754006,-0.168997
0.294560,-0.522328,0.541546,-0.483035,0.854864,0.189434
-0.044419,-0.159942,0.893966,0.840970,0.444769,-0.308138
0.514636,0.502065,0.438341,-0.377569,0.908899,-0.177046
0.304990,-0.457703,-0.956418,-0.144728,-0.422999,-0.894498
-0.403479,0.319200,0.493239,-0.538773,-0.810822,0.228673
0.099607,-0.262146,0.639809,-0.663063,-0.599741,-0.447949
-0.410993,-0.202540,0.497093,0.199028,0.974940,0.099398
0.146268,-0.443834,-0.729398,-0.213286,0.974629,-0.067877
-0.089287,-0.277396,0.724580,0.846070,-0.532914,-0.012965
-0.026920,-0.463310,0.773726,-0.371247,-0.795510,-0.478894
0.064273,-0.352546,-0.393422,0.727950,-0.684055,-0.046441
0.105889,-0.435374,-0.678479,-0.325350,0.945091,-0.030822
0.740996,0.349400,0.381641,-0.512604,-0.338671,0.789011
-0.790577,-0.360909,0.448196,0.785491,-0.595110,-0.169848
0.150982,-0.589709,-0.963257,0.193514,-0.220863,-0.955914
0.108357,-0.676471,-0.250894,-0.776354,0.568498,0.272184
0.038363,-0.325990,-0.212409,0.868347,0.482864,0.113208
-0.230509,-0.004131,0.813485,-0.030586,0.961136,-0.274374
0.032530,0.318414,0.598682,0.076918,-0.511491,0.855839
0.165339,-0.785951,-0.956884,0.130952,-0.232577,-0.963722
0.267527,0.418456,0.479841,0.014710,-0.564399,0.825371
-0.206393,0.474916,0.608785,0.163226,0.514728,0.841673
-0.008075,-0.320479,0.036619,-0.239854,-0.970680,0.015820
-0.622996,0.063347,0.641270,0.617403,0.402306,-0.675991
-0.088729,-0.692111,-0.978862,-0.241305,-0.046224,0.969348
0.432305,0.385891,0.446766,0.374951,-0.110307,0.920459
-0.118004,-0.339367,0.545836,0.935323,-0.353634,0.010709
0.004823,-0.292051,-0.156082,0.964922,0.260369,-0.033653
-0.127315,-0.218371,0.383195,-0.746435,0.418019,-0.517778
0.613459,0.116367,0.610588,-0.596271,0.671918,0.439303
-0.143129,-0.304935,0.707296,0.905697,-0.388621,0.169370
0.503983,-0.678734,0.439833,0.834555,0.442529,0.328156
-0.151544,-0.250936,0.500731,-0.469244,0.156758,0.869044
0.112845,-0.167321,0.660139,0.960705,-0.259489,0.098548
0.382053,0.424550,0.421244,-0.168298,-0.628920,0.759036
0.807964,0.122268,0.194970,0.950383,0.181788,-0.252438
0.311721,-0.071512,-0.072368,0.308975,0.577254,-0.755852
0.722600,0.803951,0.292549,-0.161763,0.981287,0.104442
0.150869,-0.456916,-0.647798,0.801008,0.588600,0.109251
-0.138307,-0.116564,0.312226,0.591720,-0.412924,0.692360
0.039822,-0.324514,-0.346047,-0.003364,0.999787,0.020360
-0.160965,0.050757,0.586776,0.713051,0.496976,-0.494544
0.077733,-0.388448,-0.983183,0.273075,-0.198419,-0.941308
0.252048,-0.177552,0.824956,0.826060,0.475204,0.302997
-0.327200,-0.379797,0.737325,0.286400,-0.905145,-0.314145
0.673584,0.783003,0.357767,0.732614,-0.444066,-0.515832
0.490859,-0.021638,0.527713,-0.060085,0.101195,-0.993051
0.038812,-0.451014,-0.981970,0.261213,-0.238442,-0.935368
0.007065,-0.039739,0.492027,-0.010786,0.682254,0.731036
