-0.322013,0.274974,0.780618,0.095968,-0.303812,0.947886
-0.332715,0.278001,0.818264,0.646353,-0.601424,0.469593
-0.432872,0.276760,0.822780,-0.083336,-0.698380,0.710859
-0.536737,0.275661,0.825846,0.059462,-0.920475,0.386252
-0.511201,0.279511,0.874535,0.565207,-0.806777,-0.172196
0.479812,0.138653,0.196939,-0.591147,0.794172,0.140836
0.493079,0.143056,0.248529,-0.107819,0.966217,-0.234093
0.503068,0.147175,0.296724,0.882555,-0.327644,-0.337262
0.603367,0.155143,0.383554,-0.465520,0.858810,0.213862
0.280214,0.150613,0.388136,-0.577541,0.811670,-0.087394
0.053502,0.153499,0.473087,0.938102,0.037321,-0.344343
0.033243,0.156107,0.509249,0.902200,-0.417095,-0.109851
-0.024823,0.156795,0.530545,0.882150,0.464857,0.075625
-0.108290,0.156661,0.540204,-0.153129,0.897481,-0.413617
-0.065485,0.161467,0.598189,0.731737,0.589578,-0.341992
-0.092593,0.163396,0.630923,0.847005,0.468365,0.251431
-0.109713,0.166138,0.665504,0.533977,0.789686,0.302099
0.213440,0.183182,0.829933,-0.582855,0.158716,0.796925
-0.367243,0.161467,0.653406,-0.230588,-0.817951,0.527054
-0.358822,0.165317,0.698996,-0.413432,0.456455,0.787860
-0.185047,0.175759,0.804089,-0.546482,-0.172018,0.819614
-0.108860,0.181941,0.872096,0.922860,-0.367099,-0.116481
-0.282635,0.177411,0.849251,-0.437653,-0.679526,0.588816
-0.343557,0.177957,0.866327,0.854076,-0.517101,0.056218
-0.287772,0.183869,0.927543,0.168195,0.983956,0.059498
0.365105,-0.001786,0.055486,0.788960,-0.608609,0.084481
0.288630,-0.001786,0.071342,-0.571064,0.815979,-0.089799
0.239690,-0.000411,0.098472,-0.614246,-0.782752,-0.100002
0.210732,0.002198,0.131767,0.948385,-0.084529,0.305647
0.205450,0.005905,0.174489,0.780054,-0.572603,0.252273
0.195462,0.008933,0.216751,0.910094,0.284075,-0.301713
0.878587,0.044521,0.535259,0.871022,0.102531,-0.480424
0.141676,0.013470,0.285054,0.531496,-0.053730,0.845355
0.079614,0.014427,0.305723,0.927537,0.268369,-0.260100
0.057356,0.017044,0.342743,0.748733,-0.651392,0.122832
0.298048,0.032015,0.480735,0.095134,0.984638,0.146416
0.420745,0.040947,0.571422,-0.695567,0.714377,0.076502
0.596374,0.059367,0.767399,-0.427187,0.806518,-0.408706
0.043945,0.033944,0.553884,0.723880,-0.564042,-0.397309
-0.021256,0.034355,0.572279,0.869980,0.381874,-0.311941
0.004994,0.039438,0.625517,0.931812,0.138718,-0.335385
0.134114,0.055383,0.798781,-0.652327,0.105282,-0.750590
-0.119275,0.047406,0.743697,-0.362691,0.424601,-0.829559
-0.110571,0.051533,0.788892,0.442757,0.648960,0.618722
-0.067340,0.056758,0.846548,0.958201,-0.092356,-0.270778
-0.225993,0.052766,0.829175,-0.416244,0.873560,0.252258
-0.195036,0.057169,0.880238,0.082066,-0.873100,0.480585
-0.274075,0.057303,0.890622,-0.692570,0.721189,0.015280
-0.541732,0.048647,0.833724,0.464678,0.014983,-0.885353
-0.125693,-0.070630,0.471801,-0.296616,0.950003,-0.097541
-0.011129,-0.058401,0.601519,0.839914,0.461407,-0.285741
-0.042944,-0.056481,0.632473,0.235048,-0.874215,-0.424854
0.087316,-0.046726,0.724643,0.271028,0.955090,-0.119776
-0.016977,-0.047959,0.728038,0.972919,-0.017350,-0.230492
-0.114281,-0.048924,0.731994,-0.801768,-0.458473,-0.383369
-0.030104,-0.041501,0.803990,0.405548,0.534096,0.741804
-0.076471,-0.040268,0.828450,0.995306,-0.076261,-0.059581
-0.154229,-0.040536,0.839493,-0.086134,-0.175022,0.980790
-0.228418,-0.040813,0.853009,-0.656977,0.338861,-0.673464
-0.144241,-0.033390,0.925235,0.124427,-0.985830,-0.112505
-0.237836,-0.034355,0.931565,-0.147605,0.818782,0.554806
-0.297761,-0.033533,0.948707,0.043904,-0.642101,0.765362
0.111285,-0.104029,0.026081,0.925625,-0.042466,0.376052
0.218007,-0.094686,0.116899,0.811732,0.558600,0.170462
-0.063491,-0.104029,0.049354,0.057859,-0.956520,0.285871
-0.281494,-0.107191,0.054101,0.444996,-0.763374,-0.468230
-0.343844,-0.106637,0.074210,0.934797,0.075861,0.346988
0.085892,-0.082180,0.292043,0.864642,0.374014,0.335421
0.593950,-0.040536,0.709314,-0.709193,0.442451,0.548892
0.682981,-0.179474,0.542874,0.762278,-0.607034,-0.224593
-0.026107,-0.209979,0.303943,0.804478,-0.586814,0.092003
-0.725921,-0.236634,0.117460,-0.591714,0.600030,-0.538367
0.335571,-0.177545,0.621594,0.024377,-0.956770,0.289822
-0.012840,-0.190738,0.530116,0.489651,-0.499781,-0.714465
0.360964,-0.165593,0.756883,0.052756,0.957625,0.283144
-0.437008,-0.196232,0.536479,-0.497925,0.781825,0.375262
-0.435440,-0.192659,0.580421,-0.715142,0.670277,-0.198246
-0.598944,-0.196232,0.561796,-0.620678,-0.771475,-0.139945
-0.689826,-0.196509,0.570696,-0.425189,-0.867011,0.259819
-0.129402,-0.167103,0.820505,-0.330711,0.526976,-0.782896
-0.194034,-0.166826,0.836362,0.881961,-0.448972,-0.143418
-0.185191,-0.162842,0.881557,0.961037,-0.048526,-0.272129
-0.314881,-0.165182,0.873382,0.715262,0.575879,0.395935
-0.431161,-0.167237,0.871865,0.410878,0.877938,-0.245772
0.076475,-0.294080,0.214608,-0.895101,0.433026,-0.106223
0.450135,-0.249693,0.669492,0.959085,-0.097254,-0.265892
0.138820,-0.260958,0.590970,0.037387,0.634778,0.771789
-0.106574,-0.268934,0.539940,0.759374,-0.561056,-0.329496
-0.277214,-0.273464,0.518084,0.102275,0.991113,0.085055
-0.215866,-0.262745,0.626111,-0.708157,-0.532621,0.463496
-0.619203,-0.278278,0.514755,0.003375,-0.998569,0.053370
-0.084603,-0.249417,0.758960,0.925039,-0.016310,0.379522
-0.484803,-0.264673,0.649450,-0.062897,-0.907557,0.415193
-0.282352,-0.248041,0.809099,0.606685,0.615246,0.503394
-0.278925,-0.244468,0.851822,-0.630390,-0.774198,0.056786
-0.300756,-0.241860,0.883337,0.988564,-0.143202,0.047277
0.005708,-0.390687,0.268407,0.588769,-0.806593,-0.052514
0.018835,-0.374884,0.451989,0.660623,0.732396,-0.164843
0.458695,-0.346158,0.707699,0.848908,-0.516640,-0.111525
0.102298,-0.359628,0.613188,-0.632047,-0.497145,-0.594444
-0.193464,-0.369793,0.541226,0.760934,-0.646162,-0.058772
-0.180053,-0.358118,0.675426,0.486171,0.753573,0.442454
0.011273,-0.345201,0.788200,0.935635,-0.327764,0.130992
-0.030958,-0.343415,0.812693,0.864417,0.236041,0.443923
-0.276073,-0.348221,0.803001,0.406190,-0.061270,0.911732
-0.030818,-0.520549,0.300680,-0.476194,-0.476643,-0.738953
-0.315878,-0.510518,0.454396,0.175307,0.505434,0.844869
-0.426023,-0.512304,0.454330,-0.524261,-0.432903,-0.733311
-0.370952,-0.505427,0.517491,0.898735,-0.438490,0.001611
-0.372093,-0.501174,0.560543,0.835985,-0.467041,-0.288102
0.157512,-0.463657,0.885908,0.731708,0.052293,-0.679609
-0.071763,-0.471348,0.841768,0.969237,-0.245999,0.007996
-0.265941,-0.476708,0.809396,0.168870,0.779286,-0.603487
-0.572694,-0.619076,0.370104,0.917209,0.386293,-0.097496
-0.459266,-0.605337,0.501569,-0.686665,0.601481,0.408303
-0.381080,-0.597093,0.574718,0.291422,-0.935927,0.197771
-0.492792,-0.594887,0.615364,-0.164543,0.965884,0.199984
-0.056782,-0.565757,0.861184,0.851813,0.431099,-0.297606
-0.142817,-0.566168,0.870777,0.403988,-0.372599,-0.835442
-0.179056,-0.744678,0.371752,-0.819231,0.396042,-0.414742
-0.289201,-0.741239,0.418134,-0.020136,-0.396489,0.917818
-0.433586,-0.744678,0.406728,-0.594966,0.800852,0.068212
-0.469110,-0.734093,0.521447,-0.665560,-0.746338,0.003024
-0.252104,-0.807752,0.406003,0.609140,0.576807,0.544282
-0.481380,-0.810913,0.404124,0.613827,0.510453,-0.602207
0.751749,0.108701,-0.969200,-0.293384,0.283008,0.913144
0.289915,-0.014158,-0.019609,-0.418211,0.908235,0.014411
0.322017,-0.012371,-0.054321,0.054074,0.988421,-0.141773
0.382364,-0.010853,-0.401904,0.957824,0.177928,0.225642
0.388787,-0.010995,-0.447429,0.905924,0.416051,0.078767
0.382225,-0.011818,-0.496811,0.982067,-0.137241,-0.129261
0.413043,-0.010031,-0.533864,0.991491,-0.030667,0.126514
0.383649,0.089595,-0.002335,0.841488,-0.526634,0.120643
0.314027,0.083279,-0.197719,0.840553,0.521678,0.146021
0.318878,0.083279,-0.242453,0.958406,0.275516,-0.074490
0.361966,0.086022,-0.276703,0.946861,0.224736,-0.230104
0.375803,-0.016355,-0.978101,0.221896,-0.500647,-0.836729
0.530746,-0.005913,-0.980045,-0.161556,0.265171,0.950570
0.297761,-0.014426,-0.106472,0.960831,0.224717,-0.162193
0.345842,-0.011407,-0.138942,0.966378,0.254235,-0.038456
0.337139,-0.012505,-0.187137,0.787116,0.612349,0.074006
0.346269,-0.012228,-0.228937,0.095257,-0.896817,0.432025
0.333429,-0.013604,-0.277165,0.949920,0.098760,-0.296477
0.382225,-0.010585,-0.310097,-0.712548,-0.562334,-0.419589
0.729347,0.008379,-0.970683,-0.190911,0.347702,0.917963
0.605936,-0.150336,-0.963629,-0.040727,-0.008048,0.999138
0.788558,-0.137008,-0.957102,-0.237407,0.068985,0.968958
0.490371,-0.154320,-0.704293,-0.207096,0.973628,-0.095708
0.468113,-0.156517,-0.757696,0.975150,0.218078,-0.039040
0.419178,-0.162431,-0.919291,0.490299,-0.868805,-0.069171
0.490654,-0.157893,-0.947872,-0.472680,-0.830360,-0.295086
0.202882,-0.278689,-0.973914,0.392900,-0.186889,-0.900390
0.403769,-0.264673,-0.962244,-0.205627,-0.125360,0.970568
0.567272,-0.253401,-0.963233,-0.199915,-0.286447,-0.937007
0.728777,-0.241725,-0.962871,-0.038265,-0.091848,0.995038
0.463689,-0.341217,-0.966925,-0.646418,-0.091917,0.757427
0.657728,-0.327059,-0.959014,-0.045288,-0.222913,-0.973786
0.249679,-0.356189,-0.980375,-0.100041,0.667556,0.737808
0.127835,-0.428061,-0.980540,-0.191864,0.055912,0.979828
0.355970,-0.411848,-0.962937,0.497328,-0.112610,-0.860223
0.233843,-0.503095,-0.969629,-0.191354,0.337512,0.921667
0.421172,-0.490178,-0.964057,0.093466,-0.294441,0.951088
0.611074,-0.476297,-0.955552,0.106080,0.198678,-0.974307
0.161792,-0.563417,-0.974145,0.193117,-0.364182,-0.911086
0.365531,-0.549267,-0.963662,0.058537,-0.164744,-0.984598
-0.554859,-0.721042,0.382268,0.980252,0.168486,-0.103529
0.045369,-0.409374,0.867349,-0.245167,0.725213,0.643396
-0.020686,-0.349596,0.821428,0.416232,-0.454514,-0.787508
-0.177058,-0.363612,0.576597,0.738101,-0.658596,0.146488
-0.186475,-0.180020,0.908423,0.207078,0.825200,0.525512
-0.352260,-0.194312,0.704172,-0.094641,-0.349777,0.932040
-0.431443,-0.200770,0.642692,-0.658191,0.417671,-0.626367
-0.268084,-0.045762,0.889963,0.939935,0.280023,0.195216
-0.172064,-0.039715,0.833329,0.502815,0.199181,-0.841133
-0.079039,-0.033533,0.816879,0.999186,-0.010289,0.039010
-0.080894,-0.033943,0.775179,-0.068623,-0.575799,0.814706
0.653730,-0.123538,0.754740,0.958042,0.122678,-0.259047
-0.062346,-0.174525,0.655120,-0.390049,-0.311650,0.866451
-0.442428,-0.202690,0.516568,-0.225100,0.959276,0.170644
-0.160651,-0.280887,0.555104,0.758690,0.165920,0.629968
-0.063491,-0.274294,0.539248,-0.659431,0.655360,0.368311
-0.256811,0.050291,0.927180,-0.585373,0.117454,0.802211
0.405480,0.095231,0.729489,-0.444109,0.355292,0.822517
0.002286,0.066370,0.585102,0.928212,0.190942,-0.319318
0.157086,0.075445,0.286768,0.289224,0.891590,-0.348448
0.242403,0.081216,0.265539,-0.518156,0.851169,0.083814
0.130974,0.073105,0.193774,0.704713,-0.688334,0.171977
0.192040,0.077089,0.167699,0.968606,0.175840,0.175737
0.228135,0.079295,0.133052,-0.364736,0.898394,-0.244656
0.030535,0.068157,0.549533,-0.602830,0.123933,0.788185
0.130547,0.074615,0.491877,0.154927,-0.610960,-0.776354
0.159937,0.076133,0.415629,-0.190790,0.929330,0.316141
0.422317,0.092346,0.098010,0.975671,-0.219049,-0.009153
-0.051077,-0.037517,0.064518,0.111648,0.954139,-0.277766
0.265802,-0.015391,0.018828,0.193321,0.863138,0.466497
0.375233,0.088773,0.040355,-0.845917,0.458081,0.273104
0.005565,-0.028173,0.757015,0.867289,-0.372202,-0.330568
0.121273,-0.020339,0.744488,0.563235,0.818570,-0.112735
0.048652,-0.025288,0.684756,-0.067073,0.962216,0.263896
0.035525,-0.026664,0.639396,0.330932,0.663293,-0.671212
0.303896,-0.007834,0.667284,-0.581206,0.296481,-0.757825
-0.288626,-0.053872,0.045893,-0.138504,-0.382854,0.913367
-0.413039,0.228390,0.730577,0.828806,-0.553969,-0.078737
-0.426310,0.227291,0.687459,0.793633,0.443063,0.416944
-0.148809,0.246532,0.716765,0.328773,0.754028,-0.568638
-0.149091,0.246255,0.675064,-0.461516,0.886473,-0.034180
-0.174062,0.244469,0.628484,0.866638,-0.399848,-0.298430
-0.311172,0.141681,0.911192,-0.186721,-0.116913,0.975431
-0.379939,0.136598,0.853569,0.826197,-0.548223,-0.129808
-0.121130,0.154597,0.877996,0.982661,0.057506,-0.176266
-0.097731,0.155973,0.844372,-0.589479,-0.291564,0.753329
-0.194178,0.148961,0.779431,0.599375,0.621048,0.505024
0.006422,0.161609,0.458681,-0.586081,-0.780559,0.217342
0.278642,0.180154,0.402278,0.733796,-0.677640,0.048452
0.431304,0.190462,0.357511,0.812278,0.581387,-0.046829
-0.173061,0.055927,0.906907,0.110328,-0.054143,0.992419
-0.066769,0.062386,0.770794,0.008757,0.947846,0.318608
0.025967,0.068710,0.754608,0.936860,-0.337237,-0.092539
0.070483,0.071595,0.726127,-0.659639,0.013788,-0.751456
-0.059638,0.061975,0.651725,0.845616,-0.215921,0.488172
-0.197600,0.148273,0.697216,0.112784,0.581198,-0.805909
-0.080468,0.156518,0.602969,0.120469,-0.077365,0.989698
-0.066769,0.455412,0.752795,0.332751,0.725614,-0.602297
0.028110,0.462139,0.653438,0.556430,0.752247,-0.352861
-0.468967,0.322111,0.868173,-0.371732,0.844352,0.385856
-0.364243,0.329257,0.854591,-0.691539,-0.645253,-0.324688
-0.236125,0.338055,0.846647,-0.645707,0.117249,-0.754529
-0.178912,0.341897,0.819846,0.904880,-0.016358,0.425353
-0.249109,0.240351,0.894644,-0.546180,-0.832727,0.090844
-0.108860,0.249962,0.888051,0.561587,-0.668581,-0.487462
-0.295618,0.236777,0.800957,0.886542,0.139821,0.441014
-0.150093,0.343826,0.787474,0.009100,-0.005157,0.999945
-0.043515,0.351106,0.772805,0.916900,-0.393756,-0.065191
-0.076044,0.251069,0.611309,-0.855396,0.516243,0.042313
0.026825,0.258484,0.553126,-0.154250,0.983015,0.099442
0.066774,0.261235,0.523095,-0.483546,0.815530,-0.317953
-0.301039,0.542667,0.786156,0.417982,-0.711325,-0.565074
0.242547,0.580184,0.799441,-0.536009,0.029924,0.843682
0.128549,0.572350,0.731104,0.675224,0.736249,0.044834
-0.336708,0.436860,0.887952,0.815054,-0.454668,0.359116
-0.219714,0.444962,0.875755,-0.636135,0.325427,-0.699592
0.031532,0.462416,0.896787,-0.390081,0.837346,0.382999
-0.488085,0.741382,0.731665,-0.698749,0.428930,-0.572512
-0.209731,0.010308,0.872788,0.214124,0.080937,0.973447
0.062063,0.050845,0.416651,0.978734,-0.115206,0.169727
0.243687,-0.038339,0.012928,-0.487001,0.821527,-0.296518
-0.262232,0.117080,0.878029,-0.613522,-0.591331,-0.523372
-0.164645,0.061564,0.751213,0.666790,0.080373,0.740899
0.011843,-0.015802,0.333381,0.918422,-0.373311,0.130922
0.106152,-0.079429,0.303086,0.897477,-0.310420,-0.313329
0.105438,-0.073105,0.252551,0.896716,-0.395832,0.198032
0.263089,-0.161609,0.029641,0.314187,-0.946427,-0.074585
-0.203452,0.129309,0.894973,0.661998,0.427347,0.615738
-0.234414,0.157759,0.837713,0.457907,-0.874981,-0.157254
-0.157652,0.105950,0.804484,0.899808,0.027205,-0.435437
0.092166,-0.015802,0.304438,0.865272,0.282199,-0.414328
0.117281,-0.028718,0.259803,0.916217,-0.367485,0.159692
0.155513,-0.045208,0.163380,0.964896,-0.044036,0.258914
-0.218147,0.216438,0.844603,0.790069,0.173664,-0.587904
-0.240405,0.237188,0.788826,-0.593161,-0.792295,0.142931
0.177772,0.004395,0.172742,-0.664334,0.150447,-0.732138
-0.259092,0.223307,0.915280,0.229084,0.488248,0.842101
0.083606,0.046861,0.286076,0.906457,-0.265122,0.328704
-0.096730,0.215197,0.845922,-0.707913,0.530200,0.466634
0.454846,-0.103064,0.058452,0.800786,-0.502514,0.325918
-0.151661,0.219323,0.870118,-0.396318,0.752886,0.525448
0.396776,-0.086441,0.028718,-0.421872,0.779694,0.462710
0.170069,0.179466,0.684623,-0.547188,0.826981,-0.129181
0.069913,0.429848,0.772541,0.352057,0.934137,0.058680
-0.291051,0.317573,0.705326,0.465680,0.351832,0.812008
-0.199316,0.225505,0.662801,-0.589765,0.807360,0.018616
-0.093451,0.017178,0.844339,0.847753,0.400853,0.347321
-0.089028,0.052908,0.797100,0.397917,0.871446,0.286781
-0.098158,-0.087673,0.732093,0.845032,0.151447,0.512820
-0.087173,0.035320,0.671602,-0.614171,-0.748964,-0.248689
-0.082749,0.059501,0.623836,-0.725254,-0.050533,0.686624
-0.079753,0.076133,0.577059,-0.244235,0.639501,0.728964
0.051504,0.235125,0.779233,-0.793794,-0.005659,-0.608160
0.059354,0.274152,0.644439,0.212168,-0.914732,-0.343875
0.181625,0.267006,0.810912,0.381636,0.003759,-0.924305
-0.259807,0.328846,0.751081,0.896053,0.149367,-0.418065
-0.201171,0.285559,0.722401,-0.497852,0.338828,-0.798335
-0.261378,0.181806,0.695535,0.862737,-0.505266,0.019777
-0.251678,0.130685,0.694348,-0.678606,0.314525,-0.663753
-0.160077,0.248176,0.638802,0.839606,0.443134,0.314156
-0.081608,0.290507,0.640978,0.369561,0.533447,-0.760828
-0.080180,0.314688,0.646186,-0.588741,-0.722282,0.362895
-0.122697,0.270034,0.669657,0.313302,-0.895689,0.315569
-0.181764,0.169024,0.642494,-0.232458,0.686969,-0.688504
-0.056355,0.335170,0.660328,0.315078,-0.948995,-0.011620
-0.226563,0.157617,0.639692,-0.553653,0.648396,-0.522542
-0.221857,0.306586,0.843482,0.979914,0.198130,-0.022630
-0.255243,0.204620,0.713171,-0.572747,0.745075,-0.341796
-0.233983,0.225915,0.668702,0.762298,-0.620835,0.182937
-0.261949,0.222343,0.714951,0.671959,-0.471882,0.570788
-0.215008,0.294902,0.709479,0.885853,-0.106752,-0.451518
-0.184904,0.247908,0.665636,-0.742451,0.657598,0.127796
-0.243544,0.152400,0.638011,0.589321,-0.807647,0.020162
-0.137392,0.219600,0.652351,0.357630,0.933778,-0.012649
-0.017120,0.277448,0.604848,0.239837,0.861705,0.447149
-0.139678,0.051121,0.902720,0.220355,0.230895,0.947698
-0.037807,0.160091,0.603595,0.317640,0.481415,0.816912
0.047511,0.192114,0.913895,-0.626637,0.703431,0.335426
-0.043658,0.045896,0.891116,-0.143906,0.969027,0.200691
0.036100,0.161056,0.836955,-0.556622,0.444958,-0.701559
-0.004707,0.094409,0.805737,0.699518,0.578445,-0.419615
0.056359,0.168202,0.673317,0.755467,-0.642221,-0.129699
0.040950,0.138519,0.635473,0.957232,-0.139350,-0.253552
-0.019402,0.042046,0.606265,0.995646,-0.093140,-0.003695
0.038524,-0.036141,0.813385,0.895165,-0.308208,-0.322005
0.179770,-0.169854,0.807946,-0.531495,0.074249,-0.843801
-0.319305,0.323487,0.716962,0.318011,0.385412,0.866214
-0.252958,0.162154,0.794232,0.491290,-0.868348,0.067863
-0.230273,0.143190,0.839361,-0.230160,0.242624,-0.942422
-0.219288,0.226746,0.907171,-0.507594,-0.680944,-0.527886
-0.399628,0.303424,0.788793,-0.163066,-0.342113,0.925402
-0.377370,0.286247,0.833494,0.942279,-0.022977,-0.334041
-0.380936,0.358806,0.859272,-0.689957,0.317407,-0.650547
-0.304323,0.160091,0.943333,0.586392,-0.737503,-0.335013
-0.190756,0.214786,0.712050,-0.137362,-0.204551,0.969170
-0.104719,-0.014845,0.803792,0.238188,0.489333,0.838940
-0.123699,0.110345,0.820077,-0.604777,-0.765740,0.218829
-0.123267,0.168067,0.850800,0.393111,-0.677545,-0.621608
-0.114851,0.196509,0.885809,-0.289953,0.211009,0.933489
0.011699,0.021572,0.563246,0.947392,0.103328,0.302940
0.062063,0.316617,0.842493,-0.533536,0.815311,-0.224962
0.074049,0.387382,0.909181,-0.533751,0.563552,0.630491
0.009561,0.004806,0.821330,0.637068,-0.211877,0.741115
-0.087887,0.099215,0.631846,0.840857,0.396105,0.368863
-0.054927,0.046995,0.686436,0.982522,0.122254,-0.140370
-0.027108,0.012095,0.737368,0.982850,-0.180488,-0.037803
-0.008560,0.007557,0.779596,0.916828,0.390346,-0.084007
0.071193,0.202557,0.564367,0.507816,-0.712383,-0.484390
0.101872,0.156929,0.616254,0.823680,-0.517329,0.232209
0.086031,0.268516,0.635934,0.172889,0.981295,-0.084668
0.056215,0.426686,0.645626,0.870413,0.464773,0.162381
0.101728,0.333107,0.709051,0.963189,0.011647,-0.268572
0.135115,0.275385,0.762849,-0.686206,0.613738,0.390445
0.121700,0.375984,0.782925,0.736037,0.226572,-0.637899
0.101872,0.503095,0.799210,-0.068829,-0.949617,0.305761
0.142961,0.417896,0.858284,-0.011379,0.769789,0.638197
0.189759,0.287756,0.697381,-0.514636,0.759277,0.398307
0.198175,0.318538,0.734170,0.645416,-0.341745,-0.683117
0.218721,0.303147,0.778870,0.630032,-0.776569,0.001081
0.241406,0.283084,0.826143,-0.638288,0.302473,0.707883
0.690971,0.459665,0.633231,-0.684485,0.670952,0.285138
-0.758882,0.430259,0.404421,0.302168,0.944762,0.126966
-0.758168,-0.136044,0.525897,0.616866,0.314329,0.721577
-0.712937,0.093168,0.758729,-0.606003,-0.331519,-0.723087
-0.665430,-0.057446,0.468043,0.747665,-0.550561,-0.371321
-0.645310,0.115981,0.731401,0.799251,0.579966,0.157601
-0.640460,0.064449,0.708391,-0.227688,0.934333,0.274190
-0.627763,0.308372,0.568257,0.768190,0.543107,-0.338997
-0.618063,0.161190,0.532951,0.872567,0.356645,-0.333814
-0.607504,0.178787,0.454659,0.950019,-0.041611,0.309405
-0.603080,0.045074,0.453736,0.996616,0.080244,-0.017816
-0.599941,-0.209292,0.488514,0.100169,-0.053861,-0.993512
-0.592522,-0.610697,0.525897,-0.094783,0.889170,0.447654
-0.557567,0.165317,0.435803,-0.448587,-0.199285,-0.871238
-0.555142,-0.211766,0.505063,-0.159500,0.660893,0.733335
-0.616491,0.636799,0.752993,-0.594484,0.557892,-0.579090
-0.593806,0.161877,0.697249,-0.508174,0.687625,0.518586
-0.588672,0.191426,0.653406,-0.448594,0.645342,-0.618302
-0.570263,-0.164905,0.604518,-0.445498,-0.156072,0.881574
0.857753,0.118045,0.596640,0.694201,0.640332,-0.328726
0.798259,0.135222,0.717424,0.395887,0.777450,-0.488718
0.763875,0.737943,0.681558,-0.653461,0.654339,0.380565
0.801398,0.120377,0.552434,-0.422546,0.705613,0.568828
0.787988,0.144155,0.534797,0.972996,-0.023175,0.229655
0.809676,0.067200,0.557049,-0.791477,0.532889,0.299322
0.808104,0.153222,0.705886,-0.165100,0.944381,0.284406
0.828363,0.096196,0.539874,0.937824,0.293805,-0.184837
0.724924,0.923457,0.676514,0.648486,0.527062,-0.549246
0.710229,0.663740,0.692700,0.100467,0.826895,0.553309
0.721928,0.626357,0.629176,-0.122967,-0.350153,0.928586
0.728350,0.080528,0.705161,-0.357632,0.924862,-0.129342
0.758311,0.003162,0.540006,-0.606894,0.405415,0.683607
0.636467,0.879070,0.661548,0.329305,0.445562,-0.832486
0.641317,0.754156,0.657757,0.761388,-0.011164,0.648200
0.645314,0.559710,0.674470,-0.617331,0.494702,-0.611696
0.650592,0.518075,0.649582,-0.605762,0.339285,-0.719679
0.652590,0.096741,0.727478,0.763692,0.024174,-0.645128
0.656300,-0.090559,0.743202,0.869801,0.492352,0.032185
0.582537,0.602721,0.655581,-0.591854,0.571017,0.568902
0.588529,0.573449,0.625550,0.179485,-0.854740,0.487037
0.588960,0.075579,0.725863,0.321013,-0.763658,-0.560158
0.593240,-0.094954,0.735555,0.784079,0.472993,-0.401868
0.602370,0.165451,0.625880,0.895404,-0.375306,-0.239578
0.488799,0.483167,0.696128,0.103082,0.781434,0.615415
0.490798,0.123950,0.758070,0.851069,-0.477424,-0.218512
0.500215,0.448946,0.632242,0.406769,-0.295525,-0.864410
0.506777,0.486740,0.583981,-0.466481,0.881185,-0.076868
0.508349,0.080662,0.658251,-0.550340,0.832177,-0.067881
0.514052,0.078465,0.622748,-0.625666,0.567443,0.535304
0.387790,0.430946,0.583124,-0.852067,0.459723,0.250274
0.388073,-0.090836,0.691118,0.037772,0.949338,0.311979
0.397917,0.317439,0.539973,0.998871,0.020721,-0.042754
0.400913,0.054007,0.576762,0.805162,-0.532685,-0.260693
0.407479,0.116946,0.520919,0.753403,-0.631933,-0.181779
0.255531,0.435341,0.828780,-0.678369,0.657569,-0.327748
0.259240,0.244879,0.844801,0.202899,0.885374,0.418264
0.273935,0.002609,0.799441,-0.006234,-0.951537,0.307470
0.295335,-0.086164,0.679745,0.283846,-0.208821,0.935855
0.313313,-0.007968,0.544687,-0.905229,0.342109,0.252034
0.319592,0.057026,0.489174,0.264315,-0.936548,0.230253
0.162219,0.468598,0.912577,0.829806,-0.558050,0.001617
0.167213,0.429571,0.887952,0.148083,-0.965428,0.214525
0.182478,0.305487,0.811506,-0.378854,0.759085,0.529395
0.187903,0.304657,0.776234,-0.336471,0.919073,-0.205165
0.191896,0.151025,0.782431,-0.621908,-0.355847,0.697570
0.196033,0.014015,0.782859,0.879876,0.380117,-0.285183
0.200887,-0.086298,0.774849,0.371951,0.286835,-0.882824
0.065633,0.371991,0.904962,-0.585551,0.529916,0.613449
0.075190,0.277859,0.858547,-0.395228,0.748891,0.531937
0.081469,0.411848,0.787310,0.988296,0.107903,-0.107837
0.086175,0.341209,0.769377,0.974680,0.223596,-0.001680
0.091169,0.306855,0.743136,0.941016,0.181506,-0.285560
0.096590,0.311258,0.704633,-0.292594,0.942972,-0.158721
0.105294,0.023225,0.708754,-0.564716,-0.617497,0.547534
0.114568,-0.106914,0.672690,-0.427253,0.763899,0.483645
0.187333,-0.081081,0.168984,0.977783,0.185536,0.097554
-0.045226,0.314000,0.850075,0.146791,0.600990,0.785661
-0.040946,0.220011,0.840087,0.061219,0.875323,0.479647
-0.036666,0.091792,0.837944,-0.230703,0.841564,0.488412
-0.030958,0.152400,0.784705,-0.328696,0.940510,-0.086028
-0.026538,0.031327,0.780651,0.789713,0.310043,0.529365
-0.020974,0.122717,0.720028,0.933261,-0.266974,-0.240310
-0.016406,0.048094,0.704633,0.903297,-0.274761,-0.329487
-0.008704,0.288444,0.601057,0.147048,0.774155,0.615679
-0.004137,0.202146,0.588398,-0.512253,0.664866,0.543646
-0.000000,0.088085,0.582630,0.950402,-0.220179,-0.219674
0.005138,0.060742,0.552302,-0.820985,0.396176,0.411131
0.010702,0.065682,0.512777,0.808976,0.552295,0.201317
0.014982,-0.022948,0.501041,0.956946,-0.290265,0.000281
0.021117,0.081904,0.434584,0.986107,-0.033059,0.162791
0.026681,0.071184,0.398421,0.963387,0.174797,-0.203299
0.031676,0.055240,0.365555,0.813346,-0.579882,0.046958
0.037523,0.034632,0.332425,0.812480,-0.564073,0.147301
0.042805,0.002064,0.302427,-0.747505,-0.344919,0.567686
0.047224,-0.100733,0.292537,-0.423716,-0.375412,-0.824336
0.053502,-0.030505,0.234090,0.958978,0.118531,0.257511
-0.176914,0.150202,0.958003,0.151734,-0.981960,-0.112838
-0.171920,0.197474,0.910599,0.553154,0.717741,0.422928
-0.167496,0.088219,0.903050,-0.493440,0.622336,0.607631
-0.162646,0.077642,0.869459,-0.221151,0.833014,0.507128
-0.157652,0.061430,0.837219,0.100235,0.857712,0.504265
-0.153089,0.020474,0.812989,0.835580,-0.308676,0.454451
-0.148521,0.000822,0.782892,-0.369344,-0.798316,0.475686
-0.144529,-0.148005,0.786650,-0.703671,0.394151,0.591179
-0.131972,0.132337,0.636429,-0.372414,-0.899268,0.229399
-0.127121,0.111587,0.604419,-0.614530,-0.101321,0.782360
-0.122697,-0.001920,0.597991,0.924499,-0.274637,-0.264340
-0.117703,-0.008379,0.563510,-0.577854,0.028820,-0.815631
-0.106574,0.126013,0.450769,-0.724785,-0.052618,-0.686962
-0.097444,-0.025833,0.417870,-0.439083,-0.898138,0.023519
-0.246540,0.119555,0.719072,-0.725608,0.189476,-0.661507
-0.240832,0.235813,0.649944,-0.455601,-0.226650,0.860847
-0.236978,0.059643,0.660889,0.105202,0.993351,-0.046763
-0.230987,0.137009,0.601947,0.431841,-0.818984,0.377859
-0.209731,-0.370070,0.558466,0.517113,-0.789790,0.329888
-0.202455,-0.085611,0.439561,-0.258589,0.658818,-0.706464
-0.279069,0.342996,0.911654,-0.719408,-0.161581,0.675532
-0.269368,0.353715,0.836131,-0.338187,-0.919778,-0.199093
-0.265802,0.118179,0.862668,-0.735176,-0.469243,-0.489211
-0.259950,0.323210,0.772376,0.815633,-0.494404,0.300512
-0.255814,0.215339,0.766113,0.998494,0.048883,0.024893
-0.251246,0.139341,0.749697,0.531810,-0.094754,-0.841546
-0.373661,0.438235,0.857987,-0.425515,0.872701,0.239435
-0.364957,0.296135,0.825978,-0.506949,0.803342,-0.312480
-0.360250,0.279645,0.793837,-0.194627,0.043975,0.979891
-0.355827,0.215197,0.775970,-0.252707,0.860220,-0.442901
-0.351690,0.056070,0.782167,0.975089,0.081028,0.206485
-0.346696,0.058544,0.744191,0.920580,-0.175834,-0.348732
-0.336852,0.073516,0.666987,0.298279,-0.104143,0.948780
-0.325866,0.168890,0.566839,0.592006,0.761479,0.263968
-0.321159,0.146487,0.536545,0.154098,0.941949,0.298304
-0.304893,-0.430677,0.547621,-0.512465,0.694843,0.504553
-0.289627,-0.394947,0.425782,-0.778241,0.531216,-0.334890
-0.470251,0.573726,0.767564,0.478934,-0.181891,0.858800
-0.465971,0.461041,0.760872,-0.438636,-0.340063,-0.831839
-0.461978,0.292982,0.769245,-0.081419,0.496076,0.864453
-0.443430,0.167237,0.657592,-0.242503,0.928829,-0.280124
-0.439290,0.038062,0.657131,-0.167210,0.149542,0.974514
-0.430159,-0.175071,0.641044,0.821964,-0.300522,0.483799
-0.414180,0.079295,0.458846,0.806475,-0.164120,-0.568034
-0.411611,-0.317850,0.532556,-0.524559,0.340585,-0.780282
-0.402767,-0.473412,0.502096,-0.754728,0.238600,0.611110
-0.547723,0.888279,0.700908,0.950035,0.308325,0.048684
-0.544013,0.615915,0.736511,0.547519,-0.320225,0.773097
-0.540304,0.390544,0.761597,0.877996,0.242030,-0.412970
-0.511057,0.250793,0.579201,0.064384,0.913549,0.401600
-0.508915,-0.195687,0.666559,0.929677,-0.263467,0.257460
-0.502498,0.070497,0.556093,0.597497,0.445539,-0.666703
-0.487371,0.077089,0.441111,0.363029,-0.784285,-0.503098
-0.476956,-0.631448,0.528765,-0.062046,0.993992,0.090171
0.872309,0.136044,-0.971573,0.155264,-0.078429,-0.984755
0.709375,0.076544,-0.972068,0.015415,-0.034735,0.999278
0.704381,-0.004671,-0.968013,0.198730,0.240619,0.950057
0.700102,-0.088227,-0.967519,-0.379432,0.099352,0.919870
0.694110,-0.173695,-0.960135,0.267034,-0.346754,-0.899141
0.771007,0.139206,-0.968112,-0.165362,0.509579,0.844384
0.766727,0.055106,-0.967717,-0.203621,0.738435,0.642847
0.761737,-0.025833,-0.964123,0.221071,-0.381157,-0.897690
0.756743,-0.107049,-0.961486,0.284706,0.027439,-0.958222
0.752603,-0.190872,-0.960563,-0.163989,0.014181,0.986360
0.747752,-0.271677,-0.958915,0.073211,-0.061049,0.995446
0.610643,0.026521,-0.975068,-0.161475,0.318743,0.933985
0.605649,-0.054694,-0.970617,0.082187,-0.015206,0.996501
0.600515,-0.136321,-0.965903,-0.158279,0.051579,0.986046
0.595234,-0.222074,-0.960926,0.073150,0.031588,0.996821
0.590815,-0.302459,-0.959838,0.009013,0.283748,0.958857
0.585389,-0.386971,-0.956344,-0.055476,0.154920,0.986368
0.580970,-0.470803,-0.954399,-0.109010,-0.250591,0.961936
0.689399,-0.257662,-0.959310,0.233436,-0.068956,-0.969924
0.685546,-0.337913,-0.960003,0.004435,-0.056200,0.998410
0.680556,-0.418717,-0.956278,0.115591,-0.009581,0.993251
0.267513,-0.052497,-0.307328,0.894436,-0.402708,0.194452
0.313170,-0.140448,-0.609024,0.792160,0.599565,0.114036
0.378942,-0.056892,-0.978298,-0.401269,0.327653,0.855352
0.373234,-0.138795,-0.971804,-0.335922,0.010939,0.941826
0.369241,-0.219323,-0.971244,-0.350495,0.164087,0.922079
0.364817,-0.302602,-0.973222,0.164828,0.166811,-0.972114
0.359823,-0.384228,-0.967354,-0.546824,0.144359,0.824709
0.355117,-0.468186,-0.966892,0.486554,0.329104,-0.809293
0.350266,-0.551599,-0.964915,-0.130419,0.372852,0.918680
0.419034,-0.138661,-0.470241,0.939959,-0.054321,-0.336938
0.511488,-0.023091,-0.974211,-0.118033,0.373099,0.920253
0.458556,-0.165182,-0.710721,0.170998,-0.969679,0.174594
0.505780,-0.108424,-0.968804,-0.175049,0.250439,0.952175
0.487946,-0.207094,-0.893776,0.279454,0.887410,0.366619
0.496079,-0.275661,-0.963431,-0.529822,0.106253,0.841427
0.491085,-0.356876,-0.958321,0.473346,0.348136,-0.809163
0.487088,-0.436583,-0.960233,-0.495693,0.149337,0.855562
0.481955,-0.520272,-0.957728,0.261599,-0.179353,-0.948366
0.248682,-0.030236,-0.989342,0.292550,-0.227717,-0.928741
0.244401,-0.114060,-0.990825,-0.171389,0.318058,0.932451
0.239408,-0.194999,-0.985452,-0.141132,-0.085230,0.986315
0.234557,-0.278823,-0.983935,-0.169252,0.398431,0.901447
0.229136,-0.363478,-0.979419,-0.344901,0.376631,0.859763
0.224425,-0.447025,-0.977342,0.374040,-0.164266,-0.912749
0.219292,-0.528517,-0.973255,-0.090729,0.429422,0.898535
0.214725,-0.609321,-0.969727,-0.245987,0.076610,0.966241
0.345699,-0.025833,-0.005994,0.661284,-0.735258,0.148659
0.357115,-0.077231,-0.089528,-0.178052,0.975375,-0.130160
0.403055,-0.088361,-0.362445,0.908574,-0.401344,-0.115829
0.516051,0.057857,-0.977573,-0.240012,0.395811,0.886413
0.132115,-0.379414,-0.982419,0.365694,-0.272913,-0.889824
0.127695,-0.462826,-0.981595,0.180374,-0.210568,-0.960795
0.122131,-0.544596,-0.975101,-0.192802,0.301224,0.933859
-0.003993,-0.118044,-0.042388,0.859383,-0.392390,0.327857
0.021970,-0.221243,-0.238695,-0.497831,0.867273,-0.000905
-0.924667,-0.085611,0.541324,0.673917,0.256795,0.692742
-0.934511,-0.229631,0.558368,-0.690885,0.475387,-0.544689
-0.801255,0.174107,0.671701,0.145300,-0.450939,0.880649
-0.810386,0.093033,0.711721,0.910927,0.254191,-0.324959
-0.799683,-0.128076,0.528402,0.656506,0.183690,0.731613
-0.804107,-0.199948,0.534534,0.560695,0.135235,0.816904
-0.804107,-0.260547,0.506843,-0.343164,0.562631,-0.752120
-0.809815,-0.333383,0.520194,-0.339500,-0.410813,-0.846152
-0.756883,-0.241583,0.135162,-0.536665,0.723921,-0.433508
-0.801538,-0.573591,0.350589,-0.442979,0.704565,0.554399
-0.813098,-0.720354,0.378708,0.339138,-0.531460,0.776231
-0.670424,0.681462,0.791793,0.980872,-0.194646,0.001653
-0.668709,0.628420,0.758564,-0.137912,0.079875,0.987219
-0.651019,0.433831,0.540039,-0.135106,0.497357,0.856961
-0.658581,0.355644,0.564499,-0.458513,0.281400,0.842959
-0.700097,0.202967,0.825088,0.375052,-0.251193,-0.892322
-0.681693,0.184281,0.675130,-0.627704,0.695505,-0.349658
-0.690540,0.107326,0.710369,-0.388210,-0.816846,-0.426679
-0.703380,0.019786,0.774354,0.382306,0.722489,0.576065
-0.680552,-0.182082,0.511128,0.835000,0.185525,0.518030
-0.683264,-0.248184,0.506579,-0.652220,0.003439,-0.758022
-0.683264,-0.566856,0.372214,0.291611,0.922956,-0.251225
-0.689543,-0.641479,0.388564,0.257918,-0.039436,-0.965362
-0.688398,-0.704687,0.355566,0.084999,0.780268,0.619642
-0.693392,-0.774906,0.363478,-0.477037,-0.113837,-0.871479
-0.696388,-0.845545,0.356358,0.390981,-0.102595,0.914663
-0.482094,0.839632,0.765124,-0.468452,0.312799,-0.826263
-0.483379,0.776559,0.751576,-0.705523,0.533355,-0.466659
-0.482377,0.660712,0.700611,0.946516,-0.064899,0.316062
-0.490937,0.581425,0.730412,-0.117325,0.927745,0.354294
-0.502780,0.436448,0.759092,-0.092625,0.486298,0.868870
-0.494790,0.395493,0.685942,-0.699845,0.576139,-0.422233
-0.531743,0.257662,0.896523,-0.758345,0.633795,-0.152370
-0.470251,0.384497,0.508986,-0.226991,0.713368,-0.663010
-0.492365,0.279100,0.626737,0.567729,0.787421,0.240108
-0.500925,0.198983,0.658383,0.372822,0.481214,0.793370
-0.527037,0.086852,0.800595,0.485946,-0.755363,-0.439640
-0.467682,0.200636,0.421925,0.207689,0.129386,0.969600
-0.473390,0.125879,0.433265,0.080393,0.535873,0.840462
-0.513195,-0.008521,0.665900,0.850162,0.454516,0.265781
-0.513482,-0.068844,0.643780,0.907750,0.402270,-0.119037
-0.521329,-0.144842,0.671734,0.986668,-0.157712,0.040169
-0.497930,-0.165870,0.496558,0.777188,-0.603379,0.178641
-0.431731,-0.055382,0.067913,-0.325368,0.945533,0.010179
-0.518189,-0.263022,0.603892,0.033742,-0.734568,0.677696
-0.509773,-0.440709,0.476153,0.681776,0.672069,-0.288974
-0.534456,-0.602310,0.590475,-0.705214,0.634832,-0.315692
-0.528748,-0.656870,0.527446,-0.043024,0.958750,0.280975
-0.527607,-0.721319,0.493591,0.439832,0.682761,-0.583425
-0.335855,0.544454,0.726951,0.148876,-0.929262,0.338094
-0.361391,0.429437,0.857954,-0.685259,0.583147,0.436301
-0.359253,0.373509,0.822319,0.723420,-0.497581,-0.478620
-0.352548,0.325407,0.761926,0.597896,0.727373,0.336821
-0.363816,0.244603,0.809067,-0.246743,0.803279,-0.542090
-0.372664,0.169988,0.840878,-0.532424,-0.392365,-0.750050
-0.367526,0.118179,0.789485,-0.513237,0.262979,-0.816964
-0.334714,0.117491,0.569213,-0.476200,0.823355,0.308742
-0.355112,0.018553,0.670844,-0.081508,-0.477698,0.874735
-0.380222,-0.086575,0.800430,-0.458399,-0.722047,-0.518188
-0.395492,-0.173695,0.871338,-0.600143,-0.799240,-0.032311
-0.394064,-0.230318,0.841768,0.771879,0.412332,0.483927
-0.405476,-0.306862,0.888545,0.947201,0.154250,0.281100
-0.266373,-0.093310,0.039399,0.877993,0.056079,0.475377
-0.342704,-0.275250,0.482779,-0.050402,0.912328,0.406346
-0.348978,-0.346988,0.498272,0.367809,0.483355,0.794408
-0.354115,-0.419816,0.508129,0.975443,-0.220200,-0.004756
-0.365244,-0.499656,0.552368,-0.772719,0.366360,0.518349
-0.370522,-0.571251,0.560510,0.797313,-0.560918,-0.222852
-0.356828,-0.747697,0.408113,0.132370,-0.761925,0.633994
-0.233412,0.465989,0.804353,0.189847,-0.969397,-0.155653
-0.235124,0.403192,0.795254,0.156840,-0.546967,0.822331
-0.242974,0.326917,0.818330,-0.043798,-0.692750,0.719847
-0.242974,0.267693,0.799144,0.263646,0.947835,0.179162
-0.238977,0.213821,0.754246,0.800641,-0.328335,0.501169
-0.197600,0.225505,0.491251,-0.075955,-0.995540,0.055948
-0.253816,0.063904,0.800430,-0.571170,-0.324855,-0.753813
-0.266229,-0.016766,0.853009,0.692206,0.202320,-0.692761
-0.268937,-0.080662,0.849581,0.747435,0.226630,-0.624483
-0.263089,-0.132614,0.792650,-0.203857,-0.942396,-0.265202
-0.220146,-0.125736,0.516271,-0.347939,0.928038,0.132978
-0.276073,-0.275116,0.828516,0.196864,0.925057,0.324830
-0.251103,-0.300538,0.656570,-0.169552,-0.908988,-0.380779
-0.240976,-0.350561,0.576004,0.442383,-0.838104,-0.319184
-0.223568,-0.388900,0.448264,-0.766290,0.588264,0.258350
-0.248538,-0.486329,0.578245,0.808154,-0.387766,-0.443312
-0.261662,-0.629929,0.611573,0.996472,0.068283,-0.048805
-0.235838,-0.665249,0.433957,-0.411412,0.829578,-0.377545
-0.233412,-0.729287,0.394729,0.949469,0.081690,0.303042
-0.238833,-0.802392,0.406959,0.609140,0.576807,0.544282
-0.243971,-0.871932,0.414838,0.420014,0.220111,0.880420
-0.247537,-0.940222,0.414079,0.290805,0.472559,0.831938
-0.091026,0.511063,0.709908,-0.269614,0.944397,-0.188211
-0.084033,0.463238,0.649318,0.507117,-0.154975,-0.847830
-0.135825,0.186344,0.883963,0.999706,0.000649,-0.024233
-0.137536,0.122574,0.873843,0.907756,0.204892,-0.366058
-0.135254,0.066924,0.840449,0.020373,0.825115,0.564597
-0.151090,-0.021304,0.910929,0.785496,0.593536,-0.175244
-0.146527,-0.137554,0.844108,0.660744,-0.683190,-0.310916
-0.159794,-0.217125,0.899160,0.917445,0.325483,0.228814
-0.147097,-0.381477,0.764663,-0.624901,0.770838,0.123726
-0.148521,-0.446748,0.752202,0.314903,0.575765,0.754540
-0.068625,-0.408686,0.264286,-0.307893,0.929758,0.201872
-0.075900,-0.485230,0.286076,-0.257653,0.766587,0.588182
-0.086602,-0.562738,0.326425,-0.695499,-0.496054,-0.519819
-0.096730,-0.639005,0.362588,0.845570,-0.515271,0.139670
-0.040802,-0.163530,0.764695,0.785807,-0.480772,0.389058
-0.026251,-0.206129,0.660394,0.925059,0.295388,-0.238772
0.029107,-0.191703,0.320854,0.862520,-0.493989,-0.109702
-0.050507,-0.365122,0.757311,0.388755,-0.847595,-0.361182
0.025541,-0.260958,0.319832,0.829612,-0.496334,-0.255728
-0.076044,-0.522746,0.864283,0.891744,0.424507,-0.156799
-0.080894,-0.588982,0.873744,0.597111,-0.640688,-0.482677
-0.008704,-0.700292,0.387477,0.413394,0.669707,-0.616926
-0.009989,0.439603,0.770069,0.025881,0.995108,0.095338
-0.000000,0.398789,0.695931,-0.552920,0.495911,0.669591
-0.017691,0.242137,0.754180,0.530669,0.778862,0.334313
-0.043941,0.075302,0.862305,0.202538,-0.862242,0.464239
-0.040375,0.021984,0.823307,0.851899,-0.218560,0.475920
0.021687,0.124092,0.471504,0.923245,-0.328982,-0.198467
-0.037236,-0.035319,0.785101,0.907182,0.414051,-0.074717
0.037811,0.084923,0.357973,0.805110,-0.557890,0.201386
0.005421,-0.029129,0.522534,0.890535,-0.316124,0.327129
0.129119,0.698916,0.764300,-0.624578,0.734269,0.265992
0.121700,0.561497,0.764564,-0.525899,-0.725484,0.443963
0.119706,0.496494,0.754872,0.950341,0.188675,-0.247494
0.094453,0.389168,0.874206,0.027440,-0.994178,-0.104201
0.103583,0.346846,0.805276,0.826512,0.519096,-0.217756
0.111285,0.298752,0.742774,0.397846,-0.913042,0.089846
0.103726,0.225228,0.766278,0.970964,-0.202614,0.127190
0.099873,0.155830,0.768157,0.850546,-0.189195,0.490690
0.075473,-0.007557,0.863393,-0.141907,-0.080495,-0.986602
0.097304,-0.094409,0.704600,-0.577131,0.784220,0.227858
0.181908,0.032158,0.236134,0.479083,-0.875348,0.065151
0.087316,-0.172328,0.739049,0.352316,-0.909818,-0.219329
0.196464,-0.013881,0.132525,0.937147,0.257275,0.235723
0.113998,-0.196652,0.571487,0.341100,0.845620,0.410583
0.197748,-0.079018,0.105461,0.898877,0.409744,0.155337
0.058353,-0.337502,0.860954,0.225817,-0.765538,-0.602459
0.180197,-0.171498,0.180654,-0.816887,0.478200,-0.322521
0.093307,-0.419405,0.624693,-0.184723,-0.928985,0.320724
0.114281,-0.718568,0.402179,-0.365612,-0.876820,0.312274
0.248112,0.590492,0.753916,0.480678,-0.871188,-0.099898
0.245116,0.525766,0.750718,-0.024685,0.940531,0.338810
0.226141,0.429437,0.830626,-0.672645,0.698738,-0.243546
0.224569,0.364711,0.821066,0.669158,0.345419,-0.657962
0.223285,0.300815,0.807616,-0.531314,-0.658329,-0.533206
0.223572,0.241449,0.788760,0.723772,-0.218268,-0.654609
0.217864,0.171641,0.802078,0.059286,-0.761127,0.645888
0.199032,0.079295,0.883798,-0.675674,-0.020608,-0.736912
0.283348,0.150890,0.412695,0.721689,-0.684876,-0.100551
0.211158,-0.023912,0.779893,0.479497,0.723170,-0.497099
0.273648,0.070631,0.444078,0.920030,-0.191954,-0.341612
0.219862,-0.074346,0.714589,0.751959,-0.659049,0.014593
0.215722,-0.144012,0.716732,0.576611,0.813956,0.070680
0.340278,0.033533,0.043289,-0.537777,0.837677,-0.095359
0.170784,-0.449365,0.884655,-0.361110,0.391508,0.846358
0.337853,0.560398,0.770563,0.459583,-0.496652,-0.736288
0.364391,0.489625,0.592882,0.406175,-0.901920,0.146843
0.318734,0.346024,0.815396,0.985828,0.160973,-0.047226
0.307892,0.268104,0.853998,0.922068,0.386847,-0.011863
0.376373,0.319503,0.472856,0.881380,-0.456626,-0.121086
0.313026,0.151846,0.790441,-0.267940,-0.909396,-0.318132
0.302611,0.072283,0.825747,0.678641,-0.722912,0.129790
0.306748,0.018411,0.786090,-0.311842,0.863371,0.396669
0.341562,0.009621,0.580619,-0.495279,0.866228,-0.065933
0.425025,0.064726,0.114493,0.946083,0.301026,-0.119626
0.303469,-0.171229,0.746499,0.496162,0.309697,-0.811117
0.322156,-0.209426,0.627759,0.347954,0.934247,-0.078172
0.362249,0.669234,0.661054,-0.179813,0.902920,0.390389
0.456270,0.522193,0.617968,-0.663717,0.746905,-0.040154
0.467969,0.479459,0.537006,-0.503048,0.844919,-0.181809
0.482525,0.438780,0.442462,0.887522,-0.451351,0.092667
0.518193,0.435761,0.234420,-0.214820,-0.838225,0.501230
0.430019,0.228113,0.678888,0.851393,0.494857,-0.173912
0.390214,0.100867,0.870909,0.817322,0.370268,-0.441460
0.424028,0.154463,0.692041,0.679106,-0.731179,0.064750
0.404483,0.063074,0.778244,0.141364,-0.180951,0.973280
0.432301,0.041778,0.613716,-0.402382,0.831566,0.382866
0.407479,-0.058544,0.724874,0.087864,0.995584,-0.033037
0.403769,-0.127799,0.725830,0.911758,0.247358,0.327890
0.396633,-0.198706,0.744587,0.543862,0.781451,0.305859
0.418747,-0.230587,0.607221,-0.375707,0.892402,-0.249926
0.453418,0.580595,0.651065,-0.550813,-0.659767,-0.511188
0.521903,0.698640,0.657197,0.268537,0.888838,-0.371289
0.518333,0.569054,0.638934,0.818842,-0.312176,0.481710
0.527607,0.524802,0.572015,-0.499411,0.865649,0.035210
0.535884,0.475609,0.508392,-0.309206,0.950779,-0.020274
0.581823,0.492099,0.244013,-0.247882,-0.818281,0.518624
0.495221,0.216027,0.666427,0.609333,0.782594,0.127517
0.473107,0.116804,0.766344,0.895305,0.182990,0.406132
0.470112,0.051256,0.765058,0.756738,0.086055,0.648030
0.483949,0.012229,0.671141,0.809926,-0.229599,-0.539727
0.485804,-0.049469,0.642791,0.619515,0.340539,-0.707273
0.474535,-0.127111,0.683305,0.447154,0.891702,-0.070153
0.474962,-0.191149,0.662636,0.772318,0.142079,-0.619144
0.466402,-0.266729,0.688316,0.844823,-0.517471,-0.136007
0.629905,0.901062,0.656175,-0.267131,-0.085284,0.959879
0.626622,0.834273,0.654658,-0.027546,-0.162121,0.986386
0.623344,0.766938,0.654658,-0.761050,0.231794,-0.605867
0.616495,0.691083,0.671536,-0.700231,-0.666011,-0.257111
0.619634,0.636942,0.637352,0.704897,0.240456,0.667308
0.617348,0.569331,0.630033,-0.612985,0.712324,-0.341824
0.602370,0.415966,0.671075,-0.710315,0.434787,0.553546
0.599088,0.224683,0.632769,-0.176579,0.608693,0.773507
0.578258,0.129452,0.726654,0.530320,0.603516,0.595423
0.586391,0.078876,0.662801,0.793562,-0.073769,-0.604001
0.570982,-0.008656,0.727808,-0.209982,-0.441488,0.872351
0.567416,-0.077777,0.729060,0.844741,0.353616,-0.401707
0.573978,-0.129997,0.674569,0.196362,0.299914,-0.933538
0.559709,-0.211212,0.732753,-0.705492,0.685685,-0.179213
0.582964,-0.244745,0.588102,-0.195915,0.980487,0.016212
0.742188,0.839356,0.709941,0.568485,0.558967,0.603639
0.746468,0.721865,0.651658,-0.493865,-0.043228,0.868464
0.732914,0.633914,0.702293,-0.452770,-0.691772,-0.562539
0.724070,0.372679,0.677338,0.734025,0.336858,0.589690
0.722216,0.306586,0.667251,0.816240,0.576626,0.035414
0.726496,0.248319,0.627363,-0.461069,0.851792,0.248729
0.702810,0.147586,0.730346,-0.443995,-0.217576,-0.869212
0.714653,0.104164,0.651296,-0.021449,-0.309647,0.950609
0.695678,-0.111444,0.698535,0.664913,-0.722985,0.187573
0.702239,-0.166826,0.644241,0.731902,-0.676887,0.078382
0.851191,0.300949,0.556159,0.868763,-0.033092,-0.494122
0.822659,0.190873,0.684063,-0.064456,-0.997910,0.004612
0.821375,0.127254,0.672624,0.344275,0.842448,-0.414435
0.826796,0.005637,0.607848,0.733078,-0.680006,0.013723
0.831502,-0.053319,0.566213,0.831581,-0.517541,-0.201554
0.914682,0.195411,0.639725,-0.600358,0.757602,-0.256143
0.914255,0.132471,0.624034,0.619060,-0.743546,0.252792
0.917390,0.071730,0.590475,-0.695135,0.658822,-0.287649
0.145099,-0.091381,-0.161391,-0.153888,-0.988018,0.011794
0.119562,-0.152533,-0.248947,-0.490864,0.863917,0.112696
-0.031245,-0.185513,-0.042717,0.904182,-0.153154,0.398746
-0.039234,-0.101144,-0.040146,0.933014,-0.097860,0.346277
0.070340,-0.107326,-0.059727,-0.018831,-0.999758,-0.011415
0.163077,-0.090970,-0.113197,-0.444133,0.894030,-0.058791
0.321730,-0.011541,0.013191,0.511664,-0.831315,-0.217060
0.302611,-0.023225,-0.042157,-0.259010,0.959201,0.113346
0.284633,-0.030916,-0.093945,0.942835,0.306478,0.130896
0.264517,-0.050023,-0.154535,-0.375396,0.926479,-0.026722
0.242830,-0.079563,-0.222542,0.988929,-0.113538,-0.095541
0.379939,-0.057026,-0.149656,0.256362,0.966294,0.023539
0.366245,-0.021161,-0.175863,0.889128,0.401646,0.219390
0.352121,0.007557,-0.206554,0.981466,-0.010299,0.191360
0.333429,0.003573,-0.259825,0.924253,0.380017,-0.036658
0.314737,-0.004671,-0.314283,0.179655,0.859034,0.479359
0.288060,-0.071872,-0.408728,0.786664,0.223144,-0.575645
0.142817,-0.621416,-0.974441,-0.061493,0.245289,0.967498
0.133117,-0.536074,-0.976287,-0.201202,0.280096,0.938650
0.122701,-0.459119,-0.981859,-0.190095,0.123547,0.973961
0.406333,-0.053453,-0.413970,0.986124,0.035688,-0.162129
0.384933,-0.080528,-0.482174,0.870567,-0.179259,-0.458236
0.363390,-0.105128,-0.549225,0.870608,0.482456,-0.096324
0.342847,-0.114748,-0.609947,0.792160,0.599565,0.114036
0.267087,-0.578674,-0.964255,-0.185576,0.104477,0.977060
0.255670,-0.502952,-0.972266,0.307797,-0.354405,-0.882983
0.245255,-0.421602,-0.976749,0.220502,-0.064780,-0.973233
0.235128,-0.338877,-0.980144,0.297661,-0.415254,-0.859629
0.225139,-0.260824,-0.984133,-0.153726,0.434547,0.887433
0.215295,-0.180296,-0.986474,-0.191925,-0.006552,0.981388
0.667855,-0.479593,-0.952750,-0.080127,0.282070,0.956042
0.657728,-0.396734,-0.956179,-0.037209,0.299095,0.953498
0.647025,-0.315107,-0.960102,0.143893,0.190423,0.971099
0.637469,-0.228390,-0.960827,-0.130876,0.052451,0.990010
0.627480,-0.151989,-0.965310,0.309406,-0.082448,-0.947349
0.618206,-0.070773,-0.967024,-0.091485,0.140011,0.985914
0.437582,-0.147585,-0.705842,-0.207096,0.973628,-0.095708
0.392640,-0.521505,-0.949553,0.553118,-0.125899,-0.823535
0.409616,-0.212999,-0.804704,0.611242,0.788455,-0.068709
0.371949,-0.362647,-0.958420,0.793893,-0.092226,-0.601023
0.360537,-0.298341,-0.971112,-0.163946,-0.220134,0.961594
0.350837,-0.212999,-0.972332,0.368950,-0.083094,-0.925727
0.341419,-0.132194,-0.974441,0.769324,-0.285008,-0.571762
0.331291,-0.047548,-0.976024,0.382280,-0.356199,-0.852634
0.319875,0.023636,-0.986935,0.225585,-0.207162,-0.951943
0.528608,-0.447025,-0.955651,0.272683,0.210037,-0.938898
0.517906,-0.365675,-0.959904,0.300950,0.258795,-0.917853
0.510487,-0.265772,-0.949619,0.887017,0.260011,0.381568
0.502497,-0.165316,-0.940982,-0.547731,-0.823920,-0.145419
0.488229,-0.117910,-0.967618,-0.066391,0.402636,0.912950
0.477531,-0.037383,-0.972167,-0.196467,0.400993,0.894765
0.467399,0.038893,-0.977573,0.231979,-0.456664,-0.858862
0.607077,0.006182,-0.973848,-0.055013,0.353552,0.933796
0.750465,-0.299574,-0.960761,0.308055,0.031973,0.950831
0.741191,-0.208738,-0.958618,-0.154145,-0.151103,0.976426
0.731490,-0.128621,-0.961981,0.271027,-0.201849,-0.941170
0.721789,-0.042189,-0.962541,0.297495,-0.252586,-0.920705
0.710516,0.032703,-0.970947,0.231050,0.104895,0.967271
0.700528,0.116393,-0.973255,0.145971,0.048853,-0.988082
0.806392,-0.011684,-0.961717,0.455430,-0.324605,-0.828984
0.795690,0.062528,-0.968112,-0.131391,0.327546,0.935655
0.849193,0.129452,-0.969497,-0.032801,0.163786,0.985950
0.877159,0.132614,-0.967782,0.117532,0.083949,0.989514
1.000000,0.216161,0.616551,0.089216,-0.926695,0.365071
0.980598,0.162842,0.543302,0.467644,-0.869220,-0.160516
0.822516,0.727090,0.657757,-0.778866,-0.124746,0.614659
0.818375,0.835925,0.680173,-0.536405,-0.111762,0.836528
0.899417,0.121752,0.686832,0.832521,0.478556,-0.279092
0.875017,0.010166,0.584377,-0.807590,0.587178,-0.054954
0.860610,0.178367,0.596079,0.654754,0.745504,0.124587
0.757740,-0.024324,0.577125,0.928740,0.035575,-0.369021
