0.667010,-0.113260,-0.934886,-0.273973,0.810771,-0.517291
0.319385,-0.765918,-0.924123,0.875398,-0.389437,-0.286387
0.376672,-0.681163,-0.927532,0.570734,0.292404,0.767308
0.436974,-0.596399,-0.922361,-0.556179,-0.384779,-0.736620
0.498342,-0.509343,-0.920025,-0.632302,0.773816,0.037465
0.555629,-0.423438,-0.923702,-0.540214,-0.168901,0.824403
0.613095,-0.338354,-0.927571,-0.490126,0.340997,-0.802183
0.670204,-0.255071,-0.927379,0.674380,-0.718637,0.169623
0.434847,-0.801500,-0.909377,0.075240,0.518167,0.851963
0.495506,-0.714935,-0.906197,0.164434,0.393546,0.904479
0.547646,-0.632302,-0.919450,-0.081670,0.448786,0.889899
0.604760,-0.549349,-0.920025,-0.233658,0.325228,0.916314
0.661690,-0.466226,-0.920255,0.227541,-0.154871,-0.961374
0.721640,-0.379831,-0.920255,-0.679308,-0.538248,0.498827
0.553145,-0.813468,-0.906695,-0.364845,0.284493,-0.886539
0.609544,-0.730505,-0.907844,-0.749854,0.108887,0.652582
0.669143,-0.643949,-0.908764,-0.310443,0.442883,0.841118
0.725721,-0.560666,-0.909913,-0.264996,-0.675698,0.687902
0.784069,-0.475242,-0.912517,-0.787111,-0.056744,-0.614196
0.729618,-0.841176,-0.891795,-0.410744,0.750725,0.517399
0.786553,-0.755921,-0.895779,-0.154059,0.328606,0.931818
0.841713,-0.671647,-0.903976,0.931126,-0.189663,-0.311501
0.878779,-0.955109,-0.889612,0.124084,0.760349,-0.637553
-0.842325,0.112003,0.765965,0.868980,0.465425,0.168087
-0.932781,-0.209982,0.730113,-0.498719,0.861041,0.099437
-0.792843,-0.031608,0.802659,0.382217,0.643579,0.663111
-0.573626,0.300865,0.754168,-0.200817,0.927625,-0.314937
-0.632862,0.137090,0.764586,-0.618493,0.617947,-0.485394
-0.892873,-0.231136,0.742983,0.296839,-0.945650,0.132788
-0.830975,-0.148673,0.762862,0.757120,-0.627058,0.183214
-0.760032,-0.058175,0.800131,0.664387,0.401238,0.630554
-0.784508,-0.158509,0.736586,0.037253,0.349415,0.936227
-0.697245,-0.056044,0.805800,0.510441,0.740435,0.437272
-0.384915,0.415958,0.746775,0.497121,0.866667,-0.041932
-0.686604,-0.016858,0.735246,0.774014,-0.401196,-0.489841
-0.758256,-0.190800,0.744860,-0.025162,0.794523,0.606712
-0.693700,-0.106366,0.769872,0.952743,-0.240372,0.185749
-0.522012,0.159054,0.723640,0.833652,0.443630,-0.328964
-0.736444,-0.193101,0.773587,0.252853,-0.845400,0.470493
-0.687313,-0.122766,0.775617,0.796963,-0.581696,0.162722
-0.648651,-0.060466,0.759223,0.914743,0.354393,0.194040
-0.620451,-0.005381,0.720231,-0.497048,0.562041,-0.661100
-0.529996,0.131346,0.705523,0.892068,-0.442812,-0.090176
-0.272469,0.497930,0.723065,0.872209,-0.228668,0.432391
-0.349089,0.586627,0.183527,-0.650953,-0.524580,-0.548704
-0.232031,0.744008,0.214055,-0.274504,-0.563927,0.778867
-0.183252,0.817955,0.207314,-0.533324,0.823011,-0.195495
-0.117808,0.901398,0.236998,0.131642,-0.891395,0.433688
-0.696894,-0.168665,0.749418,-0.695347,0.272613,0.664963
-0.649181,-0.098010,0.746315,0.895763,0.400121,-0.193678
-0.659644,-0.072594,0.640101,-0.019647,-0.946606,0.321794
-0.536025,0.090039,0.683422,0.916720,-0.053843,0.395885
-0.208794,0.544330,0.736356,-0.035135,-0.264357,0.963785
-0.170841,0.796311,0.224665,-0.280440,0.833288,0.476429
-0.112136,0.876483,0.236730,-0.279588,0.737169,-0.615152
-0.694052,-0.229985,0.816334,0.809498,0.447080,0.380569
-0.676142,-0.182605,0.762058,0.806584,-0.531775,0.258144
-0.638540,-0.120465,0.744439,0.890183,0.328248,0.315956
-0.627720,-0.078988,0.679898,0.405156,-0.048704,-0.912949
-0.442912,0.164798,0.740838,0.005439,0.845695,0.533639
-0.285059,0.422512,0.669977,-0.799474,-0.100770,-0.592188
-0.204540,0.516952,0.727164,-0.427121,-0.643564,0.635132
-0.225114,0.538427,0.597967,0.890644,-0.427557,-0.154756
-0.175983,0.766962,0.204019,-0.580015,-0.562765,0.588964
-0.694588,-0.277855,0.796148,0.549510,0.784370,0.287754
-0.677381,-0.230475,0.741106,0.464104,0.759708,0.455468
-0.631266,-0.161621,0.737812,0.850709,-0.287533,0.440022
-0.565470,-0.005221,0.589962,0.729411,0.419352,-0.540466
-0.428899,0.129875,0.743328,-0.300106,0.823779,0.480962
-0.241785,0.408584,0.726896,-0.347813,0.238744,0.906657
-0.262715,0.432348,0.596358,0.679059,0.562122,-0.472121
-0.194072,0.518263,0.628686,0.969618,0.242225,0.034183
-0.070632,0.640071,0.768033,0.540668,0.841235,-0.000970
-0.230434,0.649748,0.182302,-0.100117,-0.312644,0.944579
-0.110182,0.812372,0.210225,-0.376615,0.684006,-0.624737
-0.615661,-0.240311,0.689129,-0.290941,-0.317000,-0.902698
-0.617436,-0.207691,0.603789,0.806398,-0.363343,-0.466587
-0.516340,-0.097681,0.692768,0.930047,0.310074,-0.197147
-0.500729,-0.050140,0.632862,0.899956,0.435106,0.027608
-0.363634,0.159224,0.608041,-0.530809,0.680629,-0.504961
-0.201347,0.384648,0.634356,-0.523681,-0.851877,-0.008061
-0.381014,0.299884,0.211067,-0.585232,0.321396,-0.744451
-0.045978,0.566954,0.738502,0.822937,-0.542386,0.169095
0.012197,0.644985,0.754244,0.460181,-0.543823,0.701776
-0.252956,0.507927,0.157290,-0.714518,-0.696181,-0.069252
-0.356889,-0.075877,0.853947,0.389955,-0.668486,0.633295
-0.624348,-0.235889,0.309545,-0.357407,0.895020,-0.266832
-0.260761,0.066104,0.849772,-0.586402,0.807953,0.057839
-0.234158,0.119869,0.812388,0.716787,-0.603750,0.348858
-0.246927,0.146105,0.705178,0.407911,0.848701,0.336624
-0.163388,0.278901,0.678366,-0.425502,-0.893875,0.141195
-0.125083,0.344642,0.655805,0.832663,0.487623,0.262480
-0.029307,0.448749,0.737889,-0.685586,-0.472802,-0.553562
0.023017,0.523667,0.742562,0.200410,0.416166,-0.886928
0.073387,0.594822,0.746852,-0.406804,0.179775,-0.895651
-0.239657,0.385469,0.162039,0.889309,-0.429305,0.157567
-0.193011,0.456614,0.153268,0.353171,0.865113,0.356161
-0.116212,0.549573,0.198887,0.815261,0.437691,-0.379179
-0.601117,-0.363440,0.694185,0.898355,0.228653,0.375068
-0.549859,-0.289333,0.694415,0.954520,-0.283911,0.091026
-0.387931,-0.134404,0.885433,-0.037898,0.576723,0.816060
-0.463664,-0.359668,0.795497,0.365430,0.082872,0.927142
-0.439897,-0.306544,0.751218,0.554396,0.709182,-0.435552
-0.438831,-0.269660,0.668713,0.169786,-0.279451,0.945029
-0.263424,-0.106046,0.884398,0.047784,-0.995135,-0.086154
-0.289849,-0.090956,0.756964,0.855766,-0.505131,0.111837
-0.175453,0.029211,0.867545,0.705835,0.305596,-0.639068
-0.133061,0.094623,0.857778,0.904438,0.117321,0.410156
-0.138739,0.165118,0.671203,0.516475,-0.846444,-0.129562
-0.070454,0.250542,0.703263,-0.402413,-0.483222,0.777534
-0.011218,0.328572,0.724176,0.071695,-0.418600,0.905336
0.026032,0.390872,0.703837,-0.052300,-0.432347,0.900189
-0.210922,0.311031,0.077274,0.049192,0.916678,-0.396589
-0.402117,-0.458521,0.843950,0.390833,0.400313,0.828854
-0.346427,-0.383273,0.858084,0.952052,-0.275282,-0.133481
-0.338622,-0.343758,0.790632,0.470914,0.847606,-0.244548
-0.277432,-0.262936,0.808941,0.484141,0.861478,-0.153179
-0.174034,-0.151945,0.903933,0.427704,0.392931,0.814048
-0.244978,-0.168176,0.697211,0.901698,0.273136,-0.335168
-0.151864,-0.063248,0.770370,-0.001179,0.904050,0.427426
-0.510483,-0.322284,0.148748,0.769403,0.601704,0.214408
-0.009085,0.075770,0.931818,0.901029,-0.432057,-0.038382
-0.056619,0.077742,0.764892,0.986841,0.099798,0.127224
-0.070096,0.104139,0.654924,0.803307,0.594448,0.036463
0.039509,0.218732,0.760564,0.906285,-0.223944,-0.358464
0.085624,0.287586,0.757308,0.908256,-0.395581,-0.136331
-0.159134,0.243488,0.018364,0.870125,-0.164435,0.464590
-0.434398,-0.699685,0.859156,-0.104936,0.184429,0.977228
-0.413294,-0.650834,0.815567,0.057274,-0.625123,0.778422
-0.373208,-0.586733,0.802659,0.893490,0.354475,0.275721
-0.272999,-0.475742,0.885164,-0.160236,-0.854925,0.493383
-0.243381,-0.419996,0.855479,0.377899,0.917666,0.122810
-0.208264,-0.358677,0.830314,-0.497988,-0.608890,-0.617463
-0.139448,-0.271631,0.862834,-0.529222,0.822033,-0.210205
-0.201168,-0.209822,0.501252,0.409802,0.875681,0.255431
0.023369,-0.011285,0.804843,0.334031,0.785685,0.520694
-0.162506,-0.106696,0.389751,0.959482,0.174655,-0.221109
-0.398572,-0.806744,0.824224,0.946323,0.121660,0.299452
-0.358843,-0.742152,0.806834,-0.724680,-0.027754,-0.688526
-0.326741,-0.684606,0.780443,-0.152051,0.978717,-0.137820
-0.243381,-0.585912,0.834834,-0.618082,-0.550105,0.561568
-0.272111,-0.572954,0.704105,0.925888,0.123763,0.356951
-0.143524,-0.440159,0.833953,0.847209,0.422755,-0.321738
-0.354941,-0.489341,0.218536,0.285698,0.953011,0.100730
-0.273708,-0.393440,0.270399,0.967939,0.050918,0.245969
-0.165520,-0.198345,0.182148,-0.581446,-0.626359,0.519225
-0.341285,-0.828057,0.668100,0.967338,-0.001803,-0.253483
-0.272290,-0.740341,0.697364,-0.179543,-0.752843,0.633239
-0.187690,-0.640337,0.753823,0.895618,0.286956,0.339890
-0.195317,-0.612469,0.659942,-0.488771,0.856814,-0.164230
-0.110182,-0.252119,0.097690,0.366349,0.543894,0.754962
-0.062297,-0.266378,-0.011551,-0.660920,-0.749970,-0.027009
-0.278677,-0.873306,0.679208,0.322413,0.733229,-0.598687
-0.222272,-0.796737,0.690967,-0.633431,-0.123888,0.763817
-0.168000,-0.721819,0.699432,-0.103696,-0.991864,0.073838
-0.054134,-0.600502,0.804498,-0.746224,0.658921,-0.094732
-0.124547,-0.618693,0.605705,-0.034936,-0.769559,0.637619
-0.155762,-0.810516,0.698245,-0.611571,0.789831,-0.046334
-0.103795,-0.737389,0.703071,0.477328,-0.866345,0.146982
-0.007667,-0.629680,0.778528,-0.056646,-0.990147,0.128062
-0.059455,-0.631811,0.607390,-0.620487,0.597863,-0.507499
-0.018487,-0.291304,-0.046253,0.958505,-0.191037,-0.211596
0.031353,-0.694272,0.757155,-0.415512,0.480596,-0.772255
0.171290,-0.377860,-0.082412,0.106050,0.994301,-0.010895
0.078707,-0.068011,-0.969513,0.213787,0.491463,0.844251
-0.005362,-0.159650,-0.968823,0.814211,0.490717,-0.310254
-0.082692,-0.242283,-0.963154,0.917002,-0.210676,0.338709
-0.034449,0.040198,-0.143122,0.800720,0.501238,-0.328038
0.497812,-0.046037,-0.948063,0.697835,0.628570,0.343403
0.425272,-0.123417,-0.941666,-0.322758,-0.242523,0.914883
0.332689,-0.226053,-0.949403,-0.665632,0.446241,0.598167
0.262276,-0.298839,-0.938793,-0.525900,0.795220,-0.301753
0.164373,-0.409009,-0.950284,-0.555113,0.164041,0.815438
0.114355,-0.455739,-0.924851,-0.031006,-0.727350,0.685566
0.037912,-0.537221,-0.917995,0.254936,-0.052222,-0.965547
0.063633,-0.467377,-0.781444,-0.717312,0.681344,-0.145716
0.157986,-0.326877,-0.658414,0.823185,0.567771,0.001340
0.150181,-0.318841,-0.605288,0.948852,-0.262223,0.175836
0.147166,-0.306384,-0.552583,-0.716404,-0.653966,-0.243093
0.141137,-0.296708,-0.499073,0.990564,0.132230,0.036038
0.133332,-0.289823,-0.447479,0.919273,0.380415,-0.101097
0.098041,-0.317861,-0.414998,0.922793,0.375013,-0.088424
0.093603,-0.306544,-0.363786,0.317827,0.947705,-0.029012
0.086513,-0.299659,-0.315256,0.916051,0.387068,0.105020
0.057777,-0.320483,-0.279481,-0.547942,-0.537685,0.640823
0.060792,-0.300810,-0.224976,-0.225906,-0.969984,-0.089984
0.025322,-0.329499,-0.193874,0.059754,0.864621,0.498859
0.014855,-0.325726,-0.145995,-0.483396,0.870405,-0.093397
0.380753,-0.590335,-0.927149,-0.190875,-0.014945,0.981501
0.297215,-0.681163,-0.925349,-0.402693,0.895552,0.189274
0.224675,-0.757232,-0.918033,-0.396066,0.092095,0.913592
0.712417,-0.230145,-0.928260,-0.395770,0.124261,0.909904
0.624803,-0.325236,-0.930137,0.453922,-0.067739,-0.888463
0.542325,-0.414093,-0.928298,0.067302,0.416978,0.906422
0.465883,-0.496555,-0.924736,-0.135810,-0.033789,0.990159
0.823976,-0.456229,-0.913552,-0.746128,-0.350733,-0.565932
0.742743,-0.544426,-0.913245,0.623678,-0.042287,0.780537
0.657966,-0.637055,-0.913245,-0.167259,-0.172933,0.970628
0.565562,-0.740021,-0.918646,0.122972,0.235946,0.963954
0.491425,-0.817230,-0.910258,-0.037026,0.539509,0.841166
0.852354,-0.662471,-0.906810,0.697046,-0.488812,0.524585
0.776091,-0.744444,-0.902750,0.480012,-0.582650,-0.655826
0.690777,-0.838053,-0.903708,-0.246530,0.133413,0.959908
0.868674,-0.933474,-0.892140,-0.004028,-0.412064,0.911146
-0.177580,0.388410,0.101214,0.862141,0.164328,0.479280
-0.218196,0.350376,0.124387,-0.603071,0.765619,-0.223906
-0.222987,0.356280,0.169815,-0.436180,0.380868,-0.815283
-0.281692,0.296772,0.183566,0.770361,-0.205504,0.603582
-0.243381,0.440054,0.588813,0.774503,0.614486,-0.150175
-0.395557,0.309720,0.726436,0.805179,0.274008,0.525934
-0.517048,0.182829,0.744668,0.855699,0.335204,0.394230
-0.687134,-0.003580,0.736893,0.783310,-0.621616,-0.004393
-0.797276,-0.117023,0.761982,0.509910,-0.762768,0.397715
-0.844279,-0.164403,0.778069,-0.515700,0.827005,0.223866
-0.440606,-0.330159,0.107879,-0.725422,-0.264729,-0.635359
-0.479447,-0.365401,0.133733,0.994240,0.031525,0.102437
-0.499842,-0.362619,0.219456,0.979453,-0.060376,0.192421
-0.175804,0.084786,0.561426,-0.575389,0.257791,0.776190
-0.144947,0.136760,0.625776,0.815768,0.576147,0.050771
-0.132001,0.165618,0.680204,0.477363,-0.053845,-0.877055
-0.419145,-0.167845,0.601108,0.676162,0.504926,0.536521
-0.441667,-0.183265,0.634011,0.802140,-0.587447,-0.107128
-0.320711,-0.019480,0.751142,0.284470,0.955852,-0.073644
-0.565112,-0.311957,0.652511,-0.934348,-0.096327,0.343096
-0.308473,0.020526,0.845597,0.738832,-0.628806,-0.242345
-0.567949,-0.290153,0.740647,0.703068,0.194620,0.683973
-0.408325,-0.079159,0.876010,-0.121647,0.746892,0.653723
0.010243,-0.315559,-0.095320,-0.612535,-0.719525,0.327236
0.002617,-0.309165,-0.049011,-0.560463,-0.606940,0.563476
-0.007315,-0.306714,-0.004656,0.833423,-0.519695,0.187942
-0.026292,-0.315559,0.035294,0.262567,-0.857929,-0.441607
-0.259695,-0.491642,0.287290,0.079034,0.696933,0.712768
-0.170662,-0.235228,0.811967,0.789879,-0.293382,-0.538534
-0.247993,-0.319172,0.810665,0.569905,-0.673972,-0.470075
-0.221563,-0.271952,0.870188,-0.293522,-0.405962,0.865471
-0.307764,-0.367203,0.865553,-0.649332,0.515363,0.559257
-0.244978,-0.275233,0.944687,0.858569,-0.082677,-0.505988
-0.499842,-0.583291,0.843491,0.323431,0.414332,0.850718
-0.128450,-0.801820,0.115003,0.888328,-0.453412,0.072743
-0.133061,-0.647222,0.597355,0.679151,0.731646,-0.058722
-0.230964,-0.711653,0.725095,-0.675427,0.539689,0.502528
-0.251538,-0.722800,0.759223,-0.051276,-0.964320,0.259725
-0.392542,-0.859367,0.811086,0.715071,0.698933,-0.012841
-0.422690,-0.882972,0.837592,-0.778686,-0.015731,-0.627217
0.244009,-0.612469,0.446478,0.650998,0.627715,0.426820
0.166143,-0.680673,0.492787,0.858524,0.262737,0.440347
-0.243024,0.058890,-0.984795,0.370492,0.126754,0.920146
-0.131822,0.087738,-0.986174,0.052108,0.519628,0.852802
-0.003586,-0.293756,-0.213102,0.677979,0.712133,0.182238
0.036143,-0.223591,-0.237348,0.369747,0.817446,0.441667
-0.088542,-0.304412,-0.131325,0.411337,0.828531,-0.379920
-0.206846,-0.026365,-0.976637,0.074066,-0.578989,-0.811964
-0.108764,-0.039313,-0.976484,0.312443,-0.076211,-0.946874
0.040218,-0.286871,-0.232253,0.236437,0.667651,0.705932
0.048911,-0.255721,-0.267033,0.536328,-0.815108,-0.218978
-0.000398,-0.295066,-0.323913,0.782281,0.101616,0.614582
-0.009621,-0.258023,-0.294879,-0.219246,0.975531,-0.016441
0.016987,-0.302281,-0.383934,0.977250,-0.211511,0.015661
-0.125083,-0.122596,-0.977556,-0.379831,0.619888,0.686635
-0.032143,0.012000,-0.980237,-0.742204,0.453878,-0.493080
0.070551,-0.279987,-0.283810,-0.615718,-0.359619,0.701117
-0.074534,-0.188509,-0.960703,0.520962,-0.277632,-0.807168
0.106550,-0.151125,-0.379644,0.921154,0.312442,0.232068
0.031704,-0.220309,-0.448092,0.419359,0.705971,0.570739
0.054232,-0.234908,-0.409406,-0.635571,0.289349,-0.715770
0.058664,-0.208671,-0.446253,0.940947,-0.199412,0.273595
-0.136964,-0.204249,-0.968517,0.620093,-0.305053,-0.722792
-0.049523,-0.075056,-0.975066,-0.390755,0.153113,0.907671
-0.075065,-0.077027,-0.974530,0.112408,-0.303258,-0.946255
-0.082513,-0.293265,-0.962197,-0.375621,0.302888,-0.875881
0.016279,-0.151294,-0.962656,-0.451569,-0.495005,-0.742331
0.107973,-0.016198,-0.967291,0.730894,0.657092,0.184456
0.086864,-0.311627,-0.335749,0.843416,0.310466,0.438475
0.060792,-0.321133,-0.385581,0.851560,0.422982,0.309727
0.047493,-0.315399,-0.428978,-0.539372,0.480820,0.691296
0.086513,-0.246215,-0.452343,0.622989,0.658374,0.422407
-0.007489,-0.082761,-0.975181,-0.073204,0.201791,0.976689
0.045008,-0.313268,-0.249758,-0.456833,-0.881316,-0.120769
0.023190,-0.317861,-0.295875,-0.137225,0.877525,0.459477
0.042881,-0.272612,-0.326288,0.843585,-0.040222,0.535487
0.078707,-0.352943,-0.453569,0.838862,-0.482100,0.252766
0.107438,-0.295237,-0.482373,0.565861,-0.079295,-0.820679
0.085976,-0.298188,-0.531018,0.953208,-0.083595,-0.290528
0.051747,-0.265557,-0.506198,-0.409612,0.791286,-0.453966
0.161179,-0.332610,-0.590043,0.984452,0.147458,-0.095452
0.132801,-0.344578,-0.640220,0.917075,0.345030,0.199817
0.133158,-0.319823,-0.681128,0.958435,-0.262599,-0.111557
0.152313,-0.133093,-0.958098,0.943429,-0.240307,-0.228459
0.056716,-0.310977,-0.582919,0.910314,0.246688,-0.332376
0.127481,-0.433275,-0.942509,0.416603,-0.440589,-0.795187
0.220772,-0.297037,-0.946837,0.310464,0.939625,-0.143932
0.317788,-0.156048,-0.947412,-0.355679,0.741846,0.568469
0.419594,-0.010625,-0.946492,-0.511794,0.095038,-0.853835
-0.049523,-0.423929,-0.957830,0.329224,0.050307,0.942911
0.065051,-0.262776,-0.951778,0.207166,0.090495,-0.974111
0.113294,-0.473931,-0.906197,-0.065012,-0.978576,0.195354
0.180156,-0.670016,-0.914662,0.326628,-0.818521,-0.472586
0.261031,-0.549509,-0.922400,-0.450984,-0.504398,0.736340
0.439989,-0.287201,-0.932320,0.709782,-0.695076,0.114363
0.523170,-0.163092,-0.938602,-0.284357,0.229430,0.930861
0.347406,-0.681493,-0.918148,0.746968,-0.195533,-0.635457
0.449569,-0.534430,-0.918723,-0.047842,-0.127408,-0.990696
0.523885,-0.421307,-0.930673,0.826563,0.190724,-0.529544
0.644666,-0.250808,-0.923089,-0.125693,0.945869,0.299222
0.418176,-0.779196,-0.917114,0.436792,-0.222142,-0.871703
0.520155,-0.633453,-0.916463,0.337005,-0.409746,-0.847665
0.598903,-0.514757,-0.924621,-0.141825,0.037334,0.989187
0.727848,-0.335403,-0.914318,-0.397288,0.512719,0.761106
0.507387,-0.857076,-0.903861,0.747340,0.491237,0.447403
0.587201,-0.737890,-0.912134,0.049162,0.651066,0.757427
0.708335,-0.567051,-0.904780,0.905326,-0.373386,-0.202405
0.787793,-0.447704,-0.914701,0.213644,0.601220,0.769994
0.744340,-0.781828,-0.895626,-0.344220,0.060140,0.936961
0.838163,-0.644770,-0.897656,0.846799,0.407068,-0.342384
0.139009,-0.598200,0.496158,0.806814,-0.183601,0.561552
0.167566,-0.551480,0.464443,-0.645354,-0.575384,-0.502446
-0.169596,-0.773302,0.109411,0.956878,-0.108595,0.269429
0.144509,-0.600331,0.493362,0.887493,0.091283,0.451689
0.098924,-0.598861,0.501941,0.916884,0.140235,0.373707
-0.026292,-0.267529,-0.031047,0.413465,-0.877653,0.242428
-0.041188,-0.265397,-0.075785,0.954300,0.284115,0.092681
-0.070096,-0.656408,0.581420,-0.202545,0.958084,0.202609
-0.096348,-0.282448,0.061149,-0.427184,0.762495,0.485917
-0.076662,-0.237850,0.031847,0.633463,-0.416249,0.652274
-0.067796,-0.206380,-0.003316,0.961868,-0.148188,-0.229891
-0.105749,-0.234247,-0.054718,0.148895,-0.921865,0.357765
-0.081095,-0.553452,0.617119,0.630692,-0.587240,0.507324
0.012376,-0.474101,0.722414,0.791687,-0.350972,-0.500051
-0.191945,-0.254901,0.039431,-0.559344,0.764440,0.320573
-0.151507,-0.550660,0.714141,-0.533417,0.775477,0.337790
-0.240897,-0.644109,0.646421,-0.734553,0.629334,-0.253714
-0.206667,-0.185556,0.264309,0.907382,0.393521,0.147649
-0.214115,-0.175060,0.224052,0.959189,-0.152983,0.237807
-0.238948,-0.678702,0.718469,0.908105,-0.135479,0.396221
-0.241075,-0.188839,0.176173,0.115644,0.984561,0.131403
-0.317339,-0.646081,0.837783,-0.173164,0.857954,-0.483662
-0.169954,-0.536561,0.636232,0.836029,-0.427192,0.344328
-0.116569,-0.221300,0.180693,0.812800,0.581377,0.036840
-0.125435,-0.213264,0.140436,-0.337983,-0.884377,0.321939
-0.158425,-0.234087,0.090106,-0.336170,0.869535,0.361800
-0.275835,-0.537221,0.745741,0.350452,0.933608,0.074561
-0.308295,-0.559025,0.698475,-0.310364,0.950527,-0.013163
-0.359731,-0.680503,0.787108,0.860307,0.464501,0.210025
-0.219436,-0.159820,0.588009,0.678887,-0.283105,0.677468
-0.251538,-0.104735,0.396186,0.787612,-0.487189,0.377245
-0.263597,-0.100142,0.354283,0.411394,0.828442,-0.380051
-0.225465,-0.149323,0.551046,0.290168,-0.814558,-0.502293
-0.252426,-0.163752,0.504929,0.137724,-0.990458,-0.004905
-0.252247,-0.145221,0.469767,0.915493,0.383001,-0.123220
-0.256328,-0.129981,0.431655,0.654809,-0.532800,-0.536050
-0.177223,-0.206700,0.386266,0.959604,0.107559,-0.259984
-0.215891,-0.235398,0.334480,0.268199,0.944430,-0.190055
-0.236285,-0.241953,0.291236,-0.628503,0.777557,-0.019720
-0.381365,-0.531147,0.850462,-0.137238,-0.638957,0.756901
-0.334189,-0.452948,0.830659,0.834745,-0.412722,0.364502
-0.323905,-0.421967,0.799825,0.884527,-0.017003,-0.466180
-0.263424,-0.148012,0.849121,0.462559,0.660510,-0.591410
-0.286125,-0.156698,0.805953,0.362803,-0.246638,0.898634
-0.309182,-0.166534,0.762326,0.880937,0.182793,0.436506
-0.330817,-0.175550,0.719886,0.464157,0.308657,-0.830234
-0.281156,-0.095219,0.702765,0.169683,0.862695,0.476408
-0.294103,-0.092437,0.662125,0.824366,0.504203,0.257295
-0.155589,-0.136205,0.717626,0.386989,0.377310,-0.841354
-0.049350,0.015772,0.718891,0.409641,-0.211180,0.887467
-0.215533,-0.173429,0.624358,-0.720802,0.673370,0.164371
-0.353344,-0.100962,0.816334,-0.594091,0.799058,0.092531
-0.340218,-0.299329,0.927259,0.916806,-0.383373,0.111767
-0.395021,-0.349501,0.873099,0.119454,0.234722,0.964695
-0.267857,-0.171948,0.883058,0.514280,0.344604,-0.785344
-0.393073,-0.197854,0.592452,0.649060,0.469364,0.598680
-0.364694,-0.096370,0.778298,-0.434686,0.879350,-0.194399
-0.409565,-0.134074,0.726819,-0.002075,-0.833818,0.552035
-0.550390,-0.291624,0.641901,0.382084,-0.889285,0.251366
-0.422339,-0.112440,0.650596,-0.074796,0.948228,-0.308658
-0.490088,-0.305723,0.125460,0.827557,0.528329,0.189783
-0.322308,0.357431,0.178395,0.903202,-0.325262,-0.280054
-0.321772,-0.097520,0.896885,-0.651164,-0.640884,0.406514
-0.365939,-0.135385,0.847627,-0.035222,0.503757,0.863127
-0.477672,-0.191130,0.808558,0.807018,-0.566374,-0.167158
-0.460292,-0.151785,0.780175,0.767878,0.544018,0.338242
-0.554472,-0.134074,0.675608,-0.583489,0.418638,-0.695904
-0.475014,-0.115392,0.670054,0.307286,-0.925209,0.222631
-0.271403,0.460717,0.121553,0.295430,-0.786154,-0.542847
-0.495766,-0.114070,0.801281,0.131365,0.772462,0.621326
-0.117630,0.579413,0.746162,0.235786,0.584520,-0.776364
-0.566352,-0.056854,0.729654,-0.450243,-0.269379,0.851303
-0.651130,-0.036531,0.730496,-0.056376,-0.337713,0.939559
-0.504989,0.166109,0.745473,-0.353161,0.746956,-0.563323
-0.322660,0.431368,0.737659,-0.279084,0.959539,0.037385
-0.444687,0.404320,0.743826,-0.430654,0.849715,0.304172
-0.868755,0.012650,0.803923,-0.156185,0.754114,0.637902
-0.680753,-0.108668,0.790326,-0.257680,-0.686941,0.679494
-0.721191,-0.141778,0.740417,0.702361,-0.391947,-0.594194
-0.799409,-0.113421,0.761215,-0.576198,0.617750,-0.535145
-0.732362,-0.010955,0.748575,0.240872,-0.545993,0.802417
-0.212518,0.064463,-0.985906,-0.210904,0.004298,-0.977497
-0.123838,-0.063248,-0.982114,0.189475,0.759371,0.622458
-0.051477,-0.018329,-0.973305,-0.302609,-0.442350,-0.844248
-0.037821,0.006756,-0.987553,0.015405,-0.593209,0.804901
-0.007137,-0.240482,-0.965452,0.904435,0.417694,0.086768
-0.060164,-0.117843,-0.974032,0.095189,-0.152251,0.983747
0.350599,-0.060466,-0.951510,0.392242,0.917912,-0.059859
0.171290,-0.247686,-0.952085,-0.351810,0.602601,-0.716312
-0.041366,-0.469999,-0.959209,0.167623,-0.449387,-0.877470
0.533638,-0.181294,-0.940134,0.284855,0.353681,-0.890936
0.378799,-0.341306,-0.932473,-0.204650,0.888022,0.411747
0.193991,-0.532788,-0.932205,0.335071,0.537161,-0.774071
0.497633,-0.074406,-0.945803,-0.514993,0.251490,-0.819472
0.310692,-0.268840,-0.946646,0.055759,0.296396,0.953436
0.176254,-0.405237,-0.935116,0.938502,-0.286708,-0.192387
0.032240,-0.554102,-0.926268,0.868954,0.494306,-0.024080
0.160471,-0.392129,-0.798336,-0.648375,0.735473,-0.196695
0.122517,-0.400324,-0.664926,0.970531,-0.040963,-0.237468
0.188313,-0.318191,-0.602875,0.793680,-0.424159,0.436075
0.148054,-0.352453,-0.567521,0.956717,0.038333,0.288484
0.144509,-0.344908,-0.521327,0.679893,-0.722560,-0.125108
0.171821,-0.305233,-0.469350,-0.495414,0.398558,-0.771827
0.563256,-0.402785,-0.930482,0.587351,-0.573442,-0.571124
0.417109,-0.552461,-0.920293,0.526424,0.605505,-0.596860
0.841004,-0.666244,-0.909875,0.511087,0.845293,-0.155786
0.668429,-0.844288,-0.906657,0.418137,0.077107,-0.905106
0.798613,-0.560496,-0.919757,0.704153,-0.303990,-0.641685
0.685813,-0.674109,-0.903133,0.977935,0.170428,-0.120822
0.558823,-0.651484,-0.920178,-0.226622,0.355560,0.906763
0.805530,-0.952817,-0.893557,0.590046,0.647170,-0.482718
-0.700439,0.030192,0.763820,0.913181,0.164206,0.373011
-0.660889,-0.179983,0.732182,-0.257993,-0.204610,-0.944232
0.176962,0.654991,0.766463,0.385676,0.655650,-0.649135
-0.575223,-0.135885,0.726321,-0.321137,-0.705232,-0.632075
-0.634286,-0.189819,0.754857,-0.443899,0.583869,-0.679743
-0.413646,-0.120465,0.647647,0.074052,0.887453,-0.454910
-0.157716,-0.088174,0.403809,0.924593,-0.059514,0.376280
-0.171014,-0.073905,0.529213,0.769156,-0.016371,-0.638851
-0.215003,-0.112600,0.562920,0.855670,-0.515911,0.040805
-0.277432,-0.169976,0.592528,0.852608,-0.311814,0.419322
-0.237703,-0.116372,0.644314,-0.268113,-0.902574,-0.336861
-0.317161,-0.193922,0.668292,0.838741,-0.510723,0.188881
-0.171902,-0.025714,0.741528,0.621075,-0.611781,0.489887
-0.305101,-0.161781,0.755240,0.652626,0.371207,0.660519
-0.388639,-0.243753,0.778298,0.166023,0.776001,0.608489
-0.359373,-0.201456,0.827518,0.889967,0.237414,-0.389349
-0.428547,-0.267369,0.855211,0.987710,0.155581,0.014971
-0.119226,-0.323595,0.033149,-0.533647,0.607817,-0.588030
-0.076662,-0.266708,0.089033,0.744014,-0.502268,0.440647
-0.127919,-0.303101,0.166827,-0.097121,-0.874613,0.474993
-0.082513,-0.232776,0.262700,-0.076836,-0.990617,-0.113019
-0.200990,-0.273593,0.623975,0.498294,0.388325,0.775182
-0.156476,-0.215556,0.677025,0.022036,0.998046,0.058470
-0.163745,-0.213094,0.718584,0.698837,-0.445263,-0.559793
-0.217839,-0.261465,0.749801,0.865895,0.213643,0.452308
-0.253665,-0.291624,0.783202,0.055449,0.888086,0.456321
-0.237703,-0.255721,0.870494,0.259254,-0.172200,0.950334
-0.120645,-0.118013,0.936567,0.789130,-0.566646,0.237036
-0.315391,-0.525083,0.786074,0.775549,0.592723,-0.217265
-0.228481,-0.421467,0.846095,0.223472,0.761541,0.608371
-0.305280,-0.495244,0.870647,0.787588,0.448983,-0.422042
-0.294103,-0.670177,0.661244,0.833212,-0.551537,-0.039564
-0.227592,-0.588204,0.717320,0.488433,0.586230,0.646349
-0.259873,-0.602963,0.796837,-0.717659,-0.672420,0.181156
-0.144412,-0.727553,0.745856,-0.333371,-0.886568,0.320720
-0.036933,-0.489021,-0.951127,0.304407,0.320020,0.897175
0.154262,-0.604434,-0.936150,-0.080022,0.910914,-0.404762
0.303423,-0.695423,-0.918531,0.119821,0.876284,0.466658
0.570530,-0.857076,-0.909989,-0.466346,0.332491,0.819738
-0.155231,-0.242443,-0.961124,-0.521181,0.095031,0.848139
0.105841,-0.400163,-0.952812,-0.402276,0.662543,-0.631831
0.245605,-0.485078,-0.933201,-0.472044,-0.002777,0.881571
0.480253,-0.627219,-0.923281,-0.702985,-0.314469,0.637904
0.704969,-0.763466,-0.912249,0.801310,-0.154957,-0.577832
0.837632,-0.843957,-0.891374,0.525436,0.314648,0.790515
-0.261648,-0.142109,0.587434,0.914103,0.078749,0.397761
-0.328337,-0.106536,0.650749,0.395430,0.806027,-0.440403
-0.341106,-0.100962,0.681775,0.172904,0.983283,0.057084
-0.344830,-0.101293,0.712034,0.327600,0.925693,0.189131
-0.244620,-0.162932,0.734901,0.886189,0.163910,-0.433362
-0.204540,-0.061287,-0.977211,-0.448195,-0.310195,-0.838392
0.023190,-0.198675,-0.967176,-0.541142,0.531879,0.651360
0.208177,-0.311467,-0.951893,0.439535,0.578075,-0.687487
0.266000,-0.347860,-0.926000,-0.476404,0.492519,-0.728330
0.378799,-0.417705,-0.904014,0.123989,0.433007,0.892823
0.365321,-0.412622,-0.870422,-0.258199,-0.949097,-0.180410
0.217227,-0.326547,-0.824918,0.953028,-0.189891,0.235963
0.179626,-0.308025,-0.759879,0.251216,-0.967373,0.032864
0.166857,-0.302941,-0.726785,0.695398,-0.677165,0.240561
0.180335,-0.313759,-0.697598,-0.458827,0.878345,-0.134121
0.054940,-0.245725,-0.591346,-0.611914,-0.782056,0.118113
0.087043,-0.266708,-0.563691,0.688903,-0.715554,0.115742
0.115952,-0.291304,-0.473219,0.882829,0.027448,-0.468892
0.105311,-0.286871,-0.440814,0.764508,0.629193,0.140155
-0.047574,-0.214245,-0.181310,0.812560,0.572040,0.111876
-0.191414,-0.146541,0.073750,-0.822015,-0.004795,-0.569445
-0.127919,-0.190800,0.159166,0.813555,0.575671,0.082040
-0.211457,-0.165223,0.495889,0.356754,0.864238,0.354710
-0.219615,-0.162112,0.525613,-0.604295,-0.398252,0.690089
-0.222099,-0.163092,0.554800,0.053190,-0.946720,0.317634
-0.102025,0.067575,-0.988817,0.063333,0.779430,0.623280
0.044478,-0.021772,-0.969819,0.176994,0.284199,0.942287
0.238152,-0.139977,-0.955340,-0.156782,0.943898,0.290647
0.421012,-0.251629,-0.941053,0.846802,0.435486,0.305417
0.621073,-0.372616,-0.927992,0.022002,0.265082,0.963975
0.803045,-0.483937,-0.911905,0.992273,-0.067603,0.104042
0.103535,-0.103094,-0.443266,0.999499,-0.009357,0.030250
0.130853,-0.125388,-0.383857,0.557414,0.759508,-0.335317
0.022481,-0.124237,0.357270,-0.323190,0.916038,-0.237535
0.328608,-0.035380,-0.963614,0.513461,0.655590,0.553678
0.437331,-0.103254,-0.941321,0.943329,-0.130190,-0.305255
0.671449,-0.245064,-0.930175,-0.076981,0.983462,0.163940
0.120033,-0.057184,0.498111,-0.342434,0.793958,-0.502364
-0.369484,0.421201,0.183872,0.808645,0.510882,-0.291706
0.093251,-0.361309,-0.325981,0.898472,0.430402,0.086613
-0.292863,-0.147032,0.700390,0.395728,-0.718735,0.571680
-0.211457,-0.164243,0.772515,-0.451218,0.890910,-0.051783
-0.204004,-0.159980,0.790441,0.884709,0.313698,-0.344795
-0.283819,-0.221129,0.589158,-0.329743,0.920558,0.209388
-0.266261,-0.185887,0.703224,-0.662658,0.667547,0.339507
0.624266,-0.096039,-0.938487,0.291203,0.937245,0.191764
0.712595,-0.157849,-0.930443,0.769195,-0.094092,-0.632049
0.419064,-0.051281,-0.945496,0.678876,-0.624617,-0.385982
0.530623,-0.127359,-0.941551,-0.299433,0.566137,0.768003
0.613095,-0.185716,-0.930941,-0.520278,0.031345,-0.853421
0.725007,-0.262115,-0.927149,0.982475,0.171011,-0.074147
0.200908,0.003965,-0.966755,-0.470114,0.705031,0.530965
0.284625,-0.055053,-0.956566,-0.690493,-0.009157,0.723281
0.378269,-0.119654,-0.948561,0.745217,0.326436,-0.581456
0.471918,-0.184245,-0.941628,-0.047180,0.071658,0.996313
0.566092,-0.249657,-0.934772,0.819510,0.420746,0.389071
0.661159,-0.315239,-0.927111,-0.158180,0.268318,-0.950255
0.751079,-0.377860,-0.919297,0.320170,0.189940,-0.928124
0.079238,0.027249,-0.146148,-0.236322,0.965396,0.110285
0.009713,0.028230,-0.978131,-0.278327,-0.021458,-0.960247
0.109743,-0.040954,-0.972117,0.348635,-0.197076,0.916305
0.211019,-0.110308,-0.967138,-0.387647,0.207956,0.898044
0.289588,-0.165394,-0.956872,-0.701028,0.146647,0.697893
0.377202,-0.226213,-0.947373,0.414064,0.717102,0.560638
0.471382,-0.291624,-0.940632,0.593992,0.799050,-0.093229
0.568225,-0.359007,-0.933239,0.749441,0.378103,-0.543486
0.643779,-0.412291,-0.920829,0.007988,-0.029861,0.999522
0.746294,-0.482786,-0.914509,-0.299384,0.128728,0.945409
0.172530,-0.099481,-0.311120,0.295771,-0.950836,0.091814
-0.000220,-0.004721,-0.194563,0.830718,0.393565,0.393718
-0.015472,0.000362,-0.165338,0.541477,-0.839818,0.038837
-0.027001,0.002654,-0.135921,0.427956,0.653766,-0.624054
-0.195490,0.076591,-0.985983,0.236022,0.418310,0.877104
-0.091557,0.005606,-0.981884,-0.387647,-0.121809,0.913724
-0.020614,-0.045217,-0.970010,-0.640876,0.585905,0.495977
0.090588,-0.120795,-0.966218,0.399480,-0.139821,-0.906016
0.188670,-0.188178,-0.960511,-0.036887,0.647189,0.761437
0.276820,-0.249497,-0.951204,0.035362,0.639035,0.768364
0.349712,-0.301461,-0.938334,0.489861,0.256888,-0.833094
0.467306,-0.382122,-0.935882,0.422169,0.898182,0.122648
0.557048,-0.444092,-0.927877,-0.057491,-0.046326,0.997271
0.085446,-0.141458,-0.345171,0.730004,-0.667081,0.148652
0.049263,-0.123417,-0.310928,0.066279,-0.996087,-0.058464
-0.033031,-0.075877,-0.265692,0.467546,-0.834499,0.291569
-0.188931,-0.041945,-0.981042,-0.553916,-0.103434,-0.826123
-0.098123,-0.105385,-0.972730,-0.142920,0.271076,0.951888
0.001908,-0.174079,-0.966333,-0.657958,0.424410,-0.622067
0.104244,-0.244244,-0.960435,0.875792,0.331109,-0.351220
0.193991,-0.306384,-0.952621,0.755673,0.314830,-0.574317
0.261210,-0.354745,-0.939789,0.538789,-0.690485,-0.482636
0.340316,-0.410651,-0.928337,0.743681,0.111011,0.659254
0.452762,-0.487210,-0.925502,-0.335465,-0.199143,0.920763
0.560062,-0.560827,-0.920331,-0.271317,0.557253,0.784765
0.645549,-0.620335,-0.910104,-0.375379,0.612776,-0.695411
0.749309,-0.691981,-0.904091,0.041519,0.079493,0.995970
0.649987,-0.508203,-0.920446,-0.304191,0.044996,0.951548
0.746467,-0.574765,-0.912747,0.349219,-0.232833,-0.907653
0.840116,-0.639847,-0.905546,-0.217239,-0.257091,0.941654
0.101587,-0.223591,-0.455408,0.927207,-0.151855,0.342384
0.857145,-0.766248,-0.899916,0.987376,-0.085599,0.133270
0.159940,-0.337694,-0.657725,0.823185,0.567771,0.001340
0.153905,-0.339495,-0.627734,0.988085,-0.086437,0.127347
0.103714,-0.318191,-0.559477,0.866105,-0.206145,0.455375
0.050508,-0.315239,-0.382057,0.957231,0.135296,-0.255743
0.071260,-0.333431,-0.358577,0.813700,-0.524061,-0.251502
0.048023,-0.323265,-0.326862,0.826803,0.392496,0.402920
0.022308,-0.311467,-0.295109,0.375026,-0.383692,-0.843882
0.010243,-0.309335,-0.265118,0.884570,-0.425742,-0.190472
-0.003056,-0.305893,-0.236084,0.882964,0.423145,-0.203282
-0.024517,-0.296877,-0.204216,0.655365,0.704045,0.273528
-0.036754,-0.293926,-0.174416,0.794972,0.512100,-0.325228
-0.147784,-0.185887,-0.969359,0.855604,-0.100782,-0.507725
-0.053426,-0.251298,-0.962924,-0.124264,-0.411482,0.902907
0.075693,-0.338684,-0.963346,-0.445281,0.588872,-0.674503
0.153553,-0.393109,-0.952697,-0.392173,0.225820,0.891743
0.202147,-0.429673,-0.934235,-0.476474,0.315976,0.820446
0.216518,-0.444092,-0.907730,-0.482098,-0.836745,-0.259690
0.187252,-0.430653,-0.871265,0.973402,-0.220961,-0.060533
0.189910,-0.437868,-0.843648,0.870012,-0.395196,0.294786
0.469612,-0.620825,-0.879117,0.478628,0.581676,0.657699
0.697694,-0.771821,-0.901333,-0.636672,0.352534,0.685834
0.784247,-0.831829,-0.892255,-0.652170,0.679469,0.336149
0.921880,-0.924779,-0.893596,0.089614,0.309915,-0.946532
-0.025583,-0.306054,-0.149595,-0.223571,0.961544,-0.159528
-0.062827,-0.287201,-0.115965,0.709218,0.665489,-0.232666
-0.088542,-0.370815,-0.961967,-0.559387,-0.367358,-0.743057
0.015742,-0.442460,-0.956451,0.105971,-0.566615,0.817140
0.105841,-0.505251,-0.947565,0.933714,-0.196136,-0.299514
0.189379,-0.563448,-0.938257,0.850343,0.196803,-0.488042
0.252517,-0.609187,-0.924238,0.435317,-0.483919,-0.759158
0.361776,-0.683945,-0.919604,-0.728628,-0.102233,0.677237
0.462868,-0.753129,-0.914088,-0.156561,-0.872834,0.462223
0.582590,-0.835272,-0.911636,0.680418,0.256681,0.686401
0.695210,-0.912161,-0.906963,0.989405,0.104918,-0.100353
0.035428,-0.587053,-0.935729,0.956621,0.131262,-0.260088
0.120742,-0.646241,-0.925579,0.532323,-0.031487,-0.845955
0.244182,-0.730014,-0.924085,-0.111664,0.513645,0.850706
0.330557,-0.790183,-0.914050,0.852815,-0.227603,-0.470004
-0.173499,0.824179,0.214361,0.151767,0.420700,0.894415
0.093073,0.532523,0.751142,0.771375,-0.607338,-0.190056
0.046074,0.674003,0.769987,-0.621181,0.037870,-0.782751
0.083849,0.412676,0.724636,-0.056861,-0.191787,0.979788
-0.136076,0.435791,0.717090,0.256318,-0.008345,-0.966556
-0.083931,0.397926,0.731760,0.846218,-0.506971,0.163995
-0.232031,0.390222,0.101750,-0.239619,0.793591,-0.559281
-0.273356,0.522026,0.159013,0.923632,0.375757,-0.075567
-0.180065,0.356940,0.684647,-0.546911,0.728390,0.412717
-0.170484,0.346444,0.706404,-0.558335,0.253979,-0.789782
0.036143,0.194957,0.764701,0.899862,-0.295805,-0.320544
0.048733,0.076751,0.740685,0.697253,0.225221,0.680525
-0.098653,0.014951,0.551889,0.853265,0.100062,-0.511787
-0.208264,0.282503,0.040771,0.304671,-0.864129,0.400570
-0.227592,0.290048,0.071031,-0.093528,-0.954591,0.282859
-0.324965,0.347594,0.117071,-0.113440,0.989647,-0.087922
-0.342881,0.353658,0.146641,0.979111,-0.198279,0.045018
-0.047926,0.065604,0.612216,0.686557,0.701650,-0.190597
0.030286,0.010359,0.621447,0.850063,0.512317,0.122164
-0.269627,0.199059,0.700083,-0.323462,0.924139,-0.203322
-0.072759,0.058890,0.736165,0.808656,-0.583100,-0.077904
-0.095817,0.133478,-0.082795,-0.764828,0.075948,0.639742
-0.240009,0.220863,-0.027255,-0.767872,0.623357,-0.147644
-0.422339,0.298083,0.216545,0.032940,-0.567539,0.822687
-0.091557,-0.139157,0.851611,0.627359,-0.077746,-0.774840
-0.343233,-0.099161,0.492864,0.785130,-0.475096,0.397309
-0.114794,-0.250318,0.474823,0.553198,0.803393,-0.220299
-0.230256,-0.180633,0.521667,0.173406,0.534177,-0.827397
-0.244090,-0.061447,0.423267,0.855518,-0.407536,0.319380
-0.234867,-0.140468,0.808367,-0.685440,0.591092,-0.425185
-0.236995,-0.148012,0.855901,0.810988,-0.563656,-0.156813
-0.244620,-0.180963,0.571959,-0.042225,0.821013,0.569346
-0.255262,-0.178502,0.598810,0.825971,-0.543977,0.147858
-0.266082,-0.176211,0.624511,-0.265747,-0.928044,-0.260986
-0.286834,-0.167355,0.652971,-0.424806,0.874631,0.233584
-0.352635,-0.129490,0.689512,-0.372266,0.850222,0.372211
-0.340927,-0.141458,0.711881,0.643207,-0.057092,-0.763561
-0.193542,-0.289493,0.968704,0.861965,-0.257645,-0.436619
0.158695,-0.335403,-0.063796,-0.164872,-0.976074,0.141766
-0.197975,-0.149984,0.240331,-0.411260,0.815206,0.407805
-0.136076,-0.194733,0.252856,-0.304324,0.744161,0.594652
-0.159843,-0.184076,0.283307,0.157839,-0.869198,0.468596
-0.209325,-0.162112,0.344017,0.175300,0.813948,-0.553857
-0.215891,-0.162272,0.369681,0.838211,-0.499198,0.219555
-0.288431,-0.119814,0.408137,0.916685,-0.105569,0.385413
-0.190348,-0.187848,0.414610,-0.409043,-0.865974,-0.287704
-0.224757,-0.170637,0.445253,0.917841,0.237181,-0.318297
-0.047574,-0.301461,-0.093251,-0.661340,0.193259,-0.724762
-0.093154,-0.277695,-0.057131,-0.172348,0.948566,-0.265552
-0.103622,-0.280147,-0.002664,0.524798,0.672014,-0.522479
-0.089787,-0.294256,0.021084,0.370509,0.882893,0.288483
-0.136433,-0.269000,0.057050,0.922904,-0.385030,-0.000882
-0.128628,-0.278516,0.080798,0.409211,0.871334,-0.270783
-0.136076,-0.278836,0.107495,0.251764,0.709566,0.658127
-0.176162,-0.257693,0.141739,0.688947,0.627740,0.362347
-0.336673,-0.178342,0.300658,0.682620,0.036820,0.729845
0.093960,-0.501148,0.467430,0.625036,0.630038,0.460849
-0.294103,-0.256382,0.564873,0.419956,0.807295,-0.414622
-0.660889,-0.042105,0.753172,0.889162,0.455735,0.041199
-0.257216,-0.324415,0.799519,-0.671184,-0.660035,0.337441
-0.108942,-0.424749,0.796416,0.404713,0.702648,-0.585230
-0.192124,-0.384093,0.882521,0.704694,-0.641627,0.302856
-0.237525,-0.180803,0.546833,-0.372200,-0.883359,0.284859
-0.489201,-0.148503,0.094281,0.662714,0.395285,0.636050
0.048202,-0.590335,0.519446,-0.896140,-0.206398,-0.392852
-0.682880,-0.136696,0.751372,-0.504758,0.829191,0.240128
-0.677560,-0.144730,0.774621,0.998648,-0.046559,0.023126
-0.132174,-0.522622,0.819398,0.945503,-0.102402,0.309091
-0.289139,-0.433765,0.917263,0.872867,0.463654,-0.152077
-0.341285,-0.622956,0.755470,-0.375519,-0.570478,-0.730438
-0.284885,-0.663942,0.769757,-0.296561,0.917653,0.264508
-0.444509,-0.564269,0.821543,0.941550,0.319909,0.105550
-0.375872,-0.748707,0.826293,0.844973,-0.525922,0.097090
-0.425532,-0.720178,0.858314,0.170864,-0.262502,-0.949683
0.240994,-0.042925,-0.969359,0.504409,0.552275,-0.663750
0.303423,-0.078668,-0.961775,0.780436,0.365766,-0.507084
0.358047,-0.107186,-0.950438,0.418571,0.317209,-0.850986
0.429878,-0.151125,-0.945688,0.802132,0.049471,-0.595094
0.497102,-0.191130,-0.939713,-0.272180,-0.122431,0.954426
0.573897,-0.239661,-0.937070,0.593987,0.343012,-0.727683
0.645197,-0.282939,-0.931746,0.393526,-0.169390,-0.903573
0.714192,-0.323765,-0.925426,0.871316,-0.424394,-0.246372
0.782472,-0.365572,-0.920561,-0.257103,0.429511,0.865690
-0.142284,-0.179162,-0.972462,0.753074,-0.110810,-0.648538
-0.076483,-0.218017,-0.966525,-0.759879,0.126264,-0.637685
0.000847,-0.266868,-0.963997,0.911552,-0.068702,-0.405404
0.077462,-0.316550,-0.963116,0.926623,-0.309664,-0.213255
0.147702,-0.358677,-0.957562,-0.732759,0.024642,0.680042
0.215273,-0.398683,-0.950782,-0.570121,0.590659,0.571038
0.256955,-0.412782,-0.931707,0.529358,-0.411670,-0.741828
0.310162,-0.439178,-0.919527,0.351760,0.054809,0.934484
0.395297,-0.497055,-0.922246,0.293604,-0.146846,0.944581
0.489650,-0.562137,-0.927532,-0.124528,0.516785,0.847010
0.562190,-0.607386,-0.924315,-0.119221,0.087443,0.989010
0.626042,-0.643779,-0.915926,0.284275,-0.255976,-0.923940
0.695919,-0.685095,-0.909683,-0.310643,-0.604822,0.733274
0.778748,-0.739690,-0.909645,0.671933,0.435544,-0.599006
0.851467,-0.784609,-0.906159,-0.295045,0.066700,-0.953152
0.091297,0.127083,-0.293041,0.983148,0.182443,0.011611
-0.054313,-0.605585,-0.946799,0.928021,0.366134,-0.068718
0.015742,-0.647222,-0.941053,0.407991,0.198563,-0.891132
0.099102,-0.703127,-0.943237,-0.038968,0.931842,0.360767
0.166857,-0.741982,-0.935767,0.749060,0.058944,-0.659875
0.208356,-0.756081,-0.916769,-0.094072,0.440057,0.893029
0.300229,-0.818871,-0.920906,-0.742132,-0.075132,0.666030
0.082074,-0.379831,-0.498614,0.836882,-0.537957,-0.101143
0.071260,-0.344578,-0.458702,0.796366,-0.530845,0.289837
0.091655,-0.340485,-0.434111,0.486992,-0.110154,0.866432
-0.062470,-0.538692,-0.308975,0.927750,-0.366375,0.071055
-0.073826,0.577931,0.214553,0.432120,0.385454,-0.815290
-0.192476,0.160535,0.014878,0.188970,-0.449917,0.872849
-0.305989,0.353328,0.183183,0.906576,-0.416968,0.065246
0.427751,-0.292445,-0.052114,0.005593,-0.854220,0.519882
-0.082870,0.582855,0.718086,-0.124051,-0.746000,0.654290
0.004571,0.540888,0.739881,0.276760,-0.803267,0.527415
-0.121354,-0.268179,0.007984,0.134505,-0.990603,-0.024790
-0.107524,-0.237200,0.062834,-0.670589,0.496480,0.551196
-0.101490,-0.219488,0.092174,-0.583398,-0.687066,-0.433113
-0.205070,0.276279,0.677025,-0.689253,0.479853,-0.542836
-0.260052,0.346113,0.723372,-0.665446,0.109454,0.738378
-0.527159,-0.302612,0.140360,-0.654999,-0.620684,-0.430962
-0.563337,-0.244084,0.186247,0.904308,0.425162,-0.038259
-0.091914,-0.629350,0.085816,0.227636,0.630597,0.741976
-0.275662,-0.183916,0.511096,-0.702623,0.711385,0.015910
-0.258813,-0.178672,0.532469,0.373144,-0.874151,0.310843
-0.256680,-0.159980,0.558783,0.870708,-0.491605,0.013890
-0.229189,-0.164243,0.576594,-0.113326,0.985589,0.125586
-0.243733,-0.129811,0.608999,-0.613490,0.348979,0.708409
-0.365582,0.005435,0.681736,0.972189,0.060439,-0.226264
-0.183252,-0.083911,0.721495,-0.233420,-0.630491,0.740268
-0.194608,-0.012105,0.805417,0.701068,-0.036798,-0.712145
-0.540458,-0.284740,0.621026,0.831419,-0.410242,-0.374757
-0.714625,-0.076537,0.739689,0.873503,-0.081990,0.479865
-0.298541,-0.301631,0.799787,0.270759,-0.043205,-0.961677
-0.268745,-0.309005,0.814725,0.961850,-0.185294,0.201274
-0.146187,-0.403276,0.797604,-0.131608,-0.769751,0.624630
-0.082334,-0.441310,0.801932,0.742130,-0.120341,-0.659364
-0.168887,-0.259824,0.959626,0.914226,-0.345666,-0.211437
-0.344299,-0.612469,0.805915,-0.325740,-0.844480,0.425143
-0.374626,-0.563288,0.842265,0.998339,-0.054129,-0.019747
-0.311488,-0.753299,0.660440,0.596184,0.365635,0.714756
-0.390058,-0.612139,0.769719,-0.251108,-0.256016,0.933488
-0.365939,-0.613290,0.787913,0.923534,0.117084,0.365209
-0.439009,-0.872155,0.837209,-0.579966,-0.038840,-0.813714
-0.410631,-0.877729,0.852645,0.871670,0.261227,-0.414671
0.693082,-0.121616,-0.934082,-0.210102,-0.874445,0.437267
0.438219,-0.048169,-0.946914,0.892740,0.188219,-0.409376
0.494970,-0.089155,-0.944309,0.368965,-0.095200,0.924555
0.552614,-0.129981,-0.935997,-0.125591,0.771168,0.624121
0.612565,-0.172108,-0.927800,-0.605690,0.099584,-0.789444
0.667546,-0.212774,-0.932856,0.585786,0.414753,0.696301
0.727139,-0.254901,-0.925541,0.995382,-0.070791,-0.064830
-0.182192,0.370219,-0.255235,0.487303,0.446350,0.750538
0.242233,-0.026525,-0.965912,-0.152953,-0.134787,0.978998
0.301118,-0.067841,-0.954804,-0.507848,0.174265,0.843636
0.360889,-0.109648,-0.946301,-0.340284,0.652155,0.677422
0.417467,-0.150634,-0.944271,0.338895,0.274606,-0.899857
0.477238,-0.192771,-0.937568,0.377282,0.108121,-0.919765
0.535408,-0.235068,-0.937606,-0.423781,-0.416002,0.804582
0.594649,-0.277695,-0.933852,0.363891,0.894368,0.260173
0.651405,-0.318021,-0.929830,0.041690,0.452999,0.890536
0.708514,-0.358517,-0.921672,0.909380,0.126050,-0.396407
0.768107,-0.400324,-0.914011,-0.453196,0.182747,0.872477
-0.000750,0.053146,-0.116846,-0.679928,-0.725310,0.107811
-0.228837,0.108561,-0.989239,0.012929,0.421784,0.906604
-0.171193,0.067085,-0.984527,-0.045307,0.721806,0.690611
-0.110182,0.023797,-0.979739,-0.269680,0.002534,0.962947
-0.052716,-0.017509,-0.975564,0.014965,0.415191,0.909611
0.006876,-0.060306,-0.972309,0.027892,0.359857,0.932591
0.066648,-0.103254,-0.968746,0.563334,0.094995,-0.820750
0.126063,-0.145881,-0.965108,0.177885,0.418276,0.890731
0.182993,-0.186207,-0.960052,-0.172985,0.779671,0.601822
0.241524,-0.227193,-0.949480,0.923182,0.358014,-0.139860
0.299877,-0.269820,-0.949059,-0.242198,0.617000,0.748767
0.357696,-0.310486,-0.939942,0.150507,0.380612,-0.912405
-0.001107,0.047082,-0.975488,-0.262235,0.034987,-0.964370
0.055471,0.005936,-0.974607,-0.317163,0.655636,0.685237
0.114891,-0.036531,-0.971849,-0.320098,-0.085195,-0.943546
0.171821,-0.077348,-0.968363,-0.118360,-0.492576,-0.862183
0.232123,-0.120305,-0.961584,-0.155153,0.112163,0.981502
0.292604,-0.162772,-0.951625,0.223418,0.537572,-0.813081
0.352196,-0.205389,-0.946377,-0.265807,-0.402964,-0.875767
0.409662,-0.246055,-0.941053,0.981209,-0.158203,-0.110459
0.466240,-0.286871,-0.936763,-0.623550,-0.737147,-0.260384
0.526190,-0.329339,-0.932205,-0.450328,-0.891659,-0.046346
0.582941,-0.370154,-0.927685,-0.031252,-0.342086,0.939149
0.641825,-0.412451,-0.924162,0.302177,0.269867,0.914254
0.701418,-0.454588,-0.917382,0.541832,0.114518,-0.832649
0.760659,-0.496726,-0.912556,-0.167021,-0.259614,0.951159
0.816528,-0.536401,-0.909262,0.911132,-0.070393,-0.406059
-0.296057,0.250863,-0.245621,0.570099,0.263317,0.778236
-0.048462,0.088559,-0.107768,0.905612,0.292461,0.307137
0.417288,-0.352783,-0.932358,0.960812,-0.054095,-0.271870
0.476351,-0.394911,-0.929677,0.798916,-0.505563,0.325789
0.535765,-0.437538,-0.924123,-0.605467,0.016350,0.795702
0.592164,-0.477703,-0.921748,0.261462,-0.087959,0.961198
0.646973,-0.518530,-0.927992,-0.201534,-0.315400,0.927312
0.706917,-0.560336,-0.917076,-0.386932,0.040038,0.921239
0.764205,-0.600331,-0.908227,-0.360104,0.423085,0.831459
0.822379,-0.642469,-0.906925,0.513203,0.530678,-0.674540
-0.003586,-0.167035,-0.341073,0.946745,-0.049506,0.318157
-0.152574,-0.137516,-0.972117,-0.546568,0.817095,0.183355
0.036143,-0.202117,-0.393663,0.137667,-0.547953,0.825103
-0.094751,-0.178502,-0.966142,0.122377,-0.601513,-0.789434
0.084737,-0.240642,-0.418254,0.927168,-0.134362,0.349724
-0.035157,-0.221300,-0.961392,0.290102,0.518346,0.804461
0.128011,-0.278676,-0.473831,-0.102537,-0.001708,0.994728
0.021772,-0.263597,-0.971811,-0.409225,-0.423875,0.808001
0.083497,-0.306714,-0.958711,-0.754930,0.141416,-0.640376
0.140958,-0.348020,-0.952697,0.791507,0.235895,-0.563800
0.197715,-0.388687,-0.951280,-0.507728,0.457139,0.730230
0.262455,-0.431474,-0.917152,-0.313459,-0.947061,-0.069416
0.317436,-0.471479,-0.919029,-0.336929,0.689672,0.640961
-0.007315,-0.044726,-0.163576,-0.409551,0.815258,-0.409417
-0.213228,0.002164,-0.981540,-0.021009,0.411979,0.910951
-0.153456,-0.040954,-0.981808,0.049928,0.843582,0.534675
0.068244,-0.115392,-0.291470,-0.498371,0.796826,-0.341607
-0.093332,-0.083911,-0.975258,0.860721,-0.505869,0.057062
0.109213,-0.150474,-0.338085,0.986895,-0.070845,0.144982
-0.036754,-0.124728,-0.975718,-0.008463,-0.077879,-0.996927
0.021421,-0.165884,-0.968057,0.834558,-0.223415,-0.503585
0.080304,-0.208511,-0.964725,0.924703,-0.081869,-0.371781
0.138300,-0.249167,-0.956068,-0.423531,0.043014,-0.904860
0.198602,-0.291955,-0.948216,-0.206730,-0.866044,0.455225
0.258726,-0.334421,-0.940019,0.300547,-0.450130,-0.840865
0.321160,-0.376719,-0.917344,0.569097,-0.793244,-0.216548
0.374014,-0.417214,-0.936112,-0.693520,-0.308310,0.651133
0.431123,-0.457701,-0.928720,0.803205,0.192255,-0.563826
0.489828,-0.500168,-0.924736,-0.185704,0.314351,0.930966
0.546228,-0.540663,-0.923779,-0.030909,0.274551,0.961076
0.605999,-0.582470,-0.915160,-0.472838,0.413674,0.778009
