-0.234527,-0.427866,0.674936,-0.381074,0.875509,-0.297097
-0.234429,-0.056544,0.157366,0.582371,-0.784331,-0.213705
0.965881,0.079585,0.310209,0.065354,-0.662184,0.746486
-0.071392,0.509780,0.404506,0.973239,-0.229773,0.003093
-0.366451,0.115315,-0.759573,-0.653139,-0.732951,0.190243
-0.583096,0.209622,-0.992616,-0.039242,0.108633,0.993307
-0.078660,-0.154627,-0.973354,-0.105704,0.285810,0.952439
0.438957,-0.130131,0.412736,-0.245485,-0.770567,0.588186
0.591044,-0.394950,0.163379,0.882803,-0.447340,0.143337
-0.200600,-0.358540,-0.965912,-0.254284,0.334186,0.907557
0.030581,0.212240,0.401792,-0.468802,0.877789,0.098551
-0.132362,-0.085690,-0.978111,0.020170,0.134056,0.990768
0.090681,-0.337531,0.539167,0.327977,0.816693,0.474808
-0.333592,0.069710,-0.576173,-0.607609,0.772949,0.182652
-0.024378,0.596824,-0.093363,-0.054285,-0.901336,0.429706
-0.362188,0.224727,0.772035,0.911650,0.219842,-0.347224
-0.398147,-0.197714,0.405790,0.954343,-0.030948,0.297107
-0.472787,-0.055480,-0.920470,0.687475,0.710551,-0.149985
0.225803,-0.531274,0.327924,-0.636587,0.304244,0.708655
-0.161925,-0.298220,0.628590,-0.474720,0.725424,0.498398
0.027673,0.764907,0.105213,-0.430679,0.472823,-0.768735
-0.241410,0.561189,0.442184,0.863546,-0.239171,0.443943
-0.539765,0.245547,0.813274,0.535268,0.584586,0.609711
-0.068871,-0.276437,0.658096,0.819232,0.116126,-0.561581
-0.223185,0.045020,-0.113764,-0.270370,-0.866649,0.419308
-0.539087,0.093048,-0.985320,-0.286731,0.224460,0.931345
-0.424611,0.085980,0.658271,0.327908,0.944290,0.028137
-0.699995,-0.138363,-0.988997,0.205423,-0.154002,-0.966481
0.173752,0.372191,0.479570,-0.947917,-0.002541,-0.318507
-0.131489,-0.319714,0.602323,-0.371247,-0.296958,-0.879768
0.003440,-0.271107,0.647648,-0.353608,0.847189,0.396526
0.911211,-0.248744,0.555685,-0.339490,0.536269,0.772762
-0.137305,-0.152984,-0.230300,0.666893,0.551448,-0.501157
-0.601607,-0.465724,0.499066,0.926799,-0.299173,0.227022
-0.006543,0.091210,-0.979366,0.098459,-0.190676,0.976703
-0.158145,-0.350214,-0.960600,-0.155149,0.170172,0.973124
-0.478313,-0.097599,-0.962701,0.325549,0.650016,-0.686656
-0.098435,0.002033,0.405703,0.970386,0.198520,-0.137629
0.644938,0.014621,0.247198,0.961351,-0.204538,-0.184306
0.045316,-0.676126,0.470698,0.125830,0.823414,-0.553315
-0.362963,-0.475700,0.774165,0.037119,-0.995684,-0.085064
-0.141665,0.289598,-0.290421,-0.295080,-0.719771,0.628377
0.617022,0.049476,0.222391,-0.572866,0.817164,0.063776
-0.327001,0.358150,0.513104,-0.152718,-0.986540,0.058452
-0.161636,-0.773240,0.466729,0.851400,0.524194,0.018396
-0.081666,-0.215822,0.843451,0.084395,-0.911509,0.402527
0.023700,-0.153664,0.681532,0.895316,0.426256,0.129289
-0.057045,0.122094,-0.973208,0.058915,0.296718,-0.953146
-0.198663,-0.046958,-0.969560,0.114541,-0.173532,0.978145
-0.352201,0.100210,-0.520488,0.907460,0.153705,-0.391013
0.805556,0.216791,0.390818,-0.553122,0.616550,-0.560287
-0.115494,-0.475121,0.668749,-0.497186,0.849110,0.178375
0.049291,0.620835,-0.091962,-0.443356,0.891438,-0.093669
-0.029031,-0.182420,0.715883,0.413887,0.906129,-0.087342
-0.125866,-0.308775,0.593539,0.192222,0.665927,0.720828
0.334366,0.258909,0.611079,0.540832,-0.808495,0.232028
0.098145,-0.642045,0.608831,-0.332993,-0.401002,0.853413
-0.275819,0.047443,0.290859,0.904015,-0.315151,0.288853
-0.188484,0.100795,0.167523,-0.685285,-0.638163,0.350903
0.430911,-0.020915,0.574860,0.856282,-0.465660,-0.223476
-0.161150,-0.864155,0.458528,-0.086341,-0.859016,0.504616
0.770466,-0.327656,0.563653,-0.581402,0.698936,0.416485
-0.468909,-0.291832,-0.968684,0.124280,-0.138800,0.982491
0.046286,0.162274,0.676278,0.588151,0.030843,-0.808163
-0.590171,0.009101,-0.989464,-0.208231,0.120672,0.970607
0.260795,0.382161,0.400479,0.187703,0.764074,0.617219
0.224445,0.129936,0.610641,-0.783920,0.496750,-0.372437
-0.185673,0.088397,-0.978345,-0.103930,-0.055299,0.993046
-0.357630,0.534176,0.669011,0.253449,-0.610542,0.750335
-0.255077,0.110475,0.820045,0.651998,0.756503,0.051006
-0.531914,0.031274,-0.982722,-0.217855,0.408195,0.886519
0.318470,0.301122,0.413554,0.180785,0.781259,0.597454
0.083215,0.269558,0.662620,-0.713572,0.651192,0.258388
0.049871,-0.904145,0.336417,-0.047365,-0.107520,0.993074
-0.047159,-0.006684,-0.984211,-0.072403,0.318837,0.945040
-0.174234,0.068452,-0.984036,-0.082869,-0.170740,0.981825
-0.592012,-0.205267,-0.084754,-0.766011,0.632088,0.117010
0.533174,-0.170801,0.542143,-0.066424,0.963812,-0.258173
-0.302185,0.058193,-0.536540,0.021749,-0.994324,-0.104151
-0.207386,0.181929,-0.978461,-0.015586,-0.066128,0.997689
-0.414725,-0.113094,-0.965941,-0.229133,0.212406,-0.949938
-0.229971,0.175541,-0.409643,-0.928480,0.287881,0.234626
0.327388,-0.177095,0.444490,-0.621868,-0.264154,0.737227
0.026318,-0.752810,0.609503,-0.110416,-0.245117,0.963185
-0.272137,-0.186291,0.208703,0.623465,-0.493876,-0.606117
0.543353,0.402112,0.403660,0.016578,0.563678,0.825828
-0.004603,-0.051609,0.802971,0.145133,-0.669914,0.728115
-0.158630,-0.463597,0.754699,-0.565879,0.824126,0.024448
0.467358,-0.253490,0.074189,-0.426667,0.416120,0.802994
-0.296272,-0.450134,0.713694,0.236851,0.774370,0.586730
-0.335240,0.071359,0.753298,0.880293,0.112460,-0.460909
-0.074492,0.027397,0.431123,-0.684686,-0.683280,0.253642
-0.249551,0.007748,-0.085921,0.916435,0.099811,-0.387535
-0.208451,-0.355444,-0.965065,0.212962,-0.328519,-0.920175
-0.194299,0.029046,0.081864,0.830804,0.406615,0.380039
-0.152134,-0.585011,0.557028,-0.028026,-0.926393,0.375513
0.012359,0.191999,0.814937,-0.370953,0.622493,-0.689127
-0.081375,0.480539,-0.185413,0.799149,0.450086,-0.398477
-0.215044,0.052673,0.227732,0.693833,0.713349,0.098637
-0.263413,-0.483447,0.616420,0.265690,0.787153,-0.556595
-0.060340,0.408885,0.773494,-0.365623,-0.798958,0.477479
-0.124218,-0.025081,-0.980446,0.135231,0.236082,0.962278
0.782583,0.060320,0.364581,0.649517,-0.269981,-0.710800
-0.056270,-0.220177,0.817534,-0.593574,0.098938,0.798674
0.495662,-0.154148,0.473208,-0.116124,0.917833,-0.379601
0.335337,-0.474340,0.344502,0.789937,0.230836,-0.568079
0.590461,-0.127324,0.319665,0.986196,-0.015124,0.164890
-0.390394,0.009391,-0.950064,0.809466,0.409255,0.421041
0.308196,-0.181835,0.548243,-0.219303,-0.731612,0.645484
-0.570299,0.094206,-0.991799,0.292551,-0.363220,-0.884582
-0.080210,0.273819,0.762812,0.528733,0.443966,0.723419
-0.148354,0.050250,0.774574,0.223885,0.960079,0.167701
-0.384288,-0.098373,0.764184,-0.507171,-0.736697,-0.447274
0.008676,-0.554706,0.766811,-0.398986,-0.852724,-0.337153
-0.335627,0.341691,0.471457,0.838408,0.244950,-0.486900
0.350846,-0.072813,0.088110,0.130703,-0.972526,-0.192638
0.849271,0.235187,0.383143,-0.679529,0.569607,-0.462372
-0.112587,0.365023,0.760157,0.178799,-0.366185,0.913203
0.065090,0.618997,0.154127,0.275311,0.921967,0.272360
-0.062860,0.060710,0.751255,-0.196352,0.977106,-0.081914
-0.335240,0.226955,0.346457,-0.330844,-0.869857,0.365913
-0.261475,-0.141750,0.627889,0.701944,-0.592990,0.394509
-0.753307,-0.176221,0.704325,0.826338,-0.313569,-0.467803
-0.124316,0.255517,0.809859,-0.480300,0.877097,-0.003456
-0.666651,-0.066910,-0.990777,0.307787,-0.281322,-0.908914
0.296177,-0.199363,0.418077,0.870858,0.372657,-0.320519
0.036204,-0.639817,0.564966,0.304663,0.939519,0.156477
-0.541608,-0.079013,-0.975455,-0.410220,-0.205158,0.888611
0.029418,-0.276821,0.649778,0.996742,-0.017639,0.078704
-0.064218,-0.283310,0.595144,-0.528362,-0.396846,0.750564
0.453011,-0.475989,0.464248,0.015588,0.801600,0.597657
-0.131877,-0.173508,0.504903,0.837059,0.503616,0.213785
-0.262250,0.139717,-0.504319,0.986609,0.147717,0.069149
-0.200213,0.026724,0.318031,0.005293,0.333204,0.942840
-0.498765,0.600116,0.523786,0.584057,0.490045,0.647097
-0.208841,-0.557614,0.402084,-0.189492,0.666547,0.720977
-0.303735,-0.687354,0.528923,-0.334204,0.929953,-0.153280
0.283768,0.183383,-0.259427,0.427033,0.437078,0.791584
-0.090001,0.142524,0.847012,0.838684,-0.146269,0.524608
-0.116269,-0.332106,0.514126,-0.606649,0.776536,0.170201
-0.148259,0.072908,0.264126,-0.074459,0.953845,0.290921
-0.012747,-0.649208,0.470961,-0.473007,-0.404525,0.782702
-0.334269,0.045794,0.464365,0.984462,0.093433,0.148678
-0.779285,-0.080366,0.674381,-0.045960,-0.833878,0.550033
0.208646,-0.083563,0.764242,0.721729,0.477758,0.500853
0.005185,0.152109,0.732489,-0.513404,0.857150,0.041356
-0.010419,0.235571,0.719443,0.581320,0.792536,0.184266
0.277857,-0.645337,0.062777,0.855455,0.476161,0.203634
-0.186836,0.188903,0.745535,-0.030985,-0.939589,-0.340898
0.009741,0.043572,0.515351,-0.670724,0.389929,0.630940
0.180245,0.085395,0.647414,0.153023,0.810447,0.565473
-0.296757,0.119771,-0.453450,0.732845,-0.662242,-0.156120
0.831824,-0.297156,0.544683,-0.049853,0.829970,0.555576
-0.011099,0.632069,0.140964,0.640623,0.684923,0.347105
-0.182378,-0.518013,0.370039,0.744558,0.667342,0.016962
-0.427229,-0.108059,0.694344,0.159370,-0.854164,0.494979
-0.131004,0.034081,-0.985670,0.253715,0.039260,0.966482
-0.376822,0.148238,0.800578,-0.277738,0.764620,0.581564
-0.158725,0.251256,0.681970,0.372487,-0.786492,0.492629
-0.398730,0.123063,0.680072,0.918773,-0.040264,0.392727
-0.254494,0.125870,0.797835,0.002049,-0.489788,0.871839
0.071196,0.116379,0.484707,-0.663116,0.429394,0.613106
-0.074879,0.481503,0.387812,0.876959,-0.346284,0.333213
-0.040952,-0.848086,0.393328,0.969405,-0.244372,0.023141
0.361800,0.207010,0.483540,-0.714454,0.504126,-0.485193
-0.183736,0.016263,0.220552,0.733020,0.668816,0.123966
0.678865,-0.238769,0.315813,0.833317,0.430923,0.346250
-0.385643,0.049281,-0.019642,-0.127731,0.982797,-0.133397
0.779770,0.059930,0.370068,-0.544069,0.295384,0.785326
0.366743,-0.000390,0.252977,0.746858,0.393343,0.536175
-0.067611,-0.033408,-0.066805,0.581782,0.598926,-0.550288
-0.520768,-0.202655,-0.970319,-0.164637,-0.243223,0.955896
0.051519,0.605535,-0.088898,-0.452280,0.888729,-0.074863
-0.062278,-0.214078,0.655440,-0.129508,0.899496,0.417295
0.427906,-0.491774,0.372753,0.752622,-0.657107,0.042063
-0.833472,-0.088887,0.729862,0.491706,0.870473,-0.022417
-0.309649,0.001259,-0.245447,-0.595630,-0.764861,-0.245382
-0.126449,-0.054996,0.720990,0.904658,-0.102176,0.413707
-0.440993,0.114346,0.770692,0.558635,-0.776526,0.291434
-0.172394,0.000290,0.192447,-0.657499,0.750288,0.069012
0.376919,-0.413825,0.427621,0.653571,0.732352,0.191062
0.634469,-0.233834,0.516723,-0.373893,0.124313,0.919103
-0.185576,-0.109802,-0.978958,-0.058265,-0.132608,-0.989455
0.056852,0.262874,0.702574,-0.281271,0.922321,0.264972
-0.142925,0.264038,-0.369542,-0.743530,0.649096,-0.160737
-0.276887,0.171475,0.329617,-0.379245,-0.630275,-0.677441
-0.129842,-0.074941,-0.170266,0.652267,0.713137,-0.256871
-0.512236,-0.331432,0.007296,-0.563850,-0.376866,-0.734878
-0.595792,0.081429,-0.987947,-0.229645,0.262297,0.937264
0.375659,0.161210,0.436347,0.456070,-0.363452,-0.812344
-0.127416,-0.030116,0.310530,0.998845,-0.023569,-0.041875
-0.179662,0.015200,0.240836,0.781195,0.623477,0.031796
0.512819,-0.298604,0.410489,-0.615250,0.232230,-0.753350
-0.308486,0.636135,0.481468,0.895394,0.022958,0.444683
0.517860,-0.125096,0.507296,-0.384552,0.870370,0.307530
-0.562448,-0.229863,0.012637,-0.673428,-0.342942,-0.654893
-0.194107,0.436382,0.761149,-0.241401,0.962406,-0.124498
-0.366838,0.028851,0.685939,0.927184,0.321542,0.192199
0.262442,-0.426318,0.461330,0.570224,0.735905,0.365088
0.188291,0.018686,0.582156,0.875298,-0.074581,0.477797
0.305676,-0.084047,0.068031,-0.648790,0.734160,0.200204
-0.295399,0.060609,-0.219677,0.377718,-0.017203,-0.925761
-0.642320,-0.011814,0.645254,-0.123119,0.917436,0.378356
-0.321765,0.026333,-0.980212,0.111457,0.182149,0.976933
-0.312462,-0.293090,-0.966379,-0.081375,0.146502,0.985858
0.127031,-0.029342,0.647268,0.601883,-0.369180,0.708126
-0.041633,-0.366772,0.316892,0.427388,0.083536,0.900201
0.524838,-0.057513,0.184479,0.936054,-0.218884,-0.275486
0.013036,0.203234,0.862129,0.994104,-0.107997,0.009646
-0.881160,-0.314779,0.614727,0.996991,0.025957,0.073042
-0.765423,-0.246711,-0.989056,-0.180660,0.050033,0.982272
-0.106286,0.036209,0.332098,-0.235507,0.971404,0.030183
-0.655309,0.439680,0.623833,0.936585,0.350173,0.013694
-0.071681,0.011713,0.659293,0.554278,0.824957,0.110556
-0.094169,0.122384,0.873541,0.293523,-0.619205,-0.728306
-0.096592,0.029530,0.370272,-0.480045,0.877115,-0.015003
-0.061115,-0.190646,0.655031,-0.578668,0.812813,0.066925
-0.243931,0.055285,-0.086271,0.940056,-0.339880,0.027870
-0.657927,-0.228894,0.562894,-0.769576,0.398250,-0.499149
-0.649784,0.581140,0.614464,0.947019,-0.262143,-0.185571
-0.296370,-0.469305,0.676308,0.778532,0.517529,-0.355037
-0.325353,0.071554,-0.496177,0.664672,0.686911,-0.293878
0.173944,0.166440,0.795354,-0.376879,0.914582,-0.146636
-0.314400,0.366577,0.498949,0.275417,0.956932,-0.091793
0.755052,-0.279339,0.538612,-0.326333,0.559308,0.762024
-0.677700,-0.327071,0.037299,0.347365,0.705910,0.617275
-0.233849,0.135940,0.837089,-0.495670,-0.822888,0.277789
-0.267096,-0.373161,0.599288,-0.285070,0.869853,0.402605
-0.193039,-0.122195,-0.230504,0.743515,0.643336,0.182494
0.592014,-0.160052,0.532075,0.629191,-0.622193,0.465826
-0.022828,0.053346,0.696270,-0.309694,0.789797,-0.529443
-0.641060,-0.168379,0.557553,0.889680,-0.240887,0.387869
-0.227064,0.073972,0.059479,0.957462,0.284169,0.050137
0.336887,-0.706721,0.340036,0.712046,0.302992,-0.633393
-0.488199,-0.040281,-0.870214,0.384533,0.920007,0.075644
0.137692,-0.089076,0.537736,0.688862,0.579964,-0.434869
-0.208548,-0.441908,0.659322,0.921132,0.181895,-0.344136
-0.514662,0.608153,0.632442,-0.481184,-0.212928,0.850367
0.663548,-0.232765,0.230417,-0.705544,-0.585733,0.398903
-0.092522,0.012588,0.799411,0.777547,0.012554,-0.628700
-0.265933,-0.436678,0.532483,0.212705,0.594584,0.775388
-0.559442,0.740802,0.447700,0.257989,0.602371,0.755375
-0.305093,-0.638848,0.513279,0.423786,-0.904227,-0.052714
-0.084573,-0.198589,0.732898,-0.062204,-0.178452,0.981981
-0.356952,-0.005425,-0.624300,0.879193,0.399684,-0.259370
-0.120148,-0.910150,0.382763,0.818840,-0.563847,0.107605
-0.105511,-0.256781,0.696971,0.206618,0.964568,-0.164068
-0.071779,-0.585691,0.368609,-0.670650,-0.739769,-0.054496
-0.459215,-0.181545,-0.970669,0.061369,0.051484,0.996786
-0.361315,-0.008327,-0.967750,0.573948,-0.105590,0.812055
-0.202248,-0.013652,0.194899,-0.044435,0.853876,0.518576
-0.270684,-0.016269,-0.973062,0.128900,0.247217,0.960348
-0.226289,-0.245742,-0.971486,-0.093382,0.308679,0.946571
0.386034,0.412856,0.203187,-0.324073,0.318016,0.890978
0.186643,-0.282341,0.575093,0.569651,-0.286439,-0.770358
0.129066,-0.046184,-0.004086,0.608740,-0.370121,-0.701745
-0.093587,-0.161600,0.855475,-0.573837,0.644214,-0.505667
0.725586,0.064002,0.315550,0.270469,0.957821,-0.097082
-0.171326,-0.873356,0.445044,-0.598589,-0.666521,-0.444343
-0.411621,0.648723,0.696241,0.920118,0.385820,-0.067276
0.453011,-0.342176,0.388338,-0.324526,-0.130232,0.936868
0.125865,-0.059061,0.005049,-0.608701,0.295569,0.736289
-0.000145,0.099052,0.712176,-0.686114,0.620899,-0.379120
0.057240,-0.638942,0.350514,0.171156,-0.455870,-0.873435
0.032134,0.243993,0.384894,-0.619528,0.754021,0.218260
-0.090099,-0.819714,0.467167,-0.402916,0.687882,-0.603720
0.276014,0.724532,0.035752,-0.415149,0.907409,-0.065274
-0.301798,0.126065,0.765352,-0.700742,0.685757,-0.196719
0.018852,-0.711850,0.461505,0.012394,-0.418888,0.907953
-0.243446,-0.052578,-0.976681,0.022304,0.030032,0.999300
-0.309649,-0.750293,0.400245,0.197976,0.744388,0.637724
-0.144381,-0.910729,0.438945,0.550516,-0.735596,-0.394754
-0.367809,0.081618,-0.732985,-0.379334,0.561644,-0.735297
-0.398827,0.146300,0.966145,0.977933,-0.034135,-0.206109
-0.230069,0.017812,0.157512,0.997223,-0.057737,-0.047044
-0.303641,-0.398430,0.376343,-0.624789,-0.719715,-0.302734
-0.156012,-0.199458,-0.972770,-0.018273,0.175674,0.984279
-0.532982,0.541634,0.656199,0.174771,-0.984209,-0.028060
0.532109,-0.331332,0.096749,-0.522141,0.465007,0.714939
0.512141,0.487992,0.405002,-0.097025,0.153240,0.983414
-0.482868,-0.004651,-0.857401,0.870245,0.313534,-0.379960
0.094267,-0.649403,0.223792,0.124663,-0.977074,0.172585
-0.075947,0.173602,0.757034,-0.244860,-0.675191,0.695817
0.704456,0.048702,0.539108,0.161389,0.886986,-0.432677
-0.157077,-0.013462,0.311727,0.904657,0.380471,0.191932
-0.314204,0.241186,0.721253,-0.108307,-0.873843,0.473991
-0.655599,-0.313904,0.028485,0.347365,0.705910,0.617275
-0.238017,-0.561875,0.671784,-0.187538,-0.869159,0.457593
-0.383123,0.101179,-0.560705,0.854500,0.385582,-0.348074
-0.009256,0.159372,0.844472,0.872268,-0.459319,0.167854
-0.441282,0.062932,0.635536,-0.604446,0.744979,0.282225
-0.030679,-0.095666,0.513017,0.798863,0.309362,-0.515862
-0.109002,-0.429515,0.724988,-0.458344,0.874443,0.158968
-0.040080,0.303734,0.377714,-0.244963,-0.528827,0.812610
-0.046381,-0.779339,0.437661,-0.630433,-0.101722,0.769549
-0.238017,0.138653,0.303555,0.989573,0.129941,0.062130
-0.501865,0.003386,-0.976623,0.748668,-0.377077,-0.545260
0.413269,-0.128004,0.602994,0.119499,0.892310,0.435320
-0.399505,0.164407,0.951203,0.914558,0.331158,-0.232200
-0.311879,-0.092853,0.763688,-0.399508,0.326732,0.856527
-0.050646,-0.091015,-0.975484,0.061575,0.177487,0.982195
-0.394562,0.595949,0.693498,-0.090189,-0.947212,0.307662
-0.781903,0.027303,0.500175,0.298399,-0.433157,0.850490
-0.134299,-0.022948,0.197788,-0.183026,-0.910345,-0.371179
0.015075,0.089466,0.624183,0.978440,-0.090607,0.185593
0.051033,0.048123,0.845406,0.983996,0.024226,-0.176534
-0.400668,0.069616,0.522093,0.606715,-0.789387,0.093622
-0.442543,0.376257,0.804051,0.563173,0.677873,0.472571
0.097852,0.825132,0.116361,-0.453954,0.661117,-0.597369
-0.109194,0.463786,0.426541,0.757607,-0.624314,-0.190430
-0.259050,-0.089076,0.161482,0.445719,-0.819803,-0.359524
-0.731112,-0.263749,0.622636,0.915124,0.010030,0.403048
0.359280,-0.223859,0.549790,0.235855,0.548214,0.802393
-0.259923,0.211945,-0.445628,0.421951,0.894266,-0.149150
-0.424708,0.125190,0.685442,-0.603687,0.509487,0.613177
-0.465613,0.086175,0.591379,-0.398154,0.880219,0.258242
-0.085446,-0.215626,-0.967138,-0.291025,0.216111,0.931988
-0.753694,-0.315358,0.517628,-0.123343,-0.949536,0.288389
0.033880,-0.148723,0.784672,0.311197,0.096646,0.945418
-0.537827,0.076973,0.799761,-0.232742,0.299446,0.925291
-0.201860,-0.566425,0.153368,0.713511,0.693142,-0.102255
-0.101148,-0.792606,0.407571,0.683730,-0.178435,0.707584
-0.600543,-0.292021,-0.980183,0.228012,0.214701,-0.949691
-0.399117,-0.129262,-0.048214,-0.563302,-0.311683,-0.765208
0.149131,0.311966,0.498453,0.860676,0.005960,0.509118
-0.413852,0.411112,0.502277,0.703647,-0.292488,0.647558
-0.735762,-0.180576,0.686814,0.819280,-0.572429,0.033229
-0.105996,-0.010750,-0.980855,0.189858,0.317031,0.929217
-0.269326,0.016748,-0.296112,-0.575143,0.792706,0.202057
-0.249747,-0.002228,-0.014476,0.972636,0.172698,-0.155420
-0.472689,0.192969,0.895196,0.950314,0.215426,0.224711
-0.130421,-0.343240,0.718188,0.469855,-0.862544,-0.187762
0.279892,0.375578,0.435267,0.463443,0.789315,-0.402744
0.387971,-0.464081,0.435005,-0.542259,-0.839846,-0.024767
-0.267679,-0.387102,0.300841,0.957506,-0.220884,-0.185453
0.172977,0.500579,0.673302,-0.405305,0.066727,-0.911743
-0.460283,-0.323590,-0.971953,0.075794,-0.465523,0.881784
-0.516987,-0.007748,-0.908475,0.977574,0.203199,0.055319
-0.231521,-0.454880,0.675695,0.172124,-0.978785,0.111143
0.243250,0.078427,0.711242,-0.773187,0.562152,-0.293542
-0.636020,0.399595,0.651413,0.820947,0.349584,0.451482
-0.457469,0.091499,0.918223,-0.101030,0.945679,0.309005
-0.145833,-0.001259,0.197642,-0.350164,-0.790175,-0.503000
-0.143798,0.075136,-0.979249,0.004465,-0.038214,0.999260
0.403966,0.448485,0.391344,-0.430882,-0.154369,0.889107
-0.061503,-0.841981,0.433545,-0.366072,-0.158576,0.916976
-0.349876,0.577263,0.598208,-0.267796,0.893776,-0.359792
0.258180,0.517522,0.386791,0.233786,-0.472008,0.850031
-0.144768,-0.506099,0.667640,-0.709116,0.624832,-0.326710
0.230554,-0.322810,0.607343,0.896491,-0.395806,0.199103
0.862453,-0.475794,0.242062,0.536583,0.402177,-0.741844
-0.897057,-0.383810,0.605942,0.979663,0.199148,0.024509
-0.025736,-0.035151,-0.011995,0.407971,0.912851,-0.016220
-0.174915,-0.484316,0.752218,-0.398379,0.916515,-0.035967
-0.232782,0.044535,-0.180539,0.990297,0.062996,0.123867
-0.493044,0.182899,0.808108,0.952462,-0.251170,-0.172425
0.402510,0.486833,0.360232,0.459666,0.566752,-0.683739
-0.344933,0.005520,-0.619046,0.889148,0.393048,-0.234370
-0.418310,-0.206142,0.387521,0.893729,-0.153979,0.421353
0.109581,-0.406468,0.566046,0.788137,-0.503830,0.353546
-0.512334,0.095660,0.750088,0.998346,-0.055091,-0.016417
-0.026608,-0.653078,0.458791,-0.259580,-0.502747,0.824538
-0.067416,-0.231317,0.677212,0.426437,-0.901579,-0.072843
0.502448,0.439000,0.383289,-0.348103,-0.171297,0.921673
-0.132456,-0.551994,0.358627,0.794356,0.567698,-0.216142
-0.644551,-0.127129,0.728053,0.985685,0.137926,0.096959
0.355402,-0.501939,0.471574,0.360615,0.718889,0.594268
-0.156302,0.286016,-0.283359,0.910531,-0.411669,0.038229
-0.285416,-0.054611,0.757442,0.207783,0.728038,0.653290
0.629914,0.090725,0.281374,0.873633,-0.409221,-0.263255
-0.087191,0.398040,-0.231642,0.244677,-0.896057,0.370426
0.043085,-0.574072,0.532979,-0.516301,0.043084,-0.855323
-0.288616,-0.383036,0.695220,0.545634,0.830478,0.112203
-0.431882,0.045894,-0.726039,0.979363,0.177291,0.097040
-0.062086,-0.246806,0.792844,0.717506,0.690351,-0.092743
0.340475,-0.346727,0.456573,-0.663615,-0.704622,-0.251244
0.261378,-0.559646,0.514242,0.111392,-0.028119,0.993379
0.102892,-0.527598,0.790334,0.814274,0.330166,-0.477439
0.747008,0.210981,0.319286,0.975681,-0.174191,-0.133058
-0.360345,-0.085596,0.801074,0.294236,0.930123,-0.219766
-0.462220,0.247870,0.956427,0.970898,-0.013112,-0.239133
-0.740223,-0.138653,0.698313,-0.083516,0.803611,0.589266
-0.339215,-0.010360,0.762666,0.340201,0.754897,0.560708
-0.174042,-0.341402,0.612421,0.776002,-0.071732,0.626638
0.217177,-0.523822,0.060618,0.483533,0.624704,0.613141
0.083410,-0.193069,0.777171,-0.761254,0.420738,-0.493429
-0.686328,-0.100600,0.693702,-0.294863,-0.954048,-0.053362
-0.251007,0.019171,0.030557,0.983611,-0.127488,0.127501
-0.292687,-0.356123,-0.965795,0.170367,0.112000,0.978995
-0.347356,0.145431,0.663904,-0.766612,0.544176,-0.340851
-0.281345,-0.527013,0.575706,-0.397474,-0.737375,0.546161
-0.253042,0.198199,0.202487,0.858384,0.512623,0.019845
-0.038142,-0.137489,0.768299,-0.099802,-0.992101,0.075996
-0.468133,0.133907,0.912182,-0.329929,0.467773,0.819961
-0.382931,-0.629552,0.399545,-0.656893,0.675962,-0.334018
-0.274755,-0.179707,-0.053555,0.252762,0.624378,0.739096
0.110746,0.148427,0.858744,-0.330463,0.867560,-0.371663
0.280280,-0.162374,0.406462,0.699061,0.712401,-0.061625
-0.199148,-0.566035,0.187077,0.778905,-0.622806,0.073612
0.008774,0.089851,0.820687,0.519546,0.288241,0.804356
-0.025056,0.096724,0.869163,-0.175223,-0.816655,-0.549883
0.042795,0.048312,0.558429,0.270756,0.915971,-0.296122
-0.164638,0.031954,0.118579,0.911499,0.407372,0.056729
-0.301700,-0.063133,0.087468,-0.767823,0.568899,-0.294622
0.773082,-0.344020,0.554080,0.958619,-0.241391,-0.150934
0.161343,-0.093149,0.020751,0.704508,0.072246,-0.706010
-0.314302,0.281466,0.733481,0.921351,-0.011471,0.388563
-0.466388,0.108248,0.796200,0.379546,-0.364416,0.850380
-0.441091,-0.135941,-0.974405,0.038610,-0.382191,0.923276
0.401152,-0.172060,0.398465,0.130507,-0.397514,0.908268
-0.407841,0.178059,0.719940,-0.140761,0.762349,0.631673
-0.008579,-0.238574,0.632325,-0.214131,-0.861511,0.460377
-0.519993,-0.128973,0.553321,-0.407222,0.901644,-0.145630
-0.377695,0.141844,0.673681,-0.461251,0.574420,-0.676231
-0.465226,0.195291,-0.992820,0.108612,-0.138223,-0.984428
0.008868,-0.655791,0.582098,-0.493894,0.786668,0.370435
-0.393012,0.271496,0.361137,-0.190232,-0.814647,0.547870
-0.134202,-0.039021,0.368025,0.985696,-0.154807,-0.066616
-0.073717,-0.184063,0.296492,0.491636,0.561088,0.665939
-0.563903,0.177479,-0.994163,-0.031831,0.050732,0.998205
-0.257790,0.103118,-0.163729,-0.471781,0.881662,-0.009750
-0.334754,-0.483057,0.738326,-0.057521,0.996889,0.053880
-0.598700,0.169732,0.695978,-0.180880,-0.611184,0.770543
-0.141085,0.337236,0.762725,0.374815,0.241886,-0.894988
-0.676439,-0.164697,0.622724,0.250408,-0.834764,0.490373
0.343963,0.456623,0.379057,-0.111157,0.837121,0.535604
-0.549266,0.075035,0.612742,0.857621,0.278622,0.432268
-0.196045,0.217565,0.643153,-0.333196,0.906709,-0.258570
-0.428974,0.795892,0.503677,-0.395257,-0.288032,-0.872244
0.362286,-0.519171,0.370973,0.817102,-0.049340,-0.574378
-0.368681,0.146879,-0.702195,0.432510,0.901570,0.010313
-0.613434,-0.151725,0.582010,0.977778,0.068697,0.198070
0.520188,-0.546480,0.187485,-0.747872,0.053035,-0.661721
0.011099,0.043472,0.534760,0.858831,0.030226,0.511366
0.056559,0.243414,0.780499,0.742906,0.415334,0.524966
-0.431201,-0.008327,0.766490,0.627574,0.121255,0.769056
0.178112,0.262685,0.679810,0.430326,0.846814,-0.312612
-0.098435,-0.564392,0.500000,-0.286115,0.957508,0.036291
-0.427033,0.108153,0.671930,0.864759,0.448243,-0.226429
-0.064993,-0.290573,0.835746,-0.585150,0.637940,-0.500631
-0.289004,0.156949,0.340708,0.644151,0.723302,0.248805
-0.239955,0.508132,0.425286,0.518468,-0.350801,0.779827
-0.265836,-0.457498,0.282892,0.852709,0.465154,0.237738
-0.263316,0.044730,0.289663,0.893062,-0.260419,0.366910
-0.156207,0.187644,0.733510,-0.669234,0.403423,0.624000
-0.400088,0.147169,0.614348,-0.342502,0.923102,0.174860
-0.254302,0.217659,0.696124,0.411773,-0.854721,0.316062
-0.131102,-0.118613,0.385127,-0.721238,0.629639,0.288740
-0.076527,-0.847696,0.351097,0.725516,-0.549377,0.414502
-0.362963,0.062353,-0.623336,0.859097,0.358862,-0.364924
-0.085058,-0.298025,0.707594,0.470797,-0.353361,-0.808385
0.080502,0.196650,0.740135,0.891332,-0.411805,-0.189587
-0.879512,-0.186096,0.646159,-0.756440,0.000059,-0.654063
0.912664,0.085590,0.312369,0.054889,-0.720769,0.690999
-0.127126,-0.043088,-0.102323,0.628313,0.696314,-0.346943
0.320700,0.242444,0.633756,0.413871,-0.910279,0.010156
-0.231036,-0.358930,0.306678,0.990746,0.102357,-0.089134
-0.600058,-0.048513,-0.975893,-0.133727,0.149327,0.979703
0.080890,-0.417702,0.365019,-0.007575,0.482535,0.875844
-0.423738,0.090725,0.941776,0.895767,0.334013,-0.293320
-0.708914,-0.279729,0.603491,0.437447,-0.883219,0.169009
-0.383416,0.158793,0.913554,0.164554,0.981480,0.098080
-0.083313,-0.840339,0.453625,-0.464387,0.839439,-0.282288
-0.083701,-0.094112,0.772356,0.959616,0.045637,-0.277586
-0.316337,-0.169543,0.665130,0.157611,-0.625002,0.764546
-0.496632,-0.458756,0.444256,0.804624,0.529338,0.269038
-0.231036,0.061774,0.274428,0.954355,-0.118204,0.274290
-0.412882,0.104276,-0.633872,0.938372,-0.302943,-0.166380
-0.063635,-0.244093,0.599084,-0.589862,0.401115,0.700835
-0.184996,0.038147,-0.149837,0.827275,0.325876,-0.457625
-0.589686,0.042408,0.658505,0.783204,0.148493,0.603773
-0.591142,-0.257845,-0.063186,-0.677354,0.694648,0.242189
-0.619152,-0.031759,-0.989756,0.587172,-0.098706,-0.803421
-0.103281,-0.059162,-0.976623,0.146019,0.118844,0.982117
-0.470459,0.261231,0.902142,0.997320,-0.070242,-0.020457
-0.451947,0.703523,0.706427,0.808217,-0.255485,0.530577
-0.239568,0.139327,0.818731,0.366749,0.928934,-0.050760
0.478117,-0.083173,0.473967,0.827325,-0.270701,-0.492193
-0.769786,-0.112804,0.618258,0.872713,0.049753,-0.485692
0.053459,-0.061774,0.337818,-0.221633,0.918867,0.326440
0.013329,-0.845373,0.397852,0.892604,-0.443150,-0.082928
-0.378180,0.092948,-0.498278,0.891081,0.444269,-0.092729
-0.399215,0.004934,0.747694,-0.091830,0.992911,0.075462
-0.309649,0.102633,0.377101,0.958871,-0.271984,0.081186
-0.038240,0.027787,0.476915,0.593064,-0.803910,-0.044774
-0.596570,0.341497,0.779652,0.876196,0.425542,0.226262
-0.254204,0.051024,-0.015205,0.994687,-0.045115,-0.092538
0.018660,0.154721,0.691484,0.870737,-0.385754,-0.304976
-0.576892,0.151624,-0.992820,0.033590,-0.022312,0.999187
-0.205836,-0.117934,-0.242937,0.783254,0.580663,0.222133
0.113459,0.003002,0.728374,0.855087,-0.079077,0.512420
0.094752,-0.372191,0.652697,-0.072778,0.905819,-0.417367
-0.328066,0.075809,-0.358248,0.899125,-0.437463,0.014150
-0.285901,-0.000195,-0.202924,-0.723311,-0.688173,0.056907
-0.040080,-0.035635,0.827341,0.894317,-0.431784,-0.117300
-0.353754,0.283014,0.492033,0.804530,-0.428315,0.411434
-0.120825,-0.638363,0.416151,0.910501,-0.240045,-0.336699
-0.382833,-0.156855,-0.972624,0.087056,-0.027674,0.995819
-0.144283,0.008421,-0.981526,-0.146381,-0.243349,-0.958829
-0.096107,-0.006199,0.418661,0.721404,0.614056,-0.320173
-0.386809,-0.140975,0.700648,0.018279,-0.724389,0.689149
-0.392625,-0.126940,0.768095,0.905583,0.284133,0.314941
-0.156497,0.449360,0.512608,0.320771,-0.800415,-0.506401
-0.190714,0.813225,0.476535,-0.092976,0.046153,0.994598
0.050841,0.863575,0.105096,-0.453954,0.661117,-0.597369
0.000728,0.064291,0.724230,-0.438194,0.811469,0.386658
-0.107644,-0.137489,0.457040,0.915053,-0.359085,-0.183674
-0.001405,0.015105,0.507968,0.948142,0.091290,-0.304455
0.590849,-0.121905,0.557845,-0.780558,0.210825,-0.588457
0.781417,-0.334529,0.558458,0.902677,-0.358393,-0.238177
-0.213589,0.038052,0.069461,0.962600,-0.126920,-0.239358
-0.373722,-0.348571,-0.969472,-0.167210,0.028284,0.985515
0.033297,0.069421,0.786482,-0.403479,-0.914441,-0.031666
0.644261,0.049866,0.346486,-0.311878,0.298054,0.902162
-0.087868,0.002612,-0.983043,0.034968,0.243079,0.969376
-0.095139,0.416538,-0.204179,0.881775,-0.465528,0.075873
-0.117432,-0.040664,-0.980825,0.100353,0.237894,0.966093
-0.156207,0.252710,0.637170,0.853090,-0.337256,0.398116
0.108031,-0.706815,0.565375,-0.718261,-0.625260,-0.305205
-0.186256,0.351856,0.738180,-0.561364,-0.667502,0.489195
-0.009064,0.334234,0.373249,0.041819,-0.873119,0.485711
-0.043378,-0.118418,-0.975601,0.076499,0.337914,0.938063
-0.324579,0.361247,0.486341,0.638729,0.724064,-0.260301
-0.498377,0.134291,-0.991244,0.069647,-0.470424,-0.879688
0.349586,-0.398336,0.374329,0.831791,0.534692,-0.149091
-0.148354,0.261326,-0.352586,-0.721161,0.692218,0.027576
-0.205543,-0.260747,0.728724,-0.012086,0.999927,0.000897
0.102798,0.156276,0.921171,0.972221,-0.173939,0.156628
-0.746813,-0.186580,0.606380,0.800333,0.573756,0.173988
-0.335725,-0.100701,0.680685,0.250451,-0.665688,0.702946
0.380605,0.124807,0.591846,-0.525342,-0.151713,0.837257
-0.832212,-0.332981,0.663379,0.788101,-0.607137,-0.101399
-0.380895,-0.086565,0.829034,0.772138,0.593228,-0.227778
-0.090972,0.191805,0.864085,-0.545585,0.810273,-0.213995
-0.213492,-0.303450,0.645517,0.715585,0.611401,0.337826
0.172879,0.202170,0.819315,-0.117678,0.966155,-0.229557
-0.290359,0.265492,0.410752,0.583128,0.542189,-0.604973
0.005768,-0.037858,-0.047426,-0.217681,0.919512,0.327280
-0.494304,-0.120835,0.460775,0.730826,0.306241,0.610008
-0.733824,0.196550,0.772327,0.275347,0.924299,-0.264300
-0.232684,0.546864,0.581777,0.061541,-0.742157,0.667395
-0.244511,-0.572813,0.169595,0.769131,0.620422,-0.153343
-0.359668,0.149302,0.501693,0.970872,-0.213643,0.108461
0.641447,-0.076684,0.531578,0.582457,-0.247993,0.774108
0.171134,0.711850,-0.001226,0.317543,-0.903671,0.287307
-0.693694,-0.353121,0.051074,0.347365,0.705910,0.617275
-0.319343,0.077169,-0.311055,-0.224988,0.969232,-0.099850
0.038917,0.133907,0.714307,0.909920,-0.299221,0.287250
-0.233364,-0.384974,0.695540,-0.550753,0.445959,-0.705544
0.008578,-0.186870,0.725368,0.679534,0.700581,0.217761
-0.297728,0.330753,0.474084,0.916155,0.241805,-0.319671
-0.425678,0.241091,0.844443,0.923931,0.165651,0.344834
-0.084378,-0.482767,0.700531,-0.360047,0.915199,-0.181043
-0.186256,-0.011039,0.143036,0.824121,-0.566389,0.005303
0.075075,-0.205946,0.688886,0.451205,-0.892333,-0.012520
-0.229682,0.043862,0.437748,-0.135112,-0.970632,0.199041
-0.096107,-0.871707,0.350397,-0.731134,0.507251,-0.456223
-0.639315,-0.250098,0.714219,-0.544271,-0.736645,-0.401402
0.033684,0.037568,-0.982547,0.199110,-0.206430,0.957988
-0.202345,-0.151435,0.861166,0.564553,0.825110,-0.021776
-0.293266,0.071164,-0.167523,0.667171,-0.739674,-0.088120
-0.296370,0.151240,0.714569,0.360076,-0.908646,-0.211443
0.191297,-0.035441,0.599259,0.314403,0.760004,0.568810
0.084283,0.059256,0.716262,0.665702,0.740000,0.096127
-0.379925,0.053057,-0.205317,-0.366658,0.919743,-0.140122
-0.273784,-0.181061,-0.974580,0.065147,-0.176827,0.982084
-0.679542,0.209911,0.692680,0.200554,-0.666900,0.717651
0.425483,-0.256971,0.454734,0.894156,-0.376998,-0.241574
0.051229,-0.725797,0.206018,0.518475,0.609026,-0.600225
-0.306741,0.160631,-0.561931,0.810239,0.561013,0.169640
-0.459410,0.017912,0.011061,0.223627,-0.970121,0.094111
-0.406679,-0.063133,-0.961242,-0.381238,0.603782,-0.700075
-0.259050,0.078037,-0.414692,-0.768138,0.639844,0.023755
0.145445,0.724048,0.050724,0.985256,0.012446,0.170632
-0.051714,-0.429515,0.592254,-0.590785,0.355116,0.724476
0.456697,0.474630,0.399545,-0.012175,0.001319,0.999925
0.202443,-0.120835,0.026734,0.576966,0.027880,-0.816292
0.051519,0.541244,-0.138104,0.302650,0.892144,-0.335384
-0.339118,0.600796,0.487246,-0.555761,0.498172,-0.665548
-0.706879,-0.104377,0.666998,-0.709275,-0.586746,0.390716
-0.336597,0.147754,-0.481467,-0.716526,0.681412,0.149226
-0.235787,0.050734,0.004757,0.952635,0.187484,-0.239452
-0.111037,0.415763,-0.223587,-0.435597,0.774092,-0.459388
-0.105413,-0.001844,0.293340,0.707061,0.694750,-0.131860
-0.482673,0.453621,0.600309,-0.681749,-0.318688,-0.658526
0.376727,-0.372191,0.432407,0.403851,0.760707,0.508162
-0.412204,0.095855,-0.665246,0.904048,0.258155,-0.340665
-0.535792,0.279528,0.727382,-0.644967,-0.753440,-0.127851
-0.089226,0.393106,0.378006,0.769765,-0.031422,0.637553
-0.436825,0.178348,-0.991536,0.239028,-0.029651,-0.970560
-0.159115,0.008226,0.165305,-0.261765,0.940032,-0.218675
0.318375,0.791442,0.031578,0.323625,-0.909124,0.262223
-0.311297,0.734218,0.463869,0.228373,0.354422,0.906769
0.113267,0.299668,0.529740,0.990992,0.057367,0.121011
-0.324383,0.472987,0.554372,0.050867,-0.775015,0.629892
-0.265061,0.139911,0.348091,0.859470,-0.193733,-0.473053
0.126159,-0.702850,0.533008,-0.267694,-0.962580,0.042198
-0.236077,-0.295898,0.240573,0.837339,-0.443500,-0.319643
-0.199340,-0.673218,0.487801,-0.311797,-0.580535,0.752171
0.250036,-0.096339,0.057378,0.713496,0.394756,-0.578870
-0.416952,-0.135166,-0.045558,-0.505436,-0.224236,-0.833219
-0.290069,0.085206,-0.401588,0.995941,-0.004890,0.089875
-0.647749,-0.288924,0.738063,0.488767,0.871244,0.045165
0.301218,-0.374614,0.476448,0.046655,-0.720357,0.692032
-0.393012,0.429220,0.545908,-0.194441,-0.953858,0.228796
-0.305966,0.049476,-0.052008,0.608981,-0.698457,-0.375899
-0.054329,-0.143978,0.793778,-0.617581,-0.412792,-0.669475
-0.466584,0.061000,-0.767832,0.986138,0.138497,-0.091379
0.209326,0.356023,0.442710,-0.194862,-0.458315,0.867165
0.533079,-0.681545,0.141986,0.954427,-0.145589,0.260524
0.532496,-0.181451,0.405294,0.046887,-0.901884,0.429427
-0.299085,-0.155886,-0.974200,-0.152919,-0.034941,0.987621
-0.005476,-0.746322,0.339774,0.884255,0.004885,-0.466979
-0.260215,0.119576,0.190900,0.897483,0.440980,-0.007764
0.162508,0.040954,0.676979,0.027398,0.915229,0.402003
0.162700,-0.101570,0.611225,0.873079,0.114229,-0.474008
0.096787,0.637973,-0.028105,-0.920662,0.290087,0.261212
-0.610429,-0.193164,0.599492,0.904382,0.061782,0.422227
0.206708,-0.442487,0.034322,0.824402,0.461789,0.327278
-0.029419,0.184258,0.343918,-0.526176,0.845964,0.086505
0.131587,-0.058872,0.547105,-0.528050,-0.654132,0.541549
-0.090001,0.454880,-0.187339,0.885482,0.207645,-0.415698
-0.387388,0.152499,-0.762666,0.197503,-0.980278,0.006912
-0.044443,-0.019756,-0.060267,-0.378266,0.768091,0.516674
-0.447293,0.183773,0.880779,0.610004,0.779120,0.144452
-0.526779,0.757065,0.645546,0.918733,0.144006,-0.367685
-0.500025,0.174672,0.829763,0.419970,0.724159,-0.547009
0.008774,-0.118318,0.208586,0.696021,0.717050,-0.037355
-0.365288,0.091594,0.434684,0.676494,-0.714035,0.180306
-0.370427,0.002518,0.811756,-0.357648,0.060058,0.931923
0.529201,-0.094307,0.540743,0.787234,-0.614928,-0.046102
-0.003053,-0.062838,-0.043544,-0.151547,0.952260,0.265017
-0.135947,0.405593,0.389680,-0.623305,0.288728,-0.726724
-0.174527,0.285047,0.744689,0.818694,0.186549,-0.543084
-0.061988,-0.172929,0.295704,0.377321,0.592897,0.711409
-0.334174,-0.039116,0.380691,-0.584034,0.686551,-0.433072
-0.823970,-0.313904,0.667727,0.935921,-0.318054,0.151310
-0.075075,-0.008717,-0.982285,0.024696,0.276954,0.960566
0.196917,-0.353215,0.665976,0.208004,0.943993,-0.256147
0.548104,-0.204782,0.393766,-0.153195,0.941681,-0.299613
-0.090679,-0.229573,0.806853,0.833155,0.546754,0.083144
0.638445,0.009391,0.250146,0.971542,-0.184129,-0.149003
0.364803,-0.404050,0.446153,0.799416,0.576505,0.169045
-0.157370,-0.179903,-0.974638,-0.036566,0.104419,0.993861
-0.380798,0.061289,-0.966233,0.412243,-0.209058,-0.886764
0.147578,0.149881,0.544070,0.863486,-0.068105,-0.499754
-0.427519,-0.060515,0.408038,0.814604,0.399345,0.420647
0.216692,0.201975,0.664663,0.577031,0.816677,-0.008620
0.087191,-0.206431,-0.316046,0.506460,0.449463,0.735854
-0.486164,0.399884,0.726856,0.638838,-0.098008,0.763073
-0.361703,0.094596,-0.554722,0.848704,0.525782,-0.057043
0.138080,0.695876,0.008435,0.759200,-0.595317,0.263084
-0.431299,0.323100,0.805539,0.784471,-0.094838,0.612871
-0.452042,0.069037,-0.845552,0.919116,0.001664,-0.393984
0.065478,0.359314,0.375496,-0.294320,0.936479,0.190745
-0.151747,-0.063033,0.353024,0.993144,0.013606,-0.116106
-0.437795,0.148333,0.689762,0.388661,0.910880,0.138709
-0.343673,0.151240,-0.501080,-0.575556,0.817061,0.033866
-0.120340,-0.009875,0.333616,0.808308,-0.491567,-0.324036
-0.321088,0.263359,0.439908,0.973252,-0.083577,0.214000
-0.147676,-0.525566,0.284468,0.284330,0.908469,0.306335
0.243543,0.321167,0.422835,-0.028012,-0.616118,0.787156
-0.028836,0.281372,0.809450,-0.153279,0.943574,0.293554
0.706781,0.102243,0.342809,0.831092,0.392793,0.393700
-0.561575,-0.248065,-0.974492,-0.111824,0.012432,0.993650
-0.042795,0.499415,-0.150041,0.713139,0.591044,-0.376960
-0.618282,0.001454,-0.986604,0.343729,-0.182559,-0.921153
0.039308,0.127708,-0.980212,0.111002,-0.331691,0.936835
-0.238890,0.076105,0.004991,0.958950,0.184060,-0.215724
-0.162023,0.188708,-0.975981,0.153871,0.250463,-0.955820
-0.176562,0.373645,0.529711,0.154163,-0.987602,0.029600
-0.909369,-0.289893,0.630516,-0.012576,-0.992753,0.119511
-0.337565,0.162569,-0.656812,0.148167,-0.976450,0.156817
-0.218242,-0.083463,0.331106,0.961422,0.252107,0.110045
0.369844,0.835977,0.101798,0.973338,-0.144203,-0.178376
-0.323608,0.220082,0.679080,-0.409515,0.804415,-0.430365
-0.648719,-0.137784,-0.983160,0.370630,-0.157715,-0.915292
-0.682255,-0.247001,-0.983802,0.197634,-0.005904,-0.980258
-0.129161,0.124517,0.638309,0.867323,0.389258,-0.310207
-0.469199,-0.126550,-0.963840,-0.077226,-0.499206,0.863035
-0.148259,-0.581914,0.410285,-0.312157,0.661842,0.681560
-0.721998,0.104471,0.694023,-0.827483,-0.332211,-0.452667
-0.152329,0.324264,-0.276996,0.925424,-0.376975,0.038466
-0.174140,-0.106800,0.379845,0.984731,0.152623,-0.083734
-0.577374,-0.546379,0.547192,0.927693,0.368488,-0.060013
-0.097950,-0.239738,-0.968101,-0.128525,0.340450,0.931437
-0.008094,0.524301,-0.124066,0.302166,0.935485,-0.183205
0.263608,-0.585300,0.072262,-0.632044,-0.380702,-0.674971
-0.441185,0.082103,-0.982168,-0.114481,0.162173,0.980099
0.306258,0.752131,0.033125,-0.426697,0.893774,-0.138195
-0.540445,0.244383,0.773261,0.892840,0.423062,-0.154449
-0.268744,-0.000969,-0.046288,-0.564947,-0.778614,0.273121
-0.111131,0.310902,0.353053,-0.606356,0.646524,-0.462968
0.620122,0.265492,0.337818,-0.554583,0.614032,0.561607
0.183348,0.379549,0.373862,-0.441212,0.733171,0.517486
0.327001,0.478985,0.392511,-0.348262,-0.211215,0.913292
0.182475,-0.163923,0.372549,0.666937,-0.273453,-0.693122
-0.522513,-0.258330,-0.002568,-0.594323,-0.465554,-0.655774
-0.208646,-0.275078,-0.969472,-0.146781,-0.039870,0.988365
0.048709,0.090625,0.855504,-0.681891,-0.422104,0.597372
0.026608,0.186580,0.878532,0.508538,0.860885,0.016311
0.546648,0.225407,0.445541,-0.660824,-0.039284,-0.749513
0.050841,0.076199,0.761791,-0.150284,-0.811439,0.564784
-0.189164,0.146394,-0.979074,0.021231,-0.224474,0.974249
-0.297630,0.009970,-0.218334,0.731361,0.510942,-0.451718
0.650949,-0.081530,0.499037,-0.011515,-0.285026,0.958451
-0.194397,0.091594,0.032191,-0.509320,-0.857031,-0.078051
0.605873,-0.073493,0.528456,-0.117517,0.715926,-0.688215
-0.061792,0.402402,0.368054,-0.195897,-0.374539,0.906281
-0.470751,0.310128,0.820190,-0.008609,0.328474,0.944474
-0.526196,0.101179,0.749825,0.650609,0.733039,0.198399
0.089809,-0.048897,0.739056,0.218568,0.691524,0.688494
-0.059663,-0.303740,0.314908,0.680085,0.226401,0.697300
-0.378082,0.033502,-0.373978,0.864224,0.464141,-0.194140
0.291814,-0.330363,0.383522,0.915355,0.345269,-0.207157
0.996317,0.069131,0.314003,0.146683,-0.577479,0.803121
0.867493,0.220856,0.371439,-0.580055,0.520215,-0.626827
0.086123,-0.667025,0.500496,-0.437510,-0.898873,0.024739
-0.169001,0.041539,0.236371,-0.511822,-0.660734,-0.549061
-0.296757,-0.523337,0.043953,0.848480,0.429218,0.309602
0.037950,0.069131,0.679139,0.775742,-0.071762,0.626956
0.425483,-0.155791,0.545120,-0.259471,0.826215,0.500044
-0.393787,0.117833,0.693994,0.419406,0.907796,0.002413
-0.507876,-0.146300,-0.961534,0.003900,-0.162341,0.986727
0.332429,-0.052673,0.073751,0.329695,-0.920784,-0.208466
-0.499443,-0.253005,-0.968597,-0.084275,0.227373,0.970154
-0.620412,-0.339080,0.468305,0.885938,0.072720,-0.458068
-0.384676,0.124221,-0.980563,0.568764,-0.378367,-0.730306
-0.641448,0.365803,0.793807,-0.737229,0.555258,0.384943
-0.286386,-0.130811,-0.977411,0.063307,-0.059734,0.996205
0.732469,-0.564776,0.195307,0.169973,-0.081854,-0.982043
-0.089614,-0.199942,0.820190,-0.011927,-0.992425,0.122269
-0.772017,-0.002423,0.513396,0.095465,0.587103,0.803864
-0.703290,-0.204109,0.758785,0.872357,0.479752,0.093972
-0.470556,0.139327,0.785402,0.113714,-0.891276,0.438972
-0.583773,-0.209628,-0.978987,-0.435518,0.192674,0.879318
-0.462220,0.147269,-0.988501,-0.055845,0.278295,0.958871
-0.520090,0.202648,-0.992616,0.007858,0.051419,0.998646
-0.802840,-0.346632,0.563887,0.641067,-0.749692,0.164302
-0.106286,0.164697,-0.976214,-0.077120,-0.182235,0.980226
-0.065964,0.482956,-0.172718,0.738705,0.481880,-0.471283
-0.273397,0.556544,0.606030,0.499242,-0.065660,-0.863971
-0.213589,0.819229,0.454938,0.138550,-0.598140,0.789324
0.394174,-0.278659,0.067418,-0.360741,0.543408,0.758006
0.011682,-0.271497,0.544595,-0.541450,-0.707053,0.454872
-0.293752,-0.504066,0.555423,-0.289323,-0.873492,-0.391541
-0.607618,-0.294639,0.029740,0.027739,0.909028,0.415811
-0.283188,0.561868,0.646860,0.875101,0.246421,0.416504
0.082925,-0.093243,0.000292,0.559821,-0.405565,-0.722577
0.269713,-0.232575,0.418194,0.537493,0.157079,0.828509
0.161538,-0.060710,0.013542,0.752132,-0.127968,-0.646469
-0.650074,-0.135941,0.617383,0.877820,0.207273,0.431821
-0.061311,0.109796,0.587789,0.194499,0.816690,0.543312
0.025736,-0.656565,0.537211,0.941688,0.309702,-0.131561
-0.337372,-0.204782,0.627685,0.763332,0.301559,0.571302
-0.386226,0.169927,0.890264,-0.137377,-0.949227,-0.283013
-0.450686,0.181445,0.940871,0.936967,-0.316430,-0.148202
0.060148,0.158113,0.789634,0.233951,-0.937400,0.257970
0.017012,0.106894,-0.983977,0.128746,-0.166838,0.977543
-0.779480,-0.296477,-0.989756,0.135716,-0.198233,-0.970713
0.014977,-0.333270,0.656870,-0.541179,0.053519,-0.839202
-0.333302,0.137004,-0.666180,-0.109345,-0.877598,0.466761
-0.282703,0.090915,-0.981088,0.030343,0.052816,0.998143
-0.172199,-0.460978,0.722770,0.987456,0.060986,-0.145644
0.110454,-0.600796,0.646743,0.315487,0.819214,-0.478912
0.709591,-0.076590,0.515235,0.458673,-0.593693,0.661171
-0.319150,-0.067778,-0.975163,-0.075451,0.038249,0.996416
-0.017204,-0.065550,-0.981584,0.014153,0.141908,0.989779
0.614792,-0.508912,0.209695,-0.161365,0.110788,0.980657
-0.415597,0.108442,0.665071,0.095456,0.964818,-0.244978
-0.715795,0.233633,0.751751,0.137440,0.933805,0.330332
-0.367711,0.098178,0.706106,0.961851,0.261899,-0.079063
-0.032424,-0.244383,0.694899,-0.395846,-0.312232,-0.863607
0.549266,0.388750,0.409730,0.016578,0.563678,0.825828
0.301022,-0.385069,0.280849,-0.416286,-0.819543,-0.393771
-0.815830,-0.274209,0.648611,-0.550624,0.796525,0.249723
-0.542480,0.027882,-0.984123,-0.230322,0.400069,0.887072
0.024961,0.022557,0.527055,-0.474815,0.061268,-0.877950
-0.412689,-0.182420,-0.969735,-0.013594,-0.210483,0.977503
-0.186061,-0.527013,0.655294,-0.180621,0.946826,0.266263
-0.310909,0.060609,-0.981993,0.105612,0.258565,0.960203
-0.338245,0.006294,-0.617529,0.889148,0.393048,-0.234370
-0.319925,0.307805,0.459520,0.804483,0.575991,-0.145055
0.241023,0.086949,0.557261,-0.656903,0.555024,-0.510321
-0.014880,-0.781372,0.518883,0.109923,-0.862811,0.493431
-0.199535,0.111539,0.352586,-0.493979,0.728700,0.474322
0.308873,-0.372777,0.434655,-0.675104,-0.624700,-0.392409
-0.093297,0.068647,0.727119,-0.456527,0.879469,0.134601
0.749624,-0.063033,0.267657,0.027597,0.986904,0.158930
0.093394,0.028757,0.785431,0.965195,0.258001,0.042820
-0.328746,0.808674,0.467488,0.359679,-0.203636,-0.910584
0.757380,-0.472603,0.211301,0.861408,0.129046,0.491246
-0.095817,-0.760847,0.444899,0.374071,0.803760,-0.462645
-0.102408,-0.194038,0.561522,0.911445,-0.278625,-0.302714
-0.008384,0.156660,0.667581,-0.339143,0.501873,0.795680
-0.104055,0.606989,0.385653,0.879964,-0.019965,0.474621
0.821935,0.165181,0.371527,0.442497,0.071872,-0.893885
0.405226,0.138653,-0.273406,0.470537,0.545961,0.693197
0.011682,0.163633,0.843363,0.868705,-0.294034,0.398616
-0.499928,-0.231896,-0.980067,-0.173168,-0.115467,0.978100
-0.360733,0.063322,-0.334112,0.985727,0.087738,-0.143683
-0.027869,-0.721731,0.573780,-0.026619,0.834576,0.550249
0.154172,0.291442,0.420471,-0.025538,-0.882863,0.468935
-0.090486,0.083846,-0.982752,0.253596,0.426660,-0.868130
-0.306451,0.285148,0.427008,0.868981,-0.407283,0.281057
0.021180,-0.090820,0.340503,-0.119884,0.955338,0.270104
0.592594,-0.087144,0.565783,0.629553,0.050221,0.775333
-0.047934,0.688418,0.422105,0.804179,-0.421314,-0.419274
-0.083023,-0.142140,-0.970844,-0.024924,0.245187,0.969155
-0.161245,0.209238,0.328187,-0.506096,0.827561,-0.242918
0.300247,-0.448202,0.332857,-0.809658,0.267523,0.522384
-0.210391,0.209622,-0.330463,0.752471,-0.657653,-0.035787
-0.067803,-0.246711,-0.237742,-0.697762,-0.175581,-0.694478
-0.351234,-0.134682,-0.959287,-0.195644,-0.055529,-0.979102
-0.243833,0.203813,0.723675,-0.346754,0.713325,0.609039
0.237047,0.140975,0.539634,-0.123085,0.192879,0.973472
0.335532,0.801512,0.050870,-0.795818,0.600860,0.075104
-0.011389,-0.111155,0.651442,0.975997,-0.166256,-0.140672
-0.712112,-0.158308,0.678263,0.841710,-0.477474,-0.252078
-0.013909,0.201201,0.273173,-0.530824,0.836244,-0.137556
-0.285318,-0.305193,-0.023085,0.996459,0.084079,-0.000806
-0.356952,-0.094791,-0.972187,0.155107,0.006052,0.987879
-0.595212,0.297830,0.681182,-0.336913,0.680482,0.650717
-0.387776,-0.207979,-0.974375,-0.053791,-0.075093,0.995725
0.775409,-0.043377,0.528456,-0.129145,-0.829065,0.544034
-0.057530,-0.214368,0.822730,-0.798135,-0.114645,0.591470
-0.115205,0.301216,0.363881,-0.464855,0.534953,-0.705504
-0.534144,0.069811,0.755983,0.008923,-0.314739,0.949136
-0.690884,-0.084142,-0.990486,-0.456680,0.084438,0.885615
-0.546551,-0.482862,0.536452,0.984736,0.078550,0.155319
-0.625163,0.165276,0.744221,0.166973,-0.746950,0.643573
0.012069,-0.475894,0.755750,0.640045,0.764929,0.072285
0.411621,-0.479860,0.408855,0.938594,0.227057,-0.259782
-0.102408,-0.097699,0.396831,0.953202,-0.065584,-0.295135
-0.611982,-0.158698,0.551541,0.926797,-0.294368,0.233227
0.007901,-0.045511,-0.035927,0.545759,0.826830,0.136013
0.601512,-0.297156,0.517540,0.426211,-0.150924,-0.891945
-0.226578,0.049281,-0.980037,0.014601,-0.017511,0.999740
0.753212,-0.342661,0.212701,-0.673535,-0.197468,0.712290
-0.274657,-0.319329,0.648056,-0.460628,0.322709,-0.826850
-0.747396,-0.104282,0.630224,0.863842,-0.030597,0.502832
0.085156,0.300542,0.325590,-0.788051,0.564459,-0.245688
-0.234624,-0.621320,0.091466,0.974427,0.163447,-0.154198
0.043958,-0.655112,0.584053,0.947158,-0.281034,-0.154636
0.279987,0.069906,0.551804,-0.383944,0.202411,0.900898
-0.324868,-0.723569,0.409147,0.187302,0.744895,0.640351
-0.507196,0.188034,0.753882,0.267362,-0.916447,0.297729
