0.421047,-0.119777,0.518291,0.860044,0.053721,0.507383
0.125440,-0.268739,0.902359,-0.495669,0.746606,0.443724
0.602688,0.025304,0.865703,0.228431,-0.888387,0.398232
0.921979,0.491537,-0.958914,0.956688,-0.281672,0.073543
-0.045509,-0.984593,0.804768,-0.446318,0.810630,0.379051
0.085572,0.214025,0.896178,-0.003192,-0.893513,0.449027
0.491565,-0.713322,0.879916,0.978264,0.186846,0.089938
-0.117400,0.135691,0.745403,0.294503,-0.930615,0.217308
0.915408,0.505202,-0.847969,0.995139,0.086240,0.047542
0.404325,-0.132261,0.714201,0.454449,0.344632,0.821404
0.399813,-0.133611,-0.196629,0.480949,-0.084336,0.872683
0.378531,0.237530,0.033640,-0.294248,-0.579029,0.760357
0.382797,0.280212,0.321853,0.192164,-0.725604,0.660736
0.438701,-0.133330,0.234078,-0.267436,0.789315,0.552684
0.125931,-0.299219,0.810602,-0.559188,-0.657565,0.504893
0.468320,-0.081707,0.030286,0.919282,-0.190248,0.344566
-0.441252,-0.147838,0.852580,0.854290,0.401411,-0.330238
0.063701,0.022100,0.794505,0.797244,0.099615,0.595382
0.295409,0.691728,0.608032,-0.803633,0.355239,-0.477472
-0.966163,0.606872,0.609437,-0.187474,-0.431848,0.882248
-0.455229,0.647528,0.669000,0.860246,0.195752,-0.470806
0.010935,0.598099,0.548453,-0.178432,-0.257416,0.949684
0.664476,-0.301467,0.742974,-0.553845,-0.772525,0.310583
-0.455866,0.637295,0.710598,0.111154,0.375668,0.920064
0.599059,-0.614857,0.964385,-0.353245,-0.525922,0.773708
0.900156,0.526402,-0.788357,0.982642,0.011779,0.185139
0.403982,0.227915,0.795678,0.126134,0.991934,-0.012513
0.091114,0.213180,0.607916,0.780772,-0.517345,0.350355
0.193997,0.909858,0.443986,-0.131909,-0.058258,0.989548
0.067820,0.668054,0.562220,0.427585,0.389238,-0.815883
0.229747,-0.108419,0.720051,-0.496065,0.637938,-0.589028
0.268193,-0.440083,0.885337,-0.379108,0.412646,0.828251
0.072234,0.105663,0.610709,-0.382302,0.920454,0.081302
-0.046833,-0.267277,0.869173,0.579090,-0.489588,0.651888
-0.095135,0.164201,0.884163,0.856002,-0.340667,-0.388854
0.125393,-0.406794,0.802272,0.973911,0.218259,0.062137
0.466556,-0.757184,0.885039,0.768138,-0.387313,0.509856
-0.417076,0.004387,0.794224,-0.347337,0.842087,0.412609
0.304433,0.031884,-0.186646,-0.172091,0.295651,0.939668
0.396184,0.124444,0.874858,0.690776,0.705259,0.159490
0.571694,0.018050,-0.159228,0.153142,0.388148,0.908784
0.470332,-0.422707,0.808966,0.960318,-0.235991,-0.148650
0.673302,0.059889,0.851440,0.738629,-0.663686,-0.118107
-0.032219,-0.241074,0.833905,0.285076,-0.957864,-0.035050
0.323950,-0.488669,0.880511,-0.599816,0.578934,0.552319
0.474991,-0.347523,0.833227,0.203901,-0.850316,0.485167
0.867497,0.437104,-0.631137,0.775025,-0.604354,0.184643
0.437033,-0.391330,0.826369,0.057915,0.987782,0.144680
0.312672,0.191925,0.844383,0.676797,0.651099,-0.343534
0.035847,-0.820447,0.712102,-0.265489,0.890614,0.369219
0.228963,-0.297081,0.631566,0.326087,0.905607,-0.271187
-0.241860,0.467132,0.828633,0.856463,-0.041012,-0.514577
0.886867,0.559073,-0.860629,0.775931,0.587440,-0.229883
-0.600872,0.736996,0.650275,0.301245,0.928051,-0.219029
-0.190172,-0.644211,0.701591,-0.297010,0.584078,0.755406
0.300559,0.513805,0.592513,0.902079,0.299195,-0.311024
0.444242,-0.274869,0.715258,0.940223,-0.209708,-0.268333
0.160748,-0.215655,0.730876,0.203231,0.626061,0.752824
0.290604,-0.496373,0.621254,-0.785069,0.441137,-0.434816
0.470821,-0.357140,0.843672,-0.695088,0.505789,0.510911
0.520400,0.233932,0.247978,-0.548233,0.834918,0.048511
-0.314585,-0.281506,0.895501,-0.560343,-0.018192,0.828061
0.626176,0.112017,-0.173012,-0.425254,0.085656,0.901012
0.469546,-0.327842,0.987787,0.436547,0.036628,-0.898936
0.294625,0.277962,0.834847,0.863342,0.175391,0.473159
0.311003,-0.078052,0.725819,0.247419,0.489123,-0.836387
0.367546,0.256818,0.884361,-0.037913,-0.961367,0.272645
0.273832,0.330822,0.329653,0.488785,0.770455,0.409252
0.454393,-0.072935,0.724497,-0.370541,0.926106,-0.070906
0.244507,-0.387505,0.849986,-0.768402,-0.607817,0.200292
0.626962,0.047236,0.791067,0.986142,-0.124275,0.109908
0.349647,-0.435753,0.887221,0.987114,0.027892,-0.157571
0.770546,0.038633,-0.473041,-0.057688,0.351621,0.934363
0.217291,0.247933,0.591935,-0.066200,0.395011,0.916288
0.552128,0.272451,0.392224,-0.150953,-0.841846,0.518179
0.264613,0.517685,0.573574,0.947459,0.276355,-0.161089
0.738329,0.173198,0.854729,0.297072,0.383688,0.874375
0.085426,0.171287,0.647581,0.914109,-0.388206,-0.117048
0.585916,0.062139,0.200892,0.895920,-0.412155,0.165696
0.045311,-0.020356,0.831690,0.962818,-0.193169,0.188857
0.412759,-0.415172,0.806569,-0.314678,0.902802,-0.293132
0.523637,-0.289434,0.900128,0.141733,0.989904,-0.001524
0.074049,0.946466,0.432798,-0.305935,0.309486,-0.900345
0.640790,0.031266,0.012073,0.252653,0.468302,0.846676
0.213907,0.315245,0.728893,0.876212,0.011305,-0.481794
0.750343,0.065906,0.899335,-0.331295,0.659685,-0.674581
-0.584690,0.631390,0.706780,0.942290,0.305200,-0.137633
0.190418,-0.538943,0.796091,0.950982,-0.221504,0.215799
0.731611,0.266716,-0.351155,0.309202,-0.852057,-0.422366
0.269027,-0.520385,0.825228,-0.375346,-0.794920,-0.476673
0.791486,0.650173,-0.990067,-0.248992,-0.159851,0.955223
0.498774,-0.493167,0.976267,-0.296821,-0.306638,-0.904362
-0.945469,0.714391,0.624956,-0.407618,-0.198754,0.891260
0.428452,-0.033066,0.918820,0.237182,-0.441921,-0.865131
0.610681,0.161390,0.169739,0.954670,0.297610,0.005808
0.275499,-0.325874,0.739768,0.932618,0.000938,0.360864
-0.100382,-0.456334,0.746577,0.798445,-0.009701,0.601990
-0.459200,-0.198168,0.848928,0.898034,0.433961,-0.072203
0.469203,0.048135,0.937677,0.618758,0.644852,0.448669
0.671243,-0.173255,0.826567,0.836719,-0.419590,0.351917
0.281433,-0.541304,0.623518,0.866927,-0.358288,0.346507
0.282267,-0.709330,0.740627,0.374736,-0.296253,-0.878526
0.509317,-0.050780,0.727240,-0.131458,-0.560220,0.817846
0.154668,-0.616264,0.764988,0.575354,-0.809952,0.113775
0.187769,-0.280999,0.821113,0.954886,-0.254795,-0.152553
0.319095,0.274363,0.838979,-0.162894,0.731374,-0.662237
0.802423,0.388799,-0.486064,0.061505,-0.996677,-0.053413
0.098812,-0.029129,0.889534,0.451160,-0.164878,-0.877080
0.818752,0.418659,-0.282568,0.942440,-0.330609,0.050039
0.403345,-0.236688,0.693261,0.969262,-0.212614,-0.123802
-0.501276,0.734128,0.691625,-0.348824,0.935321,-0.059127
0.167565,-0.260193,0.862348,0.600181,0.799012,-0.036911
0.791094,0.409661,-0.541792,0.220682,-0.960442,-0.169853
0.257895,-0.568240,0.813213,-0.638132,0.447319,-0.626653
-0.331062,0.171005,0.763352,-0.161174,-0.192644,0.967942
0.428157,-0.691673,0.932124,-0.643097,-0.760735,-0.087796
0.574048,0.028905,0.280535,0.997112,0.057370,-0.049766
0.090182,-0.514986,0.823146,0.852796,0.245102,0.461155
0.779276,0.063319,0.858613,-0.074062,-0.969494,0.233657
0.827580,0.421188,-0.741255,-0.273375,0.961690,-0.020445
-0.238722,-0.552382,0.754840,0.591466,-0.738745,0.323145
0.232689,0.330990,0.346263,-0.305270,-0.950298,0.061181
0.473028,0.249959,0.839359,0.316638,0.777279,-0.543671
0.373822,-0.005061,0.931215,0.995053,0.040396,-0.090763
-0.021528,-0.954058,0.797529,-0.491187,0.642679,0.587962
0.437770,-0.088062,0.702037,-0.635315,0.740145,-0.220365
0.379364,0.188889,0.355039,0.814816,0.126370,0.565778
0.366271,-0.841648,0.797248,-0.248875,-0.803467,0.540834
0.572528,0.006073,0.254274,0.783131,-0.593394,0.185981
0.358769,0.218693,0.363203,-0.695433,-0.315680,-0.645538
0.260493,-0.668392,0.668719,-0.278434,0.913318,0.297195
0.417076,0.232132,0.319605,0.808758,0.578751,-0.104683
-0.074980,-0.420008,0.841292,0.847629,0.513901,0.132025
-0.168252,0.214813,0.829757,0.405351,-0.914123,-0.008364
0.386181,-0.377271,0.690980,-0.606498,0.352609,0.712620
0.365879,-0.854862,0.796405,0.394934,0.889313,-0.230541
0.425019,-0.241579,0.707061,-0.721454,0.034519,0.691601
-0.094498,0.121183,0.901434,-0.404268,0.054057,0.913042
-0.267164,-0.339707,0.915283,-0.574117,-0.800521,0.171916
0.900893,0.466007,-0.833260,0.862809,-0.474655,0.173966
0.041927,-0.325254,0.786473,0.024803,-0.645953,0.762974
-0.170264,0.388910,0.858018,-0.687627,-0.600731,0.407788
0.037809,-0.785244,0.817824,-0.792662,0.598702,0.115075
-0.398785,-0.273014,0.837855,0.806207,0.558968,0.193871
-0.082385,-0.183883,0.868363,0.869407,-0.349235,0.349524
0.045115,0.144576,0.586134,-0.355732,0.923720,0.142116
-0.533200,0.706068,0.565822,0.747825,0.041165,0.662618
0.216065,0.167407,0.477734,-0.165524,-0.986032,0.018501
0.456649,-0.436541,0.933314,0.656078,0.102420,-0.747711
0.326403,-0.504303,0.898046,0.779161,-0.626395,0.023201
0.737495,0.273575,-0.706284,-0.257105,0.287454,0.922641
-0.474648,0.035482,0.826187,0.835783,0.082061,-0.542892
0.264711,-0.570545,0.624311,-0.749876,0.551062,-0.366084
0.522410,0.160096,0.196050,0.954491,-0.256482,0.152199
0.233425,-0.421188,0.908821,0.892938,0.333135,-0.302791
0.386769,-0.682506,0.833029,0.604479,-0.301011,0.737562
0.115242,-0.726088,0.677775,-0.078709,0.770033,0.633130
0.352393,-0.562616,0.816188,-0.698466,-0.060877,-0.713049
0.296195,-0.164484,0.871190,0.280758,-0.817201,-0.503345
0.279962,0.281955,0.865736,0.893022,-0.269501,0.360389
0.694291,0.054772,0.011709,0.188821,0.559997,0.806691
0.483376,-0.325817,0.957261,0.179264,-0.909132,0.375956
0.286583,0.342519,0.328348,-0.299153,-0.816999,0.492971
0.303893,0.306192,0.332529,0.342600,0.939060,0.028144
-0.169478,0.190124,0.897748,0.440032,-0.191640,0.877295
-0.173353,0.126637,0.753469,0.474791,-0.617297,0.627309
0.851167,0.430861,-0.713440,-0.491020,0.799677,0.345566
0.552814,-0.759940,0.864331,0.909162,-0.195078,-0.367926
-0.027020,0.108868,0.860166,0.687773,0.281382,0.669172
0.455668,-0.353821,0.786886,0.941869,-0.305063,-0.140781
0.388535,-0.515267,0.970450,0.490171,0.467775,-0.735472
0.745047,0.028228,0.798042,0.815878,0.027230,-0.577583
0.040947,-0.471124,0.860166,0.481269,-0.864289,0.146236
0.101216,0.157117,0.587274,-0.434667,0.899983,-0.033101
0.042125,-0.674970,0.829922,0.839938,-0.509778,0.186096
-0.306934,-0.118933,0.816849,-0.633116,0.594241,-0.496026
0.838074,0.540124,-0.737471,0.981065,-0.187221,0.049595
0.089936,0.205140,0.875982,0.586151,-0.796440,-0.148693
-0.379659,0.581398,0.728414,0.880410,0.226990,-0.416358
0.356218,-0.112580,0.912738,0.944925,0.203685,0.256183
-0.068213,-0.331777,0.821014,0.881367,0.129368,0.454374
0.476559,-0.393242,0.817692,0.469113,0.877466,-0.099933
0.854208,0.432717,-0.609701,0.496816,-0.867422,-0.027439
0.176540,0.479783,0.543230,0.848520,0.529066,-0.010184
0.734161,-0.109767,0.861092,0.209185,0.820023,-0.532733
0.802029,0.008828,-0.166450,-0.084059,0.499549,0.862198
-0.033346,-0.480684,0.850266,0.184960,0.940386,-0.285420
0.423206,0.222628,0.334611,0.787335,-0.439216,0.432659
0.576893,-0.115616,0.849886,0.155586,0.973251,0.169045
0.202186,0.219592,0.726282,-0.754325,0.381284,0.534430
0.436592,-0.702919,0.816783,-0.610808,0.033651,0.791063
0.852883,0.433898,-0.732496,-0.526041,0.850457,-0.001964
0.325912,0.446662,0.372210,-0.541441,0.020556,0.840488
0.029227,-0.272113,0.801463,-0.480545,0.823355,-0.301932
0.772362,0.018726,0.827608,0.740180,0.454377,-0.495657
0.868772,0.093235,-0.141561,-0.632630,-0.106601,-0.767083
0.711210,0.236743,0.000554,0.815632,-0.571851,0.087924
0.474254,-0.179835,-0.182184,-0.129101,0.145332,0.980924
0.474009,0.200641,0.228129,0.173450,-0.917269,0.358514
0.566546,0.493898,-0.690964,0.191683,0.935485,-0.296860
0.240094,-0.592983,0.858001,0.898924,0.277945,0.338648
0.015348,0.523702,0.540074,0.497013,0.043324,-0.866661
-0.295165,-0.184109,0.906805,-0.727307,0.684999,-0.042441
0.670556,0.219142,-0.702020,-0.251265,0.309434,0.917124
0.234651,0.380194,0.834235,0.978343,-0.134283,0.157523
0.611710,-0.022493,-0.176879,0.062251,-0.637306,0.768092
0.783396,0.399819,-0.117696,0.865425,0.495652,0.073269
0.756228,0.455941,-0.539760,-0.449805,0.814218,0.367047
0.073412,-0.689310,0.838913,0.052151,-0.890038,0.452894
0.365928,-0.409943,0.892096,0.072990,-0.996447,0.042023
0.274470,0.600855,0.609833,0.171209,-0.286257,0.942732
0.457728,-0.596414,0.886609,0.715071,0.643300,0.273566
0.089839,0.161728,0.564054,-0.184301,0.979602,-0.080087
0.171341,0.915482,0.444879,-0.131909,-0.058258,0.989548
0.465378,-0.002025,0.215915,-0.265274,0.660568,0.702339
-0.420459,0.000899,0.791811,-0.310298,0.760224,0.570767
0.450275,-0.204015,0.706664,0.992640,0.038666,-0.114768
0.074049,-0.822808,0.782391,0.155352,-0.924349,0.348489
0.225676,-0.647305,0.817824,0.464761,0.854323,-0.232659
-0.682033,0.690491,0.699393,-0.351329,0.890903,0.287853
0.444242,0.601924,0.511515,-0.170179,-0.349486,0.921357
0.156923,0.175562,0.526042,0.971792,-0.060303,0.227999
0.879512,0.447843,-0.599438,0.751651,-0.655360,0.074323
0.174529,-0.513244,0.851109,0.383764,0.914864,-0.125497
0.103374,-0.980263,0.761451,0.740604,0.244134,-0.626023
-0.272509,-0.285554,0.887435,-0.248177,0.613097,0.750013
0.650549,0.087724,0.005859,-0.430807,-0.333960,-0.838377
0.890251,0.446776,-0.904326,-0.401247,0.902905,0.154156
0.521184,-0.010628,0.743602,-0.318610,0.934456,-0.158996
-0.130934,0.308497,0.888592,-0.052270,-0.814216,0.578205
-0.082042,-0.482146,0.736809,0.882937,0.030757,-0.468484
0.657856,0.146038,-0.159559,0.615129,0.500627,-0.609089
0.734945,0.240341,-0.019361,0.511244,-0.848589,-0.136110
0.567968,0.016138,0.199041,0.963557,-0.028887,0.265940
0.758631,0.342294,-0.175937,-0.014683,-0.963946,0.265691
0.069880,-0.250240,0.832467,-0.170850,0.947482,-0.270347
0.043301,-0.565765,0.769351,-0.414384,-0.662048,-0.624482
0.209102,0.319125,0.741933,0.872138,0.089647,-0.480976
0.534964,-0.098127,0.897913,0.295720,-0.857988,0.420007
0.555463,-0.793962,0.876081,0.538131,0.340586,-0.770984
0.831257,0.419558,-0.297657,0.868678,-0.448039,0.211328
-0.026579,-0.461227,0.878180,0.419113,0.863888,0.279361
0.356415,0.276838,0.325770,0.944401,0.074096,0.320340
0.296243,0.261093,0.833277,0.756239,0.527359,0.387292
0.469007,-0.026655,0.877420,-0.486515,0.013629,-0.873566
0.038300,0.719677,0.426402,0.374516,-0.288861,0.881077
0.763191,0.167970,0.836731,0.547145,-0.541703,0.638114
0.075372,-0.905247,0.767963,0.071334,-0.657279,0.750263
0.433846,-0.671315,0.809065,0.490833,0.020401,-0.871015
0.655110,-0.078502,0.889270,-0.626594,0.775458,-0.077754
0.252403,-0.403363,0.882362,0.914933,0.104300,-0.389897
0.141624,-0.226678,0.891402,0.784826,0.595340,-0.172103
-0.498138,0.020075,0.790109,0.090146,0.983687,0.155669
0.320566,-0.445032,0.622361,0.972369,-0.199861,0.120643
0.436544,0.208008,-0.163310,0.724860,0.447514,-0.523745
0.871273,0.448013,-0.588762,0.639916,-0.762040,0.099008
0.218762,0.327055,0.856828,0.011739,0.588509,0.808405
-0.125001,-0.548558,0.719341,-0.415039,0.870601,-0.264190
0.531630,-0.027892,0.367649,-0.566528,-0.821393,0.066036
0.281482,0.048866,-0.180085,0.121662,0.033905,0.991992
0.557866,0.217061,0.180002,0.956787,-0.023852,0.289810
-0.357444,0.645055,0.495550,0.723767,0.071338,0.686347
-0.060122,-0.886184,0.776011,0.859061,0.280265,-0.428329
-0.046391,-0.485182,0.743387,-0.542347,0.169920,0.822792
0.047910,0.214813,0.663942,0.966939,0.227948,0.114320
0.352835,0.255750,0.857191,0.431374,0.866537,-0.251056
0.008238,0.236012,0.711193,0.985028,0.118944,0.124787
-0.065419,-0.447000,0.842879,0.835433,0.549579,-0.003745
0.006081,0.521397,0.546238,-0.494187,-0.069622,0.866563
0.671734,-0.300793,0.746693,-0.550295,-0.778079,0.302933
0.407463,0.211044,0.035392,-0.203862,-0.542980,0.814624
0.841653,0.159703,-0.483866,0.012364,0.405810,0.913874
-0.496126,0.699489,0.550866,0.770509,0.455851,0.445551
0.869410,0.379576,-0.978581,-0.341820,0.939114,-0.034983
0.316840,0.169768,0.460761,0.144319,0.965829,-0.215283
0.432719,0.271664,0.050266,-0.012117,-0.558710,0.829275
0.492742,0.059383,0.918456,0.568761,0.815215,0.109254
0.809434,0.357476,-0.312317,-0.222684,0.974120,0.038766
-0.183553,0.474779,0.882808,0.114946,0.877373,-0.465837
0.398048,-0.025193,0.852580,0.779071,0.173738,0.602382
0.364554,0.287804,0.328414,0.613349,-0.525684,0.589457
0.909424,-0.074678,-0.144354,0.416235,0.149217,-0.896929
0.265546,0.179835,0.437822,-0.692038,-0.654263,-0.304997
-0.397803,-0.207445,0.856844,0.679160,0.733804,0.016528
0.594596,0.137771,0.112094,-0.186651,0.971213,0.148006
0.852933,0.392116,-0.335487,0.960055,-0.259443,0.104800
0.564878,-0.413203,0.832748,0.566446,0.060585,-0.821869
0.277069,0.045662,-0.188861,0.121662,0.033905,0.991992
0.656140,-0.100715,0.034004,0.413549,0.398664,0.818562
0.666046,-0.048473,0.022650,-0.071279,0.451069,0.889638
0.364063,0.225497,0.007379,0.132744,0.980414,-0.145492
0.546292,0.246696,0.328794,0.551036,0.605060,-0.574685
0.496322,-0.397740,0.814321,0.057760,0.995667,0.072882
0.048548,-0.118653,0.840136,-0.428040,0.870975,0.241216
0.485534,0.591183,0.509648,-0.445755,-0.173434,0.878193
0.729992,0.259967,-0.040367,0.981197,0.189805,0.035009
0.523440,-0.781702,0.848878,0.674024,0.588318,0.446737
0.593713,-0.054435,0.907003,-0.818850,-0.094739,-0.566135
0.303844,0.254007,0.814188,0.915164,-0.319131,0.246230
0.655550,0.346061,-0.485981,-0.318295,0.488443,-0.812472
0.371272,0.314513,0.375069,-0.247522,-0.574617,0.780095
0.286632,0.360625,0.805694,-0.076386,0.993626,0.082900
0.778393,0.045492,0.896343,-0.362517,0.931677,0.023636
0.435661,-0.131867,-0.190464,0.441757,0.293416,0.847796
0.432032,-0.048641,0.753898,0.060212,0.997738,-0.029902
0.614310,0.121127,0.066116,0.980134,-0.178318,0.086828
0.314584,-0.451950,0.751105,-0.179599,-0.712980,0.677794
0.076206,-0.414441,0.864116,0.433838,-0.662652,-0.610472
0.017212,0.867008,0.434467,0.015916,0.083519,0.996379
0.501618,-0.318395,0.982349,-0.432469,0.099677,-0.896122
0.177030,-0.313839,0.808586,-0.233752,0.851763,0.468893
-0.000687,-0.134454,0.813858,0.899621,-0.420874,0.116392
0.275402,0.365854,0.874230,-0.321613,0.494226,0.807655
0.421341,0.077321,0.977672,-0.575575,0.807613,-0.128356
0.720430,0.561436,-0.995108,0.366509,0.117546,-0.922960
0.500098,-0.789519,0.861885,0.485883,0.630269,0.605540
0.175216,-0.551707,0.816981,-0.461995,0.278016,-0.842180
0.194635,-0.068099,0.883452,0.706754,0.061333,0.704796
0.229305,0.222178,0.735620,-0.713295,0.361051,0.600710
0.619311,0.036383,0.182829,0.986150,0.126530,-0.107234
0.703167,0.400439,-0.730414,-0.328971,0.212185,-0.920193
0.450226,-0.104988,0.227517,0.522742,-0.661622,-0.537584
-0.506327,0.582242,0.697459,-0.140224,0.030600,0.989647
0.244115,-0.552045,0.642193,0.745039,-0.519968,0.417793
0.284817,0.175505,0.421774,0.941507,0.154768,0.299350
0.207582,-0.791374,0.751518,-0.243437,-0.824331,-0.511094
-0.141820,0.291571,0.891071,-0.552779,-0.307500,-0.774519
0.405305,-0.028623,0.963129,-0.387165,0.461219,-0.798361
0.479012,-0.731204,0.892427,-0.435859,0.898092,0.058806
0.464643,-0.125120,0.574367,0.192552,0.974145,0.118171
0.221558,-0.075409,0.917300,0.828588,-0.280424,-0.484567
0.428403,-0.215149,0.963327,0.547892,0.809907,0.209442
0.539083,-0.383738,0.985275,-0.758505,0.256064,-0.599251
-0.184583,-0.590059,0.692551,0.020669,0.911092,0.411684
0.184141,0.234043,0.705392,-0.871880,0.147859,0.466865
0.728079,0.243041,-0.707309,-0.263241,0.360320,0.894916
0.461897,-0.152168,0.877734,0.250150,0.855853,-0.452704
0.568115,-0.445370,0.825294,-0.525342,0.315122,0.790388
0.100921,-0.411123,0.841028,-0.072817,-0.429003,0.900363
-0.443458,-0.157959,0.855241,0.854290,0.401411,-0.330238
-0.501080,0.686386,0.565575,-0.543362,-0.778846,-0.313299
-0.373579,0.036833,0.841061,-0.322752,-0.880272,0.347782
-0.930218,0.611371,0.616345,-0.097419,-0.584787,0.805316
0.605188,0.010290,0.759022,-0.753983,0.266613,0.600356
-0.094205,0.173930,0.695625,-0.195954,0.978852,-0.058751
0.739897,0.031547,0.798141,-0.707340,0.086770,0.701528
0.376569,-0.263117,0.830038,0.007339,-0.018299,0.999806
-0.403002,0.244671,0.908639,-0.713812,-0.681398,-0.161768
0.287907,0.375133,0.774954,0.603483,0.780416,-0.163580
-0.084935,0.213519,0.887452,0.864766,-0.470030,0.176782
0.446008,-0.433673,0.892195,0.904773,-0.399118,-0.148631
-0.300707,-0.245179,0.897517,-0.706362,0.687318,0.169253
0.236514,-0.208626,0.839078,-0.601849,0.794610,0.079835
0.328070,0.390317,0.796620,-0.466700,-0.884407,0.004010
0.386720,0.208626,0.353667,0.852006,0.217480,0.476222
0.488329,0.429230,0.497947,0.299517,0.390256,-0.870626
0.314828,-0.130798,0.839227,-0.512904,-0.848345,-0.131304
-0.038201,-0.435135,0.863058,-0.301152,-0.916912,-0.261877
-0.007552,0.423382,0.416585,-0.608263,-0.162176,-0.776991
0.521725,-0.222966,0.954287,-0.093713,0.975075,-0.201115
0.083121,-0.748806,0.827526,0.719298,0.480825,-0.501415
-0.191350,0.327559,0.828600,0.698424,0.471454,-0.538457
0.394861,0.115841,0.830137,0.861875,-0.466354,-0.199210
0.369997,0.174154,0.471735,-0.292483,-0.754432,0.587610
-0.152560,0.409773,0.866215,0.062176,0.970635,-0.232381
0.565368,-0.774729,0.887733,-0.104807,-0.540792,0.834602
0.380443,-0.728786,0.814387,0.386082,-0.479156,-0.788257
0.403345,-0.054378,0.534207,0.936125,-0.266284,0.229701
0.388878,-0.395603,0.688997,-0.029377,0.893058,0.448982
0.332139,0.357308,0.855324,0.782148,0.611127,0.121526
0.544282,0.039757,0.268752,0.969766,-0.231400,0.077512
-0.941840,0.766013,0.643367,-0.771321,-0.019036,-0.636161
0.632159,-0.040994,-0.172565,0.356213,0.342411,-0.869406
0.303402,-0.593319,0.813577,-0.057740,0.648862,0.758712
0.366516,-0.501379,0.642705,-0.153127,-0.429890,0.889802
0.561690,-0.268178,0.847176,-0.081634,-0.774319,0.627507
0.040800,-0.083619,0.900012,0.919397,0.392547,-0.024807
-0.257062,-0.750325,0.673875,0.210762,-0.172722,0.962157
0.510299,0.122757,0.181853,0.927157,-0.374538,-0.010033
-0.084347,-0.542653,0.741668,-0.355561,0.710196,0.607617
0.271282,-0.566721,0.845507,0.765364,-0.634148,0.109887
0.203952,0.044144,0.939049,0.254859,0.954128,0.157119
0.647557,0.200135,0.338793,0.493575,0.740235,-0.456549
0.286044,0.236686,-0.002025,-0.461597,-0.605796,0.648027
0.670950,0.178654,0.012403,-0.513066,0.790676,0.334058
0.257747,0.435417,0.541627,-0.230212,-0.663735,0.711659
0.077481,-0.725975,0.797050,-0.530151,0.579316,0.619139
0.152314,0.298262,-0.004272,-0.014951,0.272194,0.962126
0.809778,0.288197,-0.507747,0.367693,-0.203761,-0.907350
0.434042,0.197492,0.283510,-0.218192,-0.964697,-0.147485
0.558552,-0.669178,0.894410,0.859499,0.423672,0.285944
0.215280,-0.696339,0.704913,0.962752,-0.261659,-0.068143
0.034474,-0.189901,0.863471,-0.402098,0.012910,0.915506
0.575666,0.042568,0.880329,0.810267,0.584612,-0.041198
-0.684877,0.653322,0.687295,-0.704840,0.693177,-0.150685
-0.007504,0.310015,0.894278,0.308932,-0.142757,-0.940309
0.922078,0.465782,-0.950039,0.854606,-0.519155,0.011227
0.382356,-0.291121,0.571590,0.903331,-0.415317,-0.107257
0.395008,-0.474443,0.945726,0.809468,0.350352,0.471185
-0.079737,-0.461508,0.732083,-0.622893,0.535447,-0.570352
0.561446,-0.011472,0.308053,0.462150,-0.880197,0.108034
0.645694,0.067424,0.780804,0.364531,0.687122,-0.628475
0.313161,0.132542,0.426848,0.535300,0.732638,-0.420352
-0.245194,0.245515,0.919349,0.427265,-0.858695,0.282998
0.846557,0.155766,0.082857,0.237983,0.957459,-0.163207
0.311838,-0.284092,0.714069,0.969074,-0.028763,0.245089
0.630247,-0.100658,0.834186,0.941317,0.328691,0.076715
0.693361,0.046786,-0.156633,-0.076421,0.226168,0.971086
0.573314,0.075578,0.146635,0.923731,0.107247,0.367722
0.496077,0.207389,0.252688,0.463044,-0.884817,0.051867
0.273685,-0.127931,0.849159,-0.697607,0.508704,-0.504543
-0.250344,0.130462,0.865190,0.997799,-0.057383,-0.033238
0.200028,0.460778,0.579738,0.841232,-0.161536,-0.515979
0.357737,-0.242255,0.877255,0.959636,0.197313,-0.200417
0.537515,0.143395,0.312217,-0.690277,0.600578,-0.403514
0.318949,0.361075,0.349238,0.174104,-0.638711,0.749491
0.593418,0.018388,0.236293,0.916805,-0.399035,0.015487
0.222489,-0.819266,0.741437,0.453005,-0.353721,-0.818332
0.798646,0.359726,-0.221815,0.020325,-0.983301,0.180847
0.206061,0.330484,0.574268,-0.185353,0.478588,0.858253
0.416731,-0.792893,0.793232,-0.640605,0.706561,0.300660
0.530355,-0.025249,0.282370,-0.638506,0.763204,0.099145
0.226412,0.485913,0.369797,-0.354014,0.003233,-0.935235
0.653050,0.160715,0.089402,0.863028,-0.504245,0.030331
0.874803,0.463534,-0.580945,-0.668736,0.739365,-0.078306
0.710622,0.402294,-0.715837,-0.231499,-0.522690,0.820490
0.523980,-0.583591,0.946883,-0.171641,-0.951238,0.256293
-0.654374,0.734748,0.652770,0.275738,-0.849873,0.449093
-0.694489,0.602092,0.666091,0.978820,-0.115585,0.168972
0.864407,0.428837,-0.617204,0.523240,-0.840029,0.143427
0.417565,-0.064443,0.434136,0.238385,-0.950293,0.200289
0.414918,-0.202834,0.724547,0.727634,0.661273,0.182394
0.930904,0.004443,-0.137396,0.832100,-0.089850,-0.547299
0.544724,-0.744363,0.900045,-0.389364,0.918486,-0.069128
0.074293,-0.755047,0.813164,-0.392065,0.678376,0.621362
0.843713,0.355115,-0.339470,0.132382,-0.921523,0.365061
-0.169919,0.409886,0.886014,-0.270090,0.508188,0.817800
0.763240,0.378452,-0.707243,-0.195025,0.180319,0.964080
-0.213957,0.394872,0.835971,0.823161,0.408101,-0.394791
-0.038104,0.525164,0.920175,-0.518910,-0.633109,-0.574374
0.458464,-0.653546,0.910904,0.603938,0.779984,-0.163961
0.557670,-0.735703,0.916176,-0.747431,-0.279655,-0.602611
0.395302,0.057471,0.928422,-0.420806,0.881699,0.213375
-0.175216,0.229039,0.918506,-0.718208,-0.326201,-0.614630
-0.061789,-0.965585,0.751072,-0.819045,-0.273224,-0.504493
0.012161,-0.474779,0.874247,-0.009203,0.999239,0.037909
0.574882,-0.125513,0.913647,-0.197798,0.617814,0.761040
0.334493,-0.177305,0.880296,0.981144,0.003297,-0.193248
0.677521,0.024180,0.795959,0.208479,0.939295,-0.272507
0.197234,-0.622730,0.753254,-0.901943,0.319974,-0.290026
-0.460181,0.610302,0.666124,0.945984,0.199338,-0.255693
0.640447,0.251139,0.853704,-0.511974,0.462570,-0.723818
0.833365,0.320587,-0.508160,0.799163,-0.235295,-0.553150
0.443605,-0.458752,0.950965,0.435377,-0.818044,0.375833
-0.007700,0.212395,0.885155,0.315191,0.942858,-0.108041
0.354845,-0.672103,0.838615,-0.322875,-0.585196,0.743840
0.206012,0.333578,0.577176,-0.213855,0.334966,0.917640
0.766575,0.429905,-0.407842,0.698867,0.188182,-0.690053
0.079247,-0.347016,0.843094,0.628706,-0.181292,0.756216
0.618870,-0.518023,0.898194,0.896872,-0.439853,-0.046364
-0.230875,-0.772761,0.669165,0.180124,0.434919,0.882270
0.073313,-0.464433,0.832186,0.963267,-0.079962,0.256366
0.788055,0.107743,0.887650,0.538240,0.577848,0.613506
0.321057,-0.529607,0.624906,-0.337861,0.260045,0.904559
0.419870,0.019569,0.943280,0.001430,0.185207,0.982698
-0.270155,0.639656,0.468942,0.609437,-0.036883,0.791976
-0.247990,-0.552776,0.785580,-0.326538,0.517824,0.790716
0.461749,-0.047799,0.721687,-0.264158,0.964398,-0.012494
0.600235,0.166564,0.844846,-0.095466,0.995180,0.022448
0.452384,-0.105663,0.228162,0.522742,-0.661622,-0.537584
0.414377,0.102625,0.312746,0.992496,-0.089894,0.082887
0.784719,0.402914,-0.734826,-0.549947,0.231256,-0.802546
0.587484,0.122927,0.174202,0.964396,-0.242179,-0.106249
-0.000295,0.022606,0.857819,0.934433,0.339483,0.107637
0.231414,-0.313727,0.874892,-0.511327,0.211472,-0.832961
0.817085,0.184614,0.078974,0.168086,0.957889,0.232801
0.455423,-0.068605,0.417990,0.505157,-0.828054,0.243192
0.892213,0.419109,-0.824171,0.478829,-0.876311,-0.052937
0.165359,-0.524490,0.821014,0.960547,0.121435,0.250206
0.473028,0.254063,-0.144767,0.031737,-0.579927,0.814050
-0.217879,0.168812,0.930224,0.289439,0.157035,-0.944227
-0.262946,0.217174,0.770475,-0.000137,0.954756,0.297389
0.305071,-0.105045,0.691922,-0.134923,0.988507,0.068196
-0.782366,0.542991,0.671148,-0.036682,0.177235,0.983485
0.355532,-0.391555,0.596447,0.773528,-0.579244,-0.257158
0.030305,0.501491,0.546965,-0.391856,-0.007527,0.919996
0.839446,0.429343,-0.654043,-0.480206,0.877095,-0.010326
0.135102,0.243604,0.594166,0.744227,-0.120132,0.657035
0.179629,0.930889,0.442813,-0.131909,-0.058258,0.989548
0.401284,-0.114885,0.671099,0.276604,0.505079,-0.817548
0.307326,-0.183265,0.794670,-0.335012,0.941724,-0.030381
0.140888,-0.183547,0.900938,-0.714187,-0.365895,0.596706
0.733033,0.145420,0.049391,-0.416400,0.901688,0.116491
0.703363,0.186864,0.059472,-0.346242,0.932964,-0.098462
0.133091,0.183433,0.594678,0.843795,-0.526806,0.102397
0.289329,-0.202553,0.655795,0.376204,-0.780485,-0.499313
0.648490,-0.062139,0.166731,0.888418,0.390430,-0.241408
0.569635,0.470842,-0.689724,-0.293156,-0.763028,0.576063
0.570027,-0.605916,0.946618,0.603184,0.796520,-0.041538
0.095282,-0.779397,0.737504,-0.355495,0.927190,0.118075
0.748577,-0.133330,0.852564,-0.287688,0.941603,0.174983
0.462093,-0.252038,0.972846,-0.321906,-0.792205,-0.518448
-0.280601,-0.189170,0.913019,0.686906,-0.724562,0.056304
0.890153,0.590452,-0.976168,0.056466,0.335344,0.940402
0.412563,-0.194288,0.742363,0.702913,0.509228,0.496588
0.183112,-0.243885,0.928422,0.990958,0.104233,0.084481
0.248970,0.338076,0.508656,-0.642264,-0.547931,0.535974
0.729795,0.525784,-0.992910,-0.471814,-0.130241,0.872026
0.776824,0.542372,-0.986630,0.458615,-0.108787,-0.881951
0.147067,0.272227,0.839788,0.426495,0.770663,-0.473476
0.826598,0.353033,-0.076280,-0.559831,0.738263,0.376242
0.141478,-0.068661,0.771103,0.809583,0.300412,0.504310
0.068555,-0.939550,0.744428,0.947932,0.059781,-0.312812
0.079639,-0.037789,0.874809,0.586754,-0.808285,-0.048929
0.034671,0.259068,0.907648,-0.147773,-0.172551,0.973853
0.754022,0.014170,0.847275,0.893784,0.446810,-0.038866
0.546733,-0.017600,0.309226,-0.465967,0.866354,-0.179738
0.470478,0.172131,0.333636,-0.310872,-0.941197,0.132315
0.096557,0.215149,0.895715,0.291233,-0.783788,0.548506
0.694880,0.023674,0.891600,0.033689,-0.940498,0.338125
0.523244,-0.583366,0.914655,-0.151260,0.963831,-0.219433
-0.932621,0.548277,0.603636,0.087476,-0.487646,0.868648
0.399617,0.183490,0.780936,-0.599004,0.551524,0.580531
0.617104,0.161840,0.006288,0.389219,-0.195869,0.900080
0.315515,0.184446,0.854134,-0.096114,-0.614942,0.782693
0.062132,-0.309959,0.797513,0.428589,0.822594,-0.373700
0.799235,0.415735,-0.732232,-0.115206,0.977754,-0.175286
0.904326,0.531857,-0.813560,0.990289,-0.012023,0.138502
-0.249608,-0.186864,0.865091,0.840068,-0.482538,-0.247877
-0.396970,0.097396,0.815725,0.973568,0.202251,-0.106108
-0.048597,0.574425,0.416006,-0.503999,0.394713,-0.768236
0.171440,-0.805827,0.803562,-0.568260,-0.069962,-0.819869
0.646773,0.125851,0.898409,0.209094,0.649573,0.730982
0.808454,0.515492,-0.950287,0.853571,0.268345,-0.446551
0.572185,0.320530,0.384787,-0.503008,-0.824319,0.259772
0.767899,0.328910,-0.071834,-0.661961,0.535599,-0.524348
0.467732,0.384019,-0.178532,0.242309,-0.502764,-0.829768
0.145645,-0.688860,0.664670,-0.059562,0.820159,0.569027
0.625687,0.360625,-0.200595,0.429107,0.522149,0.737040
0.376863,-0.066525,0.866777,0.954491,-0.063308,0.291443
0.429629,0.026035,0.903648,0.957842,-0.141563,-0.249997
0.435562,0.108925,-0.159840,0.312612,-0.124401,0.941700
-0.051884,-0.289997,0.837442,0.764597,-0.643141,0.041969
0.162318,-0.699602,0.822336,0.957429,-0.017082,0.288164
0.801637,0.351178,-0.204677,-0.302999,0.938339,0.166467
0.083513,-0.896644,0.808255,0.129681,-0.762909,0.633367
0.282807,-0.382839,0.664769,0.457643,0.883265,-0.102012
-0.138437,-0.907778,0.772706,0.132916,-0.824131,0.550583
0.398931,-0.043019,0.880825,0.871574,0.314862,-0.375793
0.839644,0.164652,-0.483700,0.085597,0.318387,0.944088
0.725774,0.333802,-0.129050,-0.619664,0.751830,0.225320
0.434386,-0.092673,0.498079,0.788251,0.466225,0.401615
0.412417,-0.018163,0.887336,0.968641,0.164095,-0.186566
0.490486,-0.349210,0.954931,-0.374045,-0.121858,0.919370
0.874265,0.502615,-0.600413,0.878954,0.363385,0.308854
0.033346,0.027104,0.805313,0.883343,0.349378,0.312475
0.542075,0.079290,0.302698,0.978755,0.198642,0.050792
-0.285603,-0.172131,0.907185,-0.727307,0.684999,-0.042441
0.251912,0.085081,0.841524,0.793446,0.100442,0.600296
0.698853,0.303043,-0.051093,0.254911,0.839761,0.479398
0.426932,0.048755,0.610825,-0.690697,-0.053406,0.721169
0.777217,0.395322,-0.707342,0.376274,-0.307607,-0.873954
-0.956307,0.748075,0.626493,0.979243,-0.193224,0.061213
0.497057,0.486813,-0.195720,-0.135628,-0.047374,0.989627
-0.054286,0.497386,0.856150,0.886410,0.455650,-0.081610
0.725970,0.221447,-0.311854,0.812920,-0.447591,-0.372591
0.862397,0.560424,-0.919250,0.257648,0.955445,0.144023
0.421635,-0.317213,0.835111,0.241962,-0.346691,-0.906234
-0.382110,0.168081,0.816403,-0.626036,0.116535,0.771037
-0.853080,0.760446,0.672553,-0.265659,0.643780,0.717616
0.024911,0.007254,0.801149,0.883343,0.349378,0.312475
0.183454,-0.630041,0.817775,0.957010,-0.113165,0.267069
-0.163152,0.295169,0.874297,-0.237283,0.971388,0.010106
0.695174,0.177249,-0.018320,-0.787553,0.609629,0.090077
0.102687,0.377383,-0.012651,0.865071,0.173502,0.470691
-0.054188,0.305797,0.905417,-0.347743,0.174175,-0.921270
-0.028541,-0.733342,0.696914,-0.122117,-0.990864,-0.057243
0.270840,0.329473,0.875834,0.557298,-0.444842,-0.701095
0.259563,0.174100,0.454597,-0.545827,0.154667,-0.823499
0.750442,0.430861,-0.262306,-0.816994,0.265469,0.511906
0.184779,-0.662206,0.830269,-0.683619,0.526727,-0.505196
0.427128,-0.189788,0.710532,0.913666,0.167580,0.370312
-0.062524,-0.520779,0.746031,-0.508051,0.262994,0.820194
0.418889,-0.279087,0.942553,-0.475051,-0.731785,0.488689
-0.133435,-0.523252,0.722976,-0.387394,0.861953,0.327052
-0.035407,-0.239667,0.867950,0.929812,0.253353,0.266949
-0.317527,0.260137,0.909978,-0.209003,-0.669186,0.713097
-0.077286,-0.224091,0.875767,0.410316,0.257897,0.874717
0.373284,0.322105,0.334628,-0.579467,0.650913,-0.490438
0.767311,0.319687,-0.120109,0.737149,-0.659475,-0.147321
0.554924,0.239049,0.174797,0.956101,-0.149425,0.252076
0.070371,-0.218749,0.834500,-0.031537,-0.998464,-0.045543
0.338906,-0.405668,0.689245,-0.235156,0.874972,0.423232
0.079001,0.221504,0.897880,-0.129484,-0.825287,0.549668
0.749117,0.452286,-0.994976,-0.480337,0.199935,0.853992
-0.058897,-0.483609,0.746825,0.488895,0.384958,0.782808
0.557425,0.114604,0.267793,0.890959,0.418572,-0.176037
0.630149,-0.264017,0.786093,0.750205,0.633853,0.188207
0.102148,0.179104,0.668190,-0.334808,0.941152,-0.046224
-0.274471,0.168757,0.815329,0.743396,-0.587551,0.319603
0.452089,-0.830007,0.842581,0.229605,0.895439,-0.381407
0.713907,0.549571,-0.788373,0.616255,0.522380,-0.589363
0.136033,0.315358,0.854745,0.213613,-0.901726,0.375846
0.589054,0.233707,0.872528,0.483179,-0.685355,0.544818
0.478422,0.027218,0.204099,-0.915754,0.360623,-0.177048
0.901481,0.189169,-0.484675,0.021641,0.389283,0.920864
-0.300510,-0.244166,0.863719,-0.672421,-0.356618,0.648594
0.194439,-0.164989,0.892443,-0.615474,0.580693,-0.532904
0.081650,-0.410111,0.858712,0.263809,0.138638,0.954560
0.052373,0.024911,0.899781,0.844304,0.013017,0.535707
-0.377845,0.451274,0.695905,0.950034,0.042315,-0.309266
0.325617,-0.490018,0.617254,0.317455,0.074882,0.945312
0.425853,-0.025642,0.793034,0.571872,0.819995,-0.023884
0.099598,-0.061464,0.785382,0.763720,0.469144,0.443436
0.900010,0.493674,-0.754030,0.997492,-0.068502,-0.017818
0.171979,-0.560537,0.818535,-0.684239,0.098615,-0.722560
0.314387,0.686443,0.614907,0.668755,-0.359953,-0.650538
0.514564,0.087724,0.011147,0.730153,-0.293505,0.617035
0.700716,-0.292190,0.784357,-0.463166,-0.877825,-0.122071
0.055511,0.805544,0.434103,-0.231972,0.130460,0.963934
0.298155,-0.515998,0.623964,-0.734597,0.295185,-0.610927
0.430462,-0.749367,0.818915,0.932997,-0.357075,-0.044872
-0.179433,0.097509,0.728001,-0.480317,0.874328,-0.069618
-0.210230,0.055053,0.754857,0.693757,-0.720207,0.001731
0.368183,0.313221,0.333289,-0.335502,0.886903,-0.317554
0.466604,-0.014283,0.213635,-0.265274,0.660568,0.702339
0.432129,-0.792273,0.911614,-0.121523,-0.740179,0.661337
0.588515,-0.075523,0.801446,0.751176,0.358873,-0.554025
-0.144469,0.597313,0.446845,0.320298,-0.328838,0.888411
0.796440,0.390879,-0.073867,0.113978,0.764671,0.634261
-0.288790,-0.291627,0.898955,0.409740,0.745914,-0.525096
0.722048,0.472586,-0.702483,-0.122875,-0.405794,0.905667
0.274127,-0.490131,0.715639,-0.672967,-0.128184,-0.728481
-0.263829,0.142214,0.907449,-0.689924,-0.710427,0.138919
0.774862,0.029466,-0.472677,-0.057688,0.351621,0.934363
0.174236,0.171793,0.790786,0.955054,0.272763,0.116073
0.652167,0.247202,0.073206,0.901107,0.159910,0.403033
0.260249,-0.690772,0.800818,0.908640,-0.097006,-0.406157
0.418006,0.275487,0.042201,-0.094715,-0.589511,0.802188
0.048205,-0.891640,0.793761,0.799729,0.486061,0.352389
0.414231,-0.352022,0.935843,-0.080590,0.996045,0.037400
0.456944,-0.625429,0.908292,-0.268620,0.500563,0.822970
0.083561,0.893270,0.445341,0.119393,-0.382168,0.916348
0.435954,-0.634539,0.910044,0.451583,0.851012,0.268052
0.333758,-0.428556,0.835954,0.220942,0.859199,0.461479
0.313553,0.236012,0.834120,0.886666,0.348925,0.303438
0.449833,-0.211439,0.869884,-0.700112,0.631525,-0.333196
0.393340,-0.727548,0.867884,0.192165,0.676665,0.710772
0.540065,-0.037339,0.351816,-0.209435,0.974426,0.081435
0.103815,-0.672046,0.844928,0.269660,-0.956892,0.107891
0.045164,0.933420,0.450630,0.305531,-0.192030,0.932618
0.000883,-0.785975,0.770078,-0.708402,0.279994,-0.647897
0.551540,-0.192826,0.927596,0.954980,0.000784,0.296668
-0.070616,0.317607,0.899764,-0.474497,-0.642519,0.601683
0.139319,-0.114211,0.887535,-0.263155,0.619445,-0.739620
0.299284,-0.310746,0.716267,0.969074,-0.028763,0.245089
0.344840,0.272113,0.829856,-0.770771,0.622719,-0.134658
0.649421,-0.265479,0.768872,-0.548841,-0.835925,-0.001533
0.361661,0.208851,0.013147,0.481819,0.861623,-0.159552
0.905894,0.475567,-0.824104,0.983582,-0.172971,0.051443
0.266967,-0.145588,0.860100,0.526366,0.484098,0.698991
0.711455,0.232526,0.017642,0.928681,-0.369993,-0.025616
0.167419,0.326773,0.922357,0.205764,0.973297,-0.101757
-0.265546,-0.201204,0.949345,0.613061,0.728771,-0.305039
0.357787,0.260868,0.030434,-0.338527,-0.749066,0.569474
0.265300,-0.398471,0.775896,0.584640,0.601377,0.544557
0.305560,-0.290278,0.719241,-0.595618,-0.578475,-0.557320
0.452580,-0.465782,0.911168,0.094806,0.920302,0.379548
0.430904,0.433898,0.038152,-0.222971,0.634536,0.740032
0.057473,-0.058258,0.816552,0.983196,-0.088435,0.159705
0.309827,-0.328910,0.650969,0.471360,0.855858,-0.212901
0.324441,0.363550,0.343536,-0.139083,-0.767044,0.626338
0.143634,-0.471912,0.831508,-0.480110,0.343317,-0.807234
0.791781,0.378902,-0.309028,-0.202429,-0.972868,-0.112030
0.457090,-0.054940,0.866198,-0.547741,-0.825162,-0.138156
-0.063702,0.470731,0.912341,-0.287281,-0.762411,-0.579826
0.821892,0.383681,-0.986233,0.006280,0.328046,0.944641
0.660308,0.268628,-0.044416,-0.553227,0.629275,0.545850
0.900548,0.459483,-0.943098,-0.638211,0.757266,-0.138689
0.591309,-0.567509,0.837524,-0.652910,0.739152,-0.165416
0.303206,0.042906,-0.220328,-0.101157,0.748886,0.654933
0.608180,0.190801,0.109978,0.376608,-0.801209,-0.465007
0.417957,-0.448744,0.946783,-0.049782,-0.660441,0.749226
0.096803,0.447393,0.380903,0.375995,-0.274539,0.885018
0.342634,0.215937,0.462331,0.021810,0.337470,0.941084
0.095969,-0.479728,0.838185,-0.419105,0.253918,-0.871709
0.409130,-0.090424,0.615155,0.262845,-0.964661,0.018471
0.121126,-0.243492,0.817361,-0.165002,0.978580,0.123110
-0.288741,0.219873,0.902260,-0.490256,-0.849564,-0.194657
0.667614,0.165495,0.047292,0.439222,-0.890220,-0.120800
0.486858,0.257324,0.841474,-0.496351,-0.498471,0.710748
0.600579,-0.378902,0.838813,0.787442,0.367404,-0.494924
0.374509,0.245402,0.357022,0.918707,0.186101,0.348346
-0.281239,0.226340,0.905318,0.506746,0.291733,0.811234
0.522558,-0.015689,0.396455,0.579672,-0.786326,0.213711
0.424039,0.050217,0.861620,0.833588,-0.386061,0.395080
-0.022510,-0.473092,0.781449,0.924780,0.151066,0.349229
0.410209,-0.045156,0.432318,0.388100,-0.888618,0.244411
0.282169,-0.207277,0.894377,-0.098351,-0.520060,0.848449
-0.201893,0.581568,0.451572,0.411956,-0.301922,0.859730
0.118772,-0.052017,0.914473,-0.632742,0.371967,-0.679174
0.503874,-0.068380,0.876462,0.762374,0.633440,-0.132437
0.526530,-0.600518,0.881139,0.013769,0.716718,0.697227
-0.068165,-0.300062,0.802372,0.841479,-0.020985,0.539882
0.369213,0.258843,0.812916,0.264056,-0.562872,0.783230
0.602393,-0.001069,0.077718,-0.408028,0.806678,-0.427533
-0.102246,-0.861779,0.771119,0.232887,-0.739983,0.631022
0.429629,-0.370635,0.955163,-0.354380,0.907416,0.225856
0.255591,0.042850,0.957096,-0.538431,0.781817,-0.314411
0.340231,-0.110442,0.667628,0.038740,0.878482,-0.476202
0.519713,-0.318169,0.920522,0.824564,-0.020176,0.565409
0.054335,-0.026430,0.872082,0.845273,0.388277,-0.367089
0.160897,-0.886241,0.738875,-0.421439,0.906193,-0.034672
0.400108,0.188158,0.333058,0.863720,0.293639,0.409590
0.397803,0.505933,0.614792,0.405873,-0.886187,0.223472
0.406728,0.263847,0.883849,-0.566852,-0.712505,0.413540
0.344007,-0.166339,0.919084,0.056473,-0.436573,0.897895
0.183112,0.371759,0.350014,0.553516,0.612781,0.564022
0.509071,0.026487,0.373896,0.026962,0.972803,0.230060
0.402854,-0.489907,0.701558,-0.377539,-0.477489,-0.793391
0.254708,0.076758,-0.191456,0.319366,-0.340494,0.884347
0.609258,-0.367486,0.839755,0.903164,0.230187,-0.362366
-0.410259,-0.276670,0.862017,0.755638,0.652476,0.057317
0.395694,0.160434,0.353733,0.748312,-0.170712,0.641005
0.941790,-0.026148,-0.142569,0.832100,-0.089850,-0.547299
0.270252,0.542372,0.581308,0.633127,0.739027,-0.230197
0.533395,0.123769,0.012255,-0.447611,0.048625,-0.892906
-0.081307,-0.440589,0.734611,0.370765,-0.692083,0.619318
0.745146,0.245572,-0.020964,0.408602,0.797293,0.444261
0.581552,0.101615,0.171210,0.757014,0.044937,-0.651851
-0.192722,0.162739,0.834649,-0.351058,0.934395,0.060532
0.036633,-0.078333,0.909598,0.233096,0.967792,0.095101
0.055757,-0.897262,0.779961,0.154993,0.967888,0.197913
-0.235435,-0.245740,0.932289,0.491682,0.664528,-0.562717
0.541290,-0.053309,0.162236,0.039687,0.394235,0.918152
0.403786,0.077657,0.933843,0.149966,-0.975257,-0.162433
0.627942,-0.467075,0.849176,0.982926,-0.144142,-0.114364
0.343026,0.060450,-0.210709,-0.170456,0.911567,0.374154
0.437132,0.236686,0.815544,0.042057,-0.937669,0.344976
0.032562,0.148063,0.587241,-0.235375,0.969810,0.063781
0.242694,0.260754,0.842350,0.015846,-0.996649,0.080243
0.212486,-0.475623,0.831542,-0.199263,-0.154493,0.967691
-0.208661,-0.634709,0.697178,-0.028510,0.774302,0.632174
0.363966,-0.523983,0.807941,-0.475413,0.600119,0.643304
0.659916,0.108699,0.134074,0.871022,0.101197,0.480708
0.271086,-0.500759,0.762740,0.997802,-0.057605,0.032762
-0.256620,-0.322780,0.900079,-0.554162,0.761272,0.336703
-0.305317,0.237698,0.922059,0.959002,0.065796,-0.275655
0.427078,-0.125176,0.926819,0.546781,0.837174,0.013013
0.268585,-0.142945,0.891220,0.491559,0.588254,-0.642127
0.336504,-0.554913,0.628525,-0.414105,0.282755,0.865197
-0.178354,0.450204,0.843358,-0.704611,-0.434905,0.560696
0.283052,-0.145027,0.935380,0.246257,-0.928761,0.277056
0.244016,-0.133443,0.926720,0.384120,0.916427,-0.112311
0.423352,-0.345329,0.763319,0.981132,-0.064827,-0.182149
0.847979,0.437835,-0.526026,0.695900,-0.715251,0.064336
0.089790,0.013439,0.855555,-0.678904,-0.658313,0.325135
0.227638,0.147500,0.862364,-0.178920,0.572337,0.800261
0.219939,0.578698,0.614378,0.762682,-0.635609,0.119657
0.485926,-0.440477,0.969062,0.938649,0.030133,0.343556
0.589054,0.010628,0.309210,0.768679,-0.635439,0.073140
0.775647,0.252377,0.898145,0.858750,0.347623,0.376439
0.250000,0.405332,0.866595,0.764943,0.366870,0.529404
-0.124314,0.307035,0.884973,-0.202663,-0.843857,0.496823
-0.469890,0.476634,0.673611,-0.089684,-0.537482,0.838493
0.721361,0.487714,-0.996447,-0.503792,-0.061533,0.861631
0.351560,0.308215,0.047077,-0.334060,-0.357610,0.872077
-0.275990,-0.147163,0.804884,0.105433,0.398310,0.911171
0.548842,0.129618,0.299888,0.974318,-0.209756,0.081898
0.100137,-0.869764,0.769748,0.865809,-0.344132,-0.363246
0.225185,0.251364,0.588464,-0.066200,0.395011,0.916288
0.159081,-0.207951,0.788125,0.415017,0.769555,0.485332
-0.119851,-0.520948,0.745486,0.660860,-0.578270,0.478402
0.225480,-0.584828,0.835409,0.239445,-0.842663,0.482271
0.389466,-0.188721,0.940321,-0.800630,-0.093225,0.591861
0.567624,0.053591,0.259001,0.901907,-0.109681,0.417773
0.144860,-0.664512,0.825129,-0.330086,-0.904193,0.271068
0.285112,0.352584,0.870562,0.652327,-0.726203,-0.217022
-0.071008,-0.755047,0.685543,-0.058853,-0.998006,0.022828
0.189143,0.431986,0.369351,0.358967,-0.030646,0.932847
-0.015398,-0.448969,0.882510,0.333781,0.744246,0.578523
-0.346802,-0.238992,0.859836,0.016828,-0.011914,0.999787
0.514859,-0.564079,0.953212,-0.083252,-0.885584,0.456957
0.511229,-0.029522,0.376821,0.864245,0.498060,0.070827
0.388632,0.199628,0.354774,0.838701,0.145220,0.524874
0.295851,0.014002,0.841805,-0.192519,0.930548,0.311475
0.458709,-0.040095,0.221303,-0.099867,0.454036,0.885369
0.423352,-0.592813,0.805429,-0.047297,0.553918,0.831227
0.069880,-0.245234,0.808453,-0.385556,0.919122,-0.080997
0.234061,-0.091436,0.727257,0.418169,-0.651081,0.633426
0.319243,-0.711298,0.862496,-0.139083,-0.974525,0.175947
0.283837,-0.116685,0.917349,-0.117599,0.974569,-0.190752
0.211749,-0.138615,0.906160,-0.655389,0.373465,-0.656497
0.076843,-0.784570,0.823592,0.150766,0.634636,0.757962
0.243379,-0.554068,0.732579,0.929814,-0.319781,0.182170
0.357737,0.176404,0.357980,0.855535,0.163425,0.491276
0.788888,0.437553,-0.598579,0.444395,0.895718,-0.014208
0.117938,-0.228476,0.734479,0.201392,0.625213,0.754022
0.845086,0.410674,-0.417709,0.894416,-0.424061,-0.142099
-0.154521,0.573919,0.446267,-0.283079,0.418037,-0.863198
0.927913,0.422426,-0.982085,-0.495212,0.513056,-0.701098
-0.442233,0.674239,0.530554,0.817558,0.063332,0.572353
0.439388,-0.097003,0.680370,0.905358,-0.421597,0.050830
0.136671,-0.823427,0.841507,0.939935,-0.297271,-0.167786
0.684681,0.009279,0.873173,-0.547808,0.764965,0.338726
0.533199,0.237306,0.228377,0.082865,-0.973902,0.211303
0.736563,0.190406,0.073288,0.087896,0.995834,0.024276
0.429237,-0.099196,0.912474,0.566115,0.257835,0.782966
-0.198412,0.146544,0.779234,0.877750,-0.445758,0.175655
0.402363,0.095146,0.887882,-0.547808,0.148310,-0.823354
-0.256228,-0.275544,0.898690,-0.358346,-0.623312,0.695033
-0.053747,-0.798741,0.806074,0.836957,-0.166925,-0.521190
0.327825,-0.405500,0.646705,0.852522,0.332220,-0.403530
0.524225,-0.308160,0.834533,-0.468913,0.746470,-0.472126
0.259808,-0.731823,0.753650,0.239306,-0.527883,0.814906
0.839054,0.061519,-0.179226,-0.354375,0.119023,0.927498
0.162368,-0.239837,0.888609,0.693084,0.698220,-0.179230
0.483277,0.304560,0.838499,-0.496351,-0.498471,0.710748
-0.072382,0.521565,0.844846,0.788739,0.478178,-0.386312
0.349352,-0.386719,0.598777,0.946556,-0.305092,0.104648
0.091164,-0.484396,0.734826,-0.131645,0.801181,0.583762
0.063015,-0.801720,0.730314,0.773729,-0.628441,-0.080036
0.199147,-0.699770,0.785448,-0.657577,0.677121,-0.330302
-0.466752,0.459372,0.670074,0.432200,0.827266,-0.358935
0.596558,0.038913,0.221055,0.906990,-0.362956,-0.213615
0.309484,-0.822865,0.798884,-0.586263,-0.638852,0.498160
0.361711,-0.682394,0.748676,-0.092841,0.720100,0.687631
0.073901,0.206827,0.848316,-0.358965,-0.761689,-0.539419
-0.092340,0.205420,0.875487,0.927691,-0.371215,-0.039849
0.601657,-0.499972,0.951626,0.982029,0.087118,0.167422
0.012210,-0.286342,0.785514,0.518691,-0.853193,0.054967
0.429874,0.143002,0.312647,0.963010,-0.090919,0.253663
0.839986,0.453017,-0.943709,-0.359747,-0.929458,0.081788
0.418202,-0.205027,0.951808,0.790209,0.444438,-0.421952
0.737347,0.420346,-0.133149,0.859496,0.508260,0.054211
0.551392,0.082945,0.162236,0.329440,0.937722,0.110215
-0.454983,0.136704,0.817163,0.035072,0.271375,0.961834
0.343419,0.253162,0.770177,0.116271,-0.992976,0.021904
-0.186741,-0.599956,0.783597,0.107695,0.939463,0.325285
0.216899,0.134342,0.485998,-0.038550,-0.984069,0.173559
0.491271,-0.158016,0.513515,0.669949,0.697441,-0.254449
0.801294,0.355733,-0.341239,0.388756,0.800546,-0.456066
0.901382,0.591070,-0.975904,0.151914,0.411996,0.898433
0.885936,0.123095,-0.166946,0.870273,0.074426,-0.486914
0.220429,0.030760,0.909862,-0.407396,0.906909,-0.107451
-0.189634,0.405611,0.913631,0.568329,0.701971,-0.429230
0.688849,-0.303830,0.755501,0.540896,0.817226,-0.198932
0.842487,0.468594,-0.276734,0.856510,0.514315,0.043255
0.379021,0.112129,-0.155691,-0.193125,0.028468,-0.980761
0.258287,0.013384,0.773499,-0.260939,0.160251,-0.951961
0.275647,-0.645786,0.825261,-0.520107,-0.526289,0.672688
0.710081,0.011134,0.010238,0.058911,0.513779,0.855898
0.424578,0.069842,0.876776,-0.687185,0.594346,-0.417767
0.854452,0.402126,-0.666273,-0.278601,0.955894,-0.092994
0.283591,-0.121240,0.692683,0.166518,0.944109,0.284483
0.822381,0.458866,-0.795480,0.528846,0.805930,0.266080
