-0.245623,0.711173,0.873000,0.445342,-0.157423,0.881413
0.627278,-0.909888,0.788070,0.663447,-0.380186,-0.644435
0.048821,0.918658,0.712434,0.952840,-0.264782,-0.148281
0.400229,0.066152,0.439536,-0.729279,0.433650,0.529245
0.361932,-0.523135,0.795954,0.697598,0.627323,-0.346156
-0.562886,-0.698064,0.785284,0.602745,-0.797804,0.014393
0.474086,0.094715,0.685883,-0.267271,0.847691,0.458242
0.212190,0.289435,-0.325679,-0.699516,0.714585,-0.006720
0.636121,-0.025522,0.512616,0.709579,0.646519,-0.280196
0.232180,0.488066,0.902074,0.918211,0.368043,-0.146403
-0.206527,-0.582776,0.879899,0.308478,0.270672,0.911909
-0.538652,0.156611,0.845630,0.047874,-0.998213,0.035753
0.545108,0.076744,0.714270,0.820815,0.526073,-0.222508
0.315937,0.162776,0.509993,0.182081,-0.966093,-0.183059
0.541837,-0.261394,0.881047,0.951092,0.257610,-0.170473
0.470016,0.035073,0.464480,-0.230781,0.718289,0.656355
0.138420,0.072664,-0.983938,0.652486,0.667712,0.358361
0.146738,0.230315,-0.470954,0.800616,-0.566195,0.196053
0.566427,-0.373122,0.690849,0.966301,0.191626,-0.171878
0.599681,-0.383974,0.956372,0.612508,0.760181,0.216699
-0.368567,-0.374510,0.935361,-0.227341,-0.525609,0.819787
0.722270,-0.622450,0.715548,0.798713,0.490528,-0.348482
-0.665662,-0.011632,0.903238,-0.275419,0.831630,0.482220
0.446932,-0.658825,0.684933,0.695108,0.683195,0.223762
-0.358483,0.298376,0.785563,0.880533,0.473356,-0.024391
0.309924,-0.635384,0.940294,0.483446,-0.870365,-0.093515
0.198569,0.477386,0.880866,0.904945,-0.418321,-0.077985
0.093315,0.162689,-0.689866,-0.012887,-0.999408,-0.031905
0.033786,-0.324072,0.939573,0.197753,-0.980084,-0.018119
0.454624,-0.258528,0.729364,0.274583,-0.961520,0.009129
-0.149476,0.630178,0.762044,0.922008,0.292963,-0.253129
0.305411,0.201321,0.228917,0.116372,0.979112,0.166726
-0.566692,-0.029430,0.777860,-0.122614,-0.984098,0.128520
-0.586326,-0.541365,0.823045,-0.011043,0.832213,0.554345
0.897402,-0.552913,0.716105,0.947696,-0.270330,0.169686
0.249515,-0.161298,0.713302,-0.597139,0.748491,0.288421
-0.621615,0.748936,0.693521,0.847376,-0.132799,0.514119
0.235894,-0.423125,0.859757,0.798959,-0.593333,0.098082
0.617637,0.318519,0.478919,-0.544654,-0.036817,0.837852
0.339907,0.198629,0.322533,-0.419519,0.893763,0.158716
0.260922,0.254016,0.126747,-0.266092,0.960588,-0.080411
0.309481,0.200364,0.364719,0.319267,-0.947636,-0.007336
0.502655,-0.621581,0.823029,0.905753,-0.083736,-0.415452
-0.433220,0.436062,0.781236,-0.715047,0.502162,-0.486354
0.664517,-0.508897,0.689161,0.597706,0.550201,-0.583117
0.393773,-0.242642,0.744229,-0.068149,0.905378,0.419103
0.561206,-0.393956,0.890012,-0.330629,0.934432,0.132370
0.243587,0.266865,0.155690,-0.170528,0.981562,0.086344
-0.564300,0.224587,0.787382,-0.456136,-0.513429,0.726863
0.652041,-0.676274,0.641517,0.738147,0.558680,-0.378174
-0.697680,-0.030559,0.942080,-0.462795,-0.844898,0.268268
0.609766,-0.374857,0.634011,0.964662,-0.128943,-0.229785
-0.494427,-0.392221,0.768420,0.847297,0.270986,0.456788
0.138511,0.746160,0.692504,-0.144344,0.968197,-0.204353
-0.283741,0.776111,0.647663,0.979392,-0.078650,-0.186026
0.205820,0.248460,0.096787,-0.150025,0.975692,0.159744
0.184415,0.126575,-0.742393,-0.563384,-0.824482,-0.053176
0.082346,-0.273722,0.876507,0.497343,0.805426,0.322395
0.665667,-0.379371,0.775860,0.777260,0.627110,-0.050983
0.279320,0.459503,0.924511,-0.188380,-0.388517,0.901980
0.235095,0.000089,0.752309,-0.747241,0.662246,0.055320
0.504069,0.011113,0.485196,0.964287,0.095945,0.246871
-0.060676,0.344040,0.587023,0.250056,-0.819117,0.516255
-0.589154,0.011288,0.735428,-0.207926,-0.886453,-0.413482
0.291175,0.215211,0.304210,0.476691,0.697382,0.535186
-0.743146,0.628008,0.680950,-0.265671,0.229899,0.936251
-0.647091,-0.446391,0.871328,0.864067,-0.104424,0.492427
0.556963,-0.047832,0.799575,0.752695,0.488851,0.440993
0.499734,-0.625314,0.788873,-0.586347,-0.599165,-0.545158
0.199984,-0.356887,0.828044,0.978745,0.087442,0.185506
-0.709270,0.188037,0.798281,0.717233,-0.641296,0.272611
0.146911,0.199583,-0.286788,0.766571,-0.641712,-0.023977
0.300374,0.241776,0.060567,0.799107,0.601187,-0.001344
0.153810,-0.554389,0.866804,-0.741485,0.669073,0.050416
-0.164516,0.171370,0.925478,-0.398885,0.755922,-0.519107
-0.311338,0.451690,0.633224,0.758781,0.048798,0.649516
-0.674774,-0.108602,0.800329,0.953931,0.117070,0.276242
0.107994,0.872300,0.734133,0.901138,-0.048870,-0.430768
0.171858,0.178576,-0.618113,0.801833,0.565602,-0.192764
0.047056,-0.241167,0.895010,0.753921,-0.021296,0.656620
0.612681,-0.211388,0.519204,0.044099,0.271566,0.961409
0.581019,-0.538675,0.672231,0.859889,-0.506832,0.060931
0.545022,0.364443,0.851972,0.236855,-0.889955,0.389717
0.397843,0.185433,0.573125,-0.069102,0.962785,0.261284
0.043957,-0.431288,0.719268,0.933874,-0.114694,0.338711
0.408278,0.142983,0.466742,0.912319,0.404185,0.065634
0.221210,-0.763868,0.816866,0.313171,-0.884918,-0.344737
-0.440384,0.217034,0.814490,-0.492678,-0.538566,0.683532
-0.095880,0.106695,0.723988,-0.493781,0.857705,0.143258
-0.823545,0.122146,0.770157,-0.260377,0.298908,0.918073
-0.044049,-0.516885,0.864969,0.663685,-0.393441,0.636181
-0.604368,0.362880,0.829748,0.977550,0.202249,0.059081
0.155581,0.168591,-0.847481,-0.139093,-0.976472,0.164789
0.114985,0.199236,0.470790,0.131302,0.915168,0.381088
0.103043,0.129612,0.662954,-0.328090,0.943072,-0.054525
0.717406,-0.420436,0.812376,-0.072553,0.996871,-0.031377
0.662482,-0.385971,0.828060,0.682008,0.698169,0.217771
0.179907,0.157827,-0.838353,0.327977,0.944439,-0.021599
0.413407,0.589201,0.798887,0.098577,0.883496,0.457950
0.246243,0.246463,0.237046,-0.434922,0.900212,0.021477
0.289404,-0.658476,0.862805,0.841697,0.525045,0.125991
0.172387,0.375554,0.914186,-0.007674,-0.927056,0.374845
-0.183794,-0.501431,0.811556,-0.322123,-0.946633,0.011115
0.271093,-0.388748,0.812720,0.933715,0.318353,0.163790
-0.021316,0.158608,0.739099,0.728447,-0.629753,0.269769
0.198391,0.175103,-0.126042,0.720484,-0.680423,0.133898
0.407129,0.161038,0.536003,0.983635,-0.055928,0.171275
0.180965,0.219116,0.152969,-0.690794,0.721319,0.050023
0.566162,-0.273287,0.774451,0.935590,0.118287,0.332684
-0.300725,0.151924,0.865788,0.530333,-0.796132,-0.291412
-0.121263,0.282663,0.572043,0.781675,-0.257660,0.567975
-0.693086,0.681485,0.760766,-0.013102,0.997803,0.064940
0.418806,0.124666,0.659087,0.481422,-0.664201,-0.571900
-0.495135,-0.521659,0.844367,-0.763807,0.597706,0.243613
0.297896,0.213908,0.098295,0.093225,0.974710,0.203098
0.617194,-0.471568,0.733035,0.900890,-0.377305,0.214566
0.168144,0.221721,-0.586400,0.919697,0.034220,-0.391135
0.170881,0.948346,0.697864,-0.000682,-0.987243,0.159217
0.373518,0.440317,0.925199,0.969012,-0.048246,0.242257
0.518488,-0.652226,0.871000,-0.765128,0.597708,-0.239427
0.691401,-0.662818,0.684097,0.963602,-0.224904,-0.144530
0.720148,-0.273375,0.525858,-0.383290,-0.186381,0.904628
0.402616,0.071189,0.723972,-0.020261,0.998699,0.046802
0.694943,-0.506380,0.699896,0.668304,0.414525,-0.617689
0.601188,-0.399514,0.839975,0.802928,0.538337,0.255930
0.381653,0.203316,0.778581,0.730753,0.600776,-0.324144
0.459931,0.014933,0.475658,-0.501237,0.809425,0.305929
0.021229,-0.314696,0.812966,0.974311,-0.063339,-0.216117
-0.528039,0.154354,0.782875,-0.568390,-0.807706,-0.156665
-0.368389,-0.256358,0.919774,0.021417,0.998956,0.040349
0.120292,0.132738,0.628078,0.943993,0.329964,-0.000003
0.395101,-0.111119,0.785219,-0.298453,0.603696,-0.739241
-0.035908,0.135170,0.726627,-0.502995,0.831986,-0.234084
-0.004511,-0.341521,0.947423,-0.695036,0.639562,-0.328461
0.165401,-0.294209,0.696815,-0.393330,-0.292493,-0.871630
0.548914,-0.548136,0.720776,0.781165,-0.616450,-0.098850
-0.591011,0.200364,0.771861,0.508440,0.858720,-0.063951
-0.504156,-0.444828,0.803771,0.587819,0.646429,0.486414
-0.283477,-0.237519,0.916611,0.752910,-0.658103,0.005198
-0.345570,0.107649,0.773615,-0.308479,0.936205,0.168408
-0.020166,-0.236999,0.899829,0.818152,-0.222065,0.530391
-0.684681,0.069713,0.833010,0.561268,-0.827448,-0.017517
0.561206,-0.355933,0.935525,0.556684,0.810252,-0.183289
-0.608260,0.094105,0.860970,-0.284814,0.911708,0.296090
0.538122,-0.085164,0.827421,0.681571,0.665932,0.303308
0.070669,0.098620,0.690980,0.961488,-0.161967,0.222053
0.391737,0.188906,0.355000,0.107050,0.990902,-0.081572
-0.192820,0.542324,0.858298,0.982141,-0.090761,-0.164809
0.063948,-0.667332,0.743672,-0.504201,0.321650,0.801450
0.870690,-0.774632,0.750260,0.403456,-0.459134,-0.791467
-0.299132,-0.338309,0.958994,0.067954,-0.764093,0.641517
-0.036885,-0.027520,0.931641,0.734241,-0.254248,0.629483
-0.165401,-0.662818,0.747425,0.394950,0.540293,0.743033
0.834515,-0.727318,0.741836,-0.667195,-0.193661,-0.719267
-0.087032,0.694594,0.848530,0.712307,0.647959,0.269757
0.360426,-0.441530,0.889225,-0.214273,0.692978,0.688381
0.248980,0.433632,0.832731,0.018062,-0.765101,0.643656
-0.614808,0.750674,0.692914,0.881961,-0.137691,0.450762
0.370160,0.183004,0.476658,0.439845,0.857550,0.266728
0.402972,0.287265,0.879785,0.734320,-0.666588,0.128195
0.225632,0.153572,0.159623,0.786699,0.543031,0.293635
-0.275962,0.258271,0.906139,0.849782,-0.234798,0.471953
0.187778,0.185520,-0.949832,-0.597682,0.799883,-0.054436
0.175037,0.352375,0.782908,-0.177264,-0.945585,0.272849
0.421105,0.224587,0.741590,0.103814,-0.926368,0.362029
-0.424113,0.048876,0.719301,-0.128835,0.566243,-0.814107
0.697593,-0.438926,0.907384,0.864160,0.185478,-0.467787
0.030336,-0.209131,0.941539,0.790221,0.413170,0.452594
-0.669824,0.698759,0.758963,0.191606,-0.912807,-0.360654
0.221297,-0.490320,0.979628,0.162523,-0.786104,0.596344
-0.262957,0.323553,0.873753,0.951242,-0.288291,0.109667
-0.490713,-0.789998,0.804001,0.197278,-0.978363,-0.062344
-0.414557,-0.594929,0.808442,0.911252,0.285189,0.297131
-0.037679,0.165727,0.762733,-0.641007,0.712102,-0.286394
-0.502833,-0.008680,0.736067,0.226721,0.918803,0.323107
0.582169,-0.005382,0.711942,0.841140,0.490073,-0.228716
0.198742,0.202275,0.161033,0.996917,0.001269,-0.078448
-0.008225,0.536506,0.791889,-0.445445,-0.894731,0.032190
0.018838,-0.168416,0.934853,0.903879,0.367292,0.219315
0.016716,-0.463146,0.800297,0.579241,-0.723718,-0.375116
0.045728,0.395522,0.929526,-0.052200,-0.593368,0.803237
0.242702,0.470874,0.861953,0.296869,-0.847419,0.440170
0.131256,0.174062,-0.846187,-0.139093,-0.976472,0.164789
0.215105,0.206442,0.327925,-0.696112,-0.682382,-0.223120
0.529544,-0.236740,0.685260,0.827454,0.325563,-0.457525
0.173008,0.164946,-0.169490,0.900717,-0.428542,-0.071139
0.214311,0.231444,0.230425,0.495067,-0.861387,-0.113670
0.612330,-0.213126,0.524137,0.256410,0.711715,0.654000
-0.379354,0.439710,0.766371,0.624751,0.627081,0.465248
-0.579869,-0.546054,0.821308,0.059037,0.836985,0.544032
-0.619672,0.090460,0.866476,0.055358,-0.996613,0.060804
-0.317973,0.301762,0.935754,0.893286,0.348728,-0.283602
-0.306830,-0.438838,0.898927,0.936050,-0.283896,0.207880
-0.215726,-0.842606,0.717695,0.049090,0.820792,0.569114
0.416857,0.053218,0.441339,-0.573471,0.658186,0.487772
0.218824,0.219726,0.296081,-0.198616,0.959562,-0.199480
-0.022995,-0.766560,0.761782,-0.560667,-0.266985,-0.783819
-0.223597,0.141592,0.833616,0.847309,-0.501379,0.175176
0.319301,0.518882,0.680196,0.488375,0.537485,-0.687459
-0.146647,0.608734,0.635437,-0.208461,-0.769085,0.604196
0.468423,-0.005469,0.482984,-0.149859,0.767814,0.622900
0.749160,-0.655264,0.705731,0.632402,0.678414,-0.373928
0.060498,-0.242989,0.867820,0.587555,0.762255,0.271563
0.253850,0.042105,0.807197,0.778549,-0.618194,0.108156
-0.161417,0.630265,0.856364,-0.513717,-0.842980,-0.159623
0.551656,-0.355411,0.885718,0.938119,0.329110,-0.107795
0.496549,-0.112161,0.520483,0.810015,0.405371,0.423733
0.170351,0.240473,-0.293901,-0.605487,0.794378,-0.048465
0.140368,0.229796,-0.567487,0.497904,-0.853594,0.153199
0.885903,-0.283445,0.628553,0.027428,0.100916,0.994517
-0.463645,-0.672800,0.811589,0.920844,-0.237994,0.308877
0.406508,0.153919,0.527415,0.948785,-0.292822,-0.118583
0.240845,0.164252,0.420918,0.843920,0.536377,-0.009953
-0.248451,0.057733,0.707107,-0.158255,0.885710,0.436432
0.010524,0.088378,0.358884,0.041728,0.828190,0.558891
-0.121971,0.018059,0.936229,0.120799,-0.924335,-0.361955
-0.256236,0.077698,0.730888,-0.191798,0.961531,-0.196650
-0.398016,-0.147842,0.955782,-0.683811,0.451288,-0.573360
0.182914,0.233701,0.483820,0.867646,0.065810,-0.492807
0.498233,-0.117457,0.516762,0.660111,0.740396,0.126758
-0.476294,-0.431807,0.767731,0.854371,0.366730,0.368185
0.268971,0.698152,0.757603,0.920533,-0.387305,0.051132
0.027773,0.156611,0.309208,-0.439291,-0.878285,-0.188780
-0.064212,-0.105217,0.924134,-0.390929,0.089571,-0.916052
0.558993,0.286918,0.784530,0.588396,0.798416,0.127757
0.244651,-0.795120,0.902976,0.864235,-0.101433,0.492757
-0.092338,0.541020,0.769551,0.666510,0.590294,-0.455320
-0.032194,-0.752757,0.766109,-0.432188,-0.558124,0.708316
0.282419,0.240385,-0.110964,-0.398934,0.900107,0.175098
0.470280,-0.525219,0.665495,0.165223,-0.981090,0.100820
0.535202,-0.238388,0.565701,0.050122,0.934019,0.353690
0.323636,0.071621,0.754046,-0.265869,-0.963194,-0.039639
-0.032108,0.154616,0.748048,0.357587,-0.742297,0.566681
0.133291,0.115809,0.574649,0.923445,0.347752,-0.162231
0.290640,0.132044,0.812310,0.891049,-0.451529,-0.046398
-0.505662,-0.017535,0.862658,0.781391,-0.621119,-0.060321
-0.247302,0.077004,0.744589,0.229172,-0.786571,0.573399
-0.316467,0.254450,0.911055,0.944988,-0.024479,0.326187
-0.292233,-0.463668,0.904991,0.945406,-0.290966,0.146785
-0.659205,0.220679,0.837205,0.884665,-0.463950,-0.046033
0.713514,-0.029949,0.845089,0.793278,0.200598,0.574865
0.293739,0.633389,0.869541,0.788665,-0.594402,0.157141
-0.542895,-0.270074,0.794151,0.872738,0.237388,0.426587
-0.261100,-0.332494,0.936508,-0.505175,-0.374077,0.777730
-0.040686,0.211651,0.698339,0.166572,-0.536518,0.827286
-0.153195,0.545100,0.826208,0.646696,-0.337336,-0.684097
0.532195,0.015887,0.739853,-0.405363,-0.706716,0.579856
-0.036178,-0.371471,0.873557,-0.402416,0.742854,0.535004
0.203876,0.155048,0.486721,0.781939,-0.610534,0.125775
0.259950,0.178576,0.298178,0.788014,0.029716,-0.614940
0.245093,0.272856,-0.088953,0.558361,-0.829016,0.031065
0.275163,-0.384668,0.811507,0.501874,0.840494,0.204189
-0.454096,-0.600572,0.758684,0.966545,0.211369,0.145304
-0.147797,0.726452,0.781121,0.755772,-0.654247,-0.027735
-0.610738,-0.600834,0.836861,0.971034,0.173440,0.164353
-0.247215,0.748936,0.878048,-0.151238,0.926258,0.345215
0.425969,0.316262,0.541182,0.904101,0.426600,-0.024785
0.440211,0.211651,0.898829,0.949851,0.309381,0.045460
0.297539,0.204185,-0.062992,-0.165494,0.984888,-0.051065
0.775958,-0.423560,0.737477,-0.481650,0.182466,-0.857158
-0.141605,-0.398905,0.904909,-0.740140,-0.015861,-0.672266
0.445868,0.029517,0.631028,0.743094,-0.138114,0.654779
0.099065,-0.326589,0.884013,0.490590,0.719808,0.491118
0.029808,0.016930,0.908154,0.716160,-0.541905,0.439833
-0.278262,0.241082,0.867132,0.962740,-0.005230,0.270377
0.089331,0.896345,0.665265,0.376637,0.899797,-0.220247
0.689544,-0.650056,0.771861,-0.495207,0.829077,-0.259616
-0.458166,0.257055,0.828929,0.796375,0.598402,-0.087760
0.533966,-0.497958,0.819570,-0.350970,-0.009190,-0.936342
0.255350,0.263999,-0.239669,0.077838,0.996928,0.008743
0.648063,-0.337181,0.624735,0.592364,-0.759898,-0.267692
0.047585,0.468532,0.707550,-0.402675,0.450207,-0.796973
-0.541394,-0.559335,0.830682,0.812918,-0.474572,-0.337558
0.413941,0.158521,0.691685,0.951105,0.292829,0.098236
-0.527067,0.529993,0.663036,0.043024,-0.258454,0.965065
0.247566,0.707353,0.715810,0.725453,-0.649213,-0.228563
0.743853,-0.516710,0.725512,0.995798,-0.090917,0.010951
-0.334249,-0.357843,0.944981,0.523031,0.653283,-0.547411
0.807625,-0.588854,0.717777,0.131529,-0.978228,0.160529
-0.425170,-0.553867,0.795921,0.878006,0.253891,0.405764
0.793913,-0.504817,0.748736,-0.044528,0.813375,0.580034
-0.021580,0.004516,0.665987,-0.347458,-0.628747,-0.695665
0.674423,0.151402,0.763323,0.801327,0.005858,-0.598198
0.404915,0.104872,0.595824,0.938173,0.336291,0.082100
0.176630,0.244380,-0.488261,0.435902,-0.899994,0.000438
0.534408,0.101918,0.657874,0.900682,-0.433481,0.029442
-0.214225,0.177186,0.842220,0.742262,0.306766,0.595770
-0.617901,0.624013,0.686473,-0.702172,0.139891,-0.698130
-0.033608,0.284661,0.914727,0.898458,0.187509,-0.397006
0.608260,-0.385015,0.936737,0.468789,0.875720,-0.115551
-0.275606,-0.194809,0.889012,0.895692,0.442086,0.047915
-0.155317,0.696935,0.861740,0.210025,-0.889059,0.406773
0.038035,-0.344040,0.870033,-0.610092,0.712893,0.345790
0.623915,-0.387706,0.942883,-0.564404,-0.825474,-0.006398
0.213162,0.753366,0.701928,0.198443,-0.978817,-0.050378
0.537588,-0.214687,0.533955,0.794975,0.528386,0.298031
-0.788520,0.219116,0.834813,-0.203744,0.910012,0.361062
0.376789,-0.229881,0.561652,0.278937,0.521302,0.806498
0.124270,0.191685,-0.607919,-0.197005,0.978249,-0.064948
-0.425791,-0.274588,0.953930,0.823640,0.503345,0.261268
0.361841,0.223112,0.437880,0.836942,0.528573,0.141911
0.359897,0.190729,0.509862,-0.460618,0.857008,0.231018
0.607288,-0.689555,0.622653,0.380903,0.661102,0.646419
-0.279320,0.699368,0.880424,-0.899018,0.388460,0.202153
0.550415,-0.614115,0.699912,0.753007,0.079542,0.653188
-0.394038,-0.580606,0.833452,0.919635,-0.019824,-0.392273
-0.673711,-0.518967,0.880834,0.856287,-0.046319,0.514419
-0.473465,0.116937,0.840516,-0.337788,0.431999,0.836227
0.233417,-0.044362,0.656514,0.546497,-0.619143,-0.563918
-0.260922,0.125619,0.846777,-0.446569,0.625554,-0.639733
-0.351849,0.061291,0.827044,-0.499974,0.858874,-0.111178
-0.404565,-0.195937,0.959715,0.239217,-0.025954,0.970619
0.243236,0.455683,0.935279,0.751705,-0.510321,-0.417747
0.312844,0.050614,0.746474,0.226460,-0.967486,0.112638
0.672474,-0.129784,0.805590,0.718887,0.613602,-0.326642
-0.463203,-0.322337,0.764011,0.863920,-0.138306,0.484266
-0.303203,0.159562,0.872409,0.973626,-0.228128,0.003014
0.395009,0.293602,0.794282,-0.654340,-0.712062,0.254573
0.155668,0.353503,0.926986,-0.278561,0.955610,-0.095987
0.296303,0.232225,0.250862,0.318382,0.899335,0.299715
0.169201,0.688951,0.590219,0.997040,-0.021523,0.073813
0.203606,-0.099402,0.672673,-0.574710,0.679181,0.456533
0.277285,-0.418611,0.775319,0.857748,0.419041,0.297781
0.550064,-0.337268,0.781121,0.853881,-0.518513,0.045071
0.172651,0.155829,-0.696290,-0.112373,-0.967346,-0.227187
-0.195293,-0.329628,0.881932,0.365720,0.619556,0.694550
-0.178843,-0.062592,0.508354,0.618150,-0.707125,-0.343315
0.523082,-0.265212,0.658333,0.761028,0.445300,-0.471746
0.198127,0.376076,0.922888,-0.400658,0.912772,-0.079499
0.354677,0.832279,0.720137,-0.451336,0.889349,-0.073178
0.620115,-0.414793,0.637437,0.969364,0.244840,0.019665
0.381389,0.275460,0.794085,0.806189,0.234732,-0.543102
0.404478,0.480947,0.954143,0.956919,0.265382,0.117809
-0.196092,0.662558,0.799723,0.962763,-0.227417,0.146184
0.117020,0.262176,-0.386975,0.981341,-0.185188,-0.051730
-0.199185,0.362620,0.591858,0.486403,-0.425299,0.763238
0.547586,-0.141417,0.812195,-0.330153,-0.727027,-0.602023
0.256322,0.256014,0.114504,0.080800,-0.992729,0.089226
-0.174865,0.607780,0.790807,0.995377,-0.042621,-0.086070
0.244915,-0.001302,0.846596,-0.230640,0.905310,0.356679
-0.071732,0.190210,0.767158,0.571117,-0.735801,0.363899
0.195735,-0.071358,0.675755,-0.469741,-0.574284,-0.670479
0.201485,0.322771,0.564045,0.669128,0.526601,0.524365
0.280383,-0.337094,0.857626,0.841157,0.085111,-0.534051
0.305324,-0.661255,0.921200,0.115780,-0.660604,0.741753
0.246243,-0.413490,0.824602,0.451507,0.761839,0.464481
0.499469,0.552741,0.925740,0.899986,-0.196416,0.389162
0.227753,-0.229359,0.733002,0.387835,0.873568,0.294047
0.232974,0.248201,0.152609,-0.311790,0.949740,-0.027943
0.320272,0.517407,0.894650,0.464176,0.712330,-0.526427
0.026002,-0.318951,0.969565,-0.278196,-0.847035,0.452922
0.212276,0.110947,-0.919217,0.771534,0.636013,0.014944
-0.129664,0.236305,0.842761,0.100998,-0.944111,0.313774
0.682294,-0.443006,0.721120,-0.249426,-0.968375,0.006059
0.313551,-0.592324,0.945407,-0.683673,-0.662385,-0.306329
0.176986,0.222330,0.369554,0.371905,0.902712,0.216326
0.785956,-0.815522,0.739738,0.840865,0.079588,-0.535361
0.091631,0.118328,-0.864870,0.454478,0.890506,0.021181
-0.555371,0.271812,0.790053,-0.479685,0.020784,0.877195
-0.339556,-0.801457,0.716023,-0.214920,0.859879,0.463052
0.513268,-0.587985,0.711139,-0.914982,0.333906,-0.226529
0.594375,-0.206874,0.677312,0.832059,0.169136,-0.528271
0.592604,0.071621,0.753686,-0.689673,0.721115,0.065908
-0.214311,-0.620105,0.720661,-0.126453,-0.958673,0.254865
-0.844243,0.673497,0.752047,-0.474934,0.642113,-0.601771
0.407750,0.089331,0.436405,-0.698928,0.519209,0.491855
-0.132584,-0.493531,0.802132,0.074596,0.980612,0.181207
-0.576333,-0.671759,0.877916,-0.704188,-0.694476,-0.147721
0.299488,0.213736,0.071875,0.875879,-0.263234,0.404405
0.328586,-0.231963,0.868542,-0.570269,0.658255,-0.491420
0.102951,0.668983,0.924610,-0.811864,0.582506,-0.039544
0.380503,0.201668,0.557211,0.876821,-0.473551,-0.083274
-0.094195,0.003040,0.482541,0.679266,-0.733425,-0.026182
0.043428,0.420524,0.893683,0.311037,0.825379,0.471174
-0.431719,-0.006336,0.929559,0.145974,0.978525,-0.145534
-0.457545,0.506815,0.774238,0.843807,0.133839,0.519690
-0.018574,-0.221806,0.915792,0.991697,0.074056,-0.105133
0.675303,-0.168504,0.834796,0.788935,-0.424845,-0.443946
0.214576,0.221201,0.187960,0.134762,-0.986684,-0.091069
-0.156202,0.245681,0.934836,-0.370291,-0.926199,0.070987
0.135769,0.653357,0.661004,0.759360,0.632746,0.151676
-0.182380,0.505686,0.663135,0.905181,0.037265,0.423389
0.423227,-0.193506,0.848203,0.887994,0.217695,-0.405062
0.328322,0.367047,0.819751,0.468571,-0.882917,0.029991
0.342741,0.681310,0.561357,0.864369,0.290507,-0.410454
0.409164,0.100617,0.429784,0.839631,-0.332945,-0.429147
0.275077,0.081344,0.828650,0.905916,-0.406518,-0.118573
0.835838,-0.540758,0.908990,0.069066,0.405101,0.911659
0.547321,0.304888,0.831846,0.917257,0.101268,-0.385208
0.721919,-0.355586,0.740918,-0.646649,0.651124,-0.397345
0.063597,-0.562548,0.738017,0.988521,0.054860,-0.140773
-0.135240,0.751888,0.873606,0.697806,-0.514510,0.498343
0.517338,0.087508,0.652056,-0.840939,-0.265982,0.471249
0.168316,0.210697,0.213053,0.475032,-0.848400,-0.233587
0.270385,0.228755,0.197171,0.328106,0.943286,-0.050575
-0.045021,-0.606909,0.814703,0.045783,0.100020,0.993932
-0.456574,-0.674970,0.823160,0.929782,0.029252,0.366946
-0.176101,0.069885,0.695504,-0.404188,0.054304,-0.913062
0.241109,0.236480,0.325303,-0.311370,0.946377,-0.086138
0.128427,0.541542,0.811818,-0.288697,-0.741812,0.605285
-0.288875,0.731488,0.872180,0.803155,0.004827,0.595751
-0.648592,0.135517,0.912252,-0.662201,0.233556,-0.711998
0.455866,-0.239344,0.746261,-0.453262,0.887507,0.082971
-0.279234,-0.154439,0.617245,-0.815779,0.568951,-0.103923
-0.096231,0.662471,0.809049,0.883824,0.139777,-0.446450
0.601009,0.089678,0.762372,0.129953,0.988446,0.078017
0.134090,0.670718,0.919742,0.886837,-0.341051,0.311775
0.673803,-0.386318,0.621113,0.438357,0.652357,0.618283
0.600745,-0.430678,0.723251,-0.658711,0.752323,0.010478
0.590218,0.186824,0.866804,0.883254,-0.388983,0.261831
0.519018,0.218075,0.736247,-0.080363,-0.745053,0.662147
0.317088,0.155917,0.391122,-0.431505,0.706227,0.561291
0.002475,-0.089329,0.725906,-0.576087,-0.707473,-0.409397
-0.315587,0.068757,0.724005,-0.444746,-0.844084,0.299540
-0.020253,0.719683,0.782580,0.046342,0.986847,-0.154872
0.605252,0.179271,0.860495,0.998288,-0.008774,-0.057830
0.150982,0.264086,-0.412477,0.992879,0.012926,0.118421
0.555986,0.316781,0.842991,0.261975,0.712719,-0.650692
0.180522,0.048704,0.552868,0.854020,0.474516,0.213271
-0.142139,0.545969,0.881686,0.974898,0.139054,0.173891
0.209976,0.146716,-0.775073,0.602110,0.798186,-0.019057
-0.696001,-0.521137,0.881882,0.818621,0.027111,0.573693
0.306031,0.437106,0.929739,0.231906,0.873587,0.427861
-0.136919,0.682179,0.862461,-0.491013,0.822871,-0.285989
-0.027330,0.385364,0.817751,-0.400746,0.741304,-0.538397
0.363876,0.165640,0.567979,0.109605,-0.988779,-0.101507
0.721919,-0.374250,0.745622,-0.609639,0.695658,-0.380000
0.585618,-0.767948,0.670215,0.483710,-0.264010,-0.834460
0.815583,-0.282054,0.625751,0.060724,-0.587192,0.807167
0.234210,0.304716,0.564652,0.114298,0.722870,0.681465
0.613923,-0.263305,0.772681,0.789314,0.381966,0.480713
0.359633,0.163470,0.511583,-0.495052,0.793190,0.354646
-0.000175,-0.364615,0.878572,0.779073,-0.618264,-0.103898
0.101186,-0.235611,0.853758,0.267675,0.888989,0.371549
0.300817,-0.421218,0.843155,-0.045186,0.998903,-0.012276
0.545994,0.056951,0.780892,-0.415203,0.902669,0.113119
-0.344685,-0.139594,0.949423,-0.703532,0.600218,-0.380502
-0.305681,0.076135,0.810557,-0.797241,0.487045,-0.356643
-0.762780,0.113726,0.766191,0.419978,-0.550635,-0.721401
-0.185214,-0.173712,0.964124,0.882732,-0.403937,0.240040
-0.309395,0.203925,0.896027,0.892334,0.270795,-0.361124
-0.180258,0.617157,0.855381,0.932931,0.182485,0.310385
-0.112064,0.712129,0.840893,0.531595,0.823683,-0.197366
0.518661,-0.500215,0.648335,0.021756,0.992298,0.121949
0.774014,-0.339698,0.739705,0.483111,-0.713504,0.507460
-0.258007,0.099229,0.890307,0.974442,-0.149035,-0.168084
0.936935,-0.363573,0.713761,-0.481116,0.753189,-0.448591
0.229789,0.240820,0.165688,-0.513953,0.762332,0.393322
0.148239,0.157567,-0.365014,0.996589,0.024905,-0.078680
0.373339,0.350987,0.651089,0.542784,0.347483,-0.764618
0.521846,0.279018,0.498914,0.532333,-0.834545,0.141974
0.102158,0.550483,0.801411,0.066377,-0.921911,0.381672
-0.681409,0.107823,0.842958,0.321827,-0.928340,0.186045
0.008581,0.016584,0.904680,-0.859724,0.364569,-0.357721
0.052449,0.147670,0.322598,-0.380210,-0.880773,-0.282277
0.675130,-0.620452,0.690538,-0.486083,0.618072,0.617827
0.300903,0.608387,0.475232,-0.048988,-0.443526,0.894922
-0.183178,-0.160778,0.805525,0.510085,-0.858749,0.048620
0.179200,0.188732,0.479903,0.631393,0.541474,-0.555112
-0.602424,0.181006,0.905811,0.893486,0.400727,-0.202733
-0.502034,-0.681482,0.871574,-0.513494,-0.742558,-0.430036
0.256857,0.245856,-0.043899,0.670585,-0.741754,0.010808
0.350434,0.618110,0.801280,-0.214159,0.973883,0.075418
0.691666,-0.791214,0.684670,0.905207,-0.412645,-0.101609
0.180436,0.241429,0.333465,0.041683,0.994328,0.097850
-0.543959,0.039588,0.915792,0.080813,-0.995308,-0.053202
0.446224,0.658912,0.797511,0.908881,0.374615,-0.183299
0.564213,-0.422084,0.702879,0.896678,0.062773,-0.438211
0.388380,0.661604,0.643353,0.865242,0.395470,-0.308156
0.750930,-0.631651,0.721907,0.735195,0.639775,0.224000
0.236601,0.300981,0.380010,0.660897,0.306460,-0.685053
0.354769,0.200974,0.601347,-0.632657,-0.773027,-0.046627
-0.732711,0.727843,0.734199,0.734073,-0.511546,0.446607
-0.526003,-0.441965,0.797314,0.772141,0.561654,0.297226
-0.652576,0.526348,0.726578,0.938874,0.161262,0.304156
-0.140190,-0.134039,0.830518,0.826737,-0.529165,0.191025
0.556342,-0.057730,0.630110,0.782166,0.554777,-0.283616
0.453831,0.224065,0.509485,0.532863,-0.846132,-0.010894
0.803733,-0.907456,0.729003,0.869870,-0.062394,-0.489319
0.602775,-0.306796,0.806525,0.956519,-0.264498,-0.122928
0.230674,0.214949,0.296802,-0.097972,0.970216,-0.221545
0.411021,0.329283,0.871737,0.168465,-0.980270,-0.103396
-0.402708,0.085426,0.918119,-0.305860,0.908393,0.285082
-0.194499,-0.646323,0.882866,0.810936,0.585112,-0.005116
0.310280,0.572446,0.476543,0.171012,0.361375,-0.916604
0.481601,0.252887,0.816342,0.557039,0.830376,0.013524
-0.375639,-0.109124,0.957126,0.834788,-0.529071,0.152355
0.614451,0.014673,0.744655,0.978101,0.020454,0.207122
0.627808,0.143677,0.864100,0.932635,-0.235473,0.273393
-0.434634,-0.508810,0.785350,0.835538,0.510503,0.203135
-0.030072,-0.478774,0.801952,-0.281341,0.870451,0.403934
-0.516275,-0.197066,0.925265,0.288123,0.859023,-0.423160
0.194056,0.218770,-0.049864,0.704285,-0.707055,-0.063691
0.358926,0.230924,0.338283,-0.123845,-0.982946,-0.135940
0.422163,-0.227014,0.733052,0.265548,-0.953851,0.140186
0.746682,-0.437190,0.785956,0.334062,0.913940,-0.230469
0.346277,0.449693,0.889454,0.393421,0.703741,-0.591581
0.108350,0.181962,0.885685,0.884004,0.425562,0.193476
0.404208,0.218075,0.513828,0.706373,-0.704648,-0.067152
0.185656,0.124403,-0.581827,0.985894,0.161929,-0.042341
-0.305503,0.337271,0.890421,0.974363,-0.062575,-0.216103
0.158059,0.192117,0.219034,0.506374,-0.768783,-0.390587
-0.435611,0.102615,0.805623,0.477898,0.817607,0.321143
0.023087,0.090113,0.656333,-0.545770,0.802743,-0.240291
0.251815,0.209221,0.280642,-0.576326,0.816716,-0.028702
0.093137,-0.308966,0.768026,-0.080906,0.916252,0.392348
0.131256,-0.018316,0.881063,0.578401,0.420607,0.698958
0.555813,0.069451,0.723038,0.912910,0.293615,-0.283523
-0.281177,0.317910,0.946342,0.645143,0.641070,-0.415717
0.096938,-0.170848,0.817194,0.977700,0.075314,0.196035
0.180787,0.270076,-0.450533,-0.617071,0.786904,0.002575
0.199363,0.187603,0.399644,-0.612365,0.774927,0.156516
0.458695,-0.764475,0.682638,0.556257,0.593105,-0.582070
-0.767466,0.810923,0.764830,0.970791,-0.237190,0.036131
0.373518,0.086467,0.662037,0.207375,0.625663,0.752025
0.216697,-0.618629,0.928313,0.404169,0.878968,-0.253106
-0.252166,0.203925,0.856840,-0.230431,0.971353,-0.058091
0.436847,0.059381,0.671346,-0.193801,-0.980287,0.038457
0.541659,0.036029,0.506191,0.577915,0.556671,-0.596768
0.410400,0.187518,0.551884,-0.035087,-0.982992,0.180264
0.892532,-0.840871,0.749047,-0.699452,0.185529,0.690178
-0.574913,0.007902,0.734379,0.421487,0.830109,0.365058
0.425440,0.159562,0.576501,-0.142242,-0.989796,0.008453
-0.627721,0.642677,0.690062,-0.709626,0.452014,-0.540476
-0.279849,0.214083,0.869771,0.797471,0.494235,0.346079
-0.090481,0.718467,0.866608,-0.478884,0.777621,-0.407402
-0.274099,0.031687,0.714532,-0.323350,-0.939595,-0.112277
0.493898,-0.157824,0.531939,0.804846,0.287759,0.519056
-0.186450,0.190641,0.895649,0.106652,0.983338,-0.147213
0.191670,0.239257,-0.424048,0.962933,-0.092039,-0.253554
-0.302938,0.661517,0.876163,0.643591,0.584278,0.494378
0.190164,0.144978,-0.958781,-0.645309,-0.751935,-0.134800
-0.278699,-0.138119,0.603363,0.919946,-0.297593,0.255219
-0.735275,-0.542233,0.890356,0.600839,0.506177,0.618690
0.536708,-0.752148,0.651400,0.717377,-0.650099,-0.250482
0.681587,-0.332926,0.577796,-0.353312,-0.888278,-0.293483
0.308687,0.229968,0.864854,0.812027,-0.536639,0.229415
0.089688,-0.285008,0.884718,-0.376577,-0.868793,-0.321542
0.111535,0.204097,-0.760323,-0.227784,0.973270,0.029312
-0.231203,0.177101,0.819948,0.618049,-0.784466,0.051266
-0.285334,0.116156,0.779236,0.065708,-0.997838,0.001430
0.576506,-0.559075,0.762077,-0.692314,0.652623,-0.307872
0.102336,-0.825070,0.769649,0.268388,0.962099,0.048316
0.523968,-0.132476,0.825929,0.894277,0.378167,0.239288
0.811161,-0.500562,0.681966,-0.598166,0.791979,-0.122340
0.035292,-0.123969,0.749293,0.928720,0.193719,0.316153
-0.338849,-0.656218,0.752981,0.339138,0.585063,0.736673
0.718647,-0.323119,0.589383,0.364063,0.928144,0.077509
0.011852,-0.424516,0.793692,0.971396,0.083008,0.222486
0.313994,0.286746,0.796330,0.318308,-0.883589,-0.343439
0.304973,0.233441,0.268973,0.202727,0.978812,0.028784
0.434369,-0.371039,0.625210,-0.504080,-0.580670,-0.639317
-0.489914,0.583992,0.666380,-0.033000,-0.808746,0.587231
0.252786,-0.628700,0.864199,0.394430,0.841349,0.369536
0.297453,0.334145,0.962829,-0.795875,0.102577,-0.596709
-0.218997,0.639988,0.853316,0.850538,0.504239,0.149424
-0.329558,0.187518,0.814719,0.012832,-0.735057,0.677884
0.005396,0.256620,0.603396,0.812408,0.582907,-0.014609
0.565277,-0.060075,0.624948,0.782166,0.554777,-0.283616
0.203876,0.252887,-0.044620,0.764826,-0.644155,0.010257
-0.674952,0.711001,0.708762,-0.079011,0.991500,-0.103368
0.200335,0.261394,-0.168900,0.233950,-0.965287,0.116138
0.218646,-0.523569,0.949914,0.915311,-0.098137,-0.390608
0.323900,0.730966,0.618966,0.528877,0.819063,0.222317
-0.428798,-0.450993,0.744114,0.992294,-0.005865,0.123768
0.416414,-0.912665,0.784055,-0.595982,-0.733014,0.327866
0.596588,-0.292211,0.795478,0.997123,-0.065623,0.037940
-0.125863,-0.666116,0.893732,0.171656,-0.983976,-0.048224
-0.220325,-0.853545,0.738853,0.922617,-0.385710,-0.002386
0.499383,-0.230922,0.668740,0.912735,0.381609,-0.145906
-0.321865,0.436931,0.864264,0.836323,0.422236,0.349685
-0.164780,0.343955,0.846596,0.204970,-0.159476,0.965689
0.693523,-0.460716,0.623784,0.356046,0.797571,0.486941
0.040864,0.136471,0.705304,0.601680,-0.662567,0.446078
0.122500,0.246722,-0.404659,0.967194,0.061821,0.246403
-0.117727,-0.496310,0.843335,0.790791,-0.380660,-0.479320
-0.106936,-0.044187,0.857676,0.774104,-0.454666,0.440501
-0.304795,-0.148798,0.930591,0.679042,0.648740,-0.343567
0.101715,0.351506,0.928379,-0.002592,-0.999800,0.019820
-0.307181,-0.167028,0.646762,0.431424,0.887271,0.163168
0.215461,0.387447,0.855004,0.702876,-0.704330,0.099421
0.560678,-0.202707,0.770583,0.593359,0.585118,0.552776
0.722805,-0.239863,0.631667,0.194983,-0.852184,0.485555
-0.240494,0.402988,0.608477,0.508501,-0.617057,0.600556
-0.341235,0.684349,0.665315,0.412642,0.370303,-0.832227
0.581375,-0.876465,0.710762,0.750252,0.453774,-0.480844
0.414028,0.085164,0.443928,0.907925,-0.278424,-0.313292
0.565277,-0.276151,0.804066,0.959646,-0.276220,-0.052745
0.454802,-0.758832,0.855660,0.921035,-0.215538,0.324405
-0.805326,0.760310,0.757308,-0.548838,0.767799,-0.330547
-0.575091,-0.617066,0.881211,0.752605,0.622159,0.215647
-0.653634,0.188559,0.917792,0.266302,0.630568,0.729018
-0.447018,-0.004947,0.922495,0.102481,0.490382,0.865461
-0.523261,0.018666,0.868919,0.864622,0.135510,0.483804
0.082610,-0.493618,0.926019,0.329477,-0.629650,0.703552
0.167258,0.167985,0.472724,-0.347770,-0.826949,-0.441826
0.155668,0.752757,0.584302,-0.745239,0.171546,-0.644353
0.203433,0.251671,-0.038474,0.774446,-0.632535,0.011531
0.141076,0.133694,0.239160,0.491410,-0.867533,0.076824
-0.418628,-0.308881,0.724054,-0.882741,-0.154939,-0.443579
0.457988,0.371649,0.454909,0.840882,-0.066894,-0.537068
0.138690,0.145500,0.548361,0.823982,0.408092,0.393085
0.135769,0.242383,-0.496390,-0.516286,0.855106,-0.047350
-0.457281,0.114333,0.868148,0.510126,-0.301235,0.805624
0.074032,0.406721,0.916300,0.765721,-0.374888,0.522618
-0.685474,0.021183,0.938704,0.078476,0.910078,0.406938
-0.182914,0.734787,0.872918,0.155002,-0.927991,0.338832
0.446753,-0.046097,0.645172,-0.226251,0.517562,0.825191
0.056870,0.500652,0.943801,-0.604605,0.050238,-0.794940
-0.114985,0.341783,0.843007,0.730260,0.199063,0.653524
-0.170087,0.154788,0.772845,0.399448,-0.915417,0.049532
-0.025651,-0.353935,0.957126,-0.014978,0.452840,0.891466
0.230496,0.966926,0.637207,-0.445070,-0.324096,0.834790
0.066868,-0.649796,0.892404,-0.242989,-0.917236,0.315648
0.496284,0.643112,0.929149,0.938979,0.256533,-0.229149
1.000000,-0.846773,0.767535,-0.705063,0.701337,-0.104934
0.370775,0.165293,0.433259,0.915198,0.394887,0.080478
-0.038300,-0.328499,0.875343,-0.716705,0.682717,-0.142238
0.106844,0.377986,0.793987,0.716003,0.436767,-0.544587
-0.495934,-0.774026,0.791774,0.622292,-0.711378,-0.326640
0.278877,0.230750,0.215363,-0.264360,0.964420,0.002870
-0.304795,0.621756,0.629438,-0.439653,0.502769,-0.744264
-0.083852,-0.178921,0.921856,0.723210,-0.148744,0.674420
0.626307,-0.405764,0.634552,0.984939,0.134246,-0.108961
0.685388,-0.576524,0.667773,-0.683281,0.315439,0.658502
0.211126,-0.469311,0.892650,0.816560,0.558646,-0.145413
0.456309,0.094974,0.636420,0.859659,0.459217,-0.223847
0.213782,0.265909,-0.233949,-0.289891,0.941836,0.170022
0.531574,-0.164596,0.521646,0.619142,0.722545,0.307559
0.506369,-0.646845,0.747179,0.806082,-0.473323,0.355242
0.063769,0.470874,0.706353,-0.590041,0.382465,-0.711036
0.283741,0.094452,0.774451,0.966009,0.093295,0.241087
-0.180701,-0.925255,0.735526,-0.765699,0.607081,0.212503
-0.834159,0.639119,0.678721,0.638663,0.261217,0.723792
0.203698,-0.616460,0.899190,-0.468197,-0.871150,0.147951
-0.631435,-0.090457,0.930510,-0.518250,-0.218586,0.826823
0.535823,-0.219116,0.641403,0.901883,0.398620,0.166463
-0.236337,0.661170,0.870344,0.470227,0.649577,0.597441
0.648241,-0.597708,0.686866,0.891672,-0.356643,-0.278794
0.286575,0.321555,0.795888,0.436039,-0.897139,-0.070790
-0.310545,-0.464362,0.904385,0.928931,-0.243618,0.278814
0.320272,0.310791,0.782613,0.625883,-0.728196,0.279286
-0.183000,0.400036,0.874524,-0.833893,0.251679,-0.491203
-0.534851,0.053043,0.878146,0.793088,0.541138,0.279608
0.173180,0.174409,0.388221,0.943498,-0.328633,0.042569
-0.398729,-0.174406,0.920643,0.257666,0.632354,-0.730573
-0.668318,-0.030037,0.769862,-0.078727,-0.320900,0.943835
0.030428,-0.546661,0.839484,0.808124,-0.487714,-0.330258
-0.556963,0.056429,0.717515,0.276364,0.708413,0.649442
-0.009817,0.575573,0.852070,0.209815,0.800096,0.561982
0.492041,-0.136730,0.514369,-0.638073,-0.694067,-0.333366
-0.852201,0.735046,0.753571,-0.553605,0.796702,-0.242460
0.267821,0.786268,0.742639,0.315802,-0.948089,-0.037379
0.547057,-0.409322,0.866559,0.685775,0.690571,0.229836
-0.007517,-0.494660,0.810278,0.337158,0.893902,0.295404
-0.284098,-0.215643,0.934443,0.599262,-0.548921,-0.582727
0.006017,0.172671,0.725709,0.997219,-0.054931,0.050358
-0.020695,-0.283792,0.931263,-0.598894,-0.730611,-0.327921
-0.616838,0.693031,0.757668,-0.331470,0.816477,-0.472750
0.636656,0.069191,0.734494,0.997719,-0.003209,-0.067422
0.184944,-0.085943,0.741164,0.908576,-0.233052,0.346665
-0.011232,0.540845,0.800805,0.493535,0.829126,-0.262628
0.588981,-0.287003,0.600790,0.947939,0.273793,-0.162631
0.269856,0.181440,0.361392,-0.210246,0.977647,0.001738
0.410400,0.300374,0.800739,0.579715,0.701358,-0.414762
0.265348,0.203578,-0.182290,0.829757,-0.553631,0.070686
-0.099594,0.388663,0.755046,0.724356,0.220113,0.653344
-0.231646,0.018144,0.892257,0.066070,0.995445,-0.068736
-0.076418,0.292214,0.732937,0.970367,0.233351,0.062735
-0.277906,0.296206,0.859183,0.998580,-0.048615,0.021764
0.655669,-0.459066,0.662709,0.989734,0.035165,-0.138525
0.195384,0.160953,-0.147331,0.788901,-0.614514,-0.002599
0.754466,-0.784096,0.722382,0.987393,0.089736,-0.130392
0.588539,-0.065718,0.804033,0.684808,0.707950,0.172755
-0.293917,-0.460369,0.914071,-0.772540,0.439527,-0.458256
0.410492,0.179271,0.458351,0.943761,0.329013,0.032641
0.803819,-0.493706,0.652482,0.908136,0.213197,-0.360329
0.226960,0.085773,-0.934164,0.869423,0.491225,-0.052927
0.534759,-0.467488,0.916644,0.797360,-0.106621,-0.594011
0.595347,0.241514,0.491441,-0.778716,0.627324,-0.008158
-0.237838,0.278498,0.898714,-0.599959,0.637535,0.483320
0.205733,0.241601,0.341348,-0.202262,-0.977795,-0.054841
0.141696,0.361144,0.860658,0.872472,-0.472169,0.125895
-0.329472,0.042539,0.711975,-0.227220,0.581773,-0.780968
0.114985,0.150968,0.239423,-0.761519,0.615577,-0.202865
0.002124,-0.676099,0.763388,0.248388,0.851913,0.461029
-0.142933,0.525307,0.759078,0.959349,0.243345,-0.142945
0.110207,-0.581385,0.888504,0.414663,-0.874079,-0.253062
0.300374,0.037243,0.692619,-0.566316,0.725697,-0.390704
0.025915,0.095669,0.828798,0.972951,-0.118200,-0.198484
-0.249601,0.659866,0.808852,0.840462,-0.537487,0.068785
-0.601010,0.638078,0.682441,-0.685098,0.145599,-0.713752
0.260922,-0.000780,0.527759,-0.622808,0.200689,0.756197
-0.366710,0.394393,0.880571,0.991354,0.130169,0.016504
0.466123,-0.126051,0.649057,0.930990,0.307742,0.196350
0.113301,0.133607,0.648876,-0.766077,0.582743,-0.271177
0.399700,-0.534855,0.828339,0.383410,0.390272,-0.837069
0.217939,0.264433,0.060829,-0.115210,0.990670,0.072797
-0.682645,-0.617066,0.884046,0.510573,0.311604,0.801385
-0.323458,-0.163033,0.644222,0.397397,0.906897,0.140050
-0.291348,0.291345,0.892732,-0.204330,-0.296987,0.932764
0.171237,-0.472262,0.943768,-0.327652,0.905543,-0.269510
0.591281,-0.376683,0.845449,0.715251,0.668747,0.202961
0.818589,-0.605346,0.733101,0.877621,0.458904,-0.138522
0.265348,0.369304,0.817882,-0.217424,-0.973141,0.075654
0.314610,0.775154,0.733822,0.582226,-0.781823,0.223083
-0.171766,0.660648,0.887111,-0.270010,0.793584,0.545270
0.554928,0.203838,0.658759,0.074782,0.124236,0.989431
0.265521,0.230056,0.265695,-0.435471,0.899656,-0.031381
0.272955,0.232488,0.245487,-0.738461,0.600198,0.307308
0.009110,0.451603,0.943605,-0.744079,0.080025,-0.663281
-0.295332,0.222937,0.879539,0.973172,-0.165517,0.159812
-0.624536,0.608300,0.686408,0.796447,-0.160840,0.582926
-0.406508,-0.281100,0.981792,-0.155406,-0.860947,0.484375
0.713336,-0.648927,0.702502,-0.678714,-0.720121,0.144127
0.657618,-0.325807,0.773615,-0.332459,-0.271761,0.903115
-0.226960,0.390313,0.672116,0.804363,0.525917,-0.276428
-0.519811,0.581910,0.659119,-0.226440,-0.857402,0.462154
0.253493,0.217034,-0.196073,0.193004,0.980680,0.031881
0.502919,-0.679919,0.866263,-0.592801,0.761763,-0.261350
0.038121,0.803804,0.659333,-0.707962,-0.549894,-0.443178
0.203077,0.269382,0.899517,-0.206046,-0.648756,0.732571
0.503713,-0.106520,0.782973,-0.039955,-0.691297,0.721465
-0.201134,0.119889,0.781892,-0.401367,0.889616,-0.217917
0.070140,-0.561507,0.855021,-0.439679,0.724523,0.530800
0.437911,0.348729,0.799018,-0.516023,0.856574,0.000401
0.253051,0.130134,0.248207,0.959797,-0.023820,-0.279682
0.220411,0.297248,-0.308750,-0.465827,0.872448,0.147780
-0.184507,-0.189251,0.966009,0.858552,-0.466784,0.212132
-0.083760,-0.409410,0.904860,-0.525990,0.805515,0.272910
0.359897,0.255839,0.559882,0.840548,-0.509819,-0.183206
0.646470,-0.737563,0.722071,-0.364626,-0.776652,-0.513673
0.362375,0.329196,0.786235,0.754925,0.178894,-0.630939
0.164958,-0.535549,0.923052,-0.076967,0.995160,0.061091
0.366003,0.201321,0.339397,-0.229319,0.970112,-0.079344
0.483728,0.570449,0.791430,0.958478,0.134421,-0.251498
0.443126,0.060075,0.770567,0.041648,0.998925,0.020339
-0.508404,-0.456202,0.796937,0.989741,0.141884,0.016774
0.150539,0.116678,0.573272,0.693038,0.716500,-0.079532
0.022822,0.017103,0.916071,0.724116,-0.633667,0.272254
-0.743411,0.171543,0.841794,0.727731,0.530321,-0.434933
0.290640,-0.376420,0.775205,0.935393,0.323975,0.141706
-0.366710,0.205923,0.887701,0.804892,0.289410,-0.518064
0.000532,-0.290389,0.805984,0.988902,-0.132458,-0.067289
0.363789,0.389272,0.817735,-0.554892,0.831918,-0.002706
-0.361404,-0.255577,0.987102,-0.297061,0.799178,-0.522560
0.271805,0.641811,0.862871,0.792514,-0.514767,0.327011
0.165930,0.169285,0.224459,-0.555491,0.775938,0.298915
0.369539,-0.653267,0.852890,0.418308,0.860589,0.290527
0.655847,-0.204185,0.522253,-0.378534,-0.207352,0.902062
-0.109851,0.287525,0.860413,0.480468,0.492969,-0.725350
0.040335,-0.327286,0.720940,0.856410,-0.001995,0.516293
-0.363876,0.379549,0.879424,0.979064,0.198632,0.044480
0.058905,-0.467576,0.950144,-0.641942,-0.735831,0.215552
0.770122,-0.822553,0.735854,0.909996,-0.062040,-0.409949
0.110472,-0.838614,0.758914,0.037572,0.730477,0.681903
0.136740,0.307668,0.830682,0.719647,-0.693548,-0.033158
0.516361,-0.127267,0.510862,-0.689425,-0.620171,-0.374274
-0.615694,0.098273,0.796068,-0.635061,0.364719,0.680939
0.289140,-0.650143,0.894109,0.855506,0.415757,0.308634
0.712364,-0.441792,0.834550,-0.656634,-0.599025,-0.458258
-0.495135,0.104610,0.823455,0.440885,-0.820106,0.364756
0.247215,0.188037,0.260352,0.931949,-0.007375,-0.362515
-0.073946,0.306539,0.814064,-0.636021,0.592454,-0.494444
0.312930,-0.135949,0.820128,-0.207124,-0.963483,-0.169704
-0.589689,-0.225191,0.842810,0.967072,-0.147166,0.207637
0.708385,-0.615678,0.691718,0.877737,0.131165,-0.460840
0.187157,0.682091,0.938721,0.622303,-0.660404,-0.420244
-0.762338,0.696764,0.763027,0.328228,0.905523,-0.268876
0.359719,-0.042624,0.542526,-0.694113,0.318907,0.645373
-0.052006,0.753017,0.882554,0.209773,0.881146,-0.423766
0.805676,-0.728275,0.724021,-0.460379,0.661139,0.592407
0.198478,0.227973,0.453155,0.330552,0.926302,-0.180832
-0.004597,0.603785,0.840483,0.827616,0.549515,0.114390
0.201042,0.222590,0.434291,-0.726716,-0.602647,-0.329698
-0.505926,-0.486412,0.839680,-0.667310,0.730666,0.144308
0.534317,-0.230228,0.536200,0.741767,0.644277,0.186251
0.037500,0.132650,0.340364,-0.658107,0.752858,0.010017
0.391829,0.205923,0.456958,0.920279,0.386774,0.059102
-0.678310,0.175710,0.765961,0.793604,-0.604541,-0.068718
0.156467,0.978471,0.742639,0.911309,0.005239,-0.411689
0.181764,-0.800938,0.841778,-0.028021,0.998365,0.049815
0.438882,0.303672,0.879326,-0.001948,0.988651,0.150217
0.564834,-0.345863,0.696602,0.899388,0.400362,0.175531
0.183621,0.457418,0.549951,0.826402,0.489570,0.278175
-0.776935,0.129527,0.764716,0.419978,-0.550635,-0.721401
0.407658,0.207224,0.528038,0.966177,0.257552,0.012988
0.301432,-0.696326,0.899206,0.987357,-0.058399,0.147362
0.240936,0.480512,0.530480,-0.389400,0.921039,-0.007474
0.268264,0.577308,0.791414,0.719017,0.486487,-0.496332
0.630728,-0.033770,0.505224,0.639524,0.762606,-0.097163
0.135413,0.246985,0.341872,-0.165959,0.985811,-0.025172
-0.304531,0.116418,0.797412,-0.283425,-0.906130,-0.314003
0.581812,0.227711,0.654875,0.248542,-0.011438,-0.968554
0.252786,-0.421218,0.834124,-0.135586,0.990588,0.018754
0.633292,-0.130393,0.727922,0.959510,0.257528,-0.114101
0.227845,0.179096,0.060403,-0.675605,-0.726210,-0.127191
0.396073,-0.213211,0.847596,0.778250,0.524585,-0.345164
0.397309,0.439535,0.930083,0.965928,-0.257698,-0.023984
0.355033,0.342217,0.955946,0.509731,-0.855102,0.094738
0.398551,0.197935,0.576943,0.762690,-0.631278,0.140685
0.532994,-0.454379,0.911924,0.613938,-0.066634,-0.786537
0.224747,-0.569492,0.957978,0.609238,0.447061,-0.654954
-0.571820,-0.152703,0.899944,0.444703,0.734302,0.512875
-0.937999,0.610816,0.699552,-0.835619,0.546410,-0.056357
0.916415,-0.573747,0.686490,-0.503024,-0.591052,0.630574
-0.107643,-0.642937,0.864657,0.794004,-0.600318,0.095793
-0.089510,-0.528952,0.810524,0.438618,-0.704414,-0.558045
0.567307,0.061378,0.515844,0.698001,0.619416,-0.359331
-0.033436,0.014846,0.409199,-0.904856,0.402307,-0.139229
0.370424,0.634518,0.643009,0.836467,0.519632,-0.174087
0.344506,0.230837,0.409625,0.852114,0.518987,-0.067484
-0.264194,0.355848,0.601380,0.465149,-0.630292,0.621586
0.485671,-0.278061,0.855021,0.600497,0.722525,0.342580
0.072353,-0.027173,0.680163,-0.389162,-0.805021,-0.447766
-0.293917,-0.125185,0.949423,0.734170,0.670277,-0.108270
0.580933,-0.364615,0.942113,0.566050,0.817378,0.107151
0.169731,0.526523,0.898288,0.531280,-0.458057,0.712689
0.143996,0.198629,-0.265908,0.880166,-0.461716,-0.110117
0.048913,0.275460,0.542379,0.022870,-0.895741,0.443988
0.450289,-0.100530,0.744507,-0.618344,0.482788,-0.620134
0.222182,0.998439,0.635109,0.512192,0.521110,-0.682718
0.388822,0.089506,0.424458,0.908600,-0.190924,-0.371476
0.842737,-0.564543,0.757177,-0.602791,-0.470913,-0.644115
-0.644878,0.202102,0.909892,-0.017248,0.965316,0.260514
0.432955,-0.015712,0.634142,0.875135,0.013871,0.483680
-0.338406,0.268513,0.914513,0.984380,0.102844,-0.142894
0.374317,0.085426,0.693029,-0.625406,0.775089,-0.090027
0.526003,-0.541539,0.900255,0.996532,-0.078977,-0.026204
0.585883,-0.516797,0.700814,0.374776,0.777707,-0.504693
0.039007,-0.302716,0.913268,0.995284,-0.063148,0.073642
0.121792,-0.493012,0.957683,0.455741,0.884199,0.102433
0.032194,-0.400121,0.737149,0.991091,-0.021642,0.131415
0.349284,0.212692,0.374487,0.059667,-0.983381,0.171472
0.460730,-0.210088,0.714941,-0.667524,0.732348,-0.134455
0.400051,0.191251,0.697421,-0.654673,0.755169,-0.033518
0.186185,0.125185,-0.617015,0.748336,0.549256,-0.371900
0.582962,0.278498,0.821537,-0.677053,0.330514,0.657541
0.075803,0.189081,0.522318,0.576345,0.816484,0.034365
0.583761,-0.413402,0.622293,-0.772814,0.504805,0.384618
0.577218,-0.028214,0.726758,0.951469,0.234581,-0.199193
0.778792,-0.649881,0.711582,-0.754407,-0.426310,0.499130
0.067219,-0.253929,0.858151,0.734278,-0.616188,-0.284866
0.329471,-0.093236,0.556686,0.754430,0.565328,0.333526
-0.320451,-0.425382,0.932935,-0.494954,0.680380,-0.540466
-0.525382,0.637381,0.676295,-0.540629,-0.812987,0.216271
0.164694,0.197760,0.447616,-0.613694,-0.789516,0.006711
0.069254,0.155570,0.666314,-0.197743,0.977575,-0.072420
-0.210333,-0.246982,0.867837,-0.429976,-0.660780,-0.615216
-0.281884,-0.410104,0.906679,0.974634,-0.129388,0.182614
-0.458959,-0.148711,0.917496,0.105795,-0.916656,0.385422
-0.336106,-0.214427,0.671329,0.937428,-0.345901,0.039775
0.029451,-0.628874,0.850808,0.973102,0.191106,0.128651
0.499205,-0.767601,0.635765,-0.702817,-0.206312,-0.680796
0.621707,-0.137859,0.815178,0.649469,0.558825,-0.515660
0.180436,0.381457,0.851366,0.861042,-0.422638,0.282814
