-0.515476,-0.342794,-0.111030,0.979436,-0.181257,-0.088601
-0.383812,-0.390973,0.424187,0.870992,0.479755,-0.105866
-0.511114,-0.535627,-0.991651,-0.075491,0.298569,0.951398
-0.438583,-0.430088,0.077043,0.856218,0.422271,0.297621
-0.458044,-0.619462,-0.568740,0.855411,-0.503688,0.120709
-0.020417,0.508676,0.887457,0.792740,0.508036,-0.336841
-0.443581,-0.430565,0.083600,0.557341,0.829121,-0.043927
-0.136873,0.043229,0.945258,-0.339161,0.648076,0.681885
-0.316286,-0.409218,0.441020,0.870488,0.436500,-0.227417
0.235135,0.017709,0.948233,-0.015220,0.402753,0.915182
-0.423693,-0.369268,0.782705,-0.371388,-0.905693,0.204429
-0.362333,0.515831,0.927292,0.122673,0.742278,0.658767
-0.492505,-0.503786,0.320534,0.918354,-0.374230,0.128753
-0.440926,-0.356866,0.068440,0.947126,-0.050226,0.316907
-0.505798,-0.614931,-0.855903,-0.598194,0.792240,-0.120500
-0.621611,-0.679924,0.766075,-0.793914,0.570130,0.211308
-0.349039,-0.269930,0.598841,0.142439,0.987725,-0.064114
-0.428801,-0.437004,0.761917,0.916907,-0.198069,0.346484
-0.346060,-0.264802,-0.490033,0.704561,0.365100,-0.608519
-0.355316,0.218532,0.765652,0.455916,0.466178,-0.758168
-0.291821,-0.377258,0.896871,0.568322,0.397723,-0.720296
0.300013,0.062310,0.852590,-0.701201,-0.657459,0.275798
-0.330215,-0.422217,-0.653802,0.707399,0.703468,0.068698
-0.476867,0.370461,0.904189,0.829550,0.545028,-0.121620
-0.734769,-0.745275,0.629837,0.895195,0.431370,-0.112005
-0.679252,-0.437839,0.875559,-0.737336,-0.200284,0.645153
-0.269913,-0.564367,-0.750611,0.888980,0.434249,-0.145402
-0.204614,0.360801,0.805606,0.170603,0.890405,0.421987
-0.478574,0.499135,0.879057,0.004213,-0.924289,0.381670
-0.523454,-0.367003,-0.379670,0.613159,-0.513708,0.600116
-0.210040,-0.380717,0.457059,-0.204745,-0.975188,0.084196
0.109858,-0.288176,0.913569,0.440507,-0.828739,0.345174
-0.391257,0.399678,0.841182,0.153865,-0.870126,-0.468196
-0.592577,-0.262537,0.847808,0.298017,-0.898102,-0.323416
0.011486,-0.300817,0.913924,0.332835,0.531854,0.778686
-0.265026,-0.323714,0.626119,0.695801,0.703887,-0.142843
-0.303310,-0.147576,0.679407,0.270952,0.873712,-0.403996
-0.586624,-0.373919,-0.429375,-0.663344,0.741790,-0.098599
-0.622994,-0.296047,0.911760,0.108497,-0.834879,0.539635
-0.325964,-0.406118,0.105960,0.980993,-0.186804,-0.052505
-0.525258,0.800370,0.803477,-0.713498,0.599278,0.363025
-0.486870,-0.276251,-0.143024,0.720423,-0.693170,0.022498
-0.544718,-0.647010,-0.790345,0.944095,0.292554,0.151978
-0.371901,0.496393,0.836061,0.168630,-0.467101,0.867975
-0.453895,-0.390495,-0.593635,0.650426,-0.720056,-0.241795
-0.250668,-0.145787,0.720764,0.938926,0.343688,0.017237
0.052535,-0.524417,0.903733,-0.627385,0.778488,-0.018546
-0.515158,-0.540874,-0.291515,-0.577199,0.485488,0.656614
-0.575986,-0.629122,0.574199,0.812939,-0.545325,0.204331
0.145695,-0.106553,0.935946,-0.043874,0.957673,0.284496
0.021697,-0.281856,0.845340,0.700494,0.713434,-0.017905
-0.445178,-0.331107,0.483188,0.872480,-0.474536,-0.116593
0.280656,0.219367,0.874849,0.106977,-0.922286,0.371408
0.344249,0.217936,0.886680,-0.170627,0.951653,-0.255426
-0.525369,0.395504,0.847182,0.213588,-0.163749,0.963103
0.103263,-0.448691,0.857627,0.866253,0.010410,-0.499497
-0.510050,-0.299744,0.082282,0.581584,0.513758,0.630723
-0.553014,-0.782243,-0.982863,-0.081382,-0.034106,0.996099
-0.470169,-0.432592,0.299188,-0.378043,-0.895028,-0.236662
-0.454642,-0.339217,-0.676483,0.997760,0.011051,-0.065977
-0.404233,-0.388707,-0.660867,-0.389255,0.921030,0.013583
-0.483994,-0.717131,0.405647,0.154175,-0.760223,0.631104
-0.502929,0.701628,0.799319,0.966919,0.010270,-0.254878
-0.490486,-0.199094,0.884161,-0.034880,-0.904709,0.424601
0.265130,-0.432353,0.838292,0.398573,0.625147,-0.671066
-0.608953,-0.691849,0.804355,0.961045,-0.265773,-0.075876
-0.009999,-0.149961,0.958711,-0.293225,0.857250,-0.423251
-0.448794,-0.268618,0.833222,0.911767,-0.287438,-0.293360
-0.355102,-0.355673,0.468045,-0.161809,-0.662436,0.731435
-0.511114,-0.431638,-0.449673,-0.200478,0.979694,0.002892
-0.406894,-0.449287,0.231128,-0.053630,-0.995418,0.079160
-0.434650,-0.231888,0.587551,-0.068077,0.996143,-0.055362
-0.556103,-0.180848,0.880139,0.118718,-0.919124,0.375657
0.174839,-0.019259,0.945833,-0.169599,-0.969124,0.178985
0.156548,-0.400036,0.785055,0.381919,-0.806947,-0.450526
-0.016270,-0.431638,0.918876,0.310079,0.215744,-0.925908
-0.396366,-0.351142,-0.555726,0.801165,0.590115,-0.099496
-0.004787,-0.381313,0.923574,-0.540222,-0.242464,0.805836
-0.436136,-0.282690,-0.332111,0.061405,-0.990648,0.121844
-0.480483,-0.616719,-0.950278,0.279159,0.921378,-0.270429
-0.479529,-0.734423,-0.654292,0.999549,0.020108,0.022291
-0.351272,-0.428895,0.100450,-0.106216,0.973227,-0.203834
-0.428691,-0.455369,0.467098,-0.730191,-0.680181,-0.064617
-0.798044,-0.641524,0.668861,0.935393,0.353450,-0.010646
-0.341166,-0.343033,0.929354,0.366084,0.509115,-0.778964
0.064446,0.308211,0.904933,-0.145204,-0.798747,0.583883
-0.343723,-0.452507,0.907011,0.917001,0.388740,-0.089389
-0.453792,-0.153658,0.846101,0.994453,0.001390,0.105175
-0.134848,0.504263,0.840591,0.945122,0.224744,-0.237137
0.089651,0.192892,0.835318,-0.636226,-0.575077,0.514299
-0.924282,-0.362829,-0.209343,-0.678940,0.629042,-0.378612
0.202595,-0.224256,0.811403,-0.207599,-0.893689,-0.397772
-0.136873,-0.060760,0.748650,0.960572,-0.258457,-0.102480
-0.780181,-0.702224,0.694432,0.287312,-0.855718,0.430348
0.511433,-0.370580,0.822693,0.612545,-0.431691,-0.662142
0.344145,-0.278397,0.845086,0.098533,-0.208755,0.972992
-0.202381,-0.389899,0.913856,0.686223,0.670305,-0.282472
-0.362333,-0.455966,0.316173,0.509123,-0.855972,0.090027
-0.493569,-0.579989,-0.926464,0.221831,-0.974899,-0.019061
-0.391257,-0.338739,-0.049021,0.047501,0.862299,0.504167
-0.676597,-0.447379,0.799556,-0.436528,0.362686,-0.823348
-0.429333,-0.378570,-0.188656,0.298024,0.945478,-0.131352
0.397638,-0.234273,0.873649,-0.084018,-0.996446,-0.006032
-0.322134,-0.538012,0.889451,0.791113,0.363091,-0.492245
-0.526219,0.167730,0.873649,0.388307,-0.861768,-0.326456
-0.439226,-0.326337,0.403061,0.948150,0.258212,0.185305
0.152400,0.021048,0.860145,-0.490411,0.087813,0.867056
-0.765823,-0.418282,-0.290856,0.668148,-0.641959,0.376120
-0.169627,0.601693,0.828388,0.262382,-0.451847,0.852637
-0.474745,-0.265995,-0.067426,-0.650363,-0.741574,0.164605
-0.732958,-0.436647,0.840760,-0.681019,0.249129,0.688584
-0.369136,-0.128615,0.923084,0.235693,0.616366,0.751360
-0.477082,-0.354123,-0.326888,0.330494,-0.825087,-0.458264
-0.179623,0.112754,0.878432,-0.658391,-0.690953,-0.298504
-0.265662,-0.457754,-0.358983,0.372479,-0.778513,0.505151
-0.062109,-0.032974,0.959472,0.840660,0.506804,0.190895
-0.153250,0.019975,0.857441,0.999063,-0.043229,-0.002147
-0.458790,-0.503906,-0.746892,0.668012,-0.742679,0.046769
-0.684036,-0.774134,0.723214,-0.092514,0.995700,-0.004662
-0.392218,-0.403971,-0.609590,-0.352938,-0.047665,0.934432
-0.038820,-0.224852,0.848467,0.878852,0.140061,0.456073
-0.486656,-0.424006,0.198121,0.770839,-0.600443,-0.212781
-0.528874,-0.592153,-0.827679,-0.644050,0.751960,-0.140556
0.096882,-0.171427,0.898561,0.996894,0.063353,0.046785
-0.554929,0.284241,0.889772,-0.605373,-0.293215,0.739966
-0.164629,-0.368314,0.658011,0.940880,0.336515,0.038775
-0.824209,-0.592272,0.734859,0.952550,-0.265923,0.148101
-0.460283,-0.232962,0.862579,-0.439920,0.666148,-0.602260
-0.305543,-0.235943,-0.318759,-0.376125,0.925935,-0.034270
-0.473252,-0.415777,-0.252237,0.873541,0.419627,0.246656
0.285544,-0.024387,0.961821,-0.237135,-0.922196,-0.305485
0.149843,-0.466341,0.900234,-0.582777,-0.812411,-0.018968
0.001276,-0.409099,0.874849,0.721615,0.666435,-0.187448
-0.433053,0.192892,0.764250,0.124880,-0.904456,0.407877
-0.791131,-0.647248,0.660242,0.950845,0.308787,-0.023345
-0.429223,-0.241667,-0.030650,-0.416840,0.829045,0.372732
0.026909,-0.125991,0.928813,0.874581,0.387180,-0.291891
-0.473362,-0.723451,-0.634197,0.957503,-0.063795,-0.281281
-0.510050,-0.649514,-0.870066,-0.129252,-0.988075,0.083682
-0.326600,-0.540516,0.912825,-0.292006,0.166332,0.941842
-0.391153,0.093435,0.900335,-0.847649,0.270940,-0.456160
-0.331066,-0.154493,-0.474163,0.917133,-0.388824,0.087656
-0.238010,-0.480890,-0.016149,0.837471,0.539620,-0.086331
0.117621,0.580466,0.905524,0.112762,-0.286681,0.951367
-0.408062,-0.408503,0.415787,-0.593757,0.760881,-0.261750
-0.481548,-0.564248,0.322832,0.781163,0.578891,0.233815
-0.508881,-0.719993,0.894589,-0.375098,0.901689,-0.215077
-0.424868,-0.514161,-0.764233,-0.152044,-0.179342,0.971967
-0.611933,-0.309522,0.099673,-0.113918,-0.988223,0.102166
-0.411892,-0.492457,-0.575298,0.680209,-0.732530,0.026759
-0.534722,-0.620535,-0.863982,0.873581,-0.461694,0.153929
0.739768,0.442371,0.783162,0.913522,0.301262,-0.273348
-0.353934,0.265041,0.921597,0.893348,0.164449,0.418194
-0.453792,-0.739193,-0.962024,-0.577454,0.472649,-0.665695
-0.386369,0.397293,0.830839,0.241732,0.768191,-0.592830
-0.365416,-0.328364,-0.278028,0.933702,0.350452,0.073372
0.020528,-0.080436,0.987882,0.553502,-0.724241,-0.411230
0.071677,0.181921,0.839053,0.480365,0.776872,-0.407087
-0.398066,0.275058,0.750120,0.054282,-0.803764,0.592466
-0.367863,-0.337308,0.057455,-0.483469,-0.715758,-0.503932
-0.348929,-0.362829,0.074710,0.289131,0.904428,0.313708
-0.482294,-0.473496,0.210171,0.849792,0.475306,0.227898
0.203549,-0.346729,0.896550,0.663020,0.620727,-0.418453
-0.018613,-0.341244,0.819989,0.816208,0.576592,-0.036686
-0.454006,-0.464790,-0.778700,-0.613788,0.788984,0.027713
-0.496224,-0.743844,0.393292,0.321313,0.925670,0.199730
-0.360522,0.421621,0.871334,0.096853,-0.828530,-0.551504
-0.711051,-0.344106,-0.243280,-0.221243,0.909148,-0.352848
-0.548126,-0.503548,0.643831,0.924832,-0.370214,0.087334
-0.456986,-0.339932,-0.039016,-0.354495,0.933539,-0.053283
-0.382754,0.281617,0.867598,0.753768,0.397494,-0.523290
-0.409341,-0.517620,-0.993155,-0.043307,0.070154,0.996596
-0.314578,-0.763043,-0.494241,0.859102,0.245198,-0.449245
-0.375095,-0.326337,-0.501796,0.254517,0.870198,-0.421874
-0.511543,-0.284360,-0.097493,0.890496,0.449217,-0.072258
-0.416572,-0.545167,-0.684444,0.206493,0.956685,-0.205217
-0.422842,-0.247868,-0.365676,0.129151,0.859891,-0.493870
-0.358718,-0.473257,0.747805,0.069955,0.905666,0.418182
-0.474212,-0.545883,-0.870844,-0.469591,0.880268,-0.067924
-0.165693,0.050385,0.762526,0.731676,0.502336,-0.460771
-0.512393,-0.461332,0.625950,0.912848,-0.408269,-0.005049
-0.436247,-0.423767,-0.519052,-0.067533,0.676268,-0.733554
0.373070,-0.091050,0.828439,-0.683318,-0.685961,0.250068
-0.525687,0.654880,0.849160,0.431176,-0.579587,-0.691496
-0.402318,0.338382,0.909969,0.619098,-0.483771,0.618614
0.011700,0.018902,0.777720,0.475901,-0.710589,0.518249
-0.613530,-0.743724,0.556200,0.986392,0.002504,0.164389
-0.603001,-0.663705,0.778767,0.688680,-0.696593,-0.201191
-0.366481,0.384414,0.874562,-0.304830,0.838881,0.450951
-0.405194,-0.418401,-0.236841,0.818234,-0.558134,0.137765
-0.380411,0.080913,0.905930,-0.165941,-0.001253,-0.986135
-0.504630,-0.587860,0.329069,0.318283,0.931620,0.175440
-0.398066,-0.751953,0.384267,-0.569478,-0.811536,-0.130781
-0.422421,-0.392523,0.792406,-0.783892,-0.612803,0.099929
-0.109007,-0.172739,0.788485,0.906856,0.140419,-0.397359
-0.501754,-0.513684,-0.568233,0.976598,-0.064991,0.205016
-0.517605,-0.591080,-0.991989,0.000241,0.414348,0.910119
0.552378,-0.508676,0.784700,0.785962,0.606282,0.121185
0.267363,-0.351857,0.898831,-0.712215,0.031435,0.701257
-0.362651,-0.327172,-0.292732,0.940959,0.326041,0.091070
0.350630,-0.071731,0.850376,0.686427,0.423972,0.590818
-0.452727,-0.288772,0.821324,-0.314991,0.440180,-0.840846
-0.131557,0.470157,0.833121,0.806428,0.391869,-0.442846
-0.625227,-0.709976,0.769759,0.846097,-0.532130,0.030951
-0.412210,-0.365095,0.878905,0.087904,-0.961370,-0.260845
-0.381047,-0.436527,0.903834,-0.622290,-0.501721,0.600859
-0.264702,-0.119313,-0.456282,-0.825520,0.547900,-0.135355
-0.466339,-0.333373,-0.547766,-0.457122,0.889399,0.002886
-0.206743,0.216743,0.890972,0.025643,-0.451087,0.892111
-0.447307,-0.356150,-0.603032,0.589287,-0.783491,0.197187
-0.326386,-0.255978,0.917811,0.910840,-0.301004,-0.282431
-0.439752,-0.464194,-0.743529,0.594747,-0.793278,0.130329
-0.003723,-0.109057,0.831363,-0.738641,0.673896,0.016549
-0.233434,-0.182875,0.717958,0.970050,0.224889,0.091807
0.169309,-0.316797,0.882488,-0.519482,0.348898,-0.780006
-0.840905,-0.607895,0.691981,0.866503,0.445333,0.225500
-0.376795,-0.336831,0.910104,0.399643,0.760308,0.512072
-0.235881,0.653688,0.893778,0.256797,-0.531713,-0.807054
-0.637352,0.376304,0.855413,-0.908614,0.413222,-0.060559
-0.402850,-0.429968,0.745625,-0.320918,0.620278,0.715728
-0.658305,-0.808121,0.701970,0.833550,-0.523299,-0.177069
-0.367013,-0.608014,-0.807262,0.811312,-0.006426,0.584578
-0.357224,-0.307614,0.511294,-0.510548,0.850423,0.126972
-0.156969,0.710810,0.841858,-0.340831,-0.912258,0.227201
-0.482826,-0.640689,-0.935963,0.863544,0.337673,0.374526
-0.624162,-0.270169,0.109746,-0.636224,-0.735855,-0.231811
-0.363502,-0.280186,-0.039438,-0.415532,0.899039,0.138066
-0.342126,-0.367360,0.454321,0.767202,0.619906,0.164675
-0.464216,-0.437958,-0.539180,0.722302,0.691290,0.019930
-0.492718,-0.494008,0.705046,0.957999,-0.259935,-0.121129
-0.374562,-0.510703,-0.863356,-0.088452,0.987714,0.128831
-0.387752,-0.323952,0.057725,-0.241917,0.221056,0.944781
-0.450813,-0.418878,0.060581,0.941107,-0.323880,0.097049
0.035204,-0.252758,0.854517,0.873635,0.058540,-0.483047
-0.377541,-0.363425,-0.451093,0.913591,-0.389621,-0.116390
-0.326814,-0.658577,0.893727,0.950804,-0.299690,0.078475
-0.450072,-0.332181,-0.303481,-0.578277,0.809117,-0.104524
-0.453046,0.488283,0.897006,-0.191416,0.307881,0.931971
-0.385941,-0.476835,-0.474112,0.146069,-0.989034,0.021796
-0.341594,-0.390615,0.512257,-0.158951,0.970085,-0.183491
-0.431781,-0.278159,0.891902,0.524103,0.415938,-0.743177
-0.117303,-0.068034,0.928475,0.568910,0.518100,0.638682
-0.480807,-0.237136,0.824079,0.778505,0.274568,-0.564396
-0.561952,-0.506291,-0.993561,0.008780,0.154588,0.987940
-0.166862,-0.501043,0.918605,-0.536944,0.474983,-0.697196
-0.669573,-0.880150,0.652214,0.747056,0.664365,0.022938
0.117732,-0.248584,0.852388,-0.241514,-0.033279,-0.969827
0.263319,0.716296,0.779646,0.797194,0.583378,-0.155409
-0.502819,-0.310715,-0.498416,0.781062,-0.623861,-0.027202
-0.391789,-0.479816,0.292630,0.957419,0.227821,0.177329
-0.482612,-0.496750,-0.679610,0.974945,-0.176292,-0.135661
-0.019885,0.243694,0.875069,0.703978,-0.663804,0.252545
-0.097843,0.086161,0.901535,0.814215,0.453389,-0.362618
0.103159,0.197066,0.849295,0.940574,0.252441,0.227144
-0.667769,-0.265518,0.882775,-0.424369,0.772492,-0.472405
-0.078272,-0.482321,0.680641,0.961494,0.239101,-0.135502
-0.428055,-0.416851,-0.402807,-0.112282,0.533564,0.838274
-0.611297,-0.379166,-0.262158,-0.038320,-0.972879,0.228117
0.106456,0.339813,0.879835,0.791073,0.267337,-0.550212
-0.394133,0.505217,0.852236,0.926051,0.257733,0.275687
-0.430716,-0.303798,0.061967,-0.758000,0.300067,-0.579134
0.350955,0.045257,0.838630,0.866228,-0.432823,-0.249624
0.022119,-0.309642,0.749343,0.898120,-0.155816,-0.411220
-0.561102,-0.530022,0.633099,0.796502,-0.595865,0.102618
-0.386259,0.699601,0.852168,-0.016505,0.013943,0.999767
-0.154315,-0.152108,0.758182,0.861065,-0.496814,-0.108368
-0.137613,-0.470992,0.519795,0.851654,0.305057,-0.426176
-0.447943,-0.106911,0.642901,0.584151,0.784847,-0.206841
-0.476660,0.242979,0.879192,-0.531083,0.839553,-0.114466
-0.496438,0.500447,0.898628,0.324259,-0.319898,0.890237
0.182493,-0.365691,0.799217,-0.363405,0.899060,-0.244189
-0.418273,-0.662274,-0.846016,0.669950,0.728061,-0.145238
-0.295969,-0.339217,-0.567304,0.836451,0.540398,-0.091209
-0.089651,-0.192296,0.791561,0.936235,0.350823,-0.019687
-0.438051,-0.636992,-0.256682,0.019249,-0.662862,0.748494
-0.170055,-0.418043,0.458496,0.387451,0.829718,0.401808
0.227696,-0.545644,0.883029,-0.132167,-0.049935,0.989969
-0.373179,-0.291515,0.914313,0.974947,0.073618,-0.209900
-0.411360,-0.444756,-0.466878,-0.104152,-0.988124,0.112975
-0.380307,-0.393000,-0.728606,-0.379605,-0.901767,0.206680
-0.433482,-0.401228,-0.473757,-0.083202,0.324492,0.942222
0.006059,0.287103,0.847993,0.159758,-0.956304,0.244868
-0.403811,0.248822,0.864945,-0.249403,-0.819044,0.516687
0.331702,0.056944,0.878347,-0.759282,0.614309,-0.214745
-0.484955,-0.437362,-0.610739,0.764317,-0.605900,0.220693
-0.438902,-0.267784,-0.063573,0.984477,-0.169446,0.045741
-0.409659,-0.321686,-0.147604,-0.709177,0.671203,0.215764
-0.686379,0.511776,0.876522,0.790210,-0.606477,-0.088056
-0.524512,-0.571999,-0.838867,0.611061,-0.786360,-0.090792
-0.406251,-0.407549,0.137514,-0.182093,0.945040,-0.271555
-0.583217,0.600739,0.856241,-0.193521,-0.932578,-0.304710
0.231201,-0.232246,0.885125,-0.445275,-0.221525,0.867558
-0.276080,-0.395623,0.270000,-0.177445,0.984102,0.007513
0.220251,-0.332538,0.798170,-0.215051,-0.833896,-0.508302
-0.630861,-0.782839,0.779089,0.760873,0.488098,0.427589
-0.063174,0.506529,0.881761,-0.012397,-0.703408,0.710678
-0.675422,-0.670503,-0.985905,-0.146238,0.305514,0.940891
-0.562270,-0.739789,0.551180,0.942178,0.007258,-0.335035
-0.528770,0.841512,0.802936,-0.665129,0.162881,0.728748
-0.425400,-0.555185,-0.680438,0.326902,0.918863,-0.220966
-0.626927,-0.889691,0.730870,0.925469,-0.378621,0.012369
-0.483462,-0.168326,0.610604,0.994181,-0.090315,-0.058716
-0.578219,-0.443921,0.880798,0.031587,-0.897506,-0.439869
-0.696479,-0.746825,0.693638,0.258184,0.959662,-0.111312
-0.324899,-0.198020,-0.424305,-0.733918,0.052029,-0.677243
-0.098479,0.508914,0.835402,0.764008,-0.485877,-0.424517
-0.554396,-0.361517,-0.138156,0.774817,-0.241001,-0.584447
-0.057326,0.164629,0.819025,-0.350331,-0.853156,0.386515
-0.610550,-0.724047,0.559647,-0.862287,0.278567,-0.422921
-0.464106,-0.683382,0.421719,-0.312194,-0.944062,-0.106220
-0.057215,-0.264206,0.963731,0.942630,0.332719,-0.027329
-0.165693,-0.283048,0.660934,0.956251,-0.183328,0.227981
-0.578115,-0.447976,-0.400154,0.089591,0.981387,0.169861
-0.675746,-0.468964,-0.300033,0.393899,-0.906260,0.153415
0.091670,0.368195,0.900758,-0.571448,0.194816,-0.797178
0.387109,0.085803,0.845661,0.572196,0.249801,-0.781148
-0.509414,-0.552561,0.218469,-0.720843,-0.692960,-0.013882
-0.198447,-0.517262,0.852337,0.375866,0.899185,-0.224033
-0.424017,0.528233,0.847977,-0.373550,-0.240921,0.895778
0.294904,-0.365452,0.791798,-0.405163,0.913995,0.021347
-0.493991,-0.093912,0.903445,0.131522,0.886513,0.443617
-0.491972,-0.407310,-0.599027,0.755992,-0.653859,0.030734
-0.250349,0.423886,0.918605,0.182127,0.950687,0.251047
-0.162610,0.090931,0.894099,0.715482,0.515706,-0.471309
-0.181324,-0.192415,0.731969,0.833493,0.538640,-0.123111
-0.411892,-0.551368,0.285346,-0.665072,-0.682426,0.303272
-0.769010,-0.408622,0.879446,0.105192,-0.661270,0.742736
-0.746148,-0.766740,0.629955,0.867841,0.487642,-0.095172
0.272147,0.076263,0.865384,-0.623110,-0.693159,-0.362304
0.240133,-0.297239,0.852252,-0.483500,-0.734337,-0.476421
-0.396047,-0.341602,-0.453696,-0.648152,0.739303,-0.182565
0.516217,-0.524656,0.777753,0.691470,0.714351,0.107576
-0.183881,0.188122,0.912622,-0.557932,-0.824416,-0.095138
-0.677979,-0.777592,0.689666,0.275863,-0.956257,0.097327
-0.395301,-0.311073,-0.360893,0.072355,-0.987189,0.142206
-0.135491,0.375112,0.907501,0.685393,0.016918,0.727977
-0.508031,0.941447,0.808952,-0.532879,-0.258275,0.805812
-0.424868,-0.393477,-0.650878,0.689046,-0.709517,0.147651
-0.574603,-0.716057,0.862241,0.869167,0.493566,-0.030694
-0.381371,-0.294854,-0.354116,0.339086,-0.939195,-0.054162
-0.365520,-0.516546,-0.662675,-0.286394,-0.927108,0.241761
-0.424017,-0.638423,-0.868139,0.916657,-0.395352,0.058623
-0.436883,-0.437243,-0.231246,-0.004303,-0.880321,0.474359
-0.472830,-0.296762,0.924808,0.367709,0.108047,-0.923643
-0.456661,-0.342079,-0.317542,0.969467,-0.237751,-0.060072
-0.571416,-0.738358,0.537203,0.968802,-0.164684,0.185209
-0.470597,-0.331107,-0.539265,-0.322304,0.913237,0.249234
-0.457518,-0.577127,0.329677,0.471562,0.863129,0.180660
0.319687,-0.293304,0.903733,0.885614,0.388969,0.253753
-0.371797,-0.417685,-0.482157,0.863551,-0.268071,-0.427104
-0.558122,-0.678850,0.509046,-0.670788,-0.739122,-0.061181
-0.546743,-0.851768,-0.981105,-0.067150,-0.282284,0.956978
-0.421460,-0.513207,-0.770232,0.104696,0.988462,-0.109461
-0.169627,-0.504860,0.850140,0.397632,0.885842,-0.239107
0.258217,0.328245,0.856968,0.987990,0.035115,0.150476
0.747103,0.669787,0.825921,0.727961,0.376071,-0.573274
-0.614166,-0.360563,0.088417,0.253508,-0.913816,0.317291
-0.485273,-0.460259,0.208920,0.936536,-0.275986,-0.216175
0.322134,-0.553396,0.849379,0.195532,0.798508,0.569343
-0.427633,-0.371296,0.836940,-0.794985,0.591424,-0.134972
-0.421460,-0.467652,-0.528127,0.075378,0.973127,-0.217581
0.188873,-0.252638,0.826479,-0.484433,0.810152,0.330118
-0.629589,-0.165345,0.802868,0.517150,0.398060,0.757696
-0.001808,-0.000537,0.951292,-0.404633,-0.561691,0.721648
-0.595238,-0.649514,0.819448,0.850460,0.479421,-0.216504
-0.564717,-0.608729,0.619003,0.982200,-0.085142,-0.167434
-0.226631,-0.239163,-0.326550,0.446405,0.398079,0.801408
0.302460,0.807048,0.789753,0.815600,0.572556,-0.083522
0.101458,-0.228072,0.808158,0.401887,0.915334,-0.025495
-0.239075,-0.421501,0.330319,0.811243,0.540504,0.223023
-0.658941,-0.344344,0.842247,0.405433,-0.093145,-0.909367
0.160267,0.491742,0.854602,0.474052,0.879283,-0.046214
-0.341912,-0.255620,-0.195011,0.359098,0.933146,-0.016958
-0.479315,-0.077813,0.925653,-0.610115,0.416504,0.674005
0.037755,0.222467,0.872162,0.540611,0.569943,-0.618793
-0.548762,0.251207,0.866246,0.184192,0.578081,0.794919
-0.367331,-0.333850,0.514725,0.990928,-0.016035,0.133437
-0.462191,-0.350426,0.690122,-0.587522,0.809206,-0.001917
-0.435928,-0.236539,-0.139965,0.372289,-0.754251,-0.540838
0.212059,-0.063622,0.923236,-0.182043,0.501853,-0.845579
0.187069,-0.110608,0.875221,-0.154020,0.975381,0.157825
-0.372011,-0.336831,0.872821,-0.498938,0.865589,-0.042610
-0.360418,0.297120,0.771534,0.434802,0.368176,-0.821823
-0.320005,0.316081,0.769641,0.808930,0.113102,-0.576922
-0.028291,-0.040844,0.903783,-0.715931,-0.688503,0.115782
0.513879,-0.399440,0.821155,0.285400,-0.953274,-0.099070
-0.488460,-0.732872,0.400982,0.121084,-0.922175,0.367331
-0.761779,-0.476000,-0.287729,0.556256,-0.646318,0.522352
-0.026058,0.113708,0.886156,0.030189,-0.640291,0.767539
-0.299376,-0.440820,0.170589,-0.652119,-0.495061,-0.574156
-0.497399,0.430207,0.860838,-0.687010,0.185936,0.702457
-0.330533,-0.345418,0.754075,-0.639731,-0.211883,0.738816
-0.632776,-0.916165,-0.984722,-0.202237,0.063143,0.977299
-0.585878,-0.398843,-0.443809,-0.367676,0.908146,-0.200212
-0.418695,-0.332777,0.435950,0.959144,-0.282318,-0.018423
-0.549191,-0.572119,-0.278062,0.754548,0.645747,0.116907
-0.216207,0.637827,0.855143,0.877451,-0.078055,-0.473273
0.094760,0.327291,0.898341,0.818387,-0.572342,0.051658
0.023183,-0.605032,0.847148,0.175458,0.790061,0.587382
-0.409549,-0.507602,-0.566188,0.893787,-0.437382,-0.099207
-0.243112,-0.471946,0.768779,-0.839291,0.252963,0.481248
0.027863,0.215789,0.822473,0.236035,-0.834605,0.497716
-0.553338,-0.304037,0.906927,0.592789,-0.524541,0.611112
-0.065939,0.054797,0.913501,-0.167576,-0.457318,0.873372
-0.633204,-0.711526,0.772987,0.754463,-0.642481,-0.134178
-0.084867,0.094508,0.843819,0.928498,-0.369931,0.032284
0.528660,-0.385845,0.855176,0.458088,0.308762,0.833559
-0.748699,-0.715819,0.662439,0.865228,0.464037,-0.189870
-0.239393,-0.487687,0.930081,0.169644,-0.215813,0.961585
-0.482508,0.448095,0.867108,0.037659,-0.750124,0.660224
-0.537383,-0.558762,0.618530,0.967466,-0.235791,-0.091713
-0.412639,-0.379286,-0.384943,0.746819,-0.240376,0.620065
-0.601301,-0.449287,-0.313807,0.152495,-0.958321,-0.241589
0.317344,0.049431,0.857965,-0.627366,0.376524,-0.681646
-0.356374,0.290680,0.765923,0.142119,0.402786,-0.904193
-0.663303,-0.701986,0.560340,0.877436,-0.214933,0.428846
-0.309905,-0.324548,0.929895,0.487579,0.164557,-0.857431
-0.407212,0.275774,0.834067,-0.398391,0.916208,0.042982
-0.440498,-0.424721,0.075589,-0.502337,-0.817889,-0.280562
-0.058280,-0.108819,0.883536,0.962486,0.159816,-0.219269
-0.480912,-0.578200,0.332314,-0.664870,-0.741848,-0.087234
-0.563335,0.772226,0.804322,0.856102,0.148066,-0.495142
-0.401467,-0.065172,0.661982,-0.593461,-0.765299,0.249241
0.200681,-0.451196,0.924014,0.956442,0.282557,0.073355
0.005105,0.195993,0.866128,-0.445426,-0.534033,0.718613
-0.001490,-0.495200,0.853858,0.375390,0.138757,-0.916422
-0.412957,-0.462763,0.218520,-0.258361,0.716237,0.648271
0.045940,-0.098205,0.926076,0.286242,-0.888196,0.359408
-0.517391,-0.633415,-0.795668,0.354667,0.835121,0.420458
-0.292463,-0.244052,0.616316,0.545533,0.816169,-0.190424
0.128896,-0.351142,0.907400,0.705574,0.165144,-0.689125
0.089547,-0.310119,0.870759,-0.428059,0.620855,0.656737
-0.424758,-0.429014,0.782012,-0.484993,-0.825673,0.288176
-0.207807,-0.319897,0.478388,0.302991,0.892644,0.333741
-0.526219,-0.636396,-0.856866,-0.649878,0.759354,0.032257
-0.361483,-0.098444,-0.283521,0.942955,-0.235164,0.235654
-0.377327,-0.642955,-0.988119,-0.272774,-0.529245,-0.803426
-0.351591,-0.351500,0.454034,0.888212,0.427046,0.169442
-0.398599,-0.346849,0.028723,0.976256,-0.207899,-0.060851
0.125495,0.146503,0.809983,0.275574,-0.945088,-0.175691
-0.530153,-0.493769,0.718600,0.974220,-0.118486,0.191978
-0.369668,-0.382386,-0.498432,0.879717,-0.465862,-0.095240
0.090612,0.205533,0.820715,0.593878,-0.683212,0.424889
-0.134426,-0.161171,0.742498,-0.379893,0.921505,0.080687
-0.096246,-0.382029,0.628873,0.116800,0.965735,0.231761
0.720619,0.496870,0.782621,0.972914,0.077609,-0.217750
-0.517281,-0.635442,-0.850360,0.859021,-0.466661,0.210501
-0.066147,0.203268,0.907028,0.438175,-0.721556,0.536059
-0.451773,-0.230577,-0.082417,-0.713354,-0.690829,-0.117817
-0.397216,-0.287580,0.484540,-0.616232,0.769349,0.168408
-0.462938,-0.292350,0.893643,0.818289,-0.292758,0.494668
-0.127728,-0.167014,0.775725,-0.291635,0.946361,0.139102
-0.722430,-0.688987,-0.987882,-0.024506,0.124432,0.991926
-0.499307,-0.242144,0.864573,0.301776,-0.732828,0.609832
-0.402850,0.438555,0.911422,-0.096420,-0.867535,0.487941
-0.485163,0.508318,0.840067,-0.237794,-0.682313,0.691305
-0.389771,-0.345656,0.456535,0.149729,-0.040005,0.987917
0.398599,-0.168446,0.813955,-0.086593,-0.468706,0.879099
-0.807508,-0.650707,0.720983,0.862024,0.466983,-0.197082
-0.742423,-0.402182,0.920752,-0.293121,-0.704409,0.646443
-0.459536,-0.084730,0.643442,0.605834,0.760588,-0.233391
-0.394769,-0.562220,-0.716910,-0.071393,-0.800030,0.595698
0.095928,-0.378093,0.924876,0.384278,0.018460,-0.923033
-0.100290,-0.300578,0.603657,-0.546836,0.621485,-0.561005
-0.323621,0.170234,0.760295,0.874128,0.322649,-0.363039
-0.243326,-0.274581,0.497925,0.560932,0.722630,-0.403932
0.109540,0.440343,0.900589,0.769497,-0.638328,0.020303
-0.509628,-0.497585,0.715152,0.963438,-0.246389,0.105263
-0.468254,-0.294735,-0.379957,-0.437563,0.889338,-0.132727
-0.369778,-0.572953,-0.619612,0.502808,0.850167,0.156204
-0.401578,-0.494962,0.885192,-0.720603,0.457801,0.520720
-0.379138,-0.546598,-0.688753,0.046975,-0.997696,-0.048960
-0.564075,-0.689345,0.777686,0.730587,-0.652489,-0.201247
0.258217,-0.374039,0.858945,0.692900,-0.574597,-0.435578
-0.514515,-0.340767,0.878601,-0.297382,0.704159,0.644767
-0.655112,-0.643313,-0.985178,0.357503,-0.625185,-0.693783
0.233012,0.831972,0.782249,0.797194,0.583378,-0.155409
-0.090293,0.103333,0.788807,0.484602,0.777571,-0.400681
-0.485377,-0.416254,-0.471307,-0.353646,-0.897177,-0.264589
0.114641,-0.100710,0.906082,-0.392543,-0.129922,0.910511
-0.184732,0.402540,0.864928,0.377338,0.776609,0.504474
-0.445074,-0.391450,-0.256361,0.765838,0.630963,-0.124010
-0.359250,-0.851887,-0.987544,0.135166,0.118696,0.983688
-0.411146,-0.362829,-0.101650,-0.164758,0.692045,0.702801
-0.330748,-0.327649,0.912960,-0.068219,0.996532,0.047638
-0.742423,-0.465983,0.838377,-0.724108,0.323025,0.609362
-0.714135,-0.794049,0.652602,0.033987,0.997430,-0.063081
-0.471019,-0.271361,-0.358476,-0.526188,0.846305,-0.083033
-0.648731,-0.324668,-0.259995,0.059347,-0.847227,0.527905
-0.530899,0.670145,0.804051,0.898122,0.389739,-0.203669
0.151335,-0.337189,0.881576,-0.549605,0.678943,0.486797
-0.509946,0.403971,0.862562,0.469601,0.257648,-0.844448
-0.670638,-0.848071,-0.982575,-0.040392,-0.105774,0.993569
-0.018399,0.168446,0.934712,0.836792,-0.355899,0.416071
-0.437311,-0.300936,-0.150257,0.547757,0.832630,-0.081787
-0.367545,-0.430803,-0.708325,-0.029085,0.922986,0.383733
-0.537065,-0.581778,-0.989369,-0.147857,0.569014,0.808926
0.211209,0.196470,0.877266,0.519233,0.715240,-0.467792
-0.053281,-0.032258,0.958931,0.851814,0.304304,0.426394
-0.558973,0.406595,0.855210,-0.056018,0.973725,0.220732
-0.243437,-0.360921,0.936470,-0.069356,-0.825507,0.560115
-0.377756,-0.490072,0.237364,0.324116,0.922235,0.210787
-0.381475,0.077336,0.735957,0.847256,0.467887,-0.251473
-0.637248,-0.501640,0.493278,0.988027,0.105226,0.112827
-0.091034,0.005903,0.965100,0.820078,0.538233,-0.194363
-0.245345,-0.465506,0.140201,0.142869,0.986051,-0.085392
-0.181538,0.474450,0.887508,-0.351736,0.714686,0.604571
-0.366163,-0.073401,0.900420,0.866970,0.056315,-0.495168
0.011804,-0.202910,0.937450,0.803835,0.552144,-0.221330
-0.341276,-0.348995,0.894995,0.150793,0.099462,0.983549
-0.580562,-0.390615,-0.462755,0.509501,-0.857373,0.072945
-0.418059,-0.382029,0.888015,-0.001997,0.980245,0.197776
0.022761,0.156759,0.809950,0.115935,-0.817221,0.564542
-0.408062,-0.400513,0.892882,0.872329,-0.381507,-0.305769
-0.273529,-0.458351,0.928712,-0.358178,-0.400817,0.843240
0.163668,-0.508914,0.804372,-0.323686,0.905044,0.275904
-0.720730,-0.778427,0.593855,0.946571,0.045377,0.319287
-0.923432,-0.258840,-0.176741,-0.329746,0.919362,-0.214573
-0.749654,-0.700197,0.637662,0.861026,0.493588,0.122494
0.521007,-0.442371,0.862951,0.120395,0.031955,0.992212
-0.456025,-0.624471,-0.782266,-0.376518,-0.586772,0.716891
-0.386369,-0.388468,0.886696,0.424820,0.877752,0.221538
-0.461023,-0.197901,0.918876,0.756032,0.195720,-0.624588
-0.088483,-0.228311,0.785443,0.738944,0.520179,-0.428223
-0.448897,-0.064695,0.640958,0.605834,0.760588,-0.233391
-0.452409,-0.234393,-0.150240,0.993122,-0.116293,-0.013576
0.148460,0.506291,0.903986,0.803785,-0.139605,0.578308
-0.276080,-0.317751,0.590508,0.239573,0.969790,0.045952
-0.379989,-0.491265,-0.630107,-0.091984,0.995660,0.014166
-0.251622,-0.134935,0.684410,0.598893,0.696552,-0.395148
-0.653943,0.295212,0.863644,0.505022,0.776119,0.377613
-0.429548,0.378689,0.901366,0.638956,0.430561,0.637458
-0.572584,-0.467652,-0.528955,0.979499,0.090691,-0.179879
0.009357,0.102498,0.920414,0.371377,-0.564854,0.736899
-0.349890,-0.450838,-0.665515,0.119644,0.612660,-0.781238
-0.416254,-0.529187,0.295385,0.626965,-0.655472,0.421036
-0.506863,-0.284598,0.868562,0.591616,-0.697032,0.405138
-0.524622,-0.388110,-0.325317,-0.731816,0.623321,0.275530
-0.348507,-0.553276,0.168088,-0.224851,0.965179,-0.133683
-0.480807,-0.267187,0.583968,0.579683,-0.757610,0.299993
-0.145059,-0.296882,0.669909,0.823610,-0.554943,0.117071
-0.690312,-0.797746,-0.987984,-0.296037,0.056568,0.953500
-0.334681,-0.347922,0.896702,-0.761853,0.607459,0.224886
-0.109643,0.399559,0.858759,-0.222255,0.815302,0.534682
0.067958,0.478147,0.878736,-0.438366,0.598072,0.670929
-0.253219,0.405044,0.826597,-0.396581,-0.438251,-0.806635
-0.509414,-0.571999,-0.990789,0.079949,0.468992,0.879577
0.245988,-0.353288,0.904611,0.349152,0.632333,-0.691555
-0.152400,-0.339932,-0.112146,0.479086,0.846028,0.233911
-0.406362,0.694234,0.908025,0.048085,0.477140,0.877511
-0.067530,-0.005545,0.772920,-0.702089,-0.558884,0.441271
-0.435182,-0.367718,-0.325790,0.667485,-0.377306,0.641953
-0.335531,-0.375947,0.062761,0.618564,0.784216,0.048835
-0.504416,-0.403256,-0.339260,0.822266,-0.396001,0.408731
-0.549613,-0.521317,0.649577,-0.497379,0.854675,-0.148810
0.097843,0.249061,0.847655,0.886999,0.250149,0.388146
-0.465489,-0.431996,0.247775,0.729620,-0.675240,0.108192
-0.011700,-0.225568,0.790226,0.037180,-0.401608,0.915056
-0.572163,0.621728,0.839475,0.532583,0.782201,0.323291
0.212059,-0.108223,0.835842,0.010989,0.224551,0.974400
-0.372862,-0.262656,0.570396,-0.376583,-0.918433,0.121104
-0.440498,-0.386202,0.018667,0.981438,-0.054261,-0.183941
-0.390939,-0.306541,-0.089211,-0.706673,-0.707194,-0.022136
-0.753165,-0.626498,0.733051,-0.632622,-0.772589,-0.053818
-0.064342,0.576054,0.899761,0.745203,0.623429,0.236664
-0.191748,-0.368553,0.859283,0.271862,0.463282,-0.843482
-0.331702,-0.381790,-0.071330,0.985978,0.132660,-0.101232
0.223120,-0.262775,0.884280,-0.084476,-0.791799,0.604912
-0.545783,-0.397651,-0.392413,-0.579280,0.699621,0.418288
-0.678719,-0.109415,0.892358,-0.486476,-0.039947,-0.872780
-0.098589,0.650707,0.902752,0.697748,-0.655914,0.287967
-0.083913,0.494962,0.883181,-0.323690,0.751371,-0.575036
-0.006806,-0.226403,0.841605,0.842654,0.450749,-0.294550
0.235667,-0.211138,0.831921,-0.401825,0.823488,-0.400505
-0.331812,-0.374754,0.561422,0.424414,0.842565,-0.331598
-0.634158,-0.749687,-0.981831,-0.184762,-0.198723,0.962482
-0.722216,-0.622205,0.827831,0.467931,0.841685,-0.269457
0.313625,-0.046807,0.807871,0.327154,0.571615,-0.752480
-0.454753,-0.289369,-0.352223,0.167026,-0.941598,-0.292397
-0.351169,-0.157713,-0.120715,0.858010,-0.509333,-0.066325
0.558759,-0.456562,0.841571,-0.373305,0.917415,0.137813
0.177812,-0.139825,0.930639,-0.746820,0.317129,-0.584542
-0.243644,0.711764,0.826208,0.380276,0.402187,-0.832848
-0.246520,-0.255978,0.653464,0.622043,0.774228,-0.116767
-0.711051,-0.700197,0.765771,-0.760820,0.648730,-0.017364
-0.826547,-0.683501,0.699097,0.715627,0.693259,-0.085262
0.062428,0.484229,0.931112,0.652679,-0.678887,0.336337
-0.567482,-0.584759,0.602136,0.989007,-0.123725,-0.080974
0.171756,-0.264445,0.765923,0.253770,0.659062,-0.707982
0.442835,-0.284718,0.853959,-0.638475,-0.756023,-0.144149
-0.317026,-0.719635,-0.987510,0.187181,0.109504,0.976203
0.083271,-0.301652,0.841520,-0.397568,-0.854180,0.335136
-0.405829,-0.582136,-0.719107,-0.236169,-0.969213,0.069645
-0.498781,-0.305587,-0.101126,-0.322721,0.946444,0.009693
-0.336810,-0.489953,-0.629178,-0.552397,-0.411028,-0.725199
-0.056151,0.661797,0.846962,-0.055765,0.460903,0.885697
-0.306926,-0.368195,0.929692,0.500181,0.626156,-0.598120
-0.750296,-0.713076,0.638270,0.809551,0.581679,0.079234
-0.254387,0.346133,0.785747,0.932912,-0.350468,-0.082747
-0.492401,0.495558,0.888691,-0.534264,0.782625,0.319467
-0.659474,0.307853,0.865689,0.505022,0.776119,0.377613
-0.226203,-0.230457,0.696494,0.522482,0.059296,-0.850586
-0.472830,-0.589768,-0.576193,0.925306,-0.379180,-0.005562
-0.406784,-0.446545,-0.769455,-0.082657,-0.996569,0.004353
-0.352123,-0.352811,0.063218,-0.099410,0.578756,0.809419
-0.079337,-0.025461,0.750239,0.783860,-0.482650,-0.390657
-0.297462,-0.109177,0.918521,0.665551,0.233303,0.708951
-0.516326,-0.664063,-0.902043,0.407767,0.378408,-0.830983
-0.557376,-0.497227,0.653430,-0.520141,0.854060,0.005882
0.382111,-0.035239,0.839357,0.944925,-0.087545,-0.315362
-0.392854,-0.798104,-0.985668,0.320415,-0.026130,0.946917
-0.400403,-0.284360,0.606361,0.177664,0.761595,-0.623224
-0.261086,-0.653211,-0.790378,0.881219,0.426410,-0.204030
-0.460919,-0.639497,0.316393,0.525456,0.843204,-0.113592
-0.545679,-0.590364,-0.960570,0.102848,-0.993751,0.043368
-0.082634,-0.033808,0.757641,-0.511784,0.858599,-0.029752
-0.341594,-0.367122,-0.504990,0.784475,-0.591611,0.185995
-0.550995,-0.681474,-0.902972,0.804418,0.387923,-0.449920
0.070723,0.517023,0.872669,0.706600,-0.222912,-0.671585
-0.347657,-0.306660,-0.367721,0.067186,-0.997176,0.033546
-0.055729,0.131954,0.800316,-0.613449,-0.710093,0.345614
-0.467722,-0.524179,-0.888894,-0.555290,0.830821,-0.037278
-0.204510,-0.318824,0.931044,-0.695510,0.647262,-0.311957
-0.283318,0.409338,0.844258,0.141845,-0.541841,0.828426
-0.327982,-0.426629,-0.194064,-0.781645,0.490575,-0.385185
-0.080505,-0.280067,0.795229,0.692143,0.515142,0.505537
-0.121554,0.633653,0.889096,-0.071895,0.760662,0.645155
-0.757527,-0.387156,0.905017,-0.592293,-0.543060,0.595210
-0.540252,-0.610041,0.445279,0.991888,0.095586,0.083789
-0.432099,-0.318943,0.556081,-0.686470,-0.696402,-0.209245
-0.705839,-0.780216,0.604621,0.902475,0.328573,0.278528
-0.132940,-0.027726,0.867058,0.987308,-0.141019,-0.073051
0.193767,0.099636,0.808513,-0.502697,0.847567,0.170074
0.122197,-0.098205,0.946830,0.889146,0.457610,0.003578
-0.333513,-0.342913,0.924707,0.185222,0.938628,-0.290980
0.309263,0.171427,0.894319,-0.309895,0.847100,-0.431726
-0.379242,-0.461809,0.311052,-0.408397,0.906888,-0.103762
0.090612,0.441536,0.914498,0.737732,0.670171,0.081377
-0.555039,-0.189315,-0.202413,-0.490359,-0.786470,0.375518
-0.020210,-0.149842,0.849853,0.975154,-0.216522,-0.046831
-0.263643,0.414227,0.791950,0.539105,0.582113,-0.608695
-0.513776,-0.508437,0.715795,0.989109,-0.060098,0.134356
-0.351169,-0.463717,-0.531186,0.219735,-0.729984,0.647179
-0.403383,-0.643671,0.342065,-0.628471,0.757246,0.177772
-0.451877,0.533242,0.854196,0.414869,0.728742,0.544811
0.198980,0.085922,0.923456,-0.117645,0.643056,0.756729
-0.500164,0.900662,0.800688,-0.497119,-0.350541,0.793721
-0.366695,-0.205056,-0.241285,0.858861,0.495345,0.130353
-0.326918,-0.214239,-0.298799,0.899520,-0.392068,-0.192734
-0.382540,-0.436766,0.739270,0.294682,0.944082,0.147891
0.096882,0.004114,0.925957,-0.155298,0.780277,0.605847
0.157820,-0.278516,0.767613,-0.104347,-0.703909,0.702583
-0.570669,-0.293304,0.909327,0.862137,-0.309142,0.401437
-0.822080,-0.380120,-0.217861,-0.141123,0.984804,-0.101215
-0.404551,0.364975,0.919062,-0.129691,-0.773953,-0.619820
-0.432631,-0.447141,-0.726442,-0.661383,0.736296,-0.142971
0.252154,0.790829,0.799522,0.769214,0.637942,-0.036608
-0.426568,0.019856,0.921140,0.639542,0.617842,0.457446
-0.377541,-0.233916,-0.138883,-0.344943,-0.902787,-0.256885
-0.389771,-0.375231,0.824045,0.776635,-0.629950,0.001224
-0.359886,-0.511419,0.128793,0.493537,-0.571523,-0.655579
-0.267259,-0.267664,0.630242,-0.599456,-0.701386,0.385628
-0.468254,-0.397770,-0.316731,0.574658,-0.760331,-0.302764
-0.482190,-0.392881,0.924909,0.513582,0.097140,-0.852524
-0.036794,0.137440,0.893710,-0.022727,0.983552,-0.179192
-0.057001,-0.544094,0.909175,0.007157,-0.631748,0.775141
0.162182,-0.389661,0.921157,0.508659,0.828937,-0.232656
0.051049,0.113589,0.846253,0.854318,0.516930,0.054074
-0.537280,-0.615527,-0.756779,0.720250,-0.687014,0.096184
-0.382222,-0.490549,0.745067,0.023304,-0.987603,-0.155232
-0.537280,-0.695784,0.408300,-0.546637,-0.831023,-0.102903
-0.353291,-0.360324,0.582312,-0.368881,-0.037747,0.928710
-0.499521,-0.701986,-0.913417,0.423996,-0.852390,0.306038
0.060727,0.269811,0.883908,-0.511630,0.857765,-0.049735
-0.702970,-0.749687,0.783162,0.909151,0.414339,0.042042
-0.426990,-0.662751,-0.870472,0.770178,-0.597263,-0.223836
-0.569923,-0.567468,0.742143,0.438738,-0.812889,-0.383040
-0.325217,-0.314054,-0.026577,0.486709,0.867825,-0.099972
0.233752,-0.332181,0.906994,0.031996,-0.999420,-0.011684
0.449858,-0.455012,0.822845,-0.704074,0.490005,0.513979
-0.414015,-0.252877,0.566492,0.493850,-0.826860,0.269099
-0.514308,-0.254070,-0.111842,0.865906,-0.161005,0.473586
-0.525044,-0.366168,-0.441240,-0.702413,0.691413,-0.169009
-0.661921,-0.680162,0.765990,-0.773065,0.633472,0.032931
-0.375627,-0.298551,-0.142060,0.930261,-0.339875,-0.138198
-0.222166,-0.125395,0.740233,-0.556298,0.037349,0.830143
-0.469533,-0.348518,-0.320635,0.931156,-0.355135,-0.082630
-0.324899,-0.675511,-0.822338,0.905161,-0.350784,-0.240072
-0.355524,-0.330153,-0.223590,0.930849,0.233263,-0.281261
0.482294,-0.261344,0.867970,-0.535428,-0.762127,0.363977
-0.582048,-0.438674,-0.325942,0.330930,-0.925935,0.182018
-0.363183,-0.281498,0.470647,-0.169770,-0.985310,0.018483
-0.531321,-0.536104,0.300253,0.978899,-0.163683,0.122333
-0.353505,-0.316678,0.457465,0.927729,0.372873,-0.016870
-0.774118,-0.771868,0.706330,0.505013,0.860693,0.064571
-0.192170,0.470276,0.825904,0.717565,0.191629,-0.669610
-0.317136,-0.744678,-0.987037,0.134618,0.029328,0.990464
-0.279273,-0.158428,-0.297650,0.930938,0.365132,-0.005745
-0.390939,-0.168923,0.930639,-0.017455,0.622408,0.782498
-0.374030,-0.354004,-0.520775,0.390953,0.886654,0.246982
0.196319,-0.396935,0.808327,0.750224,-0.660335,-0.033480
-0.433482,-0.252400,-0.160787,-0.711123,0.677527,-0.187781
-0.424439,-0.447260,-0.269307,-0.211515,0.976769,-0.034420
-0.399981,-0.387872,0.435612,0.794053,0.607254,0.026864
-0.220673,-0.313339,0.630902,-0.388455,0.769813,0.506449
-0.603320,-0.436050,0.896347,-0.370424,-0.436630,0.819841
-0.499099,0.415896,0.903124,0.760896,0.635364,0.131716
-0.432839,0.565202,0.856140,-0.325493,-0.475730,-0.817151
-0.211105,0.787729,0.832191,0.001903,-0.269580,0.962976
0.115602,0.455012,0.900589,0.861112,-0.507224,0.034778
-0.157716,0.169280,0.931213,-0.124827,0.858191,0.497922
-0.302882,-0.185141,0.642496,0.437547,0.841366,-0.317262
-0.128364,0.220559,0.821966,0.743809,0.605945,-0.282096
-0.405615,-0.407429,-0.627504,0.890213,0.273121,0.364589
0.068808,-0.361517,0.902955,-0.456723,-0.550008,0.699210
-0.444224,-0.478505,0.322072,0.172987,0.983932,-0.044202
0.233863,-0.486256,0.879361,0.874174,-0.197663,-0.443564
-0.446132,-0.974122,-0.983741,0.129920,-0.123064,0.983858
0.870361,0.225568,0.798778,0.452063,0.649706,-0.611164
-0.426036,-0.399797,0.445161,0.577909,0.810207,0.097909
-0.304582,0.701151,0.851340,0.046151,-0.508697,0.859708
-0.487610,-0.353527,0.036041,0.938205,-0.328862,0.107799
-0.592791,-0.784390,0.568537,-0.533121,-0.753818,-0.384110
-0.466235,-0.692684,-0.928915,-0.633363,-0.753966,0.174320
0.030200,0.412796,0.857340,0.354392,0.097351,-0.930016
-0.059559,-0.076143,0.906656,0.714482,0.287918,0.637666
0.001172,0.090692,0.924622,0.788883,-0.278088,0.548024
-0.365202,-0.270527,0.541209,0.572680,-0.818122,-0.052093
-0.230669,-0.599189,0.317001,0.407362,0.903014,0.136465
-0.545147,-0.633415,0.561033,0.987756,0.152206,0.034230
-0.057643,0.456681,0.853114,-0.076207,0.922468,0.378477
-0.498249,-0.409695,-0.623634,0.808078,-0.587998,-0.035623
-0.028499,-0.201121,0.905102,0.955916,0.293246,-0.015199
-0.343931,-0.685290,0.891513,0.586685,-0.681357,0.437669
0.115706,-0.424363,0.875424,0.887739,0.004170,0.460328
-0.385194,-0.738954,-0.984823,0.349516,-0.151851,0.924543
-0.166966,-0.375708,0.917574,0.292380,0.685377,-0.666912
-0.520046,-0.008884,0.920904,-0.694938,0.466330,0.547355
-0.674364,-0.796792,0.737715,0.869469,0.468255,-0.157355
-0.353609,-0.418282,0.831921,-0.020499,-0.995647,-0.090919
0.009785,-0.101664,0.981156,0.938254,-0.343411,0.041821
-0.492076,-0.464910,0.718414,0.771634,-0.620863,0.138238
0.492713,-0.428776,0.856596,0.629985,0.497775,0.596103
-0.533872,0.645698,0.880849,-0.570049,-0.685972,0.452202
-0.324789,-0.285791,-0.015439,-0.086840,-0.978737,-0.185832
0.313839,-0.364975,0.905659,-0.533944,0.845506,0.004799
-0.311924,-0.526564,0.908955,0.514320,0.509673,-0.689716
-0.290756,0.437243,0.889113,-0.403974,0.302335,0.863365
-0.530789,-0.622324,-0.845391,0.791665,-0.581250,0.188188
-0.454220,-0.437243,0.834591,0.375831,0.919490,-0.115279
-0.677869,-0.539205,0.860145,0.659639,0.749666,-0.053640
0.035730,0.119194,0.800265,0.316524,-0.938747,0.136260
0.003087,0.332896,0.894471,-0.124594,0.321288,-0.938750
-0.557486,0.626260,0.889079,0.644975,0.507600,-0.571269
-0.467722,-0.398008,0.721997,0.061264,-0.938770,0.339054
-0.437843,-0.381551,-0.620322,0.586010,-0.810202,-0.012820
-0.535254,-0.523582,-0.994473,-0.018845,0.189003,0.981796
-0.382007,-0.268618,-0.453425,-0.730340,0.681976,-0.038879
-0.022014,-0.061475,0.786778,0.892093,-0.385954,-0.234966
-0.519092,-0.505337,0.306472,0.820708,-0.567290,0.067973
-0.394983,-0.279590,0.932599,-0.418640,-0.319838,0.849967
-0.458686,-0.368195,-0.082569,0.823789,0.489938,-0.285190
-0.305647,-0.448691,0.495340,0.574904,0.746854,-0.334207
-0.727324,-0.753145,-0.988288,-0.046087,0.150039,0.987605
0.361691,0.222348,0.895924,-0.210157,0.941351,-0.263992
0.295333,0.097251,0.853858,-0.315912,-0.367699,0.874641
-0.197175,0.421501,0.901840,-0.531228,0.105843,0.840592
-0.503883,-0.407787,-0.509773,0.919511,-0.214310,-0.329502
0.147506,-0.065411,0.852743,0.140946,-0.478290,0.866818
-0.520688,0.760181,0.787961,-0.847642,0.267708,-0.458078
-0.366163,-0.470872,-0.666630,0.760971,0.232658,0.605635
0.193449,-0.047165,0.949500,0.302470,0.951546,-0.055431
-0.460387,-0.330988,-0.364882,0.592107,0.615996,-0.519574
-0.387856,-0.300578,-0.296416,-0.272879,-0.917814,-0.288365
-0.792410,-0.727148,0.662185,0.940659,0.314804,-0.126721
0.065725,-0.009719,0.921343,0.153820,0.738850,0.656079
-0.804425,-0.499732,0.818113,0.953483,0.275578,0.122172
-0.578543,-0.620416,0.766514,-0.710058,0.674598,-0.201830
-0.480275,-0.441655,0.387157,0.606464,-0.790149,-0.088694
0.063382,-0.547314,0.878500,0.818098,0.514553,0.256811
-0.447093,-0.639020,-0.972451,0.977649,0.195573,0.077162
-0.049348,0.164749,0.907147,0.579191,0.785090,0.219478
-0.274808,-0.356508,-0.258913,0.680779,-0.718532,0.142309
-0.435818,-0.450719,0.212233,-0.106981,0.949800,0.293997
-0.197597,0.616958,0.867345,0.664106,-0.460255,-0.589175
0.126663,-0.531334,0.879666,0.112835,-0.152680,-0.981813
-0.381475,-0.343867,-0.182893,0.796780,-0.594421,0.108650
-0.531535,-0.382744,-0.473808,-0.726214,0.657209,-0.201714
-0.405829,-0.344702,-0.148601,-0.532908,0.841132,0.092228
-0.334045,-0.383102,0.895502,-0.579111,-0.651462,-0.490131
0.220673,0.313339,0.868663,0.431039,0.803683,-0.410242
-0.408698,-0.589649,-0.285684,0.387182,0.544346,0.744162
0.149102,-0.421144,0.930571,0.780905,0.621496,0.062691
-0.400403,-0.569137,0.901958,-0.208809,0.537317,0.817123
-0.123794,-0.280067,0.806924,0.976913,0.058845,-0.205373
-0.623312,-0.628883,0.772649,0.851198,-0.516998,0.090418
-0.549398,-0.614215,-0.930605,0.818988,-0.572286,0.041805
-0.396683,-0.290919,0.480653,-0.387384,0.917945,-0.085500
-0.087847,0.571403,0.845813,0.855542,-0.435102,0.280596
-0.037009,-0.076382,0.906352,0.975081,0.180945,-0.128356
-0.435182,-0.403017,-0.097374,0.225699,-0.863662,-0.450719
0.047323,-0.148172,0.871993,0.782336,-0.344276,-0.519062
-0.157930,-0.009838,0.762796,0.996665,0.070501,-0.041099
-0.377009,-0.141375,0.649695,0.547438,0.824632,-0.142458
-0.370200,-0.437720,0.916205,0.905598,-0.306435,0.293238
-0.394555,-0.340886,0.004741,-0.406744,0.875577,-0.260623
-0.402746,-0.253354,0.205557,0.871611,0.163331,0.462187
-0.489739,-0.344702,-0.090344,0.987777,0.132858,0.081523
-0.469429,-0.468726,0.225483,-0.667274,0.741021,-0.075051
-0.852705,-0.678612,0.691103,0.729364,0.681143,0.063814
-0.078701,-0.197543,0.959962,0.995381,0.032832,0.090216
-0.233434,-0.578200,0.886798,0.725353,-0.524301,-0.446061
-0.277677,-0.316797,0.622992,-0.544319,-0.828092,0.134092
-0.577050,-0.685648,0.519744,-0.802935,-0.589874,-0.085696
-0.374030,-0.485779,-0.763506,-0.247863,-0.957240,0.149184
-0.395515,0.339694,0.825363,-0.263994,-0.773266,-0.576513
-0.162396,-0.303917,0.633369,0.093255,0.932194,0.349741
-0.452195,-0.337666,-0.368887,-0.167286,0.974463,0.149790
-0.320323,-0.300459,0.587787,-0.524295,-0.363829,0.769898
-0.328833,-0.296762,-0.246575,0.246238,0.858646,-0.449548
-0.060830,-0.373323,0.698556,-0.348300,0.927557,-0.135367
-0.279273,-0.446068,-0.708781,0.919209,0.393285,0.019522
-0.543018,-0.479697,-0.545062,0.982509,0.066120,-0.174082
-0.655112,-0.533480,0.864911,0.698078,0.681947,-0.218253
-0.223016,-0.242979,-0.339226,-0.733762,0.670671,0.108604
0.406570,0.223779,0.882285,0.179944,-0.904545,0.386548
0.206529,-0.132312,0.855582,0.314200,0.594758,-0.739960
0.232902,0.329080,0.858337,0.980993,0.034984,0.190862
-0.469533,-0.470634,-0.707412,0.867009,-0.485627,0.111636
0.285869,-0.394908,0.850579,0.615441,-0.363079,0.699576
-0.364988,-0.463836,0.898561,0.879318,0.175261,-0.442813
-0.358607,0.500209,0.799995,0.559825,0.413299,-0.718178
-0.510050,-0.037267,0.847470,0.972906,0.199944,0.116085
-0.285440,-0.381432,0.764672,-0.702015,-0.125684,0.700984
0.841859,0.227953,0.782587,0.469399,0.728267,-0.499291
-0.164097,-0.436527,0.451144,0.379872,0.891421,0.247114
-0.237478,-0.263133,0.672951,0.998224,-0.059228,-0.006331
-0.370518,-0.594657,-0.287087,0.170142,0.593143,0.786914
-0.428165,-0.465148,0.153097,0.979124,0.163883,-0.120246
-0.370518,-0.750402,-0.987409,0.188361,-0.174090,0.966547
