0.588989,0.093012,0.738588,-0.052605,0.234892,0.970597
0.658772,0.103402,0.683176,0.341223,0.608530,-0.716420
-0.423294,0.101235,0.828598,-0.072724,0.703554,0.706911
-0.321250,0.106657,0.820836,-0.525510,0.084663,0.846564
-0.321455,0.125724,0.678967,-0.304225,-0.069041,0.950095
-0.032175,0.104330,0.926446,0.899376,0.023961,-0.436519
-0.283524,0.140920,0.580269,0.819684,0.482959,-0.308007
0.044102,0.113167,0.883778,0.404512,0.869951,-0.282057
-0.021217,0.143550,0.637766,-0.225936,0.928891,-0.293453
0.091574,0.146967,0.648423,-0.730169,0.674156,0.111211
0.243106,0.166346,0.552660,0.867416,-0.328924,-0.373361
0.571134,0.156732,0.724300,-0.706316,0.209311,0.676244
0.661409,0.164169,0.694567,0.781424,0.623500,-0.024979
0.800771,0.163242,0.743028,-0.123392,0.245410,0.961534
-0.662260,0.193937,0.799753,-0.637865,0.510332,0.576792
-0.436276,0.201536,0.810874,-0.487758,-0.015268,0.872846
-0.312125,0.203864,0.832150,-0.090389,-0.931396,0.352606
-0.170324,0.222305,0.740595,-0.632205,0.314138,-0.708261
0.028483,0.233159,0.718508,-0.762841,0.497562,-0.412923
0.126663,0.239669,0.702831,-0.505069,0.593318,-0.626801
0.221605,0.246340,0.680782,-0.516999,0.855014,0.040776
0.266638,0.261536,0.584671,0.447648,0.877944,-0.169781
0.563018,0.255954,0.716462,-0.411045,-0.300067,-0.860815
-0.612969,0.278124,0.784268,-0.681589,0.256154,0.685436
-0.485976,0.279979,0.808325,-0.084428,0.742127,0.664920
-0.187974,0.296415,0.777086,0.450991,-0.539228,-0.711224
-0.079443,0.301222,0.777047,-0.242902,0.406063,0.880972
0.006369,0.308044,0.751176,0.948259,-0.271634,-0.164378
0.602373,0.342922,0.677693,0.073318,0.980396,0.182889
-0.617024,0.339203,0.800641,0.904247,0.079718,-0.419502
-0.123663,0.366644,0.749438,-0.580750,-0.440271,0.684756
0.006976,0.367732,0.780407,-0.087403,-0.887131,0.453167
-0.172757,0.478262,0.363372,-0.467113,0.067734,-0.881600
0.013674,-0.523695,-0.951561,-0.273287,0.422184,0.864335
-0.158760,-0.526183,-0.955461,-0.182097,0.275288,0.943958
-0.332412,-0.529126,-0.961678,0.424640,0.187280,0.885781
-0.505452,-0.532381,-0.968204,-0.098283,0.319951,0.942323
-0.679099,-0.534709,-0.972104,-0.077819,-0.072419,0.994334
0.002512,-0.651285,-0.952836,-0.347922,0.274589,0.896410
-0.154704,-0.653461,-0.953067,-0.127593,0.310901,0.941839
0.049779,-0.741054,-0.944186,0.187254,0.504522,-0.842849
0.221605,-0.760433,0.159566,-0.133007,-0.845317,0.517444
-0.303198,-0.470365,-0.962567,-0.058490,-0.200223,0.978003
-0.476238,-0.473005,-0.966544,-0.270207,0.638425,0.720695
-0.657796,-0.476411,-0.973996,-0.026566,0.075748,0.996773
0.037205,-0.464782,-0.954071,-0.593903,0.797568,-0.105664
-0.138472,-0.467574,-0.959516,0.694739,0.712939,0.095167
0.213898,-0.281847,-0.961254,-0.807983,0.305029,0.504105
0.054242,-0.284175,-0.962837,-0.366842,0.458357,-0.809528
-0.102163,-0.286654,-0.960250,0.890567,0.367020,0.268677
-0.266480,-0.288830,-0.960636,0.973156,0.183262,-0.139218
-0.452911,-0.292549,-0.969324,-0.371320,0.584437,0.721495
-0.627777,-0.295804,-0.976584,-0.175612,0.416971,0.891793
-0.154296,-0.271155,-0.648362,-0.459992,0.866927,0.191949
-0.124475,-0.266348,-0.572871,0.756249,-0.597098,-0.267511
0.108815,-0.225262,0.136050,-0.585062,0.189695,0.788491
-0.057329,-0.225726,0.185360,0.151851,0.076164,0.985465
-0.187361,-0.224175,0.250116,-0.596584,0.759897,0.258155
0.208822,-0.222007,-0.960404,-0.401439,0.110374,-0.909211
0.040041,-0.225111,-0.963107,0.325039,0.357930,0.875349
-0.108855,-0.226966,-0.959979,0.592278,0.297100,-0.748958
-0.264047,-0.228981,-0.959477,-0.469758,0.860701,-0.196267
-0.438914,-0.232085,-0.963262,-0.421676,-0.184986,-0.887676
-0.626762,-0.235964,-0.975888,0.288884,-0.253376,-0.923226
-0.106830,-0.212706,-0.692575,0.899409,0.104966,-0.424317
-0.060572,-0.206972,-0.607083,0.993985,0.052953,-0.095862
-0.116364,-0.205420,-0.565573,0.913298,-0.052679,0.403870
-0.090803,-0.201077,-0.492900,0.888832,-0.399264,0.224868
-0.054896,-0.196118,-0.416521,-0.141542,0.989719,0.020567
-0.122042,-0.192400,-0.319290,0.398047,-0.748723,0.530069
-0.121837,-0.188681,-0.255963,0.959274,0.126164,-0.252735
-0.182093,-0.187593,-0.217619,-0.811466,0.389850,0.435362
-0.172961,-0.177364,-0.035321,0.964968,-0.144667,-0.218879
-0.144966,-0.173021,0.036579,0.945831,-0.277058,0.169239
-0.133606,-0.169302,0.098516,0.396683,0.714215,0.576663
-0.165458,-0.167438,0.145549,0.874759,-0.401424,0.271397
-0.197303,-0.165574,0.192118,0.949487,-0.269124,-0.161393
0.309039,-0.106359,-0.963918,0.139536,-0.188298,0.972149
0.138023,-0.108989,-0.970367,-0.222847,-0.326154,0.918674
-0.022641,-0.111166,-0.969556,0.949588,-0.241729,0.199621
-0.122245,-0.111781,-0.945383,-0.645736,-0.758933,-0.083946
-0.272769,-0.113484,-0.940286,0.099313,0.899750,0.424954
-0.516608,-0.119227,-0.973803,0.178005,-0.541847,-0.821411
0.368273,-0.075966,-0.412969,0.136195,-0.986723,-0.088485
0.262379,-0.073175,-0.329794,0.309366,-0.946193,0.094929
-0.122042,-0.071159,-0.175414,0.735889,0.244104,-0.631570
-0.136850,-0.068065,-0.119732,0.567440,-0.820151,-0.073242
-0.171946,-0.066513,-0.074900,0.980184,0.193295,0.043312
-0.014933,-0.057211,0.046735,0.286472,0.957797,-0.023639
-0.074979,-0.055972,0.083264,-0.633305,-0.548832,-0.545627
-0.100943,-0.051316,0.189067,0.821391,-0.536165,0.194534
-0.081473,-0.040463,0.157287,-0.216413,-0.203053,0.954953
0.261976,-0.100464,-0.959902,0.527629,0.088213,0.844882
0.078994,-0.104183,-0.971371,-0.034675,-0.315246,0.948376
-0.057935,-0.105422,-0.960211,-0.114283,0.499730,0.858609
-0.141518,-0.105120,-0.926964,-0.500818,-0.831881,-0.239070
-0.337279,-0.108677,-0.940788,0.340572,0.927451,0.154417
-0.562049,-0.113796,-0.968938,0.249824,-0.506394,-0.825320
-0.142329,-0.060618,-0.162632,0.983550,-0.153763,0.094798
-0.157546,-0.057211,-0.107336,0.276814,-0.870422,0.407111
-0.183510,-0.054420,-0.056713,0.867582,0.341219,-0.361762
-0.050841,-0.046046,0.055307,0.688384,0.708056,-0.157429
-0.047188,-0.042327,0.113731,-0.152009,0.757319,-0.635107
-0.051243,-0.118291,-0.489348,0.880008,-0.204454,0.428701
0.008598,-0.111317,-0.403470,0.816080,-0.551145,-0.173932
-0.069097,-0.110541,-0.373505,0.885050,0.435410,0.164631
-0.122042,-0.108213,-0.331415,-0.369272,0.556763,-0.744079
-0.131780,-0.100152,-0.212869,0.617167,0.769692,0.163340
-0.153281,-0.097057,-0.159659,-0.638298,-0.768890,0.037201
-0.170119,-0.093642,-0.104054,-0.669947,0.640197,0.375924
-0.216780,-0.091314,-0.063973,0.863979,-0.188120,0.467068
-0.092833,-0.077830,0.101992,-0.788925,0.537745,0.297368
-0.089583,-0.073486,0.160106,0.093405,-0.470419,0.877486
0.290578,-0.148675,-0.961485,0.022044,-0.036652,0.999085
0.118553,-0.152241,-0.968397,-0.427752,0.368840,0.825218
-0.042929,-0.155033,-0.969594,-0.855175,0.518263,-0.008912
-0.138881,-0.153954,-0.941329,0.501756,-0.238733,0.831413
-0.216174,-0.152403,-0.907889,-0.209636,0.941230,-0.264839
-0.505248,-0.161392,-0.960559,0.053533,-0.020605,0.998353
-0.032578,-0.123249,-0.567890,-0.030546,-0.926971,0.373887
0.182653,-0.108838,-0.417680,-0.071095,0.967583,0.242339
0.135386,-0.105271,-0.372810,0.054071,-0.985122,0.163131
-0.128331,-0.107901,-0.354700,0.061094,-0.996228,0.061626
-0.143548,-0.093802,-0.175800,0.692918,0.647007,0.318191
0.242091,-0.146356,-0.962567,0.015086,-0.098444,0.995028
0.068444,-0.149148,-0.966582,0.391978,0.080471,0.916448
-0.070720,-0.151002,-0.956388,0.910643,-0.177285,0.373228
-0.176409,-0.151002,-0.935034,-0.055663,0.896234,0.440076
-0.194871,-0.147435,-0.876920,0.814243,-0.571776,-0.100402
-0.107028,-0.138446,-0.772661,0.638422,0.611309,-0.467672
-0.063823,-0.132399,-0.691108,0.794286,0.532383,-0.292708
0.568497,-0.099224,-0.364469,0.116582,-0.760583,0.638687
-0.032380,-0.121858,-0.546536,0.016759,0.928551,0.370827
-0.179654,-0.086507,-0.070228,0.946257,0.323260,0.010051
-0.004589,-0.073486,0.056002,0.031921,0.912820,0.407112
-0.081473,-0.072711,0.085658,0.405652,0.779900,0.476658
-0.065848,-0.066976,0.150723,-0.541144,0.321842,0.776904
-0.128127,-0.088683,-0.110889,0.904167,-0.148711,-0.400458
0.246555,-0.066201,-0.959941,0.456154,-0.128277,-0.880607
0.064185,-0.070231,-0.970984,-0.113500,0.370089,0.922037
-0.100745,-0.073023,-0.972375,0.117218,0.572035,0.811810
-0.221646,-0.073335,-0.954805,0.099314,0.903553,0.416807
-0.416799,-0.077205,-0.968204,-0.660000,0.737889,0.141136
-0.610536,-0.081709,-0.983302,0.085621,0.150126,0.984952
0.473561,-0.009152,-0.279054,-0.448638,0.686484,-0.572245
-0.010266,-0.027292,-0.411888,0.879115,0.095683,0.466907
-0.103383,0.001701,-0.021690,0.855261,-0.422277,-0.300351
-0.045969,0.009451,0.060713,0.781649,0.399013,-0.479389
-0.057935,0.013170,0.113035,-0.078743,-0.892324,0.444474
-0.072342,0.017361,0.163968,0.764226,0.643700,-0.040100
-0.044347,0.023408,0.233126,-0.714837,0.698269,-0.037798
0.183266,-0.061857,-0.960829,-0.232278,-0.224351,0.946422
-0.013312,-0.066049,-0.975193,-0.139716,0.476676,0.867905
-0.136645,-0.066976,-0.958705,-0.400851,-0.670326,-0.624485
-0.292247,-0.069768,-0.958705,0.713909,0.695540,-0.080982
-0.498351,-0.074575,-0.979364,0.419806,-0.395694,-0.816817
-0.047188,-0.117212,-0.560205,0.116912,-0.980320,0.159074
0.109830,-0.102016,-0.433936,0.449136,0.810125,-0.376794
0.020973,-0.100776,-0.405902,0.894791,-0.442153,0.062042
-0.086747,0.014882,0.007966,0.908074,-0.248366,-0.337219
-0.090196,0.019840,0.064150,-0.436607,0.498524,0.748898
-0.069908,0.026038,0.131300,-0.224292,0.971483,0.076895
-0.066665,0.030845,0.189067,0.984295,-0.153804,0.086652
0.261363,-0.151778,-0.958358,-0.021856,-0.096319,0.995111
0.091574,-0.155194,-0.964266,0.032378,-0.637984,0.769369
-0.060374,-0.157673,-0.961485,0.935594,-0.114010,0.334164
-0.182699,-0.157824,-0.944418,0.067441,-0.457215,0.886796
-0.229762,-0.153642,-0.898698,0.684217,-0.725084,-0.078103
-0.117578,-0.127441,-0.651837,0.860218,0.465158,0.208934
-0.171543,-0.080470,-0.174989,0.708250,0.695648,-0.120227
-0.212718,-0.071320,-0.071502,0.901632,0.389886,0.187212
0.185903,-0.043255,0.141224,-0.567175,0.535929,0.625374
-0.084308,-0.052556,0.095620,0.946624,-0.249801,-0.203722
-0.104596,-0.047446,0.146630,-0.517861,0.421056,0.744669
0.237429,-0.108989,-0.960636,0.065336,0.053135,0.996448
0.054447,-0.112708,-0.969401,0.720471,0.158279,0.675181
-0.095266,-0.114572,-0.963918,0.357494,0.514933,0.779129
-0.187974,-0.113181,-0.937081,-0.180894,-0.937317,0.297850
-0.374405,-0.117676,-0.949785,0.641634,0.425834,-0.637943
0.003527,-0.054733,-0.404203,0.857894,0.152183,0.490773
-0.096282,-0.015975,-0.017520,0.810536,-0.233608,-0.537084
-0.102367,-0.010079,0.037622,0.550749,0.810681,0.198674
-0.049826,-0.001090,0.117283,0.413000,0.881882,-0.227412
-0.082080,0.003253,0.161342,0.888800,0.440656,0.125926
-0.085930,0.008836,0.218028,-0.396186,0.888055,-0.233225
0.339875,-0.014887,-0.962219,0.818316,0.172797,-0.548179
0.170482,-0.018917,-0.967277,-0.570133,0.116409,0.813264
-0.013108,-0.022333,-0.978900,0.635774,-0.122848,-0.762036
-0.165860,-0.024188,-0.974653,0.191945,-0.076694,-0.978404
-0.311512,-0.026516,-0.970019,-0.229517,0.334253,0.914110
-0.499565,-0.030386,-0.980136,0.007236,-0.037709,0.999263
-0.028523,0.079841,0.025265,-0.767393,0.640266,0.034169
-0.215560,0.075649,0.012329,0.135444,-0.986349,0.093654
-0.115751,0.077664,-0.977974,0.143684,0.171385,-0.974670
-0.277636,0.074873,-0.977317,0.073885,0.112421,0.990910
-0.453926,0.071306,-0.985426,-0.269144,0.112967,0.956452
0.043898,0.139520,-0.391036,0.617283,-0.099606,-0.780410
-0.282508,0.111615,-0.981874,0.046985,0.285786,0.957141
-0.429986,0.109761,-0.977974,-0.551918,0.020928,0.833636
0.052621,0.179830,-0.389723,-0.677139,0.169704,0.716019
0.110233,0.306180,0.089172,0.841704,-0.226100,-0.490320
0.278611,0.556714,0.190573,-0.116469,-0.911435,0.394615
0.348598,0.644770,0.214514,-0.089222,0.087920,0.992124
-0.607490,0.293008,0.785658,-0.652517,0.352058,0.671027
0.586958,0.252850,0.637109,-0.486081,0.870381,0.078501
0.532998,0.255178,0.669854,-0.920010,0.127171,-0.370688
0.009006,0.253777,0.744457,0.528848,0.020567,-0.848467
-0.590446,0.248204,0.788979,0.703081,0.123618,-0.700283
-0.002354,0.110536,0.323986,0.382370,0.821473,-0.423055
0.595477,0.160763,0.714338,0.096506,-0.672463,0.733812
-0.014123,0.132858,0.542504,0.656119,-0.611933,-0.441639
0.093597,0.144175,0.637457,0.733321,-0.542842,-0.409343
-0.139896,0.142311,0.657227,-0.756232,0.644390,-0.113470
-0.049826,0.158596,0.795930,0.433616,-0.399727,-0.807586
-0.437292,0.153477,0.815700,0.539731,0.143528,-0.829512
0.079600,0.029766,0.396040,0.881644,0.401216,-0.248455
0.156689,0.051312,0.588957,0.173217,-0.506062,0.844925
0.045118,0.050536,0.600696,0.234303,0.863291,-0.447025
-0.050228,0.050848,0.620235,-0.536744,0.004514,0.843733
-0.216174,0.047896,0.614018,-0.663097,0.686254,0.298928
-0.215158,0.053943,0.669120,0.979414,-0.193876,0.056213
-0.105611,0.064957,0.760559,0.652655,-0.529439,-0.541974
-0.317802,0.069763,0.839718,0.910228,-0.021760,-0.413536
-0.765722,0.057046,0.786199,0.922181,-0.189945,-0.336903
0.105162,-0.019381,0.395615,0.598955,0.716114,-0.358377
-0.316991,-0.030859,0.348197,-0.217090,-0.938285,-0.269244
-0.096684,-0.013183,0.487556,-0.724607,0.375760,0.577710
-0.004589,-0.002954,0.577373,0.305326,0.590203,-0.747286
-0.220835,-0.003882,0.605754,0.958388,0.141351,-0.248016
-0.141314,0.010851,0.740711,0.980873,0.066964,-0.182768
0.013872,0.024486,0.848252,0.030117,-0.668676,0.742944
0.031318,0.031006,0.907448,0.754997,-0.655650,0.010117
-0.273376,0.020153,0.851032,0.832927,0.543031,-0.106536
-0.359188,0.020767,0.873004,-0.018878,0.524638,0.851116
-0.512553,0.017674,0.868834,0.197773,0.794129,-0.574669
0.010225,0.063093,0.554899,0.883925,-0.118621,-0.452333
0.132953,0.073170,0.654099,0.243008,0.697576,-0.674044
-0.196901,0.066348,0.642476,0.878939,-0.426570,0.213319
-0.218811,0.070227,0.689045,0.992047,-0.081119,0.096240
-0.048402,0.082783,0.802224,0.668156,0.427333,0.609060
-0.055911,0.091309,0.903278,-0.148964,0.855746,0.495488
-0.345797,0.086038,0.902814,0.159294,0.787513,0.595356
0.017321,0.030381,0.312208,0.715875,-0.647276,0.261834
0.076152,0.037516,0.392024,0.966280,0.256012,0.027590
0.156082,0.054567,0.588571,0.173217,-0.506062,0.844925
0.055258,0.053943,0.604248,-0.191927,-0.902760,0.384953
-0.042118,0.053639,0.623092,-0.510849,0.859670,0.000802
-0.246601,0.048520,0.600773,0.828805,-0.557474,0.048021
-0.212316,0.054567,0.667923,0.987387,-0.107761,0.115997
-0.084308,0.064332,0.768668,-0.182005,0.698175,0.692406
-0.299546,0.067436,0.846939,0.931417,0.338963,0.132540
-0.685593,0.058285,0.813538,0.376611,-0.872338,-0.311754
-0.213734,-0.034417,0.598881,0.655473,0.706394,0.267138
0.078182,-0.047134,0.376231,0.092254,0.747275,0.658080
0.670336,-0.016126,0.656378,0.977254,-0.121787,-0.173614
-0.279462,-0.054571,0.353294,-0.469917,-0.834742,0.287026
-0.010674,-0.038145,0.509913,-0.606104,-0.487405,-0.628549
-0.056722,-0.035505,0.548528,0.055968,0.921320,0.384757
-0.183510,-0.037208,0.557062,0.601484,0.798864,0.005789
-0.200145,-0.029620,0.656378,0.975062,-0.158625,-0.155214
-0.080458,-0.020157,0.754304,0.508611,0.853982,0.109683
0.061343,-0.009616,0.857095,0.625831,0.642272,-0.442518
0.049377,-0.005737,0.905749,0.198414,-0.944810,0.260703
-0.276825,-0.015975,0.841533,0.996823,0.030101,0.073748
-0.235036,-0.010241,0.909147,0.371411,-0.816795,-0.441475
-0.472790,-0.016751,0.875707,0.472641,0.881247,0.003815
-0.472586,-0.012559,0.926215,0.538286,-0.556198,-0.633160
-0.046779,-0.060315,0.349819,0.801208,-0.592394,0.084472
-0.193453,-0.062482,0.349510,0.857379,-0.507909,0.083243
-0.124883,-0.055347,0.430407,0.734266,-0.637981,-0.232022
-0.146997,-0.052556,0.478675,-0.132514,-0.690331,0.711255
-0.038670,-0.044494,0.572585,-0.192843,0.631808,-0.750753
0.166223,-0.032250,0.703333,0.809768,-0.484648,-0.330744
-0.267291,-0.046359,0.598804,-0.738654,0.478634,-0.474658
-0.088166,-0.035354,0.718431,0.779605,0.610241,0.140790
0.091165,-0.024037,0.835394,-0.040088,0.999126,0.011866
0.014281,-0.023412,0.858755,0.208174,0.821749,-0.530465
-0.041913,-0.022173,0.891462,-0.053607,0.763383,0.643718
-0.271754,-0.028371,0.859875,0.172132,-0.483773,-0.858099
-0.360605,-0.028531,0.880958,-0.814249,0.376070,0.442232
-0.564278,-0.032875,0.861227,-0.218405,-0.616076,0.756802
-0.112105,-0.431456,0.635642,-0.441998,-0.352542,-0.824834
-0.226110,-0.432071,0.648771,-0.232128,0.541577,0.807967
-0.122852,-0.419515,0.844777,0.029760,0.700956,0.712583
0.009210,-0.437191,0.516053,0.945323,0.039755,-0.323703
0.139038,-0.428816,0.620350,-0.391786,-0.757693,-0.521923
-0.449667,-0.427737,0.780677,0.363670,0.494575,-0.789392
-0.801220,-0.433935,0.759980,0.531285,0.375950,-0.759209
-0.062603,-0.445716,0.380324,-0.569389,0.502693,0.650458
0.006976,-0.440294,0.461144,0.979862,-0.185218,-0.074592
-0.024059,-0.567108,0.452301,0.972488,-0.213213,-0.093846
0.318573,-0.550984,0.636993,0.406343,0.828258,-0.385841
0.266842,-0.549281,0.673059,0.254877,-0.735036,-0.628299
0.015501,-0.555328,0.632861,0.088680,0.075524,0.993193
-0.111288,-0.557031,0.638963,-0.388115,0.708036,-0.589959
-0.093842,-0.552687,0.700243,0.984938,0.149529,-0.086825
-0.484354,-0.564316,0.610079,-0.581867,-0.255004,0.772272
0.130724,-0.651446,0.500492,0.871503,0.342578,-0.350888
-0.113114,-0.640129,0.738896,0.940759,0.286829,-0.180835
0.127276,-0.648342,0.555324,0.921793,0.289300,0.258076
0.384301,-0.635473,0.704723,0.420454,0.176250,-0.890030
0.136401,-0.739502,0.525630,0.606318,0.789937,0.091529
0.461587,-0.723842,0.703410,-0.450675,0.803658,0.388621
0.344134,-0.724770,0.712484,0.679208,0.705791,0.201333
0.508248,-0.367273,0.528719,0.320501,-0.942459,-0.095129
-0.001747,-0.383548,0.392140,0.800301,-0.581738,-0.145256
0.130724,-0.375335,0.496514,0.246644,0.726429,-0.641457
0.052825,-0.375174,0.523583,0.818458,0.574563,0.001606
0.156286,-0.367585,0.617879,0.245753,0.418260,0.874451
-0.044142,-0.371456,0.598997,0.457515,0.863639,-0.211679
0.073112,-0.364018,0.695146,0.773484,-0.550286,-0.314498
-0.268307,-0.373168,0.622397,0.433349,0.716668,0.546438
-0.421059,-0.372856,0.673909,-0.521031,0.612734,0.594209
-0.135023,-0.359211,0.831185,0.998336,-0.051098,-0.026722
-0.366084,-0.364018,0.801529,0.529207,0.847358,-0.043871
-0.330382,-0.359363,0.867405,0.992362,-0.033066,0.118844
-0.641571,-0.367737,0.807360,0.044233,0.002221,0.999019
-0.161805,-0.199686,0.703024,-0.470873,-0.712726,0.519904
0.692245,-0.189921,0.641434,0.766685,0.415697,-0.489275
0.603184,-0.190223,0.663521,-0.244983,0.800393,0.547133
0.514334,-0.190697,0.685802,0.438743,-0.823184,0.360379
-0.061390,-0.208211,0.524239,0.806107,0.491881,0.329005
-0.050636,-0.204644,0.581852,-0.680263,0.711015,0.178044
0.103745,-0.196582,0.693756,-0.523697,0.847085,-0.090490
0.014077,-0.196743,0.713102,0.357496,0.857217,-0.370642
-0.109060,-0.131936,0.774731,-0.834379,0.379208,0.400017
0.685956,-0.124650,0.693061,-0.782295,-0.103403,-0.614266
-0.164034,-0.151939,0.430136,-0.619882,0.763709,0.180262
-0.037246,-0.144644,0.531306,0.761173,-0.137789,0.633743
-0.219417,-0.147747,0.519335,-0.341852,-0.268275,-0.900648
0.129102,-0.132399,0.703526,0.872860,0.023399,0.487410
-0.363651,-0.146820,0.577180,-0.345763,-0.041350,0.937410
0.033553,-0.129920,0.774808,-0.730237,-0.682547,0.029731
-0.251263,-0.199998,0.724725,0.492079,0.820410,0.291179
-0.002763,-0.188832,0.868293,-0.473262,0.849321,-0.233830
-0.292042,-0.196270,0.815893,-0.351321,-0.016856,-0.936103
-0.273785,-0.192712,0.873545,0.543913,-0.815821,-0.196457
-0.288791,-0.190072,0.921040,-0.383608,-0.745991,-0.544373
-0.469137,-0.193791,0.907525,0.667668,0.508848,-0.543408
0.101305,-0.037984,0.379706,0.600355,0.079856,-0.795737
-0.046779,-0.040000,0.379358,-0.651894,0.664146,0.365983
-0.219417,-0.043255,0.371443,0.113480,0.975700,0.187433
0.004747,-0.032562,0.512076,-0.764560,-0.137042,-0.629815
-0.081065,-0.032713,0.536248,-0.476303,0.871136,0.119402
-0.220024,-0.034577,0.538102,0.269812,0.898983,-0.345009
-0.212923,-0.031635,0.593475,0.680318,-0.143635,0.718705
-0.278651,-0.030859,0.624328,0.746077,-0.574521,0.336593
-0.031364,-0.019230,0.766737,0.803158,0.492477,0.335268
0.069664,-0.013023,0.857095,0.625831,0.642272,-0.442518
0.011037,-0.012407,0.889029,-0.409962,0.831337,-0.375247
-0.233211,-0.018142,0.854276,0.808797,0.584234,-0.067210
-0.271148,-0.016590,0.891577,-0.593819,-0.700741,0.395400
-0.451085,-0.019693,0.878062,0.277502,0.883452,0.377498
-0.504233,-0.018917,0.911541,0.925242,-0.378261,0.029091
-0.158555,-0.131008,0.810372,-0.024486,0.814675,0.579400
-0.312936,-0.133800,0.805352,-0.376890,-0.209812,-0.902182
-0.403613,-0.133800,0.826010,0.729018,0.672486,-0.127652
-0.295286,-0.127280,0.917410,0.660237,-0.240913,-0.711370
-0.471979,-0.130847,0.906985,0.740183,0.112792,0.662877
0.078182,-0.024349,0.390093,0.779504,0.555093,-0.290251
-0.107437,-0.024652,0.433805,-0.479601,0.874748,0.069279
-0.026696,-0.018605,0.517945,-0.539971,-0.724884,-0.427754
-0.010674,-0.015038,0.577373,-0.079759,0.654606,-0.751751
0.027467,-0.010079,0.646801,0.131807,0.875739,0.464443
-0.209475,-0.015662,0.612319,-0.345796,0.936407,-0.059725
-0.196090,-0.012256,0.672016,0.790468,-0.570813,0.222111
0.076963,0.001550,0.825586,0.407469,0.883686,0.230365
0.049983,0.003253,0.869065,0.932049,0.329499,-0.150714
0.041056,0.005732,0.916715,0.303182,0.939166,-0.161395
-0.258568,-0.002018,0.860029,0.416511,0.804971,0.422541
-0.399960,-0.004345,0.862308,0.139412,-0.899475,0.414137
-0.553122,-0.006824,0.858485,-0.314991,-0.763902,0.563235
0.071081,-0.677798,-0.947854,0.003363,-0.094568,0.995513
-0.560019,-0.569435,-0.968436,-0.209753,-0.024542,0.977446
-0.328147,-0.556567,-0.964845,-0.701517,-0.223490,-0.676702
-0.046779,-0.540595,-0.950519,0.004330,-0.041559,0.999127
-0.725351,-0.429753,-0.972220,0.086414,0.390364,0.916596
-0.491047,-0.416723,-0.968011,-0.251336,0.256913,0.933180
-0.260394,-0.404166,-0.964574,0.060641,-0.008109,0.998127
-0.008439,-0.389755,-0.957740,0.083128,-0.002930,0.996535
0.211867,-0.377814,-0.956736,-0.484169,-0.052386,-0.873405
-0.631226,-0.301539,-0.977626,0.042014,0.431863,0.900960
-0.362227,-0.286815,-0.966621,0.357133,-0.411330,-0.838608
-0.100943,-0.272082,-0.957933,0.987107,-0.053570,0.150831
0.094613,-0.261077,-0.963648,-0.221463,0.804711,-0.550813
-0.140101,-0.174573,-0.334543,0.532665,-0.792006,-0.298320
-0.112916,-0.172084,-0.381228,0.067300,-0.936208,0.344941
-0.216984,-0.174724,-0.517884,-0.518179,-0.833001,0.193906
-0.070720,-0.165574,-0.535222,-0.689388,0.692124,0.213796
-0.094858,-0.165423,-0.598318,0.968602,-0.165061,0.185918
-0.089583,-0.163719,-0.654115,-0.565313,0.521008,0.639509
-0.054085,-0.160768,-0.702653,-0.593517,-0.564234,0.573914
-0.242540,-0.168678,-0.806680,0.236494,0.963502,-0.125438
-0.385560,-0.173172,-0.958512,-0.552284,0.636257,0.538664
-0.174992,-0.161704,-0.959632,0.305006,0.505487,-0.807127
0.033553,-0.149299,-0.963957,0.120659,-0.023939,0.992405
0.271101,-0.136430,-0.960481,0.120697,0.263078,0.957195
-0.027712,-0.053956,-0.505875,-0.078067,0.984454,-0.157338
-0.398135,-0.062794,-0.942140,-0.553477,0.667959,0.497488
-0.205624,-0.052092,-0.948743,0.758971,0.628393,0.170545
-0.075586,-0.043728,-0.971409,-0.327302,-0.683506,0.652451
0.172915,-0.030235,-0.965154,-0.623697,0.282461,0.728847
-0.175190,-0.080470,0.207718,0.864877,-0.501673,0.017674
-0.130158,-0.076903,0.168022,-0.491041,0.856291,-0.160139
-0.149225,-0.075190,0.059400,0.886104,-0.463465,-0.004509
-0.199736,-0.076278,-0.006437,-0.005777,0.365199,0.930911
-0.138472,-0.070695,-0.099459,0.918329,-0.387765,0.079435
-0.162617,-0.069920,-0.157612,0.870538,0.489662,-0.048946
-0.119608,-0.065274,-0.254418,0.430499,0.900244,0.065045
-0.151862,-0.065425,-0.315352,0.938989,-0.040216,0.341587
-0.107840,-0.061857,-0.360029,-0.193188,0.976345,0.097099
-0.055707,-0.057988,-0.402620,-0.547464,0.248661,-0.799031
-0.291231,0.084174,-0.976082,-0.384568,0.221805,0.896053
-0.067271,0.096429,-0.976584,-0.253451,-0.327384,0.910265
0.106989,0.317184,0.090755,0.801402,-0.251600,-0.542635
0.401338,-0.543073,0.712523,0.979250,0.016209,-0.202008
0.019760,-0.423082,0.704646,0.258813,0.685749,0.680267
0.128292,-0.413165,0.533468,0.841854,0.433255,-0.321825
0.145737,-0.411301,0.486668,0.001376,-0.952817,0.303543
0.335208,-0.400760,0.479794,0.508001,0.859977,-0.048723
-0.396110,-0.330531,0.826126,-0.581209,-0.745104,0.327132
-0.150240,-0.317037,0.834583,0.903020,0.371259,0.216152
-0.376429,-0.326348,0.685918,-0.028849,-0.143330,0.989254
-0.112507,-0.311000,0.648307,-0.185729,-0.161209,0.969287
0.048968,-0.299986,0.584169,0.842016,0.263545,-0.470695
-0.180669,-0.208363,0.935482,0.349200,0.534905,-0.769374
-0.267087,-0.211618,0.869142,-0.488198,0.508378,-0.709376
-0.347419,-0.214409,0.801606,0.176431,0.970306,0.165465
-0.346812,-0.213170,0.751794,-0.628044,0.374455,-0.682161
-0.109468,-0.200150,0.756003,0.232914,0.950358,0.206327
-0.201563,-0.203717,0.687037,0.740410,-0.133853,-0.658693
-0.005598,-0.192712,0.683948,0.968218,-0.205972,-0.141876
-0.121639,-0.197358,0.606797,0.317593,-0.920615,0.227164
0.031523,-0.188057,0.593784,0.943769,-0.317835,-0.091003
0.859807,-0.144492,0.685338,-0.594214,0.771826,0.226259
0.841754,-0.144180,0.630815,-0.268449,-0.950563,0.156093
-0.195273,-0.193327,0.288345,-0.849141,0.524508,0.062054
-0.302591,-0.106510,0.924284,0.872858,-0.298534,0.386000
-0.262623,-0.103407,0.886326,0.585791,-0.467847,0.661791
-0.266275,-0.102328,0.838174,0.286317,-0.193393,0.938414
-0.313747,-0.103567,0.778090,0.983879,0.088115,0.155618
-0.049621,-0.089147,0.790447,-0.008217,-0.999204,0.039039
-0.071933,-0.089147,0.735498,-0.000726,-0.032987,0.999456
-0.032986,-0.085892,0.694567,0.968934,-0.012295,0.247012
-0.124072,-0.087283,0.574901,-0.306186,-0.600764,0.738466
-0.179047,-0.088834,0.513234,-0.562598,0.781751,-0.268977
-0.138881,-0.084340,0.422336,-0.059471,0.902235,0.427125
0.026452,-0.074887,0.409555,-0.403680,0.682620,0.609157
-0.159570,-0.082788,0.314023,-0.389376,0.823145,-0.413302
-0.140101,-0.080622,0.266412,0.841913,-0.210289,0.496952
-0.055911,0.051161,0.585211,0.363123,-0.238291,0.900755
-0.519246,0.016897,0.872270,0.247512,0.669417,-0.700442
-0.060572,0.042010,0.877097,0.781685,-0.576782,0.237258
-0.207451,0.040307,0.650933,-0.569006,0.646097,0.508714
-0.532637,0.151149,0.774615,-0.058464,-0.205726,0.976862
-0.063210,0.179990,0.684180,0.061372,0.975702,-0.210331
0.090558,0.188818,0.671321,0.971045,-0.211316,0.111434
-0.508696,0.257969,0.802263,-0.069636,0.482137,0.873324
0.026044,0.394236,0.786469,-0.759368,-0.648368,-0.054580
-0.360407,-0.083564,0.886326,0.969859,0.205365,0.131145
0.021382,-0.126353,0.424074,-0.160185,0.961162,-0.224739
0.067634,0.212853,0.923396,0.254976,0.966238,-0.037025
0.085283,0.179517,0.822496,0.545004,0.829122,-0.124613
0.076963,0.064644,0.930809,-0.635300,0.769028,-0.070638
-0.113319,-0.180922,0.860146,-0.451386,0.805223,0.384535
-0.331397,-0.257662,0.625177,0.990502,-0.107493,-0.085742
0.284492,-0.016438,-0.964266,-0.031550,0.545807,-0.837317
-0.347827,-0.070393,0.835896,0.364345,-0.844899,0.391660
-0.330178,-0.018454,0.879298,0.242838,-0.908533,-0.339997
-0.271148,-0.058602,0.940154,0.443048,0.896410,0.012599
-0.271754,-0.136894,0.773070,0.786460,0.581531,0.208092
-0.231589,-0.132560,0.826821,0.425997,0.522455,-0.738625
-0.183306,-0.151466,0.883430,0.035849,0.150375,0.987979
-0.154296,-0.128368,0.930732,0.437667,-0.898972,-0.017249
-0.259583,-0.245417,0.549068,0.975134,0.201375,-0.092530
-0.247616,-0.181698,0.588416,0.993394,0.097280,-0.060862
-0.187770,-0.221695,0.652709,-0.098958,-0.748700,-0.655481
-0.170528,-0.188681,0.457977,-0.047217,-0.822427,0.566908
-0.020407,-0.065112,0.705688,0.990529,0.101222,0.092772
0.097455,-0.148986,0.831030,-0.164721,-0.576759,0.800135
0.071081,-0.002642,0.851843,-0.709589,-0.623654,0.327932
0.030711,-0.073950,0.539955,0.463950,0.581441,-0.668339
0.076560,-0.087444,0.596564,0.879426,0.475937,-0.009708
-0.540951,0.015809,0.832189,-0.662350,0.352807,-0.660923
-0.531825,0.139368,0.805004,-0.593895,0.804535,-0.003611
-0.466704,-0.057826,0.833386,-0.242321,-0.653104,0.717450
-0.517420,0.134410,0.816627,0.069632,0.075566,0.994707
-0.508696,-0.062482,0.822612,-0.146198,-0.840522,0.521679
-0.466909,-0.197358,0.678658,-0.526593,0.351966,-0.773834
-0.455139,-0.146820,0.621470,0.625433,-0.763813,-0.159451
-0.077208,-0.048998,-0.967471,-0.082858,0.092742,0.992237
-0.233211,-0.092865,0.377312,0.150082,-0.910121,-0.386206
-0.222259,-0.112244,0.335763,-0.098392,0.894123,0.436879
-0.211301,-0.178604,0.306570,0.884869,0.465549,0.016460
-0.199334,-0.143253,0.249421,0.474664,0.841129,0.259222
-0.186550,-0.077367,0.185553,0.687559,-0.726125,0.002447
-0.175190,-0.083564,0.141069,0.893347,-0.433059,0.119963
-0.163223,-0.079997,0.091180,0.994828,-0.080751,-0.061620
-0.152067,-0.101391,0.050480,0.870703,-0.486672,-0.070896
-0.139896,-0.072711,-0.006321,0.743279,0.381719,0.549387
-0.365273,-0.020782,0.898605,0.504052,-0.348545,0.790220
-0.355133,-0.091938,0.872232,0.500508,0.601340,-0.622802
-0.344986,-0.136118,0.840607,-0.192666,-0.752021,0.630353
-0.335248,-0.212393,0.817361,-0.494680,-0.023731,0.868751
-0.323887,-0.202014,0.768823,0.175411,-0.638992,0.748946
-0.312936,-0.184177,0.720477,-0.389802,0.824371,0.410447
-0.301780,-0.189296,0.676032,-0.441411,-0.291125,-0.848765
-0.288996,-0.112405,0.609925,0.897494,0.337683,0.283679
-0.278447,-0.164959,0.577720,0.560877,0.002665,-0.827895
-0.267898,-0.190536,0.540187,0.987510,0.111071,-0.111744
-0.255324,-0.072711,0.463769,-0.198506,-0.980062,0.008532
-0.244775,-0.131784,0.432994,0.662454,0.722254,0.198756
-0.200956,-0.128056,0.955175,0.618529,0.550629,-0.560562
-0.190407,-0.128681,0.912584,0.230718,0.181636,-0.955917
-0.180062,-0.192087,0.884202,0.613095,0.416905,0.671047
-0.168702,-0.175348,0.834776,-0.671586,0.322570,0.667024
-0.158963,-0.290534,0.819716,0.527830,0.629209,0.570518
-0.116160,-0.428201,0.679585,0.916186,-0.397778,-0.048745
-0.101754,-0.192087,0.571233,-0.219581,0.804248,0.552240
-0.090196,-0.200150,0.527135,-0.407240,0.835253,0.369469
-0.077616,-0.115660,0.457823,0.805763,0.569400,-0.162879
-0.065649,-0.059842,0.397816,-0.415081,-0.261503,-0.871392
-0.053070,0.045880,0.324063,-0.621648,0.319137,0.715336
-0.047392,-0.389444,0.394650,0.535636,-0.483339,-0.692443
-0.005598,0.051312,0.892311,0.618314,-0.086563,-0.781150
0.005149,0.020153,0.857327,-0.576182,-0.204484,0.791329
0.015699,-0.041087,0.828327,-0.432946,0.899161,0.063774
0.023815,-0.262317,0.842537,0.722367,-0.691248,-0.019034
0.038623,-0.021709,0.734108,-0.542163,0.690703,0.478528
0.047953,-0.181859,0.730440,0.698191,0.674314,0.240479
0.061343,-0.122322,0.669159,-0.061825,0.998007,-0.012639
0.083049,-0.173636,0.594363,0.903743,-0.383246,-0.190713
0.121389,-0.701208,0.552698,-0.379748,-0.653899,0.654376
0.222819,0.266495,0.622629,0.893832,-0.291540,-0.340688
0.242091,-0.047749,0.615408,0.827839,0.493523,0.266679
0.423247,-0.475021,0.698506,0.764146,-0.561214,-0.317995
0.451651,-0.243250,0.546250,0.159664,-0.595509,0.787323
0.609474,-0.127280,0.660934,0.927278,-0.320421,-0.193613
-0.706890,-0.420915,-0.969054,0.338167,-0.596580,-0.727829
-0.710338,-0.513314,-0.978630,-0.129711,0.618950,0.774646
-0.454124,0.115646,-0.982878,-0.247498,0.233698,0.940282
-0.459201,0.018913,-0.986546,0.790358,-0.195291,-0.580685
-0.466500,-0.084340,-0.980175,0.751798,0.134010,0.645632
-0.475631,-0.187130,-0.967664,0.739249,0.233119,0.631797
-0.479284,-0.278905,-0.973880,0.180507,-0.426875,-0.886112
-0.486385,-0.380142,-0.970560,-0.103978,0.053576,0.993136
-0.495919,-0.483859,-0.956736,0.218715,-0.493341,0.841890
-0.498754,-0.575946,-0.966930,-0.182433,0.356015,0.916500
-0.316786,0.133473,-0.978669,0.091445,0.079470,0.992634
-0.323689,0.032396,-0.975580,-0.105744,0.164920,0.980622
-0.330382,-0.070080,-0.971062,-0.324225,0.297405,0.898014
-0.336672,-0.168829,-0.970367,-0.431339,-0.432565,0.791728
-0.342348,-0.264332,-0.967857,-0.404574,0.648302,0.644999
-0.349449,-0.362315,-0.963339,0.841638,0.418228,-0.341659
-0.357566,-0.466031,-0.955346,0.341159,-0.127601,0.931305
-0.365478,-0.567259,-0.944688,0.022531,0.826449,0.562560
-0.404022,-0.270994,-0.007827,0.416653,-0.029901,-0.908574
-0.154909,0.137040,-0.975695,-0.060711,-0.039122,0.997388
-0.159570,0.043401,-0.977240,-0.105923,0.219732,0.969793
-0.208261,-0.162007,-0.820504,-0.570027,0.819060,-0.064887
-0.185133,-0.186968,-0.923952,0.959004,-0.242634,0.146425
-0.181078,-0.261077,-0.960983,0.474184,-0.235923,0.848227
-0.187361,-0.360602,-0.960095,-0.150144,0.070675,0.986135
-0.192437,-0.458272,-0.961601,-0.392329,0.227874,0.891152
-0.200145,-0.557958,-0.953376,0.516923,-0.623534,-0.586511
-0.209475,-0.661211,-0.938278,0.423403,0.844780,-0.327226
-0.345797,-0.204956,0.175552,0.804568,-0.499951,-0.320499
-0.300152,-0.154418,-0.009758,0.992573,-0.066032,0.102167
-0.266889,-0.140925,-0.149079,0.989646,-0.016834,-0.142537
-0.250860,-0.175812,-0.228315,0.952273,0.113057,-0.283540
-0.228951,-0.193791,-0.326511,0.857249,0.090742,-0.506843
-0.203185,-0.206811,-0.441582,-0.221344,0.972932,-0.066405
-0.174180,-0.214106,-0.567465,-0.530186,0.308458,0.789783
-0.064226,0.066811,-0.973185,0.299874,-0.012620,-0.953895
-0.139487,-0.206660,-0.717327,-0.043434,-0.994691,-0.093293
-0.080049,-0.137519,-0.957508,-0.615472,-0.481503,-0.623978
-0.084717,-0.231621,-0.959825,-0.340889,0.083640,-0.936375
-0.090394,-0.329755,-0.961138,-0.393015,-0.190984,-0.899480
-0.096888,-0.427889,-0.956118,0.069435,0.179251,0.981350
-0.103989,-0.528662,-0.952218,0.205420,-0.539339,-0.816649
-0.113319,-0.634546,-0.939475,-0.134958,0.395399,0.908541
-0.224692,-0.175037,0.231157,-0.153469,0.885138,0.439293
-0.197303,-0.176115,0.112302,0.690597,0.598832,0.405557
-0.165860,-0.168990,-0.020300,0.117995,0.895031,0.430112
-0.248626,-0.463704,0.261392,0.763689,0.604359,-0.227002
-0.069908,0.007435,-0.389337,0.824654,-0.291902,0.484499
-0.073561,-0.079069,-0.393507,-0.760785,-0.192891,-0.619677
-0.074372,-0.157673,-0.410459,-0.446209,0.697475,0.560737
-0.056927,-0.192712,-0.494870,0.843497,-0.383902,0.375676
0.067429,0.043401,-0.969170,-0.448843,-0.634589,0.629156
0.061752,-0.054733,-0.969865,-0.151371,0.441942,0.884180
0.056069,-0.155033,-0.968861,0.435181,0.265794,0.860216
0.046740,-0.262629,-0.956504,-0.139615,-0.076879,-0.987217
0.041669,-0.357347,-0.956852,0.149705,-0.020027,0.988528
0.035583,-0.453314,-0.954882,0.503915,-0.529762,-0.682219
0.027672,-0.556719,-0.947468,0.370768,0.342712,-0.863180
0.021784,-0.652222,-0.943839,0.242564,-0.343069,-0.907451
0.016714,-0.748340,-0.947739,0.147627,0.534937,-0.831895
-0.181479,0.678570,0.257839,0.390997,0.674615,-0.626112
-0.071933,0.859177,0.250850,-0.349499,0.725649,-0.592692
-0.084512,0.009763,0.095389,-0.914762,0.188139,0.357512
-0.097904,-0.175812,0.107475,-0.029228,0.126290,0.991563
-0.113925,-0.444012,0.108942,0.914085,0.377294,-0.148654
0.161356,0.033021,-0.964304,0.132838,-0.379105,0.915769
0.155469,-0.064961,-0.964497,0.138352,-0.132452,0.981486
0.150399,-0.160001,-0.963841,-0.047155,-0.063918,0.996840
0.143100,-0.262166,-0.959439,0.167259,0.305637,-0.937342
0.137416,-0.362002,-0.957971,0.433868,0.103186,-0.895048
0.130315,-0.462616,-0.954071,-0.269428,0.530023,0.804043
0.124434,-0.560437,-0.950866,-0.419360,0.083187,-0.904001
0.012659,0.832663,0.252240,0.156184,0.760735,-0.629991
-0.058752,-0.475636,0.241776,0.824839,0.308185,-0.473986
0.100903,-0.125265,-0.370763,0.176834,-0.882675,0.435447
0.242704,-0.002018,-0.961176,-0.004538,0.294481,0.955647
0.238445,-0.094729,-0.964459,0.761118,0.545706,-0.350577
0.232359,-0.190999,-0.962682,0.128446,0.035955,-0.991065
0.227283,-0.289294,-0.963455,-0.807983,0.305029,0.504105
0.220182,-0.387579,-0.957662,0.812083,-0.145074,0.565221
0.118751,0.867239,0.246062,0.935941,0.177031,0.304426
0.199901,-0.109917,-0.354777,0.183077,0.930848,-0.316235
0.073112,-0.595940,0.083689,0.860251,0.497283,-0.112596
0.054651,-0.792983,0.113653,0.985179,-0.164508,0.048566
0.339467,-0.063258,-0.960443,-0.151169,-0.100921,0.983343
0.181842,0.905684,0.227604,0.444841,-0.712352,0.542836
0.171906,0.729572,0.228415,0.840995,0.523721,0.135805
0.132142,-0.571139,0.073533,0.891671,0.450744,-0.041865
0.123623,-0.668809,0.089597,0.957667,0.276477,0.080211
0.276376,-0.051478,0.186750,-0.642182,0.740677,0.197487
0.402960,-0.080622,-0.389028,0.042629,-0.996966,-0.065122
0.284288,-0.629427,0.003796,-0.053330,0.990187,0.129176
0.378822,0.730811,0.224399,-0.264116,-0.555722,0.788300
0.447187,0.039370,-0.270521,0.378274,-0.577198,0.723707
0.465846,-0.067601,-0.383583,-0.261944,0.951961,-0.158603
0.495668,-0.381221,-0.600750,-0.372179,-0.843578,0.387116
0.698734,0.131155,0.734070,-0.095399,0.153580,0.983520
0.686971,0.023871,0.761486,0.764308,0.565501,0.309907
0.695285,-0.158288,0.670472,0.562558,0.666593,0.489062
0.696097,-0.226351,0.647419,0.262337,0.947952,-0.180460
0.720240,-0.288982,0.513196,-0.465258,0.872751,0.147789
0.729161,-0.333634,0.456278,-0.247884,0.966873,0.060908
0.684334,-0.538427,0.620544,0.761462,-0.159233,0.628347
0.833031,-0.530830,0.520455,-0.607894,-0.717903,-0.339234
0.484921,0.087742,0.719512,-0.134685,0.718551,0.682309
0.482482,-0.124801,0.673831,0.404864,0.391993,-0.826091
0.507437,-0.188832,0.534009,0.495333,0.641205,0.586090
0.498919,-0.287591,0.548953,0.208187,0.664274,-0.717913
0.478426,-0.418739,0.612589,0.361935,-0.850542,0.381550
0.604812,0.314866,0.665645,-0.169237,0.985403,-0.018416
0.586550,0.187115,0.721018,0.611074,0.022829,-0.791244
0.583510,0.107433,0.713952,-0.501173,-0.498585,-0.707275
0.583306,-0.101703,0.656069,0.885157,-0.207120,-0.416650
0.583714,-0.167438,0.634715,0.993524,-0.016459,0.112423
0.583101,-0.239995,0.617030,0.746302,0.624335,-0.230737
0.597303,-0.265572,0.542890,0.694229,0.686890,0.215008
0.597303,-0.337041,0.522811,0.801944,-0.488936,-0.343260
0.526913,-0.690516,0.768668,-0.637812,0.666146,0.386581
0.363810,-0.533308,0.627533,0.681332,0.639778,-0.355628
0.427915,0.027277,0.684875,0.875293,-0.143744,-0.461736
0.423247,-0.127753,0.664023,0.352563,0.479215,-0.803774
0.440086,-0.144492,0.579303,0.684954,-0.492624,0.536805
0.440489,-0.211154,0.558683,0.226806,-0.965223,-0.130014
0.458752,-0.230381,0.469677,0.746004,0.591079,-0.306764
0.390993,-0.570826,0.698776,0.726012,0.611010,-0.315553
0.416147,-0.568962,0.580230,0.785745,-0.457006,-0.416834
0.344741,0.037204,0.859836,-0.488024,0.864431,-0.120793
0.316542,-0.117212,0.947684,0.005907,-0.706944,0.707245
0.369492,-0.092714,0.714685,-0.457610,0.341454,-0.820977
0.410469,-0.110853,0.522463,0.555469,0.486932,-0.674056
0.386938,-0.253328,0.594324,-0.574060,0.808759,-0.127922
0.406210,-0.270227,0.502306,0.613697,0.537912,0.577950
0.184479,-0.014735,0.924399,0.093716,-0.926765,0.363763
0.186306,-0.077367,0.898914,0.528830,-0.043410,0.847617
0.200909,-0.101552,0.827285,0.105213,-0.275133,0.955632
0.201114,-0.170229,0.807321,0.009728,0.985375,0.170121
0.236414,-0.134415,0.653597,-0.422001,0.430094,0.798082
0.278611,-0.080309,0.472805,0.926813,0.347423,-0.142533
0.285508,-0.129296,0.427511,-0.625562,-0.773844,-0.099183
0.227691,-0.367888,0.632746,0.395021,-0.329325,-0.857615
0.215520,-0.474245,0.660123,0.565628,0.671408,0.478828
0.225054,-0.517185,0.607376,-0.751877,-0.483446,0.448286
0.266638,-0.470990,0.427163,0.461377,0.687929,-0.560254
0.230731,-0.644160,0.546095,-0.460765,-0.600966,-0.653097
0.210246,-0.844458,0.588648,0.413850,0.838414,0.354668
0.353056,-0.845547,0.595792,0.251554,0.794102,-0.553283
0.253049,0.266959,0.680859,0.201808,-0.978724,-0.037062
0.038419,0.382768,0.743492,0.018057,0.778269,0.627672
0.009006,0.220603,0.836398,0.924005,0.372609,0.085885
0.000686,0.126036,0.848600,0.956712,0.012510,0.290767
0.020973,0.117198,0.756620,-0.341292,-0.277654,-0.898013
0.000487,-0.012095,0.815700,0.053414,0.861485,0.504965
-0.019595,-0.139685,0.872502,0.209825,-0.828573,0.519077
0.025641,-0.143565,0.667807,0.485813,-0.867068,0.110353
0.031318,-0.198134,0.627726,0.799459,-0.552126,-0.236689
0.021988,-0.296116,0.643558,0.789393,0.531711,-0.306825
0.037812,-0.322156,0.566175,-0.430551,-0.751551,-0.499797
0.031931,-0.407895,0.569997,-0.607848,-0.580183,0.542133
0.047953,-0.431608,0.490143,0.128918,-0.030548,0.991185
0.043496,-0.518424,0.490684,0.765629,-0.403790,-0.500766
0.030711,-0.623229,0.520687,0.266328,-0.309715,0.912768
0.029294,-0.701520,0.508408,-0.752248,-0.658745,0.013367
0.114090,0.034261,0.937142,-0.145825,-0.662410,0.734812
0.123623,-0.004658,0.886751,0.410594,-0.902173,-0.132275
0.122813,-0.075502,0.870957,0.981628,0.128489,0.141058
0.127883,-0.131623,0.835085,-0.470319,-0.830241,0.299164
0.135386,-0.179380,0.788554,-0.488294,0.849804,0.198499
0.156286,-0.185266,0.692134,0.112959,-0.842279,0.527074
0.127072,-0.338593,0.784307,-0.734967,0.667553,-0.119148
0.168860,-0.288670,0.608226,-0.485140,-0.874264,0.017349
0.153036,-0.402776,0.651281,0.148211,0.841607,-0.519357
0.153847,-0.471605,0.629193,-0.390692,-0.440623,-0.808215
0.183464,-0.461527,0.499603,0.307595,0.950479,-0.044450
0.158311,-0.603538,0.576021,0.926059,0.201235,-0.319249
0.155067,-0.751907,0.552737,-0.723742,0.054418,0.687922
-0.026492,0.345713,0.757624,-0.583674,-0.793417,0.172668
-0.029538,0.266334,0.750326,0.372975,-0.441213,0.816223
-0.055502,0.051161,0.813036,0.224345,0.362857,0.904436
-0.071735,-0.065889,0.853542,-0.656360,0.710291,-0.254320
-0.075183,-0.143877,0.851341,-0.042036,0.686695,0.725729
-0.089583,-0.255343,0.886017,0.222668,0.566807,0.793189
-0.049826,-0.209300,0.720516,-0.210245,-0.975600,0.063258
-0.031767,-0.228981,0.636105,-0.030275,-0.995166,0.093426
-0.028318,-0.287279,0.605368,0.844952,-0.401303,-0.353571
-0.023854,-0.346030,0.573048,0.482342,-0.589657,0.647805
-0.045362,-0.477651,0.633055,-0.366504,0.099602,0.925070
-0.074372,-0.627572,0.724995,0.965980,0.154912,0.207088
0.003936,-0.485249,0.414691,-0.449331,0.799652,0.398319
-0.028523,-0.646790,0.517173,0.781388,-0.134488,0.609381
-0.019800,-0.696250,0.467052,0.915413,0.072551,-0.395923
-0.018989,-0.764303,0.445157,0.844367,-0.270155,-0.462667
-0.186755,-0.055347,0.906792,0.254875,-0.666448,-0.700632
-0.182903,-0.115036,0.876170,-0.135128,0.747813,0.650012
-0.184321,-0.186041,0.863852,0.530033,0.543690,-0.650743
-0.182699,-0.248833,0.841263,0.887413,-0.412298,-0.206178
-0.177827,-0.304017,0.804309,0.927560,-0.114440,0.355718
-0.075789,-0.012095,0.430329,0.793189,-0.588805,-0.155432
-0.106218,-0.168829,0.524587,0.113043,0.982575,-0.147540
-0.126505,-0.298435,0.581968,-0.158671,-0.210600,0.964609
-0.144360,-0.420452,0.629734,0.404480,0.900581,-0.159218
-0.155107,-0.521528,0.650585,0.587808,0.767726,0.255106
-0.096282,-0.431144,0.416853,0.774120,-0.285264,-0.565122
-0.096282,-0.501525,0.398627,-0.514397,0.642592,0.567866
-0.104596,-0.669585,0.393993,-0.711983,0.241921,0.659208
-0.185337,0.739800,0.287070,0.888132,0.456124,-0.056319
-0.348032,0.182781,0.850144,0.907639,-0.300554,-0.293017
-0.359188,0.082935,0.872425,-0.507477,0.861352,0.023219
-0.368721,-0.015511,0.890188,0.449658,-0.547658,-0.705605
-0.359999,-0.056587,0.841958,-0.281897,0.028568,0.959019
-0.340120,-0.068680,0.752991,0.874014,0.410372,-0.260182
-0.355133,-0.182786,0.790562,-0.550145,0.183371,0.814687
-0.346205,-0.228205,0.740518,-0.608175,0.543476,0.578582
-0.320644,-0.224335,0.630854,0.751580,-0.097927,0.652333
-0.278248,-0.175037,0.459985,0.722961,0.690681,-0.016919
-0.348434,-0.443085,0.697193,0.595278,-0.231226,-0.769531
-0.231793,-0.122482,0.274559,0.342539,0.790603,0.507556
-0.225094,0.251459,0.764343,0.837025,-0.543790,-0.060685
-0.236863,0.147118,0.788091,0.371202,-0.806428,-0.460309
-0.270132,-0.019693,0.892581,-0.323916,-0.452657,0.830771
-0.279258,-0.113021,0.908761,0.793333,-0.603042,0.083445
-0.270337,-0.157824,0.859450,-0.210206,0.977146,0.031618
-0.265465,-0.211154,0.824929,-0.460037,-0.051199,0.886422
-0.249641,-0.236267,0.749245,0.353309,-0.920182,0.168635
-0.263638,-0.345879,0.781565,0.167119,-0.778174,-0.605406
-0.158153,-0.121858,0.379050,0.740924,0.579097,-0.340116
-0.232604,-0.398745,0.634483,0.182744,0.966707,0.179113
-0.152674,-0.248833,0.324681,0.973802,0.162627,-0.158939
-0.234021,-0.544626,0.605445,0.998569,-0.012036,-0.052110
-0.177220,-0.460912,0.378741,-0.586682,0.613831,0.528220
-0.334641,0.704459,0.357619,-0.050659,0.141662,0.988618
-0.470356,0.224633,0.822998,-0.640651,-0.640804,0.423010
-0.471570,0.153013,0.812071,-0.056787,-0.212404,0.975530
-0.483339,0.048833,0.835471,0.158549,0.249225,0.955379
-0.475223,0.001388,0.790292,0.814858,0.278470,-0.508391
-0.479890,-0.149611,0.773109,0.256446,-0.959366,-0.117696
-0.474616,-0.201853,0.736502,-0.339698,0.727300,0.596356
-0.433032,-0.155033,0.567642,0.772819,-0.010995,-0.634532
-0.447432,-0.263708,0.601352,-0.116521,0.957698,-0.263131
-0.458996,-0.366497,0.624212,0.826943,-0.372737,-0.420988
-0.448652,-0.411614,0.569495,0.415794,-0.054938,0.907798
-0.555759,0.310372,0.788168,0.538959,0.344085,-0.768848
-0.567930,0.202927,0.815276,-0.026284,0.206482,-0.978097
-0.570363,0.126660,0.805352,0.666710,0.686874,-0.289313
-0.444794,0.497026,0.358468,0.899162,-0.172633,0.402127
-0.585581,0.015658,0.842035,0.800804,-0.598794,-0.012599
-0.591666,-0.069617,0.847712,-0.676405,0.369235,0.637293
-0.582943,-0.113645,0.798556,0.205310,-0.961883,0.180635
-0.569757,-0.215346,0.717697,-0.509392,0.846547,0.154527
-0.468734,-0.077054,0.317035,0.091401,0.590294,0.801997
-0.570165,-0.425873,0.664757,0.917066,-0.351992,0.187328
-0.555153,-0.454241,0.594131,0.977222,0.001262,-0.212217
-0.553326,-0.521377,0.568800,0.902085,-0.419457,0.101479
-0.486787,-0.414869,0.311474,-0.303953,0.157330,-0.939606
-0.722509,0.132394,0.793420,-0.718114,0.674453,0.171540
-0.728601,-0.092865,0.762142,-0.466219,-0.842039,0.271313
-0.737727,-0.188681,0.776005,0.437137,-0.284635,-0.853167
-0.735498,-0.251000,0.752334,-0.704143,0.553815,-0.444378
-0.730224,-0.303241,0.714762,-0.101884,-0.647898,-0.754882
-0.857618,-0.098136,0.742294,0.744371,-0.471742,0.472623
-0.859240,-0.237043,0.713450,0.400657,0.856016,-0.326666
-0.867759,-0.331146,0.725343,-0.592944,-0.220602,-0.774436
-0.884195,-0.444788,0.767471,0.706529,0.379762,0.597157
0.314109,-0.087595,-0.961138,-0.086420,-0.216470,0.972457
0.301127,0.006659,-0.961176,0.031142,-0.818715,0.573355
0.119160,-0.625557,-0.950635,-0.694967,0.248237,-0.674833
0.105162,-0.537027,-0.953260,-0.393898,-0.027537,-0.918742
0.091976,-0.442924,-0.954071,-0.074654,0.345619,0.935401
0.451243,0.734066,0.236022,0.410493,0.378943,-0.829396
0.077576,-0.353164,-0.958898,0.230528,0.115095,0.966235
0.438261,0.814837,0.233435,0.556702,0.215518,-0.802269
0.062965,-0.262317,-0.962103,0.296565,0.653780,0.696147
0.429129,0.900262,0.238686,-0.025851,-0.275341,0.960999
0.049172,-0.175188,-0.966273,-0.495345,0.123481,-0.859875
0.034766,-0.088219,-0.970444,-0.243592,-0.021975,0.969629
0.019958,0.001077,-0.975888,-0.159089,0.019773,0.987066
0.339467,-0.046510,0.228763,-0.647133,0.548852,0.529132
0.077774,-0.111317,-0.372076,0.007273,-0.916182,0.400696
-0.106218,-0.652525,-0.948318,-0.054311,0.120778,0.991193
-0.120623,-0.567108,-0.954264,-0.366864,-0.016341,0.930131
0.241484,0.599654,0.212158,-0.228541,0.973454,0.012482
-0.134622,-0.478891,-0.957238,0.598824,0.644308,-0.475686
-0.145170,-0.377038,-0.948936,0.252775,-0.039909,-0.966702
0.025845,0.228513,-0.380687,-0.763184,0.185837,0.618882
-0.155516,-0.278128,-0.940595,0.544810,0.037250,0.837732
-0.155311,-0.146971,-0.900089,0.094353,-0.982012,-0.163554
0.203547,0.957775,0.239845,-0.641673,0.640911,-0.421294
-0.182495,-0.090074,-0.941676,-0.070102,-0.821919,-0.565275
-0.206231,-0.024964,-0.974769,0.943108,-0.223764,0.245920
-0.220433,0.061540,-0.979480,-0.610132,0.428589,0.666372
0.146344,-0.014272,0.108054,-0.762265,0.453705,0.461632
0.095424,0.304013,0.094887,0.899637,-0.002540,-0.436631
-0.057737,-0.145893,-0.382772,-0.505513,0.852167,-0.135159
-0.236256,-0.670512,-0.939591,-0.353198,-0.816468,0.456761
-0.096077,-0.132087,-0.463978,0.688826,-0.719970,0.084627
0.111855,0.590352,0.220074,0.524883,-0.633153,0.568872
-0.143746,-0.140925,-0.571133,0.516621,0.660101,0.545315
-0.283926,-0.410374,-0.964497,-0.161190,0.247072,0.955496
-0.294270,-0.312704,-0.957122,-0.632896,0.319940,-0.705040
0.086701,0.860568,0.248379,-0.075976,-0.802121,0.592309
-0.310906,-0.233012,-0.968861,-0.582950,0.021187,0.812231
-0.322470,-0.133951,-0.964072,-0.639837,0.496789,0.586353
-0.336672,-0.046670,-0.967779,0.389212,0.279492,-0.877723
-0.353913,0.036115,-0.980522,-0.493522,-0.169643,0.853028
-0.366896,0.131458,-0.980213,0.082923,-0.054516,0.995064
