-0.088816,0.835747,0.687597,0.859521,0.155245,-0.486953
0.810847,-0.131821,0.250714,0.445810,0.850035,-0.280526
0.012498,-0.923305,-0.974758,-0.124325,0.159506,0.979337
0.122957,-0.910937,-0.974228,-0.718965,-0.365361,0.591271
0.209494,-0.903047,-0.963377,0.419798,-0.256435,-0.870638
0.412586,-0.881880,-0.954294,0.265441,-0.222209,-0.938171
0.495013,-0.875248,-0.941923,0.482336,-0.281031,-0.829683
0.336106,-0.606280,-0.952880,0.577842,-0.215096,0.787295
0.435136,-0.596780,-0.946341,0.318822,0.191893,0.928186
0.571800,-0.580101,-0.955495,-0.181533,0.271865,0.945058
0.080604,-0.763002,-0.984018,-0.071463,-0.215167,0.973959
0.160283,-0.756184,-0.970835,-0.421788,0.482712,0.767518
0.264647,-0.745426,-0.968078,-0.445669,0.805919,-0.389710
0.059119,-0.468567,-0.978469,0.535972,0.420232,0.732215
0.318735,-0.444183,-0.949346,0.770153,-0.254913,-0.584708
0.280037,-0.465524,-0.853175,-0.428422,-0.903546,0.007633
0.269069,-0.474127,-0.807794,0.701734,0.666635,-0.251330
0.306549,-0.474488,-0.779979,0.942806,0.332095,-0.028813
0.292530,-0.483451,-0.735658,0.597418,0.793491,0.116034
0.186339,-0.528466,-0.541585,0.920321,-0.373564,0.116012
0.304107,-0.278682,-0.980731,0.139443,-0.299515,-0.943847
0.416092,-0.266480,-0.979070,-0.272492,-0.071956,0.959463
0.607755,-0.248016,-0.967053,-0.227137,0.464893,0.855735
0.252614,-0.345202,-0.637791,0.804324,0.569027,-0.171089
0.226711,-0.356322,-0.590360,0.390916,-0.860144,-0.327624
0.235852,-0.361345,-0.555440,0.865635,-0.499794,-0.029692
0.226102,-0.369586,-0.512427,0.808140,-0.194527,-0.555940
0.337477,-0.461574,0.076823,-0.677202,-0.226357,-0.700114
0.106200,-0.115688,-0.988365,-0.627365,-0.081442,0.774455
0.207974,-0.208748,-0.426718,0.888934,0.454350,-0.057996
0.187557,-0.219321,-0.381408,0.890569,0.430819,-0.145880
0.219095,-0.220579,-0.355218,0.284814,0.932495,-0.222113
0.177198,-0.235102,-0.302945,-0.013923,-0.150522,0.988509
0.250633,-0.229367,-0.289620,-0.771926,0.161797,0.614778
0.309748,-0.226675,-0.271595,0.903373,0.253015,-0.346266
0.330773,-0.229542,-0.242366,0.977480,0.208965,-0.029432
0.343722,-0.234391,-0.210627,-0.261560,0.890493,0.372300
0.341132,-0.241559,-0.172633,0.963698,-0.117737,0.239635
0.353318,-0.246222,-0.141071,0.585992,0.807890,0.062667
0.347837,-0.253937,-0.102511,-0.242831,-0.940148,-0.239070
0.364291,-0.257877,-0.071055,0.992550,0.120690,0.016666
0.334888,-0.269894,-0.025037,0.724218,-0.253668,0.641218
0.340676,-0.275092,0.007726,0.726372,-0.686910,0.023203
0.353625,-0.279033,0.038051,-0.661798,-0.169094,-0.730363
0.342959,-0.288007,0.077671,-0.698571,0.594878,-0.397641
0.386990,-0.286749,0.097994,0.013543,0.954411,0.298189
0.433155,-0.285851,0.118811,0.183665,-0.950998,0.248737
0.505372,-0.280116,0.131358,0.049304,0.985166,0.164370
0.085175,-0.079287,-0.177404,0.104443,0.987541,0.117704
0.050740,-0.092552,-0.128665,-0.052586,-0.983501,-0.173092
0.042515,-0.101515,-0.089151,-0.386402,-0.921028,0.049005
0.027279,-0.111201,-0.047587,0.850150,-0.525900,0.025974
0.202641,-0.087890,-0.069853,0.600304,0.796659,-0.070490
0.255813,-0.085197,-0.052181,0.648011,0.731483,-0.212167
-0.067028,0.058425,-0.014152,0.981489,0.141240,-0.129347
-0.183276,0.008760,0.166101,0.394535,0.918806,0.011729
-0.676452,-0.677648,0.664553,0.634573,0.766650,0.097806
-0.423392,-0.641969,0.618359,0.978451,0.024484,-0.205021
-0.556248,-0.669046,0.690637,-0.411142,0.493677,0.766319
-0.547563,-0.673161,0.720537,0.418665,0.318716,-0.850376
0.346311,-0.566836,0.674838,-0.327712,0.145386,0.933524
0.451284,-0.555180,0.675086,-0.512917,0.854592,0.081171
0.324375,-0.581721,0.744289,0.061502,0.896622,-0.438506
0.410452,-0.573829,0.751075,-0.052363,-0.318270,0.946553
0.720041,-0.529352,0.693005,-0.792412,0.449497,-0.412355
0.547115,-0.562349,0.773801,0.932102,0.239702,-0.271531
0.381201,-0.718536,0.694949,-0.604628,-0.794504,0.056462
0.357280,-0.727860,0.732872,-0.849859,0.323779,-0.415820
-0.583364,-0.290688,0.524380,-0.084976,-0.830991,0.549757
-0.596620,-0.299838,0.561986,-0.733462,0.678465,-0.041448
0.422945,-0.125363,0.244458,0.879707,0.469400,0.076024
-0.696413,-0.323150,0.626029,-0.004387,0.648694,0.761037
-0.436950,-0.285129,0.578774,-0.371524,0.571859,0.731401
0.293748,-0.166963,0.385974,0.511668,0.850851,0.119364
-0.298459,-0.274195,0.599627,-0.428300,0.794183,0.431084
0.414413,-0.159433,0.415451,0.322914,-0.403851,0.855938
-0.117001,-0.256083,0.608781,0.556247,-0.731326,-0.394654
-0.316741,-0.296248,0.701911,-0.245081,0.938804,0.242038
-0.245593,-0.290338,0.712797,0.713188,0.684633,-0.150469
-0.114718,-0.274732,0.705764,0.877571,-0.320008,-0.357021
0.400246,-0.207128,0.647093,-0.005876,-0.835262,0.549821
0.407560,-0.211791,0.676111,-0.250550,0.763857,0.594766
0.359260,-0.225964,0.722411,-0.118790,-0.982796,0.141422
0.349208,-0.233854,0.757295,0.059773,0.997279,-0.043149
0.405272,-0.230976,0.772776,0.966619,-0.045089,0.252219
0.309901,-0.252678,0.830845,-0.633572,0.449392,-0.629788
0.527616,-0.222549,0.798223,0.960670,-0.146972,0.235613
0.508725,-0.231873,0.835087,0.097585,-0.836682,0.538925
0.489833,-0.240662,0.870748,0.643751,0.702315,0.303871
0.492879,-0.246583,0.901038,-0.443692,-0.618100,0.648914
-0.550915,-0.488475,0.626771,0.134701,0.412326,0.901023
-0.585652,-0.500667,0.670208,-0.201002,0.733757,0.648999
-0.406630,-0.476644,0.648154,0.570384,-0.143620,0.808724
0.193653,-0.382676,0.498120,-0.027535,0.596919,0.801829
0.101778,-0.409938,0.589625,-0.407146,0.858953,0.310534
0.592672,-0.340715,0.506850,0.211385,-0.891324,-0.401070
0.606081,-0.345027,0.535973,-0.038997,-0.942914,0.330746
0.407253,-0.384109,0.627760,-0.652780,0.033058,0.756826
0.480687,-0.377838,0.638576,0.869655,-0.180136,-0.459621
0.608517,-0.362593,0.632143,-0.058130,0.850565,0.522647
0.386688,-0.404554,0.728278,0.844432,0.499265,0.194087
0.338389,-0.418715,0.774225,0.436729,0.716126,-0.544455
0.495162,-0.398633,0.759168,-0.701833,-0.417856,-0.576911
0.407560,-0.419077,0.816213,0.689791,0.195051,-0.697240
0.095990,0.041210,0.837737,0.643725,0.401994,-0.651167
0.442143,0.094115,0.767863,0.475764,0.627655,-0.616196
-0.101007,-0.005227,0.955184,-0.603544,0.244238,-0.759001
0.591909,0.106121,0.786878,-0.010693,-0.564628,0.825276
0.490898,0.082820,0.846078,-0.505987,0.678610,0.532416
0.344786,0.051432,0.919098,0.926981,0.337337,0.164045
-0.134981,0.010194,0.184480,-0.150214,-0.988423,-0.021337
-0.301658,-0.026207,0.273016,-0.878097,-0.377521,-0.293979
-0.308056,-0.034098,0.308360,0.912502,-0.390105,-0.123123
-0.329388,-0.044496,0.349323,-0.287705,0.925598,0.245958
-0.318420,-0.049880,0.380143,0.211472,-0.887817,0.408729
-0.133609,-0.024948,0.356180,0.104039,0.994131,-0.029656
-0.120814,-0.029250,0.384985,0.985033,-0.085902,-0.149437
-0.101007,-0.032665,0.411351,0.985495,0.163592,0.045147
-0.802757,-0.168221,0.693924,-0.606627,0.659042,0.444598
-0.727188,-0.161589,0.703219,0.322794,0.832583,-0.450121
-0.411508,-0.113532,0.639070,0.993226,0.023354,-0.113826
0.181462,-0.024413,0.523709,-0.347911,-0.892131,0.288201
-0.536743,-0.154410,0.772246,0.198552,0.219990,-0.955082
-0.640345,-0.179155,0.835299,-0.627530,0.760578,0.166514
-0.368393,-0.138639,0.784580,-0.271094,0.917376,-0.291428
-0.235537,-0.128778,0.808402,0.346274,0.811972,-0.469888
-0.292517,-0.145446,0.856858,-0.411085,0.911587,0.004214
-0.142751,-0.125900,0.843039,-0.285461,-0.535062,0.795123
-0.077239,-0.127519,0.885381,0.437991,0.514998,0.736846
0.367946,-0.057771,0.786135,-0.089156,0.936020,-0.340466
0.550929,-0.033562,0.764929,0.056807,-0.961983,0.267136
0.303499,-0.081794,0.867885,-0.695733,-0.581500,0.421680
0.280646,0.197222,0.193705,0.242397,-0.968371,0.059177
-0.296785,0.081201,0.442100,0.923364,-0.201126,0.327027
-0.395815,0.056455,0.506461,0.662822,0.612161,-0.431190
-0.454623,0.038879,0.557992,0.983979,-0.083006,0.157780
-0.127212,0.089628,0.489036,0.535237,-0.840155,0.087534
-0.683464,-0.020648,0.724178,0.942354,-0.303830,-0.140200
-0.172154,0.054299,0.632426,0.008771,0.859486,0.511085
-0.124622,0.055919,0.650698,-0.669155,0.151015,0.727616
-0.123859,0.049462,0.682932,0.857648,0.503652,0.103801
-0.113649,0.044985,0.710853,0.241653,0.920429,0.307270
-0.189678,0.025078,0.764364,0.009040,-0.973399,0.228938
-0.052405,0.041757,0.755599,0.157511,0.657415,0.736882
-0.126905,0.022571,0.808225,0.177679,0.975664,-0.128491
-0.107098,0.019157,0.834062,-0.302184,0.940505,0.155355
0.360785,0.093031,0.728702,0.027839,-0.948454,0.315690
-0.565235,0.135178,0.562834,0.148799,0.749580,0.644972
-0.482506,0.128721,0.634971,0.998108,-0.055624,-0.026213
-0.445482,0.128535,0.656389,0.913301,0.399163,0.080933
-0.372810,0.134642,0.665614,0.313849,-0.948328,0.046615
-0.513128,0.103439,0.739093,0.404858,0.867107,0.290200
-0.362297,0.123161,0.725945,0.042446,0.966791,0.252019
-0.409220,0.108638,0.770832,0.583381,0.018321,0.811992
-0.419886,0.099674,0.805787,-0.654297,0.750797,-0.090549
-0.496673,0.079942,0.860393,0.509597,0.553212,-0.658989
-0.273170,0.105409,0.856151,-0.068990,0.737609,0.671694
-0.368541,0.082459,0.914186,0.325784,-0.222706,0.918840
-0.135897,0.115992,0.877322,0.885067,-0.159655,-0.437227
-0.102379,0.115095,0.897609,-0.018957,-0.989234,0.145111
0.010061,0.127998,0.896054,-0.405308,0.886073,0.224945
0.077252,0.132847,0.908283,-0.481611,0.756240,0.442890
0.110617,0.131763,0.929772,0.883246,-0.395530,-0.251859
0.155564,0.133383,0.946702,0.986984,0.137087,0.084084
-0.453712,0.265000,0.550040,-0.684100,-0.720424,-0.114001
-0.736483,0.194890,0.732201,0.957626,0.285220,0.040019
-0.298157,0.258181,0.662362,0.876108,0.137838,0.461990
-0.577120,0.202420,0.778784,0.597864,-0.711377,-0.369460
-0.391398,0.228062,0.755599,0.935535,0.070042,-0.346219
-0.526384,0.198294,0.826675,-0.642182,0.561468,-0.521878
-0.190441,0.249929,0.757118,0.191057,0.977791,0.086155
-0.084854,0.261585,0.757825,-0.711202,-0.125843,-0.691633
-0.408309,0.198830,0.883896,-0.561780,0.453806,-0.691710
-0.428116,0.189145,0.920371,-0.734915,-0.105918,0.669837
-0.311715,0.202234,0.917261,-0.376501,-0.627366,0.681659
-0.294344,0.198830,0.943309,0.101933,0.992577,0.066344
-0.109385,0.224112,0.919204,0.541504,-0.779501,0.314884
0.070394,0.242225,0.928429,-0.480471,0.792051,0.376566
-0.383476,0.370427,0.604575,-0.449506,-0.251223,-0.857223
-0.846635,0.276295,0.809215,-0.647950,0.622918,-0.438330
-0.779905,0.281668,0.819712,0.162973,-0.898519,-0.407558
-0.888686,0.255675,0.884037,-0.083716,-0.265791,0.960389
-0.725054,0.277367,0.865235,-0.412682,0.843995,-0.342589
-0.619779,0.289209,0.865270,-0.384309,0.622340,0.681909
-0.510236,0.301751,0.864104,0.231456,0.812809,0.534573
-0.423545,0.310364,0.869971,-0.223285,-0.974723,-0.007694
-0.434058,0.301751,0.903123,0.357169,0.854246,0.377749
-0.557768,0.429066,0.697494,-0.591790,0.529220,-0.608038
-0.271036,0.472461,0.642923,0.753007,0.618089,0.225713
-0.185410,0.473534,0.682013,0.838138,0.432030,-0.332979
-0.416688,0.426560,0.782036,-0.742882,0.575328,-0.342233
-0.546344,0.397864,0.851345,-0.083743,0.499326,0.862358
-0.156006,0.458835,0.766979,-0.384696,-0.791010,0.475724
-0.841000,0.461341,0.797304,0.331748,0.895841,0.295655
-0.228832,0.547594,0.707602,0.807749,-0.589043,0.023872
-0.398708,0.511193,0.790377,0.832705,-0.467062,-0.297413
-0.427507,0.499713,0.830775,0.028123,-0.867320,0.496957
-0.210703,0.530739,0.796809,0.041133,0.003864,0.999146
-0.335939,0.503127,0.864174,0.222759,-0.637752,0.737327
-0.232338,0.514060,0.865023,-0.243248,-0.622998,0.743440
-0.311715,0.658045,0.710005,0.012645,0.511976,0.858907
-0.449141,0.620932,0.813562,-0.207270,0.947835,0.242172
-0.251991,0.648008,0.786736,0.716905,0.693722,0.069262
-0.270580,0.638322,0.823883,0.586934,0.705224,0.397703
-0.115481,0.658405,0.809780,-0.163417,-0.750570,0.640265
-0.362451,0.746091,0.763162,-0.162181,-0.868490,-0.468425
-0.527300,0.698210,0.904254,0.898873,0.408606,0.158331
0.545898,-0.955579,-0.934819,0.003243,0.661202,0.750201
0.461643,-0.960066,-0.937364,-0.484315,0.779770,0.396735
0.303805,-0.975848,-0.959595,0.082056,-0.913660,0.398111
0.212237,-0.979252,-0.957863,-0.241965,0.048282,0.969083
0.258402,-0.059380,-0.045395,0.659116,0.750962,-0.040287
0.155564,-0.181311,-0.353557,0.001498,-0.819936,0.572453
0.236461,-0.243179,-0.523808,-0.572128,0.817828,-0.061865
0.657575,-0.392898,-0.958959,-0.348993,0.434509,0.830305
0.571800,-0.396848,-0.959419,0.593677,0.109048,-0.797281
0.487090,-0.400964,-0.961468,0.401882,-0.779670,-0.480215
-0.080135,0.172826,0.017163,0.980579,0.191410,-0.042739
0.285216,-0.180949,-0.978469,-0.497900,0.104340,0.860935
0.203552,-0.185973,-0.982569,0.179922,0.216019,0.959669
0.122654,-0.191532,-0.988966,0.238951,-0.233290,-0.942591
0.214064,-0.074439,-0.080280,-0.531141,-0.816518,0.226247
-0.153872,-0.010065,0.127011,0.928617,0.357034,-0.100977
0.075880,-0.120887,-0.186876,0.725490,-0.486122,0.487186
0.388669,-0.401861,-0.952703,0.673573,0.497560,0.546565
0.314927,-0.409752,-0.966028,-0.407964,0.832699,0.374403
0.641273,-0.165715,-0.976490,-0.065249,0.210704,0.975370
0.548641,-0.167149,-0.970587,0.116851,0.524467,0.843375
0.461643,-0.172161,-0.974015,0.225702,-0.022740,0.973931
0.372669,-0.176287,-0.975465,-0.137959,0.467943,0.872924
0.226865,-0.414775,-0.969173,0.420463,-0.177940,-0.889690
0.148706,-0.422841,-0.982427,-0.019022,0.188161,0.981954
0.054548,-0.424822,-0.977868,0.656111,-0.358958,0.663828
0.441078,-0.664734,-0.948250,0.013933,0.629098,0.777201
0.352560,-0.669221,-0.949770,-0.386633,0.049976,0.920879
0.277447,-0.676750,-0.961645,-0.138344,0.165973,0.976378
0.197763,-0.682846,-0.969032,0.736708,-0.675008,-0.040321
0.109399,-0.687508,-0.970622,-0.526959,0.134524,0.839176
0.029715,-0.693429,-0.977903,-0.055026,0.071834,0.995898
0.369926,-0.236722,0.128354,-0.652579,-0.022973,0.757372
0.358196,-0.262178,0.066220,0.820589,-0.570224,-0.038449
0.307004,-0.275804,0.037132,0.195594,0.972219,-0.128583
0.616287,-0.655409,-0.942948,0.197283,-0.225796,-0.953989
0.524570,-0.658638,-0.941040,-0.091845,0.493051,0.865139
0.084412,-0.406523,0.135034,-0.906817,0.256102,-0.334805
0.564789,-0.824685,-0.941747,-0.025073,-0.028516,0.999279
0.482519,-0.829709,-0.945069,-0.293327,0.316961,0.901939
0.402989,-0.835805,-0.952527,-0.444434,0.108653,0.889198
0.317819,-0.841900,-0.957828,0.037435,0.185194,0.981989
0.237377,-0.847460,-0.963943,-0.260894,-0.134935,0.955891
0.151295,-0.852834,-0.969138,-0.145286,0.063731,0.987335
0.065521,-0.858755,-0.973839,0.474436,0.124821,-0.871396
-0.024220,-0.862344,-0.974334,-0.606138,0.037188,-0.794490
-0.447309,0.682975,0.796244,-0.225273,-0.937371,-0.265683
-0.396425,0.640293,0.675899,0.981561,0.156157,-0.110241
-0.119289,0.832344,0.723365,0.944007,0.172672,-0.281131
-0.251075,0.820688,0.705552,0.208981,0.237641,0.948606
-0.251229,0.674187,0.751039,-0.329419,-0.800298,-0.501006
-0.414553,0.698396,0.835299,-0.087715,0.995948,-0.019846
-0.043413,0.685843,0.759875,-0.323721,-0.565660,0.758442
-0.087904,0.674723,0.734923,0.180602,0.403098,-0.897159
-0.180537,0.677054,0.751499,0.459870,0.158635,0.873702
-0.128886,0.590627,0.741072,0.102979,0.359311,0.927518
-0.255646,0.604253,0.792356,-0.350537,-0.600832,0.718418
-0.353003,0.609452,0.817662,-0.048590,0.055096,0.997298
-0.419277,0.604077,0.810134,0.304660,0.873791,-0.379040
-0.493474,0.602458,0.813315,0.592369,-0.774277,-0.222696
-0.379663,0.540600,0.632002,0.356096,-0.559851,0.748172
-0.047681,0.592235,0.735241,-0.409940,0.500301,-0.762658
-0.413489,0.446457,0.792780,0.811161,-0.554206,0.186742
-0.495153,0.446993,0.802888,0.637160,-0.266840,0.723065
-0.422174,0.396967,0.660100,0.924487,-0.244111,-0.292804
-0.424610,0.371685,0.591957,-0.201817,0.324268,-0.924186
0.190756,0.440361,0.709864,-0.365171,-0.823109,0.434904
-0.244678,0.471027,0.840847,0.975195,-0.200011,-0.094820
-0.151129,0.417235,0.684381,0.886972,0.236659,-0.396576
0.280492,0.285258,0.280756,0.361078,-0.920395,-0.149990
-0.370829,0.458299,0.820065,0.255141,-0.655000,0.711251
-0.864006,0.433193,0.806458,0.982632,-0.183021,0.030627
0.600139,0.266609,0.768534,0.991000,0.126512,0.043752
0.573627,0.249218,0.726864,0.261240,-0.269026,0.927027
0.452962,0.235767,0.704527,-0.329629,-0.943376,-0.037239
0.375566,0.233261,0.705976,0.698897,-0.247511,-0.671030
-0.211615,0.233973,0.769206,0.142179,0.916807,0.373162
-0.276518,0.228960,0.762809,-0.588148,0.801685,0.106696
-0.384996,0.127462,0.509642,0.828178,-0.218544,-0.516101
-0.832012,0.250291,0.878029,-0.142156,-0.963391,0.227311
-0.879242,0.239719,0.854879,-0.266358,-0.615941,0.741397
-0.335939,0.221244,0.749307,0.503211,-0.530567,0.682112
-0.576966,0.272530,0.908531,-0.142988,-0.989556,0.018267
-0.606217,0.255139,0.866719,-0.573706,0.387732,0.721474
-0.637908,0.239532,0.829043,0.029793,-0.096856,0.994852
-0.748976,0.250116,0.868062,-0.409533,0.874646,-0.259379
0.272876,0.239532,0.732554,0.019389,0.876353,0.481280
0.161353,0.221244,0.697211,0.938129,0.002024,-0.346279
0.171256,0.192012,0.619419,0.396218,-0.823962,0.405090
-0.024522,0.227165,0.731636,-0.197879,0.471576,0.859337
-0.071906,0.216582,0.708945,0.123180,-0.946778,0.297384
0.378458,-0.180599,0.267219,-0.249731,0.836011,0.488590
-0.385303,0.044438,0.907718,-0.263456,-0.472820,-0.840852
0.372214,-0.208562,0.198794,0.963441,0.049658,-0.263279
-0.615362,-0.014190,0.784545,0.017646,0.992934,0.117344
-0.647658,-0.031942,0.743228,-0.651815,0.742983,0.152030
-0.697631,-0.044321,0.718240,0.909703,-0.410622,-0.061889
-0.415469,0.028307,0.870006,-0.063967,-0.820522,0.568025
-0.416688,0.001591,0.804161,0.467870,-0.361214,-0.806612
-0.544057,-0.010611,0.786842,0.223502,0.953420,0.202575
0.621774,0.039962,0.793876,-0.381007,0.377675,-0.843917
0.017984,0.046233,0.872056,-0.321168,0.114711,-0.940049
-0.058041,0.043902,0.873540,-0.187825,0.738001,-0.648133
0.580941,-0.161228,0.296237,-0.258625,0.738345,-0.622864
-0.118680,0.038167,0.864881,-0.162020,0.967615,0.193574
-0.062611,-0.007022,0.745808,0.991764,-0.120874,-0.042355
-0.112129,-0.018317,0.722234,0.473109,-0.811741,-0.342409
0.613390,0.017012,0.737114,0.965472,-0.260482,-0.003706
0.511314,0.022746,0.762491,0.353394,0.252823,-0.900663
0.513904,-0.004155,0.694737,0.921175,-0.148045,-0.359887
0.490443,-0.024051,0.648224,-0.570171,0.791045,-0.221704
0.357433,-0.009353,0.698236,0.869647,0.248747,-0.426427
0.176436,0.022024,0.794335,-0.119729,0.213991,0.969470
0.965030,-0.155854,0.662821,-0.106365,-0.935048,0.338189
-0.556397,-0.235825,0.618925,-0.398559,-0.639923,-0.657000
-0.608504,-0.248191,0.594643,0.758182,-0.617403,0.209698
-0.658631,-0.259311,0.571670,-0.622868,0.599317,-0.502847
-0.910473,-0.227573,0.675050,-0.639342,0.031329,-0.768284
0.431328,-0.286026,0.396189,0.521088,0.844309,0.124940
-0.140770,-0.125188,0.849012,0.217237,0.121175,-0.968568
-0.185717,-0.136658,0.825084,0.091478,-0.995807,-0.000150
-0.419431,-0.227036,0.626700,0.960818,-0.274189,0.040608
-0.680112,-0.162662,0.811901,0.424177,-0.338993,-0.839737
-0.266312,-0.136121,0.833885,-0.067491,-0.996658,0.046029
-0.129648,-0.211440,0.636066,-0.689283,0.485567,0.537693
-0.270729,-0.190635,0.700816,0.946620,-0.277243,-0.164459
-0.282614,-0.216102,0.640626,0.344860,-0.538445,0.768862
-0.611550,-0.129850,0.885345,0.974946,-0.042942,-0.218258
0.665953,-0.142579,0.724779,-0.476279,0.523224,-0.706679
0.567685,-0.138639,0.743935,-0.667392,0.275956,-0.691691
0.383791,-0.108334,0.837525,0.215689,0.969024,-0.120297
0.269524,-0.097936,0.874601,0.763164,0.417288,-0.493408
0.485872,-0.191894,0.621575,-0.240371,0.867665,0.435177
0.765137,-0.146704,0.704951,0.213410,0.381875,0.899237
0.011433,-0.093624,0.911111,0.263404,-0.402129,0.876875
0.468957,-0.241023,0.502750,0.351117,0.909093,-0.224204
0.421271,-0.254112,0.476030,0.541248,0.838341,0.065079
-0.095827,-0.112996,0.874813,-0.698605,0.323477,-0.638211
0.382420,-0.291586,0.702124,0.411608,0.093144,0.906589
0.382420,-0.319023,0.634794,0.480348,0.401336,-0.779869
0.290856,-0.317054,0.649320,0.963585,0.012239,0.267124
0.106353,-0.283344,0.749873,0.723111,0.556122,0.409682
-0.089732,-0.245685,0.862619,0.926169,0.324020,-0.192931
0.356522,-0.393434,0.456874,0.860545,-0.509373,0.001536
-0.139250,-0.256805,0.840211,0.896828,0.371324,-0.240455
0.097361,-0.363851,0.554705,0.947403,0.234244,0.218079
0.625883,-0.211254,0.873399,-0.555544,0.781439,0.284119
0.587646,-0.225602,0.842827,0.945951,-0.308190,-0.100976
0.562961,-0.242993,0.802747,-0.242152,0.965255,-0.098208
0.404663,-0.219321,0.876156,0.845580,0.501187,0.183865
0.473225,-0.267202,0.752418,-0.159430,0.972772,-0.168216
0.377547,-0.262901,0.772776,0.906295,0.297371,0.300332
-0.129192,-0.315795,0.694525,0.749826,0.356779,0.557197
-0.220454,-0.313102,0.709652,0.443904,0.587829,0.676318
-0.310497,-0.311494,0.723825,-0.312046,0.639946,0.702208
-0.601497,-0.264871,0.867143,0.796317,0.354081,-0.490414
-0.428418,-0.356322,0.626170,-0.035834,0.695173,0.717949
-0.705861,-0.284954,0.828195,0.869175,0.452087,-0.200378
-0.570568,-0.395415,0.544844,0.961776,-0.180690,0.205764
-0.718810,-0.372278,0.617193,0.802196,-0.432600,-0.411508
-0.769848,-0.383398,0.595209,0.722205,0.361534,0.589672
0.350580,-0.385543,0.808225,0.582967,0.812433,-0.010105
0.247434,-0.378911,0.835652,0.150093,-0.508387,-0.847947
0.358958,-0.441129,0.673884,-0.705720,0.163981,0.689253
0.311728,-0.453682,0.648083,-0.556887,0.794429,-0.242403
0.171405,-0.434858,0.708379,0.670736,0.482501,0.563299
0.321934,-0.513220,0.503351,-0.628599,0.482602,-0.609884
0.056226,-0.482192,0.605918,-0.164667,0.896804,0.410643
-0.098417,-0.457272,0.680988,-0.001911,0.842495,0.538701
0.540718,-0.392361,0.773129,0.970126,-0.239634,-0.037836
0.538435,-0.418179,0.710889,0.732997,0.432340,-0.525165
-0.153110,-0.466597,0.663988,0.748082,-0.661280,-0.055518
0.607755,-0.335341,0.903971,-0.050449,0.753487,0.655525
0.478712,-0.346822,0.889834,0.807940,0.549957,-0.211613
-0.344317,-0.487577,0.632921,0.934133,-0.287043,0.212137
-0.387130,-0.502462,0.601606,0.881808,0.387372,0.268993
-0.523947,-0.483451,0.661620,0.224910,-0.547423,-0.806067
-0.581993,-0.491517,0.647694,0.996838,0.037488,0.070059
-0.736636,-0.525773,0.581566,-0.679151,0.472229,-0.561919
-0.573767,-0.589962,0.680458,-0.035459,-0.996250,-0.078920
-0.856236,-0.639277,0.590261,0.879263,-0.390602,0.272628
0.490443,-0.449918,0.910722,0.588570,-0.710788,-0.385183
0.518777,-0.509630,0.763763,0.961146,0.129725,0.243659
0.528834,-0.539760,0.689683,0.695903,0.475213,-0.538416
0.281864,-0.487216,0.841449,-0.476645,0.878096,-0.041910
0.283998,-0.515015,0.773871,-0.119803,-0.979879,-0.159639
0.183140,-0.509991,0.796809,0.879363,0.355053,0.317267
0.177956,-0.536170,0.734039,-0.699237,-0.714788,0.012035
-0.395815,-0.594985,0.649992,0.627765,-0.250398,0.737029
-0.534609,-0.575077,0.711914,0.845004,0.180893,-0.503235
0.533711,-0.625826,0.776487,0.618746,0.726968,-0.297776
0.370535,-0.654511,0.723436,-0.651923,-0.479503,-0.587430
0.211781,-0.629230,0.799637,-0.467094,-0.865035,0.183131
-0.516179,-0.692532,0.721987,0.396464,0.492033,-0.775061
-0.586261,-0.697369,0.717074,-0.104942,-0.301969,-0.947524
0.345247,-0.797609,0.740118,0.165411,0.204132,0.964868
0.435136,-0.799218,0.727606,-0.466025,-0.433157,-0.771489
0.097208,-0.661154,-0.975500,-0.549359,0.167563,0.818613
0.199595,-0.656492,-0.964932,-0.016312,0.906884,0.421065
0.304107,-0.651108,-0.958252,0.322436,0.054059,-0.945046
0.402682,-0.645373,-0.952527,0.385361,0.913502,0.130422
0.505675,-0.639988,-0.946129,-0.488775,-0.433082,-0.757324
0.607755,-0.633892,-0.941004,0.045147,0.073886,0.996244
0.005798,-0.844582,-0.975217,0.026004,0.079152,0.996523
0.103759,-0.838486,-0.971294,0.270224,0.271380,-0.923760
0.208583,-0.833287,-0.962635,0.218153,0.169937,-0.961005
0.306088,-0.827016,-0.962069,-0.083369,0.146697,0.985662
0.413502,-0.821992,-0.950088,0.643472,-0.071847,-0.762090
0.511468,-0.816072,-0.944751,-0.280876,-0.427951,0.859050
0.503238,-0.468753,-0.954152,-0.388014,0.294879,0.873208
0.599832,-0.462832,-0.950795,0.420494,-0.302982,-0.855212
0.099342,-0.491517,-0.972213,0.067703,0.328239,0.942165
0.214064,-0.487577,-0.950300,0.692130,0.660961,-0.289977
0.348599,-0.486319,-0.901561,-0.887867,0.195588,0.416458
0.412739,-0.475024,-0.948533,0.892583,0.061917,0.446611
0.195782,-0.403842,-0.537061,0.881427,-0.197279,0.429147
0.258096,-0.393981,-0.577353,0.979387,-0.181643,0.088354
0.312183,-0.383573,-0.626092,0.663518,-0.563432,-0.492229
0.333664,-0.368153,-0.718375,-0.714389,0.423252,-0.557231
0.241186,-0.337136,-0.970092,0.093199,-0.503327,0.859055
0.332293,-0.330854,-0.974546,-0.089497,0.063477,-0.993962
0.435745,-0.324758,-0.968785,-0.188605,-0.329631,0.925079
0.534013,-0.318662,-0.969527,-0.197186,0.151150,0.968644
0.634267,-0.312566,-0.966664,-0.469170,-0.047151,0.881848
0.156931,-0.311669,-0.521758,0.952766,-0.283827,-0.108070
0.273332,-0.308440,-0.494932,0.534446,0.514349,-0.670680
0.300146,-0.294815,-0.576894,0.978135,0.042451,0.203592
0.081669,-0.248378,-0.988895,-0.159690,-0.362208,0.918316
0.186488,-0.242632,-0.980872,-0.162518,0.035467,0.986068
0.286435,-0.236722,-0.978575,0.218982,0.061068,-0.973816
0.385163,-0.231162,-0.971753,0.745309,0.657498,0.110499
0.477949,-0.225242,-0.973874,0.028914,0.319861,0.947023
0.578807,-0.219681,-0.969951,0.060616,-0.155380,-0.985993
0.673727,-0.213411,-0.968749,0.416843,-0.368873,-0.830768
0.374195,-0.292122,0.045615,-0.252452,-0.800625,-0.543385
0.407406,-0.280116,-0.024225,-0.388784,0.788830,0.476019
0.365812,-0.258414,-0.189845,0.694844,-0.713890,0.086911
0.280191,-0.231162,-0.414878,-0.474226,0.573492,0.667994
0.289331,-0.216102,-0.517622,-0.148733,-0.969113,0.196721
0.117168,-0.158897,-0.988365,0.202062,0.005840,-0.979355
0.216961,-0.153337,-0.981756,0.411438,-0.415060,-0.811446
0.315536,-0.147241,-0.980943,0.084855,0.245036,0.965793
0.422489,-0.141867,-0.970269,-0.071783,-0.242353,0.967529
0.516801,-0.135224,-0.976383,0.233449,0.699250,-0.675685
0.615831,-0.130211,-0.969810,-0.172421,-0.278900,0.944715
0.387753,-0.223633,0.085518,-0.504146,0.859709,-0.082086
0.368555,-0.206778,-0.044123,0.671985,0.728818,0.131376
0.298319,-0.166963,-0.356385,-0.457595,0.776432,0.433313
0.147032,-0.125724,-0.183801,0.434543,0.883356,-0.175656
0.177045,-0.113532,-0.260002,0.242570,0.420212,-0.874404
-0.069771,-0.028363,0.155251,-0.676619,0.712822,0.184583
-0.063829,-0.014552,0.059187,0.605582,0.795678,0.012950
-0.033817,-0.002896,-0.010582,0.977679,-0.207759,0.031302
0.010977,0.007151,-0.059780,-0.811052,-0.373417,0.450282
-0.074193,0.154539,0.005393,0.908243,0.284767,-0.306599
0.299235,0.159201,0.130545,0.984310,0.065634,0.163784
-0.554268,-0.635326,0.707001,-0.341183,0.885538,0.315304
-0.529429,-0.624929,0.646068,0.178985,-0.919798,0.349193
-0.399624,-0.611664,0.612103,0.780093,-0.405174,0.476748
0.277754,-0.584052,0.716862,0.688609,-0.167971,0.705410
0.340067,-0.576697,0.692828,0.221935,0.724620,0.652434
-0.086072,-0.531869,0.207206,-0.726351,-0.657007,-0.201882
0.351035,-0.549796,0.515544,-0.694339,0.715043,0.081286
0.542397,-0.556428,0.640626,0.364742,0.580770,0.727784
-0.581690,-0.778423,0.716508,-0.539945,-0.101022,-0.835616
0.338998,-0.722651,0.732979,-0.734783,0.041556,-0.677029
0.415483,-0.716205,0.724355,-0.499078,-0.098800,-0.860906
0.486328,-0.349328,0.489531,0.966028,-0.220319,-0.135091
0.674639,-0.356136,0.617122,-0.395214,-0.893575,-0.212909
0.678907,-0.341974,0.520068,-0.841107,0.403423,0.360261
-0.757206,-0.538326,0.627124,-0.405159,-0.738619,0.538783
-0.672342,-0.533478,0.630058,-0.204872,0.319731,0.925094
-0.556703,-0.530972,0.661372,0.757960,0.237992,-0.607335
-0.469097,-0.526485,0.667699,-0.767027,-0.624813,-0.145869
-0.374484,-0.509094,0.590084,0.926064,-0.182216,-0.330457
-0.129494,-0.505690,0.674414,-0.490617,0.840006,0.231700
0.175520,-0.496366,0.740507,0.732885,0.447139,-0.512783
0.278209,-0.493312,0.762314,0.035425,0.469275,-0.882341
0.393695,-0.477355,0.704774,0.723043,-0.240425,-0.647615
0.514206,-0.476283,0.751605,0.868193,0.487650,0.091866
0.556257,-0.467319,0.707708,0.902763,0.249092,-0.350674
0.311267,-0.327089,0.784722,-0.259285,-0.440841,-0.859320
0.470636,-0.330143,0.875272,0.723163,0.423680,-0.545463
0.379983,-0.308626,0.681059,0.912072,0.131125,0.388498
0.482059,-0.305036,0.702866,0.940647,0.337968,0.030993
0.457379,-0.289255,0.579834,0.405243,-0.914182,-0.007108
0.461494,-0.275268,0.484725,0.687687,0.721206,-0.083354
0.494097,-0.264509,0.422096,0.573146,0.798656,0.183448
0.644170,-0.265943,0.499958,0.771648,-0.445968,-0.453511
0.656510,-0.223633,0.204237,0.233206,0.077891,0.969303
0.839334,-0.214308,0.217491,0.588239,0.736186,-0.334670
-0.681483,-0.449743,0.674449,-0.515420,-0.855914,-0.041870
-0.675695,-0.437912,0.593760,-0.259164,0.929180,0.263548
-0.549237,-0.436828,0.639565,0.881952,0.023531,0.470752
-0.496218,-0.429124,0.609912,-0.220224,0.617448,0.755155
-0.417604,-0.423203,0.603267,0.957903,0.015375,0.286679
-0.358029,-0.415848,0.579269,0.979056,0.034379,-0.200666
-0.154333,-0.421233,0.705941,0.987031,0.156592,0.035342
-0.111213,-0.412269,0.661973,0.871779,-0.004494,-0.489878
0.087611,-0.418179,0.786984,0.175323,-0.941631,0.287389
0.194565,-0.415673,0.817910,-0.615790,0.761960,-0.200549
0.218486,-0.405090,0.755846,0.807916,0.253849,-0.531820
0.186186,-0.388061,0.626241,0.252992,-0.966110,-0.051257
0.469720,-0.403842,0.857035,0.857283,0.483115,-0.177948
0.375715,-0.380531,0.653314,-0.687052,0.724764,-0.051732
0.497296,-0.378911,0.697211,0.805782,0.200117,-0.557377
-0.792091,-0.379272,0.666532,-0.631735,-0.654560,-0.415285
-0.737548,-0.371742,0.635783,-0.034117,0.846819,0.530787
-0.748213,-0.359364,0.541805,0.018868,0.964698,0.262683
-0.633337,-0.356497,0.571670,-0.211427,0.304599,0.928718
-0.499115,-0.355599,0.622105,-0.171679,-0.316846,0.932810
-0.493782,-0.343233,0.540002,0.826392,0.525856,-0.201375
-0.334874,-0.344841,0.620692,0.010203,-0.875243,-0.483575
-0.209787,-0.343408,0.667275,0.491630,-0.146057,0.858468
-0.131782,-0.337672,0.660877,0.963352,0.233673,-0.131720
0.187860,-0.341612,0.831163,-0.298205,-0.206163,0.931971
0.209647,-0.330854,0.763410,-0.518327,-0.559203,0.647015
-0.822564,-0.301271,0.655046,-0.682529,-0.673584,-0.283615
-0.750501,-0.295712,0.645256,0.736031,0.260679,0.624744
-0.738770,-0.285315,0.574356,0.082407,0.123039,0.988975
-0.561428,-0.287285,0.668017,0.059900,-0.993698,0.094743
-0.484487,-0.282086,0.663387,0.211490,0.977015,-0.026718
-0.492410,-0.268997,0.567111,0.185575,-0.928253,-0.322348
-0.395360,-0.264871,0.578809,0.841556,0.479589,-0.248552
-0.266921,-0.263262,0.625180,-0.655298,0.753408,-0.054412
-0.139705,-0.261817,0.674308,0.789130,-0.570429,0.227784
0.196545,-0.266666,0.862513,0.655064,-0.495697,-0.570242
0.157238,-0.251245,0.731070,0.542646,0.720472,0.431804
0.275922,-0.248914,0.770443,-0.177553,0.763426,0.621012
0.331535,-0.241559,0.739694,-0.648033,0.744315,0.161392
0.413502,-0.236360,0.738068,-0.010470,0.850539,0.525808
0.443212,-0.226314,0.681306,0.804207,-0.590561,-0.066995
0.496994,-0.218784,0.650204,0.848013,0.525066,-0.071967
0.414264,-0.196731,0.453622,0.635619,0.358135,0.683907
0.432547,-0.185261,0.377492,-0.356075,-0.744636,0.564559
0.420053,-0.169655,0.256828,0.713829,-0.038989,0.699234
0.717754,-0.186148,0.513883,-0.670012,0.741509,0.035328
0.729182,-0.144373,0.215017,0.632499,0.715132,0.297542
-0.763296,-0.159258,0.770408,0.410566,0.866788,-0.283045
-0.725970,-0.149933,0.724213,-0.087986,-0.963617,0.252392
-0.670208,-0.142404,0.694949,-0.563716,-0.738387,-0.370146
-0.543448,-0.140970,0.738033,-0.099484,0.173525,0.979792
-0.402367,-0.141320,0.800131,-0.641693,0.701337,-0.310412
-0.326798,-0.136308,0.796315,-0.088580,0.995255,0.040276
-0.357726,-0.120887,0.677065,-0.384981,0.417686,0.822999
-0.350869,-0.109407,0.598637,0.444090,-0.270218,-0.854264
-0.095065,-0.119453,0.781258,-0.651068,0.524188,-0.548943
0.010215,-0.103310,0.714352,0.879339,0.274202,0.389328
0.331075,-0.109045,0.892131,0.692022,0.679808,-0.242829
0.364747,-0.099009,0.837843,-0.287394,0.957759,0.010099
-0.043873,-0.058843,0.378411,0.798779,0.463515,0.383543
0.399484,-0.089859,0.787655,-0.678642,0.480014,-0.555906
-0.094911,-0.040369,0.226291,0.815157,0.579167,0.009171
0.438489,-0.080360,0.738704,0.869940,0.312884,-0.381193
0.614460,-0.085022,0.846573,0.962019,0.110262,-0.249725
0.603640,-0.070313,0.737573,-0.498649,0.358579,-0.789158
0.610191,-0.043784,0.555129,0.789275,0.613152,0.033015
-0.058803,0.053227,0.693888,-0.391093,0.866233,0.310945
-0.047375,0.066141,0.614542,-0.153315,0.977201,-0.146875
-0.019040,0.076899,0.552090,0.734471,0.674346,-0.076217
0.421425,0.071515,0.772634,0.081396,-0.990862,0.107547
0.465456,0.080839,0.727924,-0.612329,0.449209,0.650588
0.519237,0.088369,0.697529,0.767494,0.624784,-0.143518
0.564333,0.098055,0.652536,0.482058,-0.583579,0.653495
0.683779,0.098952,0.695726,0.769982,0.503482,0.391962
-0.678434,-0.014552,0.897928,0.478004,0.863711,0.159736
-0.672342,-0.003071,0.824059,0.495302,-0.565406,-0.659539
-0.710734,0.012525,0.701841,0.917274,-0.346205,-0.196851
-0.544820,0.010018,0.787655,0.193055,-0.499577,0.844483
-0.491950,0.017548,0.756447,0.442003,-0.883513,-0.155045
-0.315676,0.014134,0.852334,-0.707468,0.546114,0.448606
-0.212986,0.017548,0.873752,-0.170312,-0.944963,0.279354
-0.174135,0.026151,0.831269,-0.054826,0.998351,-0.017009
-0.075713,0.029379,0.851486,-0.401181,0.898804,-0.176650
-0.087751,0.043366,0.750262,0.310973,0.423746,-0.850726
-0.490276,0.132125,0.899765,0.829043,-0.556127,-0.058398
-0.440149,0.139654,0.870395,-0.670421,0.141403,0.728382
-0.458584,0.154002,0.767015,0.807980,-0.469296,0.356273
-0.424917,0.163502,0.718806,0.387634,0.764482,-0.515079
-0.166519,0.151846,0.900649,-0.432705,0.400508,-0.807687
-0.117155,0.160460,0.865906,0.238626,-0.093655,0.966585
-0.120051,0.200089,0.602525,-0.115564,0.978884,-0.168616
0.045714,0.196499,0.691626,0.829889,0.164058,-0.533263
0.165314,0.197758,0.735135,0.550124,-0.586244,-0.594712
0.252005,0.202059,0.738987,-0.180948,-0.812370,-0.554358
0.275313,0.228774,0.574604,-0.064682,0.920294,-0.385843
0.471091,0.220522,0.706718,-0.517907,-0.854946,0.028972
0.508264,0.230569,0.656424,0.583653,-0.798679,0.146497
0.267697,0.273964,0.272804,-0.652851,0.743342,-0.145697
0.329857,0.281668,0.248417,0.920511,0.005360,0.390679
-0.894474,0.254953,0.833920,-0.710892,-0.692019,0.125468
-0.837647,0.262308,0.807271,-0.310786,0.588132,-0.746668
-0.731912,0.265175,0.832471,-0.391098,0.880045,-0.269374
-0.654972,0.270910,0.825650,0.844497,-0.119684,0.522016
-0.423085,0.274499,0.892237,-0.300075,-0.881631,-0.364254
-0.419886,0.286878,0.815153,-0.280372,0.726887,-0.626918
-0.341272,0.291715,0.813880,0.228470,-0.776385,0.587391
-0.313087,0.302112,0.756836,-0.742918,0.357391,-0.565989
-0.322074,0.316285,0.663139,-0.697941,-0.204370,-0.686376
-0.140770,0.311262,0.766661,0.919966,-0.228893,0.318232
-0.165301,0.327930,0.650840,-0.373133,-0.904612,-0.206033
-0.107558,0.335646,0.622247,0.171570,-0.830062,0.530624
0.065368,0.330447,0.722835,-0.021255,0.874308,0.484906
0.116405,0.338874,0.690814,-0.621615,0.728756,-0.287245
0.580941,0.358421,0.748212,0.877776,-0.177413,-0.445010
-0.857454,0.398762,0.770019,0.914541,-0.059890,0.400034
-0.512365,0.416875,0.786701,-0.431926,0.666049,-0.608127
-0.429943,0.422073,0.785393,-0.768370,0.628598,-0.120299
-0.305619,0.449324,0.659782,-0.294031,0.311405,0.903644
-0.160883,0.448077,0.725132,0.670779,0.222020,0.707646
-0.445329,0.582375,0.866790,0.018595,0.881203,0.472372
-0.417752,0.592597,0.813492,-0.054404,-0.402276,0.913901
-0.338835,0.598518,0.809003,-0.044652,0.421579,0.905692
-0.299375,0.608379,0.763586,0.004584,0.830321,0.557267
-0.234319,0.615197,0.744430,0.260082,-0.641195,0.721960
-0.179012,0.623088,0.718947,0.629457,-0.605387,0.487125
-0.095367,0.627564,0.722269,0.497450,0.740144,-0.452471
-0.489211,0.748959,0.820949,-0.593103,-0.799497,0.095043
-0.351938,0.762048,0.794335,-0.128924,-0.991615,0.008879
-0.380733,0.779264,0.681165,0.460571,-0.255628,0.850017
-0.239042,0.777830,0.742627,-0.444730,-0.267049,-0.854927
-0.080284,0.788588,0.733968,0.915410,-0.093897,-0.391419
-0.415925,0.959473,0.700710,-0.172583,-0.402016,0.899221
0.219397,0.084966,0.040772,0.975558,0.077124,0.205762
0.007169,0.076177,0.000657,-0.666497,-0.327915,0.669517
-0.112431,0.074393,0.001965,0.996350,-0.033817,-0.078380
0.273332,0.100025,0.028756,-0.860374,0.437359,-0.261674
0.256878,0.106121,0.073077,0.839868,-0.523156,-0.144670
0.085937,0.100386,0.052471,0.208438,-0.943942,-0.255985
-0.077085,0.038342,0.087603,0.818728,-0.532354,0.215135
-0.030920,0.012700,-0.035004,-0.537683,0.153771,-0.829006
-0.060937,0.021488,0.053037,-0.108636,0.992392,-0.057940
-0.020868,0.030101,0.011225,-0.838235,0.543883,-0.039403
0.210563,0.028120,-0.042144,0.106532,0.920457,-0.376046
0.086239,0.025439,-0.042886,-0.038574,-0.994748,-0.094803
-0.017362,0.024542,-0.036948,-0.620770,0.307525,-0.721161
0.071612,-0.034996,-0.076745,-0.254980,0.836106,-0.485709
0.026363,-0.032303,-0.045784,0.880472,-0.208173,0.425950
-0.006547,-0.029075,-0.007966,0.585572,-0.594902,0.550633
0.187860,0.014856,-0.046032,0.113167,0.981689,0.153234
0.063996,0.012700,-0.046774,0.604693,-0.620423,0.499421
0.034745,-0.131821,-0.120607,0.756230,-0.507554,0.412923
0.001985,-0.123032,-0.031788,0.837029,0.432956,0.334562
-0.050425,-0.026919,0.022924,0.906317,-0.418663,0.057533
-0.071752,-0.023154,0.065160,0.930368,-0.163246,0.328277
-0.064592,-0.016883,0.118776,-0.624628,0.656623,0.422713
-0.109995,-0.014727,0.150444,0.981519,-0.137612,-0.132976
0.524110,-0.121423,-0.976207,-0.060076,0.715753,0.695765
0.388059,-0.123929,-0.979989,-0.106025,-0.646797,0.755257
0.260230,-0.126797,-0.982074,-0.231661,0.043010,0.971845
0.118386,-0.129665,-0.988118,0.338895,0.226482,-0.913157
0.186949,-0.044496,-0.183094,0.954835,-0.178358,-0.237652
0.154648,-0.035357,-0.091484,0.053768,-0.862883,0.502536
0.072221,-0.221477,-0.986244,-0.078416,0.249619,0.965164
0.273792,-0.155132,-0.386250,0.766639,-0.540271,-0.346945
0.250326,-0.150645,-0.341894,0.321548,0.909177,-0.264583
0.231282,-0.146704,-0.297891,0.212456,0.958535,0.189931
0.218486,-0.142404,-0.251555,-0.357781,0.021812,0.933551
0.168666,-0.139536,-0.219993,-0.337154,0.766391,-0.546783
0.607146,-0.209459,-0.968855,0.008392,0.274733,0.961484
0.464387,-0.213411,-0.978115,-0.047604,0.283378,0.957826
0.300453,-0.255010,-0.978398,0.098286,0.013762,-0.995063
0.163942,-0.258414,-0.984513,-0.028459,0.133672,0.990617
0.341741,-0.215205,-0.977762,0.247170,-0.301538,-0.920859
0.200660,-0.218609,-0.984124,-0.195000,0.015351,0.980683
0.284305,-0.160156,-0.436827,-0.659530,-0.740194,-0.130895
0.135450,-0.136658,-0.183059,0.871681,-0.471318,-0.134280
-0.039759,-0.119990,0.000339,0.964075,0.176010,0.198945
-0.028028,-0.114069,0.056642,0.943072,-0.323493,0.077251
-0.107251,-0.108509,0.123406,0.990548,-0.090880,0.102743
0.304567,-0.204984,-0.466233,0.040673,0.952473,0.301896
0.292837,-0.200135,-0.418271,0.205287,-0.977560,-0.047261
0.275620,-0.195298,-0.370981,0.663303,-0.671222,-0.330895
0.261755,-0.190997,-0.322419,0.295643,0.873536,-0.386690
-0.002888,-0.165890,-0.018145,0.493054,0.612944,0.617412
0.568294,-0.249625,-0.970658,-0.016855,0.308142,0.951191
0.434527,-0.251956,-0.973379,-0.182922,0.550719,0.814400
0.252614,-0.186509,-0.272196,0.637153,0.756446,-0.147732
0.246974,-0.182033,-0.222891,0.049668,-0.519531,0.853007
0.206904,-0.178805,-0.188997,0.303818,0.930536,-0.204444
0.199898,-0.173781,-0.138844,-0.374856,-0.925781,-0.049111
0.386837,-0.181311,-0.082224,0.936044,0.056075,0.347386
0.403291,-0.162847,0.126092,0.248790,0.862462,-0.440752
0.640511,-0.256083,-0.967583,-0.704891,-0.053142,0.707322
0.520148,-0.257877,-0.966381,0.053512,0.311387,0.948775
0.321325,-0.223808,-0.540631,0.593209,0.722380,-0.355346
0.319953,-0.218434,-0.484541,-0.883313,-0.051834,0.465908
0.341894,-0.189026,-0.154501,0.587112,0.709949,-0.388936
0.383028,-0.250522,0.018895,-0.023576,0.983237,0.180803
0.467283,-0.241198,0.104426,-0.213262,0.955944,-0.201719
0.337933,-0.308801,-0.646804,-0.178873,0.982399,0.053821
0.251698,-0.289616,-0.406997,0.418302,0.562270,0.713355
0.282473,-0.283520,-0.340763,-0.049902,-0.990110,-0.131118
0.351035,-0.274917,-0.258376,0.951368,0.248230,-0.182428
0.363529,-0.269894,-0.198999,0.072727,0.984393,-0.160254
0.650568,-0.329957,-0.962387,0.634691,-0.394577,-0.664437
0.332907,-0.313639,-0.704414,-0.234930,-0.934404,0.267761
0.386227,-0.254649,-0.032424,-0.624676,0.646614,0.437802
0.522129,-0.332835,-0.965639,-0.233142,0.272878,0.933371
0.381355,-0.336239,-0.971612,-0.321189,0.316303,0.892631
0.250786,-0.338384,-0.974864,0.478223,-0.710085,-0.516800
0.117777,-0.341262,-0.977020,0.015455,0.216858,0.976081
0.323003,-0.304325,-0.596792,-0.236524,-0.950397,-0.201994
0.374195,-0.261467,-0.973980,-0.138339,0.148813,-0.979141
0.236005,-0.264509,-0.978504,-0.003667,0.139172,0.990261
0.083803,-0.268461,-0.989143,-0.090167,-0.173329,0.980728
0.273639,-0.216639,-0.451600,0.387261,0.747325,-0.539939
0.268608,-0.211791,-0.400670,0.933488,0.013864,0.358342
0.263735,-0.207490,-0.347867,-0.607053,0.533730,0.588743
0.259467,-0.203363,-0.297396,-0.583101,0.712101,0.391032
0.267241,-0.198351,-0.240493,0.409952,0.837150,0.362104
0.238293,-0.318487,0.094601,-0.291361,0.955269,0.050705
0.310510,-0.376043,-0.618564,0.479963,-0.311896,0.819973
0.282934,-0.373176,-0.576540,0.913230,-0.401841,0.067350
0.295273,-0.367978,-0.513876,-0.571993,0.819895,-0.024416
0.166532,-0.370309,-0.517375,0.980796,0.192003,0.034275
0.390798,-0.314186,0.109587,-0.131829,-0.991250,-0.006716
0.296036,-0.301447,-0.554627,0.943154,-0.332354,-0.001127
0.298774,-0.296784,-0.496982,-0.753859,0.369398,-0.543362
0.286741,-0.292122,-0.446723,-0.448539,-0.870130,-0.204175
0.392323,-0.263437,-0.135274,0.337938,0.939357,-0.058364
0.384247,-0.259672,-0.085899,-0.668095,0.714458,0.207841
0.339607,-0.244252,0.099690,-0.245104,-0.931281,-0.269518
0.355759,-0.239053,0.157689,-0.534461,0.829188,0.163703
0.396285,-0.317951,0.060424,0.773224,0.525686,0.354652
0.571340,-0.399891,-0.957333,0.957858,0.188037,-0.217142
0.435290,-0.402945,-0.963483,-0.341123,0.472084,0.812879
0.308832,-0.405090,-0.964861,-0.129878,0.921324,0.366462
0.204314,-0.406173,-0.953516,-0.666587,0.269761,-0.694904
0.059119,-0.409216,-0.963342,0.043910,0.998772,-0.022923
0.036420,-0.586733,-0.978681,-0.855215,0.464330,0.230225
0.299388,-0.391103,-0.794293,-0.702768,0.710338,-0.039203
0.352709,-0.383037,-0.711977,0.745063,-0.531301,0.403237
0.329857,-0.379808,-0.664794,0.986390,-0.105333,0.126254
0.565397,-0.663661,-0.943266,0.122831,0.027524,-0.992046
0.425842,-0.667065,-0.950901,-0.670326,0.572582,0.472031
0.551384,-0.839033,-0.939803,-0.019650,-0.086004,0.996101
0.604858,-0.573294,-0.948497,-0.215613,0.239254,0.946715
0.464084,-0.576872,-0.954576,-0.231227,0.308886,-0.922564
0.323459,-0.580101,-0.960514,0.533898,0.209387,-0.819213
0.182834,-0.582968,-0.968502,0.359932,0.289951,-0.886779
0.271505,-0.670479,-0.963059,-0.176862,0.220497,0.959219
0.109092,-0.849244,-0.971365,0.241451,0.188171,-0.951994
0.397503,-0.843334,-0.954294,0.570800,0.024968,-0.820709
0.259012,-0.846027,-0.961610,0.002926,0.141202,0.989976
0.124026,-0.673522,-0.972178,-0.555078,0.207454,0.805513
-0.047528,0.727443,0.760334,-0.611640,0.574717,0.543689
-0.338375,0.713991,0.693464,-0.263803,0.325094,0.908142
-0.296632,0.727267,0.800520,0.677884,0.712293,0.181965
-0.544513,0.499537,0.810205,0.460124,-0.298143,-0.836300
0.293748,0.292788,0.253577,0.699081,-0.711810,0.067915
-0.231120,0.166731,0.595810,0.387133,-0.136348,-0.911887
-0.320400,0.166019,0.605847,-0.028077,-0.942367,0.333401
-0.489513,0.190764,0.811583,0.920919,0.371964,0.116405
-0.512519,0.194704,0.846008,0.888387,-0.256925,-0.380472
-0.449141,0.348013,0.795961,0.151086,-0.968395,-0.198453
-0.058194,0.334387,0.631613,0.526437,0.848143,-0.059310
-0.157532,0.333489,0.637409,0.438898,-0.854931,0.276518
-0.333196,0.327044,0.615355,-0.219941,0.495330,0.840401
-0.153263,0.345145,0.731317,0.221399,0.397144,0.890651
0.549859,0.359668,0.736513,0.271301,-0.623922,0.732883
-0.296478,0.173549,0.659534,0.336291,-0.495408,0.800924
0.415785,0.171032,0.698837,0.352469,0.933000,-0.072644
-0.049965,0.144317,0.559052,0.417049,0.898970,-0.133879
-0.243306,0.137323,0.529717,0.225784,-0.964231,0.138851
-0.160731,0.148443,0.607120,-0.151747,-0.229042,-0.961516
-0.342490,0.142171,0.582803,0.246915,-0.899182,-0.361255
0.467892,0.185916,0.640237,0.790956,0.505474,0.344796
0.490745,0.193632,0.696363,0.135633,0.984558,-0.110679
-0.162250,0.158839,0.528939,0.121585,-0.979165,0.162644
0.114732,0.184843,0.684911,-0.593572,0.042129,0.803677
0.171712,0.157942,0.475712,0.234780,0.671524,0.702804
-0.684375,0.188783,0.824377,0.374232,0.924695,0.069930
-0.874211,0.181253,0.797834,0.832804,-0.047003,0.551568
-0.926472,0.189681,0.865765,-0.560936,-0.824063,-0.079189
-0.446853,0.169423,0.647518,0.307366,-0.941727,-0.136662
-0.400688,0.178211,0.709475,-0.243743,0.882405,0.402432
-0.377380,0.186464,0.763940,0.328734,-0.183977,0.926330
0.435592,0.160635,0.615143,0.846573,-0.519351,-0.116568
0.475052,0.169598,0.678161,0.990113,-0.134108,-0.041119
-0.186173,0.158489,0.690672,0.872518,0.189261,0.450437
-0.408309,0.149165,0.650840,0.674245,0.153566,-0.722365
0.506897,0.129082,0.755245,0.282659,0.501187,0.817872
-0.176878,0.083707,0.483594,-0.109950,-0.985701,0.127690
-0.264485,0.083357,0.496317,0.047541,-0.979108,0.197708
-0.238126,0.090887,0.552090,0.495341,-0.736239,-0.461074
-0.229441,0.097157,0.600546,-0.082808,-0.339891,0.936812
-0.272254,0.099850,0.630623,0.988542,-0.133119,0.071169
0.515578,0.107565,0.572554,0.920070,0.282693,0.271211
-0.220454,0.058075,0.274430,-0.178896,0.970994,-0.158639
-0.194551,0.065418,0.333913,0.128794,-0.906662,-0.401717
0.601511,0.124595,0.699756,-0.061874,0.995504,0.071721
0.485412,0.122264,0.700215,-0.234543,-0.971131,0.043515
-0.231120,0.107740,0.691061,-0.189084,-0.285809,0.939447
-0.783713,0.115632,0.838621,0.890044,0.350080,-0.292002
-0.413182,0.154002,0.693252,0.927627,-0.372524,0.027089
-0.470315,0.167092,0.804019,0.857616,0.099077,-0.504657
-0.743490,0.155075,0.745526,0.670544,0.530481,0.518614
-0.490583,0.177139,0.885805,-0.722854,-0.581500,0.373282
-0.900877,0.166369,0.862266,0.769721,0.554066,0.317080
-0.310952,0.113661,0.751887,0.583930,0.402729,0.704865
-0.130866,0.131052,0.866330,0.786858,0.268998,-0.555422
-0.392156,0.119221,0.809851,0.879809,-0.445665,0.165285
-0.470315,0.119757,0.823352,0.469384,0.278502,0.837923
-0.476866,0.124595,0.865694,-0.496734,-0.633078,0.593690
-0.469250,0.129794,0.911394,-0.649764,0.305875,0.695879
-0.473668,0.101283,0.831729,-0.403846,-0.660836,-0.632616
-0.477475,0.106307,0.873222,-0.429885,0.433671,0.791915
-0.229139,0.064883,0.468572,0.004503,-0.846169,0.532896
-0.247723,0.069008,0.508864,-0.074323,0.971765,-0.223938
0.068413,0.094290,0.680387,-0.700520,0.193954,0.686770
-0.234472,0.080489,0.608746,-0.059906,-0.556677,0.828566
-0.239498,0.090164,0.696009,0.255363,0.536533,-0.804315
-0.508865,0.108999,0.904183,0.764678,0.408367,-0.498501
-0.849378,0.093218,0.821303,0.796295,0.520220,-0.308682
-0.068707,0.057177,0.824660,0.062796,-0.941002,0.332523
-0.288555,0.048565,0.783273,0.451968,0.740945,0.496715
-0.274844,0.054299,0.831976,0.102864,-0.606628,0.788303
-0.121116,-0.010065,0.193881,0.331036,0.941670,-0.060608
-0.157833,-0.007558,0.226610,0.170603,0.941394,-0.290983
-0.216795,-0.006124,0.252163,-0.188573,0.962386,-0.195585
-0.221979,0.033680,0.184904,-0.043037,0.911518,0.409003
0.545135,0.087832,0.546576,0.970632,0.227796,0.077348
-0.216492,0.050184,0.333171,0.099914,0.923235,0.371017
0.897691,0.125317,0.826251,-0.521229,0.803250,0.288288
-0.070380,0.070081,0.485856,-0.724895,-0.687051,0.049883
-0.234621,0.095549,0.743829,0.002082,-0.259468,0.965749
-0.143513,0.111145,0.867426,0.997837,0.050690,-0.041864
-0.335939,0.104873,0.839116,-0.191405,-0.552945,0.810935
-0.429637,-0.053459,0.705905,0.837694,0.472636,-0.273649
-0.183429,-0.034634,0.845937,-0.166315,-0.154031,0.973968
-0.343708,-0.039122,0.827947,-0.765198,0.251695,-0.592555
-0.085770,0.007151,0.352327,-0.415461,0.893248,-0.171756
-0.189678,0.005706,0.359078,-0.035278,0.981029,0.190622
-0.090494,0.017187,0.447225,0.277719,-0.704275,0.653352
-0.065810,0.023458,0.504941,0.913387,0.308042,-0.266147
-0.287644,0.014681,0.462529,-0.376482,0.874998,-0.304369
-0.078155,0.032432,0.590897,0.208056,0.199432,0.957570
0.030631,0.043727,0.681094,0.146200,-0.667568,0.730054
-0.117001,0.039240,0.667911,0.962777,0.086199,0.256184
