-0.320942,-0.109228,0.256339,-0.500339,0.703683,0.504472
-0.327736,-0.264816,0.215073,-0.030277,-0.972927,0.229119
-0.339994,-0.464741,0.217969,0.958415,0.208256,0.195116
-0.306475,0.302427,0.014751,0.664155,-0.214430,0.716182
-0.324428,0.234054,0.247830,-0.048573,0.234405,0.970925
-0.282598,0.000245,-0.682110,0.789850,0.157498,0.592732
-0.328204,0.064522,0.140029,-0.166861,0.962667,0.213145
-0.318850,0.013762,-0.066025,-0.219397,0.975437,-0.019702
-0.334998,0.027706,0.217150,-0.022658,0.998698,0.045699
-0.336104,-0.005809,0.200292,-0.488459,0.240764,-0.838713
-0.364977,-0.454101,0.232090,-0.217539,-0.301217,0.928410
-0.328260,0.141704,0.217929,-0.467192,0.444166,0.764492
-0.315595,0.077916,-0.055658,0.524383,-0.208273,-0.825618
-0.330643,0.115834,0.231052,-0.072469,-0.965392,-0.250534
-0.353588,-0.247813,0.250866,0.154537,0.972070,0.176630
-0.343830,-0.115834,0.219047,0.658170,-0.701214,-0.274064
-0.346152,0.273745,0.241838,0.093403,0.553017,0.827918
-0.300086,-0.000979,-0.765023,-0.172861,0.922178,0.345987
-0.251867,0.044769,0.147580,0.113534,-0.973230,0.199835
-0.259536,-0.195401,0.024119,-0.795900,-0.200385,0.571304
-0.259884,-0.280594,-0.062390,0.753100,0.303892,-0.583516
-0.215033,0.086783,-0.474538,0.233167,0.880857,0.411975
-0.254714,0.308544,0.008479,0.787153,0.497367,0.364715
-0.300724,-0.247630,0.234427,0.936250,-0.108657,0.334109
-0.275046,0.181274,0.236765,-0.138373,-0.207056,0.968494
-0.235716,-0.025136,-0.675419,-0.520299,0.716411,-0.464805
-0.250356,0.214238,-0.164698,0.890023,0.450447,0.070396
-0.257966,0.210875,-0.035225,0.785145,0.338100,-0.518879
-0.266738,0.016513,-0.084841,-0.183932,0.978159,-0.096815
-0.279925,0.055043,0.185870,-0.656997,0.746416,0.105912
-0.282481,0.031558,0.208221,-0.695364,0.682297,0.225699
-0.284864,0.007890,0.224261,-0.250090,0.908975,0.333496
-0.305837,-0.333190,0.233009,0.955355,-0.137512,0.261509
-0.278067,0.120727,0.225978,-0.201507,-0.449225,0.870397
-0.280159,-0.150939,-0.028234,-0.627764,-0.727898,0.275819
-0.281088,-0.186165,-0.048048,-0.768787,-0.531743,0.355268
-0.317513,-0.854137,-0.111306,0.797136,-0.071487,-0.599552
-0.279868,0.171550,-0.159265,0.903182,0.421538,0.081043
-0.284921,0.154914,-0.090393,-0.053581,-0.838687,0.541971
-0.281144,0.056450,-0.255141,0.014519,-0.943715,0.330441
-0.260870,-0.048253,-0.713230,-0.130389,-0.837533,0.530602
-0.163506,0.130879,-0.415534,-0.753666,0.590107,-0.289416
-0.270748,-0.959512,-0.088636,0.621063,-0.079073,-0.779762
-0.196677,0.062750,-0.329925,0.968147,-0.241496,0.066108
-0.267319,-0.894440,-0.081425,0.503274,-0.010226,-0.864067
-0.231883,-0.266957,-0.042355,0.844174,0.297733,-0.445787
-0.212073,0.068069,-0.038181,0.865037,-0.431767,-0.255517
-0.229327,0.134059,0.353074,0.991944,-0.051845,0.115581
-0.216895,0.057245,0.038480,0.442900,0.896362,0.019366
-0.222820,0.054186,0.146441,0.173383,-0.979538,0.102192
-0.239375,-0.114061,0.265647,-0.531108,0.390242,0.752087
-0.239084,-0.387132,-0.041177,0.710468,0.342591,-0.614708
-0.202893,0.056021,-0.223142,0.848129,-0.529287,0.023069
-0.229734,0.058285,0.277092,0.790794,-0.376396,0.482670
-0.270050,-0.474221,-0.089355,-0.288698,-0.193745,0.937612
-0.273826,-0.534829,-0.086898,-0.071976,-0.191734,0.978804
-0.258955,0.051251,0.282665,-0.608253,0.778128,-0.156668
-0.266043,-0.415203,-0.097245,0.315432,0.383164,-0.868152
-0.229848,0.039020,-0.258856,-0.507815,0.860685,0.036688
-0.238737,0.048315,-0.085480,-0.364227,0.839298,-0.403631
-0.136782,0.021590,-0.413776,-0.679884,-0.731546,0.050983
-0.125279,-0.047826,-0.714688,0.990585,-0.110526,0.080781
-0.162694,-0.026358,0.025717,0.551170,0.560262,0.618319
-0.171115,-0.007523,0.208261,0.907542,0.419837,0.010202
-0.131148,0.119626,-0.411260,0.841057,-0.503515,0.197724
-0.133240,0.088679,-0.404848,0.943951,-0.311890,0.108078
-0.124407,0.039509,-0.630697,0.827864,-0.560009,0.032114
-0.134403,0.050211,-0.428258,0.370256,0.925990,-0.073848
-0.188777,0.023730,-0.057276,-0.496733,-0.693122,-0.522340
-0.199641,0.054860,0.187668,0.965881,0.132309,0.222638
-0.224330,-0.598434,-0.087717,-0.073914,0.034404,0.996671
-0.239435,-0.841356,-0.079687,0.569421,-0.046585,-0.820725
-0.242222,-0.627240,0.220286,-0.411972,-0.198162,-0.889388
-0.246754,-0.966668,-0.081006,0.461688,-0.028209,-0.886594
-0.248612,-1.000000,-0.084961,0.621063,-0.079073,-0.779762
-0.163854,0.089904,-0.458019,0.981098,-0.171751,-0.089154
-0.182852,0.153447,-0.019585,-0.663625,0.726993,0.176306
-0.165073,0.052658,-0.474758,-0.689361,0.640012,-0.339362
-0.241176,-0.876950,-0.089135,-0.430012,-0.008701,0.902781
-0.244896,-0.936333,-0.083742,0.461688,-0.028209,-0.886594
-0.172452,0.050149,-0.338434,-0.742099,0.622959,-0.247407
-0.204577,0.008073,0.228535,0.813424,0.544074,-0.205729
-0.216079,-0.434285,-0.059194,-0.483508,-0.569451,0.664790
-0.179597,0.049660,-0.201211,0.950123,-0.293493,-0.105487
-0.188139,0.061465,-0.025338,0.250135,0.959152,0.132137
-0.187905,0.057734,-0.495970,-0.502358,0.864589,-0.011064
-0.185408,0.132898,-0.460216,0.758522,0.614794,0.216040
-0.092226,-0.037368,0.289317,-0.413938,-0.652513,0.634729
-0.097161,-0.028010,-0.424822,0.875773,0.435519,0.208192
-0.131669,-0.013516,0.230493,-0.231110,-0.646807,0.726794
-0.129811,-0.110206,0.091332,0.952730,0.301966,0.033510
-0.135154,-0.109290,0.193420,-0.594729,-0.784226,0.176880
-0.136317,-0.144640,0.173386,0.874183,0.449612,-0.183449
-0.136144,-0.189835,0.121893,0.991631,-0.054466,-0.117051
-0.078457,-0.000305,-0.741094,-0.000271,0.999690,0.024902
-0.105469,0.107762,-0.116620,0.247631,0.942915,0.222687
-0.074738,-0.066051,-0.880914,-0.062185,0.997616,-0.029938
-0.178668,-0.250687,0.075333,0.985583,-0.169031,-0.007435
-0.176810,-0.315882,-0.037661,0.826272,0.208063,-0.523435
-0.179597,-0.336125,-0.004904,-0.605577,-0.675980,0.419914
-0.127545,-0.082625,-0.712691,0.531079,-0.161934,0.831705
-0.154326,0.042383,-0.056497,0.717122,0.522209,-0.461555
-0.185930,-0.321325,0.131600,0.803813,-0.368280,-0.467176
-0.180526,-0.377530,-0.037062,0.687574,0.578509,-0.438827
-0.036979,0.022446,0.233948,0.438704,0.842271,-0.313237
-0.021700,-0.070392,-0.115481,-0.571312,-0.658928,-0.489302
-0.017864,-0.318635,-0.427199,-0.643610,0.048894,0.763790
-0.041276,-0.323527,-0.038480,-0.363203,-0.723030,0.587631
-0.066721,-0.807717,-0.097784,0.902111,0.368128,0.225118
-0.080142,-0.797811,0.137293,-0.603401,-0.266697,0.751518
0.014321,-0.099381,-0.749164,0.237368,0.128782,0.962846
-0.103437,-0.571097,-0.077610,0.670321,0.384871,-0.634464
-0.105295,-0.601614,-0.078609,0.761554,0.239070,-0.602397
0.020360,0.007095,-0.743751,-0.001184,0.185691,0.982607
-0.053591,-0.268974,0.221105,0.869234,0.224641,-0.440418
-0.060158,-0.674575,-0.074674,0.919871,0.369207,-0.132374
-0.061260,-0.711945,-0.092351,0.931740,0.338940,-0.130311
-0.054346,-0.305485,0.198773,0.831350,0.479020,-0.281775
-0.094084,-0.146596,0.205525,0.298094,0.520395,-0.800205
-0.093328,-0.193872,0.143585,0.957606,-0.202319,-0.205081
-0.096697,-0.210996,0.184012,0.907568,0.170610,-0.383683
-0.098324,-0.240597,0.183473,0.919864,0.215377,-0.327817
-0.098207,-0.473121,-0.067163,0.510012,0.388122,-0.767625
-0.106575,-0.636475,-0.090873,0.380542,0.585147,-0.716094
-0.114067,0.034921,-0.039439,-0.472686,-0.879043,0.062062
-0.120227,-0.053757,-0.025038,0.995657,0.063059,0.068489
-0.093676,-0.239985,-0.724535,-0.234511,-0.145600,0.961148
0.019140,-0.029783,-0.122033,-0.638222,-0.581704,-0.504275
0.012229,-0.871873,-0.109609,0.850467,0.506784,-0.140979
-0.012460,-0.195951,0.235506,0.915041,-0.367728,-0.165756
-0.013393,-0.229343,0.218927,0.871928,0.106420,-0.477929
-0.019317,-0.355514,0.189665,0.623333,0.237692,-0.744956
-0.041042,-0.745213,0.164398,0.707787,0.509957,-0.488857
-0.042262,-0.782092,0.148538,-0.674730,-0.310301,0.669666
0.017864,-0.328910,-0.394182,0.726758,-0.039795,-0.685740
0.020420,-0.593236,-0.698529,0.146406,-0.196489,0.969514
-0.017864,-0.322671,0.199293,0.736082,0.584667,-0.341098
-0.065327,-0.769982,-0.083203,0.854011,0.518547,-0.042131
-0.081882,-0.825331,0.140329,-0.576850,-0.261151,0.773979
0.111511,0.112349,-0.756135,-0.154663,0.122835,0.980301
0.108724,0.080484,-0.739976,0.005716,0.129501,0.991563
0.090190,-0.233931,-0.745149,-0.253994,-0.176394,-0.950985
0.018037,-0.445906,0.203408,-0.608737,-0.186358,0.771174
0.036454,-0.121276,0.220485,0.716657,-0.697402,0.005807
0.024891,-0.328359,0.206623,0.475860,0.557272,-0.680445
0.009325,-0.589873,0.204426,0.182269,0.046631,-0.982142
0.007407,-0.617148,0.210059,-0.284669,-0.134301,0.949172
-0.000379,-0.772368,0.186170,0.609440,0.482252,-0.629298
0.063643,-0.301877,-0.385813,0.709199,-0.074615,-0.701049
0.033490,-0.141519,0.246412,0.953697,-0.245720,-0.173446
0.005489,-0.646382,0.210978,-0.319628,-0.174945,0.931253
0.004039,-0.678245,0.202908,0.225077,0.451168,-0.863590
0.002642,-0.709253,0.196976,0.053217,-0.446358,0.893271
-0.001656,-0.808391,0.172248,0.446789,0.756742,-0.477201
-0.004503,-0.878355,0.150276,0.474084,0.457026,-0.752577
0.014087,-0.083420,-0.092431,0.024314,0.789349,0.613463
0.008684,-0.090514,-0.010177,-0.475174,-0.878947,-0.040777
0.141544,-0.335515,0.228495,-0.175450,-0.184722,0.967003
0.119180,-0.712678,0.226757,0.122476,0.077333,0.989454
0.117670,-0.792183,0.178320,-0.216095,-0.586416,0.780653
0.136899,-0.142865,-0.758572,0.230875,0.115798,0.966068
0.094374,-0.125069,-0.076312,0.073358,0.598773,0.797552
0.125917,-0.312764,-0.744610,-0.208845,-0.289823,-0.934016
0.153397,0.138402,-0.755056,0.092602,-0.090368,0.991594
0.150841,0.104337,-0.745469,0.112886,-0.106590,0.987874
0.103146,-0.051616,-0.148199,0.324374,0.417459,0.848828
0.101111,-0.082074,-0.143944,0.324374,0.417459,0.848828
0.127254,-0.272950,-0.729190,0.192791,0.243855,0.950456
0.067767,-0.198948,0.267904,-0.523341,0.427694,-0.737016
0.056204,-0.447251,0.216311,-0.621635,-0.078896,0.779324
0.053360,-0.512079,0.201290,-0.630188,-0.076302,0.772685
0.051385,-0.538132,0.208121,-0.499867,0.087414,0.861680
0.041797,-0.723686,0.184312,-0.353172,-0.470239,0.808792
0.039879,-0.749068,0.191942,0.515787,0.278633,-0.810140
0.042844,-0.686440,0.202069,0.435728,0.433807,-0.788640
0.084673,-0.561373,0.217549,0.645807,0.064817,-0.760744
0.077989,-0.679897,0.211417,0.757152,-0.081077,-0.648188
0.076131,-0.135465,0.197335,-0.553415,0.824828,0.115717
0.116681,-0.447190,-0.727991,0.207588,0.127925,0.969816
0.063292,-0.332885,0.213275,-0.388218,-0.137636,0.911232
0.086879,-0.122316,0.042355,0.177574,-0.193130,0.964971
0.108143,-0.252583,-0.411200,-0.602002,0.178885,0.778199
0.167630,-0.557029,0.235027,-0.624471,-0.068751,0.778016
0.130796,-0.127086,-0.093290,0.073358,0.598773,0.797552
0.162052,-0.311539,-0.750382,0.154511,0.259953,0.953179
0.137594,-0.211913,-0.279610,0.619860,0.672090,-0.405054
0.159379,-0.344138,-0.740195,0.187658,0.249402,0.950044
0.136608,-0.248057,-0.295829,0.553109,0.695594,-0.458496
0.089726,-0.472448,0.222243,0.626503,0.067379,-0.776501
0.081187,-0.619044,0.218089,-0.626399,-0.221454,0.747384
0.138813,-0.050762,-0.150716,0.112954,0.249841,0.961676
0.137480,-0.125681,-0.197675,-0.512845,-0.789733,0.336616
0.152816,-0.448352,-0.736280,0.062624,0.117517,0.991094
0.119875,-0.271972,-0.059314,0.183165,0.439944,0.879147
0.131729,-0.353556,-0.319897,-0.625668,-0.675891,0.389500
0.076365,-0.708580,0.210958,0.873707,-0.301774,-0.381536
-0.770645,-0.205369,-0.095966,0.917951,0.220425,-0.329817
-0.801901,-0.126842,0.282805,0.120985,-0.978287,0.168277
-0.779361,-0.211118,-0.007960,0.444694,0.894506,0.045899
-0.801259,-0.164577,0.251605,-0.158550,0.980872,0.112924
-0.772911,-0.273562,-0.116200,0.778068,0.247741,-0.577265
-0.812007,-0.158461,0.366198,-0.409015,-0.893700,-0.184410
-0.787959,-0.289217,0.030091,0.181628,0.224624,-0.957369
-0.789757,-0.355820,0.005203,-0.442518,0.895901,-0.039225
-0.783311,-0.421564,-0.106413,-0.018610,-0.158484,0.987186
-0.786970,-0.484495,-0.109709,-0.118437,-0.152858,0.981125
-0.788424,-0.518072,-0.117099,-0.177304,-0.121770,0.976594
-0.790222,-0.548345,-0.117958,-0.131094,-0.204830,0.969979
-0.729866,-0.002263,0.073894,0.115680,-0.931648,0.344457
-0.745201,-0.022934,0.216571,-0.065399,0.316114,0.946465
-0.731025,-0.104702,0.019585,0.041213,-0.111452,0.992915
-0.752519,-0.101339,0.240400,0.035135,0.992320,0.118603
-0.756760,-0.119992,0.271460,0.100626,0.989000,0.108411
-0.719756,0.370803,0.209979,-0.078829,-0.661593,0.745708
-0.706800,0.177543,-0.044852,0.654995,-0.477135,-0.585938
-0.716501,0.167757,0.047029,0.704452,0.667077,-0.242396
-0.691057,0.104458,-0.253104,-0.201962,-0.623893,-0.754963
-0.649809,0.001957,-0.739376,-0.250676,-0.910735,0.328211
-0.717721,0.136383,0.039838,0.211517,0.857526,0.468946
-0.724288,0.118831,0.094868,-0.581601,0.106562,-0.806464
-0.723355,0.081708,0.061950,-0.012368,0.670840,0.741499
-0.726901,0.024341,0.061011,-0.187316,-0.847694,0.496314
-0.766174,-0.153139,0.346883,-0.572137,-0.284563,-0.769209
-0.732305,-0.319613,-0.104435,-0.467517,-0.305051,0.829682
-0.772156,-0.234052,0.356330,-0.526428,0.109403,-0.843152
-0.746477,-0.339244,0.027694,0.402357,-0.582866,0.705957
-0.752519,-0.501743,-0.015890,0.086387,0.073793,0.993525
-0.768497,-0.656473,0.046850,-0.328216,-0.042624,-0.943640
-0.757923,-0.754083,-0.123051,0.035590,0.254923,0.966306
-0.770879,-0.766253,-0.000270,-0.000287,-0.688296,0.725430
0.162052,-0.314171,-0.062150,-0.228848,-0.315747,-0.920832
-0.814507,0.055532,0.088376,-0.034126,0.999395,-0.006708
-0.811950,0.013945,0.033627,0.084143,-0.911969,0.401538
-0.808465,-0.031679,-0.034665,-0.555108,-0.186241,0.810660
-0.804805,-0.080729,-0.107472,0.882460,0.162251,-0.441519
-0.807188,-0.108310,-0.099622,0.985272,0.098363,-0.139871
-0.823917,-0.196440,0.018666,-0.035299,0.963508,0.265343
-0.844192,-0.153875,0.261792,-0.385223,0.921466,0.050037
-0.853081,-0.153752,0.357149,-0.409015,-0.893700,-0.184410
-0.834607,-0.377285,0.010097,0.363762,-0.921245,-0.137785
-0.838267,-0.398264,0.034346,0.280327,0.590896,0.756478
-0.840125,-0.426947,0.035045,0.192046,0.611114,0.767892
-0.832750,-0.539967,-0.118977,-0.117005,-0.165354,0.979269
-0.834838,-0.570729,-0.118138,-0.176696,0.029170,0.983833
-0.836756,-0.601982,-0.118497,-0.060856,0.095944,0.993525
-0.838731,-0.633294,-0.119276,0.107964,0.220571,0.969377
-0.841231,-0.659654,-0.110068,0.257733,0.454904,0.852430
-0.842915,-0.690845,-0.112405,0.042157,0.534340,0.844218
-0.845528,-0.719160,-0.104855,0.172588,0.429091,0.886619
-0.738985,-0.045073,-0.781562,0.634299,0.446160,-0.631353
-0.831530,-0.352027,-0.005044,-0.624862,0.748667,-0.221461
-0.770124,0.078284,0.087337,-0.196649,0.975673,0.096912
-0.792895,0.111554,0.346423,-0.518181,0.350456,-0.780172
-0.769426,0.042504,0.056337,0.442553,0.670551,-0.595406
-0.769599,0.007829,0.036303,-0.074330,-0.937847,0.338995
-0.770298,-0.026299,0.019465,-0.267297,-0.886711,0.377222
-0.768553,-0.067947,-0.025777,0.792275,0.277879,-0.543217
-0.789353,-0.033943,0.213454,-0.061010,0.654918,0.753233
-0.769660,-0.099687,-0.035624,0.477635,-0.186473,-0.858541
-0.795569,-0.641796,-0.125069,-0.071728,0.092554,0.993121
-0.812822,-0.673109,0.034685,-0.494922,0.527218,-0.690719
-0.756413,0.212527,0.033467,-0.246739,-0.968838,0.021731
-0.795859,-0.079933,0.250886,-0.262692,0.885683,0.382830
-0.799749,-0.099811,0.277152,-0.314001,0.947290,0.063600
-0.840068,0.068987,-0.112085,0.948247,0.291776,-0.125274
-0.842972,0.042445,-0.098922,0.939025,0.336062,-0.072767
-0.858541,0.053330,0.077111,-0.510493,0.840203,-0.182908
-0.858251,0.018592,0.050824,-0.307985,0.789789,-0.530451
-0.860052,-0.011619,0.048947,-0.106822,0.907084,-0.407170
-0.855403,-0.211547,-0.141108,-0.063510,0.422675,0.904053
-0.783541,-0.012599,-0.784918,-0.525374,-0.711768,0.466228
-0.863073,-0.218824,-0.061411,0.982662,0.163519,0.087384
-0.872544,-0.219130,0.041856,0.145281,-0.186588,0.971637
-0.885787,-0.201944,0.199133,-0.576933,0.800266,-0.163470
-0.864874,-0.366154,-0.144104,-0.335714,0.532540,0.776980
-0.872366,-0.410188,-0.092691,-0.068812,0.930649,0.359384
-0.885904,-0.423888,0.045012,0.211065,0.559303,0.801643
-0.890375,-0.480581,0.054519,0.280610,0.607753,0.742896
-0.893283,-0.504249,0.068761,-0.607991,-0.295131,-0.737051
-0.880153,-0.572198,-0.120974,-0.146855,0.041000,0.988308
-0.882302,-0.600330,-0.116300,0.222851,-0.180491,-0.957998
-0.989778,-0.070271,-0.185051,0.844430,0.000563,-0.535666
-0.994132,-0.167634,-0.207822,0.955952,0.072620,-0.284399
-0.950622,-0.200109,-0.178760,0.908515,0.050662,-0.414770
-0.954628,-0.220843,-0.147080,0.476381,0.199950,0.856201
-0.958231,-0.282797,-0.150276,0.973299,0.027438,0.227897
-0.960670,-0.311418,-0.142327,0.957172,0.073016,0.280161
-0.944927,-0.106782,-0.175983,-0.536789,0.325431,0.778429
-0.902229,-0.156932,-0.156468,-0.468653,0.681724,0.561797
-0.909257,-0.283469,-0.168093,0.398385,0.856519,0.328123
-0.914951,-0.336555,-0.141508,0.331929,0.266383,0.904911
-0.930638,-0.341814,0.032987,0.306102,0.145078,0.940879
-0.925408,-0.406887,-0.074654,-0.068812,0.930649,0.359384
-0.923550,-0.456180,-0.130522,0.900738,0.214516,-0.377696
-0.901183,0.059569,-0.012194,0.387924,0.919983,-0.056091
-0.933482,-0.606629,-0.126747,-0.129107,0.175234,0.976025
-0.948820,-0.560699,0.080886,0.702551,0.235800,0.671432
-0.935456,-0.637453,-0.125828,-0.132668,0.190239,0.972732
-0.938073,-0.664486,-0.115141,-0.189774,0.381262,0.904779
-0.849305,-0.102500,0.792588,-0.488156,0.102251,-0.866746
-0.852443,-0.151490,0.792847,0.224421,-0.198440,0.954074
-0.796324,-0.038835,0.727212,-0.326167,-0.935353,0.136858
-0.808755,-0.145191,0.784778,0.393970,-0.053613,0.917558
-0.817584,-0.232891,0.818534,0.157628,0.509572,0.845866
-0.776861,0.345790,0.777487,0.031649,-0.290343,0.956399
-0.779474,0.295395,0.771455,-0.061862,-0.318878,0.945775
-0.796381,0.141583,0.844141,0.833253,-0.453804,0.315834
-0.799809,0.093084,0.847377,0.626776,-0.619380,0.472780
-0.790222,0.030640,0.709315,-0.216811,-0.947380,0.235510
-0.798763,0.030886,0.795723,-0.721111,-0.526942,-0.449813
-0.797253,-0.005137,0.758272,0.297119,-0.906047,0.301328
0.166758,-0.144272,0.608984,0.843578,0.341068,-0.414789
0.162808,-0.154423,0.658121,0.484431,0.321949,0.813434
0.168502,-0.044767,0.671104,-0.368066,0.426854,-0.826029
0.163797,-0.274110,0.540513,0.010844,-0.039813,0.999148
0.145146,-0.355208,0.741733,-0.711404,0.606727,0.354664
0.145089,-0.695065,0.446094,-0.257546,-0.631783,0.731109
0.154674,-0.320102,0.633073,0.802485,-0.454602,0.386465
0.135505,0.014740,0.631296,0.934057,-0.038130,-0.355083
0.113195,-0.311418,0.673980,0.462730,0.580263,-0.670206
0.109944,-0.320653,0.715367,0.844540,-0.379808,-0.377490
0.109128,-0.393982,0.660658,0.377870,0.870678,-0.314855
0.108316,-0.427313,0.644159,-0.254002,0.967106,0.013788
0.093268,-0.566632,0.745049,-0.076220,0.026287,0.996744
0.103958,-0.735062,0.434669,0.553437,0.773186,-0.309663
0.090364,-0.620879,0.741573,-0.105361,-0.281443,0.953776
0.102391,-0.764540,0.432452,0.810122,0.431220,-0.397180
0.142299,0.183782,0.678335,0.190068,-0.325566,0.926219
0.140210,0.127516,0.661097,-0.197545,-0.823134,0.532378
0.096115,0.110942,0.664753,-0.374284,-0.882245,0.285580
0.082116,0.022200,0.798940,-0.708230,0.406693,0.577071
0.082464,-0.087210,0.692177,0.682094,-0.725060,-0.095054
0.053300,-0.453121,0.806390,-0.000646,-0.018859,0.999822
0.054520,-0.509632,0.735801,0.205014,-0.936691,-0.283864
0.064629,-0.624059,0.473000,0.337918,0.698695,-0.630584
0.053243,-0.540028,0.726273,0.525932,-0.842360,0.117578
0.051442,-0.564797,0.730528,0.911898,0.401620,0.084517
0.062654,-0.698428,0.432732,-0.647751,-0.691544,0.319664
0.140210,0.092533,0.630277,0.273353,0.851630,-0.447218
0.135328,-0.020854,0.601754,0.597294,0.437105,-0.672442
0.130683,-0.063666,0.633173,0.924680,-0.288906,-0.247992
0.127428,-0.228609,0.535919,-0.067742,0.008728,0.997665
0.114649,-0.245978,0.710114,0.794996,0.123717,-0.593865
0.097222,-0.524188,0.724156,-0.529725,0.710500,0.463230
0.105178,-0.653967,0.489099,0.271104,0.681125,-0.680126
0.141022,0.017125,0.549661,0.025599,0.993917,-0.107111
0.035234,-0.300961,0.682110,-0.423675,-0.244015,0.872328
0.033841,-0.330009,0.675399,0.728171,0.561720,-0.392731
0.096523,0.003058,0.559788,-0.114894,0.993333,0.009402
0.093445,-0.015656,0.587931,0.150348,0.987837,-0.039670
0.081766,-0.120360,0.671444,0.059615,0.979973,-0.189998
0.079096,-0.136995,0.697430,0.994411,-0.100677,0.031784
0.063930,-0.239924,0.838448,0.248829,0.798767,0.547773
0.068926,-0.324446,0.681910,0.513446,0.384361,-0.767229
0.066778,-0.344259,0.698249,-0.659721,0.208243,0.722082
0.066083,-0.421809,0.636928,0.218199,0.968835,0.117250
0.060157,-0.402973,0.745428,0.134441,0.495959,0.857876
0.075840,-0.187328,0.703482,0.982980,0.142256,-0.116250
0.075029,-0.220293,0.685466,0.620693,-0.096844,-0.778050
0.055913,0.103359,0.737738,0.810193,0.585653,-0.024454
0.048247,-0.098220,0.666710,-0.009063,-0.914142,0.405294
0.045517,-0.115466,0.694055,0.925449,-0.313339,-0.212984
0.038021,-0.286160,0.650970,-0.768101,-0.002685,0.640324
0.031398,-0.346338,0.699547,0.502765,-0.336892,-0.796072
0.029366,-0.628830,0.468006,0.308233,0.673562,-0.671794
0.018676,-0.549691,0.707477,0.482154,0.795681,0.366632
0.028494,-0.664975,0.446714,0.310359,0.707434,-0.634991
0.015945,-0.563084,0.736480,-0.354167,0.774193,0.524586
0.027334,-0.700201,0.430774,0.334851,0.866232,-0.370832
0.014669,-0.590362,0.732166,-0.269382,-0.611019,-0.744372
0.025068,-0.718794,0.449930,-0.040106,-0.930000,0.365364
0.069625,-0.213014,0.775270,-0.507248,0.493924,-0.706214
0.061026,-0.725215,0.433671,-0.553468,-0.777521,0.298554
0.048304,-0.614212,0.733164,0.688376,0.480076,-0.543751
0.046677,-0.638981,0.736420,0.633659,0.454786,-0.625817
0.044645,-0.147391,0.677516,0.779703,-0.351571,-0.518132
0.040056,-0.223718,0.679294,0.786693,-0.372852,-0.492032
0.032096,-0.394165,0.642721,-0.557125,-0.795309,0.238947
0.027565,-0.391780,0.714988,0.241151,-0.962665,-0.122972
0.020477,-0.441992,0.780204,0.414940,-0.738802,-0.531033
0.052953,0.086050,0.767400,0.616691,0.776702,0.128170
0.025356,0.169103,0.672382,0.292692,-0.838876,0.458932
0.021349,0.121155,0.689241,-0.031334,-0.999468,0.009025
0.050339,0.066602,0.788912,-0.714967,0.226073,0.661599
0.060388,0.002937,0.572092,0.231494,-0.968980,-0.086534
0.011300,-0.594703,0.779544,0.048210,-0.908367,-0.415386
0.009499,-0.616170,0.789412,0.121270,-0.272560,0.954465
0.022625,0.007767,0.563004,-0.279013,0.960188,-0.013838
0.011183,0.045929,0.781622,0.799261,-0.256906,-0.543306
0.010194,-0.093756,0.663554,0.074316,-0.993751,-0.083285
0.006014,-0.175157,0.652988,0.132485,-0.347339,0.928334
-0.003805,-0.369151,0.623785,-0.499851,-0.862883,0.074715
-0.011648,-0.372821,0.745528,-0.122670,-0.384630,0.914883
-0.001890,-0.518684,0.451627,-0.433846,-0.090555,0.896425
-0.022278,-0.508165,0.786815,0.244458,0.503133,0.828914
-0.023324,-0.540639,0.772034,0.019747,-0.912613,0.408347
-0.027161,-0.674269,0.704941,-0.715737,0.631769,0.297639
0.010545,0.015290,0.761887,-0.671720,0.585600,0.453724
0.017516,-0.108678,0.533282,-0.466693,-0.469030,-0.749805
0.002759,-0.225918,0.656603,-0.477028,0.717472,0.507620
0.002993,-0.391474,0.494692,-0.499481,-0.864806,0.051268
-0.017573,-0.436732,0.777187,0.477713,0.140268,-0.867246
-0.015832,-0.498012,0.691818,0.111749,0.515098,0.849815
-0.009673,-0.709130,0.394581,0.274202,0.747064,-0.605564
-0.023966,-0.577640,0.747685,0.000393,-0.815909,0.578180
-0.012460,-0.723442,0.425801,0.098746,-0.941649,0.321785
-0.025299,-0.607056,0.740535,-0.264245,0.564479,-0.782009
-0.027161,-0.629257,0.746906,0.487261,-0.861501,-0.142801
-0.054871,-0.719528,0.418031,-0.110592,-0.992181,-0.057842
-0.066781,-0.606079,0.725654,0.353166,0.907721,-0.226532
-0.056846,-0.741973,0.428397,0.008396,0.999831,0.016330
-0.069394,-0.617271,0.758292,0.997232,0.043309,-0.060437
-0.070845,-0.643569,0.755715,0.992881,0.111646,-0.041492
-0.072472,-0.668032,0.759231,0.898082,-0.407880,-0.164566
-0.017924,-0.517156,0.708676,0.246459,0.857791,0.451058
0.000202,-0.243227,0.681151,0.281319,0.587705,-0.758593
-0.002237,-0.301020,0.665212,0.722957,0.508044,-0.468214
-0.031458,0.022140,0.767140,0.946826,0.086201,-0.309985
-0.022803,-0.039507,0.563064,0.872406,-0.178743,-0.454927
-0.031050,-0.169103,0.570514,0.720404,-0.636778,-0.274832
-0.033142,-0.193077,0.579602,-0.807952,0.541978,0.231244
-0.037153,-0.199620,0.638506,-0.293706,0.505498,0.811301
-0.023498,0.111614,0.721579,0.199435,0.978845,0.045686
-0.026054,0.092716,0.746826,0.936898,0.032759,-0.348066
-0.027391,0.067214,0.744250,0.943342,0.067152,-0.324957
-0.050978,-0.309645,0.759490,0.962828,0.265933,0.047346
-0.042205,-0.399914,0.525632,0.750586,0.583766,-0.309577
-0.050105,-0.361628,0.693136,0.046992,-0.781470,-0.622170
-0.055045,-0.351966,0.784238,0.946083,0.321495,0.039583
-0.055218,-0.391535,0.747805,-0.729570,0.404299,-0.551606
-0.057193,-0.410556,0.762526,0.865638,-0.349840,-0.358167
-0.064980,-0.537154,0.767060,0.123472,-0.707379,0.695967
-0.051850,-0.709130,0.380160,-0.090633,-0.743975,0.662032
-0.066139,-0.567672,0.754996,0.459197,-0.076653,0.885021
-0.073866,-0.697571,0.752160,-0.019878,-0.302827,0.952838
-0.112149,-0.744297,0.727951,0.246587,0.881729,-0.402180
-0.042670,-0.267811,0.664673,-0.685957,0.617654,0.384663
-0.048655,-0.251788,0.778666,0.964500,-0.256777,0.061689
-0.040464,-0.331540,0.564961,0.910922,0.410372,0.042627
-0.023966,-0.070881,0.549501,0.947848,0.309935,-0.074331
-0.026810,-0.087823,0.578544,0.969849,0.072485,0.232677
-0.030182,-0.098709,0.625244,0.969226,0.165435,-0.182300
-0.030937,-0.132652,0.603272,0.989187,0.040478,0.140964
-0.039011,-0.223473,0.646476,0.704383,0.659403,0.262740
-0.039883,-0.378937,0.508474,-0.184461,-0.679730,0.709888
-0.059229,-0.431838,0.773712,0.775992,0.067806,-0.627087
-0.060275,-0.461867,0.761108,0.826259,0.079219,-0.557692
-0.062250,-0.482478,0.773612,-0.607584,0.452692,0.652619
-0.062423,-0.525411,0.734762,0.839226,-0.168797,-0.516921
-0.046216,0.041282,0.409182,-0.222518,-0.971187,-0.085332
-0.064455,0.086600,0.760868,0.889743,0.453618,-0.050879
-0.058183,-0.031618,0.536578,0.694455,0.116279,-0.710079
-0.063352,-0.031252,0.624404,0.840170,0.394619,-0.372009
-0.060853,-0.087151,0.526950,0.525053,0.136639,-0.840029
-0.065327,-0.092961,0.594803,-0.612499,-0.649745,0.450195
-0.090541,-0.300716,0.810145,0.853634,-0.085196,0.513859
-0.095247,-0.460706,0.727851,0.825531,-0.355782,-0.438085
-0.096814,-0.485903,0.729729,0.766359,-0.257412,-0.588586
-0.097977,-0.518316,0.715247,0.006099,0.211342,0.977393
-0.100590,-0.527613,0.751680,0.980827,-0.186505,-0.056512
-0.102682,-0.544308,0.770196,0.868857,0.183560,-0.459776
-0.058764,0.188551,0.766941,0.723900,0.624910,0.292329
-0.135097,-0.265977,0.808387,0.750752,0.390498,0.532807
-0.132832,-0.333375,0.696991,0.978933,-0.175715,-0.103994
-0.052431,0.321265,0.794605,0.816324,-0.313652,0.485013
-0.056786,-0.002323,0.543768,0.729834,0.511026,-0.454087
-0.083280,-0.211241,0.778146,0.196669,0.121099,-0.972963
-0.073518,-0.304018,0.522037,0.848677,0.481098,-0.219754
-0.077585,-0.305181,0.590069,0.621811,0.081801,0.778884
-0.085428,-0.270381,0.755116,0.911391,0.076017,0.404459
-0.088854,-0.275824,0.808427,0.877892,0.032857,0.477730
-0.075901,-0.410250,0.456221,0.672477,-0.437468,-0.596990
-0.093211,-0.353188,0.802595,0.913752,0.264381,0.308481
-0.081071,-0.490001,0.461315,-0.009830,-0.120034,0.992721
-0.091935,-0.411778,0.721819,0.800266,0.554129,-0.229161
-0.073344,-0.143904,0.679214,0.361881,0.394322,0.844720
-0.074738,-0.172222,0.673301,0.792216,0.280521,0.541942
-0.076596,-0.194178,0.683009,0.773483,0.609001,0.175618
-0.078631,-0.214910,0.695653,0.706037,0.704679,-0.070277
-0.077816,-0.435997,0.461515,0.782718,-0.172612,-0.597961
-0.092052,-0.326340,0.808387,0.820294,0.011290,0.571831
-0.110699,-0.720261,0.725674,0.609838,0.722100,-0.326603
-0.094665,-0.421809,0.758571,0.781177,-0.469515,-0.411483
-0.103845,-0.576356,0.756674,-0.743266,-0.328640,0.582711
-0.102101,-0.647544,0.656803,0.785449,-0.513202,-0.345967
-0.104193,-0.667666,0.671244,0.954342,0.239429,-0.178623
-0.106749,-0.680936,0.699468,0.734968,0.676316,-0.049183
-0.109015,-0.696287,0.722857,0.956362,0.289868,-0.036709
-0.148228,-0.646322,0.637028,-0.429608,0.902753,0.021788
-0.079443,-0.464008,0.459317,0.359563,0.126327,0.924530
-0.133296,-0.201882,0.846578,0.486666,0.273243,-0.829756
-0.135154,-0.223839,0.855566,-0.125053,0.853784,0.505385
-0.128127,-0.301388,0.647075,0.785001,0.556304,-0.272578
-0.106980,0.032536,0.627600,0.313020,0.759745,0.569917
-0.104193,-0.026358,0.514366,0.936284,-0.088974,-0.339789
-0.118308,-0.109228,0.675858,0.768255,0.564320,-0.302203
-0.109884,-0.225797,0.401752,0.214807,0.669264,0.711297
-0.112557,-0.242247,0.432732,0.803785,0.572116,0.163135
-0.126559,-0.150388,0.778965,-0.361147,-0.882588,0.301016
-0.127892,-0.176259,0.775410,-0.138504,-0.585904,0.798457
-0.121503,-0.239679,0.595302,-0.387831,-0.109644,-0.915186
-0.149738,-0.673842,0.635530,0.504903,-0.862353,-0.037681
-0.154035,-0.654945,0.730907,0.334204,0.501581,0.797950
-0.108607,0.116690,0.744330,0.532573,0.820588,-0.207367
-0.111337,0.099994,0.776628,0.362139,0.296806,0.883607
-0.100881,0.025014,0.510771,0.942095,0.216448,-0.256140
-0.152933,-0.723442,0.639904,0.610433,0.292519,-0.736074
-0.159322,-0.720078,0.754616,-0.542815,0.383639,0.747110
-0.101927,0.248669,0.766601,0.786607,0.276963,-0.551852
-0.113777,0.008868,0.722178,-0.799238,0.561901,0.213274
-0.107561,-0.078037,0.520539,-0.631497,0.241188,0.736912
-0.117032,-0.079627,0.686045,0.591246,0.800224,-0.100350
-0.131729,-0.177298,0.843882,-0.143987,0.246626,0.958354
-0.122957,-0.267935,0.591287,0.337459,0.331488,0.881043
-0.139221,-0.302734,0.842523,0.813797,-0.337273,0.473267
-0.138292,-0.400832,0.722358,0.900085,-0.165661,-0.402994
-0.139221,-0.436426,0.699408,-0.309444,0.621536,0.719679
-0.139976,-0.473060,0.674500,0.930617,-0.304471,-0.203099
-0.142941,-0.480154,0.718004,0.702095,-0.459581,-0.543918
-0.144508,-0.502905,0.723676,-0.635676,0.562370,0.528824
-0.106224,0.172834,0.762087,-0.545861,-0.319469,-0.774581
-0.107735,0.146475,0.759310,0.743601,0.608448,-0.277217
-0.146370,-0.524615,0.734083,-0.661385,0.274796,0.697895
-0.147820,-0.550975,0.731067,0.542993,-0.039090,-0.838827
-0.146600,-0.618738,0.638726,0.856958,0.101188,-0.505356
-0.192436,-0.660204,0.639605,-0.512827,0.687699,-0.513886
-0.196156,-0.648278,0.722877,-0.345628,0.208951,0.914812
-0.197606,-0.675371,0.718843,0.392091,-0.304271,-0.868150
-0.147299,0.208734,0.769278,-0.266244,0.926463,0.266045
-0.150433,0.194912,0.814359,-0.570441,-0.361339,-0.737584
-0.179306,-0.230995,0.874422,-0.335770,0.839548,0.427104
-0.170885,-0.330683,0.608785,-0.607809,0.500757,0.616288
-0.180817,-0.253072,0.879875,0.455558,-0.742661,-0.490838
-0.172626,-0.353739,0.615935,0.618625,-0.583286,-0.526385
-0.175647,-0.362852,0.661337,0.923714,-0.354031,-0.146338
-0.183433,-0.309951,0.862557,0.897166,0.301664,-0.322633
-0.178030,-0.380527,0.683708,0.881173,-0.387029,0.271556
-0.180526,-0.440767,0.663055,0.871805,-0.264774,-0.412130
-0.187557,-0.386459,0.855526,0.101731,-0.888373,0.447710
-0.182444,-0.459360,0.679354,0.976378,-0.067489,0.205257
-0.184129,-0.485535,0.680053,0.941310,-0.058057,0.332513
-0.162808,-0.201761,0.601054,0.728762,-0.248446,0.638107
-0.172974,-0.138279,0.859222,-0.685658,-0.204797,-0.698521
-0.163215,-0.241758,0.563043,0.976358,0.163399,-0.141513
-0.165712,-0.258761,0.591647,-0.429038,-0.173027,-0.886560
-0.167456,-0.281940,0.599077,0.283442,0.429687,0.857339
-0.177218,-0.210996,0.860580,0.175483,-0.563628,-0.807173
-0.168910,-0.307687,0.598558,0.060912,0.587111,0.807212
-0.179016,-0.413675,0.666950,0.937648,-0.180655,-0.296953
-0.186047,-0.364504,0.850133,0.817664,-0.446837,-0.362991
-0.185522,-0.514279,0.673122,-0.774127,0.072521,-0.628862
-0.186277,-0.552382,0.646516,0.957612,0.257888,-0.128348
-0.203066,-0.738793,0.751221,0.089493,-0.959393,0.267499
-0.144217,0.225246,0.732126,0.750506,0.278321,-0.599399
-0.149738,0.117792,0.712491,-0.214836,-0.781955,0.585142
-0.146252,0.056083,0.580141,-0.529207,0.847918,-0.031212
-0.155432,0.088373,0.787754,-0.704207,0.229923,-0.671735
-0.144043,0.000122,0.478513,0.930626,-0.268231,-0.248973
-0.147355,-0.137299,0.386791,-0.752945,-0.497864,-0.430356
-0.158567,-0.077731,0.659959,0.940046,0.297792,-0.166232
-0.159322,-0.109411,0.640164,-0.713840,-0.438049,0.546393
-0.187614,-0.582349,0.639305,0.411584,0.683454,0.602901
-0.189185,-0.608647,0.640344,0.294624,0.320187,0.900376
-0.191390,-0.624121,0.662935,0.957399,0.100567,-0.270692
-0.196269,-0.043606,0.650771,0.755004,0.655620,-0.011439
-0.199003,-0.059935,0.682709,0.743628,0.666500,0.052874
-0.203708,-0.054737,0.777567,0.889647,0.452788,0.059258
-0.205623,-0.076141,0.790310,0.931511,-0.176931,-0.317778
-0.201733,-0.336249,0.416253,-0.038057,-0.429456,0.902285
-0.219508,-0.254235,0.852091,0.690961,-0.620499,-0.370882
-0.220788,-0.282002,0.845340,0.932030,-0.175710,-0.316932
-0.222182,-0.307687,0.841704,0.458247,0.126321,0.879803
-0.159439,-0.150633,0.595622,0.895345,0.440435,0.066146
-0.168211,-0.104764,0.809705,-0.767171,0.126480,-0.628850
-0.161124,-0.175523,0.599277,0.924929,0.379582,-0.020583
-0.240946,-0.824046,0.606448,-0.770160,0.478851,-0.421374
-0.242396,-0.850346,0.605829,-0.770160,0.478851,-0.421374
-0.227117,-0.375144,0.857863,-0.141751,-0.789458,0.597213
-0.228628,-0.400158,0.858223,-0.704426,0.569474,0.423654
-0.226479,-0.484925,0.717884,-0.333311,0.623760,0.706984
-0.227873,-0.515015,0.708816,0.828827,-0.342187,-0.442668
-0.228919,-0.546449,0.694514,0.928621,0.356455,0.102972
-0.230603,-0.567427,0.704521,0.960316,0.278180,0.020233
-0.241584,-0.748883,0.704621,0.459791,-0.880419,-0.115999
-0.183898,0.234298,0.731107,-0.187010,-0.324988,0.927044
-0.188603,0.195218,0.776269,0.212937,0.742674,0.634896
-0.182270,-0.044401,0.380799,0.704007,0.691832,-0.160442
-0.197315,0.041588,0.767600,0.378849,0.284914,-0.880510
-0.189589,-0.024279,0.544288,0.911211,0.411903,-0.005551
-0.197723,-0.199253,0.497528,-0.621766,-0.109177,0.775556
-0.210970,-0.143109,0.815098,0.602355,-0.798133,0.012360
-0.213002,-0.162253,0.830259,0.923795,-0.296244,-0.242575
-0.214860,-0.182313,0.844940,0.974965,0.000756,0.222356
-0.216196,-0.207388,0.842383,0.979149,-0.202666,-0.013918
-0.217707,-0.231607,0.844900,0.853158,-0.280907,-0.439561
-0.255235,-0.295333,0.850912,0.584263,-0.191304,0.788695
-0.248963,-0.379609,0.634012,0.485549,0.848481,0.210529
-0.189068,0.126414,0.705899,0.083626,-0.736130,0.671654
-0.190231,0.098833,0.696551,-0.529619,0.151235,-0.834645
-0.180413,0.023363,0.422425,0.001279,0.998093,-0.061714
-0.190171,0.059875,0.650890,0.840716,-0.445923,0.307164
-0.192961,0.043300,0.684647,-0.625153,0.737338,-0.255963
-0.216430,-0.386337,0.640823,0.161289,0.679385,0.715837
-0.223866,-0.329643,0.847816,-0.128868,-0.396147,0.909099
-0.232465,-0.587364,0.718683,0.020356,0.686996,0.726376
-0.233393,-0.625099,0.691258,-0.487878,-0.671121,-0.558186
-0.233801,-0.673230,0.644479,0.411463,0.206322,-0.887767
-0.235135,-0.706624,0.630357,0.630251,-0.521601,0.575078
-0.236819,-0.733289,0.630916,-0.554723,0.623445,-0.550998
-0.221600,0.133081,0.697790,0.294627,-0.176438,0.939183
-0.228224,-0.003058,0.669966,0.914589,0.404079,0.015726
-0.230546,-0.021528,0.692057,-0.555999,-0.520063,-0.648382
-0.245243,-0.158399,0.815218,0.804989,-0.592854,0.022741
-0.250183,-0.143845,0.927254,-0.549966,-0.759458,-0.347507
-0.249544,-0.193872,0.857104,0.712405,-0.234038,0.661593
-0.250530,-0.225612,0.839207,-0.344851,0.089549,0.934376
-0.243502,-0.311112,0.607566,0.243232,0.126333,0.961706
-0.252331,-0.245062,0.852850,-0.177265,0.834550,0.521635
-0.272259,-0.726499,0.678874,-0.504063,-0.828155,-0.245111
-0.272315,-0.782215,0.616954,0.869559,-0.369015,0.328170
-0.238911,-0.024096,0.848356,0.925435,0.275019,-0.260643
-0.231823,-0.091431,0.636249,-0.239715,0.495126,0.835097
-0.239783,-0.055715,0.828361,0.762292,0.467474,0.447638
-0.233684,-0.115955,0.642461,-0.237914,0.892424,0.383374
-0.229327,-0.200843,0.462713,-0.702294,0.485935,0.520240
-0.254133,-0.265243,0.863616,0.093964,-0.010887,0.995516
-0.262323,-0.425907,0.835472,-0.577315,0.710363,0.402605
-0.244024,-0.495382,0.405986,0.586026,-0.398620,-0.705461
-0.257501,-0.356492,0.821590,-0.596198,0.277275,0.753437
-0.259419,-0.375206,0.837889,0.767112,0.446866,-0.460271
-0.260930,-0.402116,0.834174,-0.788684,0.481794,0.381906
-0.268830,-0.624121,0.732066,-0.454582,-0.249184,-0.855139
-0.261047,-0.769738,0.415534,-0.502219,-0.643592,0.577552
-0.302756,-0.735306,0.750602,0.974260,-0.042575,0.221369
-0.222472,0.101584,0.677416,-0.745038,0.665454,0.045708
-0.212129,0.022874,0.389168,0.994451,0.070883,0.077730
-0.224678,0.080975,0.696671,0.306347,-0.031257,0.951407
-0.226132,0.055470,0.694914,0.830115,0.017293,0.557324
-0.227468,0.029356,0.691238,0.817542,0.068789,0.571745
-0.261221,-0.545043,0.675778,0.199049,0.973528,-0.112354
-0.263196,-0.561434,0.696372,0.981589,0.013049,-0.190559
-0.269468,-0.665647,0.697630,0.808705,-0.572552,0.134836
-0.272025,-0.671825,0.738198,0.868436,0.057163,0.492496
-0.214860,0.266223,0.722738,0.026127,-0.530174,0.847486
-0.249080,0.116263,0.700227,-0.115980,-0.187732,0.975349
-0.248147,0.073269,0.634272,0.733649,0.668346,-0.122769
-0.252158,0.065685,0.701006,0.170365,-0.014807,0.985270
-0.252041,0.028622,0.659359,0.976087,0.061432,0.208520
-0.291253,-0.567916,0.724216,-0.501994,-0.361332,-0.785774
-0.265983,-0.206653,0.655924,0.628126,-0.118374,0.769055
-0.273418,-0.170937,0.831497,-0.528051,0.691069,0.493544
-0.273014,-0.214971,0.776748,0.772124,-0.280488,0.570220
-0.263660,-0.319001,0.487980,0.629195,-0.490387,-0.603022
-0.284456,-0.335575,0.855307,0.136571,0.415754,-0.899165
-0.278301,-0.417100,0.650990,0.247519,0.175359,0.952882
-0.292881,-0.592013,0.726453,0.587648,0.286489,0.756699
-0.294508,-0.614457,0.732585,0.783830,0.192689,0.590324
-0.296249,-0.639105,0.735981,0.848873,0.376429,0.371101
-0.298458,-0.705461,0.703822,0.764055,-0.243880,-0.597280
-0.239783,0.302734,0.735321,-0.335054,-0.663012,0.669443
-0.286144,-0.400953,0.814000,-0.220881,0.639015,0.736798
-0.288874,-0.409822,0.853749,0.635187,0.490959,0.596236
-0.283878,-0.529265,0.629678,0.890328,0.163337,0.425014
-0.287130,-0.531159,0.687224,0.869399,-0.467365,-0.160359
-0.300377,-0.726744,0.714249,-0.064407,-0.582792,0.810065
-0.258604,-0.034739,0.709774,0.866402,-0.486510,-0.112497
-0.264298,-0.021711,0.831058,0.961179,0.228970,-0.153972
-0.264646,-0.057305,0.795943,0.583633,0.060782,0.809739
-0.243793,0.224145,0.721739,0.968683,0.138736,0.205924
-0.261047,0.062137,0.861659,-0.235307,-0.887521,0.396152
-0.251519,-0.015289,0.599816,-0.526428,0.849458,-0.035991
-0.267667,-0.067824,0.841624,0.833800,0.321486,0.448804
-0.269355,-0.089840,0.848156,-0.446200,-0.686810,-0.573757
-0.276382,-0.216989,0.838109,-0.192011,0.375955,0.906526
-0.279056,-0.229955,0.871266,0.896354,-0.332949,0.292735
-0.270805,-0.326280,0.613019,0.939395,0.174363,0.295185
-0.279868,-0.260717,0.853409,-0.039940,0.729490,0.682825
-0.272780,-0.346094,0.628319,0.681313,0.684116,0.260380
-0.281378,-0.285548,0.854248,-0.084575,-0.144231,0.985923
-0.241063,0.276559,0.729109,0.488132,0.130438,-0.862967
-0.246463,0.170021,0.711293,0.809822,-0.378365,0.448361
-0.247917,0.143173,0.707278,-0.581118,0.268087,-0.768395
-0.289629,-0.318635,0.433631,0.011487,-0.306586,0.951774
-0.304791,-0.200233,0.838488,-0.635862,0.667206,0.387964
-0.306302,-0.224451,0.838388,-0.403854,0.744126,0.532145
-0.308160,-0.245306,0.849654,0.784964,-0.557295,-0.270655
-0.316060,-0.407988,0.814639,0.485751,0.582511,-0.651711
-0.310368,-0.485169,0.627800,0.679234,-0.353575,0.643138
-0.312283,-0.507308,0.638646,-0.689395,0.429908,-0.583021
-0.313272,-0.542596,0.618232,0.463900,0.269389,0.843935
-0.321229,-0.571953,0.729070,0.159393,0.863287,0.478883
-0.323208,-0.591095,0.744610,-0.634589,-0.319534,-0.703701
-0.324484,-0.618861,0.738757,-0.698039,-0.386494,-0.602797
-0.336508,-0.833222,0.722198,-0.439545,0.654264,0.615417
-0.271560,0.307627,0.790510,0.973432,0.227462,0.026294
-0.273826,0.218702,0.733724,0.900574,0.303831,0.310892
-0.274234,0.185800,0.706299,0.946411,0.272899,-0.172720
-0.280680,-0.027032,0.590229,0.526461,-0.796719,0.296778
-0.292650,0.033882,0.875521,0.598151,-0.041219,0.800323
-0.292243,-0.006177,0.823428,0.910914,-0.362159,0.197679
-0.287885,-0.122133,0.617114,0.843100,0.526744,-0.108268
-0.293055,-0.115345,0.718603,-0.587340,0.442583,-0.677608
-0.326286,-0.642285,0.744589,0.402674,0.217448,0.889140
-0.327041,-0.680570,0.718164,0.782410,0.524699,-0.335448
-0.329597,-0.691517,0.750322,0.549845,0.300049,0.779513
-0.331455,-0.710049,0.763725,0.676138,0.581431,0.452521
-0.338370,-0.852181,0.736400,0.333116,-0.875678,-0.349602
-0.275163,0.156932,0.691099,0.486093,0.211167,-0.848011
-0.276439,0.093573,0.646096,-0.265571,-0.954735,0.133991
-0.279811,0.080790,0.691059,-0.750552,0.348222,0.561616
-0.281378,0.055594,0.692976,0.615520,0.454999,-0.643515
-0.274173,0.001897,0.504040,-0.559109,-0.063525,-0.826657
-0.285272,0.048438,0.757812,0.796797,0.602223,0.049417
-0.299678,-0.092593,0.863556,0.519439,0.341470,0.783314
-0.301132,-0.119014,0.859521,-0.598007,-0.365757,-0.713169
-0.310542,-0.259127,0.879256,-0.396867,0.880953,0.257716
-0.303511,-0.342118,0.661517,0.866306,-0.119912,0.484907
-0.311936,-0.286281,0.873783,0.748642,0.643555,-0.159285
-0.307521,-0.383096,0.689081,0.064898,0.965462,0.252331
-0.315946,-0.320408,0.908918,0.868440,0.323789,0.375464
-0.314900,-0.379915,0.823408,0.263504,0.813301,-0.518755
-0.270805,0.270687,0.736081,-0.208559,-0.140396,0.967880
-0.271560,0.240720,0.718224,0.833819,0.469228,-0.290811
-0.308741,-0.056816,0.578564,-0.099152,0.994864,-0.020374
-0.313680,-0.055347,0.666630,0.100245,-0.775267,0.623628
-0.322917,-0.017736,0.869468,-0.625412,0.453175,-0.635210
-0.317106,-0.066051,0.716406,0.182766,0.042111,0.982254
-0.324541,-0.042016,0.871626,-0.379256,0.263670,-0.886929
-0.308160,-0.183474,0.433351,0.197691,0.325941,-0.924490
-0.318733,-0.132713,0.671703,0.491017,-0.303005,-0.816756
-0.317279,-0.355574,0.409362,-0.210567,-0.910695,0.355381
-0.321811,-0.353005,0.492555,0.800333,0.010026,-0.599472
-0.334476,-0.258944,0.817036,0.079242,-0.709473,0.700263
-0.337380,-0.266895,0.860080,0.511538,-0.788147,0.342277
-0.339238,-0.286893,0.870827,0.476091,0.818803,-0.320779
-0.329771,-0.395938,0.588870,0.916118,-0.017703,0.400519
-0.298980,0.238701,0.718903,0.974825,0.220876,0.030514
-0.306185,0.110391,0.709495,0.160632,0.866201,0.473173
-0.306823,0.077916,0.685546,-0.673269,0.722686,-0.156315
-0.302174,0.006789,0.527070,-0.653294,-0.750419,-0.100394
-0.303862,-0.017980,0.531045,0.862194,0.506227,-0.018882
-0.336685,-0.449452,0.653287,-0.395382,0.077581,-0.915234
-0.346908,-0.364136,0.925017,-0.053647,0.917435,0.394253
-0.339937,-0.502538,0.654146,0.482946,0.035376,0.874935
-0.340809,-0.535991,0.635470,0.461649,-0.819605,0.339304
-0.342784,-0.556296,0.647894,-0.454556,-0.187913,-0.870671
-0.358644,-0.710720,0.762666,0.855532,0.513128,0.069024
-0.360268,-0.788148,0.709375,-0.256611,0.437880,0.861633
-0.361956,-0.811816,0.715307,-0.108948,0.668813,0.735405
-0.301536,0.319798,0.849135,-0.115250,0.080590,0.990062
-0.293927,0.378937,0.777207,0.868186,0.490028,0.078264
-0.303107,0.160663,0.708116,-0.410592,0.313130,-0.856366
-0.300841,0.111308,0.615117,0.830100,0.556978,-0.026647
-0.318733,0.057550,0.873703,0.536899,-0.003395,0.843640
-0.307114,-0.030823,0.576007,-0.813633,-0.569309,-0.117851
-0.319198,0.025014,0.848615,-0.337519,0.785186,-0.519195
-0.320825,-0.152285,0.688941,0.450337,0.890791,0.060735
-0.323148,-0.169898,0.710773,-0.419948,0.576259,-0.701120
-0.330643,-0.137850,0.876999,-0.470374,-0.649891,-0.596984
-0.314492,-0.294844,0.426080,0.058366,-0.190015,0.980045
-0.314957,-0.332945,0.394241,-0.118536,-0.875225,0.468968
-0.331572,-0.208611,0.816357,-0.308666,0.923918,0.226056
-0.342203,-0.294415,0.915529,0.191013,0.440637,0.877128
-0.340866,-0.352149,0.830479,0.939179,-0.004364,0.343400
-0.347897,-0.579719,0.712291,-0.473251,0.868707,0.146222
-0.350276,-0.592502,0.741773,0.629972,-0.739542,-0.237092
-0.352021,-0.614701,0.750202,0.858657,-0.121848,0.497857
-0.351673,-0.672558,0.681810,0.165573,0.760165,0.628279
-0.355098,-0.667849,0.745508,0.676084,0.096317,0.730502
-0.358701,-0.760199,0.712751,-0.536870,0.307268,0.785720
-0.349989,-0.155159,0.709595,-0.374921,-0.694283,0.614333
-0.350801,-0.188062,0.689421,0.880760,-0.342498,0.327042
-0.359573,-0.145739,0.884849,0.331736,0.816174,0.473086
-0.350163,-0.234358,0.632015,-0.482224,-0.782614,0.393670
-0.354751,-0.232585,0.711232,-0.625644,0.505716,-0.593988
-0.343770,-0.338879,0.413377,0.252106,-0.924337,0.286433
-0.367938,-0.338817,0.830678,-0.217503,0.384557,-0.897111
-0.369157,-0.369213,0.817935,0.750746,0.628078,0.204691
-0.354985,-0.535991,0.403669,-0.205779,0.618623,0.758261
-0.374214,-0.350010,0.924258,-0.324041,-0.652100,-0.685393
-0.364860,-0.463274,0.647115,-0.270646,-0.948367,0.165379
-0.375724,-0.371658,0.929271,-0.038376,0.994373,0.098735
-0.368346,-0.510733,0.657981,0.371101,-0.059274,0.926699
-0.383855,-0.723014,0.705680,-0.011304,0.323309,0.946226
-0.385482,-0.748394,0.707797,0.445353,0.455249,0.770980
-0.388386,-0.804048,0.699827,-0.433194,-0.119665,-0.893322
-0.330292,0.176076,0.712271,-0.262022,0.426962,-0.865475
-0.332966,-0.100055,0.475157,-0.731126,0.680855,0.043493
-0.349117,-0.012965,0.842244,-0.035583,0.991625,0.124154
-0.351556,-0.028682,0.868729,-0.138044,-0.171093,-0.975536
-0.353996,-0.044707,0.893178,0.490272,-0.290126,0.821864
-0.373168,-0.586386,0.664333,-0.444336,-0.161925,-0.881105
-0.376129,-0.594826,0.704721,0.836234,-0.199748,-0.510699
-0.377873,-0.615252,0.715187,0.237211,0.649756,-0.722183
-0.379614,-0.636351,0.723996,0.597907,0.737947,-0.312957
-0.382405,-0.644609,0.762366,0.789746,0.286912,0.542202
-0.334359,0.095958,0.699787,-0.107612,-0.990103,0.090091
-0.336742,0.076999,0.720960,0.341042,-0.664174,0.665254
-0.328842,0.023118,0.528308,0.407319,0.912883,0.027125
-0.327158,0.121705,0.602832,0.817268,0.462134,-0.344246
-0.334420,0.130145,0.734243,-0.704472,-0.111248,-0.700959
-0.334359,0.024158,0.625643,0.848158,-0.284895,-0.446612
-0.339529,0.024526,0.713789,0.766954,0.020740,0.641367
-0.348943,-0.126780,0.719941,0.039422,-0.318083,0.947243
-0.337731,-0.223533,0.427598,-0.080697,-0.351653,0.932646
-0.359981,-0.219680,0.815338,0.615321,-0.357913,-0.702338
-0.346326,-0.356124,0.439923,0.051364,-0.283286,0.957659
-0.361548,-0.243531,0.816636,0.259428,-0.851264,0.456122
-0.365151,-0.285731,0.836811,0.550276,0.480425,0.682926
-0.367590,-0.301020,0.862557,0.061014,-0.964031,0.258690
-0.368693,-0.550854,0.623625,-0.276587,-0.905824,-0.320909
-0.371366,-0.564185,0.654346,-0.135631,0.459167,0.877935
-0.361605,-0.030334,0.601094,-0.088336,-0.963227,0.253755
-0.352312,0.263470,0.740375,0.076850,0.628473,-0.774026
-0.359573,0.234849,0.832037,0.319974,-0.295101,0.900296
-0.349117,0.178032,0.601254,0.552416,0.474580,-0.685281
-0.355389,0.179133,0.706359,0.693250,0.696905,0.183652
-0.352485,0.129106,0.609244,0.815273,0.442717,0.373270
-0.359573,0.134977,0.731187,-0.106521,0.811320,0.574816
-0.414646,-0.785578,0.724355,0.447712,0.437330,0.779933
-0.418075,-0.832121,0.735541,-0.637131,-0.070638,-0.767512
-0.348127,0.401871,0.807348,0.817262,0.491008,0.301652
-0.375083,0.297353,0.729049,-0.133530,-0.701077,0.700472
-0.356262,-0.105130,0.438624,0.939695,0.308256,0.148163
-0.383855,-0.117180,0.882931,0.190883,0.526702,0.828341
-0.385365,-0.141215,0.882432,0.323477,0.747274,0.580469
-0.376770,-0.217540,0.663414,0.946642,-0.198198,-0.254139
-0.390539,-0.245857,0.866013,0.341047,0.885704,0.314986
-0.392804,-0.262492,0.887665,-0.306735,0.951389,-0.027784
-0.398612,-0.580944,0.662555,0.275812,-0.576369,-0.769238
-0.406977,-0.654577,0.730088,-0.727823,0.563770,0.390433
-0.407384,-0.698917,0.691338,0.286656,0.684991,0.669788
-0.370494,-0.357593,0.418550,0.252106,-0.924337,0.286433
-0.388273,-0.229037,0.843722,0.679908,0.278247,0.678457
-0.400935,-0.597332,0.685386,0.948078,0.122442,0.293525
-0.402041,-0.626934,0.675738,-0.164415,0.795473,0.583258
-0.404711,-0.637697,0.710014,-0.694037,0.717016,0.064811
-0.347489,0.204208,0.599956,0.533447,0.651732,-0.539147
-0.360385,0.106416,0.717205,0.615850,-0.686203,0.387110
-0.353414,0.026116,0.520698,0.172866,0.900276,0.399526
-0.375143,-0.005199,0.850273,0.216609,-0.952711,-0.213123
-0.369101,-0.086906,0.667988,0.878338,0.473079,0.068691
