0.002008,0.051591,0.687483,0.305291,-0.936060,0.174899
0.114343,-0.314093,-0.635342,0.187140,0.635240,0.749299
-0.585802,-0.857050,-0.950811,0.592914,-0.622644,-0.510654
-0.058313,-0.222080,-0.964273,0.135232,-0.956538,-0.258356
-0.366866,0.416469,0.840361,0.837240,0.082547,0.540569
0.119905,-0.210611,-0.406458,0.565911,-0.096371,-0.818815
0.881503,0.242552,0.784062,0.745795,0.105246,0.657809
-0.471041,0.871671,0.836503,0.484363,-0.787462,0.381177
-0.241141,-0.584220,-0.961596,0.548342,0.071370,0.833203
-0.513389,-0.931002,-0.965820,-0.221280,0.942818,-0.249257
-0.489377,-0.875399,-0.956459,0.556381,-0.265859,-0.787248
0.321660,0.153684,0.656339,0.086477,-0.489731,0.867574
-0.339812,0.446688,0.948798,-0.410172,-0.285869,0.866047
-0.299927,-0.572857,-0.938546,-0.086081,0.239458,0.967083
0.410372,-0.340014,-0.938163,0.690869,0.364190,-0.624552
0.171096,-0.177729,-0.973105,0.281905,-0.059949,0.957568
0.772890,0.282214,0.865316,-0.019921,-0.996948,0.075478
0.252705,0.041795,0.604808,-0.211603,-0.000557,0.977355
0.704372,0.361943,0.378065,-0.156285,-0.378333,0.912381
0.810437,0.207372,0.801292,0.265522,0.892496,0.364621
0.837641,0.279524,0.814887,0.761851,-0.622612,0.178711
0.171032,-0.426052,-0.911001,0.998194,-0.058372,-0.014215
-0.587835,-0.935503,-0.952479,0.654741,0.745358,0.125521
-0.599915,-0.542137,-0.975107,-0.005403,0.206414,0.978450
-0.200746,-0.556918,-0.964466,0.022748,0.442202,0.896627
0.078458,0.208010,0.648518,0.443702,0.592884,-0.672024
-0.088870,-0.237307,-0.361798,0.823332,0.563543,0.067400
0.270595,-0.101502,-0.956592,0.130544,-0.046702,0.990342
0.021953,-0.218020,-0.316885,0.575668,0.817349,-0.023365
-0.130435,0.806261,0.858162,0.688067,0.050526,0.723886
-0.401403,-0.064191,0.860516,0.245335,0.061208,-0.967504
-0.326429,0.380684,0.910587,0.826924,0.244699,-0.506280
0.163836,0.119144,0.835805,0.134994,-0.965080,0.224494
0.396727,-0.371755,-0.945964,0.623945,-0.556175,-0.548964
-0.286054,-0.724924,-0.948340,0.730530,0.468805,-0.496536
0.446025,0.492590,0.387084,0.350160,0.904943,-0.241798
-0.640729,-0.931909,-0.960308,0.951357,0.054865,0.303167
-0.088284,-0.499164,-0.962890,0.435485,0.195492,0.878712
0.657165,0.250640,-0.033320,0.946168,0.136343,-0.293560
-0.806133,0.496485,0.838637,-0.516638,0.847237,-0.123592
-0.600463,-0.622499,-0.960818,0.776715,0.510844,-0.368446
0.171853,-0.496759,-0.946431,-0.120798,0.294760,0.947905
-0.343209,0.591193,0.768530,-0.301387,-0.346434,0.888341
-0.245495,0.064894,0.529574,0.668162,-0.742899,-0.040746
-0.684486,0.123634,0.809245,-0.687823,-0.217337,0.692578
0.082834,0.374376,0.617919,0.989803,-0.137646,0.036641
-0.134177,0.032697,0.993716,-0.551449,-0.811019,-0.195325
0.096202,-0.413027,-0.969256,-0.773203,0.331340,0.540714
-0.656560,0.136642,0.735428,-0.080097,0.421037,0.903500
-0.100392,-0.656049,-0.961308,0.148599,-0.012757,-0.988815
-0.190049,0.587178,0.745920,-0.355441,0.554739,0.752281
0.310991,-0.239621,-0.959269,-0.597336,0.540161,-0.592803
-0.388918,0.104359,0.869164,0.376401,-0.224780,-0.898775
0.163450,-0.229349,-0.630459,0.903105,-0.429143,-0.015431
0.200045,-0.174670,-0.962453,0.297967,0.946066,-0.127179
0.481744,-0.257607,-0.945242,-0.352622,-0.494985,0.794133
-0.605861,-0.572849,-0.971463,-0.227969,0.352764,0.907517
-0.140815,0.186730,0.581301,-0.765406,0.369673,-0.526778
0.452695,0.256948,0.859338,-0.719966,0.274981,-0.637208
0.283132,-0.326113,-0.961756,0.928759,-0.345843,0.133411
0.369989,0.226201,0.745141,-0.203501,0.710407,0.673728
-0.447362,-0.748917,-0.956524,-0.210638,-0.076210,0.974589
0.086146,0.523209,0.784162,0.003357,-0.996073,-0.088470
-0.372540,-0.075343,0.880217,0.211716,-0.559628,0.801245
-0.305071,-0.580828,-0.969235,0.823004,-0.128595,0.553288
-0.527037,0.899680,0.821982,-0.125750,-0.990828,0.049468
0.829351,0.235779,0.693367,-0.709473,0.704647,-0.011013
0.085410,0.025176,-0.969530,0.976938,-0.127021,-0.171630
-0.330383,0.354134,0.884427,-0.778999,0.399201,0.483528
-0.282042,0.044008,0.656015,0.404989,0.898772,0.167908
0.132661,-0.489988,-0.943721,0.943502,-0.196813,-0.266586
0.323887,-0.478774,-0.940669,-0.061655,0.991212,0.117035
-0.178756,-0.208179,-0.989648,0.078821,0.192866,0.978054
-0.648582,-0.762358,-0.950053,-0.675471,-0.583802,-0.450460
-0.264876,-0.752241,-0.958819,0.508688,0.505042,-0.697258
0.422010,-0.455265,-0.916668,-0.116646,0.134513,0.984022
-0.546554,-0.139681,-0.371174,0.784450,-0.618209,0.049563
-0.101799,-0.102838,-0.972489,0.221722,0.060748,0.973216
-0.177613,-0.143515,-0.966669,-0.148161,0.613708,0.775507
-0.307018,0.755758,0.834721,0.829176,0.545567,-0.121751
0.319698,0.027058,0.690720,-0.716979,-0.311576,-0.623588
-0.083833,-0.005941,0.686191,0.901449,0.412468,0.131378
0.005965,-0.173522,-0.420472,0.738153,-0.348448,-0.577680
-0.213151,0.253056,0.867586,0.172779,0.919747,0.352438
0.328053,0.344973,0.755703,0.858378,-0.508758,0.065975
0.142244,0.446864,0.597219,0.984412,0.071867,-0.160525
0.039833,-0.089729,-0.974830,-0.558331,0.460214,0.690268
-0.276769,-0.109966,0.859721,-0.606507,0.602119,0.519232
-0.957171,0.115073,0.851688,0.870533,0.431062,-0.237398
-0.543014,0.367997,0.855619,0.879029,0.409176,0.244710
0.058870,-0.448322,-0.825610,0.140149,-0.642146,0.753662
0.567878,0.313065,0.392499,0.510147,0.810017,0.289175
-0.042286,-0.009704,0.663890,0.313410,0.924031,0.218953
0.615859,0.303123,0.895935,0.559651,0.774793,0.294087
-0.524593,0.397078,0.880875,-0.444888,0.789581,-0.422654
0.151430,0.187509,0.609794,0.209999,0.926131,0.313339
-0.651125,0.885797,0.843014,0.279055,0.910383,-0.305501
-0.057095,0.220935,0.876401,0.950968,-0.306835,0.038875
0.762070,0.186751,0.696588,0.859685,-0.481048,0.171856
-0.421174,-0.837396,-0.961369,0.226462,0.311464,-0.922879
0.127382,-0.529659,-0.949872,0.104800,-0.994477,0.005714
-0.504261,0.174520,0.819347,0.570511,-0.091315,-0.816197
0.450923,-0.038728,-0.051026,0.054151,0.169933,0.983967
0.290321,-0.651496,-0.907530,0.464995,-0.731672,-0.498433
0.146017,-0.570839,-0.949771,-0.498342,0.368358,0.784836
-0.422602,-0.273127,-0.966022,-0.556998,0.057108,-0.828548
-0.507954,0.426731,0.864111,0.810032,0.009749,-0.586305
-0.115350,0.395845,0.842923,0.669118,0.558480,0.490287
0.188081,0.375902,0.596004,0.839730,0.428918,-0.332993
0.320206,-0.280387,-0.948258,0.840355,-0.417395,0.345812
0.295806,0.088402,0.728358,0.110106,-0.357323,0.927468
0.385818,-0.549357,-0.922696,-0.366407,0.337370,0.867137
0.516271,-0.400079,-0.947672,0.949267,0.289206,-0.123497
0.436318,-0.169170,-0.966804,-0.010357,-0.598039,0.801400
-0.516470,0.901275,0.832409,0.215298,0.909356,0.355977
-0.128869,-0.332575,-0.955953,-0.557750,0.422764,-0.714272
0.774196,0.380942,0.824066,0.748774,-0.427602,-0.506452
0.188320,0.215478,0.888960,0.791194,-0.558510,-0.249156
-0.580823,-0.361149,-0.968265,-0.489809,0.828724,0.270748
0.368901,-0.252974,-0.944385,-0.503190,0.861981,-0.061560
0.131895,0.010593,0.136036,0.804618,0.591017,0.057354
0.180874,0.423864,0.339337,0.298199,-0.954085,0.028265
0.363623,-0.219610,-0.953598,0.033722,-0.664430,0.746589
-0.489798,0.316600,0.868727,0.743381,0.561169,-0.363970
0.038977,0.260211,0.882252,0.149581,0.908991,-0.389052
0.762495,0.159467,0.705479,0.764455,-0.456947,-0.454761
0.343449,0.054095,-0.969088,-0.214454,-0.431117,0.876440
0.556525,-0.145995,-0.939124,0.088755,0.739331,0.667468
0.362435,-0.509264,-0.918927,0.235649,0.675899,-0.698305
0.182493,-0.021816,0.716589,0.286225,-0.934635,0.211029
-0.129043,0.264896,0.640392,0.363249,0.931628,0.010947
0.408298,0.162187,0.844569,0.235150,-0.421042,0.876030
-0.188736,-0.108237,-0.986906,-0.401149,0.208667,-0.891929
-0.332982,0.496524,0.732004,-0.337020,-0.180180,0.924096
-0.364793,0.216452,0.729279,0.374538,0.606913,0.700984
-0.888618,0.157862,0.847858,-0.271245,-0.939156,0.210743
-0.559109,-0.286774,-0.962411,0.786471,-0.292133,-0.544170
0.391570,-0.562731,-0.916059,0.990911,-0.094225,-0.096002
-0.289065,-0.849651,-0.962792,0.174198,0.907914,0.381245
-0.498523,0.228291,0.709012,0.944115,0.039096,-0.327289
0.008315,0.129746,0.866651,0.711634,0.296905,-0.636729
0.169571,0.288434,0.913889,-0.660662,-0.748805,-0.053068
-0.066612,-0.223889,-0.979544,-0.025569,-0.073877,0.996940
-0.343858,-0.784078,-0.949663,0.769484,-0.637786,0.033518
0.018706,0.176849,0.087306,0.987293,0.022543,-0.157306
0.423041,0.433882,0.506648,0.947896,0.317212,-0.029510
0.363639,-0.071289,-0.948631,0.732826,-0.273075,-0.623214
0.444004,-0.190968,-0.960980,0.759004,0.575810,0.303901
0.248555,-0.622869,-0.941459,-0.134818,0.841678,0.522880
0.170232,-0.271828,-0.527335,0.893163,0.444881,0.065887
-0.164504,0.178166,0.535471,-0.589559,0.702200,0.399169
-0.381069,0.264401,0.825246,0.868878,0.442752,0.221409
0.014739,0.082682,0.581089,-0.591611,0.606990,0.530622
0.807365,0.338814,0.828176,-0.383297,-0.054943,0.921990
-0.267651,0.687228,0.822873,0.483209,0.326963,-0.812160
0.605757,0.237250,0.852497,0.404297,-0.363200,0.839422
-0.131118,-0.421010,-0.966386,-0.242369,-0.250163,0.937377
-0.418796,0.861291,0.822032,0.516345,0.549799,-0.656588
-0.607095,-0.860110,-0.956484,0.042713,-0.051549,0.997757
0.850643,0.388272,0.845216,0.532873,-0.093673,0.840995
-0.120362,0.777463,0.832626,0.683080,-0.000136,-0.730344
0.244529,0.179218,0.647395,0.150028,0.684320,0.713581
0.017371,-0.660176,-0.945273,-0.418755,-0.086128,0.904006
-0.510709,0.095670,0.846618,-0.771028,-0.099298,-0.629011
-0.215020,0.754518,0.843660,0.604382,0.454940,0.654028
0.064687,-0.603280,-0.915029,0.118188,-0.751340,0.649245
0.176868,0.061447,-0.960980,-0.267320,-0.621234,0.736619
-0.354583,0.357530,0.837432,-0.270550,0.116913,0.955580
0.372056,-0.434979,-0.951431,0.881239,0.318604,-0.349155
-0.336398,0.142912,0.873717,0.586179,0.380781,-0.715123
-0.244683,0.149582,0.929501,0.909636,-0.236120,-0.341775
-0.088488,-0.097996,-0.450965,-0.623766,0.779822,-0.052853
0.344683,0.054299,-0.956872,-0.294705,-0.156246,0.942728
0.368980,-0.425693,-0.917713,0.827925,0.243879,-0.505037
-0.217967,-0.732208,-0.941896,-0.553291,-0.348565,0.756552
0.307872,-0.147448,-0.945673,0.822724,0.149065,-0.548549
-0.561395,-0.647142,-0.979507,0.474345,-0.156689,-0.866282
-0.257266,-0.730883,-0.957185,-0.505737,-0.796997,-0.330191
0.370078,-0.285020,-0.945427,0.886723,0.455865,0.076871
-0.399805,0.715574,0.815979,-0.400280,0.841844,0.362042
-0.223479,-0.873094,-0.947662,-0.209640,0.961458,-0.177904
-0.664479,0.552945,0.761074,0.694505,-0.659638,-0.287299
-0.503291,-0.448715,-0.977581,0.139292,0.188324,-0.972179
0.397214,-0.132710,-0.957769,0.895494,0.440841,-0.061233
-0.328305,0.182119,0.893312,0.717108,0.524392,0.459095
-0.386979,0.170357,0.868348,0.879435,0.438921,-0.184234
-0.332042,0.588120,0.770374,-0.052350,-0.628044,0.776415
-0.558829,-0.216779,-0.381823,0.978298,-0.174110,0.112333
0.671500,0.062130,0.716895,-0.648079,0.745751,0.154431
-0.554737,-0.754738,-0.949401,-0.471406,0.229336,0.851576
0.520175,0.259246,0.898641,0.898631,0.318535,-0.301660
-0.269651,0.149405,0.806225,-0.261039,-0.299171,0.917799
0.188791,0.187361,0.633772,-0.711379,0.698837,-0.074607
0.342906,-0.495105,-0.915196,0.621306,0.688131,-0.374773
0.392186,-0.214253,-0.957356,0.124115,-0.281740,0.951430
-0.470094,-0.907408,-0.948554,0.260706,0.926202,0.272363
0.472977,-0.386696,-0.930416,0.510438,0.271798,-0.815830
0.685574,0.162790,0.860460,0.184758,0.664046,0.724505
0.228275,-0.189119,-0.564767,0.852333,-0.514187,0.095608
0.182067,0.085754,0.364653,-0.003265,-0.732552,0.680703
-0.126799,0.002093,0.675274,0.876582,0.280153,-0.391303
0.047247,0.229901,0.624395,0.112559,-0.988175,0.104118
0.565397,0.166483,0.800912,0.614926,-0.580132,0.534147
-0.244365,-0.785015,-0.950191,-0.023267,-0.092983,0.995396
-0.218653,-0.660634,-0.955525,-0.135248,-0.724963,0.675379
-0.269279,0.786375,0.840304,0.295456,0.567809,0.768309
-0.284763,0.417995,0.744746,-0.474394,0.778234,0.411463
-0.524977,0.114757,0.696066,-0.042976,-0.406234,0.912758
-0.294451,0.255619,0.877625,0.925385,0.335154,0.177014
-0.705482,-0.667510,-0.957162,0.355588,0.449234,0.819601
0.632711,0.299615,0.823056,0.909159,0.332423,0.250848
-0.472969,-0.358864,-0.957967,-0.488268,0.434520,0.756827
-0.055850,-0.871360,-0.915261,0.577519,-0.616938,-0.534658
-0.513325,0.550600,0.732443,0.900092,0.297301,0.318508
-0.347438,-0.774258,-0.962372,-0.136572,0.247406,0.959239
0.010322,0.137369,0.636786,-0.535263,0.205251,0.819369
0.116427,-0.405847,-0.744225,-0.427410,-0.351643,-0.832867
-0.565230,0.217122,0.858644,0.040530,0.684718,0.727680
0.039420,-0.595983,-0.960326,0.156565,0.436580,0.885938
0.116447,-0.240979,-0.959262,-0.378247,-0.255641,0.889706
-0.501112,-0.419246,-0.970473,-0.502359,0.155217,-0.850613
-0.397708,0.118308,0.805613,-0.767361,0.634108,0.095204
-0.098256,0.190290,0.876154,-0.302255,0.949270,-0.086763
0.119115,-0.297898,-0.603223,0.495702,0.539526,0.680582
0.250797,-0.499164,-0.943772,0.792785,-0.363986,-0.488882
-0.142733,-0.702652,-0.958612,-0.075682,0.453220,0.888180
-0.723438,0.071443,0.895557,0.883268,-0.272115,0.381826
-0.146133,-0.156527,-0.974772,-0.399356,0.695955,0.596793
-0.731937,0.073374,0.593301,0.763555,-0.221388,0.606606
0.704126,0.140523,0.866422,0.860411,0.509564,0.006145
0.386356,-0.498583,-0.934135,0.377487,0.904428,0.198781
-0.485519,0.067381,0.564450,0.674563,0.620745,0.399550
0.438523,0.430230,0.383254,-0.250252,0.934961,-0.251440
0.657533,0.109615,0.844409,-0.751357,-0.535420,0.385730
-0.182731,0.797625,0.852971,0.359377,0.658606,-0.661125
-0.475134,0.821739,0.830255,0.836602,0.356485,0.415952
-0.937546,0.061252,0.935444,0.976088,0.216335,0.021242
0.102479,0.102721,0.735965,0.231358,0.189827,0.954169
0.183564,-0.703028,-0.896737,0.462398,-0.001187,-0.886671
0.500179,-0.350370,-0.944482,0.420562,0.408134,0.810280
0.593452,0.224295,0.753164,0.585503,-0.270339,-0.764266
0.156846,-0.712156,-0.945324,-0.250078,-0.360482,-0.898618
0.102775,-0.371525,-0.967691,-0.806820,0.213434,0.550897
0.051221,-0.575430,-0.954962,0.942608,0.256136,0.214208
0.212043,0.193497,0.643361,0.660182,-0.744639,0.098347
0.320567,-0.242964,-0.603705,0.850493,0.518244,-0.089917
-0.002392,-0.413157,-0.968455,0.060892,0.578526,0.813388
-0.544473,-0.828497,-0.973534,0.160031,0.745704,0.646774
0.263172,-0.507445,-0.935711,0.924154,0.056708,-0.377788
-0.033267,0.227047,0.824779,-0.074578,0.783031,0.617495
-0.262892,0.670854,0.836564,0.449597,0.623210,-0.639900
0.445954,-0.192270,-0.970791,-0.209410,-0.388845,0.897188
0.298625,0.200538,0.742538,0.971797,-0.223202,0.076102
-0.512305,0.123249,0.812454,0.631502,0.721227,-0.284669
-0.700264,0.067770,0.802245,0.814062,0.580048,0.029104
0.178052,-0.499815,-0.949905,-0.562203,0.754943,-0.337621
0.001568,0.033482,0.974712,-0.701901,-0.633146,-0.326285
-0.346935,-0.102250,0.872443,-0.145433,-0.203852,0.968139
0.014562,-0.230607,-0.296278,0.120944,0.868401,0.480887
-0.703528,0.326944,0.901552,-0.389155,0.005079,0.921158
0.913642,0.375682,0.845886,0.254643,0.183334,0.949497
0.256880,-0.030533,-0.961551,-0.441975,0.566946,-0.695148
-0.317137,0.434853,0.872869,0.237216,-0.788193,0.567874
0.600272,-0.315235,-0.921046,0.976106,-0.161728,-0.145124
0.111454,0.244731,0.878056,-0.520013,0.706272,0.480381
-0.055663,0.193480,0.518797,-0.073815,-0.993007,0.092134
0.376156,0.241553,0.727956,0.703158,-0.549964,0.450676
0.310016,0.218704,0.699383,0.107930,-0.631845,0.767543
-0.578827,-0.744920,-0.969126,-0.369908,-0.599463,-0.709797
0.115817,-0.704841,-0.935417,-0.174252,0.935308,-0.307954
0.222457,-0.043337,-0.967215,0.815563,0.137912,-0.561993
-0.260470,0.734160,0.845492,0.054717,0.727442,-0.683984
0.482601,-0.470328,-0.937895,0.672872,-0.599477,-0.433442
-0.312587,0.872035,0.834270,0.848040,-0.077299,0.524264
-0.472358,0.081921,0.542950,0.837472,0.538479,0.093174
0.598154,0.098491,0.698992,-0.435748,0.886042,0.158280
0.796937,0.196990,0.717908,-0.158466,0.249907,0.955215
0.526356,0.207951,0.806567,0.947725,0.240657,0.209525
0.032160,-0.743575,-0.927516,0.759204,-0.643630,0.096697
0.875667,0.282213,0.859159,0.488180,-0.872520,0.019741
-0.341836,-0.339670,-0.981190,-0.524542,0.275094,0.805717
-0.130266,-0.551772,-0.967186,-0.080493,0.810828,0.579723
0.098650,-0.848623,-0.914115,0.865282,-0.481226,0.140388
0.151816,-0.439225,-0.956644,-0.054903,0.651196,0.756921
0.461333,-0.334268,-0.951784,-0.543113,-0.360126,-0.758510
-0.514912,0.046932,0.865232,-0.423519,0.905881,0.003246
-0.110664,-0.788807,-0.940253,0.354195,-0.846298,-0.397901
0.175595,-0.365444,-0.735907,0.902528,0.343034,-0.260327
0.681572,0.250073,0.829226,-0.528964,0.496970,-0.687909
-0.066058,-0.353510,-0.977336,0.001077,0.621946,0.783059
0.505743,-0.274920,-0.952632,0.221717,0.438209,-0.871100
0.029052,-0.408096,-0.631693,0.176433,0.872014,0.456578
0.027727,-0.432351,-0.760247,0.989285,0.071202,0.127459
-0.088118,-0.432042,-0.975597,-0.458260,0.879773,-0.126483
0.371476,-0.380480,-0.941989,0.583904,0.580018,-0.568009
0.830693,0.246472,0.716066,-0.280360,-0.106089,0.954014
0.813858,0.284244,0.842328,-0.018520,0.557109,0.830233
-0.176075,0.395586,0.722946,0.449997,-0.751024,0.483184
-0.333389,0.566141,0.902493,-0.234687,0.334720,0.912625
-0.183723,0.300334,0.816396,0.222744,0.809423,-0.543342
-0.320861,0.376786,0.890978,0.862820,-0.249509,0.439644
-0.129831,0.765657,0.837383,0.119532,-0.020789,0.992613
0.182624,-0.463499,-0.927911,-0.676590,0.368626,-0.637448
-0.463465,0.466673,0.728320,0.675593,0.725008,-0.133934
0.294591,-0.385195,-0.673527,0.100567,-0.900783,0.422465
-0.154397,0.766965,0.834799,-0.377643,-0.059953,-0.924008
-0.098458,-0.267097,-0.568153,0.209323,-0.646483,0.733651
-0.598793,0.426056,0.873412,0.896157,0.217845,0.386583
-0.036092,-0.130682,-0.431800,0.235859,-0.948181,-0.212893
-0.120966,-0.286292,-0.584885,-0.084717,-0.984703,0.152261
0.216875,-0.194854,-0.948108,-0.441596,0.242668,-0.863774
0.067462,-0.434964,-0.957392,-0.391232,0.690907,0.607935
0.230685,-0.449747,-0.960980,0.383654,-0.605058,0.697649
0.281193,-0.648772,-0.953496,0.770109,0.257680,-0.583552
0.107914,0.541999,0.781944,0.216462,0.948066,-0.233056
0.021328,0.023774,0.808497,-0.800733,0.155857,-0.578391
-0.349568,0.591841,0.748414,0.437492,0.886104,0.153041
0.159907,0.257142,0.898207,-0.540843,0.809370,-0.228928
-0.079719,-0.849845,-0.907466,0.271263,0.941995,0.197643
-0.216021,0.473970,0.861920,0.573342,0.284586,0.768303
-0.274995,0.361676,0.913128,0.802212,-0.245828,-0.544082
-0.204013,0.057863,0.574154,-0.428713,0.849247,0.308196
-0.032706,-0.352157,-0.577582,0.191940,0.930033,-0.313366
0.421295,0.273849,-0.044209,0.559513,-0.025235,-0.828437
0.753475,0.197361,0.776735,-0.269163,-0.910582,0.313674
0.097853,-0.394947,-0.969632,0.712312,0.217812,-0.667210
0.599683,-0.232761,-0.950569,-0.323370,0.175071,-0.929937
-0.312505,-0.717669,-0.968257,-0.100446,0.121548,0.987490
-0.312317,-0.716326,-0.962241,0.512343,0.828700,0.225302
-0.430351,0.336095,0.893626,-0.586310,0.240540,0.773551
-0.063574,-0.149796,-0.257800,-0.752904,0.641192,0.148350
-0.456192,0.087216,0.556214,-0.630525,-0.748842,0.204143
0.428402,-0.520566,-0.946515,0.718286,0.634849,-0.284661
-0.377764,0.189018,0.710993,0.337342,0.920738,0.196066
-0.417363,0.056337,0.621427,-0.847777,0.413323,0.332323
-0.426137,0.009664,0.604597,0.926949,0.369733,0.063747
0.065177,-0.422175,-0.949511,0.780253,-0.145522,-0.608300
-0.094741,0.066453,0.958607,-0.389205,0.918480,0.070098
0.168613,-0.455889,-0.955366,0.511518,-0.675839,-0.530652
0.307934,-0.003711,-0.960984,-0.244923,0.057138,-0.967857
0.301510,0.174607,0.755078,-0.430941,-0.872077,-0.231887
0.188834,-0.110596,-0.960101,0.287022,-0.894854,0.341840
0.068059,0.002339,0.674446,0.807246,-0.585257,0.076333
0.018399,-0.333493,-0.965417,-0.193877,0.490761,0.849450
0.099854,-0.305324,-0.380690,0.973577,0.134436,0.184595
0.198272,-0.359252,-0.844514,0.912849,-0.315373,-0.259319
-0.280765,-0.554631,-0.961078,-0.351419,-0.386923,-0.852523
0.559119,0.237386,0.844337,0.247095,-0.968347,-0.035335
0.600950,0.255839,0.740561,-0.412983,-0.425019,0.805484
0.026865,-0.320723,-0.964347,0.378227,0.536310,0.754530
-0.476849,0.113846,0.571493,-0.266692,-0.850024,0.454241
-0.229985,-0.698022,-0.957636,0.150371,-0.344919,0.926509
0.514176,-0.137767,-0.959801,0.013963,0.781494,0.623756
-0.241668,0.313088,0.862753,-0.071626,-0.228012,0.971020
-0.469144,-0.923987,-0.962839,0.905184,-0.233925,0.354854
0.562475,-0.431278,-0.924221,0.800170,0.458456,0.386712
0.892760,0.282927,0.805796,0.948797,0.001183,-0.315884
0.019372,-0.258439,-0.413225,0.134622,-0.155226,-0.978663
0.719203,0.254841,0.720951,0.891431,0.290061,0.348161
-0.488056,-0.461416,-0.978965,0.236774,0.032155,0.971033
0.231876,-0.151925,-0.971104,0.233112,0.154722,-0.960063
0.188755,-0.050384,-0.949631,-0.187090,0.327904,0.926000
0.501866,-0.321707,-0.950403,0.279522,0.342202,-0.897087
0.433899,-0.180492,-0.966874,0.524928,0.837029,0.154380
0.251057,0.401649,0.348153,0.413307,0.023558,-0.910287
0.195860,0.540265,0.543100,0.616204,0.568215,0.545367
0.965799,0.280882,0.773928,0.882214,-0.242764,0.403441
0.010785,-0.696902,-0.949561,0.706700,0.106211,-0.699496
0.213199,0.146440,0.599231,0.461545,0.231655,-0.856337
-0.007624,0.166992,0.516231,0.840064,0.531750,0.107397
0.500798,-0.367943,-0.930647,0.264934,0.407531,-0.873916
0.034309,-0.084796,-0.967918,0.473071,-0.451167,-0.756738
-0.454800,0.177180,0.737714,-0.645780,0.698906,0.307405
-0.419826,0.681919,0.760961,-0.494433,0.869083,-0.015184
0.116232,-0.071292,-0.949652,0.460881,-0.328664,-0.824359
-0.057395,-0.775706,-0.937474,-0.731218,0.646638,0.217210
-0.288838,-0.247326,-0.968976,0.566181,0.790050,0.235074
-0.297221,-0.880768,-0.943486,0.641091,0.280323,-0.714438
-0.582393,0.194905,0.859940,0.046153,0.889821,0.453969
0.330211,-0.508057,-0.938789,-0.456777,0.134977,0.879282
0.328028,-0.400853,-0.939298,-0.074072,0.427262,0.901089
0.554312,0.141182,0.774928,-0.082720,-0.353692,0.931697
-0.032278,-0.822999,-0.920783,0.873326,-0.386059,-0.297087
0.068673,-0.512203,-0.954834,0.082588,0.304900,0.948797
-0.467458,0.339563,0.835047,0.442404,0.538493,-0.717150
-0.137858,0.705109,0.837032,0.892885,-0.449823,-0.020380
0.290368,-0.530705,-0.954137,-0.287240,-0.659439,0.694718
-0.034923,-0.077913,-0.982061,0.819801,0.227986,0.525308
-0.136635,-0.667578,-0.948505,0.840420,0.283083,-0.462123
0.696046,0.267393,0.869403,0.014685,-0.701626,0.712394
0.187318,-0.331711,-0.971160,-0.601617,-0.185341,0.776985
-0.568770,-0.854768,-0.969940,-0.052441,0.371300,0.927031
0.255835,-0.649382,-0.953454,0.551245,0.411049,-0.726063
-0.580791,0.067364,0.854459,-0.033923,0.857631,0.513146
0.183659,-0.586364,-0.936631,-0.379146,-0.732615,0.565264
-0.491093,-0.007588,0.781020,0.613231,0.184570,0.768038
-0.219280,0.730064,0.837077,-0.045013,-0.853902,0.518484
0.499779,-0.427465,-0.942565,0.962802,-0.248280,0.106623
-0.204482,0.334761,0.689831,0.987283,0.138487,-0.078058
0.161568,-0.011308,-0.967836,0.104977,0.268323,0.957592
-0.234646,0.809498,0.840327,0.267951,0.850074,0.453405
-0.161803,-0.122472,-0.371625,0.772027,0.456790,0.441946
0.023517,0.174917,0.509263,0.892233,0.436358,0.116237
-0.394200,0.623397,0.833033,0.881338,0.298755,0.366045
0.342235,0.051778,0.701271,0.995194,0.034045,0.091809
-0.312278,0.290280,0.616764,-0.579454,-0.808801,0.100369
0.208951,0.128879,0.274130,0.925958,0.315962,-0.206808
0.306068,-0.439606,-0.924985,0.824106,0.369689,-0.429160
0.314513,-0.366452,-0.677093,0.237609,-0.933715,0.267803
-0.428121,0.789030,0.817381,0.586422,0.640455,0.495910
-0.384442,-0.670711,-0.953438,-0.666471,-0.111533,-0.737141
-0.381670,-0.439624,-0.972231,0.296063,-0.368950,0.881035
-0.840365,0.041647,0.893033,-0.648326,0.736605,-0.192579
-0.345699,0.250772,0.804832,0.994159,-0.077983,-0.074605
0.031283,-0.808101,-0.921046,-0.405656,0.913371,-0.034601
0.341744,0.189870,0.670389,0.344379,-0.873627,0.343772
-0.276942,0.674944,0.807750,0.056799,0.855475,0.514719
0.137422,-0.805320,-0.925174,0.488620,-0.194918,-0.850445
0.151261,-0.446679,-0.959887,-0.011191,0.356348,0.934286
-0.299063,-0.620895,-0.948600,0.610074,0.138739,-0.780104
0.125454,0.066600,0.208658,-0.536461,0.843742,0.017571
-0.111496,-0.836086,-0.937068,0.807417,0.511583,-0.293872
0.131696,-0.393191,-0.969891,0.065996,-0.525365,0.848313
0.050970,0.102816,0.582045,0.736103,-0.452635,-0.503263
-0.357299,0.052201,0.541998,0.593621,0.368034,0.715658
-0.908668,0.040996,0.953608,0.976088,0.216335,0.021242
-0.306537,0.269067,0.676742,0.980697,-0.008573,0.195347
-0.070372,0.110071,0.348581,-0.490655,0.778340,-0.391721
0.261393,-0.510410,-0.944696,-0.598032,-0.227600,-0.768477
-0.310933,0.221194,0.810097,0.506489,-0.456205,0.731673
-0.383800,-0.413576,-0.971075,0.788017,-0.151690,-0.596673
-0.302549,0.599400,0.788725,-0.062589,-0.680642,0.729937
0.099363,0.084758,0.802737,0.503064,-0.819563,-0.274305
0.106993,-0.370185,-0.968034,-0.806820,0.213434,0.550897
-0.184460,0.100717,0.457902,0.214077,-0.974817,-0.062477
-0.011606,-0.739716,-0.932680,0.068963,0.597642,0.798792
-0.294170,0.275536,0.862819,0.868691,0.492905,0.049201
-0.066639,0.127484,0.931617,0.946528,-0.023585,-0.321758
-0.141683,0.595809,0.786323,0.839458,0.288015,-0.460823
0.425896,-0.370154,-0.963161,0.077656,0.780001,0.620941
0.266843,-0.317526,-0.644611,-0.208219,-0.021460,0.977847
-0.262795,0.817129,0.818893,0.806414,0.523303,-0.275410
0.258575,-0.349484,-0.817849,-0.378102,-0.710193,-0.593855
-0.516290,0.308843,0.831439,0.893067,-0.288087,0.345596
0.376671,0.068137,-0.949611,0.941446,-0.175044,0.288166
0.491025,-0.329736,-0.957949,-0.064203,0.329889,0.941834
-0.403206,0.394642,0.873763,-0.713353,-0.436974,-0.547888
-0.108550,0.751383,0.837908,-0.524478,-0.106645,0.844719
0.163854,-0.415783,-0.868261,0.933519,0.348557,0.083968
0.210709,-0.506859,-0.945372,0.185443,-0.151537,-0.970900
-0.275633,-0.666710,-0.956922,0.348712,0.416396,-0.839651
-0.386691,0.735681,0.808794,-0.755580,0.647197,0.101170
0.063231,0.018029,0.128684,-0.543804,0.624453,0.560656
0.489585,-0.286718,-0.934906,0.790817,-0.490245,-0.366427
0.141247,-0.528883,-0.948000,0.075903,0.990757,0.112421
-0.083756,-0.294728,-0.972321,0.957139,0.108752,-0.268435
0.280032,0.044949,-0.967314,-0.708451,-0.210836,0.673532
-0.023187,-0.795480,-0.919924,-0.048959,0.993725,0.100569
0.015457,-0.812615,-0.921571,-0.251231,0.738664,-0.625506
-0.323657,-0.824143,-0.911283,-0.404199,0.706344,0.581121
0.233101,-0.018427,-0.951829,-0.179397,0.503673,0.845062
-0.254302,0.582205,0.782189,0.855415,0.515916,0.045787
-0.372953,0.419145,0.892620,-0.715077,0.066092,0.695914
0.342832,-0.178308,-0.958274,0.738134,-0.664763,-0.115098
-0.724244,0.128340,0.842353,0.553489,0.831399,0.049243
-0.703416,-0.002879,0.870740,-0.189909,0.657789,0.728868
-0.027064,-0.023776,-0.989214,0.514342,-0.069107,0.854796
0.744431,0.279891,0.827835,0.322579,-0.909751,0.261333
-0.294613,0.008867,0.695671,-0.649472,0.504635,0.568798
0.060005,-0.010608,0.215783,-0.619685,0.784380,-0.027158
-0.081279,0.362926,0.852069,0.895305,0.413436,-0.165832
-0.367360,0.771131,0.862729,-0.332886,0.263617,0.905369
-0.253625,-0.620813,-0.961030,0.393018,-0.175282,-0.902670
-0.285444,-0.123236,0.871324,-0.606507,0.602119,0.519232
0.518498,0.181068,0.714647,0.018462,-0.740127,0.672213
0.332394,-0.563097,-0.953976,0.847371,-0.340396,-0.407544
-0.280612,0.326169,0.917098,0.040238,0.479376,0.876687
-0.287806,0.049545,0.624218,0.959930,0.238816,0.146633
0.075486,-0.797387,-0.929242,0.176353,-0.316746,-0.931972
-0.394151,0.212738,0.848431,0.351234,0.405777,0.843789
-0.535706,0.322295,0.848253,-0.744987,-0.254210,0.616742
-0.167740,0.686005,0.818910,0.931319,-0.241182,-0.272904
0.963604,0.303276,0.829503,0.984066,-0.071702,-0.162707
-0.122913,-0.149642,-0.983355,0.908907,0.145951,-0.390623
-0.495434,0.120458,0.824165,-0.174297,-0.402492,0.898677
-0.369632,0.194219,0.700015,-0.538243,0.562625,-0.627493
-0.192430,-0.865818,-0.912196,-0.461971,0.436130,0.772252
0.461673,-0.186799,-0.968148,0.290800,-0.031417,0.956268
-0.265486,-0.029055,0.704157,-0.149800,0.945130,0.290326
0.664415,0.143542,0.729606,0.859496,-0.491897,0.138939
-0.533708,-0.271417,-0.979169,-0.648361,0.760544,0.034661
-0.145182,-0.858872,-0.924824,-0.691034,0.384641,0.611983
0.484055,0.124340,0.669641,-0.505471,0.695121,0.511180
0.095178,-0.576920,-0.952823,0.141825,-0.972238,-0.186114
0.945786,0.348169,0.773395,0.709338,-0.526791,0.468328
0.031671,-0.691049,-0.949829,-0.266150,-0.411058,0.871892
0.277961,-0.510692,-0.943604,0.157979,0.156366,-0.974983
-0.434359,-0.359726,-0.970740,-0.195493,0.646452,-0.737484
-0.327869,0.411862,0.920984,0.918843,-0.343939,0.193476
0.216275,-0.231144,-0.936142,-0.240326,0.122168,0.962974
0.112140,0.019183,-0.963092,-0.159465,0.015624,0.987080
-0.005082,-0.213698,-0.543590,0.019996,0.802463,0.596366
0.050628,-0.811918,-0.905570,-0.206072,-0.450050,0.868901
-0.535438,-0.752977,-0.975056,0.140605,0.304426,0.942101
0.303004,-0.561736,-0.935900,0.990774,-0.134766,0.014326
-0.124402,-0.524897,-0.954177,-0.156840,0.093379,0.983200
-0.092765,-0.771428,-0.913294,0.879230,0.391089,-0.272036
0.329303,-0.597036,-0.934032,-0.766447,0.029631,0.641624
-0.132505,-0.292799,-0.590033,-0.060016,0.981780,-0.180296
-0.509673,0.524156,0.903929,0.854225,-0.211698,0.474852
0.500039,-0.492595,-0.919539,-0.791797,0.609176,0.044282
-0.420708,0.502749,0.868335,-0.457958,0.790027,-0.407593
0.351001,0.030716,0.626220,-0.123978,0.455618,-0.881500
0.071229,-0.107647,-0.966460,0.181337,-0.025467,0.983091
0.156140,-0.433573,-0.943037,-0.278930,-0.025896,0.959962
-0.177716,0.022549,0.870275,0.977513,0.083527,-0.193625
0.413477,-0.479207,-0.916588,-0.588503,-0.272924,-0.761036
-0.388103,0.270744,0.694360,-0.784588,0.600739,-0.153409
-0.064220,-0.780162,-0.928689,0.830898,-0.504101,-0.235565
0.025000,0.279049,0.308952,-0.272511,0.823427,-0.497700
0.461116,-0.109112,-0.951737,0.526378,0.244523,-0.814331
-0.142851,-0.503142,-0.967816,0.779207,-0.616622,-0.112307
-0.754686,0.083172,0.867190,0.991979,-0.093911,-0.084611
-0.183234,-0.640913,-0.952678,0.541928,0.277560,0.793268
0.239004,-0.523320,-0.937532,-0.187239,-0.912257,-0.364319
-0.037638,0.093137,0.964826,0.784093,0.593806,0.180536
0.040866,-0.318756,-0.603193,-0.617906,0.589034,-0.520798
-0.168970,-0.133793,-0.422267,0.080276,-0.991075,-0.106427
-0.309056,0.157706,0.757231,0.615975,0.711042,-0.339107
-0.357462,0.061250,0.606480,0.105880,-0.985057,0.135835
0.125087,0.138020,0.589215,-0.257445,-0.771584,0.581705
0.348805,0.030983,-0.963675,0.331623,-0.421722,0.843906
-0.165621,-0.707343,-0.947717,0.065000,0.802791,0.592707
0.384664,-0.153086,-0.953455,-0.731533,-0.573145,0.369275
-0.357591,0.306759,0.839025,-0.620999,-0.206624,-0.756087
0.476514,0.302869,0.827272,0.812726,0.472062,-0.341518
-0.047347,0.190049,0.540738,0.829694,-0.507605,-0.232259
-0.085148,-0.702045,-0.953076,0.411141,-0.840856,-0.352029
0.240248,-0.567027,-0.903218,-0.092472,-0.693702,0.714301
-0.559596,0.291221,0.908212,0.148154,0.112224,-0.982576
-0.179079,0.406832,0.851473,-0.383999,-0.593120,-0.707640
0.198673,-0.205668,-0.399965,0.560129,0.549082,0.620294
-0.126913,0.224891,0.608021,0.424654,0.876583,-0.226431
0.344113,-0.079996,-0.941427,0.281219,0.504224,-0.816501
-0.359495,0.348964,0.861722,-0.656418,0.711056,0.252021
0.120049,-0.290318,-0.952144,-0.321444,0.417943,0.849705
-0.204937,-0.001848,0.931006,0.857400,-0.396471,0.328140
-0.184369,0.070060,0.991834,0.896206,-0.308717,-0.318606
-0.446494,0.072046,0.802396,0.723629,-0.491908,-0.484136
-0.407580,0.204393,0.771628,-0.657811,-0.577571,0.483422
-0.470915,0.440456,0.859040,0.476732,0.847185,0.234528
-0.448225,-0.488835,-0.978403,-0.255034,0.454915,0.853235
-0.001459,0.274382,0.579319,0.154140,0.328926,0.931691
0.036294,-0.261694,-0.428712,-0.162785,0.372997,0.913441
0.355262,-0.260949,-0.969783,0.211202,0.151458,-0.965637
-0.159385,-0.567757,-0.952969,-0.143716,0.909006,0.391220
-0.050499,-0.438953,-0.972739,0.385486,-0.494229,-0.779191
0.729777,0.231735,0.700232,0.948190,-0.317704,-0.000016
0.024329,-0.038125,-0.960946,0.730754,0.291484,0.617280
-0.583144,-0.870211,-0.943106,-0.446614,0.372959,0.813288
-0.283509,0.187876,0.773195,0.976330,0.185202,0.111713
-0.098646,-0.398607,-0.963998,0.849877,-0.461969,-0.253561
0.261230,-0.674585,-0.939938,0.744504,-0.567568,-0.351540
-0.247246,0.108522,0.521664,-0.519802,-0.055358,0.852491
-0.100429,0.689508,0.824362,0.262727,-0.693117,-0.671240
-0.564491,0.267631,0.795418,0.834199,-0.368924,0.409887
0.131678,-0.238171,-0.549099,-0.308457,0.900565,0.306329
0.092587,-0.380932,-0.966025,0.890398,-0.446953,0.086167
-0.575944,0.378511,0.887540,0.429441,-0.889861,0.154041
-0.630416,0.107878,0.879897,-0.427215,-0.435228,0.792505
-0.229910,0.099900,0.950293,0.940261,-0.321976,-0.110640
-0.369510,-0.318987,-0.971568,-0.350204,-0.801668,0.484443
0.664159,0.197734,0.666682,0.159425,-0.980583,-0.114200
0.297772,-0.210103,-0.952995,0.133386,0.988571,-0.070253
0.375756,-0.597185,-0.913095,-0.506745,0.495127,0.705733
0.286235,0.120162,0.853882,-0.243759,0.643625,-0.725485
-0.315150,-0.833642,-0.934068,-0.571164,0.309823,0.760120
0.083695,0.082077,0.101013,0.927200,0.308467,-0.212481
0.007207,-0.449480,-0.962863,0.590542,-0.711758,-0.380341
-0.256472,0.099576,0.905539,0.146563,0.813504,0.562788
-0.562480,-0.531979,-0.982196,0.193028,0.403375,0.894443
-0.362889,0.138375,0.820045,0.641610,0.155189,0.751168
-0.403519,0.295410,0.838836,0.893089,-0.218949,0.393006
-0.448319,-0.928163,-0.963385,0.984876,-0.114350,0.130163
0.130558,-0.117974,-0.474452,-0.566249,-0.823327,-0.038666
-0.466153,0.537144,0.774448,-0.026944,0.192313,0.980964
-0.215238,-0.660578,-0.961688,0.008421,0.208511,0.977984
-0.291632,0.117324,0.823813,-0.549855,-0.143456,0.822849
0.327448,-0.339715,-0.952327,-0.482814,-0.707583,-0.515963
-0.341354,0.763487,0.810674,0.801021,-0.121788,-0.586117
-0.229890,-0.600874,-0.956007,-0.590629,-0.576354,0.564778
0.191349,0.192765,0.785503,-0.714943,-0.286450,-0.637812
-0.256119,0.748526,0.827641,-0.075339,0.553145,0.829671
-0.034736,0.042973,0.748964,0.521710,0.463791,-0.716042
-0.402745,0.328127,0.898794,-0.457872,0.811769,0.362469
-0.051238,0.181378,0.512661,-0.303803,-0.952009,0.037193
-0.805791,0.061719,0.848740,-0.524942,0.740161,0.420235
0.503718,0.173436,0.850724,-0.000585,-0.716139,0.697958
-0.429467,0.897831,0.825969,0.253242,-0.015278,0.967282
0.130208,0.085366,0.613975,0.020632,0.533639,0.845461
-0.276875,0.683892,0.828571,-0.423228,0.748427,0.510623
-0.301890,0.408707,0.855060,-0.032041,0.961218,0.273922
0.287782,-0.025809,-0.956792,-0.613809,-0.768539,0.180515
-0.527093,0.113475,0.777144,-0.757163,0.444938,0.478262
-0.297732,0.111722,0.808319,-0.711194,-0.198950,0.674256
0.550121,0.143465,0.711761,-0.111151,-0.418630,0.901329
-0.481945,-0.637151,-0.972690,0.686004,0.665347,0.294469
-0.743558,-0.577415,-0.974584,0.305343,-0.151169,-0.940167
-0.414334,-0.191634,-0.969957,-0.516940,0.819260,0.248165
-0.328940,0.783784,0.800679,0.803659,0.100552,0.586533
-0.104271,-0.284152,-0.980283,0.574673,0.558808,0.597900
0.065963,-0.142818,-0.962745,-0.404112,-0.073258,-0.911771
0.151460,-0.121080,-0.966152,-0.225836,0.165153,0.960064
-0.746926,0.464743,0.761206,-0.455065,0.850443,0.263935
-0.308717,0.676500,0.819823,0.813176,-0.568214,0.126007
0.408096,0.004187,-0.939961,-0.722785,0.305626,0.619818
0.874894,0.197368,0.831660,0.820959,-0.153173,0.550058
-0.093734,-0.084522,-0.219701,0.877009,0.434922,-0.204201
-0.319696,0.322035,0.824942,0.452086,0.888222,0.081733
-0.334559,0.381673,0.889194,0.889992,-0.316507,0.328233
0.629736,0.248958,0.867111,-0.204067,0.682888,-0.701441
0.573688,-0.194467,-0.946535,-0.171025,-0.220609,0.960251
0.008320,-0.833486,-0.909320,-0.463645,0.344602,0.816262
0.439739,-0.083813,-0.960370,-0.453199,0.866172,-0.210610
-0.450387,-0.102537,0.871103,0.037029,0.218789,-0.975069
-0.501661,-0.647108,-0.969052,0.275515,0.330679,0.902631
-0.344216,0.109495,0.910108,0.028108,0.935497,0.352216
0.438086,0.451562,0.530595,-0.551102,-0.471673,-0.688339
-0.768776,0.137991,0.871061,0.438555,0.872619,-0.214954
0.005635,0.033267,0.737811,0.872234,-0.489061,-0.005225
-0.183072,0.283074,0.619247,0.530944,0.832730,-0.157034
0.341437,0.192768,0.644756,-0.149985,0.667218,0.729606
0.111235,0.099807,0.598312,0.620687,-0.415276,-0.665052
-0.183531,0.670416,0.801729,0.458795,0.775462,-0.433781
-0.298869,-0.609164,-0.942436,-0.128662,0.205145,0.970238
-0.116678,-0.634649,-0.958012,-0.079117,0.263953,0.961285
0.364118,-0.483282,-0.931758,-0.191749,-0.928616,0.317654
-0.274240,0.321709,0.838418,-0.398254,0.297321,0.867753
-0.419591,0.274034,0.817885,-0.235280,-0.412566,0.880019
-0.669283,0.125636,0.878020,0.813015,0.574585,-0.094118
0.078232,-0.427212,-0.834488,-0.651856,0.292159,-0.699805
0.631118,0.152091,0.857586,0.812016,0.569543,-0.127475
0.382107,0.093839,-0.952115,-0.058986,-0.918668,0.390603
0.108226,-0.372226,-0.638753,-0.408557,-0.705922,-0.578581
0.020390,-0.307934,-0.748976,0.969807,0.239154,-0.047739
-0.263813,-0.817505,-0.964479,-0.478847,0.175610,0.860155
-0.238501,0.387419,0.901588,-0.361966,0.817663,0.447670
-0.897032,0.065315,0.899528,0.743083,-0.629339,0.227509
0.095253,-0.451795,-0.735446,-0.249720,-0.937642,0.241801
-0.321531,0.376374,0.882940,0.507780,0.813790,-0.282675
0.157681,-0.435578,-0.850823,0.909358,-0.408441,0.079022
-0.265545,0.627059,0.869166,0.749996,-0.661421,0.005278
0.518346,0.154523,0.632134,0.488126,0.177458,0.854542
0.154689,0.008877,-0.963822,-0.197738,-0.657755,0.726814
0.568806,0.106435,0.758538,-0.088205,-0.982266,-0.165452
0.263374,-0.000571,-0.964866,-0.739652,-0.591713,-0.320609
0.551912,0.168981,0.806457,0.868029,-0.493583,0.053865
0.138597,0.287491,0.308021,-0.265089,0.878724,-0.396954
-0.150276,0.031648,0.969387,-0.250417,-0.964313,0.085970
0.254624,0.186981,0.296594,0.646134,-0.343696,0.681457
0.183256,-0.398642,-0.727792,-0.742358,0.210702,0.636010
0.023657,-0.772776,-0.933412,0.556116,0.042254,-0.830030
-0.418515,0.325227,0.911969,-0.319064,0.296055,0.900305
0.161526,0.067969,0.843566,-0.639379,0.373516,-0.672072
0.439151,-0.201788,-0.949293,0.345582,0.867755,0.357175
-0.584411,-0.528125,-0.964312,0.074105,0.299663,-0.951163
0.383418,0.157329,0.653897,0.825392,-0.243170,0.509506
0.421663,-0.369715,-0.933427,0.639246,0.379028,-0.669106
-0.065679,0.052155,0.351891,0.394498,-0.892351,0.219274
-0.180276,0.096611,0.899846,-0.221833,-0.916872,0.331868
0.180820,-0.663324,-0.948748,0.115207,-0.721988,-0.682247
-0.093807,0.063149,0.975237,0.931381,0.327791,-0.158378
-0.455092,-0.403020,-0.976322,-0.055697,0.093685,0.994043
0.310519,-0.393703,-0.943000,-0.585353,0.434443,-0.684559
0.782973,0.328237,0.839443,0.882318,-0.381270,-0.275949
0.713480,0.139966,0.843696,0.758027,0.059284,0.649523
0.302275,0.034820,-0.958353,0.314337,-0.694140,0.647581
0.173887,-0.187632,-0.956801,0.905921,-0.028836,-0.422464
0.187457,0.155111,0.619806,0.635619,0.707440,0.309057
-0.238669,-0.873230,-0.915349,0.498943,-0.652765,-0.570048
0.149867,0.226037,0.659037,-0.643292,-0.257744,0.720932
0.297761,0.042406,-0.961616,-0.379329,0.773950,-0.507061
-0.007883,0.758219,0.829596,-0.436094,-0.599740,0.670920
0.225418,-0.697890,-0.920457,0.234989,-0.881770,-0.408976
-0.287206,-0.724468,-0.966718,-0.459129,0.261246,0.849088
0.602205,0.096765,0.631177,-0.092154,-0.677554,0.729677
-0.135936,-0.415900,-0.968392,0.125603,-0.641059,0.757144
0.502799,0.235265,0.762838,0.111909,-0.037607,0.993007
-0.066854,0.134156,0.560461,0.016172,0.999148,0.037975
-0.199119,-0.257762,-0.967923,0.060684,0.620459,0.781887
-0.196337,0.140512,0.962987,0.975767,-0.071920,-0.206656
-0.117262,-0.167276,-0.301574,0.990928,-0.131529,0.027599
0.005443,-0.172711,-0.252848,0.020469,-0.739184,0.673193
-0.013921,0.189833,0.914132,-0.462586,0.862515,0.205137
-0.334667,0.142202,0.875550,0.767189,0.609330,-0.200345
-0.554504,0.320392,0.903942,0.530158,0.665887,0.524906
-0.569611,0.071387,0.747571,0.901469,0.396221,-0.174251
0.131954,-0.805648,-0.928710,-0.406483,0.178103,0.896131
-0.341005,-0.544387,-0.952202,0.962980,-0.115277,-0.243680
0.078109,-0.412648,-0.964548,0.781816,-0.623278,-0.016984
-0.300982,-0.826188,-0.949732,0.863230,-0.113832,-0.491808
0.129474,-0.491374,-0.950181,0.841194,0.079241,-0.534896
0.239562,-0.183938,-0.471622,0.825803,0.563591,0.020371
-0.251540,0.253747,0.647020,-0.478264,-0.878029,0.018113
0.424967,-0.148880,-0.948781,0.590693,0.502423,0.631389
-0.114702,0.030952,0.939496,0.871218,-0.307347,0.382775
-0.824619,0.043069,0.854239,-0.337037,0.842992,0.419251
-0.298442,0.686963,0.809898,0.970932,-0.143366,0.191672
-0.224028,0.467023,0.720841,0.728470,-0.050892,0.683185
-0.040632,-0.520560,-0.964351,0.700372,0.485535,-0.523197
0.084281,-0.248141,-0.405011,0.821976,-0.176438,-0.541503
-0.393737,0.289859,0.828834,0.763854,0.586589,-0.269148
-0.166939,0.164834,0.547591,0.053194,-0.995030,0.084173
-0.266861,0.887276,0.830951,0.596500,-0.606229,0.525998
-0.179651,0.061961,0.971272,0.760257,0.649525,-0.011225
-0.424065,0.143027,0.588190,-0.613535,-0.099845,0.783330
-0.658612,-0.758072,-0.975554,-0.417977,0.402399,0.814475
-0.275624,0.046837,0.979968,-0.510024,0.844730,0.162194
0.235545,0.081099,0.793901,-0.411375,-0.687802,-0.598079
-0.315074,0.292801,0.900542,0.807450,0.579539,-0.110267
-0.108124,0.013116,0.922714,-0.763087,0.454363,-0.459623
0.513274,0.116925,-0.070186,-0.025666,0.078212,0.996606
-0.208065,0.205714,0.596188,-0.423375,-0.904611,-0.049315
0.136066,-0.319461,-0.977730,-0.580225,-0.159367,0.798712
0.306120,-0.547105,-0.913916,0.687391,0.350284,0.636235
-0.249650,0.060553,0.682542,0.083857,-0.995803,-0.036663
-0.488697,-0.815985,-0.954110,-0.695432,0.685728,-0.214826
0.701585,0.146520,0.739930,-0.732579,0.532669,-0.423783
0.067356,0.074058,-0.948761,0.340397,-0.243626,-0.908172
-0.355495,-0.793335,-0.937047,-0.612085,0.293071,0.734480
-0.343048,-0.641245,-0.948255,0.388879,0.745488,-0.541314
0.459927,0.163893,0.824630,0.890248,-0.203611,0.407432
-0.526006,-0.899308,-0.945860,0.176179,0.067031,0.982073
0.258796,-0.357864,-0.959932,-0.728611,0.427210,-0.535367
-0.036859,-0.507670,-0.965348,-0.829110,0.493483,0.262776
-0.361405,-0.639795,-0.963862,-0.122851,0.929178,0.348619
0.071404,-0.069544,-0.973051,0.557211,0.662335,0.500827
-0.330366,0.271076,0.906576,-0.566407,-0.379888,0.731347
-0.501772,-0.710748,-0.967487,-0.235076,0.723522,0.649042
0.149154,-0.441270,-0.686489,0.272772,-0.914923,0.297508
0.338314,-0.323400,-0.633156,0.943535,0.326217,-0.057651
0.188872,-0.426992,-0.968453,0.521514,0.096405,0.847779
0.407992,-0.145126,-0.954927,0.824088,0.494929,0.275545
0.401443,0.071772,0.687069,0.656007,-0.280982,0.700503
-0.546151,-0.659756,-0.962384,0.142399,-0.672920,0.725880
-0.348842,0.045973,0.625304,0.975752,0.184789,-0.117305
0.073888,0.082254,0.614796,0.693728,0.660048,0.288233
-0.015562,-0.120376,-0.464738,-0.338911,0.712057,-0.614909
-0.070357,0.171582,0.895812,0.827368,-0.514522,0.225231
-0.085968,-0.142811,-0.972493,0.570438,-0.438379,-0.694568
-0.555042,-0.619712,-0.951572,-0.212922,-0.478720,0.851758
-0.148101,0.166661,0.517577,-0.790243,0.343693,-0.507337
-0.514325,0.112786,0.768965,0.794227,-0.495779,-0.351293
-0.502031,-0.855217,-0.963478,-0.799685,-0.496157,-0.338130
0.136303,-0.510220,-0.955471,-0.327024,-0.105720,0.939084
0.195084,-0.463998,-0.966149,0.442409,-0.004575,0.896802
-0.004347,-0.370470,-0.616868,0.437993,0.871702,-0.219768
0.013331,0.138893,0.564256,0.796855,-0.315661,-0.515152
-0.324337,0.204837,0.711210,0.927546,-0.373503,-0.012371
0.184707,-0.178458,-0.969750,0.362738,0.528617,0.767454
0.131967,-0.280315,-0.961224,0.458438,0.104014,-0.882619
0.128080,-0.312104,-0.967126,0.042162,-0.672059,0.739296
-0.004067,-0.229743,-0.981897,-0.076401,0.046646,0.995985
-0.442621,-0.641094,-0.961425,0.096033,-0.976644,0.192207
0.554634,-0.449983,-0.931286,0.776600,-0.201009,-0.597066
0.326775,0.165019,0.735056,0.684109,0.435851,-0.584832
0.360773,-0.571621,-0.905075,0.618407,0.367941,0.694401
0.315305,0.015559,0.667396,-0.082792,0.805641,0.586590
-0.352437,0.049561,0.657596,-0.204100,0.964177,0.169428
0.400673,0.148331,0.707136,-0.774731,0.094499,0.625189
-0.529454,-0.579433,-0.971846,0.648290,0.089005,-0.756174
-0.270404,0.363523,0.885149,0.742168,-0.407349,0.532216
0.368600,-0.111374,-0.942545,0.510833,0.219153,-0.831277
-0.401766,0.537262,0.874465,0.141727,0.190315,0.971439
0.402107,-0.149713,-0.964525,-0.774800,0.623379,-0.105280
0.537039,-0.214079,-0.945587,0.743103,0.568972,-0.352234
0.166624,-0.499678,-0.942773,0.915908,0.059370,-0.396972
0.331317,-0.085400,-0.977132,0.422626,0.147958,0.894145
0.175871,-0.207378,-0.966309,0.888208,0.429289,0.163699
0.324789,-0.165846,-0.952188,0.871027,0.442280,-0.213777
-0.619793,-0.911781,-0.950011,-0.582634,0.068273,0.809862
-0.393857,-0.491361,-0.949948,-0.399351,0.352038,0.846515
0.272874,-0.646572,-0.919873,0.204805,-0.815688,0.541024
-0.173618,-0.615527,-0.961229,0.191433,0.979852,-0.056959
0.062189,0.200148,0.605675,0.241586,0.687814,-0.684505
0.167082,0.117987,-0.958727,0.843352,-0.526227,-0.108825
0.083563,0.009602,-0.971379,-0.251088,0.391745,-0.885150
-0.378630,0.248994,0.717124,-0.391980,0.857240,0.333903
-0.371312,0.276864,0.812359,0.873857,0.373133,0.311681
0.780086,0.273882,0.838657,-0.585344,0.705044,0.400356
0.458570,0.261250,0.762395,0.011052,-0.489222,0.872089
-0.048516,-0.795570,-0.917447,-0.039318,0.946084,0.321526
-0.156677,-0.787482,-0.957751,-0.352573,-0.309876,0.882989
0.407879,-0.320971,-0.922896,-0.377692,0.918223,-0.119231
-0.185471,0.124385,0.435329,-0.189298,0.972250,-0.137464
0.082520,0.184119,0.604342,0.472457,-0.320771,0.820908
0.179166,-0.082463,-0.964857,0.373698,-0.584125,0.720519
-0.482093,0.225402,0.715662,0.940973,-0.065303,-0.332122
-0.103590,0.064856,0.884198,0.522906,0.506952,-0.685251
0.291922,-0.337511,-0.944962,-0.671530,-0.684996,-0.282539
0.866168,0.303749,0.873756,-0.383716,0.913471,-0.135399
-0.314831,-0.748116,-0.961870,-0.190104,0.069756,0.979283
-0.288337,0.095594,0.929745,0.926046,0.168525,-0.337695
-0.443288,0.527295,0.790118,-0.295713,0.715467,0.632978
0.288595,-0.566390,-0.957124,-0.635111,0.248188,0.731462
-0.061727,-0.322132,-0.967560,-0.394614,0.087691,0.914653
-0.376214,0.016062,0.579488,-0.120689,0.801430,0.585785
0.090099,-0.234135,-0.973340,0.888979,-0.258555,0.377975
-0.975583,0.165558,0.817254,-0.040206,0.995571,0.084982
-0.386363,-0.010412,0.599186,-0.176777,-0.602447,0.778337
0.834654,0.254793,0.870347,0.241666,-0.825116,0.510668
-0.853123,0.047708,0.950320,0.976088,0.216335,0.021242
-0.494178,-0.549666,-0.979827,0.394780,-0.183450,-0.900275
-0.565496,-0.908707,-0.962773,-0.763695,0.618826,0.183914
-0.480841,-0.655992,-0.957393,0.450655,-0.689220,-0.567350
0.202554,-0.180504,-0.955826,-0.105990,-0.433497,0.894900
-0.222063,0.809155,0.839140,-0.376988,-0.810944,-0.447493
-0.376674,-0.628787,-0.974600,0.266643,0.311869,-0.911942
-0.016792,-0.188528,-0.433467,0.912371,0.408076,-0.032467
-0.319291,0.068218,0.891220,0.339523,0.316171,-0.885867
0.374708,-0.310352,-0.943250,-0.015457,0.391169,0.920189
0.796804,0.283645,0.711839,0.082910,0.646144,0.758699
0.328742,0.183452,-0.057004,-0.465919,-0.051942,0.883301
0.394939,-0.352292,-0.961758,0.754421,0.653692,0.059463
-0.397306,0.741919,0.803655,0.089651,-0.767714,0.634490
-0.726740,0.070816,0.879590,0.659419,0.144473,0.737763
-0.384095,-0.912795,-0.944283,0.094970,0.628582,0.771923
-0.317907,0.316938,0.799545,0.483080,0.643042,-0.594249
0.104660,-0.695686,-0.934894,0.513573,-0.719701,-0.467198
0.882748,0.252904,0.684672,-0.696307,0.645462,-0.313904
-0.586452,-0.427986,-0.975549,0.049455,0.800104,0.597819
-0.284818,0.263715,0.800286,0.820966,0.556655,-0.127084
-0.203797,0.171860,0.474263,-0.748019,0.658748,-0.080737
-0.324568,-0.331265,-0.972220,0.350953,0.835563,0.422690
0.547538,-0.120811,-0.948996,0.807452,0.545872,0.223707
-0.276064,-0.570678,-0.957215,-0.234721,-0.941153,0.243181
-0.399774,-0.332370,-0.985414,-0.275329,0.121168,0.953683
0.715776,0.240579,0.857871,-0.457979,0.823354,-0.335176
-0.455243,0.495245,0.794302,-0.027746,-0.991999,0.123160
-0.236559,-0.660455,-0.942102,-0.441081,0.264482,-0.857611
0.183277,-0.672805,-0.922975,0.866187,0.464578,0.184087
0.216765,0.059613,-0.968674,0.476389,0.558889,0.678746
0.224090,0.048756,-0.951385,0.085260,0.986789,0.137762
0.131596,-0.402814,-0.672950,-0.271490,0.832280,-0.483326
-0.228124,0.522407,0.754495,0.925267,0.286375,-0.248739
-0.062363,0.069859,0.997150,-0.639417,-0.630758,-0.439648
