0.578390,-0.245060,-0.956069,0.857842,-0.507479,-0.081074
0.508238,-0.255603,-0.971932,0.294907,0.013425,0.955432
0.442562,-0.252041,-0.947099,0.668172,-0.450038,0.592463
0.378765,-0.245206,-0.913989,0.078624,-0.972603,0.218773
0.314148,-0.134711,-0.577047,0.892465,-0.097883,0.440368
0.264831,-0.115403,-0.510412,0.968257,-0.239805,0.070507
0.159959,-0.281892,-0.973842,-0.300124,0.253766,0.919526
0.086746,-0.291247,-0.984611,-0.330408,0.224740,0.916691
0.605107,-0.198865,-0.967890,0.566069,-0.473020,-0.675143
0.537193,-0.206299,-0.973565,0.108710,0.268391,0.957156
0.970104,-0.175704,-0.959612,0.083775,-0.112229,0.990145
0.902190,-0.182086,-0.962824,-0.246088,-0.116785,0.962186
0.834862,-0.186691,-0.961910,-0.049387,0.237659,0.970092
0.764595,-0.192039,-0.961910,-0.018564,-0.443753,0.895957
0.624529,-0.207187,-0.976804,0.392220,0.305315,-0.867725
0.554144,-0.212091,-0.975642,-0.051543,0.178903,0.982516
0.486819,-0.211348,-0.959640,-0.622543,-0.553665,-0.553078
0.421373,-0.212980,-0.949259,0.577542,-0.101045,0.810084
0.298609,-0.089259,-0.568437,-0.859320,0.121518,-0.496793
0.137358,-0.244762,-0.981178,-0.390118,0.225319,0.892770
0.065209,-0.252630,-0.987850,-0.394343,0.171390,0.902839
0.953979,-0.169014,-0.956373,0.073089,-0.089702,0.993283
0.884888,-0.176293,-0.962049,0.215486,0.006422,-0.976486
0.814502,-0.181641,-0.962602,-0.109266,-0.049224,0.992793
0.742821,-0.189954,-0.970520,0.294421,0.033932,-0.955073
0.891479,-0.132627,-0.958671,-0.534443,-0.146032,0.832493
0.752472,-0.145698,-0.967336,-0.229282,0.024967,0.973040
0.265771,-0.185947,-0.980071,-0.201170,0.400303,0.894029
0.899011,-0.118077,-0.956512,0.515139,0.763288,-0.389901
0.831097,-0.125057,-0.960831,0.042098,0.186685,0.981518
0.916314,-0.134258,-0.962159,0.310174,0.165958,-0.936082
0.850753,-0.133071,-0.946407,-0.011133,0.887089,0.461464
0.909485,-0.144656,-0.958284,0.338832,0.191106,-0.921234
0.837807,-0.153866,-0.967281,-0.110976,0.208757,0.971650
0.902308,-0.116591,-0.961107,0.406317,0.095568,-0.908721
0.833687,-0.125347,-0.969413,-0.112288,0.059862,0.991871
0.102519,-0.050796,-0.971793,-0.692106,-0.233976,-0.682820
0.264360,0.981879,0.631360,0.919070,0.390865,0.050344
0.209981,0.979948,0.636813,0.768090,-0.636081,0.073740
0.295434,0.828163,0.593820,-0.005496,-0.994381,0.105717
0.239406,0.820883,0.586401,-0.005342,-0.979978,0.199036
0.179966,0.811973,0.574497,-0.251985,0.759827,-0.599305
-0.597812,0.757609,0.576573,-0.371703,-0.833114,0.409583
0.427260,0.779003,0.695836,0.913917,-0.396280,0.087856
0.282366,0.713952,0.561873,-0.506553,0.489956,-0.709470
0.176791,0.714541,0.581501,0.961107,-0.198792,0.191719
0.144420,0.743504,0.658047,0.960635,-0.260082,-0.097662
-0.103931,0.761181,0.745390,-0.774151,-0.631902,0.037284
-0.389006,0.597656,0.394578,-0.409948,0.901915,-0.135984
0.082864,0.605824,0.620674,-0.580500,0.009278,-0.814208
0.049437,0.631668,0.689579,-0.515792,0.307134,0.799767
0.004827,0.642655,0.723548,0.526363,0.803672,-0.277584
-0.049552,0.636863,0.719256,0.461743,0.880607,0.106420
-0.094631,0.646073,0.749681,0.837145,0.458205,-0.298723
-0.300025,0.582354,0.630861,0.539767,0.841730,-0.011930
-0.445267,0.467844,0.378356,0.680723,-0.397974,0.615006
-0.494822,0.473936,0.402164,-0.678891,-0.675927,0.286757
-0.564618,0.517158,0.518575,0.052674,-0.402077,0.914090
-0.704095,0.481804,0.457366,-0.675490,-0.614557,-0.407472
0.219514,0.383186,0.058439,0.990007,0.095424,-0.103832
0.238817,0.601218,0.582830,-0.667123,0.178795,0.723173
0.176554,0.588147,0.561651,0.765737,-0.642692,-0.024376
0.112641,0.572999,0.536542,0.784281,0.475139,-0.398932
0.435734,0.577903,0.684568,0.747301,0.611155,0.260827
0.389595,0.586515,0.713554,0.011218,-0.993285,-0.115149
0.334745,0.579390,0.706079,0.858738,-0.384151,-0.339113
0.238936,0.509580,0.552986,0.942569,0.218977,-0.252214
0.175613,0.491459,0.520402,0.720120,0.539026,-0.436897
0.146539,0.530230,0.619290,0.766049,0.252632,-0.591055
0.099696,0.540029,0.650905,-0.573593,0.363340,-0.734149
0.037076,0.526069,0.628480,-0.485890,0.759592,-0.432354
0.004827,0.552204,0.697967,0.360167,0.910279,0.204136
-0.075802,0.581910,0.784065,0.966666,0.240867,0.086833
-0.145246,0.556664,0.735092,0.810791,0.051463,-0.583070
-0.235405,0.508692,0.634267,0.851254,0.512624,0.112172
-0.299669,0.494731,0.611206,0.813969,-0.579209,-0.044394
-0.427849,0.404135,0.414040,-0.763877,0.385173,0.517816
-0.558146,0.436506,0.514727,0.883333,-0.003118,-0.468735
-0.610994,0.435019,0.520014,-0.604826,-0.092768,-0.790936
-0.659723,0.439778,0.540695,0.520459,0.852702,0.044969
0.469517,0.534382,0.716073,-0.352719,-0.790273,-0.501056
0.421492,0.543746,0.748186,-0.395839,-0.894721,0.206846
0.352400,0.516261,0.692431,0.883261,0.360649,-0.299636
0.200447,0.437104,0.524970,0.860053,0.340834,-0.379661
0.112289,0.463393,0.605281,0.403135,-0.870587,0.282064
0.055083,0.457447,0.601378,0.923753,0.319166,0.211690
0.006239,0.463393,0.625435,0.979228,-0.185996,0.080736
-0.060733,0.444828,0.591273,0.434449,0.889630,-0.140756
-0.072856,0.497251,0.721776,0.729694,-0.391066,-0.560904
-0.172315,0.433088,0.582303,0.950341,-0.155599,0.269521
-0.216220,0.445127,0.619428,0.904708,0.416246,0.090788
-0.293904,0.411858,0.551824,0.435596,0.732654,-0.522947
-0.432203,0.309378,0.324482,-0.407643,0.877362,0.253107
-0.493526,0.367004,0.476855,-0.712115,-0.640529,-0.287428
-0.539313,0.374129,0.502131,0.873482,0.424653,0.238114
-0.582273,0.383484,0.533081,-0.540474,0.501931,-0.675243
-0.695503,0.373531,0.528957,-0.820949,0.566735,-0.069671
-0.845103,0.383041,0.579397,0.966567,0.256305,0.007419
0.437972,0.520721,0.792619,-0.337465,-0.938467,-0.073464
0.348869,0.459377,0.655251,0.755474,0.613558,0.229794
0.185264,0.188032,0.006144,0.989959,-0.126800,-0.062472
0.300258,0.466657,0.682547,-0.192664,0.978744,-0.070285
0.200447,0.394480,0.519627,0.863360,0.146657,-0.482806
0.185968,0.450022,0.661840,0.187842,-0.960483,-0.205395
0.111582,0.415267,0.588948,0.421032,-0.906271,0.037491
0.056851,0.413336,0.594374,-0.675126,0.405972,-0.615948
-0.068737,0.385415,0.546785,0.783245,0.121373,0.609751
-0.069444,0.455516,0.722717,0.971374,-0.154810,0.180183
-0.160663,0.406066,0.614915,0.813614,0.581399,0.002722
-0.208802,0.409184,0.632439,0.668614,0.696854,0.259518
-0.295549,0.365517,0.538729,-0.313796,-0.935144,0.164430
-0.447034,0.311154,0.429986,0.816965,-0.553173,0.162994
-0.493877,0.319766,0.459719,0.655174,-0.709086,0.260662
-0.521187,0.349173,0.538369,0.837656,0.228189,-0.496248
-0.583332,0.339528,0.525413,0.537803,0.730964,0.420070
-0.696326,0.329130,0.519904,-0.519451,0.679059,-0.518700
-0.747645,0.331061,0.534466,-0.485381,0.536539,-0.690312
-0.777189,0.352446,0.593682,0.891930,-0.451166,-0.030157
0.591220,0.518935,0.760783,0.888380,-0.087953,-0.450606
0.528720,0.497106,0.716931,0.721590,0.626872,0.293836
0.477638,0.501412,0.737666,0.132480,0.980502,0.145134
0.599575,0.515671,0.777780,-0.549347,-0.704962,-0.448605
0.533429,0.491459,0.726953,0.840645,0.453590,0.295925
0.481639,0.488340,0.729666,0.112974,0.947377,0.299524
0.447857,0.516560,0.808288,0.463173,0.872734,0.154291
0.354519,0.449723,0.653618,0.975975,0.207140,0.067569
0.192563,0.188621,0.009826,0.964529,0.135576,-0.226502
0.289903,0.428492,0.610818,0.508281,0.859255,0.057716
0.207039,0.384672,0.512540,0.939030,0.035309,-0.342017
0.192089,0.442299,0.664691,-0.426102,0.889025,0.167545
0.114290,0.406066,0.586429,0.659693,-0.647568,0.381393
0.061793,0.404135,0.591772,-0.322818,0.742684,-0.586693
-0.062501,0.378735,0.548944,0.482354,0.360773,0.798234
-0.061441,0.445571,0.721886,0.948960,-0.310882,0.053173
-0.147361,0.403537,0.629145,0.783375,0.589674,-0.196491
-0.306731,0.205854,0.148800,-0.173085,0.981645,-0.080095
-0.228813,0.368781,0.555284,-0.337000,-0.773728,0.536447
-0.289665,0.360314,0.544377,0.203815,0.901908,-0.380816
-0.327450,0.375616,0.591439,0.994903,-0.100625,-0.006469
-0.436323,0.310411,0.443053,0.716868,-0.656406,0.235015
-0.488346,0.312786,0.458944,0.655174,-0.709086,0.260662
-0.512947,0.341749,0.538812,0.774357,0.240460,-0.585278
-0.572858,0.334623,0.531448,0.409710,0.847065,0.338553
-0.692091,0.321996,0.521897,0.500615,-0.724159,0.474319
-0.742231,0.323338,0.534078,-0.485381,0.536539,-0.690312
-0.774951,0.340860,0.586069,-0.677600,-0.709219,-0.194594
0.583803,0.497251,0.750733,-0.736533,0.619830,0.270795
0.526600,0.489981,0.743258,0.062284,-0.977233,0.202823
0.469398,0.482702,0.734704,0.133446,0.934767,0.329246
0.356990,0.468143,0.717817,0.824968,0.531217,-0.192969
0.173375,0.184914,-0.003739,0.994895,-0.099556,-0.016511
0.292018,0.446759,0.672803,0.199110,-0.904354,0.377491
0.200211,0.389431,0.538120,0.994835,0.047721,-0.089592
0.179025,0.432200,0.657023,0.123314,-0.989010,-0.081560
0.103108,0.399974,0.586484,0.659693,-0.647568,0.381393
0.049670,0.400273,0.597225,-0.476234,-0.658921,0.582258
-0.023894,0.375172,0.543961,-0.346183,-0.814921,0.464823
-0.076625,0.373531,0.550135,0.617946,0.242401,0.747920
-0.083097,0.428492,0.698244,0.966054,-0.114033,0.231809
-0.166902,0.390764,0.614223,0.912014,0.373246,-0.170051
-0.276835,0.259764,0.285420,0.857060,-0.143530,0.494821
-0.287898,0.309378,0.419826,-0.572014,-0.805842,-0.153031
-0.298258,0.358682,0.554038,0.284944,0.881549,-0.376403
-0.337216,0.374429,0.603482,0.989540,-0.078670,0.120918
-0.414667,0.288582,0.389069,-0.552089,0.164393,-0.817418
-0.457979,0.300611,0.429709,0.817496,-0.434380,0.378171
-0.499527,0.311752,0.467692,0.812080,-0.476803,0.336429
-0.533544,0.330019,0.522755,0.924166,-0.073577,-0.374837
-0.706566,0.313974,0.514533,0.152186,-0.716802,0.680466
-0.753532,0.319476,0.538757,-0.685775,0.195666,-0.701019
-0.790372,0.334470,0.585875,-0.677600,-0.709219,-0.194594
0.314267,0.383484,0.572642,-0.485668,0.872583,0.052205
0.292137,0.428039,0.700320,-0.580634,0.649449,0.491000
0.192797,0.358982,0.531254,0.875249,-0.242341,-0.418582
0.093338,0.367149,0.573389,-0.022763,-0.770551,0.636972
0.045198,0.371156,0.594069,-0.293910,-0.402821,0.866806
-0.027073,0.347097,0.543131,-0.464747,-0.786415,0.406894
-0.078977,0.349327,0.558966,-0.645446,-0.127084,-0.753159
-0.131945,0.349627,0.570925,0.729103,0.088098,0.678710
-0.168314,0.366551,0.624577,0.898087,0.439630,-0.012848
-0.239406,0.401751,0.735673,0.819994,-0.571987,-0.021006
-0.460569,0.274912,0.431813,0.862160,-0.272706,0.426981
-0.502236,0.287540,0.474585,0.961757,-0.076558,0.262988
-0.653836,0.292444,0.519239,-0.082389,0.717995,-0.691155
-0.710687,0.288582,0.520458,0.318400,-0.763755,0.561516
-0.760475,0.289615,0.532943,0.459067,-0.652716,0.602677
-0.042019,0.346952,0.688306,0.839524,0.067532,0.539110
-0.164312,0.264668,0.484994,-0.685936,-0.726558,-0.040056
-0.329450,0.201249,0.342366,0.939951,-0.218895,0.261872
-0.252707,0.341903,0.717928,0.955050,-0.229658,-0.187447
-0.382885,0.200651,0.351142,-0.700824,-0.075934,-0.709281
-0.419609,0.217439,0.406067,0.957485,-0.263872,0.116591
-0.464452,0.227239,0.441973,0.865649,0.018687,0.500303
-0.414311,0.330608,0.719561,-0.107707,0.992474,0.058270
-0.532721,0.263336,0.557194,0.986153,-0.150267,-0.070160
-0.610405,0.238824,0.505287,-0.490434,0.014006,-0.871366
-0.666548,0.235705,0.508526,0.077442,-0.718220,0.691494
-0.723988,0.229768,0.503432,0.109359,-0.486155,0.867003
-0.759297,0.244771,0.552073,-0.690758,0.670075,0.271759
0.561795,0.400563,0.713415,0.888915,0.457018,0.031049
0.514125,0.405612,0.736863,0.890745,0.415981,-0.183122
0.402659,0.392250,0.722578,0.857044,-0.468464,0.214517
0.241289,0.309078,0.524195,-0.255276,-0.881910,0.396319
0.185146,0.306404,0.528513,0.173136,0.953648,-0.246127
0.055320,0.274622,0.467249,-0.535817,0.829456,0.157805
0.595574,0.404425,0.785643,-0.203473,0.977345,-0.058273
0.462688,0.360314,0.687060,-0.719619,0.507391,-0.474029
0.409839,0.360314,0.698244,0.918954,-0.279497,0.278219
0.173023,0.091045,-0.024004,0.906278,-0.392728,0.156282
0.288017,0.330463,0.638198,0.932349,-0.350392,-0.089169
0.041667,0.283379,0.556308,0.888016,-0.317244,-0.332843
0.086039,0.400862,0.883782,-0.517025,-0.608270,0.602240
-0.022245,0.270760,0.533275,-0.457789,-0.624589,0.632707
0.045435,0.410217,0.919190,0.889770,-0.417168,-0.185150
-0.029544,0.322441,0.683046,0.941182,0.337899,0.000218
-0.155012,0.296305,0.634239,0.857216,0.169021,-0.486428
-0.141830,0.365218,0.829993,0.708631,0.685481,0.167204
-0.316972,0.174662,0.320302,0.963443,-0.038527,0.265128
-0.234108,0.321107,0.722578,-0.621949,0.731114,-0.280450
-0.363937,0.183427,0.354852,-0.671123,0.260531,-0.694059
-0.326153,0.278928,0.621504,0.937953,-0.054087,0.342518
-0.456449,0.199917,0.421792,0.894344,-0.379908,0.236261
-0.525070,0.233476,0.532888,0.959342,0.263954,0.099958
-0.552966,0.303431,0.740407,-0.118958,-0.966051,0.229335
0.038255,-0.657059,0.660428,-0.409917,0.912079,-0.008908
-0.042608,-0.689884,0.583190,0.186166,-0.982514,0.003047
-0.109229,-0.705331,0.553235,0.190752,0.981626,-0.004939
-0.136417,-0.678743,0.635346,-0.320336,-0.221604,0.921019
-0.190207,-0.682161,0.636426,0.789981,0.247773,0.560837
-0.210218,-0.647106,0.741487,0.803314,-0.595553,-0.001981
-0.297550,-0.686167,0.647970,0.144589,0.156655,0.977012
-0.618171,-0.845830,0.260449,-0.822409,0.565186,0.064877
-0.703154,-0.827120,0.332926,0.951030,-0.289174,0.109184
-0.688793,-0.764145,0.509661,0.271449,0.848118,0.454984
-0.840160,-0.805881,0.422152,0.768298,0.592608,0.241939
-0.163604,-0.775132,0.608714,0.154114,-0.960681,-0.230958
-0.314737,-0.770237,0.654531,0.619533,0.730293,-0.287839
-0.281544,-0.606413,0.684624,0.750898,-0.466797,-0.467175
-0.626530,-0.797115,0.217982,-0.310454,0.943575,0.115256
-0.651483,-0.768007,0.306654,-0.611110,-0.791182,0.023996
-0.689264,-0.753893,0.354547,-0.659630,0.738618,0.139041
-0.747292,-0.757464,0.357371,-0.358960,-0.873911,-0.327762
-0.679142,-0.646073,0.657106,-0.815152,-0.542305,-0.203548
-0.842868,-0.745281,0.411272,0.845356,0.289826,0.448748
0.334864,-0.803950,-0.198635,-0.214653,-0.095831,-0.971978
0.114524,-0.488639,0.732655,-0.378414,0.896869,-0.228973
0.047080,-0.509135,0.689330,0.064415,-0.578830,0.812900
-0.078506,-0.596614,0.469851,-0.307342,0.596006,-0.741834
-0.126057,-0.530221,0.666546,0.824483,-0.226228,0.518699
-0.283545,-0.588002,0.537428,-0.115057,0.968166,0.222298
-0.285783,-0.536168,0.682769,0.764199,-0.401247,-0.504975
-0.504474,-0.711269,0.238385,0.909619,-0.319374,0.265694
-0.546963,-0.697906,0.284091,-0.564539,-0.514072,-0.645775
-0.485285,-0.583396,0.591993,0.109302,0.947407,-0.300788
-0.600987,-0.593794,0.587896,0.381739,0.902080,0.201314
-0.706804,-0.694489,0.327860,-0.712571,-0.650417,0.263059
-0.693502,-0.631070,0.503183,0.857432,0.265981,0.440528
-0.672906,-0.565574,0.682022,0.853255,-0.415770,-0.314788
-0.728930,-0.571957,0.676236,-0.783603,0.422528,0.455453
0.102400,-0.579535,0.679917,-0.197117,-0.801858,0.564064
-0.040959,-0.626764,0.576545,-0.172418,0.978717,0.111290
-0.127117,-0.606413,0.652593,0.354793,0.934465,-0.029957
-0.191266,-0.621270,0.623414,0.927359,-0.134165,0.349291
-0.220455,-0.596759,0.699296,0.913042,0.401077,-0.074098
0.090867,-0.401751,0.784120,-0.279377,0.926585,0.251771
0.009181,-0.438437,0.698881,0.903101,-0.428983,0.019526
-0.118881,-0.528290,0.475942,-0.473262,0.519790,-0.711225
-0.113819,-0.462496,0.657743,0.900223,0.021181,0.434913
-0.109110,-0.400563,0.829605,-0.291264,0.955471,0.047330
-0.213630,-0.518490,0.523392,-0.566538,0.823745,-0.021862
-0.214219,-0.459976,0.685925,0.850744,-0.522853,-0.053463
-0.279073,-0.421204,0.807513,-0.267421,-0.899401,0.345781
-0.487994,-0.640724,0.240378,0.891780,-0.425644,0.153480
-0.493762,-0.589633,0.383062,0.878748,0.437238,-0.191377
-0.548494,-0.590222,0.393360,-0.848098,-0.069425,0.525271
-0.550257,-0.540763,0.531946,-0.075867,0.930377,-0.358668
-0.631943,-0.570769,0.466031,-0.278558,0.819824,0.500294
-0.649483,-0.536612,0.564115,-0.262894,0.885872,0.382254
-0.703391,-0.539431,0.566939,-0.177388,0.982346,-0.059409
-0.763654,-0.546855,0.559714,-0.144069,0.989159,0.028455
-0.832979,-0.515961,0.660179,0.337117,0.838017,0.429045
0.146305,-0.418530,0.481008,-0.636497,-0.600082,-0.484534
0.183382,-0.298227,0.796938,0.778086,-0.537216,0.325548
0.050378,-0.336101,0.721416,0.311683,-0.565705,0.763434
-0.028366,-0.369370,0.648524,0.784899,-0.600893,-0.151196
-0.119466,-0.418829,0.534106,0.999616,0.026028,0.009520
-0.108873,-0.345166,0.729721,0.398741,0.867831,-0.296438
-0.155601,-0.339074,0.755107,-0.557532,0.827614,0.064909
-0.242585,-0.381554,0.659044,0.856919,-0.366831,-0.362112
-0.452918,-0.619784,0.063090,0.418582,0.601385,0.680533
-0.266831,-0.350515,0.746719,0.304331,-0.010417,0.952509
-0.453978,-0.557697,0.229471,-0.769323,0.615645,0.170653
-0.525070,-0.514184,0.360610,0.342671,-0.939164,0.023385
-0.600046,-0.483880,0.457587,0.912817,-0.307652,0.268544
-0.619231,-0.449578,0.553374,0.682503,-0.730383,-0.027008
-0.667845,-0.447647,0.567880,0.001960,-0.475247,0.879850
-0.707274,-0.435464,0.609074,0.924275,-0.371394,-0.088220
-0.740582,-0.417497,0.663224,0.955744,0.260030,0.137613
0.090044,-0.363288,0.753612,0.137920,-0.911194,0.388205
0.024246,-0.381255,0.718952,0.120544,-0.916143,0.382298
-0.038136,-0.395813,0.691102,-0.445036,0.778289,-0.442954
-0.224575,-0.621561,0.112008,-0.665979,0.691378,-0.280120
-0.107580,-0.415865,0.650240,0.924812,-0.346777,-0.156424
-0.140418,-0.393583,0.718675,-0.658064,0.615436,-0.433809
-0.187617,-0.387935,0.742899,-0.384042,-0.721271,0.576437
-0.478694,-0.653198,0.077984,-0.859724,0.207443,-0.466736
-0.290607,-0.392541,0.751702,-0.637253,-0.729038,-0.249825
-0.498235,-0.556210,0.346381,-0.216371,0.975993,-0.024937
-0.541902,-0.547453,0.379989,0.239407,0.913868,0.327917
-0.574389,-0.525471,0.447067,0.837884,-0.130578,0.530000
-0.620998,-0.518635,0.475803,0.696112,-0.704753,0.136933
-0.633358,-0.478985,0.586484,0.930925,0.353050,0.093456
-0.694914,-0.489229,0.571811,-0.500285,0.858357,-0.113742
-0.741994,-0.485965,0.589861,-0.452591,0.848901,-0.272998
-0.781661,-0.474081,0.630003,0.967890,-0.012413,0.251069
0.332981,-0.657948,-0.198994,0.799017,0.450344,-0.398449
0.365701,-0.327490,0.680222,0.941462,-0.176497,-0.287224
-0.584040,-0.328088,0.512512,0.887102,0.429765,0.168378
-0.631354,-0.322585,0.538009,0.955590,0.238227,0.173480
-0.674788,-0.313384,0.571368,-0.687245,0.146352,0.711530
-0.844632,-0.328677,0.564835,-0.675950,-0.195290,0.710601
0.404426,-0.245505,0.167930,0.853538,0.493713,-0.166497
0.399835,-0.080793,0.627844,0.646859,0.693247,-0.317777
0.339573,-0.091489,0.611234,0.181304,0.912772,0.366027
0.275660,-0.106936,0.582359,-0.610470,0.759379,0.225100
0.069326,-0.401451,-0.195894,-0.707929,-0.444897,-0.548547
0.215042,-0.116889,0.567160,0.629529,0.770357,0.101206
0.195857,-0.073223,0.692763,0.466433,0.558086,-0.686280
0.124412,-0.169014,0.440562,0.942051,-0.316676,-0.110710
0.054027,-0.263626,0.191599,0.961628,0.250372,0.112183
0.026013,-0.229015,0.293421,0.834169,-0.298845,0.463523
-0.004002,-0.195602,0.393305,0.673932,0.237461,0.699591
0.043549,-0.071437,0.728918,-0.154734,0.652587,0.741747
-0.050848,-0.188178,0.423868,0.950982,0.000428,0.309245
0.001412,-0.059852,0.770638,0.098188,0.001629,0.995167
-0.146891,-0.238225,0.304716,-0.125245,0.985253,0.116574
-0.006002,-0.007873,0.916616,-0.259937,0.946878,0.189352
-0.065676,-0.018416,0.899341,-0.392901,0.869317,-0.299862
-0.163723,-0.130550,0.607551,0.608481,0.711491,0.351471
-0.194560,-0.108423,0.675931,-0.663766,0.103320,0.740770
-0.213749,-0.074556,0.773877,-0.408347,0.575818,-0.708299
-0.393007,-0.210749,0.432229,0.822038,0.507948,-0.257376
-0.340632,-0.102331,0.723188,-0.378447,-0.828736,0.412280
-0.356168,-0.066533,0.826532,-0.029207,-0.405869,0.913465
-0.397127,-0.056879,0.861884,0.792597,-0.590515,-0.151924
-0.571091,-0.177480,0.562150,-0.441910,0.746046,-0.498127
-0.702684,-0.305951,0.232101,-0.792124,-0.577003,-0.199016
-0.600402,-0.157583,0.624522,0.794089,0.416418,0.442740
-0.647715,-0.154909,0.641132,0.785648,-0.617935,0.030222
-0.748471,-0.199464,0.538674,-0.471895,-0.869904,0.143469
-0.778600,-0.180753,0.596782,0.112742,0.992453,0.048223
-0.821327,-0.172286,0.628730,-0.330299,-0.903310,0.273740
0.453859,-0.215055,0.608327,0.400180,0.914990,0.051474
0.243763,-0.373232,0.219228,-0.299443,0.187107,-0.935588
0.303319,-0.206888,0.661895,0.632305,-0.214831,-0.744338
0.230463,-0.161889,0.799817,0.353999,-0.914861,0.194201
0.143360,-0.208674,0.689053,-0.039796,-0.725392,0.687185
0.080156,-0.225607,0.656718,0.824549,0.445752,-0.348459
-0.042727,-0.384373,0.247632,-0.758478,0.382206,0.527855
0.022364,-0.234663,0.643375,0.058616,0.922072,-0.382553
-0.035428,-0.240900,0.638641,-0.057949,-0.417660,0.906754
-0.158191,-0.263027,0.603565,0.937649,0.318609,-0.138935
-0.183263,-0.231101,0.695337,0.685571,0.664086,-0.298300
-0.211277,-0.204213,0.774015,-0.490721,-0.856824,0.158258
-0.259180,-0.203026,0.787691,0.314990,-0.892188,0.323699
-0.401365,-0.357041,0.396046,0.673923,0.461066,0.577275
-0.309910,-0.204368,0.793671,0.362301,-0.556532,0.747670
-0.448327,-0.351104,0.421072,0.822564,0.375985,0.426643
-0.357227,-0.201394,0.812164,0.837116,0.357242,0.414265
-0.498824,-0.348131,0.439897,0.972539,-0.181590,0.145579
-0.398187,-0.193526,0.842367,0.622512,0.691657,0.366181
-0.538723,-0.336255,0.481478,0.835747,-0.534706,0.124964
0.437031,0.087038,0.626266,0.672373,0.308996,-0.672634
0.219869,-0.241643,-0.276094,0.966452,-0.238502,0.095325
0.387360,0.092831,0.652842,0.779797,0.625566,-0.024146
0.207276,-0.170501,-0.068630,0.948950,-0.306825,0.073160
0.173023,-0.136488,0.037787,-0.170108,0.978488,-0.116721
-0.866055,-0.166340,0.655417,0.838052,0.524591,-0.149910
0.140774,-0.104407,0.137892,-0.132728,0.942538,0.306602
0.116172,-0.064457,0.259065,0.852581,-0.520143,-0.050575
0.135357,0.097581,0.721582,-0.406753,-0.479917,-0.777324
0.144890,0.173329,0.938984,-0.583986,0.699250,0.412322
0.046847,0.116744,0.795830,0.823205,0.138328,-0.550634
0.018833,0.143477,0.879796,0.767800,-0.572457,0.287708
-0.051789,0.118821,0.823154,0.843171,0.369310,0.390734
-0.298847,-0.159215,0.073859,-0.707280,0.500042,-0.499713
-0.146187,0.068473,0.697746,-0.132943,0.632949,-0.762694
-0.355930,-0.161889,0.077763,-0.790043,0.435162,-0.431817
-0.311207,0.001781,0.540722,0.450707,-0.852274,-0.265504
-0.409958,0.008762,0.581861,-0.096827,0.374466,0.922171
-0.432321,0.038323,0.672775,-0.105032,0.171170,0.979627
-0.471043,0.049309,0.711976,0.117449,0.806581,0.579338
-0.519420,0.049754,0.724849,0.717908,-0.451431,0.529922
-0.670431,-0.042030,0.492303,0.756180,-0.581014,-0.301023
-0.783662,-0.050343,0.492746,-0.388939,0.920302,-0.042073
-0.833098,-0.047080,0.512485,-0.805169,-0.143443,-0.575436
-0.881120,-0.042919,0.533995,-0.222773,-0.931317,0.288132
-0.931616,-0.043363,0.544377,-0.403409,0.266141,-0.875460
0.194564,-0.121785,-0.235620,-0.210696,-0.976856,-0.036859
0.165138,-0.081091,-0.110018,0.994982,-0.062276,-0.078306
0.096517,-0.094009,-0.132470,0.472983,0.879062,0.059475
0.132415,0.030744,0.222633,0.912008,0.364136,0.188804
0.042960,-0.088815,-0.106585,0.488511,0.872442,-0.014206
0.207746,0.201693,0.704252,0.436656,-0.445964,-0.781311
0.112878,0.078417,0.365676,0.956590,-0.153671,-0.247629
0.064972,0.087781,0.403022,0.406272,-0.886637,-0.220949
0.118525,0.220258,0.777808,-0.244873,0.957263,-0.153898
0.034957,0.117932,0.497867,0.882269,-0.197666,-0.427235
0.094750,0.251152,0.871934,0.867790,-0.355588,-0.347128
-0.014594,0.180155,0.689801,-0.430022,0.902577,0.020871
-0.220810,-0.059263,0.037316,-0.734437,0.591574,-0.332631
-0.097221,0.201693,0.769143,-0.006642,0.733803,0.679330
-0.205742,0.140504,0.615248,0.178809,-0.724785,0.665368
-0.253296,0.145997,0.640828,0.855723,0.349293,-0.381749
-0.302729,0.148527,0.659736,-0.700415,-0.690929,-0.178987
-0.317090,0.184470,0.766568,-0.258902,0.946079,0.194688
-0.403955,0.147040,0.676042,-0.528499,-0.836811,0.142953
-0.483170,0.120153,0.615331,0.961700,0.273272,0.021335
-0.484933,0.165451,0.748159,-0.598350,-0.433377,0.673915
-0.598986,0.058075,0.460383,0.860401,-0.389442,0.328703
-0.647834,0.061937,0.482558,-0.804099,0.448152,0.390620
-0.586745,0.165161,0.769503,0.631274,0.423882,0.649474
-0.762243,0.054513,0.485797,-0.515772,-0.308450,-0.799273
0.498235,0.338784,0.766070,-0.528509,0.826027,0.195849
0.185264,0.037135,-0.047784,0.985595,0.161602,-0.049866
0.201037,0.214765,0.468661,0.028970,-0.914683,0.403133
-0.008829,0.009505,-0.084909,-0.444969,-0.894681,-0.039357
-0.056732,0.020791,-0.042054,-0.048188,-0.994482,-0.093189
0.049907,0.223531,0.526022,0.803642,0.579263,-0.136434
-0.010004,0.213278,0.509827,0.816990,-0.295889,0.494952
0.026013,0.317391,0.805852,-0.064746,-0.957784,0.280103
-0.084509,0.189075,0.455096,0.327573,0.932126,-0.154391
-0.042256,0.297937,0.764104,0.324901,-0.944022,0.057106
-0.204920,0.113771,0.261723,0.760376,-0.151727,0.631512
-0.105342,0.284866,0.739189,-0.120648,0.571866,-0.811427
-0.254001,0.121050,0.292812,0.932416,0.252693,0.258353
-0.132767,0.309078,0.816040,-0.600936,-0.762494,0.239748
-0.305201,0.123570,0.311942,0.027092,-0.987677,0.154141
-0.258002,0.229025,0.608908,-0.639367,-0.660088,-0.394327
-0.314619,0.225009,0.609129,-0.377770,0.715580,0.587567
-0.332155,0.257688,0.708764,0.719967,-0.694004,-0.002602
-0.448327,0.141093,0.393526,0.869460,-0.493652,-0.018601
-0.496938,0.146442,0.419383,0.724542,-0.672676,0.150156
-0.522480,0.173030,0.503127,0.757501,0.320935,-0.568501
-0.539902,0.252485,0.738691,-0.346844,-0.884443,0.312184
-0.591454,0.249820,0.742705,-0.241906,-0.953242,0.181141
0.239995,-0.091045,-0.500778,0.984105,0.110103,0.139340
0.290373,-0.082134,-0.569434,-0.859320,0.121518,-0.496793
0.312500,-0.073813,-0.651102,-0.595718,0.697510,-0.398246
0.326742,-0.069805,-0.692794,0.916629,-0.399737,-0.001525
0.109463,-0.059852,-0.971849,0.780957,0.065387,0.621153
0.179143,-0.054948,-0.983531,0.510477,0.074527,0.856656
0.258121,-0.049309,-0.987656,-0.048542,0.131225,0.990163
0.346753,-0.044405,-0.986272,-0.117799,-0.072649,0.990376
0.444915,-0.038912,-0.981040,-0.582894,0.079369,0.808663
0.566975,-0.033119,-0.958976,-0.131853,0.966984,0.218074
0.100281,-0.127876,-0.976361,0.656218,-0.418489,0.627890
0.199388,-0.122528,-0.970658,0.627121,0.322432,0.709054
0.261181,-0.117334,-0.984639,0.154530,0.247734,0.956425
0.347575,-0.112131,-0.986577,-0.018389,-0.006478,0.999810
0.451625,-0.106782,-0.978382,-0.412138,0.155403,0.897771
0.558264,-0.100990,-0.967862,-0.045567,-0.589845,0.806230
0.660546,-0.095940,-0.957758,0.261370,0.129918,-0.956456
0.733758,-0.091045,-0.964900,-0.201062,-0.750709,0.629293
0.827448,-0.085996,-0.961800,-0.168106,0.262340,0.950220
0.346516,-0.137676,-0.683465,0.926215,-0.373605,-0.050444
0.197269,-0.179266,-0.293535,0.858341,0.480422,0.180128
0.218454,-0.174806,-0.326092,0.866024,0.486366,0.115974
0.235053,-0.170945,-0.363493,-0.744718,-0.651911,-0.142855
0.269421,-0.166639,-0.391980,0.751963,0.655534,0.069476
0.260947,-0.162931,-0.444081,0.924232,0.380620,0.030390
0.259651,-0.159215,-0.490645,0.876120,0.405648,0.260507
0.263182,-0.154909,-0.535078,0.948737,-0.312268,-0.048851
0.291903,-0.150603,-0.567579,0.746886,-0.336806,0.573343
0.326271,-0.141982,-0.644928,0.950667,-0.245614,0.189489
0.250470,-0.257688,-0.383813,0.830846,0.535025,0.153113
0.264008,-0.250110,-0.468720,-0.802051,-0.597096,0.013796
0.311440,-0.212834,-0.884450,0.023962,-0.995251,0.094344
0.361229,-0.208075,-0.907317,0.025714,-0.990640,0.134057
0.376293,-0.203180,-0.951252,-0.284219,0.880072,-0.380385
0.424200,-0.198575,-0.973953,-0.477613,0.425206,0.768821
0.511065,-0.193227,-0.973205,0.278035,0.277260,0.919686
0.615467,-0.187878,-0.963959,0.791897,-0.590033,-0.157351
0.691854,-0.182974,-0.969523,0.112183,0.251631,-0.961299
0.793198,-0.177780,-0.961800,0.042941,-0.326333,0.944279
0.882179,-0.172731,-0.961633,0.134860,0.013411,-0.990774
0.976458,-0.167083,-0.957979,0.075380,-0.019133,0.996971
0.117232,-0.334025,-0.980763,-0.207117,-0.150929,0.966604
0.210333,-0.328822,-0.976666,0.121057,0.594052,0.795266
0.337454,-0.323184,-0.952276,0.931896,0.045850,-0.359816
0.415256,-0.317690,-0.959059,-0.195261,-0.010984,0.980690
0.486463,-0.312931,-0.967945,0.259003,0.264042,0.929085
0.565915,-0.307437,-0.973205,-0.068828,-0.096138,0.992986
0.657723,-0.302243,-0.971434,-0.254114,0.110635,-0.960826
0.764006,-0.296895,-0.960664,0.175373,-0.118323,-0.977366
0.844632,-0.291990,-0.963350,-0.114264,0.085319,0.989780
0.933027,-0.286941,-0.960969,-0.014972,0.036960,0.999205
0.027188,-0.458190,-0.986300,0.197199,0.265730,0.943663
0.120526,-0.452996,-0.982452,-0.591191,-0.080271,0.802527
0.243763,-0.446904,-0.962962,0.603860,-0.205376,-0.770178
0.318502,-0.442000,-0.969496,0.123810,0.290298,0.948893
0.427379,-0.436651,-0.957896,-0.653997,0.430115,-0.622326
0.514830,-0.431013,-0.958948,0.664668,0.112333,0.738646
0.582391,-0.426253,-0.972070,-0.034192,0.166294,0.985483
0.677378,-0.420760,-0.966146,-0.270028,-0.040836,0.961986
0.767304,-0.415711,-0.963322,-0.131048,0.118385,0.984282
0.858404,-0.410662,-0.961883,-0.274709,0.086146,0.957661
0.473870,-0.549529,-0.951612,-0.129955,-0.571251,0.810422
0.543784,-0.544779,-0.961080,-0.099622,0.252619,0.962424
0.797789,-0.529333,-0.963848,-0.187084,0.154613,0.970100
0.099340,-0.571367,-0.962824,-0.421208,0.717800,0.554389
0.177732,-0.566463,-0.967641,0.510755,-0.607446,-0.608390
0.369587,-0.555322,-0.960720,-0.116237,-0.193315,0.974227
0.109229,-0.593939,-0.965620,-0.245897,0.781318,0.573652
0.210333,-0.588591,-0.959142,-0.200283,0.249036,0.947559
0.363937,-0.578347,-0.970049,0.068980,0.221893,-0.972628
0.465397,-0.572999,-0.962879,-0.096117,0.110881,0.989175
0.552732,-0.567506,-0.961827,-0.049396,0.278721,0.959101
0.639950,-0.562456,-0.963045,-0.069784,0.212164,0.974739
-0.000823,-0.599433,-0.977275,0.160911,-0.417095,-0.894505
0.620646,-0.608198,-0.957564,0.046975,0.206728,0.977270
0.696211,-0.603149,-0.963627,0.086258,0.053101,0.994857
0.173260,-0.635231,-0.959806,-0.328041,0.471851,-0.818380
0.274245,-0.629728,-0.953217,-0.575162,0.493191,-0.652650
0.333570,-0.624389,-0.969080,-0.290058,-0.045467,-0.955928
0.428791,-0.619186,-0.965731,-0.083323,-0.191120,0.978024
0.522599,-0.613393,-0.962990,0.138076,0.023064,-0.990153
0.311559,-0.680973,-0.962409,0.150270,-0.158496,0.975858
0.405249,-0.675779,-0.959640,-0.263024,-0.166382,0.950334
0.481169,-0.671020,-0.965565,-0.059942,-0.078406,0.995118
0.577449,-0.665526,-0.959059,0.038596,0.046213,0.998186
0.661135,-0.660332,-0.962381,0.106859,0.038583,0.993525
-0.062619,-0.702212,-0.973150,-0.287652,0.572346,0.767904
0.045198,-0.696864,-0.963045,-0.383930,0.497158,0.778095
0.125705,-0.691815,-0.966617,-0.070379,0.084752,0.993913
-0.015183,-0.764000,-0.963820,-0.486428,0.562657,0.668434
0.073331,-0.758651,-0.964789,-0.185366,-0.243356,-0.952060
0.165842,-0.753448,-0.963405,-0.087488,0.307254,0.947597
0.252471,-0.748399,-0.963184,-0.422738,0.562939,-0.710206
0.327212,-0.742906,-0.970105,0.032334,-0.106374,0.993800
0.253415,-0.818653,-0.192018,-0.480310,-0.243943,-0.842493
-0.157487,-0.851922,0.658711,0.809906,0.479088,0.338419
-0.285193,-0.801575,0.655030,0.147979,0.976616,-0.155961
-0.110874,-0.795184,0.700957,0.801721,0.383853,-0.458149
-0.169962,-0.793407,0.636481,0.869244,0.493739,-0.025210
-0.674317,-0.800387,0.363462,-0.347961,0.936850,-0.035150
0.260711,-0.695822,-0.191160,0.168828,-0.018608,0.985470
-0.612406,-0.756277,0.527240,0.466642,0.884428,-0.005675
-0.232108,-0.744836,0.666325,0.108571,-0.219418,0.969571
-0.199269,-0.741274,0.644952,0.759672,0.611805,0.220440
-0.155249,-0.737412,0.630059,0.200718,-0.858952,0.471077
-0.153601,-0.734294,0.595094,0.769839,-0.636867,0.041820
-0.096398,-0.727314,0.548585,0.189619,0.977879,0.088303
-0.325330,-0.710380,0.167570,-0.852548,0.461251,-0.245782
-0.262359,-0.715130,0.727672,-0.644396,-0.759688,-0.087340
-0.651246,-0.722853,0.513315,-0.617974,-0.776161,-0.125233
-0.236698,-0.709338,0.668428,-0.455694,0.756312,-0.469399
-0.195505,-0.705920,0.652593,0.855007,0.413772,0.312659
-0.199858,-0.703400,0.613725,0.824679,0.564512,-0.035074
-0.195620,-0.700282,0.578539,-0.474933,0.306151,0.825052
-0.184557,-0.697308,0.546314,0.428066,0.881034,0.201344
-0.433615,-0.681272,0.117074,-0.527406,0.840357,0.125071
-0.748000,-0.630771,0.697801,-0.523953,0.851662,0.012077
-0.714099,-0.627508,0.678727,0.951225,-0.268642,0.151665
-0.808263,-0.622004,0.528486,0.235768,0.530062,0.814523
-0.516478,-0.608942,0.588422,0.366820,0.929923,0.026204
-0.194208,-0.598390,0.702092,0.926847,0.375383,0.006425
-0.169140,-0.595272,0.678727,-0.853591,0.215856,-0.474119
-0.177847,-0.592896,0.637782,0.717072,-0.221317,-0.660929
-0.204449,-0.590522,0.589723,0.475992,0.166160,-0.863610
-0.214219,-0.585327,0.509799,0.040269,0.992677,0.113888
-0.219280,-0.582653,0.469408,0.230762,-0.409682,0.882559
-0.160663,-0.578637,0.460522,0.500526,-0.862630,-0.073100
-0.104753,-0.574186,0.450528,-0.206313,0.877770,0.432382
-0.496352,-0.580278,0.221664,0.810579,-0.542090,-0.221586
-0.456449,-0.576117,0.202673,-0.568025,-0.154192,-0.808438
-0.417490,-0.569437,0.140578,0.803718,-0.556027,-0.211830
-0.396423,-0.559782,0.030949,-0.784870,0.563413,-0.257962
-0.788371,-0.521908,0.681440,-0.174404,0.886707,0.428175
-0.746351,-0.518192,0.664636,0.185689,0.796858,0.574924
-0.740582,-0.515372,0.632965,-0.663336,-0.575417,-0.478415
-0.759182,-0.512997,0.589806,0.144592,-0.943708,0.297502
-0.734581,-0.509580,0.564475,0.151838,-0.979153,0.134921
-0.162074,-0.490416,0.755550,0.288241,-0.097325,0.952599
-0.151011,-0.487298,0.724240,0.838179,-0.335121,-0.430291
-0.219869,-0.486110,0.655832,0.848459,0.262637,-0.459499
-0.067795,-0.479429,0.691628,0.260058,-0.568083,0.780802
-0.034839,-0.475866,0.671861,0.817226,0.496083,-0.293330
-0.196916,-0.476755,0.558246,0.885903,-0.463706,0.012326
-0.173730,-0.473337,0.533109,0.504104,-0.759584,-0.410989
-0.433970,-0.472594,0.332012,-0.481013,-0.666092,-0.570043
-0.373000,-0.468143,0.322046,0.046803,0.848604,0.526953
-0.306968,-0.463982,0.316592,-0.264611,0.466616,0.843949
-0.036250,-0.454917,0.410718,0.621308,-0.658567,-0.424577
-0.052141,-0.306395,-0.015643,0.007743,-0.562265,0.826921
-0.080626,-0.303131,-0.071620,0.825826,-0.209518,0.523559
0.119940,-0.278774,-0.227952,0.904352,-0.285717,0.317037
-0.801672,-0.406800,0.663058,-0.501671,0.419207,-0.756698
-0.776366,-0.403382,0.638558,0.973208,0.059187,0.222179
-0.165135,-0.384228,0.843391,0.818826,-0.556554,-0.140613
-0.222104,-0.382297,0.783483,0.043518,0.664352,-0.746152
-0.176317,-0.378735,0.770167,-0.247886,0.952986,0.174272
-0.165842,-0.375607,0.739466,0.831697,-0.505255,0.230212
-0.123823,-0.371899,0.724267,0.662545,-0.252571,0.705154
-0.072386,-0.367884,0.711865,0.891395,0.420329,0.169524
-0.406075,-0.365508,0.444825,0.157150,-0.987234,0.025940
-0.362407,-0.361647,0.428630,0.918072,0.000595,-0.396412
-0.107228,-0.353180,0.512235,-0.506052,-0.570045,-0.647272
-0.093809,-0.350061,0.481977,0.921857,-0.034190,0.386019
-0.074976,-0.339818,0.374673,0.674443,-0.727117,-0.128165
-0.238347,-0.339963,0.256574,-0.575216,-0.122227,-0.808818
-0.162430,-0.335358,0.255466,0.175371,0.366768,0.913634
-0.356990,-0.324960,-0.003933,-0.468037,-0.655170,-0.593037
0.110052,-0.220105,0.133297,0.668272,-0.709745,0.222878
0.115231,-0.216696,0.093958,0.997278,0.003459,0.073654
0.103931,-0.213125,0.047559,-0.647336,0.555927,-0.521441
0.157839,-0.208973,0.034354,-0.207627,0.953215,0.219711
0.061793,-0.207042,-0.058913,-0.458083,0.867469,-0.194055
0.128295,-0.202138,-0.065834,0.723494,-0.604502,0.333367
0.203626,-0.197387,-0.069849,0.897106,-0.441812,-0.001367
0.173493,-0.194414,-0.129867,0.586386,-0.785064,-0.199565
0.175613,-0.190698,-0.173304,-0.168876,0.975319,-0.142246
0.189147,-0.186546,-0.208684,0.059963,0.995995,-0.066315
0.198328,-0.182974,-0.247165,0.727843,-0.581205,-0.363930
-0.455508,-0.312641,0.835944,0.930806,-0.348325,-0.110771
-0.347928,-0.304763,0.816233,0.637259,0.620267,-0.457351
-0.275190,-0.300312,0.815292,0.419902,0.089614,-0.903135
-0.285783,-0.297339,0.775233,0.940132,0.242662,0.239304
-0.260358,-0.293921,0.751148,-0.588964,0.269966,-0.761735
-0.193619,-0.289470,0.745556,0.054695,0.254756,0.965457
-0.192326,-0.286643,0.711588,0.877516,0.455898,0.148737
-0.158544,-0.283234,0.692292,-0.745192,0.370127,0.554703
-0.140889,-0.279372,0.664054,0.220131,0.593707,0.773986
-0.010122,-0.273870,0.689994,-0.007637,0.948350,0.317132
-0.064031,-0.272093,0.628204,0.719601,-0.688312,-0.091653
-0.098280,-0.269718,0.574774,0.919752,-0.078905,0.384488
-0.094045,-0.266599,0.539089,0.829565,-0.458690,-0.318475
-0.077095,-0.262883,0.510934,0.991878,-0.119899,0.042442
-0.113230,-0.260653,0.456923,-0.201927,0.842847,0.498834
-0.085805,-0.256492,0.431094,-0.724656,-0.644830,-0.243040
-0.050493,-0.252784,0.410940,0.983072,0.131709,-0.127370
0.360758,-0.241942,0.573002,-0.108247,-0.780376,0.615871
-0.049552,-0.249666,0.372265,0.814975,-0.507260,-0.280183
-0.016361,-0.245804,0.349094,0.891952,0.091176,0.442841
-0.010004,-0.242531,0.312578,0.853325,-0.514639,0.083565
0.020011,-0.238525,0.289462,0.568787,-0.674435,0.470765
0.014950,-0.235407,0.248185,0.126375,0.974844,0.183601
0.021423,-0.231545,0.210950,0.885877,0.394143,0.244691
0.053438,-0.227828,0.187668,0.980021,-0.003268,0.198868
0.088044,-0.223966,0.163970,-0.934092,-0.129199,-0.332836
-0.110641,-0.202881,0.606499,0.521902,0.763126,0.381126
-0.103697,-0.199907,0.572503,-0.365311,-0.443683,-0.818348
0.152071,-0.191740,0.658186,-0.489540,0.229970,-0.841109
0.198566,-0.187434,0.643319,0.858698,0.482877,0.171664
0.085687,-0.186691,0.551658,-0.111665,0.993317,0.029176
-0.020126,-0.185358,0.461823,0.881943,0.459886,-0.103347
0.135357,-0.150303,0.146474,-0.511425,0.764011,-0.393360
0.131122,-0.147185,0.104090,0.875479,-0.476205,0.082246
0.160663,-0.142879,0.077209,-0.384809,0.719159,-0.578560
0.170433,-0.139307,0.039614,-0.170108,0.978488,-0.116721
0.182438,-0.135745,0.003431,0.964767,0.108676,-0.239614
0.184675,-0.131883,-0.036821,0.982326,-0.041838,0.182443
0.177376,-0.128765,-0.082472,0.935534,-0.112243,-0.334930
0.157602,-0.125501,-0.136899,0.520678,0.853189,-0.031017
0.163608,-0.122229,-0.176515,0.096426,0.988470,-0.116746
-0.441266,-0.242241,0.842810,0.882331,-0.105712,0.458604
-0.387357,-0.238080,0.832152,-0.270641,-0.912599,-0.306457
-0.281781,-0.232877,0.844582,0.740433,0.657013,-0.141749
-0.299317,-0.230656,0.802834,-0.067166,-0.985371,-0.156626
-0.297317,-0.227538,0.769807,0.218343,0.231576,0.947997
-0.291314,-0.224419,0.736808,0.930830,0.085439,0.355325
-0.131945,-0.218174,0.775427,0.483397,-0.870215,-0.095145
-0.089807,-0.214312,0.759149,0.890728,-0.452688,-0.040951
-0.051200,-0.210749,0.740878,-0.232890,-0.219465,0.947416
0.151600,-0.202881,0.799402,0.943863,-0.303429,-0.130590
0.107580,-0.201095,0.743951,0.296873,0.898333,0.323827
-0.462688,-0.147031,0.866203,0.994225,-0.095221,-0.049503
-0.688441,-0.146587,0.696832,0.964218,-0.214899,0.155246
-0.680672,-0.143623,0.666463,0.872652,0.454887,0.177641
-0.722106,-0.141538,0.611787,-0.701047,0.653397,-0.285666
-0.300025,-0.128919,0.767565,0.091296,0.902888,0.420070
-0.479520,-0.129952,0.649770,-0.511156,0.837153,0.194662
-0.498587,-0.127432,0.605724,0.893077,-0.433100,-0.121812
-0.326153,-0.117778,0.613393,0.382066,0.901197,0.204619
-0.331333,-0.114505,0.575576,-0.116407,0.890249,-0.440347
-0.300847,-0.110798,0.552516,0.961516,0.101350,0.255372
0.174553,-0.094907,0.702646,-0.338304,-0.808461,0.481603
-0.198680,-0.099512,0.489258,-0.216345,-0.969971,0.111131
-0.137476,-0.094907,0.481977,-0.500935,-0.850211,-0.161880
0.271188,-0.080203,0.604700,0.341998,-0.801600,-0.490382
0.163138,-0.079306,0.514256,0.127137,0.985593,0.111545
0.153601,-0.076187,0.471042,0.974060,-0.186826,-0.127685
0.157602,-0.072924,0.434277,0.983629,-0.169493,-0.061203
0.109463,-0.067276,0.334476,0.983431,-0.111215,-0.143161
0.101930,-0.064013,0.290542,0.977587,0.091174,0.189764
0.111934,-0.056879,0.216100,-0.793720,0.538147,-0.283560
0.113230,-0.053470,0.175459,-0.377430,0.925720,0.024278
0.103697,-0.050343,0.129116,0.990226,-0.026337,-0.136966
0.045787,-0.047968,0.059104,0.962869,0.269692,0.012228
-0.050493,-0.045747,-0.031312,-0.059163,0.982593,0.176099
-0.008711,-0.041586,-0.052740,-0.099819,-0.993161,-0.060564
0.013420,-0.037724,-0.082943,-0.422568,-0.906313,-0.005796
-0.447857,-0.053171,0.812551,0.981966,-0.188640,0.012515
-0.132178,-0.040399,0.887492,0.835916,-0.464798,0.291901
-0.320503,-0.041731,0.767067,0.996687,-0.079398,-0.017642
-0.022245,-0.031932,0.869027,0.998944,0.001218,0.045938
-0.382181,-0.033862,0.632301,0.174342,0.860467,-0.478749
-0.403955,-0.031188,0.585515,0.032413,-0.376180,0.925980
-0.334745,-0.023465,0.546563,0.366778,-0.820712,-0.438070
0.051082,-0.012478,0.690686,0.465982,-0.223276,-0.856159
-0.130885,-0.013213,0.569237,0.957717,0.257772,0.127796
-0.088277,-0.009350,0.551906,-0.619947,-0.618038,-0.483420
-0.021893,-0.004301,0.545844,0.087787,0.651637,0.753434
0.040137,0.000005,0.537649,0.281551,0.722915,0.630970
0.067091,0.013366,0.401195,0.565883,0.617543,-0.546276
0.086628,0.016929,0.371435,0.679594,0.668363,-0.302395
0.017773,0.018860,0.297657,0.995051,-0.026817,-0.095674
-0.024012,0.021987,0.236669,-0.078918,0.948786,-0.305902
-0.191148,0.029412,0.032056,-0.698389,0.632191,-0.335541
-0.327683,0.137087,0.127898,-0.750654,-0.658897,-0.048726
0.211277,0.179266,0.030229,0.995657,-0.086171,-0.035244
0.029426,0.083322,0.958169,0.059715,-0.915216,0.398514
-0.522833,0.072181,0.708681,0.593655,0.512128,0.620724
-0.039785,0.088226,0.860168,-0.738663,-0.655706,-0.156293
-0.003768,0.092087,0.841343,-0.353096,0.648608,0.674263
-0.269655,0.089858,0.684790,0.987669,0.132462,-0.083451
-0.037429,0.097581,0.755882,-0.646743,0.363869,0.670316
0.025187,0.105603,0.712751,0.754106,0.655087,0.046738
0.003883,0.108278,0.667515,0.348559,0.918483,-0.186803
-0.007181,0.111242,0.627346,-0.437053,0.860508,0.261747
-0.003060,0.114515,0.592159,-0.468852,-0.882298,0.041567
0.021186,0.118222,0.567631,0.705125,0.708017,-0.038876
-0.016125,0.124613,0.473921,0.905091,-0.357228,0.230649
-0.253178,0.124613,0.319859,0.936734,-0.106328,0.333503
-0.303556,0.130405,0.218896,0.387563,0.910373,-0.144970
-0.509535,0.210305,0.663833,0.070852,-0.979442,0.188873
-0.376060,0.216397,0.688859,-0.669233,0.536897,0.513682
-0.119703,0.224121,0.770555,0.012348,0.645351,0.763787
-0.092749,0.227837,0.748269,-0.453185,0.858243,0.240918
-0.096632,0.231101,0.711699,0.430561,0.327850,0.840911
-0.293315,0.231699,0.583549,-0.301439,0.942458,-0.144597
-0.142775,0.237637,0.618597,-0.214912,0.256453,-0.942361
-0.473988,0.236304,0.425280,0.914850,-0.314213,0.253615
-0.312148,0.246103,0.425557,0.165637,-0.862140,0.478830
-0.022953,0.254271,0.527212,-0.752618,-0.590287,0.291765
-0.422551,0.255903,0.258761,0.310615,0.915180,-0.256835
0.051319,0.266454,0.451774,-0.460100,0.416653,0.784033
0.193386,0.272093,0.482503,0.893291,0.139699,0.427219
-0.549316,0.199464,0.750927,0.684360,0.666189,0.296382
-0.432673,0.204812,0.768395,0.347973,0.905968,-0.241117
-0.814265,0.358682,0.576185,0.929231,0.368609,-0.025654
-0.148540,0.389431,0.667737,-0.368714,0.117073,0.922141
-0.272011,0.392550,0.573472,0.277931,0.704599,-0.652912
-0.218925,0.396855,0.562648,0.100349,-0.990061,0.098538
0.142656,0.408286,0.660566,-0.493577,0.789178,0.365486
0.394656,0.414378,0.745224,0.070972,-0.720210,0.690116
0.308380,0.417941,0.667044,0.788872,0.040776,0.613204
0.316149,0.421956,0.633547,0.922903,-0.260395,-0.283626
0.237053,0.425075,0.557222,0.931596,0.203563,-0.301149
-0.160663,0.515073,0.737915,-0.554605,-0.556217,0.618899
0.019656,0.524437,0.752809,-0.488552,-0.824173,0.286453
-0.077213,0.527701,0.671418,0.234535,-0.803399,0.547306
-0.028718,0.532605,0.659099,0.398250,-0.916151,-0.045426
0.003531,0.536757,0.637478,-0.693716,0.621507,-0.363989
0.325682,0.543292,0.752976,0.960653,-0.277415,0.013666
0.344278,0.547453,0.725347,0.960502,-0.167377,0.222307
0.372529,0.551614,0.703421,-0.541801,0.806652,-0.236144
-0.144890,0.646517,0.800564,0.514020,0.855109,0.067623
-0.067443,0.655872,0.766402,0.604152,0.791605,0.091444
0.081686,0.673848,0.694230,0.701229,0.050412,0.711151
0.115583,0.682614,0.638004,0.944740,-0.325972,-0.034747
0.181615,0.837663,0.679336,0.938114,-0.278543,-0.205805
0.415727,0.846728,0.718675,-0.791988,0.591447,-0.151479
0.213867,0.963758,0.706688,0.920067,-0.349944,0.176114
0.213041,0.973712,0.632938,0.756537,-0.646060,0.101285
0.360758,-0.164708,-0.758627,0.804072,-0.587727,0.089693
0.348517,-0.123272,-0.722499,0.921688,-0.344685,0.177999
0.485404,-0.571957,-0.964651,-0.039534,0.029054,0.998796
0.363467,-0.579090,-0.964374,0.090269,-0.386568,0.917833
0.246116,-0.586216,-0.964070,0.086267,0.552471,0.829056
0.165842,-0.580423,-0.951086,0.234467,-0.032027,0.971596
0.416312,0.332693,0.121974,0.810032,-0.377557,-0.448663
0.247294,0.956932,0.637755,0.785709,-0.589645,0.187031
0.108521,-0.121041,0.182187,0.861982,-0.501868,0.071527
0.096988,-0.082723,0.212196,0.804392,-0.554768,0.212571
0.084983,-0.043218,0.243728,0.975437,-0.220020,-0.010708
0.076154,0.496508,0.666214,0.092215,-0.979134,-0.181086
-0.136298,0.494731,0.671806,-0.340801,-0.238514,-0.909377
-0.032249,0.617110,0.763911,0.730077,0.644709,0.226578
-0.034724,0.656914,0.794917,-0.217767,0.973626,0.068040
-0.355816,-0.323927,0.453324,0.148341,-0.985686,-0.080116
-0.383945,-0.249366,0.510547,-0.560603,0.578546,-0.592460
-0.053553,-0.028215,0.664968,0.307615,0.626004,0.716583
-0.113583,-0.009804,0.680831,-0.376255,0.766690,0.520209
-0.406427,-0.085543,0.633685,0.358939,-0.679000,-0.640407
-0.107343,0.076940,0.745861,-0.201841,0.041721,-0.978529
-0.097810,0.121640,0.778860,0.184504,0.625414,0.758166
-0.153130,0.141546,0.795692,0.604059,0.675417,-0.422995
0.319914,-0.208973,0.106111,0.013743,0.999844,-0.011053
0.029778,-0.286643,0.055145,0.536886,-0.834442,-0.124338
0.126061,-0.200796,0.118846,0.596673,-0.741906,-0.305869
-0.274716,-0.250255,0.825535,0.045962,-0.767386,0.639537
-0.322151,-0.227538,0.843170,-0.141936,0.777282,-0.612933
-0.392774,-0.212980,0.855655,-0.856602,-0.055321,-0.513003
-0.431143,-0.712166,0.165410,-0.934228,0.113891,-0.338005
-0.488231,-0.647704,0.215518,0.546702,0.779901,0.304750
-0.142890,-0.543438,0.609628,0.918741,0.350615,0.181616
-0.080626,-0.431158,0.688832,0.367200,0.869858,0.329410
-0.038370,-0.369225,0.732434,-0.158034,0.475792,0.865244
-0.002119,-0.311598,0.772631,0.634946,0.113519,-0.764171
-0.139714,-0.324960,0.767427,0.961587,-0.269004,-0.054657
-0.306731,-0.349472,0.754913,0.953148,0.235689,0.189633
-0.205509,-0.263626,0.813659,0.340986,0.773740,0.533905
-0.161959,-0.870043,0.666712,0.929146,0.310812,0.200209
-0.131707,-0.737857,0.644260,0.756702,-0.650915,-0.060923
-0.288254,-0.724785,0.666629,-0.098701,-0.861374,0.498289
-0.239643,-0.645175,0.742705,-0.891006,-0.153424,0.427282
-0.244349,-0.494133,0.162033,-0.627805,-0.337116,-0.701579
-0.081804,-0.409918,0.243064,0.104072,-0.351102,-0.930535
-0.269655,-0.376060,0.292812,-0.311886,0.893204,-0.323904
-0.121941,-0.298527,0.368251,0.840797,-0.541345,0.002549
-0.014831,-0.234065,0.431481,0.696314,0.701091,0.153683
-0.116291,-0.235851,0.436409,-0.718597,-0.589096,-0.369574
0.198917,-0.106193,0.557886,0.531156,0.847237,0.007884
-0.272952,-0.135600,0.556973,0.712380,-0.662873,0.230465
-0.009885,-0.024507,0.661397,-0.705799,-0.212497,0.675790
-0.252941,-0.070993,0.627013,-0.461474,-0.680368,0.569334
-0.092867,0.007728,0.702231,-0.286663,0.703349,0.650480
-0.270244,-0.017074,0.686423,0.654567,0.713276,0.250559
0.003297,0.126390,0.825203,0.095759,-0.698893,0.708787
0.013772,0.157138,0.858507,-0.540643,-0.742018,-0.396377
0.066621,0.200651,0.903023,-0.178208,0.547669,0.817497
-0.002001,0.208529,0.916256,0.957350,0.226131,0.179851
0.345338,0.278629,0.095259,0.819622,-0.059539,0.569802
0.065794,0.739941,0.684375,0.800566,-0.488637,0.346884
0.205390,0.214321,0.458501,-0.702340,-0.204921,0.681708
0.213160,0.220558,0.493383,-0.096213,-0.980448,0.171654
-0.303200,0.176891,0.379380,-0.718575,0.669693,-0.187513
-0.164194,0.196345,0.451774,-0.414629,-0.875841,0.246953
-0.454330,0.174217,0.403299,0.896903,-0.426836,0.115651
0.375708,0.265412,0.704584,0.958000,0.178616,0.224349
-0.173730,0.218328,0.582221,-0.362130,-0.920008,0.149826
-0.287898,0.212834,0.582248,-0.007838,-0.993897,0.110037
-0.181263,0.234817,0.676595,0.135965,0.854213,0.501829
-0.272129,0.231699,0.684402,-0.004381,0.970457,0.241234
-0.079214,0.255313,0.769918,-0.599260,0.791279,0.121509
0.028836,0.276553,0.862383,0.680219,0.650657,0.337561
