-0.012185,0.691974,0.328373,-0.598514,0.773272,-0.209361
-0.063163,0.230903,0.723423,0.611850,-0.163049,-0.773986
0.419935,0.580512,0.387186,0.649127,0.725805,-0.227686
0.018149,0.565795,0.845888,0.844914,-0.010723,-0.534794
0.297198,-0.873578,-0.942997,-0.371009,0.565931,0.736257
0.427168,-0.800380,-0.912770,0.550343,0.492819,0.673982
0.626797,-0.337302,-0.939031,0.573255,0.809016,-0.129893
0.527473,-0.582458,-0.906761,-0.188041,0.197114,0.962178
0.256335,-0.429541,-0.968799,0.778511,-0.060116,-0.624745
0.552197,-0.282118,-0.935206,0.126330,-0.462930,0.877346
-0.060957,0.195501,0.742290,-0.165650,0.604399,0.779270
0.384780,-0.823160,-0.929271,-0.351362,-0.326841,-0.877337
-0.374520,0.066144,0.856187,0.157222,0.579306,0.799804
0.012177,0.341654,0.385874,0.908494,0.326089,-0.261350
-0.288978,0.624790,0.169303,-0.383898,0.874462,-0.296544
0.074118,0.516650,0.892896,-0.085953,0.982132,0.167420
0.283679,-0.168061,-0.965641,-0.586044,0.099350,0.804166
-0.578309,0.462938,0.575976,-0.738873,-0.409237,-0.535343
0.299155,0.433166,0.591519,-0.696516,-0.428824,0.575305
0.546949,-0.634511,-0.940439,-0.157670,-0.439759,0.884168
0.309166,0.452406,0.387078,0.765159,-0.143994,0.627532
0.133439,0.604979,0.586009,0.961307,0.271265,-0.047997
0.506377,-0.217708,-0.939165,0.579619,0.573634,0.578780
0.515004,-0.453560,-0.939546,-0.152504,-0.380734,0.912022
0.291792,-0.822544,-0.943533,-0.015219,-0.482777,0.875611
-0.170938,0.191268,0.837278,-0.535106,0.644551,0.546091
0.317620,0.518094,0.631196,0.516102,0.830228,0.210620
-0.758932,0.319488,0.283699,0.440141,-0.384559,-0.811413
0.103222,-0.534495,-0.968896,0.293981,0.426434,0.855411
0.587842,-0.263862,-0.937751,0.828123,-0.550937,-0.103346
0.726442,0.192329,0.243407,-0.657046,0.077246,-0.749883
-0.254715,0.285408,0.729567,0.884299,0.246592,0.396495
0.168906,-0.575622,-0.953300,0.107317,0.304288,-0.946516
0.388064,-0.682501,-0.939997,0.177914,-0.435839,-0.882265
-0.172788,0.782968,0.849947,0.661816,0.749477,-0.016863
0.721352,-0.509184,-0.937462,-0.266526,-0.035921,0.963158
0.353229,-0.785579,-0.944562,-0.145946,0.418049,-0.896624
-0.024382,0.532650,0.847591,0.832004,-0.424329,-0.357371
-0.269184,0.345088,0.778026,0.782166,0.598753,-0.172371
-0.235908,0.573371,0.140390,0.226923,0.781367,-0.581353
0.130362,0.230718,0.639318,0.205764,-0.926115,0.316182
-0.625378,0.205731,0.688598,0.416229,-0.816092,-0.400934
0.432844,-0.197198,-0.933102,0.832886,0.035514,-0.552304
-0.535018,0.408438,0.832355,-0.653586,0.755166,-0.050489
0.348083,-0.831135,-0.936996,0.019073,0.922661,0.385140
0.460148,-0.722345,-0.913507,-0.440823,0.584937,0.680826
-0.127192,0.564140,0.747404,0.929068,0.292523,0.226413
-0.573675,0.731886,0.248177,0.766542,-0.457130,0.451048
0.659822,0.155443,0.277371,0.843309,0.305923,0.441861
-0.403602,0.777702,0.210455,-0.249239,-0.500506,-0.829080
-0.319294,0.059391,0.901683,0.619529,-0.021687,0.784674
0.409597,-0.590820,-0.950429,0.406749,0.749746,-0.521954
-0.086490,0.145695,0.782215,0.480595,0.873585,0.076663
-0.293527,0.735925,0.813412,-0.493240,0.032390,0.869290
-0.073801,-0.047076,0.477959,0.789324,-0.478966,0.384134
0.151417,-0.060192,-0.281912,0.712443,-0.380990,0.589297
-0.448264,0.354013,0.721831,-0.153330,0.417455,0.895668
0.355470,-0.245852,-0.948952,0.224155,0.458944,-0.859724
-0.386600,0.073895,0.911960,0.770534,-0.172144,0.613713
0.095686,-0.120185,-0.263461,0.934019,0.307037,0.182583
-0.020158,0.584074,0.906971,0.846833,0.515781,-0.129786
0.537224,-0.360906,-0.927839,-0.231754,0.426028,-0.874523
0.121901,-0.145957,-0.348093,0.820229,-0.565402,-0.086862
0.421613,-0.748548,-0.943425,0.887748,-0.138266,-0.439074
0.128419,0.339495,0.907858,0.097045,0.678878,0.727810
0.189481,0.210712,0.952848,0.861852,0.439133,-0.253718
-0.046521,0.143121,0.125367,0.731873,0.227586,0.642313
0.035623,0.058469,0.319699,0.993545,0.083636,-0.076641
0.226037,-0.204412,-0.960540,0.707243,0.190582,-0.680798
0.558689,-0.299755,-0.935444,-0.522235,0.232274,-0.820560
0.112222,0.268371,0.300786,0.915352,0.189868,-0.355077
-0.033017,0.198299,0.481237,0.990757,-0.070502,-0.115889
0.025360,0.052093,0.302794,0.988943,-0.144161,-0.034774
0.352454,0.388947,0.640335,0.703143,0.521014,0.483874
0.453862,0.493186,0.367699,0.329813,0.916809,0.225135
0.215957,-0.387727,-0.939419,-0.680160,-0.486633,0.548243
-0.505967,0.145898,0.907524,0.240287,0.493746,0.835749
0.056087,0.211905,0.397685,0.876287,0.179422,0.447133
0.329209,0.316392,0.595976,0.057294,-0.962548,0.264986
0.080322,0.160350,0.733145,0.577068,-0.677868,-0.455508
0.422168,-0.763461,-0.922399,0.147220,0.661650,0.735218
0.155438,0.513074,0.916410,-0.199710,-0.342985,0.917866
-0.299085,0.155817,0.316777,-0.330647,-0.936009,0.120666
-0.303216,0.761930,0.227150,0.136826,0.196982,0.970812
0.394019,-0.979705,-0.935956,0.563456,-0.135876,-0.814896
0.245402,-0.381745,-0.926276,-0.263736,0.618581,-0.740135
0.195982,-0.511655,-0.946383,-0.233776,0.329490,0.914760
0.402374,-0.777256,-0.922410,-0.001298,0.879089,0.476656
0.157574,-0.715405,-0.937469,-0.055960,0.858921,0.509041
0.211765,-0.228799,-0.380462,0.968466,0.219694,0.117512
0.116504,-0.033540,-0.471291,0.977425,0.069206,-0.199627
0.018227,0.447100,0.805803,0.218814,0.529118,0.819851
0.299020,-0.520368,-0.953593,0.796472,0.016119,-0.604461
-0.137758,0.534425,0.132984,0.924087,0.218909,0.313276
-0.004077,0.348155,0.739329,-0.575696,-0.212493,0.789570
0.012194,0.202560,0.430683,0.807066,-0.223621,0.546477
0.451588,0.564684,0.642809,0.257212,0.631852,-0.731167
-0.229377,0.186875,0.940578,0.070472,-0.933431,0.351767
-0.187783,-0.081158,0.619773,-0.721432,0.679968,-0.131071
-0.237963,0.312489,0.820193,-0.093937,0.579273,0.809703
0.150445,-0.114362,-0.245150,0.641106,-0.293098,0.709279
-0.313803,0.701715,0.737027,0.757032,-0.265600,0.596958
0.201054,0.190156,0.977075,0.760220,0.470653,-0.447829
0.308828,0.513783,0.615101,0.556840,0.797306,-0.232879
0.364003,-0.224673,-0.956747,-0.126067,0.699191,0.703732
0.124597,0.246275,0.608643,-0.291949,0.582264,0.758772
0.299008,0.393052,0.546876,0.127382,-0.793314,0.595337
0.519990,0.331984,0.356732,-0.761612,0.207378,-0.613955
-0.358686,0.760855,0.209074,0.424857,-0.535870,-0.729617
-0.388515,0.070290,0.725910,-0.761409,-0.096865,0.640994
0.298927,-0.326197,-0.947603,0.268594,-0.537390,0.799418
0.172095,-0.186879,-0.316850,0.927144,-0.373946,-0.023834
0.169707,0.763425,0.648461,0.163393,0.222244,-0.961202
-0.027754,0.513779,0.702813,0.287411,-0.793565,0.536330
0.517816,-0.503456,-0.926143,-0.338463,-0.875451,0.345005
-0.083709,0.373224,0.888050,-0.593495,-0.359277,0.720197
0.058324,-0.109401,0.272317,0.970246,0.197358,0.140256
-0.190109,-0.039746,0.819302,0.165033,0.202024,0.965376
-0.923840,0.293434,0.276722,0.440141,-0.384559,-0.811413
0.340495,0.444552,0.635739,-0.579700,-0.629981,-0.516790
0.669145,0.196295,0.252441,0.587795,0.073914,0.805627
0.173959,0.506201,0.554495,0.009707,0.464827,0.885348
-0.219489,0.304059,0.781140,0.593490,0.804841,-0.001077
0.661426,-0.581513,-0.926972,-0.103016,-0.309724,0.945230
0.627213,-0.555523,-0.930580,-0.656798,-0.068406,0.750957
0.321492,-0.590536,-0.956430,-0.066249,0.994147,0.085344
0.157672,0.086782,0.133493,-0.763161,0.250593,-0.595641
0.138240,0.235578,0.176172,0.796094,-0.582376,-0.164538
-0.040550,-0.028709,0.833850,-0.136013,0.803518,-0.579534
0.210770,0.672088,0.426851,-0.279348,0.867865,0.410821
-0.000183,0.151125,0.741001,0.273704,0.490953,0.827074
0.160293,0.189282,0.726300,0.569943,-0.795442,-0.206000
0.246861,0.452449,0.634736,0.433013,0.728322,-0.531080
-0.087641,0.185524,0.443590,0.127327,0.989462,0.068945
-0.232451,-0.113915,0.238817,-0.430211,-0.562304,0.706210
-0.564867,0.773152,0.167536,-0.345646,-0.766964,0.540644
0.574881,-0.257946,-0.944570,0.915830,0.393168,0.081693
-0.377096,0.097372,0.720266,0.325169,0.781537,-0.532414
0.222456,-0.137954,0.068304,-0.629196,0.771595,-0.093562
-0.057699,0.180590,0.449022,0.272804,0.934415,0.229014
-0.318897,0.501923,0.803346,0.492080,0.656672,-0.571523
0.426133,-0.795937,-0.942503,-0.224222,-0.137102,0.964846
-0.322819,0.435576,0.786502,-0.530198,-0.820527,0.213601
0.120115,0.319351,0.558532,-0.608261,0.756382,-0.240635
0.111948,0.290532,0.963341,0.047513,0.985936,0.160230
0.442025,-0.341739,-0.930276,-0.212630,0.844948,0.490767
0.240329,0.592541,0.555361,-0.757251,0.612941,-0.225554
-0.230266,0.441985,0.805777,0.824279,0.492106,-0.279994
-0.334661,0.068988,0.863485,-0.784418,-0.119923,-0.608529
-0.132103,0.667962,0.837550,0.998409,-0.053672,0.017307
-0.033674,0.301544,0.688628,-0.718928,0.300563,0.626741
-0.365194,0.526565,0.791563,0.793765,-0.389772,0.466921
0.298882,0.555027,0.401007,0.927793,0.298386,0.223978
0.324811,0.392606,0.609535,0.682540,0.718489,-0.133843
0.371616,0.514309,0.297735,0.864276,-0.412410,-0.288002
0.311586,-0.231207,-0.942082,-0.358116,0.885381,-0.296400
-0.214925,0.750623,0.811572,0.874954,0.269147,-0.402510
-0.205057,-0.069508,0.611804,0.169845,0.916298,0.362700
-0.095082,0.379171,0.325207,0.822741,0.189045,-0.536059
0.108369,0.112264,0.135307,0.455063,0.890278,-0.017964
0.047172,0.246299,0.739151,0.186704,0.982258,-0.017624
0.500072,0.691869,0.653449,0.307910,-0.459122,0.833306
0.046206,0.713481,0.378342,0.988488,0.084836,0.125276
0.315872,-0.768405,-0.929846,-0.052480,-0.353044,0.934134
-0.271381,0.503467,0.108818,-0.147116,-0.623278,0.768037
0.076157,-0.042384,0.107793,0.860730,-0.045509,-0.507024
-0.085271,-0.060174,0.460026,-0.275052,0.901535,-0.334038
-0.355219,0.486270,0.823537,0.053007,0.778798,0.625031
0.618809,-0.558053,-0.919078,-0.269836,-0.344747,0.899076
0.433311,-0.630693,-0.951123,0.720879,-0.033743,-0.692239
0.116441,0.705050,0.480244,-0.331533,0.863309,0.380503
0.089503,-0.138135,0.085911,0.986203,-0.026122,0.163469
-0.124984,0.160160,0.750141,-0.113381,-0.324730,0.938986
-0.071685,0.483219,0.862144,0.780420,-0.620116,-0.080013
0.130067,0.331392,0.525726,-0.454418,0.760148,-0.464414
-0.466707,0.319805,0.586058,0.911782,0.229175,-0.340782
-0.252169,0.325234,0.875491,0.219628,-0.087530,0.971649
0.483755,-0.393632,-0.922867,-0.142657,-0.194191,0.970535
0.527727,0.364655,0.869015,0.078124,0.933992,0.348647
0.013950,0.573032,0.639990,0.809788,-0.552499,-0.197452
0.259128,0.469698,0.636567,-0.305281,-0.055786,0.950627
-0.122368,0.553996,0.142990,-0.677696,0.384318,-0.626920
-0.046207,0.252575,0.720487,0.628722,0.293019,-0.720312
-0.115748,0.279395,0.714547,0.918383,0.253573,-0.303766
0.108495,0.632251,0.391734,-0.589110,0.601779,0.539269
-0.078710,0.171918,0.588022,0.350001,0.232209,-0.907512
-0.141184,0.148229,0.718376,-0.478994,-0.386234,-0.788282
0.366391,-0.890170,-0.913559,0.878181,0.231708,-0.418461
-0.445910,0.248274,0.595647,0.901938,0.414954,-0.119669
0.414448,0.467069,0.374891,0.818365,0.355863,-0.451265
0.127490,0.031906,0.475847,0.956590,0.280681,-0.078448
-0.636315,0.554510,0.578712,0.872970,0.264846,-0.409609
0.540112,-0.680541,-0.927757,0.154805,0.009996,-0.987894
0.404804,-0.643154,-0.956040,0.399967,0.123296,-0.908198
0.028340,-0.311607,-0.958921,-0.450126,-0.016214,-0.892818
0.440388,-0.232863,-0.947012,0.724564,-0.433120,-0.536110
0.492429,-0.638335,-0.930654,0.528402,0.287436,-0.798857
0.095701,0.935340,0.674217,-0.146051,-0.589135,0.794726
0.588632,-0.262595,-0.928581,-0.456106,-0.753761,0.473087
0.440953,-0.205946,-0.951307,0.994396,0.010255,-0.105221
-0.083473,0.443678,0.504037,-0.508650,0.260520,0.820613
-0.294916,-0.004323,0.850878,-0.249806,0.968250,0.009427
0.045022,0.554847,0.913901,-0.270543,0.463725,-0.843662
0.222910,0.477345,0.839804,0.391744,-0.903250,-0.175145
-0.424467,0.136008,0.590248,0.620121,0.784490,-0.004961
0.146584,-0.048208,-0.467749,0.942424,0.318137,0.103084
0.080277,-0.079394,-0.173013,0.954969,-0.072210,0.287785
-0.204930,0.082919,0.239926,0.602218,-0.624516,0.497306
-0.038984,0.492893,0.497898,0.893810,-0.446764,0.038787
0.505326,-0.427758,-0.936640,-0.329679,0.549864,0.767438
0.432331,-0.327005,-0.957965,0.613856,0.193755,0.765271
-0.061158,0.254573,0.658260,-0.313598,0.782540,-0.537855
-0.049582,0.210980,0.536677,0.257703,0.940853,0.219966
-0.224405,0.224390,0.764282,-0.507701,0.582894,-0.634409
0.094225,-0.161152,-0.228929,0.975261,-0.029365,0.219097
0.514829,-0.786898,-0.913167,0.788791,-0.187386,0.585402
0.585607,-0.431788,-0.949952,0.909855,0.057047,0.410985
-0.033684,0.458944,0.635134,0.713120,0.521039,0.469018
0.525337,-0.769141,-0.928684,-0.417451,0.494043,0.762664
0.580775,-0.676564,-0.926930,0.093137,0.984919,-0.145811
-0.236246,0.459089,0.658008,0.869661,0.326042,-0.370657
-0.173668,0.340630,0.628174,0.941242,0.149470,0.302858
0.133726,0.056449,0.002222,0.460627,0.847498,-0.263761
0.507869,-0.543112,-0.947571,-0.322766,-0.626126,-0.709781
-0.011328,0.051979,0.642564,-0.147787,0.983835,0.101135
-0.354950,0.199598,0.825863,0.503712,0.497954,0.705915
-0.517873,0.300257,0.796567,0.197196,0.421560,0.885099
0.187270,0.400665,0.854806,-0.663038,0.177796,0.727166
0.161248,0.108251,0.363872,-0.527284,0.762503,0.374914
0.586886,-0.516396,-0.942806,0.156084,-0.625631,0.764345
-0.101095,-0.133869,0.427962,-0.823101,-0.565909,-0.047450
-0.180141,0.097721,0.834560,0.873339,0.234496,-0.426956
0.363037,-0.267904,-0.969276,0.209618,-0.533492,0.819418
0.224113,-0.686680,-0.927611,-0.234124,0.256707,-0.937703
0.062922,0.330491,0.457861,-0.572784,-0.148579,-0.806129
0.187700,-0.417732,-0.897596,0.986431,-0.117262,0.114911
-0.204623,0.625965,0.741643,-0.148795,0.986981,0.061056
-0.781605,0.293047,0.299512,-0.373664,0.029516,0.927094
0.462410,0.383494,0.613405,0.132717,-0.893660,0.428669
-0.398065,0.648726,0.160386,0.364933,0.915578,0.168938
0.152885,-0.097759,-0.481389,0.873566,0.475390,-0.104340
-0.047446,0.116627,0.516988,0.722399,-0.680628,0.122006
0.291475,0.409807,0.454993,0.706036,0.546371,-0.450546
-0.288622,0.719940,0.809859,-0.322671,-0.015829,0.946379
0.109719,0.154545,0.461060,0.914843,-0.181405,0.360770
-0.270597,0.667136,0.782063,0.446063,0.346343,-0.825272
0.536380,-0.531732,-0.916771,0.488305,0.803335,-0.340897
-0.018157,0.195127,0.642851,-0.437092,0.633006,0.638947
0.632653,-0.388050,-0.923577,-0.672518,0.478957,-0.564198
0.295431,-0.225400,-0.960065,0.254039,0.239340,0.937113
-0.289712,0.137960,0.656413,-0.462609,-0.866831,0.186000
-0.051988,0.026990,0.733093,-0.103517,-0.075180,-0.991782
0.524382,-0.236208,-0.928798,0.429298,0.417853,-0.800689
0.091312,-0.238242,-0.008822,0.626283,-0.716031,0.308333
0.045108,-0.208694,0.014635,0.973451,0.223158,-0.050923
0.200780,-0.336287,-0.880984,0.988753,0.138459,0.056538
-0.279229,0.504799,0.140726,-0.345799,-0.769181,0.537387
-0.155627,0.069709,0.266660,0.918826,-0.316561,-0.235687
0.189475,0.313626,0.947530,0.019406,0.574054,0.818588
-0.196627,0.456650,0.794200,0.869580,-0.235990,-0.433750
0.692637,-0.432296,-0.932371,0.301724,-0.535386,-0.788875
0.055952,-0.005907,0.154146,-0.676715,0.288232,-0.677480
-0.206581,-0.044911,0.601851,0.566423,0.550734,0.613072
-0.360057,0.496297,0.776216,0.887618,-0.069372,0.455326
0.130253,0.452075,0.899076,0.958906,0.083565,0.271140
0.097143,-0.144226,-0.619854,0.694689,0.673682,-0.252113
0.193535,0.481180,0.438556,0.865840,-0.419836,0.272137
-0.205711,0.424485,0.648286,0.394553,0.095882,0.913857
0.482479,-0.348291,-0.927590,0.198581,0.932028,0.303134
-0.028128,0.477699,0.847694,0.692612,0.716188,0.085813
-0.522768,0.079036,0.813431,0.763684,0.489547,0.420868
-0.101732,0.487441,0.345812,0.918365,-0.346364,0.191409
0.478904,0.603659,0.368536,0.849518,0.410344,-0.331566
0.385018,-0.147665,-0.948334,-0.382669,0.446908,0.808603
-0.315731,0.434340,0.718994,-0.581496,0.142412,-0.800988
0.207074,-0.180555,-0.956552,-0.688047,-0.147156,0.710589
0.234266,0.344648,0.362080,0.726104,-0.655981,0.206062
0.148246,0.308896,0.901621,0.159221,-0.405544,0.900101
0.209472,0.084890,0.137537,0.646300,0.689153,-0.327665
0.011079,0.193549,0.504884,0.932490,0.360607,0.020613
0.571351,-0.768092,-0.909238,-0.009610,0.998122,0.060504
0.188422,-0.789827,-0.949692,-0.193133,0.161401,0.967807
0.564630,-0.562663,-0.932994,-0.033199,-0.106685,0.993738
-0.205223,0.139601,0.854991,0.433997,0.833578,0.341752
0.109757,0.265102,0.647838,-0.292452,0.233507,-0.927333
0.729921,0.418909,0.304329,-0.333949,-0.474977,0.814172
-0.440532,0.065856,0.935348,0.975534,0.091872,0.199731
-0.503460,0.426059,0.633771,-0.191163,-0.972559,0.132609
0.061356,0.176342,0.722159,0.192180,-0.186935,0.963391
0.011428,0.581325,0.570289,0.060012,0.992988,-0.101846
-0.017324,-0.155202,0.207549,0.922963,0.384212,0.022792
0.564279,0.549027,0.404108,0.590731,0.631312,-0.502475
0.436651,-0.595668,-0.921670,-0.638944,0.092176,0.763711
-0.009370,0.523350,0.805074,-0.588027,0.794001,-0.154228
-0.302692,0.088205,0.642769,0.412809,-0.275357,0.868198
0.263861,-0.757670,-0.940925,-0.132186,0.538486,0.832202
0.201655,0.579189,0.601139,-0.205087,-0.762517,0.613602
0.064190,0.277056,0.600781,0.013821,0.800635,0.598993
-0.066706,0.212334,0.326342,0.185673,0.799196,0.571675
0.062422,0.314953,0.305281,0.021494,0.296302,0.954852
0.200539,-0.658605,-0.935127,-0.505315,0.287514,0.813629
-0.004079,0.455127,0.762753,-0.243256,-0.922285,0.300362
0.156807,0.218969,0.610561,-0.602566,0.678308,0.420491
-0.143301,0.087512,0.655274,0.081430,0.839444,0.537310
-0.245312,0.492984,0.115226,0.897464,-0.008493,-0.441005
0.503554,0.628008,0.388174,0.548669,-0.086733,0.831528
-0.402960,0.442589,0.487596,-0.437970,-0.648862,0.622222
-0.038028,0.469396,0.837094,0.580022,0.638512,-0.505842
0.099222,-0.154897,-0.975919,0.185940,-0.196254,0.962762
0.605865,0.070809,0.327842,0.081005,0.439348,0.894657
0.099961,0.175746,0.265563,-0.038423,0.698260,0.714813
0.478704,-0.776350,-0.927844,0.448890,0.206977,-0.869286
-0.445507,0.189020,0.542889,0.230840,0.972972,0.006180
0.246597,0.435854,0.575845,0.798840,0.503433,-0.329257
-0.304808,-0.081419,0.891699,-0.044880,0.384493,0.922036
0.028435,0.640096,0.356900,-0.835047,0.400881,0.376817
-0.527805,0.098238,0.899004,0.306369,-0.718118,-0.624856
0.590982,-0.622194,-0.933257,0.903833,-0.385388,-0.185909
-0.124873,0.216777,0.425570,-0.281648,0.918951,-0.276050
0.658370,-0.358385,-0.922524,0.953802,-0.087419,0.287436
0.626952,-0.691617,-0.933236,0.896776,-0.121950,-0.425348
0.129079,-0.065085,-0.237335,0.423502,-0.905528,0.025771
-0.223669,0.161876,0.847702,0.493552,0.861370,0.120199
0.139333,0.291249,0.812566,-0.124302,-0.892785,0.432994
0.221693,-0.463219,-0.960887,-0.514950,0.296198,-0.804421
-0.286161,0.714751,0.219702,0.127877,-0.575557,0.807701
-0.021555,0.374766,0.694219,0.750892,-0.466239,-0.467742
-0.160338,0.095668,0.641338,0.962078,-0.168473,0.214528
0.183736,-0.144276,-0.504979,0.248871,-0.952669,0.174601
-0.495112,0.259327,0.553042,-0.617848,-0.777203,0.119245
-0.345826,0.232810,0.414072,0.761167,0.647721,0.032898
-0.207346,0.076459,0.580598,0.147731,0.711575,0.686903
-0.098715,0.729204,0.182797,-0.104537,-0.588785,0.801502
0.578953,-0.359188,-0.945001,0.575446,0.647069,0.500164
0.143996,-0.006754,0.070976,0.387902,0.629935,0.672840
0.016727,0.220614,0.433974,0.920896,-0.327517,0.211384
-0.535516,0.278856,0.736271,-0.210170,0.681257,0.701226
0.178699,-0.057372,-0.975486,0.244729,0.422759,0.872573
-0.449138,0.267478,0.538669,-0.151510,0.580629,0.799947
-0.639922,0.211676,0.713586,0.618614,-0.780278,0.092100
-0.540462,-0.171874,0.767593,-0.476326,0.877160,0.060859
0.134710,-0.029044,0.000056,0.352451,-0.393495,-0.849082
-0.000104,0.370195,0.589820,0.514684,0.497835,-0.698041
0.176356,0.326823,0.761218,0.571032,0.765463,0.296627
-0.611078,0.809665,0.182510,0.860680,0.363448,-0.356560
0.385180,0.370119,0.631556,-0.489920,0.834624,-0.251754
-0.295454,0.092208,0.624921,0.850994,0.377338,0.365273
0.159122,0.599957,0.419612,0.140171,-0.981822,0.127978
-0.260656,0.434008,0.773299,-0.418355,0.813712,0.403550
0.048420,0.414307,0.838110,0.339257,0.675648,-0.654527
-0.547685,0.261861,0.711451,0.888865,-0.454067,0.061173
0.166484,0.653661,0.619406,-0.019823,-0.325559,0.945314
-0.006736,0.103604,0.720745,0.829316,-0.556185,0.053796
-0.033004,-0.158756,0.704019,-0.495422,0.240473,0.834703
-0.425150,0.177028,0.891458,-0.231531,0.889110,0.394812
0.016019,0.254096,0.241033,0.936175,0.284377,-0.206656
0.474806,0.073839,0.161362,0.171583,0.804123,0.569162
0.308954,0.354405,0.255467,-0.674346,0.735451,0.066094
-0.251747,0.104142,0.620074,0.927465,0.220205,-0.302190
0.539460,-0.532384,-0.934852,-0.497939,0.393405,0.772845
-0.099375,0.244593,0.601774,0.204275,-0.834185,0.512258
-0.344459,0.254442,0.674513,0.033751,-0.881712,0.470579
0.345145,0.416696,0.644271,-0.535401,0.333765,-0.775853
0.453151,-0.810130,-0.919246,-0.662424,0.121698,-0.739178
-0.443439,0.360544,0.519909,-0.180904,0.938737,-0.293338
-0.495083,0.347484,0.815745,0.821073,-0.287529,0.493119
-0.069066,0.138600,0.561306,0.642516,-0.705997,0.297895
-0.200797,-0.077843,0.614186,-0.214007,0.902039,0.374869
-0.053326,0.259967,0.612747,0.629325,-0.744149,-0.224035
0.204374,-0.072230,-0.953437,-0.104315,0.299659,0.948326
-0.154004,0.128688,0.448313,0.596290,-0.382054,-0.706026
0.043369,-0.128376,-0.113826,-0.605612,-0.758379,-0.241028
0.129508,-0.019264,0.402552,0.828466,-0.558620,0.039846
-0.048662,0.423436,0.370504,0.898063,0.402627,-0.177127
0.010826,-0.159173,-0.049131,0.776158,0.168754,0.607537
-0.257215,0.143622,0.749728,0.941152,0.148796,-0.303467
0.375529,-0.696162,-0.957006,-0.181425,0.028224,0.983000
-0.767182,0.278704,0.297154,0.485598,0.719164,-0.496989
0.668017,-0.391947,-0.922953,-0.134946,0.019542,0.990660
0.313425,-0.702340,-0.947836,-0.840328,0.331039,-0.429257
0.392072,-0.845666,-0.920179,0.769681,0.635984,0.055823
-0.635033,-0.167439,0.739726,-0.499126,0.863596,0.071238
-0.192451,0.494299,0.601761,0.152729,-0.747830,0.646084
0.487936,0.424001,0.609055,0.046051,-0.469981,0.881474
0.379900,-0.927223,-0.924806,0.510053,-0.024695,-0.859789
-0.065475,0.454007,0.509952,-0.508650,0.260520,0.820613
0.407193,0.731359,0.361019,0.894792,-0.062843,0.442038
0.136195,-0.202809,-0.482514,0.905172,-0.163772,-0.392227
0.616935,0.338575,0.535029,0.080436,0.990825,-0.108613
-0.315988,0.142012,0.932789,-0.489713,0.565319,0.663774
0.463792,0.540435,0.626749,0.534978,0.135036,-0.834005
0.040394,0.130599,0.332378,0.254670,-0.958239,-0.130083
0.667621,-0.438067,-0.923611,-0.344433,0.319174,0.882890
0.174368,0.616132,0.508245,-0.326344,0.897673,-0.296112
-0.310322,0.311199,0.473991,0.383881,-0.903284,0.191608
0.661848,0.485235,0.326624,0.692648,-0.121282,0.711006
-0.451350,0.156845,0.344454,-0.381422,0.889640,-0.251113
0.212018,0.542757,0.883319,0.570443,0.785360,0.240425
0.151538,0.013718,0.168418,-0.127472,-0.575202,0.808018
0.548231,0.530740,0.374595,-0.096574,-0.903375,0.417836
0.218764,0.379757,0.396981,0.247772,0.915656,-0.316518
0.279961,0.717380,0.280440,0.444029,0.286178,0.849082
0.240062,-0.221219,-0.958071,0.770493,0.165117,-0.615692
0.461352,-0.925495,-0.926446,0.126064,0.990154,0.060858
0.366522,-0.536106,-0.935636,0.609309,-0.446944,0.654968
-0.189012,-0.041440,0.770475,0.743576,-0.111113,0.659355
-0.051432,0.376564,0.652827,-0.063882,-0.720465,0.690543
0.471281,-0.405665,-0.925378,-0.324702,-0.417721,0.848574
-0.102817,0.273861,0.801752,0.077427,-0.989700,-0.120411
0.271592,-0.502749,-0.939255,-0.289885,0.398950,0.869945
0.549824,-0.594006,-0.936192,0.972740,0.104955,-0.206790
-0.346962,0.582179,0.141602,0.015436,-0.249015,0.968377
-0.155318,0.633313,0.745601,0.976263,0.169281,0.135106
-0.144670,0.142793,0.795335,-0.395668,0.918175,-0.020026
-0.492218,0.244539,0.561634,0.516839,0.834725,-0.190031
0.683209,-0.606485,-0.914290,0.995020,0.077584,-0.062581
0.575859,-0.573578,-0.924429,-0.588638,0.444265,0.675377
0.388845,-0.102700,-0.937224,0.389618,0.731206,-0.559942
-0.265774,0.445983,0.587282,0.173201,-0.946472,0.272381
0.579480,-0.455513,-0.952179,0.751311,-0.601162,-0.272277
-0.321106,-0.015817,0.811038,-0.278350,-0.952999,0.119641
0.239598,-0.593631,-0.939326,-0.337189,-0.331366,-0.881192
0.545178,-0.815376,-0.899539,0.797516,-0.500020,-0.337564
0.622587,0.123732,0.292442,0.878130,0.220930,0.424356
0.308456,-0.738604,-0.931180,-0.277711,0.274122,0.920724
0.535847,0.349134,0.360762,-0.767741,-0.560662,0.310212
-0.413728,0.454056,0.560462,-0.195311,0.964150,0.179634
0.338556,-0.235524,-0.945320,0.234820,-0.398610,0.886549
0.130362,-0.683700,-0.943103,0.475740,-0.117891,-0.871650
-0.006260,0.281329,0.539219,0.118500,-0.724666,0.678835
0.002251,0.135260,0.834075,0.820590,0.122928,0.558140
-0.135873,0.275650,0.814283,-0.122345,-0.900097,0.418159
0.528224,0.491390,0.347753,0.815237,0.567547,0.115234
0.410554,-0.699200,-0.941532,-0.055516,0.996522,0.062148
-0.607397,0.358766,0.762625,0.900677,-0.429164,0.067824
0.400400,-0.256510,-0.968093,0.636231,0.079960,-0.767344
0.439581,-0.841154,-0.931047,0.505670,0.714065,0.484159
0.130216,0.617210,0.523502,-0.650892,0.576628,-0.493800
-0.564944,0.773934,0.257387,-0.654445,0.669857,-0.350703
-0.094912,0.186630,0.599676,-0.136748,-0.712186,0.688543
0.522940,-0.298040,-0.937604,-0.153879,0.126297,0.979985
-0.240384,0.728701,0.790210,-0.049738,0.994790,-0.088991
0.580155,-0.324495,-0.926488,-0.498870,0.265440,0.825028
-0.618393,0.403467,0.656856,0.868370,0.225208,-0.441832
0.075876,0.171268,0.297031,0.899718,0.394900,-0.185909
0.056265,0.824705,0.359540,-0.742778,0.190323,-0.641917
-0.211886,0.671084,0.814780,-0.511799,0.203987,0.834536
-0.376170,0.146105,0.914547,0.103459,-0.982581,0.154375
0.046997,0.149354,0.293420,-0.746118,0.225589,0.626433
0.172914,0.887266,0.633760,-0.678809,0.691423,-0.247293
0.125176,0.047396,0.339844,-0.679301,0.720450,0.139650
0.150125,0.520250,0.907387,-0.030177,-0.791476,-0.610455
0.212813,-0.067732,0.010243,0.242599,0.966413,-0.084803
0.347026,-0.320820,-0.911699,0.360957,0.588818,0.723189
0.334661,0.261656,0.446738,-0.231298,-0.747463,0.622736
-0.250381,-0.078822,0.504018,0.536696,0.655059,0.531842
0.501146,-0.387545,-0.944110,0.891217,0.336362,-0.304290
-0.648959,0.291149,0.560100,0.360575,0.931251,0.052504
0.582184,-0.807148,-0.932160,0.916513,0.235382,0.323418
-0.235514,-0.247337,0.219652,0.248106,-0.394416,0.884805
0.644978,-0.627083,-0.906251,0.814304,-0.553486,0.174818
0.004755,0.502113,0.780838,0.979528,0.017741,-0.200527
-0.043190,0.523327,0.612460,-0.655245,0.502988,0.563611
0.080063,0.392335,0.723336,0.754585,0.182961,-0.630180
0.450839,0.641177,0.361745,-0.523927,0.168813,0.834867
-0.161614,0.150673,0.263169,-0.645484,0.724396,-0.242075
-0.111683,0.635828,0.842404,0.533930,0.677969,-0.505249
-0.063188,-0.152480,0.242062,0.139201,0.652028,0.745307
0.156650,-0.065349,-0.962187,-0.476797,0.039701,-0.878116
-0.465504,0.131939,0.903274,-0.595364,-0.616530,-0.515202
-0.205944,-0.090248,0.604077,0.344845,0.863040,0.369112
0.130279,-0.308140,-0.993754,0.922251,-0.364509,-0.128789
0.136023,0.320187,0.762323,0.619284,0.373118,-0.690848
-0.527219,0.366806,0.821278,0.928784,-0.335557,0.157361
0.020157,0.140766,0.226567,0.188269,0.862557,-0.469627
-0.417094,0.012783,0.915021,0.951066,0.150650,0.269776
0.394258,0.473113,0.616647,0.946723,-0.054852,-0.317343
0.630090,-0.517085,-0.924849,-0.023870,0.438494,0.898417
-0.131703,0.441618,0.821988,0.453547,0.216688,-0.864489
0.267085,-0.704079,-0.959811,-0.054628,-0.222141,0.973483
0.354963,-0.523353,-0.940268,0.404364,0.554901,-0.727032
-0.862642,0.399282,0.294725,0.440141,-0.384559,-0.811413
0.086873,0.682680,0.596773,0.894766,0.376294,-0.240410
-0.025259,0.234096,0.478953,-0.056955,-0.911718,0.406850
-0.264762,0.740240,0.775165,0.448142,-0.503998,0.738346
-0.186215,0.382811,0.725524,-0.360694,0.932594,0.012939
0.147272,-0.292743,-0.679774,0.036345,-0.995422,0.088401
0.135760,-0.164742,-0.259028,0.891623,-0.354000,-0.282298
0.039108,0.633708,0.692145,0.884239,-0.268323,0.382263
0.462464,0.616370,0.341940,0.460842,0.624018,-0.631052
-0.040997,-0.009912,0.141213,0.941164,0.325041,0.092516
0.191770,0.454180,0.462128,0.755297,-0.606675,-0.247936
0.102946,0.333327,0.900631,0.542450,0.612093,0.575404
0.066733,0.079560,0.340297,0.367537,0.925518,-0.091284
0.508813,-0.281726,-0.955445,0.813463,-0.439320,0.381150
-0.456018,0.260695,0.603515,0.995258,0.096442,-0.012631
-0.285141,0.231574,0.449257,0.864160,-0.270158,0.424550
0.466354,-0.475250,-0.924966,-0.494413,0.320916,0.807817
0.717798,-0.404604,-0.941043,-0.671112,-0.028418,0.740811
0.267282,-0.184532,-0.975575,0.433529,-0.276063,0.857812
0.173282,0.426647,0.561604,-0.327027,-0.281333,0.902167
0.137106,0.323156,0.640433,0.069587,0.189315,0.979448
0.172524,-0.531369,-0.961849,-0.478155,-0.693211,0.539283
0.168661,-0.368698,-0.869655,0.999125,0.031837,-0.027132
-0.054573,0.364470,0.824591,0.870959,-0.239299,0.429146
0.292450,-0.673604,-0.939088,-0.191396,0.009114,0.981471
0.499582,-0.661339,-0.932599,-0.060265,-0.042877,0.997261
0.521951,-0.800770,-0.912328,0.918998,0.320512,0.229597
0.448732,-0.315909,-0.952116,-0.206548,-0.792885,-0.573299
-0.045096,0.376219,0.678681,-0.767236,-0.305101,0.564148
-0.367915,0.194175,0.844597,0.124138,0.842284,-0.524545
-0.180513,0.249121,0.083142,-0.245467,0.787583,-0.565207
-0.076341,-0.122607,0.298610,0.602402,-0.683698,0.411908
-0.042650,0.381887,0.719866,-0.054672,-0.803866,0.592293
0.319999,0.534450,0.267424,-0.484786,0.332920,-0.808794
0.607956,-0.372908,-0.949096,0.073310,-0.464909,0.882318
0.011311,0.413339,0.737460,-0.333053,0.409866,0.849167
-0.044712,0.392300,0.628917,0.816487,-0.576076,0.038546
0.461063,-0.798214,-0.932867,0.083365,-0.715180,0.693951
-0.503851,0.254801,0.489079,0.483510,0.838342,-0.251797
-0.038970,-0.112795,0.281516,0.561079,-0.532974,-0.633348
-0.114411,-0.092290,0.186865,0.846896,0.378231,-0.373776
-0.340221,0.357377,0.462846,0.627211,0.691397,0.358576
0.061289,0.266643,0.616121,-0.278212,-0.955482,-0.098244
-0.588476,0.359516,0.673005,0.808126,-0.381570,-0.448704
0.013584,-0.083057,0.705698,0.582015,-0.729817,-0.358645
0.197338,-0.130914,-0.968384,0.031777,0.276192,0.960577
0.563125,-0.304962,-0.950635,0.160770,-0.946284,-0.280534
0.305331,-0.713309,-0.956361,0.343308,-0.639171,-0.688186
0.325939,-0.694379,-0.955710,-0.149775,0.951282,0.269500
-0.255425,0.528568,0.887631,-0.484344,0.580861,-0.654226
-0.384256,0.091522,0.895859,0.061946,-0.914176,0.400556
0.220934,-0.546463,-0.959269,-0.472288,-0.310292,0.825023
-0.260506,0.143420,0.713678,0.999995,0.000644,-0.003177
-0.216850,0.498486,0.108080,-0.190798,0.488310,-0.851557
0.185619,0.401240,0.847346,-0.645684,0.435357,0.627341
-0.277399,0.018576,0.711977,0.988978,-0.045881,0.140772
0.414177,0.792106,0.376549,-0.330986,-0.809158,-0.485502
-0.502696,0.312196,0.845882,-0.285972,0.130357,0.949330
0.372046,0.413666,0.616664,0.567189,0.590628,-0.573982
-0.431415,0.469840,0.509582,0.677378,-0.708463,0.198087
-0.167640,-0.010485,0.426018,-0.542103,-0.773847,-0.327545
-0.171356,0.489993,0.797584,0.457062,-0.854380,0.247244
-0.117825,0.562624,0.827959,-0.785802,0.321652,-0.528257
-0.414406,0.082076,0.799570,0.190171,0.777194,0.599837
0.207598,0.379148,0.444996,-0.654879,-0.651358,0.383232
0.384542,0.498862,0.573007,0.423517,-0.698138,-0.577266
0.113467,-0.146150,-0.503523,-0.579041,0.751008,-0.317330
-0.025808,0.136907,0.332097,0.484359,0.820084,0.304727
0.346360,-0.049241,-0.950343,0.134354,0.368718,0.919780
0.709037,-0.366877,-0.922905,-0.330216,-0.296723,0.896054
-0.280129,0.765447,0.790974,-0.226997,-0.668476,0.708246
0.031411,0.240031,0.763106,0.351547,0.923614,-0.152815
-0.259272,0.028193,0.664335,0.473540,0.518584,0.711920
-0.400285,-0.006439,0.914607,0.917513,0.303766,0.256704
-0.012744,0.099404,0.358511,0.866158,-0.476025,-0.152218
-0.058812,-0.280054,0.757808,0.933855,-0.337637,-0.117966
0.363777,-0.105431,-0.229941,0.157916,0.981010,-0.112612
-0.006080,0.233526,0.555993,0.940681,-0.065113,-0.332985
0.480631,0.557674,0.651139,0.312126,0.552352,0.772971
-0.280790,0.414667,0.767924,0.707115,-0.391509,-0.588820
0.034662,0.573993,0.621788,-0.523955,0.693488,-0.494515
0.033633,0.228509,0.388933,0.867766,-0.423261,0.260446
0.212008,0.140553,0.138349,-0.201501,0.944517,0.259394
0.245359,-0.367919,-0.915167,0.004556,-0.696095,0.717935
0.240129,0.522714,0.454203,0.918860,-0.291499,0.265940
-0.123924,0.238610,0.564899,0.857612,-0.513760,0.023476
0.584136,0.714457,0.397476,0.759955,-0.192085,-0.620944
-0.093634,-0.094576,0.351319,-0.693195,0.720656,0.011650
0.145514,-0.124068,-0.099090,0.982279,-0.013021,-0.186971
0.102367,0.307905,0.923138,0.893718,0.085917,-0.440325
-0.146997,0.008125,0.481794,-0.737149,0.059138,-0.673137
0.527044,-0.550414,-0.920554,0.400012,-0.806661,0.435074
0.372332,0.673132,0.381864,0.496063,0.652265,0.573124
0.663989,-0.471264,-0.913465,-0.541483,0.460653,0.703275
0.572306,0.626745,0.330791,0.847109,0.142870,0.511853
0.352735,0.341429,0.545469,0.400635,-0.841854,0.361626
0.312097,-0.314450,-0.965721,0.372780,0.646980,0.665171
0.197534,0.210823,0.912043,-0.753207,0.216002,0.621307
0.210878,0.770614,0.414490,-0.426667,0.811833,0.398601
-0.113409,-0.137020,0.832839,0.566278,-0.813054,0.135178
0.420493,-0.713299,-0.916543,0.432363,-0.222207,-0.873891
-0.507848,-0.117158,0.781783,-0.447595,0.868390,-0.213442
-0.390730,0.453586,0.887116,-0.502900,0.863825,0.029971
0.046600,0.093132,0.270009,0.954444,-0.298208,0.010431
0.414571,-0.407123,-0.945139,0.803958,-0.384059,-0.454037
0.059457,-0.152695,-0.187533,0.814070,0.497220,-0.300104
-0.413911,0.426417,0.852374,-0.293888,0.921428,-0.254165
0.286937,-0.520529,-0.934414,-0.346970,0.610733,0.711770
0.148847,-0.360877,-0.921622,0.901750,0.427622,0.063142
0.602906,-0.626803,-0.936914,0.974259,-0.225239,-0.009353
-0.124871,0.048957,0.765777,-0.304639,0.937007,0.170917
0.191464,0.328172,0.650158,-0.225181,0.372036,0.900491
0.538911,-0.343430,-0.926320,-0.211652,0.462803,-0.860823
0.108656,-0.635260,-0.939133,0.710552,0.640615,-0.291082
0.026031,0.051850,0.387289,0.962376,0.176799,-0.206337
0.059795,0.397092,0.839830,0.879809,0.129376,-0.457381
-0.023121,-0.175920,0.696230,0.068011,0.958679,0.276241
0.494660,0.678989,0.379865,0.671851,0.505038,-0.541805
0.162108,-0.666583,-0.952269,-0.248867,0.243483,0.937433
-0.095620,0.555657,0.796442,-0.242977,0.655892,-0.714680
0.124058,0.863900,0.660009,-0.507330,0.692469,-0.512936
-0.043397,0.421186,0.833844,0.911386,-0.289592,0.292426
-0.168257,-0.155060,0.241621,0.240934,0.555914,-0.795556
0.365096,-0.498019,-0.962798,0.473978,0.112180,-0.873362
0.208701,0.524041,0.623415,0.376224,0.903545,-0.205092
-0.405994,0.278515,0.668885,-0.100074,0.955149,-0.278702
0.424628,-0.423398,-0.957019,0.389726,0.033257,0.920330
0.102250,0.232688,0.616513,-0.010001,0.728753,0.684704
0.535180,-0.374734,-0.936418,-0.086828,-0.115070,0.989555
-0.139523,0.370661,0.733236,-0.498475,-0.732569,0.463536
-0.065961,0.282129,0.574270,0.747190,-0.648080,-0.147310
0.655029,-0.402764,-0.945809,-0.580096,0.226042,0.782556
0.390481,-0.934403,-0.940237,0.036490,-0.042787,0.998418
0.379466,-0.361751,-0.931200,0.884347,0.456074,0.099638
0.164141,-0.103416,-0.331256,0.600193,-0.794688,0.090767
0.223415,0.642736,0.570940,-0.699345,-0.144970,-0.699929
-0.478455,0.189484,0.791923,-0.345859,-0.574342,0.741965
0.023955,0.569996,0.737185,0.764783,0.627076,0.147929
0.477856,-0.720572,-0.912190,0.767855,-0.294132,-0.569109
-0.013538,0.572194,0.730799,0.182470,0.316588,-0.930847
-0.144399,0.746420,0.774071,-0.620144,0.418581,-0.663484
0.041494,0.566277,0.918903,0.183069,-0.857197,0.481351
0.290787,0.363575,0.227452,-0.525744,0.848992,0.052966
-0.109003,0.318056,0.709360,0.927652,-0.371716,-0.035915
0.175224,-0.189017,-0.915719,0.555180,0.726019,0.405798
-0.396574,0.310862,0.833557,0.963679,0.267056,-0.001918
0.268861,0.420132,0.856721,-0.499615,0.627589,0.597090
-0.088114,0.110846,0.873709,0.295940,-0.924762,0.239240
0.488096,-0.736611,-0.914152,0.860319,0.178588,-0.477449
-0.244898,0.043497,0.279735,0.689481,-0.000372,0.724303
-0.082099,0.360636,0.701253,0.208377,-0.303170,-0.929875
0.290896,0.402574,0.571302,-0.537979,0.589139,-0.602905
-0.496418,0.386449,0.700876,0.941741,-0.163072,-0.294163
0.294045,-0.702064,-0.950224,-0.670392,0.226406,-0.706622
0.018620,0.450971,0.764792,0.824366,0.566046,-0.003665
0.398540,-0.520542,-0.943206,-0.009530,0.301994,0.953262
0.616201,-0.378674,-0.931456,-0.279538,0.840212,-0.464652
0.178772,-0.682721,-0.952940,-0.100449,0.409811,0.906623
0.386440,-0.544661,-0.938304,-0.641837,0.223656,-0.733501
0.382102,0.384101,0.251335,0.930781,-0.356341,-0.081654
-0.019986,0.346945,0.551136,0.815227,0.553548,-0.170262
0.657554,-0.310918,-0.927580,-0.558084,-0.803220,-0.208280
0.140921,-0.321269,-0.960662,0.948427,0.027586,-0.315794
0.576070,-0.757944,-0.908596,0.156000,-0.642223,0.750476
0.594087,-0.770226,-0.918381,0.823770,-0.339313,-0.454170
0.369540,0.385964,0.629185,0.937276,0.348460,0.009477
0.032595,0.220219,0.510276,0.995887,0.073390,-0.053129
-0.260770,0.817778,0.811496,0.534668,0.752869,-0.383820
0.223038,-0.499600,-0.968557,-0.428242,-0.537610,-0.726349
0.426441,0.751776,0.344046,0.647764,-0.463286,0.604788
0.370348,-0.649484,-0.951129,-0.537138,-0.438239,-0.720714
0.099833,0.700068,0.335332,-0.448770,0.720528,-0.528626
0.589602,0.167540,0.324390,0.245788,0.252630,0.935824
0.021995,0.416208,0.699064,0.837042,-0.412301,-0.359679
0.576635,-0.207797,-0.934079,0.579994,0.386151,0.717283
-0.317118,0.637654,0.179326,0.123104,0.930385,-0.345295
-0.471097,0.372795,0.558832,-0.414583,0.874236,-0.252652
0.826511,-0.132753,0.292010,0.792594,0.595553,-0.130813
0.517439,-0.618750,-0.927208,-0.634634,0.698301,-0.331083
-0.561420,0.331893,0.706183,0.982940,-0.153401,-0.101472
-0.458193,0.694894,0.252823,0.028229,-0.709286,0.704355
-0.212021,0.609054,0.829603,0.457925,-0.309121,-0.833516
-0.162343,-0.034463,0.551369,0.115232,-0.979046,-0.167899
-0.661577,0.530904,0.578112,0.871511,-0.127395,-0.473539
0.048576,0.331318,0.573572,0.133111,-0.707011,0.694562
0.017276,-0.180989,0.723614,0.742524,0.037848,-0.668749
-0.109981,0.454024,0.833816,-0.576340,0.040675,0.816197
0.228035,-0.019875,-0.980012,0.681642,0.690535,-0.241919
0.207235,0.705896,0.542028,0.274767,0.684059,-0.675697
0.494206,-0.797823,-0.925600,-0.173371,0.119604,0.977567
0.116065,0.196383,0.613101,0.076690,-0.985229,-0.153110
-0.185676,0.229641,0.619448,-0.475055,0.873006,-0.110378
-0.058953,0.230362,0.519943,0.771727,0.478321,0.419101
0.537997,0.534028,0.382833,-0.369367,0.911287,-0.182000
0.378673,-0.797032,-0.911815,0.510458,-0.419714,-0.750515
0.427450,0.513971,0.358196,0.643221,0.690553,0.330762
0.016468,0.354792,0.747702,0.703475,0.136024,-0.697582
0.336499,0.069427,0.196414,-0.042784,-0.994405,-0.096581
0.084247,0.132585,0.353953,-0.672293,0.680863,-0.290598
0.377261,0.125421,0.183311,0.271506,0.813604,0.514133
-0.006113,0.377991,0.771584,0.776169,0.465788,0.424975
-0.047711,0.307812,0.634823,0.823702,0.472635,-0.313258
-0.586419,0.242177,0.846789,-0.422609,0.110613,0.899537
0.068563,0.041712,0.199154,-0.334727,0.932659,-0.134551
-0.133448,0.135153,0.627374,-0.273043,0.103165,0.956454
-0.086773,-0.108352,0.687917,0.962298,-0.261153,-0.076039
0.129557,-0.368016,-0.970592,-0.087602,0.244917,0.965578
0.115845,0.031596,0.080679,-0.680196,0.612171,-0.403212
0.043383,0.036396,0.235266,-0.858139,0.345928,-0.379384
-0.240148,0.034632,0.615958,0.602629,-0.647770,0.466082
-0.024204,0.234357,0.666652,0.665792,0.739970,0.095740
0.187291,0.439993,0.440455,0.958647,-0.127756,0.254312
0.082272,0.147322,0.054529,0.885143,0.436739,-0.160564
-0.139680,0.031203,0.636937,0.446586,0.296262,-0.844269
-0.249022,0.044495,0.647357,0.944778,0.317907,0.079563
0.352196,-0.222933,-0.942763,0.366464,0.012368,0.930350
-0.022218,0.297295,0.133465,0.905310,0.317448,-0.282208
0.238027,-0.428915,-0.952423,0.354612,0.914118,0.196566
0.097965,0.343182,0.647306,-0.289944,-0.176865,0.940559
0.074578,0.382948,0.637143,0.997689,0.022375,-0.064162
0.207537,-0.159403,-0.367493,-0.511004,-0.593828,0.621484
0.057370,0.142209,0.319554,0.726396,-0.687168,0.012217
0.567023,0.332647,0.306500,-0.673320,0.445486,0.590070
-0.211957,0.121018,0.790990,0.620312,-0.766182,0.167864
0.108468,0.225885,0.453434,0.857950,-0.073591,-0.508435
0.383221,0.510808,0.245849,0.739971,-0.269491,0.616293
0.057445,0.168057,0.467614,0.317928,0.368407,-0.873612
0.217564,-0.517228,-0.949376,-0.294032,-0.079858,0.952454
0.607399,-0.422427,-0.924738,0.584662,-0.507805,0.632696
0.205509,0.738628,0.470074,-0.443878,0.870334,-0.213287
0.553455,0.341523,0.307493,0.840821,0.541255,-0.007978
-0.098659,0.440010,0.867447,0.870750,0.397613,-0.289307
-0.608023,0.250067,0.713727,0.449287,-0.706148,-0.547262
-0.166339,-0.134106,0.771402,0.942866,0.308180,-0.126604
0.163441,0.317681,0.485377,-0.672217,0.701479,0.236751
0.032495,0.223465,0.470937,0.782863,0.603462,0.151522
0.183105,0.803520,0.671573,-0.412565,0.462761,-0.784629
-0.496991,0.157687,0.656419,0.249942,0.957221,0.145798
-0.583575,0.276723,0.741859,0.549945,-0.817201,-0.172460
0.422789,0.453175,0.635287,0.193548,0.978061,-0.077047
0.103666,-0.135773,-0.184378,0.913898,0.400631,0.065465
0.120519,0.368078,0.870418,0.976922,0.213036,-0.015489
-0.245398,0.025623,0.756818,0.542381,0.702097,0.461392
-0.300110,0.364060,0.729234,0.715866,0.697690,0.027641
-0.072272,-0.289949,0.788490,0.892528,0.130205,-0.431787
0.106770,-0.279519,-0.567180,-0.498673,0.866063,0.035506
-0.581569,0.358941,0.613421,0.199155,0.851258,-0.485487
-0.419264,0.190919,0.727592,0.398640,-0.353331,0.846312
0.191614,-0.170942,-0.068909,0.935625,-0.322340,-0.143883
0.035895,0.254443,0.424950,0.989591,-0.143078,-0.015433
-0.103575,-0.079266,0.692441,0.836345,0.073622,0.543238
0.012457,0.300152,0.693504,-0.613925,0.781032,-0.114389
0.037018,-0.114417,-0.209922,-0.696976,-0.204995,-0.687169
0.166159,0.363950,0.657443,-0.409542,-0.824747,0.389958
-0.240546,0.200832,0.811574,0.112364,-0.113170,0.987202
0.026909,-0.124506,0.012562,0.728324,0.044328,-0.683797
0.690618,0.463163,0.373759,0.160646,-0.912763,0.375574
0.118405,-0.625751,-0.963478,0.220812,0.207309,0.953029
-0.320441,0.837736,0.771655,0.799663,0.580259,0.154397
-0.628654,0.679376,0.282285,0.754895,-0.561197,0.339400
-0.301509,0.836674,0.212812,-0.562750,0.667256,0.487936
-0.102265,0.213103,0.276473,0.243497,-0.360619,0.900368
-0.105652,0.440932,0.772035,-0.340225,-0.808668,0.479899
0.581870,-0.660661,-0.918269,0.035313,0.474501,0.879547
-0.192117,-0.002908,0.595901,-0.060080,0.164019,0.984626
0.466592,0.583370,0.354340,0.932849,0.230980,-0.276481
-0.012337,0.489575,0.842642,0.605717,0.340547,-0.719121
0.268528,-0.632534,-0.947171,-0.476594,0.029844,0.878617
0.314272,0.450887,0.912417,0.769122,0.472151,0.430726
-0.223528,0.015748,0.594842,0.099760,-0.277259,0.955602
0.028586,0.355853,0.855034,-0.581234,0.653046,0.485488
0.108136,-0.095998,0.074628,-0.469647,-0.119416,-0.874741
0.480887,-0.688449,-0.919730,0.887602,-0.209087,0.410420
0.483690,0.768064,0.369747,0.816415,0.043866,-0.575797
-0.225434,0.639126,0.165816,0.885294,0.455083,-0.095679
0.570471,0.613313,0.416008,0.904969,-0.046542,-0.422923
-0.294125,0.244611,0.675578,-0.034815,0.640821,0.766900
0.614973,-0.313932,-0.947816,0.682516,0.692536,-0.233594
0.101614,0.458638,0.490819,0.400588,0.853222,-0.333980
0.766589,0.431846,0.304546,-0.303779,-0.377805,0.874632
0.060895,0.247399,0.642867,0.100434,0.950597,0.293733
0.297319,-0.778354,-0.930762,-0.032773,-0.303358,0.952313
-0.086370,0.176746,0.848518,0.125901,0.014237,0.991941
-0.332755,0.629396,0.205971,-0.120116,-0.815586,0.566031
-0.074264,0.286467,0.750744,0.044186,-0.861182,-0.506373
0.082707,0.800868,0.314609,0.841165,-0.472252,-0.263475
-0.564712,0.477961,0.640394,0.639512,0.653134,-0.405512
-0.384391,0.088725,0.687433,0.904077,0.388372,0.178358
0.419674,-0.178182,-0.954584,0.711261,0.048263,-0.701270
-0.406953,0.008271,0.885644,-0.248148,0.791434,0.558618
-0.139044,-0.158298,0.762676,0.875290,0.483333,0.016032
0.285591,-0.085040,-0.988265,-0.614837,-0.168408,0.770464
-0.366062,0.240392,0.444466,-0.447544,-0.888924,-0.097561
0.288479,0.546627,0.831147,0.148079,0.851033,-0.503801
0.152368,-0.242501,-0.278191,0.992953,0.107792,-0.049238
0.100305,0.504408,0.429953,0.703127,-0.235092,-0.671077
0.409156,-0.160776,-0.962659,-0.633243,0.117958,-0.764911
0.149919,-0.189700,-0.391603,0.900098,0.411665,-0.142674
0.168647,0.615202,0.902517,0.013042,-0.909905,0.414613
-0.573608,0.198004,0.694587,0.418510,-0.903521,-0.092193
0.386253,-0.522429,-0.931962,-0.419315,0.874057,-0.245358
0.342866,-0.668872,-0.921786,-0.355446,-0.398032,0.845712
-0.311141,0.018995,0.678017,0.486289,0.828075,-0.278954
0.496350,-0.351737,-0.944956,0.895195,-0.332226,-0.297071
-0.544848,0.359401,0.519272,0.878150,0.463827,0.117121
0.451237,-0.109078,-0.938347,0.812217,0.581944,0.040560
0.205927,0.540968,0.593814,-0.134094,0.666595,-0.733260
-0.082428,-0.077161,0.460739,-0.421902,0.858611,-0.291180
0.109815,0.577756,0.521071,-0.540606,0.647839,-0.536703
0.382836,-0.118946,-0.959710,0.541679,0.656652,-0.524779
-0.390451,0.232377,0.824381,0.595103,0.775657,0.210261
0.235700,0.341695,0.539759,0.074537,0.993749,-0.083109
0.299758,-0.625760,-0.961014,-0.059563,0.528931,0.846572
-0.156359,-0.001816,0.675808,0.166088,0.361734,0.917368
0.026139,0.634644,0.792092,0.556702,0.830518,0.017979
0.119926,0.199756,0.386209,-0.679216,0.300256,-0.669710
0.503458,0.538047,0.415125,-0.257272,0.908335,0.329755
0.219529,0.409982,0.433423,0.665466,0.383234,0.640536
-0.000209,0.083414,0.258456,-0.080744,-0.898521,0.431439
0.454900,-0.902682,-0.922942,-0.474760,-0.853671,0.214122
0.140425,-0.139661,-0.271300,0.992678,-0.030650,-0.116838
0.305448,0.700348,0.300808,-0.684257,0.729134,-0.012455
-0.149263,0.246262,0.666013,-0.245846,-0.122889,0.961487
0.084591,-0.400324,-0.975421,0.992564,0.118783,-0.026599
0.437861,-0.811416,-0.905686,-0.135574,-0.570956,-0.809709
-0.288559,0.628470,0.794058,0.862984,-0.436940,0.253656
0.193176,0.010212,0.116549,-0.287223,-0.957112,0.037932
-0.038168,-0.013861,0.410332,0.295224,-0.695170,0.655424
0.020645,-0.106706,-0.000530,0.842118,-0.108775,-0.528209
0.032897,0.604757,0.875360,-0.016125,0.832419,0.553913
0.234142,0.248779,0.994988,0.695276,0.718670,0.010237
0.147969,0.611559,0.595098,-0.706543,-0.678943,0.199583
0.136788,-0.635618,-0.943515,0.728193,0.685281,0.011137
-0.068052,-0.128379,-0.030545,0.972563,-0.131784,0.191714
0.023551,0.263394,0.788163,0.703184,0.388765,0.595310
0.231903,-0.523324,-0.972859,-0.709151,-0.168011,-0.684746
0.198058,-0.577518,-0.968041,-0.521240,-0.192795,0.831348
-0.144646,0.268358,0.738832,0.386144,-0.855719,-0.344438
0.028875,0.453501,0.707240,0.956164,0.090209,-0.278591
0.444232,0.675577,0.299248,-0.708749,-0.455200,0.538950
0.486979,-0.145515,-0.960070,-0.518143,-0.834624,-0.186898
0.024712,0.010278,0.163285,0.927832,-0.146101,0.343196
0.031872,0.063730,0.415459,0.927774,0.249784,0.277207
0.851101,-0.187492,0.354429,0.499096,0.866540,-0.003341
0.263526,-0.209019,-0.981238,0.402529,-0.210777,0.890811
-0.017699,0.393558,0.690199,0.100118,0.990583,-0.093391
-0.441193,0.016400,0.946481,0.688345,0.636375,-0.348149
0.241129,0.276906,0.425779,0.690940,0.457160,-0.560006
-0.260326,0.592853,0.731279,0.756509,-0.322596,0.568881
-0.029230,0.467502,0.832271,-0.777343,-0.094604,0.621923
0.096303,0.009124,-0.064562,0.840213,0.489895,-0.232475
0.143448,0.103541,0.304757,0.862260,0.495020,-0.107061
0.325463,0.525926,0.596145,-0.672949,-0.587317,0.449665
0.121752,0.209358,0.719398,0.100724,0.839460,0.534006
-0.446364,0.344747,0.484741,-0.794973,0.581056,-0.174336
-0.717214,0.403073,0.555283,0.255110,-0.783607,0.566461
0.398483,0.624278,0.379664,0.999850,0.000536,-0.017292
-0.062771,-0.232000,0.741313,-0.059297,0.971115,0.231128
0.709388,-0.176989,0.364520,0.644992,0.755057,0.117788
-0.208514,0.632527,0.780011,-0.673341,-0.083173,-0.734639
0.427681,-0.856422,-0.926138,0.142919,-0.243768,0.959245
0.213402,0.326868,0.883002,0.881661,0.005600,0.471849
-0.413439,0.693923,0.231940,0.309155,-0.935126,-0.173096
0.327815,0.380719,0.277904,0.702372,-0.560643,-0.438581
0.147779,0.623171,0.426340,0.232248,-0.949187,0.212379
-0.100241,0.319715,0.681053,0.344832,0.932532,0.107124
0.343402,0.435713,0.609108,0.357213,0.492377,-0.793703
-0.004909,0.201865,0.484330,0.994665,0.055609,0.086889
0.256885,0.668105,0.409083,0.327722,-0.709284,0.624111
-0.431590,-0.079842,0.755035,-0.188079,0.762503,0.619044
-0.166449,0.526250,0.150190,0.835977,-0.031436,0.547864
-0.074604,0.146968,0.589546,0.907824,-0.207769,-0.364264
