0.374507,-0.372464,-0.975806,-0.714857,-0.600980,0.357495
-0.053020,-0.870323,0.323504,0.861502,-0.287698,0.418382
-0.104340,0.094533,0.537916,0.976115,0.034041,-0.214571
-0.278507,0.208186,0.664164,0.977840,0.188334,-0.091427
-0.242428,0.468977,0.798588,0.948761,0.175858,-0.262538
-0.171886,0.338368,0.445717,0.975686,-0.166528,0.142494
-0.374608,-0.442430,0.156272,0.472324,0.848068,0.240190
-0.214299,0.281084,0.637838,-0.280984,-0.274806,0.919527
0.249891,0.023429,-0.035672,0.848222,0.527761,0.044585
-0.182866,0.165655,0.646528,0.661610,0.401385,0.633374
0.402783,-0.252137,-0.553485,0.409494,0.911886,0.027903
0.156264,-0.271666,0.191906,-0.451753,0.598578,0.661531
-0.121486,-0.243054,0.748535,0.983772,-0.179162,0.009637
-0.169749,-0.000294,0.014179,0.687975,0.722356,-0.069945
-0.274493,0.407082,0.731441,-0.704615,0.168709,-0.689243
0.754426,-0.222991,-0.960949,-0.343390,0.108607,0.932892
-0.028294,0.465817,0.935809,-0.353984,0.890179,0.286839
0.296998,0.041016,-0.090031,0.950919,-0.071282,0.301118
-0.445936,0.252522,0.832197,-0.756335,0.627022,-0.186551
-0.434501,0.421184,0.737478,-0.179319,-0.081352,0.980422
-0.179122,0.382402,0.713218,0.375552,-0.631227,0.678611
0.273575,-0.531901,0.573079,-0.248239,-0.839198,0.483863
-0.506039,0.053147,0.521761,0.964283,-0.003146,0.264855
-0.057780,-0.845991,0.342571,0.131398,-0.152013,0.979605
0.264578,-0.274626,-0.986064,0.496513,-0.685992,-0.531874
0.274528,-0.720028,0.525696,0.223141,-0.857907,0.462821
-0.153644,-0.384033,0.629128,-0.342678,0.584690,0.735330
-0.386979,-0.009604,0.204470,-0.743689,-0.613562,-0.265458
-0.555148,0.511737,0.729391,0.845748,-0.530721,0.055187
0.199962,0.149264,0.092167,0.901403,0.363204,0.235702
-0.211723,0.365821,0.846646,-0.557950,-0.566969,0.606001
-0.551178,0.101235,0.778125,0.975352,0.089350,-0.201756
-0.099054,-0.167670,0.670044,-0.475271,-0.627769,0.616461
-0.372663,0.322534,0.274621,0.072071,0.990188,0.119721
0.503682,-0.284314,-0.730837,0.927049,-0.370912,0.054816
-0.050738,0.126504,0.670647,0.243590,-0.939316,-0.241558
-0.795630,0.048962,0.567616,-0.419735,-0.842121,-0.338606
-0.041154,0.172071,0.547831,-0.487597,0.186975,0.852813
-0.156174,0.167686,0.664593,0.789927,0.528679,-0.310667
0.225530,0.441499,0.776636,-0.105028,0.798246,0.593105
-0.311913,-0.363438,0.073672,0.892108,-0.256000,0.372299
-0.290593,0.239999,0.846953,0.142848,-0.930351,0.337701
-0.443840,0.255975,0.900099,0.889610,0.181713,0.419016
0.045943,-0.001357,0.610609,0.436959,0.500918,0.747093
-0.130808,0.143015,0.446331,0.308124,-0.001021,0.951346
-0.307388,0.089592,0.785479,0.942569,-0.025414,-0.333042
-0.374333,0.234494,0.836095,-0.494927,-0.867960,-0.041138
0.005909,-0.052290,0.690947,-0.692000,-0.319855,-0.647169
-0.579373,-0.567410,0.301170,0.863831,-0.113728,-0.490777
0.553599,-0.244604,-0.606605,0.939832,-0.228130,0.254308
0.386539,-0.225010,-0.571569,-0.226549,-0.939012,-0.258713
0.117688,0.157377,0.083093,0.822157,0.468179,0.323831
0.209983,0.087087,-0.063787,0.899535,0.294369,0.322776
0.222377,0.025789,0.655620,-0.592072,-0.794159,0.136975
-0.250833,0.390320,0.569454,0.969720,-0.158513,0.185786
-0.154451,0.166999,0.935962,0.204151,0.977793,0.047366
0.416705,-0.352611,-0.968093,-0.194669,0.056746,0.979226
-0.315381,0.229076,0.827428,-0.019607,0.995489,0.092828
-0.026693,-0.353274,0.552232,0.761083,0.515826,0.393289
0.206198,0.040548,0.293449,0.868964,0.493079,-0.042127
-0.098648,0.205196,0.415653,0.476077,-0.186996,0.859292
-0.252376,0.186762,0.616782,0.712559,0.576167,0.400364
0.102883,0.706825,0.620306,0.296993,-0.950980,0.086204
-0.164182,0.131197,0.437015,-0.000127,-0.970514,0.241046
0.043513,0.161620,0.844622,0.708394,0.619240,0.338702
-0.025022,-0.257685,0.502634,0.583104,0.317908,0.747613
0.515455,-0.259515,-0.555007,0.876021,-0.443087,0.190423
-0.065034,0.280559,0.481486,0.772853,0.458613,0.438602
0.321543,-0.608630,0.542051,-0.689966,0.327136,0.645700
-0.070999,0.160966,0.710145,-0.655409,0.708247,-0.262345
-0.382567,0.571911,0.786967,-0.141872,0.921974,-0.360329
-0.219638,0.837977,0.756070,-0.641242,0.668967,-0.375887
0.143876,-0.707665,-0.970278,0.091124,-0.052010,-0.994480
0.682870,-0.071688,-0.972519,-0.393027,-0.454524,0.799336
-0.532130,-0.105490,0.629284,0.009064,-0.935390,0.353502
-0.192361,-0.086494,0.719913,-0.276049,0.957493,-0.083697
0.604691,-0.385397,-0.959900,0.291461,-0.402663,0.867706
-0.419502,-0.829034,0.384546,0.208435,0.926761,0.312521
0.173652,-0.768729,0.558680,0.761452,0.375812,-0.528164
0.062076,0.478851,0.875050,-0.272411,0.930643,-0.244326
-0.102178,-0.431637,0.355681,0.760201,0.543687,0.355668
-0.303415,0.353643,0.557896,0.872936,-0.464489,-0.149105
0.066416,0.490052,0.934860,-0.536280,0.842736,-0.046903
-0.152962,0.173471,0.876056,-0.009842,0.912602,-0.408731
-0.036150,0.146072,0.466203,-0.337566,0.490326,0.803510
-0.492302,0.023614,0.720380,0.322492,0.250008,-0.912960
-0.287871,-0.063251,0.702007,0.646659,-0.719319,-0.253795
-0.178514,-0.036953,0.272840,0.018859,-0.965038,0.261429
-0.229997,-0.352706,0.356596,0.839078,-0.244119,0.486162
0.373538,-0.125852,-0.558646,-0.498423,0.866917,0.005389
-0.061032,-0.162981,0.561991,0.096720,0.817571,0.567647
-0.133212,0.226710,0.919838,0.015814,0.070275,0.997402
-0.308527,-0.247419,0.278610,0.184827,0.775096,0.604206
-0.108303,-0.102698,0.637587,0.942583,-0.152621,-0.297060
-0.067181,0.072458,0.556978,0.091377,-0.689359,0.718634
0.264109,-0.170193,-0.239854,-0.895450,0.263640,-0.358697
-0.702738,0.206662,0.653833,-0.666248,0.738861,-0.100984
-0.103991,-0.215062,-0.379609,-0.067059,0.840365,0.537857
0.348108,-0.140419,-0.411039,0.997316,-0.073031,-0.005290
0.659627,-0.260811,-0.954704,0.592537,0.295740,-0.749291
-0.163110,0.203294,0.478065,0.753806,-0.529047,-0.389727
-0.373831,0.279283,0.590359,0.520119,-0.808392,0.275642
-0.218104,0.259684,0.610415,0.104519,-0.322376,0.940824
-0.361704,-0.052540,0.231385,0.908371,0.418022,0.010966
-0.170599,0.215101,0.484999,0.757944,-0.574857,0.308319
-0.304617,0.261912,0.924151,-0.005634,-0.970184,0.242303
-0.586754,-0.008053,0.716463,0.720504,0.536647,-0.439187
0.221297,-0.389960,0.443838,0.585219,0.662604,0.467413
0.154551,-0.004670,-0.181454,0.995607,0.093577,-0.003061
-0.155224,0.166930,0.750428,0.822514,0.466249,0.325702
0.504916,0.072918,0.665811,0.323653,0.487271,0.811058
-0.015733,0.159573,0.372942,-0.306120,0.027002,0.951610
-0.278633,0.240726,0.616015,-0.085801,-0.155943,0.984033
-0.232883,-0.046632,0.175108,0.947854,0.148411,0.282041
0.313446,-0.847836,0.535018,0.866748,0.235465,-0.439664
-0.064228,-0.364878,0.770041,0.644946,0.725032,-0.241606
-0.612788,0.303423,0.632746,0.536706,-0.757483,0.371708
0.247549,-0.390693,0.443273,0.585219,0.662604,0.467413
-0.090117,0.273841,0.900242,0.883904,-0.130444,0.449108
-0.551613,0.340105,0.878897,-0.233049,0.321783,0.917684
0.074533,-0.568662,-0.974545,-0.091560,-0.028825,0.995382
0.669209,-0.210612,0.531278,0.335652,-0.363437,-0.869052
0.001624,0.355608,0.863894,0.930730,0.356423,0.081876
-0.141737,0.479258,0.939470,0.940769,-0.318477,0.116301
0.015306,-1.000000,0.322451,-0.668089,0.392928,-0.631875
-0.106563,0.874295,0.778254,0.360560,0.809058,-0.464136
-0.430316,-0.110882,0.684939,-0.111927,0.935580,0.334905
0.284440,-0.071910,-0.972337,-0.198490,0.317891,-0.927118
-0.472497,0.220672,0.922701,-0.502406,0.863808,0.037727
0.073797,0.565037,0.883990,-0.427605,0.895394,-0.124189
0.205998,-0.237823,0.398679,0.838776,0.293485,0.458609
-0.349525,-0.074557,0.594741,0.826253,0.200874,0.526266
0.019409,-0.422127,0.555781,0.454362,0.886867,0.083801
0.025662,-0.351375,0.552618,0.733616,0.670998,0.107560
0.038519,-0.072627,0.568583,0.873023,-0.090724,-0.479166
-0.187937,0.023285,0.768038,0.443396,-0.837714,-0.318804
-0.081293,0.254416,0.409852,0.572472,0.713735,-0.403557
-0.438076,0.266888,0.833128,0.862568,-0.501937,0.063536
-0.288456,0.151205,0.847271,0.826618,0.426022,0.367707
-0.488287,0.414551,0.763508,0.347435,-0.541073,0.765852
-0.341837,0.294815,0.716782,0.878430,0.322274,0.352847
0.702325,-0.458800,-0.959395,-0.658481,0.669945,0.342895
0.005687,0.303568,0.909411,0.754943,-0.601083,-0.262221
0.058297,0.103825,0.265395,0.852149,0.494453,0.171345
-0.491535,-0.227032,0.557795,0.727047,0.343345,0.594573
0.053785,0.126125,0.557330,0.790905,-0.548699,-0.270921
-0.318145,0.298303,0.760342,0.604639,0.796282,-0.018628
-0.061506,-0.203917,0.455550,0.941138,-0.281279,0.187461
-0.473780,0.174366,0.570508,-0.060447,-0.995085,-0.078434
0.173843,0.023414,-0.035624,0.260650,-0.943619,0.204072
0.097070,0.399334,0.699836,0.093608,-0.806189,0.584206
0.460886,-0.200365,-0.957879,-0.564372,0.784783,0.256125
-0.081106,0.008786,0.558999,0.812548,0.377305,-0.444305
-0.173534,0.346747,0.580257,-0.315577,-0.784039,0.534504
0.109636,-0.483327,0.211090,0.087683,0.831004,0.549312
-0.581738,-0.195537,0.563205,-0.165053,0.658422,0.734328
-0.101902,0.300532,0.785407,0.805587,-0.041549,0.591019
-0.231476,0.486854,0.842521,-0.352948,-0.780185,-0.516467
-0.315251,-0.257754,0.353267,-0.201413,0.493531,0.846085
0.016568,-0.125695,0.477648,0.888183,-0.329781,-0.319962
-0.498987,-0.124550,0.759139,-0.607874,-0.494672,0.621119
-0.215036,0.047639,0.715383,0.756634,0.625729,-0.189654
-0.197804,0.157473,0.572038,0.797814,0.593292,-0.107229
-0.085667,0.034858,0.308923,0.351760,0.331636,-0.875376
-0.184066,-0.053691,0.149097,-0.580826,0.755700,-0.302588
-0.401688,0.579993,0.871200,0.931337,0.164541,0.324865
-0.054210,0.532763,0.905556,0.873642,-0.036294,0.485214
-0.009318,0.327083,0.656820,0.965129,-0.116819,-0.234265
-0.252810,0.297246,0.543784,-0.187565,0.094908,0.977656
0.169520,-0.032054,0.630856,0.728096,0.421967,-0.540204
0.343615,-0.500394,-0.976331,-0.069139,0.090347,0.993507
-0.269655,-0.606419,0.257934,-0.786502,0.355437,0.505054
-0.024155,0.349253,0.472074,0.824136,0.215231,0.523904
0.855382,-0.118505,-0.958243,-0.286411,0.349235,0.892191
-0.470028,0.331806,0.865943,0.361072,0.175325,0.915908
-0.004666,0.256264,0.803448,-0.208516,-0.575652,0.790661
-0.638354,-0.094604,0.553274,-0.377702,-0.014541,-0.925813
-0.644218,0.006905,0.822820,0.917469,-0.356850,0.175806
-0.244192,0.271832,0.610124,0.388780,0.414506,0.822821
0.040356,0.501060,0.925916,0.209174,0.915850,-0.342732
0.101585,0.161572,0.273285,0.867645,0.492106,-0.070878
0.301016,-0.372875,-0.961732,-0.304845,-0.379033,-0.873730
-0.230192,-0.314922,0.606981,0.434821,-0.312031,-0.844729
-0.176625,0.121828,0.784281,-0.647875,-0.389278,0.654768
-0.182521,0.239931,0.366191,-0.268761,0.871615,0.409946
-0.031823,0.187592,0.524257,-0.659528,0.676080,-0.328541
-0.399282,-0.617852,0.341756,-0.326977,0.615974,0.716702
-0.312091,-0.060776,0.692385,-0.432458,0.855057,-0.286108
0.265901,0.716115,0.827068,0.874095,-0.485559,-0.013824
0.116053,-0.665995,0.283866,0.923718,0.375275,0.076904
-0.115531,0.161089,0.589973,0.357205,0.917507,0.174886
-0.290360,0.366503,0.595981,0.020095,-0.941263,0.337077
-0.240777,-0.029252,0.788080,0.253269,-0.962459,-0.097610
-0.286079,0.009123,0.171130,0.848896,0.115949,0.515685
-0.024108,0.155623,0.469604,0.458591,-0.496355,-0.737107
0.457019,-0.045506,0.683595,0.828801,-0.034913,0.558453
-0.085874,0.064402,0.616854,0.855411,0.442029,-0.269968
-0.373253,0.212717,0.818891,0.244259,0.960241,0.135186
0.080994,-0.437711,0.575954,0.718376,0.673361,0.174703
0.125815,0.154731,0.362325,-0.560477,-0.789578,-0.249866
0.094003,0.155704,0.498687,0.404648,-0.314140,-0.858823
0.387739,-0.515170,-0.967002,-0.118046,0.375589,0.919238
0.375982,-0.461957,-0.962917,0.100736,-0.134640,0.985761
0.008396,0.056456,0.486017,0.006267,-0.691232,0.722606
-0.118155,0.135102,0.354908,0.866088,-0.491390,0.091797
-0.099753,0.224244,0.803134,-0.778356,-0.033510,-0.626929
0.603456,-0.222158,-0.944436,0.647032,0.479771,-0.592596
-0.422962,-0.511687,0.253011,0.902603,0.424302,0.072636
0.090569,-0.214010,0.615183,-0.390611,0.892303,0.226312
-0.185274,-0.349563,0.149282,0.587628,-0.767134,-0.257292
-0.072870,-0.017963,-0.032269,0.356164,-0.929678,0.094051
-0.307947,0.115929,0.554765,0.783694,0.614057,0.093582
-0.201623,0.077951,0.729508,0.410817,0.857986,-0.308365
-0.439400,0.203274,0.773493,-0.101564,0.129795,0.986326
-0.096769,0.374469,0.851748,0.091530,-0.750475,0.654531
0.431118,-0.068565,-0.982854,0.414836,0.376808,-0.828207
-0.087970,0.712980,0.717589,0.813616,-0.384464,0.436138
0.252569,-0.698304,-0.985075,0.015819,-0.727520,0.685904
-0.242279,-0.012158,0.492402,0.088007,0.696191,0.712442
-0.442110,0.611222,0.831769,-0.133458,0.909273,-0.394223
0.051856,0.093682,0.692495,-0.147339,0.627454,0.764586
0.045318,0.119697,0.560503,0.953860,-0.298874,-0.028748
-0.270846,0.256856,0.918204,-0.164163,0.921923,0.350867
-0.684413,0.042983,0.828776,0.517935,-0.812291,0.268193
-0.103631,0.190975,0.857853,0.323785,-0.269661,0.906888
-0.311873,0.228657,0.587882,0.508243,-0.117533,0.853156
0.433088,-0.407139,0.247827,-0.423042,0.792741,0.438860
0.034279,-0.004544,0.003358,-0.646582,0.760452,0.060373
0.487189,-0.341188,-0.971323,0.053601,-0.278679,-0.958887
-0.394413,0.448712,0.892861,0.696966,-0.132795,-0.704701
-0.375109,0.317751,0.678478,0.515881,-0.613496,0.597905
-0.051857,0.726161,0.598141,-0.641413,-0.741560,-0.196668
0.197260,-0.504304,0.508955,-0.820233,0.280695,0.498426
-0.566103,-0.196387,0.551729,0.329087,0.943171,0.046145
-0.084563,-0.303081,-0.008982,-0.384205,0.886509,0.257853
0.552227,-0.430929,-0.957546,0.839606,0.015803,-0.542966
-0.112076,-0.232439,0.505996,-0.596310,0.226260,0.770209
-0.103354,0.133446,0.809164,0.342560,-0.670606,0.657982
0.240050,-0.835922,0.324659,0.453794,-0.108753,0.884445
0.227977,-0.221833,0.350371,-0.526662,-0.783190,-0.330515
-0.438322,-0.461052,0.584240,0.212819,0.959021,0.187045
-0.169958,0.264324,0.915071,-0.248998,0.529008,0.811265
-0.142228,-0.169910,0.311590,0.792538,0.248544,0.556875
0.393872,-0.022995,-0.410308,0.957841,0.210817,0.195185
-0.269568,0.370953,0.610019,-0.231397,0.968764,0.089170
-0.108230,-0.368604,0.034542,-0.773429,-0.632819,-0.036708
-0.161745,-0.350801,0.052429,0.600363,-0.705471,0.376662
0.386702,-0.096421,0.672328,-0.418347,-0.908161,-0.015138
-0.102995,0.122798,0.663042,0.030285,-0.905149,0.424015
0.578350,-0.290196,-0.953806,0.848385,-0.280225,0.449129
-0.045366,-0.095559,0.714338,0.917820,-0.289298,-0.271868
0.071633,0.413202,0.955471,-0.251719,0.964586,-0.078811
-0.168857,0.103807,0.766066,-0.310935,0.366341,-0.876991
0.307121,-0.482214,0.435852,0.993747,0.055792,-0.096712
-0.170082,0.191848,0.463444,0.066367,-0.318760,0.945509
-0.688580,0.060624,0.680756,0.766400,0.632211,0.113758
0.022427,0.083701,0.745548,-0.735682,0.387683,-0.555404
0.324200,-0.026490,0.676956,-0.639360,-0.577510,-0.507642
-0.734204,0.131741,0.688290,0.690403,0.716606,-0.099091
-0.019509,-0.417919,0.592096,-0.449078,-0.873033,-0.190109
0.119982,-0.738648,0.345736,-0.179799,-0.982151,0.055244
-0.222035,-0.141485,0.669545,0.748943,0.402863,-0.526104
0.285322,0.095133,0.088147,0.987084,0.060149,0.148484
-0.049054,0.143150,0.401395,-0.415888,-0.743011,-0.524378
0.003981,0.485357,0.505004,-0.552412,0.824270,-0.124176
-0.017776,0.241111,0.532414,0.686946,0.374841,-0.622575
0.168522,-0.808928,0.357289,0.309391,-0.787898,0.532442
-0.016484,0.324000,0.697002,-0.334252,0.901218,-0.275828
-0.362018,0.233870,0.581776,0.330624,-0.093052,0.939164
0.159935,-0.069261,0.626576,0.899375,0.039535,0.435386
-0.076647,0.011382,0.637616,-0.708780,-0.550896,-0.440619
-0.453228,-0.147847,0.704739,0.762860,0.189719,-0.618103
0.106917,0.065879,0.118909,0.860058,0.508339,0.043494
0.153741,-0.206150,0.355933,0.546120,0.810999,0.209840
0.044036,0.715146,0.799910,0.523311,0.267647,-0.809018
-0.283614,0.157871,0.908104,-0.819551,0.238688,0.520927
-0.408351,0.385784,0.790704,0.746884,-0.148800,0.648092
0.306018,-0.384449,-0.968343,0.036804,0.390682,0.919790
0.125676,0.607875,0.578853,0.561441,0.338669,0.755041
-0.026849,-0.065905,0.518699,0.962704,0.269627,-0.022388
-0.187160,0.202942,0.921036,0.894247,0.408503,-0.182890
0.154161,0.286851,0.815886,0.219882,0.125489,0.967422
-0.105379,-0.077936,0.482247,0.902469,-0.295653,0.313270
-0.128556,0.072810,0.561514,-0.065646,0.968991,-0.238217
-0.259819,0.733819,0.559312,0.500597,-0.729950,0.465378
-0.041957,0.389193,0.902634,-0.275333,0.642658,-0.714970
0.125467,0.270575,0.603227,-0.018352,-0.258530,0.965829
-0.288341,0.026551,0.664532,0.587839,0.208651,-0.781608
-0.671407,0.039759,0.556641,0.537631,0.731285,0.419733
-0.163835,-0.092087,0.679241,0.823077,0.370222,-0.430673
-0.215532,0.163472,0.597498,0.853656,-0.070919,0.515986
-0.355413,0.239656,0.905760,0.108041,0.675548,-0.729357
0.120580,-0.321415,0.683102,-0.560497,0.766216,0.314254
-0.195981,-0.361120,0.014286,-0.744729,0.478674,-0.465027
0.377267,-0.527590,0.564118,0.147601,-0.985977,0.077872
-0.209153,0.171737,0.624848,0.723044,0.490530,0.486404
-0.582099,0.369864,0.768195,-0.716374,0.193852,-0.670246
0.327544,-0.209643,-0.409394,0.962408,0.246923,0.113141
-0.307830,-0.170691,0.732272,0.153986,0.983650,0.093385
-0.111289,0.239053,0.644413,-0.353871,0.623251,0.697376
0.041414,0.311527,0.792471,-0.206495,0.316307,0.925910
0.075985,0.156368,0.346545,0.259418,0.962163,0.083337
-0.155416,-0.176161,0.027655,0.914254,-0.300389,0.271856
0.258660,-0.727931,0.538113,-0.561895,0.827209,0.000248
-0.313340,-0.592865,0.333541,-0.121713,0.849701,0.513024
-0.151826,-0.112358,0.733486,0.184515,-0.566408,0.803204
0.006916,0.324573,0.872759,0.981727,-0.178927,0.064790
-0.222862,-0.096812,0.710360,0.335514,-0.698109,-0.632514
0.244143,-0.704858,-0.976942,-0.193077,0.970765,0.142609
-0.207507,0.271095,0.726219,0.147515,0.050954,0.987746
0.465400,-0.135158,-0.480557,-0.136074,-0.984467,-0.110944
0.054434,-0.455336,0.528896,-0.727769,0.293438,-0.619876
0.136216,0.238780,0.096201,-0.062554,-0.996380,0.057571
0.097739,-0.808578,0.301631,-0.691667,0.273843,-0.668287
-0.546722,0.301795,0.752509,0.735050,0.595320,0.324493
0.029972,0.101634,0.727370,0.909620,0.360914,-0.205750
-0.365362,0.180265,0.858704,0.629950,-0.387826,-0.672870
0.518369,-0.147261,-0.452638,0.911271,0.308719,0.272540
0.236489,0.348314,0.715423,0.023603,-0.979003,0.202477
-0.299165,0.092885,0.783830,-0.153614,0.747457,0.646305
-0.048425,0.194586,0.933853,0.049387,-0.172543,0.983763
0.409813,-0.045844,-0.425863,0.988088,0.141950,-0.059434
0.712191,-0.215745,-0.961270,0.400839,-0.426965,-0.810573
0.047951,0.480905,0.870683,-0.129573,0.921681,0.365671
-0.172319,0.078543,0.753926,-0.346792,0.870844,-0.348376
0.298527,-0.683059,0.545021,0.243448,-0.899789,0.362096
-0.085074,0.070221,0.684948,-0.289309,0.190467,0.938095
-0.390882,-0.600492,0.301392,0.363470,0.931512,-0.013192
0.460177,-0.346353,0.458564,0.508405,-0.712726,-0.483266
-0.484609,0.447655,0.840054,-0.622591,-0.770447,0.137082
0.802125,-0.160091,-0.971499,-0.513114,0.425290,0.745548
-0.169974,-0.485264,0.633753,-0.590688,0.768629,0.245555
-0.320397,-0.324557,0.158632,-0.561267,0.827585,0.009073
-0.516578,0.270156,0.793321,-0.105295,0.986887,0.122336
-0.075730,0.804681,0.630465,-0.744093,-0.658651,-0.111820
-0.127394,-0.165037,0.631307,-0.058057,-0.737173,0.673205
-0.653812,-0.088271,0.613614,0.417424,0.872212,-0.254958
-0.334794,0.403193,0.713545,0.798462,0.187381,-0.572143
-0.389686,0.239768,0.859615,-0.705538,-0.528067,0.472612
0.063287,-0.726798,-0.983470,-0.084604,-0.043656,0.995458
-0.021584,0.440453,0.911769,0.558729,0.505388,-0.657575
-0.745751,-0.021636,0.332654,0.595135,-0.802168,-0.048376
-0.547807,-0.124403,0.604758,-0.287561,-0.802696,0.522482
-0.350900,0.305656,0.737791,0.598908,-0.378103,-0.705937
-0.120556,-0.026960,0.148688,-0.229300,-0.776313,-0.587162
-0.213251,-0.019152,0.668532,0.463375,-0.673187,-0.576284
0.063525,0.072138,-0.426243,0.181791,0.970850,-0.156212
-0.191601,-0.225009,0.612774,0.466364,0.554978,-0.688843
-0.173249,-0.065983,0.713353,-0.454984,0.882181,-0.121436
-0.101864,-0.701097,0.338226,0.908291,0.330022,0.257087
0.286843,0.085039,-0.117388,-0.739134,-0.669654,0.072419
-0.215595,0.280090,0.903307,-0.500177,0.823428,0.267935
-0.132649,0.239944,0.516559,-0.022843,-0.109461,0.993729
0.319191,-0.129234,-0.357365,0.711242,-0.700246,0.061569
-0.575547,0.102705,0.827014,-0.314938,0.875199,-0.367206
-0.022542,-0.191997,0.622762,-0.162529,0.871762,0.462186
0.034820,0.298348,0.854171,0.216108,0.794171,0.567969
0.266358,-0.280524,-0.991964,0.526835,-0.406562,-0.746426
0.159389,-0.259419,-0.095241,0.107603,0.974812,0.195355
0.284451,-0.714380,-0.982811,-0.435062,-0.041079,0.899463
0.013750,0.353263,0.898554,0.326550,0.851562,-0.410131
-0.116895,0.228176,0.610359,0.029854,-0.958259,0.284337
0.434546,-0.011309,-0.420459,0.988867,-0.041183,0.142991
0.573603,-0.297540,-0.980450,-0.496802,0.153320,0.854213
0.220843,0.834748,0.674398,-0.606725,-0.717119,-0.342965
0.072340,-0.250079,-0.107239,0.175074,0.948890,0.262595
-0.013186,-0.076033,0.517536,0.608947,0.792350,0.036939
0.091656,-0.722304,-0.973563,0.235468,-0.110179,-0.965617
0.179076,-0.003654,0.608180,0.890900,0.045734,-0.451892
-0.011390,0.339226,0.901430,0.423050,0.408632,-0.808733
-0.092956,0.158954,0.910659,0.118610,-0.644061,0.755723
0.038596,0.111448,0.735426,0.725527,0.675171,0.133247
-0.069272,0.101626,0.734240,0.265672,0.546282,0.794352
0.269135,-0.189055,-0.304131,0.997941,-0.062629,0.013821
-0.081857,0.213896,0.838887,0.726882,0.347955,-0.592090
-0.174388,-0.390615,0.045086,-0.205745,-0.968522,0.140121
0.010598,0.157845,0.177650,-0.124597,-0.947084,-0.295816
0.289192,-0.096426,-0.271095,-0.594893,-0.775786,-0.210378
-0.351034,0.041139,0.793071,-0.113922,0.224973,0.967682
-0.114320,0.294840,0.909213,-0.039989,0.998733,-0.030538
-0.258184,0.135682,0.526600,-0.714430,-0.645472,0.270103
-0.247195,0.102792,0.544742,0.305199,0.577666,0.757070
-0.564041,0.186449,0.605046,-0.542210,0.529862,-0.652115
0.249725,0.147533,-0.102187,0.860364,0.509638,-0.006566
-0.178619,0.183935,0.724772,-0.482867,0.807548,0.338683
-0.071809,-0.412240,0.662213,0.963143,0.239661,-0.122139
0.062980,0.099138,0.318911,0.256873,0.911531,-0.321136
0.073263,0.163956,0.471153,-0.425440,0.886742,-0.180802
0.158822,-0.540827,-0.973688,-0.020233,0.064218,0.997731
-0.610094,0.164019,0.768025,0.951252,-0.265340,-0.157209
0.069543,0.754634,0.570075,0.851457,0.419907,0.314164
0.577062,-0.223152,-0.968564,-0.087438,0.545348,0.833637
-0.136517,-0.104481,0.725184,0.988239,-0.129400,0.081482
0.269505,-0.494557,-0.989569,-0.007778,0.859008,-0.511902
-0.249901,0.021659,0.175040,0.881798,0.142902,0.449456
0.323063,-0.085579,0.376972,0.875313,-0.479906,-0.059316
-0.037513,0.114907,0.777787,0.537869,-0.774016,0.334060
0.040615,0.142534,0.302462,-0.315005,-0.948053,0.044349
0.539399,-0.358776,-0.836209,0.888185,-0.448741,0.098785
0.591273,-0.517912,-0.972223,-0.697539,0.556435,-0.451464
-0.170834,0.517243,0.978492,-0.393874,0.763762,-0.511402
0.466629,-0.376104,0.456361,0.508405,-0.712726,-0.483266
-0.723067,0.011631,0.541502,-0.000980,0.903218,0.429181
-0.621267,-0.230119,0.563513,0.069521,0.244366,0.967188
-0.815814,0.040925,0.668960,0.696156,0.680610,-0.228335
-0.170101,0.021429,0.758993,-0.479888,0.681387,0.552648
-0.114325,0.182330,0.367910,0.961506,0.173721,-0.212903
0.281842,-0.022384,-0.239800,0.755261,0.384577,0.530736
0.387044,-0.174129,-0.433426,0.894385,-0.351338,-0.276833
-0.121570,-0.037163,0.455971,-0.734258,-0.247708,-0.632064
-0.057014,-0.226183,0.706535,0.851494,0.415626,0.319708
-0.402771,0.264939,0.597462,-0.222963,0.936170,-0.271796
-0.165882,-0.103393,0.679404,-0.823329,0.567441,0.011810
-0.308841,0.504539,0.844759,-0.638352,-0.601924,-0.479786
0.473766,-0.496780,-0.956480,-0.385535,0.090225,0.918271
-0.315822,0.195486,0.531950,0.911937,-0.388808,0.131145
-0.405388,0.338617,0.279720,-0.139214,0.990262,0.000812
0.008521,-0.405230,-0.016297,-0.130090,-0.988330,0.079248
0.648730,-0.154286,-0.970887,-0.622410,-0.158364,0.766503
0.056629,0.475974,0.523940,0.869491,-0.314767,0.380667
-0.358287,0.203726,0.564145,-0.279390,0.903434,-0.325189
0.243896,-0.037965,-0.269338,-0.619249,-0.757648,-0.206155
-0.057728,0.367437,0.792861,-0.256166,0.503408,0.825203
-0.634002,0.003163,0.712478,0.656089,0.624592,-0.423595
-0.120768,0.202556,0.444737,-0.358148,0.016600,-0.933517
0.290599,-0.026246,-0.188774,0.966829,-0.117689,0.226694
0.452890,-0.087388,-0.974325,-0.140727,0.705635,0.694461
-0.198611,-0.180247,0.325608,0.663895,0.696784,0.271542
-0.256600,0.390827,0.231391,0.017913,-0.991125,0.131718
0.183264,0.040027,0.275047,0.479440,0.806833,0.345191
-0.480066,-0.458332,0.456206,-0.577698,0.344017,-0.740215
-0.054585,-0.299963,0.722305,0.212688,0.949724,0.229758
0.210385,0.010220,0.255204,0.401415,0.889093,0.219953
0.113931,0.656932,0.807763,0.974162,-0.203090,-0.098811
0.243484,0.053102,-0.203009,0.499352,0.864241,0.061114
0.343139,0.075945,-0.106722,0.869131,0.477245,-0.129801
-0.025691,0.332375,0.642587,-0.269392,0.409760,0.871507
-0.118770,0.095842,0.552787,-0.705985,0.707627,0.029152
-0.465466,0.052809,0.679075,-0.651590,0.382170,-0.655268
-0.343636,-0.478892,0.483954,-0.681617,0.729066,-0.062137
-0.021310,-0.087599,0.452356,-0.784843,-0.270833,-0.557379
-0.220444,0.209822,0.791196,-0.308321,-0.909458,0.278969
-0.031678,0.022663,0.436684,0.965825,0.179396,0.187081
0.447114,-0.099926,-0.967076,0.478804,-0.048435,-0.876585
0.309414,-0.752848,-0.973979,0.355606,-0.086213,-0.930651
-0.468974,-0.085656,0.536828,0.719901,0.647297,-0.250498
-0.168925,0.371642,0.853357,-0.361002,0.258078,-0.896143
-0.059411,0.291363,0.479850,-0.384660,-0.216087,-0.897409
-0.363075,0.392217,0.776297,-0.007082,-0.236102,0.971702
0.401981,-0.017373,-0.299291,0.725459,0.518318,0.452830
-0.553863,-0.012793,0.524856,0.817698,0.150176,0.555714
0.445348,-0.193321,-0.984639,-0.373363,0.294078,0.879840
0.592646,-0.132022,-0.951721,0.231021,0.708145,0.667203
0.467922,-0.132805,-0.516740,0.910764,-0.412887,0.005695
-0.036154,0.313547,0.829377,-0.035015,-0.268849,0.962546
-0.340976,-0.291416,0.288041,0.110664,0.975266,0.191335
-0.307716,-0.396137,0.516591,-0.660501,0.650376,-0.375166
-0.276273,-0.107832,0.304777,0.213934,0.117964,0.969699
0.190265,-0.138612,0.615596,0.484543,0.772634,-0.410189
-0.377748,0.129469,0.434033,-0.232227,0.931284,-0.280680
0.096780,0.089273,0.198863,0.896444,-0.425511,0.123811
-0.180474,-0.030010,0.673288,0.201847,0.648962,0.733557
-0.410549,0.306591,0.725219,0.429183,0.792047,-0.434123
-0.108967,0.210710,0.734984,-0.035199,-0.974227,0.222806
0.165774,-0.419274,0.530187,0.101522,-0.876370,0.470817
0.174217,-0.666952,0.623035,-0.345212,-0.934461,-0.087240
0.100280,0.254029,0.810545,0.760165,0.242035,-0.602966
0.207447,-0.775685,0.318102,0.635073,0.689551,0.348141
0.101214,0.173085,0.174964,-0.359787,-0.898255,-0.252371
0.101006,0.051019,0.150278,0.870036,-0.080841,0.486315
-0.236464,-0.000687,0.704851,-0.721351,0.175368,0.669999
-0.164634,0.479637,0.763355,0.365665,0.375422,0.851673
0.131977,0.114894,0.208699,0.953206,0.162234,-0.255103
-0.186692,0.120558,0.909574,0.719410,0.659710,-0.217327
0.288168,-0.447070,0.232207,-0.584190,0.218288,0.781711
0.344984,0.130259,0.728015,-0.594319,-0.744165,0.304966
-0.257406,0.192941,0.516715,0.855553,-0.310651,0.414155
-0.130837,0.218804,0.484352,-0.676456,-0.550331,-0.489431
-0.273913,-0.123392,0.578443,-0.187126,0.981265,0.045863
-0.348106,-0.072430,0.258524,-0.623710,-0.400161,0.671458
0.442298,-0.110851,-0.987736,-0.494134,-0.039629,0.868482
-0.026030,-0.342491,0.708309,-0.508273,0.737765,-0.444253
-0.242536,0.141832,0.839681,-0.426300,0.230610,0.874693
-0.574545,0.507049,0.818396,-0.775072,-0.622417,-0.108907
-0.240995,-0.110845,0.588613,-0.096126,0.883435,0.458588
-0.076457,0.039090,0.422512,0.948032,0.318041,0.009196
-0.272337,0.129918,0.808956,0.470383,0.507674,-0.721808
-0.875981,0.025398,0.582864,-0.702326,-0.450966,-0.550789
-1.000000,-0.182084,0.655867,0.966305,-0.243190,-0.084344
-0.079835,0.233583,0.453087,-0.143656,0.984971,-0.095895
-0.150232,-0.237226,0.348048,0.955491,-0.119267,0.269838
-0.154394,0.049477,0.305483,-0.565187,0.080916,-0.820985
0.367882,-0.131900,-0.377118,-0.126106,0.952521,-0.277131
0.207870,-0.278518,-0.990853,-0.299852,0.644845,0.703039
0.056660,0.646605,0.564684,0.998124,-0.049471,-0.036082
-0.305694,0.222015,0.725316,0.979600,-0.009861,-0.200714
0.057034,0.384915,0.622702,-0.739809,0.407444,-0.535418
0.435016,-0.125980,-0.456640,0.608698,0.735407,0.297765
0.310507,-0.663844,0.541118,0.155816,-0.950930,0.267308
0.374693,-0.021275,-0.490545,0.531428,0.844661,-0.064283
0.017044,0.147342,0.228372,0.890453,-0.407215,0.203149
0.306992,-0.143800,-0.361266,0.587918,-0.808328,-0.030955
-0.038979,0.155476,0.372967,0.524900,0.706369,-0.474893
-0.041216,0.218595,0.509256,0.606670,0.678257,0.414631
-0.337952,0.304258,0.614909,-0.475805,0.654467,0.587607
0.344390,0.471093,0.772745,0.965866,-0.259004,-0.004445
-0.186076,0.624118,0.801905,-0.098080,0.596794,0.796378
-0.256202,-0.336280,0.602231,0.638681,0.684397,-0.351692
-0.173532,0.185998,0.924435,-0.549302,-0.834691,0.039469
-0.451576,0.238452,0.758550,-0.596259,-0.629883,-0.497718
-0.475894,0.290306,0.758545,0.880932,-0.110837,0.460080
0.297687,0.320300,0.019331,0.095954,-0.163047,0.981941
-0.354620,0.268843,0.582747,-0.160642,0.971729,-0.173024
0.373480,-0.655143,-0.967718,-0.305687,-0.013677,0.952034
-0.080976,0.426185,0.924445,0.988601,-0.095351,0.116518
-0.194352,0.026263,0.683405,-0.619089,-0.391981,-0.680500
0.149027,-0.740763,0.372524,-0.722429,-0.590146,0.360311
0.064427,0.180953,0.645679,-0.328696,-0.861544,-0.386912
-0.126972,0.073096,0.703083,-0.212633,0.871952,0.441007
0.297329,0.179945,0.011314,0.966040,0.130138,0.223230
0.156527,-0.746796,0.315652,0.787076,0.578281,0.214717
-0.372392,0.195845,0.764996,0.875378,0.037139,0.482011
-0.036014,0.425589,0.779345,-0.077607,-0.993489,-0.083404
-0.262420,0.575108,0.717396,-0.528768,0.208949,-0.822645
-0.097587,0.492500,0.863931,-0.724044,0.644842,0.244825
0.422703,0.236221,0.638277,-0.010098,0.837625,0.546152
0.248981,-0.140949,0.590076,-0.333039,-0.319429,0.887158
-0.245732,0.250241,0.525764,0.648721,0.574366,0.499265
0.009063,0.236407,0.653585,-0.535365,-0.799057,0.273665
-0.300850,0.523826,0.770385,-0.681939,0.675133,-0.281344
0.609791,-0.245490,-0.970883,-0.611751,0.258412,0.747652
-0.409945,0.096525,0.727528,0.430873,0.492785,0.755984
-0.382277,0.377263,0.835257,0.314279,0.817820,0.482078
0.361266,-0.159418,-0.977080,-0.006389,-0.150509,0.988588
-0.225542,0.040343,0.706695,0.652611,0.179183,-0.736202
-0.333409,0.121530,0.515439,-0.105063,0.523854,0.845304
-0.157587,0.895190,0.820968,0.462804,0.868953,-0.175307
-0.198057,-0.061992,0.729896,-0.401614,0.850647,0.339273
-0.592170,-0.262755,0.563060,0.314307,0.510395,-0.800442
-0.436941,-0.180673,0.736196,0.259271,0.950459,-0.171481
-0.248576,0.144101,0.811710,0.529855,0.240071,-0.813400
-0.241398,0.209517,0.789346,0.499496,0.803667,-0.323454
0.081086,-0.765773,0.370073,-0.082362,-0.995714,0.042077
0.218582,0.566164,0.748094,0.373239,0.531248,-0.760571
0.041060,0.191260,0.427423,0.880753,-0.208995,0.424965
0.452320,-0.414280,0.463941,-0.679759,0.625598,0.382825
0.930717,-0.039100,-0.943300,-0.000851,0.208886,0.977940
-0.103431,0.212904,0.747934,0.336803,0.041387,-0.940665
-0.186528,0.767422,0.603920,0.585341,-0.681497,-0.439246
0.063807,0.160369,0.452342,-0.773721,0.424374,0.470386
-0.234763,0.191442,0.513221,0.118692,-0.432289,0.893889
0.428188,-0.135775,-0.363184,0.858799,0.512302,0.003328
0.642134,-0.306453,-0.801480,0.987167,0.138107,-0.080177
-0.202827,0.212494,0.512531,0.402714,-0.373113,0.835828
-0.358075,0.492831,0.850242,0.441049,0.582220,0.683005
-0.704490,0.421613,0.845784,-0.711211,-0.367297,-0.599392
-0.328716,0.524121,0.660434,0.796655,-0.418243,-0.436364
-0.163439,0.129716,0.920436,0.646844,0.256461,-0.718206
-0.236692,0.477099,0.573743,0.955797,-0.086930,-0.280884
-0.146176,0.186914,0.809236,0.735638,-0.671853,0.086318
0.365009,-0.536154,-0.967625,-0.563601,0.767212,0.306170
-0.412502,-0.142580,0.559068,-0.445020,0.752903,0.484864
0.001970,-0.960121,0.352361,-0.460310,0.322333,0.827173
-0.084452,-0.087154,0.669696,0.609545,0.641913,0.465191
-0.345108,-0.097598,0.257361,0.601313,0.446256,-0.662780
-0.178739,0.195047,0.869053,0.917123,0.397494,-0.029728
0.179366,-0.557522,-0.968733,0.409404,-0.701693,-0.583108
-0.100449,0.016640,0.130679,-0.461907,0.886917,0.004577
0.175717,0.136693,0.097842,0.915925,0.245760,0.317307
-0.346989,0.700112,0.850948,0.550107,0.248327,0.797318
-0.009351,-0.410566,0.574642,-0.532576,-0.841732,-0.088596
-0.167193,0.149137,0.589467,-0.547947,-0.708700,-0.444407
-0.377968,0.143920,0.721295,0.165135,-0.096492,0.981539
0.190944,0.033297,0.635992,-0.576838,-0.539466,0.613379
0.243169,-0.360920,-0.963182,0.830833,0.556432,-0.009943
-0.266494,-0.346873,0.373186,0.867583,-0.464987,0.176313
-0.371795,0.144917,0.825659,-0.375811,0.164953,0.911897
0.114978,0.061023,-0.060659,-0.545751,0.837240,0.034411
0.438620,-0.107420,0.661286,-0.710048,-0.486598,0.508973
-0.328000,0.545750,0.791145,-0.121141,-0.860783,0.494346
0.026572,0.189981,0.556374,0.914832,0.290837,-0.280171
-0.194407,0.115368,0.744645,0.088596,0.260515,0.961396
0.008086,-0.361101,0.563212,0.545599,0.837796,-0.020468
0.065132,0.199142,0.768491,0.965740,-0.253420,0.055893
-0.046515,-0.349637,0.767163,0.473624,0.874849,-0.101588
-0.203017,-0.119635,0.718012,-0.440751,0.602208,0.665645
0.580623,-0.343790,-0.897466,0.322267,0.943044,-0.082533
0.354107,-0.661804,-0.964379,0.338866,0.086002,-0.936896
0.010188,-0.285977,-0.042846,0.494101,0.596107,0.632867
-0.184524,-0.273186,0.604396,0.185882,-0.257320,0.948279
0.265566,-0.511262,-0.981232,0.573746,0.719502,0.391321
-0.366178,0.406246,0.712845,0.343526,-0.748841,0.566769
-0.209314,-0.307695,0.418895,-0.856358,0.002875,0.516375
-0.409365,0.479165,0.751061,0.601597,0.702434,-0.380351
-0.102664,-0.412882,0.644788,0.132035,-0.987133,0.090196
0.013071,-0.505561,0.598083,0.875156,0.240286,0.419957
-0.327294,-0.157372,0.235056,0.699240,0.666485,-0.258576
-0.090597,0.243996,0.661923,0.167331,-0.953334,-0.251306
0.348383,-0.059114,0.708683,-0.018289,-0.903652,0.427877
-0.483687,-0.240476,0.600571,0.315190,0.745332,-0.587482
-0.024835,-0.043580,-0.024470,0.888167,-0.450916,-0.088510
-0.373090,0.204064,0.930556,0.059515,-0.981011,-0.184594
-0.203340,0.343253,0.465231,-0.774516,-0.568862,-0.276623
-0.092843,0.033230,0.721110,0.858257,0.498157,0.123428
0.000207,0.098466,0.356865,0.123146,0.883177,0.452585
-0.003979,0.552581,0.983274,-0.151804,-0.658720,0.736915
0.005461,0.350401,0.925314,-0.062713,0.828820,0.555989
-0.128201,0.312198,0.419297,0.704576,0.674374,0.220888
-0.030065,-0.013889,0.443919,0.756834,0.645530,-0.102434
-0.337599,0.473340,0.727061,0.570282,0.648438,-0.504289
0.008279,0.143073,0.584888,0.991138,-0.093518,0.094337
-0.167883,0.527029,0.767138,0.490839,-0.792608,0.361731
-0.448702,0.185285,0.975156,-0.138372,-0.978258,0.154479
-0.106619,0.078633,0.291572,0.761739,-0.268518,0.589620
0.325313,-0.941438,0.534422,0.988109,0.125584,-0.088712
-0.099395,0.222304,0.564176,-0.599864,-0.079644,0.796128
-0.544539,0.439995,0.556201,-0.752922,0.516536,0.407798
-0.499614,-0.194615,0.552492,-0.271496,-0.956345,0.108139
0.032930,0.356540,0.846354,0.335043,0.751536,0.568278
-0.103424,0.231179,0.750937,0.489537,0.145074,-0.859830
-0.121968,-0.350181,0.463736,-0.127967,0.989660,-0.064782
-0.326769,0.097152,0.724563,-0.284584,0.327630,0.900928
0.162052,0.297503,0.786890,-0.796149,0.401050,-0.453106
-0.269409,0.561788,0.784029,-0.240853,0.918009,-0.315038
0.322563,-0.442822,0.248766,-0.468523,0.713980,0.520307
-0.896981,-0.070328,0.601372,0.410840,0.452786,0.791325
0.621972,-0.110167,-0.967195,-0.231673,0.144265,0.962037
-0.187368,0.183950,0.754276,0.614906,0.432881,0.659169
-0.365110,-0.314578,0.118240,0.666717,-0.745277,-0.007070
-0.076017,0.006860,0.716432,0.869478,0.489571,-0.065790
-0.044043,0.091082,0.544956,-0.693749,0.192077,0.694132
-0.339481,0.115459,0.765301,0.988558,0.028787,0.148070
-0.440933,-0.703660,0.383631,-0.355532,0.729053,0.584876
0.109237,0.365612,0.710344,0.540372,-0.775160,0.327301
-0.354117,0.079605,0.709563,0.320680,0.897317,-0.303292
-0.379555,0.147168,0.877024,0.516110,0.761663,-0.391791
0.254353,-0.091324,-0.210350,0.141234,0.763749,0.629873
0.470890,-0.310521,-0.664507,0.325557,0.897394,-0.297819
0.259179,0.080734,0.021173,0.791684,-0.550359,0.265220
-0.033928,-0.067014,-0.032435,0.988652,-0.053585,0.140339
-0.182838,0.021607,0.726075,-0.663009,-0.702284,-0.259261
0.198442,-0.498893,-0.974663,0.090992,-0.214107,0.972563
-0.405503,0.268669,0.751081,-0.000103,0.967249,0.253829
-0.264171,0.176301,0.741897,0.807289,0.468379,-0.359034
-0.022820,-0.181287,0.297822,0.490010,-0.235816,-0.839215
0.102708,-0.751653,-0.978661,0.162740,-0.001354,-0.986668
-0.420527,0.197496,0.824502,-0.428179,-0.799248,-0.421741
-0.001862,-0.327622,0.717652,-0.001354,-0.902549,0.430585
0.001211,0.236417,0.766508,-0.535735,0.713539,-0.451498
-0.248243,0.501579,0.540407,-0.720718,-0.095401,0.686633
-0.422628,0.066158,0.732953,0.483938,-0.167925,0.858840
0.623709,-0.265702,-0.955309,0.258763,0.187157,-0.947636
-0.435557,0.175441,0.905300,0.759529,0.311830,0.570857
-0.183159,-0.049265,0.720690,-0.712203,0.682132,0.165717
-0.353798,-0.097552,0.758523,-0.648666,0.235039,-0.723871
-0.174885,-0.593073,0.388827,-0.498442,-0.651702,0.571700
0.355376,-0.001434,-0.133510,0.738916,-0.503384,0.447893
0.084170,0.407631,0.710087,0.419140,-0.774688,0.473477
0.101395,0.309181,0.527724,0.604401,0.435878,0.666866
-0.401258,-0.552382,0.190405,0.992332,0.120204,0.028786
0.209792,0.198145,-0.011589,-0.516572,0.855776,0.028298
0.198876,0.209524,0.794095,-0.598790,0.604225,0.525702
0.352436,-0.658308,-0.964510,-0.232805,-0.413106,0.880423
-0.912130,-0.139868,0.676244,0.899915,-0.411314,-0.144823
0.051629,-0.327847,-0.034030,0.949009,0.295645,0.109433
-0.125860,0.109380,0.611369,-0.705346,-0.188823,-0.683252
-0.058276,-0.913789,0.336359,-0.608449,0.729452,-0.312554
-0.356871,0.282412,0.601673,-0.848291,0.451894,0.276033
0.447111,-0.054653,-0.981894,0.405157,0.744470,-0.530671
0.732064,-0.113615,-0.949780,-0.328579,0.224078,0.917510
-0.086322,0.073711,0.700523,-0.483960,-0.558074,0.674045
-0.473746,-0.088895,0.713797,0.640978,0.625635,-0.444666
0.270463,-0.214129,-0.165210,0.512247,-0.852840,-0.101328
-0.149966,-0.308227,0.009282,0.777454,-0.426974,0.461800
0.343258,-0.151029,0.501907,-0.293747,-0.892972,-0.341049
0.213108,-0.556971,-0.967774,-0.294695,0.726725,0.620505
-0.039716,0.165377,0.490094,-0.593119,-0.768769,0.239172
0.318584,-0.262705,0.404671,0.868096,0.451582,-0.206116
0.021138,-0.059537,0.627605,0.495722,0.730394,0.469876
-0.228919,0.241427,0.576786,-0.304205,0.219233,-0.927036
-0.346369,0.438114,0.705902,0.458062,0.672815,-0.580947
-0.279022,-0.155967,0.731207,0.591513,0.600138,-0.538467
-0.067263,0.286829,0.570529,0.820072,-0.485343,-0.303192
-0.132068,0.159077,0.561654,-0.285836,-0.809555,-0.512756
-0.544617,-0.361604,0.553665,-0.403260,0.411706,0.817239
-0.156043,0.215832,0.765798,-0.116447,0.979820,0.162459
0.131938,0.115258,0.213598,0.816267,0.575624,0.048634
-0.250151,0.006745,0.659561,0.090632,0.820361,0.564618
0.153416,-0.000723,0.594945,-0.577384,-0.574277,-0.580374
0.053831,-0.948385,0.293914,-0.726601,-0.069898,-0.683495
0.189270,0.318005,0.863016,-0.149500,-0.633804,0.758909
-0.136756,-0.844419,0.355420,-0.213071,-0.109635,0.970866
-0.288970,0.150756,0.772385,-0.559464,0.780466,0.279057
0.364476,-0.385090,-0.960013,0.384870,-0.370750,0.845233
-0.220956,0.093656,0.749780,0.809633,0.435722,0.393244
0.517879,-0.216941,-0.957145,-0.689666,-0.724125,-0.001887
0.153094,-0.423785,0.232443,-0.449425,0.795674,0.406103
-0.099200,0.045085,0.745857,0.049598,-0.734083,0.677246
-0.197827,0.283402,0.491341,0.197071,0.066352,0.978141
-0.003627,0.068861,0.208326,0.768953,-0.622065,0.147464
0.065763,0.280233,0.638619,0.879811,0.468753,0.078765
0.061056,-0.175918,0.771610,0.798548,0.482882,-0.359369
-0.265295,-0.136419,0.157938,0.989835,-0.057034,-0.130281
-0.153098,0.252834,0.772925,-0.623982,0.780435,-0.039587
-0.492513,0.095619,0.530069,0.930671,-0.241925,0.274452
0.281756,0.091920,-0.000084,0.947891,-0.111203,-0.298557
0.251910,0.732351,0.827088,-0.791605,0.608610,0.054359
0.310882,0.147974,-0.010384,0.931985,0.261433,-0.251112
-0.042761,0.649679,0.739223,0.813421,0.492985,-0.308726
-0.185935,-0.013994,0.111881,0.975352,-0.200771,0.091543
0.431737,-0.227966,-0.536136,-0.794642,0.583694,0.166866
0.417853,-0.063956,0.677775,0.755241,-0.034160,0.654556
0.144280,0.109934,-0.022529,0.972970,-0.156082,0.170202
-0.119630,-0.220042,0.619664,0.037284,-0.835766,0.547818
-0.453786,0.437918,0.819430,0.273641,0.961042,0.038962
-0.445745,0.455540,0.826137,0.458293,0.776258,0.432888
-0.073800,-0.041323,0.701859,0.810034,0.201269,-0.550759
-0.226359,-0.229373,0.159231,0.879628,-0.128117,0.458084
0.302126,-0.155961,-0.985333,-0.240583,-0.014374,0.970522
0.555652,-0.426558,-0.969679,-0.171758,0.514093,0.840361
-0.039943,-0.051970,0.301159,-0.464767,0.493914,0.734875
-0.142299,0.073238,0.348262,0.741509,-0.611347,-0.276441
-0.021199,-0.353612,-0.010459,0.722044,0.280500,0.632434
-0.138375,0.551994,0.707182,-0.594917,0.344808,-0.726072
0.080027,0.261037,0.884647,0.796037,-0.074350,0.600664
0.146432,-0.776648,0.305830,0.707193,0.249321,-0.661602
-0.412655,0.247027,0.583319,0.379447,-0.913259,0.148248
-0.012834,0.177444,0.192401,0.725648,0.682105,-0.090375
0.174955,-0.198408,0.159152,0.939141,0.048409,0.340104
-0.436041,0.409169,0.669464,0.558644,0.220134,0.799661
0.104786,-0.583330,0.469316,0.853160,0.400553,0.334179
0.048988,-0.268460,0.488994,0.932588,-0.188409,-0.307865
-0.467665,-0.085668,0.551640,0.393711,0.518276,0.759198
-0.541918,0.417505,0.771042,0.215259,-0.212610,0.953132
0.103439,0.156666,0.790092,0.217422,-0.942624,0.253354
-0.290082,-0.094819,0.207836,-0.686313,-0.725222,0.055027
-0.457793,-0.433594,0.148845,0.216169,-0.971964,0.092498
-0.029729,0.162574,0.789148,-0.645126,0.723129,-0.246773
-0.077785,0.311571,0.888646,0.910487,-0.319702,0.262304
-0.096218,-0.077642,0.140271,0.778748,-0.054383,-0.624976
0.282614,-0.042599,-0.276777,-0.790080,-0.565130,-0.237490
0.410887,-0.443811,-0.980214,0.060890,0.188071,0.980266
0.234774,-0.722178,0.548355,-0.673647,0.722284,-0.156542
-0.413445,0.140222,0.745574,-0.574240,0.802207,-0.163441
0.189173,-0.054679,-0.215375,0.968593,0.244391,-0.045826
-0.035098,0.139427,0.925686,-0.332365,-0.660485,0.673270
0.121298,-0.652349,-0.977247,0.297796,-0.035995,-0.953951
-0.168048,-0.183030,0.701771,-0.141242,-0.896300,-0.420353
-0.137143,0.210936,0.825074,-0.426273,0.904123,-0.029210
-0.044522,0.160210,0.729829,0.861959,-0.003588,0.506965
-0.028758,0.453335,0.901999,0.988109,-0.153614,0.006513
-0.388180,0.209590,0.899694,-0.065546,-0.575922,0.814873
-0.288292,0.024865,0.586472,0.410791,0.034991,-0.911058
-0.750972,-0.234590,0.564838,-0.576493,-0.163322,-0.800614
0.284542,-0.265722,-0.990806,-0.467992,0.659432,0.588331
-0.143715,-0.005587,0.658267,0.903935,-0.424537,0.051676
-0.348381,0.238093,0.857892,0.776419,0.573305,-0.261716
-0.287639,0.094725,0.745630,0.901622,-0.429424,0.051691
-0.130535,0.324329,0.755051,-0.289183,0.430649,-0.854935
-0.464954,-0.479913,0.462492,-0.577698,0.344017,-0.740215
-0.224409,0.320465,0.760631,-0.136046,0.590893,0.795196
0.068811,0.107905,0.290464,-0.606774,-0.773343,0.183754
-0.133879,0.097326,0.846582,0.133779,-0.748978,0.648949
0.308596,-0.532616,-0.986477,-0.188944,0.754848,0.628096
0.561700,-0.345888,-0.972120,0.582967,-0.270349,-0.766199
-0.046245,0.062387,0.712958,0.927538,-0.042622,-0.371290
-0.660555,-0.087635,0.554140,0.183499,-0.168949,0.968393
0.246693,-0.117477,-0.971207,0.784305,-0.039936,0.619089
-0.082095,0.365041,0.757284,0.265482,-0.877673,-0.399011
-0.290120,-0.380998,0.209183,-0.668513,-0.669214,-0.324412
0.419229,-0.056466,-0.439889,0.998096,-0.055352,-0.027215
-0.246629,0.142978,0.675402,-0.332372,-0.652242,0.681255
-0.198547,-0.489361,0.637692,-0.603756,0.780999,-0.159749
-0.290037,-0.290531,0.512438,-0.542102,0.587276,-0.601026
0.071130,0.174541,0.635512,0.696869,0.254472,-0.670536
0.068636,-0.641952,-0.983073,-0.330055,0.313437,0.890405
-0.094649,0.716141,0.618434,-0.363061,-0.684452,0.632228
-0.129916,0.021381,0.507611,0.915998,-0.018461,-0.400757
-0.549521,0.169727,0.886865,0.839601,-0.473756,-0.265753
0.506768,-0.301993,-0.681985,0.885713,-0.426431,0.183491
0.760885,-0.139846,-0.965278,0.239986,0.446855,-0.861816
-0.271030,-0.262862,0.231496,0.976224,-0.109200,-0.187247
-0.512447,0.483455,0.778167,-0.277248,0.542615,0.792908
0.306489,-0.429412,-0.965584,0.208421,-0.642450,0.737441
0.048281,0.199859,0.625651,-0.508434,0.618691,0.598930
-0.230921,-0.031938,0.667390,0.472867,-0.326067,-0.818582
0.069860,-0.053328,0.605400,0.780623,0.427096,0.456307
0.096785,0.284767,0.825901,0.669031,0.687748,0.281781
0.121434,0.392245,0.920573,-0.694785,0.659216,0.287591
0.745860,-0.288776,-0.936285,-0.690965,-0.256961,-0.675676
0.315845,0.390039,0.825293,-0.287765,0.571389,-0.768574
-0.181235,0.291391,0.509994,-0.751282,-0.581101,0.312883
-0.348565,0.221973,0.604586,0.736130,0.472058,-0.485051
-0.127739,0.195299,0.366751,0.315540,0.543131,-0.778102
-0.136645,0.129493,0.679911,-0.565511,-0.817380,-0.109946
-0.109924,0.045327,0.775316,-0.156360,0.376899,0.912961
0.097607,-0.511546,-0.976998,0.184562,-0.315187,-0.930910
-0.100502,0.167121,0.402206,0.432856,0.823825,0.365989
0.121266,0.136663,0.179386,0.644029,0.759490,0.091659
-0.684015,-0.049271,0.251817,-0.171417,-0.984885,0.024862
-0.089584,0.114613,0.657176,-0.232979,0.969997,-0.069466
-0.269244,0.270362,0.785137,0.902140,0.393039,-0.177942
-0.278659,-0.264262,0.708718,0.401455,0.066529,0.913459
-0.170055,-0.276769,0.355310,0.941720,-0.014742,0.336074
-0.741429,0.144614,0.626391,-0.592735,0.686976,-0.420391
-0.343454,-0.462571,0.092830,0.930438,-0.338672,0.139952
0.121078,0.571824,0.904821,0.053494,0.998419,0.017242
0.338229,-0.154889,-0.247513,0.804026,-0.585225,-0.105140
-0.100630,-0.051209,0.313103,0.128306,0.541087,0.831121
0.393049,-0.100683,-0.322421,0.893545,0.445701,-0.054113
0.518940,-0.214964,-0.973038,-0.160014,0.141454,0.976927
-0.040745,0.162364,0.798261,-0.573585,0.515877,-0.636295
-0.380390,0.258369,0.734028,0.897480,0.229290,0.376770
-0.387496,0.133451,0.873272,0.479896,0.843006,-0.242982
0.305358,-0.013318,-0.300108,0.868302,0.319079,0.379790
0.155887,0.359378,0.829280,-0.422281,0.542493,-0.726209
-0.209734,0.269642,0.857941,0.664503,-0.545696,-0.510540
0.243484,0.087425,0.841645,0.902343,0.041807,-0.428986
-0.132531,0.490091,0.665746,-0.590483,-0.552794,0.588003
-0.126345,-0.181235,0.660244,0.754718,0.546727,-0.362616
-0.105512,-0.296004,0.724701,-0.672070,-0.739266,-0.042519
-0.394207,0.180095,0.676921,0.826895,-0.124477,-0.548407
-0.168873,0.148647,0.509384,-0.110832,0.990450,0.082012
-0.172687,-0.073860,0.701359,-0.720828,-0.572887,-0.390137
-0.548761,0.217359,0.645697,0.109196,-0.992931,0.046515
-0.100916,0.162324,0.865550,0.278779,-0.875550,0.394582
0.090335,0.245530,0.609301,-0.063163,-0.935215,-0.348401
0.480820,-0.253759,-0.608917,-0.060077,-0.912909,0.403718
0.108061,-0.845392,0.358366,0.362444,-0.749728,0.553663
-0.004007,0.720876,0.601216,0.573073,-0.532887,0.622590
-0.032280,0.177703,0.393729,0.889060,0.138495,0.436338
0.453819,-0.016078,0.662399,0.019466,0.164565,0.986174
-0.338564,-0.361799,0.253937,-0.063860,0.815858,0.574715
0.206792,-0.429955,-0.008256,0.460357,0.822791,-0.333296
0.123166,0.153881,0.180680,0.100067,0.993860,0.047202
0.393982,-0.489761,-0.975682,-0.178377,0.273191,0.945277
-0.135844,-0.003990,0.499505,0.953552,0.116352,0.277850
-0.020094,0.218632,0.557306,0.897133,-0.353184,0.265355
-0.143982,-0.366243,0.030301,-0.721538,-0.692039,-0.021580
-0.376542,0.242152,0.789128,0.997258,0.054597,0.049953
-0.150546,-0.430153,0.319022,0.531251,0.389678,-0.752279
-0.143022,0.015218,0.308597,0.509830,0.180183,0.841194
0.124107,0.171141,0.069458,-0.544657,0.808477,-0.222966
-0.411383,-0.096493,0.556604,0.004786,0.853472,0.521117
-0.236074,0.353873,0.652894,-0.593748,0.691941,-0.410708
0.424136,-0.207833,-0.374412,0.882754,-0.173193,-0.436749
-0.545719,0.335798,0.807727,-0.802636,0.531998,0.269731
-0.397814,0.160243,0.471845,0.397650,0.908426,-0.128984
-0.043732,0.166213,0.420259,-0.543806,-0.837447,0.054374
