-0.807918,-0.299528,0.685516,-0.142486,-0.989448,0.026287
0.012475,0.849775,0.521133,0.228237,0.256068,0.939328
0.316070,0.161698,0.820301,-0.101901,0.987965,-0.116369
0.090415,-0.260274,0.461503,0.705630,-0.707679,0.035745
0.054489,-0.014197,0.636116,0.560280,-0.801419,0.209317
0.739341,-0.192050,0.726713,0.123340,0.813105,-0.568901
0.039869,-0.040980,0.988681,0.023055,0.785092,0.618950
0.095396,-0.586470,0.908480,0.169833,-0.416248,0.893250
-0.203219,0.285523,0.754536,0.956567,-0.008588,0.291386
0.044343,0.544991,0.383120,0.900389,0.321113,-0.293573
0.036825,-0.476420,-0.584312,-0.681457,0.691639,0.239274
-0.203541,-0.337323,0.458219,0.599625,0.790155,-0.126904
0.091660,-0.138367,0.984838,0.204274,-0.183417,0.961577
-0.228860,-0.485974,0.662304,0.085246,-0.941356,0.326468
-0.156317,0.000959,0.741191,0.964951,0.114582,0.236096
0.376716,-0.525421,0.655219,0.676778,-0.044381,-0.734849
0.231489,0.601896,0.474123,0.908355,0.407474,-0.094107
0.702400,-0.715168,0.634467,0.539135,-0.782914,0.310449
0.259853,-0.075323,0.781256,0.882951,-0.087571,-0.461226
-0.736942,-0.331607,0.826226,0.998369,-0.025670,0.051000
0.098440,0.440121,0.728698,0.505911,0.733312,-0.454211
-0.384416,0.289283,0.722395,0.395988,0.469477,-0.789167
-0.152258,-0.493189,0.443700,0.577197,-0.639758,0.507497
0.310306,-0.610068,0.763047,0.816271,0.287959,-0.500780
-0.090922,-0.346035,0.442344,0.414074,0.906473,-0.082764
-0.686074,-0.045278,0.524193,0.122205,-0.583474,0.802885
0.082483,-0.294578,0.442456,0.937390,-0.339081,0.079517
0.364494,-0.280610,-0.992105,-0.047085,0.080239,0.995663
0.237301,-0.380338,0.911904,-0.008185,0.324834,0.945735
-0.241312,-0.323279,0.880364,-0.768693,0.586426,-0.255374
-0.593423,-0.414450,0.622505,-0.175913,-0.291256,0.940332
0.168677,-0.377997,-0.221071,0.970149,-0.223119,0.095021
0.613439,-0.010513,0.862476,0.174455,-0.652980,0.737009
0.210875,-0.075745,0.476303,-0.047065,-0.562845,0.825221
0.110338,-0.400675,-0.984824,0.125390,0.667660,0.733831
-0.260220,-0.474310,0.571959,-0.105442,-0.986024,0.128988
0.171812,-0.306320,0.748849,0.988847,0.136078,-0.060533
0.347015,-0.562987,0.883843,-0.150276,0.656762,-0.738973
0.362280,-0.619661,0.880839,-0.031501,-0.686695,0.726263
0.074642,0.431949,0.589203,0.700607,-0.500790,-0.508290
0.266770,-0.309005,0.941069,0.814887,-0.145504,0.561060
0.005558,-0.350101,0.884458,0.479639,0.559990,0.675542
0.313119,-0.462836,0.477141,0.867763,-0.401066,-0.293485
0.198653,0.168451,0.657106,-0.503186,0.552487,-0.664502
0.134550,-0.319980,-0.073458,0.851185,-0.524156,-0.027292
-0.699310,-0.131998,0.818764,-0.243268,-0.377029,0.893683
0.184265,-0.685967,-0.971632,-0.104700,0.113257,0.988034
-0.153826,-0.464525,-0.992188,0.138885,-0.145632,-0.979542
-0.048632,-0.437780,0.062431,-0.197094,0.974617,0.106187
0.410981,-0.678792,-0.970332,-0.172117,0.121965,0.977497
0.162958,-0.271286,0.649462,0.997970,0.063037,-0.009073
-0.488459,0.024481,0.835729,-0.369434,0.928287,-0.042435
0.070445,-0.313764,0.332784,-0.671982,-0.652369,0.350507
0.156778,-0.060052,0.580986,-0.250655,-0.665741,0.702823
0.012890,-0.914008,0.764472,0.180867,0.893919,0.410117
-0.308967,-0.296842,0.648917,0.894925,0.169367,0.412824
0.357254,-0.597559,0.788872,-0.284587,-0.324392,0.902098
0.836004,0.058133,0.759274,-0.208753,0.239881,0.948092
0.226093,-0.456429,0.964966,-0.101074,0.489440,-0.866160
0.212950,-0.165880,0.773374,0.574217,-0.091773,-0.813543
-0.482141,-0.367177,0.711048,0.287288,0.121652,-0.950087
-0.060714,-0.500863,0.239056,0.915935,-0.400848,0.019614
0.040792,-0.579410,-0.976579,0.173175,-0.001510,-0.984890
0.660756,-0.220520,0.378942,0.906992,0.145470,-0.395226
-0.774436,-0.063006,0.603932,0.284786,0.544958,0.788618
0.192151,-0.025747,0.155879,0.687399,-0.420446,0.592205
-0.091475,0.331300,0.548118,0.546550,0.221196,0.807685
0.496022,-0.275929,0.673079,-0.380571,0.244102,-0.891953
0.853622,-0.353593,0.677830,0.345418,0.052669,0.936970
0.358545,-0.718008,0.731213,0.895920,-0.444214,0.000759
-0.199160,0.029700,0.764962,-0.415044,-0.779362,-0.469398
0.887472,-0.404205,0.788830,0.146168,-0.682425,0.716192
0.023174,-0.508768,-0.970178,0.675642,0.480360,-0.559252
0.053750,-0.499213,0.874830,0.726260,-0.140354,-0.672940
0.104158,-0.922335,0.782248,-0.033423,0.999209,0.021557
0.652685,-0.215225,0.436251,-0.765191,0.318797,0.559331
0.114027,-0.495146,-0.889070,0.797780,-0.591633,0.116264
0.296885,-0.849046,0.744754,-0.814518,0.503111,0.288859
-0.773929,-0.188979,0.672310,0.353661,0.230581,-0.906508
-0.234441,-0.053566,0.858465,-0.472526,0.851826,0.226081
0.412688,-0.601780,0.589553,0.338024,0.921721,-0.190183
-0.578343,-0.025978,0.837476,-0.160879,-0.386736,0.908049
-0.589504,0.096082,0.556028,0.380117,0.669674,-0.638003
0.630918,-0.351330,0.822774,-0.272233,0.625765,-0.730963
-0.031198,0.271978,0.461028,0.907731,0.064581,0.414552
0.465908,0.090441,0.872412,0.930989,-0.056604,0.360632
0.392442,-0.677948,0.665574,-0.065826,0.893639,0.443933
-0.068278,-0.583323,0.747661,-0.878787,0.095652,-0.467530
-0.291396,-0.596370,0.816304,-0.553698,0.680300,0.480220
-0.100606,0.390584,0.786958,0.162128,-0.986607,0.017916
0.176840,-0.280534,0.654730,-0.247642,0.966544,0.066825
0.174257,-0.559533,0.902192,-0.044553,-0.988504,0.144483
0.788596,-0.425233,0.606616,-0.626586,0.213121,0.749647
0.060346,-0.302176,0.613226,0.545455,-0.831306,-0.106813
-0.114949,0.306128,0.593773,0.466013,-0.619192,0.632008
-0.528765,-0.615402,0.791904,0.503330,0.854238,-0.130141
0.226186,0.489736,0.318586,0.960207,-0.224106,-0.166669
-0.052183,0.078738,0.544778,-0.618755,-0.377380,0.689004
0.459590,0.091210,0.859108,0.879479,-0.034294,0.474700
0.222958,-0.680480,0.858843,0.106550,0.918412,0.381007
0.134965,-0.490656,-0.589273,-0.515310,0.812981,0.271143
0.101436,0.690035,0.517556,0.091572,-0.515463,0.852005
-0.487444,-0.576493,0.664540,-0.579901,0.094142,-0.809229
0.030784,0.695446,0.457074,0.197672,-0.408376,0.891154
0.897711,-0.317600,0.677187,-0.117722,-0.064644,0.990940
0.512072,-0.612562,0.692936,0.632050,-0.752263,-0.186046
-0.813683,-0.462683,0.727649,-0.276191,0.135110,-0.951559
0.695161,-0.446069,0.682260,0.487674,0.235677,-0.840613
-0.231259,-0.460342,0.354612,-0.187122,0.682762,-0.706273
-0.428229,0.407889,0.608278,-0.821161,0.534165,0.200901
0.135334,-0.444112,0.881887,-0.520488,-0.541273,-0.660391
0.089262,-0.696097,0.787614,-0.703831,0.388019,-0.595031
0.397883,0.003761,0.659104,-0.845234,-0.221902,0.486147
0.417161,-0.572694,-0.970975,-0.129283,0.024584,0.991303
-0.800308,-0.507118,0.676628,0.392735,0.093274,-0.914909
0.134688,-0.307240,0.002075,0.990163,-0.126747,-0.059265
0.064542,-0.497141,-0.916013,0.762688,-0.631977,0.137520
0.322480,-0.237749,0.865103,0.904884,0.073640,0.419239
0.118961,-0.421817,-0.930588,0.872186,0.463283,0.157034
0.127033,0.320402,0.700706,0.988206,0.138871,-0.064534
-0.108677,-0.145390,0.964868,-0.539826,-0.194952,0.818890
0.870409,-0.402018,0.784959,-0.202939,-0.817916,0.538358
0.368598,0.533556,0.573454,0.493079,-0.279135,0.823988
0.513178,-0.585779,0.649084,0.439281,0.581667,0.684613
0.182327,-0.420629,-0.305645,-0.738274,0.648193,-0.186543
0.121637,-0.050958,0.582384,0.706378,-0.448665,0.547476
-0.193579,-0.504432,0.469413,-0.551397,0.819865,-0.154217
-0.478959,0.035456,0.851786,0.039283,0.203830,0.978218
-0.091244,0.045816,0.536924,-0.284629,-0.333188,0.898873
0.368460,-0.562948,0.636395,0.770070,-0.275560,-0.575377
0.605692,-0.380952,0.883256,0.398907,0.409050,0.820702
0.154427,-0.543532,0.124017,0.855980,-0.515643,-0.037572
-0.163696,0.063621,0.865061,0.984419,0.024087,-0.174178
-0.623953,-0.163923,0.717406,0.976473,0.023089,0.214402
0.027971,0.191244,0.647659,0.657420,0.139960,0.740412
0.448291,-0.565596,-0.968124,-0.117691,0.034203,0.992461
-0.017916,-0.565788,0.861498,0.806975,-0.047076,-0.588706
-0.638020,-0.166532,0.781969,0.803365,-0.488112,-0.341102
-0.211935,-0.710448,0.764906,0.548256,-0.014784,0.836180
0.088570,-0.695406,-0.973420,-0.080523,0.080857,0.993468
-0.294163,-0.189862,0.833339,-0.766817,0.635565,-0.089717
-0.689856,-0.379647,0.713549,0.692602,0.155080,0.704452
0.316715,-0.304631,0.319368,-0.378625,0.914131,-0.144941
0.365416,-0.594106,0.896602,-0.215330,-0.973320,-0.079257
-0.228998,-0.286903,0.528875,-0.000166,-0.892918,0.450220
0.486984,-0.574614,0.887211,-0.186166,0.801447,0.568352
0.236148,0.407697,0.692112,-0.136768,-0.764688,0.629719
0.666152,-0.179157,0.867549,0.530085,0.420508,0.736331
-0.682939,-0.101071,0.785770,0.537085,-0.734874,0.414125
-0.230613,0.554507,0.477658,0.894717,0.097796,-0.435795
0.011969,-0.754115,0.854035,0.537289,-0.807758,-0.242585
0.033505,-0.455355,-0.952822,0.834896,-0.175305,-0.521745
-0.268798,0.622425,0.520378,-0.192823,0.216657,0.957016
-0.459450,0.305399,0.712962,0.395066,-0.753515,-0.525488
0.242881,-0.132534,0.599125,0.391107,0.618040,-0.681955
-0.107523,-0.451824,0.341853,0.905449,0.001860,0.424452
-0.125326,0.593262,0.477924,0.351020,0.632494,0.690461
0.167846,-0.309542,0.781340,0.872208,-0.326354,0.364343
0.092260,0.747553,0.450016,-0.555409,0.375952,-0.741742
0.146402,-0.375848,0.060601,0.984716,0.158234,0.072778
-0.428459,0.261234,0.714765,0.487236,0.287737,0.824505
0.410705,-0.126472,0.877764,0.989334,-0.139167,0.043008
0.148569,0.271211,0.529015,0.630256,0.395132,0.668318
0.878756,-0.289320,0.689624,0.487363,-0.666275,0.564407
0.713239,-0.219485,0.802916,0.970054,0.239130,0.042567
0.189291,-0.540002,0.074282,-0.154719,0.962434,0.223121
0.893468,-0.104524,0.739332,-0.514395,-0.119399,0.849201
0.571334,-0.614826,0.658825,0.714397,0.346137,-0.608134
0.092536,-0.349104,0.293305,-0.284876,0.945646,-0.156841
0.403002,0.179502,0.821125,0.083086,0.654173,-0.751768
0.065557,-0.413185,0.905825,0.929378,0.039569,-0.367003
0.257085,-0.557307,0.499263,0.905562,0.410928,0.105332
-0.226278,0.506274,0.469357,0.258600,-0.011400,0.965917
-0.364310,0.230728,0.796879,0.872507,-0.476795,0.106766
0.004774,-0.728867,0.755263,0.492218,0.362662,-0.791327
0.416285,-0.215993,0.522167,-0.500322,-0.578581,0.644145
0.462910,-0.103833,0.900082,0.396381,0.039656,-0.917229
0.087832,-0.886957,0.778433,-0.403804,0.858198,0.316921
0.327645,0.111124,0.735839,0.737628,0.674475,0.031441
0.863445,-0.163654,0.760769,-0.733311,0.286227,-0.616708
0.079716,-0.201796,0.762977,-0.756120,-0.612290,-0.231047
-0.427076,0.040559,0.714793,-0.514915,-0.623318,-0.588505
0.157424,0.251909,0.822397,0.853940,0.519932,-0.021357
0.160653,0.349795,0.725735,-0.357804,0.258089,0.897422
0.068324,-0.287364,0.144993,0.949267,0.312305,0.036853
-0.773883,0.083152,0.520127,-0.383317,-0.357414,0.851659
-0.393733,-0.426652,0.723681,0.902854,0.084378,0.421586
0.525907,0.075209,0.744545,-0.374204,0.774541,-0.509958
0.058087,-0.107708,0.955253,0.251767,0.356124,-0.899883
0.132843,-0.326618,0.314309,-0.745091,0.602189,-0.286721
0.806905,-0.224166,0.709622,0.112670,-0.680510,0.724024
-0.418544,0.120180,0.828797,-0.165699,-0.956856,0.238685
0.242328,-0.878439,0.750498,0.263208,0.179241,-0.947942
0.022575,0.307624,0.678822,0.043846,-0.771423,0.634811
0.191320,-0.442806,0.900305,0.843623,0.522876,0.122072
0.069292,-0.485246,-0.265105,0.750381,-0.660497,0.025925
0.065464,-0.512029,-0.644990,0.979275,-0.151631,0.134267
-0.124080,0.309697,0.740506,-0.117042,-0.132716,0.984219
0.690824,-0.127891,0.824591,-0.559074,0.075643,-0.825660
0.235087,-0.624688,-0.975195,-0.121812,0.106671,0.986804
-0.009662,-0.405126,0.932768,-0.526333,-0.138187,0.838974
0.013952,-0.679099,0.870176,-0.324482,0.019280,0.945695
0.633776,-0.612448,0.675943,-0.193131,-0.136321,-0.971657
0.061083,-0.826023,0.836148,-0.832979,0.450280,-0.321550
-0.359098,-0.211580,0.754271,0.962722,-0.149737,0.225269
0.163696,-0.090057,0.155013,-0.442827,0.645310,-0.622479
0.657759,-0.682936,0.660613,0.126323,-0.299047,0.945840
0.511426,0.012126,0.853644,0.334880,-0.790774,-0.512378
-0.029999,-0.366601,0.792072,0.121497,-0.975381,-0.184036
0.659280,-0.554890,0.659314,0.582575,0.684883,0.437655
-0.476560,-0.407313,0.785630,0.297766,-0.734259,-0.610082
-0.014088,-0.474003,0.893262,0.971810,0.060063,-0.227987
0.383034,0.523349,0.577171,0.493079,-0.279135,0.823988
0.147647,0.224972,0.792575,0.748562,0.307102,-0.587659
0.085341,-0.495798,-0.525787,0.124705,0.991640,0.033160
0.142620,0.185949,0.777175,0.706654,-0.629784,0.322510
0.128601,-0.308506,-0.028096,0.901583,-0.432591,-0.003520
0.031475,-0.492997,-0.778503,0.944526,-0.186260,0.270516
0.739895,0.047428,0.757262,0.741603,-0.251861,0.621765
-0.617404,-0.324085,0.663157,0.811772,0.235743,0.534276
-0.442478,0.280150,0.718538,-0.188075,0.646221,0.739612
0.463048,-0.439622,0.701852,0.842870,0.536355,0.043525
-0.564968,-0.454012,0.832067,0.521487,0.473883,-0.709567
0.446537,-0.617782,-0.968152,0.171244,-0.089391,-0.981165
0.293056,-0.493726,-0.978745,0.049172,0.230657,0.971792
-0.488920,0.030813,0.728404,0.097898,0.993999,-0.048813
0.528167,-0.220213,0.439885,0.167973,-0.447606,-0.878313
0.150921,-0.270020,0.831606,0.860554,0.313834,-0.401193
0.016994,0.272399,0.696374,0.839312,0.474068,0.266112
-0.172228,0.726411,0.468728,0.743927,0.169320,0.646454
0.107385,-0.249261,0.532886,0.980520,-0.165329,-0.106049
0.209630,-0.109895,0.165438,-0.643806,0.492866,-0.585318
0.310075,-0.050151,0.645143,-0.423753,-0.712535,0.559220
0.309014,0.664057,0.499570,-0.130916,-0.275642,0.952304
0.111306,-0.310464,0.387089,0.517229,0.843940,-0.142266
0.196210,-0.591036,0.852149,0.093536,-0.569617,0.816571
-0.306891,0.773455,0.505160,-0.789497,0.449360,0.418055
0.563540,-0.362342,0.763760,0.151788,0.985160,0.080132
-0.707197,-0.404128,0.722521,0.002177,-0.775483,0.631365
0.022575,-0.216069,0.984614,0.319833,0.248434,-0.914323
-0.590703,-0.163731,0.733505,0.982746,-0.083209,0.165188
0.328291,-0.320709,0.855181,-0.588384,-0.164678,-0.791635
0.234118,0.064465,0.305184,0.544168,0.200717,-0.814613
0.189291,0.246422,0.699267,0.062795,0.824793,0.561937
0.504001,-0.609032,0.599405,0.419994,-0.027226,-0.907118
0.124495,-0.108552,0.582957,0.283440,0.814571,-0.506098
0.190767,-0.435362,0.730822,0.991332,-0.052511,-0.120433
0.148615,0.433176,0.709846,0.126282,0.890219,-0.437680
0.214426,0.213768,0.716833,0.522308,-0.776983,-0.351415
0.080453,0.152527,0.277249,0.842710,0.071090,0.533653
0.069108,0.490772,0.537875,0.750130,-0.255882,0.609777
-0.003067,-0.642261,0.863622,-0.156937,0.180395,0.970994
0.580281,-0.203177,0.398255,0.788658,0.173650,-0.589801
0.074504,-0.254978,0.508724,0.981617,-0.172335,-0.082033
0.569258,-0.255056,0.518771,-0.372736,-0.454934,0.808766
0.282957,-0.270404,0.807738,-0.798296,0.379807,0.467408
0.516269,-0.116342,0.911401,-0.170537,-0.814828,0.554051
0.031846,-0.350255,0.912170,0.172865,0.982901,-0.063437
-0.493532,0.031043,0.748486,-0.017998,-0.992838,0.118102
0.393502,-0.402439,0.494428,0.969560,-0.243524,-0.025487
0.725275,-0.365028,0.749813,0.070016,-0.439007,0.895752
0.425001,-0.197958,0.954611,-0.447553,0.587594,-0.674114
-0.230750,-0.060665,0.831662,-0.164148,-0.755438,0.634326
-0.451610,-0.518015,0.812098,0.907228,0.024660,0.419916
0.866396,-0.313879,0.674169,0.227324,-0.369961,0.900807
0.064773,-0.645562,-0.973518,0.155612,-0.067529,-0.985507
-0.735374,-0.285484,0.775736,0.991841,-0.062958,-0.110849
-0.157516,0.144316,0.697227,0.932729,-0.027530,-0.359527
0.468582,-0.471125,0.776840,0.334980,0.157145,0.929028
0.421266,-0.583438,0.884933,-0.517369,-0.203499,-0.831214
0.613762,0.033115,0.633531,0.004826,-0.211720,0.977318
0.796297,-0.040213,0.747074,-0.044554,-0.875060,0.481959
-0.231905,-0.158090,0.889307,0.428453,0.514834,-0.742546
-0.394377,0.050344,0.550787,0.526472,0.843655,-0.105234
0.184449,0.475806,0.303786,-0.869091,0.464641,0.169675
-0.464200,-0.540462,0.647170,-0.413001,-0.213730,-0.885296
0.177024,-0.179732,0.458932,-0.144283,-0.320218,0.936292
0.422557,0.340432,0.548579,0.993321,0.048533,-0.104682
0.237163,-0.148114,0.772396,0.867810,-0.099320,-0.486869
0.126065,-0.323126,0.972260,0.397501,0.689606,0.605340
-0.285770,-0.047350,0.549250,0.428551,0.687066,0.586758
-0.202526,0.092898,0.684049,0.923150,0.034803,-0.382863
-0.531026,0.184031,0.587778,0.259365,-0.419780,0.869779
-0.080176,-0.002993,0.690393,-0.053731,-0.992695,0.108021
0.617497,0.133993,0.802176,-0.064130,-0.219115,0.973589
0.501511,0.032655,0.809526,0.886593,-0.289418,-0.360820
0.845044,-0.523963,0.752370,-0.736079,-0.570636,0.364092
0.082989,-0.349871,-0.993097,0.093525,0.351664,0.931443
0.159868,-0.350831,0.837895,0.996121,0.032578,0.081747
0.096455,0.116650,0.716036,0.284294,-0.868996,0.404997
0.025941,-0.737194,0.804020,0.980681,-0.076368,0.180091
0.145848,0.343924,0.531181,0.483023,-0.149524,0.862747
0.668320,-0.446874,0.737515,0.340403,0.700939,0.626746
-0.413055,-0.013200,0.737641,-0.672779,-0.650689,-0.352098
0.337930,-0.283718,0.327487,-0.309917,0.877226,-0.366642
0.450965,-0.351637,0.553037,0.549349,-0.793014,-0.263334
-0.029308,-0.101108,0.848599,-0.073301,0.218794,-0.973014
0.065557,-0.708184,0.843471,-0.632202,0.754914,0.174432
0.111860,0.044435,0.255392,-0.805036,-0.533575,0.259260
0.117163,-0.529872,0.061411,-0.783513,-0.605363,0.140153
0.404616,-0.377690,0.737362,-0.336100,-0.851937,0.401547
0.073305,-0.395418,0.910018,0.822142,0.559046,-0.107474
0.462080,-0.102106,0.791485,0.196043,-0.810779,0.551547
-0.620586,-0.042017,0.823836,0.868688,-0.379574,-0.318284
0.481172,-0.173285,0.855363,-0.031037,-0.648935,0.760210
0.327369,-0.299720,0.873013,0.909326,0.238244,0.341123
0.722877,-0.003492,0.811902,-0.142599,0.933638,0.328611
0.567228,-0.406853,0.678417,-0.077298,0.048742,0.995816
-0.064403,0.290051,0.316461,-0.533345,-0.490532,0.689146
-0.350613,-0.196078,0.499528,0.633062,0.773799,-0.021634
0.378606,-0.499750,0.492876,-0.804526,0.573785,-0.153323
-0.218392,0.244197,0.726895,-0.640637,0.766207,0.050119
-0.264786,-0.649783,0.382617,0.447552,-0.583240,0.677886
0.404156,0.435785,0.557285,0.920109,-0.171047,0.352338
-0.368276,-0.004106,0.691036,0.841775,0.526364,0.119819
0.662462,-0.035953,0.832487,-0.273311,-0.895326,-0.351700
-0.634007,-0.534169,0.791918,-0.145139,0.584473,0.798327
-0.421173,-0.479989,0.717630,0.954398,-0.004627,0.298502
0.532733,-0.833659,0.711621,-0.594340,-0.047857,0.802789
0.154103,0.290358,0.285466,-0.310710,-0.274990,0.909857
0.483663,-0.358313,0.785909,0.806661,-0.153647,-0.570694
-0.387229,-0.383100,0.811385,0.980993,0.105687,-0.162737
-0.362049,-0.448294,0.857753,-0.010357,0.697717,0.716298
-0.047386,-0.718161,-0.973532,-0.026731,0.195809,0.980278
0.343418,-0.489544,0.918193,0.409033,-0.027095,0.912117
0.297669,-0.231380,0.478874,0.945562,-0.090216,-0.312689
0.348952,-0.547446,-0.975223,-0.113476,0.126051,0.985512
0.037424,-0.869421,0.763648,0.039866,0.265234,0.963359
0.577652,-0.212041,0.793470,0.892047,0.052227,-0.448915
-0.805473,-0.074977,0.609662,0.082074,0.351559,0.932561
-0.154472,-0.052914,0.937799,-0.411824,-0.639867,-0.648823
0.660248,-0.101799,0.825122,-0.609023,0.272211,-0.744978
-0.099131,0.442654,0.364059,0.111371,-0.748004,0.654283
-0.727396,-0.346149,0.767994,0.944913,-0.316482,-0.083533
0.567967,-0.883657,0.732960,0.006233,-0.351018,0.936348
0.163789,-0.357660,0.232320,0.192505,-0.956330,0.219945
-0.420481,-0.388972,0.832529,0.870217,0.360365,0.335947
0.161344,-0.336595,-0.221406,0.960871,-0.265372,0.079399
0.160238,-0.623384,0.924439,-0.314523,0.141464,0.938650
0.430442,-0.718161,0.713759,-0.192456,-0.667857,0.718977
0.115963,-0.311000,0.409993,0.645199,-0.735728,-0.205968
0.305647,0.178120,0.552212,-0.524292,0.579073,0.624334
-0.439712,0.101340,0.814543,-0.007580,0.999943,-0.007528
-0.906012,-0.519895,0.686494,-0.098501,-0.378859,0.920197
0.011138,0.388129,0.369313,-0.507553,0.019024,0.861410
-0.048032,-0.718621,0.834178,0.183863,0.705190,0.684764
-0.586413,-0.188826,0.857431,-0.675207,0.126383,0.726721
0.572717,-0.612562,0.647226,0.444257,0.387955,0.807543
0.572071,-0.380262,0.716470,0.498423,0.747503,-0.439105
-0.082758,0.573577,0.490878,0.832765,-0.283609,-0.475466
-0.143680,-0.346417,0.888064,0.017040,0.498900,0.866492
-0.282957,0.555274,0.460791,-0.305938,-0.313852,0.898832
0.454424,-0.702850,0.824661,0.651287,-0.356118,-0.670078
-0.345861,-0.582671,0.830935,0.081070,0.836816,-0.541449
0.160329,-0.434135,0.782528,0.842837,-0.457654,-0.283157
0.280790,-0.493802,0.577437,0.801209,0.566423,-0.192949
0.150552,0.333602,0.529294,-0.069164,-0.162961,0.984205
0.098254,-0.487395,-0.090129,0.870814,0.447584,0.203353
-0.182696,0.351598,0.795929,0.002471,0.996235,0.086656
0.156410,-0.689383,0.890132,0.140537,-0.943498,-0.300100
-0.315332,-0.534553,0.340162,0.120977,-0.465872,0.876543
-0.378144,-0.595180,0.833116,0.260194,0.829519,-0.494163
-0.561417,-0.125781,0.817464,0.251325,-0.657745,0.710076
0.047432,0.561721,0.555441,0.289167,0.440720,0.849793
-0.016211,0.189747,0.825038,0.321624,-0.328123,0.888196
0.248184,-0.491308,-0.977990,0.054541,-0.286045,-0.956663
0.171028,-0.374505,0.887742,0.817984,0.530707,-0.221930
0.518759,-0.354360,0.817995,0.946394,0.317519,0.059327
0.342956,0.345766,0.557439,0.949058,0.043488,0.312085
0.725599,-0.176585,0.817254,0.341405,-0.184214,0.921687
-0.528028,-0.109666,0.516969,0.412376,0.909907,0.044891
-0.111076,-0.016269,0.592515,0.884054,-0.443393,0.147822
0.085434,-0.558344,-0.978856,0.213122,0.055052,-0.975473
-0.417898,0.182265,0.561226,-0.411684,0.192735,-0.890713
-0.414578,-0.163386,0.625523,0.243484,-0.908433,0.339802
0.349136,-0.361843,0.792771,-0.446700,-0.568647,-0.690724
0.149308,-0.237673,0.088075,0.967438,-0.238826,0.083821
0.031015,-0.205211,0.834233,-0.094906,0.989109,0.112498
-0.590379,-0.177007,0.669795,0.545574,0.671747,-0.501104
0.660801,0.090557,0.638030,-0.058312,-0.253248,0.965642
0.074688,-0.459268,-0.581014,-0.544684,0.787891,0.287310
-0.132612,-0.133609,0.890733,0.842346,-0.454161,0.290158
-0.057854,-0.410652,0.693202,-0.717866,0.569141,-0.400933
0.259529,-0.283988,0.890649,0.852812,0.453662,-0.258656
0.299975,-0.270672,-0.993083,-0.040689,0.111542,0.992926
-0.802569,-0.419400,0.618815,0.376665,-0.088051,0.922155
-0.354670,0.513143,0.462803,-0.338691,-0.088374,0.936738
0.082298,-0.004374,0.794853,0.977105,-0.088792,-0.193344
-0.246339,0.625494,0.503483,0.171242,-0.958841,-0.226494
-0.174626,0.050996,0.676363,0.822626,0.559147,-0.103157
0.116702,-0.380415,0.176240,-0.296148,0.933954,0.200067
-0.609703,-0.114692,0.676181,-0.233725,-0.347124,0.908227
-0.252565,-0.163923,0.835994,0.299963,0.560307,0.772061
0.381142,-0.233644,0.832417,-0.768245,0.055330,0.637761
0.303573,-0.116726,0.605316,0.114220,-0.797366,0.592588
0.416285,-0.166418,0.851548,-0.245978,-0.744368,0.620814
0.169045,-0.719658,0.707903,-0.080353,0.233058,0.969137
0.362049,-0.216722,-0.993600,-0.061995,0.090724,0.993945
0.223188,0.088331,0.513140,0.892922,0.168220,-0.417602
0.394748,-0.707148,-0.966922,-0.168281,0.039939,0.984930
0.658958,-0.775411,0.732079,0.608551,-0.310432,0.730272
0.124266,-0.324124,0.147103,0.929247,0.367196,0.040832
0.485185,-0.004220,0.829580,0.952069,-0.298293,-0.067712
0.658911,-0.322742,0.769825,-0.697625,-0.186735,0.691700
-0.176516,0.122597,0.911429,-0.041612,0.645756,0.762409
0.620772,-0.190361,0.771530,-0.586627,0.429962,-0.686296
0.070953,-0.734315,0.875095,0.972010,-0.218811,-0.085545
-0.398252,0.109128,0.797424,0.744407,0.570472,-0.347016
0.856850,-0.634128,0.723820,0.708466,-0.028695,-0.705161
-0.113473,-0.075937,0.761146,0.164106,0.184835,0.968971
0.102682,-0.492459,0.022590,0.768108,0.636751,0.067520
0.114719,-0.202947,0.983007,-0.098092,0.356521,0.929124
0.145249,-0.254211,0.573817,0.817662,-0.573631,-0.048749
-0.799202,0.056713,0.578052,0.899390,-0.102920,0.424860
0.253489,-0.536970,0.369173,0.994206,0.106959,0.010672
-0.082712,-0.589310,0.781927,0.191975,-0.783476,0.591026
0.202250,0.062584,0.623287,0.820874,0.200311,-0.534828
-0.519774,0.288784,0.703487,-0.792563,-0.483576,-0.371481
0.153503,-0.534323,-0.449010,0.889460,0.455149,-0.041233
0.093182,-0.363608,0.256217,0.897092,0.193257,0.397338
0.083497,0.315759,0.833549,-0.532811,-0.726966,-0.433167
0.488644,0.252523,0.581839,-0.361194,0.596817,0.716483
0.250398,-0.523119,0.530859,0.915704,0.307514,-0.258693
0.156732,-0.133456,0.998742,-0.457192,-0.344758,-0.819828
0.509627,-0.048501,0.706338,0.457658,0.257673,-0.850972
-0.821431,-0.285331,0.692601,0.200266,0.852884,-0.482165
0.038808,0.027206,0.310578,0.329120,0.227662,0.916433
-0.658727,-0.628602,0.787754,0.069267,-0.890927,0.448833
0.088570,-0.194466,0.827903,-0.690054,0.719631,0.077185
-0.049276,0.376348,0.704731,0.905479,0.279889,0.319013
0.304772,0.522045,0.384434,0.910822,0.276455,-0.306554
0.623077,-0.635970,0.634635,0.391713,0.886972,-0.244626
-0.147232,-0.367100,0.891599,0.110161,0.439770,0.891329
-0.609749,-0.298876,0.794811,0.984453,0.066964,0.162381
0.150783,-0.324316,-0.147774,0.935257,-0.348880,0.059808
-0.663892,-0.366716,0.837615,0.883627,0.252179,0.394473
-0.215532,-0.508921,0.478301,-0.647372,0.753492,-0.114714
-0.168492,0.833468,0.513042,0.206264,0.895428,0.394543
-0.596052,-0.030543,0.828210,0.759418,-0.637302,0.130879
0.341388,-0.634702,-0.971702,0.002353,0.196453,0.980510
-0.685890,-0.011012,0.672869,0.581454,-0.015407,-0.813433
-0.555422,0.085722,0.708602,-0.427683,0.414871,-0.803100
-0.805428,0.030735,0.584158,0.560484,0.098857,-0.822244
0.475316,0.183839,0.762055,0.200247,0.558985,0.804635
-0.267784,-0.297302,0.642949,-0.838616,0.000731,-0.544722
0.165357,-0.550785,-0.976006,0.166305,-0.242779,0.955720
-0.571010,-0.385058,0.841025,-0.013757,-0.244999,0.969426
-0.287430,-0.452477,0.543283,0.819558,0.507034,0.266911
-0.103881,0.126933,0.858717,0.885620,-0.435646,0.160901
-0.678327,-0.434174,0.652732,0.836352,-0.085004,-0.541562
-0.646274,-0.067572,0.534632,0.331862,0.876716,0.348190
0.542602,-0.318368,0.731898,0.020263,0.006009,0.999777
0.060530,-0.516020,0.831760,-0.483105,0.867376,-0.119453
0.198930,0.548751,0.583935,-0.283932,-0.715026,0.638844
0.646136,-0.575074,0.650580,0.024241,-0.225780,0.973877
0.165772,0.276237,0.674700,0.204210,0.721812,-0.661276
0.004359,0.609301,0.485721,-0.611670,0.273122,0.742471
0.473702,0.188519,0.756367,0.072844,0.248560,0.965874
0.687458,-0.459652,0.642376,-0.320195,0.406715,-0.855604
-0.080083,0.365758,0.326439,-0.496657,-0.553480,0.668574
-0.225171,-0.320593,0.534157,0.980943,-0.156752,0.114803
0.126294,0.119565,0.295136,0.672612,0.407776,-0.617505
-0.228354,-0.536702,0.779034,0.073319,0.941466,0.329038
0.151982,-0.413606,-0.264965,0.758439,-0.647546,0.073858
0.266862,-0.554621,0.752776,0.171237,-0.914967,0.365394
-0.246523,-0.489812,0.648120,-0.312194,0.927190,0.207014
0.166694,-0.391965,-0.233774,0.904188,-0.369996,0.213419
-0.456361,-0.401212,0.861093,0.993220,0.109247,-0.039735
0.020223,0.276351,0.660753,0.844104,0.441624,0.304069
0.926350,-0.468094,0.784470,-0.445623,-0.464235,0.765445
0.439482,0.184107,0.836987,0.909901,-0.322764,0.260582
-0.538496,-0.413453,0.795887,0.498455,0.252111,0.829447
0.784859,-0.629100,0.715687,-0.488766,0.114607,0.864855
0.351996,-0.726679,0.718971,0.994833,-0.006889,0.101289
0.098440,0.249607,0.647352,0.970542,0.184131,0.155386
0.009385,-0.763669,0.876241,-0.050438,0.582602,-0.811191
-0.690824,-0.381067,0.854818,0.770609,-0.430867,-0.469591
-0.033321,-0.336671,0.895750,0.586648,0.557515,0.587386
0.280421,0.269177,0.533081,0.125134,-0.117063,0.985210
0.316946,-0.577337,0.622756,-0.687754,0.327789,0.647726
0.062053,0.302828,0.833297,0.114302,0.762434,0.636891
-0.710379,0.035378,0.587107,-0.410852,0.085559,0.907678
0.258838,0.235908,0.847272,-0.539170,-0.695656,-0.474720
-0.472179,-0.566862,0.652955,-0.413001,-0.213730,-0.885296
0.190261,-0.163002,0.460819,-0.103997,-0.354329,0.929320
-0.129107,0.068916,0.863091,0.867299,-0.481712,0.125483
0.111213,0.207743,0.634355,-0.555463,-0.493513,-0.669258
0.122421,-0.477610,-0.934823,0.960852,-0.264755,0.081657
0.046233,0.096198,0.285801,0.928612,0.353525,-0.112695
-0.132059,0.057520,0.748108,0.935876,-0.171165,0.307960
-0.254502,0.231151,0.576207,-0.235069,0.165965,-0.957705
0.419697,-0.563063,-0.969969,-0.141353,0.012794,0.989877
0.212305,-0.532135,0.611786,0.185095,0.928526,0.321836
-0.021422,0.539120,0.397193,0.514939,0.686334,-0.513598
0.711025,-0.437511,0.694110,0.588302,0.612111,-0.528413
0.112321,-0.372626,-0.134121,0.876320,-0.476005,0.074044
0.243203,-0.382372,0.950977,0.542883,-0.090816,-0.834883
0.147370,-0.378074,0.355157,0.782774,0.207516,-0.586687
-0.575667,-0.315068,0.671332,0.789385,0.305849,0.532286
0.042498,0.105867,0.859024,-0.017184,0.280941,0.959571
0.519911,-0.385134,0.879889,0.322609,-0.226993,-0.918911
0.286923,-0.544414,0.461294,0.967251,0.203430,0.151795
0.243711,0.140900,0.835198,-0.544690,0.739132,0.396229
0.417529,-0.318790,0.745942,0.713602,-0.698646,0.051645
0.386585,-0.405203,0.793959,-0.584816,-0.471119,-0.660331
0.123711,-0.386093,-0.167185,0.860012,-0.510263,0.003238
0.832361,-0.476804,0.761063,0.531086,0.528784,0.662069
-0.721540,-0.166148,0.698820,0.563665,-0.262121,-0.783310
0.085296,-0.500057,-0.289379,0.773613,-0.608374,0.177213
0.063712,-0.667932,0.870358,-0.089932,-0.101092,0.990804
-0.667903,-0.535474,0.780781,0.815806,0.230493,-0.530408
0.101023,-0.495567,-0.865229,0.986113,-0.052187,0.157662
0.069754,0.492614,0.564049,0.131120,-0.534189,-0.835135
0.418590,-0.833583,0.788565,0.969427,-0.217378,0.113832
0.244402,-0.583592,0.885660,-0.342118,-0.260006,-0.902968
-0.024880,0.230844,0.456137,0.941688,0.023485,0.335667
-0.435470,-0.430566,0.584480,-0.281718,-0.958673,0.039772
-0.719510,0.022947,0.710167,-0.656121,0.548279,0.518551
0.108262,-0.379571,-0.176967,0.862644,-0.504219,0.040094
0.493994,-0.553470,0.794574,-0.360459,0.819907,0.444772
0.461249,-0.832047,0.810463,0.176675,0.427520,0.886574
-0.060161,0.264879,0.557816,0.716016,-0.392873,-0.577037
0.144465,-0.289743,0.707959,0.868663,0.405070,-0.285208
0.089031,-0.657611,-0.972135,-0.057133,0.006221,0.998347
0.269997,-0.564905,0.438264,0.865721,0.309767,0.393156
0.241174,-0.576800,-0.973365,-0.035418,0.093456,0.994993
0.337746,0.244964,0.733603,0.497662,0.295045,-0.815648
0.117302,-0.485285,-0.014680,-0.592029,-0.791039,-0.154138
-0.912976,0.032808,0.538615,0.181781,0.572847,0.799251
-0.100930,-0.172940,0.849088,0.877963,-0.397643,0.266574
0.184357,-0.419515,0.801491,0.767579,-0.499858,-0.401205
0.104618,-0.619508,-0.027537,0.961928,-0.040866,-0.270231
-0.144649,0.047312,0.838636,0.613554,-0.581703,0.534016
-0.095625,0.174859,0.872831,0.950295,0.242838,0.194854
-0.764475,0.143126,0.539887,0.288089,0.725791,-0.624686
0.720294,-0.300219,0.820385,0.392055,-0.622115,0.677692
-0.073489,-0.083764,0.460176,-0.634069,-0.768512,0.085713
0.104665,-0.358619,0.284599,-0.379610,0.925118,-0.007297
-0.226093,0.094049,0.864181,-0.188498,-0.797722,0.572808
0.374409,0.231534,0.778307,-0.409360,-0.476700,-0.777934
0.299652,0.161852,0.835519,0.042564,0.010273,0.999041
-0.333363,0.011320,0.814180,0.273406,0.192065,0.942528
0.204602,0.567630,0.602255,-0.283932,-0.715026,0.638844
-0.754052,-0.265876,0.712934,-0.128505,-0.601049,0.788814
0.377453,-0.717048,0.723513,0.909426,0.212527,0.357458
0.149399,-0.560684,0.101365,-0.702028,0.679047,0.214597
0.262158,-0.352442,0.721836,-0.385838,-0.921721,0.039501
0.387322,-0.339779,0.603457,0.666974,-0.734486,-0.125201
0.588904,-0.044280,0.801659,-0.292078,0.893136,-0.342050
0.851824,-0.158282,0.736789,-0.014400,-0.116938,0.993035
0.561741,-0.330263,0.903631,-0.288592,-0.601720,0.744747
0.855466,-0.286981,0.674951,0.227324,-0.369961,0.900807
-0.523509,0.007215,0.809512,-0.408260,0.125104,-0.904253
0.292135,-0.366562,0.924565,-0.527317,0.097997,0.843998
0.295963,-0.461149,0.831215,0.941365,-0.248669,-0.228026
-0.369151,-0.245654,0.887477,0.162212,0.033026,0.986203
0.479927,-0.265377,0.740087,-0.443661,0.164751,-0.880921
-0.303940,-0.469092,0.834164,0.184979,0.133835,-0.973587
0.086356,-0.160661,0.672310,-0.815220,0.220533,0.535520
0.374178,0.047197,0.733519,0.806362,0.591291,0.012471
0.080684,0.695753,0.516885,-0.242037,-0.720485,0.649861
0.378514,-0.678561,0.806662,0.213559,0.701771,0.679640
0.307815,-0.567898,0.569080,-0.687209,-0.599715,0.409983
0.731040,-0.464793,0.619123,-0.074333,0.847299,0.525888
0.774529,-0.013890,0.845050,0.756954,0.651072,0.055908
-0.048954,0.306358,0.670731,-0.591501,-0.788498,0.168513
0.217562,0.177047,0.544485,-0.711147,0.048908,0.701340
0.709226,-0.790721,0.668481,-0.737226,-0.667307,-0.105826
0.494778,-0.378612,0.675384,-0.487066,0.058454,-0.871407
0.483939,-0.407927,0.683252,0.219584,-0.741311,0.634224
-0.242096,0.002954,0.850528,0.874714,-0.432746,-0.218188
-0.786335,0.089329,0.586688,-0.383821,-0.506815,-0.771894
-0.720201,-0.446874,0.692531,0.059758,0.678182,0.732460
0.236424,-0.330302,0.293543,0.019181,-0.982009,0.187857
0.113658,-0.426000,0.027146,0.976732,-0.214066,-0.013031
-0.144141,0.044742,0.647491,0.852888,0.521963,0.011686
-0.288675,-0.488047,0.829496,-0.524676,-0.562010,0.639421
-0.150414,-0.070872,0.552031,-0.218895,-0.823259,0.523765
0.218070,-0.521315,0.481683,-0.633146,0.773251,0.034775
0.583785,-0.511338,0.660823,0.627318,-0.098781,0.772473
0.376346,-0.672614,0.657832,0.402295,-0.678416,-0.614744
-0.626351,-0.097501,0.516074,0.372696,0.860734,0.346749
-0.688888,-0.550133,0.610948,-0.160526,0.033572,0.986461
0.613715,-0.607152,0.680681,-0.427312,0.151873,-0.891257
0.184725,-0.560070,0.653305,0.991962,-0.086385,-0.092464
-0.860585,-0.396416,0.695815,-0.005618,-0.341158,0.939989
-0.207969,0.764706,0.477225,-0.541604,-0.838111,-0.065083
0.189937,-0.527032,0.888832,-0.411662,0.777232,-0.475863
-0.216869,-0.010321,0.795678,-0.070137,0.990294,0.119994
0.132751,0.286328,0.698470,0.879600,0.464600,-0.102225
0.077548,-0.819269,0.742253,0.987497,0.145441,0.060806
-0.468259,-0.177622,0.821083,0.723338,0.086501,-0.685055
0.049600,0.152412,0.832123,-0.707636,-0.702640,0.074483
0.109415,-0.273780,0.924076,-0.437714,-0.078279,0.895700
0.319575,-0.378880,0.524627,0.998750,0.035785,-0.034884
0.144327,0.173401,0.679158,0.965855,0.014981,0.258650
0.468444,-0.389278,0.851883,-0.216533,0.812250,0.541630
-0.766965,0.005487,0.517835,0.891222,0.406973,-0.200241
0.286139,-0.446568,0.448843,0.891871,-0.374896,-0.253021
-0.404847,0.620697,0.461881,0.567747,0.257239,-0.781979
0.225218,0.328153,0.728027,0.502063,0.375121,-0.779242
-0.220282,-0.045240,0.556908,0.422641,0.727687,-0.540228
0.411442,-0.140477,0.397752,-0.563091,0.801019,-0.203214
0.142251,-0.690380,0.869128,-0.022609,-0.771016,0.636415
0.531765,-0.348298,0.878645,0.795727,0.021430,-0.605276
0.426292,-0.142243,0.852498,-0.036447,-0.768135,0.639249
-0.610810,-0.347722,0.792226,0.822626,-0.292302,-0.487695
0.087140,-0.156517,0.977235,0.155637,-0.318081,-0.935201
0.166232,0.268179,0.299161,0.487085,0.056498,-0.871525
0.744321,-0.007751,0.748206,0.672548,0.730319,-0.119639
0.446999,0.118991,0.865844,0.547573,0.622901,0.558711
-0.781539,-0.479298,0.633363,0.841027,0.229901,0.489713
0.180899,0.381720,0.612960,0.953181,0.128666,0.273663
0.391243,-0.540156,0.647491,0.680840,0.127664,-0.721220
-0.390873,-0.404819,0.821629,0.996646,0.026158,-0.077537
0.107801,-0.073673,0.401245,0.061934,-0.144280,0.987597
-0.284940,0.009133,0.551109,0.470147,0.690576,0.549606
-0.765720,-0.121138,0.681198,-0.623649,0.729526,-0.280809
0.190536,-0.565941,0.459980,0.828149,-0.396650,0.396027
0.080315,-0.267910,0.676363,-0.051215,-0.992741,0.108820
-0.215763,0.591382,0.509911,0.025772,0.135982,0.990376
0.416838,-0.408004,0.711858,-0.285225,0.572596,0.768622
0.150967,-0.266489,0.603066,-0.242628,0.967584,0.070097
-0.135518,0.139519,0.566425,-0.155851,0.917397,0.366187
0.022713,0.123672,0.310676,0.761412,-0.643772,0.076214
-0.105034,-0.351214,0.890481,0.891850,-0.307118,-0.332087
-0.496715,-0.563293,0.676405,0.658553,0.190214,0.728098
0.469367,0.267449,0.579533,-0.361194,0.596817,0.716483
0.585675,-0.255823,0.766317,-0.010968,-0.606494,0.795013
0.112459,-0.774912,0.836022,-0.006449,-0.178902,0.983846
-0.375377,-0.194965,0.501401,0.494116,0.707813,0.504827
-0.446445,-0.048079,0.786035,-0.883881,-0.019609,-0.467301
0.151475,-0.395341,-0.220065,0.946828,-0.298240,0.120709
0.768903,-0.485054,0.782821,0.962497,-0.085089,0.257604
-0.290981,-0.297148,0.640602,0.841953,-0.241734,0.482368
0.305785,-0.406929,0.828951,0.944997,-0.208827,-0.251736
-0.434870,-0.486473,0.855978,0.867237,-0.031412,-0.496903
-0.158807,0.218373,0.583767,0.367534,-0.413887,0.832836
0.313995,-0.638655,0.800709,0.971682,0.205321,-0.116951
0.331335,-0.318330,0.510023,-0.464056,0.172944,0.868759
0.372564,-0.955604,0.735713,0.168509,0.425438,0.889161
0.159776,0.347570,0.721529,-0.565561,-0.192383,0.801954
0.420573,-0.297455,0.869002,0.637689,0.768853,0.047089
0.100146,0.806607,0.444217,-0.687243,0.124714,-0.715642
0.299145,-0.522236,0.606085,0.416850,0.884099,0.211199
-0.107663,0.348643,0.748989,0.630582,0.603858,-0.487567
0.050153,-0.024788,0.950097,-0.002986,-0.992482,0.122358
0.242743,-0.515828,0.514439,0.855924,0.486710,-0.174664
-0.376668,0.424159,0.566998,0.053968,-0.568324,0.821033
-0.196301,0.029163,0.797997,-0.060886,0.981453,0.181779
0.483064,-0.230536,0.379473,0.632456,-0.553694,-0.541685
0.574792,-0.585165,0.649252,-0.606120,0.780778,0.151670
-0.069892,-0.755227,0.748653,0.464042,0.474234,0.748176
0.184357,0.180731,0.515278,0.481170,0.302451,-0.822800
0.054950,-0.141399,0.732107,0.733040,0.435119,0.522803
-0.484723,-0.043398,0.784819,0.491305,-0.869347,-0.053443
0.144880,-0.380952,-0.206482,0.943146,-0.329847,-0.040945
0.340559,-0.382564,0.558124,0.113622,-0.972376,0.203899
0.517513,-0.386708,0.733323,-0.828501,0.205448,0.520939
0.090000,0.784199,0.500157,-0.635986,-0.331725,0.696765
0.052966,-0.479182,-0.258663,0.788958,-0.607839,0.089867
0.196670,-0.508997,0.609383,0.185095,0.928526,0.321836
0.059193,-0.452092,-0.127134,0.996022,0.053757,0.071062
0.097379,0.757185,0.489565,0.850934,0.269013,-0.451158
-0.238591,-0.322627,0.294829,-0.073026,-0.302997,0.950189
0.643323,-0.376770,0.749492,-0.062094,-0.617327,0.784252
-0.094057,-0.815701,0.837196,0.539178,0.473862,0.696234
0.082483,-0.180039,0.757038,-0.400812,0.914028,-0.062470
0.409413,-0.828709,0.755096,-0.196177,0.976457,0.089698
-0.057024,0.418173,0.564957,-0.028911,-0.313547,0.949132
-0.515622,0.194621,0.555021,-0.062368,-0.797800,0.599688
0.272720,-0.588964,0.712068,0.753683,0.656325,-0.034638
0.133581,-0.311730,0.425156,0.803449,-0.568781,0.175949
0.452164,-0.193047,0.361138,-0.693201,0.569599,0.441621
0.627505,-0.401443,0.762963,0.521025,0.585836,-0.620750
-0.043835,0.541116,0.492946,-0.070829,0.554543,0.829135
-0.076994,0.336135,0.329360,-0.679974,-0.485588,0.549399
-0.270504,0.190898,0.635319,0.186855,0.326782,0.926444
0.590703,-0.288439,0.744810,-0.802513,0.391693,0.450054
-0.290981,0.579179,0.504741,0.436917,-0.587455,0.681175
0.358729,-0.349488,0.901829,0.683892,0.543930,0.486242
0.084051,0.161390,0.642363,0.370025,0.155579,0.915902
0.273919,-0.346648,0.944269,0.172961,-0.813525,0.555213
0.215718,-0.081424,0.474933,-0.047065,-0.562845,0.825221
0.458391,-0.697210,0.859807,0.830850,-0.418505,0.366801
0.161253,-0.290702,0.805600,0.943138,0.332021,-0.015883
-0.206632,0.729021,0.467303,0.680749,0.231219,0.695068
0.061038,-0.222401,0.689736,-0.092718,-0.878555,0.468556
0.811240,-0.102758,0.759567,0.780280,0.451440,0.432858
0.241682,0.556311,0.343460,0.901123,-0.412267,0.134213
-0.024143,0.245309,0.468183,0.979617,0.076033,0.185929
0.283741,-0.297341,-0.990819,0.074797,-0.141599,-0.987094
0.192843,-0.510341,-0.975782,-0.212395,0.199285,-0.956647
-0.010122,-0.144123,0.943571,0.421458,-0.782983,0.457505
0.098393,-0.528453,-0.897720,0.761345,-0.596927,0.253045
0.421080,0.505699,0.530203,0.892533,-0.105972,0.438355
0.205479,0.281877,0.830041,0.169762,0.838327,0.518063
-0.139207,0.317947,0.792268,-0.007730,0.978492,0.206141
0.400927,0.452746,0.529881,-0.805439,0.230234,-0.546132
0.220421,-0.564790,-0.974664,0.000167,0.112516,0.993650
0.040977,-0.316334,-0.994732,-0.023577,0.129250,0.991332
-0.595544,-0.575303,0.793903,-0.037294,0.935594,-0.351102
0.371181,-0.649744,0.798920,0.853930,0.517390,0.055777
0.402680,-0.868270,0.730766,0.346499,-0.461329,0.816771
-0.168031,-0.106557,0.552590,-0.175511,-0.940230,0.291828
0.352458,-0.786040,0.691106,0.163736,0.753386,0.636868
0.155994,-0.459268,-0.313778,-0.764838,0.629618,-0.136394
-0.619158,-0.185487,0.725959,0.982746,-0.083209,0.165188
-0.192012,-0.108476,0.948713,0.926903,0.356680,0.116745
0.554546,-0.380377,0.892368,0.184447,0.388718,-0.902705
0.570595,-0.586393,0.631546,0.932818,-0.266418,-0.242635
0.880186,-0.105751,0.755389,-0.616475,-0.053351,-0.785565
0.504047,-0.239822,0.523257,-0.137216,-0.412970,0.900349
-0.626351,-0.346878,0.668313,0.926646,0.375551,-0.016971
0.764891,-0.015387,0.756060,0.281115,0.881325,-0.379790
-0.886504,-0.288976,0.687892,-0.016126,0.394875,-0.918593
0.109969,0.290665,0.530021,0.696946,0.374884,0.611333
0.666566,-0.183338,0.814054,0.330646,-0.294067,0.896771
-0.905965,-0.114385,0.579463,0.495719,0.081099,-0.864688
0.225079,-0.626837,0.730975,-0.414080,0.734608,0.537484
-0.111860,0.549288,0.577632,-0.442612,0.333697,-0.832310
0.359051,0.154369,0.685292,0.954786,0.197948,0.221811
0.559620,0.162964,0.825849,-0.362324,-0.615358,-0.700040
0.242881,-0.295307,0.793442,-0.722990,0.003051,0.690851
-0.159730,-0.559840,0.329458,0.075060,0.828485,0.554958
-0.190859,0.228119,0.749156,0.872380,0.324820,0.365301
0.048032,-0.493150,-0.876870,0.892252,0.448799,0.049651
-0.317453,0.057749,0.878128,0.366693,-0.207232,0.906968
0.150230,-0.341314,0.840829,0.996121,0.032578,0.081747
-0.140590,0.203484,0.702090,-0.696710,-0.472864,0.539440
-0.281296,-0.690534,0.780389,0.593312,0.428636,0.681361
-0.641524,-0.395226,0.786874,0.928648,-0.227043,-0.293369
-0.007310,0.599824,0.425840,-0.010190,-0.687799,0.725830
0.416008,0.061472,0.857152,0.468567,0.542873,-0.696946
-0.496344,0.027167,0.751839,-0.274449,0.890774,-0.362214
0.016534,0.717893,0.457926,-0.394368,0.394420,-0.830004
0.546983,-0.353440,0.885241,0.636181,0.342288,-0.691457
-0.645260,0.156939,0.545616,0.327102,0.238840,-0.914308
-0.319021,-0.412148,0.626949,0.462345,0.877355,0.128394
0.539373,-0.120831,0.759945,0.420450,0.698190,-0.579441
0.628289,0.068916,0.716568,-0.223589,-0.629590,0.744060
-0.449027,0.270481,0.692923,0.523373,0.808141,-0.270165
-0.617728,-0.331952,0.835505,0.106907,0.186161,-0.976686
-0.044941,-0.048041,0.318208,0.900682,-0.074345,0.428070
0.294533,0.330725,0.739626,-0.086681,0.540090,0.837132
-0.371411,-0.402056,0.369928,0.323464,-0.925161,0.198613
-0.645399,-0.350177,0.648274,0.518827,0.697377,-0.494453
0.250860,0.240206,0.536351,0.359660,-0.155862,0.919974
-0.113335,-0.483711,0.433233,0.940459,-0.323341,0.104822
-0.057071,0.662945,0.466129,-0.428004,-0.435576,-0.791887
0.684460,-0.279613,0.687151,0.004665,-0.770241,0.637736
0.337700,0.059553,0.685474,0.908464,0.383438,0.166336
0.746628,-0.207398,0.846056,0.816145,0.470660,0.335242
-0.680725,-0.138445,0.826254,-0.177045,-0.146979,0.973166
0.392811,-0.764552,0.728013,-0.436912,-0.860014,-0.263599
0.583877,-0.292659,0.817702,0.111565,-0.984550,-0.134962
-0.063896,-0.627066,0.760350,-0.400170,0.670982,-0.624217
-0.333916,-0.487318,0.797732,-0.321870,-0.890098,0.322684
0.107156,0.344922,0.303130,0.611568,0.018279,-0.790981
0.138147,-0.594605,-0.972065,0.055332,-0.090995,0.994313
0.172736,0.406585,0.298923,-0.650263,0.150764,0.744600
0.487952,-0.338282,0.648400,-0.710607,0.597402,0.371684
-0.289321,-0.609876,0.773668,0.262518,0.023404,0.964643
-0.146770,-0.077510,0.558068,-0.205935,-0.935061,0.288533
-0.394055,-0.078546,0.754592,0.921029,-0.163295,0.353610
-0.850116,-0.127891,0.509632,-0.697919,0.405297,0.590460
0.417114,0.068992,0.802092,0.723395,0.615784,-0.312265
0.799156,-0.294348,0.691050,-0.166829,0.878551,-0.447568
-0.122559,0.234757,0.855419,0.649416,0.723420,0.234354
-0.254364,0.076628,0.887644,-0.017605,-0.615508,0.787934
-0.189107,-0.324737,0.561128,0.541923,0.775952,-0.322828
-0.027740,-0.476267,0.116289,-0.544930,0.836446,0.058385
-0.234072,0.228732,0.733770,0.509680,0.794611,-0.329878
-0.186801,0.463183,0.381205,0.103941,-0.189164,0.976429
-0.116470,-0.431948,-0.990665,0.110950,-0.218370,-0.969539
-0.401019,-0.559609,0.795636,0.906417,0.413459,-0.086374
0.310766,0.283911,0.534898,-0.455410,0.438686,0.774698
-0.425784,-0.350063,0.829161,-0.166919,-0.791569,0.587841
0.627736,-0.000691,0.853253,-0.577018,0.563830,-0.590886
0.811655,-0.298300,0.721668,0.590662,0.687767,0.422013
-0.318698,-0.179348,0.848907,0.836667,-0.544518,0.059063
0.440912,-0.164729,0.767044,0.847526,-0.245294,0.470670
0.401527,0.152566,0.857459,0.460681,-0.637169,-0.617890
0.374824,-0.250681,0.857180,0.977255,-0.100815,0.186573
0.038486,0.070412,0.855098,-0.233103,0.592484,-0.771120
-0.609012,-0.095314,0.526807,0.181332,0.945179,0.271579
0.187908,0.573041,0.478888,0.129060,-0.182579,0.974684
-0.206308,-0.385288,0.750554,-0.686711,0.647040,-0.331312
-0.406553,-0.371973,0.797900,0.897619,0.384526,-0.215452
-0.229829,-0.281762,0.317607,0.291491,0.364957,-0.884217
0.560911,-0.670772,0.665421,-0.663570,-0.440333,-0.604800
0.479098,0.063467,0.764556,-0.223443,0.967971,0.114482
0.103235,-0.506350,-0.493701,0.820240,0.504175,-0.270212
-0.285770,0.554622,0.477700,0.773997,0.413849,-0.479225
0.413472,-0.842139,0.771110,-0.570164,0.444863,0.690659
-0.419927,-0.105176,0.294982,-0.470178,-0.312154,0.825525
-0.796342,-0.390698,0.624279,0.062217,0.180721,0.981565
-0.316808,-0.617782,0.414213,-0.627780,-0.754701,0.190575
0.112321,-0.397336,0.908620,0.789442,0.341593,-0.509995
0.193950,-0.382909,0.764277,0.995743,-0.043341,-0.081350
-0.092028,0.576724,0.473927,0.861305,0.205652,0.464608
0.040653,-0.185910,0.414409,0.884008,0.130945,0.448758
-0.056748,0.039408,0.666804,-0.175104,-0.557326,0.811619
0.307954,-0.237903,0.964533,-0.416462,0.838276,-0.351926
0.518206,-0.662790,0.698764,0.978031,-0.172499,0.117045
0.064820,-0.209585,0.789445,-0.321314,0.946971,0.001596
0.466230,0.132305,0.820874,-0.574300,0.706168,-0.414133
-0.599095,-0.110740,0.542570,-0.204976,-0.933692,-0.293605
0.048770,-0.734814,0.898880,0.081152,-0.756888,0.648486
-0.281620,-0.503818,0.783995,0.372641,-0.022184,0.927710
0.111906,-0.292583,-0.016721,0.957558,-0.267806,0.106597
0.344571,0.274127,0.740548,0.677411,0.522516,-0.517776
-0.243941,-0.365872,0.301103,-0.019821,-0.012595,0.999724
0.300528,-0.304670,0.967663,0.641981,0.230196,-0.731348
0.349644,-0.692797,-0.967998,-0.022189,0.073527,0.997046
-0.258468,-0.220904,0.319200,-0.478243,-0.504719,0.718709
0.627412,0.011474,0.633195,-0.334942,-0.083484,0.938533
0.287016,-0.493496,0.374093,0.982193,-0.180318,-0.052742
-0.168215,0.685316,0.483779,0.873174,0.487319,-0.009348
0.810871,0.083459,0.693733,-0.286102,0.948175,-0.138237
-0.098623,0.128698,0.575857,-0.740596,-0.316353,-0.592823
-0.372657,0.213116,0.791415,0.880630,-0.470742,0.053781
0.327969,-0.493189,-0.976886,-0.031900,0.127019,0.991387
-0.493346,-0.559226,0.777245,-0.374740,-0.457727,-0.806261
0.085480,-0.356855,-0.992328,-0.236641,-0.371688,-0.897691
0.131183,-0.519243,-0.492345,0.832126,0.410417,-0.372992
0.100699,-0.539964,0.033001,0.985755,0.117491,-0.120342
0.331105,0.519857,0.575927,0.065143,0.518364,-0.852676
0.007541,-0.265837,0.391519,0.875178,0.228359,-0.426515
0.108493,-0.341928,0.443476,0.839707,0.483574,-0.247080
0.414716,-0.705651,0.683112,0.805403,0.586107,0.088343
0.400235,-0.804612,0.756605,0.187127,0.744298,0.641096
-0.024189,-0.628410,0.899076,0.896792,-0.109945,-0.428575
0.972698,-0.532021,0.692461,-0.324686,0.050561,-0.944469
0.273319,0.765858,0.443965,0.832957,0.550097,0.059802
0.228307,-0.738190,0.709287,-0.022605,0.315317,0.948717
0.138054,-0.268523,-0.995025,-0.063398,0.088301,0.994074
-0.328475,0.266030,0.761566,0.027279,0.983209,0.180432
0.420251,-0.173439,0.564594,-0.113213,-0.831306,0.544163
-0.138469,-0.006829,0.756130,0.915321,0.355517,-0.189195
0.135472,-0.494071,-0.928366,0.959038,-0.269013,0.088761
0.166141,-0.327961,0.826282,0.993724,-0.009910,-0.111421
-0.233242,-0.336863,0.306176,0.160254,-0.216784,0.962976
0.421495,0.344499,0.536910,0.469975,0.372689,-0.800141
-0.463094,-0.371091,0.606098,0.106446,-0.954801,0.277533
-0.086309,-0.281800,0.894031,0.629040,0.348196,-0.695031
-0.209030,-0.318714,0.520630,0.773126,-0.577542,0.262147
-0.051352,-0.451632,0.141402,-0.385450,0.914789,0.120789
0.449028,0.111162,0.825248,0.927083,0.018866,-0.374380
0.609058,-0.285100,0.825024,-0.213762,0.969275,-0.121705
-0.020730,0.292736,0.743664,0.494777,0.759404,0.422495
