0.188988,-0.390076,0.594960,0.758753,-0.312089,-0.571748
-0.234135,-0.510032,-0.974564,-0.161060,0.244387,0.956208
-0.191938,-0.454995,-0.976546,-0.260281,0.184961,0.947652
-0.153227,-0.405293,-0.975418,-0.234353,0.216112,0.947826
0.028622,-0.506959,0.264850,0.984692,-0.168202,-0.045722
0.042946,-0.495952,0.293048,0.959577,0.213428,-0.183470
0.055138,-0.488343,0.323562,0.960946,0.103134,-0.256799
0.135757,-0.417269,0.444279,0.952473,0.104577,-0.286109
0.142532,-0.418079,0.480310,0.973849,0.127730,-0.187891
-0.093611,-0.483808,0.150414,0.898538,0.429919,-0.088309
-0.075031,-0.467060,0.174770,0.695156,0.696567,-0.177633
-0.063609,-0.461309,0.207419,-0.603483,0.465564,0.647348
0.059784,-0.298361,0.192390,0.805267,-0.533331,-0.259043
-0.160487,-0.691844,0.587187,-0.582097,-0.151285,0.798922
0.017298,-0.440509,0.505826,0.283240,0.886967,0.364782
0.033073,-0.426419,0.529694,-0.566703,0.807070,-0.165788
0.056881,-0.400432,0.543930,0.815515,-0.561740,-0.139225
-0.343594,-0.490774,-0.974960,0.086883,-0.002460,0.996215
-0.307399,-0.446576,-0.967675,0.212039,-0.310674,0.926564
-0.270040,-0.399542,-0.963133,0.668567,0.495936,0.554134
-0.247201,-0.376559,-0.939386,-0.301089,0.951864,-0.057444
-0.198616,-0.310178,-0.952738,0.328004,0.872452,0.362271
-0.227168,-0.374939,-0.853360,0.942233,-0.281192,-0.182012
-0.231813,-0.429818,-0.677956,0.567933,0.742759,-0.354630
-0.423244,-0.395659,-0.984045,0.309314,-0.238735,-0.920505
-0.381145,-0.341511,-0.985264,0.394490,-0.404695,-0.824985
-0.340399,-0.288736,-0.987398,-0.344964,0.678535,0.648529
-0.302848,-0.357212,-0.586443,0.964962,0.256153,0.056859
-0.292493,-0.356155,-0.545351,0.888830,-0.261982,-0.375961
-0.289397,-0.366925,-0.494839,0.904533,0.288450,0.314034
-0.282138,-0.370077,-0.452741,-0.209276,-0.908369,0.362034
-0.282427,-0.386025,-0.400491,0.997319,0.069912,-0.021615
-0.280008,-0.397201,-0.350864,0.526133,-0.840477,-0.129550
-0.276718,-0.406261,-0.304833,0.553968,-0.819285,0.147960
-0.277687,-0.423099,-0.250907,0.989714,-0.099633,0.102657
-0.274784,-0.433622,-0.202986,0.966623,0.242535,-0.082565
-0.263847,-0.430707,-0.165918,0.931248,0.360897,-0.050315
-0.257267,-0.433790,-0.125984,0.211985,0.797067,0.565462
-0.244103,-0.425688,-0.094860,0.518690,0.775909,-0.359063
-0.232298,-0.420431,-0.060718,0.910065,-0.414296,-0.011845
-0.223296,-0.419779,-0.024564,-0.534868,-0.844852,0.011881
-0.219134,-0.426903,0.018998,0.876502,0.448376,-0.175222
-0.201519,-0.412417,0.045580,0.967089,0.203145,-0.153205
-0.195908,-0.417111,0.086580,0.961994,0.265485,-0.063911
-0.185260,-0.412822,0.119777,0.748764,0.661632,0.039954
-0.180423,-0.418563,0.159650,0.744772,0.614020,0.261331
-0.417050,-0.821434,0.498601,0.338366,0.832307,0.439060
-0.169294,-0.413959,0.192939,0.772477,0.531494,0.347552
-0.160194,-0.411933,0.226593,0.450693,0.354234,-0.819387
-0.152648,-0.413307,0.263509,0.896812,0.346885,-0.274591
-0.167262,-0.450460,0.327159,-0.081461,0.958749,0.272331
-0.138226,-0.416469,0.337707,0.959667,-0.184926,-0.211760
-0.131162,-0.417437,0.372519,0.961523,0.274715,-0.002158
-0.117806,-0.408050,0.399620,0.932274,0.002151,-0.361745
-0.115289,-0.416706,0.441078,0.947554,-0.262228,0.182695
-0.090610,-0.389266,0.454613,0.719611,0.692006,0.057339
-0.006799,-0.266148,0.400473,-0.669349,0.192511,0.717573
0.006170,-0.257729,0.429341,-0.131233,0.986695,0.095970
-0.125937,-0.253767,0.436353,-0.847258,0.430761,-0.310804
-0.123808,-0.263480,0.476409,0.599485,-0.264109,-0.755556
-0.372048,-0.405135,-0.098640,0.655998,-0.753654,0.040901
-0.359756,-0.400274,-0.063980,0.830715,-0.469265,0.299506
-0.275170,-0.273352,-0.123911,0.864509,-0.452577,0.218630
-0.268203,-0.276671,-0.082910,0.898373,-0.408804,-0.160640
-0.248459,-0.258540,-0.060230,-0.651823,0.700918,-0.289554
-0.213714,-0.244697,0.039849,0.962232,0.254761,-0.095953
-0.445309,-0.659305,0.423641,0.800877,0.495547,0.336198
-0.339140,-0.537640,0.471318,-0.214132,-0.956519,0.198039
-0.338561,-0.550100,0.513721,0.070026,0.897870,0.434656
-0.491859,-0.477257,0.097646,0.508786,-0.785670,-0.351937
-0.456633,-0.432407,0.099140,0.089547,-0.991976,0.089241
-0.462826,-0.458552,0.156053,0.524287,0.845384,-0.102225
-0.224167,-0.102883,-0.002463,0.435460,-0.822665,0.365509
-0.235877,-0.137121,0.059267,0.990545,-0.046345,0.129119
-0.227457,-0.138742,0.097311,0.999745,-0.014360,-0.017419
-0.244395,-0.181645,0.164223,0.877591,0.476865,0.049336
-0.238491,-0.186497,0.204096,0.600856,0.785728,-0.146981
-0.228910,-0.185044,0.239152,0.680808,-0.725005,0.104249
-0.182939,-0.123041,0.229337,-0.775420,0.586618,-0.233671
-0.082869,-0.013519,0.287927,-0.644183,-0.039685,0.763841
-0.045995,0.033109,0.290426,-0.669840,-0.085700,0.737543
-0.018220,0.064353,0.303230,-0.799013,0.555150,0.231054
0.014977,0.105073,0.309418,0.538966,0.293513,-0.789535
-0.124871,-0.151686,0.555850,-0.004939,0.832223,-0.554420
-0.512088,-0.427150,0.214765,0.905527,-0.412427,0.099620
-0.509376,-0.437505,0.258906,0.760929,-0.645326,0.067386
-0.514120,-0.460578,0.310637,0.988879,0.144751,0.034151
-0.529507,-0.501218,0.376604,-0.655597,-0.737844,-0.160556
-0.535895,-0.526307,0.430622,0.549479,0.789554,0.273272
-0.531734,-0.534478,0.471623,-0.281860,-0.948504,-0.144553
-0.230168,-0.030030,0.100176,0.951642,-0.279426,0.127668
-0.203747,-0.000318,0.113376,0.922175,0.218995,-0.318801
-0.550896,-0.594298,0.581669,-0.086751,0.977035,0.194621
-0.207231,-0.021049,0.163247,0.989628,0.008426,-0.143407
-0.272846,-0.145135,0.289146,0.963576,0.171852,0.204912
-0.251847,-0.139147,0.353802,0.910418,0.413568,-0.010073
-0.085870,0.064432,0.380201,0.761888,-0.647302,-0.022951
-0.107838,0.014493,0.448394,-0.485937,0.832480,-0.266162
-0.588158,-0.494173,0.461228,-0.647735,-0.664264,-0.373085
-0.590092,-0.511653,0.507776,0.589840,0.768483,0.248038
-0.571509,-0.495705,0.530609,0.794973,0.602639,-0.069605
-0.239652,0.059413,0.125691,0.789380,0.447441,-0.420328
-0.588060,-0.537719,0.595387,0.929449,0.043305,0.366400
-0.197651,0.098917,0.169131,0.691653,0.631763,-0.349987
-0.182939,0.109035,0.196140,0.450429,0.789100,-0.417655
-0.271783,-0.081669,0.434341,-0.723920,-0.501701,0.473535
-0.257364,-0.072124,0.461837,-0.525046,0.839350,0.140774
-0.232877,-0.046384,0.477811,-0.664352,0.711992,-0.227384
-0.225233,-0.047757,0.512684,-0.511383,0.835778,-0.199906
-0.569672,-0.434195,0.348041,0.903486,0.313849,0.291911
-0.719100,-0.507532,0.347218,-0.511190,0.837358,0.193691
-0.624060,-0.422862,0.457173,0.971748,0.183147,0.148875
-0.615350,-0.423178,0.492413,0.937630,0.198828,0.285163
-0.578963,-0.376312,0.491529,0.897165,-0.393539,0.200554
-0.260846,0.141900,0.149682,-0.676042,-0.557065,0.482334
-0.195037,0.191196,0.255248,-0.720971,-0.548107,0.424005
-0.321528,-0.034803,0.450070,0.544474,0.821714,-0.168325
-0.284072,0.196137,0.170899,0.834809,0.502097,-0.225814
-0.216520,0.249722,0.269636,-0.199712,-0.799545,0.566430
-0.164648,0.276756,0.387365,-0.490113,0.823948,-0.284429
0.102078,0.587101,0.473726,-0.030489,-0.890201,0.454546
0.157435,0.650151,0.496924,0.171373,-0.854392,0.490556
-0.317852,0.204872,0.185714,0.839492,0.519012,-0.160872
-0.226491,0.282181,0.303961,-0.436937,-0.808490,0.394246
-0.200843,0.310668,0.317313,0.299235,-0.922146,0.245165
-0.178101,0.333661,0.335878,-0.649436,0.565746,-0.508099
0.130724,0.670714,0.504941,0.074269,-0.826061,0.558665
-0.240039,0.302823,0.326611,-0.091184,-0.915316,0.392279
-0.220974,0.320065,0.347675,-0.511152,0.794623,-0.327563
-0.177324,0.378096,0.340237,-0.920875,0.033709,0.388399
-0.175100,0.326132,0.510124,-0.012954,0.885410,0.464631
-0.743390,-0.402783,0.525152,-0.523871,-0.825262,-0.210954
-0.310107,0.259672,0.183519,0.838732,0.526657,-0.138421
-0.321044,0.304433,0.227050,-0.695020,-0.638903,0.329772
-0.266074,0.338197,0.338499,0.852814,0.357095,0.381039
-0.219521,0.386762,0.373160,-0.425687,0.777535,-0.462849
-0.178970,0.438480,0.371483,0.824684,-0.149865,0.545377
-0.151777,0.469328,0.382884,0.922928,-0.379577,-0.064223
-0.136292,0.481225,0.407271,0.984618,-0.168362,-0.046709
-0.244009,0.353651,0.601210,0.816825,-0.561127,0.133918
-0.334302,0.397364,0.266161,-0.178190,0.770041,-0.612606
-0.384724,0.233527,0.579475,-0.569392,0.455316,0.684456
-0.463890,0.170308,0.578377,0.749153,-0.616683,-0.241811
-0.182165,0.548080,0.516891,-0.412708,0.728434,-0.546860
-0.180810,0.580302,0.503722,0.836888,-0.546033,-0.038286
-0.149066,0.618670,0.511160,-0.216820,0.914471,0.341660
-0.375530,0.408777,0.278995,-0.058117,-0.806300,0.588645
-0.169099,0.624095,0.491193,0.667927,-0.672723,0.318305
-0.158744,0.628621,0.519970,-0.333849,0.935425,0.116296
-0.814622,-0.191112,0.594778,0.870645,-0.401298,-0.284495
-0.140453,0.678243,0.549296,0.143274,-0.546642,0.825018
-0.171518,0.598671,0.489425,-0.053813,-0.909726,0.411707
-0.856139,-0.197910,0.591424,-0.717540,0.696361,0.014744
-0.172874,0.680595,0.536584,0.415711,0.691622,-0.590629
-0.439695,0.444794,0.303626,-0.516125,-0.856445,0.010868
-0.217586,0.768013,0.550667,-0.049881,-0.477216,0.877369
-0.303914,0.803634,0.501192,0.868794,-0.023667,-0.494608
-0.338272,0.845401,0.467934,0.094426,-0.987062,0.129588
-0.210619,0.993686,0.531615,-0.130064,0.990056,-0.053599
-0.855947,-0.125225,0.656416,0.760012,-0.544327,-0.355091
-0.597641,0.192817,0.692478,-0.384389,0.784456,0.486697
-0.949339,-0.300791,0.736436,-0.847019,-0.294432,-0.442571
-0.855365,-0.166913,0.673395,-0.739495,0.589911,0.324271
-0.584285,0.161652,0.734516,0.933063,0.184896,0.308557
-0.469309,0.325974,0.652514,-0.251549,0.935171,-0.249354
-0.485087,0.293594,0.706196,0.925057,-0.324208,-0.197888
-0.889528,-0.268006,0.709458,0.762587,-0.570107,-0.305678
-0.913723,-0.313824,0.774267,0.570135,-0.811969,0.125113
-0.884785,-0.251662,0.664189,0.980360,0.124020,0.153342
-0.852075,-0.229074,0.745216,-0.079862,0.899702,0.429137
-0.538314,0.174201,0.720432,0.755172,-0.092661,0.648945
-0.508216,0.201720,0.765030,0.841905,0.175482,-0.510297
-0.875399,-0.342558,0.690131,0.923119,-0.290400,0.252029
-0.800587,-0.236762,0.645899,-0.461801,0.840257,0.284092
-0.779975,-0.224539,0.703788,0.964410,-0.079733,-0.252102
-0.724615,-0.149581,0.683394,0.096122,0.414229,0.905083
-0.691033,-0.107903,0.685498,-0.293727,0.380200,0.877025
-0.518378,0.118185,0.656446,0.517228,0.680290,-0.519308
-0.522055,0.093413,0.739180,0.727553,0.303509,0.615263
-0.375432,0.307111,0.623219,-0.528670,-0.759005,-0.380027
-0.890689,-0.296019,0.644649,0.884044,-0.447742,-0.134136
-0.829428,-0.211269,0.615537,0.558808,-0.758935,-0.334292
-0.830010,-0.221466,0.655288,0.202609,-0.439635,-0.875026
-0.881400,-0.310267,0.752227,0.218440,-0.063177,0.973803
-0.749489,-0.127240,0.686199,-0.379440,0.574356,0.725355
-0.378531,0.361743,0.605630,0.728732,0.121486,-0.673937
-0.942661,-0.422536,0.717567,0.795029,0.175056,0.580762
-0.849269,-0.287837,0.653185,0.750280,-0.640305,-0.164586
-0.791393,-0.208107,0.629224,-0.433944,0.895641,0.097572
-0.773004,-0.200014,0.688912,0.899152,-0.356571,0.253738
-0.534442,0.088473,0.744758,0.247567,0.145027,0.957955
-0.388307,0.303060,0.629986,0.360293,0.723549,0.588784
-0.873559,-0.258293,0.612306,-0.648867,0.285753,0.705207
-0.874238,-0.270516,0.654435,0.844148,-0.503429,-0.184319
-0.852849,-0.247770,0.670042,0.634653,-0.747126,0.197530
-0.892432,-0.320949,0.754269,-0.754643,0.631031,-0.179763
-0.851978,-0.268500,0.749758,-0.508693,-0.762034,-0.400669
-0.798942,-0.195479,0.729547,-0.580050,0.436141,0.687985
-0.713486,-0.071877,0.675286,-0.155710,0.461895,0.873159
-0.492730,0.198073,0.713390,0.972306,0.052211,0.227804
-0.807265,-0.224865,0.621542,-0.453730,0.867756,0.202804
-0.821105,-0.236604,0.725858,-0.437742,-0.032521,-0.898512
-0.387049,0.347178,0.612489,0.733573,0.402813,0.547368
-0.890497,-0.300959,0.641662,0.976125,-0.214486,-0.034292
-0.809394,-0.194352,0.630809,0.013396,0.999828,-0.012852
-0.878884,-0.316581,0.750002,0.787888,-0.578113,-0.212175
-0.954080,-0.462277,0.733357,0.887465,0.039600,0.459171
-0.895045,-0.378417,0.705007,0.871846,0.061472,0.485908
-0.818975,-0.280555,0.701258,0.706756,0.235512,0.667105
-0.797879,-0.258619,0.718664,0.775416,-0.438049,0.454800
-0.771070,-0.227296,0.728145,0.795623,-0.348572,-0.495461
-0.493601,0.157275,0.621634,0.534056,-0.714049,-0.452679
-0.523216,0.085963,0.734638,0.727553,0.303509,0.615263
-0.494570,0.120290,0.742320,0.759682,0.215578,0.613522
-0.814525,-0.247858,0.670195,-0.610018,0.741427,0.279580
-0.774457,-0.195884,0.666841,0.757839,0.594677,-0.268400
-0.781038,-0.218472,0.715951,0.846140,-0.473095,-0.245414
-0.752681,-0.185044,0.725279,0.531496,0.846750,0.022950
-0.531152,0.109678,0.679675,-0.349665,0.936582,-0.023425
-0.509763,0.119559,0.737869,0.839672,0.296512,0.455007
-0.432243,0.231343,0.692814,0.824515,0.155415,0.544078
-0.477827,0.114697,0.896721,0.059300,0.697106,0.714511
-0.806589,-0.265338,0.665866,-0.425074,0.558509,0.712306
-0.775521,-0.228106,0.672481,0.942713,0.087755,-0.321856
-0.780459,-0.248175,0.718420,0.827425,0.377172,-0.416064
-0.705839,-0.139226,0.673243,0.045168,0.394753,0.917676
-0.779490,-0.305811,0.696868,0.868149,0.241011,0.433856
-0.803975,-0.359237,0.766249,0.681825,0.206568,0.701744
-0.698000,-0.212395,0.728388,-0.058324,-0.998274,0.006852
-0.774942,-0.257571,0.682022,0.891222,0.290607,0.348239
-0.669934,-0.125383,0.686443,-0.183074,0.559009,0.808698
-0.493117,0.110488,0.651264,0.672517,0.682022,-0.287343
-0.484215,0.112187,0.682846,-0.087112,-0.965170,0.246694
-0.482278,0.103048,0.720463,-0.715535,-0.686200,-0.130915
-0.448407,0.094955,0.882728,0.828919,0.533933,0.166757
-0.509282,0.115191,0.659312,0.337191,0.765592,-0.547879
-0.512185,0.098512,0.702599,-0.665188,0.467047,0.582574
-0.509474,0.090657,0.739210,0.727553,0.303509,0.615263
-0.391499,0.267765,0.651051,-0.310345,0.030277,0.950142
-0.464374,0.091151,0.926534,0.354723,0.934918,0.010034
-0.307107,0.265018,0.628554,0.292740,0.840341,0.456214
-0.438534,0.024612,0.853616,0.340440,0.940178,0.012875
-0.256880,0.319660,0.655288,0.920993,-0.050372,0.386308
-0.420340,0.041281,0.874041,-0.169823,0.981587,-0.087444
-0.190680,0.400358,0.666049,-0.523935,0.804416,0.280013
-0.525635,0.030274,0.654861,0.548112,-0.619903,-0.561510
-0.421696,0.160269,0.662421,0.485469,-0.636850,-0.598951
-0.335463,0.287201,0.608770,0.118825,0.961524,0.247694
-0.315914,0.305243,0.629285,0.521201,-0.788784,0.325838
-0.264910,0.375023,0.613403,0.066656,0.944456,0.321806
-0.478698,0.016430,0.885381,0.161574,-0.879111,0.448394
-0.697324,-0.317549,0.669219,0.922233,0.145765,0.358105
-0.765068,-0.442614,0.789661,0.357614,0.603716,0.712488
-0.705647,-0.397843,0.884893,0.665239,0.742855,0.074990
-0.453632,-0.024685,0.721956,0.757039,0.581844,-0.297236
-0.402534,0.032862,0.746130,-0.312785,0.193284,-0.929950
-0.366918,0.078434,0.746191,0.513758,-0.285111,0.809175
-0.242845,0.266875,0.651142,0.967832,-0.188768,-0.166337
-0.386467,0.020076,0.849349,-0.394680,-0.911187,0.118178
-0.378820,0.019187,0.881418,-0.218736,-0.975343,0.029323
-0.372724,0.016351,0.913304,0.658479,0.722785,-0.209732
-0.792264,-0.397685,0.767042,0.875778,0.468158,-0.117651
-0.655128,-0.211674,0.731742,0.051069,-0.964714,0.258299
-0.355497,0.198884,0.641906,0.232452,-0.252582,0.939238
-0.638482,-0.411044,0.639680,-0.480311,0.374726,-0.793020
-0.674290,-0.403268,0.654861,-0.676742,0.485103,-0.553801
-0.704873,-0.468354,0.734577,0.667895,0.423864,0.611764
-0.673516,-0.458315,0.824230,0.138610,0.026145,0.990002
-0.342141,0.019997,0.652484,-0.361417,-0.747187,0.557755
-0.300526,0.061517,0.688241,-0.700466,0.075614,-0.709669
-0.315624,0.023881,0.744758,0.580944,0.805977,0.113597
-0.276913,0.046706,0.823864,-0.602345,0.172700,0.779330
-0.674485,-0.358832,0.660196,0.895449,0.056963,0.441505
-0.698969,-0.453621,0.856573,0.879028,0.471415,0.071260
-0.285526,0.131535,0.675468,0.212918,0.476898,0.852780
-0.340883,0.028337,0.776553,-0.214894,0.809263,-0.546730
-0.335076,0.024691,0.809689,-0.680091,0.672567,0.291769
-0.325592,0.014493,0.878461,0.537020,0.830260,0.149259
-0.353175,0.035856,0.930832,0.678343,0.722243,-0.134965
-0.628611,-0.531326,0.768414,-0.620177,0.654440,-0.432539
-0.605285,-0.506880,0.783839,-0.512198,0.845264,0.152258
-0.589995,-0.494736,0.806671,-0.452387,0.782498,-0.427836
-0.579929,-0.504855,0.876815,0.954345,0.229500,0.191197
-0.579058,-0.516919,0.915864,-0.285220,0.957358,0.045989
-0.272752,-0.038370,0.649374,0.999984,-0.002297,0.005118
-0.311366,-0.115917,0.735430,-0.002120,0.991499,0.130096
-0.250104,-0.028163,0.706714,0.882305,-0.395540,0.255121
-0.241879,-0.028252,0.737777,-0.635690,0.748306,-0.189570
-0.237233,-0.034724,0.774358,-0.648779,-0.725115,-0.230854
-0.670902,-0.478877,0.720158,-0.644253,0.585294,0.492309
-0.650290,-0.487049,0.822523,0.043765,-0.635223,0.771088
-0.622997,-0.455400,0.832674,0.039506,-0.796394,0.603486
-0.362854,-0.065563,0.656629,-0.080885,-0.974171,-0.210830
-0.250975,0.091309,0.613220,0.872923,0.412198,-0.260955
-0.304203,-0.010357,0.715372,0.498221,0.358579,0.789429
-0.241684,0.078928,0.687235,0.982226,0.117295,0.146542
-0.334787,-0.088309,0.832613,0.961084,-0.107868,-0.254325
-0.285428,-0.033588,0.856573,0.920333,0.346812,-0.180853
-0.288913,-0.053182,0.901049,0.952408,0.292957,-0.084232
-0.274589,-0.042253,0.924004,-0.752589,0.648482,0.114368
-0.535216,-0.582243,0.606758,0.960900,0.208954,-0.181684
-0.553413,-0.625947,0.671018,-0.498555,-0.460296,-0.734554
-0.553123,-0.639790,0.714396,-0.641166,0.741581,0.197395
-0.489925,-0.548400,0.682205,0.835330,-0.447546,-0.319260
-0.473084,-0.534241,0.705312,0.144547,-0.209471,0.967072
-0.423244,-0.465518,0.688637,0.980139,0.036280,-0.194963
-0.423822,-0.479362,0.730309,-0.576198,0.399270,-0.713148
-0.390241,-0.437910,0.734058,0.839502,-0.540135,-0.059085
-0.290074,-0.299171,0.701471,-0.323017,-0.944826,0.054447
-0.276621,-0.290436,0.728053,-0.213829,-0.827801,0.518674
-0.328398,-0.389187,0.829077,0.202537,0.956098,-0.211788
-0.100965,-0.029141,0.611696,0.195141,-0.956583,0.216492
-0.145388,-0.114780,0.702233,-0.168717,0.682541,0.711106
-0.214781,-0.242029,0.821669,-0.614942,-0.782095,0.100868
-0.192231,-0.230527,0.876540,0.905726,0.414313,0.089477
0.008686,0.070667,0.737503,-0.683099,0.177683,-0.708382
-0.171326,-0.234983,0.972595,0.530698,0.469649,-0.705541
0.029107,0.090903,0.754788,-0.775145,0.436981,0.456287
0.034815,0.087663,0.788076,-0.519018,0.608510,0.600280
0.019912,0.050757,0.844471,0.261137,0.110670,0.958937
-0.586899,-0.550505,0.638491,-0.625230,-0.623937,-0.468818
-0.516441,-0.460172,0.637790,0.483556,0.108931,-0.868509
-0.546348,-0.537482,0.758080,0.987170,0.152519,0.047264
-0.544605,-0.548163,0.798410,0.796958,0.594144,-0.108863
-0.537638,-0.550752,0.832796,-0.266226,-0.675137,0.687978
-0.513151,-0.523639,0.846117,0.872022,-0.473679,0.123316
-0.442988,-0.421162,0.805482,-0.134195,0.730580,-0.669511
-0.376886,-0.350819,0.851056,0.199553,0.969013,0.145579
-0.291527,-0.224786,0.796368,-0.596179,0.533339,0.600100
-0.394598,-0.407398,0.953055,-0.664566,0.726463,0.174940
-0.225425,-0.143188,0.804873,0.878215,-0.026114,0.477553
-0.198037,-0.111460,0.814109,-0.471155,0.456906,0.754486
-0.234232,-0.183177,0.893215,-0.121577,-0.772798,0.622898
-0.144130,-0.049536,0.834869,-0.284320,0.799844,-0.528594
-0.142388,-0.059170,0.871815,-0.568874,-0.154361,-0.807809
-0.127872,-0.048320,0.896019,0.972677,0.058461,0.224683
-0.065836,0.039097,0.869316,-0.001909,0.450216,0.892918
-0.232779,-0.040149,0.808744,-0.051078,-0.905177,0.421955
-0.262784,-0.103121,0.882667,-0.678431,-0.436823,0.590692
-0.205876,-0.023232,0.860902,0.961342,0.037174,-0.272836
-0.193391,-0.041522,0.964242,0.775158,-0.585470,-0.237392
-0.605480,-0.450054,0.611666,-0.621351,-0.767599,0.157211
-0.580316,-0.421725,0.623646,0.420759,-0.744512,0.518328
-0.618449,-0.500082,0.713086,-0.585942,-0.622097,-0.519294
0.021460,-0.366273,0.866511,0.897260,-0.438284,-0.053215
0.079818,-0.283796,0.841362,0.706196,0.133485,-0.695319
0.077399,-0.310672,0.923333,0.845137,-0.457169,-0.277021
0.072464,-0.330503,0.968205,-0.073611,0.535182,0.841524
-0.419274,-0.696695,0.654648,0.058047,0.774246,0.630217
-0.407564,-0.690460,0.684034,0.681734,0.190899,0.706255
-0.166969,-0.359880,0.611788,0.809236,0.571027,-0.138080
-0.139387,-0.328073,0.623341,-0.733068,0.347331,0.584784
-0.142001,-0.345641,0.669219,0.783280,0.565150,0.258996
-0.121096,-0.324427,0.687601,0.027215,0.368195,-0.929350
-0.106580,-0.313498,0.711653,0.602784,-0.391364,-0.695331
-0.111031,-0.333418,0.757074,-0.522205,0.842653,0.131296
-0.075609,-0.288163,0.758202,0.877666,0.320629,0.356230
-0.120807,-0.373397,0.847977,-0.253103,0.952298,0.170492
-0.090902,-0.337134,0.855323,-0.489466,0.352394,0.797648
-0.085870,-0.341827,0.890349,-0.189343,0.220026,0.956942
-0.068158,-0.325800,0.911261,0.883624,0.463663,-0.065002
-0.013575,-0.248985,0.889801,0.743918,0.633562,-0.212568
-0.089062,-0.436863,0.624896,0.965027,0.050681,-0.257206
-0.000800,-0.319091,0.607794,0.871425,-0.480175,-0.100255
0.015653,-0.304111,0.629560,0.944273,0.063428,-0.322995
0.004330,-0.335118,0.684644,0.634145,0.655352,0.410333
-0.045608,-0.427476,0.781705,0.953033,-0.140871,0.268112
0.016525,-0.339238,0.753294,-0.013203,-0.956730,0.290676
-0.010574,-0.394691,0.822858,-0.757333,0.210188,0.618279
0.013040,-0.367893,0.835509,-0.459770,-0.661403,0.592585
-0.586317,-0.779914,0.674920,-0.038126,0.962130,0.269912
-0.492054,-0.677269,0.731650,0.564162,0.488928,0.665335
-0.250104,-0.370571,0.742289,0.594497,0.742069,0.309688
-0.188069,-0.294882,0.753721,0.940031,-0.076080,-0.332495
-0.154680,-0.253599,0.757866,0.495431,-0.315891,-0.809173
-0.161065,-0.276998,0.806427,0.980860,0.175098,0.085173
-0.155743,-0.280802,0.839777,0.440437,0.842095,-0.311274
-0.092450,-0.189975,0.808896,-0.793047,0.594309,-0.133692
-0.136678,-0.274567,0.898092,-0.449194,-0.639723,0.623682
-0.139582,-0.291730,0.940008,-0.680525,0.708522,-0.186770
0.168759,0.183262,0.685315,-0.945645,0.324397,-0.022853
0.086691,0.037556,0.814627,0.369662,-0.053981,-0.927597
0.142532,0.115912,0.793319,-0.393082,0.897692,0.199087
0.155208,0.124005,0.818407,0.482447,0.837441,0.256784
0.006362,-0.647478,0.679340,-0.102390,0.827183,0.552526
0.301058,-0.256356,0.634681,0.254660,-0.949625,0.182651
0.290508,-0.294645,0.725432,-0.305364,-0.949863,-0.067174
0.293508,-0.300633,0.762530,-0.315980,0.946510,-0.065385
0.322928,-0.264449,0.769359,0.940655,-0.319578,0.114187
-0.210619,-0.760883,0.603161,0.380168,-0.804863,-0.455706
-0.163582,-0.709244,0.634071,-0.629565,0.715609,0.302576
-0.125258,-0.658732,0.630444,-0.539582,0.683511,0.491594
0.005685,-0.506317,0.686839,-0.059650,-0.324447,0.944021
-0.008444,-0.540713,0.744393,0.331085,0.925792,-0.182459
0.011976,-0.519261,0.761738,-0.538158,-0.406471,-0.738354
0.001040,-0.559250,0.853982,-0.367517,-0.929808,0.019711
0.178145,-0.287600,0.696990,-0.796902,0.567390,0.207403
0.201472,-0.262097,0.712537,-0.443291,0.875928,0.190379
0.256540,-0.505023,0.607337,-0.088597,-0.941220,0.325969
0.286057,-0.469648,0.616299,0.163512,-0.973325,0.160944
0.302121,-0.465676,0.679584,-0.450713,0.834131,0.317937
0.311123,-0.462524,0.710708,0.065901,0.197753,0.978034
0.408095,-0.320059,0.645015,-0.419283,0.893206,0.162436
0.438096,-0.283064,0.651417,-0.509221,0.205846,-0.835656
0.051462,-0.697505,0.674615,-0.859637,0.465005,-0.211649
0.199921,-0.494499,0.630139,0.854917,-0.489116,0.172867
0.230020,-0.458068,0.637973,-0.053846,-0.833785,0.549458
0.287894,-0.376885,0.613251,0.797113,-0.278865,-0.535579
0.324092,-0.330009,0.612824,-0.422806,0.685437,0.592799
0.513877,-0.330741,0.632547,0.463040,-0.784491,-0.412514
0.347123,-0.460252,0.645289,-0.615159,0.700845,-0.361105
0.333576,-0.492711,0.700313,-0.359261,0.904835,0.228486
0.358060,-0.465113,0.713360,0.764379,0.605730,0.220944
0.472260,-0.295208,0.628767,0.263901,-0.392684,-0.880997
0.143208,-0.891530,0.649252,0.847299,0.269709,-0.457538
0.155403,-0.940668,0.658946,0.114548,0.993398,0.006329
0.542039,-0.778935,0.688790,0.937222,0.166116,-0.306627
0.389515,-0.594061,0.497991,0.565978,0.745225,-0.352574
0.371318,-0.508175,0.552283,0.669183,-0.710909,0.216340
0.219083,-0.649187,0.533596,0.948483,-0.248534,0.196497
0.308896,-0.511089,0.494303,0.812466,0.340629,-0.473149
0.277250,-0.539665,0.494668,0.854438,0.033324,-0.518484
0.181244,-0.627162,0.491163,0.930247,-0.272795,-0.245405
0.141950,-0.660511,0.506984,0.935569,0.298495,-0.188709
0.349545,-0.466002,0.547497,0.863402,-0.339114,0.373549
0.312573,-0.497898,0.556856,0.698730,-0.643048,0.313475
0.179598,-0.522018,0.596271,-0.384792,0.159403,0.909135
0.146499,-0.551157,0.600996,0.987585,0.142676,-0.065722
0.171081,-0.549379,0.466806,-0.023890,0.979165,-0.201657
0.149112,-0.573093,0.440438,-0.036706,0.916373,0.398639
0.117950,-0.539824,0.466715,0.976814,0.102266,-0.188087
0.116403,-0.552205,0.395138,0.908844,0.417021,0.009804
-0.100097,-0.727781,0.528627,0.801087,0.584575,-0.128572
0.263699,-0.322164,0.590784,-0.326619,0.927831,-0.180136
0.273862,-0.326857,0.499820,0.924406,-0.380114,0.031414
0.077012,-0.527601,0.351303,0.916848,0.007561,-0.399165
0.054752,-0.503560,0.344871,0.957011,0.027814,-0.288714
0.038493,-0.524281,0.306979,0.899243,0.362486,-0.244880
0.298639,-0.291483,0.585785,-0.406858,-0.716134,0.567115
0.330672,-0.214826,0.598710,-0.180315,0.926000,0.331677
0.211729,-0.325563,0.576914,0.585342,-0.766845,-0.263292
0.202438,-0.341264,0.529115,-0.070335,0.690295,0.720101
-0.160389,-0.665451,0.554325,0.735674,-0.642828,-0.213438
0.157146,-0.322164,0.537895,0.640235,-0.753002,0.151945
0.123757,-0.352113,0.539114,-0.303168,0.675021,-0.672634
0.114273,-0.368872,0.487139,-0.762683,0.021868,-0.646402
0.009460,-0.448276,0.582889,-0.476393,-0.877564,-0.054132
0.002684,-0.500240,0.292133,0.465342,-0.875773,-0.128365
-0.158357,-0.608952,0.525671,0.850671,0.485797,0.200897
-0.196487,-0.640680,0.542681,0.726109,-0.590337,-0.352516
-0.250589,-0.681073,0.597125,-0.590425,0.705030,0.392850
-0.271686,-0.703978,0.572280,0.477074,-0.873920,-0.093086
-0.401565,-0.833657,0.493937,-0.540671,-0.724761,-0.427079
-0.031768,-0.481061,0.260064,-0.689363,-0.563021,-0.455835
-0.149742,-0.554962,0.465617,-0.804489,0.499296,0.321715
-0.197553,-0.591788,0.505246,0.048570,0.959317,0.278123
-0.240136,-0.639148,0.448577,0.774991,-0.598366,-0.203340
-0.458278,-0.825080,0.515794,0.348012,0.830061,0.435759
-0.082095,-0.482593,0.209735,0.928027,0.298578,-0.222750
-0.245653,-0.592035,0.446473,0.776969,-0.588800,-0.222786
-0.315816,-0.639711,0.543107,0.253991,0.514434,0.819052
-0.292880,-0.654691,0.322130,0.854171,-0.487886,-0.179887
-0.440953,-0.767038,0.453027,0.085143,0.807499,0.583692
0.045463,-0.367656,0.535913,-0.616923,0.484497,0.620216
0.261280,-0.078270,0.476073,0.592201,0.569719,-0.569840
-0.170744,-0.475874,0.424281,0.828107,-0.384202,-0.408201
-0.107549,-0.456694,0.192512,0.550250,0.831542,-0.075907
-0.223198,-0.528164,0.394712,0.791775,-0.436957,-0.426804
-0.323463,-0.630729,0.318990,0.844812,-0.505496,-0.175403
-0.427210,-0.708513,0.415380,0.911152,0.315780,0.264735
-0.126031,-0.371381,0.595692,-0.037949,-0.868085,0.494963
-0.007768,-0.335434,0.175593,-0.610497,0.790413,-0.050402
-0.022671,-0.356323,0.130416,-0.520480,0.852855,-0.041697
-0.172197,-0.445203,0.404710,0.899188,-0.314146,-0.304586
-0.133775,-0.452238,0.156998,0.798505,0.594535,0.094434
-0.308365,-0.551562,0.501040,0.517985,0.851822,0.078043
-0.207423,-0.530111,0.088257,0.966983,-0.136625,-0.215121
-0.697711,-0.885137,0.603008,-0.510493,0.833939,-0.209628
0.211827,-0.034398,0.462020,0.780538,0.624432,-0.029072
-0.174616,-0.359070,0.596789,-0.310613,-0.947807,-0.071989
-0.155454,-0.361174,0.483847,0.924194,0.268834,-0.271281
-0.152258,-0.371866,0.403948,0.998076,-0.061056,0.010804
-0.165035,-0.391450,0.357064,0.890462,-0.173810,-0.420555
-0.165133,-0.404157,0.281860,0.861516,0.501417,-0.079814
-0.355789,-0.538855,0.498723,0.033993,0.984118,0.174231
-0.178101,-0.452238,0.066796,0.992732,0.000381,-0.120344
-0.349979,-0.576492,0.245432,0.789832,-0.590134,0.167053
-0.218071,-0.416142,0.056310,0.916716,0.357082,-0.179231
-0.351917,-0.494904,0.303504,0.338496,0.247703,0.907780
-0.140453,-0.284843,0.419282,0.993425,0.080794,-0.081111
-0.196005,-0.351629,0.321276,0.871844,-0.147969,-0.466897
-0.213812,-0.373723,0.284695,0.982141,0.185549,-0.031151
-0.219618,-0.389750,0.222051,0.884843,0.196220,-0.422553
-0.211295,-0.398821,0.123466,-0.618564,-0.783221,0.062800
-0.241200,-0.364257,0.217234,0.720759,-0.693166,0.005300
-0.235490,-0.374692,0.127215,-0.655416,-0.752132,-0.068756
-0.239168,-0.390718,0.053018,0.993839,0.066371,-0.088761
-0.253684,-0.412338,0.004335,0.941436,0.280885,-0.186551
-0.383853,-0.502829,0.157395,-0.584615,-0.798702,0.142479
-0.283880,-0.388377,-0.091141,0.098814,0.888236,-0.448635
-0.591448,-0.548400,0.584352,0.975161,0.071491,-0.209641
-0.292977,-0.422289,-0.241091,0.920630,0.382257,0.079497
-0.631320,-0.594140,0.526524,0.956878,-0.254331,-0.140356
-0.474342,-0.521692,0.127917,-0.627742,0.776536,-0.054147
-0.301397,-0.474421,-0.500082,0.943609,-0.135716,0.301967
-0.157583,-0.426182,-0.972461,-0.190145,0.102392,0.976402
-0.194455,-0.459609,-0.974717,0.009556,-0.086124,0.996239
-0.233458,-0.494736,-0.975692,-0.124812,0.195115,0.972806
-0.272557,-0.529142,-0.972400,0.066302,-0.423716,-0.903365
0.336671,0.323948,0.396815,0.912651,-0.178908,-0.367505
0.185889,0.216373,0.559416,0.092208,-0.833573,-0.544660
-0.278653,-0.240734,-0.014718,0.826572,-0.561588,-0.037390
-0.286299,-0.258055,-0.076630,-0.263051,0.964675,0.014376
-0.302461,-0.280723,-0.122143,0.804131,-0.578702,0.135934
-0.312819,-0.300386,-0.183537,0.958002,-0.286419,-0.014001
-0.501053,-0.476605,0.115997,0.868617,-0.448273,-0.211082
-0.325206,-0.394849,-0.328458,0.359265,0.912140,-0.197305
-0.532023,-0.505260,0.110846,0.423963,-0.823487,-0.376993
-0.281559,-0.390076,-0.529042,0.210268,-0.977632,-0.004823
-0.575091,-0.539498,0.137336,-0.531524,0.828557,-0.176000
-0.275170,-0.403109,-0.637748,0.998915,0.005432,0.046246
-0.612255,-0.571394,0.145049,-0.561890,0.816501,-0.132687
-0.282040,-0.423099,-0.718530,0.997290,0.002801,-0.073521
-0.186811,-0.380284,-0.967583,-0.173725,-0.091458,0.980538
-0.649903,-0.602885,0.158126,-0.634197,-0.489900,-0.598157
-0.222717,-0.413148,-0.972583,0.040068,0.298843,0.953461
-0.703323,-0.641816,0.210284,0.755377,-0.654263,0.036684
-0.260944,-0.447871,-0.975326,0.178497,-0.213991,0.960389
-0.299850,-0.482919,-0.976881,0.036993,-0.016696,0.999176
-0.340207,-0.518777,-0.973436,0.097397,0.465408,0.879721
0.260604,0.316577,0.410167,-0.040897,0.312734,0.948960
0.130724,0.231906,0.594442,-0.255990,-0.657089,0.709016
0.122983,0.206087,0.485188,-0.464240,0.700981,-0.541393
0.069561,0.142542,0.395077,0.090580,0.994543,0.051768
0.052817,0.122069,0.363953,-0.485565,-0.873308,0.039506
-0.048706,0.054966,0.502533,-0.164308,0.972846,-0.163013
-0.189422,-0.055444,0.594564,-0.742680,-0.170618,0.647546
-0.136484,-0.050751,0.345267,0.008362,0.501812,0.864936
-0.134260,-0.061759,0.271252,-0.648478,0.318434,0.691431
-0.280395,-0.188039,0.298779,-0.736726,-0.674584,0.046597
-0.247975,-0.185044,0.148859,0.794343,0.487384,-0.362597
-0.262878,-0.205439,0.106913,0.937907,-0.343509,0.048297
-0.264718,-0.219846,0.034270,0.994538,0.005538,0.104232
-0.676709,-0.443503,0.493632,0.882540,0.470110,-0.010910
-0.736036,-0.512868,0.400321,0.286136,-0.932850,-0.218898
-0.748907,-0.533272,0.348163,0.415719,0.906021,0.079396
-0.233556,-0.301117,-0.982551,0.009859,0.438335,0.898758
-0.277687,-0.338675,-0.969351,-0.141883,-0.640635,-0.754623
-0.337401,-0.381984,-0.911127,0.952268,-0.177457,-0.248385
-0.363628,-0.410876,-0.942221,0.897043,0.389968,-0.207940
-0.390436,-0.440667,-0.975570,-0.428423,-0.519016,0.739646
-0.425952,-0.473532,-0.982124,-0.748310,0.028990,0.662716
-0.571317,-0.437910,0.364624,0.873528,0.420238,0.245660
-0.674872,-0.513273,0.465343,0.804845,-0.427275,-0.411899
-0.690452,-0.534883,0.422147,0.208893,-0.977896,-0.009079
-0.308849,-0.360127,-0.549131,0.959681,-0.197022,-0.200486
-0.303237,-0.373486,-0.655977,0.993609,-0.112405,0.010285
-0.303140,-0.390639,-0.754348,0.971431,-0.213905,-0.102791
-0.307107,-0.409749,-0.845008,0.226913,0.968417,0.103342
-0.302074,-0.425204,-0.961791,0.763261,-0.526366,0.374662
-0.335076,-0.456852,-0.974777,-0.078410,-0.459520,0.884699
-0.373111,-0.490774,-0.973832,-0.036078,-0.050884,-0.998053
0.052141,0.225513,0.578956,-0.550746,0.800190,0.237433
0.018170,0.195643,0.581365,-0.013643,-0.934801,0.354910
-0.002833,0.173223,0.560788,0.769578,-0.633646,0.079006
-0.257364,-0.055613,0.559172,0.799705,0.599841,-0.025732
-0.238007,-0.057312,0.447784,-0.551646,0.833408,-0.033423
-0.259299,-0.080621,0.424860,0.322339,-0.083657,0.942920
-0.277784,-0.102715,0.392425,0.897022,-0.389125,0.209603
-0.285912,-0.119553,0.336823,0.869888,0.197070,-0.452171
-0.261041,-0.132665,0.132672,0.972992,0.093785,0.210931
-0.250296,-0.140442,0.032715,0.983349,-0.153239,-0.097685
-0.268782,-0.163593,-0.005481,-0.613609,0.784022,-0.093776
-0.322881,-0.218067,-0.039288,0.982598,0.024367,-0.184141
-0.612255,-0.399463,0.412331,-0.155175,-0.987770,0.015239
-0.380273,-0.364010,-0.974838,-0.480086,0.646033,0.593430
-0.418500,-0.398732,-0.977430,-0.454617,0.104645,0.884518
0.019623,0.264612,0.578316,0.986332,0.058422,0.154065
-0.006315,0.239603,0.568013,-0.526437,0.079179,0.846519
-0.040575,0.209328,0.571122,0.435683,0.521599,-0.733564
-0.064094,0.185525,0.555697,0.965455,0.203323,-0.162964
-0.044060,0.161484,0.314661,0.810620,0.366288,-0.456868
-0.307399,-0.026058,0.595509,0.962944,-0.260349,-0.070406
-0.044158,0.113650,0.038904,-0.786558,0.528583,-0.319260
-0.280493,-0.048567,0.325361,0.902896,-0.335224,0.269080
-0.213522,-0.026463,0.107309,0.924545,-0.204419,-0.321604
-0.338659,-0.103288,0.311826,0.908476,0.417937,0.000321
-0.235296,-0.050346,0.081764,0.952929,-0.291260,0.084228
-0.260267,-0.076649,0.060151,0.874781,-0.375413,0.306308
-0.298592,-0.292778,-0.986758,-0.110770,0.480392,0.870031
-0.343883,-0.330582,-0.971699,0.292889,-0.389694,-0.873129
0.020686,0.358828,0.593223,-0.317764,0.377282,-0.869876
-0.046190,0.299829,0.598161,0.795244,0.208764,0.569214
-0.221650,0.065806,0.149713,0.734898,0.375120,-0.564987
-0.431082,-0.056907,0.532225,-0.497862,0.867198,0.010106
-0.263944,0.018614,0.094445,0.842677,0.322421,-0.431207
-0.821879,-0.404078,0.554508,-0.531325,-0.835631,-0.139337
-0.030994,0.386357,0.599289,-0.596479,0.600927,-0.532071
0.106724,0.433460,0.145414,-0.414819,0.762650,-0.496277
-0.045318,0.290511,0.109443,-0.549498,0.664888,-0.505941
-0.201327,0.170071,0.224154,-0.626031,-0.700321,0.342979
-0.223104,0.146346,0.198273,0.666725,0.644842,-0.373705
-0.292301,0.072288,0.127307,-0.563743,-0.664040,0.491168
-0.214296,0.234179,0.256498,0.449435,0.691292,-0.565795
-0.237331,0.210138,0.237323,-0.608869,-0.657091,0.444421
-0.291332,0.144241,0.134013,-0.125251,-0.600090,0.790066
0.126176,0.660517,0.491254,0.033594,-0.832566,0.552907
0.069561,0.607090,0.475921,-0.027042,-0.911985,0.409332
0.012461,0.553347,0.461167,-0.720002,0.364579,0.590491
-0.003411,0.533753,0.428000,0.446616,0.459115,-0.767950
-0.181873,0.399953,0.584535,0.946753,-0.072115,-0.313782
-0.217297,0.369114,0.590449,-0.495988,0.662166,-0.561723
-0.215070,0.327100,0.326580,-0.509562,0.407136,-0.758015
-0.250975,0.296261,0.333896,0.582862,0.652838,0.483813
-0.258427,0.281124,0.282592,-0.791196,-0.611562,-0.000799
-0.306333,0.219604,0.172484,0.834809,0.502097,-0.225814
0.030462,0.630241,0.480310,0.058566,0.929053,-0.365281
0.008588,0.606932,0.459825,-0.651908,0.757141,-0.041885
-0.017639,0.581270,0.446534,-0.593588,0.803816,0.039156
-0.045897,0.554720,0.439523,-0.044197,-0.563916,0.824648
-0.291043,0.361832,0.599503,0.232630,0.247977,-0.940420
-0.319978,0.334877,0.592613,0.620325,-0.675315,-0.398931
-0.351627,0.306706,0.593528,0.524355,0.812295,-0.255398
-0.357529,0.293021,0.542650,-0.460731,0.872789,-0.161143
-0.292203,0.318039,0.343438,0.845450,0.532522,0.040436
-0.037382,0.648946,0.507990,-0.103018,0.977778,0.182583
-0.074254,0.617129,0.515093,0.004908,-0.991052,0.133385
-0.099902,0.582328,0.444797,0.019618,-0.701926,0.711980
-0.131259,0.553505,0.440316,0.374416,0.823288,-0.426625
-0.153325,0.530601,0.421659,0.936551,0.340065,-0.085016
-0.168907,0.510927,0.387213,0.957709,-0.287732,0.002112
-0.309334,0.398738,0.469062,0.442251,0.863327,0.243065
-0.321623,0.370162,0.363008,0.885243,0.462039,-0.053524
-0.467762,0.267280,0.528109,0.587974,-0.805098,0.078127
-0.500377,0.237904,0.528475,-0.671262,0.739178,0.054985
-0.152551,0.630893,0.514635,-0.283387,0.901879,0.326047
-0.170455,0.610084,0.486773,0.248491,-0.865720,0.434490
-0.186327,0.590579,0.454277,0.940506,0.329813,-0.081682
-0.260846,0.658491,0.542345,-0.374668,0.518608,-0.768550
-0.317367,0.606042,0.529969,-0.051537,-0.824898,0.562928
-0.039704,0.917839,0.500338,0.500612,0.534081,0.681282
-0.232587,0.754090,0.555362,-0.063465,-0.323916,0.943955
-0.261717,0.727056,0.548594,0.076567,-0.329662,0.940989
-0.289397,0.701068,0.540455,0.434421,-0.363968,0.823897
-0.433793,0.566864,0.508020,0.117515,-0.717831,0.686228
-0.502120,0.476284,0.319173,-0.651031,-0.758509,-0.028700
-0.196584,1.000000,0.528140,-0.130064,0.990056,-0.053599
-0.231521,0.969240,0.531706,-0.130064,0.990056,-0.053599
-0.463890,0.847012,0.460709,0.094426,-0.987062,0.129588
-0.495055,0.819167,0.459277,0.684229,-0.314101,-0.658157
-0.400307,0.357702,0.709732,-0.306012,0.854003,0.420757
-0.258619,0.401495,0.661354,0.969983,-0.164291,-0.179278
-0.311948,0.360696,0.702111,-0.687606,-0.337986,-0.642623
-0.466116,0.221788,0.697081,0.985423,-0.144789,-0.089317
-0.516151,0.183420,0.736467,0.958544,-0.202556,0.200409
-0.527765,0.154933,0.627670,0.949503,0.054626,-0.308965
-0.577897,0.116239,0.665957,0.981803,-0.057566,-0.180968
-0.186229,0.407483,0.652605,0.067893,0.993810,0.087933
-0.281946,0.322160,0.655654,0.558706,-0.713074,-0.423524
-0.288331,0.307921,0.604563,0.511906,-0.527004,-0.678395
-0.413178,0.206087,0.664769,0.874638,-0.105232,0.473217
-0.449568,0.175575,0.676170,0.493426,0.151773,0.856444
-0.491765,0.141248,0.697966,0.977642,-0.186034,0.098019
-0.521282,0.114539,0.695862,-0.544809,0.815501,0.195296
-0.562799,0.069373,0.647789,0.867871,0.149738,-0.473687
-0.900465,-0.223007,0.708117,-0.356012,0.924273,0.137746
-0.261135,0.263960,0.680803,-0.206844,-0.468854,0.858715
-0.280008,0.242271,0.653916,0.727561,0.517749,-0.450101
-0.493117,0.092356,0.897452,0.075370,0.748409,0.658941
-0.419758,0.121821,0.681413,-0.568757,-0.094945,-0.817007
-0.465245,0.086131,0.713421,0.770408,0.039517,-0.636326
-0.482570,0.065490,0.682602,-0.152158,-0.965906,0.209460
-0.541991,0.010689,0.673274,0.947638,-0.316775,-0.040444
-0.864462,-0.261613,0.772438,-0.246778,0.869703,0.427454
-0.928532,-0.317876,0.779144,0.776831,-0.474732,-0.413718
-0.951758,-0.341916,0.759695,0.027034,0.867815,0.496151
-0.269848,0.177511,0.630444,0.970618,0.194602,0.141533
-0.460794,0.051162,0.896019,0.079537,-0.638031,0.765892
-0.438631,0.052377,0.785576,0.787112,0.499621,-0.361710
-0.515280,0.000087,0.883186,0.130960,-0.925041,0.356579
-0.507731,-0.029951,0.665470,0.004954,0.741785,0.670620
-0.606738,-0.116322,0.677846,0.273335,-0.619952,-0.735491
-0.800974,-0.275298,0.768231,-0.343280,-0.921866,0.179784
-0.804169,-0.289131,0.704702,0.951822,0.043671,0.303527
-0.840849,-0.319812,0.716622,0.646427,0.108503,0.755221
-0.907240,-0.390560,0.650289,0.976995,-0.092782,-0.192023
-0.783941,-0.426824,0.752593,0.834148,0.519720,0.184630
-0.813848,-0.453700,0.751831,0.769953,0.521702,0.367423
-0.858945,-0.488264,0.786216,0.356930,-0.855269,-0.375654
0.029685,0.374371,0.637943,-0.017855,0.953339,0.301374
-0.393821,0.041528,0.915346,0.602195,0.754741,-0.260243
-0.404855,0.025096,0.876479,0.043886,-0.994813,0.091765
-0.414436,0.009148,0.834686,0.509143,0.826870,-0.238872
-0.422275,-0.006148,0.785607,0.845543,0.526401,-0.089212
-0.444922,-0.040712,0.701898,-0.152953,-0.755842,0.636638
-0.544508,-0.139463,0.646173,-0.595495,0.575266,-0.560763
-0.742518,-0.313745,0.665957,0.341525,-0.153216,0.927300
-0.845108,-0.389266,0.764055,0.678039,0.713950,-0.174755
-0.959405,-0.495873,0.740552,0.133249,0.977538,0.163293
0.095690,0.271895,0.620628,0.799854,0.583927,-0.138789
0.072077,0.247775,0.603313,0.181099,0.824420,-0.536223
-0.156130,0.077466,0.803562,0.232025,-0.961527,-0.147070
-0.185358,0.050431,0.798806,-0.042933,-0.914095,0.403222
-0.181681,0.041765,0.729913,-0.321014,0.944854,0.064811
-0.269654,-0.028489,0.781095,0.185297,0.521472,0.832906
-0.301979,-0.057144,0.782924,-0.337253,-0.875717,-0.345515
-0.290558,-0.061927,0.694917,0.311870,-0.937089,-0.156845
-0.360822,-0.110413,0.779053,0.969252,-0.245684,-0.013812
-0.381242,-0.132665,0.755428,0.999716,0.020117,-0.012812
-0.427018,-0.180104,0.719457,0.966207,-0.180913,-0.183613
-0.736712,-0.433059,0.863310,0.948815,0.305765,0.079109
-0.679905,-0.418810,0.652545,0.765785,-0.030007,0.642397
-0.767682,-0.473453,0.791307,0.033834,0.697667,0.715622
0.109046,0.357781,0.652697,-0.004362,-0.778629,0.627470
0.078075,0.329531,0.650136,-0.570998,0.691371,-0.442683
0.052622,0.304601,0.637150,-0.703400,-0.595027,0.388806
-0.241102,0.076418,0.843587,-0.368176,-0.929196,-0.032258
-0.254555,0.058118,0.807311,-0.413450,-0.823752,0.387933
-0.315816,0.013436,0.868127,-0.395262,-0.895358,0.205189
-0.300334,0.000403,0.711836,-0.523840,-0.795766,-0.303890
-0.316980,-0.020070,0.681138,0.630305,0.733914,0.253150
-0.371466,-0.071798,0.663305,0.112343,-0.990283,-0.081963
-0.485087,-0.178157,0.637364,0.058433,0.071957,0.995695
-0.677677,-0.349841,0.645960,0.843986,0.195664,0.499404
-0.717550,-0.381658,0.668183,0.305508,-0.503113,0.808420
0.185116,0.293910,0.670835,-0.735608,-0.569047,0.367514
0.177856,0.279750,0.626024,-0.080714,-0.912936,0.400042
-0.009026,0.142463,0.803867,0.775174,0.467155,0.425291
-0.097870,0.071399,0.854013,0.554504,-0.789031,-0.264493
-0.070190,0.076013,0.736741,0.389968,-0.889420,0.238448
-0.062546,0.069699,0.659769,0.867321,-0.389263,-0.310208
-0.164840,0.002755,0.804171,0.523977,0.420732,0.740562
-0.214296,-0.035287,0.840600,0.923586,0.137930,0.357720
-0.173068,-0.023716,0.695009,-0.492032,-0.823433,-0.282599
-0.296654,-0.101589,0.885259,0.791203,0.518688,0.323977
-0.304785,-0.117211,0.837246,-0.231635,-0.704219,0.671134
-0.369724,-0.185044,0.780668,-0.649830,-0.579611,0.491703
-0.384627,-0.204708,0.744210,0.887404,0.214441,-0.408081
-0.429824,-0.251574,0.707294,0.844641,0.521904,-0.119152
-0.694518,-0.469727,0.820511,0.732340,-0.243239,0.636014
-0.644578,-0.458799,0.623219,-0.470800,-0.856500,-0.211555
-0.726165,-0.523876,0.671048,0.982206,0.115551,0.148052
0.007717,0.094787,0.781735,0.756747,-0.432523,-0.490162
-0.024413,0.066379,0.786186,0.652776,-0.729419,-0.204530
-0.032155,0.051399,0.738296,-0.472572,0.502974,-0.723666
-0.046479,0.032299,0.703331,0.974322,-0.221436,-0.040781
-0.124679,-0.032372,0.734363,-0.193526,0.865306,0.462378
-0.177520,-0.071956,0.780790,0.727506,0.682269,-0.072416
-0.178391,-0.083773,0.716530,0.844934,-0.088267,-0.527538
-0.267137,-0.142378,0.838862,0.857227,0.250005,0.450177
-0.261526,-0.150718,0.760183,-0.648453,0.574189,0.499815
-0.327527,-0.208838,0.767255,-0.683933,-0.600338,0.414524
-0.349498,-0.231663,0.749148,0.511462,0.788523,-0.341524
-0.359564,-0.248501,0.704520,0.593844,0.803851,0.034236
-0.412210,-0.287600,0.751282,0.923788,-0.138911,0.356819
-0.464666,-0.326294,0.801641,-0.874385,0.037940,-0.483747
-0.506957,-0.359880,0.826912,0.758214,-0.617895,-0.208128
-0.510634,-0.386598,0.690436,-0.094217,0.991837,-0.085924
-0.589510,-0.437752,0.804690,-0.474951,0.348151,-0.808215
-0.653288,-0.494173,0.810573,-0.073888,-0.852121,0.518103
-0.649224,-0.504617,0.727261,0.544217,0.350330,0.762297
0.087949,0.100538,0.809323,0.855729,0.055443,-0.514445
0.056784,0.072525,0.808409,0.842059,-0.487218,-0.231420
0.041880,0.053672,0.778504,0.526287,-0.794279,0.303550
0.033073,0.038534,0.735522,0.138218,0.073497,0.987671
0.053009,0.038692,0.631541,-0.162394,0.771127,0.615623
-0.024703,-0.015140,0.726011,0.564050,0.704474,-0.430772
-0.076383,-0.054555,0.766432,0.372880,0.490354,-0.787727
-0.179841,-0.122142,0.914310,-0.135652,-0.452075,0.881604
-0.208005,-0.148376,0.908213,-0.288524,0.465575,0.836656
-0.201327,-0.155411,0.831729,0.258407,0.928776,0.265709
-0.248362,-0.191438,0.867944,-0.508304,-0.453872,0.731866
-0.281848,-0.220498,0.872821,0.961764,-0.214696,0.170047
-0.272365,-0.226723,0.788320,0.223637,0.963863,0.144757
-0.283204,-0.244133,0.742960,0.070969,-0.516025,0.853628
-0.297913,-0.263885,0.706044,0.410628,0.911364,0.028299
-0.341078,-0.298123,0.731284,0.149083,0.901288,0.406761
-0.421309,-0.350898,0.843465,0.050579,0.964341,0.259784
-0.411436,-0.357696,0.753507,0.928048,-0.291190,0.232240
-0.446278,-0.387566,0.761098,0.748722,-0.569340,0.339509
-0.466988,-0.410066,0.739210,0.391397,-0.506671,0.768175
-0.513248,-0.445608,0.773870,0.058649,-0.901785,0.428187
-0.546832,-0.474984,0.778717,0.755210,-0.653472,0.051314
-0.620481,-0.523797,0.880046,-0.604975,0.787115,-0.120231
-0.619996,-0.535782,0.806397,0.450216,0.148299,0.880518
-0.593866,-0.536098,0.669433,-0.698471,0.433375,0.569495
-0.641385,-0.584990,0.633462,0.718503,0.492680,0.490938
-0.733327,-0.655007,0.705526,0.014038,0.942357,0.334316
0.147468,0.090014,0.826912,0.337738,0.008898,-0.941198
0.078559,0.030274,0.840996,0.238300,0.778007,0.581308
0.122596,0.044364,0.691869,-0.526476,-0.337200,-0.780461
0.127723,0.036261,0.617640,-0.109765,0.952658,0.283538
0.053009,-0.016029,0.704977,-0.534958,0.494754,0.684864
0.020202,-0.044763,0.709336,-0.451419,0.466356,0.760745
-0.060124,-0.110729,0.745795,-0.502849,-0.600621,0.621609
-0.134647,-0.162377,0.834564,0.810348,0.147479,0.567086
-0.164551,-0.189659,0.831455,0.518633,-0.377224,0.767282
-0.206458,-0.223413,0.853921,0.719552,0.668966,0.186359
-0.242458,-0.253767,0.867029,0.871674,0.422868,0.247725
-0.252136,-0.269873,0.822980,0.937006,-0.033846,-0.347670
-0.297428,-0.305247,0.853647,0.944406,-0.180387,-0.274877
-0.248651,-0.291404,0.679492,0.584081,0.704499,0.403151
-0.406403,-0.396875,0.892026,0.148627,-0.963646,0.222029
-0.412018,-0.411765,0.834137,-0.007553,0.990548,0.136961
-0.409212,-0.434353,0.688180,0.929464,0.338857,-0.145850
-0.450924,-0.467781,0.711409,-0.657580,0.684478,0.314768
-0.468633,-0.488907,0.682724,-0.362273,0.094334,0.927286
-0.577123,-0.554635,0.867212,0.602641,-0.785913,0.138440
-0.563572,-0.561117,0.759452,0.985690,0.097482,-0.137521
-0.558348,-0.571799,0.669158,0.806001,-0.278618,-0.522240
-0.593964,-0.601669,0.681016,0.877847,0.183753,-0.442290
-0.602382,-0.618911,0.625597,0.901268,0.192839,0.387982
-0.654546,-0.656954,0.676932,0.057740,0.836211,0.545359
-0.692292,-0.687792,0.696076,-0.099474,-0.903545,-0.416786
-0.735746,-0.721467,0.726895,0.243762,0.871758,0.424991
0.099851,0.003486,0.847215,-0.569134,-0.744282,-0.349473
0.087949,-0.013193,0.810664,-0.764462,0.575583,0.290347
0.135370,0.002587,0.653002,-0.210724,0.953839,0.213979
0.030267,-0.077786,0.735674,-0.017967,0.690407,0.723198
-0.068158,-0.164482,0.747532,0.987547,0.100763,-0.120819
-0.179262,-0.235388,0.918334,0.116326,0.992047,0.048079
-0.172487,-0.243076,0.836911,0.759731,0.647033,0.064470
-0.218360,-0.279102,0.869041,0.825185,0.435422,0.359829
-0.223104,-0.293025,0.810969,-0.495784,0.868426,-0.005912
-0.220587,-0.314387,0.671292,0.631399,0.574583,0.520759
-0.291332,-0.363200,0.759238,-0.407742,-0.442834,-0.798527
-0.357821,-0.409176,0.842276,0.205290,-0.971002,-0.122516
-0.383466,-0.434353,0.829138,0.824250,0.394702,0.405983
-0.400791,-0.467781,0.724182,0.854394,-0.277616,0.439249
-0.395177,-0.477257,0.638918,0.194956,0.979135,-0.057334
-0.449471,-0.516514,0.695435,0.853793,-0.335302,-0.398259
-0.530960,-0.569210,0.816213,0.819744,-0.572727,-0.001952
-0.530476,-0.581512,0.741923,0.558727,0.600628,-0.571901
-0.531539,-0.595108,0.666841,0.969346,0.003339,0.245678
-0.592124,-0.637448,0.739546,-0.717195,-0.106695,-0.688657
-0.609836,-0.659305,0.704550,0.343422,-0.936444,0.071658
-0.672355,-0.714669,0.709641,0.605067,0.792958,0.071491
-0.723164,-0.751743,0.760793,-0.464135,0.070068,0.882989
0.179793,-0.019833,0.718115,0.290837,0.889303,0.352922
0.143693,-0.050425,0.728754,0.294350,0.709098,0.640733
0.107690,-0.081669,0.737015,-0.315264,0.443512,0.838991
-0.008737,-0.189659,0.717567,-0.326589,0.829874,-0.452382
-0.133388,-0.267848,0.916870,0.545379,0.170528,0.820659
-0.165711,-0.295940,0.922479,-0.616789,0.345955,0.707027
