0.364718,0.086727,0.853209,-0.215218,0.572980,0.790807
0.493899,-0.214028,0.957726,-0.363317,-0.929585,0.062228
-0.232983,0.300878,0.599500,-0.489996,0.395690,-0.776745
0.810287,0.301025,-0.651278,0.967745,-0.211123,0.137462
0.756870,0.738419,0.841105,0.212968,0.963162,-0.164205
-0.066269,0.413088,0.887584,0.388114,0.140085,-0.910903
-0.219703,0.282789,0.795420,-0.480232,0.870085,-0.111038
0.208477,-0.105453,0.484087,-0.460320,-0.087077,-0.883472
0.742840,-0.196825,0.919741,0.865573,-0.436262,0.245883
-0.174304,0.506278,0.832693,0.829759,0.091825,0.550516
0.081952,0.392543,0.871473,0.579063,-0.190862,0.792628
-0.455366,0.191419,0.439876,-0.467155,-0.795983,-0.384939
0.187382,-0.178344,0.503775,-0.649640,-0.117408,-0.751121
0.591461,0.300828,0.114055,0.484610,0.856721,-0.176582
-0.199911,0.540292,0.857017,0.288205,-0.868729,-0.402799
0.300629,0.377896,0.692658,0.413128,-0.709919,0.570386
0.648885,0.326387,0.853921,0.161826,0.725252,-0.669195
-0.524767,-0.318867,0.623129,0.968817,0.243457,-0.046064
0.229123,0.361088,0.678550,-0.180947,0.956705,-0.227977
-0.674342,0.503330,0.568966,-0.517076,0.212911,-0.829036
-0.091174,0.464402,0.542042,-0.175673,0.978249,0.110308
-0.395886,0.645229,0.789939,-0.586272,-0.624392,-0.516159
0.687871,-0.066673,0.721735,0.922630,0.280822,0.264373
0.182822,-0.486962,0.599533,-0.106406,0.880584,0.461790
-0.251923,-0.521614,0.711700,-0.245558,-0.950278,-0.191501
0.637412,-0.079403,0.843605,-0.383288,0.861474,0.333095
-0.395335,0.624929,0.880348,-0.719309,0.257216,0.645317
0.838548,0.124033,0.848672,-0.596216,0.341748,0.726453
-0.387318,0.493254,0.880497,0.110662,0.993618,0.021824
0.121640,-0.179032,0.820605,-0.508033,-0.793914,-0.334070
-0.197805,0.667052,0.676116,-0.401658,0.684141,-0.608787
-0.539049,0.217027,0.738359,0.507919,-0.548121,0.664516
0.208127,0.254578,0.450556,-0.629125,0.230741,-0.742267
0.598175,0.568160,0.891790,-0.813337,0.347124,-0.466892
-0.096385,0.551448,0.852596,0.334808,0.940246,0.061967
-0.184126,-0.544322,0.487250,-0.042890,0.706994,0.705918
0.192694,0.068738,0.660998,-0.462637,-0.090214,-0.881946
0.594167,0.342656,0.106223,0.409744,-0.854400,0.319547
0.808082,0.228969,-0.658382,0.921690,-0.386901,-0.028211
0.673739,0.447544,0.984203,-0.040723,-0.878132,-0.476682
-0.128205,0.613083,0.651609,-0.071667,0.521131,-0.850463
0.349686,-0.284853,0.501722,-0.367764,-0.651196,-0.663847
-0.039863,0.966332,0.837892,-0.192364,-0.240650,0.951359
0.699747,0.195056,-0.071351,0.550873,-0.804234,0.223039
-0.236641,0.338723,0.307905,0.522644,0.466302,0.713727
0.275625,-0.635595,0.774059,0.399271,0.630378,-0.665738
0.854033,0.141088,0.857133,0.573238,0.466078,-0.673921
-0.241300,0.118086,0.483806,0.189139,-0.320830,0.928059
-0.053792,0.527905,0.614783,0.420693,-0.429385,0.799153
0.853782,-0.018063,0.079762,0.112459,0.472782,0.873974
-0.662567,0.370426,0.740909,0.985433,-0.150979,0.078281
0.355146,-0.393035,0.804560,0.844588,-0.124907,-0.520644
-0.452661,-0.644785,0.545867,-0.149524,-0.314651,0.937357
-0.562299,0.814849,0.807325,0.474954,-0.733339,0.486449
0.359306,0.787078,0.303120,-0.172540,-0.360989,0.916470
0.718588,0.471971,0.891641,0.613694,0.428683,-0.663031
0.125247,-0.407731,0.568006,0.878407,-0.150898,0.453465
0.618670,-0.215649,0.450573,0.974608,-0.106807,0.196802
-0.086213,0.270502,0.857630,-0.833582,0.532218,0.147937
0.750056,0.708190,0.790320,-0.705513,-0.425999,-0.566370
0.779070,-0.062348,0.943767,0.020112,0.997884,0.061828
0.448601,-0.029613,0.951152,0.948241,0.107157,0.298927
0.057650,0.479345,0.507418,-0.382918,0.905311,-0.183808
0.809285,0.041460,0.075176,-0.317016,0.090922,0.944052
0.753513,0.596176,0.766045,-0.555652,0.766040,-0.323162
0.368426,0.113023,0.846966,0.915427,0.368295,0.162334
-0.489039,0.202526,0.726106,0.815879,-0.302271,0.492923
0.034099,0.592785,0.820638,0.410255,-0.213885,0.886535
-0.306041,-0.113661,0.694860,0.669790,0.501198,0.547889
0.468243,-0.380452,0.797970,0.596512,0.373891,0.710196
0.603387,0.214470,0.249172,-0.469390,0.863106,0.186337
0.633653,0.466909,0.903497,0.897341,0.079549,-0.434111
0.469546,0.256642,0.970923,0.791510,0.372663,0.484390
-0.577080,0.143300,0.753759,0.619005,0.494431,-0.610222
0.147947,0.456048,0.371755,-0.333706,0.923238,0.190452
0.834489,0.220614,0.899291,0.495408,-0.868112,-0.030857
0.172500,-0.209555,0.792406,-0.441068,0.854029,0.275851
0.622528,0.130177,0.419493,0.971283,-0.219566,-0.091658
-0.135670,-0.156767,0.687873,-0.197281,0.857224,-0.475655
-0.289906,-0.398441,0.448702,0.305071,0.362962,0.880449
0.802821,0.290654,-0.438220,0.860612,-0.497739,0.107721
0.709017,-0.077585,0.724069,0.922630,0.280822,0.264373
0.075438,0.389152,0.386409,0.785176,-0.618711,-0.026362
-0.493850,-0.525349,0.580689,-0.345134,0.101628,0.933035
0.716383,-0.068639,0.693420,0.732762,0.585727,0.346388
0.595820,-0.223415,0.884637,0.957610,-0.116620,-0.263407
0.050234,0.480820,0.904954,-0.478309,-0.857939,-0.187514
0.256383,-0.363987,0.903282,-0.576548,-0.792321,0.199550
-0.290859,0.590574,0.794774,0.883759,0.239264,0.402148
-0.168593,0.716154,0.679511,0.120951,-0.559261,0.820121
0.547666,0.308299,-0.223440,0.076560,-0.134361,0.987971
0.838699,-0.310953,0.906610,0.625969,-0.652442,0.427179
0.454864,-0.625863,0.790850,0.782511,0.339543,-0.521907
0.742289,0.606547,0.794460,0.165646,0.984491,0.057787
0.697242,0.244648,-0.033746,0.799183,-0.600935,0.013558
-0.605843,-0.277580,0.711154,0.979728,0.038026,0.196692
0.811740,-0.131602,0.987565,0.929869,-0.305848,0.204451
0.499962,-0.856528,0.696582,0.935932,-0.194029,-0.293910
0.695537,0.441547,0.945937,0.994066,0.098540,-0.046082
0.654248,0.197660,0.003494,0.512471,-0.857206,-0.050700
-0.348534,0.508834,0.603010,-0.165987,0.012299,-0.986051
0.630897,0.413384,0.955242,-0.652327,-0.513333,0.557636
0.395083,-0.169251,0.862366,0.149897,0.820852,0.551120
-0.111718,0.583348,0.808286,-0.085768,0.991451,-0.098326
0.109262,0.495122,0.486141,0.635461,-0.767539,0.084101
0.483876,-0.043375,0.865926,0.654870,0.583836,0.479875
-0.132363,0.210440,0.855627,0.190317,-0.363655,0.911885
0.084307,0.414711,0.412522,0.310005,-0.897158,0.314650
-0.433668,0.786243,0.822476,0.451339,0.795969,-0.403394
-0.465087,0.155538,0.752500,-0.625643,-0.742876,-0.238131
0.671836,0.119904,0.597977,0.977584,-0.161042,-0.135630
-0.973493,0.651471,0.663697,-0.377080,-0.485128,0.788962
-0.546164,0.146938,0.711054,-0.626442,0.681316,-0.378654
0.188284,0.570765,0.725344,0.842501,0.104632,-0.528435
0.740335,0.234377,-0.587909,0.027783,-0.995983,0.085127
-0.081001,-0.589443,0.786329,0.316103,0.453799,-0.833154
0.215794,-0.019685,0.720344,-0.379220,-0.072206,-0.922485
0.501465,0.462830,0.487167,0.603958,-0.341690,0.720058
-0.063865,0.832691,0.828785,-0.563771,-0.036610,0.825119
0.026783,0.928043,0.846801,-0.277065,-0.107289,0.954842
0.771853,0.174069,0.928782,0.282431,0.921204,0.267613
-0.031143,0.437320,0.638048,0.059037,0.030565,0.997788
-0.449203,0.267946,0.816764,-0.398192,-0.735140,0.548645
0.735324,-0.363299,0.906560,0.022173,0.971983,0.234004
-0.543307,0.835001,0.821351,-0.464218,0.741978,-0.483704
0.806328,0.002138,0.078736,0.159243,0.351851,0.922411
0.289253,-0.298026,0.514340,-0.051863,-0.623975,-0.779722
0.670834,0.234523,0.081749,0.628692,-0.777118,0.028879
0.170596,-0.442825,0.757799,-0.296356,-0.636459,0.712105
-0.323029,0.150083,0.668002,0.314704,0.533225,0.785260
-0.133315,0.574353,0.663730,0.455973,0.750658,0.478123
-0.067523,0.541667,0.777057,-0.260921,0.920385,-0.291226
0.807631,0.003563,0.074314,0.113637,0.497843,0.859790
-0.339414,0.777297,0.868724,-0.645913,-0.716450,-0.263620
0.434069,-0.240568,0.782223,0.927371,0.100023,0.360525
0.045022,0.190977,0.804958,0.234713,0.919500,0.315325
-0.402601,0.482195,0.857051,0.617043,0.757157,-0.214407
-0.542806,-0.345359,0.717396,-0.591885,0.553588,0.585843
0.564953,0.018456,0.014439,-0.735334,0.442268,0.513501
-0.283141,0.703670,0.836303,0.842071,0.048662,-0.537167
-0.081903,-0.086235,0.811995,-0.654703,-0.724413,0.215847
0.280986,-0.605023,0.650583,0.183941,0.959964,0.211271
0.786385,0.249073,-0.431415,-0.776362,0.628271,-0.050377
0.272768,-0.363791,0.567128,0.761531,-0.052644,0.645987
-0.576129,-0.285788,0.685058,0.942917,0.330932,0.037302
0.417884,-0.208474,0.795039,0.567394,0.710197,0.416755
0.806979,0.183898,0.889273,0.679154,-0.615206,0.400340
0.051035,-0.581626,0.777868,0.273815,-0.590666,0.759039
0.278631,0.240274,0.398646,-0.811234,-0.493016,-0.314381
0.673891,0.486176,0.922076,-0.402402,0.905419,-0.135235
-0.176359,-0.365069,0.421264,0.426926,0.627879,0.650771
0.372936,-0.446461,0.822874,-0.731914,0.680040,-0.042986
0.322726,-0.260082,0.487068,-0.471381,-0.310430,-0.825490
0.205020,0.574010,0.364783,0.865139,0.459111,0.201869
0.049983,0.413630,0.350841,0.716526,-0.635151,-0.288399
0.563450,-0.651717,0.801066,0.348666,0.478585,-0.805847
-0.096887,0.844191,0.820489,0.959698,-0.272655,0.068109
-0.087465,0.479788,0.541446,-0.175673,0.978249,0.110308
0.070528,-0.527119,0.558435,-0.421758,-0.345531,-0.838289
0.597574,0.217370,0.083240,-0.205703,0.978379,0.021459
0.812943,-0.233098,0.874288,0.801447,-0.207754,-0.560822
-0.508682,0.317196,0.650897,0.129588,0.904369,0.406601
-0.664522,0.330023,0.680090,0.891579,-0.357738,-0.277688
0.762533,-0.564965,0.836452,-0.400493,0.729995,-0.553817
0.535940,0.234230,0.099467,-0.144720,0.159782,0.976487
-0.440534,0.648129,0.811664,0.723866,0.631463,0.277980
-0.312005,-0.559607,0.516625,-0.793657,-0.398606,-0.459589
0.305539,0.122902,0.510167,0.678068,0.559557,0.476570
0.719690,0.242781,-0.069065,0.619019,-0.731151,0.286763
-0.500565,0.424197,0.570986,0.941254,0.216497,0.259171
-0.044121,0.345703,0.765648,0.431182,0.812372,0.392599
-0.671837,-0.676390,0.529524,-0.312359,-0.197795,0.929144
0.758424,0.178099,0.838240,0.768180,0.590942,-0.246348
0.443640,0.516847,0.737581,-0.180135,-0.624103,0.760294
0.430662,0.203755,0.903845,0.144271,0.959206,0.243126
0.364467,0.308496,0.226653,-0.806346,0.207585,-0.553818
0.596973,-0.115480,0.462081,-0.942614,0.271636,-0.194145
0.450804,-0.156717,0.890482,0.868622,-0.489665,-0.075655
0.637561,0.384778,0.685058,0.721187,-0.486307,0.493351
0.627088,0.223710,0.866290,0.145158,-0.987799,0.056413
0.691428,0.291047,0.838820,0.538753,-0.002247,0.842461
0.244857,0.068738,0.776460,-0.173625,0.866762,-0.467523
0.062310,-0.052419,0.814661,-0.642914,0.575477,0.505457
-0.180167,0.544027,0.902487,0.008354,-0.990589,0.136612
0.582492,0.299010,0.324795,0.080127,0.964371,-0.252128
-0.502319,0.478067,0.624056,-0.473281,-0.598085,-0.646760
-0.319270,0.453295,0.833753,0.551724,-0.340447,-0.761378
0.010898,0.471677,0.703769,0.830328,0.520269,0.199691
0.176609,0.520483,0.419840,0.553634,-0.759509,0.341519
0.075339,0.533459,0.628693,0.530702,0.768196,-0.358092
-0.375141,-0.383058,0.572559,-0.386495,0.432090,0.814812
0.427354,0.449313,0.240446,0.117750,-0.938030,0.325937
0.227719,-0.705782,0.696003,0.103053,0.969828,0.220938
-0.501767,0.379420,0.841453,-0.629454,-0.057022,0.774943
0.090071,-0.479294,0.791098,0.727627,0.674413,-0.125400
-0.216948,0.341033,0.863939,0.656665,0.337576,0.674414
0.363815,-0.727753,0.809958,0.640053,0.601366,-0.478216
0.362262,-0.700671,0.741290,0.868094,-0.427368,0.252528
0.854834,-0.585166,0.807624,0.419397,0.765695,0.487665
-0.096235,0.366936,0.819877,0.771082,-0.384020,0.507899
0.440682,-0.653191,0.795917,-0.657223,-0.295086,0.693529
0.785985,-0.115381,0.906709,0.982798,-0.027073,0.182686
0.611103,0.119610,0.373708,-0.485766,0.451319,0.748560
-0.075389,-0.632007,0.597049,-0.608914,0.269153,-0.746177
-0.402702,0.654862,0.878991,-0.594134,0.333703,0.731879
0.587752,0.285248,-0.980693,0.430448,0.339341,-0.836399
0.669481,0.213143,0.059114,0.673517,-0.708619,0.210318
-0.530630,0.881645,0.820539,0.736178,-0.672903,0.072412
-0.113723,-0.257871,0.615595,0.822537,-0.054121,0.566131
-0.321424,0.804625,0.786346,-0.204796,-0.482603,0.851559
0.813243,-0.067411,0.112896,-0.198688,-0.754367,-0.625663
-0.184577,-0.444693,0.748046,0.369027,-0.407151,-0.835492
-0.380504,0.415597,0.785750,0.231180,0.967226,0.105021
-0.498309,-0.160011,0.688469,0.348395,0.104683,0.931484
-0.224814,0.287459,0.612283,0.363465,0.629727,0.686540
0.425501,0.271043,0.793019,-0.034105,-0.987090,-0.156493
0.768596,0.248385,-0.361356,-0.515766,0.856493,0.020158
0.173803,-0.400654,0.517734,-0.665140,0.015964,-0.746548
0.791346,0.318474,0.915055,-0.097161,0.987939,0.120568
0.842758,-0.112728,0.893281,0.904919,0.389687,0.171071
0.877534,0.348897,0.930752,-0.364422,-0.528037,0.767055
0.739533,0.034725,0.434627,0.862283,0.503946,0.050069
0.514193,0.375882,0.153381,0.354041,-0.412692,0.839250
0.291158,0.312870,0.822775,-0.624579,0.770865,-0.125171
-0.383559,-0.212012,0.507551,0.622430,-0.781795,-0.037116
0.564302,-0.341525,0.836137,-0.325099,0.042132,-0.944741
-0.259791,0.473594,0.825523,-0.603440,0.603867,0.520773
0.741939,-0.524514,0.878196,-0.358439,-0.492028,0.793366
-0.323328,0.048783,0.499619,0.209855,-0.309074,0.927596
0.601582,0.550023,0.889936,-0.551266,0.667577,-0.500446
0.462330,-0.065887,0.424659,-0.578786,-0.214559,-0.786747
-0.176610,0.203707,0.760001,0.965475,-0.146445,-0.215433
-0.953099,0.629894,0.651063,-0.379514,-0.507156,0.773797
-0.140331,0.210047,0.333008,-0.651779,0.368836,-0.662679
-0.474507,-0.401882,0.647139,0.573723,0.675710,-0.462879
-0.331146,0.180064,0.380580,-0.679457,0.011336,-0.733628
-0.519356,-0.475166,0.573917,0.123000,0.163807,0.978794
0.206323,0.450297,0.624536,0.396305,0.913888,0.088037
0.153207,-0.067705,0.716982,-0.414596,0.080570,-0.906432
0.227970,-0.339166,0.854169,-0.631520,0.357779,0.687879
0.097235,0.529822,0.780584,-0.735995,0.607261,0.299242
-0.623181,-0.164188,0.750911,-0.617431,-0.770810,-0.156939
0.705308,0.287214,0.833653,0.915035,0.169044,0.366244
-0.252674,0.190731,0.358955,-0.616670,0.110934,-0.779366
0.745095,0.075275,0.870314,0.240931,0.957037,0.161349
-0.041315,0.402817,0.392983,0.889775,-0.168255,0.424252
0.532533,-0.728982,0.754454,-0.153774,-0.841295,0.518244
0.195549,0.351699,0.859832,-0.085761,-0.000975,0.996315
0.750106,-0.528348,0.866340,0.946723,0.187277,0.261998
0.751709,0.028730,0.081219,0.019884,0.574063,0.818570
-0.055847,-0.317638,0.592943,0.804536,0.089203,0.587167
0.399344,0.290163,0.350030,-0.763441,0.167478,-0.623786
-0.462131,0.388170,0.559412,0.872097,0.125053,0.473085
-0.338010,0.602173,0.831534,0.983776,0.167855,0.063318
0.355749,-0.329335,0.514903,-0.685727,-0.564551,-0.459414
-0.039962,0.525891,0.880150,-0.187967,0.911952,-0.364708
-0.271465,0.567128,0.784508,0.898433,0.226066,0.376447
-0.013105,0.520975,0.877153,0.230986,-0.956141,0.180111
0.546513,0.370524,0.160948,0.045434,-0.169966,0.984402
0.011901,0.039444,0.554742,0.310128,0.705587,0.637156
0.453210,-0.106927,0.435703,0.773233,0.114271,0.623741
-0.122793,-0.365756,0.394771,-0.707027,-0.353689,-0.612386
-0.045675,0.518370,0.811200,0.213604,-0.970878,-0.108486
-0.358154,0.628469,0.889373,0.783257,0.587349,-0.203788
0.541202,0.414759,0.938601,-0.323681,0.916753,0.234082
0.373486,-0.671720,0.735892,0.933595,-0.204179,0.294468
0.642822,0.119461,0.525649,0.915592,-0.390089,-0.097575
0.699045,0.184980,0.765134,-0.597934,0.795650,-0.097041
0.726054,0.278955,-0.043135,0.884552,-0.396757,0.245257
-0.084509,0.406502,0.642188,0.297442,0.312835,0.902032
0.625034,0.146692,0.331302,0.886089,-0.454844,0.089241
0.621275,-0.270109,0.479368,0.973493,-0.000929,0.228716
0.193395,-0.177852,0.779673,0.361206,-0.849592,-0.384349
0.478867,0.468728,0.214598,0.672023,-0.321241,0.667225
0.674542,0.154163,0.683965,0.428096,-0.893037,0.138634
-0.654699,0.468532,0.771294,0.866097,-0.370051,-0.336062
0.504672,0.111400,0.943701,-0.554198,-0.092736,0.827203
-0.564403,0.583053,0.772503,0.484930,0.873537,-0.042130
0.094680,0.290949,0.217992,-0.191947,0.238430,0.952002
0.836794,0.114301,0.849103,-0.623730,0.501948,0.599174
-0.304638,-0.598387,0.507998,0.602648,0.571444,0.557016
0.162177,0.059006,0.253726,0.254686,0.410242,0.875692
0.505323,0.020177,0.429444,0.652431,-0.480565,-0.585996
0.013855,-0.741466,0.753726,0.129210,0.941989,0.309776
0.642221,-0.085104,0.924626,-0.054424,-0.985293,0.161972
0.719739,-0.218844,0.462065,0.751720,0.101111,-0.651685
0.313957,0.123148,0.807094,-0.464214,0.565066,-0.682060
0.595519,0.139516,0.441979,0.993896,0.070047,0.085226
0.759427,-0.288933,0.851570,0.858410,-0.315934,-0.404128
0.774259,0.247746,-0.349285,-0.550142,0.802561,-0.230738
0.603186,0.222285,0.860594,0.971874,-0.142034,0.187849
0.768497,-0.516306,0.870099,0.856291,0.237366,-0.458719
0.700548,0.489125,0.968820,0.632863,0.324750,0.702867
0.662315,0.448330,0.687624,-0.516525,0.612800,-0.598062
-0.172651,0.635938,0.621771,0.745404,0.535287,-0.397292
0.927592,0.094050,0.089018,0.043408,0.054430,0.997574
-0.595972,0.530364,0.807690,0.936585,-0.349253,-0.028837
0.292912,0.484898,0.306199,-0.808629,-0.195154,-0.555008
0.148999,-0.214764,0.830739,0.179298,0.938646,0.294610
0.784380,0.229904,-0.608706,-0.108258,-0.991203,-0.076134
0.808684,0.262048,-0.727530,-0.508926,0.854337,0.105373
0.607245,0.223071,-0.125182,0.899296,-0.437121,-0.013837
0.479217,0.343147,0.478722,0.717673,-0.206004,0.665213
0.414977,0.449707,0.253610,-0.675507,0.518056,-0.524697
0.664269,0.170235,0.702245,-0.188523,0.977190,-0.097772
0.530979,0.307710,0.920735,0.840089,0.540950,0.040290
0.452309,-0.629009,0.651891,-0.640960,-0.701371,-0.311847
0.677098,0.194318,0.760879,-0.135797,0.978045,-0.158072
-0.021122,0.479000,0.446317,0.529800,-0.024583,0.847766
-0.315011,-0.082401,0.465790,0.027031,-0.426276,0.904189
0.608999,0.202723,0.611952,0.913954,0.354016,-0.198394
-0.274071,0.419135,0.847033,-0.594692,0.296021,0.747471
0.477663,0.284412,0.996258,0.824664,0.216027,0.522744
0.533686,0.174412,0.883445,-0.843071,0.523809,0.121881
0.334753,0.097344,0.639522,-0.405380,-0.729424,-0.551006
0.713627,0.289425,-0.046678,0.863646,-0.451918,0.223352
0.531380,0.252415,0.617996,0.516368,0.854581,0.055283
0.699146,0.681993,0.824662,0.916359,-0.340769,-0.210148
0.561295,0.448576,0.095493,0.926101,0.119844,0.357734
0.085561,-0.502052,0.554212,-0.620710,-0.136092,-0.772138
0.277328,-0.027107,0.703636,0.216239,0.706984,0.673360
-0.349135,-0.600599,0.589366,0.377430,0.664170,-0.645310
0.639315,-0.250300,0.802441,0.589004,-0.425526,-0.687024
0.133415,-0.290211,0.844201,0.073063,0.203107,0.976427
-0.310251,-0.509031,0.482498,0.256350,0.592337,0.763821
0.223912,-0.129292,0.757965,0.002949,0.841739,0.539876
0.553328,0.249024,-0.994701,-0.272139,-0.243754,0.930873
0.060256,0.048241,0.792688,-0.005784,0.399752,0.916605
0.649237,0.265342,0.251441,0.783785,-0.618794,-0.052677
0.374589,-0.041851,0.829365,0.560305,-0.814889,0.148372
0.609349,0.134797,0.104848,-0.646251,0.498789,-0.577554
0.098989,-0.583740,0.773596,-0.561789,-0.055146,-0.825440
-0.213039,-0.080189,0.715509,0.114220,0.872067,0.475870
0.603288,0.216338,0.604749,0.674105,0.687014,-0.271283
-0.168392,0.639528,0.849781,0.199406,0.156957,0.967265
0.468794,-0.385858,0.839432,0.233821,-0.745451,0.624204
0.368276,-0.697770,0.744652,0.875103,-0.479332,0.066600
0.482624,0.405373,0.479898,-0.643137,0.219180,-0.733713
0.697942,0.666707,0.806448,0.953407,0.259262,0.154264
-0.356350,0.700179,0.887038,-0.478387,0.570870,0.667273
-0.030843,0.550515,0.906296,-0.256428,-0.894641,-0.365873
0.793501,-0.151802,0.943287,0.770792,-0.197213,0.605795
-0.253176,-0.143397,0.728060,-0.245040,-0.686800,0.684296
0.799062,0.269273,-0.914194,0.718991,-0.694867,-0.014527
-0.048882,0.061217,0.757186,-0.515121,0.857079,-0.008144
-0.162129,-0.201445,0.368261,-0.103781,-0.431903,-0.895929
-0.205723,0.423263,0.850692,-0.472030,0.344900,-0.811315
0.399643,0.087857,0.628279,-0.281241,-0.832976,-0.476503
0.511688,0.262982,0.611190,0.574064,0.802961,0.160325
-0.611054,-0.081123,0.643049,0.856398,0.510893,-0.074638
-0.310902,0.721117,0.880696,0.522015,-0.666523,-0.532211
0.724550,0.579808,0.738575,0.912283,-0.405594,0.056862
0.749906,0.266668,-0.108607,0.773084,-0.633918,-0.022109
0.126299,0.226562,0.812608,0.692412,0.623361,-0.363300
-0.321475,0.520828,0.708074,-0.604955,0.042895,-0.795103
-0.393581,-0.111499,0.734717,0.785349,0.290337,0.546745
0.738631,0.627534,0.801414,-0.495921,-0.747764,0.441487
-0.353244,-0.044407,0.727497,0.847872,0.296459,0.439573
0.243354,0.505149,0.348589,0.874486,-0.433679,0.217248
0.207476,0.074932,0.241042,-0.325629,-0.637730,-0.698044
0.078444,-0.543928,0.763015,0.431326,0.506327,0.746720
0.778517,0.294045,0.901858,-0.603334,0.782499,0.153891
0.160573,0.452803,0.890582,0.311420,0.788100,-0.530958
-0.219804,0.255069,0.851321,-0.720858,0.509335,-0.470044
0.648636,0.636578,0.219433,-0.547259,0.551517,-0.629552
0.653295,0.180213,0.484717,-0.651823,0.683165,0.329261
0.817703,-0.234818,0.946715,-0.180677,0.872777,-0.453449
0.743792,0.619670,0.787687,-0.082167,0.991680,0.099093
0.135670,0.387924,0.843307,0.881542,0.467146,0.068252
0.057250,-0.589737,0.777040,0.322176,-0.613556,0.720938
-0.008694,-0.471382,0.797672,0.331937,0.399352,0.854597
-0.306291,-0.163844,0.454199,0.831920,-0.226090,0.506747
-0.320172,-0.169054,0.461220,0.821670,-0.383141,0.421973
0.582542,-0.352731,0.490429,-0.679009,-0.456851,-0.574660
0.524916,-0.436779,0.505944,-0.646602,-0.306883,-0.698376
-0.583746,0.571946,0.738922,0.889196,0.247570,-0.384760
0.393179,-0.099408,0.678500,-0.733897,0.166826,-0.658456
-0.302884,0.540881,0.697510,0.486913,0.411390,0.770503
0.821511,0.473545,0.939297,0.901654,0.358103,-0.242449
0.597224,0.421346,0.909110,-0.322108,0.132978,0.937317
-0.340517,-0.534589,0.716138,0.821910,-0.096880,-0.561319
0.589255,0.140351,0.885796,0.995109,-0.098667,-0.004764
0.695336,0.477575,0.061018,-0.031109,-0.253136,0.966930
0.607646,0.529282,0.892751,0.883356,0.000939,0.468702
0.767795,-0.218795,0.799195,0.670010,0.740147,-0.057185
0.550672,0.219483,0.882104,0.826114,-0.558219,0.076989
-0.697843,0.367182,0.758776,0.922427,-0.080276,0.377736
0.199909,-0.385662,0.509985,-0.633089,-0.018149,-0.773867
0.645428,0.194219,0.021808,0.885596,-0.452033,-0.106707
0.589156,-0.249760,0.744519,0.198853,0.406493,0.891752
0.348231,-0.306726,0.879802,0.705425,-0.705258,0.070626
-0.005538,0.281168,0.829100,-0.136022,-0.549768,0.824168
0.639816,0.135386,0.658432,-0.291295,0.926024,-0.240058
0.501615,0.170431,0.900682,-0.478055,-0.877518,-0.037755
0.224964,0.266275,0.449132,-0.653641,0.277615,-0.704048
0.811891,0.027500,0.825258,-0.459133,-0.025037,0.888015
0.023326,-0.111547,0.760746,0.820167,-0.205346,0.534002
-0.077594,0.232017,0.559412,0.786103,0.172914,0.593416
0.170244,0.186700,0.828322,0.887476,0.460801,0.006967
0.025230,0.479492,0.686813,-0.640970,-0.745678,-0.181993
-0.237341,0.235851,0.799560,0.943090,-0.266787,0.198509
0.676446,0.157701,0.696715,-0.290433,0.952992,-0.086342
0.800816,0.244255,-0.643595,-0.243660,0.960561,0.133984
0.270312,-0.575778,0.773960,0.177647,-0.780148,0.599842
-0.142235,-0.182866,0.684743,-0.104364,0.890543,-0.442765
0.512089,0.009511,0.948503,-0.779527,0.626368,0.000680
0.212186,0.179721,0.447361,0.782164,0.299114,0.546580
-0.006289,0.045145,0.788962,-0.765996,-0.513343,-0.386949
-0.024879,0.912904,0.833769,0.479003,0.423740,-0.768765
0.097838,-0.191270,0.801166,0.119892,-0.825343,0.551756
0.453009,-0.625421,0.792340,0.782511,0.339543,-0.521907
0.053390,0.430637,0.402338,-0.490106,-0.870058,-0.052867
-0.383059,0.422772,0.529226,-0.738235,-0.210421,-0.640884
-0.504273,0.220958,0.460409,-0.669355,-0.592318,-0.448467
0.779169,-0.051486,0.957627,0.636225,0.680050,0.364349
0.108710,-0.448134,0.545668,0.820410,-0.297781,0.488113
0.097686,0.000664,0.745529,0.728867,-0.148383,0.668383
0.672538,0.180457,0.765300,0.630915,-0.764493,0.132273
-0.189387,0.562901,0.672539,-0.439769,-0.236124,-0.866515
0.753914,0.500922,0.955640,0.257942,-0.695073,0.671073
0.723448,0.250203,-0.294592,-0.135585,0.990613,-0.017414
0.601984,0.214470,0.166363,0.354857,-0.907610,0.224322
0.732117,0.238653,-0.737184,0.192103,-0.981276,-0.013917
0.797409,0.203608,0.111339,-0.086782,0.324186,0.942004
-0.611505,-0.081812,0.635664,0.823081,0.519048,-0.230493
0.263047,-0.415399,0.562326,0.794096,-0.039258,0.606524
-0.084208,-0.265733,0.377103,0.824763,0.358558,0.437267
-0.231528,-0.334988,0.755812,0.597970,-0.692087,0.404286
0.380852,-0.193973,0.452593,0.426669,0.559727,0.710394
0.619622,0.375193,0.910717,-0.390561,0.309253,0.867079
0.389121,-0.639133,0.842181,0.821879,0.475255,-0.314082
0.793300,0.162960,0.926629,0.964468,0.068936,0.255048
0.278180,-0.131257,0.857017,-0.825655,-0.151986,0.543318
-0.264851,0.596471,0.592148,-0.153136,-0.087545,0.984320
0.386566,-0.365462,0.842015,0.587230,0.507258,0.630754
0.023275,0.439434,0.436134,0.267473,0.485485,0.832324
-0.079949,0.580153,0.836932,-0.183206,-0.959524,0.213890
0.221607,-0.324322,0.859501,0.133054,0.988972,-0.065039
-0.432717,0.490797,0.832941,0.894070,0.443692,-0.061456
-0.338813,0.474676,0.891194,-0.053894,-0.992711,0.107794
0.099691,-0.423803,0.531130,-0.846763,0.151985,-0.509797
-0.336908,0.823991,0.807541,0.471380,-0.377599,0.797007
0.114474,-0.587623,0.654093,0.944963,-0.300845,0.128597
0.598677,0.556659,0.899904,0.932051,-0.244065,0.267792
0.006689,-0.468137,0.798053,0.119613,0.625304,0.771160
0.531881,-0.404389,0.512618,-0.651667,-0.280202,-0.704853
0.690677,0.236490,-0.035253,0.815240,-0.578715,-0.021721
0.254378,-0.266668,0.564313,0.609545,0.687307,0.395049
0.730464,0.327026,-0.096023,0.941505,-0.271065,0.200228
0.605892,0.194219,0.078736,0.805733,-0.590518,0.045640
-0.498210,0.453196,0.671480,-0.448948,-0.889971,-0.079983
0.601984,-0.087120,0.930653,-0.361664,0.927530,-0.094278
-0.780073,0.794451,0.643860,0.372037,0.826221,-0.423021
0.360809,-0.309970,0.828967,0.354141,0.912517,-0.204689
-0.741789,0.368804,0.705242,0.723825,0.639449,0.259195
-0.957609,0.604778,0.648182,0.724254,0.628679,-0.283231
0.174604,0.134747,0.851454,-0.502315,-0.851459,-0.150654
0.255029,-0.181195,0.826285,-0.601004,0.763446,-0.236527
-0.298674,-0.011477,0.479931,0.062925,-0.454580,0.888481
0.636760,0.332825,0.657504,0.969145,-0.119221,-0.215744
0.580137,-0.682583,0.790618,0.606699,0.637947,-0.474278
0.508130,-0.063478,0.936068,0.897219,0.441146,0.019685
0.373336,-0.637756,0.692824,0.963447,0.196842,0.181724
0.539498,0.094689,0.909955,0.652823,0.670113,0.353227
0.816751,-0.253053,0.936763,0.286300,-0.737143,0.612089
0.213037,0.312526,0.834763,0.400924,0.887626,0.226673
-0.640869,0.442726,0.793665,0.954864,0.190447,-0.227957
0.003983,0.934384,0.836750,-0.343116,-0.242166,0.907539
-0.274823,0.506525,0.807359,0.798887,-0.581644,-0.153199
0.108961,0.017916,0.263098,-0.470102,-0.167202,-0.866630
0.667377,0.519108,0.966701,-0.234650,0.600694,0.764268
0.221306,0.259738,0.187939,0.372019,0.646011,0.666537
0.802921,0.255757,-0.748477,-0.489598,0.868015,-0.082730
0.125347,0.513406,0.447543,0.746890,-0.595307,0.296251
-0.220004,-0.093755,0.657835,0.758564,0.307675,0.574383
-0.335004,-0.174510,0.466221,0.808277,-0.396520,0.435270
-0.108562,0.496842,0.744171,-0.434698,0.874561,-0.214897
0.017813,0.469219,0.714035,0.831950,0.320864,0.452664
0.121739,-0.514093,0.758942,-0.341994,-0.405652,-0.847636
-0.335054,0.455605,0.834564,-0.192211,-0.019124,0.981167
0.645227,0.658401,0.779342,0.243883,-0.354173,0.902819
0.424748,-0.568700,0.809130,-0.317751,0.928210,-0.193550
0.559341,0.393232,0.166843,0.807705,-0.400348,0.432821
0.061258,-0.733109,0.772288,-0.091272,-0.097696,0.991022
0.160573,0.437910,0.620198,-0.290821,-0.950529,-0.109171
0.408413,0.649014,0.285170,-0.224754,-0.171425,0.959218
0.695187,0.252366,-0.873758,-0.001131,-0.985128,0.171817
-0.288152,0.716055,0.841121,-0.470710,0.591310,0.654816
-0.574324,0.143447,0.784856,0.948952,0.299576,0.098716
0.557037,-0.478508,0.546082,0.288025,0.759301,0.583527
-0.234786,-0.727311,0.703504,0.541538,0.840286,0.025610
-0.197455,-0.416136,0.451384,0.019300,0.504290,0.863319
0.682459,0.196678,-0.968688,0.360687,0.731279,-0.578910
0.649939,0.199283,0.165022,0.522966,-0.852324,0.007095
0.465638,0.358728,0.933286,0.584336,0.320598,0.745498
-0.327186,-0.092822,0.692857,0.717507,0.538252,0.442117
0.283491,-0.708289,0.838936,0.441470,-0.890369,0.111121
-0.172550,-0.184144,0.727381,-0.352113,0.919290,-0.175849
-0.157417,-0.372637,0.447145,0.265298,-0.694887,-0.668393
0.107759,-0.534884,0.660054,0.972338,-0.083278,0.218228
0.166186,0.254332,0.459349,-0.624982,0.203853,-0.753553
0.603688,-0.069524,0.930024,0.301040,-0.938194,-0.170785
0.684664,-0.354303,0.947493,-0.840215,0.541956,-0.017949
-0.292662,0.674326,0.729931,0.890714,0.341348,0.300184
-0.873776,0.542701,0.688800,0.869568,0.480672,-0.113167
0.620474,0.375931,0.926348,-0.504372,-0.771836,-0.387140
0.487234,-0.810227,0.702245,0.835874,-0.547666,-0.037107
-0.305690,0.274336,0.811515,-0.368768,-0.917393,0.149669
-0.218651,0.697083,0.782405,-0.692698,-0.469872,0.547166
-0.368377,0.668281,0.882551,-0.542754,0.245494,0.803213
0.645529,0.203314,0.149109,-0.515297,0.856849,0.016730
0.650389,0.447396,0.061730,-0.041640,-0.022974,0.998869
-0.361812,0.476396,0.714747,-0.598504,-0.151153,-0.786731
-0.051838,-0.281168,0.582064,-0.802674,-0.104895,-0.587122
-0.200662,0.661744,0.650682,-0.117129,-0.986507,0.114388
-0.034550,0.559902,0.628494,0.264739,-0.826051,0.497547
0.698945,0.267553,-0.628825,0.351408,0.920328,0.171782
-0.036806,0.435502,0.874801,-0.175275,0.077308,0.981480
-0.188235,0.172692,0.765333,0.965070,-0.225286,-0.133741
-0.316213,0.085695,0.774391,-0.546432,0.708604,-0.446421
0.794654,0.260722,-0.945374,-0.530734,0.140445,-0.835821
-0.382157,0.489962,0.821582,0.419393,0.808912,0.412033
0.214541,0.449019,0.634952,0.412455,0.908303,0.069762
0.710720,0.710502,0.883544,0.229869,-0.954802,0.188452
-0.198958,-0.505639,0.773579,0.267959,0.674504,0.687926
0.100693,0.353715,0.819529,0.849140,-0.495746,-0.182202
0.629594,0.318277,-0.590393,-0.556423,-0.815699,0.158203
0.671836,0.268634,0.166313,-0.986437,0.113000,0.119053
-0.342771,0.196481,0.395533,-0.679457,0.011336,-0.733628
-0.382507,0.631958,0.480742,0.428701,0.493607,0.756682
0.782025,0.191861,0.858938,0.770078,0.252641,-0.585792
0.370882,-0.036249,0.695937,-0.722864,-0.013079,-0.690866
0.764437,0.269569,-0.188518,0.714842,-0.699280,0.002906
-0.273721,-0.136271,0.434263,-0.840509,0.168039,-0.515080
0.756971,0.481802,0.950987,0.267059,-0.421327,0.866696
0.724651,-0.321619,0.759885,0.584193,0.598589,0.548096
0.546312,0.367968,0.453752,0.786459,-0.369016,0.495287
0.090571,0.009068,0.274589,-0.774423,0.195723,-0.601633
0.714930,-0.032169,0.462247,-0.407584,-0.336227,0.849015
-0.627891,-0.048537,0.688336,0.852336,0.024199,0.522435
-0.138877,0.564129,0.650368,0.064339,-0.261099,0.963166
0.657805,0.180703,-0.977133,0.629061,0.551719,-0.547621
0.104251,-0.052271,0.827759,0.980004,-0.177344,-0.090226
0.641670,-0.593669,0.822410,0.355141,0.769478,0.530827
0.625085,0.201641,0.194926,0.557350,-0.823994,0.101957
0.646431,0.714729,0.872897,0.376524,-0.887948,0.264153
0.767093,0.076503,-0.210905,0.225701,-0.312347,0.922767
0.733820,-0.636234,0.851090,-0.494593,0.761015,0.419803
0.455666,0.321865,0.948155,0.195505,0.786744,0.585501
0.579385,-0.789978,0.764456,0.746019,0.525035,-0.409625
-0.302684,0.483080,0.705689,-0.435846,-0.173441,-0.883151
-0.600431,-0.047308,0.681216,0.658540,-0.593140,-0.463152
0.278631,-0.661595,0.863376,-0.514966,0.856137,-0.042882
0.398140,-0.047356,0.790121,0.685943,0.465686,0.559123
-0.693434,0.363644,0.758908,0.922427,-0.080276,0.377736
-0.069777,-0.374161,0.788449,0.445068,-0.490772,-0.749038
0.811790,0.439090,0.924228,-0.502151,0.334210,0.797589
-0.444894,-0.410828,0.568155,-0.049385,0.369387,0.927962
0.379600,0.373326,0.856339,0.659171,0.745860,-0.095845
-0.532233,-0.375537,0.661478,0.889792,0.455719,0.024289
0.388219,-0.019389,0.862796,0.059158,-0.912367,0.405076
0.646682,0.112678,0.545801,-0.653268,0.730670,0.198398
0.083556,0.451230,0.422324,-0.132463,-0.977456,-0.164418
0.803422,-0.562851,0.841403,-0.353555,0.925365,-0.136743
-0.308045,0.376521,0.734750,-0.770253,0.602944,-0.207771
0.825820,-0.075619,0.098738,0.180046,0.749656,0.636867
0.819257,0.257477,-0.548682,-0.365774,0.912988,-0.180726
0.783579,0.256691,0.874487,-0.597692,-0.343471,0.724426
0.802720,0.319260,-0.954232,0.540462,0.265842,0.798266
-0.230828,-0.724263,0.739237,0.560904,0.826601,-0.046010
0.568662,0.341918,0.403298,0.846486,-0.426584,0.318569
-0.351589,0.023666,0.779656,0.840022,0.537006,-0.077377
-0.109914,-0.345064,0.610826,0.695514,0.034495,0.717684
0.710018,0.616624,0.760581,-0.675450,0.682610,-0.278948
-0.123244,0.448084,0.637038,0.562777,0.075355,0.823167
-0.505675,0.497777,0.771625,0.625483,0.780067,-0.016303
0.222910,0.489863,0.362548,-0.575080,0.818063,-0.007514
-0.337860,0.648472,0.817923,0.832475,0.039353,-0.552664
-0.045374,0.564768,0.745314,-0.335115,0.927260,-0.166994
0.713828,0.293898,0.977629,-0.593230,-0.073119,-0.801706
0.673288,0.684697,0.860412,-0.202664,0.954408,-0.219163
0.759878,0.692267,0.847513,-0.472023,0.869632,-0.144688
0.731615,0.226070,-0.309064,-0.632088,0.767702,-0.105350
-0.607497,-0.028385,0.668532,0.957542,0.283961,-0.049792
0.732167,0.226316,0.811879,0.835261,0.446404,-0.321032
0.388168,-0.627042,0.832577,-0.838184,0.537254,-0.093834
-0.252324,0.193336,0.812740,-0.195184,-0.354606,0.914416
0.617767,0.175591,0.028298,0.867177,-0.473441,-0.154456
0.334401,-0.314001,0.541661,0.867924,0.400367,0.293963
-0.436676,0.760586,0.836485,-0.616081,0.579934,0.533030
0.243204,-0.001499,0.825275,0.848926,0.399121,-0.346450
0.751559,0.134158,0.848738,0.457766,0.564588,0.686797
0.577230,-0.207982,0.835574,0.761162,0.432513,0.483285
0.819908,-0.549875,0.852017,-0.292096,0.946373,0.138050
0.200862,-0.060382,0.712445,-0.371909,0.176394,-0.911356
0.440933,0.093264,0.621158,0.248996,0.866958,0.431723
0.703655,0.230247,-0.212081,0.440753,-0.891629,0.103614
-0.352593,0.023666,0.811647,0.939304,-0.298273,0.169533
-0.483528,-0.238603,0.557888,0.832475,-0.094352,0.545970
0.002981,-0.615147,0.591039,-0.756059,0.521832,-0.395053
0.361009,0.230543,0.807210,-0.376430,-0.634597,-0.674972
-0.235287,0.220860,0.809693,-0.529236,0.077603,-0.844918
0.267407,-0.301418,0.864088,0.932404,0.271920,-0.238082
0.338059,0.239389,0.360031,-0.819248,0.023046,-0.572975
-0.242603,-0.334889,0.749983,-0.544516,0.730838,-0.411556
-0.379802,0.282446,0.653381,0.027218,0.985438,0.167842
0.695688,-0.180064,0.459018,-0.486624,0.106784,0.867061
0.652444,-0.195989,0.444711,-0.309767,0.379445,0.871817
-0.012352,-0.717873,0.773099,0.422095,-0.380803,0.822694
0.591161,0.301860,0.399374,0.548484,0.785065,-0.287815
0.737179,0.228330,-0.563684,0.158464,0.986290,-0.046049
0.405055,0.328745,0.863806,0.334591,0.836492,0.433971
0.613709,-0.098081,0.448205,-0.580180,0.452625,-0.677143
-0.612258,0.209162,0.794774,0.852863,0.302396,-0.425654
0.404153,0.043131,0.821168,0.991543,-0.050951,0.119357
-0.671736,0.319702,0.741605,0.954304,0.028925,-0.297435
0.273770,0.422624,0.582428,-0.755912,0.433556,-0.490536
0.137323,0.658549,0.753808,-0.910748,-0.040970,-0.410926
0.129205,0.424836,0.816648,0.812466,-0.505959,-0.289661
0.699846,0.386892,0.684975,0.565916,-0.468226,0.678604
0.686918,0.012902,0.652620,-0.288459,0.826993,0.482570
0.630697,0.405176,0.694877,0.726981,-0.433618,0.532423
0.775912,-0.353271,0.769407,-0.715878,0.300117,0.630434
0.545711,-0.017030,0.398579,0.221732,0.805518,0.549524
0.420589,0.383401,0.940174,-0.278359,-0.716054,0.640143
-0.000877,0.225431,0.819513,-0.426349,-0.901441,0.075034
0.863352,0.086481,0.840591,-0.023478,-0.994465,0.102409
-0.364519,-0.753214,0.537455,-0.325108,0.291646,-0.899582
0.677549,0.233442,0.027603,0.988197,0.137301,0.067941
0.338761,-0.353862,0.536611,0.982099,0.041927,0.183642
0.720292,0.267110,-0.643132,0.147824,0.988976,-0.008622
0.477413,0.272419,0.966154,-0.629285,-0.769654,-0.107855
-0.305290,-0.077830,0.730693,0.524892,-0.002687,-0.851164
0.574674,0.354551,0.415254,0.982068,-0.094650,0.163043
0.745195,0.248728,-0.400003,0.129020,-0.991244,-0.028084
-0.600732,0.545944,0.824265,0.840120,-0.353327,-0.411531
0.582041,0.215306,0.621043,-0.673379,-0.640217,0.369708
0.705409,0.213929,0.774970,-0.577244,0.811914,-0.087096
-0.759979,0.436485,0.699281,-0.532605,0.438184,0.724104
0.588806,0.346883,-0.987233,0.597526,0.180941,-0.781168
0.135620,0.451279,0.632352,-0.302883,-0.946983,-0.107168
0.154961,0.073948,0.248957,0.258476,0.426465,0.866786
-0.158871,0.633039,0.856372,-0.428397,0.291884,0.855149
0.107007,-0.411614,0.555703,0.869969,-0.231432,0.435423
0.194698,-0.288540,0.847480,-0.479535,-0.015304,0.877389
0.166287,-0.714187,0.773761,-0.484526,0.241188,0.840870
-0.479067,0.541619,0.776013,-0.426097,-0.903841,-0.038904
0.369678,-0.275908,0.861720,0.223239,-0.952281,0.208145
0.435422,0.320047,0.860495,0.353338,0.813790,0.461410
0.610953,0.207982,0.973092,0.159166,0.098311,-0.982345
0.064515,-0.222236,0.834183,-0.600134,0.410250,-0.686683
-0.244306,0.582856,0.767933,0.831945,0.381827,0.402585
-0.287150,-0.317539,0.732249,0.467369,0.431936,-0.771361
0.016010,0.027452,0.555338,0.307840,0.653273,0.691714
0.466439,0.133273,0.919062,0.172602,0.304490,-0.936747
0.591412,0.023469,0.451186,0.764235,-0.226960,-0.603684
0.399643,0.446659,0.260498,0.683559,-0.415188,0.600305
0.638312,-0.074194,0.428699,-0.587090,-0.468001,-0.660531
-0.325683,-0.572091,0.722149,0.823275,-0.257542,-0.505856
0.798913,0.288983,-0.780186,0.774619,-0.594217,-0.216498
-0.073386,0.408419,0.799874,0.970016,-0.110536,0.216453
0.781174,-0.122311,0.883130,-0.572888,0.740853,-0.350622
0.565154,0.205427,-0.998659,-0.369285,-0.210503,0.905161
0.791947,-0.549778,0.851255,-0.159573,0.967496,-0.196186
0.193595,-0.873092,0.783498,-0.528832,-0.362283,0.767521
0.686066,0.315622,0.845162,0.350581,-0.762175,0.544226
-0.085310,0.199184,0.835127,-0.532981,-0.536977,-0.653901
0.762332,0.211177,-0.953835,0.236930,-0.798407,0.553544
-0.469297,0.505739,0.536445,0.575106,0.744345,0.339417
0.070477,0.289130,0.830706,-0.514953,0.352119,0.781560
-0.226218,-0.386892,0.712346,0.399948,0.900053,-0.173050
0.448249,-0.560639,0.737068,0.995437,-0.044630,-0.084338
0.099190,0.354305,0.753030,-0.682091,0.692293,-0.235546
0.292862,0.404438,0.564363,-0.820488,0.216108,-0.529241
0.725352,-0.241257,0.959664,0.856775,0.506780,0.095452
0.776915,-0.324175,0.772139,0.839963,0.234755,-0.489237
0.630046,0.352880,0.956219,0.640496,-0.713199,0.284800
0.327136,-0.049077,0.822510,0.568691,-0.807020,0.159089
0.729060,-0.591114,0.847281,0.715626,-0.694495,0.074541
0.189686,0.067558,0.246026,0.223333,0.484202,0.845974
-0.018917,-0.128750,0.831170,0.784002,0.453885,-0.423473
0.596822,-0.323290,0.468456,0.907246,0.336677,0.252098
-0.444392,0.763485,0.831286,0.971219,-0.207003,-0.117829
-0.168291,0.322701,0.582147,0.393612,0.325560,-0.859698
0.087615,0.513160,0.822294,0.800208,0.417855,-0.430190
-0.027886,0.050749,0.773033,-0.029880,0.972138,0.232496
0.450505,0.517044,0.740429,-0.180135,-0.624103,0.760294
-0.517602,0.365855,0.824165,0.892114,-0.133382,-0.431673
0.050434,-0.180408,0.839813,0.860094,-0.244181,0.447899
0.099491,-0.508884,0.788929,0.192830,0.507073,-0.840055
-0.711122,0.264064,0.749420,0.859056,0.445919,-0.251353
0.672086,0.526530,0.780782,0.909456,-0.415420,-0.017775
0.753413,0.417168,-0.958637,-0.273270,0.338648,0.900356
0.700048,0.240618,-0.009074,0.977225,-0.200846,-0.068504
-0.658909,0.383647,0.621258,0.935018,0.096556,0.341201
0.295267,0.072473,0.808716,-0.531332,0.679112,-0.506452
0.416380,0.064658,0.784707,0.028518,-0.248654,0.968172
-0.312806,0.506181,0.703189,-0.619571,0.498303,-0.606487
0.383658,-0.603401,0.821450,-0.689099,0.676973,-0.258554
0.058852,-0.238603,0.547821,0.352065,-0.934464,0.053174
0.644226,0.370869,0.954514,-0.499138,0.838633,-0.218073
-0.319571,-0.718857,0.516757,0.874786,-0.481595,0.053058
0.275775,0.031383,0.864502,0.438397,-0.190380,-0.878387
0.665772,0.104913,0.628113,0.893625,0.431237,-0.124374
0.803272,0.299157,-0.947675,0.520026,0.180950,0.834763
-0.237993,-0.387775,0.736141,0.695491,-0.517040,0.498961
-0.102798,0.319752,0.593887,0.899660,0.306455,-0.310962
0.629143,0.214125,0.223589,-0.488140,0.861396,-0.140416
0.672487,0.183652,0.743095,-0.098524,-0.972963,0.208892
0.037004,-0.677864,0.754736,-0.245292,-0.066063,-0.967196
0.279683,-0.444790,0.803368,0.810941,0.549141,0.202037
0.198256,0.574255,0.724533,0.842501,0.104632,-0.528435
0.546213,0.411467,0.959697,-0.497174,0.857228,-0.134085
0.761531,0.203165,0.953520,0.003247,0.736069,0.676899
0.612406,0.466073,-0.984435,-0.348524,0.046296,0.936156
-0.137675,0.255561,0.589946,-0.708742,-0.201652,0.676034
-0.568311,0.265882,0.749636,-0.078603,0.989040,-0.124987
-0.434671,0.219828,0.656709,-0.616492,0.659211,-0.430556
0.269009,0.379470,0.700772,0.426838,-0.674213,0.602699
-0.252674,-0.174363,0.741936,-0.215059,-0.473434,0.854172
-0.563602,0.574599,0.740876,0.979294,0.112539,-0.168281
0.585698,0.186700,0.562210,0.873990,0.374352,0.309842
-0.847219,0.724951,0.649490,-0.462097,0.157721,-0.872692
-0.297072,-0.648129,0.525020,0.837267,0.207241,0.505999
0.644727,-0.062545,0.946351,-0.172940,0.495373,-0.851292
0.564001,0.364676,0.439893,0.711933,-0.593724,0.375024
-0.044222,0.933548,0.839499,0.004788,-0.096444,0.995327
0.498459,0.169743,0.802275,0.910342,-0.398362,0.112187
0.804575,0.140105,0.826566,0.582361,0.799509,0.147110
0.542404,-0.474134,0.538002,0.086887,0.768776,0.633588
0.107258,0.447790,0.863542,0.915173,-0.142306,0.377103
0.123795,0.432405,0.413962,0.551046,-0.770343,0.320810
0.238644,-0.468973,0.580309,-0.568156,-0.418564,-0.708522
0.480821,0.144136,0.920155,0.319223,-0.075073,0.944701
-0.115376,0.522795,0.726023,0.321909,0.898568,0.298245
-0.136573,0.306382,0.584962,-0.661900,-0.266733,0.700530
0.618520,0.366150,0.678865,-0.467124,0.768530,-0.437215
0.698644,0.650292,0.786743,0.542223,0.574333,-0.613299
0.748953,0.285494,0.105676,-0.076583,-0.172262,0.982070
0.716482,0.231771,-0.251209,-0.467658,0.883383,0.030499
0.153158,0.458357,0.882551,0.311420,0.788100,-0.530958
0.453561,0.276598,0.648000,-0.468807,-0.880946,-0.064448
0.153057,0.532624,0.444314,-0.050368,-0.991444,0.120425
0.417382,-0.716104,0.827014,0.780418,0.397755,-0.482431
0.728710,0.588607,0.743906,-0.391082,-0.827882,0.402078
0.093778,-0.670591,0.754024,0.739241,0.164920,-0.652935
-0.863303,0.876434,0.655931,0.162144,-0.008436,0.986731
-0.694436,0.262982,0.707527,0.947636,-0.319005,-0.014915
0.509483,0.347177,0.640896,0.129021,-0.928773,0.347467
0.025430,-0.312477,0.838190,0.987844,0.060364,0.143249
0.883696,-0.611462,0.818453,-0.603378,-0.782467,-0.153883
0.668378,0.189600,-0.965923,0.399134,0.757653,-0.516386
0.727257,0.252808,-0.343771,-0.349973,0.934955,0.058126
0.465336,-0.414317,0.826931,0.760605,-0.595188,0.259289
-0.130760,0.547664,0.832329,-0.267962,0.855966,-0.442176
0.813093,0.280332,-0.797871,0.829685,-0.537785,-0.149701
0.822313,0.401194,0.941499,0.170600,-0.717314,0.675542
0.626186,0.258264,0.628361,-0.029464,-0.827193,0.561144
0.874877,-0.254577,0.928219,0.952149,-0.305554,0.006995
0.038708,0.511440,0.558667,0.091546,-0.995766,-0.008307
0.367524,0.367133,0.828305,0.967673,0.100038,0.231520
-0.617067,0.379716,0.824364,-0.106476,0.012186,0.994241
-0.134418,0.356172,0.590509,-0.043483,-0.084385,0.995484
0.698594,0.215207,-0.286876,0.209337,-0.975306,0.070398
0.703304,0.229707,-0.906958,-0.034989,-0.998977,0.028639
-0.197855,0.066133,0.703206,0.826649,-0.101954,-0.553405
0.479316,-0.777985,0.748708,0.226779,0.905065,-0.359762
0.452158,-0.359808,0.799940,-0.580859,-0.405244,-0.705961
0.015909,0.201445,0.219897,0.456073,-0.090342,-0.885345
0.637009,-0.005234,0.414856,-0.332709,-0.618505,-0.711868
0.058401,0.225578,0.484021,0.277714,-0.804365,0.525235
0.745296,0.236097,-0.358822,-0.344978,0.937857,-0.037600
0.572621,0.306333,0.095228,0.765489,-0.471123,0.438259
-0.553128,0.574549,0.592429,-0.593763,-0.791838,0.142961
0.817803,0.263965,-0.578553,-0.549570,0.834200,0.045641
-0.158971,0.572043,0.914012,0.193896,-0.529184,0.826056
0.458071,0.307414,0.965989,0.988430,-0.001933,0.151663
-0.572271,0.404585,0.793234,0.523699,0.727139,-0.443857
0.593767,0.177901,0.170138,0.250978,-0.967433,0.032921
-0.134017,0.542258,0.460243,-0.528884,-0.026008,-0.848296
-0.004035,0.550466,0.880829,0.763880,-0.592727,0.255269
0.515146,0.211325,0.921099,-0.245415,0.756399,-0.606326
-0.088068,0.304319,0.650169,-0.364930,-0.154323,-0.918156
0.685164,0.194858,0.003709,0.523030,-0.852276,0.008083
0.264601,-0.681944,0.835690,-0.634204,0.760789,-0.137790
-0.068775,0.507852,0.811349,-0.433776,0.827566,0.356333
-0.568162,0.153524,0.688667,-0.749300,-0.105449,-0.653781
0.440031,0.332924,0.330309,-0.032339,-0.999134,0.026171
-0.515095,0.262883,0.740727,0.660598,-0.441268,0.607365
-0.311553,0.013640,0.778878,0.703603,0.708971,-0.047990
0.408814,-0.289130,0.780103,0.857726,-0.512611,0.039184
0.814296,0.270797,-0.580640,-0.412935,0.910629,0.015511
-0.319320,0.812047,0.813270,0.908317,0.285693,0.305517
0.622528,0.235163,0.898795,-0.002426,0.999461,0.032731
0.291909,0.090561,0.658647,-0.223672,-0.864947,-0.449264
-0.523264,0.767123,0.862184,0.088439,0.249208,0.964403
-0.408965,0.661252,0.873874,-0.689870,0.656788,0.304481
0.380101,-0.615296,0.816797,0.744436,-0.667175,0.026337
0.821110,-0.295176,0.928120,0.445643,-0.740684,0.502782
0.483827,0.296601,0.319032,0.055501,-0.949943,0.307455
0.700198,0.237276,-0.063369,0.526589,-0.757398,0.386074
-0.467292,0.255904,0.799361,0.840478,0.520408,0.150902
-0.271016,0.136567,0.630547,-0.654953,-0.256880,-0.710668
-0.574124,0.320095,0.772718,0.000490,-0.592937,0.805249
-0.005287,0.264703,0.829431,0.057998,-0.785024,0.616745
0.846315,0.278316,0.931647,-0.697814,0.151189,0.700141
0.714730,0.269176,-0.040436,0.831989,-0.549190,0.078645
-0.333250,0.279841,0.643562,-0.057567,-0.903655,-0.424375
0.067371,0.286673,0.207826,-0.533800,0.033248,0.844957
0.548667,0.505296,0.814711,-0.779184,0.588139,-0.216716
0.727055,0.672361,0.852928,0.436445,-0.883271,0.171315
0.718388,0.217272,-0.815108,0.032601,0.996468,0.077380
0.585749,-0.078764,0.946649,-0.121609,-0.991761,0.040256
-0.657606,-0.122311,0.686316,0.705052,0.614485,0.353992
-0.676246,0.452311,0.705839,0.458489,-0.411516,-0.787682
-0.008344,0.567669,0.785501,0.338843,-0.924219,0.176082
0.664370,-0.348209,0.941217,0.920676,-0.224360,-0.319403
0.664621,-0.090659,0.743807,-0.811364,-0.508004,-0.289173
-0.331246,0.362856,0.728722,0.857054,0.226864,0.462591
-0.463283,0.244944,0.669095,-0.563643,0.794149,-0.227231
0.725853,0.246321,-0.090525,0.225781,-0.921592,-0.315739
-0.352993,0.095673,0.705739,0.148820,0.981488,-0.120554
0.387818,-0.670688,0.705458,0.889581,0.435483,0.137844
-0.401198,-0.438499,0.681067,0.711471,0.531342,-0.459875
0.299326,-0.097097,0.480014,-0.548592,0.270101,-0.791260
0.366221,0.400753,0.875149,0.735284,0.661556,-0.147313
0.600481,0.169644,0.263479,0.267202,-0.952311,-0.147333
-0.674743,0.322601,0.739833,0.954304,0.028925,-0.297435
0.174403,-0.368705,0.527156,-0.822904,0.539120,-0.179385
-0.688423,0.380452,0.747533,0.942547,-0.081864,0.323888
0.799313,0.337298,-0.953173,0.102618,0.303807,0.947191
0.603136,0.146150,0.473937,0.987491,-0.155547,-0.025820
0.213288,0.377356,0.598722,0.755201,-0.470313,0.456593
-0.617268,-0.087956,0.634173,0.823081,0.519048,-0.230493
0.424999,-0.001696,0.786710,0.871377,-0.384895,0.304234
0.436875,0.006119,0.767535,-0.735304,0.232890,-0.636468
0.395835,0.651618,0.291562,0.009149,-0.326412,0.945183
-0.071883,0.237030,0.552606,-0.785140,-0.172670,-0.594761
-0.666626,0.571355,0.794029,0.953931,-0.299700,0.014007
0.403904,0.368952,0.903481,0.492344,0.817765,-0.298091
-0.202566,0.534640,0.899937,-0.077179,-0.992108,-0.098822
0.742439,0.717775,0.784673,0.391679,0.605172,0.693076
0.359356,-0.032022,0.809577,-0.129755,0.977715,-0.165039
0.748804,-0.171708,0.866903,0.882227,-0.112310,-0.457232
0.801367,0.293063,-0.422457,0.890184,-0.360133,0.279063
-0.028738,0.677177,0.676513,-0.712373,-0.690751,0.124046
0.393580,0.320095,0.824563,0.652805,-0.721908,0.229553
0.053942,-0.583642,0.706551,0.773263,0.200122,-0.601677
0.522211,0.105798,0.825142,0.338819,-0.780880,-0.524813
0.193045,-0.083138,0.724268,0.032037,0.488333,0.872069
0.439932,-0.392151,0.844416,0.224262,0.152915,0.962457
-0.302834,-0.682829,0.726305,0.756844,0.643830,-0.112559
0.058903,-0.092280,0.806547,-0.198711,0.937205,0.286636
0.416130,-0.278858,0.794029,0.967111,-0.238336,0.088842
-0.192144,-0.416726,0.729633,-0.704714,0.687868,0.173825
0.404705,0.349733,0.854153,0.366201,0.905006,0.216472
