0.202132,0.236124,0.693319,0.989291,-0.135429,-0.054419
0.324932,0.671752,0.216648,0.188171,0.771728,0.607477
0.107449,0.488294,0.926648,-0.305486,-0.746134,0.591576
0.745809,0.095359,0.616333,-0.606179,0.248457,0.755524
0.084439,-0.062799,0.759871,0.874583,0.148786,-0.461483
0.186963,0.190916,0.649242,-0.223748,0.959974,0.168483
0.209552,-0.627657,0.687611,0.699454,-0.714578,0.011973
0.067377,0.080481,0.545944,0.266247,0.898324,0.349465
0.605707,0.297827,0.257465,-0.576414,0.299303,0.760372
0.408891,0.787972,0.306314,0.658210,0.751041,0.051930
0.124272,0.060895,0.814132,-0.744331,0.583814,-0.324241
0.115650,-0.694428,0.535635,0.959546,-0.271232,-0.075535
0.816521,0.543205,0.583205,-0.706857,0.047555,0.705756
-0.481346,-0.749196,0.437468,-0.545525,0.017466,-0.837912
0.727786,0.218012,0.674119,0.719025,0.694982,-0.002028
-0.014209,-0.190880,0.856166,-0.223524,-0.969386,-0.101623
-0.627786,0.555460,0.674899,0.775576,0.615281,-0.141108
0.831481,-0.182721,0.665089,0.896572,-0.114625,0.427809
-0.207480,-0.088962,0.795182,0.838819,0.084751,-0.537774
0.885822,0.058596,0.702786,0.253623,0.114936,0.960451
0.037278,-0.494870,0.708994,0.770635,-0.630028,0.095850
-0.804896,-0.386125,0.400644,0.917740,0.256739,0.303049
-0.587564,0.452717,0.786651,0.129832,-0.792939,0.595307
-0.019796,-0.215100,0.482746,0.847890,-0.511449,0.139653
-0.105077,-0.122598,0.794324,0.965304,0.239349,0.104403
-0.150736,0.055469,0.135264,-0.165309,0.435997,0.884635
-0.604777,-0.064633,0.583860,-0.541449,-0.025702,-0.840340
-0.486062,-0.351553,0.703753,-0.062610,-0.322943,0.944345
0.680204,0.142724,0.450507,0.299227,-0.031574,-0.953659
-0.488345,0.447074,0.773425,-0.190541,0.853433,0.485125
-0.979213,0.053960,0.554414,0.964386,0.259424,0.051557
-0.010033,-0.173629,0.832693,0.413139,0.904326,0.107290
-0.686513,-0.071138,0.493414,0.137563,0.147231,0.979489
0.535116,-0.064668,0.280392,0.906934,0.416540,0.062977
0.193992,-0.152642,0.726759,0.943573,0.325475,-0.061116
-0.407239,-0.583239,0.359734,0.343880,0.446954,0.825820
-0.176930,-0.141250,0.808580,0.323089,0.917579,-0.231650
0.295675,0.853378,0.217974,0.452938,0.890520,-0.042681
0.683058,0.260669,0.855402,0.420822,0.661057,-0.621218
0.011655,0.431046,-0.236799,-0.392778,0.686819,-0.611559
0.091890,-0.042280,0.219580,-0.637208,0.353207,-0.684990
-0.182308,0.201589,0.271721,0.078555,0.765843,0.638211
-0.835026,-0.306561,0.506594,0.867344,-0.039536,-0.496136
0.097506,0.107722,0.514657,0.169424,0.853334,0.493069
0.437038,0.724867,0.347381,-0.394417,-0.460113,-0.795444
0.468219,0.543134,0.025774,-0.583104,-0.108559,-0.805111
0.237729,-0.638403,0.454672,0.868362,-0.101641,-0.485403
0.049535,0.350835,-0.213809,-0.238098,-0.059309,0.969429
0.061880,-0.337107,0.454469,0.909994,-0.203229,-0.361399
-0.328748,0.775466,0.635580,0.116460,0.950733,0.287305
0.111655,0.472841,0.927646,0.005559,-0.819491,0.573065
-0.157195,-0.444019,0.689357,0.404536,0.708236,0.578578
-0.332082,-0.252870,0.661579,-0.205300,0.812385,0.545786
0.314749,0.555783,0.933745,-0.651373,-0.522878,-0.549829
-0.396967,-0.419869,0.547317,-0.321149,0.502584,0.802666
0.458156,0.170611,0.305425,-0.104617,0.821273,0.560861
0.183508,0.609581,-0.804166,0.849203,-0.520570,-0.088660
0.062421,-0.634305,0.310323,-0.123372,0.490865,-0.862456
0.307059,0.047455,0.898028,0.127655,0.958270,0.255780
0.603304,0.712864,0.484150,-0.309841,-0.725001,0.615119
-0.087234,-0.522470,0.597554,0.742963,0.552625,-0.377640
0.241544,0.246941,0.785777,0.768209,0.638888,-0.040950
-0.209943,0.467306,0.214995,-0.271303,-0.021814,-0.962247
0.738901,-0.350151,0.481264,0.455309,0.677515,0.577639
0.324121,-0.651267,0.651785,-0.681441,0.622550,0.384798
0.347222,-0.045047,0.426254,-0.344649,-0.886330,-0.309250
0.132773,-0.199073,0.762616,0.971887,0.231494,0.042969
-0.340883,-0.098701,0.459070,-0.769014,0.612103,-0.184249
0.690267,0.011122,0.810015,0.324528,0.803331,0.499340
-0.094052,0.215856,0.851674,-0.278309,-0.920283,0.274998
-0.760769,-0.284674,0.371447,-0.718226,0.267526,-0.642325
0.201471,0.281333,0.315517,0.868896,0.476740,0.133187
-0.936047,0.078791,0.535198,0.374164,0.426799,0.823313
-0.797507,-0.381201,0.456372,-0.606409,0.711562,0.354891
-0.418685,-0.215064,0.754069,0.856873,-0.505402,0.101675
0.400120,0.191742,0.241369,0.252020,-0.685205,-0.683359
0.062331,-0.821357,0.123628,-0.324817,0.393566,0.860000
0.255061,0.056367,0.144497,0.976776,-0.056633,0.206641
0.502223,0.443660,0.820792,0.520928,0.792412,-0.317360
-0.245449,0.030025,0.394405,0.981172,-0.170828,0.090110
-0.648754,0.578855,0.771568,0.095738,-0.916151,0.389231
-0.162842,0.667008,0.814694,-0.664714,-0.514320,-0.541877
0.586662,0.288485,0.490732,0.837554,-0.096450,-0.537774
-0.579424,-0.087201,0.714390,-0.003731,0.999453,0.032845
0.077021,0.556179,-0.393750,0.981460,-0.100477,0.163219
-0.234665,-0.513342,0.662110,0.624045,-0.023975,0.781021
0.232802,0.268036,0.413090,-0.733544,0.639732,-0.229470
-0.740703,-0.382567,0.472280,-0.206167,0.717387,-0.665471
-0.372064,0.806120,0.841832,0.168362,0.416447,0.893435
-0.026975,0.620291,0.214215,0.731255,-0.673696,0.106771
0.246891,-0.180170,0.362432,-0.714316,0.198939,0.670951
-0.026134,-0.270838,0.637560,-0.549771,-0.835297,0.005456
-0.424422,-0.135213,0.585982,0.783945,-0.583591,0.211782
0.403755,0.094569,0.515156,-0.767390,-0.640739,-0.023806
-0.305888,-0.322553,0.399771,0.032489,-0.365719,0.930158
0.040883,0.305734,0.047750,0.777172,-0.620853,-0.102691
0.024512,0.104128,0.551372,-0.417080,-0.835116,-0.358644
-0.101532,-0.048245,0.683711,0.247770,0.814975,0.523856
-0.264494,0.009829,0.770212,0.010978,0.991559,0.129188
-0.149685,0.531993,0.932980,0.365871,0.804625,-0.467671
0.424872,0.360395,0.422870,0.794624,0.515321,-0.320962
-0.546411,-0.740068,0.460474,-0.507461,-0.858193,0.077383
0.636978,-0.056727,0.762959,0.495180,-0.620858,0.607727
0.631962,-0.340018,0.585093,0.065052,0.910356,0.408681
0.279093,0.570445,0.866132,0.840554,-0.220159,0.494975
-0.888105,0.172659,0.604058,0.884168,-0.331830,0.328841
-0.305017,0.313605,0.385312,-0.011956,-0.654481,0.755984
0.381526,0.794764,0.003018,-0.547481,0.807703,0.218815
0.306759,0.792106,0.069944,-0.167343,-0.733670,0.658578
-0.081827,-0.321151,0.494600,-0.749103,0.556209,-0.359829
0.246951,0.315150,0.913671,0.051501,-0.997780,0.042234
0.809342,-0.327763,0.499107,-0.039005,0.908038,0.417067
0.242265,0.356764,0.194672,-0.577060,-0.797886,0.174299
-0.049925,0.520601,0.571227,-0.341172,-0.714366,-0.610968
0.045659,-0.657701,0.641584,0.914164,-0.363919,0.178512
0.625984,0.292509,0.575906,0.938483,0.271579,-0.213292
-0.076750,0.537420,0.764581,0.942362,0.183518,0.279775
0.569781,0.897005,-0.022327,-0.695712,0.164391,-0.699257
0.012826,-0.257973,0.731017,0.220644,0.807340,0.547283
-0.015440,-0.281871,0.346991,0.138735,0.765659,0.628107
-0.451577,0.348355,0.680374,0.429276,0.233130,0.872567
0.338811,0.158033,0.765704,0.191862,0.041948,0.980525
0.500030,0.461592,0.058153,-0.612291,0.224763,-0.758011
0.416702,0.413653,0.355242,-0.197740,0.904794,0.377156
-0.378222,-0.676316,0.412030,-0.050665,0.879869,0.472508
0.824842,0.056943,0.847416,-0.362830,0.812545,0.456206
-0.344218,-0.703269,0.415648,0.468790,-0.512161,-0.719672
-0.181136,-0.481897,0.782736,0.663645,0.723775,0.189011
-0.804566,-0.142939,0.612340,0.770403,0.521092,0.367344
0.281466,-0.202487,0.681653,-0.050117,-0.993472,-0.102476
0.547492,0.327296,0.763193,-0.088100,-0.607755,0.789223
-0.092701,0.364671,0.307999,0.264668,0.682482,0.681299
-0.019766,-0.136398,0.866553,0.837634,0.543243,-0.057057
0.370412,0.712289,0.368749,-0.255737,0.254529,0.932638
-0.005347,-0.140028,0.337383,0.042738,-0.754543,0.654857
-0.478883,-0.250857,0.444955,-0.605808,0.766332,-0.213850
-0.400752,-0.132589,0.601984,-0.603823,0.752497,-0.262956
-0.457555,0.374697,0.604105,-0.421800,-0.017648,-0.906517
0.110994,-0.227284,0.356989,0.317602,0.316857,0.893717
0.859387,0.288772,0.666243,0.490435,0.783510,-0.381557
0.297296,-0.090075,0.436299,-0.249821,0.948642,0.194081
0.192430,0.318384,0.886829,0.472343,-0.877111,-0.086999
-0.100571,0.769429,0.571196,-0.278739,-0.943698,0.178154
0.202913,0.485886,0.205372,0.450412,0.607940,0.653864
0.176960,-0.684904,0.715529,0.524003,-0.583699,-0.620256
-0.166056,-0.502776,0.672762,0.351814,-0.755860,0.552180
0.216912,0.824880,0.089425,0.538619,0.545091,-0.642468
0.043677,0.114441,0.260881,0.260985,0.721996,0.640787
-0.410965,0.462060,0.559623,-0.482621,0.351768,-0.802082
-0.354671,0.053384,0.297986,-0.015341,0.354171,0.935055
0.120426,0.472913,0.931982,-0.056948,-0.920766,0.385936
-0.162781,0.756814,0.639588,0.800266,-0.422028,0.425989
-0.128057,0.601819,0.958169,0.601317,0.716528,-0.353560
-0.116372,0.546296,0.956251,-0.628859,-0.369489,0.684115
0.219195,-0.609473,0.256607,0.315989,-0.838198,0.444495
-0.535326,-0.409879,0.654686,-0.671487,-0.740498,-0.027717
0.857885,0.239933,0.624178,0.148977,0.985972,0.075263
-0.112947,-0.661042,0.393438,0.045253,0.941507,0.333940
0.219285,-0.255638,0.515016,-0.041231,-0.121456,0.991740
0.194592,-0.458538,0.305410,0.012193,0.464506,0.885486
0.874227,0.042352,0.597133,0.244189,0.302709,0.921270
0.263622,0.651592,0.354789,-0.283264,-0.054799,0.957475
0.154731,0.473776,-0.319026,0.929256,-0.346949,-0.126928
0.230459,-0.579322,0.584562,0.865247,-0.120247,-0.486712
0.101983,-0.076708,0.818983,0.735433,-0.653881,0.177699
0.256323,-0.032001,0.792266,0.867320,-0.160931,-0.471017
-0.183599,-0.256608,0.777230,0.955840,0.225330,0.188672
-0.142025,0.258405,0.708651,-0.410164,-0.178765,-0.894320
0.007960,-0.638725,0.335481,-0.201773,0.978344,0.046155
0.376299,0.471367,0.923778,-0.450170,0.251815,-0.856701
0.155182,-0.615619,0.561947,-0.193861,-0.305971,0.932094
0.446411,-0.304943,0.764316,0.041072,-0.948552,-0.313947
0.556203,0.855534,0.409300,0.567179,-0.748266,-0.344101
0.596936,-0.156452,0.488127,0.672489,0.739961,-0.014733
0.396575,0.362298,0.867863,0.955100,-0.251414,0.156762
0.475308,-0.086374,0.718664,0.226058,0.754224,0.616477
-0.345119,-0.672722,0.441461,-0.281953,0.703652,-0.652209
0.190508,0.101037,0.734947,-0.410858,0.695840,0.589069
-0.474467,-0.146893,0.737817,0.596533,0.538275,-0.595322
0.098708,0.465797,-0.241587,0.538846,0.753751,0.376171
0.229138,-0.658132,0.698716,0.772304,-0.635164,-0.010627
0.904686,0.224912,0.622619,-0.316993,0.738260,0.595389
-0.127456,-0.477943,0.765470,0.851399,0.512273,0.112683
0.370231,0.064777,0.778260,0.158895,-0.951338,-0.264022
0.410243,-0.364383,0.392003,0.227638,0.616205,0.753971
0.065455,-0.751244,0.119714,0.625913,-0.192451,-0.755775
-0.170441,-0.482435,0.522939,-0.415308,0.502029,0.758608
0.124632,0.041454,0.110418,-0.354675,0.674284,-0.647724
-0.084890,-0.080913,0.850208,-0.320660,-0.126056,0.938769
0.308201,-0.589384,0.638215,-0.665625,0.532206,0.523164
0.065004,0.163531,0.262035,0.230412,0.707689,0.667898
-0.113488,-0.326289,0.504519,-0.744242,0.666208,-0.047653
0.166747,-0.810864,0.595761,-0.037723,0.752959,0.656986
0.667888,0.071785,0.801093,-0.266991,-0.941279,0.206664
0.117843,0.388893,0.003002,0.753852,-0.055051,-0.654734
-0.068099,-0.881552,0.389071,0.608478,-0.258162,0.750404
0.330069,0.550716,0.814366,0.797168,0.399694,0.452514
-0.043347,0.286328,0.182709,-0.085215,0.933150,0.349240
-0.371493,-0.412754,0.760120,-0.664030,0.290226,0.689081
0.647582,0.400895,0.758732,0.413152,0.826079,0.383273
0.684770,0.329452,0.675320,0.859596,0.397928,-0.320542
-0.009612,-0.664098,0.628031,-0.697042,0.590005,0.407463
0.251216,0.751353,0.054456,0.113854,0.824382,-0.554465
0.287925,0.076312,0.168313,0.972180,0.027263,-0.232645
0.096725,0.501807,-0.440603,0.267486,0.929031,0.255643
0.163953,0.434029,-0.186936,0.813946,-0.556494,0.166753
0.238060,0.267569,0.843408,0.853778,-0.520631,0.002555
0.264854,-0.672830,0.578932,0.822624,0.339637,-0.456001
-0.485581,0.277524,0.622619,0.296510,0.653489,0.696444
0.343677,0.349649,0.478706,0.913584,-0.240504,-0.327907
0.408591,0.431226,0.779538,-0.286723,0.697027,0.657223
0.345810,0.545937,0.805788,0.638373,0.597936,0.484718
-0.238300,0.513485,0.749468,0.219725,-0.663331,0.715341
-0.494533,0.807199,0.747300,-0.014526,-0.942348,0.334320
0.260679,0.083931,0.143842,0.906672,-0.254710,0.336256
0.271042,-0.040591,0.869439,-0.687987,-0.466438,0.555976
-0.597387,-0.671537,0.470658,0.951654,0.297038,0.078249
0.037038,0.276733,0.212780,0.717891,0.679435,-0.151663
0.091229,0.520350,-0.025181,0.921126,0.303633,0.243586
0.126975,-0.686306,0.527213,0.868950,-0.473748,0.143138
0.353560,0.395252,0.601033,0.988494,0.082600,-0.126718
0.119195,0.426051,-0.199741,-0.117775,-0.992547,0.031286
0.163232,0.513485,-0.993621,-0.161879,0.594673,-0.787502
0.146741,0.532892,-0.545211,-0.672236,0.602075,0.430819
-0.090958,0.196342,0.847104,0.207863,-0.387873,0.897969
0.286723,0.046233,0.857180,-0.052159,-0.914897,-0.400304
0.324062,0.531598,0.811356,0.638373,0.597936,0.484718
0.109823,0.442833,0.938767,0.077143,-0.597132,0.798425
0.236137,-0.029702,0.768808,0.807526,0.541797,0.233147
-0.398438,0.339982,0.662765,0.413454,0.071347,0.907726
0.263713,-0.348642,0.725698,0.069161,-0.984531,0.160982
-0.134786,-0.674842,0.405682,-0.418299,-0.532770,-0.735651
0.310334,0.323091,0.952882,-0.049871,0.972922,0.225690
-0.859147,-0.402764,0.435581,-0.127351,0.904574,0.406852
0.290478,-0.305841,0.094696,-0.812383,0.303217,-0.498091
0.195704,-0.408441,0.761820,0.707777,0.434977,0.556639
0.321568,-0.614612,0.611389,-0.715707,-0.073063,0.694569
0.760619,-0.318096,0.572599,0.636251,0.625312,0.451850
-0.236168,-0.054858,0.798941,-0.569590,-0.139795,0.809953
-0.404356,-0.783408,0.467555,-0.490477,0.822188,-0.288858
0.705287,0.083536,0.474199,-0.096149,0.457801,0.883840
-0.334905,-0.675849,0.377717,0.175716,0.898333,0.402643
-0.137939,-0.795555,0.350126,0.029668,0.609022,0.792599
0.116942,0.475429,-0.419126,-0.230497,0.951724,0.202713
0.573025,0.342857,0.043866,-0.670784,-0.079312,0.737400
-0.488796,-0.311520,0.399303,-0.518091,0.731103,-0.443926
-0.109944,0.447469,0.689794,0.876515,0.356711,0.323230
0.055932,-0.822651,0.284713,0.844224,-0.535932,-0.007941
0.196545,-0.371175,0.567874,0.781940,0.421249,-0.459476
0.302944,0.050115,0.082000,0.993888,-0.105779,-0.031583
0.254401,-0.033727,0.633801,0.845269,0.272771,0.459474
0.233583,-0.098269,0.838276,0.944518,-0.182210,-0.273285
-0.534846,-0.360502,0.649539,0.645594,0.762673,0.039237
0.223701,0.592008,-0.077290,0.280907,0.850216,-0.445224
0.132563,-0.146928,0.797724,0.970267,0.173371,-0.168894
0.032713,0.498213,0.865992,0.391354,-0.902338,-0.180631
-0.243497,0.426195,0.831102,0.752720,0.127363,0.645904
-0.019255,0.619751,0.222622,0.934165,-0.069649,0.349977
0.244247,0.125007,0.596977,0.975844,0.121729,0.181411
0.089577,-0.593625,0.311789,-0.289916,0.470943,0.833163
-0.072364,0.530161,0.574845,0.584305,0.355324,0.729611
-0.293181,-0.089788,0.704455,-0.328327,0.840380,-0.431233
0.322529,0.104164,0.057498,-0.304279,0.343960,0.888316
0.600211,0.789014,0.198291,-0.415732,0.247523,-0.875157
-0.420277,0.510682,0.601344,0.875552,-0.327712,0.354983
0.108230,-0.247623,0.484399,0.750884,-0.449577,-0.483792
0.596185,-0.372397,0.602389,0.018360,0.959381,0.281515
0.143076,0.421738,0.891243,0.452403,-0.890171,-0.054110
-0.095194,0.594775,0.798411,0.919787,0.228833,0.318790
-0.084020,0.256320,-0.151422,0.404418,-0.913426,-0.045817
-0.037458,-0.685120,0.703956,0.458870,0.272551,0.845668
0.868369,0.240616,0.669581,0.650546,0.608143,-0.454920
0.159027,-0.736618,0.194048,-0.641652,0.687785,0.339463
-0.188916,-0.416564,0.764254,-0.187429,-0.954527,0.231838
0.178852,-0.561641,0.295927,-0.157169,-0.686084,0.710343
-0.143767,-0.359172,0.643643,0.904655,-0.425328,0.026365
-0.080324,0.375919,0.676896,0.773128,0.350189,0.528810
0.127425,0.393959,-0.029735,-0.513764,-0.812147,-0.276523
0.353710,0.340557,0.617799,-0.688242,0.697833,-0.198372
0.754761,0.021437,0.808393,0.464744,-0.812260,-0.352487
-0.443317,-0.140747,0.749530,0.130058,-0.991447,0.010892
0.561940,0.400141,0.474651,0.820569,0.039730,-0.570165
0.172093,-0.427560,0.312116,0.465453,0.865942,-0.183027
-0.021869,-0.304512,0.396261,0.144728,0.077144,0.986460
0.106068,0.912746,0.099375,-0.052596,-0.811159,0.582455
-0.909402,-0.305662,0.412092,-0.164099,0.309381,0.936672
0.934485,0.069916,0.778556,0.948449,-0.269803,-0.166283
-0.064404,-0.675382,0.710725,-0.527331,-0.313691,-0.789633
0.020246,0.578136,0.197339,0.721903,0.549134,0.421078
-0.466056,0.502525,0.739860,0.214169,0.926836,0.308394
0.342595,-0.329703,0.408240,-0.596806,0.492155,-0.633724
0.055602,0.547985,0.192239,0.627236,0.657025,-0.418203
0.029168,0.531885,-1.000000,0.423309,0.653408,-0.627589
0.294353,0.860529,0.188932,0.770591,0.629725,-0.098167
-0.440162,-0.190700,0.792733,-0.140617,-0.984308,0.106609
0.472754,-0.079295,0.427424,0.912464,0.233776,-0.335795
-0.871884,0.124396,0.595028,0.981759,-0.087934,-0.168572
0.082938,0.533539,-0.002659,0.886192,0.107542,0.450665
0.102373,0.545685,-0.586512,-0.114763,0.992842,-0.033087
-0.189276,-0.801305,0.377327,0.415319,0.379941,0.826532
0.174076,0.578064,-0.738191,0.625440,-0.780125,-0.015150
0.198618,0.327871,0.622275,0.982447,0.122719,0.140490
0.206518,0.884715,0.097800,-0.373967,-0.147786,0.915592
0.048093,0.574830,0.383815,0.862982,-0.389214,-0.322142
-0.029619,0.033403,0.789318,-0.479011,-0.627568,-0.613765
0.495524,0.709126,-0.004905,0.882255,0.395220,0.255787
0.241664,0.189191,0.921361,0.640346,0.194966,0.742930
-0.296696,0.024886,0.458212,-0.879886,0.137878,-0.454742
-0.074226,-0.567283,0.625613,0.575050,0.692596,-0.435463
-0.480084,0.390438,0.671109,0.368856,0.483755,0.793679
0.008321,0.571847,0.119090,0.540895,-0.789926,0.288876
-0.892851,0.132230,0.570260,-0.154275,-0.951093,-0.267621
-0.155452,0.347816,0.917477,0.856986,-0.345597,0.382280
-0.363983,0.499938,0.700306,0.801341,0.588181,0.109072
0.045869,-0.663666,0.315220,0.294330,-0.556774,0.776770
0.502704,0.853916,-0.056687,-0.628374,0.271855,-0.728862
-0.138991,0.017914,0.125796,-0.014156,0.398880,0.916894
-0.000060,0.288448,0.151718,0.968090,-0.028130,0.249018
-0.027996,-0.334339,0.501150,-0.097740,-0.030888,0.994733
0.065455,0.234687,0.124798,-0.007742,0.769028,0.639168
0.163863,0.553304,-0.405323,-0.068193,0.735630,0.673942
0.475278,-0.009182,0.393111,0.704418,-0.647671,-0.290375
0.264794,0.429213,0.820605,0.851447,-0.187055,0.489947
0.227816,-0.502416,0.569340,-0.743900,-0.195804,0.638962
0.130309,-0.205254,0.756892,0.948380,0.303549,0.091831
0.776840,0.094316,0.481311,0.274887,0.130197,0.952621
0.096335,-0.620649,0.266886,0.128584,-0.377257,0.917139
-0.406879,0.510431,0.588883,-0.766843,0.497522,-0.405493
-0.096185,-0.512335,0.767716,0.993455,0.089324,0.071193
0.067498,0.503531,0.896094,-0.151185,-0.915399,0.373079
0.186392,-0.380160,0.698560,0.537247,-0.817336,-0.208153
-0.025683,0.671608,0.495114,-0.162180,-0.881765,0.442931
0.041994,0.284029,0.887609,0.924527,0.231013,0.303122
-0.268519,-0.625716,0.554117,0.385479,0.868311,0.312157
0.007840,-0.061219,0.677098,0.121063,0.806233,0.579078
0.445809,-0.311520,0.781051,-0.264088,-0.778800,0.568971
-0.148723,0.367078,0.934961,0.736080,-0.495148,0.461535
0.241424,-0.156595,0.537943,-0.606444,0.679105,-0.413571
0.339621,0.608683,-0.010785,0.049396,0.880619,0.471243
0.093572,0.014501,0.366113,0.873626,-0.278566,-0.398973
0.483718,0.744345,0.496877,-0.724153,0.546340,-0.420851
0.557465,0.413509,0.607708,-0.248132,-0.505726,0.826240
0.336468,-0.615043,0.633692,0.715842,-0.489903,-0.497560
-0.141394,-0.431118,0.630199,-0.173715,0.645262,-0.743949
-0.406999,0.822580,0.837715,0.632406,0.331196,0.700265
-0.175789,-0.267784,0.762803,0.881766,0.342141,-0.324697
-0.185491,0.559413,0.925650,0.839234,0.410653,0.356442
0.405647,0.793506,0.348317,-0.513980,0.145928,-0.845299
-0.245059,0.263292,0.382365,0.071119,0.243471,0.967297
-0.639081,0.339120,0.698419,0.673486,0.171187,0.719105
0.011355,0.597111,0.834377,0.632882,-0.690847,0.349557
-0.125263,0.252511,0.867427,0.795490,0.502038,0.339341
0.184890,-0.050186,0.679781,0.938229,-0.122857,0.323468
0.453770,0.735541,0.032169,-0.757849,0.197068,0.621956
0.142986,0.084721,0.917571,0.009290,-0.994187,0.107269
-0.033464,-0.290856,0.397603,0.497921,-0.300700,-0.813422
-0.236408,-0.367618,0.754802,0.158409,0.638887,0.752815
0.247431,0.804072,0.285149,-0.415031,-0.261234,0.871497
0.124061,-0.515247,0.321802,-0.078988,-0.797217,0.598504
0.735146,0.018238,0.457557,-0.592632,-0.618992,-0.515400
0.905076,0.052019,0.717947,0.814002,0.559063,0.157638
-0.197026,0.228505,0.853967,0.014457,-0.306785,0.951669
0.014178,0.667404,0.221358,0.907942,0.294746,0.297937
0.023220,0.665643,0.832381,0.346495,0.476574,-0.807972
0.296966,-0.378218,0.731921,0.704631,-0.708777,-0.033614
0.620336,-0.048210,0.846917,0.992741,0.119500,0.013579
-0.165936,-0.481537,0.592205,-0.404996,-0.661575,0.631108
0.364284,0.519415,0.947563,-0.144542,0.989492,-0.003628
0.690507,0.277846,0.790534,0.612888,0.601031,0.512962
-0.153109,0.254560,0.893006,-0.178470,-0.828847,0.530246
0.241754,0.244498,0.758732,0.708710,0.670915,-0.218180
0.308861,-0.050581,0.869548,0.762224,0.121938,0.635725
-0.233343,-0.530376,0.525715,0.012166,0.344151,0.938835
0.706519,0.232063,0.610937,0.846710,0.218496,-0.485121
0.754972,-0.056367,0.490700,-0.690782,-0.705077,-0.160271
-0.324902,-0.636354,0.451225,-0.483112,0.490542,-0.725239
0.018985,-0.628124,0.596650,0.409739,-0.264361,-0.873056
0.252148,0.284136,0.859847,0.806245,-0.582869,0.101161
0.816792,-0.068369,0.746317,0.394195,0.073136,-0.916112
0.200631,-0.268324,0.359765,-0.342716,-0.199098,-0.918099
0.083298,-0.345336,0.503474,0.994469,0.068499,-0.079616
0.669060,0.324996,0.772957,0.481892,0.650175,0.587412
-0.252388,0.378327,0.844187,0.969993,-0.031097,0.241137
-0.145780,-0.488438,0.737365,-0.751209,-0.523094,0.402564
0.790718,0.121773,0.786853,0.875814,0.476836,-0.074684
0.491740,0.711750,0.560995,0.138895,0.967456,0.211513
-0.436678,0.761235,0.661158,0.513539,0.249381,0.821028
-0.496455,-0.011877,0.706920,0.956827,-0.058664,0.284675
0.704776,0.718614,0.536212,0.077853,0.452627,0.888295
0.014509,-0.146677,0.459663,0.199094,0.902739,0.381344
-0.616702,0.444774,0.527883,-0.240461,0.899852,-0.363929
-0.270232,-0.742511,0.403015,0.206945,0.093697,0.973855
0.552658,0.177080,0.166957,-0.394033,0.859774,0.324849
0.046921,0.560096,-0.297143,0.274734,0.015535,0.961395
-0.335086,0.810433,0.831008,0.143664,0.541746,0.828174
-0.113968,-0.550141,0.586216,-0.279825,0.149704,0.948307
0.098017,0.584965,-0.869829,0.837444,0.529415,-0.135673
0.089877,-0.034554,0.221046,-0.637208,0.353207,-0.684990
-0.104926,0.543672,0.836311,0.284911,0.658328,0.696728
-0.407750,-0.007313,0.315267,0.216794,0.159511,0.963097
-0.079033,-0.103624,0.793139,0.393119,0.880827,-0.263820
0.377560,0.721704,0.372180,0.312092,-0.245188,-0.917868
-0.209823,-0.580544,0.655372,-0.452445,-0.153170,-0.878540
-0.088375,-0.457962,0.664091,-0.374221,0.137230,0.917129
0.178402,-0.760623,0.244925,-0.498584,0.817871,-0.287229
0.032803,-0.061686,0.362635,-0.264091,0.808203,0.526368
-0.850826,0.080122,0.622104,0.838054,0.317391,0.443766
0.006278,0.271450,0.083108,0.965027,-0.036411,-0.259609
0.451938,0.314934,0.813524,-0.512758,0.816883,0.264162
-0.047942,-0.001491,0.847510,-0.635991,0.705328,0.313094
0.264464,-0.289957,0.568544,-0.560890,0.390895,0.729797
-0.689036,-0.153756,0.572319,-0.879657,0.250851,0.404076
-0.486843,0.506694,0.887001,0.449135,-0.864920,0.224035
0.005017,-0.638438,0.730830,0.941707,0.243377,-0.232284
0.511025,0.658851,0.178919,-0.346375,0.511574,-0.786331
-0.662151,-0.128601,0.706764,0.837780,-0.125678,0.531347
0.222109,0.162274,0.127840,-0.291600,-0.881066,-0.372414
-0.509613,0.172264,0.687689,0.553946,0.829436,-0.071971
0.609853,-0.278099,0.533826,0.518055,0.721820,0.458906
-0.599069,-0.427812,0.484961,-0.307183,-0.607107,0.732843
0.464824,0.608539,0.357300,-0.401351,-0.244943,0.882564
0.417092,-0.065064,0.371306,0.326366,-0.869068,-0.371761
-0.491500,0.510180,0.842815,-0.342964,0.890488,-0.299011
-0.014630,-0.246618,0.749967,0.763103,0.223083,0.606554
0.289276,0.112572,0.095679,0.946992,0.204982,-0.247364
0.675097,0.218767,0.539721,0.743651,0.621717,0.245868
0.256293,0.816794,0.098876,-0.236022,-0.710290,0.663161
-0.096456,-0.718327,0.396495,-0.421296,-0.358425,0.833092
0.629709,0.181536,0.158519,0.964896,-0.097953,0.243682
-0.320067,0.531454,0.793373,-0.501906,-0.722197,0.475943
-0.156534,0.017125,0.144279,0.047394,0.386610,0.921025
-0.467799,0.492067,0.809360,0.897436,-0.237739,0.371603
-0.104506,0.548704,0.942931,0.005378,-0.984753,0.173878
-0.639232,-0.415377,0.431120,0.127161,0.052339,0.990500
-0.567498,-0.403015,0.674338,0.373585,0.910302,-0.178281
-0.704356,-0.110200,0.616239,-0.077423,-0.688403,0.721185
0.060769,0.583634,0.053318,0.328397,0.908268,-0.259237
-0.368128,-0.675669,0.375330,0.095974,0.850034,0.517911
-0.255122,0.506694,0.828341,-0.121613,0.100316,0.987495
0.201442,0.172480,0.694676,0.774640,-0.632171,0.017122
0.074346,0.148869,0.798894,0.491811,0.802752,-0.337210
0.289306,0.078181,0.840694,0.295168,0.887853,0.352977
0.326374,-0.144017,0.678471,0.840907,-0.341801,0.419580
-0.031932,-0.640127,0.333765,-0.335283,0.930494,-0.147531
-0.154161,-0.363017,0.717791,0.957641,-0.184551,0.221055
0.220547,0.012344,0.609346,0.994969,0.024254,0.097201
-0.327366,0.356585,0.417317,-0.096398,-0.663915,0.741569
-0.254581,0.061686,0.806459,-0.661798,-0.285600,0.693149
-0.086062,-0.492031,0.665993,-0.184727,-0.087640,0.978874
-0.575759,-0.554022,0.366471,0.142446,0.989487,0.025012
0.452839,0.186926,0.122739,-0.476752,0.760975,0.440027
0.450225,0.811583,0.345307,-0.889632,-0.004630,0.456655
0.163803,0.179128,0.864058,-0.531315,0.221641,-0.817667
-0.293031,-0.066573,0.407741,0.002668,0.130952,0.991385
0.154070,-0.216035,0.797490,0.985056,-0.001801,-0.172224
0.877320,0.277200,0.668754,0.530402,0.755335,-0.384893
0.496366,0.810002,0.382973,0.271557,-0.889682,-0.367046
0.068159,0.476650,0.822633,0.680966,0.684191,-0.261089
0.751637,-0.367365,0.519430,0.869368,0.294938,0.396498
-0.157435,0.106535,0.368203,-0.575437,-0.176464,0.798582
0.483809,-0.375344,0.468943,0.910118,-0.406513,0.080199
0.576630,0.336532,0.249573,0.746071,-0.461277,-0.480210
0.378703,0.131691,0.429966,0.065693,0.802553,0.592953
-0.048904,-0.282626,0.493321,0.202491,-0.161202,0.965925
-0.133163,0.536953,0.431619,-0.530897,-0.771429,-0.350779
-0.308591,0.427632,0.687673,0.516641,0.839753,0.167026
-0.696876,-0.045011,0.733465,0.932997,-0.199402,-0.299592
0.502043,0.435574,0.822945,0.520928,0.792412,-0.317360
-0.255993,0.378327,0.844998,0.995269,-0.094898,-0.020821
-0.006518,-0.653963,0.600565,-0.502842,-0.826544,-0.252931
-0.513458,0.104702,0.669783,0.885789,0.459466,-0.065339
0.091259,-0.225882,0.474745,0.841975,-0.330294,-0.426596
0.081616,0.534940,-0.341797,-0.690900,0.713339,-0.117493
0.214780,0.297145,0.772676,0.492296,0.752759,-0.437033
0.258816,-0.635240,0.363570,-0.289004,-0.922391,-0.256264
-0.244699,0.701616,0.687252,-0.584267,0.805931,0.095434
-0.377051,-0.041417,0.540096,-0.632018,-0.694001,-0.344841
0.131241,-0.196126,0.761930,0.971887,0.231494,0.042969
-0.102764,0.322193,0.903362,0.382727,-0.498394,0.777897
-0.639892,-0.211902,0.349830,-0.243272,0.035251,-0.969317
-0.091829,0.239897,0.831991,-0.471698,-0.317593,0.822578
-0.479844,-0.743231,0.502039,0.734258,-0.655103,0.178059
-0.375999,0.697771,0.708510,-0.349020,-0.828371,0.438162
0.253980,0.357088,0.131801,0.741237,0.013784,-0.671102
0.811264,0.218694,0.721113,0.486032,-0.859802,0.156571
-0.034545,0.572674,0.676256,0.804343,0.079645,0.588803
0.069450,-0.106211,0.446187,-0.560755,0.395666,0.727325
0.190447,0.377536,0.116922,0.858087,0.037488,-0.512134
0.141243,0.406178,0.061803,0.366389,-0.917852,-0.152664
-0.182066,0.478447,0.731734,0.536104,0.374809,0.756380
0.370382,-0.560419,0.349549,0.977794,-0.095301,0.186646
-0.019585,0.394678,-0.216554,0.003602,-0.567477,0.823381
0.299639,0.771154,0.369747,-0.323935,0.124414,0.937863
-0.737699,0.008859,0.518510,0.587157,0.392824,0.707768
0.228748,0.236628,0.721830,0.833769,0.458755,-0.307203
0.046771,0.681348,-0.978617,-0.497494,0.152031,0.854041
0.122319,0.458071,-0.066622,-0.745209,0.496975,-0.444612
-0.038571,-0.467666,0.252895,0.792903,0.011242,-0.609244
-0.041724,-0.626650,0.372757,0.927206,0.238326,0.288948
-0.295254,0.857043,0.856540,0.992390,0.098288,-0.074175
-0.361761,0.504321,0.708339,0.853718,0.505614,-0.124578
-0.076480,0.561139,0.707731,0.752816,0.645996,-0.126322
-0.408561,-0.549782,0.346429,-0.626299,-0.312893,-0.714036
0.142805,-0.643290,0.700135,0.924880,0.188570,-0.330209
0.209522,0.598045,-0.068135,0.355910,0.841405,-0.406652
0.093662,-0.692774,0.113319,0.941611,-0.311924,0.126778
0.654160,0.464791,0.649695,-0.448509,-0.827974,-0.336598
0.003754,0.528400,0.486146,0.871800,0.378691,0.310738
-0.651577,-0.498356,0.462720,0.962454,0.163063,-0.217007
-0.274677,0.105853,0.715155,-0.658152,-0.173198,-0.732693
-0.546261,-0.605160,0.501696,-0.242957,0.628556,0.738843
-0.271703,0.166621,0.025852,0.371925,-0.690815,-0.620038
0.924121,0.202667,0.707044,0.214071,0.902066,0.374767
0.230760,0.850143,0.096100,0.475746,0.335060,-0.813265
-0.490568,-0.775825,0.554803,0.966058,0.254996,0.041348
-0.252178,0.025318,0.403764,0.920282,-0.255965,0.295910
-0.273296,0.053313,0.732498,0.186174,0.943589,0.273823
0.817302,0.043718,0.844343,-0.678269,0.727515,0.103315
-0.052388,0.628448,0.688812,0.874526,0.049069,0.482491
0.010874,0.352596,0.116345,0.879721,0.375610,0.291561
-0.293482,-0.303183,0.258292,0.007958,0.659953,0.751265
0.221328,-0.402440,0.716044,-0.166461,0.728271,0.664765
-0.187804,0.613534,0.837808,0.737031,-0.669872,-0.089761
0.119856,-0.068585,0.780240,0.043776,0.963295,-0.264852
-0.240673,0.742547,0.588477,-0.437992,-0.890284,-0.124728
0.046740,-0.652454,0.701804,0.919986,0.381302,-0.090749
-0.544939,-0.133631,0.653719,0.267808,-0.960269,0.078499
0.393332,0.127990,0.579977,0.869749,0.483626,-0.098195
0.531541,-0.339909,0.729098,0.145820,-0.980177,-0.134127
0.268278,-0.113866,0.833816,0.873953,-0.485942,0.008169
-0.237549,0.508275,0.489718,0.376980,-0.579274,0.722722
0.655932,0.293551,0.785013,-0.446975,-0.682224,-0.578605
0.619946,-0.014752,0.783999,-0.400807,0.789327,-0.465099
0.030760,0.504250,-0.204904,0.137081,-0.394548,0.908593
0.642595,0.774639,0.504738,0.536868,0.753499,-0.379488
0.386272,0.534940,0.742527,0.684967,0.522934,0.507307
-0.001142,0.440533,0.887453,0.590431,-0.727679,0.349106
0.332652,0.476219,0.914436,0.857591,0.506588,0.088920
0.518714,-0.148222,0.623305,-0.553534,0.399997,-0.730481
-0.060319,-0.636642,0.715139,0.631454,-0.097223,-0.769294
0.361220,0.135429,0.555786,0.871651,0.481590,-0.091077
-0.057375,0.577382,0.365146,0.370864,-0.886114,-0.277960
0.006098,0.386664,-0.248388,-0.355207,-0.267244,0.895773
0.129228,-0.686522,0.695300,0.737758,-0.635412,-0.227957
-0.904146,-0.235045,0.481311,-0.087321,-0.936282,0.340221
-0.170171,0.357950,0.780661,0.482122,-0.257180,0.837506
0.661760,-0.015651,0.309980,-0.550300,-0.790441,-0.269023
0.531000,-0.237921,0.700774,0.855895,-0.070376,-0.512339
-0.783268,-0.032685,0.588446,-0.643182,0.499668,0.580215
0.056263,-0.271342,0.742683,-0.245892,-0.777392,-0.578963
0.019015,0.272600,0.853514,0.554495,-0.831665,0.029492
0.080985,-0.086877,0.815879,0.386960,-0.919123,-0.073993
-0.721868,-0.670997,0.473466,0.970298,-0.105282,0.217802
0.470472,-0.001167,0.462080,0.809644,0.512772,-0.285554
0.875037,0.299732,0.596260,0.153132,-0.956193,-0.249490
-0.194473,0.190412,0.759341,0.931310,0.319755,0.174411
-0.019105,0.350835,0.031186,-0.395888,0.826643,-0.399918
-0.306158,0.835480,0.916432,0.019411,0.985913,0.166127
0.467558,0.241622,0.237298,0.269066,-0.379590,-0.885164
0.682157,0.143083,0.448792,0.299227,-0.031574,-0.953659
-0.118023,0.280758,0.732202,-0.551932,0.833871,-0.005523
-0.178311,0.631502,0.775374,-0.605900,-0.756270,0.246864
-0.232803,0.441684,0.833862,-0.657076,-0.058964,-0.751515
-0.057945,0.545039,0.704596,0.861225,0.449145,0.237825
0.015470,0.663523,-0.989020,0.510414,0.061154,-0.857752
0.277470,0.725657,0.063893,-0.208125,0.254470,0.944420
0.229588,0.243851,0.569106,0.876086,0.463083,0.134267
0.511415,0.259160,0.726416,0.917274,0.299012,0.263060
0.233313,0.038758,0.633926,0.969248,0.057304,0.239322
0.252207,0.398990,0.214714,0.922035,0.327992,-0.205603
0.876419,-0.057661,0.626986,0.397428,0.779676,0.483897
0.060198,0.591325,-0.956812,0.782127,0.267058,-0.562990
0.407780,0.315221,0.696142,-0.342832,0.878348,0.333124
0.485912,0.379585,0.809578,0.848333,-0.474270,-0.235372
-0.221628,0.863189,0.708510,-0.653539,0.529864,-0.540492
-0.455062,-0.191058,0.669472,0.475700,0.771816,0.421912
0.929709,0.074192,0.702412,0.797322,0.602358,-0.037980
-0.420967,0.435214,0.595589,0.864799,-0.294356,0.406789
0.152208,-0.775934,0.706109,0.457058,0.689647,-0.561681
0.029919,0.319102,0.141612,0.778750,0.356375,0.516280
0.405227,0.411676,0.941605,0.881258,-0.317094,-0.350479
-0.169390,-0.329992,0.773674,0.980565,0.013340,0.195739
-0.563022,-0.138554,0.656885,0.299407,-0.926128,0.229440
-0.209222,0.488114,0.209988,-0.309329,0.060847,-0.949006
-0.109553,0.375739,0.813415,0.378888,0.914734,-0.140380
-0.660108,-0.102834,0.696049,0.465677,-0.408635,0.784960
-0.546801,0.362982,0.719522,-0.580806,0.805325,-0.118808
0.202854,0.607138,-0.060758,-0.475659,-0.793662,0.379273
0.214989,-0.447145,0.102744,-0.534282,0.564177,0.629482
0.579153,0.238460,0.181181,0.938653,0.153399,0.308867
0.221928,0.232890,0.539503,0.763192,0.634676,0.121342
0.083508,-0.161159,0.453065,-0.721564,0.353400,0.595359
-0.332682,-0.315688,0.256015,0.004838,0.668979,0.743266
-0.792039,-0.293084,0.545601,0.787896,0.555731,-0.265298
-0.027756,-0.428710,0.304817,0.590757,0.309012,-0.745330
0.284410,0.045694,0.911114,-0.224981,-0.874662,-0.429360
0.545299,-0.169101,0.286194,-0.624381,0.437966,-0.646788
-0.445029,-0.072754,0.324843,0.241995,0.139091,0.960256
0.296456,0.854205,0.161092,-0.714057,-0.651298,0.256775
-0.003845,-0.200259,0.476850,-0.898328,0.429514,-0.092331
-0.663142,-0.637324,0.410782,0.811935,-0.565057,-0.146536
-0.012406,0.099240,0.790020,0.825576,-0.161343,-0.540733
0.186362,-0.410023,0.835328,0.488179,-0.652456,0.579640
0.486152,0.661222,-0.028831,0.894830,0.351113,0.275677
0.582938,0.372146,0.790643,0.944906,0.225860,-0.236940
-0.503004,0.483658,0.882384,0.492039,-0.828992,0.265838
-0.872695,-0.076743,0.573769,0.590369,-0.538207,0.601496
-0.362392,-0.318312,0.624007,0.738695,-0.320730,-0.592842
0.101743,-0.801412,0.589818,0.622602,0.590729,0.513231
-0.354160,-0.005947,0.783141,-0.662928,0.726997,0.178891
0.465786,0.410383,0.379947,-0.620461,0.323833,0.714255
0.552628,-0.088207,0.320055,0.820588,0.209071,-0.531907
0.328207,0.849496,0.235926,0.665962,0.736526,0.118427
0.345780,0.346451,0.821666,-0.459260,0.796592,-0.393093
0.095645,-0.142652,0.349331,0.251101,0.017286,0.967807
0.593452,0.223474,0.152358,0.954628,-0.002393,0.297791
0.442415,0.756743,0.445766,0.516911,0.475903,0.711561
0.536918,-0.308213,0.724154,0.827836,-0.219342,-0.516311
-0.174678,-0.674447,0.426519,0.258143,0.252053,0.932648
0.113307,-0.207805,0.479143,-0.092501,0.780459,0.618326
-0.349986,0.401002,0.561947,-0.410124,-0.242838,-0.879106
0.591529,0.657953,0.626206,0.806157,0.576571,-0.132955
-0.658787,-0.084649,0.684928,0.883992,0.398373,0.244657
-0.510454,0.514636,0.886767,-0.409470,0.898770,-0.156677
0.846741,0.051120,0.728365,0.805004,-0.189653,0.562140
0.028417,-0.244389,0.250946,-0.107109,-0.022790,0.993986
-0.221328,0.233860,0.862623,-0.219547,-0.673281,0.706039
0.024602,0.568505,0.799534,0.993610,0.112767,-0.004787
-0.231721,0.400535,0.674151,0.393661,0.785379,0.477714
0.305227,-0.499326,0.616052,-0.493054,-0.725863,0.479605
-0.057134,-0.735648,0.732358,0.228414,-0.949986,-0.212962
0.175398,0.389898,-0.096724,-0.219557,0.897099,0.383416
0.056143,0.623669,-0.967559,-0.555217,-0.011231,0.831630
0.046530,0.542451,-0.304334,-0.460168,-0.887301,-0.030687
0.303634,0.888596,0.202923,-0.509252,-0.860219,-0.026187
-0.517483,0.237346,0.403592,0.245247,-0.225178,0.942947
0.037338,0.521248,0.038563,-0.195807,-0.940858,0.276488
0.166116,0.514995,-0.439558,0.694999,-0.716552,-0.059407
0.719586,-0.070094,0.681996,-0.109583,-0.778673,-0.617787
0.285010,0.977288,0.300076,0.584951,0.057781,-0.809008
-0.166566,0.254847,0.793903,-0.380848,-0.188869,-0.905143
-0.453259,0.507951,0.654499,-0.099566,-0.994812,-0.020853
-0.281496,0.859990,0.939079,-0.473823,0.828348,0.298885
0.025112,0.585719,0.357378,-0.651234,0.605085,0.458003
0.579123,0.366216,0.474729,0.860664,-0.153285,-0.485553
-0.019946,-0.089141,0.693366,0.284392,0.785746,0.549294
0.359087,0.700538,0.116703,0.373421,0.908415,-0.187985
0.163412,0.891543,0.100171,-0.230591,-0.233087,0.944721
-0.082277,0.555496,0.948484,-0.534414,0.844469,0.035687
0.185461,-0.368049,0.676007,0.979150,-0.183797,-0.086512
-0.533284,0.143083,0.684741,-0.686492,-0.710002,0.156924
-0.416431,-0.663630,0.384096,-0.137217,-0.856949,-0.496800
0.142175,0.425188,-0.239357,0.237779,0.909877,0.339978
0.628477,0.783444,0.198930,-0.415732,0.247523,-0.875157
-0.563473,-0.587875,0.326715,-0.085099,0.914678,0.395124
-0.082247,0.385946,0.825814,0.443570,-0.894673,0.052966
-0.159327,0.406753,0.892226,0.999728,-0.003160,0.023096
-0.606219,0.289706,0.632164,0.985077,0.029438,-0.169576
0.023039,-0.499686,0.289298,0.458965,0.446911,-0.767868
0.552719,-0.070094,0.342593,0.025269,0.551309,0.833919
0.544909,0.532640,0.650662,-0.205351,-0.863524,-0.460606
0.141724,0.542559,0.840647,-0.379450,0.203850,0.902476
0.003455,0.589061,0.086492,0.008622,-0.996774,0.079797
0.304987,-0.049108,0.136870,0.966621,0.205963,0.152390
0.024692,0.634378,0.348535,-0.428903,0.813301,0.393172
0.554310,-0.120658,0.512084,0.946178,0.313597,-0.080031
0.371102,-0.072539,0.674260,-0.517839,0.266629,-0.812866
0.124872,0.428998,-0.221889,0.400931,0.910583,0.100467
-0.710694,0.194365,0.438841,-0.168278,0.939073,0.299707
0.249324,-0.456382,0.116126,-0.597768,0.555719,0.577798
-0.939141,0.165149,0.520896,-0.322840,0.871750,-0.368547
0.459267,0.030241,0.607490,0.658307,0.674004,0.335188
0.035146,0.480531,0.935148,0.282805,-0.897738,0.337770
0.100210,0.502345,-0.257995,0.958981,-0.185844,-0.214051
0.096365,0.629777,-0.559061,0.377566,-0.914939,-0.142586
0.118444,0.618889,-0.521691,-0.156358,0.941911,0.297249
-0.010393,-0.717571,0.677364,0.637627,0.762545,-0.109345
0.146350,-0.674124,0.293275,0.741666,0.658052,0.129996
0.042175,-0.073581,0.784997,-0.060823,0.988429,0.138955
0.233463,0.532208,-0.156975,0.178676,-0.904812,0.386509
-0.091139,-0.553878,0.603419,0.912007,0.140383,-0.385403
-0.430220,-0.184590,0.730502,-0.325831,0.873229,-0.362360
0.590688,0.882414,0.388525,0.466077,-0.871285,-0.153736
-0.135386,-0.044292,0.686410,0.346174,0.534335,0.771135
0.064794,0.087704,0.753414,0.581866,0.185736,0.791791
-0.143256,-0.332291,0.678315,0.847445,-0.496033,0.189178
-0.546411,-0.611270,0.505252,-0.251146,0.664186,0.704118
0.458125,-0.116237,0.753710,-0.385286,0.868524,-0.311801
0.032472,-0.319426,0.296395,0.420117,0.135042,-0.897366
0.258816,0.263292,0.305846,0.325378,0.832931,0.447610
0.267918,-0.510933,0.599332,0.748928,0.189335,-0.635027
-0.634545,-0.617199,0.438700,0.024341,-0.994652,0.100373
0.763442,-0.374733,0.487472,-0.098033,0.818432,0.566179
0.369420,0.551076,0.946378,0.036697,-0.982152,-0.184476
0.093812,0.629203,-0.701040,-0.733943,0.660729,-0.157367
0.205617,0.372073,-0.071831,0.117960,0.912137,0.392545
0.244308,-0.559018,0.561931,0.837383,-0.222545,-0.499262
-0.022589,-0.096940,0.735509,0.399061,0.739274,0.542424
0.441184,0.051336,0.622868,0.658307,0.674004,0.335188
-0.788225,-0.481214,0.436002,0.810603,0.584078,-0.042137
0.284620,-0.045298,0.835422,0.872314,-0.482752,-0.077582
-0.037399,0.515139,0.571165,-0.341172,-0.714366,-0.610968
-0.554971,0.207734,0.699339,-0.335485,-0.909361,0.245992
0.761130,0.032038,0.644345,0.388871,0.653633,0.649264
0.176749,-0.503818,0.329335,0.230426,-0.590217,-0.773659
0.442746,0.311592,0.810171,-0.371890,0.777960,0.506435
-0.365605,-0.287981,0.677348,0.234674,0.664830,0.709176
0.907750,0.048102,0.747970,0.882195,0.465068,-0.073779
-0.009943,0.484736,0.974140,0.451017,0.876702,0.167263
0.179483,0.467666,-0.172025,0.874211,-0.398156,0.277897
-0.473806,0.512156,0.655310,0.358967,-0.911316,0.201607
0.246020,0.156811,0.869454,0.979520,-0.199183,-0.029437
0.606728,-0.182937,0.370261,-0.569518,-0.146336,-0.808848
0.776119,0.076815,0.653048,0.532240,-0.198355,-0.823029
-0.376510,0.477045,0.583049,0.700083,-0.144032,0.699384
0.318594,-0.232602,0.671328,0.782509,-0.098143,0.614855
-0.130610,0.274792,0.233228,-0.787533,-0.210120,-0.579345
-0.212496,-0.021652,0.734354,0.862389,0.405102,-0.303607
0.010483,-0.111314,0.237376,-0.588220,-0.147979,-0.795047
0.090808,-0.713870,0.123270,0.953918,-0.294833,-0.055809
-0.102373,0.711103,0.530519,0.319262,-0.844986,0.429034
0.055332,-0.050546,0.324984,0.912783,0.405677,0.047480
-0.559688,-0.482903,0.477194,-0.515831,-0.403248,-0.755850
0.671222,0.708012,0.423494,0.210955,0.905121,-0.369127
-0.182277,0.843926,0.672061,-0.708120,0.386327,-0.591031
0.268129,-0.097623,0.780225,0.776021,0.594306,0.211168
0.156113,-0.637072,0.555459,0.413964,0.543606,-0.730155
-0.344038,0.055325,0.301074,-0.837155,0.546729,-0.016069
-0.502103,0.481753,0.661330,-0.208642,0.055569,-0.976412
0.227216,0.215029,0.827187,0.983973,0.055061,-0.169602
0.452448,-0.307028,0.768917,0.202119,-0.975706,0.084537
-0.195645,0.593086,0.783625,0.512372,-0.672107,-0.534554
-0.007600,0.623669,0.206900,-0.179989,-0.904850,0.385811
-0.865756,0.201876,0.591940,0.903086,-0.428929,0.021348
-0.261460,-0.538318,0.529147,0.252320,0.371631,0.893434
0.810423,-0.197204,0.666071,-0.590964,-0.197911,-0.782044
0.250676,0.463461,0.160733,-0.459142,0.869056,-0.184200
-0.575368,-0.128457,0.715108,0.362316,0.808218,-0.464231
-0.007901,-0.676029,0.694458,0.771466,-0.147146,0.619022
0.682878,-0.204858,0.588789,0.636301,0.769897,0.048784
-0.638120,0.222396,0.419236,0.016319,0.921297,0.388517
0.465786,0.708372,0.558297,0.633550,-0.771415,-0.059448
-0.044008,-0.006846,0.645702,0.395557,0.711971,0.580201
-0.474558,0.512480,0.679797,0.032650,0.987593,-0.153606
-0.157525,-0.402009,0.741342,-0.762910,-0.264374,-0.589979
0.389547,-0.027222,0.353152,-0.384239,0.923233,0.001117
0.049474,0.497206,0.777776,0.984912,-0.058442,-0.162892
-0.078943,0.485922,0.629544,-0.398768,0.851923,0.339429
0.025834,-0.337825,0.658148,-0.671242,-0.639931,0.374063
-0.332442,0.669417,0.715108,0.267966,-0.678804,0.683681
-0.734666,0.398164,0.567406,0.888473,-0.453035,-0.073307
0.176209,0.282627,0.486567,-0.526458,0.560226,-0.639522
0.255302,0.284496,0.829292,0.817853,-0.572988,-0.052914
0.193001,0.127774,0.461768,-0.525898,-0.718058,-0.455878
-0.281226,-0.056367,0.193767,-0.590175,-0.175451,-0.787979
-0.307120,0.441432,0.227394,-0.285524,-0.055202,-0.956780
0.288525,0.196450,0.062333,-0.184753,-0.788255,-0.586958
0.201772,0.043466,0.857226,-0.039761,-0.979135,0.199282
-0.121959,-0.629382,0.594139,0.679207,0.394228,-0.619082
-0.229769,-0.356585,0.759512,-0.014173,0.643880,0.764995
-0.078552,0.326325,0.760074,0.938738,0.275360,-0.207238
0.897807,-0.074946,0.605961,-0.016843,0.337215,0.941277
0.036708,-0.140172,0.245315,0.756096,-0.050966,-0.652473
0.302853,0.317881,0.929034,-0.212415,-0.892278,0.398396
-0.403395,-0.182470,0.433928,-0.581460,0.745060,-0.326787
0.228868,0.181177,0.837138,0.932547,0.244536,-0.265629
0.282787,0.244605,0.481342,0.209923,0.924804,0.317286
0.110693,0.439959,-0.214090,-0.322804,-0.941563,-0.096213
-0.838450,-0.399350,0.486910,0.850838,-0.365004,0.377951
0.504896,0.679370,0.593484,0.670956,0.636993,0.379550
-0.061610,-0.735145,0.727492,0.199775,0.920503,0.335804
0.020997,0.574075,0.107501,0.621383,-0.711585,0.327919
-0.209913,0.240616,0.726478,-0.461828,-0.460369,-0.758140
0.180085,-0.344294,0.680187,0.889864,0.075249,-0.449977
-0.164764,0.509066,0.908696,-0.420260,-0.891151,0.170971
0.005798,0.480208,0.997115,0.452088,0.877520,0.159921
0.681526,0.033008,0.727710,0.360543,0.828255,0.428955
0.352869,0.368408,0.875927,0.819788,-0.205370,0.534576
0.210423,-0.496702,0.497672,-0.136088,-0.379946,0.914943
0.256113,-0.587875,0.248887,-0.753623,-0.637004,-0.162105
-0.421208,-0.725226,0.448979,0.242110,0.940378,0.238896
0.056293,0.574219,0.372071,0.876750,-0.346709,-0.333321
-0.113728,0.084363,0.134827,0.320379,-0.307488,0.895996
-0.600481,0.388748,0.781972,0.995953,-0.089862,0.001788
0.346771,0.429824,0.310713,-0.533154,-0.428972,0.729198
-0.416702,0.847376,0.820168,0.558880,-0.708906,0.430239
0.404866,0.622842,0.644189,-0.046972,-0.265691,0.962913
0.633884,0.413617,0.711692,-0.706259,-0.650781,-0.278715
-0.036768,-0.267569,0.771397,0.072983,-0.846929,0.526673
0.006759,-0.149013,0.462221,0.240794,0.881622,0.405907
0.381286,0.137836,0.805492,-0.307303,0.447212,0.839980
-0.329799,-0.120874,0.412950,-0.003002,0.089615,0.995972
0.167618,-0.511976,0.732654,-0.462548,0.776691,0.427552
0.040102,-0.004043,0.655060,0.267214,0.809883,0.522194
0.028927,-0.673800,0.609143,0.794551,0.600912,0.087144
-0.000030,0.449338,0.884474,-0.725721,0.647027,-0.233849
-0.330219,-0.278063,0.714780,0.483716,-0.870477,-0.091044
-0.087534,-0.714913,0.414026,0.757699,0.642425,-0.114810
0.023190,0.403482,0.876988,0.239351,-0.714734,0.657165
-0.357284,-0.350404,0.641382,0.445657,-0.396275,-0.802718
0.393722,0.528616,0.332174,0.712361,-0.283765,-0.641888
-0.277171,-0.286292,0.748314,0.387594,-0.289576,-0.875167
-0.058997,-0.229008,0.825549,-0.600828,0.750919,0.274093
-0.360679,-0.792572,0.439527,-0.594779,-0.636882,-0.490529
0.105647,0.529837,-0.564006,-0.433579,-0.895020,-0.104632
-0.033584,-0.592798,0.761072,0.873109,0.371533,0.315665
0.443166,-0.131906,0.737427,0.009113,0.988994,0.147676
0.407810,-0.137333,0.295038,0.444686,0.803842,0.395086
-0.554822,0.263221,0.659209,0.532051,0.777158,0.336075
0.024151,0.539684,0.555084,-0.062023,0.997604,-0.030644
0.373956,0.306704,0.682292,0.958769,0.278630,-0.055928
-0.221899,0.334879,0.653750,0.511259,-0.659554,-0.551002
0.356954,0.087453,0.516576,0.977863,0.180129,-0.106476
0.334395,0.085368,0.855979,0.173726,0.928829,0.327255
0.553259,-0.299732,0.750076,0.996393,0.078774,-0.031569
-0.815200,-0.387166,0.461721,0.965300,-0.077342,0.249429
-0.256083,0.824233,0.799331,0.644035,0.612745,0.457999
0.179513,-0.224732,0.345556,0.111727,0.298825,0.947745
-0.613668,-0.646740,0.436642,-0.002492,0.998732,0.050285
0.392310,0.496991,0.893271,-0.643081,-0.322680,0.694496
-0.020156,-0.546152,0.692914,0.242681,0.936246,0.254065
0.539020,0.216682,0.751386,0.879613,-0.238079,0.411824
0.281196,-0.672219,0.249246,0.475916,-0.875439,0.084322
-0.293152,-0.539899,0.542872,-0.513542,-0.719191,-0.468015
0.603335,-0.239826,0.560527,-0.628610,0.139744,0.765063
0.204476,0.381058,0.129586,0.715972,0.128742,-0.686155
-0.137489,0.043934,0.674369,-0.692011,0.052128,-0.720003
0.175728,-0.194294,0.348707,-0.091947,0.229309,0.969001
-0.206008,-0.436401,0.619733,-0.076683,-0.915452,0.395054
0.230039,-0.479237,0.317996,-0.234032,-0.531281,0.814229
0.330520,0.120515,0.203360,0.479745,0.379414,-0.791132
0.612706,0.550932,0.633895,0.366608,0.655995,0.659750
-0.161130,-0.411137,0.510929,-0.077666,0.367498,0.926776
0.472785,-0.054571,0.388650,0.841016,-0.521208,-0.145035
-0.155242,0.347062,0.929611,-0.506615,0.576815,-0.640801
-0.570412,-0.494223,0.488314,0.007314,0.179316,0.983764
-0.359057,-0.406393,0.295506,-0.042923,0.676903,0.734820
0.035536,-0.130146,0.287302,0.186139,-0.982366,-0.017613
-0.797867,0.045623,0.566766,-0.566318,-0.605269,-0.559404
0.234695,0.208632,0.652221,-0.223748,0.959974,0.168483
0.177050,0.079582,0.206401,-0.403628,-0.431739,-0.806651
0.530129,0.634809,0.582753,0.708645,0.602941,0.366448
0.429709,0.157135,0.239076,-0.138981,0.091694,0.986041
-0.864434,-0.033152,0.564817,0.261876,0.440470,0.858724
-0.208110,0.829731,0.689357,-0.712379,0.402016,-0.575238
0.213757,0.419367,0.153278,0.981055,0.022742,-0.192392
0.059026,-0.188543,0.429561,0.162049,0.159677,0.973778
0.027996,0.034410,0.760713,-0.597640,-0.077240,-0.798035
-0.021928,-0.587659,0.400301,0.977714,-0.032104,-0.207472
0.589697,0.344223,0.451225,0.837090,0.149938,-0.526117
-0.045990,0.234866,0.860408,-0.065452,-0.740908,0.668410
-0.004536,0.096689,0.608956,0.798851,0.352347,0.487533
-0.119075,0.445205,0.705797,0.833315,0.507923,0.218175
-0.030040,-0.333728,0.396901,-0.448171,0.060201,-0.891918
-0.496215,-0.142868,0.791704,0.628758,0.777308,0.021358
