0.199475,-0.766057,0.105971,0.963089,0.154330,-0.220548
0.391915,0.095593,0.806155,-0.777757,0.605550,0.168535
-0.592450,0.279154,0.664652,0.479854,0.871175,0.103893
0.516570,0.428859,0.201919,0.311996,-0.813092,-0.491466
-0.066323,-0.304183,0.127111,-0.162246,0.639024,0.751881
-0.189357,0.176864,0.732790,0.850638,0.465054,-0.245233
-0.204026,0.183922,0.225594,0.774274,-0.611038,-0.164717
-0.342743,-0.008142,0.179375,0.045951,-0.981945,0.183503
-0.405677,0.603033,0.068177,0.989796,-0.102649,-0.098831
0.099510,-0.370693,0.406958,0.948439,-0.309267,-0.069405
-0.544087,-0.001003,0.291938,0.007028,0.690097,0.723682
-0.637173,0.310762,-0.472288,0.940195,0.298469,-0.164164
0.913695,0.079948,0.942392,-0.399010,0.225953,0.888671
0.403349,0.381363,0.183042,-0.481513,0.667227,0.568289
-0.482268,0.336756,-0.540700,-0.936477,0.306514,-0.170472
-0.258562,0.106503,0.118881,0.786046,0.467543,-0.404395
0.264836,0.931086,-0.281797,-0.288687,-0.306397,0.907073
-0.571102,0.183200,-0.152151,0.155137,0.734803,0.660300
0.155867,-0.091019,0.261321,0.736007,0.648965,0.192715
-0.761624,0.148702,-0.040641,0.404616,0.318457,0.857246
0.567159,0.466967,0.871797,-0.509773,-0.667528,-0.542714
-0.456973,0.428939,0.650961,0.684478,-0.587089,0.432223
-0.034553,0.012796,0.349858,-0.083620,-0.990232,0.111575
-0.248039,0.401983,0.288311,-0.685976,-0.110702,-0.719154
0.656700,0.385454,0.909123,0.690583,-0.029480,-0.722652
0.080993,-0.028361,0.315535,-0.510836,-0.859626,-0.009455
0.450094,-0.492560,0.171029,0.830193,0.141766,-0.539149
0.526991,0.443701,0.869457,0.644113,0.736539,-0.206466
0.437345,0.138192,0.804595,-0.346283,0.615764,0.707759
0.562707,-0.528580,0.171575,-0.771358,0.099386,0.628593
-0.250469,0.110755,0.710636,-0.732223,-0.141348,-0.666235
-0.225375,0.139717,0.168727,0.989686,0.102386,-0.100191
-0.042850,-0.158971,0.116463,0.938549,-0.098460,0.330805
0.063995,-0.250432,0.179297,0.986908,0.160350,-0.017353
-0.187232,-0.671787,0.187722,-0.235712,0.036559,0.971135
0.274244,-0.282682,0.393775,0.182147,0.389551,0.902814
-0.274142,0.301938,0.409727,0.806053,0.591622,-0.016171
-0.721758,-0.195314,0.029369,-0.467910,-0.408332,-0.783788
0.376133,0.325607,0.760131,0.797679,-0.100371,-0.594671
-0.699397,0.399094,-0.973595,-0.474725,0.106038,0.873723
-0.101532,0.103053,0.363392,0.514230,0.857369,-0.022038
-0.081095,0.636889,0.717969,-0.056110,-0.911827,0.406723
-0.150099,0.439448,-0.278170,-0.712196,0.681727,0.167410
0.799261,0.477077,0.955575,0.499713,0.342950,-0.795407
0.436029,0.822937,0.588206,-0.518861,0.466209,0.716542
-0.328172,-0.001884,-0.028550,0.914824,0.036176,0.402229
0.231245,-0.247543,0.386170,-0.226835,-0.269437,-0.935922
0.013609,-0.010791,0.657280,0.475240,-0.556595,-0.681432
-0.441393,0.379438,-0.992862,-0.140304,-0.052665,0.988707
0.102848,0.024189,0.526308,0.790283,0.538601,-0.292167
0.822027,-0.325765,0.208784,-0.097219,0.488728,0.867003
-0.675115,0.518633,0.083077,0.299164,-0.590178,0.749794
-0.601964,-0.180071,-0.507508,0.332785,0.520291,0.786481
0.484192,0.258135,0.814618,0.786044,-0.007283,-0.618128
-0.324127,0.239762,-0.043020,0.729233,0.559103,-0.394490
-0.619669,0.269767,-0.247123,0.021471,0.934064,0.356460
0.598725,0.372698,0.885916,-0.632932,-0.385189,0.671585
0.126222,-0.099684,0.626194,0.504194,0.353237,-0.788043
0.067638,-0.355128,0.204181,0.259701,0.954300,-0.147877
0.503719,0.590597,0.696205,-0.289881,0.859443,0.421101
-0.521019,0.326086,0.573384,0.182540,0.973920,-0.134757
0.035464,-0.286212,0.136238,0.879694,0.396958,0.261846
-0.200991,0.136750,0.141854,0.988755,0.081913,-0.125111
0.897608,0.332746,0.929716,0.946632,-0.143012,-0.288852
-0.244599,0.213447,0.460509,0.826414,0.556707,0.084360
0.597613,-0.602151,0.124810,0.824747,0.219353,0.521226
-0.327767,0.081072,0.735052,-0.288009,0.885359,-0.364954
-0.332118,0.281800,-0.198448,0.827295,-0.039238,0.560396
-0.195730,0.174055,0.218534,-0.707657,0.685471,0.171324
0.769010,-0.610013,0.084247,-0.522370,-0.424951,0.739288
0.502301,0.400458,0.206209,-0.399139,0.683195,0.611500
-0.044468,0.438647,0.645735,0.214984,0.407547,0.887517
0.073202,0.026356,0.346776,-0.041503,0.944710,0.325270
-0.202106,-0.013036,0.761106,-0.571308,-0.808163,-0.143107
-0.544998,0.380802,-0.980810,0.703670,-0.069988,0.707072
-0.314919,0.074331,0.737431,-0.240666,0.737525,-0.630981
0.177314,-0.886078,0.063029,0.963588,-0.082634,0.254303
0.552993,-0.620443,0.151722,0.271426,0.129426,0.953717
0.363990,-0.235108,0.226920,-0.063750,0.661480,-0.747249
0.082006,0.004773,0.460431,0.741123,0.668793,-0.058756
0.484596,-0.474188,0.113226,0.702613,0.572095,0.423133
-0.317550,-0.045930,0.779867,0.937529,-0.182194,-0.296387
0.507056,0.631113,0.669371,0.103965,-0.251582,-0.962236
0.138869,-0.878696,0.074769,0.528765,-0.836281,-0.145055
-0.356097,0.378234,-0.469558,0.672024,0.716797,0.185971
-0.293367,0.195395,0.026093,0.675121,0.717852,0.170000
-0.092933,-0.698504,0.200593,-0.282381,0.179253,0.942406
-0.159001,0.143727,0.321502,0.574786,0.766600,-0.286262
0.042041,-0.017610,0.869886,-0.027680,0.977341,0.209855
-0.349622,0.456697,-0.306642,0.908085,-0.124994,-0.399697
-0.087267,-0.448754,0.133157,-0.694842,0.561935,-0.448803
-0.502808,0.293915,0.705449,0.889749,-0.309069,-0.335892
-0.331006,0.195797,0.659776,0.780714,0.614378,-0.114131
0.540145,-0.511172,0.141620,-0.033210,0.996322,-0.078987
0.178025,0.009667,0.633722,0.810898,-0.580447,0.074334
0.379774,0.175899,0.272086,0.295059,0.164554,0.941203
0.130773,0.398132,0.632669,0.541648,-0.167264,0.823796
0.196641,-0.043523,0.869028,0.306907,0.772095,0.556487
-0.284564,0.199247,-0.033309,0.864666,0.471412,-0.173563
-0.075633,0.281000,0.244159,0.838246,-0.544957,0.019139
0.237720,-0.698102,0.114942,-0.097573,-0.387722,0.916598
-0.381898,0.389868,0.718749,0.898732,0.312457,-0.307654
0.495422,-0.553612,0.162721,0.074266,-0.093960,0.992802
-0.611070,0.486383,0.752525,-0.560017,-0.826931,0.050659
-0.281226,0.190501,-0.008464,0.830379,-0.442343,-0.338827
-0.362776,0.038309,0.700885,0.805426,0.129858,0.578295
0.132292,0.640419,0.747806,-0.076529,-0.165734,0.983197
0.556735,-0.109470,0.950037,-0.734253,0.442942,0.514465
0.731371,-0.629509,0.053980,-0.051789,-0.475003,0.878459
-0.245813,0.036705,0.776863,-0.479342,0.101952,0.871686
-0.806446,-0.006377,0.000897,0.377434,0.467766,0.799211
0.069763,-0.837299,0.132533,0.849098,-0.471549,-0.238065
-0.034652,-0.164827,0.703616,-0.629289,-0.409519,-0.660522
-0.242271,-0.530186,0.197551,0.762491,-0.055515,0.644613
-0.048717,-0.264551,0.121729,-0.204884,0.542953,0.814386
-0.711538,0.422762,0.349195,0.523730,-0.735647,0.429571
-0.492488,0.187773,-0.499512,-0.329453,-0.760344,0.559766
0.204128,0.565967,-0.274426,-0.320238,0.915304,0.244266
0.087672,-0.472581,0.153516,-0.176757,-0.763043,0.621709
-0.614207,0.473786,0.652756,-0.199140,0.766745,0.610283
-0.465573,0.319828,-0.532899,-0.598852,0.754945,0.267271
0.623819,-0.246500,0.682515,0.217573,-0.247392,-0.944171
-0.070269,-0.310282,0.138968,0.081439,-0.762006,-0.642428
-0.496129,0.076819,0.183159,0.399477,0.716144,0.572325
0.507665,0.461351,0.777955,0.896356,-0.313538,-0.313433
-0.330500,0.255485,0.744803,0.887387,0.180695,-0.424138
-0.156370,0.099603,0.328757,-0.563795,-0.558634,0.608328
0.766784,-0.398692,0.194625,0.248385,0.288921,-0.924570
-0.647696,0.417226,-0.971567,-0.277725,0.322572,0.904885
-0.258966,-0.070800,0.385467,0.633698,-0.650661,-0.418409
-0.243586,-0.691443,0.232263,-0.249486,0.946990,0.202403
-0.190268,0.019858,0.782168,-0.484794,-0.005647,0.874610
-0.170738,0.467127,0.251375,0.861630,0.476454,0.174890
0.068651,0.215371,0.711416,-0.097981,0.992301,-0.075746
-0.353367,0.325283,-0.246148,-0.220998,0.856718,0.466041
0.495724,0.229170,0.823160,-0.713006,0.051686,0.699250
-0.281528,0.145253,-0.098912,0.932630,0.312373,-0.180624
-0.373197,0.530909,-0.356878,0.784319,0.197005,-0.588245
-0.119037,-0.396046,0.100940,-0.030190,0.505211,0.862467
-0.140892,0.088292,0.773080,0.945275,-0.153123,0.288112
0.672484,0.478360,0.932525,0.885908,0.434843,-0.161489
-0.583042,0.501866,0.332228,0.435952,0.131849,0.890260
-0.095666,-0.076255,0.640782,-0.218101,0.629084,0.746113
-0.342236,0.563881,-0.578845,0.821740,0.493751,-0.284522
-0.083827,-0.138833,0.126916,-0.292784,-0.458045,0.839329
-0.180149,-0.050102,0.038184,-0.737567,0.272080,0.618035
0.783983,-0.640980,0.063185,0.800325,0.559100,-0.216535
0.575554,-0.306751,0.189945,-0.225346,-0.739655,0.634137
0.282239,0.385454,0.753813,0.617181,0.199659,-0.761068
0.196338,-0.341890,0.120637,0.125755,0.550893,0.825047
0.236911,0.020979,0.836655,-0.132469,0.987810,0.081747
0.035970,-0.500182,0.125200,0.325628,-0.046128,0.944372
0.106896,0.095431,0.636140,-0.304460,0.334168,0.891984
0.730966,-0.320871,0.191895,0.205853,0.434839,-0.876664
-0.531644,0.351919,0.529467,-0.731566,0.617954,0.288002
0.346084,0.738297,0.596513,-0.424809,0.408849,0.807700
0.622503,-0.063661,0.923047,0.994566,0.101684,0.022314
-0.396571,0.374304,0.236359,0.150817,-0.805680,0.572829
-0.074416,-0.150387,0.134678,0.166745,0.114659,0.979311
-0.156979,0.014562,0.138227,0.863609,0.430080,-0.263080
0.042952,0.146857,0.593744,0.832842,0.418107,-0.362713
-0.558658,0.374865,0.633644,0.543834,-0.518164,0.660114
0.122476,-0.801678,0.169663,0.920482,-0.390761,0.004313
-0.394444,-0.626138,0.209174,-0.524728,0.253979,0.812499
0.509588,0.285891,0.822731,-0.444730,-0.148003,0.883352
-0.262610,0.255165,0.748079,0.136640,0.951652,-0.275115
0.686549,-0.620200,0.067436,-0.044515,-0.300460,0.952755
0.727020,-0.094709,0.834159,-0.379859,0.131058,0.915713
-0.271716,0.219142,0.058349,0.883317,-0.127236,-0.451179
-0.165377,0.693370,-0.490932,0.063206,0.951532,-0.300985
0.506145,0.786273,0.605484,0.578001,-0.420692,-0.699238
0.509687,0.426611,0.845431,0.993059,0.039159,0.110904
-0.010673,0.256528,0.710363,0.192429,0.512554,0.836815
-0.420955,0.136828,-0.756231,0.901796,0.418327,0.108477
-0.327060,0.320391,0.554117,0.498283,0.554654,-0.666388
-0.473060,0.271613,0.658177,0.081119,0.786113,0.612737
0.474682,-0.063742,0.894146,-0.251819,0.522379,0.814683
0.184197,0.066068,0.635399,0.973795,0.225769,-0.027425
0.432287,-0.435276,0.123055,-0.518824,-0.852670,-0.061448
0.188242,0.075856,0.709466,0.965740,-0.059113,-0.252691
0.079677,0.002528,0.651078,-0.346985,0.790781,-0.504249
0.033643,0.201812,0.332813,-0.672933,-0.677748,0.296343
-0.468305,0.637611,0.687234,-0.275096,-0.947412,-0.163501
-0.193099,0.175258,0.491673,0.927855,0.371516,-0.032575
-0.471949,0.226524,0.200242,0.758790,-0.322555,0.565859
-0.083926,-0.024269,0.717462,0.853483,-0.329748,0.403525
0.316639,-0.454772,0.168025,-0.298425,0.945946,-0.126998
0.250469,0.656064,0.768088,0.386305,0.423900,-0.819193
-0.269187,0.426371,0.659659,0.735734,-0.619090,-0.274633
0.505238,0.007501,0.832326,-0.674192,-0.713724,-0.189903
-0.329388,-0.022022,-0.691642,-0.594579,-0.591276,0.544857
0.366015,-0.415299,0.117282,0.550131,0.798489,-0.244483
-0.014520,-0.419472,0.153555,0.301919,-0.844743,0.441875
-0.343854,0.366440,-0.405437,0.301437,-0.936689,0.178183
-0.182678,0.040475,0.693592,0.681387,0.720946,-0.126286
-0.197653,0.133138,0.577792,0.912043,0.240741,0.331996
-0.155259,-0.040475,0.617497,-0.178443,0.778969,0.601137
-0.025852,-0.296642,0.666992,-0.355832,0.447239,0.820586
-0.248848,0.303943,0.062873,0.938301,-0.129293,-0.320742
0.161632,-0.282843,0.392800,-0.902680,0.349402,-0.251173
-0.024030,-0.310360,0.167557,0.627690,-0.703006,0.334348
-0.585370,0.351118,-0.966106,0.154551,0.061738,0.986054
-0.155966,0.654059,-0.301299,0.175108,-0.885672,-0.430026
0.821622,0.167956,0.896681,0.439154,0.325478,-0.837382
0.268782,-0.186490,0.394165,-0.401087,-0.489368,0.774370
0.010775,0.505397,-0.254105,0.271388,-0.822962,-0.499081
-0.408610,0.462634,0.635360,-0.203448,-0.012413,0.979007
0.177314,-0.763006,0.172511,-0.186312,0.952022,0.242781
-0.232156,0.317742,0.740786,-0.594466,-0.132935,0.793056
-0.568879,0.392275,-0.963142,-0.252266,-0.646521,0.719981
0.732988,0.379438,0.907524,0.528818,0.118414,-0.840434
0.264432,0.638174,-0.265299,-0.334328,0.390538,0.857732
-0.676631,0.630631,0.253208,0.352897,0.830732,0.430521
0.239844,0.493603,0.718632,0.010792,0.853560,0.520882
0.083524,0.505556,0.146613,-0.352332,-0.006592,-0.935852
-0.180856,-0.566449,0.175280,-0.670418,0.043750,-0.740692
0.133506,0.574071,0.154257,0.788545,-0.480758,-0.383494
-0.531644,0.309398,-0.496782,0.081117,-0.978190,-0.191218
-0.216976,-0.442016,0.157768,0.569238,0.075269,-0.818720
-0.317145,0.302097,0.764148,0.955094,-0.199791,-0.218812
-0.352052,0.239361,-0.055618,0.938170,0.344941,-0.029223
-0.226085,0.173734,0.567417,0.737359,0.673239,-0.055241
0.295695,0.796622,0.563127,-0.134773,0.445129,0.885266
-0.647696,0.428619,0.330356,0.317997,0.205016,-0.925660
0.441797,-0.466323,0.120442,0.557018,0.766979,0.318552
-0.194112,0.535962,0.650805,0.127661,0.626060,-0.769254
-0.719230,0.638654,0.127306,0.574601,-0.386863,0.721229
-0.181261,0.175017,0.339483,0.881703,0.460371,-0.103241
-0.287296,0.433912,0.614767,0.831654,-0.554295,0.033300
-0.658015,0.400778,0.376848,-0.020139,-0.931476,0.363244
-0.363384,0.420275,-0.601466,-0.695575,0.714246,0.077637
0.164667,-0.649003,0.121573,0.259493,0.301880,0.917350
0.640310,0.487666,0.842272,0.424313,-0.857417,-0.291196
0.450297,-0.055476,0.870354,0.059888,0.748314,0.660636
-0.263619,0.259819,0.097664,-0.709098,-0.683449,0.173428
0.719532,0.510771,0.826865,-0.626333,0.637791,0.448251
0.296504,0.508043,0.736690,-0.487016,0.108477,0.866630
0.122983,-0.276666,0.684426,0.055094,0.561060,0.825940
0.347297,0.472662,0.163189,-0.360513,0.435026,0.825096
-0.506652,0.123751,-0.125629,-0.412156,0.829621,0.376637
0.056914,0.188897,0.350950,-0.511033,-0.696714,0.503423
-0.684119,0.669623,0.156051,-0.707019,-0.205599,0.676649
-0.348208,0.325445,0.553805,0.489092,0.566037,-0.663620
-0.662165,-0.308355,-0.010453,0.535198,-0.063371,0.842346
0.041636,0.183922,0.594797,0.669634,0.338648,-0.660990
0.477007,0.725301,0.640158,0.582030,-0.765784,-0.273525
-0.069056,0.261584,0.269823,0.967470,-0.245045,-0.062889
-0.284869,0.113321,-0.088147,0.671583,0.740396,-0.028118
-0.456871,-0.059729,-0.062444,-0.011010,0.044692,0.998940
-0.330803,0.244815,0.664144,0.215664,0.832166,0.510870
0.316336,0.685187,-0.279964,-0.263649,0.845297,0.464717
0.429150,-0.131292,0.658177,0.795933,0.490945,0.354208
0.583447,-0.271130,0.683451,0.213751,-0.172123,-0.961605
0.112966,-0.318383,0.124693,-0.628143,-0.774554,-0.074183
-0.097889,-0.048337,0.748430,-0.633147,-0.757737,-0.157986
-0.551473,0.405352,-0.936620,0.997254,-0.056702,0.047629
-0.084636,-0.058125,0.366512,-0.046232,-0.247027,0.967905
0.224365,0.049140,0.338430,-0.773872,-0.134825,-0.618825
-0.145443,-0.023787,0.141932,0.876592,0.311046,0.367202
0.012090,0.464882,0.632942,-0.058931,0.638738,0.767164
0.307635,-0.374304,0.721401,-0.154342,0.516182,0.842457
-0.317145,0.218581,-0.015640,0.601587,0.327048,-0.728789
-0.292762,0.535402,0.664379,0.116412,0.927618,-0.354928
-0.030607,-0.291667,0.140879,-0.225074,0.381988,0.896341
0.284159,-0.319268,0.130777,-0.314034,-0.872528,0.374270
-0.336166,0.471700,-0.603768,-0.749738,0.443420,0.491195
-0.297717,0.580890,0.524630,0.600340,-0.729911,0.326837
0.273840,0.200691,0.278677,-0.152096,0.190244,0.969883
0.003895,0.712945,-0.305433,0.130518,-0.959214,-0.250746
0.212629,0.382325,0.192441,0.169821,0.278220,0.945386
-0.251278,0.002768,0.713951,0.028722,0.513856,0.857395
-0.219508,-0.282682,0.695737,-0.597556,0.785797,-0.159531
0.103657,0.174535,0.637037,0.379307,-0.627336,0.680130
0.027875,0.386017,0.642186,-0.476163,0.037967,0.878537
-0.320990,-0.006457,0.318889,-0.587349,0.486480,0.646806
-0.190064,0.103775,0.207418,-0.529606,0.835059,-0.148976
0.439673,-0.178146,0.680487,0.274344,0.083863,0.957968
-0.278493,0.024752,0.760443,-0.740501,0.226968,0.632570
0.133608,-0.361788,0.228792,0.578990,0.769473,-0.269595
-0.565640,-0.139957,-0.498264,0.535996,0.354771,0.766058
0.124805,-0.547915,0.132182,-0.481647,-0.664339,-0.571550
-0.695655,0.414979,0.338118,-0.276266,-0.027323,-0.960693
0.477513,-0.535402,0.170717,-0.386560,-0.264749,0.883447
-0.283656,0.237514,0.492063,0.364873,0.883782,-0.292912
-0.354581,0.325364,-0.241585,-0.220998,0.856718,0.466041
0.358932,-0.021620,0.698662,-0.679484,-0.377925,0.628867
0.133404,0.010630,0.632981,-0.581965,0.678926,-0.447634
0.469318,-0.330900,0.100472,0.060306,-0.464088,0.883734
-0.519299,-0.213204,-0.018058,0.032349,0.286947,0.957400
-0.584864,0.132497,0.262647,0.417293,0.892096,0.173295
-0.243083,0.149344,0.681384,-0.522459,-0.852628,-0.007852
0.428137,0.213927,0.795585,0.833796,0.091789,-0.544389
-0.312795,0.168439,0.611178,0.931040,0.198608,-0.306136
-0.333232,0.392755,0.627560,0.718462,-0.650764,-0.245599
0.037993,0.042160,0.444830,0.689716,0.695109,0.202769
0.396772,0.181435,0.274738,0.401267,0.291939,0.868191
0.283958,0.380401,0.173837,0.489834,-0.735518,-0.468056
0.311986,0.040637,0.849760,-0.024500,0.832368,0.553681
-0.154854,0.041920,0.641718,0.879613,0.259226,-0.398851
-0.250163,0.143808,0.633800,0.087916,0.935395,0.342500
0.400011,0.446428,0.780569,0.429814,0.485443,-0.761318
-0.475793,0.526656,0.699364,0.155097,-0.876303,0.456113
0.108819,-0.135305,0.651664,0.694719,0.268268,-0.667382
0.860879,0.030288,0.944889,0.631347,-0.145771,-0.761677
-0.560378,-0.026194,-0.059558,0.295902,0.200745,0.933886
-0.342135,0.275704,0.736924,0.943752,-0.219774,-0.247046
-0.481663,0.447312,-0.682983,0.963615,0.246936,-0.102320
0.240653,0.621645,-0.252467,0.840845,-0.280856,-0.462710
0.409320,0.209035,0.773899,0.767057,0.128136,-0.628653
0.414378,-0.972642,0.131401,0.577181,-0.056494,0.814660
0.404967,-0.335554,0.194937,-0.087825,-0.244884,0.965566
-0.115798,-0.040235,0.121534,-0.578185,-0.407378,-0.706927
-0.600649,0.479160,-0.981630,0.199398,-0.068099,0.977550
-0.775686,0.031169,-0.011116,0.363649,0.568778,0.737734
-0.733495,0.427414,0.391279,-0.014144,-0.893614,0.448614
-0.598116,0.392755,0.336558,-0.294821,0.805697,-0.513744
0.538829,0.511254,0.795975,-0.509134,0.685321,0.520689
-0.046290,0.226604,0.713990,0.165158,-0.526355,-0.834071
-0.043357,-0.444743,0.134990,0.159661,0.960029,0.229897
0.215763,0.669462,-0.276844,-0.145973,0.868372,0.473942
-0.224060,0.645715,-0.517922,0.101546,-0.930240,0.352622
-0.235493,0.355611,0.790397,-0.561263,-0.739273,-0.372101
-0.336672,0.153516,-0.082023,-0.223179,0.963736,0.146305
0.085445,0.052188,0.613518,0.923419,-0.111527,-0.367232
0.010574,-0.381845,0.166114,0.956182,-0.287095,-0.057378
-0.323923,0.183200,-0.087562,0.752039,0.147024,0.642511
0.147975,0.689360,0.737743,-0.568315,0.574409,0.589129
-0.284363,0.285652,0.169975,0.451469,0.851114,-0.267917
-0.149793,0.160577,0.277780,0.993065,0.074645,-0.090829
-0.350635,0.397490,0.547447,0.974155,0.072831,-0.213816
-0.625739,0.027078,-0.030539,-0.498218,0.862812,0.085643
0.566449,-0.034055,0.820469,-0.531184,-0.772835,-0.347231
0.205141,-0.298246,0.112914,-0.463977,-0.052794,-0.884273
-0.548642,0.326005,-0.983579,-0.338875,-0.046679,-0.939673
0.534781,0.707891,0.659932,0.075533,0.831781,0.549941
-0.533666,0.610495,-0.334529,-0.317886,-0.603388,0.731349
0.329388,-0.839865,0.141815,-0.549369,-0.417888,-0.723577
0.177114,0.013198,0.687975,-0.569127,0.296111,0.767081
-0.364496,0.200370,0.128008,0.156461,0.448092,0.880190
-0.123690,-0.019936,0.370334,0.194267,-0.121467,-0.973399
0.249052,0.529626,0.723195,0.854974,0.163694,-0.492163
0.592049,0.406554,-0.226842,0.318769,-0.024253,-0.947522
0.480752,0.331784,0.831936,0.933622,-0.150740,0.325002
-0.374917,0.418989,-0.349350,0.737041,0.325232,-0.592448
-0.268378,0.201012,0.631577,0.707390,0.516851,0.482146
0.528405,-0.793334,0.119271,0.008789,-0.028743,0.999548
0.010370,-0.302339,0.128788,0.114595,0.312677,0.942922
0.869074,0.107866,0.929443,-0.680828,0.246019,0.689890
0.494106,-0.143727,0.647802,0.053811,0.133116,0.989639
-0.351342,0.529464,0.515543,-0.596079,0.608689,-0.523629
-0.474478,0.203898,0.722181,-0.196929,0.966108,0.166894
-0.258055,0.262546,0.404267,0.739334,0.659989,-0.133414
0.391915,-0.267680,0.658645,0.066556,0.242716,0.967812
0.653158,0.532192,0.927883,0.934034,0.357011,-0.011159
-0.185105,0.298006,0.790202,0.803426,0.126102,0.581898
-0.524258,0.417065,-0.981278,-0.510518,-0.063423,-0.857525
0.056306,0.105058,0.572799,0.025545,-0.791671,0.610414
-0.352861,-0.002687,0.290573,0.662645,-0.617516,-0.423762
0.012294,0.484216,-0.129373,-0.558673,0.598312,0.574376
0.311581,0.443461,0.730996,0.422993,0.029057,-0.905667
-0.139070,0.623731,0.148602,0.832007,-0.231846,-0.503995
0.074317,0.246260,0.617809,0.765337,-0.537219,-0.354478
0.809886,0.608248,0.826163,0.500010,0.830327,-0.246062
0.166693,0.111235,0.329030,-0.623618,-0.588712,-0.514314
0.078362,0.035101,0.527556,0.772478,0.570315,-0.279317
-0.225881,0.129206,0.190686,0.905525,0.412003,-0.101380
0.281124,0.199406,0.272242,-0.152096,0.190244,0.969883
-0.214145,0.557143,0.121612,0.059658,-0.986501,-0.152500
0.025648,-0.287977,0.130972,0.821183,0.570551,-0.011394
-0.039006,-0.151912,0.113655,-0.843521,0.213663,-0.492767
-0.220824,0.135224,0.581536,0.899711,0.244550,0.361547
-0.380484,0.317263,-0.207106,-0.090643,-0.995173,-0.037611
0.065919,0.211280,0.631889,0.672927,0.115917,-0.730570
-0.790559,0.688958,0.179687,0.000891,-0.200512,0.979691
-0.384733,0.606644,0.159211,0.176299,-0.075360,0.981448
0.382000,0.542220,0.116385,0.577877,0.388582,0.717678
0.095666,-0.042079,0.313117,0.499901,0.865261,0.037703
-0.206151,0.102250,0.194469,-0.510404,0.851511,-0.120074
0.091920,-0.158089,0.641016,0.083741,-0.415657,0.905658
-0.122680,0.334592,0.676235,0.859389,0.486631,-0.156975
0.657308,0.462796,0.204844,-0.203077,0.758980,0.618634
0.519908,0.559310,0.749912,-0.471226,0.584511,0.660525
-0.625437,0.556501,0.105659,0.297468,0.816417,-0.494950
0.121263,0.032533,0.654316,-0.427127,0.312126,-0.848611
-0.434917,0.179510,0.165841,0.727403,-0.151729,0.669225
0.057217,0.546072,0.624517,-0.569893,0.135625,0.810449
-0.259677,0.414338,0.699988,0.688952,-0.483460,-0.540010
0.582131,-0.091900,0.872070,0.989346,0.139606,0.041294
-0.310062,-0.027477,-0.068216,0.572484,-0.487562,-0.659200
0.529520,-0.628143,0.157299,0.271426,0.129426,0.953717
-0.639702,-0.033575,-0.034635,-0.468832,-0.516947,-0.716214
0.573026,-0.524810,0.074301,0.651955,0.755378,0.066020
-0.113371,-0.490474,0.154569,-0.507457,0.062204,-0.859429
-0.371477,0.401662,-0.481883,0.896665,0.440330,-0.045842
-0.272525,0.131214,0.129373,-0.337208,0.229116,0.913125
-0.627055,0.116450,-0.670619,0.786725,-0.075614,0.612655
-0.522538,0.378797,0.499317,-0.423448,0.700170,0.574851
0.892853,0.088531,0.932876,-0.563903,0.174323,0.807233
0.088582,0.040958,0.083623,-0.382930,0.130911,0.914454
-0.000656,-0.323760,0.174461,0.332396,-0.881987,0.334084
-0.159001,0.391955,0.693007,0.704684,0.703003,0.095950
-0.646381,0.227405,-0.574632,0.754517,0.656145,-0.013353
-0.105883,-0.131292,0.126526,-0.518508,-0.341044,0.784116
-0.072393,-0.219864,0.120286,0.113876,-0.026881,0.993131
0.124196,0.748727,0.579391,-0.510136,0.028969,0.859605
0.249963,0.095994,0.298959,-0.008103,0.861984,0.506870
0.084840,0.546312,-0.261399,0.362051,0.218308,-0.906234
-0.226286,-0.027156,0.733219,0.032635,0.926275,0.375433
0.584762,-0.339966,0.173681,0.929353,-0.079963,-0.360428
0.800678,-0.308676,0.204259,-0.158037,0.601027,0.783448
-0.314515,0.341009,0.064355,0.379459,0.533146,-0.756152
0.551980,-0.027156,0.824798,0.611252,0.715256,0.338791
0.498963,0.690322,0.650064,0.481701,-0.403128,-0.778108
-0.417920,0.097116,-0.100316,0.600209,-0.722324,0.343507
0.135732,0.558668,0.145248,0.903020,-0.399496,-0.157982
0.289726,-0.203338,0.254144,0.783499,0.426237,0.452163
-0.657308,0.433753,-0.971450,0.207281,-0.469120,-0.858464
0.116912,0.020418,0.348025,-0.315314,0.645990,0.695179
0.022107,0.029964,0.368345,-0.037024,-0.999010,0.024680
-0.698690,0.150387,0.221772,0.677446,-0.118469,0.725970
0.149797,-0.890007,0.122431,-0.032147,-0.977232,-0.209725
-0.101128,-0.131292,0.136511,-0.059805,-0.455432,0.888260
0.379774,0.488469,0.140177,0.963189,-0.260413,0.066730
0.110842,0.031571,0.103319,-0.495056,0.074306,0.865678
-0.270400,0.248667,0.447053,0.778949,0.604147,0.168062
0.599333,-0.283404,0.164086,-0.399298,0.912814,-0.085627
-0.330905,0.250270,-0.121338,0.957126,-0.120976,-0.263200
0.438558,-0.269125,0.212684,-0.046195,-0.635220,0.770948
0.081802,0.337799,0.160303,0.130958,0.910661,0.391850
-0.429857,0.148301,0.157885,-0.566623,-0.280519,-0.774756
-0.623109,0.380161,-0.442256,0.047425,0.996799,-0.064370
0.126524,-0.156483,0.641406,0.193069,0.401380,0.895332
-0.520414,0.330099,-0.984633,0.433630,0.135381,0.890863
0.306622,0.003811,0.651039,0.533747,0.702584,-0.470627
-0.478220,0.468089,-0.977222,0.466305,0.548574,0.693993
-0.181665,0.191304,0.218612,0.826213,-0.480423,-0.294220
-0.476300,0.521762,0.651351,-0.670644,-0.741755,0.006033
-0.476401,0.730756,-0.295721,-0.218184,-0.585215,0.780973
0.576870,-0.527217,0.072273,0.651955,0.755378,0.066020
-0.524054,0.459265,-0.984282,0.199806,-0.017516,0.979679
-0.762838,0.502589,0.406763,0.601085,-0.746885,0.284360
0.415592,-0.755947,0.130582,0.228430,0.249836,0.940958
0.119948,-0.247704,0.669800,0.241653,0.369025,0.897454
-0.477513,0.347507,-0.697492,0.679459,0.716679,-0.157187
-0.285376,0.154559,0.120013,-0.198537,-0.509308,-0.837370
0.221935,0.065586,0.693046,0.921843,-0.346430,-0.173760
0.236911,-0.433753,0.163462,0.086544,0.959670,-0.267476
-0.025648,0.080508,0.420258,-0.171161,0.403505,0.898826
-0.354985,0.177745,-0.450407,0.906934,0.116717,-0.404781
-0.499470,0.083478,-0.072195,-0.506118,0.831003,-0.230823
-0.453432,0.411610,0.551426,0.856561,0.404383,-0.320590
0.117925,-0.380481,0.194313,0.481644,0.814026,0.324625
-0.008449,-0.357295,0.170717,0.899363,0.227515,0.373341
0.211412,-0.651329,0.134327,-0.536100,-0.607765,-0.585848
-0.066727,-0.111556,0.676430,0.811054,-0.162223,-0.562028
-0.023928,0.783305,0.560591,0.360331,-0.427936,-0.828875
-0.365610,-0.015685,-0.043917,0.175628,-0.798021,0.576469
-0.249861,0.161539,0.126643,0.380391,-0.715479,-0.585997
0.448881,0.385055,0.802371,-0.569975,0.741595,0.353787
0.076238,0.131856,0.600374,0.566290,0.559437,-0.605266
-0.136137,0.113804,0.341511,0.906701,0.281880,0.313745
0.252593,0.332665,0.171575,-0.085238,0.928059,0.362547
0.525876,0.381845,0.826163,0.847243,-0.456841,-0.271064
0.339102,-0.463677,0.200359,0.314021,-0.863541,0.394572
-0.119241,0.057643,0.070635,-0.130007,0.368786,0.920378
0.238631,0.102411,0.734857,0.483489,0.593103,-0.643791
0.294481,-0.337238,0.405086,-0.383298,-0.019197,0.923425
-0.616229,0.543023,0.643902,0.955743,-0.101901,-0.275991
-0.070470,0.444825,-0.287414,-0.441912,0.757398,-0.480690
-0.246217,0.247462,0.498420,-0.735325,-0.642864,0.214532
-0.468105,0.606081,0.260697,0.263575,0.958698,0.106892
0.572924,-0.573187,0.114162,0.644050,0.665349,0.377506
-0.353266,0.338201,0.047272,0.752307,0.450000,-0.481180
-0.267161,0.028601,0.003354,0.927733,-0.314883,0.200401
-0.429351,0.470417,0.679278,-0.248363,0.033484,-0.968088
-0.232560,0.256771,0.194235,0.624525,0.756616,-0.193649
-0.833865,0.007743,-0.001053,0.362719,0.548465,0.753407
0.577883,0.488067,0.799836,-0.525276,0.673282,0.520362
-0.242981,0.040074,0.773080,-0.601115,0.520471,0.606441
-0.023827,-0.409602,0.143414,-0.409057,0.293196,0.864123
0.190166,-0.701150,0.108936,0.003869,-0.352401,0.935841
0.432994,0.024752,0.668357,-0.249361,-0.492002,0.834118
-0.187735,-0.048418,0.577324,-0.321322,0.359168,0.876214
0.550970,-0.204941,0.962479,-0.708615,0.323321,0.627159
0.668742,-0.036785,0.691915,-0.273207,-0.254621,0.927645
-0.564831,0.420595,0.332696,-0.215759,0.703190,0.677475
0.080082,0.720887,0.565623,0.294543,-0.161454,-0.941901
-0.237213,-0.073929,0.776395,-0.686908,0.571713,0.448667
-0.073101,0.033174,0.757986,0.969150,0.239371,-0.058734
-0.132292,0.120865,0.766489,0.890230,-0.429458,0.151842
0.129862,-0.203257,0.668786,-0.541483,-0.344527,-0.766875
0.420449,-0.002447,0.860837,-0.114807,0.797219,0.592673
0.373197,0.221710,0.755724,0.808854,0.290602,-0.511181
0.085547,-0.030606,0.309333,0.494376,0.869137,-0.013908
0.502101,0.673634,0.659035,0.588539,-0.489875,-0.643152
0.008650,0.101608,0.808066,0.410671,0.643852,-0.645603
0.486823,0.470978,0.894575,0.531327,0.791890,0.301001
0.019275,0.678849,-0.322126,-0.096602,0.632845,0.768228
-0.067839,0.488227,0.177737,-0.579741,-0.650425,-0.490762
-0.652856,0.308277,-0.604548,0.884207,0.463024,0.061532
0.018667,0.082435,0.567417,-0.341008,-0.380649,0.859546
-0.311174,0.209035,-0.023012,0.530250,0.839559,-0.118216
0.201800,-0.117733,0.236164,0.740324,0.668799,0.068030
-0.702837,0.247624,0.442256,0.219373,0.772880,-0.595425
-0.611675,0.530909,0.704435,0.888722,0.441831,-0.122307
0.430465,0.119420,0.789305,0.652622,-0.462450,-0.600187
0.084840,0.026596,0.525918,0.764578,0.531871,-0.364051
-0.242675,-0.649164,0.174344,-0.078103,0.380849,0.921333
-0.246723,-0.061896,0.712391,-0.556931,-0.286510,-0.779576
-0.306218,0.338441,0.073443,-0.510164,-0.501502,0.698734
-0.356199,0.405433,0.267327,0.615874,-0.411031,0.672126
-0.072696,-0.086206,0.654043,-0.257782,0.809360,0.527717
-0.403855,0.379840,-0.593900,0.937618,-0.306842,-0.163463
-0.185309,0.147339,0.231288,0.220973,-0.966793,0.128380
-0.790559,0.056921,-0.041031,-0.540734,-0.369598,-0.755648
0.058026,-0.035341,0.357892,0.669500,0.325835,-0.667533
0.054182,0.138914,0.589649,0.721263,0.340669,-0.603095
-0.574137,0.627181,-0.364835,-0.135853,-0.678101,0.722304
0.178225,-0.770229,0.170132,0.132061,-0.981965,-0.135292
0.043659,0.332905,-0.120090,-0.476439,0.346592,0.808010
-0.689989,0.349833,-0.941300,-0.711457,0.598944,0.367553
-0.584660,0.278512,0.662194,0.526757,0.835798,0.154818
0.410330,-0.000121,0.853621,-0.245572,0.726836,0.641408
-0.440784,0.393157,-0.443036,0.959911,0.280284,0.003364
0.155663,0.128004,0.627209,-0.654246,-0.196679,0.730260
0.397077,0.128406,0.238816,-0.353692,-0.843256,0.404749
0.012899,0.370855,0.201685,0.414230,0.554562,0.721716
-0.236506,0.209194,0.067865,0.847369,0.008650,-0.530934
-0.106896,-0.437601,0.158899,-0.401070,0.047334,-0.914824
0.083624,-0.495686,0.131674,0.313927,-0.081298,0.945960
0.343045,-0.407918,0.129568,0.397298,0.915212,0.067391
0.372085,-0.114283,0.660790,-0.506489,0.741725,-0.439674
0.419741,-0.086928,0.645657,0.783570,0.492361,0.378945
-0.646381,0.541498,0.361247,-0.751443,-0.496023,-0.435079
-0.693935,0.427255,-0.978041,-0.071999,0.071041,0.994872
0.115294,-0.279393,0.682749,0.055094,0.561060,0.825940
0.278799,-0.128726,0.645267,-0.153538,0.936188,0.316194
0.172559,-0.019696,0.871485,-0.004234,0.830574,0.556893
0.205848,-0.856634,0.124498,-0.688899,0.691146,-0.218487
-0.323620,0.238638,-0.096806,0.709600,0.639546,-0.295718
0.476908,0.369890,0.878076,0.472786,0.716924,-0.512341
-0.184904,0.164908,0.410156,0.911096,0.404241,0.080581
-0.241363,0.090537,-0.068879,0.962050,0.105719,0.251563
-0.042445,-0.435839,0.156987,-0.548057,-0.534080,0.643733
0.037691,0.150306,0.594407,0.880178,0.345987,-0.324929
-0.002783,-0.458782,0.131986,0.644865,0.674762,0.358950
0.617038,-0.515504,0.143258,0.343283,0.937874,0.050480
-0.468914,0.346305,0.334373,-0.288033,-0.954376,-0.078765
-0.510092,-0.191463,-0.023831,0.032349,0.286947,0.957400
-0.157383,0.316540,0.760989,0.756999,0.217740,0.616070
-0.128445,0.135144,0.782948,0.923755,0.376010,0.072752
0.075429,-0.056519,0.099263,-0.204784,0.422011,0.883159
-0.686043,0.522004,0.775147,0.752084,-0.225784,0.619185
0.149086,0.434955,0.624127,0.172692,-0.024094,0.984681
-0.243991,0.522565,0.529311,-0.567902,0.599792,-0.563681
0.884961,0.099121,0.925153,-0.630107,0.269655,0.728184
-0.633934,0.240805,0.250985,-0.606427,0.478152,-0.635308
0.721860,-0.390990,0.179648,-0.022476,-0.083554,0.996250
0.612688,0.224279,0.852802,-0.765230,0.068809,0.640069
-0.698690,0.389146,0.336246,0.522752,0.046195,0.851232
-0.412961,0.241606,0.621358,0.375357,0.832619,-0.407250
-0.330398,0.577281,-0.231951,0.821015,0.462513,-0.334688
0.587090,0.350156,0.882835,-0.288843,-0.818299,0.496946
-0.200383,0.153597,0.381879,0.918514,0.389240,0.069460
-0.154144,0.165471,0.230937,0.681643,-0.471421,-0.559576
-0.195223,0.188736,0.330551,0.945886,0.314648,0.079352
-0.007539,-0.462474,0.132416,-0.514259,-0.622467,-0.589976
-0.251985,-0.198363,0.769414,0.305546,-0.584525,0.751646
-0.413569,0.052188,-0.038964,-0.550772,0.222481,0.804458
-0.028381,-0.289743,0.657280,0.390355,0.067086,0.918217
-0.669045,0.479322,0.637037,0.730302,-0.573170,-0.371665
-0.260081,-0.681255,0.210734,-0.290595,0.896207,0.335212
0.534883,0.364998,0.877530,0.200480,0.475349,-0.856651
-0.358830,0.410726,0.046882,-0.376299,-0.311835,0.872444
-0.259575,-0.429659,0.056048,-0.513402,0.420622,0.747995
0.226388,0.556181,0.745973,0.750603,0.469319,0.465117
-0.083522,-0.168037,0.128359,0.029880,-0.762660,0.646109
-0.300045,-0.224276,-0.007293,-0.579324,0.313594,0.752358
0.209998,-0.778492,0.187995,0.190037,0.537266,0.821724
-0.024333,-0.123832,0.769258,0.555620,0.823132,-0.117217
-0.087570,-0.047375,0.896798,-0.164145,0.871315,0.462457
0.129356,0.583458,-0.239986,0.369324,-0.581024,0.725266
0.252291,0.580008,0.728929,-0.709709,-0.704434,-0.009221
0.183082,0.095593,0.631460,0.763958,0.600517,0.236109
0.422777,0.251074,0.825539,0.461600,0.625138,-0.629387
-0.572924,0.049140,-0.538788,-0.598198,-0.018206,-0.801142
-0.192290,-0.203338,0.700339,0.926366,-0.141162,0.349169
0.002074,-0.030206,0.867429,0.378303,0.479763,0.791652
-0.644155,0.502589,0.752720,-0.615212,0.262142,-0.743502
0.717408,0.398932,0.919966,0.569270,-0.021411,-0.821871
-0.121161,0.005256,0.738211,0.495925,0.397365,-0.772114
-0.537412,0.347909,-0.981006,0.314884,0.153213,0.936683
-0.204329,0.155521,0.144506,0.904817,0.413612,-0.101151
0.044366,-0.184483,0.648621,0.063736,0.741389,0.668042
0.138968,-0.089413,0.640587,0.797963,-0.600238,0.054493
-0.166186,-0.045208,0.107259,0.521182,0.312279,-0.794261
0.213033,0.666494,-0.280549,-0.172212,0.881734,0.439191
-0.282340,0.236954,-0.037560,0.901193,0.251821,-0.352757
0.299135,-0.381603,0.118881,0.415675,0.740960,0.527439
0.241058,0.016006,0.842038,-0.146758,0.986956,-0.066187
-0.360753,0.230213,0.711611,0.292489,-0.943477,0.155886
0.020288,-0.307633,0.146535,0.363500,-0.169911,0.915968
-0.145344,0.593004,0.167557,0.875529,-0.419337,-0.240011
-0.255829,-0.099042,0.000468,0.836415,0.279906,-0.471235
-0.149593,-0.086365,0.139904,0.667539,0.194433,-0.718740
-0.647798,0.431826,0.690667,0.476669,-0.761174,0.439773
0.033843,0.353444,0.199423,0.213503,0.707724,0.673456
-0.192392,0.006778,0.579001,-0.488180,0.603548,0.630405
0.047605,0.254925,0.602520,0.885593,-0.381066,-0.265544
-0.185815,0.018332,0.367019,-0.766419,0.627618,0.136739
-0.102545,0.070800,0.365459,0.695841,0.488165,-0.526783
0.485405,0.388904,0.813760,-0.567710,0.662584,0.488557
0.664188,-0.153917,0.824174,0.398995,-0.121244,-0.908902
0.104568,-0.561315,0.135419,0.402136,0.664719,0.629631
0.122881,0.393477,0.636569,-0.352326,0.081859,-0.932291
-0.319372,0.333870,-0.463981,0.486187,0.537061,-0.689339
-0.448575,0.395644,0.636842,0.504590,-0.622522,0.598211
-0.293367,0.393157,0.176060,0.824340,0.448551,0.345350
-0.107705,0.601911,0.145677,0.939652,-0.026609,-0.341094
-0.636769,-0.034376,0.206170,0.957139,-0.247717,-0.150073
-0.099306,0.095030,0.423144,-0.456513,-0.843372,0.283408
-0.634441,0.411448,0.348610,-0.241384,-0.008148,0.970396
-0.587090,0.321273,-0.981356,-0.097124,0.162379,-0.981937
0.440886,-0.266155,0.836733,0.785614,-0.558456,0.266342
-0.129155,-0.045849,0.797769,0.828765,-0.476628,-0.293214
-0.162849,-0.231819,0.707477,0.884890,0.257951,0.387853
0.030910,-0.347507,0.112017,0.297045,0.456765,0.838528
-0.214247,0.044087,0.736495,-0.157343,0.170552,0.972705
0.247230,0.018653,0.839034,-0.192866,0.980537,0.036733
0.348510,0.020499,0.701587,-0.018547,-0.885547,0.464180
0.289624,0.472261,0.751004,0.819978,0.262413,-0.508700
0.479739,-0.058928,0.892195,-0.251819,0.522379,0.814683
-0.189962,-0.380401,0.175826,0.002226,-0.619089,0.785318
-0.128751,-0.045369,0.823901,-0.636622,0.698492,0.326834
0.163253,0.537727,0.679083,0.813844,-0.137054,-0.564690
-0.520917,0.110755,0.296462,0.374534,0.657324,0.653950
-0.046290,-0.209113,0.120286,0.721908,0.667078,0.184001
-0.380178,0.544948,0.680799,0.716560,-0.207257,0.666023
-0.137653,0.029245,0.812161,0.743761,-0.083437,-0.663217
-0.319674,-0.297203,0.016810,-0.565847,0.410508,0.715053
0.166186,0.377032,0.199540,-0.152342,-0.646009,-0.747974
-0.285376,0.581051,0.192558,0.182896,0.888333,0.421205
-0.112762,-0.220425,0.672452,-0.463148,0.056696,-0.884466
-0.633835,0.379999,0.313156,-0.152438,0.808261,-0.568750
-0.076540,-0.399495,0.137954,0.992786,-0.118240,-0.019890
0.088987,0.041680,0.529740,0.853659,0.484629,-0.190793
0.072193,-0.319990,0.157026,-0.366965,-0.918857,0.145050
-0.109221,0.314212,-0.467413,-0.021062,0.937486,0.347386
-0.425812,0.226764,0.168766,0.901601,-0.063265,0.427916
-0.428341,0.436319,-0.987324,-0.477721,-0.247652,0.842882
0.332019,-0.293273,0.200671,0.884255,0.363365,0.293359
0.080490,0.077460,0.845587,-0.351699,-0.113728,0.929179
-0.535995,0.380080,-0.968680,-0.297571,0.720053,-0.626877
0.135430,-0.064704,0.281329,-0.714566,-0.695546,-0.074902
0.466586,-0.103613,0.917313,-0.438426,0.553152,0.708382
-0.491173,0.313250,0.612192,0.404661,0.868604,0.285966
0.116001,-0.039111,0.314833,0.480807,0.876308,0.030159
-0.413467,0.041437,-0.035220,-0.554380,0.191839,0.809852
-0.175595,0.160415,0.713015,0.715527,0.692967,-0.088422
0.292357,-0.426611,0.184758,-0.244588,0.969625,0.002057
0.732482,0.204381,0.911112,-0.318922,-0.415508,0.851846
0.196641,-0.035419,0.390616,0.934036,-0.084152,-0.347123
0.099510,-0.079465,0.637388,0.947695,0.274596,-0.162703
-0.235493,0.164186,0.208745,0.935529,0.190347,-0.297580
-0.510700,0.439690,0.675650,-0.127284,0.990455,-0.052900
-0.137856,0.118215,0.058622,-0.428591,0.086345,0.899363
-0.482876,-0.038710,0.299388,-0.610470,-0.018135,0.791832
0.233267,0.182798,0.760092,-0.620262,-0.261980,0.739353
-0.276267,0.455333,-0.359218,0.552383,0.321707,-0.769011
0.555521,0.357134,0.874293,-0.316910,-0.719656,0.617789
-0.431781,0.141722,-0.539959,0.926309,-0.335594,0.171252
0.061466,0.596133,0.650844,-0.764139,-0.414634,0.494136
-0.321598,-0.736613,0.258395,0.111177,-0.668672,-0.735199
-0.168413,0.147099,0.319747,0.916075,0.337872,0.215983
0.371681,-0.040154,0.860876,-0.290405,0.839406,0.459416
0.433704,-0.095671,0.672647,0.984525,0.095508,0.146933
-0.631609,0.506839,0.749249,0.843548,0.317779,0.432947
-0.666920,0.344699,-0.581419,-0.695284,-0.715841,-0.064438
0.079579,0.608248,0.598268,0.021384,0.885962,0.463264
-0.307129,0.204701,0.705566,0.760900,0.556128,-0.334295
-0.207568,0.203257,0.356488,0.869470,0.486072,0.088069
0.101026,-0.321674,0.147939,0.004637,0.903357,0.428865
-0.471745,-0.109712,-0.686688,0.043501,-0.460363,0.886665
0.524561,-0.008786,0.692149,0.040211,-0.517041,0.855016
0.478628,0.077139,0.816256,-0.521151,0.049438,0.852031
-0.288411,0.399013,-0.338625,0.793974,-0.396202,-0.461118
-0.030202,0.695537,0.584227,-0.512528,0.825549,0.236184
0.164568,-0.077139,0.415461,0.986601,0.146728,-0.071334
-0.371375,0.483413,0.622918,0.073505,-0.328026,0.941804
-0.137754,0.581774,0.167947,0.982621,-0.076581,-0.169090
-0.417920,0.555057,0.046102,0.984956,0.172629,-0.007755
-0.126929,-0.056198,0.131518,-0.642058,0.590022,0.489526
0.470229,-0.180071,0.848707,-0.837563,0.530308,0.131388
-0.594983,-0.124554,-0.040368,-0.428477,-0.494580,-0.756173
0.050437,0.014963,0.473263,0.728447,0.674007,-0.122799
0.125209,-0.176621,0.672296,0.979639,0.130928,-0.152201
-0.274853,0.224357,0.540934,0.853540,0.490884,0.174652
-0.505336,0.189218,0.723819,0.110390,0.755042,0.646317
0.145242,-0.338683,0.124888,-0.163163,0.221553,0.961401
0.144634,-0.070800,0.655330,-0.048353,0.304563,0.951264
0.403651,-0.038308,0.651703,0.441372,0.601478,-0.665894
-0.218696,0.156807,0.584422,0.954217,0.258571,0.150367
-0.271614,0.242409,-0.000273,0.950016,-0.047387,-0.308583
-0.019578,0.363634,0.221031,-0.556744,-0.633376,-0.537467
0.082308,-0.339163,0.148758,0.123333,0.851757,0.509214
-0.340921,0.437523,-0.591404,-0.551454,0.393921,-0.735340
-0.501492,-0.197721,-0.010531,0.032349,0.286947,0.957400
-0.323318,0.395243,0.043293,0.778509,0.431967,-0.455332
-0.009663,0.422762,0.195757,0.277039,0.759380,0.588720
-0.854000,-0.109230,0.011662,-0.246480,-0.401567,-0.882038
0.068852,-0.067671,0.104645,-0.204784,0.422011,0.883159
0.354683,0.202616,0.743399,0.819710,0.078184,-0.567418
0.438459,0.787238,0.647139,-0.614373,-0.501385,-0.609228
0.342137,-0.009748,0.648543,0.513519,0.490090,-0.704351
-0.572723,0.480925,0.698896,0.987477,0.096436,0.124859
-0.318865,-0.722571,0.224658,-0.014794,0.889594,0.456513
-0.363687,0.063901,0.258981,-0.212233,0.976953,0.022798
-0.301765,0.406554,0.539764,0.929675,0.158960,-0.332319
0.630899,0.367162,0.874956,0.904019,-0.418313,-0.088112
-0.335761,0.309560,0.746597,0.852998,-0.515109,0.084011
-0.166995,-0.060050,0.337416,-0.403007,0.165122,0.900178
0.106087,0.429500,0.638402,0.245197,0.213264,0.945726
-0.083321,-0.106823,0.697531,0.914974,0.391334,0.098387
0.447059,-0.238236,0.824291,-0.853411,0.509254,0.111134
-0.616127,0.474188,0.741371,0.914322,0.214721,0.343381
0.695046,-0.337799,0.205936,-0.010586,-0.068901,0.997567
0.580109,-0.649485,0.162448,0.480884,0.280684,0.830642
-0.003490,0.589797,0.602754,-0.113499,0.507970,0.853864
-0.122476,0.350798,0.713093,0.818653,0.573269,0.034204
0.754136,0.153918,0.903701,-0.116116,-0.419466,0.900314
0.068345,-0.830640,0.105035,0.963988,-0.197092,-0.178553
-0.175595,-0.249146,0.694216,0.714447,-0.367813,0.595214
-0.144535,0.007902,0.589844,-0.681419,0.387981,0.620596
-0.268983,-0.546473,0.208394,-0.574654,0.176973,-0.799033
-0.449791,0.225561,0.213932,-0.635875,0.707633,-0.308088
-0.259371,0.154720,0.615430,0.051926,0.657215,0.751912
-0.408508,0.399976,-0.507040,0.625362,0.749354,-0.217695
0.013406,-0.155119,0.761418,-0.310158,0.690133,-0.653849
-0.277786,0.002609,0.727993,-0.686811,-0.596339,0.415537
-0.591947,0.462232,0.734935,0.747766,-0.624770,0.224740
-0.047503,0.093827,0.398144,-0.688019,0.436352,0.579850
0.154956,-0.102813,0.377199,0.738516,0.451024,0.501170
0.303788,-0.296241,0.150084,0.612328,0.725431,-0.314332
0.224566,0.638495,-0.273997,-0.342833,0.265046,0.901230
-0.008246,-0.239681,0.675923,-0.542958,0.526928,-0.653868
0.134719,0.572066,0.150006,0.848598,-0.171573,-0.500444
-0.294176,0.269044,0.012364,0.725973,0.684828,0.063034
0.122375,-0.379037,0.709817,-0.216738,0.341811,0.914434
-0.269085,0.355369,-0.296462,-0.485272,0.870712,-0.079822
0.062883,0.592204,-0.276220,-0.049432,0.382513,0.922627
0.226286,-0.018251,0.672647,-0.553241,0.468086,0.689072
-0.359336,0.236714,-0.020516,0.963159,-0.025426,-0.267728
0.197755,0.310762,0.253832,0.862390,0.504237,-0.045039
-0.628169,-0.013198,0.180857,0.958068,-0.283556,-0.041252
-0.419840,-0.452845,0.042747,-0.407578,0.291660,0.865341
0.027470,-0.147018,0.683022,0.195933,-0.480013,0.855101
0.692820,0.483896,0.902336,0.980381,0.136002,-0.142678
0.137452,0.138755,0.610515,0.728058,0.347636,-0.590831
0.084433,-0.023466,0.692383,0.037437,0.301650,0.952684
0.110842,0.712785,0.570225,0.481864,-0.102545,-0.870225
0.560783,0.540776,-0.223332,-0.273563,0.576750,0.769755
0.459200,0.155923,0.786458,-0.551394,0.488891,0.675981
-0.373602,0.594610,-0.330083,-0.742831,-0.312034,0.592315
-0.491374,0.086125,-0.129451,0.476938,-0.856461,-0.197496
0.033034,-0.013678,0.876867,-0.246945,-0.861269,-0.444111
-0.507260,0.717437,0.059480,0.070481,0.235665,0.969275
-0.533466,0.138593,0.237802,0.889224,-0.318566,-0.328324
-0.116202,0.496010,0.637349,0.427442,0.552162,0.715829
-0.329895,0.276264,0.145677,-0.338300,0.890115,-0.305367
0.070572,0.129928,0.587308,0.381494,0.798057,-0.466441
-0.077047,0.569177,0.495183,-0.588616,-0.459710,0.664980
-0.572013,0.623572,0.612192,0.519918,-0.033632,0.853554
-0.477917,0.334670,-0.991380,0.172866,0.159198,0.971995
0.495826,0.437764,0.189555,-0.474807,0.669108,0.571710
-0.243284,0.333789,0.055774,0.688266,0.251759,-0.680373
-0.080891,0.376229,0.232263,0.682204,0.471878,0.558506
-0.243386,-0.673394,0.205741,0.025690,0.890335,0.454580
-0.502808,0.420356,-0.821756,0.973116,-0.088810,-0.212505
-0.162947,0.132737,0.383907,0.816120,0.540725,0.203875
-0.397380,0.493361,0.570654,-0.059042,0.385173,0.920954
-0.651843,0.496571,0.074574,-0.336134,0.471395,-0.815353
-0.323318,0.186730,0.040641,0.914788,0.309875,0.259115
-0.148074,-0.224678,0.071298,0.784803,0.363573,-0.501895
0.089290,-0.212563,0.142946,0.462374,0.346353,0.816242
0.492995,-0.502508,0.166972,0.303629,0.184616,0.934733
0.349017,0.013198,0.812980,-0.300615,0.743997,0.596740
0.590833,-0.314212,0.197005,0.200179,0.656316,-0.727446
-0.737845,0.668820,0.130777,-0.427866,0.439520,-0.789780
0.089290,-0.072646,0.650064,0.953236,-0.296230,0.059909
-0.210501,-0.629908,0.177386,-0.356635,0.128685,0.925338
0.167400,0.402061,0.651703,-0.656291,0.721553,-0.220551
0.677443,0.125837,0.879754,0.657012,0.324449,-0.680491
-0.333838,-0.146455,0.431335,-0.821078,0.495448,0.283484
0.150606,0.314694,-0.099848,-0.559971,0.759354,-0.331383
0.402842,0.319187,0.842857,-0.028297,-0.136957,0.990173
0.584660,0.340688,0.873864,0.311380,0.699533,-0.643192
0.024435,0.354086,0.202543,0.270541,0.695225,0.665935
0.065919,0.116372,0.590546,0.532528,0.691159,-0.488582
0.913998,-0.103856,0.881626,0.419018,0.475337,-0.773614
-0.768504,0.599502,0.111822,0.103130,0.578700,-0.808993
0.259575,0.353283,0.172979,0.054687,0.912051,0.406413
0.090000,0.560353,0.637076,0.869032,-0.370270,0.328151
-0.461528,0.309158,0.595226,0.464092,0.876931,-0.124945
0.150606,0.598861,0.616756,-0.083121,0.747886,0.658602
-0.214346,0.181276,0.122431,0.990536,0.133404,-0.032269
-0.105176,0.592282,0.177230,0.921991,-0.207239,-0.327085
0.505034,-0.062378,0.890284,-0.533985,0.223213,0.815497
-0.210603,-0.089494,0.806623,-0.620591,0.783125,-0.039780
-0.634542,0.478600,-0.968212,-0.502485,0.227248,-0.834186
0.144736,-0.473705,0.142361,-0.250415,0.961757,0.110973
0.460920,0.183922,0.825500,0.881629,-0.249088,-0.400856
-0.166591,0.096234,0.300129,0.943269,0.175626,-0.281777
-0.051752,0.312527,0.249425,0.772903,-0.122585,0.622570
-0.345169,0.378075,-0.402863,0.709309,0.704111,-0.033305
0.066221,0.533475,0.643395,0.581147,-0.155465,-0.798811
-0.261900,0.162903,0.608916,0.289640,0.870524,0.397865
0.091009,0.290947,0.645969,0.923742,-0.383011,-0.001843
0.459502,-0.432389,0.177854,0.599462,0.700594,-0.387057
0.532857,0.430783,0.199930,-0.284012,0.812816,0.508593
0.052258,0.208553,0.695308,-0.297426,-0.038605,-0.953964
-0.700611,0.382648,0.313000,0.712671,-0.562436,0.419244
0.071887,0.441695,0.641874,-0.341278,-0.576118,-0.742709
-0.213740,0.088049,0.674558,0.814083,-0.513939,-0.270435
0.189863,-0.075776,0.263427,0.742199,0.664352,0.088188
-0.809379,0.791488,0.166075,-0.007953,-0.420029,0.907476
-0.014013,-0.266074,0.674168,-0.285673,0.171393,0.942876
0.047200,-0.168919,0.672257,-0.321390,0.766573,-0.555945
-0.373299,0.354406,0.058349,0.106262,0.985153,0.134840
-0.238831,0.296963,0.182456,-0.447491,-0.814354,0.369565
0.149188,-0.043122,0.686415,0.853389,-0.317947,-0.413082
-0.404967,0.498818,-0.320020,0.853834,0.121750,-0.506107
-0.069154,-0.447792,0.122002,0.161645,0.731266,0.662662
-0.583651,0.304585,0.591209,-0.088017,-0.992465,0.085243
-0.221024,-0.149826,0.769999,0.419810,-0.375999,0.826066
0.014418,0.603836,0.723858,0.097594,-0.936851,0.335836
0.414276,0.385937,0.796521,-0.648182,-0.722744,0.239795
-0.483988,0.030687,0.268224,-0.310984,-0.577121,-0.755129
-0.152224,0.170042,0.082141,0.831468,0.461689,0.309039
0.466283,0.272575,0.822770,-0.283907,0.379320,-0.880632
0.098803,-0.021060,0.311167,0.494376,0.869137,-0.013908
0.534479,-0.019615,0.777877,-0.556829,-0.819828,0.133508
0.003086,-0.304264,0.122119,-0.411396,-0.436435,-0.800174
-0.337886,0.462232,0.252506,0.931923,0.208492,-0.296735
-0.261900,0.330099,-0.454776,0.025280,-0.815417,0.578321
-0.514949,-0.093585,-0.057646,0.157918,0.202061,0.966557
-0.205546,0.084279,0.238894,-0.661851,0.506093,0.553014
-0.011281,-0.339082,0.157065,-0.204174,0.102440,0.973560
-0.178225,0.053873,0.138383,-0.259313,-0.065394,-0.963577
-0.672182,0.547355,0.605328,0.475400,0.373689,-0.796462
-0.432692,0.349192,0.238543,-0.617354,0.350838,-0.704122
-0.122680,0.665290,-0.322594,0.342644,-0.930639,-0.128478
-0.107909,0.036303,0.068489,-0.130007,0.368786,0.920378
0.534982,0.458222,0.192987,0.210299,-0.753533,-0.622866
