0.444726,0.164873,0.582679,-0.595774,0.117681,0.794484
0.389270,0.428490,0.818272,-0.793001,0.571132,0.212033
0.436098,0.404542,0.846999,0.657467,0.158019,-0.736727
0.380541,0.474016,0.884070,0.980292,-0.079330,-0.180927
0.388038,0.486344,0.917092,0.924384,0.381399,0.006971
0.596920,0.279455,0.636930,0.427650,0.723867,-0.541417
0.526778,0.362239,0.677170,0.263191,0.959560,0.099875
0.665521,0.256901,0.699630,0.361501,-0.144629,0.921086
0.345932,0.564085,0.759127,-0.297053,0.509497,0.807572
0.705778,0.258440,0.762260,0.434861,0.892024,-0.123244
0.521334,0.444178,0.811583,-0.430286,0.091311,0.898063
0.518253,0.194566,0.605527,-0.253073,-0.758871,0.600057
0.508294,0.223002,0.639289,0.319846,0.945423,0.062241
0.487139,0.261663,0.675339,0.349074,0.911714,-0.216623
0.557896,0.216273,0.702024,0.799940,0.517779,0.303315
0.421619,0.359854,0.747615,-0.037418,0.998674,-0.035361
0.365341,0.429892,0.786200,0.811193,0.564397,-0.153044
0.503878,0.149604,0.273543,0.967615,0.160143,0.195128
0.499976,0.172576,0.306953,-0.006440,0.238517,0.971117
0.475841,0.503854,0.847949,0.812887,-0.071131,0.578062
0.669730,0.364479,0.696708,-0.690405,0.641671,-0.334065
-0.168574,0.584818,0.049886,-0.481540,0.749610,-0.454098
0.143108,0.131813,-0.464742,-0.341307,-0.908941,-0.239450
0.098435,0.217957,-0.147580,-0.566522,-0.809931,-0.151869
-0.212119,0.552594,0.046823,-0.481540,0.749610,-0.454098
-0.281230,0.628660,0.103081,0.553672,-0.660418,0.507243
-0.095762,0.343884,-0.074423,-0.149514,-0.988411,-0.026236
-0.301360,0.570531,0.096110,0.553672,-0.660418,0.507243
-0.199896,0.372037,-0.071079,-0.435028,-0.860307,-0.265748
-0.227626,0.404542,-0.033128,-0.449307,-0.889923,-0.078485
-0.247138,0.428207,0.001725,-0.840067,0.401866,-0.364404
-0.313169,0.501195,0.058088,0.528177,-0.807827,0.261619
-0.335866,0.528229,0.093857,0.553672,-0.660418,0.507243
-0.061052,0.248214,0.042985,0.582983,0.794025,0.172207
0.042054,0.142875,0.021088,0.602538,0.704731,0.374568
0.103465,0.081105,0.019081,-0.172479,-0.951353,-0.255303
-0.357431,0.454822,-0.035522,-0.759539,-0.649845,0.028300
-0.240153,0.337719,-0.038303,0.837024,0.373071,0.400261
-0.358459,0.465611,0.041718,0.725490,-0.465002,0.507383
-0.333606,0.442220,0.054779,0.792537,-0.608941,0.032810
-0.398922,0.514216,0.110298,-0.685147,0.550566,-0.476918
0.120618,-0.014008,0.024644,-0.172479,-0.951353,-0.255303
0.098332,0.022276,0.135293,-0.344638,-0.927629,0.143980
0.123081,-0.000842,0.149481,0.739153,0.392955,0.547028
-0.368111,0.394591,0.042493,0.824650,-0.156346,0.543607
-0.302388,0.328195,0.037705,0.772558,-0.217482,0.596536
-0.456842,0.494184,0.134096,0.642063,-0.603602,0.472674
-0.011143,0.052670,0.155078,-0.292856,0.792904,-0.534358
0.132323,-0.095255,0.117057,0.357177,-0.932775,0.048541
-0.343980,0.281694,0.035592,0.843198,-0.297593,0.447722
-0.023259,-0.025071,0.140680,-0.451350,0.551602,-0.701440
-0.081590,-0.047343,0.163246,-0.004167,0.941318,0.337496
0.115688,-0.429191,-0.214751,-0.365813,-0.242709,-0.898484
-0.226802,-0.043983,0.169301,-0.529392,0.573242,-0.625410
-0.126469,-0.143158,0.173984,-0.283490,-0.028920,0.958539
0.017201,-0.222719,0.158317,-0.191692,0.475629,0.858505
-0.045442,-0.456369,0.162295,0.503529,0.688913,0.521400
-0.012682,-0.441237,-0.203239,-0.310011,-0.182730,-0.933008
-0.119179,-0.294578,0.174582,0.056960,0.019577,0.998185
-0.006827,-0.407201,0.173526,-0.600822,-0.572140,-0.558273
-0.130988,-0.490542,-0.195775,-0.394127,-0.430701,-0.811887
-0.211194,-0.504272,-0.189333,-0.164815,-0.848244,0.503307
-0.349731,-0.456643,-0.118465,-0.678543,0.639853,-0.360788
-0.481078,-0.542788,-0.180532,0.317442,-0.374963,0.870996
-0.417510,-0.606807,-0.184052,-0.628519,0.752202,-0.197878
-0.357841,-0.564367,-0.187467,-0.407089,0.864197,-0.295704
-0.504799,-0.630335,-0.179229,-0.203570,0.761838,-0.614949
-0.555636,-0.693517,-0.202746,-0.372785,0.897890,-0.234147
-0.559331,-0.787783,-0.070164,-0.504212,0.859346,0.085408
-0.772219,-0.717327,-0.205069,-0.571525,-0.801155,0.177507
-0.698999,-0.788767,-0.187432,0.882157,-0.265399,-0.389052
-0.937664,-0.675580,-0.164900,-0.405814,0.415131,0.814237
0.188497,-0.536205,0.123570,0.532726,-0.756128,-0.380097
0.159950,-0.412246,-0.237669,-0.702202,0.424224,-0.571792
0.219615,-0.357469,0.080162,0.576857,-0.733503,-0.359457
0.178538,-0.354955,-0.234219,-0.651450,0.334410,-0.681016
0.237689,-0.334359,-0.258335,-0.127926,0.981521,0.142308
0.227319,-0.285054,0.055554,-0.595579,0.798807,0.084811
0.281644,-0.336317,0.081570,-0.596099,0.753249,0.277996
0.289962,-0.298639,-0.261609,0.111519,0.823052,0.556911
0.321183,-0.250736,-0.272874,-0.284446,0.884941,0.368742
0.369347,-0.225241,-0.310720,-0.803872,0.562917,-0.192131
0.160564,0.024370,0.019152,-0.172479,-0.951353,-0.255303
0.218587,-0.024234,0.093434,0.394675,-0.682871,0.614751
0.183467,0.015966,0.133146,-0.119298,0.974141,0.191877
0.330836,-0.132231,0.119380,0.993130,0.116561,-0.010322
0.591170,-0.357614,-0.206689,0.796967,0.574141,0.187630
0.610065,-0.374422,-0.189650,0.796967,0.574141,0.187630
0.236971,0.022276,0.003697,-0.294422,0.874017,-0.386537
0.298383,-0.029551,0.077838,0.899982,-0.429039,0.077184
0.275586,-0.002244,0.112234,0.885142,0.107866,0.452647
0.283903,-0.008126,0.132723,0.095492,0.991822,-0.084679
0.240463,0.041042,0.176730,-0.573415,0.416248,-0.705644
0.631837,-0.494466,-0.953001,0.128095,0.282344,0.950722
0.677537,-0.539009,-0.946946,0.176020,-0.407812,-0.895939
0.728267,-0.588733,-0.942017,-0.081432,0.142733,0.986406
0.384544,-0.166831,-0.323675,0.919567,-0.147800,0.364077
0.289140,-0.049583,-0.148213,0.354311,-0.930692,0.090978
0.520823,-0.310130,-0.967858,-0.443405,0.137951,0.885642
0.578433,-0.367694,-0.966837,-0.070124,0.187791,0.979703
0.615609,-0.403413,-0.955466,0.173639,-0.458758,-0.871430
0.671683,-0.458883,-0.954585,0.061882,-0.241603,-0.968400
0.712760,-0.498664,-0.946136,-0.226859,0.277737,0.933487
0.762466,-0.547277,-0.940715,-0.080597,0.226939,0.970568
0.305572,-0.018488,-0.378138,-0.055634,-0.980005,-0.191038
0.413712,-0.122844,-0.348671,0.954930,-0.165937,0.246117
0.382287,-0.085585,-0.306601,0.918613,-0.390486,0.060586
0.221054,0.091613,-0.177856,0.510653,0.742526,0.433462
0.516818,-0.210955,-0.235944,0.792899,0.505896,0.339677
0.538076,-0.229722,-0.219785,0.847658,0.527833,0.053545
0.488063,-0.173414,-0.170569,0.149698,0.855846,0.495095
0.474916,-0.155905,-0.138074,-0.630915,0.520941,0.574950
0.455404,-0.132095,-0.103010,0.857970,0.503709,0.100824
0.455611,-0.129290,-0.078050,0.302354,0.579673,-0.756678
0.413915,-0.082080,-0.034466,0.332678,0.926305,-0.176871
0.294481,0.047625,0.044429,0.783061,-0.606399,0.138189
0.287805,0.057851,0.071959,0.958523,-0.109650,0.263079
0.305265,0.042581,0.089632,0.697767,-0.700585,-0.149338
0.300232,0.050985,0.117022,-0.197854,0.922878,0.330378
0.301053,0.053507,0.141912,0.808112,-0.478690,-0.343236
0.297048,0.061073,0.167752,0.773885,0.372662,0.512080
0.395431,-0.035998,-0.396620,0.998633,0.017916,0.049101
0.428705,-0.067793,-0.384862,0.988023,-0.067944,-0.138544
0.437640,-0.073958,-0.361521,0.905852,-0.033277,0.422286
0.405187,-0.035861,-0.320014,0.735171,-0.470942,0.487583
0.410321,-0.037819,-0.296321,-0.693304,0.667255,-0.272214
0.403749,-0.027038,-0.266080,-0.039776,-0.981198,0.188859
0.398716,-0.018633,-0.238021,0.854948,0.477580,0.202438
0.392554,-0.008400,-0.207956,-0.487505,-0.870293,-0.070207
0.394506,-0.007143,-0.182221,-0.094532,-0.737162,0.669071
0.392043,-0.001261,-0.154585,-0.370755,0.928598,-0.015721
0.375815,0.019335,-0.121774,0.994452,-0.078387,-0.070151
0.360308,0.039084,-0.089456,0.959082,0.088559,0.268924
0.349627,0.054071,-0.058687,0.681009,-0.579847,0.447218
0.345725,0.061211,-0.032037,0.707874,0.582549,0.399439
0.340592,0.069760,-0.003978,0.971835,-0.176507,0.156149
0.349627,0.063596,0.017814,0.492622,0.864658,-0.098440
0.380438,0.034741,0.029819,-0.286660,-0.888290,-0.358841
0.399333,0.018352,0.046189,-0.418687,-0.897506,-0.138508
0.338946,0.084884,0.097096,0.550700,-0.832558,0.059814
0.658025,-0.248496,-0.017074,0.502456,0.864578,-0.006558
0.744289,-0.335898,-0.029783,-0.625554,0.411846,0.662620
0.762466,-0.351449,-0.011758,-0.673308,0.500337,0.544352
0.799642,-0.387306,-0.001971,0.886818,0.321249,-0.332195
0.819255,-0.404679,0.015244,0.902712,0.397127,-0.165533
0.475944,-0.192599,-0.977328,-0.135092,0.300997,0.944008
0.526060,-0.242332,-0.973913,-0.233908,0.006445,0.972237
0.567342,-0.282250,-0.965569,-0.548691,0.068597,0.833206
0.617151,-0.331418,-0.960606,-0.190625,-0.087039,0.977797
0.674353,-0.388708,-0.960570,0.039366,0.269095,0.962309
0.717176,-0.430028,-0.951699,-0.311009,0.164039,0.936144
0.770477,-0.482557,-0.948178,0.239413,-0.244688,-0.939579
0.810012,-0.520380,-0.937581,-0.268698,0.239524,0.932968
0.312965,0.028577,-0.992924,-0.117764,-0.151519,0.981414
0.365545,-0.023669,-0.990847,0.339827,0.029113,0.940037
0.421823,-0.079566,-0.990565,-0.265015,-0.042660,0.963300
0.464853,-0.121305,-0.982186,-0.414057,0.282535,0.865292
0.510243,-0.165292,-0.976131,0.196486,-0.365577,-0.909806
0.557278,-0.211656,-0.969829,-0.521669,-0.148521,0.840121
0.597845,-0.251018,-0.960113,-0.132264,0.014393,0.991110
0.651143,-0.303401,-0.956768,-0.163809,0.067152,0.984204
0.701976,-0.353972,-0.953388,0.084136,0.347009,0.934080
0.734636,-0.384511,-0.940679,-0.123830,0.062845,0.990311
0.799538,-0.449359,-0.943038,0.376539,-0.098966,-0.921100
0.488781,-0.094972,-0.616159,0.985611,0.120050,-0.118991
0.485494,-0.087970,-0.586024,0.998673,0.050601,-0.009621
0.475944,-0.074377,-0.554128,0.887044,0.453884,0.084512
0.468448,-0.062330,-0.522056,0.979802,0.090664,0.178237
0.471118,-0.061629,-0.495300,-0.013516,0.941682,0.336233
0.477793,-0.064715,-0.470410,0.736228,0.676680,-0.008519
0.465160,-0.047488,-0.437564,0.936530,0.285426,-0.203579
0.452426,-0.030535,-0.404929,-0.210546,-0.909282,-0.358993
0.447807,-0.021848,-0.375110,0.910694,-0.386853,0.144847
0.446675,-0.017232,-0.348249,0.646062,0.757275,0.095600
0.442156,-0.008545,-0.318676,0.155871,-0.845132,0.511328
0.448217,-0.011204,-0.294350,0.933432,0.340722,-0.112314
0.428498,0.013444,-0.258124,0.925814,-0.359463,0.116858
0.422440,0.023396,-0.229537,-0.318405,-0.824661,0.467495
0.417614,0.031655,-0.201655,-0.275230,0.930324,0.242374
0.422233,0.030680,-0.176694,0.523337,0.810730,-0.262365
0.418742,0.037537,-0.149621,-0.313616,0.920004,-0.235026
0.403031,0.057851,-0.115930,0.989688,-0.128894,0.062489
0.382594,0.083345,-0.080408,0.901865,-0.319497,0.290795
0.389884,0.078720,-0.057842,0.458150,-0.830267,0.317419
0.374994,0.098051,-0.026193,0.812475,-0.491279,-0.313893
0.416793,0.060655,0.005809,-0.331870,-0.867126,-0.371424
0.440207,0.039503,0.020243,-0.122654,0.927261,0.353756
0.281644,0.114585,-0.988453,-0.248641,-0.044617,0.967567
0.338743,0.057851,-0.988664,0.021936,-0.021616,0.999526
0.403645,-0.007562,-0.992008,-0.259305,-0.118032,0.958556
0.456328,-0.059534,-0.988558,-0.087387,0.186441,0.978572
0.497406,-0.098897,-0.979123,-0.016112,0.315596,0.948757
0.545469,-0.146517,-0.974617,0.728891,-0.408988,-0.549041
0.570733,-0.169208,-0.958212,0.538097,0.325189,-0.777627
0.579768,-0.174816,-0.932512,0.055472,0.783454,0.618969
0.612428,-0.205492,-0.919944,0.556586,-0.658051,-0.507130
0.566420,-0.152399,-0.866749,0.997128,0.048031,0.058547
0.528730,-0.107856,-0.817849,0.776983,0.530386,-0.339098
0.555019,-0.131949,-0.801443,0.966694,0.135036,0.217412
0.517229,-0.087543,-0.754163,0.967047,0.249843,-0.048969
0.519588,-0.085867,-0.727055,0.868465,-0.495471,0.016666
0.524828,-0.087688,-0.700581,0.993103,0.097508,0.065098
0.508600,-0.066255,-0.664566,0.936971,0.241883,-0.252147
0.495763,-0.048882,-0.629537,0.929957,-0.273478,0.245742
0.507265,-0.057012,-0.606372,0.760331,-0.413046,-0.501288
0.475944,-0.019326,-0.562542,0.918743,-0.163551,0.359391
0.491244,-0.032073,-0.542792,0.930472,-0.150742,-0.333914
0.494122,-0.031099,-0.516881,-0.683451,0.659467,0.313046
0.495149,-0.028577,-0.489350,0.832622,0.275569,0.480419
0.490013,-0.019608,-0.459989,0.973925,-0.208784,0.088763
0.492990,-0.018633,-0.433410,0.891595,0.452698,-0.011119
0.499873,-0.021994,-0.409012,-0.059252,0.985110,-0.161394
0.504288,-0.022694,-0.383348,-0.022088,-0.999026,-0.038198
0.511578,-0.026892,-0.360394,0.607927,0.792842,0.042733
0.514248,-0.025909,-0.335258,-0.137243,0.929367,0.342697
0.517022,-0.025217,-0.309347,-0.349349,0.922697,0.163047
0.517742,-0.022130,-0.283542,-0.220635,0.924184,-0.311774
0.492068,0.008964,-0.244675,-0.174733,0.974017,0.144082
0.513531,-0.010366,-0.227706,-0.036209,-0.999007,-0.025969
0.521027,-0.014291,-0.204013,-0.386290,-0.898097,-0.210241
0.525957,-0.016111,-0.180567,-0.819550,0.556939,0.134747
0.510860,0.003082,-0.148284,0.259042,0.900823,0.348445
0.534585,-0.018206,-0.132512,0.295093,-0.952386,-0.076690
0.525957,-0.005459,-0.103292,-0.077015,-0.988419,-0.130757
0.516097,0.008964,-0.072839,0.129879,-0.989560,0.062469
0.441131,0.091886,-0.013378,-0.321135,0.805456,0.498109
0.467009,0.068221,0.001021,-0.066632,0.990505,-0.120250
0.551938,-0.018633,-0.011899,0.502785,-0.673391,0.541988
0.530476,0.021575,0.123253,0.267256,-0.963622,-0.002725
0.532015,-0.014291,-0.441366,0.098282,0.850033,-0.517480
0.533350,-0.011486,-0.414188,-0.294943,0.869804,0.395536
0.534995,-0.009246,-0.388382,-0.101694,-0.992804,-0.063229
0.521131,0.009383,-0.354339,0.509070,-0.849960,0.135708
0.533146,0.000141,-0.332653,0.814470,-0.360663,-0.454490
0.533761,0.003783,-0.305087,0.944245,-0.321252,0.072098
0.530783,0.010931,-0.277592,-0.276571,0.960968,0.007040
0.526060,0.019754,-0.249463,-0.916905,0.237352,0.320858
0.515894,0.034459,-0.217814,0.233730,0.957027,-0.171667
0.523390,0.029697,-0.195846,0.133742,0.988893,-0.064834
0.533864,0.022695,-0.173878,0.491922,-0.711333,0.502014
0.531708,0.028577,-0.146418,0.987583,-0.101610,-0.119816
0.530269,0.034040,-0.119345,0.902743,0.399884,0.158580
0.542492,0.024935,-0.099525,-0.201557,0.975185,0.091592
0.519588,0.052806,-0.064144,0.795181,0.580372,-0.175656
0.502132,0.075223,-0.030206,0.847104,0.514920,0.131421
0.519385,0.060236,-0.013131,0.810319,0.293634,-0.507111
0.516097,0.067657,0.014188,0.788874,0.610722,-0.068524
0.510346,0.077745,0.042528,0.999213,-0.025311,0.030525
0.503260,0.088945,0.071185,-0.703231,-0.654056,-0.278706
0.527703,0.066400,0.084950,0.431714,-0.892666,-0.129498
0.525136,0.072419,0.110474,-0.794843,0.500868,0.342573
0.537152,0.063459,0.130540,-0.540237,-0.829816,0.139820
0.524929,0.080122,0.160007,0.876464,0.405377,0.259769
0.511374,0.112764,-0.036508,0.777338,0.581152,0.240850
0.500590,0.127752,-0.005879,-0.707278,-0.573676,0.413103
0.534481,0.095255,0.003837,0.077010,-0.781206,0.619505
0.517536,0.117107,0.036050,0.835307,0.447011,-0.320068
0.482209,0.158983,0.077275,0.853308,0.521349,0.007788
0.527085,0.115141,0.082345,-0.033181,-0.895325,0.444176
0.527909,0.117800,0.107305,0.941923,0.013223,0.335568
0.513531,0.136857,0.138849,0.898623,0.438716,-0.002087
0.530066,0.123126,0.156839,0.860471,0.509493,0.002485
0.300539,0.137695,-0.985918,0.246334,0.038466,-0.968421
0.361850,0.076343,-0.988488,-0.209795,-0.064620,-0.975608
0.421926,0.015830,-0.990354,-0.197715,-0.037936,0.979525
0.481181,-0.043701,-0.990530,0.234111,-0.135174,-0.962767
0.520924,-0.081806,-0.981517,0.306702,-0.237372,-0.921731
0.561387,-0.120604,-0.971766,-0.750666,0.645081,0.142731
0.569191,-0.124246,-0.945186,0.856860,-0.495214,-0.143366
0.568473,-0.119347,-0.914628,0.973030,-0.194076,0.124687
0.552452,-0.098196,-0.877592,0.887785,-0.409740,0.209643
0.536638,-0.076899,-0.840732,-0.805943,-0.487779,-0.335450
0.537048,-0.073257,-0.811230,0.815634,0.529940,-0.232177
0.529859,-0.061073,-0.779123,0.927046,0.331507,0.175185
0.530066,-0.056867,-0.749692,0.844281,0.530344,-0.076971
0.530579,-0.053088,-0.720260,-0.646856,0.760562,0.055888
0.533454,-0.052105,-0.692484,0.958844,-0.265827,0.099767
0.513737,-0.027311,-0.654885,-0.055408,0.985834,-0.158305
0.507676,-0.016667,-0.624115,0.918772,-0.393618,-0.030372
0.518460,-0.023669,-0.600598,-0.351348,0.664460,-0.659582
0.514148,-0.014991,-0.571449,-0.492822,-0.780372,-0.384898
0.512710,-0.009665,-0.542510,-0.382909,0.904964,0.185530
0.513737,-0.006861,-0.514804,0.425397,0.895374,-0.131694
0.517639,-0.006724,-0.488506,-0.575146,-0.622039,-0.531295
0.502132,0.013444,-0.454286,-0.168548,0.972606,0.160088
0.292839,0.185743,-0.986481,-0.255213,0.273322,0.927449
0.358049,0.120185,-0.991234,0.077164,-0.040136,0.996210
0.414533,0.064152,-0.989967,0.168155,0.170206,0.970955
0.476869,0.001543,-0.991762,0.369108,0.012352,-0.929304
0.523183,-0.043983,-0.984862,-0.161524,0.020821,0.986649
0.565699,-0.085029,-0.977328,-0.435441,0.279108,0.855856
0.577201,-0.092732,-0.953917,0.527707,-0.824299,-0.205079
0.580592,-0.091467,-0.925224,-0.444850,0.895605,0.000719
0.583877,-0.090911,-0.897800,-0.209639,0.916312,0.341210
0.634917,-0.141054,-0.893399,-0.154460,0.866157,0.475304
0.637588,-0.139652,-0.864813,0.903066,-0.069472,0.423846
0.602261,-0.097349,-0.817286,0.960652,0.276421,-0.027187
0.554404,-0.041461,-0.764795,-0.767883,-0.634666,-0.086918
0.555226,-0.037964,-0.736912,0.739199,-0.645270,0.192902
0.556971,-0.035160,-0.708467,-0.429609,0.895929,0.112905
0.539719,-0.008400,-0.643056,-0.200537,-0.961234,0.189246
0.548754,-0.013307,-0.618518,-0.194612,0.955361,0.222285
0.547729,-0.007708,-0.589333,-0.763362,-0.645503,-0.024592
0.502746,0.044821,-0.539975,0.868163,0.489567,-0.081344
0.576380,-0.030252,-0.548354,0.943453,0.319572,0.088154
0.588293,-0.017505,-0.387995,-0.430489,0.746741,0.507008
0.523697,0.075642,-0.197465,0.930808,0.119267,-0.345503
0.509525,0.094554,-0.165006,0.929086,-0.176000,0.325304
0.537152,0.069196,-0.151875,0.955642,0.020323,-0.293830
0.482106,0.131675,-0.100510,0.039571,0.997540,0.057861
0.463928,0.155067,-0.067066,-0.122186,-0.610855,0.782258
0.460744,0.162625,-0.039430,0.596133,0.738041,0.316103
0.360719,0.154640,-0.990178,0.076691,-0.170621,0.982348
0.420488,0.094972,-0.991868,0.095190,0.129862,0.986952
0.477793,0.037819,-0.992114,0.390214,-0.012705,-0.920636
0.519488,-0.002518,-0.983102,0.038346,0.135541,0.990029
0.565699,-0.047625,-0.977434,-0.315251,0.143048,0.938165
0.596920,-0.076762,-0.962964,-0.292951,0.922990,0.249537
0.602465,-0.077745,-0.935328,0.015307,0.987987,0.153779
0.633479,-0.106317,-0.920683,0.752151,0.585859,-0.301726
0.664800,-0.135737,-0.907657,-0.788196,-0.517340,-0.333326
0.807139,-0.284216,-0.950290,0.589602,0.769084,-0.246738
0.844518,-0.320073,-0.938849,0.625473,-0.565305,-0.537786
0.628242,-0.014991,-0.378595,-0.584829,0.775263,0.238626
0.569090,0.078019,-0.164267,0.982822,0.135854,0.124922
0.444826,0.218796,-0.055518,0.526972,-0.617970,0.583450
0.437126,0.235330,-0.001936,-0.384770,0.853797,-0.350690
0.415661,0.262646,0.033551,0.555547,-0.793615,0.248077
0.441028,0.239109,0.046893,0.109137,0.982834,-0.148753
0.387728,0.299759,0.095969,-0.337958,0.907704,-0.248713
0.387624,0.304103,0.121493,-0.190076,-0.981660,0.014672
0.379924,0.316568,0.150220,0.249122,-0.749960,0.612780
0.520309,0.170755,0.113184,0.971564,0.182262,0.151140
0.523080,0.171457,0.136279,0.973444,0.225391,-0.040060
0.506241,0.193583,0.168773,0.980117,0.193693,-0.043048
0.422336,0.276787,0.034924,0.555547,-0.793615,0.248077
0.428805,0.274265,0.056786,-0.082010,-0.983087,0.163751
0.445958,0.259697,0.073719,-0.657927,-0.743497,0.119769
0.339564,0.378347,0.146207,0.305923,-0.856127,0.416483
0.362157,0.358315,0.160535,-0.534741,0.805660,-0.254881
0.479539,0.236869,0.134519,0.868797,0.461072,-0.180565
0.489398,0.230141,0.155395,0.891723,0.365092,0.267465
0.517639,0.203953,0.168316,0.997699,0.037784,-0.056303
0.355071,0.171730,-0.986305,0.117256,-0.052325,0.991722
0.423979,0.102112,-0.991586,0.042294,0.072930,0.996440
0.472760,0.054627,-0.986164,-0.197641,-0.114368,0.973580
0.532325,-0.005322,-0.986411,-0.160656,-0.090518,0.982851
0.570115,-0.041597,-0.976483,-0.347787,0.039969,0.936721
0.604314,-0.073402,-0.964584,-0.518235,0.808672,0.278354
0.619203,-0.084183,-0.941595,-0.335112,-0.925729,-0.175286
0.674660,-0.139233,-0.940715,-0.698248,-0.611635,-0.371958
0.737717,-0.202825,-0.942334,-0.484695,-0.870987,-0.080329
0.820386,-0.287713,-0.953811,-0.054912,0.512079,0.857182
0.861670,-0.327075,-0.944094,0.618492,-0.576875,-0.533557
0.629270,0.000697,-0.376307,-0.264379,-0.685499,0.678377
0.596407,0.067657,-0.174019,0.980925,0.108945,0.160988
0.351990,0.179716,-0.987467,0.008819,-0.069776,0.997524
0.412991,0.118646,-0.989755,-0.116957,0.235291,-0.964862
0.469679,0.061912,-0.988699,-0.205654,-0.147172,0.967495
0.514248,0.018634,-0.982257,-0.045505,-0.217666,0.974962
0.565699,-0.032356,-0.978314,-0.327319,0.041481,0.944003
0.610168,-0.075223,-0.970393,-0.657027,0.653592,0.375676
0.628345,-0.089227,-0.949058,-0.130750,0.764572,0.631137
0.689346,-0.150442,-0.950924,-0.055811,-0.980458,0.188643
0.746549,-0.207869,-0.950819,0.752178,0.602971,0.265810
0.816585,-0.279026,-0.955853,-0.079075,0.510043,0.856506
0.859511,-0.320355,-0.948143,0.469888,-0.540520,-0.697885
0.622695,0.019472,-0.374511,-0.264379,-0.685499,0.678377
0.586033,0.125229,0.011019,-0.218747,0.688722,-0.691239
0.388038,0.343610,0.124344,-0.163242,-0.973023,0.163030
0.354557,0.383947,0.163316,-0.284455,0.861862,-0.419856
0.516818,0.213896,0.059074,0.729679,0.669277,0.140134
0.391322,0.137412,-0.988805,0.223064,0.008767,0.974764
0.457253,0.070880,-0.992501,-0.220831,-0.109118,0.969189
0.500694,0.028996,-0.985460,-0.411977,-0.134540,0.901207
0.553480,-0.023533,-0.983348,-0.325566,0.112256,0.938832
0.592812,-0.060654,-0.972786,-0.359729,0.830587,0.425113
0.610782,-0.074522,-0.952438,-0.327371,0.827257,0.456589
0.641182,-0.102393,-0.937617,0.787997,0.598695,0.143615
0.733094,-0.197088,-0.953987,0.431114,-0.251839,0.866440
0.802619,-0.267963,-0.958845,-0.135832,0.522424,0.841797
0.843594,-0.307043,-0.950114,-0.176677,0.632746,0.753935
0.369550,0.141901,-0.987960,0.145376,0.137668,0.979752
0.424082,0.087825,-0.986904,-0.140732,0.010742,0.989989
0.480977,0.031381,-0.985707,-0.411170,0.076167,0.908371
0.532425,-0.019472,-0.981764,-0.327746,-0.152947,0.932304
0.583980,-0.070033,-0.977469,-0.394744,0.371848,0.840182
0.600001,-0.081242,-0.956205,-0.327958,0.897487,0.294891
0.615919,-0.093151,-0.935011,0.349406,0.936860,-0.014442
0.679693,-0.157161,-0.937018,-0.735331,-0.669407,-0.105747
0.780333,-0.262500,-0.959057,0.182572,-0.297143,-0.937216
0.818434,-0.298220,-0.947720,-0.165824,0.468131,0.867961
0.634917,0.005467,-0.369372,0.128558,-0.907434,0.400045
0.566624,0.157025,0.031861,0.780010,-0.621435,0.073503
0.635021,0.118929,0.177962,0.307306,0.825070,-0.474155
0.343466,0.163745,-0.987713,-0.031699,-0.234104,0.971695
0.408882,0.097495,-0.992501,0.147311,0.122394,0.981488
0.458281,0.049164,-0.988523,-0.302121,-0.378309,0.874988
0.506034,0.002381,-0.982609,-0.058838,-0.075577,0.995403
0.556561,-0.047625,-0.979229,-0.320449,0.123886,0.939130
0.589321,-0.077181,-0.965253,0.290838,-0.932025,-0.216199
0.597845,-0.079566,-0.938814,0.097678,0.978320,0.182618
0.645598,-0.125930,-0.932653,0.747519,0.651388,0.130034
0.682874,-0.161222,-0.922514,0.790555,0.608626,0.067800
0.785570,-0.268801,-0.945432,0.366854,0.888780,-0.274751
0.847599,-0.331418,-0.946383,0.649226,-0.321146,-0.689471
0.456021,0.278471,0.044534,-0.202036,-0.974110,0.101450
0.431476,0.316713,0.106918,-0.504520,-0.854295,0.125057
0.356406,0.404962,0.165781,0.435347,-0.836807,0.332006
0.661720,0.076625,-0.000246,0.062137,-0.966391,0.249455
0.317588,0.191762,-0.984404,-0.094228,-0.322850,-0.941748
0.386189,0.122143,-0.989579,0.174712,-0.117040,0.977639
0.448010,0.060236,-0.991058,-0.220831,-0.109118,0.969189
0.493711,0.015830,-0.984087,-0.267770,0.044631,0.962449
0.546087,-0.036280,-0.981341,-0.393146,0.026520,0.919093
0.584905,-0.072701,-0.971660,0.171244,0.976353,0.131951
0.602054,-0.084465,-0.949481,0.250212,-0.957128,-0.145946
0.616433,-0.093570,-0.927302,0.489218,0.867814,-0.086971
0.683081,-0.161368,-0.930928,0.763206,0.482959,0.429264
0.791528,-0.275530,-0.955853,0.304120,0.778747,0.548694
0.835173,-0.317414,-0.947404,-0.454245,0.115422,0.883368
0.333299,0.187419,-0.985284,-0.002542,0.058310,0.998295
0.401182,0.118501,-0.990143,0.051731,-0.057410,0.997010
0.454479,0.065836,-0.988242,-0.239541,-0.218861,0.945896
0.504185,0.016950,-0.983454,-0.158997,-0.106890,0.981476
0.556664,-0.034459,-0.979722,-0.273842,-0.041210,0.960891
0.595893,-0.071298,-0.969125,-0.585127,0.765638,0.267255
0.612838,-0.082926,-0.948143,-0.021003,-0.988353,-0.150724
0.641079,-0.107301,-0.933075,0.806209,0.577231,-0.129735
0.736072,-0.206894,-0.951206,0.029646,-0.292420,0.955830
0.804672,-0.276786,-0.956698,-0.131595,0.608669,0.782435
0.849345,-0.319791,-0.948706,0.378708,-0.428956,-0.820108
0.663261,0.100017,0.006583,0.289056,0.703969,-0.648748
0.650628,0.025072,-0.370076,0.314628,-0.903613,0.290676
0.376022,0.441101,0.177891,0.928074,0.070631,0.365635
0.380541,0.135874,-0.990706,0.089967,-0.158649,0.983228
0.432710,0.084328,-0.988347,-0.265583,0.091390,0.959747
0.485083,0.032356,-0.985953,-0.540389,-0.000822,0.841415
0.542696,-0.024935,-0.984967,-0.448810,-0.285692,0.846729
0.583877,-0.064297,-0.976694,-0.374625,0.337231,0.863673
0.608523,-0.084046,-0.958458,-0.358756,0.901355,0.242596
0.636663,-0.107856,-0.941982,0.562079,0.804236,0.193061
0.682671,-0.152263,-0.934941,-0.702165,-0.702367,-0.116811
0.790296,-0.266425,-0.960570,0.025571,0.458903,0.888118
0.827986,-0.301999,-0.950326,-0.054540,0.652537,0.755791
0.347882,0.179433,-0.986974,0.067308,-0.078309,0.994654
0.415250,0.111080,-0.991480,0.147830,-0.080242,0.985752
0.469475,0.057432,-0.988981,0.335751,-0.016909,-0.941799
0.519692,0.008545,-0.984123,0.054550,0.327133,0.943402
0.566520,-0.037118,-0.978807,-0.351638,0.052363,0.934671
0.604828,-0.072556,-0.968949,-0.657027,0.653592,0.375676
0.625572,-0.087543,-0.948425,-0.130750,0.764572,0.631137
0.677844,-0.139378,-0.945819,0.706573,0.681090,0.192015
0.766882,-0.232389,-0.960782,-0.093833,0.329482,0.939488
0.818434,-0.283096,-0.956346,-0.079075,0.510043,0.856506
0.707113,0.092587,0.021334,0.169472,0.865920,-0.470597
0.482312,0.073684,-0.987397,-0.223629,0.043696,0.973694
0.534789,0.022413,-0.983735,-0.291022,0.496115,0.818032
0.583877,-0.025071,-0.978208,-0.273412,0.070808,0.959287
0.621977,-0.059672,-0.966837,-0.431533,0.693827,0.576527
0.661002,-0.096511,-0.957331,0.492088,0.585509,0.644227
0.727240,-0.164163,-0.961908,0.221594,0.282250,0.933398
0.790810,-0.228182,-0.963598,-0.007265,0.296412,0.955032
0.833119,-0.268528,-0.955677,0.274587,-0.442393,-0.853750
0.366573,0.190086,-0.987221,0.009274,-0.050331,0.998690
0.433635,0.121587,-0.991656,0.115939,0.149771,0.981900
0.374276,0.236732,-0.985848,0.088700,0.079792,0.992857
0.437433,0.172431,-0.989403,-0.150205,0.077728,-0.985595
0.490937,0.119484,-0.987643,-0.127318,0.044223,0.990876
0.542902,0.068914,-0.983770,0.182559,0.023056,-0.982925
0.591066,0.021712,-0.979123,0.199289,-0.161953,-0.966465
0.634197,-0.018633,-0.970357,-0.324020,0.598835,0.732399
0.687600,-0.071436,-0.967048,0.305431,0.141290,0.941674
0.747163,-0.130829,-0.966837,-0.063409,0.030197,0.997531
0.799642,-0.182656,-0.964126,-0.261728,0.033641,0.964555
0.842465,-0.223139,-0.956170,-0.457509,0.275344,0.845501
0.421515,0.259978,-0.992642,0.100431,0.211789,0.972141
0.475226,0.207313,-0.989755,0.195511,-0.060899,-0.978809
0.533557,0.149185,-0.989298,0.157367,0.005215,-0.987526
0.575045,0.110379,-0.980919,-0.134435,0.023404,0.990646
0.625572,0.060509,-0.977539,-0.239483,0.132805,0.961775
0.670862,0.016950,-0.970181,-0.391973,0.128951,0.910895
0.722310,-0.033193,-0.966872,-0.048044,0.057415,0.997194
0.780950,-0.092031,-0.966168,-0.056741,-0.020726,0.998174
0.831478,-0.141054,-0.961239,-0.028871,0.067045,0.997332
0.878099,-0.185179,-0.954022,-0.322194,0.272451,0.906621
0.594968,0.181819,-0.981165,-0.205398,0.007485,0.978650
0.643853,0.134190,-0.975709,0.261406,-0.024204,-0.964925
0.695611,0.083482,-0.972681,-0.265389,0.351667,0.897719
0.734122,0.047625,-0.962894,0.058685,0.074900,0.995463
0.795226,-0.013863,-0.963563,0.054584,0.087410,0.994676
0.852015,-0.070597,-0.963035,-0.122568,0.075613,0.989576
0.897304,-0.113183,-0.955184,0.391643,-0.181401,-0.902059
0.493504,0.280292,-0.990248,-0.259997,0.179874,0.948708
0.544134,0.231124,-0.985777,-0.317506,0.040084,0.947409
0.624854,0.297938,-0.978560,-0.239839,0.211146,0.947573
0.675378,0.248497,-0.974019,-0.285875,0.185468,0.940147
0.732477,0.191762,-0.972540,-0.018615,0.064919,0.997717
0.788447,0.136292,-0.970639,0.025600,0.250964,0.967658
0.843493,0.081806,-0.969196,0.031532,0.173730,0.984288
0.841951,0.270905,-0.302306,0.468611,0.453821,-0.757925
-0.398922,-0.439835,0.632670,-0.473381,-0.485219,-0.735169
-0.375404,-0.359991,0.595001,-0.818608,0.109282,-0.563861
-0.369036,-0.364052,0.614645,0.169782,-0.719124,-0.673821
-0.358152,-0.280574,0.582327,-0.692177,-0.474968,-0.543412
-0.273016,-0.395155,0.288717,-0.591524,0.660349,-0.462644
-0.354864,-0.225797,0.208308,0.971492,0.200543,0.126437
-0.161695,-0.400892,0.389298,0.239952,-0.688339,0.684553
-0.419459,-0.122562,0.589544,0.748263,0.013427,0.663266
-0.279384,-0.266707,0.553952,-0.530397,0.686132,-0.497897
-0.227626,-0.316012,0.578736,-0.029733,0.983056,0.180880
-0.315429,-0.184340,0.182961,0.562650,-0.189657,0.804646
-0.268600,-0.230422,0.187291,0.655366,0.617503,0.434954
-0.342645,-0.150997,0.243478,0.746998,0.482175,-0.457713
-0.094426,-0.402995,0.207428,0.348986,0.930765,0.109017
-0.251040,-0.234347,0.323887,0.517618,-0.286864,0.806090
-0.034454,-0.453420,0.302869,0.953480,-0.134185,0.269944
-0.054788,-0.429609,0.335856,0.834215,0.283085,0.473232
-0.089396,-0.391231,0.373596,0.829092,-0.125592,0.544824
-0.177303,-0.296963,0.434290,0.058008,-0.985729,0.158029
-0.339460,-0.123126,0.548812,0.972198,0.162428,-0.168668
-0.187984,-0.276650,0.531033,0.091159,0.987151,-0.131235
-0.220540,-0.240092,0.567752,-0.151814,0.685304,0.712257
-0.164159,-0.296818,0.566978,0.226865,0.852109,0.471638
-0.128421,-0.331700,0.575638,0.273915,0.815965,0.509089
-0.114763,-0.343328,0.593276,0.054676,0.859789,0.507715
-0.057458,-0.401037,0.593206,0.147896,0.948813,-0.279069
0.062080,-0.505256,0.747016,0.512470,-0.609064,0.605323
-0.335662,-0.076061,0.195283,0.787159,-0.380385,0.485476
-0.302078,-0.108421,0.205316,-0.391834,0.735140,-0.553204
-0.333813,-0.072838,0.243901,0.807459,-0.438496,0.394628
-0.405391,0.012188,0.370639,0.542352,0.769679,0.336821
-0.266751,-0.130410,0.334026,0.580680,-0.378867,0.720604
-0.007341,-0.391094,0.319486,-0.673971,-0.316678,-0.667441
-0.121232,-0.269785,0.390671,0.679351,-0.574726,0.456259
-0.170527,-0.213477,0.458124,0.528366,-0.694984,0.487675
-0.363492,-0.009528,0.562014,0.382125,0.262009,0.886189
-0.179666,-0.198764,0.509101,-0.678411,0.710870,0.185535
-0.215096,-0.159547,0.547122,0.045555,-0.823460,0.565543
-0.236558,-0.134608,0.578314,-0.237375,-0.243447,0.940418
0.062184,-0.424565,0.661539,0.444759,0.754691,0.482318
-0.031066,-0.324972,0.720296,0.752621,0.613867,-0.238178
-0.094120,-0.257174,0.767576,0.901137,0.058818,-0.429527
0.086112,-0.442220,0.719662,0.731049,0.183149,0.657285
0.069884,-0.423309,0.748530,-0.696437,0.678148,0.234715
-0.384954,0.090766,0.624503,0.132587,-0.964724,0.227440
-0.229268,-0.068913,0.583841,-0.093528,-0.015581,0.995495
0.023262,-0.322877,0.572153,-0.405709,0.777766,0.480083
-0.109627,-0.181536,0.648618,-0.568919,0.783211,-0.250822
-0.091656,-0.197789,0.663334,0.412739,-0.892673,0.181055
0.026343,-0.318252,0.639113,0.200544,0.618048,0.760131
0.122156,-0.415887,0.623904,0.953877,0.022654,0.299343
0.074917,-0.364479,0.665552,-0.508681,0.753909,0.415770
-0.068652,-0.212357,0.744024,0.831847,-0.554052,0.032511
-0.052734,-0.226644,0.759409,-0.433671,-0.530919,0.728049
0.048215,-0.329460,0.742440,0.899277,0.081908,0.429642
0.112710,-0.394035,0.738954,0.776647,-0.579087,-0.247946
-0.282258,-0.059672,0.181377,-0.699342,0.357498,-0.618963
-0.399229,0.065554,0.256927,0.816624,-0.336672,0.468804
-0.231835,-0.106873,0.207886,0.137353,0.985848,-0.096109
-0.113428,-0.228465,0.179792,0.206382,-0.057978,0.976752
-0.256174,-0.073821,0.291287,0.846403,0.490377,0.207682
-0.266137,-0.058269,0.343250,-0.379141,-0.849669,0.366488
-0.216224,-0.107856,0.345115,-0.552580,0.724404,-0.412183
-0.174839,-0.148757,0.351523,0.872873,0.459953,-0.162901
-0.426031,0.116543,0.481535,0.939614,-0.261084,0.221271
-0.118458,-0.202269,0.374934,0.714939,-0.158944,-0.680881
-0.143825,-0.173414,0.409576,0.911843,-0.382664,-0.148696
-0.332374,0.030954,0.557367,0.162758,0.284607,-0.944727
-0.168574,-0.137276,0.512832,0.976053,0.057762,0.209723
-0.045031,-0.223139,0.187221,-0.692274,0.711673,0.119488
-0.218794,-0.038520,0.286429,0.747453,0.655978,0.104911
-0.146906,-0.108421,0.304172,0.727416,0.023146,0.685806
-0.056740,-0.199884,0.289949,-0.454603,-0.526693,-0.718283
-0.014224,-0.241631,0.295230,0.671124,0.227516,0.705570
-0.155737,-0.077181,0.497307,0.314284,-0.313959,0.895910
-0.265109,0.039358,0.565147,-0.575808,0.438925,-0.689775
-0.303209,0.081387,0.602922,0.895018,-0.252121,0.367939
-0.289140,0.069615,0.620243,0.704125,-0.489806,0.514100
-0.355892,0.141901,0.669671,-0.402445,0.843305,-0.356195
-0.056019,-0.161086,0.638726,-0.463051,0.395520,-0.793188
0.127293,-0.346970,0.610526,0.957404,0.105551,-0.268769
0.095458,-0.311523,0.645203,-0.253534,0.762938,0.594682
-0.016791,-0.191762,0.712586,0.163835,-0.674827,-0.719560
-0.024390,-0.181536,0.738145,-0.803614,0.532935,-0.264926
0.106239,-0.315311,0.709453,0.926313,-0.067034,0.370744
0.039384,-0.237707,0.801408,0.989113,0.047897,0.139147
0.031273,-0.227199,0.825876,0.607131,-0.504387,0.613992
-0.215200,0.012324,0.185601,-0.438047,0.680731,-0.587129
-0.298279,0.102676,0.247104,-0.096324,-0.251730,0.962992
-0.109012,-0.093433,0.188594,0.340189,0.836191,0.430182
-0.214993,0.023533,0.283330,-0.497775,-0.814388,-0.298315
-0.161281,-0.024370,0.331385,0.441563,-0.864288,0.240890
0.031273,-0.223703,0.273086,0.845097,0.067101,0.530385
-0.174736,-0.004766,0.385355,0.398059,0.591873,-0.700882
-0.283901,0.112482,0.455695,-0.389579,-0.917157,-0.083968
-0.293453,0.125229,0.482450,0.838307,0.536908,-0.094714
0.059410,-0.241767,0.356698,-0.774256,0.586622,-0.237494
-0.059410,-0.111918,0.453336,0.663421,-0.711132,-0.232730
-0.148755,-0.015411,0.514241,-0.681398,0.344504,-0.645766
-0.186135,0.026192,0.553037,-0.523293,0.414260,-0.744684
-0.370678,0.222164,0.652385,0.666863,-0.366345,0.648911
-0.312965,0.164591,0.650766,-0.555513,0.823198,-0.117262
0.007345,-0.157161,0.633621,0.316188,-0.407210,0.856858
0.117637,-0.269502,0.612498,0.827387,0.536707,0.165460
0.099153,-0.247795,0.642000,0.583209,0.684722,-0.437062
0.087548,-0.233364,0.668615,0.815243,0.521056,-0.252744
0.014942,-0.154785,0.720085,0.450274,0.268100,0.851690
0.142490,-0.285610,0.691674,0.947420,0.205304,0.245450
0.007755,-0.134335,0.833234,-0.548508,-0.359498,0.754917
0.023055,-0.148056,0.848654,-0.525227,0.750026,-0.401992
-0.174839,0.048044,0.180461,-0.427805,0.624023,-0.653895
-0.072144,-0.045103,0.257103,-0.259244,-0.637974,-0.725108
0.027779,-0.144696,0.262207,-0.717842,-0.177233,-0.673269
-0.111990,0.007981,0.369794,0.141669,-0.758348,0.636269
-0.172373,0.074377,0.418588,0.780146,0.130702,0.611791
-0.211398,0.117800,0.458863,-0.646924,-0.257579,0.717734
-0.468858,0.393334,0.614047,-0.406430,0.379886,-0.830964
-0.127497,0.038383,0.493681,0.091864,0.995646,0.015830
-0.107677,0.020592,0.508220,0.570711,0.008188,0.821110
-0.144443,0.061775,0.546770,0.758618,-0.629561,-0.167786
0.030449,-0.118646,0.497201,0.297657,0.768391,-0.566547
-0.298897,0.229166,0.655871,-0.434650,0.886626,-0.158032
-0.357534,0.293176,0.702658,0.676910,0.730483,-0.090483
-0.325906,0.262919,0.712445,0.070762,0.996570,0.042903
0.095147,-0.172295,0.586024,0.765316,0.371794,0.525414
0.101309,-0.175936,0.606689,-0.692001,-0.368622,-0.620687
0.123698,-0.194002,0.642915,-0.687805,-0.017417,0.725686
0.071733,-0.137130,0.686393,0.802180,0.202869,0.561562
0.142697,-0.205911,0.703081,0.984992,0.160044,-0.064622
0.027575,-0.080541,0.792361,-0.180215,-0.639742,0.747163
0.065161,-0.116825,0.799226,0.974005,0.217190,-0.064359
0.107163,-0.158008,0.805351,-0.804152,0.216540,-0.553580
-0.003543,-0.018907,0.351452,-0.378333,0.891997,-0.247398
-0.147934,0.135591,0.435804,0.813783,0.218772,-0.538420
-0.250630,0.248633,0.525330,-0.444932,0.661348,-0.603866
0.002208,-0.016248,0.419257,0.405679,0.610662,0.680086
-0.374684,0.381707,0.599648,0.676314,0.363115,0.640895
-0.106649,0.103377,0.511107,-0.715663,-0.130918,-0.686067
0.048626,-0.053652,0.493822,0.460609,0.875203,0.147848
0.110141,-0.115004,0.491252,0.373157,-0.882025,-0.287725
0.116920,-0.116124,0.534695,0.383609,0.699164,-0.603335
0.070809,-0.062894,0.598944,0.969742,0.125737,0.209262
0.128114,-0.113884,0.644394,0.780404,0.605185,-0.157225
0.119486,-0.102539,0.669671,0.812041,-0.073560,0.578946
0.107678,-0.079139,0.764654,-0.095239,-0.974145,-0.204869
0.099563,-0.067793,0.790283,0.128081,0.932185,0.338566
0.084981,-0.044966,0.860623,0.216514,0.623092,-0.751584
0.040308,0.010503,0.231157,-0.075719,0.626931,-0.775387
-0.143722,0.212075,0.381623,0.876116,0.028220,-0.481273
0.016998,0.046505,0.337159,-0.305698,0.920548,-0.243188
-0.014427,0.082507,0.373808,-0.423563,0.791631,-0.440357
-0.076867,0.151143,0.424256,-0.140991,-0.968501,-0.205248
-0.048319,0.123827,0.436015,-0.266081,0.952198,-0.150066
0.113942,-0.043282,0.391938,0.265377,-0.192845,0.944662
0.096379,-0.022276,0.422179,0.506372,0.776749,0.374498
-0.208317,0.300042,0.571695,-0.452327,0.889862,-0.059549
0.115481,-0.025071,0.554234,-0.356702,-0.812937,0.460323
0.054687,0.044128,0.623411,0.975913,0.135470,-0.171002
0.111272,-0.012324,0.623728,0.132191,-0.937205,0.322758
-0.027882,0.141619,0.746735,0.528887,0.240014,0.814046
0.044210,0.084884,0.872030,0.275322,0.474878,0.835876
0.118769,0.009528,0.865411,0.213581,-0.926968,0.308406
-0.333503,0.472896,0.300722,0.418394,0.746232,-0.517768
-0.240770,0.384648,0.332406,-0.211020,-0.823999,0.525829
-0.142593,0.284635,0.313220,0.446539,0.889933,-0.092851
-0.044928,0.190642,0.343038,0.663212,0.686416,0.298300
-0.137457,0.290654,0.406513,0.496429,0.846291,-0.193264
0.074403,0.074522,0.363739,-0.097943,-0.892849,0.439576
0.024597,0.129854,0.407851,-0.366025,0.868703,0.333737
0.140744,0.064853,0.815983,0.809920,-0.400646,-0.428384
0.109630,0.118646,1.000000,-0.203552,0.978924,-0.016574
0.045342,0.176775,0.314909,-0.358306,-0.211531,-0.909325
0.065572,0.170610,0.426052,0.477409,-0.810029,0.340492
0.026033,0.214597,0.465411,-0.447499,0.688575,-0.570622
-0.079230,0.328195,0.532090,0.552456,-0.511487,0.658160
0.139719,0.147082,0.825946,0.787609,0.614440,-0.046208
-0.154299,0.489140,0.604999,0.585103,-0.686902,0.431068
-0.120718,0.528083,0.559233,0.495489,-0.524182,0.692621
-0.008473,0.412946,0.534906,0.508140,-0.769317,0.387229
0.065778,0.388854,0.338638,0.488358,-0.193146,0.851000
-0.112914,0.601062,0.600035,0.192831,-0.857482,0.477013
0.048729,0.434098,0.555466,-0.317600,0.947517,0.036634
0.067728,0.417427,0.570956,0.786293,-0.015096,0.617670
0.051810,0.460285,0.779440,0.673522,0.202134,0.710992
0.125958,0.374705,0.184052,0.278101,-0.785512,0.552839
-0.010732,0.535786,0.364619,0.402471,-0.770510,0.494298
0.073889,0.449504,0.351488,0.833780,0.236215,0.499012
0.065058,0.480881,0.519557,-0.207028,0.747854,-0.630756
-0.012889,0.565906,0.575286,0.827374,-0.408802,0.385140
-0.017098,0.573610,0.600282,0.359869,0.841137,-0.403712
0.069680,0.494466,0.655166,-0.622602,0.300168,-0.722679
0.086316,0.480043,0.670516,0.783225,-0.054625,0.619334
0.049550,0.533692,0.796620,-0.424304,-0.789224,0.443950
0.136225,0.424993,0.195740,0.250770,-0.858908,0.446532
-0.002105,0.588315,0.377645,-0.431316,0.700086,-0.569074
0.070502,0.524441,0.439852,-0.044209,0.919688,0.390153
0.088575,0.542797,0.347861,-0.471656,0.341607,-0.812924
0.099360,0.697859,0.385636,0.422416,-0.902859,0.080059
0.145367,-0.587194,0.759057,0.693588,0.501533,0.517107
0.153788,-0.432132,0.768104,0.968799,-0.247122,-0.018938
0.270656,-0.531725,0.246013,0.063130,-0.981503,0.180737
0.218794,-0.474717,0.292660,0.129872,-0.795898,0.591337
0.153992,-0.362513,0.712656,0.685567,0.573325,0.448661
0.306907,-0.519260,0.674987,0.594893,0.802750,-0.041173
0.246831,-0.230003,0.664566,0.060115,-0.984410,0.165300
0.244161,-0.224677,0.688541,-0.104292,-0.706236,0.700252
0.163234,-0.131393,0.787009,0.476986,-0.856912,-0.195412
0.208731,-0.331555,0.208344,0.711724,0.532932,0.457639
0.282262,-0.396411,0.274952,-0.003676,-0.889765,0.456405
0.370989,-0.486900,0.262207,-0.127985,-0.880611,0.456228
0.180901,-0.255917,0.597113,0.112469,0.812274,0.572331
0.182646,-0.250172,0.665482,0.961587,-0.212262,-0.174056
0.188601,-0.226498,0.220349,0.813762,0.312569,0.489992
0.316149,-0.357469,0.190706,0.575780,0.399010,0.713630
0.199899,-0.200448,0.523499,-0.078407,0.838532,0.539181
0.160978,-0.154084,0.585883,0.762815,-0.335310,0.552883
0.255559,-0.250172,0.571167,0.981695,0.171472,0.082900
0.183775,-0.166968,0.667347,0.000761,0.211743,0.977325
0.196612,-0.150578,0.188382,0.765839,0.044559,0.641487
0.252582,-0.206612,0.188030,0.764691,0.197526,0.613376
0.152864,-0.075359,0.445555,-0.154814,0.954868,0.253494
0.201234,-0.111918,0.541877,-0.422890,0.756521,0.498839
0.205340,-0.107856,0.608132,-0.120099,0.446707,0.886583
0.157073,-0.054772,0.650379,0.327498,0.928740,0.173746
0.315225,-0.214452,0.633691,-0.471327,0.697942,0.539192
0.255559,-0.149322,0.679352,0.692160,-0.083557,-0.716891
0.155020,-0.041743,0.740574,-0.676241,-0.691442,-0.254176
0.188808,-0.074239,0.749974,0.518815,0.748647,0.412746
0.254942,-0.140918,0.745855,-0.289622,0.922995,0.253376
0.181208,-0.052951,0.862806,-0.159538,0.945048,0.285361
0.184802,-0.053926,0.882697,0.321830,0.929604,0.179615
0.175971,-0.042299,0.907974,0.659007,0.727624,-0.190454
0.271477,-0.134052,0.936877,-0.008614,-0.818346,0.574662
0.208935,-0.081806,0.185460,0.939946,-0.060826,0.335860
0.191785,-0.060791,0.216863,-0.611354,0.759371,-0.222718
0.164262,-0.014145,0.373068,0.502487,0.621345,0.601197
0.222903,-0.066536,0.419785,0.240936,-0.927937,0.284398
0.229064,-0.061073,0.510685,0.502161,0.863928,-0.038258
0.239435,-0.069477,0.528991,0.336368,-0.779746,-0.528065
0.265009,-0.093006,0.542229,-0.689871,0.716423,0.103999
0.187987,-0.009802,0.596480,-0.434260,0.899121,0.054766
0.212633,-0.032638,0.609611,0.860300,-0.339931,-0.379908
0.290372,-0.111080,0.600739,0.907925,0.167271,0.384308
0.360104,-0.180835,0.595353,-0.262165,-0.548019,-0.794320
0.199899,-0.008263,0.703573,-0.602451,0.568364,0.560370
0.162106,0.034177,0.741172,-0.381661,0.319777,0.867224
0.216842,-0.020454,0.742334,-0.539475,0.021506,-0.841727
0.208831,-0.009101,0.768069,0.721088,-0.606066,-0.335731
0.151836,0.055893,0.833269,-0.404271,-0.878394,-0.254930
0.194559,0.014145,0.839148,-0.610957,-0.500129,-0.613679
0.225163,-0.015411,0.848724,0.897723,-0.440180,-0.018286
0.372120,-0.165848,0.814997,0.807322,0.588597,0.042245
0.434146,-0.227764,0.813836,-0.683018,0.444606,0.579493
0.450784,-0.242187,0.829748,0.624468,-0.590432,-0.511302
0.399026,-0.185743,0.870551,-0.584754,-0.763460,0.274211
0.217562,-0.010221,0.193417,-0.894948,0.214062,-0.391465
0.168885,0.043701,0.238198,0.043418,-0.788067,0.614057
0.186238,0.034596,0.302552,-0.388650,0.921045,-0.025047
0.203594,0.019754,0.319592,0.098712,0.622002,0.776768
0.163645,0.064434,0.360711,0.385271,0.614810,0.688168
0.248370,-0.012324,0.419609,-0.257455,0.048031,-0.965096
0.270860,-0.033193,0.433234,0.563029,0.403545,-0.721214
0.263980,-0.022831,0.459884,0.671441,0.698684,0.246996
0.257509,-0.013307,0.486147,0.939798,0.106136,0.324830
0.247856,0.000141,0.513853,0.846109,-0.437902,-0.303878
0.252682,-0.002099,0.534413,0.986739,-0.021068,-0.160943
0.255353,-0.001816,0.555853,0.960408,-0.066873,0.270452
0.236458,0.020592,0.586728,0.280447,0.943501,-0.176511
0.228858,0.031236,0.612005,0.702604,-0.701882,0.117089
0.234505,0.028295,0.632811,0.203244,0.777173,-0.595562
0.291604,-0.028431,0.633128,0.874666,0.392915,-0.283862
0.232659,0.036417,0.679493,-0.050837,0.987870,0.146727
0.223107,0.049028,0.705158,0.001641,-0.623988,0.781432
0.188087,0.088107,0.740644,-0.520042,-0.252580,-0.815941
0.205854,0.072419,0.756311,-0.417162,0.686095,0.596028
0.306600,-0.030535,0.738708,-0.718804,-0.600762,0.349866
0.204725,0.082088,0.823060,-0.112128,-0.993290,-0.028313
0.204725,0.085029,0.845379,0.578468,0.754807,-0.309259
0.226498,0.064853,0.858300,0.888295,0.450159,0.091041
0.252272,0.040341,0.869671,0.915850,0.322872,0.238688
0.277742,0.016667,0.882028,0.846708,0.437174,-0.303256
0.240566,0.058269,0.917303,-0.470274,-0.790440,0.392488
0.304648,-0.005741,0.915191,-0.442766,-0.585584,0.679006
0.394096,-0.096511,0.903468,0.426280,0.828031,-0.364210
0.294174,0.010366,0.962648,-0.579105,-0.158183,-0.799760
0.288012,0.018907,0.374054,0.086626,-0.993367,-0.075615
0.292118,0.017787,0.396268,0.187511,0.960102,-0.207471
0.286163,0.026893,0.422602,-0.587159,-0.806768,0.066111
0.313069,0.001680,0.434395,0.637201,0.767275,0.072557
0.315532,0.002099,0.456293,0.640619,0.737068,0.215262
0.287498,0.034322,0.491428,0.763187,-0.004829,0.646160
0.247242,0.079703,0.530576,0.981916,0.125690,-0.141570
0.333916,-0.007981,0.518888,0.167536,0.985835,-0.007829
0.345212,-0.017086,0.537793,-0.231462,0.956974,0.175004
0.435891,-0.109122,0.524732,0.720182,0.682204,-0.126239
0.373866,-0.041179,0.572047,0.490110,0.374067,0.787315
0.327651,0.010229,0.613132,0.345028,0.889668,0.299076
0.299204,0.043145,0.647562,0.039660,0.971332,0.234397
0.417510,-0.077882,0.622883,0.718351,-0.608340,0.337482
0.209345,0.142875,0.727935,-0.277207,-0.831360,-0.481660
0.166214,0.190787,0.767400,0.201532,0.792531,0.575569
0.240463,0.115988,0.760676,0.982395,-0.029658,0.184445
0.316149,0.039358,0.752896,-0.433870,0.744654,-0.507196
0.281337,0.078720,0.788066,-0.722164,0.237888,-0.649529
0.260900,0.103094,0.818272,0.195843,0.705892,0.680707
0.310295,0.053926,0.820736,-0.066030,-0.257132,-0.964118
0.354867,0.010229,0.825981,-0.280672,-0.162157,0.946007
0.223517,0.150160,0.898117,-0.193170,-0.979420,-0.058502
0.428395,-0.060928,0.842493,-0.632746,0.583434,-0.509154
0.234609,0.144414,0.936913,0.524217,-0.808159,0.268467
0.221772,0.160950,0.963070,-0.409676,0.870351,-0.273231
0.378793,-0.000696,0.925964,0.900229,0.421421,-0.109509
0.254121,0.029834,0.194825,-0.107104,0.990150,0.090180
0.285135,0.000141,0.206196,-0.187127,0.964276,-0.187497
0.240156,0.050849,0.250379,-0.689190,0.162595,-0.706102
0.212529,0.082781,0.286675,0.489141,-0.870130,0.060127
0.210991,0.087269,0.311002,-0.537713,0.843128,0.000292
0.237175,0.062894,0.323429,0.416871,0.894534,0.161330
0.235944,0.067520,0.348425,0.122574,0.972584,0.197624
0.275790,0.028859,0.354973,-0.223107,0.973119,0.057126
0.289758,0.072000,0.195001,0.485611,0.873207,-0.041125
0.289654,0.075223,0.219785,-0.361828,-0.917319,0.166154
0.293660,0.074377,0.241965,-0.305369,0.509705,0.804333
0.288833,0.082362,0.268580,-0.104955,0.994392,-0.013022
0.313787,0.058834,0.282310,-0.231431,-0.871293,-0.432769
0.319023,0.056867,0.304735,0.746842,0.660726,-0.075288
0.339360,0.038665,0.319627,0.977889,-0.201418,-0.056243
0.355789,0.024516,0.336138,-0.232876,0.868217,0.438142
0.237382,0.172995,0.572364,0.446662,0.889563,-0.095762
0.555226,-0.157307,0.466538,0.431852,0.851328,0.297901
0.509525,-0.106181,0.508643,-0.586198,0.633317,-0.505253
0.626393,-0.225797,0.485372,0.343682,0.761963,0.548904
0.687294,-0.286311,0.484809,0.122305,-0.916461,0.380973
0.439179,-0.020728,0.628094,0.991901,-0.124188,-0.026632
0.374480,0.050148,0.676571,0.165681,-0.399831,0.901490
0.301464,0.129290,0.727020,-0.108610,-0.556024,0.824040
0.514762,-0.090911,0.666608,-0.150393,0.988626,-0.000064
0.223414,0.216837,0.802605,0.515650,0.825633,-0.228989
0.271991,0.169071,0.806231,-0.075354,0.214938,0.973716
0.333506,0.110242,0.825348,0.819005,0.573368,-0.021907
0.401900,0.041606,0.821757,0.603614,0.797233,-0.008285
0.329604,0.119903,0.870692,0.940627,0.192462,-0.279605
0.319230,0.133770,0.896744,0.710774,-0.051595,0.701526
0.266240,0.191762,0.938708,-0.120122,0.677108,0.726013
0.312555,0.146518,0.943003,-0.668609,0.734239,0.117707
0.208320,0.241913,0.301003,-0.586376,-0.705457,0.398113
0.503671,-0.063031,0.223447,0.100292,0.693870,0.713082
0.535713,-0.093570,0.233691,0.768972,-0.598647,-0.224286
0.575352,-0.131949,0.241789,-0.481163,0.711453,-0.512169
