0.044934,-0.077434,-0.022327,0.057087,-0.783039,0.619348
0.616482,0.187751,0.713181,-0.196662,0.210908,-0.957519
0.561815,-0.200893,0.707900,0.882959,-0.046740,-0.467118
0.548961,-0.490739,0.770985,0.630198,0.758415,0.166301
-0.033585,-0.799970,0.645857,0.962308,-0.271013,0.022699
0.296370,0.648754,0.722344,0.996041,-0.044273,0.077086
0.161039,-0.093419,-0.095557,-0.760412,-0.620540,-0.191585
0.762115,0.471102,0.577209,0.198472,0.939968,-0.277613
-0.207770,0.200842,0.817261,0.887489,0.459915,0.029005
0.497193,-0.611965,0.594374,0.948550,-0.014797,-0.316282
-0.056170,-0.213122,0.807012,0.999649,-0.014376,0.022264
-0.408360,0.025118,0.642435,0.920116,0.332205,0.207429
-0.337888,-0.605876,0.692296,0.885255,-0.177468,0.429918
0.566566,-0.290303,0.873488,0.877093,0.461601,-0.132783
0.241764,0.473487,0.905931,-0.526047,-0.480546,-0.701677
-0.581562,-0.479474,0.792985,0.879421,0.357102,0.314796
-0.300074,-0.357792,0.732102,0.833697,0.536595,0.130445
0.304071,-0.031309,0.470317,-0.624026,0.724620,0.292433
0.634316,0.489268,0.557559,-0.044824,0.968646,-0.244368
-0.356535,0.082407,0.488182,-0.125995,0.971415,-0.201192
-0.066187,-0.404729,0.856828,0.557377,0.810182,-0.181483
0.054548,-0.048967,-0.095601,0.723955,0.654444,0.218157
-0.109850,-0.723246,0.799500,-0.202746,0.976918,-0.067269
0.501187,-0.319480,0.778333,0.961784,0.270437,0.042842
-0.498232,0.578069,0.608149,-0.833778,-0.551822,-0.017498
-0.021311,-0.080885,0.830143,0.580184,0.786779,0.210632
0.131219,0.748871,0.724739,0.921299,0.209980,-0.327287
0.000231,0.227381,0.969313,0.232563,0.954482,-0.186758
0.309977,-0.026539,0.856442,0.833438,-0.463300,0.301220
0.210088,0.329477,0.702188,0.463234,0.532693,-0.708274
-0.199376,0.270564,0.933182,0.993663,-0.071476,-0.086743
-0.478892,-0.636576,0.776251,0.299906,-0.951756,-0.064930
0.109617,-0.024205,-0.310575,0.910805,0.255476,-0.324293
-0.028549,0.392449,0.509572,0.085384,0.778957,-0.621237
-0.280967,0.029989,0.611109,-0.213340,0.975449,-0.054633
-0.324860,0.220379,0.933836,0.591162,0.486853,-0.643041
-0.073775,-0.672299,0.689604,0.461400,-0.879821,-0.114131
0.681450,0.517735,0.601946,0.394107,0.504433,0.768262
0.741040,0.479068,0.440076,0.250210,-0.819620,0.515381
0.239562,0.562744,0.585449,-0.094634,-0.739031,0.666991
-0.396721,-0.059167,0.504782,0.445325,0.773458,0.451053
0.383750,-0.543918,0.789623,0.986544,0.130510,0.098475
-0.136082,-0.059471,0.877995,0.980458,0.031300,0.194222
-0.121316,0.228954,0.795053,-0.777969,0.627610,-0.029481
0.234698,0.534835,0.860859,-0.868154,0.481898,-0.118671
0.067116,-0.146851,-0.820370,-0.055862,0.984610,0.165599
0.226764,-0.136195,-0.997070,0.321037,0.059583,0.945191
-0.065610,-0.215406,0.380026,0.356714,-0.923297,-0.142400
-0.087728,-0.056782,0.439437,-0.809519,0.167343,-0.562740
-0.520877,-0.015071,0.520684,-0.529524,-0.574082,-0.624527
0.651458,-0.326432,0.822601,0.539063,0.778517,0.321438
-0.307892,0.764804,0.377839,-0.048045,-0.988158,0.145724
-0.211707,-0.271934,0.330462,-0.680072,-0.615908,-0.397693
0.087382,-0.110012,0.216148,-0.682027,-0.725113,-0.095136
0.368291,-0.419800,0.551088,0.180755,-0.983492,-0.008436
-0.288495,0.267824,0.982373,0.983596,-0.110881,-0.142281
0.143727,-0.300096,0.589644,0.408153,-0.301670,0.861630
0.425445,-0.366164,0.491811,-0.510237,0.660396,0.550940
0.243849,-0.087126,0.449195,-0.160546,0.864190,0.476866
-0.482020,0.790684,0.359365,-0.052062,0.912174,-0.406482
0.418323,0.503324,0.679385,-0.796399,0.569154,0.204480
-0.052696,-0.855483,0.746679,0.680875,0.518515,-0.517253
-0.105740,0.803471,0.635117,-0.729549,-0.645544,0.225902
-0.044761,0.044806,0.373124,-0.070732,0.995064,-0.069599
-0.076899,-0.041001,0.439466,-0.717204,0.531349,-0.450872
-0.344837,-0.007307,0.626117,-0.403693,-0.864073,-0.300681
0.081070,0.558482,0.586253,-0.864386,-0.175421,0.471237
0.681913,0.098594,0.726732,0.033582,-0.984914,0.169753
-0.108574,0.086873,0.497285,-0.291404,0.920189,0.261410
0.779024,0.468463,0.567718,0.169747,0.948923,-0.265952
0.184549,0.742985,0.515001,-0.237209,-0.901658,0.361586
-0.013899,0.053585,0.549615,0.895769,0.417767,0.151882
0.131972,-0.063277,-0.566796,-0.028948,0.999542,-0.008797
-0.383810,-0.440909,0.751975,0.124639,0.537790,0.833815
0.365396,-0.033338,0.766061,0.723065,-0.595872,0.349448
0.128091,-0.113970,-0.739137,-0.689087,-0.720524,0.077490
0.073252,-0.148069,-0.281524,0.897798,-0.302749,-0.319847
0.020614,0.127112,0.939265,0.807166,0.107359,0.580479
0.672996,-0.445578,0.823553,-0.684058,0.092353,-0.723558
0.230298,0.496981,0.399810,0.333456,-0.807240,0.487002
0.316809,-0.109200,0.516459,-0.668337,0.734936,0.114871
-0.549770,-0.043639,0.539872,0.459698,0.662624,0.591276
0.398170,0.011265,0.789296,-0.384204,0.907132,-0.171751
0.537322,-0.319379,0.679429,0.803872,0.385982,-0.452557
0.433839,-0.137312,0.752257,0.711563,0.412685,-0.568655
-0.076090,0.022682,0.739688,0.103421,0.946315,0.306256
-0.142451,0.793728,0.674119,-0.684390,0.587765,-0.431443
0.200358,0.265134,0.972273,-0.592838,0.676651,-0.436678
-0.206208,0.049881,0.443140,-0.606746,0.266239,-0.748984
-0.059298,-0.613894,0.585509,0.851006,-0.522898,0.048653
0.417627,-0.570406,0.775180,0.720357,0.633460,-0.282513
-0.744804,-0.113716,0.675964,0.423985,0.905440,0.020380
0.567548,-0.708784,0.680560,-0.647810,0.429090,-0.629463
0.122705,0.083879,0.493715,0.423834,0.806748,-0.411731
-0.089524,0.475516,0.566305,0.843391,-0.337480,0.418089
0.301349,0.271985,0.328127,0.417315,0.629477,-0.655445
0.291273,0.610849,0.738171,0.996440,0.027191,0.079800
0.231454,0.493277,0.878174,-0.383038,0.784773,0.487251
0.916151,0.810220,0.586461,0.783793,-0.547848,0.292457
-0.176501,0.722180,0.619736,0.905911,0.423467,0.000353
-0.092535,-0.367737,0.606616,0.957129,0.241131,0.160501
0.453702,0.019130,0.446681,-0.568153,0.690577,0.447555
-0.280271,-0.453443,0.857245,0.901344,-0.190280,0.389066
0.393653,0.376414,0.878858,0.594847,0.759453,-0.263415
-0.366958,-0.484396,0.872566,0.939992,-0.174384,0.293266
-0.113268,-0.235754,0.823984,0.931180,0.362948,0.034258
-0.344374,0.104836,0.801196,0.933068,0.092746,0.347538
-0.094794,-0.713554,0.629479,0.500057,-0.849385,-0.168787
0.044125,-0.966915,0.499457,0.756199,-0.605249,0.248670
-0.099254,-0.257066,0.252592,-0.963789,0.080467,-0.254237
0.735593,0.734764,0.617862,0.823696,-0.534374,0.189655
0.470321,-0.083777,0.827183,0.792507,-0.422114,-0.440174
-0.563667,-0.423809,0.768650,-0.180071,-0.384836,0.905249
-0.098385,-0.290760,0.578175,0.967530,0.252009,-0.019431
0.699401,0.142741,0.747304,0.066091,-0.948993,0.308291
0.672187,-0.461917,0.800765,0.213782,-0.973570,0.080369
-0.906594,0.133455,0.617475,-0.165722,-0.592295,0.788494
-0.256240,0.156442,0.930846,0.446304,-0.893711,-0.045740
0.085760,-0.286954,0.306618,0.492134,0.707270,0.507517
0.096416,-0.070990,-0.834679,-0.713124,-0.637272,-0.292129
-0.079681,-0.143147,0.744507,0.952711,-0.288589,-0.095171
0.046846,-0.430761,0.393384,0.966030,0.250564,0.063270
0.625455,0.102045,0.758311,0.023937,-0.948044,0.317236
0.139267,0.145329,0.518795,0.808763,-0.585675,-0.053725
0.078928,-0.132390,0.794368,0.809001,0.585315,0.054078
0.021021,-0.400670,0.753670,-0.041163,0.934515,0.353535
0.025248,-0.008373,0.308924,0.277263,0.953424,0.118776
0.070703,-0.234485,0.909783,0.943789,0.079188,0.320923
0.260467,0.132592,0.647523,0.511604,0.699640,0.498763
-0.082346,-0.810220,0.735969,0.798425,0.500423,-0.334804
0.217730,0.371594,0.864519,0.729707,-0.603425,0.321569
-0.210378,-0.246917,0.154090,0.579794,-0.814706,0.009660
-0.317852,0.197087,0.499383,0.897717,-0.002398,0.440565
0.394869,-0.539605,0.698321,0.562194,0.783885,-0.263558
-0.531992,-0.229918,0.660553,0.067806,0.930939,0.358824
0.204819,0.710966,0.472786,0.993897,-0.092508,0.060094
-0.264578,0.268585,0.939176,0.066977,0.870116,0.488275
0.219295,0.045212,0.245050,-0.102312,-0.869586,0.483066
0.758122,0.692444,0.635920,0.994842,-0.101439,-0.000483
0.117262,-0.056782,-0.681899,-0.229288,-0.972533,-0.040078
-0.157854,-0.734105,0.681690,0.960007,-0.169308,-0.222982
0.016097,0.085249,0.923052,0.948291,-0.270848,0.165488
0.029068,-0.092302,-0.358829,0.813235,0.485083,-0.321469
-0.141292,0.050845,0.838354,0.935708,-0.352739,-0.005024
0.352248,-0.088547,0.737948,0.977483,0.210962,0.004627
0.011234,-0.494900,0.439154,0.972213,-0.228701,0.049983
-0.261740,0.146141,0.925149,0.022503,0.999742,-0.002930
-0.434016,-0.561120,0.765615,0.087287,0.981128,0.172537
0.102842,-0.066372,0.278162,0.622108,0.685330,-0.378556
0.395855,-0.427006,0.454847,0.997797,0.022561,-0.062394
-0.294804,-0.268534,0.711946,-0.703599,0.666642,-0.246042
0.266027,0.692394,0.480953,0.693075,0.527066,-0.491781
0.623313,0.138073,0.783048,0.128142,-0.974155,0.186015
0.129017,-0.157051,-0.730986,0.608482,0.787127,-0.100901
-0.602987,-0.317857,0.753834,-0.131111,-0.938509,-0.319392
-0.174243,-0.108794,0.890743,-0.815172,0.576806,0.052813
0.116682,-0.122089,0.208116,0.493679,0.869088,0.031093
0.483352,-0.770082,0.670579,-0.647027,-0.762378,-0.011699
0.342695,-0.308977,0.412751,0.164593,0.982098,0.091609
0.028722,-0.187446,0.354218,-0.487210,0.860660,0.147953
0.216920,0.381540,0.855504,0.746242,-0.665174,-0.025830
0.712373,0.508804,0.589391,0.605487,0.622310,-0.496101
0.020848,0.016441,0.519137,0.755556,0.647479,0.099531
0.062366,0.069214,0.993544,0.116606,0.981000,-0.155056
-0.478546,0.074441,0.496988,0.242283,-0.855801,0.457061
0.177717,-0.070787,0.156262,0.918395,0.199588,-0.341636
-0.348428,-0.146395,0.539277,-0.714944,-0.453626,-0.532051
0.015288,-0.430202,0.419861,0.940131,0.189167,0.283496
0.049221,0.015325,0.326446,-0.654888,-0.726103,0.209514
-0.538421,0.777389,0.409865,0.934461,0.041244,-0.353668
-0.407088,0.293551,0.443289,0.269340,0.911807,-0.309943
0.008279,0.183285,0.866542,0.843567,0.384203,0.375210
0.357981,-0.269600,0.309519,0.348659,0.934285,0.074485
0.066013,-0.073172,0.920032,0.958385,0.264245,0.108039
-0.214082,-0.463541,0.711693,0.874520,0.417749,0.246375
-0.274131,0.830213,0.408021,-0.223695,-0.928976,0.294895
-0.042852,0.395798,0.136894,-0.117013,-0.468810,0.875514
0.602061,0.093063,0.725780,0.217779,0.972633,0.080975
0.461927,-0.466535,0.754637,-0.254716,0.877008,0.407402
-0.112918,0.021109,0.861544,0.078292,0.681127,0.727967
0.405409,0.025219,0.443527,-0.280875,0.913809,0.293364
0.734957,0.408484,0.535544,0.939931,0.172355,-0.294657
0.281603,0.097377,0.685350,-0.153226,0.905315,0.396139
-0.494758,-0.590552,0.751380,-0.524057,-0.514044,-0.679061
-0.100700,-0.350535,0.556979,0.950736,0.288463,0.113532
-0.393307,0.058355,0.579098,0.683398,0.713037,0.156669
-0.248362,0.410717,0.230994,-0.653196,-0.691129,0.309315
0.239562,0.441467,0.665700,0.972408,-0.177160,0.151778
-0.642537,-0.063074,0.652357,0.849402,0.314948,0.423468
0.431581,0.605978,0.736743,0.123487,-0.855023,0.503673
-0.233019,-0.394124,0.495203,-0.176758,0.978518,0.106111
-0.051307,-0.645659,0.604460,0.955847,-0.282700,0.080228
0.195668,0.271426,0.963779,-0.621261,0.732659,-0.277932
0.319474,-0.107475,0.605426,0.677196,0.731144,-0.082673
0.815622,0.541280,0.467402,-0.820317,-0.191039,0.539058
0.271297,-0.174202,0.488197,-0.127217,0.961347,0.244189
0.145696,0.839245,0.589451,0.303121,0.951602,0.050701
0.350859,-0.093419,0.671769,0.896062,0.442912,-0.030021
-0.083272,-0.711016,0.770122,0.412505,0.909443,-0.052467
-0.422897,-0.475466,0.639029,0.375667,0.921350,0.099939
0.133591,-0.050896,-0.197674,0.994082,0.096882,0.049141
0.071979,-0.053027,-0.389129,0.199080,0.964844,0.171591
0.088481,-0.281778,0.596561,0.200489,-0.365493,0.908966
0.568824,-0.019485,0.543472,0.310503,-0.937794,0.155337
0.096589,-0.219871,0.261428,0.209194,0.908063,0.362850
0.016157,-0.748516,0.764648,0.823696,0.522113,-0.221184
0.036423,-0.083524,-0.757493,0.740283,0.672062,-0.017737
0.394523,0.384229,0.791869,0.075711,0.995260,-0.061032
-0.235681,0.380423,0.814702,0.858063,0.457799,-0.232697
0.093348,-0.079210,0.015663,-0.389011,0.921232,0.001443
-0.650935,0.206932,0.715828,0.130300,-0.974311,0.183686
-0.241414,-0.484193,0.695896,-0.539733,-0.741530,-0.398525
-0.032893,0.179378,0.896961,0.220235,0.896307,-0.384876
-0.217730,-0.025828,0.958990,-0.670265,-0.717591,0.189232
0.639526,0.066829,0.738186,0.046017,0.990372,-0.130557
0.023859,-0.038717,0.627322,-0.708309,-0.668627,-0.226355
0.168454,0.069315,0.280483,0.672872,-0.625682,0.394673
0.699461,-0.402497,0.784595,0.872305,0.488591,-0.019036
0.495800,0.031918,0.454059,-0.583437,-0.025694,0.811752
0.208120,-0.081443,0.681928,-0.129170,-0.977243,0.168256
0.365046,-0.502410,0.717152,0.744658,0.388178,-0.542957
-0.037756,0.110976,0.963928,0.946417,0.090791,-0.309922
-0.349816,0.579134,0.250138,0.686291,-0.487911,0.539396
0.626615,-0.507637,0.857037,0.611149,-0.791514,0.001629
0.141352,0.121835,0.299865,-0.800316,0.540001,-0.260565
-0.544500,-0.530065,0.522662,-0.562964,-0.575631,-0.593061
0.840465,0.723753,0.555164,0.994875,-0.081049,0.060457
-0.625512,-0.455067,0.781338,0.694215,0.527005,0.490236
-0.123920,0.375653,0.136032,0.742683,-0.411961,0.527930
0.068851,-0.418582,0.770137,0.057108,0.974653,0.216309
0.520124,-0.261125,0.768828,0.974181,-0.023738,-0.224518
0.471480,-0.685898,0.664034,0.074042,0.331606,0.940508
0.057156,0.497894,0.564044,-0.212112,-0.675615,0.706083
-0.553305,0.123357,0.549972,0.241130,-0.822037,0.515861
0.059701,-0.087431,0.901349,0.987556,-0.056803,0.146648
-0.032543,-0.121835,-0.968986,0.669711,0.408461,-0.620199
-0.173317,-0.621404,0.546135,0.864519,-0.442571,0.238196
0.003243,-0.052519,0.941824,0.210804,0.832465,0.512409
0.110776,-0.081037,-0.446725,0.425387,0.867411,-0.258157
-0.150153,-0.027655,0.899207,0.855393,-0.069297,0.513323
0.576755,-0.316030,0.710816,0.844103,0.307124,-0.439505
0.536799,-0.224844,0.688503,0.799659,0.302220,-0.518853
-0.082459,0.082661,0.579232,-0.101763,0.823278,-0.558442
0.615322,-0.507637,0.758371,0.642101,0.727283,-0.242417
0.556952,-0.500837,0.671070,-0.671779,0.626693,0.394928
-0.385779,0.077130,0.653339,0.901126,0.409063,0.143666
0.305460,-0.254732,0.291460,0.520243,0.849718,0.085592
0.292316,-0.464505,0.707796,-0.249355,0.945897,-0.207606
0.014941,0.111838,0.943951,0.706886,0.006591,0.707296
0.542765,-0.417060,0.572092,0.227535,0.955877,0.185814
-0.278419,0.253971,0.435242,-0.138280,-0.916590,0.375156
0.480281,0.693358,0.434602,0.781412,0.276155,-0.559583
0.405638,-0.588420,0.735538,0.741856,0.653615,0.149793
0.428919,0.198660,0.396716,0.823728,-0.564582,0.052148
0.175749,0.162734,0.616553,0.485495,0.803030,-0.345596
0.075683,0.026945,0.890208,-0.226781,-0.969542,-0.092512
-0.362441,-0.530421,0.854776,0.983498,-0.147041,-0.105403
-0.205455,0.273355,0.921311,-0.716017,0.697921,0.015020
0.438243,-0.120617,0.795648,-0.693263,0.168049,0.700818
-0.193583,-0.315878,0.655570,0.808248,0.071559,0.584478
-0.007470,0.172984,0.432981,0.785724,-0.222179,0.577299
-0.368407,-0.453037,0.701950,0.852251,-0.164406,0.496628
0.501650,-0.078804,0.778883,-0.590186,0.706351,-0.390831
-0.125426,-0.102502,0.454773,-0.755549,-0.339449,-0.560285
-0.157508,0.802354,0.652446,0.872027,0.403407,-0.277185
0.378017,-0.037956,0.804900,0.872237,0.281969,0.399619
0.071400,-0.063074,-0.888408,-0.232845,-0.878316,0.417546
0.733395,-0.404273,0.810151,0.951273,0.297377,-0.081529
0.081939,-0.336784,0.743362,-0.107533,0.924837,0.364847
0.447796,0.566448,0.710935,-0.436838,0.804333,-0.402766
-0.635761,0.158319,0.607658,0.671106,-0.724497,0.157231
0.214429,0.323337,0.717792,0.839198,0.422322,-0.342623
-0.096935,-0.593089,0.653740,0.871975,0.075340,0.483718
-0.247380,-0.440909,0.848008,-0.479622,0.703238,-0.524804
0.063465,0.735120,0.624511,0.434498,0.896523,-0.086359
-0.214255,0.308723,0.409701,-0.797646,0.347175,-0.493184
-0.620069,-0.331050,0.748345,0.838277,0.432395,0.332154
-0.054608,-0.281677,0.477368,0.680299,-0.699670,-0.218299
0.055590,-0.142335,0.672513,0.965112,0.164722,0.203531
-0.524641,0.483990,0.573029,0.081015,-0.809984,0.580830
-0.325786,0.250063,0.863730,0.872263,0.489004,0.005592
0.174589,-0.896940,0.505496,-0.439149,0.871665,-0.217596
0.393130,-0.014310,0.796912,0.926509,0.301722,0.224822
0.218136,-0.475770,0.727104,-0.037262,-0.998392,-0.042722
0.457466,-0.582737,0.710935,-0.545713,-0.822450,-0.160539
0.389080,-0.419140,0.712987,0.848356,-0.418368,-0.324438
0.080490,-0.351246,0.734259,0.297881,-0.899083,-0.320808
0.455731,-0.515045,0.609993,-0.290048,0.598277,0.746951
0.182814,-0.063125,0.409270,-0.506011,0.839876,0.196369
0.121662,-0.117369,0.156946,0.670414,-0.709795,-0.216187
0.090740,-0.064546,-0.977107,0.127288,0.938080,0.322185
0.829230,0.535495,0.482752,0.896543,0.105935,-0.430102
0.313508,0.448216,0.887977,0.790146,0.612341,-0.026619
0.509178,-0.369107,0.606036,0.806016,0.477063,-0.350357
0.307199,0.094687,0.635801,0.372104,0.882588,-0.287361
-0.257803,0.602476,0.618502,-0.279188,-0.817378,0.503931
-0.373963,-0.502715,0.843352,0.900348,-0.434262,0.028102
-0.163760,-0.319430,0.458387,0.798420,0.537702,0.270930
-0.121779,0.059573,0.684948,0.722063,0.639704,0.263446
0.080607,-0.165474,0.837446,-0.279902,-0.959790,-0.021378
0.233482,0.488405,0.872640,0.986536,-0.146973,0.071737
0.119057,0.317146,0.843843,-0.461331,0.887228,0.000110
-0.119464,0.838230,0.665209,0.449309,0.585413,-0.674843
0.663209,0.384178,0.485534,0.642689,0.710062,-0.287684
0.150096,0.068301,0.307734,0.426140,0.420152,0.801173
0.391105,0.372000,0.714356,-0.447954,0.800022,0.399127
0.091782,0.617649,0.634879,0.988178,0.049471,-0.145113
-0.225548,0.226163,0.788418,0.863045,-0.165364,0.477292
0.062366,-0.269092,-0.985660,0.084511,-0.127370,0.988248
-0.113787,0.678947,0.623023,-0.503726,0.844025,-0.184070
-0.120796,0.255189,0.169128,-0.034114,-0.476669,0.878421
0.377498,-0.319683,0.396329,0.744588,0.661493,-0.089528
0.015981,0.010605,0.535187,0.830002,0.525044,0.188218
-0.171695,0.230527,0.104259,-0.790721,0.430241,-0.435492
-0.054085,-0.673872,0.549764,0.634331,0.386427,0.669551
0.149227,-0.099203,-0.251461,0.941774,-0.048545,-0.332724
-0.015694,0.198863,0.937406,0.513112,0.786219,-0.344348
-0.299264,-0.538692,0.806387,0.733414,0.354244,0.580186
-0.110893,0.159639,0.841284,0.502061,0.529362,0.683894
-0.208466,0.629979,0.632410,-0.490928,-0.863390,0.116397
0.665645,-0.374689,0.686674,-0.534486,-0.499269,0.681950
0.007816,-0.072715,-0.830351,-0.374121,0.915775,0.146250
0.365682,-0.645608,0.808113,0.168815,0.985023,-0.035088
0.707509,0.516669,0.669746,0.916764,0.347043,-0.197752
-0.572238,0.165068,0.667797,0.826079,0.563497,-0.008084
-0.010827,-0.402852,0.393964,-0.294997,-0.954888,0.034153
0.272742,0.387324,0.630625,-0.338662,0.803912,-0.488911
0.014362,-0.164764,-0.975382,-0.569871,-0.563260,0.598319
0.195149,0.342163,0.610499,-0.893184,0.138689,0.427770
-0.260987,0.129548,0.135452,0.965788,-0.249301,-0.071437
0.065087,-0.019384,-0.144124,0.998588,0.037873,-0.037243
0.107419,-0.145380,0.813141,-0.725828,-0.686467,-0.044013
-0.053042,0.592074,0.570589,0.585933,0.469287,0.660645
-0.014012,0.035317,0.723638,0.949725,-0.290216,0.117461
-0.126875,0.113006,0.638717,0.926013,0.255161,0.278195
0.418786,-0.491602,0.521457,-0.783758,0.372154,0.497218
-0.619376,0.122647,0.593586,0.949142,-0.198582,0.244324
-0.205222,0.187548,0.762313,0.741622,-0.662769,0.103608
0.018762,0.025270,0.496199,0.896225,0.442018,-0.037430
0.823614,0.447354,0.558526,0.811575,0.232933,-0.535807
-0.050264,0.225910,0.964479,0.355789,0.893249,-0.274808
-0.371129,0.306186,0.484597,0.735278,0.590024,0.333524
0.314494,-0.110367,0.612715,0.787680,0.577109,-0.215649
-0.108751,0.181103,0.965475,0.294279,0.522619,0.800169
0.354160,-0.164764,0.673851,0.942133,-0.165735,-0.291406
0.077479,-0.102248,-0.411442,0.120791,0.991945,0.038128
-0.290637,0.421830,0.803680,0.869668,0.108769,-0.481504
-0.338814,-0.437154,0.680411,0.743341,-0.136112,0.654918
0.429556,-0.261937,0.843857,0.918272,0.251524,-0.305799
0.376109,-0.333942,0.423491,-0.661858,-0.731592,-0.163452
0.179976,-0.049170,0.732563,0.019095,0.994565,0.102356
0.199952,-0.398539,0.586238,-0.282402,0.103257,0.953723
0.125196,-0.118384,-0.067993,-0.177617,-0.964365,0.196090
0.107358,-0.018572,0.009282,-0.178192,0.885039,0.430062
0.248306,0.279241,0.941184,0.766000,-0.584577,0.267421
-0.115813,-0.205663,0.837387,0.684344,0.714169,-0.147089
-0.129017,-0.634648,0.549615,-0.067576,0.939590,0.335565
0.148417,0.475466,0.389248,-0.576565,0.627792,-0.522924
0.223173,-0.128127,0.471864,-0.589846,0.795668,0.137818
-0.136489,0.104937,0.348030,0.811833,0.571331,0.120451
-0.117262,-0.142031,-0.989558,-0.266875,0.118601,0.956406
-0.356825,0.198914,0.710191,-0.808135,-0.106726,0.579247
-0.605246,0.353884,0.649114,0.871084,-0.453288,0.189058
0.082169,-0.008677,0.290136,-0.434178,-0.897993,0.071396
0.388500,0.341148,0.816502,0.848224,-0.420061,-0.322589
0.337425,-0.143096,0.557127,-0.027067,0.997337,0.067727
0.198853,-0.192114,0.889598,-0.046024,-0.957559,0.284539
-0.064395,-0.076572,0.942642,-0.325633,0.944466,-0.044136
0.654988,-0.367585,0.690333,-0.556121,-0.367085,0.745639
0.482309,0.244482,0.372291,-0.726894,0.673260,-0.135447
-0.167061,0.318871,0.925209,0.893191,-0.448524,0.032197
0.122242,-0.048155,-0.389055,-0.729247,-0.622858,-0.283278
0.062712,-0.102806,0.772175,-0.578028,0.672707,0.461897
-1.000000,0.036484,0.608044,-0.284369,0.955642,0.076699
0.599686,0.330999,0.445848,-0.506388,0.799449,-0.323190
0.584167,-0.419851,0.812873,0.813557,-0.528800,-0.241857
0.707219,0.054143,0.542922,-0.352153,-0.812459,0.464650
0.083155,0.061146,0.458640,-0.528872,0.847829,0.038481
-0.192714,0.258690,0.938819,-0.805678,0.096435,0.584452
-0.041347,0.040798,-0.040029,0.698717,0.701759,-0.139031
0.041114,0.466230,0.546150,-0.113642,-0.912410,0.393184
0.345416,0.004212,0.440329,0.171003,-0.980624,0.095573
0.289824,0.622977,0.732191,0.999484,0.010839,0.030222
-0.338524,0.062262,0.483660,-0.405151,-0.904825,0.130938
-0.071633,0.488202,0.542565,0.951210,-0.010640,0.308361
0.056287,0.073832,0.954929,0.086644,0.991353,0.098547
-0.195612,-0.360278,0.768307,-0.579885,0.513513,0.632485
0.053042,-0.943776,0.551624,0.965695,-0.209911,0.152875
-0.685911,-0.089410,0.716275,-0.116862,-0.675976,0.727598
0.043605,-0.041508,0.917429,0.934261,0.344284,0.092868
0.131392,-0.042117,-0.389442,-0.689868,-0.696497,-0.197418
0.034511,0.105293,0.966100,0.665379,0.687326,0.291297
-0.236087,0.192723,0.794829,0.813521,0.265990,-0.517140
0.260351,0.433298,0.677287,0.904214,-0.224385,-0.363384
0.480631,-0.330492,0.805182,0.692608,0.716511,-0.083096
0.042909,-0.029228,0.287147,0.355978,0.914486,-0.192339
0.164802,-0.279647,-0.105255,0.867156,-0.459295,-0.192583
-0.123691,-0.303648,0.593095,0.940365,0.308301,0.143753
-0.072382,0.607145,0.183929,0.252971,0.537753,-0.804255
0.589553,0.045618,0.499398,-0.023104,0.991634,0.127000
-0.062712,-0.110468,0.887084,-0.055076,0.356515,0.932665
-0.166195,-0.700715,0.741622,-0.255500,0.767665,0.587716
0.053678,-0.050287,0.944650,-0.418213,-0.823418,-0.383510
0.528228,0.131527,0.705401,0.537889,-0.762036,0.360522
-0.006544,-0.123205,-0.963527,-0.659830,-0.034871,0.750605
0.095027,-0.100979,-0.380502,-0.748120,0.465333,-0.473055
0.117785,-0.066372,-0.899029,-0.122406,-0.948640,0.291719
0.710927,0.159131,0.574769,-0.508263,-0.824694,0.248090
0.042503,-0.041762,0.252622,-0.649913,0.605987,0.458687
0.032776,-0.100472,0.210883,0.846384,0.531041,0.040366
-0.718222,-0.448673,0.746441,0.258241,-0.965801,0.023241
-0.211478,0.347339,0.719547,0.884880,-0.192324,0.424263
-0.086976,-0.743492,0.459800,0.814033,0.423140,0.397872
-0.154786,0.770691,0.646466,0.914190,0.382887,-0.132867
-0.027043,-0.815040,0.684249,0.947004,-0.287543,0.143187
-0.073715,0.187395,0.818525,0.225841,0.810145,0.540982
0.257223,0.425636,0.662100,0.849243,0.008795,0.527930
-0.215008,-0.007916,0.534785,-0.236286,-0.917797,0.319087
0.250334,0.258538,0.716632,0.473850,0.816465,-0.329926
-0.221321,0.303496,0.848424,0.074878,0.101454,0.992018
-0.625572,0.197696,0.582415,0.985024,-0.028563,0.170036
-0.401065,0.094535,0.157050,0.998761,0.001750,-0.049730
-0.035844,-0.558938,0.522617,0.705032,-0.708714,-0.025582
-0.218833,0.382047,0.419311,0.952058,0.142835,-0.270525
0.390815,-0.131476,0.727490,0.982174,-0.139835,-0.125617
0.102958,0.114782,0.529549,0.913867,-0.405977,0.005445
-0.472696,0.601055,0.340652,0.024766,0.578295,0.815452
-0.060341,0.008880,0.685350,0.782884,0.622113,0.008225
0.149750,0.856092,0.552576,0.959918,-0.107485,0.258853
-0.419249,-0.485564,0.642287,0.341544,0.910065,0.234798
0.555156,-0.495661,0.783599,-0.558396,-0.781991,0.276919
0.108518,-0.090932,-0.464025,0.772559,0.627888,-0.094383
0.621285,0.387781,0.448287,0.661080,-0.718713,0.215464
-0.138747,0.102806,0.347613,0.811833,0.571331,0.120451
0.076496,0.588877,0.616791,-0.779731,0.626015,-0.011143
0.138860,-0.460801,0.415994,0.785080,0.340563,-0.517365
0.117378,0.066220,0.266634,0.788229,-0.434888,0.435393
0.462793,-0.481859,0.543695,0.703107,0.020864,-0.710778
-0.393710,0.115644,0.856085,0.970115,0.133152,0.202847
0.662923,0.419343,0.429961,-0.713769,0.652763,-0.253840
0.212867,-0.061755,0.412721,-0.623491,0.778675,0.070171
-0.231860,0.282894,0.927499,-0.373395,0.922058,-0.101911
0.481384,-0.578221,0.579038,-0.881984,0.144885,0.448456
-0.167411,-0.685340,0.725750,-0.201117,0.979561,0.003502
-0.601192,0.685188,0.344876,0.198109,-0.117424,0.973121
0.263708,0.291876,0.824178,0.664497,0.674629,0.321434
0.642827,0.523570,0.468309,-0.054201,0.778822,0.624899
0.658463,-0.227026,0.747765,0.687888,0.720443,-0.088159
-0.147258,0.099914,0.707662,0.936510,0.273926,0.218890
-0.293648,0.623991,0.286864,-0.083872,-0.891549,0.445091
-0.119057,-0.141117,-0.989930,-0.266875,0.118601,0.956406
-0.171521,0.790582,0.334003,-0.156207,-0.509700,0.846053
0.237939,0.387730,0.625671,0.189573,-0.829435,0.525453
-0.494818,-0.538134,0.723608,-0.407539,0.833407,0.373289
0.390988,0.245953,0.862615,-0.704987,0.699447,0.117332
-0.910474,0.101791,0.597929,-0.216945,0.963731,0.155425
0.111356,-0.157812,-0.955345,0.496077,-0.110834,-0.861175
-0.206324,-0.410920,0.661237,0.277834,-0.870018,0.407281
0.615729,0.480489,0.553304,-0.141536,0.987708,-0.066333
0.050554,-0.056528,0.323382,0.875419,-0.218233,-0.431296
-0.171984,-0.475415,0.786678,-0.170058,-0.936891,0.305475
0.169090,-0.156645,0.454758,-0.639602,0.670069,0.376717
-0.580753,0.615416,0.651435,-0.866625,-0.139639,-0.479023
0.096070,0.797889,0.785503,0.880686,0.016170,0.473425
0.051886,0.157203,0.421706,-0.749342,-0.577792,0.323486
-0.220105,0.339575,0.919393,0.903694,-0.397371,-0.159477
0.035035,-0.039529,0.194966,0.937251,0.305732,0.167598
-0.055997,-0.373522,0.766760,0.876326,0.481681,0.006003
0.551682,0.330441,0.425841,0.135936,0.929506,-0.342842
0.159823,0.142893,0.594940,-0.131245,-0.921097,0.366545
0.076146,-0.608109,0.467788,-0.699302,-0.705299,0.116318
0.016271,-0.239204,0.490711,0.961574,-0.274520,0.003814
-0.257340,-0.433196,0.814628,0.978494,-0.179746,0.101198
-0.174706,0.707109,0.198090,0.252971,0.537753,-0.804255
0.116565,-0.202060,0.274785,-0.699234,-0.616125,-0.362576
0.075917,-0.092759,0.866988,0.735090,0.656636,-0.168736
-0.030807,-0.095042,0.738052,0.612083,-0.743360,0.269759
0.072152,-0.085959,0.193181,0.793678,0.492446,0.357172
-0.251723,-0.431268,0.730421,0.965027,0.261898,0.011491
-0.477793,-0.174050,0.599343,0.786265,0.378063,0.488729
-0.182930,-0.680418,0.692341,0.709153,-0.650306,0.272404
0.069894,-0.201045,-0.968182,-0.286085,-0.751063,0.595029
-0.011580,-0.043081,0.398694,-0.881439,0.454664,0.127853
0.401818,-0.123560,0.773796,0.540338,0.751119,0.379282
0.025711,-0.080378,-0.588513,0.033601,-0.992594,0.116743
-0.112225,-0.022530,0.890223,0.165838,-0.782085,0.600700
0.112628,0.001624,-0.023636,0.938515,0.031078,0.343836
-0.221957,0.327701,0.715784,0.984961,0.064644,-0.160230
0.063292,-0.649262,0.422985,0.991585,-0.087500,-0.095413
0.050957,-0.062973,0.016258,-0.244618,0.869612,0.428879
0.275810,0.606688,0.769944,0.964916,0.261314,-0.025523
-0.353931,0.256762,0.561783,0.506674,-0.752171,0.421331
-0.022237,0.356320,0.496809,0.151891,0.842731,-0.516462
0.746076,0.532095,0.599938,0.982995,0.183428,0.008645
-0.134693,-0.828995,0.739033,0.595253,0.801483,-0.057433
0.727779,-0.423707,0.787273,0.798122,0.602495,0.000376
0.083211,-0.123915,0.943698,0.850934,0.510111,-0.125288
0.675142,-0.526564,0.753700,-0.328842,-0.893944,0.304511
0.595286,-0.174202,0.713389,-0.903255,-0.108898,0.415056
0.397997,0.733496,0.401208,0.793687,0.274958,-0.542640
-0.012683,-0.000710,-1.000000,-0.002885,0.367040,0.930201
0.597718,-0.203887,0.714058,0.875287,0.142227,-0.462216
-0.193756,0.170447,0.752391,0.825572,-0.562765,0.041546
0.020964,-0.077282,-0.490517,-0.182146,0.982191,-0.046082
-0.155132,-0.181864,0.890877,-0.556889,-0.653991,0.512025
0.692916,0.544832,0.619037,0.962960,-0.224517,-0.149333
0.206844,0.255036,0.606810,0.900261,-0.435309,-0.006114
0.348601,0.089105,0.620629,0.484118,0.787173,-0.382084
0.354217,-0.016339,0.822140,-0.668639,0.676695,-0.308228
0.855985,0.536865,0.637779,-0.614189,-0.747010,0.254456
-0.133244,-0.055767,0.908712,0.941130,-0.304496,0.146824
0.498928,-0.432689,0.629762,-0.721814,-0.359985,0.591096
-0.153570,-0.502157,0.765957,-0.144434,0.989141,0.027199
0.382244,0.801695,0.550047,0.840536,-0.536341,0.076407
-0.461754,0.355813,0.506255,0.550726,0.827817,-0.106864
-0.129480,-0.045568,0.881387,0.958166,0.238550,0.158150
0.391395,-0.098341,0.716513,0.752971,0.640376,-0.151504
0.146042,0.092201,0.908653,0.941088,-0.063180,0.332207
-0.103365,0.355762,0.555937,0.951769,-0.116154,0.283978
-0.207597,0.556909,0.607360,-0.701082,-0.710598,0.059450
-0.388440,-0.419952,0.462151,-0.355542,0.896717,0.263607
0.153860,-0.070178,-0.447811,0.823296,0.543189,-0.164708
0.440152,-0.281068,0.758371,-0.555977,-0.747064,0.364397
0.017373,-0.108439,-0.899936,-0.228372,-0.893583,0.386465
0.085587,0.621759,0.435688,0.133920,-0.698134,0.703331
-0.050610,-0.058304,0.930593,-0.078288,-0.957063,0.279108
0.342058,-0.100421,0.637512,0.953076,0.293265,-0.075119
-0.253922,0.377683,0.735285,0.950952,-0.017309,0.308854
-0.461577,0.780535,0.347286,0.081648,0.873860,-0.479272
0.233076,-0.129142,0.527690,0.088745,-0.993204,0.075295
-0.236144,0.396407,0.755292,0.972577,0.000176,0.232580
0.035904,0.040544,0.455338,-0.284370,0.958691,0.006803
0.426138,-0.467651,0.743808,0.307954,-0.756787,-0.576574
-0.579593,-0.430862,0.747706,0.926360,-0.112744,0.359368
0.031327,0.113614,0.824416,0.816343,-0.285470,-0.502086
0.217963,-0.289542,-0.033930,-0.689101,0.684858,0.236873
0.513115,-0.788806,0.661847,0.576495,-0.788144,0.215598
-0.285887,0.249860,0.954691,0.968385,0.232471,-0.090490
0.118538,-0.045009,-0.051021,0.695016,0.690075,-0.201866
-0.081186,-0.195869,0.755336,0.719221,-0.687327,-0.101505
0.038565,0.120110,0.863983,0.719746,0.693234,-0.037323
0.399443,-0.467144,0.593973,0.198123,-0.856121,-0.477289
0.006544,-0.051860,0.376872,0.842016,-0.493206,0.218535
0.213273,0.099051,0.581820,0.786584,0.184346,-0.589324
0.034861,-0.022276,0.041100,0.013192,-0.989569,0.143455
0.422084,0.218400,0.661996,-0.621105,-0.398431,0.674893
-0.253576,0.481555,0.425320,0.928000,0.237029,-0.287461
0.625226,0.106663,0.704003,0.993290,0.058591,-0.099711
-0.014072,-0.403410,0.811103,-0.612622,-0.634207,0.471674
0.004112,-0.056833,0.712556,0.714793,-0.653226,0.249734
-0.009672,-0.001573,0.685409,0.835444,0.546778,-0.055374
-0.078118,0.048409,0.892037,-0.562621,0.656898,-0.501938
-0.071166,-0.335668,0.809764,0.891877,0.424141,0.157036
-0.128208,-0.573045,0.707766,0.825126,0.374044,0.423390
0.030458,0.021414,0.535038,0.830002,0.525044,0.188218
-0.019458,-0.595981,0.546908,0.722415,-0.683582,-0.104078
0.442293,-0.236363,0.804781,0.939953,0.297643,-0.167026
0.045977,-0.010250,0.246984,-0.176360,-0.937177,-0.300991
-0.060224,-0.382098,0.613697,0.386689,0.905662,0.173919
-0.169263,-0.778099,0.692624,0.656860,0.727696,0.197470
0.044471,0.085452,0.926012,-0.588294,0.806258,-0.062119
-0.266603,0.175471,0.953218,0.826185,-0.336397,0.451946
-0.447390,0.350789,0.496363,-0.216383,-0.945909,0.241731
-0.145986,0.200284,0.762700,-0.951575,0.084815,0.295486
-0.045864,-0.392297,0.737293,0.785085,-0.606791,0.124285
0.018472,-0.394631,0.408958,-0.112941,0.991503,0.064544
-0.326946,0.090780,0.844527,0.860593,0.060656,0.505668
0.218020,0.026590,0.242135,-0.120105,-0.882955,0.453835
-0.223926,0.278277,0.512740,-0.125360,0.878913,-0.460213
-0.232613,0.202669,0.677287,0.557720,-0.619124,0.552841
-0.286929,0.196326,0.884436,-0.628477,0.777190,-0.031513
-0.052289,0.199219,0.941735,0.550419,0.824714,0.129947
-0.189762,0.188613,0.829860,-0.310187,0.948681,0.061557
0.042100,-0.125996,-0.372945,0.702771,0.709910,-0.046269
-0.449069,0.355660,0.615586,0.285831,0.812345,-0.508328
-0.081186,-0.149997,-0.988680,0.263435,0.003261,-0.964672
0.019921,0.211600,0.441891,0.070195,-0.790742,0.608111
-0.352248,0.070229,0.486412,-0.405151,-0.904825,0.130938
0.337135,0.108337,0.537567,0.054499,-0.904080,0.423875
0.330883,-0.536002,0.791602,0.991153,0.004079,-0.132662
-0.603684,-0.339220,0.661773,0.309348,0.903019,-0.298096
0.025248,0.074948,0.502075,0.823409,-0.562285,0.076371
0.523655,0.275131,0.408392,-0.463779,0.867305,-0.180807
-0.077942,-0.247932,0.467149,0.998701,-0.045218,0.023497
-0.184839,-0.370173,0.622533,0.679803,-0.729751,-0.073019
0.390062,0.363170,0.771699,0.685989,-0.672293,0.278281
-0.340146,0.633430,0.629970,-0.100173,0.895056,-0.434557
-0.050031,-0.413254,0.690690,0.117569,0.992395,-0.036462
0.268922,-0.092505,0.595297,-0.357907,0.933755,0.001764
0.750593,0.635561,0.681720,0.876536,0.382839,0.291751
-0.289478,0.236008,0.432966,-0.038900,-0.933345,0.356867
0.430252,-0.684985,0.575528,-0.333205,0.740738,0.583336
0.445884,-0.533617,0.538668,-0.190363,0.773420,0.604635
0.729921,0.135942,0.784625,0.126145,-0.974505,0.185547
-0.111702,0.645507,0.310456,0.476095,0.381361,-0.792400
-0.471714,-0.340285,0.774793,0.741790,-0.643881,0.187524
0.215531,0.420663,0.922635,0.730149,0.286507,-0.620319
0.183566,-0.076014,-0.645544,0.158219,0.979097,0.127813
-0.283918,0.291927,0.466241,-0.663848,-0.739257,-0.113157
0.033702,0.255290,0.529951,0.853833,0.510639,-0.101079
0.595865,-0.508652,0.749520,0.504538,0.859809,-0.078545
-0.628237,-0.403105,0.766210,-0.412875,-0.814563,0.407456
0.094274,0.700107,0.675577,0.991227,0.115687,-0.063925
-0.167294,0.216015,0.793476,-0.847540,0.266476,-0.458984
-0.301003,-0.006140,0.627307,0.470875,0.863382,0.181243
0.319417,-0.107170,0.632662,0.996174,0.085421,-0.018464
-0.202734,-0.009337,0.904711,0.890569,0.040865,0.453008
0.007643,0.004618,0.246330,0.782870,0.266937,0.562014
-0.301290,0.359415,0.846104,0.978036,-0.063157,0.198638
-0.082575,0.030091,0.856977,-0.379633,0.384128,0.841620
-0.231341,-0.735069,0.662829,0.096098,0.970499,0.221125
-0.099717,-0.043589,0.863373,0.916380,-0.259473,0.304830
0.319474,-0.478155,0.645410,-0.650497,-0.632989,-0.419736
-0.334704,-0.511696,0.850625,-0.539784,0.835399,0.103644
-0.503039,0.409702,0.607003,0.850483,0.467555,0.240978
0.646418,-0.468564,0.794651,0.684381,-0.117441,-0.719604
-0.043545,-0.872380,0.688801,0.970234,-0.217065,0.107373
-0.113324,-0.326280,0.782320,0.887950,0.404408,-0.219088
-0.123111,-0.076217,0.889434,0.770563,0.109573,0.627874
-0.327811,0.221343,0.928719,-0.455495,-0.709093,0.538249
0.061903,-0.037043,0.062683,0.273875,0.910491,-0.309837
0.533904,0.049881,0.668987,0.499796,0.480561,-0.720601
0.510627,-0.476125,0.759873,0.223935,0.953272,-0.202796
-0.121549,-0.292586,0.800452,0.962686,0.213292,-0.166563
-0.254155,0.803471,0.326684,0.140136,-0.602289,0.785882
0.654236,-0.447354,0.852678,0.754953,-0.509026,-0.413447
0.091493,0.608464,0.600488,-0.904967,0.033980,0.424123
0.360763,-0.035977,0.822155,-0.775306,0.559405,-0.293200
-0.564364,0.989445,0.552278,0.974259,-0.225157,0.011149
-0.051134,-0.395393,0.783911,0.994339,0.062814,-0.085701
0.538595,0.111432,0.694617,0.146948,0.915008,-0.375721
0.581618,0.046785,0.675383,0.309265,0.668858,-0.676006
0.298628,0.077688,0.261576,-0.644050,-0.437655,0.627422
0.429902,0.041356,0.873176,0.115974,-0.631186,0.766912
0.240431,-0.274471,-0.042944,-0.652710,0.726878,0.213584
-0.569227,-0.181763,0.646571,-0.788732,-0.150071,-0.596138
-0.451617,0.320495,0.589332,0.851586,-0.523610,0.025167
-0.009962,0.045212,0.951225,0.434120,-0.767372,-0.471889
-0.341595,-0.521997,0.818823,0.889867,0.366871,0.271186
0.321096,0.309687,0.939786,-0.181293,-0.976981,0.112429
0.000638,0.180697,0.958603,0.997896,0.040285,0.050806
0.224449,0.337190,0.335758,0.108560,-0.728190,0.676723
0.030747,-0.420612,0.407485,-0.080378,0.977022,0.197403
-0.444958,-0.396306,0.747542,0.758236,0.302525,0.577544
0.443336,-0.170346,0.644354,0.441810,0.889316,-0.117992
0.233712,0.411986,0.889449,0.824161,-0.460998,0.328998
0.248076,-0.159385,0.459488,0.867699,-0.491091,-0.076996
-0.065550,-0.201451,-0.986865,-0.170020,-0.038444,0.984690
0.275291,0.016187,0.231351,0.764389,0.460444,-0.451333
0.317332,0.893337,0.587309,0.862605,0.281046,-0.420624
-0.262203,0.324555,0.755322,0.999071,0.026839,0.033707
0.595805,0.549449,0.534503,0.821629,0.544316,-0.169250
0.518268,0.133861,0.713835,-0.734362,0.522184,0.433631
-0.243559,0.305475,0.805435,0.862210,0.142062,0.486222
0.231341,0.179479,0.633927,0.587530,0.707324,-0.393066
-0.154440,0.161465,0.704300,-0.583172,-0.812320,-0.006765
0.159593,-0.163343,0.833118,-0.665845,0.574369,0.476183
-0.328334,-0.153194,0.540616,-0.714944,-0.453626,-0.532051
0.407957,-0.138326,0.784134,0.632492,-0.619786,-0.464562
-0.084661,0.101487,0.612700,0.956106,0.066474,0.285383
0.054318,-0.736540,0.438276,0.756292,-0.190867,-0.625773
0.072672,-0.544680,0.410758,0.781878,-0.216848,-0.584503
-0.170306,-0.423301,0.642004,-0.320015,0.944669,0.072052
0.341652,0.261227,0.662219,-0.265147,-0.534935,0.802210
0.018126,-0.443751,0.420724,0.723815,0.481869,0.493856
0.037696,0.045365,0.371726,0.907471,0.192983,0.373167
-0.062889,-0.008373,0.785562,0.602075,0.796474,0.055987
0.321789,0.291115,0.923379,-0.730566,-0.673085,0.115021
-0.157798,-0.053179,0.939161,0.576542,0.816976,-0.012210
0.384563,-0.443903,0.502938,0.993716,-0.052728,-0.098733
0.477559,0.303953,0.913130,0.624225,0.710029,-0.325887
0.136662,-0.065865,-0.892246,0.960516,-0.159133,0.228224
0.137298,0.149287,0.524983,0.781231,-0.624097,0.013436
-0.493892,-0.599787,0.811817,-0.651464,-0.749660,0.116642
0.245005,0.302532,0.724233,0.894730,0.413571,-0.168575
0.558168,0.342416,0.431374,0.188588,0.960224,-0.205923
-0.198390,0.242604,0.099692,0.292727,-0.818242,0.494764
-0.153977,0.319836,0.791750,-0.424644,-0.636622,0.643731
0.488852,-0.274116,0.861038,0.946453,0.287147,-0.147561
0.696334,-0.420206,0.725899,-0.434702,0.887585,0.152402
-0.087962,-0.370579,0.875184,0.784266,0.375272,-0.494062
-0.031560,-0.779114,0.705237,0.987882,0.056206,0.144672
-0.441890,-0.139088,0.575275,0.418337,-0.903132,0.096675
-0.168973,0.252702,0.118375,0.550089,-0.569424,0.610867
0.077016,-0.016441,-0.258349,0.944998,-0.318752,-0.073318
-0.398054,0.319277,0.521308,0.866269,0.498898,0.026036
-0.230761,0.323185,0.728383,0.963737,0.033601,0.264729
0.029648,-0.042675,-0.385708,-0.479952,0.798629,0.363094
-0.422200,0.368701,0.617431,-0.039410,-0.822682,0.567134
0.302219,-0.121936,0.569607,0.279032,0.960270,0.004818
0.462217,-0.425331,0.545912,0.530065,0.847938,0.005646
-0.151312,0.588116,0.176715,0.257205,0.532850,-0.806174
0.270830,-0.118790,0.460500,0.974133,0.176457,0.141169
-0.590133,0.341706,0.638181,-0.674792,0.514087,-0.529500
0.131276,-0.215710,-0.161810,0.929401,0.355842,-0.097932
0.685331,-0.452174,0.767921,0.647051,-0.730767,-0.217496
-0.553941,-0.274978,0.621358,0.869236,0.085005,0.487034
0.391162,-0.179327,0.982016,-0.458728,0.887852,-0.035890
0.065434,0.174659,0.823449,0.991625,0.118353,-0.051703
0.037349,-0.980870,0.555268,0.966014,-0.246119,0.079014
0.042389,-0.303953,-0.989320,0.011459,-0.118875,0.992843
0.421331,-0.608312,0.765719,0.834678,0.300195,0.461731
0.513695,0.301213,0.393726,-0.619256,0.779673,-0.092911
0.145173,0.852946,0.590180,-0.174171,-0.962962,-0.205835
-0.126239,0.659563,0.619766,-0.526342,0.778528,-0.341846
-0.108288,-0.062516,0.915272,0.985128,0.067490,-0.158012
0.082692,-0.042320,0.236274,0.821688,-0.565450,0.071381
0.305114,-0.385903,0.111637,0.833037,0.550818,-0.051460
0.131855,0.636221,0.615467,0.284018,-0.701066,0.654095
-0.050900,-0.107627,0.746590,0.848734,-0.506618,0.151621
0.516936,-0.677779,0.599774,0.912452,-0.137505,-0.385388
-0.139034,-0.043284,0.882785,0.989443,0.048749,0.136476
0.088135,-0.891917,0.548857,0.935300,0.093428,0.341298
0.130929,-0.070026,-0.847680,0.971468,0.234825,-0.033274
-0.295907,-0.410768,0.676916,-0.050798,-0.938986,0.340184
0.104407,-0.127112,-0.854895,0.980214,0.189463,-0.057301
-0.497076,-0.641295,0.767772,0.690385,0.710954,-0.133839
-0.132954,-0.063581,0.846877,-0.586672,0.737644,-0.334212
0.038625,-0.164561,-0.926369,-0.213163,-0.966440,0.143369
0.340146,0.253514,0.756065,0.948233,-0.174046,-0.265637
-0.010827,0.040189,0.795826,0.748583,-0.660533,-0.057620
-0.753545,-0.096159,0.708837,0.077188,0.775889,-0.626130
0.186288,0.451667,0.384994,-0.469392,0.605148,-0.643014
0.072442,-0.074694,0.910810,0.947729,0.301145,0.105463
-0.034222,-0.131324,0.720960,-0.852608,0.445631,-0.272896
-0.579593,0.385548,0.503473,-0.069519,-0.933046,0.352977
0.389253,-0.112346,0.726033,0.828149,0.536782,-0.161351
0.345473,-0.083168,0.691627,0.741436,0.667846,-0.065220
0.399213,-0.407013,0.515507,0.990548,-0.083006,-0.109204
-0.018356,-0.345004,0.529415,0.088725,0.983028,0.160570
0.023452,-0.450297,0.380814,0.911959,0.159130,0.378165
0.694945,0.543614,0.610410,0.732147,-0.679723,0.044022
-0.606288,0.482874,0.567436,-0.273713,0.871252,-0.407432
0.441138,-0.169686,0.636619,0.327482,0.944014,0.039911
-0.581678,-0.525905,0.782498,0.717021,0.634443,0.288728
-0.419076,-0.450500,0.602689,-0.494647,-0.865698,-0.076756
0.335167,0.495103,0.780430,-0.354339,0.848410,-0.393248
0.036250,0.283351,0.476698,0.421126,0.794750,-0.437065
-0.005385,-0.743594,0.557246,0.988608,0.006518,0.150373
0.122185,0.303141,0.718699,-0.599887,-0.340879,-0.723835
-0.174649,-0.138732,0.877743,0.931099,0.301810,0.204857
-0.174763,0.793322,0.333765,-0.156207,-0.509700,0.846053
-0.478486,0.267113,0.585583,-0.680441,0.670772,-0.295069
0.681394,-0.468920,0.870186,-0.733087,0.677156,0.063587
-0.230355,0.596945,0.600428,0.443480,-0.416819,0.793465
0.013146,0.397574,0.777307,-0.411125,-0.825105,0.387528
0.052869,-0.955498,0.543353,0.979626,-0.174296,0.099768
0.713069,0.045365,0.563702,0.860661,0.509175,0.002003
0.066476,-0.627138,0.422687,0.921900,-0.343622,-0.178953
0.359197,0.424671,0.688979,-0.264515,0.755376,0.599533
0.007816,-0.073172,0.860116,0.373383,0.693635,-0.616001
0.266200,0.057442,0.255284,0.316165,0.839057,-0.442744
0.287855,0.576140,0.722641,0.869788,0.493269,-0.012414
-0.204759,0.218247,0.841046,-0.170006,-0.979409,0.108888
0.002607,-0.426042,0.813289,0.891195,-0.352345,-0.285699
0.254908,-0.025778,0.429530,-0.486461,0.750734,0.446940
-0.075107,-0.215558,0.839871,0.977061,0.206914,-0.050387
-0.545370,-0.244583,0.684026,0.866162,0.333945,0.371812
0.194046,-0.130766,0.164428,0.017617,0.906620,0.421581
-0.167584,0.817375,0.663141,-0.413333,0.591040,-0.692696
-0.640975,0.127315,0.637884,-0.524941,0.851082,0.009778
0.056923,-0.058152,-0.159489,0.948367,-0.273130,-0.161243
0.829580,0.534886,0.618859,-0.500910,-0.835803,0.224770
0.372518,-0.205054,0.948220,0.859944,0.502712,-0.088189
0.246570,0.369818,0.770940,0.994249,0.009301,0.106689
0.108578,0.212412,0.645708,-0.265179,-0.933088,0.242954
0.030924,-0.141676,0.930162,0.973312,-0.223137,-0.053599
-0.169206,-0.105648,0.927410,0.933314,0.338220,-0.120552
0.332968,0.792307,0.540140,-0.444914,0.820356,-0.359260
-0.598530,-0.387578,0.550597,0.516583,-0.787758,-0.335528
0.208639,0.455828,0.382718,0.231815,-0.614937,0.753734
0.381841,0.849140,0.596903,0.993199,0.095056,0.067236
0.630552,-0.465571,0.719622,-0.470561,0.877200,-0.095349
0.393653,0.274065,0.831467,0.766557,0.349573,-0.538692
0.070184,0.028518,0.595445,-0.253450,0.942406,0.218253
0.038565,-0.365809,0.830009,0.900881,0.035930,-0.432577
-0.363947,0.351956,0.551296,-0.455501,-0.682060,-0.572112
-0.205801,-0.487542,0.774614,-0.379511,-0.914946,-0.137276
0.031387,-0.048358,-0.329079,0.747167,0.246136,0.617381
0.146099,0.400213,0.355333,-0.696299,0.410666,-0.588660
0.422084,-0.217892,0.742455,0.995979,-0.089575,-0.001442
-0.099021,-0.595880,0.717018,0.386711,0.509478,0.768691
0.268748,0.433653,0.929864,0.743427,0.241589,-0.623659
-0.597198,-0.371898,0.694929,0.782376,-0.455624,0.424611
-0.584980,-0.245902,0.682092,0.672045,0.460058,0.580261
-0.089407,-0.644086,0.599581,-0.362313,0.923143,0.128596
-0.368001,-0.383874,0.478513,-0.599653,0.599423,-0.530197
0.021137,-0.767088,0.439407,0.834239,-0.154100,-0.529433
0.047832,-0.039072,0.078808,0.151266,0.983499,-0.099244
-0.210665,0.158979,0.878055,0.916131,0.390230,0.091784
-0.764664,-0.463693,0.741280,-0.419157,0.907651,-0.021843
-0.221381,0.330339,0.417555,-0.923892,0.382459,0.012167
0.136778,0.283909,0.861291,0.571998,-0.741257,-0.351222
0.200069,0.014462,0.233165,0.103415,-0.912228,0.396416
0.063175,-0.037499,-0.476475,0.239966,0.961964,0.130545
-0.678499,-0.018927,0.671813,0.976802,0.108409,0.184676
0.694771,0.092150,0.735553,0.357303,-0.919234,0.165359
-0.040421,-0.658193,0.554078,-0.537212,0.121930,-0.834587
0.673749,0.428426,0.416589,0.765331,-0.639356,0.074110
0.623313,-0.461765,0.713062,-0.437019,0.898631,0.038441
-0.723782,0.216674,0.699778,-0.593816,-0.768335,0.238838
0.719148,-0.400822,0.704315,-0.541439,0.629107,0.557735
-0.325903,0.137667,0.689262,-0.416436,0.496675,-0.761508
0.054375,-0.140914,-0.782587,-0.663575,-0.746072,-0.055180
0.358794,0.877049,0.599164,0.929269,0.357017,0.094856
0.132548,-0.071802,-0.107085,-0.634237,-0.770527,-0.063485
0.378077,0.315218,0.827034,0.926893,-0.256944,0.273585
0.372345,-0.694423,0.676678,-0.538667,0.789306,-0.294676
-0.118538,-0.052722,0.869532,-0.301976,0.941481,-0.149747
-0.189529,-0.780890,0.688012,0.790089,0.612902,0.010539
-0.154786,0.394631,0.134946,0.741907,-0.344685,0.575123
0.685504,-0.384584,0.802074,0.468145,0.839997,-0.274308
0.029012,0.306084,0.488554,0.540008,0.268970,-0.797525
0.325903,-0.036738,0.840570,0.813465,-0.561740,0.150740
-0.108288,-0.357639,0.860205,0.909111,0.289076,-0.299921
0.317738,0.379358,0.841195,0.129878,0.053691,0.990075
0.112861,0.762876,0.737472,0.940001,-0.319369,-0.120004
-0.110313,-0.061805,0.886073,0.759148,-0.633603,0.149135
-0.073948,-0.020703,0.792211,0.758197,0.196070,-0.621848
0.260931,0.368803,0.759263,0.075516,-0.579723,0.811307
0.181538,0.319531,0.977435,-0.799265,0.327992,-0.503584
-0.667034,-0.430558,0.562319,0.831795,0.555005,-0.009330
0.100873,-0.217232,0.907522,0.737601,0.456593,0.497461
0.537898,0.026234,0.462180,-0.651799,0.168303,0.739481
0.045457,0.012737,0.422405,-0.501976,0.864830,0.009388
-0.525277,0.771604,0.413985,0.842223,-0.060945,-0.535674
-0.014418,-0.006292,-0.997546,0.015024,0.350254,0.936534
-0.121082,0.188816,0.645648,0.877823,0.109376,0.466330
0.631361,-0.386715,0.767489,-0.159840,-0.849200,0.503299
0.102265,0.771147,0.700894,0.995100,-0.094576,-0.028835
-0.126062,-0.700715,0.788403,0.253394,-0.964870,-0.069411
0.327522,0.294413,0.931203,-0.094668,-0.819918,0.564599
0.324860,-0.107627,0.909902,0.760858,0.648647,-0.018765
0.033239,-0.029482,0.295149,-0.080505,-0.995352,0.052853
0.003070,0.398945,0.507623,-0.222563,-0.696559,0.682108
0.149227,-0.087126,-0.489283,-0.759866,-0.640927,-0.108704
0.100470,0.867357,0.713731,0.855829,0.424587,-0.295437
-0.107648,0.639012,0.610112,0.836716,-0.408650,0.364570
-0.054145,-0.730248,0.754176,0.689662,0.520284,-0.503658
0.129480,-0.182524,0.836807,0.202299,0.970732,0.129435
0.331749,0.898006,0.573014,-0.545151,-0.661799,0.514619
0.275174,0.176638,0.634879,0.443621,0.387729,-0.808002
0.194972,0.615467,0.592827,-0.073001,-0.801126,0.594027
0.376745,0.399858,0.812888,0.688878,0.711701,-0.137582
0.398923,0.329578,0.744403,-0.746156,0.587053,0.314038
-0.360473,0.167402,0.838978,-0.701206,0.686752,-0.191523
-0.070590,-0.295682,0.818585,0.979881,-0.005452,0.199508
-0.044068,-0.373827,0.872745,0.784266,0.375272,-0.494062
-0.331982,-0.728066,0.671769,-0.735199,-0.589841,-0.334021
-0.083038,-0.357132,0.554375,0.953646,0.273251,0.126066
0.543401,0.343837,0.453969,0.063548,-0.967463,0.244901
0.155539,0.160704,0.611733,-0.092991,0.926562,-0.364465
-0.334241,0.684630,0.653473,-0.324677,-0.803750,0.498569
