-0.313261,-0.317629,0.765702,0.353941,0.860010,-0.367571
0.101677,-0.080324,-0.034209,0.965901,0.227873,-0.122920
-0.052377,-0.216019,0.837029,0.580905,0.047293,0.812597
0.741369,-0.220336,0.714689,0.853113,-0.399143,-0.335980
0.271845,0.062402,0.751347,0.697566,0.258795,0.668152
0.086254,0.014322,0.787360,0.806715,-0.052505,0.588604
0.166832,0.323704,0.707638,0.899839,0.294571,0.321741
-0.059569,-0.081770,-0.160606,-0.588008,0.762487,0.269928
-0.614262,-0.464838,0.522729,0.077536,-0.832329,0.548831
-0.163799,-0.218900,0.795279,-0.239328,0.911893,-0.333425
-0.100292,0.530439,0.640592,0.398961,-0.050241,0.915590
-0.263008,0.144812,0.652680,0.696951,-0.487756,-0.525693
-0.590610,-0.805345,0.579506,-0.100659,-0.780417,-0.617104
-0.264568,0.077120,0.240468,0.977715,0.187927,0.093573
0.062946,0.374030,0.720874,-0.675805,-0.710577,-0.195877
0.323398,-0.237456,0.449275,0.912615,0.200083,-0.356513
0.008793,-0.183536,0.640424,-0.660855,0.626158,0.413759
-0.035827,0.182090,0.634603,0.077204,0.333470,0.939594
0.066153,-0.145935,0.846739,0.214399,0.955739,-0.201484
-0.295153,0.184971,0.513551,-0.613661,0.751839,-0.241163
0.002730,0.431154,0.336029,0.852542,0.498433,-0.157278
0.577957,0.907277,0.543800,-0.469319,-0.800289,0.373199
-0.100376,0.562688,0.589635,0.350725,0.703895,0.617676
-0.262662,-0.378992,0.329705,0.971811,0.234374,-0.025546
-0.271845,0.426749,0.660627,0.781436,0.438386,-0.444045
0.267080,-0.211380,0.525387,0.834354,-0.536313,-0.127368
-0.396007,0.166894,0.526702,0.968805,0.233117,0.084106
0.188321,0.144255,0.459712,0.803000,0.392700,-0.448305
0.460123,-0.103051,0.720594,-0.725137,0.374459,0.577890
0.290214,-0.090725,0.536804,0.978349,0.201449,-0.047442
-0.133476,-0.106088,-0.282414,0.828402,0.532308,0.174352
-0.652906,-0.184581,0.666615,-0.144446,-0.932696,-0.330475
0.161462,0.097366,0.749248,-0.580637,0.457874,-0.673210
-0.015467,-0.075206,-0.249759,-0.538648,0.835209,0.110838
-0.025602,-0.379470,0.535797,-0.030436,0.735108,0.677267
0.879738,0.332347,0.447120,-0.860084,-0.220704,0.459941
0.006889,-0.388670,0.771130,-0.918674,0.382058,0.100347
-0.512628,-0.680374,0.671205,0.146683,0.528281,0.836303
0.230429,0.089289,0.824017,0.203944,0.978538,-0.029505
-0.315254,-0.485563,0.605529,0.423925,0.814406,0.396271
0.191354,-0.012321,0.283506,0.931331,-0.071266,-0.357132
-0.043625,-0.264744,0.744295,0.674635,-0.594321,0.437778
-0.409783,0.190577,0.789627,-0.584142,-0.800267,-0.135465
-0.293852,0.076642,0.436654,0.931654,0.347446,0.106307
0.174630,0.040487,0.436822,0.921202,0.296216,-0.252276
-0.167007,-0.728786,0.679291,-0.542859,-0.241792,0.804264
0.117619,0.046884,0.722189,-0.505859,-0.795029,0.334717
0.518693,0.698139,0.639500,0.920839,0.361312,0.146660
-0.371919,-0.707183,0.727058,-0.392933,0.919549,0.005732
-0.135382,-0.088733,-0.417458,0.981426,0.147454,-0.122723
0.400685,0.703012,0.589355,0.454688,0.592517,-0.664968
-0.109647,-0.061846,-0.403075,0.415531,0.907620,-0.059663
-0.225318,0.220257,0.546654,-0.645398,0.763813,0.007192
0.055669,0.530840,0.487835,-0.088406,0.987954,-0.127006
-0.212148,-0.057051,-0.982259,-0.320515,0.270372,0.907838
0.465321,0.974480,0.605641,-0.458048,-0.468642,0.755358
-0.633323,-0.293545,0.456214,0.779742,0.446147,0.439267
-0.286055,-0.667736,0.580849,0.336391,-0.785035,-0.520155
-0.351905,-0.313468,0.598953,0.498623,0.615546,-0.610310
0.131395,-0.031599,0.169505,0.962080,0.262050,-0.075712
-0.063813,-0.309787,0.887314,0.932322,-0.081618,-0.352298
-0.186674,-0.428996,0.789067,0.674674,0.306807,-0.671331
0.175410,-0.117769,0.824437,0.371118,0.227948,0.900173
-0.227918,-0.037928,-0.028612,0.681513,-0.728657,-0.067822
0.277043,0.033846,0.874918,0.490802,-0.348131,0.798698
-0.183469,-0.553166,0.680775,0.611195,-0.095156,-0.785739
0.119266,-0.599733,0.558826,0.277286,0.960755,0.007860
-0.194733,-0.454603,0.328865,0.891913,0.449494,0.049462
-0.324958,-0.553811,0.577379,0.889882,-0.063658,-0.451728
0.684355,0.212816,0.578442,0.964894,-0.088983,-0.247105
-0.200625,-0.465483,0.778406,0.035367,0.894934,0.444795
-0.243254,0.095765,0.359059,0.957894,-0.172626,0.229431
-0.138328,-0.057686,-0.295510,0.515776,0.839013,0.173296
-0.154875,-0.083928,-0.094511,0.857538,0.490802,0.154083
0.471905,0.132574,0.826424,-0.429237,-0.898596,-0.091001
0.079755,-0.448919,0.562940,0.600893,0.385169,-0.700409
0.444786,0.637255,0.624250,0.970630,-0.201715,0.131108
0.171079,0.294101,0.597219,-0.333779,-0.013200,-0.942559
-0.534376,-0.179932,0.657045,-0.401839,0.892115,-0.206533
-0.485422,-0.408437,0.766457,-0.180854,0.530203,0.828358
-0.445654,0.223461,0.708981,-0.391192,0.599334,0.698404
-0.093964,-0.107055,-0.443902,-0.048864,0.988711,0.141644
0.071439,-0.327464,0.831825,-0.585367,0.810606,0.016260
-0.166227,-0.617253,0.400697,0.495782,0.867647,0.037259
-0.043799,-0.049208,-0.978453,0.094374,0.217153,0.971565
-0.117794,-0.085930,-0.557147,0.956608,0.258272,-0.134898
0.124983,0.304747,0.617870,0.789058,-0.571042,-0.226491
-0.376858,0.348745,0.755292,-0.000496,0.332387,0.943143
-0.452497,0.203938,0.714578,0.392032,0.680283,0.619295
0.263008,-0.345307,0.555021,0.570975,0.690882,0.443475
-0.169693,-0.092405,-0.639640,0.922692,0.383560,-0.039002
0.196983,-0.141130,0.793964,0.372686,0.811006,-0.450971
-0.559591,-0.116489,0.551159,0.928508,-0.020001,-0.370774
0.014946,-0.085852,0.817777,-0.567311,0.738878,-0.363616
0.386215,0.084328,0.450170,-0.713742,0.678240,0.174824
-0.849415,-0.088010,0.562212,0.869565,0.449972,0.203425
-0.099078,-0.088489,-0.517020,0.158876,0.987027,-0.023145
-0.786685,-0.195861,0.611462,-0.412253,-0.851876,0.323038
-0.340554,-0.235464,0.743260,0.935280,0.353853,0.006221
-0.022831,-0.229380,0.285157,-0.517503,-0.854555,0.043900
0.355456,0.863826,0.561289,-0.663209,0.573742,-0.480598
-0.433176,0.228256,0.711304,0.611923,0.265000,-0.745202
-0.216566,0.564124,0.584207,0.487156,-0.846779,0.213647
0.188406,-0.091604,0.865068,-0.222925,0.920645,-0.320497
0.339427,0.806869,0.577911,-0.357806,0.376219,0.854654
-0.373653,-0.498767,0.343808,0.266657,0.119047,0.956411
-0.304424,-0.487721,0.672995,-0.309781,-0.950767,-0.008811
-0.240655,0.264099,0.590195,0.599351,-0.796116,0.083525
-0.083829,-0.237701,0.255887,-0.554748,0.829766,0.061179
-0.137894,-0.075050,-0.172527,0.625738,0.773250,0.102647
0.241001,0.068799,0.701594,0.970589,-0.240682,0.005425
-0.275658,-0.508045,0.529221,0.393726,0.799891,0.452941
0.101936,0.314660,0.596127,0.642947,-0.489969,-0.588684
-0.934324,-0.191378,0.663090,0.700304,0.212108,0.681605
-0.089892,-0.198742,0.838904,-0.160695,0.332660,0.929255
-0.267773,-0.525322,0.397311,0.689056,0.634547,-0.350075
-0.796214,0.272977,0.823682,0.913267,0.262858,-0.311206
-0.723608,-0.600289,0.599233,-0.652326,0.644057,0.399576
0.355631,0.384988,0.682901,-0.579063,0.408677,-0.705457
-0.386216,-0.489479,0.745163,-0.118693,0.679683,0.723839
0.530825,-0.240503,0.574189,-0.599222,-0.055857,0.798632
0.262315,0.040965,0.533642,0.723605,-0.160046,0.671402
-0.553179,0.268103,0.740685,0.134948,-0.873564,0.467627
-0.154444,-0.462836,0.495026,-0.693189,-0.525158,-0.493658
-0.097952,-0.153777,0.017223,-0.718637,0.616761,0.321195
-0.792835,-0.142576,0.599709,0.987245,-0.042345,-0.153471
-0.071177,0.500281,0.577631,-0.714446,0.698468,0.041343
0.023177,0.324182,0.654219,-0.707139,0.704601,-0.059091
0.580297,0.762539,0.576623,0.666388,-0.631222,-0.396843
0.482043,0.546759,0.540834,-0.532260,0.747827,-0.396804
0.045010,0.110571,0.780141,-0.400353,-0.893827,0.201967
-0.246199,0.364586,0.453696,0.011262,0.421456,0.906779
0.570334,0.874472,0.551747,0.620050,-0.724073,0.302086
-0.055410,-0.159774,0.859779,0.904261,-0.286620,0.316483
-0.350258,-0.490925,0.758286,0.638016,-0.755569,0.148492
0.355890,0.228022,0.857317,0.381827,-0.806886,0.450714
0.115453,0.006001,0.072489,0.991472,-0.068302,-0.110986
-0.831218,-0.140896,0.556840,0.681492,0.687081,0.251967
-0.523633,0.254176,0.821471,0.047650,0.696893,0.715590
-0.046139,0.296904,0.598646,0.115596,0.960538,0.252990
0.092579,-0.059443,-0.046801,0.804429,0.560223,-0.197598
0.359615,0.140329,0.822926,0.144238,-0.634087,0.759690
0.264306,0.191212,0.886894,0.680045,0.445623,0.582201
-0.438636,-0.289785,0.600492,0.497142,0.856815,-0.136815
0.600832,0.508924,0.511480,0.134645,-0.914709,0.381023
0.167699,0.605172,0.599037,0.830602,0.543104,0.123041
-0.255729,-0.024001,0.199082,0.238552,0.967000,-0.089467
-0.074125,0.538360,0.634184,0.887051,-0.309698,0.342387
0.324091,-0.065929,0.536720,0.951530,0.297678,-0.077318
-0.098904,-0.101371,-0.958166,0.761474,-0.231057,0.605615
0.237793,0.274657,0.598198,-0.251216,-0.658826,0.709112
0.311267,0.264744,0.580261,-0.029233,-0.318772,0.947380
-0.139714,-0.104809,-0.165783,0.741525,0.632702,0.223221
0.362474,0.209299,0.769367,-0.688252,0.725192,0.020164
-0.186240,-0.082404,-0.052034,0.256218,0.939179,0.228681
-0.321405,-0.464682,0.715193,0.934368,0.351647,0.057459
-0.149243,-0.312590,0.823290,-0.589681,0.798122,-0.123602
-0.202877,-0.366188,0.755068,0.522338,0.571045,0.633301
0.074122,0.114409,0.571139,0.893000,0.430487,-0.131271
-0.723175,0.458197,0.744491,-0.568508,0.622813,0.537497
-0.084347,0.001040,-0.626013,0.991523,0.107683,0.072706
0.172723,-0.580131,0.481594,0.710098,-0.170439,-0.683163
-0.551619,-0.243306,0.615043,-0.577856,-0.806639,-0.124163
0.387948,0.436750,0.480587,-0.266870,0.882781,-0.386625
0.301132,0.004156,0.651869,0.063373,0.526327,0.847917
-0.466101,0.516044,0.615295,-0.020857,-0.176503,0.984079
-0.404064,0.731022,0.425349,-0.702466,0.687647,-0.183527
0.090239,-0.367555,0.584319,0.540282,0.839263,-0.061097
-0.576484,0.194015,0.796595,0.194457,0.832490,0.518793
-0.200712,-0.685814,0.479776,0.500401,0.610282,0.614129
0.191872,0.313869,0.685895,0.885785,0.236576,0.399270
-0.660875,0.257302,0.649882,-0.237603,-0.818452,0.523145
-0.474245,-0.623816,0.573209,-0.488265,-0.867768,0.092607
0.018585,0.530527,0.501910,0.217223,0.891541,-0.397453
0.193607,0.019596,0.649266,0.714075,-0.692059,0.105603
0.451891,0.592613,0.676913,-0.399008,0.911530,-0.099523
-0.325046,0.198976,0.642942,0.907570,-0.353342,0.226861
0.215006,0.400351,0.713346,-0.688074,0.490600,0.534664
-0.351384,-0.716139,0.598002,-0.062621,0.803196,0.592415
0.429625,0.858631,0.570635,0.901124,-0.235063,-0.364309
0.475718,0.167050,0.817553,-0.216471,-0.770125,0.600039
-0.029415,-0.090569,-0.537252,0.404537,0.873942,-0.269398
0.083221,0.557405,0.402739,0.953694,-0.289520,-0.081527
0.594594,0.614929,0.546150,-0.062444,-0.728746,0.681931
-0.126197,-0.026648,-0.522925,0.994366,0.024489,0.103136
-0.264827,-0.025368,0.062583,-0.535681,0.831504,-0.147127
-0.198718,-0.376589,0.660263,-0.189244,0.954804,0.229206
-0.036866,-0.312267,0.929820,0.926239,0.315360,0.206468
0.036173,0.383630,0.292712,0.851091,0.436785,-0.291312
-0.276351,-0.070167,0.040309,0.252596,-0.965440,0.064203
-0.082875,0.655655,0.582388,0.680451,0.424241,0.597500
-0.379803,-0.457797,0.841451,0.998271,0.036229,-0.046287
0.243513,-0.038084,0.421656,0.846135,0.530499,-0.051252
0.064852,0.052079,0.695186,-0.626551,-0.750986,-0.208457
-0.385695,-0.235064,0.300575,0.060915,0.883758,0.463963
-0.054368,-0.193859,0.616471,0.371145,0.890443,0.263369
-0.674654,-0.222103,0.600353,-0.029986,0.988010,0.151452
0.369840,0.167450,0.489150,0.459105,-0.628298,0.628064
-0.515835,-0.834869,0.582640,0.847600,-0.081424,0.524351
0.007667,0.273221,0.496621,0.144161,-0.434988,0.888821
-0.282676,-0.442679,0.489849,0.989734,-0.097383,-0.104605
-0.000564,-0.352749,0.689337,0.015889,0.648472,0.761073
0.407269,0.048720,0.843353,0.744759,0.234443,-0.624796
-0.274444,-0.362272,0.288207,0.834424,-0.512566,0.202515
0.473031,0.634530,0.657913,0.725827,0.271451,-0.632052
-0.091627,-0.021921,-0.709009,0.991466,0.055999,-0.117729
-0.251223,-0.638134,0.557427,0.712039,0.600575,0.363744
-0.700213,-0.553166,0.614092,-0.281126,0.878432,0.386426
-0.542174,-0.377468,0.567977,0.514935,0.711977,0.477422
0.355369,0.254743,0.859947,0.410396,-0.745171,0.525639
-0.377551,-0.444603,0.842682,0.999958,-0.007382,-0.005429
-0.298099,0.116245,0.657801,0.832409,-0.469576,-0.294269
-0.201492,-0.247457,0.104249,0.704222,-0.660598,-0.260156
0.225318,-0.180333,0.730108,-0.705927,-0.165396,0.688703
-0.671534,-0.548283,0.516908,0.306401,-0.901944,-0.304328
0.060346,-0.031121,-0.179243,-0.221858,-0.975033,0.009431
-0.142659,-0.418116,0.771466,0.766666,-0.408709,-0.495157
0.586363,-0.107289,0.615939,0.522898,0.508296,-0.684261
-0.412470,0.210100,0.704308,0.656274,0.655639,-0.373419
0.403805,0.929272,0.580093,-0.677519,0.723994,-0.129619
-0.385610,0.313468,0.712479,-0.172550,0.828063,-0.533421
-0.133648,-0.078888,-0.552418,0.994162,0.062450,-0.087987
-0.306156,-0.150574,0.591426,0.978157,-0.176570,-0.109688
-0.115800,-0.115376,-0.383991,0.355811,0.906387,0.227732
-0.207642,0.360748,0.661131,-0.641902,-0.628258,-0.439607
-0.095699,-0.076252,-0.422915,0.802326,0.440560,-0.402716
-0.587923,-0.368834,0.575476,0.681349,0.218192,0.698681
-0.535849,-0.390272,0.767856,-0.180854,0.530203,0.828358
-0.758699,-0.257858,0.497768,-0.590280,0.192813,-0.783832
-0.237101,0.256657,0.608831,-0.747664,0.548844,-0.373857
0.032707,-0.664777,0.552195,0.522486,-0.572492,-0.631872
-0.275052,0.293623,0.695689,0.560573,-0.591938,-0.579109
-0.188147,-0.551486,0.756132,0.685592,0.288231,0.668496
-0.178876,0.482359,0.659088,-0.514018,0.783570,-0.349002
0.673266,-0.110014,0.632001,0.839254,-0.012379,0.543598
-0.628384,-0.340834,0.465784,0.958320,0.220952,0.181114
0.263788,0.795266,0.497712,0.531531,0.228553,-0.815621
-0.847334,-0.194015,0.594280,0.947280,-0.276198,-0.162404
-0.258849,-0.265222,0.795055,-0.421098,0.896769,0.135950
0.795175,0.324270,0.448631,0.136419,-0.890003,0.435069
-0.499460,0.157928,0.819708,-0.037930,0.086243,0.995552
0.462635,0.766387,0.662026,0.252942,-0.505748,-0.824766
-0.082007,-0.308829,0.970590,0.914664,0.399045,0.064446
0.832952,0.222738,0.630882,-0.675390,0.699211,0.234418
-0.078977,-0.199533,0.782239,-0.740575,0.645623,-0.186332
0.467487,0.591011,0.607292,0.968905,-0.176248,0.173665
-0.024045,0.549484,0.565290,0.127395,-0.877595,0.462166
0.534551,0.707739,0.689645,-0.652064,0.554501,0.517050
0.583676,0.759179,0.621983,-0.617168,0.777140,-0.123114
-0.255644,0.056640,0.272676,0.941004,-0.228189,0.249880
-0.293073,-0.685257,0.670001,0.447064,-0.894002,0.029884
-0.438808,0.225541,0.482630,0.762625,0.528134,0.373468
-0.021876,0.453079,0.367817,0.155037,-0.975386,0.156798
0.047609,0.689974,0.448351,-0.022720,0.126334,-0.991728
0.042326,0.133209,0.069803,-0.809302,0.583141,-0.070551
-0.024129,0.062647,0.007094,-0.268900,0.770730,-0.577640
-0.086429,0.004722,-0.941181,-0.210098,0.919701,0.331676
-0.347399,-0.409473,0.395520,-0.205871,-0.758470,0.618337
-0.388556,0.333548,0.754369,0.331228,0.005887,0.943532
-0.057142,-0.213939,0.130525,-0.799598,-0.587760,-0.123214
-0.232508,-0.410752,0.771774,0.540616,-0.697645,-0.470134
-0.168651,-0.040721,0.121990,-0.780944,-0.624223,-0.021726
-0.569295,-0.513485,0.588600,-0.553480,-0.263883,-0.789953
0.229044,0.035125,0.786241,0.784717,-0.443014,0.433541
-0.357103,-0.254743,0.746422,-0.514972,0.385080,-0.765844
0.189794,0.330902,0.673107,0.662541,0.476060,0.578279
-0.073604,-0.155614,-0.076351,-0.462482,0.886610,0.005771
-0.500845,-0.683021,0.684832,0.956883,-0.215562,-0.194698
-0.250530,0.003042,0.189204,0.827921,0.559739,-0.035201
0.511935,0.322903,0.570859,0.114880,-0.709312,0.695470
0.080968,-0.324749,0.782771,-0.247901,0.868634,-0.428977
0.021358,0.176416,0.840024,0.173140,-0.965713,-0.193447
-0.496253,-0.509002,0.541533,0.867195,0.435101,-0.242198
0.018931,-0.001685,-0.094287,-0.751730,-0.659435,0.006877
-0.265695,0.404589,0.650413,0.885677,0.206725,0.415742
-0.014425,-0.260105,0.811173,0.824247,0.542919,0.160798
0.223066,-0.057686,0.459796,0.859091,0.287642,-0.423349
0.106268,-0.304903,0.651589,-0.591961,0.273767,0.758046
0.078110,0.234976,0.223175,-0.548995,-0.786534,0.282788
-0.287874,0.016481,0.578218,0.493385,0.862438,0.113013
0.559763,0.150887,0.499000,0.328552,-0.896803,0.296308
0.171859,0.136813,0.614400,-0.792257,-0.440142,0.422615
-0.139973,0.187218,0.462930,-0.448171,0.212613,0.868296
-0.197071,-0.228823,0.803422,0.500422,-0.863235,0.066353
0.317073,0.111850,0.745974,0.996727,-0.060325,-0.053809
0.368021,-0.135856,0.496369,-0.288989,0.264146,0.920170
-0.221852,-0.036004,0.119863,-0.156111,0.987620,-0.015368
0.101762,-0.310744,0.635219,-0.449798,-0.871133,0.197000
-0.284756,-0.489645,0.768836,0.494764,-0.828291,0.262950
0.653339,0.631493,0.612889,0.063684,-0.636145,0.768937
-0.374605,-0.135133,0.103885,-0.633861,0.743642,-0.212641
0.095699,0.654454,0.397787,0.997958,-0.029981,-0.056393
-0.163628,-0.257546,0.200285,-0.658755,0.723140,0.207632
-0.625613,-0.396434,0.477705,0.993228,0.113422,-0.025167
0.139280,-0.617253,0.562324,0.005614,0.438648,0.898641
-0.074644,-0.201223,0.142529,0.768123,0.634243,-0.087885
-0.162501,-0.556526,0.786073,0.281023,0.304327,-0.910171
0.031234,-0.255544,0.848055,-0.006492,0.999789,0.019469
-0.442187,-0.568529,0.654023,0.285493,-0.946176,-0.152461
-0.302951,-0.489801,0.720342,0.922153,-0.265836,0.281007
-0.207817,-0.333314,0.192003,0.978882,-0.100838,0.177824
0.135642,-0.052646,0.006506,0.999144,0.020647,0.035859
0.024045,0.405634,0.299540,0.671945,0.683674,-0.284744
-0.088941,-0.420040,0.864172,0.922709,-0.158961,-0.351197
-0.290994,-0.441721,0.481678,0.991139,-0.051851,-0.122293
-0.111641,-0.330589,0.610202,-0.747155,-0.248235,-0.616554
-0.204522,0.562845,0.585046,-0.372053,0.889724,-0.264515
0.838584,0.321301,0.422215,0.424535,0.864730,-0.268350
-0.061126,-0.232261,0.349405,0.391314,0.900498,0.189675
-0.109909,-0.102728,-0.657829,0.985710,0.166203,0.027445
0.514447,0.582924,0.659340,-0.421924,0.892878,-0.157317
0.157649,0.729020,0.440264,0.700642,0.191393,-0.687364
-0.133561,-0.386590,0.472920,-0.651676,0.536476,0.536201
0.125157,-0.724782,0.612805,0.079083,0.991711,0.101268
0.228002,-0.028240,0.440852,0.906006,0.420729,-0.046265
-0.315860,0.172734,0.642942,0.472423,0.867639,0.154978
0.285275,0.003599,0.760693,0.300583,0.375313,0.876807
0.538882,0.255778,0.556420,0.209286,0.513071,-0.832441
0.064852,0.463393,0.328865,0.992881,0.103728,-0.058550
-0.099943,-0.243863,0.933765,0.894469,0.409445,0.179669
-0.279643,-0.577328,0.735005,0.668156,0.598081,-0.442568
0.072303,0.812787,0.393169,-0.549581,-0.752094,0.363753
-0.308062,-0.870077,0.439788,-0.399449,0.417975,0.815927
-0.778454,0.049286,0.559946,-0.745586,0.627665,0.223913
0.187107,-0.223139,0.721909,0.922055,0.386865,-0.012251
0.324004,-0.152176,0.701202,0.691338,0.721065,-0.046016
-0.230689,-0.309230,0.203000,0.993489,-0.113929,-0.000580
0.275224,0.083127,0.631022,-0.359680,0.808531,-0.465734
-0.303903,0.197931,0.278469,0.933168,0.343806,-0.104859
-0.058356,-0.200178,0.116897,0.885063,0.459917,0.071688
0.023696,0.418194,0.313055,0.929018,0.368468,0.034013
0.278603,-0.088733,0.850405,0.093277,-0.989874,0.107003
-0.551878,-0.804144,0.589383,-0.000740,-0.851110,0.524988
-0.432571,0.117368,0.799169,0.968407,0.172793,-0.179805
0.158863,0.540763,0.500007,0.832419,0.499621,0.239705
0.219771,0.072481,0.703972,0.947343,-0.274612,0.164711
-0.116321,-0.047529,-0.544919,0.978848,-0.178180,-0.100538
0.530130,0.732224,0.599961,0.819369,-0.398743,-0.411872
-0.198113,0.248180,0.587425,0.631024,-0.772752,-0.068292
0.563922,0.583491,0.575448,0.077937,-0.973322,0.215803
0.085908,0.220892,0.473032,0.381860,-0.577149,0.721860
-0.084609,-0.186739,0.278441,0.527402,0.849450,-0.016796
-0.344020,-0.488444,0.757587,0.227296,-0.929247,0.291266
-0.366202,-0.487399,0.727701,0.087873,-0.840258,0.535018
0.684271,-0.145134,0.610902,-0.466201,-0.871023,0.154839
-0.110601,0.329622,0.596715,0.074068,0.880263,-0.468670
-0.107569,-0.080168,-0.265877,-0.616824,-0.498529,0.609096
-0.252178,-0.434836,0.742952,0.041048,-0.972680,0.228490
0.291166,-0.014479,0.183272,-0.290128,0.953784,-0.078240
-0.114240,0.320266,0.586865,0.120337,-0.840925,0.527602
-0.436468,0.342270,0.749024,-0.315447,0.590612,0.742746
-0.269592,0.060967,0.293971,0.963405,-0.267195,-0.021381
0.131570,-0.286982,0.309893,-0.186900,-0.518448,-0.834434
0.102111,-0.293701,0.777454,0.842209,-0.508657,0.178750
-0.383096,-0.277782,0.555832,-0.726059,-0.686724,0.035326
-0.538794,0.192892,0.825864,0.113296,-0.361222,0.925572
-0.128537,-0.090325,-0.505268,0.553431,0.831805,0.042598
-0.051684,-0.640693,0.546122,-0.177059,0.593738,0.784937
-0.307544,-0.465239,0.829334,-0.112471,-0.972029,0.206180
-0.191526,-0.218255,0.967400,-0.173436,0.973614,-0.148312
-0.190312,-0.020085,0.114743,-0.670204,-0.730648,0.130310
-0.411343,0.205774,0.613476,0.890278,-0.446773,-0.088314
-0.105144,-0.363795,0.640116,0.119061,-0.927127,0.355330
0.647966,-0.114087,0.470234,0.189393,0.980685,-0.048851
0.130702,0.135368,0.602032,0.774843,0.541945,-0.325445
0.202097,-0.014801,0.492480,0.907889,0.412155,-0.076585
0.781399,-0.151453,0.737719,-0.534852,0.315283,0.783920
0.531690,-0.210902,0.567025,0.202784,-0.152362,0.967298
0.396872,0.899269,0.537504,-0.581243,0.691426,-0.429053
0.444181,0.755263,0.562800,0.674660,0.720932,-0.158404
0.237706,0.052724,0.698599,0.925011,-0.177555,-0.335899
0.529783,0.466039,0.464469,0.307633,-0.928606,0.207490
-0.373132,-0.405078,0.841954,0.328584,-0.780279,0.532162
-0.108348,-0.010006,-0.969275,-0.127611,-0.471728,-0.872461
-0.152276,-0.863514,0.528577,-0.448062,0.307537,0.839441
-0.336569,-0.524843,0.545059,0.139499,-0.233037,0.962410
-0.212753,-0.116333,-0.965106,0.962877,-0.203450,-0.177417
-0.252870,0.246178,0.612273,0.532934,-0.508502,0.676319
-0.212235,-0.286503,0.160550,0.909954,-0.349670,0.222966
0.278691,0.091927,0.860311,-0.110224,0.881699,0.458757
-0.276785,-0.126890,0.700922,0.478283,0.532949,-0.698005
0.373304,-0.254020,0.521721,-0.003765,0.631832,0.775096
-0.133214,-0.018483,0.071510,-0.751318,-0.659129,0.032715
0.018931,-0.109291,0.859555,0.111058,-0.913018,0.392510
-0.640690,-0.089446,0.503841,0.710734,0.214773,-0.669873
-0.431010,0.219300,0.590167,-0.702748,-0.590206,-0.397243
-0.258936,-0.367555,0.316413,0.917738,0.387943,0.085187
0.737643,-0.196262,0.688274,0.970554,0.208417,-0.120775
-0.372440,-0.443557,0.605613,0.236078,-0.425093,-0.873821
0.428670,0.605485,0.694066,-0.380942,0.841941,-0.382123
0.016073,0.457718,0.410798,0.836387,-0.496158,0.232989
0.317245,0.012076,0.180642,0.144642,-0.947047,0.286672
-0.361001,-0.436594,0.522057,-0.292796,0.340154,0.893625
-0.284061,0.228334,0.582724,-0.448175,0.840622,-0.304128
-0.281549,-0.553166,0.814587,-0.160589,0.827417,-0.538137
-0.304165,0.117212,0.683629,0.280797,-0.746736,0.602941
0.409868,0.007603,0.465393,-0.727929,0.578553,0.367962
-0.393146,0.414834,0.742392,0.771740,-0.486957,0.409011
-0.509510,-0.506287,0.757671,-0.343047,-0.634725,0.692418
-0.146906,0.882392,0.588348,-0.075181,-0.747492,0.660003
0.711736,0.648213,0.622095,0.131317,0.950188,-0.282662
-0.634712,0.296103,0.677389,0.837771,-0.404902,-0.366326
0.039465,0.518202,0.508346,0.407908,0.791281,-0.455506
-0.064680,-0.197062,0.357855,0.696047,0.707715,0.121069
0.459602,-0.271063,0.622515,0.052797,0.983257,0.174409
-0.178096,-0.612937,0.352958,0.903398,-0.385255,-0.188283
0.042932,-0.031599,-0.191723,0.752526,-0.652736,-0.087408
0.573973,-0.361715,0.591678,0.904805,-0.053488,-0.422453
-0.191613,-0.063203,0.064906,-0.745174,-0.400229,0.533416
0.166227,0.541163,0.518923,-0.410389,-0.800226,-0.437286
-0.600314,0.382351,0.460440,0.081952,0.657812,0.748711
-0.433784,-0.894640,0.572062,0.432432,0.487866,0.758280
-0.588529,-0.228823,0.634323,0.592501,0.805028,-0.029531
0.193953,0.063526,0.607712,0.717107,0.696939,-0.005766
0.053762,-0.269227,0.840919,0.853080,-0.064568,0.517770
-0.296713,-0.455238,0.782743,-0.395792,0.862216,-0.316122
-0.272625,-0.434113,0.386370,0.991554,0.129295,0.010143
-0.438895,0.245377,0.548865,0.933857,0.249427,-0.256314
-0.294632,0.011598,0.387405,0.958210,0.146535,0.245683
-0.208769,0.569329,0.599065,-0.234799,0.817272,-0.526247
0.369578,0.383875,0.659004,0.958751,-0.129991,0.252783
-0.042152,-0.270105,0.646748,0.571556,0.457684,-0.681065
-0.009661,-0.288984,0.497964,0.976210,0.173642,-0.129856
-0.470173,0.220980,0.526590,0.939738,0.332900,0.077907
0.124203,-0.309152,0.549956,-0.351732,-0.891941,-0.284122
-0.487069,-0.666457,0.524268,-0.774770,0.507343,0.377271
0.066933,0.196896,0.816994,0.792252,-0.112965,0.599646
-0.786251,-0.242017,0.507506,-0.599740,0.209018,-0.772414
0.426246,0.799827,0.597778,-0.742381,0.126885,0.657853
-0.064159,0.811342,0.583535,-0.533971,0.682425,-0.499171
-0.094660,0.893517,0.599037,0.165850,-0.663468,0.729591
0.003248,-0.074328,-0.257230,0.919829,-0.340597,-0.194702
-0.039465,0.649492,0.646160,-0.790017,0.443776,-0.423007
-0.729584,-0.513407,0.639920,0.875194,0.443568,0.193089
-0.052811,-0.924720,0.536384,-0.571602,0.607671,0.551368
0.228782,0.038319,0.683517,0.976938,-0.160447,-0.140886
-0.517308,0.264656,0.770487,0.276610,0.953280,0.121429
0.168651,-0.677180,0.595204,0.177888,0.831647,0.526041
0.522247,0.830152,0.576819,0.964155,-0.018924,0.264663
-0.546333,-0.485641,0.518056,0.768477,-0.074972,-0.635471
-0.137807,-0.075607,-0.727561,0.985297,0.170506,-0.010819
0.528744,0.595406,0.577687,-0.436976,0.858362,-0.268825
-0.262749,0.372672,0.656905,0.644810,0.639103,0.419247
-0.494261,-0.177774,0.699103,-0.711202,0.670707,0.210577
-0.454578,0.263142,0.790802,-0.781020,0.538383,-0.316467
-0.123425,0.820786,0.570831,0.159574,-0.712844,0.682927
-0.119092,-0.252663,0.224854,0.620942,-0.783512,-0.023247
0.463589,0.716773,0.502330,-0.012825,-0.808546,0.588293
-0.467402,0.201135,0.775244,0.929740,0.147184,0.337520
-0.249058,0.066719,0.361129,0.995878,0.089746,-0.013112
-0.772300,-0.619012,0.611658,-0.194680,0.542053,0.817483
-0.092838,-0.138493,0.103270,0.899170,0.427769,0.092238
0.272884,-0.110248,0.830789,-0.124523,0.923887,-0.361838
0.355284,0.341147,0.655338,-0.581792,0.753204,-0.306922
-0.191439,-0.251539,0.798749,-0.264820,0.883762,-0.385793
-0.207037,-0.005044,0.164859,-0.125023,-0.977721,0.168612
0.026557,-0.249537,0.819260,-0.081689,-0.488771,0.868579
-0.139455,-0.142097,-0.966953,-0.078398,-0.151268,0.985379
0.218298,-0.140017,0.397143,0.949739,-0.120879,-0.288762
-0.260063,-0.019128,0.346914,0.842145,-0.538344,-0.031251
-0.184768,0.436750,0.636982,-0.155761,0.015486,-0.987673
-0.307716,-0.767500,0.450030,0.836764,0.310560,-0.450975
-0.026123,0.428117,0.408224,-0.775419,0.506214,-0.377455
-0.243859,-0.715426,0.480531,0.377664,-0.242534,-0.893615
-0.135382,-0.052724,-0.143369,0.550212,0.826496,-0.119041
0.256768,-0.085764,0.778490,-0.018968,0.716693,0.697131
0.098557,0.345551,0.573321,0.386861,0.308932,-0.868850
0.622059,-0.163691,0.576623,-0.288342,0.802327,0.522619
-0.209720,-0.249782,0.781512,-0.309469,0.937169,0.161070
-0.488368,0.701977,0.723168,-0.592358,0.789903,0.158637
0.144653,-0.468999,0.370476,-0.074507,0.622588,0.778995
0.087814,-0.019762,0.046269,0.993107,-0.115159,-0.021834
0.184075,0.120405,0.881494,0.881192,0.229227,-0.413468
0.421999,0.764140,0.582863,0.928122,0.356353,0.107716
0.436814,0.077208,0.457417,-0.705368,0.605281,0.368904
-0.556037,-0.375788,0.553818,-0.342891,-0.801123,0.490539
-0.104102,-0.438596,0.483609,0.856581,0.436601,0.275043
-0.013127,-0.090647,-0.293775,0.999658,-0.024295,-0.009711
-0.144391,-0.216742,0.544779,-0.152265,0.986674,-0.057357
-0.424773,0.221293,0.717292,0.504146,0.644243,-0.575142
0.095353,0.040721,0.606928,-0.362783,0.661360,-0.656500
-0.165100,-0.803353,0.505156,-0.475285,-0.772294,-0.421504
0.128190,-0.551330,0.586641,0.270066,-0.058026,0.961092
-0.459776,0.196252,0.709065,-0.337521,0.643542,0.686974
-0.325046,0.257380,0.645852,0.836366,-0.446573,0.317905
0.672227,0.256735,0.539686,0.578460,0.353785,-0.734997
0.455011,0.953678,0.570411,-0.052351,-0.931921,0.358863
0.545381,-0.242262,0.602423,0.708143,0.690260,0.148579
-0.460990,-0.568851,0.377443,-0.301146,0.624910,0.720277
-0.267167,-0.346674,0.299316,0.787755,-0.608215,0.097555
-0.022831,-0.087288,0.642438,-0.711768,-0.017804,0.702189
0.229824,0.118569,0.835826,0.444791,0.872552,-0.202025
0.175322,0.108647,0.774516,0.755611,0.648299,0.093598
-0.364727,-0.377634,0.514838,0.612571,-0.065721,0.787679
-0.161895,0.533321,0.567473,-0.012659,-0.946866,0.321380
0.789977,0.245299,0.639752,-0.737065,-0.358640,0.572811
-0.070659,-0.427238,0.842794,0.807757,-0.447883,-0.383314
-0.398694,-0.115054,0.203811,0.829403,-0.422900,0.365029
0.361001,-0.135768,0.755544,-0.802346,0.591564,0.079323
0.145258,0.097044,0.284961,0.937014,0.324212,0.129967
-0.173503,-0.087288,0.001889,0.792530,0.561944,-0.236886
0.549800,0.320266,0.577547,0.358657,-0.670968,0.648974
0.504138,-0.049521,0.500735,0.901259,-0.412424,0.132813
-0.199239,0.259059,0.576595,-0.622590,0.759338,0.189178
-0.752546,0.068243,0.563304,0.920519,-0.294216,-0.257063
-0.446952,0.222738,0.682286,-0.215592,-0.830267,0.513982
-0.497207,-0.610769,0.685280,0.728795,0.325737,0.602290
-0.463328,-0.188175,0.263134,0.962049,-0.253861,0.100083
-0.284756,-0.438762,0.591482,0.865127,0.499961,-0.039925
0.327383,-0.170654,0.666979,-0.869052,-0.056795,-0.491450
0.048736,-0.493405,0.523624,-0.726309,0.160797,0.668296
0.329464,-0.093606,0.512515,0.425858,0.891431,-0.154904
-0.036433,-0.203215,0.326487,0.939143,0.322714,-0.117758
-0.212322,-0.299864,0.727422,0.539208,0.785330,0.304157
-0.208163,-0.436594,0.790998,0.290308,0.269577,-0.918177
-0.065114,-0.264588,0.826256,0.852623,-0.230990,0.468698
-0.039727,0.024157,-0.008689,-0.062871,0.954970,-0.289966
0.062165,-0.061123,-0.183188,-0.412666,0.909137,0.056357
0.003248,0.472993,0.459852,-0.522821,0.783786,-0.335168
0.341767,0.896954,0.551467,-0.690901,0.616017,-0.378390
0.333536,0.559162,0.688162,-0.672030,0.582378,-0.457395
0.228264,0.005836,0.571782,0.915730,0.389547,0.098451
-0.024737,0.605573,0.577827,0.853458,0.396486,0.338243
-0.242561,-0.026482,0.287983,0.949241,0.269623,0.162005
-0.116405,-0.035760,-0.581996,0.995460,-0.093849,-0.015896
0.218906,0.290586,0.673611,-0.655663,0.145764,-0.740850
0.273146,0.077365,0.749752,0.352125,0.559062,0.750639
-0.301825,0.117212,0.433688,0.887002,0.461353,0.019531
0.076550,0.164091,0.781176,0.035921,-0.999263,0.013564
-0.396266,0.146414,0.755712,0.238785,-0.951147,0.195706
-0.281983,-0.433000,0.404754,0.998634,0.044252,-0.027775
0.014772,-0.338588,0.422971,0.947527,0.301136,-0.107286
-0.274444,0.227699,0.593413,-0.492411,0.861756,-0.122103
0.152622,-0.411152,0.585634,0.662637,-0.106537,-0.741325
-0.169952,-0.452679,0.782211,-0.136824,0.744795,0.653115
-0.055148,0.142575,0.488870,-0.495729,0.076246,0.865124
0.444874,0.846228,0.576399,0.711504,-0.120612,-0.692254
-0.324784,0.301544,0.564675,-0.328260,-0.826323,-0.457641
0.357622,0.281942,0.619101,-0.624499,0.475298,-0.619752
-0.401206,0.171777,0.827319,0.837768,0.445073,-0.316313
0.226876,0.103851,0.864508,0.554870,-0.831336,0.031624
0.393493,-0.156336,0.570103,0.510510,0.249456,-0.822892
-0.023003,-0.002398,-0.067732,-0.083951,-0.965564,0.246249
0.220466,0.103363,0.805129,0.065847,-0.989865,-0.125827
-0.169519,-0.625574,0.656038,0.640333,0.725721,0.251600
-0.129317,-0.101371,-0.950583,0.297893,0.001371,0.954598
0.079755,-0.134577,0.785122,0.862916,-0.505202,0.012117
0.443573,0.131686,0.913422,-0.246096,-0.832603,0.496195
0.116146,-0.090647,0.787640,-0.674955,0.724569,-0.139414
0.748474,0.650615,0.616135,0.434371,0.833144,-0.342333
0.215786,-0.002798,0.537336,0.809966,0.586156,-0.019385
-0.614523,-0.335951,0.472668,0.980860,-0.031199,-0.192201
0.009314,-0.061524,-0.180754,0.064649,-0.947911,0.311905
-0.094051,-0.115376,-0.220545,0.922106,0.040356,-0.384826
-0.037474,-0.043368,-0.346299,-0.610820,0.767774,0.193450
-0.335876,-0.263699,0.603067,-0.744402,0.319342,0.586418
0.099858,-0.257858,0.545115,-0.317902,-0.939746,-0.125757
0.051769,0.445716,0.727869,0.857444,0.340734,0.385605
-0.418533,-0.285703,0.770011,0.800029,0.381877,0.462735
0.079149,-0.144734,0.820799,0.807304,-0.108644,-0.580049
-0.389941,-0.197140,0.674003,0.139084,0.936756,-0.321160
-0.052118,-0.222260,0.774712,0.103318,0.935722,0.337267
-0.238835,-0.579086,0.528409,0.722035,-0.069732,0.688333
0.806698,0.285702,0.422103,0.224632,0.928806,0.294721
0.040420,0.341068,0.674842,-0.196974,-0.866200,0.459237
0.035652,0.114165,0.057518,0.414327,-0.906713,-0.078775
-0.153403,-0.499480,0.384411,0.643729,0.722444,0.252364
0.573885,-0.046161,0.623242,0.510682,0.071209,-0.856815
-0.117706,-0.157450,0.057854,0.673072,-0.735735,-0.075285
-0.226011,0.138493,0.455962,-0.192529,0.813193,-0.549227
-0.777933,-0.262263,0.677641,-0.795769,-0.589891,-0.137039
0.532644,0.587085,0.651029,0.403717,-0.909994,0.094463
0.433782,0.061201,0.851328,0.353418,0.933051,-0.067171
-0.287268,0.027683,0.469254,0.992575,0.100450,-0.068591
-0.049778,-0.270184,0.414716,0.954758,0.192329,-0.226818
0.002815,-0.038485,0.659368,0.674391,-0.721306,-0.157843
0.360395,0.949039,0.608020,-0.099812,-0.616300,0.781160
0.189707,-0.014879,0.320443,0.831237,-0.464895,0.304825
-0.674567,-0.151775,0.581101,0.215254,-0.663115,0.716899
0.091886,-0.663820,0.612469,0.371485,0.928438,0.001110
-0.738770,0.234575,0.835546,0.892663,0.021047,-0.450232
-0.150978,-0.293946,0.160746,0.716626,-0.675884,0.172128
-0.901399,-0.109770,0.541253,-0.422155,0.906072,-0.028629
-0.013820,-0.009283,-0.975431,-0.313510,0.072176,0.946838
0.548760,0.506043,0.515453,0.169373,-0.855160,0.489913
0.051510,0.508524,0.382256,0.845607,-0.517158,-0.132272
-0.297665,-0.488200,0.554713,0.155367,-0.164702,0.974030
-0.276785,-0.174014,0.655059,-0.117831,-0.890073,0.440324
0.538882,-0.101771,0.569824,0.248030,0.964374,0.091996
0.228523,-0.069210,0.755516,-0.052148,0.988320,-0.143192
-0.049257,-0.249059,0.837925,0.801778,-0.531987,0.272290
-0.320540,0.138171,0.837393,-0.268634,0.542129,-0.796199
-0.458304,-0.402431,0.730668,0.625525,0.283780,0.726765
0.361263,0.238101,0.588712,-0.481234,-0.461408,-0.745330
0.109993,0.382986,0.702517,-0.597135,-0.695291,-0.400001
-0.395661,0.304268,0.786101,-0.013410,0.623748,0.781511
0.217346,0.019997,0.665720,-0.688923,0.720446,0.079645
-0.291253,-0.488766,0.412505,0.992164,-0.117891,-0.041379
-0.053590,-0.229536,0.336225,0.941385,0.336825,-0.018528
-0.301391,-0.457240,0.534118,0.915311,-0.067572,-0.397038
-0.215527,-0.769502,0.503001,0.958628,0.224982,0.174401
-0.045013,0.432677,0.317029,0.920096,0.391543,0.010880
0.383008,0.856707,0.558714,-0.451201,0.597450,0.662926
-0.180695,-0.065762,0.095631,-0.717136,-0.674104,0.176918
-0.411256,-0.545245,0.644313,-0.217930,0.894198,0.391046
-0.715983,0.416592,0.702937,0.877071,-0.176458,0.446777
0.157474,0.124644,0.787836,0.989556,-0.132595,-0.056544
0.160073,-0.583970,0.572678,0.781867,0.623353,-0.010711
-0.036002,-0.378992,0.629426,-0.268911,0.847371,-0.457875
0.297752,-0.177617,0.632756,-0.587420,0.780570,0.213656
0.601699,0.028796,0.806752,-0.766099,-0.560320,0.314856
0.045790,0.187452,0.158479,0.959190,-0.135779,0.248029
0.388640,0.342270,0.615407,0.305049,-0.918835,0.250376
0.328943,0.184092,0.606509,-0.481999,0.728223,0.487205
-0.128016,-0.088811,-0.238845,-0.207414,-0.958783,-0.194202
-0.112680,-0.149695,-0.082675,0.644396,0.764202,-0.027365
0.271932,0.162655,0.896213,0.803718,-0.565951,0.183677
-0.749080,0.314181,0.629091,0.892968,0.048713,-0.447476
-0.358748,-0.518046,0.776111,0.902224,0.392714,0.178236
-0.279037,-0.009840,0.405342,0.862841,-0.471179,0.183017
-0.024216,-0.532764,0.516153,-0.436608,0.698550,0.566923
-0.009489,-0.243619,0.410547,0.883079,0.080473,-0.462272
-0.385957,-0.673098,0.583535,0.045967,0.610944,0.790338
-0.883033,-0.076086,0.657325,0.877337,-0.203953,0.434376
0.694840,0.229536,0.592993,0.646540,0.754256,-0.114384
-0.049778,-0.198098,0.284121,-0.567790,-0.820599,0.065052
-0.599272,-0.581567,0.668014,0.202798,-0.943449,-0.262256
-0.196378,-0.343149,0.724539,0.521688,0.785486,0.332945
-0.342114,-0.416914,0.722553,0.680339,0.732874,-0.005884
-0.268119,0.117768,0.422047,0.268762,0.958111,-0.098945
0.138412,0.107846,0.574693,-0.680677,-0.716376,0.153246
-0.196465,-0.068009,-0.978817,-0.607382,0.147356,0.780624
-0.256163,-0.503963,0.621116,0.231373,0.960545,0.154340
-0.001429,0.365387,0.276650,0.974181,0.220882,-0.046716
-0.019193,-0.459799,0.776867,0.930261,-0.021825,0.366248
0.430402,0.715816,0.580485,0.702328,-0.183792,0.687717
0.326865,0.095608,0.737271,0.945278,0.265801,-0.189206
-0.034183,-0.187774,0.336952,-0.345474,0.911606,0.222760
0.136506,0.365387,0.719754,-0.659022,-0.678328,-0.324901
0.593034,0.761260,0.685811,-0.683156,0.391825,0.616255
-0.373825,-0.037606,0.036112,-0.032324,-0.999371,0.014618
-0.385957,0.191456,0.550152,0.565133,0.704092,-0.429975
-0.021099,-0.273309,0.739790,0.976912,0.027248,-0.211896
-0.272104,-0.193693,0.680243,0.349104,0.921014,-0.172798
-0.183207,-0.930883,0.521078,0.776134,-0.016804,-0.630344
0.705586,-0.246100,0.738083,0.805613,-0.543107,-0.236690
0.043365,0.211536,0.179466,0.927545,-0.349701,0.131790
-0.133822,-0.058008,-0.502665,0.973544,0.126062,-0.190579
-0.048305,-0.029607,-0.083878,0.209629,-0.250948,0.945030
-0.062599,-0.199455,0.324780,-0.718369,-0.694041,0.047479
-0.488368,-0.666213,0.670785,0.159971,0.447347,0.879937
0.021446,0.037840,-0.010312,0.894400,0.396158,-0.207623
-0.213274,-0.724460,0.515817,0.908139,0.408884,-0.089982
0.296798,-0.105853,0.600996,0.940729,-0.300609,-0.157045
-0.040679,-0.415078,0.554461,0.474250,0.512212,0.716049
0.132609,0.555647,0.462119,-0.570917,0.206902,0.794510
-0.135901,0.574447,0.556420,-0.128610,0.991620,0.012235
-0.010615,-0.079846,-0.263778,-0.350174,0.933351,0.078954
0.377117,0.190255,0.753921,0.702927,-0.662184,0.259626
0.454491,-0.168740,0.580989,0.119607,-0.878141,0.463209
0.189186,0.028884,0.739930,0.430825,-0.774281,0.463550
0.022310,0.419229,0.314259,0.914820,0.402895,0.027935
-0.254084,-0.335072,0.263806,0.890672,0.412213,0.191788
-0.578737,-0.222983,0.629650,0.515238,0.851035,0.101341
-0.254343,-0.096409,0.529165,0.982407,-0.126983,0.136940
-0.080450,-0.159296,0.074476,0.663700,-0.718001,-0.209708
-0.130790,-0.214818,0.973417,-0.093268,0.989208,-0.112997
-0.033487,0.569085,0.592769,0.009637,0.847746,0.530315
-0.212669,-0.406191,0.491556,-0.003336,0.993109,0.117144
-0.408828,0.161210,0.526674,0.902588,0.426994,0.054874
-0.539315,-0.576527,0.685420,0.424145,0.733673,0.530871
-0.824113,0.044637,0.548081,0.769265,-0.637964,-0.035120
0.038167,-0.541251,0.554545,0.938568,-0.005931,0.345044
0.121519,-0.463715,0.566885,0.871769,0.043874,-0.487948
0.488108,0.105844,0.889833,0.352119,0.879094,-0.321258
-0.133214,-0.229380,0.875170,0.664024,0.725611,-0.180445
-0.103497,-0.016247,-0.788508,0.943805,-0.327292,0.045964
0.420613,0.963522,0.600744,-0.130914,0.824056,0.551174
-0.112421,-0.080812,-0.254544,0.792977,0.538368,-0.285215
0.403543,0.154334,0.828635,-0.085239,0.086691,0.992582
-0.234676,-0.435959,0.775524,-0.317016,0.681898,0.659178
0.145779,-0.067608,0.353742,0.913650,-0.367891,-0.172915
-0.549453,0.648848,0.701566,-0.592358,0.789903,0.158637
0.191959,0.206897,0.652092,-0.117916,-0.808271,0.576883
-0.059307,-0.211780,0.283170,-0.544510,-0.838614,-0.015366
-0.497033,-0.546925,0.655562,0.408268,-0.912208,-0.034548
0.620499,-0.229145,0.603039,-0.655413,0.726440,-0.206686
-0.262316,-0.445159,0.712563,-0.461131,0.878578,0.124335
-0.198890,0.677336,0.626768,0.383030,0.606069,-0.697114
0.140581,0.137448,0.454172,0.894277,0.394790,-0.210736
0.128883,-0.026726,0.097645,0.923204,-0.356844,-0.142677
-0.341508,-0.650537,0.576567,0.196369,-0.197642,-0.960404
-0.714510,0.252496,0.614260,0.864011,0.377437,-0.333206
-0.321146,-0.458119,0.702321,0.623343,0.761474,0.177766
-0.293940,-0.492126,0.613728,0.265800,0.864673,0.426253
-0.354417,0.175371,0.668714,0.460302,-0.871654,0.168349
-0.204004,-0.078244,0.741553,0.374206,-0.790620,0.484655
-0.023611,0.357388,0.592238,0.106982,-0.356059,0.928319
-0.486548,-0.606374,0.626432,-0.486836,0.816998,-0.309038
0.549712,-0.111372,0.741917,-0.697048,0.251887,0.671324
-0.306764,0.205940,0.602227,-0.341962,0.938602,0.045703
-0.183207,-0.032166,0.097701,-0.758231,-0.650152,-0.048873
-0.036261,-0.251461,0.534677,0.973731,0.220562,-0.056563
-0.299225,-0.807992,0.439033,0.524366,0.334215,-0.783161
0.091711,0.278583,0.257958,0.370720,0.884675,-0.282696
-0.048218,-0.059443,-0.975711,0.253144,0.322078,0.912241
0.318980,0.073126,0.350804,-0.803032,0.586029,0.108212
-0.319414,-0.395155,0.556140,0.915742,0.168916,0.364533
0.077589,-0.024802,-0.056371,0.745815,0.660021,-0.090179
0.737731,0.334349,0.433996,0.500944,-0.331763,0.799367
-0.096045,-0.095609,-0.353126,0.019481,0.985649,0.167682
0.747953,0.549084,0.608132,0.467926,0.874248,-0.129366
0.292121,0.078322,0.623970,0.287984,-0.893942,0.343414
0.056621,0.272977,0.613980,-0.698353,-0.657245,-0.283429
-0.013214,0.493083,0.447372,-0.714850,0.118947,0.689087
-0.015205,-0.242183,0.793293,0.833283,0.399421,-0.382234
-0.080450,-0.153133,-0.127027,0.362197,0.928703,-0.079529
-0.107135,-0.281942,-0.116785,0.992823,-0.104205,0.058680
-0.596760,0.191212,0.821555,0.402569,-0.850449,0.338637
-0.239354,-0.042088,0.014649,-0.482803,0.856222,-0.183808
-0.658884,-0.562044,0.621200,0.201346,0.690167,0.695076
0.135554,-0.525244,0.399633,0.983521,-0.056841,0.171624
-0.760864,0.080881,0.553286,0.915890,-0.322650,-0.238837
-0.389161,0.315148,0.561849,0.648425,-0.621207,-0.440052
-0.540614,-0.153377,0.290753,0.279550,0.870816,0.404391
0.108436,0.007037,0.026625,0.845666,0.533514,-0.014538
-0.111207,-0.089612,-0.738727,0.846031,0.470847,0.250068
-0.370879,-0.449320,0.857569,0.960237,-0.022272,-0.278295
0.436901,0.598052,0.704560,-0.282000,0.920138,-0.271703
0.170645,-0.145456,0.300071,0.899436,-0.411808,-0.146389
0.263180,-0.150174,0.780812,-0.466628,0.799441,-0.378355
-0.545899,0.367545,0.741273,-0.472870,0.004876,0.881118
0.077243,0.182579,0.136765,0.987899,0.034400,-0.151234
-0.191613,0.184737,0.652624,-0.204676,0.879580,0.429472
-0.225665,0.154490,0.688302,0.821367,-0.561660,0.099467
0.494954,0.278026,0.403775,-0.487799,0.843354,-0.225403
0.342894,0.288906,0.604186,-0.502327,0.530102,-0.683124
-0.333711,-0.527168,0.490353,0.664142,-0.645390,-0.377344
-0.149677,-0.490446,0.688945,-0.605532,0.125433,0.785874
-0.030541,0.335628,0.607152,0.404649,0.909138,-0.098625
-0.478405,0.215452,0.787192,0.430143,-0.788538,0.439529
0.375819,0.079289,0.657353,-0.189249,-0.428339,-0.883578
-0.303731,-0.748299,0.475634,-0.376291,0.925963,0.031602
0.519386,0.666213,0.617926,-0.659241,0.590554,-0.465455
-0.432571,0.192257,0.612609,0.933561,-0.087619,0.347545
-0.274619,-0.521640,0.423251,0.937181,0.346103,0.043643
-0.012694,0.620369,0.541085,0.397387,0.736532,0.547361
-0.431616,0.400194,0.772390,0.885273,-0.211838,0.414024
-0.836070,-0.182178,0.484197,0.934699,0.350533,-0.058862
-0.463415,0.256579,0.648651,-0.648430,-0.760702,0.029503
-0.241260,0.210813,0.641319,0.104302,0.720287,0.685790
-0.242127,0.002720,0.240608,0.973351,0.228475,0.019649
-0.365076,-0.513807,0.748828,-0.463659,0.812891,-0.352460
-0.126109,-0.160331,-0.032698,0.801255,0.588165,0.109787
-0.123597,-0.419952,0.580625,0.919441,-0.231505,-0.317858
-0.068406,-0.204983,0.585158,0.874271,-0.294348,-0.386018
0.090931,-0.472359,0.575812,0.849360,-0.043289,-0.526036
-0.251398,-0.002320,0.225806,0.998191,0.004676,-0.059937
0.063813,0.587085,0.414436,0.979586,-0.191010,0.062668
0.140319,0.037361,0.611182,0.259906,0.954268,-0.147720
-0.122992,-0.397958,0.572874,0.971758,-0.226171,0.067330
0.253997,0.447874,0.721965,0.011946,0.904652,0.425983
-0.225752,0.010797,0.227596,0.938873,-0.241198,0.245643
0.489756,0.790861,0.594140,0.105373,-0.441461,0.891072
0.478230,0.119927,0.475774,-0.652971,0.736386,0.177101
-0.462981,-0.100169,0.747429,0.510641,-0.753981,-0.413229
-0.164061,-0.097611,0.693954,0.874973,-0.201894,0.440069
-0.436468,0.224174,0.741413,-0.814371,0.117172,-0.568393
-0.052723,-0.315549,0.733186,0.730526,-0.264763,0.629470
0.388381,0.129449,0.828019,-0.554045,0.813651,-0.176086
-0.141792,-0.469165,0.688890,0.709682,0.017387,-0.704308
-0.420355,-0.638212,0.469674,0.916420,-0.327459,0.230099
0.036086,0.464282,0.379402,0.794279,-0.604802,-0.057745
0.066671,0.252819,0.821471,-0.301445,0.146683,0.942133
-0.025518,-0.194982,0.291761,0.648542,0.759947,-0.043275
-0.062686,-0.278182,0.843297,0.740021,-0.640461,0.205373
0.591820,-0.084573,0.649462,0.315291,0.849366,0.423283
0.740068,0.218656,0.628083,0.493018,0.282130,-0.823004
-0.624574,-0.359947,0.549228,0.880812,0.439455,-0.176211
-0.458044,-0.121607,0.245841,0.727579,-0.685535,0.025903
-0.858511,-0.018561,0.657073,0.941147,-0.316724,0.118016
-0.007236,-0.030887,-0.240692,0.965673,-0.112617,-0.234081
0.233721,0.189698,0.899123,0.956804,-0.142782,-0.253258
-0.259370,-0.004478,0.435087,0.964994,-0.086610,0.247560
0.574493,0.643174,0.548977,0.082792,0.850614,-0.519232
0.479618,0.143132,0.462650,-0.598397,0.730569,0.328923
-0.096563,-0.084573,-0.891651,0.023959,0.994649,0.100500
0.227743,0.604606,0.500567,-0.385900,0.205614,0.899335
-0.041200,-0.138571,-0.958810,-0.459230,0.238376,-0.855736
-0.173852,0.671496,0.342241,0.012736,-0.272977,0.961936
0.033315,0.471558,0.396779,0.865250,-0.446585,0.227824
-0.233463,-0.307951,0.250346,-0.292282,0.844349,0.449051
0.063987,0.616374,0.377135,0.997235,-0.065999,-0.034148
-0.106183,-0.091692,-0.791334,0.957652,-0.287386,-0.017655
0.200191,0.543966,0.578106,0.957181,0.097310,-0.272647
-0.732879,-0.633730,0.636170,0.337314,0.713715,-0.613865
0.390288,-0.097845,0.763883,0.449577,-0.881948,0.141589
-0.469221,0.264900,0.798637,-0.438934,0.715072,-0.544068
0.580990,0.853748,0.528437,-0.565345,-0.654712,0.501733
-0.551359,-0.689340,0.439649,0.986019,0.092268,-0.138756
-0.068493,0.915432,0.614792,0.372074,-0.510687,0.775087
0.550318,0.878476,0.523624,0.578768,0.729178,-0.365141
0.237534,0.042958,0.872987,0.275826,0.777137,0.565666
-0.094660,0.252340,0.480755,0.018549,-0.888159,0.459162
-0.208509,-0.568929,0.390343,0.398901,0.358829,0.843872
-0.792317,0.424591,0.730472,0.871319,-0.440057,0.217146
0.180955,0.041678,0.416927,0.935673,0.349764,0.046705
-0.138762,-0.373708,0.470933,0.567666,-0.614917,-0.547387
-0.003682,-0.027683,-0.300435,0.998681,0.020799,0.046938
-0.838669,-0.147058,0.612385,0.984599,-0.067717,-0.161183
-0.102024,0.210335,0.630350,-0.150390,0.695284,0.702825
0.456743,0.610446,0.653212,0.799351,-0.555228,-0.229695
-0.101331,-0.310666,0.760217,-0.523713,0.506954,-0.684633
-0.687650,0.464917,0.727645,-0.568508,0.622813,0.537497
-0.054717,-0.140573,0.865740,-0.542329,0.814088,-0.207700
-0.421394,0.317541,0.703329,0.823433,-0.385382,0.416460
0.067280,0.662218,0.566634,0.963789,0.263432,-0.041393
0.391848,0.773907,0.521749,-0.345359,-0.484034,0.804014
-0.264394,-0.014000,0.264338,-0.041696,0.947023,0.318448
-0.447991,0.253942,0.616722,0.056999,-0.969515,0.238310
-0.254690,-0.629178,0.568285,0.411448,0.295454,0.862216
-0.160941,-0.090970,-0.311236,0.245791,0.945588,-0.213192
0.121257,0.171211,0.837365,0.508269,0.513307,-0.691505
-0.745787,0.395155,0.715277,-0.729065,0.414690,-0.544515
-0.505872,-0.189532,0.301415,-0.484052,-0.806699,-0.339013
0.559675,-0.171377,0.639920,-0.064227,0.325991,0.943189
0.418620,0.182012,0.520294,-0.074434,0.982023,-0.173466
-0.100723,-0.205295,0.907629,-0.621843,-0.782822,-0.022377
0.186502,-0.008082,0.863277,0.949500,0.159177,-0.270393
0.006194,0.409873,0.337764,0.894020,0.444416,-0.056762
0.397998,0.195851,0.736936,-0.715845,0.698241,0.005034
-0.015380,-0.224340,0.281883,0.594728,0.798267,-0.095229
-0.073345,-0.221615,0.400529,0.775670,0.623368,0.098737
-0.425119,0.215218,0.505380,0.876358,0.381563,0.293949
-0.301565,-0.097445,0.100276,-0.937984,0.143633,-0.315524
0.022138,-0.026960,0.796539,0.991649,-0.090750,0.091637
0.222111,-0.043602,0.432653,0.922500,0.384836,0.029904
-0.030023,-0.060566,0.621060,-0.576915,0.736986,0.352166
0.376599,0.185294,0.373889,0.805194,-0.543438,-0.237355
0.177316,-0.074972,0.184783,0.899883,-0.417841,0.124976
0.696487,-0.149373,0.685951,-0.606702,0.713466,0.350540
0.485163,0.814623,0.615799,0.590135,0.490225,0.641420
-0.279904,0.272264,0.667175,0.750172,-0.643059,0.154002
-0.072478,-0.501082,0.511088,0.711068,0.695530,-0.103056
-0.030803,0.467475,0.564087,0.180458,0.432576,0.883353
-0.905212,-0.058730,0.573070,0.909091,0.409062,0.078880
-0.717196,0.451712,0.734081,-0.568508,0.622813,0.537497
-0.451024,0.193136,0.630154,0.783878,-0.496839,0.372405
0.185201,-0.151297,0.701678,-0.718292,0.001442,-0.695741
-0.434477,0.439231,0.761029,0.777462,-0.609224,0.156202
