-0.554884,0.118137,0.711626,-0.598090,0.636467,-0.487030
-0.558547,0.074092,0.788639,-0.050331,-0.995418,0.081299
0.791922,-0.251535,-0.936251,0.363597,-0.424343,-0.829295
-0.426899,0.281751,0.642253,-0.423912,0.897855,0.118975
-0.251078,-0.001640,0.482675,-0.014047,0.996413,0.083455
0.597575,-0.626473,-0.938511,0.996616,-0.041197,-0.071134
0.306479,-0.395934,-0.974193,-0.260870,0.206420,0.943047
-0.248519,-0.285992,0.289524,0.071797,-0.969009,0.236360
-0.287351,-0.536687,0.351594,0.995139,0.084466,-0.050635
0.653118,-0.170155,-0.970652,-0.538704,0.081606,0.838534
-0.774272,0.062277,0.890871,0.994771,-0.101081,-0.014625
0.901812,-0.358949,-0.930510,-0.427435,0.257586,-0.866573
-0.239248,-0.548003,0.310986,0.781597,-0.432172,0.449815
0.864316,-0.374971,-0.913750,0.885323,-0.168379,0.433419
-0.182390,-0.072387,0.664890,-0.211570,-0.896084,0.390220
0.872635,-0.426141,-0.917698,-0.397967,0.650363,0.647032
0.645202,-0.600480,-0.914566,0.689553,0.231410,-0.686269
-0.168383,-0.307392,0.291469,0.529405,-0.848212,0.016355
0.391750,-0.733326,-0.939332,0.056603,0.226585,0.972345
0.214168,-0.361295,-0.966365,-0.180794,-0.936260,-0.301215
0.534213,-0.753428,-0.923201,0.231854,0.730550,0.642293
-0.547083,-0.170401,0.925925,-0.220122,-0.523698,0.822974
-0.734356,-0.183034,0.722898,0.530589,-0.785283,-0.319070
-0.459335,-0.252122,0.969116,0.575497,-0.517891,0.632923
-0.297683,0.218414,0.942533,-0.371437,0.916742,0.147030
0.156293,-0.070524,-0.961308,-0.770831,0.136786,-0.622181
0.147032,-0.077185,-0.104029,0.992739,0.084105,-0.086002
0.548611,-0.823867,-0.924698,0.093366,0.118320,-0.988576
0.687027,-0.264137,-0.952452,0.451017,0.738351,0.501420
-0.199979,-0.620777,0.282018,0.804630,-0.432838,0.406475
0.357755,-0.063034,-0.959722,-0.136448,-0.621616,0.771347
0.112605,-0.075364,-0.015864,0.943552,-0.144931,0.297834
-0.269722,0.674541,0.774660,0.153297,-0.963952,0.217478
0.142300,-0.423059,-0.938550,0.497495,0.703626,0.507356
-0.492058,0.611540,0.853853,0.185075,0.186686,-0.964829
-0.509595,0.283467,0.778076,-0.572290,0.730799,-0.372044
0.758632,-0.452693,-0.922310,-0.136919,-0.912577,0.385300
-0.508691,0.058606,0.684538,0.101481,0.985118,-0.138727
0.441138,-0.399620,-0.962890,0.290714,-0.569174,-0.769108
0.479988,-0.442356,-0.946296,-0.291791,0.662014,0.690359
0.023880,0.068185,0.292843,-0.494847,-0.759973,0.421388
-0.432782,0.325230,0.648053,0.421199,0.472257,0.774316
0.527760,-0.845650,-0.926434,0.435474,0.651144,-0.621589
-0.353274,0.016061,0.594156,-0.020361,0.292032,0.956192
0.852778,-0.479025,-0.925418,0.711513,-0.080344,-0.698065
-0.553981,0.351438,0.621309,0.628508,-0.763087,0.150588
0.496443,-0.207351,-0.953664,-0.535968,-0.449497,0.714626
0.688258,-0.752374,-0.917574,0.525328,0.022732,-0.850596
-0.113119,0.111413,0.454527,0.646602,0.748110,0.149119
-0.737090,0.567760,0.901257,0.827998,-0.000149,-0.560731
-0.765802,0.053147,0.838388,0.401519,-0.017766,0.915678
0.183822,-0.438285,-0.928055,-0.202906,-0.352763,0.913448
-0.413726,0.639015,0.763447,-0.637040,0.768093,-0.064913
0.293563,-0.519220,-0.958460,0.805618,-0.066541,-0.588686
-0.645007,0.103897,0.727625,-0.207404,-0.682371,0.700966
0.275719,-0.352806,-0.983131,0.385488,0.669089,-0.635389
0.747161,-0.211808,-0.947892,-0.164494,0.908962,-0.383054
0.025735,-0.236512,-0.015322,-0.683342,0.648413,0.335565
-0.612080,0.101837,0.686518,-0.255277,0.779591,-0.571902
-0.177537,-0.031299,0.891892,0.630548,0.518425,0.577621
-0.193680,-0.489894,0.018283,0.070516,0.353076,0.932933
-0.226175,0.276221,0.790156,0.858571,0.274855,0.432794
0.402276,-0.729306,-0.916847,-0.067808,-0.649452,0.757373
0.823779,-0.250272,-0.922830,0.116148,0.163309,0.979714
0.034764,-0.258931,-0.178487,0.264517,0.799763,0.538897
0.237105,-0.767877,-0.940530,0.375868,0.403457,0.834234
-0.175290,0.166561,0.490419,0.781078,-0.548792,0.297899
0.171870,-0.134332,-0.118751,0.489027,-0.331469,0.806834
-0.298024,0.378163,0.622711,0.841256,-0.100600,-0.531196
-0.397074,0.481705,0.814114,0.777595,0.254193,0.575093
0.324439,-0.624846,-0.960461,0.840110,-0.029244,-0.541627
0.124534,-0.042505,-0.139735,0.960484,0.068013,0.269897
0.547007,-0.534605,-0.959052,0.384020,-0.269439,0.883137
0.033738,-0.118141,0.180255,0.962709,0.227059,-0.147089
-0.379725,0.094949,0.897244,-0.511046,0.113632,0.852009
-0.501165,-0.122156,0.826709,0.880823,-0.217944,-0.420300
0.461847,-0.489441,-0.957026,-0.090998,-0.199485,0.975666
-0.343260,0.036312,0.547945,0.143383,-0.568346,0.810200
0.624159,-0.367966,-0.943384,0.211813,-0.001226,0.977309
-0.046801,-0.323621,0.812724,0.985966,-0.109560,0.125970
0.281626,-0.499045,-0.966786,0.958866,0.193299,0.207872
-0.131398,-0.436620,0.103219,-0.696316,0.623216,0.356014
0.887262,-0.198749,-0.922349,0.451484,0.891015,-0.047484
-0.343857,-0.051977,0.811940,0.898483,-0.438915,-0.009009
-0.546240,0.228758,0.743788,0.849008,0.279091,-0.448657
0.402049,-0.074797,-0.958635,0.656098,0.270225,-0.704638
0.206754,-0.082023,0.015169,0.871434,-0.258927,-0.416605
0.033321,-0.138728,-0.966309,0.857743,-0.510878,-0.057275
0.495476,-0.260433,-0.915297,0.607452,-0.775507,-0.172020
-0.274202,-0.507133,0.301279,-0.392255,0.094068,0.915034
0.154583,-0.354579,-0.942224,0.023044,-0.975272,0.219802
-0.051951,-0.149863,0.152144,0.235755,0.641700,0.729822
0.120149,-0.008282,-0.956605,0.761686,0.233742,-0.604317
0.672175,-0.272145,-0.930086,0.325390,0.440047,-0.836947
0.512817,-0.663876,-0.920133,0.461757,0.172893,-0.869993
0.714180,-0.386277,-0.918832,-0.170680,0.636759,0.751935
-0.474746,-0.428376,0.178074,0.634887,0.363594,-0.681702
-0.226753,0.317348,0.633535,0.102581,0.994099,0.035264
0.720063,-0.373841,-0.924150,-0.745967,-0.363484,-0.558043
-0.300404,-0.054884,0.588692,-0.071044,0.993512,-0.088805
0.984170,-0.178050,-0.930555,-0.617893,-0.011246,0.786182
-0.479611,0.469048,0.789082,0.972681,0.217556,0.081003
-0.027530,0.011216,0.380005,-0.143795,-0.735654,0.661919
0.736854,-0.408528,-0.923940,0.963423,0.251575,0.092337
-0.048908,-0.268047,-0.032493,-0.474994,0.757194,-0.448373
-0.024551,0.209863,0.516308,-0.412604,0.863410,-0.290313
-0.240276,-0.330608,0.330671,0.771237,-0.540244,-0.336646
-0.588870,0.543973,0.862464,-0.368566,0.865957,0.338051
0.839632,-0.451311,-0.925602,-0.189511,-0.551898,0.812092
-0.260722,0.119342,0.881573,-0.152506,-0.979009,0.135215
0.174994,-0.503026,-0.921437,0.420212,-0.505461,-0.753612
0.803219,-0.484230,-0.940078,0.049807,-0.000866,0.998758
0.340096,-0.449385,-0.971463,0.018506,0.219882,0.975351
0.128077,-0.033018,-0.120680,0.977476,0.204919,-0.050492
0.339595,-0.332554,-0.615631,0.873981,0.414128,-0.254274
-0.692804,0.165629,0.736190,-0.151455,-0.833377,0.531548
0.215674,0.100439,-0.961454,-0.022556,-0.952245,0.304502
0.033594,-0.064070,0.142865,-0.101885,0.893639,0.437067
-0.769092,0.002410,0.795722,0.069920,0.990185,-0.121019
0.286046,-0.524203,-0.967078,0.648666,0.167734,0.742359
-0.484218,0.487843,0.806004,0.979371,0.171601,0.106703
-0.597511,0.378771,0.837505,0.938110,0.328722,0.109046
-0.583966,0.204830,0.761554,0.079060,0.951038,-0.298791
0.448182,-0.381171,-0.942245,-0.383225,0.657882,-0.648328
-0.109113,-0.045552,0.274912,-0.638225,0.765969,-0.077204
0.561596,-0.203160,-0.952479,0.124909,0.215942,-0.968384
0.444005,-0.568927,-0.944414,-0.206662,0.435663,0.876064
-0.039158,0.087199,0.418041,-0.706184,-0.663587,-0.246895
0.186650,-0.593462,-0.921545,0.971408,-0.216900,-0.096541
0.763848,-0.189784,-0.927872,-0.662036,-0.329771,0.673023
0.451892,-0.713941,-0.947099,-0.302510,-0.804130,-0.511725
0.688941,-0.603780,-0.937795,0.837799,-0.075780,-0.540694
0.516282,-0.406079,-0.944808,-0.113731,0.171859,0.978534
0.387007,-0.491260,-0.942963,-0.043158,-0.982258,0.182503
0.131843,-0.732639,0.234654,0.004071,0.046332,0.998918
-0.741734,-0.080562,0.842145,0.350376,-0.916338,-0.193809
-0.673777,-0.114924,0.975648,0.478683,0.320239,-0.817502
-0.294172,-0.268203,0.890795,0.163006,0.695034,0.700255
0.459307,-0.443085,-0.917759,-0.741289,0.399107,-0.539633
-0.072786,0.009201,0.590338,-0.740018,-0.610501,-0.282244
0.124380,-0.083819,-0.120954,0.946858,-0.257521,0.192723
-0.416609,-0.204909,0.957851,0.860333,-0.366624,0.354137
0.215070,-0.399285,-0.924959,-0.383173,0.472580,0.793629
0.233798,-0.367759,-0.931239,-0.646880,0.755450,-0.104121
0.522901,-0.846081,-0.906719,-0.233986,-0.440210,0.866871
0.743388,-0.221902,-0.959748,0.271748,0.837668,-0.473777
-0.483601,-0.241227,0.930333,-0.337131,0.881068,0.331756
0.109076,-0.123924,-0.133758,-0.436570,-0.600154,0.670240
0.351699,-0.052769,-0.959031,-0.177432,-0.915768,0.360398
-0.775602,-0.097724,0.935083,0.267774,0.443573,0.855301
0.396076,-0.095692,-0.983199,-0.487053,0.789056,-0.374393
-0.086463,0.002516,0.357831,-0.525711,0.823443,-0.213471
-0.799089,0.219683,0.729165,-0.654796,-0.714808,0.245546
-0.280514,0.012809,0.513313,-0.083141,0.911419,-0.402993
-0.264243,0.519347,0.696153,-0.640031,0.702690,-0.310784
0.576341,-0.497467,-0.928117,-0.156225,-0.799963,-0.579356
-0.299769,0.798707,0.763070,-0.018758,-0.999547,0.023551
0.822051,-0.410551,-0.905893,0.832001,0.552859,-0.046054
-0.450329,-0.396515,0.280184,-0.362085,0.520342,0.773394
-0.493069,0.329650,0.701136,-0.509525,0.669351,0.540698
-0.163225,-0.090589,0.352891,0.953743,0.135865,-0.268169
0.180839,-0.461030,-0.932995,-0.594969,0.609580,0.523855
-0.254104,-0.036346,0.696541,0.927914,0.251195,-0.275457
0.688734,-0.792375,-0.896008,0.357009,-0.484406,0.798683
-0.520119,-0.305410,0.206556,-0.239215,-0.894851,0.376853
-0.344468,-0.110496,0.354829,-0.187998,-0.649993,0.736319
0.418754,-0.785415,-0.934366,-0.177861,-0.674335,0.716685
0.602296,-0.495980,-0.915579,-0.511441,0.400285,0.760395
0.679435,-0.773370,-0.931110,-0.364426,0.928308,-0.073745
-0.583073,-0.411917,0.308946,-0.921578,-0.206469,-0.328733
-0.619260,-0.218810,0.301707,-0.375995,-0.636013,0.673880
-0.324491,0.579171,0.692723,-0.303030,0.256173,-0.917904
0.180957,-0.478778,-0.945383,0.967141,0.245272,0.066937
0.329278,-0.385052,-0.922084,0.884301,-0.372478,-0.281551
-0.529734,0.510554,0.893042,-0.384491,0.648500,-0.656974
0.171942,0.026762,-0.970761,-0.240776,0.162696,-0.956847
-0.722285,0.029753,0.675752,-0.343908,0.333365,0.877836
0.734731,-0.362734,-0.927837,0.357547,0.712483,0.603762
0.066396,-0.089547,-0.162600,0.078644,0.995375,-0.055179
-0.416344,0.595276,0.760910,0.284395,-0.750119,0.597027
0.116938,-0.540021,-0.941909,-0.155962,0.163894,0.974071
-0.197882,-0.333619,0.245056,0.836996,-0.343260,-0.426159
-0.106489,0.003134,0.375611,0.868704,-0.362064,0.338029
0.970594,-0.165250,-0.932723,0.537146,-0.044658,0.842307
0.400475,-0.123606,-0.972001,-0.545216,-0.181230,0.818471
-0.785914,0.167297,0.810193,0.939395,-0.342791,0.005566
0.639082,-0.784844,-0.931839,-0.668102,-0.712549,0.214276
-0.400467,-0.082086,0.798379,-0.125281,0.875724,0.466274
-0.340735,-0.823071,0.360101,-0.161441,0.478563,0.863084
0.135047,-0.190828,-0.232619,-0.498691,0.865511,0.046876
0.365436,-0.268770,-0.989399,0.615107,-0.531118,-0.582715
-0.225203,-0.155055,0.332396,-0.528759,0.759461,-0.378988
0.308295,-0.620726,-0.971053,-0.434947,0.142046,0.889182
0.374119,-0.665034,-0.916915,-0.402172,0.646882,0.647921
0.739631,-0.423100,-0.924696,0.659765,0.706859,-0.255069
-0.549565,0.270405,0.846684,0.541788,0.689842,0.480192
-0.241899,0.638761,0.721117,-0.439583,0.883499,-0.161853
0.668021,-0.186364,-0.952360,0.756164,-0.638927,-0.141382
-0.151919,-0.273777,0.258996,0.886547,-0.460541,-0.044005
-0.267881,0.118690,0.794553,0.406693,-0.455471,0.791926
-0.215849,-0.273512,0.001956,0.627555,0.726422,0.280154
0.481812,-0.420449,-0.961209,0.294701,-0.381305,-0.876218
0.342356,-0.760355,-0.950993,0.801511,0.548169,0.238938
0.763420,-0.489532,-0.924021,-0.131657,0.059858,0.989486
0.152523,-0.839191,0.224064,0.046726,-0.410702,0.910572
0.100207,-0.168221,-0.043927,-0.578655,0.764412,0.284310
-0.053760,-0.021204,0.346553,0.011923,-0.995094,0.098214
-0.516103,0.292632,0.836841,0.363716,0.896781,0.251983
0.976816,-0.315299,-0.934395,0.952153,-0.175535,-0.250183
0.591036,-0.776096,-0.907951,0.159303,0.116336,0.980351
0.697795,-0.533901,-0.951090,-0.321321,0.283534,0.903527
-0.824348,-0.623705,0.378000,-0.137152,0.672533,0.727247
-0.505519,0.376136,0.820519,0.321884,0.471507,0.821019
0.311420,-0.750302,-0.943337,0.643083,0.615314,-0.455887
-0.257592,0.052258,0.557029,-0.523404,-0.526610,0.669874
-0.380001,0.639905,0.758862,0.539161,-0.710722,0.451861
0.114516,-0.607194,-0.953319,0.660754,0.696071,0.280874
-0.298885,0.013741,0.620431,-0.558423,0.822814,-0.105549
-0.195290,0.041775,0.438966,0.778586,-0.213297,0.590177
0.324451,-0.731944,-0.922454,0.741926,0.407603,-0.532359
-0.651711,0.027813,0.893183,0.143679,-0.161315,0.976388
-0.130586,-0.036502,0.563637,0.035136,-0.583307,-0.811492
0.709279,-0.740196,-0.903775,0.620510,0.239720,0.746661
0.726275,-0.655492,-0.913699,0.412547,-0.880621,-0.233048
0.985202,-0.352317,-0.923913,0.871956,-0.460652,-0.165810
0.957625,-0.211372,-0.940160,0.540133,-0.049058,-0.840149
-0.123775,-0.011774,0.390956,-0.325981,0.876771,-0.353567
0.703316,-0.623914,-0.931716,0.845045,0.504711,-0.176536
0.824754,-0.366334,-0.925082,-0.707596,0.197974,-0.678317
0.472063,-0.672381,-0.923895,0.262396,0.555815,0.788808
-0.191993,-0.203408,0.334076,-0.638605,0.695805,-0.328692
-0.741959,-0.092393,0.885554,-0.270741,0.920491,-0.281774
-0.569720,0.375621,0.818267,-0.462420,-0.869357,-0.174316
-0.487738,-0.489676,0.257883,-0.133672,0.906421,-0.400665
0.691111,-0.594595,-0.924929,0.997481,0.001639,0.070914
-0.209303,-0.015355,0.676952,-0.243197,-0.968667,0.050392
-0.300427,0.837879,0.810927,-0.102013,-0.047408,0.993653
-0.056547,-0.059196,0.753367,-0.524157,-0.598230,0.606118
-0.012102,-0.208257,0.017291,0.168347,-0.201443,0.964925
-0.207603,-0.358618,-0.016411,0.076240,-0.996464,0.035323
0.347055,-0.132468,-0.557922,-0.230555,0.967429,-0.104523
-0.133905,-0.088547,0.404712,0.864555,-0.476500,0.159662
0.959540,-0.357231,-0.913724,0.805618,-0.329371,-0.492437
-0.101101,0.103964,0.297892,-0.420046,0.900589,0.111804
-0.262698,0.063539,0.888395,0.940514,-0.328158,0.088014
-0.481719,-0.140956,0.888166,-0.353529,-0.602470,0.715574
0.141309,-0.161747,-0.201324,-0.831527,0.456043,-0.317156
0.375819,-0.612634,-0.955940,0.104309,0.623664,0.774702
0.305836,-0.019486,-0.986321,0.027346,-0.199278,0.979561
-0.095674,0.033402,0.526256,-0.639082,0.616678,0.459654
-0.418894,0.629798,0.790725,0.430854,0.300739,-0.850836
-0.246914,-0.258015,0.007912,-0.322903,-0.607998,-0.725308
-0.278910,0.310430,0.627720,-0.030405,-0.988105,0.150746
0.788907,-0.242516,-0.926073,0.423131,0.211634,-0.881006
0.660560,-0.332337,-0.958030,-0.379511,0.234381,0.895007
0.106755,-0.306526,-0.936272,0.905335,0.424618,-0.008305
0.322834,-0.140455,-0.996445,0.146397,-0.091940,-0.984944
-0.389267,-0.480718,0.109336,0.755889,-0.608495,0.241588
0.154920,-0.171215,-0.251142,0.825253,-0.007822,0.564710
0.382602,-0.337781,-0.630549,0.110024,-0.993893,-0.008490
-0.767359,-0.059375,0.909663,0.668153,0.725740,0.163930
-0.452375,0.598811,0.783551,-0.619358,0.783882,0.043872
-0.521525,0.354820,0.694601,-0.021050,-0.168504,0.985476
-0.388461,0.544281,0.786342,-0.175836,-0.934633,0.309099
-0.352783,0.793608,0.768721,0.121303,-0.908644,0.399564
0.599617,-0.145084,-0.947256,-0.055320,0.995887,0.071754
-0.650744,0.311267,0.629757,-0.167486,0.968559,0.183961
-0.548095,0.452923,0.878094,-0.548854,-0.835563,0.024378
0.116001,-0.099574,-0.947286,-0.332969,-0.158494,-0.929522
0.347598,-0.685836,-0.930361,-0.621299,0.776989,0.101370
-0.307516,-0.196458,0.809144,0.314553,-0.941888,0.117912
-0.310946,-0.028463,0.838015,-0.328131,-0.774144,0.541324
-0.052571,-0.225334,-0.032978,-0.347709,0.822782,-0.449588
0.591192,-0.603916,-0.914963,-0.295250,0.554693,-0.777910
0.334582,-0.657064,-0.954650,0.127946,0.180830,0.975157
-0.223847,0.613842,0.709066,-0.629059,0.702638,-0.332543
0.285389,-0.320204,-0.957599,-0.669098,0.225480,0.708143
0.203594,-0.174586,-0.051034,-0.614483,0.757888,-0.219125
-0.084128,-0.056744,0.572991,0.816330,-0.472903,-0.331613
0.125308,-0.204456,-0.206488,0.942097,-0.335340,-0.000913
0.637685,-0.279522,-0.962490,-0.227737,0.443635,0.866790
0.265676,-0.496282,-0.959224,0.438324,-0.168535,0.882875
-0.299342,0.391455,0.694117,0.012347,0.966849,0.255052
-0.242196,0.078404,0.641984,0.593907,0.478067,0.647091
-0.858372,0.068393,0.740600,0.868190,0.238963,0.434906
0.001045,0.022338,0.268484,-0.535761,0.791423,0.294295
0.771373,-0.520676,-0.920302,-0.288129,0.421456,0.859859
0.210230,-0.155129,-0.211384,-0.011697,-0.992722,0.119856
-0.168960,-0.129978,0.283536,-0.769751,0.400711,-0.496904
-0.301251,0.525647,0.703392,0.000784,-0.816789,0.576936
-0.168154,-0.144985,0.354591,0.180032,0.781930,0.596803
-0.235288,0.744379,0.758295,-0.702801,-0.190626,0.685370
-0.096630,0.014285,0.311784,-0.267000,-0.961107,-0.070597
0.255182,-0.189705,-0.447272,-0.771331,-0.636286,0.013751
-0.638781,-0.280599,0.292342,0.083549,-0.561463,0.823273
0.619891,-0.814284,-0.898885,-0.498186,-0.198495,0.844044
0.434402,-0.648739,-0.938749,0.313632,0.650394,0.691825
0.131700,-0.007103,-0.954051,-0.237516,0.160060,0.958106
0.075802,-0.244147,-0.933782,0.020599,0.914028,0.405129
0.838219,-0.312593,-0.908334,-0.225709,-0.784348,-0.577801
0.070534,-0.670543,-0.915306,0.699002,0.311469,0.643726
0.213394,-0.573127,-0.929072,-0.076914,0.966479,0.244952
-0.194127,-0.004693,0.865247,0.343563,0.823768,-0.450966
0.606140,-0.384609,-0.949165,-0.213361,0.356567,0.909581
-0.409744,0.323622,0.721820,-0.171366,-0.208172,0.962963
-0.542541,0.179039,0.682054,0.935582,-0.082849,0.343253
-0.253496,-0.143398,0.783321,0.341810,-0.909441,-0.236819
0.150558,-0.207199,-0.963160,0.377216,0.545436,0.748471
-0.467284,-0.229910,0.979567,0.118683,-0.031069,0.992446
0.539025,-0.453477,-0.941927,-0.100058,-0.121343,0.987555
0.539068,-0.060230,-0.941062,-0.406152,0.297114,-0.864155
-0.464999,-0.061440,0.855227,-0.088959,0.279152,0.956117
0.796289,-0.424353,-0.926765,-0.140000,0.278488,0.950181
0.934017,-0.290548,-0.939428,0.251384,0.800025,0.544763
-0.295576,-0.015110,0.454718,0.691404,-0.582548,0.427316
-0.451006,0.160523,0.759307,0.982531,0.186020,0.005450
-0.790000,0.690127,0.893457,-0.407872,0.779069,-0.476121
-0.782705,-0.543347,0.335574,0.865179,0.498433,0.055039
-0.420482,-0.043522,0.614971,-0.203485,-0.910867,0.359048
0.201704,-0.243823,-0.327183,0.898507,0.438718,-0.014557
0.657856,-0.025637,-0.969838,-0.034203,-0.271473,0.961838
-0.577221,0.245000,0.697216,0.767239,0.500613,0.400913
0.501011,-0.708516,-0.910266,0.314040,0.947530,0.059711
0.930679,-0.364209,-0.934460,0.896377,-0.079296,-0.436142
-0.255619,0.407554,0.643548,0.809256,-0.510866,-0.290035
-0.610589,0.031714,0.689637,0.824314,0.537028,-0.179185
0.170080,-0.713844,-0.896356,-0.570485,0.101312,-0.815036
-0.525459,-0.265255,0.276785,-0.330901,0.900806,-0.281163
-0.284752,0.382063,0.615319,0.579723,0.633205,-0.512809
0.464779,-0.163018,-0.975031,0.436561,-0.287216,-0.852597
-0.412110,0.208509,0.686278,-0.424603,-0.553011,-0.716862
-0.879122,-0.031928,0.957661,-0.735351,-0.125831,-0.665902
-0.446571,-0.219161,0.297467,0.145851,-0.985843,0.082716
-0.172039,0.380641,0.657350,0.742167,0.668029,0.054087
0.473134,-0.323605,-0.762509,-0.617698,0.731996,-0.287456
-0.375292,-0.215494,0.858408,0.322687,0.743144,0.586182
0.438000,-0.773560,-0.940407,0.323797,0.006554,-0.946104
0.603866,-0.433877,-0.927110,0.200123,0.750618,0.629702
0.429890,-0.368543,-0.951102,0.825091,-0.477102,-0.302652
-0.193863,-0.134134,0.437469,-0.708466,0.199254,-0.677033
-0.547703,0.660102,0.876421,-0.054193,0.998357,-0.018608
-0.293565,-0.165296,0.722162,-0.198588,-0.939578,-0.278846
0.296414,-0.399098,-0.900176,0.948182,-0.306538,-0.083575
0.478319,-0.678431,-0.925248,-0.008759,0.406205,0.913740
0.478765,0.017625,-0.953848,-0.289476,-0.067119,0.954829
0.734679,-0.702556,-0.925708,-0.544213,-0.339407,-0.767225
-0.306258,0.306543,0.643018,0.694625,-0.692304,-0.195478
0.526552,-0.542522,-0.921060,-0.038664,-0.312159,0.949243
0.288353,-0.193391,-0.372684,0.928714,0.065888,-0.364897
0.316479,-0.542780,-0.911415,0.411206,0.904412,0.113793
-0.576994,0.473543,0.839213,-0.649059,0.752698,0.110312
-0.603259,0.349632,0.592105,0.749558,0.601241,0.276896
0.951615,-0.333239,-0.928349,-0.131497,0.716989,-0.684570
0.402298,-0.617925,-0.946687,-0.553685,0.243298,0.796391
-0.085794,0.011612,0.645958,0.332021,0.883791,0.329659
0.259308,-0.183161,-0.996493,-0.206685,-0.210694,-0.955452
-0.695374,-0.043169,0.900097,-0.094735,0.970344,0.222392
-0.302153,-0.778779,0.319743,-0.781472,0.164900,-0.601755
-0.056103,-0.167750,0.243783,0.896519,-0.336322,0.288342
0.142390,-0.265967,-0.930364,-0.562878,-0.772233,0.294660
-0.367599,0.140983,0.648801,-0.725175,0.654419,-0.214141
0.255522,-0.111623,-0.429431,0.968693,-0.246627,-0.028431
0.318502,-0.175218,-0.470238,0.124335,0.961002,0.247013
-0.733932,-0.553663,0.333939,0.377488,0.523375,0.763925
-0.242028,0.109602,0.985425,-0.037852,-0.889098,-0.456149
-0.470588,-0.066900,0.788915,0.042202,0.798108,0.601034
-0.629281,-0.378555,0.321566,0.366854,0.847946,-0.382629
0.625687,-0.577388,-0.924984,0.353426,-0.138572,-0.925142
0.528965,-0.612873,-0.930449,0.452803,-0.581135,-0.676204
0.573762,-0.255525,-0.953244,0.312364,-0.180412,-0.932674
-0.404037,0.680168,0.885062,0.805732,0.590406,-0.047081
0.267533,-0.268573,-0.339473,-0.128769,0.989098,-0.071437
-0.261682,-0.156853,0.718745,-0.161744,-0.973071,-0.164229
0.822570,-0.426015,-0.897749,-0.207682,0.317818,0.925127
0.609751,-0.066196,-0.960520,0.359440,0.930809,0.066310
-0.197061,-0.037404,0.664710,0.272830,-0.960336,0.057603
-0.692682,0.126104,0.664177,0.125911,0.760394,-0.637140
-0.528853,-0.341829,0.173205,-0.423559,-0.794489,0.435184
0.321224,-0.006469,-0.979552,-0.628779,0.472843,-0.617298
0.201446,-0.262354,-0.974609,0.369512,0.019874,0.929014
0.631847,-0.439071,-0.952776,-0.154710,0.265101,-0.951728
-0.110259,-0.077706,0.541323,0.532995,-0.735904,-0.417567
0.601285,-0.660482,-0.941999,0.521344,-0.673336,-0.524232
0.161356,-0.704190,-0.961565,0.859219,0.429988,0.277223
-0.341914,-0.384512,0.313638,0.345478,0.203649,-0.916063
-0.339404,0.043359,0.603104,0.835905,0.544050,-0.072620
0.336903,-0.324212,-0.674126,0.996782,0.016574,-0.078423
0.244406,-0.750213,-0.954336,0.545983,0.199083,0.813799
-0.582413,0.555514,0.894838,0.215555,0.964908,-0.149960
0.733110,-0.581876,-0.899013,-0.355724,0.244996,0.901908
-0.351076,-0.312621,0.316203,0.090446,-0.091255,0.991712
-0.618556,-0.066163,0.873461,-0.269885,0.905511,-0.327432
0.015259,-0.643015,-0.909499,0.980244,-0.194095,0.038073
-0.080919,-0.329478,-0.039203,0.790020,-0.338928,0.510877
0.429419,-0.666374,-0.948498,-0.550497,0.768868,0.325261
-0.717514,0.043264,0.908031,0.322581,0.808319,0.492506
0.674856,-0.381852,-0.911309,-0.092995,0.133369,0.986694
0.646532,-0.435965,-0.931919,0.356806,0.522941,0.774094
0.239667,-0.471930,-0.964845,-0.119307,-0.970028,0.211686
0.159808,-0.097674,-0.250451,-0.598045,-0.790133,-0.134284
0.146821,-0.801427,-0.958435,-0.256146,0.609398,0.750349
-0.015065,-0.135257,0.796113,0.969971,0.003297,0.243198
-0.733499,0.634929,0.885097,0.275463,-0.556342,0.783967
-0.307258,0.351772,0.598871,0.457117,0.884642,0.091940
0.740798,-0.283239,-0.932680,-0.562906,0.622968,0.543184
0.877665,-0.395773,-0.913140,-0.330515,-0.008949,0.943758
-0.532020,0.251849,0.812931,0.275813,-0.478809,0.833468
-0.513826,-0.137453,0.850361,-0.670560,0.616333,-0.412896
-0.048308,-0.134368,0.014135,0.071276,0.524270,0.848564
0.446130,-0.350816,-0.959538,-0.147016,-0.357111,0.922420
0.535564,-0.365411,-0.940040,0.468247,-0.599335,-0.649263
-0.291518,0.784631,0.813840,-0.649562,-0.310251,-0.694128
0.137995,-0.230984,-0.977061,-0.575009,0.471702,-0.668478
0.601773,-0.473887,-0.947670,0.799441,0.599102,0.044389
0.386679,-0.670878,-0.927136,0.572229,0.727153,-0.379213
-0.644243,-0.373898,0.303569,-0.628760,-0.307745,-0.714111
0.453819,-0.161528,-0.957255,-0.810854,-0.178377,0.557403
-0.781670,0.147884,0.826902,0.546814,0.735163,0.400662
-0.280293,0.672275,0.761041,0.115143,-0.889160,0.442874
-0.024685,-0.052561,0.367677,-0.280031,-0.866759,0.412688
0.116407,-0.460188,-0.943645,0.486630,0.006931,-0.873580
0.006300,-0.181371,-0.018390,0.925881,-0.321380,-0.198644
-0.826753,-0.571744,0.374025,0.008252,0.772503,0.634957
0.113109,-0.596007,-0.949278,0.761846,0.619226,0.190134
-0.451284,-0.127298,0.925338,0.538274,0.742548,0.398603
-0.525749,0.028321,0.791317,0.972554,0.232477,-0.009672
-0.267127,0.317611,0.601551,0.309425,0.910993,0.272668
0.875815,-0.326159,-0.929482,0.234310,0.073686,0.969365
-0.120760,0.097270,0.410993,0.860161,-0.344544,0.376048
-0.674364,0.105262,0.858176,-0.057493,-0.997367,-0.044190
-0.535384,0.280370,0.877369,0.002632,-0.425412,0.904996
0.630880,-0.150359,-0.959307,-0.462740,0.886335,0.016770
-0.121207,-0.565079,0.174880,0.835934,0.491817,-0.243578
0.769012,-0.392685,-0.908066,-0.324932,0.186713,0.927123
-0.015314,-0.531995,0.194236,0.364112,0.189038,-0.911969
-0.228133,-0.266197,0.334987,0.938755,-0.262129,-0.223666
-0.978380,0.073650,0.779253,0.257903,0.932912,0.251318
-0.571451,0.156414,0.729365,0.933611,-0.017166,0.357877
-0.442334,0.440323,0.655530,0.850863,0.390597,0.351377
-0.607608,0.524614,0.887907,0.237854,0.671109,-0.702166
0.487097,-0.186939,-0.967084,0.418910,-0.568522,-0.708023
-0.340861,-0.062273,0.630379,-0.758302,0.450966,-0.470752
-0.617454,-0.367820,0.259280,0.707267,0.379968,-0.596153
-0.703804,0.293989,0.802123,0.656438,-0.123107,-0.744267
0.153404,-0.056667,-0.154407,0.530160,0.610626,-0.588274
0.361586,-0.211971,-0.609051,-0.391377,0.796585,0.460735
-0.452278,0.347684,0.572197,-0.046423,-0.770196,0.636115
-0.339043,-0.134336,0.808978,-0.535970,-0.670837,0.512556
-0.580117,-0.366433,0.336171,-0.107146,0.094202,-0.989771
-0.317114,0.644442,0.758685,-0.578587,0.805926,-0.125378
-0.868050,-0.145944,0.963928,0.291721,-0.420852,0.858942
0.907942,-0.268281,-0.943447,0.110294,0.127229,0.985722
-0.022026,-0.016184,0.111894,-0.405180,0.554222,-0.727095
-0.672090,-0.508120,0.357246,0.447865,0.333122,0.829727
0.650790,-0.734835,-0.905867,-0.653803,0.534115,0.535969
0.074897,0.082388,0.190480,0.909304,0.413103,-0.050129
0.146100,-0.119422,0.009775,0.797315,-0.391974,-0.458961
0.747050,-0.501020,-0.928682,0.682166,-0.084733,-0.726271
0.726554,-0.809467,-0.917810,0.510183,-0.834585,-0.207799
-0.450717,-0.238230,0.287896,0.225359,0.906311,-0.357511
-0.751296,-0.500527,0.337281,0.372593,-0.353688,-0.857951
-0.445003,0.690085,0.791593,-0.693998,0.047356,-0.718418
0.124352,-0.827973,0.213347,0.138351,0.237008,0.961606
0.723627,-0.325971,-0.915547,0.652179,-0.154146,-0.742228
0.447967,-0.682602,-0.920040,0.273047,0.581821,0.766114
-0.431174,-0.360613,0.219377,0.441675,0.697641,-0.564110
0.412503,-0.183581,-0.493351,0.351683,0.934065,0.061987
-0.056130,-0.165669,0.180771,0.977678,-0.074450,0.196477
0.566248,-0.068898,-0.965626,0.223207,0.831814,0.508197
0.368707,-0.165926,-0.977851,0.191474,0.095802,0.976811
-0.094552,0.020159,0.705549,-0.079916,-0.891369,0.446177
-0.706448,0.139833,0.823016,0.959955,0.257800,-0.109662
0.941126,-0.082089,-0.923241,-0.028452,-0.028970,0.999175
-0.599521,0.064393,0.816711,0.345684,0.579791,-0.737797
0.229205,-0.157212,-0.470145,0.989074,0.137498,-0.053165
-0.593868,-0.304388,0.218952,-0.255412,-0.510952,0.820788
-0.648144,0.513100,0.894724,0.124593,-0.835102,0.535800
0.528852,-0.369494,-0.918252,-0.037198,-0.579430,0.814173
-0.584603,-0.554512,0.272531,-0.505831,-0.860398,0.062054
0.758708,-0.539302,-0.910571,-0.338340,0.561665,0.755022
0.555696,-0.544140,-0.927995,-0.577207,0.760754,-0.296794
-0.268975,-0.249128,0.148240,-0.418047,0.903131,0.097934
0.111503,-0.147457,-0.126627,0.423778,-0.064301,-0.903481
-0.275575,0.762242,0.769817,0.241807,0.562031,0.790981
0.816989,-0.362533,-0.925631,-0.083696,0.042594,0.995581
0.546010,-0.308785,-0.946749,-0.293935,0.679625,0.672095
0.432331,-0.354074,-0.983170,-0.588859,0.426728,0.686402
0.477961,-0.671202,-0.930248,-0.243821,0.672038,0.699226
-0.253898,-0.206890,0.250565,0.769808,-0.615523,-0.168899
-0.203811,0.620795,0.708403,0.743552,-0.627466,0.231121
-0.336216,-0.312218,0.220830,0.187954,-0.981843,0.025623
-0.437881,0.292922,0.867858,0.119303,-0.372049,0.920514
0.230115,-0.220588,-0.362610,-0.193473,0.958938,0.207380
0.597035,-0.669270,-0.932343,0.838381,-0.446928,0.312046
-0.219453,0.145162,0.891993,-0.763831,-0.643958,0.043369
-0.362671,0.228983,0.595975,0.828788,-0.528276,-0.184484
-0.696828,0.237622,0.808781,0.977238,-0.046885,-0.206902
0.393488,-0.189114,-0.967549,-0.722071,-0.037937,-0.690778
-0.181393,0.015883,0.596058,0.507827,0.844520,-0.169992
0.155928,-0.622381,-0.922908,-0.449166,0.866023,-0.219666
-0.610393,0.435718,0.839476,0.770747,0.288128,-0.568271
0.686731,-0.391197,-0.939089,0.224703,-0.031061,0.973932
-0.667158,-0.350139,0.337971,0.183315,0.643741,0.742962
0.174206,-0.273461,-0.970174,-0.352218,0.806480,-0.474903
0.520352,-0.524874,-0.942770,0.203232,0.520880,-0.829084
0.243110,-0.547584,-0.966202,0.222718,-0.079435,0.971641
-0.329909,0.703402,0.764161,-0.660894,0.397588,-0.636508
-0.283127,-0.025727,0.776519,-0.426446,0.106478,-0.898224
-0.265103,0.403227,0.631377,0.920310,-0.361077,-0.150508
-0.178157,-0.065635,0.689021,0.202859,0.976711,-0.069884
0.359691,-0.136002,-0.984642,0.486056,0.264625,0.832901
0.469500,-0.349803,-0.960604,-0.525967,0.199327,0.826817
-0.003170,-0.117562,0.732485,-0.380708,0.906172,0.184154
0.298398,-0.359543,-0.893588,0.861026,-0.433541,-0.265850
0.637312,-0.696860,-0.919304,0.351097,0.513561,-0.782934
-0.155195,-0.040993,0.618423,0.688691,-0.693835,-0.210469
0.132278,-0.289069,-0.976293,0.216780,0.338765,0.915557
-0.389866,0.592571,0.787422,0.120529,-0.414725,0.901929
0.272754,-0.113599,-0.451061,0.967730,0.235183,-0.090483
0.535921,-0.223533,-0.955569,-0.739558,0.575971,0.348298
0.668804,-0.567329,-0.910715,0.794210,-0.027849,-0.607005
0.183401,-0.140900,-0.154000,-0.648232,0.398448,0.648872
-0.116082,0.158298,0.492127,-0.540596,0.687145,-0.485375
0.539818,-0.670022,-0.909739,0.895647,0.427247,-0.123593
0.065356,0.087646,0.258271,-0.339298,0.935951,0.094194
-0.199948,-0.094782,0.547274,0.211380,-0.964494,0.158337
-0.362361,0.383746,0.725194,0.462487,-0.019320,0.886416
0.314577,-0.208987,-0.976606,0.399765,0.166727,0.901327
0.477904,-0.404261,-0.825933,0.434502,-0.848694,0.301540
-0.155592,-0.166032,0.225609,0.279178,0.580664,-0.764780
-0.416431,0.659251,0.828945,0.921857,-0.010772,-0.387382
-0.464678,0.460767,0.750314,0.847380,0.122643,-0.516630
0.024645,-0.734427,-0.931580,0.979351,0.182921,0.086087
-0.097303,-0.111390,0.206819,0.469506,-0.878742,-0.085883
-0.868861,0.064753,0.935639,0.287807,0.144926,0.946659
-0.464446,0.406926,0.714638,-0.611022,-0.515548,0.600718
0.826494,-0.509719,-0.936849,-0.512845,0.548979,0.660009
-0.627223,-0.110798,0.907086,-0.242249,0.951506,0.189610
0.108785,-0.109609,-0.126887,0.700611,0.403837,-0.588268
0.046146,-0.777353,0.214665,0.563433,0.794069,-0.228030
-0.064247,-0.103514,0.313504,0.686765,-0.696896,-0.206617
-0.090496,-0.034082,0.662879,0.443051,0.819741,0.362947
-0.768325,-0.004998,0.929935,0.523345,0.695402,-0.492469
0.093240,-0.122719,-0.968982,0.851241,-0.508910,-0.128061
0.370196,0.006742,-0.975888,0.346274,0.898802,-0.268792
-0.443970,-0.260848,0.911759,0.408437,-0.260351,0.874870
-0.227597,-0.031486,0.442605,-0.619955,0.510655,-0.595724
-0.658967,-0.021789,0.892650,-0.401791,0.224327,-0.887830
-0.464969,-0.243040,0.948022,0.102446,0.952193,0.287808
-0.768057,0.022171,0.950619,0.548483,0.575464,-0.606636
-0.803553,0.036235,0.710980,-0.496896,0.132610,-0.857618
0.874527,-0.285378,-0.932223,0.913463,0.393217,-0.104718
0.684800,-0.137495,-0.951153,-0.319694,0.048557,0.946276
0.249720,-0.273862,-0.971766,0.512112,0.376214,0.772142
-0.199548,-0.097081,0.479884,-0.253915,0.966791,-0.029007
-0.521465,0.462009,0.804536,-0.690393,0.686057,-0.229528
-0.655813,-0.221441,0.946648,0.861461,-0.053845,0.504962
0.601065,-0.784196,-0.912402,0.354674,-0.153121,0.922367
0.186456,-0.516551,-0.957716,-0.766022,0.596961,-0.238429
0.019141,-0.014920,0.060575,-0.628887,0.760598,-0.161218
0.615506,-0.238591,-0.939754,0.792843,-0.444012,-0.417438
0.487229,-0.217508,-0.970431,0.036617,-0.524638,0.850537
-0.255529,-0.048611,0.681284,0.349412,-0.770337,0.533378
0.652618,-0.370086,-0.958998,0.274678,-0.673899,-0.685867
-0.419708,0.545749,0.745331,0.565488,-0.351240,0.746226
-0.069873,-0.076987,0.786234,0.740229,0.666049,-0.091872
0.589646,-0.675939,-0.933449,0.884132,-0.422732,0.199019
-0.336586,0.279190,0.623944,0.180386,-0.793937,0.580624
0.650226,-0.781557,-0.932637,0.454935,0.886829,0.081046
0.501250,-0.597461,-0.936989,0.275228,-0.193192,0.941768
0.177110,-0.063024,-0.072169,0.907814,0.403874,-0.112961
0.560888,-0.771747,-0.917272,0.064417,0.831386,0.551949
-0.462909,-0.329411,0.194844,0.041816,-0.989439,0.138786
0.608101,-0.700376,-0.910166,0.007429,0.974364,0.224855
0.067101,0.074373,0.315143,0.936709,0.076867,-0.341566
-0.551435,0.160347,0.758573,0.864220,-0.445055,0.234625
-0.371168,0.331464,0.693516,0.248884,-0.968169,-0.026563
0.721711,-0.119596,-0.961762,-0.359031,-0.191584,0.913451
-0.040441,-0.003527,0.640596,0.099783,0.909997,0.402427
0.103309,-0.191954,-0.146022,0.558309,-0.809246,-0.182791
0.186079,-0.373917,-0.950348,0.779818,-0.563002,-0.273702
0.074544,-0.003516,0.163475,0.932553,-0.060613,0.355908
-0.243965,0.119147,0.560833,-0.238482,-0.261117,0.935384
-0.157506,0.324989,0.637057,0.434963,-0.870355,0.230846
0.433528,-0.360086,-0.967688,-0.198682,-0.133588,0.970917
0.936950,-0.465758,-0.931510,-0.734669,-0.264631,0.624686
0.423973,-0.526125,-0.953537,0.363678,0.437286,0.822508
0.870090,-0.249402,-0.943181,-0.625161,-0.164572,-0.762948
0.891595,-0.223922,-0.926173,0.684984,0.031085,-0.727895
0.418785,-0.220181,-0.954054,-0.234521,0.802585,0.548505
-0.389125,0.728104,0.785906,0.848741,0.059270,0.525477
-0.531849,0.387043,0.876817,-0.536495,0.440993,-0.719512
-0.547589,0.355521,0.598644,0.452984,0.876175,-0.164688
0.509336,-0.234649,-0.965657,-0.571491,-0.556014,-0.603528
-0.737385,-0.131094,0.859482,-0.671761,-0.666981,0.322294
-0.254096,0.615881,0.738185,0.770209,-0.471599,0.429387
-0.717520,0.094869,0.772529,0.416583,-0.903677,0.099126
0.114530,-0.437746,-0.929055,0.990597,0.129203,0.044996
-0.009493,-0.619863,0.188370,0.752404,0.646901,-0.124127
0.076104,-0.507057,-0.955095,-0.561722,0.145558,0.814421
0.540395,-0.530360,-0.927663,0.674840,0.580291,-0.455908
-0.842154,0.067904,0.937963,0.287807,0.144926,0.946659
0.488969,-0.805425,-0.915145,-0.020850,0.322506,0.946338
0.048494,-0.107772,0.050173,-0.551751,0.660173,0.509649
0.681577,-0.511277,-0.912970,0.109493,-0.380174,0.918411
0.488286,-0.037125,-0.954433,0.699939,-0.544036,-0.462721
0.414304,-0.345026,-0.577529,0.606750,0.781041,0.147746
-0.482078,0.583183,0.769165,0.654864,-0.747653,0.110315
0.472912,-0.256328,-0.969315,0.443451,-0.423786,-0.789783
0.170664,-0.691780,-0.951470,-0.476965,-0.850636,0.221182
0.047489,-0.024989,0.127308,-0.541768,0.807835,0.232145
-0.285976,0.162049,0.575617,0.547675,0.832793,-0.080664
-0.522134,0.615148,0.859252,0.319961,-0.261485,-0.910632
0.280790,-0.153384,-0.542055,0.999555,-0.016407,-0.024928
-0.375583,0.234739,0.809791,-0.690320,-0.324048,0.646879
-0.043753,-0.138363,0.104858,0.512210,-0.854132,0.090001
-0.375032,-0.360194,0.124329,-0.577520,0.700458,-0.419319
0.569272,-0.038785,-0.969905,-0.426408,-0.673507,0.603792
0.017406,-0.136641,-0.047365,0.896935,0.255902,0.360585
0.508572,-0.279108,-0.953699,-0.184692,0.353861,0.916881
0.691879,-0.671071,-0.912783,-0.420106,0.480690,-0.769707
0.102868,-0.573110,-0.961225,0.398400,0.312628,-0.862288
0.182167,0.096043,0.923841,-0.028744,-0.616129,0.787121
0.090150,-0.452224,0.146439,0.435028,0.527307,0.729861
0.300436,-0.206273,-0.969708,0.820600,-0.304236,0.483794
0.471467,-0.453925,-0.943524,-0.398017,0.480099,0.781721
-0.465172,0.617517,0.855995,-0.572816,0.629860,-0.524556
-0.443108,0.145127,0.603365,-0.191969,-0.270474,0.943394
0.157300,-0.205849,-0.956576,0.562542,0.577948,0.591205
0.742926,-0.160221,-0.955291,0.178840,-0.093547,0.979421
0.576530,-0.384964,-0.918376,0.575817,0.158650,0.802038
-0.170640,-0.104314,0.574958,0.374130,0.699520,0.608851
-0.133068,-0.337297,-0.019914,-0.179484,-0.947765,-0.263678
0.406472,-0.147021,-0.953588,-0.212785,0.045418,0.976043
-0.652094,-0.096944,0.865676,0.232486,0.760940,0.605739
0.024228,0.046952,0.324690,-0.295726,0.950215,-0.098171
0.736370,-0.534818,-0.946023,0.014735,-0.787731,0.615844
0.352540,-0.540777,-0.975103,0.067494,-0.056995,0.996090
-0.015782,-0.107302,-0.046061,-0.149981,-0.974412,-0.167410
-0.745185,0.097384,0.767012,-0.210038,0.222111,0.952129
-0.486264,0.601536,0.803538,0.653896,0.244330,-0.716046
0.146150,-0.117777,-0.034121,-0.634203,0.451252,-0.627821
0.376043,-0.240078,-0.959435,0.513208,-0.261342,-0.817507
0.125403,-0.219548,-0.063591,-0.313300,0.907957,-0.278309
0.471687,-0.812583,-0.931954,-0.501966,-0.007678,0.864853
-0.417652,-0.804056,0.342249,-0.222049,0.353849,0.908562
0.124767,0.040461,-0.981635,-0.160516,-0.690442,0.705354
0.585034,-0.481513,-0.950744,0.198252,0.391454,0.898588
-0.525627,-0.225428,0.833549,-0.291832,0.955470,-0.043705
-0.063312,-0.125171,0.009323,0.155788,0.961007,0.228462
0.102936,-0.212554,-0.172084,0.994604,0.016187,0.102470
-0.164563,-0.292031,0.254259,0.650218,-0.750746,-0.116610
-0.487253,0.567823,0.777486,0.776870,-0.622757,-0.092992
0.405901,-0.702827,-0.933606,-0.523476,0.238251,0.818052
-0.541809,0.359449,0.599198,-0.412287,-0.896706,0.161051
-0.449917,0.303566,0.768225,0.009203,-0.960806,0.277069
0.438444,-0.246271,-0.985811,0.186260,0.589087,0.786310
-0.066369,-0.062535,0.199388,0.545956,-0.836470,-0.047434
-0.240182,0.301220,0.612658,-0.162071,0.982709,-0.089532
0.047003,-0.192435,-0.151194,-0.092508,-0.992898,0.074810
-0.061433,-0.022564,0.799568,-0.371674,0.923527,-0.094635
-0.020649,-0.154063,-0.062979,0.085522,0.839801,-0.536117
-0.054370,-0.093268,0.223103,-0.409162,0.855722,0.316743
-0.020928,-0.076585,0.213053,0.309017,-0.950906,0.016944
-0.372529,-0.337773,0.247003,-0.655042,0.717627,-0.236497
-0.162952,-0.112722,0.427047,0.863420,-0.479790,0.155910
0.087505,-0.402422,-0.959495,-0.141773,-0.495267,0.857095
-0.352479,-0.135840,0.793018,0.784319,0.382131,-0.488692
-0.364225,0.022481,0.621266,-0.681161,-0.571946,-0.457052
0.484959,-0.820012,-0.907257,0.377640,-0.590810,0.712974
0.608266,-0.179026,-0.951548,0.851491,0.249811,0.461039
0.423129,-0.512891,-0.953619,0.405082,0.359572,0.840605
0.523847,-0.695999,-0.933284,0.807488,0.339388,0.482471
0.720875,-0.174429,-0.941068,-0.187704,0.425477,0.885289
-0.079768,0.010896,0.775727,-0.604477,0.761115,0.235185
0.679460,-0.570813,-0.941345,0.582874,0.480138,-0.655535
0.398653,-0.532955,-0.964796,0.139791,0.958690,0.247735
-0.274248,-0.318520,0.264258,0.472451,-0.881269,-0.012484
0.239193,-0.499739,-0.942285,-0.180478,-0.126345,-0.975430
-0.951203,-0.051183,0.981080,0.255430,-0.248109,0.934450
-0.330044,0.625292,0.730466,0.806934,-0.355434,0.471725
0.062578,-0.026601,-0.082497,0.793692,0.365217,-0.486487
-0.537166,0.281813,0.580976,-0.631895,-0.156110,-0.759169
0.734513,-0.382463,-0.924732,0.914543,-0.084483,0.395567
0.139624,-0.141881,-0.958737,-0.073180,0.218976,0.972982
0.752269,-0.445726,-0.932838,0.753187,0.206998,-0.624389
0.056600,-0.018280,0.312696,0.998859,0.008067,-0.047077
0.453841,-0.809798,-0.894665,-0.177769,-0.342506,0.922544
0.560255,-0.790435,-0.904752,0.084905,0.440604,0.893677
-0.284972,0.366091,0.700871,0.833986,0.204090,0.512655
0.385173,-0.111145,-0.992814,0.440084,-0.187417,0.878180
-0.571296,-0.199440,0.925814,0.700697,-0.623475,-0.346846
-0.003807,0.203456,0.908492,-0.008511,-0.663969,0.747711
0.133043,-0.076655,0.096255,0.526149,-0.791269,-0.311545
-0.091370,-0.492506,0.184326,-0.728986,-0.119860,0.673953
0.773732,-0.305418,-0.944853,0.215681,0.596881,0.772797
0.479177,-0.713853,-0.938875,0.091267,0.950809,-0.296029
-0.255649,-0.063815,0.771825,0.721082,0.428122,0.544750
-0.201676,0.610024,0.728944,0.853872,-0.490360,0.174499
-0.200594,0.777397,0.799537,-0.248420,-0.968230,0.028593
0.774249,-0.218755,-0.954468,-0.479749,0.729252,-0.487886
0.779055,-0.227165,-0.944073,0.523020,0.616043,0.589017
0.418196,-0.720294,-0.910327,-0.301069,-0.258400,-0.917925
0.684801,-0.622850,-0.936896,0.030560,0.284480,0.958195
0.292223,-0.244619,-0.288955,0.020443,-0.919561,0.392414
0.533226,-0.440998,-0.923694,0.317520,0.703481,-0.635842
0.045108,-0.175840,-0.154831,0.073512,0.994287,-0.077388
-0.108509,0.016575,0.770794,0.190991,-0.977827,-0.085894
0.440885,-0.652371,-0.941665,0.550578,-0.174382,-0.816367
0.247699,-0.552985,-0.928295,-0.610313,0.023963,-0.791798
0.196617,-0.092687,-0.969820,-0.410160,0.757317,-0.508173
-0.510030,0.441525,0.878870,-0.290926,-0.262954,-0.919901
0.405738,-0.632030,-0.927125,-0.587668,0.406052,0.699834
0.403967,-0.273554,-0.973058,0.135192,-0.363752,0.921633
-0.513788,0.316261,0.796304,-0.379530,-0.918329,-0.112381
0.646394,-0.269334,-0.931586,-0.442745,0.889757,-0.110950
0.211836,-0.140036,-0.051808,0.936081,0.351707,-0.007405
0.899583,-0.153749,-0.941070,-0.196576,-0.900178,0.388635
0.476044,-0.184930,-0.960379,0.283633,-0.173002,-0.943198
0.176054,-0.149880,-0.231398,0.640067,0.767808,0.028039
0.567562,-0.706770,-0.911479,-0.479206,-0.238511,-0.844674
-0.671113,-0.433370,0.329168,-0.187943,-0.056697,-0.980542
0.097854,-0.523306,-0.952111,0.727326,0.037297,-0.685278
0.352473,-0.263933,-0.637221,0.984982,0.164994,0.050861
0.484656,-0.528528,-0.949151,0.219016,-0.154868,-0.963353
0.197225,-0.555755,-0.938668,-0.571221,-0.147151,-0.807498
0.348067,-0.177539,-0.564837,0.132034,0.325731,0.936198
-0.074152,0.077855,0.461302,0.993187,0.082910,0.081884
-0.213126,-0.538398,0.252339,-0.349834,0.745558,0.567238
0.263012,-0.213986,-0.448324,0.390790,0.914794,-0.102148
0.064417,-0.554940,-0.931531,0.785713,0.035106,0.617594
-0.343991,0.649782,0.742426,-0.694449,0.669497,-0.263658
0.442779,-0.602102,-0.933151,-0.285841,0.845530,0.450971
0.292592,-0.232246,-0.457759,0.521779,0.853065,0.005089
0.126143,-0.686515,-0.911920,-0.669794,0.374890,-0.640963
-0.327778,0.015842,0.638870,-0.388821,0.669474,-0.632948
-0.405681,0.501080,0.754389,0.603346,0.051492,-0.795815
0.441684,-0.661446,-0.922927,-0.493687,-0.640818,-0.587899
0.828965,-0.128975,-0.948055,-0.205893,-0.408727,0.889129
-0.522103,0.573372,0.826630,0.936705,-0.036624,0.348200
-0.428471,0.575384,0.875852,-0.140000,-0.989786,0.026890
-0.925198,-0.146231,0.944226,-0.367179,0.888852,-0.274082
0.160328,-0.235576,-0.951049,0.508474,0.115999,0.853228
-0.008423,0.068204,0.254072,-0.458853,0.810340,-0.364422
-0.557571,0.556688,0.911828,0.768693,-0.057330,0.637044
-0.450072,-0.192198,0.904768,0.832196,0.223467,0.507456
-0.353982,0.052674,0.600928,-0.640618,-0.551773,0.533999
-0.478473,0.275034,0.722760,-0.655840,0.611648,0.442447
0.380520,-0.367172,-0.985716,0.096784,-0.926220,0.364348
0.632929,-0.776031,-0.918060,0.101167,-0.213676,0.971652
0.700142,-0.412274,-0.919647,0.044738,-0.343797,0.937978
-0.369469,-0.292787,0.301719,0.544134,0.835615,-0.075273
0.866701,-0.382266,-0.917642,0.946836,-0.100182,-0.305721
0.195307,-0.255060,-0.445476,-0.714500,0.644022,-0.273360
0.675537,-0.164681,-0.955868,-0.337764,-0.359812,0.869742
0.071420,-0.178946,-0.947510,-0.276492,0.155246,0.948394
0.240586,-0.219406,-0.316851,0.092983,0.993791,-0.061109
-0.722773,0.221980,0.826543,0.224974,0.954948,-0.193548
0.159724,-0.113699,-0.957056,-0.314961,0.535747,0.783438
-0.560972,0.198241,0.734854,0.998491,-0.054700,0.004899
0.298447,-0.607279,-0.966195,0.978045,-0.184333,-0.097210
0.322192,-0.075939,-0.974840,0.600172,-0.217841,0.769635
-0.280567,-0.114735,0.548187,-0.101961,0.980297,-0.169180
-0.088383,-0.004095,0.353647,-0.153564,0.956313,-0.248766
-0.124311,-0.008520,0.309104,0.181914,-0.912161,0.367245
-0.538267,-0.351869,0.184345,-0.335439,0.938648,-0.080128
0.665115,-0.802869,-0.922311,0.164968,0.968723,0.185370
0.043075,-0.212447,-0.064263,-0.291583,-0.870907,0.395601
-0.597251,0.261143,0.741021,0.902145,0.192745,-0.385985
0.429316,-0.236668,-0.966442,-0.017153,-0.110656,0.993711
0.284796,-0.502849,-0.962265,0.970741,-0.015853,0.239605
0.376417,-0.387236,-0.740002,-0.362538,0.852463,-0.376660
-0.509906,-0.344703,0.303256,-0.775895,0.523035,0.352736
0.276040,-0.164274,-0.559270,-0.639223,0.757023,0.135313
0.088370,0.036155,-0.103516,-0.408448,-0.861380,0.301985
0.174644,-0.365182,-0.937553,0.764788,0.640253,-0.071944
0.321517,-0.161835,-0.978594,0.818770,-0.551513,0.159528
-0.510039,0.225865,0.661925,0.970020,-0.136521,0.201053
0.316122,-0.696443,-0.936155,-0.535025,-0.393207,0.747754
0.500661,-0.635795,-0.943768,0.820307,-0.568859,0.059123
0.534420,-0.187493,-0.969807,-0.633816,-0.257638,0.729314
0.111313,-0.286135,-0.929960,-0.605185,0.300505,0.737189
0.653844,-0.467766,-0.944879,-0.328773,0.599555,0.729687
0.459708,-0.289222,-0.958150,-0.478131,0.144015,-0.866401
0.162929,-0.037101,-0.979057,0.490980,0.389456,0.779271
0.548759,-0.665705,-0.919008,0.886903,-0.116732,0.446964
0.167335,-0.732959,0.217343,0.579751,0.717112,0.386832
0.151051,-0.611222,-0.945115,-0.160536,-0.793096,-0.587560
-0.189393,-0.150371,0.857988,-0.421173,0.733162,0.533934
0.045215,-0.110564,0.359995,-0.597040,0.609715,-0.521335
0.383671,-0.666520,-0.940106,0.292466,0.135301,0.946656
0.157402,-0.614390,-0.959624,-0.329119,0.519730,-0.788392
0.483128,-0.559224,-0.950521,-0.079588,-0.221236,0.971967
0.886817,-0.297894,-0.924588,0.591994,0.664807,-0.455604
-0.291364,0.536415,0.713650,0.298094,0.792077,-0.532685
0.553857,-0.508142,-0.919950,0.031438,0.889554,0.455747
0.442870,-0.612281,-0.940977,-0.386839,0.241677,0.889914
0.156701,-0.693422,-0.941325,-0.399444,-0.493515,-0.772585
0.247334,-0.234117,-0.963791,0.971391,-0.111847,0.209499
-0.622166,-0.003452,0.892832,-0.238400,0.028764,-0.970741
0.621087,-0.754686,-0.911350,-0.019249,0.035436,0.999187
0.730122,-0.303699,-0.935088,-0.356704,-0.086421,0.930212
-0.286479,0.412284,0.690338,0.192959,-0.087311,-0.977315
0.398367,-0.142351,-0.966126,0.723752,-0.288912,0.626669
-0.755435,0.092141,0.848529,-0.467187,0.873457,0.137148
0.345186,-0.363975,-0.977011,0.272600,-0.866636,-0.417888
-0.255716,0.234542,0.630190,0.876256,-0.170094,-0.450824
-0.396530,0.307563,0.653165,-0.455781,-0.371194,-0.808999
-0.246374,0.201427,0.558016,0.629442,-0.383624,0.675748
-0.445338,-0.524562,0.266739,-0.147441,0.827282,0.542093
0.668848,-0.390268,-0.919021,-0.012505,-0.813444,0.581509
0.567893,-0.267977,-0.954623,-0.129661,-0.207172,-0.969674
0.186165,-0.793875,-0.936572,0.143532,-0.537338,0.831063
0.191782,-0.219295,-0.413791,0.942265,-0.304976,0.138300
-0.756942,0.154402,0.812621,0.220064,0.126201,0.967288
0.094724,-0.065385,-0.184523,0.007589,-0.967295,0.253539
-0.904728,-0.079073,0.968930,0.525259,-0.031724,0.850351
0.102331,-0.186472,-0.304165,-0.519307,-0.841189,-0.150734
-0.078285,-0.136638,0.229454,-0.479376,0.603499,-0.637172
-0.250280,-0.018796,0.367485,0.055796,0.288269,0.955923
-0.012886,0.031144,0.336111,0.965802,-0.231681,0.116410
-0.222021,-0.099043,0.436659,0.936501,0.345326,0.060964
-0.540749,0.477688,0.861145,0.952075,-0.284923,0.111230
0.562414,-0.150729,-0.946744,-0.384678,0.400090,0.831836
-0.370107,-0.170446,0.826489,-0.143179,0.971424,-0.189300
0.637293,-0.292669,-0.947457,-0.342884,0.731402,0.589476
0.735354,-0.369353,-0.928121,0.357547,0.712483,0.603762
0.122007,-0.098241,-0.072640,0.845483,0.147897,0.513113
0.402605,-0.233828,-0.982867,-0.119341,-0.969505,-0.214052
0.580853,-0.511181,-0.941115,-0.308408,0.515172,0.799676
0.623407,-0.120938,-0.972986,-0.457592,0.152712,0.875950
0.069836,-0.352746,-0.937363,0.296823,-0.495680,0.816209
0.139908,-0.347260,-0.958809,0.192038,0.532142,0.824589
-0.004932,-0.652580,0.192612,0.865064,0.159298,-0.475697
0.545789,-0.327333,-0.920999,0.291450,0.738359,0.608180
-0.308119,0.482357,0.686874,0.958721,-0.014673,0.283971
0.190260,-0.095261,-0.045981,-0.711277,-0.678886,-0.182203
0.344112,-0.316013,-0.920258,0.107106,-0.963403,-0.245728
0.049566,-0.088447,0.239484,0.853948,-0.496713,0.155077
-0.389472,0.018052,0.662465,0.079698,0.906307,-0.415038
0.499531,-0.227986,-0.958101,0.135864,0.252457,-0.958022
0.916897,-0.306225,-0.901329,0.780826,0.287109,0.554869
