0.112564,-0.231273,-0.509344,-0.496127,0.828882,0.258481
-0.215513,-0.041770,-0.975929,0.176925,0.983730,0.031195
-0.217761,-0.622033,-0.100299,-0.470189,-0.762492,-0.444442
-0.241788,0.660010,-0.105468,-0.641325,-0.578910,0.503553
-0.587851,0.091575,0.825956,0.803946,-0.154160,-0.574374
0.385152,0.568022,-0.939559,0.123948,-0.129472,0.983806
-0.000755,0.070703,-0.961920,0.118833,-0.206895,0.971119
-0.310134,-0.068722,0.549082,-0.431607,0.558311,-0.708522
0.150067,-0.014527,-0.951349,-0.457218,0.188384,-0.869174
0.635611,-0.443977,-0.885534,0.297180,-0.633690,0.714228
-0.279216,-0.589372,0.333291,0.961242,-0.191382,0.198462
0.012646,0.037738,0.386124,0.309273,-0.458459,0.833166
-0.090609,0.816949,-0.951001,-0.169596,0.874513,0.454382
0.409564,-0.027465,-0.940872,-0.633559,0.504909,0.586234
-0.611222,0.389390,0.705420,-0.558207,-0.707933,0.432706
0.023122,-0.403573,-0.650891,0.980440,-0.177192,0.085675
0.159959,-0.593681,-0.938342,-0.639728,-0.759232,0.119642
0.027703,-0.223793,-0.950161,0.730811,-0.658155,-0.180961
0.719314,-0.348168,-0.917883,0.327772,-0.166944,0.929890
-0.477812,0.280345,0.905572,0.949007,-0.303874,0.083948
0.623125,-0.348087,-0.926108,-0.643766,-0.483417,0.593189
-0.371784,0.180507,0.674119,0.430430,-0.873541,-0.227278
-0.150373,0.142312,-0.157470,-0.488955,-0.087691,0.867890
0.612409,-0.167332,-0.936662,-0.111192,0.791243,0.601307
-0.126075,0.208705,-0.970552,-0.272869,0.664289,-0.695890
0.127168,-0.175116,-0.946395,-0.229680,-0.698364,0.677890
0.285080,-0.483716,-0.937304,0.834570,0.256025,-0.487795
0.885471,-0.081876,-0.917686,0.632860,-0.634769,-0.443348
0.096941,-0.356709,-0.664207,-0.741624,-0.653813,-0.150073
-0.247640,0.181990,-0.167554,0.914910,0.352001,0.197571
-0.000133,-0.014231,0.392607,0.259395,-0.663361,0.701902
0.408903,-0.363974,-0.937704,0.943169,-0.251615,0.217078
-0.141303,0.357992,-0.105898,-0.594933,0.504667,0.625592
0.610046,0.187529,-0.944223,-0.593648,0.284924,0.752596
0.300115,-0.216136,-0.939068,0.803003,0.000493,-0.595975
-0.489722,-0.166636,0.743519,0.231863,-0.955830,-0.180635
-0.067085,0.542569,-0.951538,0.248876,0.526638,-0.812843
0.249197,-0.310765,-0.948321,0.944229,-0.254344,-0.209143
-0.082501,0.308006,-0.951506,-0.066865,0.830125,0.553554
-0.141450,-0.167102,-0.028514,0.931074,0.331578,0.152173
0.177847,-0.430613,-0.917957,0.438180,0.149221,-0.886415
-0.281399,-0.451609,0.452175,0.795691,-0.080867,-0.600280
0.132478,-0.323769,-0.944282,0.827467,-0.559875,-0.042877
-0.601057,-0.406538,0.756362,0.667972,0.737420,0.100122
-0.103463,-0.005642,-0.987036,0.733764,0.300867,-0.609155
-0.094701,-0.326290,-0.187187,-0.478656,-0.870841,-0.111915
0.550443,-0.429002,-0.924478,0.344009,0.850529,0.397816
-0.187043,0.636548,-0.962761,-0.593645,0.539507,0.597091
-0.160938,-0.039961,-0.020787,0.989300,0.130011,0.066202
0.053858,-0.304835,0.154886,-0.584015,0.639597,-0.499843
-0.785353,0.685790,0.761516,0.958771,-0.284152,-0.003986
-0.643154,0.285019,0.984023,-0.652605,0.740350,-0.161211
-0.090354,-0.250933,0.063735,0.567439,0.534612,-0.626260
-0.219554,-0.175080,0.311386,-0.005299,-0.648714,0.761014
0.519692,0.169075,-0.954209,-0.100855,0.067530,0.992607
0.199792,-0.388826,-0.949188,-0.485101,-0.090404,0.869773
0.119927,-0.374480,-0.444193,0.980600,0.112951,0.160202
-0.827451,0.354475,0.848814,-0.112254,0.939376,0.323993
0.175025,-0.209391,0.321061,-0.272847,0.903727,0.329897
0.409410,0.556957,-0.942979,0.804136,-0.247724,0.540369
0.370361,0.403478,-0.945496,0.540615,-0.779533,0.316330
0.923383,-0.087686,-0.900467,-0.086775,0.033510,0.995664
-0.224320,0.602274,-0.118283,0.902970,0.420921,0.086439
0.003693,0.786601,-0.919448,0.804308,-0.145859,0.576033
-0.532275,-0.129487,0.728127,0.120632,0.769941,0.626609
0.417507,0.074582,-0.933974,0.895410,0.030121,-0.444222
0.100980,0.286604,-0.955786,-0.313909,0.050710,0.948098
-0.195896,0.400003,-0.190590,-0.296621,0.850491,-0.434375
-0.188506,0.197315,-0.134238,0.252556,0.964987,-0.070815
0.465168,0.208139,-0.944771,-0.032938,0.484444,0.874202
0.414661,-0.219630,-0.939082,0.368365,0.853372,-0.368867
0.381862,0.432617,-0.961741,0.591619,0.148585,-0.792407
-0.039193,0.660981,-0.950576,-0.134117,0.839892,0.525922
-0.441279,-0.296696,0.516741,-0.582738,-0.033482,0.811970
-0.287446,-0.046306,0.354827,-0.153013,0.904381,0.398350
-0.386361,0.094825,0.666995,-0.717757,0.571716,-0.397449
-0.572618,0.320663,0.860166,-0.647322,0.736116,0.197756
-0.017733,0.117870,-0.945596,0.953133,0.106552,0.283168
0.442109,0.088893,-0.926650,0.506387,-0.030260,-0.861775
0.284631,-0.725620,-0.941046,-0.218892,0.902543,0.370813
0.408816,-0.527738,-0.957853,-0.610580,-0.740079,-0.281912
0.751540,-0.116639,-0.930564,0.993445,0.098473,0.058052
0.681389,-0.248044,-0.937308,0.971609,-0.222251,0.081116
0.179971,-0.296459,-0.944882,0.018267,-0.539194,0.841983
0.369272,-0.705013,-0.924851,-0.076539,0.901161,0.426674
0.047321,-0.455091,-0.453156,0.951774,0.249300,0.178819
0.014364,-0.241099,-0.958220,0.801386,-0.589201,0.103064
-0.698439,0.072979,0.897871,0.464944,0.247287,-0.850104
0.332448,0.363828,-0.957817,-0.561536,0.362905,0.743625
-0.471168,0.315234,0.942141,-0.431119,0.843422,-0.320587
0.105374,-0.370960,-0.927997,-0.524778,-0.098089,0.845569
-0.079221,0.093729,-0.942585,-0.542594,0.260319,-0.798640
-0.340844,-0.144447,0.442636,-0.782277,0.621324,-0.044714
0.729771,0.158726,-0.904534,0.103090,0.341733,0.934126
0.639641,-0.145218,-0.916193,0.036374,0.592190,0.804977
0.591671,0.355016,-0.940695,0.819589,0.324292,0.472343
-0.087813,-0.085158,-0.962642,0.347225,-0.208965,0.914204
-0.138501,0.676684,-0.979247,-0.601155,-0.356232,-0.715340
-0.220766,0.499161,-0.146517,0.758014,-0.351283,-0.549559
-0.690191,0.473109,0.736633,0.115951,0.964559,0.237026
-0.430896,0.515066,0.792464,0.640771,-0.224420,0.734199
0.144327,-0.460189,-0.928897,0.880948,0.325116,-0.343847
0.662274,-0.348832,-0.942783,0.357457,0.092708,-0.929317
-0.183216,0.231312,-0.973727,-0.034066,0.686504,0.726328
0.557410,-0.173538,-0.936188,-0.262747,-0.818124,-0.511505
-0.521423,0.341649,0.881078,0.576436,-0.557076,-0.597819
-0.294986,-0.177941,0.482215,0.986079,0.132542,-0.100401
0.056926,-0.379372,-0.958345,0.039169,0.841058,0.539524
-0.572877,-0.440836,0.772943,0.839463,0.363320,0.404104
0.838644,0.122828,-0.911960,0.808807,0.309506,0.500037
0.108023,-0.268746,-0.609299,-0.082091,-0.947491,0.309066
0.269848,0.798828,-0.921582,0.229268,0.729707,0.644177
-0.608164,0.101452,0.762433,-0.537788,-0.716677,-0.444024
-0.052960,0.139842,-0.945807,-0.634563,-0.293572,-0.714944
-0.583202,0.068147,0.722019,0.663322,0.364682,-0.653461
0.076035,0.493536,-0.937118,0.144951,0.947703,0.284339
0.516999,-0.240587,-0.906430,-0.365972,-0.654856,-0.661232
0.356280,0.199026,-0.941755,-0.022871,-0.186843,0.982124
0.008321,0.154664,-0.934969,0.750662,-0.183755,-0.634619
0.207400,0.455459,-0.954612,0.990134,-0.138816,-0.019108
0.424712,-0.466335,-0.955758,-0.407344,0.297612,0.863422
-0.552576,0.154634,0.962785,0.635120,-0.614536,0.467940
-0.301404,-0.539981,0.493941,-0.451397,0.290850,-0.843592
-0.139917,0.339667,-0.950283,-0.244398,0.197565,-0.949335
0.128399,0.436091,-0.964791,-0.193970,-0.106972,0.975158
0.595135,-0.250939,-0.921131,-0.458390,0.516542,0.723231
0.131794,0.326854,-0.963933,-0.427205,0.697209,-0.575669
-0.603928,0.235664,0.884230,0.060423,0.802065,0.594172
-0.109089,0.454867,-0.956456,0.259002,-0.502792,0.824693
0.482391,-0.668537,-0.936625,0.125723,0.461165,0.878362
0.086867,-0.392048,-0.604671,0.843463,0.532581,0.070200
0.748096,0.198511,-0.915507,-0.514862,0.205699,0.832229
0.100830,0.267650,-0.955364,-0.593443,0.124836,0.795136
0.074846,0.518495,-0.926788,0.700143,0.709815,0.077218
0.200186,0.152508,-0.952763,0.980303,0.173488,0.094378
0.347528,-0.327707,-0.964179,0.142808,0.487144,-0.861566
0.616040,-0.173404,-0.913344,0.544064,0.296658,-0.784849
0.404002,0.592495,-0.961486,-0.153847,0.150469,0.976571
-0.156000,0.668197,-0.084914,0.318495,-0.759111,-0.567725
0.141909,-0.423932,-0.610251,-0.408578,0.740532,0.533551
-0.383321,0.473102,0.725550,-0.244723,-0.447772,-0.860006
-0.176430,-0.533853,-0.069026,-0.636840,0.760451,0.127079
-0.344806,0.692190,0.758970,0.226245,0.834245,0.502841
0.015955,-0.316790,-0.954139,0.971184,0.093214,0.219348
-0.214577,-0.524026,0.512710,-0.319966,-0.622063,-0.714605
-0.544454,0.001922,0.906902,0.129260,-0.184010,0.974388
-0.889310,0.212405,0.819961,-0.440423,0.747044,-0.497949
0.533678,-0.719808,-0.916902,0.853349,-0.249544,0.457737
0.582655,0.279553,-0.927541,0.579529,-0.523641,-0.624456
-0.504877,-0.011118,0.726226,0.774656,-0.440162,0.454054
-0.186741,0.328134,-0.077870,0.339707,-0.119313,-0.932933
0.228972,-0.163277,-0.923543,0.644697,0.398549,0.652322
-0.234886,0.329018,-0.976419,0.530752,-0.200698,0.823421
-0.280401,0.445717,0.725980,0.192873,-0.259557,0.946272
-0.009426,-0.178078,-0.235213,0.661062,0.726700,0.186827
0.844654,0.078442,-0.931939,-0.362235,-0.388112,0.847440
0.070811,-0.492062,-0.369820,-0.522606,-0.848121,-0.087026
-0.196500,0.729273,-0.055395,0.983906,0.106584,-0.143419
0.099351,-0.063378,-0.951764,-0.022248,-0.243740,0.969585
0.187010,0.667584,-0.931680,-0.502207,-0.430467,0.749991
0.291993,0.226879,-0.953501,-0.234469,0.518313,0.822421
0.046780,-0.181263,-0.958832,-0.432622,0.219420,-0.874467
0.329795,-0.120471,-0.917442,0.774705,-0.081508,0.627048
0.249033,-0.091590,-0.938757,-0.796747,0.596434,-0.097267
-0.486318,-0.318372,0.815217,0.904566,-0.413183,0.105070
0.575255,0.323212,-0.939475,-0.487417,0.536563,-0.688857
-0.758114,-0.063759,0.759005,0.065891,-0.426320,0.902170
0.313174,-0.670194,-0.935159,0.755552,0.350179,0.553638
0.663591,0.123648,-0.927470,0.906436,0.059803,-0.418088
0.121822,-0.048360,-0.900268,-0.634303,-0.729656,0.255464
0.448347,-0.254729,-0.948493,0.925638,0.364541,0.101510
0.545515,-0.601443,-0.914199,-0.534449,0.606175,0.588996
-0.430066,0.502126,0.865844,0.755142,0.506585,0.416091
0.304131,-0.600965,-0.956978,-0.672410,0.166437,0.721224
-0.610253,0.035356,0.807845,-0.580213,-0.116734,-0.806056
-0.327644,-0.539911,-0.063087,0.234444,-0.855555,-0.461586
0.120732,-0.286962,-0.956527,0.942256,0.030054,-0.333542
0.067495,-0.406302,-0.966555,0.900929,0.188655,0.390815
-0.249961,0.076590,-0.977538,-0.544003,-0.770069,0.333249
-0.144597,0.331819,-0.954238,0.744629,0.437340,-0.504243
0.667766,0.003716,-0.917631,-0.215093,0.560739,0.799567
0.202310,-0.120329,-0.938701,0.227728,-0.936738,-0.265822
-0.596520,-0.375448,0.772798,0.543909,0.828815,0.131257
-0.250729,-0.275975,0.312991,0.358468,-0.449083,0.818429
0.664336,-0.707933,-0.920715,0.346665,-0.854445,0.386971
0.571728,0.007736,-0.931293,-0.231364,0.044569,0.971846
0.506119,-0.121861,-0.938382,-0.289285,-0.058650,0.955445
-0.062273,-0.210539,0.042854,0.923949,0.341317,0.172690
0.077841,0.675928,-0.921000,0.561448,0.206712,-0.801278
0.921517,0.035634,-0.925636,0.204132,0.265419,0.942275
0.537736,-0.387593,-0.929442,-0.254121,0.963844,-0.080165
-0.433402,0.380007,0.829700,0.894352,0.438878,0.086721
-0.178566,-0.310854,0.237287,-0.857569,0.275044,-0.434657
-0.638606,0.084579,0.888787,0.557221,-0.756462,0.342448
0.119161,-0.134646,-0.966922,-0.401512,0.148594,0.903719
0.423435,0.071999,-0.953311,0.373230,-0.924904,-0.072472
-0.762256,0.066917,0.724239,0.705824,0.708244,0.014235
0.152160,-0.200731,-0.488531,0.948256,0.127366,0.290840
0.137729,-0.407845,-0.942894,-0.731040,0.247992,0.635673
-0.241079,0.578480,-0.960146,-0.095273,0.591749,0.800472
0.487037,0.352404,-0.927738,0.136810,0.199393,-0.970322
-0.173706,0.600862,-0.953935,0.175875,-0.033050,-0.983858
0.695623,-0.437580,-0.911341,-0.657074,0.181838,-0.731566
0.812972,0.005857,-0.930317,-0.624449,-0.752328,0.209920
0.680608,0.237644,-0.940233,0.819690,-0.027687,-0.572137
-0.416615,-0.737581,-0.061189,-0.136481,0.971593,0.193340
0.508836,0.271830,-0.919547,-0.195203,-0.887385,-0.417664
0.525076,-0.521102,-0.945358,-0.347113,0.247969,0.904447
0.049366,-0.391846,-0.682314,-0.626405,0.756929,0.186211
-0.018748,-0.038097,-0.943157,0.111936,-0.928115,0.355067
-0.860300,0.328772,0.792783,-0.216083,-0.295254,0.930663
0.525505,-0.680212,-0.922248,-0.507454,-0.013947,0.861566
-0.141967,-0.078108,0.473930,0.125622,0.966945,0.221893
0.718170,-0.193295,-0.900658,-0.317589,-0.115530,-0.941164
0.749329,-0.071078,-0.912800,-0.216657,0.278379,0.935716
0.293089,-0.409445,-0.918978,-0.764152,-0.520171,-0.381437
0.081004,-0.258590,-0.445767,0.916921,0.275925,0.288306
-0.010477,0.413079,-0.951887,-0.756528,-0.186277,0.626870
0.727539,-0.121924,-0.926471,-0.312815,-0.288568,-0.904917
-0.162491,-0.204547,-0.033134,0.954611,0.244009,0.170816
0.458211,0.434427,-0.933613,0.216458,0.450810,-0.865977
-0.571132,0.003032,0.655993,0.884328,0.280285,-0.373369
-0.063983,0.041884,-0.922850,-0.024848,-0.509289,0.860237
-0.048148,-0.312098,0.127153,0.278288,0.960459,-0.008567
0.616562,0.341901,-0.924829,0.364810,0.509352,-0.779406
0.041874,0.294996,-0.966741,0.636582,-0.744689,-0.200505
0.656912,-0.453452,-0.907171,-0.598029,0.721344,-0.349318
0.098212,-0.280084,-0.505676,0.676897,-0.734489,0.048335
-0.323938,0.612165,-0.143816,-0.496492,0.587439,-0.639071
-0.212791,-0.172307,-0.009271,0.890323,0.454840,-0.021100
0.836621,0.175465,-0.905010,0.235963,-0.205105,0.949870
0.130051,-0.359371,-0.933911,0.278861,0.941901,-0.187243
-0.276476,-0.234852,0.492479,0.535631,0.766854,-0.353601
-0.249862,0.774822,-0.151225,0.351596,-0.767770,0.535639
0.828734,0.019976,-0.921800,-0.511574,-0.858864,0.025396
0.546962,-0.114061,-0.937603,0.903749,-0.021090,0.427542
-0.099379,0.345848,-0.949396,0.017538,-0.720818,0.692903
0.257982,-0.122220,0.332495,0.787430,-0.056944,-0.613769
0.833624,-0.221631,-0.907540,-0.309619,0.457959,-0.833312
0.614458,-0.503869,-0.930765,-0.169000,0.227008,0.959118
-0.105777,-0.245587,-0.280623,-0.056986,0.900965,0.430134
-0.033314,-0.288053,0.531239,-0.074239,-0.996042,0.048878
-0.274636,-0.115239,0.257794,0.630452,-0.059786,0.773923
0.037295,0.712315,-0.957386,0.846870,0.250935,-0.468875
-0.510482,-0.377946,0.824091,-0.637884,0.692750,-0.336455
-0.450693,0.265570,0.755572,0.305585,-0.675819,0.670735
0.026944,-0.122471,-0.950281,0.992942,-0.118216,0.009539
0.006846,-0.244096,-0.240493,0.672195,0.133945,-0.728157
-0.605368,-0.074532,0.753521,-0.256661,-0.041041,-0.965630
-0.472374,-0.013430,0.676408,0.326715,0.606179,0.725123
-0.229355,-0.113098,-0.988056,0.257509,0.456551,0.851617
0.338517,-0.795590,-0.941998,-0.539117,-0.299105,0.787330
-0.092364,0.521025,-0.076138,0.453968,0.250121,-0.855191
0.726115,-0.347243,-0.918393,0.448526,-0.131719,0.884011
-0.362958,0.316989,0.776987,0.389051,-0.649551,0.653240
-0.025026,-0.353083,-0.560851,0.735678,-0.676545,0.032630
0.264402,-0.186055,-0.955047,0.494396,0.258387,0.829945
0.447198,-0.347974,-0.932845,0.772690,0.629476,-0.081912
0.882687,0.021727,-0.928537,0.833947,0.029371,-0.551062
-0.796468,0.086088,0.887149,-0.425856,0.748287,0.508639
-0.159259,0.510362,-0.080855,0.700190,0.312169,-0.642094
0.487921,-0.008483,-0.939673,0.511205,0.570908,-0.642443
0.552797,0.192253,-0.920522,0.002183,0.083270,0.996525
0.149528,-0.299063,-0.597208,0.908416,-0.007460,-0.418002
0.640262,-0.410422,-0.927038,0.443576,-0.711640,-0.544801
-0.140662,0.314478,-0.958593,-0.281748,-0.951641,0.122465
0.874896,-0.088854,-0.911547,0.778717,-0.274999,-0.563893
0.617311,0.070033,-0.935228,0.262963,0.298411,0.917497
-0.077569,-0.001869,-0.933697,0.595543,0.572016,-0.564026
-0.201728,0.514591,-0.081827,0.926329,0.376296,-0.017776
0.576449,-0.680531,-0.958089,0.203002,-0.341806,0.917583
0.453680,0.169245,-0.933069,0.257856,0.907422,-0.331806
-0.125344,0.714425,-0.083569,-0.371966,0.553223,-0.745376
0.831200,-0.113974,-0.941497,-0.646651,0.255139,0.718851
-0.019987,-0.338285,-0.409728,0.999291,-0.014680,0.034678
0.253947,0.547793,-0.928488,0.556509,0.724222,-0.407186
0.109697,-0.375336,-0.959379,0.732479,-0.109191,-0.671977
0.690453,0.050301,-0.937567,0.337042,0.165371,-0.926852
-0.413305,-0.012853,0.637407,-0.359687,-0.581250,0.729913
-0.493585,0.154727,0.694846,-0.323818,0.889560,-0.322218
-0.071745,0.252466,-0.943622,0.328768,-0.257938,-0.908504
0.085852,0.730336,-0.925445,-0.095913,0.820400,0.563688
0.612134,0.078668,-0.932041,0.234001,0.852764,-0.466945
0.848494,-0.315400,-0.924507,-0.060611,0.444901,0.893526
0.177521,-0.201563,-0.940894,0.856901,-0.507390,0.090976
0.528901,0.002669,-0.946348,-0.562041,0.315141,0.764719
0.820465,-0.171171,-0.895026,0.177241,-0.440300,0.880183
0.775835,-0.243479,-0.909758,0.631759,-0.339113,-0.697053
-0.037526,-0.452112,-0.404539,0.221810,0.972833,-0.066307
0.363477,-0.314270,-0.923864,0.325929,0.072041,-0.942645
0.010320,-0.402428,-0.947675,0.925074,0.339444,-0.170342
-0.107056,0.097623,-0.926275,-0.522288,-0.778416,0.348258
-0.480775,-0.255289,0.832724,0.932695,-0.013903,0.360397
-0.129096,-0.331949,-0.188691,-0.331182,-0.913260,-0.237224
-0.852826,0.162104,0.802801,-0.620657,-0.765742,0.168592
0.072047,0.678976,-0.952271,0.175403,0.679800,0.712113
0.066533,-0.275007,-0.403631,-0.404386,-0.531043,-0.744624
-0.054245,0.174723,-0.957827,0.105260,0.585008,0.804168
0.248736,0.224291,-0.959237,-0.397862,0.732631,0.552230
0.745519,-0.040952,-0.892387,-0.220781,0.411530,0.884250
-0.662599,-0.355747,0.735904,-0.092978,0.352885,0.931035
-0.330680,-0.591730,0.481451,0.693411,-0.658403,0.292723
-0.134319,0.256704,-0.957239,-0.544913,0.538711,-0.642542
-0.066058,0.678587,-0.936814,0.178952,-0.903603,0.389203
-0.574528,0.065851,0.919366,-0.263155,0.135445,0.955199
0.365493,-0.155310,0.427565,-0.549272,0.805603,0.222047
-0.410720,-0.141823,0.549550,0.979404,-0.184031,-0.083070
0.580989,0.258705,-0.932669,0.587288,0.746988,-0.311612
-0.640944,-0.032831,0.829053,-0.656903,-0.690120,-0.303664
0.209713,-0.198212,-0.970146,-0.271783,0.171055,0.947034
0.582875,-0.407619,-0.925087,0.756280,-0.616710,-0.218423
0.092241,-0.315957,-0.558577,0.358007,0.931459,0.064922
0.235802,-0.241801,-0.946403,-0.663486,0.219788,-0.715178
0.167135,0.704375,-0.924177,-0.011816,0.636626,0.771082
-0.802252,0.290876,0.713604,0.617180,0.174538,0.767219
0.352581,0.147978,-0.952841,0.114333,-0.331401,0.936537
0.080727,-0.216716,-0.957391,0.611623,0.789126,-0.056542
0.290589,-0.473490,-0.928303,0.966581,-0.240846,0.087830
-0.514027,-0.042192,0.678254,0.680456,0.488132,0.546541
-0.173243,0.248491,-0.239399,0.951935,0.109055,-0.286228
-0.568812,0.010323,0.711262,0.994044,0.018803,0.107349
-0.094193,0.559270,-0.918877,-0.311807,0.160788,-0.936442
-0.124635,-0.299988,-0.170706,0.311310,0.944957,-0.100704
-0.285746,0.681846,-0.101167,0.826233,-0.177613,-0.534596
0.384593,-0.553099,-0.914306,0.704245,0.556927,0.440308
0.271815,0.577376,-0.903951,0.371084,0.194708,-0.907957
-0.364402,0.628019,0.751560,0.492283,-0.763749,-0.417547
0.079876,-0.427372,-0.542053,0.046097,-0.892661,0.448365
-0.496314,-0.108019,0.857709,0.854121,-0.064766,-0.516026
0.539307,-0.495510,-0.938604,0.206912,-0.977816,0.032608
0.074451,0.544859,-0.930940,0.924530,0.369486,-0.093403
-0.252404,0.497710,-0.971968,-0.683307,0.039792,-0.729046
-0.698156,0.462048,0.804082,0.097281,0.522830,0.846868
-0.124051,0.448424,-0.950028,0.779613,0.094207,-0.619135
0.352794,-0.210520,0.415495,0.678826,0.688696,0.254743
0.413879,-0.217696,-0.933727,-0.595997,-0.800823,-0.058902
-0.638374,0.342958,0.924766,0.831711,0.348338,-0.432339
0.147146,-0.246620,-0.947451,-0.507509,0.327693,0.796901
-0.162674,0.008713,-0.983808,0.088788,-0.880669,-0.465337
-0.484200,0.177185,0.876481,-0.200378,0.513329,-0.834471
0.507904,-0.640669,-0.942784,0.999490,0.031907,0.001528
-0.282990,0.056137,-0.994701,0.014186,0.169800,-0.985376
-0.111061,-0.317764,0.133790,0.375013,0.902202,-0.213066
0.541587,0.216785,-0.944885,0.754557,0.615729,0.226982
-0.527753,0.024603,0.806338,-0.484071,0.012627,-0.874938
-0.710347,0.414413,0.815579,-0.277990,0.645894,0.711015
0.121013,-0.290094,-0.540268,0.914221,0.292873,0.280045
-0.419693,0.403572,0.751665,-0.625518,-0.532931,-0.569835
0.734725,-0.278471,-0.926720,0.799794,0.561113,-0.213266
-0.168402,0.045609,-0.122626,0.855979,0.259554,-0.447137
-0.232578,-0.070682,0.434647,0.308340,0.913497,-0.265425
-0.297218,-0.279761,0.503159,0.471071,0.148513,-0.869503
-0.345704,-0.115457,0.537722,-0.156986,0.684715,0.711702
-0.688544,-0.122544,0.751539,-0.204346,0.975032,-0.086918
0.238579,-0.281211,-0.945793,0.788384,-0.512408,0.340424
0.202961,0.015827,-0.953022,-0.379546,-0.509584,0.772185
-0.338198,-0.226978,0.438623,0.690759,0.722780,-0.020999
-0.544052,-0.089036,0.843514,0.622307,0.780747,-0.056283
0.409276,0.366750,-0.931432,0.894868,0.099547,0.435088
-0.564176,-0.051009,0.712878,-0.659471,0.731848,0.171745
-0.232756,-0.009321,0.339995,0.665637,-0.732173,-0.144396
0.239876,0.208023,-0.905018,-0.041208,-0.174616,0.983774
0.646356,-0.405694,-0.930206,-0.103200,0.450742,0.886669
-0.427796,0.440140,0.849149,-0.758603,0.040654,0.650283
-0.146840,-0.173338,0.229685,0.975823,-0.090023,0.199164
0.298382,0.442717,-0.958074,0.871601,0.083963,0.482972
-0.212766,0.406827,-0.946880,0.214857,0.755221,0.619256
0.218675,-0.195051,-0.956146,-0.229458,-0.383568,0.894553
-0.028452,0.439839,-0.948414,0.415458,0.408544,0.812703
0.478882,-0.262239,-0.941905,0.114707,0.568345,-0.814755
0.246877,-0.120321,-0.937272,-0.242822,0.331954,0.911507
0.219223,0.513791,-0.937818,0.881323,0.210249,-0.423161
0.546179,0.547093,-0.931629,0.103609,0.954571,-0.279390
0.311298,-0.328310,-0.937494,0.565856,0.044890,0.823281
0.047364,0.459511,-0.960051,0.662970,0.326156,0.673864
-0.256067,0.566291,-0.150934,-0.667497,0.195881,-0.718386
-0.319331,0.555637,0.743843,0.831551,0.555400,0.007319
0.023156,0.016843,-0.953667,-0.087557,-0.126882,-0.988046
0.153910,-0.384090,-0.684061,0.144817,-0.986612,-0.074993
-0.151672,-0.151299,-0.986667,-0.467398,-0.430358,0.772224
0.080266,-0.428034,-0.915141,-0.307296,-0.945682,-0.106085
0.842915,-0.079221,-0.930269,-0.433066,0.515395,0.739474
0.388866,-0.572044,-0.943385,0.837739,-0.057416,0.543044
0.579957,-0.593353,-0.934806,0.344840,0.937650,-0.043569
-0.582338,0.093851,0.803347,0.866110,0.470171,-0.169687
-0.124733,-0.428379,-0.117942,-0.087327,0.272884,0.958075
-0.491192,-0.106508,0.733409,0.542341,0.839623,0.030001
-0.596480,0.320335,0.911168,0.807047,-0.523910,-0.272384
0.881025,-0.324940,-0.932604,0.342968,0.530715,0.775058
-0.378660,-0.049733,0.350292,0.391057,0.899277,0.195898
0.753752,0.006500,-0.909078,-0.268918,-0.075729,0.960181
-0.627813,0.191518,0.822844,-0.322292,0.943260,0.079931
-0.510002,0.014838,0.874011,0.938258,-0.345576,-0.015797
-0.092654,0.845797,-0.956577,-0.463958,0.777432,0.424667
0.180401,-0.503556,-0.920220,0.485806,0.412131,-0.770805
0.633435,0.206732,-0.928154,-0.623881,0.448435,0.640061
-0.118895,0.325140,-0.918459,0.108724,-0.240460,0.964551
0.170470,-0.195140,-0.795171,-0.692488,0.711782,0.117588
0.761002,0.172669,-0.934167,-0.041455,-0.186688,-0.981544
-0.219576,0.259133,-0.093621,-0.644415,-0.039218,0.763669
-0.099596,0.052102,-0.939425,-0.517392,0.820367,-0.243521
0.098225,-0.299298,-0.466633,0.964644,-0.100135,0.243792
0.211807,-0.288589,-0.947464,-0.271821,0.807028,-0.524231
0.006647,0.678668,-0.919272,-0.085480,0.982381,0.166194
0.274314,-0.697863,-0.950968,0.543410,-0.057648,0.837486
0.544135,-0.698273,-0.924151,0.795880,0.585552,0.153959
0.687874,0.099497,-0.898814,-0.159945,0.052501,-0.985729
-0.030600,-0.261494,-0.399027,0.804398,0.587878,-0.085693
0.423527,0.508066,-0.948016,0.454457,-0.648151,0.611040
0.669996,0.075071,-0.925904,0.773342,0.385397,-0.503400
0.521900,-0.403288,-0.920494,0.268457,0.443943,-0.854895
-0.110913,0.017778,-0.974501,0.804254,0.550690,0.223421
0.099033,-0.266496,0.390454,0.871600,0.100746,0.479755
-0.350567,0.421097,0.775392,-0.616561,0.434794,-0.656359
-0.165396,0.354077,-0.114605,0.933707,0.045037,-0.355193
-0.455865,0.336269,1.000000,-0.480817,0.875496,-0.048193
-0.201384,-0.086014,0.454272,-0.355412,0.583467,0.730239
0.423579,-0.331281,-0.931198,-0.587972,0.384230,0.711798
0.019870,0.627387,-0.947927,0.327520,-0.180860,-0.927373
0.754030,0.230750,-0.919254,0.450334,0.184640,0.873560
-0.545797,-0.087351,0.637412,0.674620,0.702694,0.226074
0.543227,-0.537167,-0.931193,0.907428,0.186788,-0.376410
0.127011,-0.228920,-0.961746,0.827470,-0.467760,-0.310636
-0.124400,0.723081,-0.086203,-0.295890,0.505349,-0.810599
-0.084572,-0.391236,-0.343385,0.716102,0.272580,-0.642571
-0.093390,0.718760,-0.969991,0.972455,0.132601,0.191701
0.047632,0.036687,0.410681,-0.711410,-0.018589,-0.702531
-0.039193,-0.279880,-0.246732,0.034197,-0.399536,0.916080
0.701961,-0.242888,-0.878527,-0.393254,0.918464,0.042127
-0.292701,-0.289215,0.266075,0.880088,0.109270,0.462066
0.680575,-0.423541,-0.937399,-0.497256,0.591313,0.634891
0.521346,0.355981,-0.939646,-0.331595,-0.522171,0.785736
-0.115328,0.224278,-0.099071,0.984499,0.141628,-0.103460
0.526155,0.380574,-0.917638,0.428171,0.505846,0.748858
0.056432,-0.235581,-0.453122,0.617718,0.731028,0.289867
0.099198,-0.211445,0.361673,-0.687078,0.610849,-0.393430
0.046455,-0.180528,0.374541,-0.022855,-0.555074,0.831487
0.423317,0.058162,-0.943029,0.040844,-0.316219,0.947807
-0.029567,0.595668,-0.083851,-0.232635,0.388166,0.891744
-0.576967,0.056223,0.745809,0.770370,0.478990,0.420832
-0.582100,0.062483,0.731058,0.912753,0.401823,0.073620
0.635949,-0.224593,-0.914570,0.880663,0.309753,-0.358449
-0.089933,0.825614,-0.978071,-0.184304,-0.299032,0.936275
-0.525622,0.315987,0.894696,-0.570150,0.813991,0.111116
-0.270378,-0.328125,0.439055,0.872910,-0.308977,-0.377574
0.844224,-0.129396,-0.923019,0.923728,-0.258251,-0.282902
0.653788,0.045392,-0.931038,0.015299,0.543115,0.839519
-0.333172,0.670340,0.740596,-0.727715,-0.411122,-0.549008
0.499754,-0.017771,-0.928524,0.251607,0.819066,0.515582
-0.515828,0.085977,0.855556,-0.428041,-0.312975,0.847837
-0.447711,-0.290358,0.465659,0.325837,0.471395,0.819523
0.004449,0.353564,-0.967683,0.898725,0.173155,-0.402878
-0.024988,0.984798,-0.904722,0.936206,-0.310738,0.164194
0.042441,-0.381004,-0.962374,0.307781,0.650296,0.694540
-0.144591,-0.533958,-0.227740,0.843203,-0.427398,0.326097
0.153522,-0.028186,-0.951029,0.629310,-0.016015,0.776990
-0.225865,-0.639590,-0.071721,0.354189,-0.935072,-0.013817
0.169543,-0.374844,-0.949081,0.238712,-0.131991,0.962078
-0.351831,-0.278738,0.536223,0.379534,0.336279,-0.861899
0.602314,-0.012417,-0.928151,0.698587,-0.690801,-0.186465
0.418535,-0.227689,-0.953637,0.278022,0.639797,0.716494
0.058890,0.824879,-0.950266,0.087444,-0.703063,-0.705731
0.363665,-0.656148,-0.952907,0.026605,-0.367991,0.929449
-0.517583,0.421962,0.834035,-0.756095,-0.649416,0.081113
0.718040,0.006269,-0.938405,0.786003,0.343698,-0.513878
0.608828,-0.530789,-0.925814,-0.728299,0.630734,0.267872
-0.031935,0.281875,-0.962117,0.792236,0.055828,0.607656
0.620264,0.100290,-0.941025,-0.660860,-0.598026,-0.453463
0.079387,-0.111046,-0.971365,0.391190,-0.023016,-0.920022
-0.281842,0.212541,-0.194382,-0.205058,-0.146141,0.967778
-0.013328,0.751042,-0.937001,-0.247628,0.766718,0.592303
0.916030,0.192461,-0.904455,-0.720094,-0.333100,0.608694
-0.369810,-0.027723,0.779877,0.891209,0.428020,0.150153
0.375767,-0.739309,-0.927178,-0.037559,-0.553385,0.832078
0.259406,-0.199819,-0.928914,-0.286172,-0.958177,0.001249
0.146724,0.016586,-0.938093,-0.485750,0.853477,0.188742
0.644372,-0.398256,-0.927189,-0.228588,0.607200,0.760957
0.121418,0.260829,-0.941214,0.866896,-0.198173,-0.457405
0.046124,0.735484,-0.959303,0.731305,0.665606,0.148866
-0.177294,0.419229,-0.953779,0.082971,-0.551188,0.830245
-0.160556,0.192580,-0.939617,-0.164064,-0.884627,-0.436485
-0.493067,-0.342607,0.501632,0.276063,0.928548,0.248167
-0.226512,0.032286,-0.139338,0.914351,0.266508,0.304854
-0.481909,0.354517,0.954747,-0.004925,-0.934741,0.355297
0.130710,0.266754,-0.950381,0.526656,-0.797953,0.293094
0.415771,-0.689725,-0.949834,-0.775544,0.040753,-0.629977
0.140199,-0.108398,-0.948381,0.904314,0.279954,0.322245
-0.027446,0.824490,-0.959705,-0.115233,0.147450,-0.982334
-0.119944,-0.169461,-0.955433,0.101223,0.989208,-0.105933
0.754837,-0.277294,-0.909630,-0.025758,0.327426,0.944526
-0.128770,0.481368,-0.955742,-0.598146,-0.300669,0.742846
-0.158267,0.263241,-0.215315,0.893749,0.448122,0.020002
-0.477834,-0.058551,0.740292,0.417308,0.707195,0.570726
0.497941,-0.751230,-0.948685,0.391099,0.111061,-0.913623
0.019039,-0.228405,-0.339761,-0.726870,-0.686763,0.004148
0.373909,-0.448607,-0.956665,-0.628950,0.632122,0.452596
-0.119663,0.540397,-0.949921,0.241377,-0.550764,0.798997
-0.268849,0.316275,-0.977235,0.961313,0.027272,0.274106
-0.413231,0.162557,0.823782,0.828676,-0.302538,0.470922
-0.088563,0.099071,-0.925660,0.338068,0.914235,-0.223347
-0.642964,-0.054981,0.829444,0.540677,0.840165,0.042327
-0.125800,0.676225,-0.965759,0.245427,0.086789,0.965522
-0.150418,0.610609,-0.955987,-0.104800,0.106463,0.988778
-0.855961,0.389741,0.791601,-0.569555,0.223299,-0.791040
-0.398191,0.448999,0.742607,-0.724751,-0.586675,-0.361315
-0.180850,0.500404,-0.090676,0.923116,0.319949,0.213284
0.042086,0.555959,-0.938234,-0.097977,-0.913490,0.394887
0.342354,0.279697,-0.958477,-0.297611,-0.233034,0.925809
0.272961,0.474647,-0.949403,-0.257558,-0.866840,-0.426910
-0.423613,-0.307264,0.592097,0.957996,-0.209696,0.195630
0.068013,0.534408,-0.939906,0.836479,0.479141,0.265947
0.452434,0.253938,-0.945849,0.126335,-0.124385,0.984158
0.443797,0.349319,-0.952189,-0.079612,-0.847229,0.525228
-0.713227,0.370426,0.871575,-0.652423,-0.402987,-0.641830
-0.117957,0.005232,-0.981116,-0.372253,-0.769523,0.518905
-0.032416,0.768119,-0.976653,0.180803,0.409479,-0.894224
0.489109,-0.092202,-0.939368,0.026053,-0.314461,0.948913
0.093330,-0.080409,-0.953449,0.185342,-0.336826,0.923145
0.003520,-0.149836,0.158918,0.032914,0.144516,-0.988955
-0.100860,-0.469762,0.055612,0.548167,0.832027,-0.085116
-0.693136,-0.170182,0.761502,-0.684186,0.295718,0.666663
0.471406,-0.259141,-0.927738,0.108428,-0.226174,0.968033
-0.138460,-0.269840,0.109421,0.852122,0.039056,0.521884
-0.208453,-0.120237,0.487295,0.298455,0.615556,0.729394
0.285063,-0.049156,-0.930728,0.027468,-0.491321,0.870546
-0.068773,0.146875,-0.940012,-0.019513,-0.600765,0.799188
-0.644387,0.530844,0.781875,0.967842,-0.129472,0.215683
-0.316427,-0.030031,-0.993493,0.922733,0.069004,0.379213
0.886201,-0.152222,-0.927662,0.371407,0.365471,0.853515
0.213990,-0.454880,-0.948451,-0.691326,0.197830,0.694933
0.791183,-0.120983,-0.909385,-0.153565,-0.159430,0.975192
-0.576035,0.192256,0.862309,0.625437,0.519743,-0.581976
0.423122,-0.420763,-0.939402,0.385594,-0.184824,-0.903968
0.340394,-0.135832,-0.948511,0.450256,0.835815,-0.314139
-0.694500,0.169489,0.854052,-0.284926,-0.829826,-0.479797
-0.195527,0.214530,-0.098614,0.875310,-0.048215,-0.481153
0.040883,0.236603,-0.934629,-0.488402,-0.475547,-0.731655
0.217594,-0.194216,-0.951696,0.031176,0.214929,0.976132
0.707175,0.079654,-0.935152,0.876159,0.050469,-0.479372
0.038675,-0.153873,0.381778,0.666314,0.556016,0.496862
-0.632164,-0.050857,0.822068,-0.430263,-0.768468,-0.473636
0.620383,0.232396,-0.936158,0.484814,0.519603,-0.703540
0.581992,-0.400624,-0.908042,0.534994,-0.455588,-0.711492
-0.391264,-0.168191,0.568200,0.870910,-0.484680,0.081251
-0.217997,0.536596,-0.164851,0.329075,-0.414607,0.848416
0.526123,-0.254935,-0.937114,0.490921,0.400913,-0.773477
-0.425097,0.121704,0.691725,-0.289243,-0.723739,-0.626530
-0.064447,-0.267130,0.088299,-0.747809,0.628394,-0.214251
-0.313757,0.244656,-0.196195,0.858761,-0.501083,0.106978
-0.092626,0.171740,-0.948744,0.488662,0.871725,-0.036128
0.063539,0.249016,-0.942874,0.139700,0.700962,0.699382
0.414180,-0.565236,-0.947979,-0.563161,-0.038108,0.825468
0.742579,-0.281582,-0.912927,0.929693,0.092028,-0.356653
-0.066724,-0.330974,0.081093,-0.352274,0.914498,0.198990
0.382765,-0.082070,-0.941474,-0.186202,0.330031,-0.925423
0.337610,-0.556299,-0.939216,-0.269198,0.129060,0.954398
-0.019126,-0.276948,0.083691,0.220924,0.752909,-0.619936
0.422049,0.254002,-0.937352,0.249428,0.024303,0.968088
0.397693,-0.328417,-0.939972,0.559069,0.241078,-0.793299
-0.648512,0.168671,0.963144,-0.228262,-0.939454,0.255583
-0.636047,0.312652,0.899915,0.432865,0.597320,-0.675157
-0.160359,-0.255860,0.115771,0.874315,0.483728,-0.039744
0.350316,0.559395,-0.962711,-0.671392,0.253626,0.696353
0.233620,0.079169,-0.911317,0.587651,0.400531,0.703023
-0.198313,0.020299,-0.971637,0.966886,-0.236627,-0.095599
-0.101196,0.060846,-0.284857,0.888236,0.429999,0.161675
0.856423,-0.105676,-0.927696,0.633774,0.688046,0.353445
0.100156,0.490218,-0.939456,0.521104,0.849891,-0.078328
-0.392355,-0.155671,0.413197,0.782961,-0.473235,-0.403759
-0.218190,-0.514454,0.256861,0.891858,0.192613,0.409255
0.417292,-0.737909,-0.947452,-0.367269,0.642431,0.672604
0.339162,0.410631,-0.962673,-0.016586,0.199023,0.979854
-0.638359,0.038823,0.855260,-0.559235,0.260545,0.787002
0.614152,-0.194892,-0.917032,0.627587,0.240149,-0.740582
0.116940,0.235330,-0.918788,0.858576,-0.300150,0.415640
0.299622,-0.269745,-0.930135,-0.303944,0.300593,-0.904025
0.382041,0.207437,-0.946271,0.755621,0.313853,-0.574920
0.252655,-0.107929,-0.950993,-0.111065,-0.919754,0.376452
0.403008,-0.492686,-0.941746,0.680774,0.731929,0.028736
-0.108396,0.722163,-0.948854,0.436813,-0.531147,-0.726001
0.069684,-0.193930,0.150756,-0.555408,0.606051,-0.569407
0.915742,0.057036,-0.907623,0.015616,0.411126,0.911445
0.094510,-0.465769,-0.344592,-0.273617,-0.918250,0.286269
0.481447,0.171949,-0.938871,0.796522,0.000520,-0.604609
-0.495965,0.113755,0.739603,-0.586052,-0.034614,-0.809534
0.177480,-0.306198,-0.622861,0.957334,-0.192414,-0.215612
-0.141137,0.195259,-0.210450,-0.481027,-0.278838,0.831181
0.372273,0.019023,-0.936396,0.819324,0.025423,0.572766
-0.096159,-0.273375,-0.023282,0.770384,0.612058,0.178586
-0.766556,0.185941,0.790708,-0.185353,0.779617,0.598199
0.183131,0.804760,-0.953712,0.505639,0.851550,0.138534
0.230155,-0.414745,-0.938068,0.232576,-0.017157,0.972427
0.438036,0.217612,-0.936027,0.331349,0.649056,0.684788
-0.168328,0.233875,-0.969638,0.179618,0.896839,-0.404250
-0.222895,0.587753,-0.115080,0.828951,0.529138,0.181257
-0.174611,-0.055226,-0.982497,0.336825,0.331842,0.881152
-0.570521,0.064106,0.726782,0.761267,0.274195,0.587614
0.701068,-0.503598,-0.933247,0.851542,0.519499,0.070690
0.625492,-0.100929,-0.917118,-0.136705,0.294616,0.945787
-0.214546,-0.060312,-0.955709,0.047551,0.992595,0.111777
0.210710,0.328460,-0.957646,-0.705133,0.008924,-0.709019
-0.210655,-0.019272,0.245272,0.086938,-0.944903,0.315596
0.611935,-0.253212,-0.875891,0.280980,-0.410032,-0.867712
0.154149,-0.239112,-0.936984,0.872231,-0.334143,-0.357158
0.054134,0.262839,-0.955943,0.459022,-0.388890,0.798789
0.090459,-0.312600,-0.956161,-0.396057,0.024054,0.917911
0.487919,0.286817,-0.952400,-0.268520,0.346908,0.898639
-0.547794,0.027838,0.613657,0.408582,0.858159,-0.310844
0.011607,-0.390398,-0.226471,0.937944,-0.346254,0.019236
-0.314351,0.610167,-0.123854,-0.410225,0.899385,-0.151070
0.511749,-0.156740,-0.941662,-0.380022,0.805002,0.455582
0.162076,-0.157098,-0.940049,-0.434798,-0.743002,0.508822
0.624385,-0.503432,-0.948552,-0.695939,0.657358,0.289049
-0.019368,0.306877,-0.948056,0.487733,0.693061,0.530832
-0.175589,-0.494946,-0.068913,-0.691186,0.671270,0.267692
0.251726,0.245206,-0.949767,0.754929,0.655787,0.005107
-0.063704,-0.245028,-0.969420,-0.367861,0.166657,0.914824
0.714184,-0.454216,-0.920099,-0.728959,0.625518,0.278112
-0.613574,0.015118,0.863273,-0.230788,-0.639725,0.733136
-0.003124,0.391120,-0.955126,0.025646,-0.846306,0.532079
0.302016,0.607845,-0.928609,0.036513,0.962033,0.270481
0.745558,-0.143897,-0.915467,0.838139,0.026188,-0.544827
0.080137,-0.298171,-0.603592,0.895970,0.444105,-0.002912
0.711819,-0.511336,-0.940799,0.640371,0.633985,0.433576
-0.001283,0.255802,-0.945727,0.075421,-0.211475,0.974469
-0.822038,0.797987,0.781124,0.520551,-0.763749,-0.381725
0.048949,-0.753836,0.002793,0.686986,0.623988,-0.372409
0.037311,-0.391510,-0.430753,-0.167132,-0.980993,0.098591
0.455945,0.282675,-0.932311,0.229860,-0.780721,0.581067
-0.004238,-0.093274,-0.922694,0.880710,0.325246,-0.344331
0.288385,-0.323578,-0.932324,-0.218652,-0.118807,-0.968543
-0.257161,-0.627579,-0.065631,0.132562,-0.973818,-0.184679
-0.709623,0.445019,0.718543,-0.225171,0.681374,0.696439
0.536352,-0.768203,-0.945836,0.791248,0.327604,-0.516336
0.534393,-0.505498,-0.937168,-0.460360,0.885675,-0.060407
-0.309768,0.533387,0.762756,0.952925,0.014198,-0.302874
0.320377,-0.865896,-0.928665,0.364050,0.929326,-0.061803
-0.006459,-0.426575,-0.242078,-0.694195,0.539399,0.476594
0.023122,-0.539179,-0.000290,0.869845,0.490246,-0.055037
-0.103148,0.632598,-0.930809,0.971661,0.236365,0.002677
-0.167599,0.635075,-0.085635,-0.286279,0.950601,-0.120008
0.145492,-0.172947,0.312417,0.271894,-0.287314,0.918436
0.526571,-0.705210,-0.921035,0.351715,-0.699034,-0.622615
-0.201656,0.171256,-0.145146,0.749720,0.378290,-0.542971
0.728757,0.134977,-0.925717,0.316093,0.096413,0.943817
-0.557712,-0.063238,0.882420,0.869208,0.167448,-0.465230
0.741441,0.196200,-0.919704,-0.175060,-0.616136,0.767939
-0.044410,-0.528060,-0.004020,-0.727041,0.237047,0.644375
-0.125561,0.168085,-0.967400,-0.631598,-0.022717,-0.774963
0.356160,0.255594,-0.942466,0.493494,0.587799,0.641058
0.133525,-0.301330,-0.691788,0.299263,0.952718,0.052640
0.503123,0.275482,-0.944256,-0.123704,0.242138,0.962323
0.024340,-0.214650,-0.963026,-0.702112,0.466083,0.538335
-0.463894,-0.019450,0.870072,0.880648,-0.248720,-0.403234
-0.617077,0.259093,0.920529,0.882690,0.183097,0.432821
0.122555,0.335155,-0.934542,0.800550,0.521989,0.294360
0.042455,-0.268535,-0.959430,0.457244,0.411442,0.788444
0.309171,-0.022886,-0.914932,0.366294,0.280688,0.887155
-0.222071,0.594851,-0.125390,0.846543,0.532290,0.005643
0.437396,-0.296993,-0.932133,0.878791,-0.430319,-0.206282
0.564267,-0.071069,-0.908010,0.455653,0.044178,0.889061
-0.573780,0.389210,0.939025,0.445937,0.892421,-0.068736
0.140690,-0.254296,-0.717415,0.536652,0.843798,-0.003064
0.017375,-0.230185,-0.950587,0.861968,-0.506958,0.001987
0.775977,-0.162838,-0.926113,0.437763,0.084005,-0.895158
-0.159305,0.015347,-0.146855,0.310232,0.586400,0.748259
-0.408752,0.199264,0.683760,0.143286,0.926099,0.349012
-0.518915,-0.083132,0.611314,0.736346,0.595827,-0.320600
-0.098793,-0.327466,-0.342147,0.752786,0.206128,-0.625159
0.367812,0.327107,-0.931013,-0.241239,-0.082245,0.966974
-0.116010,-0.330129,0.089270,-0.198708,0.971597,-0.128511
-0.580888,0.371190,0.907686,-0.155945,-0.714178,0.682371
0.748009,-0.088709,-0.932936,-0.911270,0.409960,-0.038986
-0.599713,0.132249,0.797913,0.282428,0.952081,-0.117374
0.154140,0.634664,-0.936665,0.637309,-0.589012,0.496892
-0.227384,-0.151874,0.311416,0.140622,-0.654867,0.742546
0.293465,0.145646,-0.952144,-0.713049,0.437830,0.547600
-0.203027,-0.010171,-0.970910,0.720144,0.240247,-0.650902
-0.258070,0.344933,-0.953645,0.726263,-0.397909,0.560545
0.310118,-0.710803,-0.923700,0.230283,0.561681,-0.794660
0.075821,0.551127,-0.939177,0.971994,0.217293,0.089509
-0.531986,-0.222857,0.884055,-0.161504,0.985518,0.051683
0.098494,-0.044585,0.216106,-0.250365,0.960627,-0.120468
0.105161,-0.367838,-0.897962,-0.668610,0.654351,0.353250
-0.193029,0.501918,-0.970869,-0.679745,-0.320009,0.659955
0.422377,-0.686636,-0.938980,-0.422648,0.201509,0.883608
0.769414,-0.342918,-0.910191,0.190366,0.594868,-0.780956
0.614563,-0.078738,-0.919025,-0.366397,0.232563,0.900926
0.607127,-0.223905,-0.927172,-0.338101,-0.597754,-0.726896
0.073730,0.524266,-0.940840,0.984625,0.148463,0.092050
0.332955,-0.256335,-0.953377,-0.163120,-0.084534,0.982978
-0.046137,0.609475,-0.928114,0.014756,-0.681101,0.732041
0.532248,0.360382,-0.932312,-0.557288,0.275229,0.783377
-0.134415,-0.047438,-0.205515,-0.627743,-0.762131,0.158418
0.527896,0.328065,-0.950392,-0.636804,-0.120284,-0.761586
-0.576637,-0.092205,0.909728,-0.367131,0.453427,-0.812170
0.382899,0.378582,-0.964044,-0.523932,-0.552967,0.647861
0.070755,-0.187357,-0.951557,0.800265,-0.040237,-0.598296
0.361280,0.218192,-0.932142,-0.242521,0.739677,0.627743
0.682918,-0.382858,-0.934966,-0.234880,0.598344,0.766039
-0.425911,-0.035472,0.576842,-0.223626,-0.958745,-0.175495
-0.552903,-0.284000,0.549569,0.371326,0.244689,0.895681
-0.246303,0.130527,-0.074306,0.927331,0.145336,-0.344869
0.566775,-0.380173,-0.942835,0.720997,0.204953,0.661935
-0.267607,-0.443541,-0.109034,0.021851,0.860345,0.509244
0.016448,0.535466,-0.936509,0.147434,-0.822471,0.549368
-0.195681,-0.360214,0.480210,0.943676,0.318281,0.090406
0.796167,0.045223,-0.913414,0.230928,0.960582,-0.154773
-0.037739,-0.132274,-0.949216,0.514179,-0.153779,0.843784
0.428507,0.090052,-0.956187,0.373832,0.364426,0.852903
0.844986,0.147220,-0.931104,-0.148696,0.597656,0.787843
0.044678,-0.006434,-0.925307,0.074022,0.984998,0.155883
-0.240256,-0.297975,0.258880,-0.787192,0.077476,-0.611823
0.043332,-0.386521,-0.437277,0.704449,0.379378,0.599853
0.092025,-0.213331,-0.943862,0.028280,0.953727,-0.299341
0.837493,-0.172022,-0.915251,0.886400,-0.315500,0.338756
-0.353542,-0.172295,0.528663,-0.774460,-0.267449,0.573309
0.002106,-0.276884,-0.326260,0.649441,0.755057,-0.090085
-0.224479,-0.132626,0.293839,0.926792,0.054220,-0.371640
-0.554399,0.007741,0.720233,0.849567,-0.132642,0.510530
-0.006636,0.512050,-0.962040,-0.662408,0.670523,0.334087
-0.111666,-0.352100,-0.102638,0.358524,-0.487407,0.796175
-0.671380,0.141217,0.830769,0.018664,-0.995112,0.096974
0.611335,-0.530722,-0.920176,0.968466,-0.240296,0.065819
0.658435,0.274048,-0.937158,0.813691,0.200301,-0.545699
0.257568,-0.068714,-0.950792,-0.028165,-0.702767,0.710863
-0.717229,0.698661,0.796661,0.771586,-0.143240,-0.619788
0.031371,-0.409062,-0.954621,-0.335305,-0.927991,-0.162489
0.283716,-0.166035,-0.964769,0.216910,0.022425,0.975934
0.529038,-0.416275,-0.935628,0.516561,0.286052,-0.807056
0.195265,-0.007572,-0.952811,0.159015,0.986168,-0.046762
-0.414146,0.105072,0.708451,-0.396378,0.800385,-0.449742
0.166426,0.782554,-0.917279,-0.112196,0.659173,0.743575
0.699401,-0.501478,-0.931585,0.851542,0.519499,0.070690
0.900507,-0.241336,-0.925131,0.501692,-0.857336,-0.115242
0.153031,0.879224,-0.935903,-0.171240,-0.982068,0.078866
-0.052314,0.859045,-0.956235,-0.075351,0.461654,0.883854
-0.146411,0.040811,-0.202027,0.894923,0.291310,0.338012
-0.040076,0.661591,-0.940983,0.429238,0.595848,0.678763
0.297394,-0.690825,-0.924041,-0.315100,-0.267324,0.910632
-0.557599,0.210075,0.820672,0.964494,0.188915,0.184561
-0.269061,-0.391628,0.265683,0.825489,0.163129,0.540331
0.319839,0.429225,-0.964276,-0.037521,-0.041576,0.998431
0.152026,-0.347432,-0.900864,-0.510097,0.802552,0.309373
-0.147912,-0.212246,-0.012020,-0.802414,-0.596606,0.013909
0.320172,-0.446081,-0.926319,0.731426,-0.139066,0.667591
-0.194572,0.221444,-0.205234,0.801446,0.175219,0.571824
0.324838,-0.481220,-0.910830,0.488215,0.805939,0.334827
-0.756595,0.288329,0.804268,0.784586,-0.613173,0.091892
-0.151849,0.058495,-0.963750,-0.286739,0.953787,0.089845
-0.340062,0.016388,-0.986392,0.221116,0.564498,0.795267
0.264894,-0.088892,-0.912849,-0.018012,0.302939,0.952840
0.776255,-0.293141,-0.926703,0.393732,0.178716,-0.901685
-0.005777,0.281178,-0.963153,-0.594103,-0.365924,0.716339
-0.119352,0.656373,-0.100369,-0.339386,-0.361184,0.868541
0.682415,-0.395260,-0.923028,0.803775,0.095652,-0.587194
-0.543639,0.165515,0.739075,0.449983,-0.593271,0.667492
-0.055115,-0.508490,0.054216,0.067463,0.997106,0.035035
-0.146928,0.409751,-0.152817,0.917963,-0.011792,-0.396490
0.629474,-0.255743,-0.924259,0.321491,0.593326,0.737976
-0.169632,0.279014,-0.958191,-0.075813,-0.302360,0.950174
0.102547,-0.358790,-0.957658,0.321960,-0.408782,-0.853955
-0.474247,-0.094274,0.717567,-0.009676,-0.989394,0.144937
0.033015,-0.185022,0.143955,0.976834,0.207893,-0.050750
0.545869,-0.108294,-0.939912,0.741873,-0.502859,0.443573
0.043141,-0.288652,0.525013,-0.109065,0.976984,0.183325
-0.015464,0.800195,-0.101795,0.829539,-0.478148,-0.288512
-0.303665,-0.239805,0.494315,0.498549,-0.194865,-0.844675
0.395015,0.496513,-0.946685,-0.028305,-0.989327,-0.142937
-0.290126,-0.394731,-0.120064,-0.015929,0.546790,0.837118
-0.077328,0.526233,-0.936128,0.419856,-0.107921,-0.901151
-0.074457,0.495732,-0.924870,0.419258,-0.625685,0.657831
0.714081,-0.381686,-0.935761,-0.356310,0.761632,0.541258
0.618378,-0.374899,-0.914302,0.976742,-0.165627,-0.136170
-0.712567,0.420021,0.752174,-0.006424,0.959138,0.282865
0.595299,-0.362926,-0.925769,-0.582713,0.313386,-0.749823
0.337235,-0.547688,-0.907060,-0.111182,-0.878367,0.464876
0.458618,0.050858,-0.943208,0.004273,-0.249073,0.968475
-0.488341,0.428315,0.652083,0.176790,0.316380,-0.932013
-0.692194,0.681507,0.752465,0.541792,0.265942,0.797331
0.511824,-0.333963,-0.931369,-0.121022,-0.157091,0.980141
-0.120251,-0.020637,-0.967738,0.340150,0.939742,-0.034385
0.029054,0.409488,-0.950526,-0.304912,0.540626,-0.784061
-0.074771,-0.231863,-0.981673,-0.505426,0.376249,-0.776519
0.206248,0.170082,-0.929089,0.133934,0.962712,0.235047
0.066452,0.781077,-0.944482,-0.064546,0.882930,0.465047
0.573081,-0.130304,-0.951045,-0.218815,-0.291116,0.931328
0.413670,-0.557209,-0.933136,-0.130546,0.074782,0.988618
0.249648,-0.734068,-0.945487,-0.518032,-0.298415,-0.801618
-0.040869,-0.318990,-0.171241,0.068711,0.984657,0.160404
-0.170947,-0.531123,0.520898,0.712635,-0.187299,0.676070
-0.612791,0.139158,0.783862,0.778907,0.623289,-0.069393
0.443050,-0.152873,-0.938276,-0.735592,0.266647,-0.622739
-0.140723,-0.176034,0.011618,0.959787,0.221704,-0.172208
-0.566202,0.149380,0.945193,-0.381483,-0.746612,-0.545015
0.669661,0.304996,-0.933809,0.693697,0.699090,0.173371
0.502492,-0.602087,-0.921290,0.385316,0.880030,-0.277630
-0.722553,0.292906,0.832663,-0.365549,0.101093,0.925286
-0.047779,0.043513,-0.883743,-0.472171,-0.864876,0.170421
0.213606,-0.518978,-0.940278,-0.225485,0.962531,-0.150637
0.549996,0.215360,-0.937598,-0.482268,0.714921,0.506266
0.221522,0.276120,-0.939456,-0.579223,0.578053,0.574766
0.510218,0.301954,-0.937329,0.347316,0.183944,0.919530
0.118819,-0.323936,-0.643154,0.437344,0.897897,-0.050114
0.796483,0.153972,-0.926910,0.111114,0.993808,-0.000096
-0.196335,0.429596,-0.086225,0.463126,0.278386,0.841436
0.156943,-0.614972,-0.939715,-0.308799,-0.947818,-0.079279
0.100488,-0.319089,-0.637591,-0.226159,0.972167,0.061192
-0.095260,0.675482,-0.940676,0.101123,-0.993859,0.044922
-0.086130,-0.294332,0.014613,0.885435,0.415117,-0.209003
0.643183,0.081806,-0.930275,-0.428752,-0.020251,0.903195
0.447053,-0.364590,-0.929723,0.817583,0.525006,-0.236489
0.632820,-0.444845,-0.927027,0.418833,0.104241,-0.902060
0.624331,-0.484204,-0.929025,-0.384196,0.074501,0.920241
-0.642297,0.418703,0.803029,-0.424674,-0.720532,-0.548166
0.388450,0.557692,-0.917615,-0.342486,-0.279670,0.896933
-0.079791,0.513637,-0.954484,0.218597,0.079146,0.972600
0.059341,0.794436,-0.931421,-0.213186,0.862338,0.459266
0.689251,-0.179772,-0.938966,0.268783,0.508266,0.818181
-0.760693,-0.233491,0.775182,0.517329,0.561969,0.645416
-0.540732,0.187049,0.766390,-0.296907,-0.096239,0.950044
-0.596822,0.068792,0.867049,0.885871,-0.427573,0.180042
-0.365775,0.224499,0.749021,0.407171,0.307498,0.860033
-0.045447,0.346249,-0.947867,0.954576,-0.041612,-0.295049
-0.150799,0.169546,-0.062261,-0.605755,0.734447,0.306020
0.125397,0.112046,-0.927736,0.736392,0.052781,-0.674493
-0.547929,-0.571835,0.770649,0.781279,0.624037,0.013477
0.299087,0.729800,-0.937320,0.691144,0.491876,-0.529507
0.455756,-0.067248,-0.904730,0.274103,0.762994,0.585412
-0.199393,0.113416,-0.264630,0.874792,0.467129,0.128569
0.369278,0.525986,-0.943334,-0.652378,-0.673901,0.346786
-0.104203,-0.182209,-0.962792,0.099106,-0.991488,0.084433
0.020975,-0.382010,-0.711142,0.317498,0.874622,0.366376
-0.434079,-0.114479,0.710521,0.665120,0.605559,-0.436938
0.414151,0.500287,-0.957027,-0.101337,0.102866,0.989520
0.800347,0.066889,-0.921984,-0.029217,0.182108,0.982844
-0.536153,0.500503,0.820933,0.965914,0.235397,0.107697
0.659148,0.145137,-0.925528,0.931509,0.255952,-0.258418
0.635318,0.095137,-0.924681,-0.355142,0.671393,0.650465
0.296740,-0.189159,-0.964376,-0.196708,-0.206058,-0.958565
-0.191446,-0.078067,0.447675,-0.335869,0.563558,0.754715
0.073095,0.502675,-0.934384,0.836674,0.544214,0.061715
-0.417315,-0.168619,0.636892,-0.404858,0.757787,-0.511711
