-0.006976,0.152664,0.852172,0.961145,0.056721,-0.270153
-0.248675,0.051883,0.529402,0.142316,-0.969588,-0.199110
0.402922,-0.139123,-0.966094,-0.586235,0.337188,0.736637
-0.695117,0.383356,0.734943,0.783354,-0.288696,-0.550465
-0.898584,0.402296,0.746188,-0.093362,0.946076,-0.310198
-0.773931,0.215082,0.685998,0.306573,0.839040,0.449472
-0.701345,0.334094,0.722904,-0.643271,-0.471316,0.603377
-0.316572,0.148787,0.806031,0.372826,0.434330,-0.819975
0.076333,0.011444,0.372375,0.994412,0.029570,0.101338
0.385372,-0.303760,-0.719614,0.946474,0.308201,0.095909
0.422756,-0.276014,-0.539955,0.903484,0.225958,0.364225
0.628592,-0.258746,-0.937461,0.021899,0.076689,0.996815
-0.803535,0.214531,0.739903,-0.632956,0.701923,0.326605
0.292188,0.018347,0.690795,0.119598,-0.391430,0.912403
-0.053243,-0.064672,0.861617,0.784611,-0.312866,0.535257
-0.106221,0.454479,0.747877,-0.081618,-0.964781,-0.250073
-0.681903,0.706915,0.652546,0.608258,-0.271123,0.745999
0.934663,-0.900960,-0.901532,0.501699,0.865042,-0.000452
-0.207224,0.230109,0.529822,-0.221847,0.882531,0.414636
0.122281,-0.062855,0.269273,0.932326,0.314369,0.178721
-0.714644,0.201466,0.797932,-0.336325,-0.931309,-0.139817
0.479559,-0.519956,-0.953763,-0.573322,0.303005,-0.761242
-0.587602,0.347016,0.672896,0.450907,-0.019961,0.892348
-0.099614,0.010269,0.798032,-0.484703,0.735127,-0.473973
-0.500661,0.104835,0.789553,0.839499,0.186403,0.510387
-0.145476,0.322270,0.569473,0.677573,0.329976,-0.657275
0.266511,-0.519524,-0.969792,-0.612546,0.651369,0.447778
0.338288,0.537995,0.809323,-0.659758,0.737370,-0.144932
0.127759,-0.061379,0.247787,0.903061,0.400797,0.154410
0.072434,-0.057351,0.822207,0.476594,-0.168426,0.862839
0.581134,-0.620786,-0.931839,-0.935434,0.350011,-0.049552
0.223341,-0.015959,-0.123662,0.436460,0.888481,-0.141788
0.415843,-0.339945,-0.617101,0.740020,0.064953,-0.669441
-0.535628,0.462391,0.444654,-0.495119,-0.715298,-0.493159
0.228607,-0.036124,0.809847,0.237962,0.675684,0.697728
-0.102720,0.432408,0.620792,0.504059,-0.815407,0.284670
0.039779,0.222322,0.821351,-0.414839,0.651273,-0.635415
-0.758734,0.478616,0.463937,0.978402,-0.166906,-0.121950
-0.455751,0.255599,0.834211,0.399161,0.898300,0.183653
0.011243,-0.216498,0.793904,-0.592455,0.599312,-0.538351
-0.496656,0.092274,0.744484,-0.752653,0.641377,-0.148827
-0.327791,0.118036,0.595291,0.592207,-0.795588,-0.127793
0.807462,-0.396797,-0.942875,-0.312127,0.259925,0.913792
0.331559,-0.014479,-0.220077,0.754614,0.547874,-0.361099
-0.199595,0.511063,0.720737,-0.641957,0.251439,0.724341
0.963116,-0.907396,-0.909664,0.660968,0.746272,-0.078742
0.835321,-0.591993,-0.923394,-0.085296,0.791059,0.605765
-0.038020,0.478591,0.738312,-0.714712,0.557075,0.422912
-0.897732,0.600439,0.689816,0.723665,0.496030,-0.479858
-0.249158,0.076972,0.500782,-0.472433,0.867797,0.154061
-0.227831,0.327899,0.652097,0.633075,-0.179981,0.752877
-0.225079,0.142844,0.611466,0.998240,0.050945,0.030359
-0.332734,0.309942,0.725782,-0.223603,0.698840,-0.679430
0.545891,-0.182851,-0.964145,0.780311,0.188564,-0.596287
0.287221,0.102403,0.739617,0.991003,0.062898,-0.118143
-0.000972,-0.068317,0.896847,0.770582,0.556578,0.310523
0.402969,-0.269006,-0.492895,0.888704,0.107838,0.445619
0.457931,-0.226397,-0.610634,-0.676163,-0.227998,0.700586
-0.713669,0.281236,0.617906,0.805445,0.385696,0.449997
-0.308519,0.172330,0.824156,-0.121086,-0.089373,0.988611
-0.660374,-0.117449,0.783850,0.597200,0.795875,0.099673
-0.627537,0.333879,0.732716,-0.376777,-0.415844,0.827715
-0.449120,0.139362,0.654546,0.686518,0.549945,0.475661
0.217153,0.263203,0.765869,0.910821,-0.392532,-0.127767
-0.100857,0.012157,0.863823,-0.032756,-0.553200,0.832404
-0.050162,0.223764,0.732117,-0.371269,-0.471319,0.800011
-0.212918,0.523295,0.820325,0.364808,-0.387785,-0.846486
-0.558059,0.536014,0.620978,0.334062,0.858257,-0.389612
0.081607,-0.040345,0.567563,0.911024,0.324313,0.254668
0.838645,-0.695677,-0.919766,0.754988,-0.568270,0.327203
-0.019189,0.247122,0.891027,0.389676,0.426026,-0.816489
-0.427228,-0.021066,0.846118,-0.231930,0.744142,-0.626466
0.077924,0.144737,0.880722,0.695994,0.717511,-0.027753
0.066170,0.150263,0.981778,0.549101,-0.185089,-0.815003
-0.052627,0.229171,0.883378,0.020244,-0.389896,0.920636
0.340130,0.428312,0.786025,0.430580,-0.639291,-0.637109
0.105241,-0.030297,0.378558,0.422640,-0.797437,0.430661
-0.036845,0.141045,0.584030,-0.024829,0.464909,0.885010
-0.581779,0.719728,0.654842,0.925110,-0.374181,0.064500
-0.264050,0.012373,0.213695,0.409596,0.869393,0.276381
0.554326,-0.432233,-0.905886,-0.669659,0.594353,-0.445311
-0.743404,0.280487,0.763543,0.827116,0.458252,-0.325399
0.536420,-0.279781,-0.763695,0.254019,0.944501,0.208309
-0.366766,0.021268,0.576182,-0.713010,-0.514631,0.476206
-0.841369,0.562604,0.719469,-0.192079,0.472029,0.860403
-0.502290,-0.019715,0.731032,-0.314713,-0.813103,-0.489713
-0.750657,0.634889,0.453483,-0.265450,-0.451466,0.851889
-0.172755,0.243882,0.469991,0.914146,0.180737,-0.362864
-0.139853,-0.191640,0.766138,-0.013306,0.971966,0.234743
0.270938,-0.245349,-0.979221,0.108573,0.574105,0.811551
-0.171523,0.108405,0.536872,0.719190,-0.670322,0.182850
0.309638,-0.179067,-0.324547,0.896735,0.434133,-0.085994
-0.579621,0.372494,0.669930,0.009573,0.331175,0.943521
0.440094,-0.318925,-0.669012,-0.638170,-0.761060,-0.116304
-0.051947,0.148845,0.456721,-0.173047,0.963881,-0.202456
0.810593,-0.628092,-0.943533,-0.046588,0.279115,0.959127
0.298159,-0.481635,-0.983448,0.120592,-0.148807,-0.981486
0.788313,-0.470312,-0.932575,-0.259933,0.055397,0.964036
0.189552,0.022602,0.235505,0.800019,-0.556027,0.225398
-0.026582,0.123761,0.840743,0.961325,0.174146,-0.213374
0.523633,-0.390049,-0.747339,0.438808,0.892446,0.104820
-0.773303,0.309819,0.794544,0.770657,-0.309352,0.557125
0.230299,0.388867,0.663613,0.943928,0.184345,-0.273891
0.295008,-0.112171,-0.983565,-0.593608,-0.180911,0.784156
-0.858312,0.171520,0.740376,-0.103698,-0.872960,0.476643
0.493271,-0.299453,-0.794325,0.996903,0.038207,0.068735
-0.280866,0.144623,0.767527,0.971987,0.055779,-0.228320
-0.755244,0.260180,0.761599,-0.489304,-0.044084,0.870999
0.242230,-0.013129,-0.068711,-0.797010,0.310806,-0.517855
-0.726910,0.758151,0.485192,0.759777,0.644761,-0.083798
0.160125,0.000199,0.750707,0.942551,0.089888,0.321741
-0.560442,0.619986,0.612736,0.780124,-0.124335,-0.613145
0.436325,-0.157133,-0.517286,0.951716,-0.014375,0.306644
0.819868,-0.768094,-0.937640,-0.139209,0.880161,0.453803
0.071647,-0.065863,0.144969,0.987001,0.148077,-0.062474
-0.757569,-0.073723,0.899061,0.077636,-0.750772,0.655984
-0.482289,0.265164,0.806145,-0.095319,0.890526,0.444834
0.732628,-0.796505,-0.913529,0.599802,0.104734,-0.793264
0.385897,-0.087825,0.774181,-0.532524,0.609452,-0.587355
-0.075764,0.053875,0.892387,-0.682940,-0.422666,0.595774
0.291544,-0.050508,-0.115563,-0.086493,-0.885782,0.455971
-0.250789,0.507279,0.754143,0.407217,0.590604,-0.696679
-0.250983,0.208244,0.496011,0.430856,-0.703411,0.565310
-0.019354,0.082027,0.431763,0.167160,0.946690,-0.275384
0.050684,-0.014161,0.313004,0.769342,0.587368,0.251218
-0.869238,0.693421,0.690195,0.529487,-0.275434,0.802359
0.202898,0.021753,0.680318,0.620259,-0.031429,-0.783767
-0.297937,0.507474,0.750937,0.513581,0.463377,-0.722161
0.070478,0.149770,0.761475,0.237646,-0.956683,-0.168172
-0.915967,0.629393,0.706236,0.701044,0.080536,0.708556
-0.085742,0.169805,0.402703,0.791661,-0.025146,0.610443
0.102241,0.042388,0.846802,0.936559,-0.348625,-0.036292
0.371668,-0.138077,-0.334131,0.743906,0.620901,-0.247155
0.171396,0.060097,0.516161,-0.119455,0.964463,0.235674
-0.852045,0.398301,0.781398,0.304849,-0.952255,-0.016652
-0.655879,0.359777,0.744384,0.786803,-0.205596,0.581954
0.092404,0.005980,0.253190,0.981505,-0.191392,0.004034
-0.599322,0.307239,0.677127,-0.654377,-0.040528,-0.755082
-0.174600,0.196649,0.491237,-0.690757,-0.199698,-0.694964
0.448333,-0.314303,-0.976121,-0.009527,-0.096763,0.995262
0.675756,-0.707806,-0.940191,0.357914,-0.280390,-0.890662
0.122936,0.088641,0.707052,-0.529006,-0.720472,0.448410
0.337984,-0.262904,-0.984331,0.097433,0.184520,0.977987
0.077168,0.118514,0.601859,0.201926,0.979360,-0.008984
-0.807118,0.408666,0.795205,-0.354241,0.913017,0.202271
0.098104,0.066739,0.241170,0.931952,0.335355,0.137847
-0.257151,0.174688,0.541182,0.467623,0.780945,0.414069
-0.629586,0.196679,0.707224,-0.161700,-0.968532,-0.189205
-0.073941,-0.167989,0.796817,0.258383,-0.932732,0.251492
0.087669,0.523655,0.676058,0.682497,0.400805,-0.611190
-0.156503,0.267123,0.562783,-0.778133,0.341317,-0.527269
0.218851,0.223855,0.724543,0.605483,-0.778168,0.166866
0.050195,-0.021955,0.892872,-0.615821,0.682501,0.393646
-0.399842,0.227650,0.725473,-0.713832,-0.619940,0.325757
0.417290,-0.431900,-0.954571,-0.337307,-0.808491,0.482251
-0.650243,0.888519,0.615845,0.993014,0.030606,-0.113960
0.036983,-0.094482,0.846409,0.762095,-0.227117,-0.606324
-0.189312,0.629321,0.748995,0.241736,0.789693,-0.563870
0.857945,-0.716207,-0.927818,-0.548487,-0.065837,0.833563
-0.157547,0.273663,0.483268,0.836254,-0.041690,-0.546756
-0.188477,0.396486,0.814303,0.832114,-0.044283,-0.552834
-0.716200,0.601399,0.489795,0.841604,-0.444200,0.307228
0.903012,-0.903721,-0.912479,0.338481,0.042360,0.940019
-0.055993,-0.128955,0.805312,-0.359811,0.804826,-0.472007
-0.528899,0.269245,0.795445,-0.722177,0.657979,0.213362
0.149188,0.059358,0.114335,-0.046890,0.998273,-0.035393
-0.867373,0.736242,0.699741,0.355069,0.397333,0.846199
-0.615092,0.425373,0.647460,0.818127,-0.555138,-0.149965
0.980968,-0.757274,-0.900614,0.887911,0.178202,0.424096
0.869155,-0.491648,-0.924207,0.133094,-0.149798,0.979718
-0.630908,0.553560,0.656521,0.937302,-0.210415,-0.277830
0.383907,-0.569614,-0.968618,0.109556,0.239437,0.964711
-0.773429,0.233451,0.725704,0.593507,0.504607,0.626994
0.035475,0.092497,0.307994,-0.577176,-0.718985,0.387205
-0.142590,0.337795,0.697206,0.408064,-0.532669,0.741450
0.212505,0.361600,0.862418,0.095094,0.956509,0.275767
0.394352,-0.214566,-0.341521,0.793539,0.420707,-0.439661
-0.335210,0.107387,0.630712,-0.666034,0.516344,-0.538319
-0.445861,0.140470,0.684936,0.449823,0.886668,0.107142
0.848623,-0.412808,-0.939214,-0.106754,0.085036,0.990642
0.291710,-0.082976,-0.989146,0.988542,-0.150171,0.015292
-0.133650,0.315883,0.807489,0.653447,0.620344,0.433798
0.080256,0.127802,0.430055,0.118140,0.991595,0.052750
-0.752010,0.649638,0.647690,-0.598546,-0.739476,0.308087
-0.810162,0.055782,0.830970,-0.313653,0.712012,0.628220
-0.624359,-0.044902,0.846844,0.279869,0.086985,0.956089
0.032691,-0.159170,0.816008,-0.464232,0.653852,-0.597466
-0.031959,-0.137083,0.907606,0.851758,-0.334547,0.403221
-0.196383,0.066722,0.712251,-0.429108,0.492246,-0.757337
0.108532,0.037957,0.407877,0.472579,-0.808776,0.350071
-0.051049,0.043298,0.789822,-0.709938,0.589685,0.385046
-0.056700,0.368867,0.723436,-0.182198,-0.423616,0.887329
-0.510594,0.075367,0.764079,-0.325296,-0.910527,-0.255193
-0.598882,0.463383,0.674653,0.195254,0.272267,0.942203
0.036934,0.058981,0.188930,0.340408,-0.909121,0.240046
-0.638140,0.312424,0.748450,0.985683,-0.052399,0.160259
-0.662892,0.494973,0.431854,-0.259987,-0.267763,-0.927744
-0.042340,0.366511,0.710270,0.861554,0.420053,-0.285097
-0.934947,0.592475,0.643342,0.901540,-0.404537,0.153545
-0.730607,0.272757,0.683665,0.803766,-0.062582,-0.591645
-0.054395,0.189735,0.401011,0.286138,0.929966,0.230844
-0.378181,0.096727,0.644176,0.596841,0.238497,0.766094
0.372208,-0.171746,-0.981568,0.120403,0.106820,0.986961
-0.615972,0.333759,0.647373,0.815406,0.574839,0.068357
-0.070680,0.334872,0.587740,0.981705,-0.055146,-0.182248
0.955912,-0.695885,-0.926573,-0.596927,-0.620428,-0.508672
0.164579,-0.000205,0.779941,-0.212296,0.944637,0.250184
0.404852,-0.419111,-0.957957,0.943442,0.158569,-0.291159
-0.704722,0.573407,0.664431,-0.523475,0.729907,0.439556
-0.480655,0.255675,0.815139,0.213897,0.952862,0.215180
-0.514471,0.587421,0.662983,0.989803,-0.032897,-0.138592
0.799068,-0.578277,-0.929497,0.203946,0.586448,0.783890
-0.106638,0.093340,0.629196,-0.173823,0.759202,0.627215
-0.011610,0.148943,0.960953,0.904738,0.293760,-0.308470
0.291693,0.333643,0.812093,-0.132916,-0.971513,0.196203
0.268484,-0.113079,-0.165814,0.905087,-0.412359,-0.103814
0.220187,-0.009690,-0.981110,-0.193426,-0.068135,0.978746
0.113548,0.081401,0.737201,0.026711,0.838372,0.544443
-0.719842,0.224945,0.713884,-0.165374,-0.593910,0.787351
0.081558,0.134607,0.644719,0.659313,0.393599,0.640614
-0.196683,0.768955,0.807911,0.859851,-0.355301,-0.366630
0.103478,0.261374,0.873767,0.811483,-0.575708,-0.100279
-0.166080,0.152460,0.368505,0.203176,0.915805,-0.346439
0.425725,-0.107978,-0.376842,0.226471,-0.971728,-0.066747
-0.592212,0.333434,0.788697,0.175909,0.635676,0.751646
0.391871,0.446220,0.779941,0.803434,-0.581491,-0.127916
-0.230280,0.370148,0.840799,0.252164,-0.931726,0.261343
-0.675378,0.649618,0.671760,-0.217662,0.300304,0.928677
-0.083566,0.644516,0.806678,0.972855,0.017451,-0.230755
0.150204,0.179402,0.229233,0.939293,-0.276455,-0.203230
0.155405,-0.055816,0.245097,0.689062,0.155677,0.707784
0.547147,-0.197871,-0.954345,0.248154,-0.424845,-0.870590
0.118404,0.033069,0.473460,0.274987,-0.960764,0.036264
-0.171413,0.118553,0.340099,-0.564803,-0.819663,-0.095657
-0.057569,0.303283,0.345080,0.926566,0.072305,0.369117
0.951237,-0.717470,-0.938378,-0.054379,0.597508,0.800017
0.242023,-0.020061,0.784324,-0.742941,-0.529659,0.409268
-0.599096,-0.034120,0.800397,0.743100,-0.302928,-0.596689
-0.056007,0.311834,0.813296,-0.541278,-0.705061,0.458156
-0.798424,0.559033,0.643014,0.899241,-0.386529,0.204841
0.080636,0.132414,0.664640,0.496771,0.867855,0.006821
-0.172935,-0.163980,0.857339,0.771681,0.600761,-0.208794
0.217683,-0.057688,-0.038157,0.891783,0.452423,0.006109
-0.104259,0.331277,0.778023,-0.412135,0.005400,0.911107
-0.109201,-0.268073,0.836818,-0.101813,0.965805,-0.238442
-0.700242,0.471685,0.600110,-0.408511,-0.891028,-0.197959
0.502654,-0.585250,-0.971376,-0.234841,-0.138096,0.962174
0.906150,-0.828349,-0.908407,-0.008039,0.565462,0.824735
0.253203,-0.303101,-0.974755,-0.023894,0.301764,0.953083
-0.728830,0.280505,0.731247,0.407151,0.874651,0.263083
0.313132,-0.279054,-0.977543,0.020358,0.489533,0.871747
-0.129833,0.134870,0.441510,0.977212,0.116947,0.177146
-0.264504,0.295971,0.720154,-0.110301,-0.776816,0.619993
-0.303947,-0.183539,0.712965,0.469071,0.880854,-0.063783
0.238459,-0.109461,0.049577,0.998946,-0.028947,-0.035631
-0.321841,0.099611,0.804756,-0.669086,0.116461,-0.734003
0.149274,0.239722,0.733100,0.136850,0.301418,0.943620
-0.043263,0.262261,0.330632,0.999872,0.004957,-0.015222
0.252323,-0.045851,-0.997248,0.436363,-0.180505,0.881479
-0.913171,0.602338,0.659331,-0.763075,0.554291,-0.332381
-0.204567,0.000814,0.766446,0.354316,0.710357,-0.608155
0.209554,0.047902,0.115862,-0.255856,-0.965143,-0.055113
-0.832937,0.630000,0.670791,0.116142,-0.179587,0.976862
-0.098853,0.532959,0.792402,-0.718615,-0.658477,-0.223609
0.074263,0.114886,0.931674,-0.128469,0.638552,0.758780
0.136438,0.231984,0.734967,-0.138626,0.090098,0.986238
0.698349,-0.678174,-0.936927,0.489845,0.106647,-0.865262
-0.622305,0.392848,0.768653,-0.484747,-0.756585,0.438862
0.428510,0.370011,0.786298,0.877137,-0.214767,-0.429542
-0.102204,-0.155042,0.784617,-0.126015,-0.991250,-0.039289
-0.019672,-0.098356,0.909659,0.754601,-0.656184,0.000505
-0.628566,0.103748,0.794308,-0.626861,-0.429223,0.650240
-0.283040,0.312490,0.407588,0.610575,0.784040,0.111711
-0.430935,0.139986,0.772822,0.241714,0.930838,0.274073
-0.467387,0.260785,0.562883,0.832293,0.540745,-0.121993
-0.534941,0.334514,0.769849,0.717222,0.383664,-0.581716
-0.675180,0.775435,0.693127,0.926627,-0.268123,-0.263577
-0.586397,0.566212,0.604100,-0.396869,-0.087311,0.913713
-0.580210,0.484478,0.462819,0.111152,-0.483412,0.868308
0.401726,-0.265286,-0.590665,0.927542,-0.270083,0.258305
-0.777627,0.483670,0.511189,0.991185,0.128644,0.031669
-0.591941,0.300691,0.648777,-0.129106,0.198813,0.971496
-0.260417,0.377436,0.494899,-0.764060,-0.642259,0.060954
-0.303490,0.015867,0.879636,-0.120874,0.687159,0.716381
-0.009182,0.521139,0.783995,0.124327,0.059106,0.990479
-0.823910,0.265577,0.693886,0.827208,0.191474,-0.528266
-0.431150,0.157297,0.613415,0.902976,-0.248950,0.350225
0.643678,-0.523080,-0.930459,-0.182021,-0.437111,-0.880796
-0.624970,0.467178,0.667895,0.898398,0.078397,0.432128
0.067894,0.007899,0.301378,-0.667413,0.547717,0.504545
-0.290828,0.131110,0.887272,-0.921744,0.368786,0.119937
-0.299663,0.410090,0.654509,-0.815777,0.085977,-0.571941
0.026849,-0.017663,0.239566,0.257800,-0.799479,0.542561
0.269418,0.391230,0.733827,0.878279,0.220411,-0.424316
-0.177207,-0.013820,0.860647,-0.526736,0.547871,0.649912
0.131827,0.095106,0.326262,0.747860,0.640324,0.175190
0.311864,-0.225891,-0.980031,0.024870,-0.081959,0.996325
-0.246247,0.359399,0.758693,0.820567,-0.379394,0.427469
0.345133,0.509022,0.766893,0.788328,0.006289,-0.615223
0.016148,-0.051315,0.904631,0.905402,-0.312438,-0.287455
-0.103130,0.100687,0.803456,0.961887,-0.186035,-0.200409
0.055646,-0.265802,0.814874,-0.699361,0.261845,-0.665080
-0.061883,0.063757,0.355758,-0.379026,-0.506354,-0.774561
0.348159,-0.141263,-0.420588,-0.497175,0.655007,-0.569020
0.334326,0.018903,-0.982590,-0.278366,-0.595491,0.753593
0.461544,-0.364905,-0.665657,0.651619,-0.742463,0.155374
-0.413962,0.007425,0.565629,0.118863,-0.098201,0.988043
0.343946,-0.253133,-0.453626,0.695726,0.717522,-0.033574
0.230896,0.265281,0.741298,0.749564,-0.623318,0.222773
0.055537,-0.002726,0.916845,-0.680812,0.709449,0.182145
-0.255448,0.386790,0.770345,0.469816,0.138026,0.871907
-0.742508,0.161808,0.741245,-0.373893,-0.592235,0.713766
0.217152,0.009441,0.013646,0.853089,0.512970,-0.095400
0.000782,-0.111412,0.750499,-0.735131,0.455277,-0.502300
-0.422395,0.537704,0.407329,0.679104,0.685625,0.262175
0.137273,0.024667,0.970433,0.800522,0.503043,-0.325748
0.379546,-0.206763,-0.428463,0.725601,0.094991,-0.681528
0.960382,-0.842570,-0.905940,0.219245,-0.506372,-0.833977
-0.199036,-0.251014,0.799420,0.239397,0.969795,-0.046766
-0.672001,0.770913,0.651972,0.833593,0.031594,0.551475
0.444079,-0.138294,-0.968492,-0.292846,-0.414149,0.861813
0.235031,-0.095820,-0.140297,0.993890,-0.068796,0.086309
0.701450,-0.338384,-0.943259,-0.447997,0.100310,0.888390
0.226150,0.119195,0.785483,0.428099,0.418227,0.801135
0.231579,-0.184445,0.691121,0.839111,-0.496046,0.223231
-0.569638,0.224518,0.778174,0.849959,-0.471253,-0.235565
0.026212,0.168087,0.702105,0.557719,0.826109,-0.080585
-0.523232,0.381944,0.788402,0.802468,0.363433,0.473246
-0.189052,0.320861,0.747156,0.408859,-0.036238,0.911878
-0.370489,0.308920,0.719094,0.080199,0.829832,-0.552220
-0.639827,0.159298,0.668094,0.431332,0.808119,0.401119
0.274413,-0.102897,0.776871,0.867266,-0.423950,0.260993
-0.658653,0.159579,0.689804,-0.032076,0.993281,0.111193
0.385466,0.434056,0.777104,0.829566,-0.454329,-0.324662
0.513544,-0.499192,-0.928980,0.124150,0.395602,0.909992
0.602459,-0.296713,-0.949897,0.461629,0.800239,0.382775
0.450353,-0.376708,-0.948911,0.780317,0.564870,-0.268379
-0.207065,0.265560,0.637854,-0.369645,0.460157,-0.807229
-0.133617,0.064010,0.367737,0.995262,-0.009970,-0.096721
-0.841460,0.565391,0.687864,-0.689094,0.166273,-0.705339
-0.063161,0.098428,0.808110,-0.277097,0.904053,-0.325432
-0.046897,0.032153,0.789512,0.388349,-0.688614,-0.612369
-0.077910,0.200728,0.831940,-0.210895,-0.833028,-0.511456
-0.116748,0.139159,0.329427,-0.277288,-0.102212,-0.955335
-0.314307,0.084928,0.591878,-0.266636,0.907120,0.325636
-0.268506,0.411718,0.726963,0.413716,-0.076115,0.907218
0.627029,-0.277279,-0.964782,-0.088698,0.154649,0.983980
0.251842,-0.024103,-0.135963,0.174043,-0.738014,0.651954
0.601810,-0.492529,-0.950536,-0.196853,0.498622,0.844171
0.077639,0.047055,0.284495,0.904602,0.370324,-0.211081
0.390394,-0.328343,-0.947693,0.615191,0.234040,-0.752838
0.235893,-0.180793,-0.170279,0.802071,-0.569125,-0.181051
0.408987,-0.332765,-0.536677,0.964417,0.074852,0.253569
0.009983,-0.054228,0.752370,-0.506683,0.169108,-0.845384
-0.168210,0.090924,0.899115,0.240344,-0.715855,0.655581
0.303737,0.051915,0.761633,-0.425228,0.162504,0.890378
-0.697931,0.223619,0.711232,-0.268020,-0.765253,0.585280
0.046027,0.136238,0.800972,-0.148118,0.122255,0.981384
0.672817,-0.211202,-0.949489,0.670681,0.533235,-0.515604
0.733631,-0.564843,-0.945743,0.739925,0.337969,0.581625
0.385023,-0.230234,-0.454905,-0.695913,-0.710920,-0.101477
-0.703330,0.228430,0.715781,0.195983,0.917587,-0.345869
0.157343,0.061078,0.133681,0.150294,-0.984732,0.087832
-0.707736,0.810818,0.678271,0.968245,0.239549,-0.071539
0.172503,0.032147,0.096395,0.577587,0.807493,0.119783
-0.536183,0.545895,0.636129,0.470582,0.801546,-0.368886
-0.007253,0.009336,0.210867,-0.242910,-0.970022,0.007282
0.295820,0.072375,0.269326,0.210308,0.100883,-0.972416
-0.277544,0.159714,0.898923,-0.157349,-0.510383,0.845429
0.476040,-0.530511,-0.946528,-0.617081,0.090879,0.781634
0.043969,0.020873,0.785078,0.237876,-0.085562,0.967520
0.108862,0.024792,0.672165,-0.057488,-0.971962,-0.228002
0.238966,-0.384442,-0.960378,0.766669,0.367407,-0.526526
-0.673874,0.105511,0.640623,0.907913,-0.052008,0.415919
-0.453933,0.255581,0.821492,-0.261527,-0.952897,-0.153595
0.437729,-0.398229,-0.970794,-0.410664,-0.263094,-0.873005
0.165292,0.280726,0.714051,0.890767,0.347757,0.292574
-0.084235,0.352933,0.770257,-0.515020,-0.773081,0.370270
-0.597079,0.237217,0.733042,-0.470658,-0.691625,-0.547847
0.269357,0.008326,0.029805,0.887188,-0.460220,0.033082
0.388530,-0.091212,-0.376507,-0.175773,0.968153,-0.178283
-0.776661,0.547883,0.553148,-0.554292,0.195341,-0.809075
0.118476,0.216511,0.965742,-0.527529,-0.719922,-0.451027
-0.742926,0.298880,0.772684,0.828608,-0.511011,-0.228640
0.298704,0.265519,0.767407,0.786811,-0.418968,0.453204
-0.256988,0.409074,0.769552,-0.443434,0.532241,-0.721170
0.814648,-0.633429,-0.921133,-0.405386,-0.098855,0.908785
-0.672708,0.455193,0.605563,-0.174450,-0.954858,-0.240444
-0.154097,0.341747,0.740359,-0.692977,-0.115841,-0.711592
-0.136266,0.512252,0.786468,-0.314003,-0.398617,0.861688
-0.174204,0.494778,0.814527,0.290616,-0.303794,-0.907332
0.899581,-1.000000,-0.908576,0.248858,0.832632,0.494766
0.182486,-0.051680,0.653475,0.932138,-0.252123,-0.259907
-0.031653,0.229814,0.581882,0.828992,0.515492,0.216888
0.000294,0.135570,0.285861,0.892518,-0.302023,0.334952
-0.551609,0.408528,0.777116,0.791204,-0.511908,-0.334585
0.996784,-0.988672,-0.900737,-0.298792,0.575720,0.761098
-0.306930,0.314460,0.733506,-0.696058,0.683592,0.219554
0.184828,0.257959,0.740810,-0.772981,0.516441,0.368496
-0.381024,0.188941,0.882381,0.982878,-0.029427,-0.181895
-0.571468,0.330458,0.790929,0.327212,-0.872131,0.363759
0.721114,-0.614189,-0.939809,-0.589705,-0.418876,0.690500
-0.001442,0.098856,0.245932,0.531220,0.759743,-0.374962
0.190432,0.377947,0.640936,-0.624255,-0.504415,0.596550
-0.523530,0.185520,0.788166,0.960243,-0.235934,-0.149229
-0.769211,0.220298,0.704118,-0.097924,-0.738666,0.666921
0.096309,-0.018742,0.572272,0.854251,0.488571,0.177635
-0.000019,0.326822,0.717916,0.855075,0.505348,-0.116064
0.297670,-0.178412,-0.266803,-0.546644,-0.792616,-0.270076
0.328247,0.358498,0.806658,0.269423,-0.312620,0.910868
-0.153261,0.238046,0.750043,0.431914,0.853589,0.291265
0.293403,0.293874,0.751852,0.863869,-0.223629,-0.451354
0.267004,-0.079560,-0.988036,-0.592999,-0.761371,-0.262041
0.940518,-0.678524,-0.939552,-0.084981,0.247208,0.965229
0.318772,-0.145082,-0.251318,0.967188,0.227991,0.112106
-0.442186,0.043359,0.611738,0.489809,-0.641376,0.590528
-0.610670,0.825293,0.609219,0.836942,0.509990,0.198592
-0.293460,0.260097,0.766359,0.840378,-0.352483,0.411729
0.024445,-0.031075,0.811279,0.957611,0.286174,-0.032942
-0.318112,0.647538,0.677545,0.532734,0.663224,0.525669
0.746364,-0.701399,-0.922564,-0.053305,-0.176159,0.982917
-0.223304,0.288135,0.383295,0.625033,0.740963,0.245575
0.161072,-0.068859,0.072843,0.911958,0.094214,0.399321
0.146483,0.049959,0.324286,-0.441287,0.166056,0.881868
-0.024145,0.201702,0.621806,-0.536590,0.128096,0.834064
-0.630798,0.579749,0.692041,0.389871,0.879971,0.271390
-0.001908,-0.315383,0.798700,0.894037,0.284071,0.346412
0.325647,-0.173135,0.733723,0.842903,-0.398918,0.361081
0.263323,-0.271349,-0.480976,-0.190471,-0.606048,0.772287
-0.312610,-0.056332,0.829914,-0.544225,-0.669350,0.505757
0.010398,0.354327,0.731826,0.547193,0.474567,-0.689468
-0.463054,0.303674,0.767529,0.046894,0.649713,0.758731
-0.707516,0.325557,0.784811,-0.531746,0.799287,0.279975
0.220805,-0.060034,0.044168,0.950697,0.295424,0.094338
0.372783,-0.456147,-0.954436,0.642842,-0.189805,-0.742111
-0.742196,0.720785,0.672001,0.375802,0.253396,0.891383
0.414949,0.180260,0.688445,-0.228238,-0.776780,0.586959
-0.328683,0.223074,0.740581,0.315021,-0.397069,-0.862032
-0.022168,0.083123,0.800141,0.068108,-0.305703,0.949688
0.313796,-0.096412,-0.205782,-0.582349,0.494377,-0.645337
-0.217655,0.323088,0.514553,0.978596,0.201179,0.043311
-0.056146,0.027704,0.366233,0.813975,0.189808,0.549015
-0.063797,-0.126427,0.767754,-0.307865,-0.905168,0.293070
0.328197,-0.158286,-0.374234,-0.006061,-0.999979,0.002182
0.001138,0.058284,0.273232,-0.386273,0.321530,-0.864530
-0.518260,0.307615,0.769878,0.882741,0.419856,0.210925
-0.139604,0.651554,0.675386,0.704670,0.248021,-0.664775
0.143405,0.102863,0.432256,0.494125,0.753000,-0.434548
0.306938,0.042294,0.812037,-0.787942,0.522893,0.325162
-0.014627,0.016408,0.880712,-0.598156,-0.039796,-0.800391
0.342770,0.487691,0.815529,-0.536403,0.707383,-0.460305
0.587324,-0.687439,-0.947269,0.361883,0.520358,0.773478
-0.237795,0.132054,0.482312,-0.354744,0.866927,0.350136
-0.606504,0.364801,0.622601,-0.213025,-0.742609,0.634943
-0.039110,0.195062,0.844515,0.696802,-0.388646,-0.602844
0.850735,-0.841715,-0.921419,0.213122,-0.110620,-0.970743
-0.739923,0.521836,0.474248,0.846271,-0.474337,0.242551
0.120272,0.083140,0.630510,0.671347,0.635258,0.381761
0.119251,0.044759,0.757985,-0.163392,0.714470,0.680320
-0.545675,0.428083,0.406136,-0.514440,0.468847,-0.718006
-0.810442,0.181258,0.748300,-0.529768,0.842552,0.097218
-0.853705,0.295193,0.652948,0.791342,0.528117,0.308011
-0.706980,0.681357,0.679801,-0.751984,0.262529,-0.604648
-0.181940,-0.129313,0.781251,-0.482956,0.871248,-0.087634
0.301146,-0.094078,-0.231033,0.962116,-0.141212,0.233219
0.564744,-0.518551,-0.953676,-0.622428,-0.231576,0.747633
-0.340147,0.252784,0.813982,-0.185419,0.713747,0.675415
0.085154,0.119483,0.622578,-0.028436,-0.968659,0.246763
-0.645716,0.323272,0.649845,0.303284,-0.434625,-0.848009
-0.797428,0.359157,0.767809,0.547754,0.730657,0.407560
0.146665,0.336247,0.762557,-0.274203,0.953164,-0.127639
0.829993,-0.468225,-0.943378,0.097546,0.154469,0.983170
0.133940,0.253724,0.555577,0.974325,0.140650,0.175808
0.050060,0.087883,0.936559,0.932846,0.311358,-0.181257
0.311918,-0.170230,-0.097644,0.939878,0.290712,0.179207
-0.695187,0.404832,0.630430,0.795944,0.602297,0.060919
-0.760652,0.125780,0.792869,0.514387,-0.828249,-0.222285
0.985646,-0.778839,-0.924837,-0.099136,0.487474,0.867491
-0.380161,0.199426,0.493603,0.564480,0.620414,-0.544471
0.073274,-0.295927,0.775067,0.286539,0.190592,-0.938920
-0.127615,-0.236555,0.817684,-0.097441,0.988530,0.115383
-0.713797,0.529578,0.477030,0.897306,-0.426316,0.114437
-0.694659,0.767849,0.670234,-0.545705,-0.319486,-0.774683
0.272695,0.287821,0.871507,-0.379006,-0.697246,-0.608443
-0.375398,0.147553,0.811110,-0.443808,-0.166613,0.880497
0.131304,0.087279,0.374582,0.598230,0.790189,-0.133130
0.150200,0.077761,0.487825,0.761597,-0.647621,-0.023615
0.326064,-0.054024,-0.207311,-0.669523,-0.134160,-0.730575
-0.751915,0.608511,0.466046,0.986251,-0.007456,-0.165084
-0.757301,0.849949,0.710671,-0.469439,0.793377,-0.387530
0.081962,0.138834,0.549918,0.955674,0.224120,0.190939
0.211867,-0.028414,0.050296,0.868270,-0.416667,0.269252
0.470589,-0.357037,-0.835457,0.774318,0.216503,0.594608
0.097508,-0.083567,0.751138,0.554347,-0.817559,0.155872
0.433148,-0.056146,-0.305476,-0.793762,-0.528316,-0.301371
0.660934,-0.465008,-0.949965,-0.472073,0.525467,-0.707836
0.290350,-0.054228,-0.233888,0.957960,-0.192123,0.213077
0.264322,-0.238037,-0.969572,-0.374015,0.189948,0.907762
0.375759,-0.298216,-0.614741,0.727897,0.571476,-0.378922
-0.644572,-0.053070,0.890484,-0.334703,-0.794477,0.506734
-0.140433,0.177809,0.812235,-0.609499,0.195430,-0.768322
-0.494993,0.277076,0.705543,-0.268230,0.959022,-0.091267
0.091415,-0.276222,0.731755,-0.251204,0.354015,0.900872
0.434295,-0.498814,-0.974219,0.158896,0.259379,0.952615
-0.240155,0.334806,0.755653,0.846071,-0.532774,-0.017801
-0.435323,0.280549,0.572131,-0.760470,-0.580989,0.290062
-0.425032,0.118797,0.775691,-0.688369,0.627414,0.364005
-0.784324,0.480091,0.663420,-0.566478,0.444218,-0.694099
-0.117117,0.298662,0.541277,0.895070,-0.444194,-0.039268
-0.711072,0.248537,0.813498,0.267769,-0.897602,0.350159
-0.521916,0.444510,0.735392,-0.332712,0.566047,-0.754250
-0.699787,0.222868,0.698725,0.610535,-0.170305,-0.773462
-0.657810,0.034198,0.777824,0.156911,0.024046,0.987320
0.393663,-0.212542,-0.345587,0.816931,0.441242,-0.371389
0.204969,0.192270,0.710514,0.206952,-0.936084,0.284460
0.602799,-0.692831,-0.936826,-0.059573,0.379503,0.923271
0.308168,-0.332315,0.748301,-0.537949,0.131629,-0.832637
0.412228,0.182763,0.709247,0.385536,0.922399,-0.023275
0.436238,-0.452254,-0.964864,-0.043885,-0.376277,0.925467
-0.097960,0.665417,0.772877,0.911165,0.160185,0.379630
-0.593042,0.290301,0.670532,-0.267779,0.647267,-0.713681
0.113986,-0.004847,0.644626,0.937599,0.070144,0.340569
-0.673422,0.190785,0.732976,0.350673,-0.081802,-0.932918
-0.668065,0.541845,0.655596,-0.261831,0.216711,0.940468
0.202430,-0.021516,0.292897,0.370679,0.922790,0.105143
-0.405791,0.239175,0.590513,0.783805,0.536869,0.312125
-0.024308,0.167067,0.873649,0.374134,-0.346975,0.860019
-0.430768,0.106427,0.636966,0.859424,0.431017,-0.274983
0.010204,-0.045455,0.760671,0.828473,-0.208687,0.519695
-0.106972,-0.141392,0.812226,0.736352,0.497424,0.458644
-0.476011,0.164096,0.745947,-0.421728,0.761774,-0.491778
-0.561043,-0.149740,0.808354,-0.330950,-0.939391,-0.089537
0.156119,0.091274,0.807450,-0.388303,-0.743311,-0.544710
-0.565150,0.252518,0.718090,0.513112,0.077545,0.854812
-0.668799,0.278671,0.619355,0.658079,0.408530,0.632484
-0.426865,0.263476,0.812009,-0.154368,-0.835682,-0.527073
0.043947,0.248194,0.922530,0.338306,0.599195,0.725613
-0.871514,0.357272,0.732197,0.521844,0.678908,-0.516491
-0.122773,0.318893,0.296550,0.961244,0.264141,0.078984
0.080464,0.081629,0.430848,-0.188191,-0.961774,-0.198935
-0.017838,0.143441,0.817778,0.768024,0.615721,0.176143
-0.640908,0.376443,0.751984,0.751250,0.300207,0.587791
0.367208,-0.271185,-0.611447,0.740033,0.499385,-0.450517
-0.394458,0.164933,0.712238,0.099172,0.776925,0.621733
-0.482916,0.041815,0.794568,0.945012,0.300899,0.128112
-0.282021,0.214895,0.752648,0.873938,-0.322223,-0.363875
-0.736962,0.240619,0.745571,0.104002,0.984954,0.138021
-0.683307,0.432669,0.545021,-0.243256,0.922767,-0.298876
0.071895,0.051459,0.467881,0.007658,-0.905474,0.424333
0.048450,0.124812,0.365111,0.540958,0.836156,0.090596
0.394133,-0.181758,-0.495998,-0.158799,0.965542,0.206181
-0.628682,0.697346,0.667727,-0.440992,0.896465,0.043322
-0.685740,0.630040,0.461343,-0.460288,-0.333018,0.822942
0.430074,-0.259702,-0.604860,-0.159961,0.914779,0.370935
0.089551,0.185102,0.647443,-0.566216,0.816413,0.113448
0.063445,0.083825,0.429068,-0.594598,0.737694,-0.319783
-0.636336,0.124921,0.734647,0.505124,0.848144,-0.159690
-0.107253,0.151070,0.732412,0.530776,0.773086,-0.347297
0.227781,-0.056339,-0.134282,0.858639,0.481061,0.176973
0.487767,-0.514987,-0.928251,0.837636,-0.513214,0.187024
0.146354,-0.047589,-0.975645,-0.710839,-0.218389,0.668591
-0.239823,0.135167,0.819037,-0.065211,-0.436613,-0.897283
-0.041181,-0.100328,0.783347,-0.008985,0.985627,0.168698
-0.319605,0.118749,0.860262,-0.393200,0.419393,-0.818232
-0.254122,0.052739,0.884002,0.981120,0.039094,0.189406
0.012411,-0.265667,0.817405,-0.571981,0.172040,-0.802023
0.217430,-0.035498,0.037337,0.982915,0.113460,0.144933
0.399699,0.113709,0.693619,0.265875,-0.622997,0.735653
-0.634740,0.596633,0.653804,0.293935,0.093497,0.951242
0.065929,0.041675,0.769966,-0.226264,0.961076,-0.158550
-0.046770,-0.109743,0.774679,0.119173,-0.419331,0.899977
0.100397,0.240980,0.776092,-0.145993,0.680313,0.718234
0.004629,0.123267,0.277765,0.596620,-0.373082,0.710532
-0.276511,0.420016,0.379059,0.789288,0.453961,0.413454
-0.089728,0.386240,0.822423,0.582818,0.625736,0.518438
0.180118,0.185774,0.762973,-0.204127,0.599828,0.773652
0.495574,-0.216277,-0.966866,-0.521359,0.771749,0.364128
-0.561622,0.387451,0.632656,0.971708,0.116763,-0.205302
-0.635663,0.364765,0.745326,0.778195,0.607252,-0.160182
-0.902112,0.287332,0.685226,-0.600020,-0.666915,-0.441814
-0.137166,0.105418,0.889171,-0.216704,-0.546518,0.808924
-0.828474,0.516291,0.558949,0.560468,-0.820486,-0.112597
0.350518,-0.200365,-0.974277,-0.371274,0.047578,0.927304
-0.091769,0.655467,0.796741,0.850218,-0.457968,0.259604
0.150475,0.249831,0.937914,-0.013258,0.927553,0.373456
0.164660,-0.123951,0.746630,0.709425,0.476405,-0.519379
-0.041380,0.142236,0.616080,0.269110,0.804752,0.529107
-0.695496,0.201576,0.779711,0.259552,0.931509,0.254800
0.116881,-0.214248,0.781561,-0.389601,0.316385,-0.864934
-0.891813,0.372054,0.676729,0.802677,0.587441,0.103071
-0.216915,0.539986,0.662487,0.163671,0.643874,-0.747421
-0.578401,0.591975,0.561320,0.909686,0.240040,-0.338898
-0.066716,-0.181430,0.769333,-0.020537,-0.994533,-0.102379
-0.676024,0.364169,0.619363,0.807108,-0.381125,0.450911
0.575802,-0.641686,-0.942575,0.185310,0.382540,0.905165
-0.066408,0.135940,0.874746,-0.481915,-0.773897,0.410903
-0.438950,0.182499,0.632672,0.942650,0.333377,-0.016452
-0.784746,0.474045,0.725902,-0.695016,-0.006901,0.718961
0.445007,-0.321014,-0.969747,0.858297,0.104771,-0.502345
-0.458876,0.163568,0.749696,0.108423,0.993318,-0.039534
0.079117,0.055195,0.256465,0.760394,0.646939,-0.057197
0.917098,-0.711631,-0.928213,0.224382,0.087722,-0.970545
-0.434603,0.380780,0.777360,0.098112,-0.699906,0.707464
-0.305362,0.190531,0.536166,0.852128,0.514268,0.096983
-0.077539,0.268990,0.606126,0.807301,-0.287699,-0.515260
-0.384596,0.117606,0.484617,0.674436,0.451003,0.584579
-0.073887,0.160706,0.371351,-0.517070,-0.312995,-0.796663
-0.379538,0.198412,0.707993,0.507634,-0.391094,-0.767694
-0.564852,-0.059856,0.582407,0.812551,-0.292944,0.503928
-0.786166,0.478532,0.650891,0.980820,-0.190472,0.041389
-0.758633,0.652478,0.517727,0.293828,0.897664,-0.328426
0.308548,-0.077831,-0.268190,0.956488,0.291723,-0.005415
0.352460,-0.213466,-0.466039,0.336488,0.940640,0.044414
0.022321,0.196392,0.660341,0.584894,-0.775949,0.236226
-0.019012,0.117367,0.242783,0.463049,0.669860,-0.580407
-0.438446,-0.035038,0.585486,-0.406462,0.907624,-0.104911
0.057766,0.128130,0.272484,-0.641501,-0.761552,-0.092273
-0.903497,0.565394,0.674569,0.390949,0.411860,-0.823122
0.098774,0.108732,0.716768,-0.542005,-0.840375,-0.000559
-0.708423,0.495326,0.744438,0.962624,0.112275,-0.246475
-0.663203,0.293289,0.648282,0.078628,0.095347,0.992334
0.437704,-0.396726,-0.944510,-0.207937,-0.553467,0.806497
-0.002975,0.495868,0.745809,0.079853,-0.589203,0.804029
-0.251375,0.125823,0.529607,0.873149,0.470988,-0.125623
-0.651297,0.327137,0.786902,0.156440,0.987560,0.015856
-0.729906,0.346090,0.680121,-0.626816,0.680998,0.378606
0.170496,0.213412,0.943505,-0.525072,0.093773,-0.845876
-0.535962,0.460035,0.741952,-0.009725,-0.879298,0.476173
-0.262950,0.087426,0.620652,-0.509682,0.297653,-0.807234
-0.700364,0.705090,0.689050,-0.365672,0.591883,-0.718302
0.875153,-0.737094,-0.923318,0.022707,0.330098,0.943673
0.094238,0.227733,0.431346,0.879414,0.261229,0.397983
0.183515,0.051551,0.832832,0.184902,0.956133,-0.227204
-0.049047,-0.116939,0.800678,-0.081473,-0.261231,0.961832
-0.113780,0.209466,0.477590,0.995086,-0.095193,-0.027235
-0.437353,0.179466,0.770638,0.845492,0.294759,-0.445266
0.008991,0.148578,0.781708,0.886454,0.084347,0.455066
0.563992,-0.323944,-0.949975,0.792598,-0.256346,-0.553240
0.453242,-0.500670,-0.950008,0.358131,0.097319,-0.928585
-0.478351,0.294937,0.785215,0.933759,-0.305641,-0.186221
-0.010157,0.010400,0.277051,0.258431,0.863848,0.432412
-0.615105,0.102021,0.679914,-0.231142,-0.831710,0.504809
-0.666555,0.167416,0.766480,-0.368438,0.365245,0.854897
0.143689,0.018597,0.797408,0.288335,0.461121,-0.839184
-0.690743,0.509932,0.657843,-0.053857,-0.685825,0.725771
0.411692,-0.205149,-0.424300,0.988206,0.132391,-0.076952
-0.033240,-0.176141,0.797970,-0.161242,0.235103,-0.958503
-0.032309,0.079684,0.850060,0.912814,0.383432,0.140538
-0.122165,0.260986,0.540039,0.859180,-0.443113,-0.255854
0.211513,0.052800,0.944726,-0.542178,-0.304943,-0.782977
-0.648358,0.710939,0.645205,0.719859,-0.669069,0.184797
0.436314,-0.229951,0.709298,-0.754523,0.220870,-0.617989
0.294447,-0.341046,0.688328,0.976830,0.098764,-0.189867
0.541438,-0.201331,-0.971189,0.317025,0.289959,-0.903006
-0.368939,0.015678,0.597038,0.809113,-0.560841,0.175481
-0.442585,0.258610,0.712154,0.881455,0.089609,0.463689
0.015150,-0.081926,0.769913,0.350152,-0.317180,-0.881357
0.113495,0.214755,0.910673,-0.356425,-0.415613,-0.836796
-0.739278,0.714109,0.674179,0.118781,0.172689,0.977788
-0.484513,0.259533,0.726641,0.840617,-0.354536,0.409471
0.105566,0.077500,0.461685,0.798043,-0.473815,0.372326
0.188723,-0.345484,0.768433,-0.849954,0.199452,-0.487645
0.230639,-0.023980,0.002926,0.823103,0.567316,-0.025561
-0.541427,0.178086,0.643795,-0.012556,-0.945651,0.324942
0.047155,0.194769,0.761850,0.400149,0.807230,-0.433890
-0.167804,-0.172549,0.871164,-0.691208,-0.161191,-0.704449
-0.148200,0.393460,0.701385,0.164689,-0.883108,0.439314
-0.815536,0.401059,0.795751,-0.450922,0.862127,0.231100
0.388295,-0.098535,-0.315508,0.800065,-0.418713,-0.429623
0.422856,-0.617698,-0.945391,0.783132,0.520870,-0.339704
-0.533944,0.087454,0.740644,0.694328,-0.662052,0.282129
-0.153588,0.332843,0.809179,0.123671,0.991228,0.046609
-0.582759,0.530088,0.611769,0.740671,0.662952,-0.109093
0.415468,-0.283657,-0.462809,0.502303,0.681663,-0.532002
-0.039213,0.100394,0.781113,-0.726840,-0.109493,-0.678023
-0.779632,0.291766,0.641621,0.206381,0.818387,0.536329
0.254481,0.053641,0.940362,0.892559,0.198968,0.404660
-0.346198,0.083198,0.867954,0.000495,0.623083,0.782156
-0.202864,0.238759,0.720978,-0.180809,-0.761552,0.622372
0.772869,-0.795220,-0.919171,0.571482,0.671156,0.472184
-0.100800,0.090919,0.360338,0.643001,-0.406930,0.648813
-0.461371,0.304297,0.659744,0.536756,0.831264,-0.144542
0.215317,0.331204,0.794226,0.358714,0.538377,-0.762545
-0.066811,-0.167697,0.860180,-0.069148,0.993038,-0.095367
-0.185779,0.120189,0.500736,-0.307474,0.908787,0.282073
-0.319506,0.137876,0.861724,0.297340,-0.583950,0.755375
-0.539565,0.332354,0.640590,0.246373,0.723198,0.645202
-0.128110,-0.040102,0.862092,-0.164722,-0.168995,0.971755
0.083290,0.051810,0.415285,0.289471,-0.918523,0.269301
-0.095587,0.754170,0.797047,0.734373,0.586291,0.341993
0.412348,-0.295540,-0.561259,0.517893,0.816625,-0.254776
0.127462,0.026434,0.231713,0.826618,-0.005590,0.562735
0.175303,0.024488,0.519731,-0.435877,0.839134,0.325369
0.193178,0.241781,0.682639,-0.412421,0.659192,0.628788
-0.012481,0.025436,0.870355,0.949884,-0.094791,-0.297886
0.445181,-0.152899,-0.373603,0.388143,-0.907746,-0.159194
-0.623602,0.410454,0.666571,0.921512,0.350112,0.168042
-0.378996,0.472754,0.388804,0.677443,0.324973,0.659897
-0.083006,-0.143019,0.808633,0.579759,-0.490917,-0.650292
0.311361,-0.148335,-0.355981,0.828639,0.510980,-0.228597
0.326119,-0.192135,0.733146,0.913924,-0.384204,0.130882
0.194566,-0.099376,0.011737,0.497012,-0.311641,0.809851
-0.543828,0.428481,0.677738,0.275288,0.457559,0.845491
-0.028826,0.421069,0.604789,-0.521006,-0.842376,-0.137682
0.559449,-0.390060,-0.942391,-0.005593,0.609957,0.792414
-0.145564,0.401555,0.653952,-0.034671,-0.554950,0.831161
-0.658907,0.185716,0.682857,0.708492,0.669871,-0.222065
0.796027,-0.549408,-0.947803,-0.580847,0.686073,-0.438087
0.174770,0.271901,0.639792,-0.293497,-0.151990,0.943800
-0.751721,0.627717,0.685310,0.932630,0.286172,-0.219787
-0.036320,0.432128,0.357332,0.952798,-0.297008,-0.062945
0.032822,-0.124017,0.690031,0.963880,0.130017,0.232444
0.148337,0.381518,0.262060,0.902146,-0.221931,0.369971
-0.686847,0.836466,0.593805,0.951536,0.105690,-0.288807
-0.428551,0.110921,0.680984,0.886444,0.200694,0.417061
-0.206245,0.053578,0.545121,0.460456,-0.887661,-0.006225
-0.692582,0.312855,0.717586,0.890357,0.434563,0.135716
-0.276791,0.115473,0.608859,0.446127,-0.559806,-0.698275
0.583873,-0.510829,-0.926887,0.554861,0.819777,0.141758
0.127829,0.105859,0.948676,-0.687277,0.371699,0.624091
0.941376,-0.722011,-0.919487,0.352782,-0.491933,-0.795956
0.198832,0.137021,0.727775,0.011717,-0.445940,0.894986
-0.521940,0.389423,0.600560,-0.370239,-0.232249,-0.899435
0.675074,-0.583728,-0.953798,0.356141,0.327838,-0.875035
-0.653344,0.621382,0.512292,-0.028912,0.999142,0.029642
-0.662183,0.364444,0.744059,0.762326,-0.215043,0.610422
-0.440997,0.152511,0.651081,-0.580946,-0.648385,-0.492034
-0.121428,0.334917,0.797367,-0.651623,-0.667176,-0.360919
-0.114929,0.204142,0.762179,0.223990,0.857549,0.463074
-0.043988,0.676182,0.799453,0.869216,0.469587,0.154763
-0.127329,0.302486,0.770682,-0.511242,0.467811,0.720961
-0.754648,0.295532,0.698902,-0.578515,-0.741605,-0.339621
-0.545393,0.418792,0.818765,0.227464,-0.950490,0.211730
-0.014724,0.476134,0.734239,-0.651116,-0.232295,0.722556
-0.481900,0.243647,0.748426,0.991740,-0.120210,-0.044732
-0.753658,0.169233,0.798462,0.756318,0.621406,0.204544
-0.061107,0.095589,0.800004,0.897619,-0.243731,0.367255
-0.518378,-0.061044,0.728026,-0.118465,-0.986681,-0.111477
-0.562418,0.336962,0.737195,-0.069012,0.997186,-0.029293
0.184537,0.120276,0.741548,0.813737,0.457782,0.358144
-0.023527,0.264458,0.625303,0.564707,0.164434,-0.808744
0.522451,-0.402183,-0.945113,0.857675,0.292757,-0.422713
-0.004126,0.169275,0.683658,0.709060,-0.575210,0.407881
0.510672,-0.450804,-0.951688,0.023963,0.208193,0.977794
-0.059451,0.370765,0.349742,0.970242,-0.238821,-0.039935
0.769922,-0.565661,-0.931783,-0.088135,0.178958,0.979901
0.430888,-0.264003,-0.702383,0.991008,0.131880,-0.022595
-0.504654,0.123589,0.738723,0.640306,-0.657691,0.396801
0.091268,0.121507,0.593212,-0.369393,-0.929164,0.014229
0.002931,0.059855,0.880032,-0.340688,0.644787,0.684238
-0.621647,0.140844,0.784137,0.855038,-0.507434,0.106864
-0.720062,0.670085,0.681034,0.626537,-0.147063,-0.765391
0.471572,-0.264465,-0.949918,-0.429017,0.321909,0.843990
-0.636587,0.120173,0.775855,-0.373889,-0.660378,-0.651236
0.028392,0.131425,0.868193,0.198748,-0.462481,0.864066
0.065072,0.067179,0.483219,0.078713,0.989960,0.117399
0.356509,0.306860,0.815290,0.391619,0.905815,-0.161661
-0.085101,0.009550,0.448319,0.206366,0.945121,0.253296
0.878668,-0.629652,-0.925628,0.964939,-0.128863,-0.228665
-0.796406,0.212446,0.748248,-0.593871,0.797635,-0.105331
-0.290711,0.138666,0.893803,0.986967,-0.157407,-0.033459
-0.391878,0.166153,0.693019,0.564438,0.680255,-0.467614
-0.704390,0.479571,0.772681,-0.400630,0.900565,-0.168756
-0.810463,0.330291,0.678941,0.495369,0.664616,0.559370
0.131713,0.058927,0.533700,0.732273,0.484786,0.478288
-0.661404,0.398720,0.752705,0.782243,-0.213621,0.585203
0.220233,0.324740,0.875668,-0.370640,-0.579232,-0.726028
0.055579,0.353515,0.739917,-0.593414,-0.584806,0.553047
0.827783,-0.825520,-0.904109,-0.277639,0.527075,0.803187
0.226706,-0.034270,-0.070450,0.829080,-0.359436,0.428290
-0.185084,0.381847,0.841079,0.413301,0.470878,0.779395
-0.056494,0.133330,0.356164,0.976506,-0.011878,0.215164
-0.301954,0.236748,0.532941,0.571187,0.679589,0.460331
-0.567680,0.218418,0.811901,-0.179899,-0.948041,0.262403
0.001384,0.009625,0.808592,0.140980,0.983688,0.111725
0.178910,-0.106254,0.779927,-0.031017,0.299514,0.953588
-0.032570,0.305417,0.682656,-0.120171,0.002274,0.992751
-0.249440,0.201554,0.717520,-0.301429,-0.567326,0.766343
0.121135,0.203297,0.917873,-0.480834,-0.301347,-0.823401
0.100622,-0.022337,0.312753,0.710691,0.661762,-0.238724
-0.571775,0.036236,0.743554,-0.438922,0.519825,0.732891
-0.285060,0.268557,0.453106,-0.124893,-0.103765,0.986729
0.171521,0.124360,0.781066,-0.284251,-0.365001,0.886553
-0.217419,0.400498,0.764179,0.309776,0.621877,0.719241
-0.636028,0.229040,0.805853,0.267555,0.857501,-0.439439
-0.635979,-0.111142,0.755359,0.527816,-0.780747,-0.334431
0.288524,0.238006,0.718737,0.003389,-0.716055,0.698035
-0.089898,-0.212848,0.834590,0.961716,0.273981,-0.006153
0.405635,-0.210167,-0.421479,0.724039,0.317510,0.612336
-0.705509,0.549309,0.679479,-0.280191,0.872514,-0.400264
0.084729,-0.039728,0.304085,0.747825,0.663163,-0.031180
0.197287,-0.070463,0.056375,0.932106,0.265976,0.245835
0.114015,-0.122137,0.625596,0.922527,-0.174890,-0.344032
-0.142296,0.186278,0.413030,-0.164702,0.710006,0.684664
-0.314476,0.258392,0.454934,-0.547881,-0.112534,-0.828953
-0.127235,-0.015117,0.831166,-0.141728,0.694317,-0.705575
-0.226632,0.616439,0.799213,0.540287,-0.567202,-0.621588
0.096297,0.219742,0.919210,0.631522,0.347717,0.693017
0.029826,0.090374,0.894317,0.772266,-0.630771,0.075711
-0.552238,0.292945,0.825937,-0.560949,-0.676376,0.477339
0.320335,-0.326573,-0.954624,-0.356142,0.354284,0.864665
0.484805,-0.543689,-0.951054,0.797959,0.512814,-0.316674
-0.133473,0.112273,0.841758,-0.675939,0.539991,-0.501514
0.056124,0.152385,0.736748,0.718416,0.689301,0.093503
0.309853,-0.084160,-0.265139,0.831106,0.437855,0.342850
-0.337857,0.263784,0.716347,0.928313,-0.346449,-0.134937
0.239310,-0.045979,-0.991874,0.397666,-0.294477,0.868991
-0.217502,0.205241,0.512110,0.929814,0.367437,-0.020879
-0.855759,0.331925,0.681826,0.061530,0.500562,0.863512
0.694792,-0.460864,-0.928564,0.494780,0.851864,-0.171816
-0.111555,0.259946,0.772116,0.935889,0.195831,-0.292851
0.568669,-0.500813,-0.944822,0.318657,0.736345,-0.596870
-0.034679,0.417941,0.748017,0.005041,-0.997196,0.074665
0.335057,-0.235356,-0.964207,0.580065,-0.312783,-0.752124
0.118760,0.497142,0.790261,0.256584,0.838580,0.480571
0.440379,0.525460,0.825816,-0.021023,-0.816007,0.577660
-0.231520,0.443686,0.765269,0.446444,0.719000,-0.532660
-0.121891,-0.132888,0.861146,-0.056762,-0.208490,0.976376
0.304776,-0.099833,-0.175306,0.923289,0.041981,0.381806
0.094896,0.103665,0.310463,-0.215988,-0.974943,0.053257
0.123198,0.090174,0.385991,0.393984,0.918932,0.018464
-0.243207,0.277169,0.394924,0.728808,0.684692,-0.005916
-0.179830,-0.155447,0.725599,-0.345478,-0.782416,0.518141
-0.322266,0.346100,0.785308,-0.419981,0.460707,-0.781898
0.599974,-0.411481,-0.945263,-0.616502,0.186614,-0.764919
0.146386,-0.016101,0.053013,-0.630385,-0.758111,-0.166979
-0.182471,0.428125,0.760428,-0.409780,0.035364,-0.911499
0.169335,0.072326,0.377111,-0.615607,-0.780027,0.112182
0.375896,-0.274461,-0.584140,0.868458,-0.404813,0.286194
-0.106212,-0.136453,0.800152,0.545849,0.505913,-0.667908
-0.022087,-0.101294,0.916627,0.933648,-0.357386,0.024018
-0.098519,0.335909,0.555750,-0.473791,0.785423,-0.398288
-0.777865,0.751226,0.693177,0.203703,0.977090,0.061640
-0.121075,0.357372,0.731239,0.556956,0.104530,0.823938
-0.666483,-0.104480,0.796924,-0.080920,-0.994621,0.064664
0.053619,0.030548,0.586688,-0.586479,-0.504552,0.633616
0.795356,-0.835528,-0.928561,-0.226679,0.371474,0.900347
0.358532,-0.137101,-0.390383,0.605207,-0.771363,0.196784
0.094599,0.064263,0.210968,0.819756,-0.566800,0.082086
0.155949,-0.051337,0.201921,0.996300,0.078649,-0.034660
0.153887,-0.012536,0.076387,0.956324,0.275381,0.098030
0.078100,-0.062643,0.257843,0.427373,0.901691,-0.065618
-0.662209,0.308565,0.766982,0.381817,0.689847,-0.615083
-0.262766,0.346122,0.388898,0.837699,0.439482,0.324216
-0.713851,0.345598,0.699821,-0.744588,0.396500,-0.537006
0.060754,0.461411,0.653740,0.349219,0.863462,-0.363977
-0.265065,0.081839,0.494866,0.493523,-0.869387,-0.024518
-0.580331,0.653632,0.494193,0.476892,0.878811,0.016295
-0.569358,0.456659,0.605558,0.777722,-0.626783,0.047876
0.494172,-0.413935,-0.954771,-0.105112,-0.277540,0.954947
-0.600786,-0.074067,0.772468,0.758939,-0.634453,0.146566
0.289986,-0.353574,-0.976674,0.999214,-0.039170,0.006164
