0.600940,0.768987,-0.979633,0.230605,-0.203196,-0.951595
0.565996,0.760850,-0.984609,-0.126045,-0.077925,0.988959
0.520968,0.753177,-0.986136,-0.209746,-0.068139,0.975379
0.477474,0.745911,-0.987389,0.327769,-0.050586,-0.943402
0.430178,0.738933,-0.987234,0.247488,0.048521,-0.967675
0.387422,0.731261,-0.989362,0.015987,-0.027835,0.999485
0.347675,0.723877,-0.991833,0.025328,0.050380,0.998409
-0.321810,0.651737,0.408121,-0.290626,-0.956604,0.021103
-0.351528,0.661969,0.426806,-0.039210,-0.996432,0.074735
-0.374383,0.662434,0.438629,-0.091891,-0.994806,0.043792
-0.326350,0.651331,0.414916,-0.292989,-0.953316,0.073121
-0.300221,0.640983,0.396659,-0.621924,-0.779018,-0.079634
-0.293568,0.634995,0.387926,-0.615209,-0.765419,-0.188819
-0.384042,0.665399,0.445114,-0.005946,-0.981359,0.192094
-0.354589,0.655283,0.426086,-0.024003,-0.997374,0.068336
-0.316001,0.645226,0.405290,-0.387028,-0.921841,0.020445
-0.390273,0.666037,0.449490,-0.134815,0.979091,-0.152334
-0.362189,0.656447,0.431336,-0.673537,-0.680852,-0.287729
-0.320911,0.646390,0.409751,-0.301684,-0.953355,0.010020
-0.291564,0.636101,0.390619,-0.615209,-0.765419,-0.188819
-0.353007,0.637321,0.429123,-0.486853,-0.851721,-0.193765
-0.296999,0.626393,0.403334,-0.625366,-0.763658,-0.160449
-0.267494,0.616569,0.384631,0.759365,0.578561,0.297711
-0.238778,0.606803,0.365963,-0.493114,-0.864510,-0.097268
-0.388424,0.664701,0.472173,0.788356,-0.505127,0.351200
-0.385734,0.647552,0.448872,0.113566,-0.983352,0.141848
-0.033599,0.552798,0.253387,0.829557,0.324083,0.454759
0.213017,0.204943,0.198360,-0.308323,0.780701,0.543546
0.427539,0.338527,0.339882,0.883449,-0.078058,0.461979
-0.183247,0.331028,0.478093,0.872624,0.480600,-0.086897
0.345561,0.330331,0.347775,0.313010,0.668640,0.674496
0.672096,0.437932,0.424267,0.064415,0.987023,0.147096
0.154212,0.386718,0.476480,0.302535,-0.950322,-0.073224
0.156220,0.378580,0.464246,-0.599929,0.770298,0.216163
0.068858,0.370267,0.473477,0.401921,-0.915658,0.005510
0.120168,0.402471,0.507657,0.409944,0.906122,0.104348
-0.249017,0.291499,0.436999,0.155711,-0.815732,0.557077
-0.271450,0.283826,0.431388,0.389430,-0.209553,-0.896901
-0.126711,0.250400,0.347295,-0.960773,0.108276,-0.255327
-0.104172,0.242204,0.329913,0.324691,0.872026,0.366259
0.038032,0.232380,0.280943,0.399002,0.761420,0.510918
0.227798,0.213487,0.207128,0.960328,0.277698,0.025587
0.154161,0.403227,0.478368,-0.571977,0.777589,0.261147
0.149515,0.395496,0.468227,-0.578947,0.755483,0.306700
0.106073,0.387241,0.466888,0.301937,-0.931348,-0.203533
0.170048,0.379568,0.440121,-0.151026,-0.935105,0.320578
0.346405,0.346957,0.349491,0.313010,0.668640,0.674496
-0.278155,0.300335,0.434356,0.164178,0.984135,0.067255
0.224048,0.222208,0.198016,-0.514245,0.622606,0.589842
-0.295205,0.308473,0.450382,0.200279,-0.782316,0.589805
0.134840,0.411075,0.494205,-0.362610,-0.921500,-0.139110
-0.120377,0.259295,0.336039,-0.938149,-0.148292,-0.312868
-0.058513,0.250342,0.307967,-0.135452,0.990629,0.017539
0.221358,0.239007,0.223050,0.721300,0.573802,0.387913
0.242999,0.230404,0.205326,0.227270,0.692929,0.684249
0.406266,0.322018,0.275332,0.955719,0.111383,-0.272386
-0.097838,0.267782,0.319206,-0.614870,-0.741769,-0.267793
0.007363,0.258307,0.279725,-0.377930,-0.722487,-0.578949
0.260999,0.247262,0.201723,0.338079,0.709441,0.618382
0.228008,0.239064,0.197725,-0.615733,0.590445,0.521773
0.122172,0.419794,0.487221,0.006300,-0.996959,0.077679
0.154055,0.411831,0.467901,-0.541721,0.798172,0.263552
0.140910,0.403750,0.459287,0.131217,-0.981650,-0.138367
0.159071,0.395613,0.443073,0.619056,-0.776927,0.114696
0.173057,0.387823,0.428334,0.949229,-0.282339,0.138741
0.307399,0.363872,0.360404,0.701020,0.653632,0.285195
-0.293516,0.317426,0.439452,0.226277,0.966073,-0.124506
-0.292302,0.309810,0.427853,0.634650,0.480843,-0.604986
-0.128719,0.276095,0.338835,-0.865008,-0.350680,-0.358866
-0.294995,0.330504,0.442112,0.188089,-0.959835,0.208181
-0.295627,0.322426,0.430547,0.457565,0.868452,0.190853
-0.332735,0.307137,0.417352,-0.029117,0.149909,0.988271
0.215974,0.243483,0.191290,-0.378374,0.610011,0.696218
0.228852,0.376546,0.381611,0.900049,0.332464,0.281743
0.133889,0.424911,0.475142,0.030862,-0.994819,0.096863
0.186150,0.417121,0.451172,0.126364,-0.986269,-0.106323
0.142759,0.408866,0.449782,0.498358,-0.866327,0.033423
0.159229,0.401077,0.434425,0.981152,-0.188142,0.044085
0.173479,0.392879,0.419068,-0.724772,0.671410,0.154644
-0.214231,0.346084,0.445303,-0.154543,-0.705231,0.691929
-0.106549,0.280628,0.323890,-0.834655,-0.415266,-0.361808
-0.078043,0.271967,0.304364,-0.077508,0.995020,0.062664
0.223152,0.259992,0.213665,0.763921,0.470659,0.441480
0.235505,0.251505,0.198325,0.780173,-0.454210,-0.430144
0.203780,0.420318,0.450193,-0.233038,-0.971860,-0.034381
0.145978,0.412122,0.452270,-0.475601,0.879638,-0.006311
0.157698,0.403983,0.437634,0.959360,-0.280659,-0.029304
0.166249,0.396134,0.424164,0.747594,-0.657507,0.093740
-0.253135,0.334109,0.435231,0.435974,0.345527,-0.830986
0.395338,0.329459,0.272106,0.303613,0.761620,0.572498
-0.282959,0.326204,0.430959,0.469552,0.237681,-0.850311
-0.298900,0.318705,0.423718,0.651640,0.058520,-0.756268
0.319275,0.379742,0.363235,0.745415,0.622255,0.239073
-0.264008,0.341840,0.449233,-0.369554,0.888026,-0.273568
0.231597,0.246098,0.190810,0.573599,-0.438048,-0.692169
0.290823,0.371662,0.358550,0.685922,0.674656,0.272673
-0.104333,0.284000,0.326876,-0.506064,-0.787624,-0.351492
-0.081845,0.275629,0.309392,-0.088578,0.994660,-0.052961
-0.052127,0.266851,0.289488,0.470023,-0.882588,-0.010756
0.249491,0.254470,0.198788,-0.704037,0.330132,0.628765
-0.303652,0.325158,0.426292,0.760487,0.134747,-0.635218
-0.089393,0.282024,0.312961,0.086483,-0.990751,0.104557
-0.248385,0.348992,0.447517,-0.243016,0.838050,-0.488483
0.237351,0.377998,0.372895,0.759576,0.521385,0.388848
-0.237457,0.340852,0.433052,0.530344,0.253936,-0.808858
-0.065111,0.273246,0.294447,-0.367820,0.921838,0.122161
0.239303,0.260225,0.202735,0.964746,0.073264,0.252779
0.233868,0.251970,0.192045,0.574898,-0.351147,-0.739046
0.186253,0.419330,0.444772,0.250125,-0.967066,0.047130
0.159596,0.411134,0.439367,0.903900,-0.374602,-0.206489
0.162870,0.403227,0.427201,0.870599,-0.455576,0.185761
0.172741,0.395031,0.412857,-0.654342,0.752939,0.070139
0.212066,0.386659,0.391152,0.746636,-0.223088,0.626710
-0.272981,0.335039,0.433481,-0.508853,-0.106641,0.854222
-0.300485,0.326901,0.428728,0.696520,0.518994,-0.495485
0.189317,0.420900,0.446882,-0.019194,-0.993445,0.112689
0.152576,0.412702,0.443896,0.552627,-0.828671,0.088925
0.158910,0.404332,0.430547,0.788632,-0.605525,0.106761
0.170154,0.396425,0.416340,-0.647351,0.713335,0.268497
-0.241101,0.350153,0.447997,0.122282,-0.729108,0.673386
-0.246694,0.342481,0.438131,0.424215,0.350082,-0.835155
0.122172,0.380266,0.404741,-0.549838,0.826991,0.117323
-0.106021,0.283186,0.320253,-0.258166,0.965620,-0.030450
-0.077463,0.274584,0.301207,0.036655,0.990768,0.130515
0.224947,0.261155,0.210165,0.783557,0.471465,0.404672
0.233182,0.252494,0.195889,0.782548,-0.393413,-0.482540
0.219721,0.244007,0.186778,-0.585720,0.380729,0.715526
0.221200,0.422817,0.438371,-0.221850,-0.916454,-0.333008
0.169732,0.415028,0.439401,-0.608777,0.791786,0.049655
0.164242,0.406890,0.428883,0.848678,-0.472231,0.238210
0.170576,0.398983,0.415928,-0.565482,0.823393,0.047472
0.146876,0.390614,0.409785,-0.465412,0.884388,0.035344
0.139012,0.382242,0.399782,0.443950,-0.889401,0.108966
0.208426,0.263306,0.213905,0.970475,-0.101435,0.218835
0.230066,0.254238,0.195683,0.782548,-0.393413,-0.482540
0.204782,0.246042,0.190209,-0.377648,0.548926,0.745695
-0.274514,0.353641,0.456096,-0.241120,0.619998,-0.746635
-0.255986,0.345560,0.440259,0.050579,-0.819446,0.570921
-0.095041,0.285570,0.317130,0.798480,0.495280,0.342239
-0.073716,0.276734,0.299611,-0.134791,0.983953,0.116912
0.291457,0.372708,0.327511,0.533776,0.770022,0.349500
-0.296683,0.362361,0.450451,-0.004714,-0.819053,0.573698
0.396024,0.345910,0.264848,0.303613,0.761620,0.572498
-0.059305,0.284524,0.284358,-0.712527,0.697581,-0.075405
0.243369,0.270282,0.192920,-0.396802,0.600577,0.694158
0.209850,0.262260,0.189540,-0.435210,0.453339,0.777867
0.220089,0.431478,0.427802,0.060142,0.978896,0.195310
0.181398,0.423399,0.425211,0.778317,-0.608458,0.154927
0.163926,0.415377,0.417696,0.628234,-0.748846,-0.211072
0.174326,0.407064,0.403711,0.768727,-0.636330,-0.064364
-0.388057,0.331377,0.428196,-0.189269,-0.553988,-0.810725
0.189842,0.398868,0.388406,0.809047,-0.069662,0.583601
-0.318166,0.338353,0.421693,-0.395364,-0.005275,0.918509
-0.057668,0.292661,0.295734,-0.414891,0.908896,0.042113
-0.052919,0.293128,0.287240,0.694347,-0.718734,0.036106
-0.047217,0.284465,0.273496,-0.856639,0.200290,-0.475450
0.226213,0.269932,0.189540,-0.297486,0.355824,0.885941
-0.316584,0.371953,0.459991,-0.258233,-0.674346,0.691790
0.175750,0.399157,0.384134,0.952641,0.056990,0.298708
-0.374332,0.339864,0.428368,-0.189269,-0.553988,-0.810725
0.235663,0.440023,0.427836,0.109493,0.970063,0.216771
0.206576,0.432119,0.423443,0.164539,-0.986056,-0.024894
0.159545,0.424503,0.423426,-0.448543,0.877859,-0.167844
0.163768,0.415900,0.410540,-0.666904,0.736583,0.112623
0.185251,0.407587,0.393828,0.790811,-0.472795,0.388694
0.176488,0.431304,0.412960,0.839464,-0.543415,-0.000615
0.174642,0.422991,0.401515,0.797665,-0.600914,0.051311
-0.293887,0.419330,0.505032,-0.662422,0.748018,0.040833
0.188367,0.414737,0.386639,0.878769,-0.274621,0.390319
-0.372640,0.412296,0.513388,0.476669,0.664256,-0.575805
-0.343928,0.379801,0.460557,-0.422913,-0.593334,0.684908
0.250599,0.285861,0.189575,0.268259,0.613021,0.743130
0.219299,0.277607,0.185113,0.483147,-0.454105,-0.748571
0.218822,0.439617,0.414573,-0.231372,0.942181,0.242410
0.293197,0.388694,0.325383,0.552860,0.748554,0.366077
-0.034020,0.300277,0.275744,-0.860948,0.249349,-0.443389
-0.328937,0.355502,0.422671,-0.006944,0.027702,0.999592
0.212382,0.451709,0.397586,0.467809,-0.879995,-0.082248
0.191163,0.443744,0.391203,0.756838,-0.639754,0.133836
0.407162,0.382183,0.253541,0.303613,0.761620,0.572498
-0.025048,0.329575,0.278953,-0.860948,0.249349,-0.443389
0.008523,0.320100,0.257917,-0.220515,-0.907898,-0.356502
0.243740,0.306497,0.183929,0.082267,0.758128,0.646896
0.219615,0.298127,0.177615,-0.248779,0.760114,0.600280
0.187945,0.435374,0.380119,0.891019,-0.452579,0.035465
-0.368313,0.432642,0.505512,0.520522,0.302932,-0.798304
0.190107,0.426887,0.367576,0.839064,-0.543738,-0.017909
-0.387051,0.424852,0.498649,0.439631,0.119585,0.890182
0.201721,0.432234,0.356474,0.644029,-0.763662,-0.045250
0.292195,0.423108,0.322380,0.297484,0.430709,0.852052
0.224998,0.311728,0.180361,-0.263117,0.700375,0.663509
0.217347,0.303300,0.170186,-0.354563,-0.802649,-0.479625
0.115416,0.474496,0.436432,-0.110975,-0.940872,-0.320070
0.192536,0.440896,0.370819,0.726272,-0.685328,0.053428
-0.380930,0.439035,0.500742,0.397647,0.084647,0.913625
0.190319,0.457056,0.394446,0.678651,-0.731591,0.064868
0.189739,0.448977,0.383104,0.911028,-0.394855,0.118818
-0.282221,0.405262,0.430221,0.459848,-0.204367,-0.864161
-0.290717,0.397472,0.421093,0.297114,-0.094535,0.950151
0.380082,0.387182,0.251482,0.270320,0.758000,0.593602
-0.011110,0.342422,0.278352,0.012910,0.938800,0.344220
0.058303,0.332598,0.248479,0.055407,0.839527,0.540486
0.007363,0.325331,0.249886,-0.220044,-0.896387,-0.384801
0.202617,0.451127,0.364727,-0.612619,0.782963,0.108010
0.204095,0.442349,0.352253,-0.648545,0.760391,0.034570
0.218191,0.434036,0.337240,0.897257,-0.407521,0.169875
0.031804,0.334924,0.239866,-0.198494,0.959657,0.199147
0.228694,0.321670,0.175745,-0.354563,-0.802649,-0.479625
0.207842,0.459440,0.375451,0.496345,-0.867959,-0.016998
0.056718,0.343178,0.245768,0.002982,0.880416,0.474193
-0.346934,0.496063,0.532554,-0.496611,0.081683,-0.864121
0.383672,0.411831,0.246197,0.344495,0.799764,0.491631
0.440945,0.471706,0.317079,-0.167621,0.312824,0.934903
0.210430,0.465601,0.361656,-0.561818,0.820770,0.103422
0.202565,0.457464,0.351996,-0.648545,0.760391,0.034570
0.203567,0.448860,0.339642,0.192307,0.964400,0.181524
0.228800,0.439850,0.321180,0.791068,-0.611266,-0.023792
0.204308,0.458335,0.339333,0.146539,0.968118,0.203160
0.219721,0.449789,0.323822,0.697031,-0.713928,-0.066743
-0.289663,0.431130,0.427819,0.552056,-0.356332,-0.753832
0.049804,0.348874,0.233895,0.921675,-0.387946,0.003500
0.240411,0.335853,0.171867,0.160245,0.860282,0.483980
-0.299058,0.506120,0.521195,0.684037,-0.506220,-0.525201
0.229696,0.474961,0.356749,0.561117,-0.826947,-0.036144
0.385679,0.421015,0.245648,0.309734,0.810316,0.497446
0.205362,0.466648,0.350726,-0.700468,0.682128,0.209871
-0.354009,0.442466,0.444360,0.775801,0.480691,0.408741
0.055452,0.357943,0.232367,-0.843359,0.505652,-0.181830
0.242577,0.344457,0.170769,-0.106834,0.878343,0.465941
-0.298849,0.522280,0.518329,0.336709,0.587129,0.736144
-0.366941,0.499318,0.501634,-0.024163,0.368121,0.929464
0.362453,0.489261,0.321660,0.213455,-0.267215,-0.939698
0.394494,0.436477,0.240346,0.362174,0.850808,0.380731
0.093140,0.373173,0.219893,-0.796388,-0.231270,-0.558821
0.218664,0.482577,0.344961,-0.237249,0.971411,-0.008568
0.209850,0.474321,0.335472,0.209965,0.953226,0.217429
-0.214389,0.472461,0.429295,0.926547,-0.315948,-0.204176
0.215655,0.465543,0.321814,0.623794,-0.771675,-0.124091
-0.259523,0.464904,0.428917,-0.154090,0.363374,0.918812
0.228272,0.456650,0.306492,-0.677382,-0.663934,-0.316773
-0.310038,0.457405,0.429912,0.681063,0.225396,0.696670
0.139802,0.363058,0.195082,0.324691,0.915694,0.236814
-0.326878,0.485366,0.448203,-0.033187,-0.105406,0.993875
0.218716,0.476064,0.311468,0.768974,-0.634209,0.080356
-0.358548,0.477926,0.444960,0.212817,0.399421,0.891724
0.223997,0.467578,0.298376,0.315170,-0.942764,0.108924
0.250177,0.458276,0.279484,0.846234,-0.493962,0.199722
-0.337223,0.518210,0.496521,0.939428,-0.227405,0.256442
0.371110,0.508270,0.321969,0.139821,-0.315274,-0.938644
-0.379345,0.510653,0.495457,-0.380676,0.589762,0.712227
0.189262,0.493564,0.342628,-0.422201,0.900837,0.101185
0.225949,0.484321,0.321351,0.887658,-0.451139,-0.092400
0.106021,0.383113,0.206681,0.780126,0.264578,0.566923
0.219879,0.485948,0.312926,0.602839,-0.797742,0.013909
-0.365675,0.488215,0.447877,0.355857,-0.208209,-0.911051
0.221989,0.477111,0.300143,-0.554991,-0.812999,-0.176117
0.242947,0.468044,0.282745,0.367573,0.908805,0.197391
0.310830,0.457929,0.253181,-0.566900,-0.815229,-0.118433
0.350735,0.448511,0.231098,0.223559,0.923410,0.311987
0.367572,0.447698,0.237772,0.196708,0.799189,0.567981
0.335268,0.439444,0.233500,0.195491,0.896146,0.398378
0.231967,0.494087,0.321608,0.887658,-0.451139,-0.092400
-0.349840,0.528384,0.500296,-0.098708,-0.226124,0.969084
-0.367047,0.520710,0.493536,-0.773507,0.633033,-0.030912
0.116153,0.392299,0.205463,0.828083,0.381668,0.410620
0.128348,0.383289,0.190209,-0.495180,0.303285,0.814135
-0.307505,0.551810,0.510831,0.582286,0.698322,-0.416280
-0.350684,0.536348,0.498992,0.918528,-0.395348,0.002361
0.238195,0.474787,0.282230,-0.728136,0.654788,-0.202659
0.255879,0.465719,0.265415,0.906805,-0.410512,0.095832
0.339862,0.455197,0.232110,0.240666,0.958259,0.154335
0.129034,0.389276,0.187859,0.633750,0.694458,0.340718
-0.371903,0.528732,0.493227,-0.679231,0.678035,0.280915
0.226319,0.492052,0.308791,0.834049,-0.550734,0.032484
0.225156,0.483622,0.297329,0.765477,-0.635343,0.101902
0.128770,0.391311,0.190604,0.784996,0.611552,0.098926
-0.346089,0.540940,0.500639,-0.701290,0.138952,0.699203
-0.352321,0.532569,0.490704,0.874106,-0.485672,-0.007874
0.222676,0.495713,0.313252,0.602839,-0.797742,0.013909
-0.390060,0.500365,0.454895,-0.375703,-0.176732,0.909732
-0.306236,0.559717,0.509133,0.670286,0.571261,-0.473685
-0.346144,0.543963,0.496006,0.945478,-0.325687,-0.000536
-0.325873,0.556809,0.518124,-0.754057,0.367002,0.544709
0.231439,0.486703,0.298839,-0.104936,-0.993560,-0.042746
-0.297740,0.490076,0.420475,0.496807,0.439125,0.748567
0.230910,0.478099,0.287189,0.160081,0.979310,0.123796
0.251285,0.468624,0.269739,0.962306,-0.254050,0.097088
0.355433,0.457232,0.230858,0.223559,0.923410,0.311987
0.231439,0.497631,0.306681,-0.241141,0.966269,-0.090421
0.231809,0.488621,0.294344,-0.659764,-0.744363,-0.103125
0.242206,0.479437,0.279433,0.790026,-0.578891,0.201854
0.260155,0.469903,0.262583,0.859338,-0.508163,0.057520
0.319748,0.459788,0.235473,0.304828,0.944452,0.122843
0.141915,0.401715,0.195271,0.684462,0.723545,-0.089408
0.133203,0.393170,0.185474,0.633750,0.694458,0.340718
0.048113,0.422585,0.244172,0.854070,0.458430,0.245776
0.108080,0.411134,0.203181,0.895576,0.213028,0.390593
0.127768,0.401542,0.185937,0.877321,0.476592,-0.056281
0.248859,0.496469,0.288630,0.160081,0.979310,0.123796
0.245901,0.487809,0.277546,0.949300,-0.216034,0.228381
0.255402,0.478855,0.263304,0.846028,-0.527428,0.077825
0.298214,0.468509,0.239986,0.505454,0.818006,0.274557
0.284382,0.460079,0.231561,0.507918,0.860166,0.046199
-0.349943,0.553786,0.496435,0.979097,-0.003726,-0.203359
0.337011,0.542800,0.316512,-0.360012,0.620181,0.696970
0.281956,0.472053,0.233140,-0.463156,-0.875674,-0.136677
-0.347040,0.575238,0.508017,0.835298,0.125637,-0.535250
-0.305286,0.540591,0.451978,0.998226,-0.040635,-0.043513
-0.326401,0.515710,0.423255,0.741245,0.101701,0.663485
0.237351,0.500480,0.281080,0.655736,-0.736681,0.165261
0.249755,0.491064,0.265689,0.962636,-0.214657,0.165088
0.255402,0.482054,0.252374,0.892213,-0.449292,-0.045750
0.082689,0.424038,0.211331,0.689888,0.457197,0.561271
0.120484,0.413458,0.188905,0.966779,0.236214,-0.097677
0.154161,0.402879,0.167423,-0.849953,0.246995,-0.465374
0.299480,0.462231,0.216205,0.237290,0.812476,0.532519
-0.122965,0.466183,0.312412,0.939841,-0.158167,-0.302790
0.022934,0.444093,0.251242,0.695735,0.692777,0.189771
0.001558,0.435606,0.244430,-0.613980,-0.774721,-0.151115
0.245109,0.506294,0.285078,0.666278,-0.729399,0.155083
0.255299,0.497225,0.270751,0.881974,-0.424823,0.204077
0.250547,0.488041,0.259581,0.906281,-0.422664,-0.003229
0.261791,0.478449,0.244361,0.928300,0.248977,0.276168
-0.348992,0.565704,0.491425,0.969226,0.071110,-0.235677
-0.359392,0.548904,0.470972,0.710283,0.682738,0.171365
0.025998,0.450081,0.256595,0.717511,0.670731,0.187877
0.003510,0.442175,0.250607,0.717511,0.670731,0.187877
0.109291,0.419503,0.197948,0.940873,0.182458,0.285424
0.285861,0.468333,0.225762,0.562993,0.822053,0.085256
0.126766,0.409331,0.180755,0.887307,0.178790,0.425112
-0.335271,0.545241,0.456130,0.896028,-0.443235,-0.026018
-0.347568,0.579540,0.504208,0.836583,0.113676,-0.535917
0.322599,0.543963,0.315775,-0.360012,0.620181,0.696970
0.252500,0.491587,0.261159,0.879450,-0.475987,-0.001875
0.252290,0.482228,0.248822,0.980735,0.017768,0.194534
0.278628,0.472344,0.230240,-0.539827,-0.825725,-0.163600
-0.018079,0.446069,0.257899,-0.564357,-0.814332,-0.135516
0.005462,0.436012,0.239437,-0.727490,-0.626173,-0.280475
0.295626,0.462695,0.213871,0.348202,0.786023,0.510806
-0.123441,0.467810,0.309117,0.942190,-0.327433,-0.071166
-0.302015,0.518153,0.413337,-0.617839,-0.380718,-0.687989
0.257252,0.500713,0.272261,0.970027,-0.203237,0.133198
0.084535,0.423399,0.206304,-0.698603,-0.467290,-0.541843
0.123493,0.412934,0.184204,0.895914,0.227263,0.381694
0.297895,0.548904,0.312326,-0.398273,0.720117,0.568164
0.258940,0.495132,0.250006,0.960576,-0.247478,0.126681
0.256936,0.485715,0.238116,0.949953,0.215002,0.226636
-0.096414,0.489203,0.316701,0.982537,-0.090760,-0.162431
0.284647,0.475658,0.219104,0.979146,0.145981,0.141292
-0.379609,0.542974,0.446230,0.028811,-0.034655,0.998984
0.257303,0.504376,0.262429,0.879450,-0.475987,-0.001875
0.119904,0.425434,0.187721,0.966779,0.236214,-0.097677
0.148619,0.415028,0.168092,-0.788610,0.066292,-0.611310
0.151203,0.438512,0.171146,0.791675,-0.057855,0.608197
-0.124972,0.480948,0.311931,0.939841,-0.158167,-0.302790
-0.019822,0.458452,0.260422,-0.595151,-0.801451,-0.058926
-0.007892,0.449092,0.245511,-0.613980,-0.774721,-0.151115
0.041147,0.438280,0.220820,0.725425,0.469095,0.503695
0.049540,0.452115,0.210353,-0.578451,-0.706813,-0.407198
0.334530,0.571691,0.307401,-0.545424,0.443369,0.711292
-0.101482,0.503620,0.309426,0.956952,-0.231191,-0.175482
0.285124,0.489494,0.210165,0.991842,-0.053338,0.115775
-0.082160,0.493970,0.292834,-0.875335,0.334438,-0.349200
0.318801,0.479088,0.189471,0.955075,-0.268888,0.124624
-0.066483,0.484436,0.277100,0.827991,0.481253,0.287796
-0.052707,0.474555,0.261280,0.831400,0.368695,0.415737
-0.000607,0.463567,0.235851,-0.705093,-0.653256,-0.275863
-0.341234,0.608721,0.496950,0.856793,0.176086,-0.484665
0.267968,0.518733,0.251980,0.896667,-0.442347,-0.017838
0.266595,0.509200,0.239832,0.945063,0.149133,0.290886
0.275780,0.499375,0.225041,0.894771,0.336295,0.293751
-0.158330,0.543788,0.337446,0.813184,-0.250397,0.525389
-0.131621,0.534022,0.319086,0.865363,0.469172,0.176136
0.292775,0.518675,0.210233,0.993925,0.003231,0.110015
-0.120696,0.524779,0.304639,0.835973,0.002975,0.548762
0.300008,0.509258,0.196301,0.975151,-0.068082,0.210819
-0.098421,0.514722,0.286777,-0.880307,0.189962,-0.434712
0.306291,0.499375,0.182128,-0.227844,0.972562,-0.047008
0.305550,0.490191,0.170220,0.632882,-0.771491,0.065282
-0.256195,0.574306,0.397878,0.826755,0.418861,0.375541
0.305865,0.521930,0.178971,-0.227083,0.973792,-0.012751
-0.265171,0.596920,0.396522,0.816202,0.476078,0.327360
-0.227376,0.586630,0.375211,0.801416,0.426610,0.419209
-0.197024,0.576632,0.355582,-0.074485,-0.947164,0.311980
-0.176227,0.567272,0.338818,0.566393,-0.733739,0.375268
-0.155798,0.557682,0.322106,0.890452,0.060449,0.451045
-0.127926,0.547392,0.302803,0.879313,0.153065,0.450976
0.310405,0.528732,0.169396,-0.476048,0.874545,-0.092463
-0.265645,0.605116,0.388749,0.790935,0.477601,0.382516
-0.230015,0.594770,0.367850,-0.110882,-0.971623,0.208936
-0.201934,0.585004,0.349319,0.473481,-0.677976,0.562284
-0.160550,0.574830,0.327236,0.839835,-0.246094,0.483854
-0.441474,-0.867983,0.572876,-0.347122,-0.484300,-0.803094
-0.417932,-0.866821,0.574077,-0.302099,-0.432570,-0.849482
-0.479005,-0.829442,0.674711,0.639322,0.452603,0.621625
-0.473991,-0.824502,0.687048,0.304160,0.153648,0.940148
-0.469768,-0.813806,0.714398,0.569015,0.519172,-0.637716
-0.438520,-0.808457,0.725363,-0.244839,-0.677486,0.693589
-0.624694,-0.695218,0.704241,0.291704,0.809256,0.509915
-0.605798,-0.693533,0.707741,0.291704,0.809256,0.509915
-0.557130,-0.697544,0.692401,0.456814,0.645799,0.611772
-0.426112,-0.701264,0.671279,0.032165,0.346517,0.937492
-0.463592,-0.688823,0.708993,0.834173,-0.305372,0.459243
-0.451610,-0.675046,0.746656,-0.648613,0.715380,-0.259870
-0.523452,-0.651561,0.817881,0.805062,0.544353,0.235700
-0.469346,-0.656445,0.800002,0.801722,-0.510113,0.311491
-0.406318,-0.663071,0.776546,0.287400,0.729890,0.620211
-0.762886,-0.565294,0.679361,0.675098,-0.627627,0.387720
-0.738288,-0.564597,0.679172,0.589280,-0.594928,0.546635
-0.717862,-0.563435,0.681077,0.492792,-0.660799,0.566128
-0.751909,-0.552331,0.718842,0.057880,-0.841758,0.536743
-0.735069,-0.550297,0.723492,0.265419,0.689399,-0.674004
-0.559449,-0.551867,0.702576,0.193403,0.668194,0.718410
-0.504817,-0.551285,0.699110,-0.564332,-0.701439,-0.435331
-0.563989,-0.531928,0.764638,-0.254093,0.923105,-0.288640
-0.539816,-0.531288,0.764655,0.660432,-0.742602,0.111230
-0.485709,-0.535649,0.745953,-0.293485,-0.342810,-0.892383
-0.447018,-0.537219,0.737374,-0.438808,0.078110,-0.895179
-0.520388,-0.515826,0.810811,0.290411,-0.956824,0.012190
-0.410648,-0.524603,0.773218,0.950540,-0.271993,0.149978
-0.412072,-0.519837,0.788540,0.982241,0.141662,-0.123018
-0.842013,-0.401714,0.687597,-0.378793,0.163856,-0.910861
-0.819789,-0.400784,0.688850,0.009042,-0.409918,0.912078
-0.641692,-0.415143,0.618208,-0.366124,0.853597,0.370575
-0.700918,-0.401540,0.673167,0.852065,0.470950,0.228454
-0.570800,-0.390959,0.697360,-0.388211,-0.236161,-0.890797
-0.500120,-0.388401,0.698681,0.709858,-0.121198,0.693839
-0.879702,-0.260629,0.639983,-0.094224,-0.727534,0.679571
-0.830663,-0.263187,0.623047,0.193899,0.436854,0.878386
-0.832457,-0.259235,0.640068,0.731771,0.622986,-0.276404
-0.856846,-0.240923,0.719546,0.363219,0.589499,-0.721500
-0.724988,-0.254119,0.648201,-0.664608,0.370662,-0.648773
-0.761726,-0.245516,0.688524,0.853895,0.209886,0.476247
-0.763572,-0.241621,0.704961,0.533543,-0.466316,0.705607
-0.754915,-0.239121,0.714330,-0.028498,-0.890948,0.453209
-0.719708,-0.239762,0.707141,-0.135712,-0.895998,0.422812
-0.458578,-0.268536,0.554122,0.891718,-0.243003,0.381822
-0.658055,-0.236506,0.713438,0.038903,-0.991087,-0.127413
-0.661960,-0.232319,0.731214,-0.499990,-0.791252,-0.352038
-0.633879,-0.232263,0.728108,-0.235973,0.909204,0.343023
-0.539816,-0.236274,0.699145,0.078006,-0.992631,-0.092728
-0.513317,-0.235983,0.697326,0.946927,0.321075,0.015499
-0.493680,-0.234645,0.700397,0.993530,0.111085,-0.023623
-0.531581,-0.226623,0.738849,0.886077,0.225109,0.405209
-0.564888,-0.219124,0.774178,-0.635264,0.332661,-0.696976
-0.534007,-0.219298,0.769494,0.294343,-0.201968,0.934115
-0.492942,-0.220694,0.758701,0.312811,0.646891,0.695472
-0.472725,-0.219474,0.761241,0.485076,0.617032,0.619656
-0.422523,-0.039150,0.891061,0.303339,-0.904819,0.298812
-0.800736,-0.113325,0.576359,-0.146916,0.879853,0.451967
-0.924781,-0.087400,0.725414,0.366850,0.702009,0.610414
-0.909210,-0.085888,0.730167,-0.050241,0.691060,0.721049
-0.881867,-0.085597,0.727679,0.243804,0.913401,0.325973
-0.871257,-0.083736,0.735744,-0.355027,-0.898215,0.259162
-0.682496,-0.102862,0.610848,-0.597024,0.523741,-0.607666
-0.838318,-0.083912,0.729669,0.076230,0.921799,-0.380100
-0.606220,-0.103909,0.593243,-0.224699,-0.285753,-0.931587
-0.670037,-0.094317,0.651084,-0.950529,0.262959,-0.165371
-0.636466,-0.094666,0.644547,-0.565022,-0.509502,-0.648967
-0.562091,-0.095713,0.628075,0.490045,0.192155,-0.850254
-0.402042,-0.108152,0.541202,-0.619332,0.783327,0.053157
-0.510149,-0.094549,0.626084,0.955006,-0.170969,-0.242351
-0.622529,-0.066065,0.786086,0.961096,-0.082840,0.263501
-0.610863,-0.064148,0.793619,-0.044075,0.891490,0.450891
-0.631556,-0.059438,0.820884,0.738122,-0.469708,0.484303
-0.629762,-0.056764,0.834181,-0.670838,0.736461,-0.087194
-0.405793,-0.074029,0.712820,-0.098233,0.560346,0.822413
-0.403734,-0.059846,0.783718,0.855662,-0.511126,-0.081196
-0.442373,-0.040197,0.888762,0.448288,-0.756558,0.476086
-0.722452,0.067461,0.691715,-0.369765,0.593645,-0.714744
-0.686294,0.067346,0.683959,-0.468911,0.579558,-0.666509
-0.740769,0.075892,0.748698,0.914711,-0.382380,-0.130725
-0.514795,0.062521,0.620199,0.782160,-0.621119,-0.049365
-0.507933,0.064382,0.631043,-0.766441,0.540512,0.347010
-0.536172,0.068858,0.664519,-0.479937,0.643316,-0.596494
-0.431763,0.071473,0.660281,-0.714575,0.677084,-0.175897
-0.588062,0.084203,0.771587,0.201157,0.376475,0.904324
-0.446171,0.077054,0.699110,0.743612,0.174126,0.645539
-0.511574,0.090598,0.797033,0.792324,-0.603865,0.087001
-0.558605,0.095771,0.838883,-0.571352,0.723382,0.387652
-0.502707,0.094435,0.819957,-0.733188,0.270151,0.624062
-0.505555,0.096760,0.835297,0.688738,0.669470,0.278298
-0.504553,0.103446,0.876614,-0.274278,0.498406,0.822413
-0.557710,0.212616,0.558720,-0.287789,0.020391,-0.957477
-0.728629,0.229589,0.746999,0.749113,0.659722,-0.059974
-0.604003,0.234764,0.758135,0.867978,-0.087306,0.488868
-0.493731,0.242146,0.792040,0.166976,-0.322556,0.931706
-0.432975,0.241332,0.769769,0.816593,-0.382028,-0.432703
-0.426589,0.244413,0.794442,0.296871,-0.744378,0.598138
-0.407165,0.245343,0.796827,0.521868,-0.326511,0.788064
-0.398453,0.246739,0.805973,0.514114,-0.595802,0.617015
-0.571750,0.377825,0.419651,0.243633,-0.394455,0.886029
-0.660643,0.382068,0.514332,-0.793738,0.543812,-0.272485
-0.565944,0.386427,0.533978,0.296961,0.920712,0.253188
-0.558712,0.387415,0.545834,0.614556,-0.695399,-0.372479
-0.807756,0.392822,0.724402,0.581845,0.063354,0.810828
-0.782736,0.393402,0.723046,0.790049,0.269583,0.550589
-0.759774,0.394101,0.723613,0.823569,0.507207,0.253922
-0.523768,0.390322,0.571074,0.108714,-0.805890,0.581998
-0.640899,0.394507,0.677679,0.407208,0.627188,0.663940
-0.614455,0.395322,0.676393,0.502440,0.550663,-0.666576
-0.617358,0.396368,0.693671,-0.360739,0.856299,0.369620
-0.569005,0.397763,0.692830,-0.775989,0.358643,0.518861
-0.555702,0.398751,0.699848,0.921449,-0.356953,-0.153347
-0.619520,0.550822,0.503196,0.211401,-0.081935,0.973959
-0.798571,0.550474,0.671331,-0.594131,0.737009,-0.322221
-0.532795,0.553263,0.495114,0.788835,-0.466113,0.400597
-0.766108,0.551345,0.665222,0.432543,-0.823746,0.366536
-0.754229,0.551868,0.673390,0.285361,0.957374,-0.044775
-0.761040,0.552275,0.693499,0.469416,0.725674,-0.503037
-0.564624,0.554891,0.581644,0.716562,0.591755,0.369275
-0.672518,0.554194,0.666818,0.952532,-0.112364,0.282943
-0.664705,0.554717,0.676856,0.810495,-0.557230,0.180533
-0.653674,0.555356,0.685401,-0.553403,0.767595,0.323330
-0.610018,0.557217,0.703674,0.928085,-0.360434,0.093517
-0.669722,0.722541,0.492146,0.917439,-0.025442,-0.397063
-0.609915,0.724168,0.502406,-0.498745,-0.124165,-0.857809
-0.573860,0.725389,0.495234,-0.208717,0.475591,0.854547
-0.657949,0.721901,0.567385,0.869433,0.418924,0.261894
-0.526249,0.726494,0.512993,0.999423,0.001055,0.033961
-0.506825,0.727133,0.516288,0.959237,0.173452,0.223112
-0.521654,0.726262,0.542574,-0.316843,0.946732,-0.057526
-0.641109,0.721378,0.636328,0.783078,-0.406047,0.471078
-0.682970,0.719577,0.679155,0.995805,0.084209,0.035784
-0.474201,0.727482,0.560350,-0.076683,-0.021020,0.996834
-0.670988,0.719634,0.701375,0.788450,-0.329965,-0.519104
-0.672888,0.719286,0.717984,-0.044760,-0.976797,0.209436
-0.710577,0.717658,0.756385,-0.096606,0.828883,0.551018
-0.639421,0.720274,0.726735,0.036900,-0.985494,0.165647
-0.666606,0.719054,0.759027,-0.078564,0.983167,0.164957
-0.641164,0.719810,0.758170,-0.114644,0.963709,0.241084
-0.622000,0.720274,0.760657,-0.249287,0.921243,0.298607
-0.721029,0.879088,0.666578,0.340513,-0.643163,0.685851
-0.776244,0.874438,0.717521,0.244504,0.330676,-0.911521
-0.687403,0.878739,0.691200,0.772610,-0.555596,0.307225
-0.688037,0.877751,0.707123,0.974396,0.196034,0.110105
-0.695795,0.876530,0.726804,-0.004706,-0.898074,0.439819
-0.606852,0.878971,0.730390,0.933410,-0.325409,-0.151180
-0.599780,0.878623,0.741028,-0.008345,-0.955955,0.293396
-0.568899,0.879785,0.736910,0.417495,0.652895,-0.632002
0.261314,0.383056,0.137362,0.897250,0.384948,-0.216234
0.274353,0.384044,0.146713,0.671928,-0.731251,-0.117405
0.506718,0.384683,0.055138,0.353977,0.871175,0.340227
0.519331,0.385788,0.065828,-0.418637,-0.850548,-0.318295
0.278313,0.302021,-0.983871,-0.112142,0.043260,0.992750
0.313362,0.302894,-0.985244,-0.132548,0.150478,0.979687
0.345245,0.303997,-0.983820,-0.095280,0.564029,0.820240
0.375440,0.305161,-0.979925,-0.234886,0.274993,0.932313
0.407426,0.306206,-0.978621,-0.058420,0.210195,0.975913
0.440472,0.307369,-0.976991,0.157850,0.109855,0.981333
0.474887,0.308531,-0.976442,0.175871,0.077186,-0.981383
0.508091,0.309810,-0.974794,-0.161522,0.058991,0.985104
0.539181,0.310799,-0.972684,0.140059,-0.155732,-0.977820
0.572382,0.311728,-0.972203,-0.125586,0.268068,0.955179
0.605956,0.313007,-0.970779,-0.078794,-0.018116,0.996726
0.637362,0.313995,-0.968875,-0.096668,0.022543,0.995061
0.703131,0.316438,-0.964997,-0.054875,0.083914,0.994961
0.737920,0.317833,-0.964276,0.238791,-0.231752,-0.943011
0.794769,0.319867,-0.955663,-0.101263,0.162805,0.981448
0.830927,0.321029,-0.956075,-0.172773,-0.019087,0.984777
0.862388,0.322018,-0.953964,0.242217,-0.057776,-0.968500
0.893004,0.323355,-0.950121,0.539320,-0.160386,-0.826686
0.318694,0.534371,-0.989362,-0.193606,0.181011,0.964236
0.348834,0.535418,-0.985415,-0.119558,0.152204,0.981091
0.382934,0.536406,-0.985879,-0.021817,0.008019,0.999730
0.414975,0.537509,-0.984197,0.203789,0.062827,-0.976997
0.447070,0.538498,-0.981744,0.288725,-0.159191,-0.944085
0.477103,0.539603,-0.978689,-0.399984,-0.007177,0.916494
0.507669,0.540708,-0.974949,0.432242,0.121592,-0.893522
0.542348,0.541696,-0.974537,0.334874,0.194528,-0.921964
0.569321,0.542800,-0.968291,-0.337655,-0.444366,0.829776
0.587373,0.543673,-0.955920,0.328110,0.573853,-0.750358
0.611285,0.544544,-0.948199,-0.254252,0.875653,-0.410594
0.656841,0.545764,-0.956143,0.553790,-0.503304,0.663326
0.705561,0.546985,-0.967536,0.097622,-0.138025,0.985606
0.537490,0.546637,-0.811343,-0.588786,0.037353,-0.807426
0.741774,0.548148,-0.967708,0.039135,0.069714,-0.996799
0.532898,0.547276,-0.781642,-0.508451,0.834848,0.210967
0.772281,0.549136,-0.963796,-0.061030,-0.198652,0.978168
0.528623,0.548090,-0.752490,0.900177,0.098578,0.424222
0.813033,0.550357,-0.967622,-0.138386,-0.064955,0.988246
0.511680,0.548672,-0.715171,0.724854,0.576345,-0.377377
0.833356,0.551171,-0.957121,0.192727,-0.019764,-0.981053
0.501386,0.549252,-0.683085,-0.521261,-0.816081,-0.249596
0.872101,0.552218,-0.960364,-0.001305,-0.005268,0.999985
0.498483,0.550007,-0.656146,0.768304,0.614486,0.179209
0.500120,0.550822,-0.633600,0.688231,0.643858,-0.334343
0.461111,0.551345,-0.580392,-0.698448,-0.692980,-0.178743
0.454564,0.551868,-0.551531,0.804804,0.583902,0.106531
0.445433,0.552450,-0.520680,0.913142,-0.067827,-0.401960
0.452347,0.553321,-0.502990,0.232187,-0.972057,-0.034557
0.449602,0.553845,-0.478453,0.065417,-0.997856,0.002046
0.441422,0.554601,-0.449318,-0.203229,0.977611,0.054535
0.445540,0.555298,-0.430170,-0.436355,0.897345,0.066072
0.434718,0.556112,-0.399937,-0.289056,0.955622,0.056865
0.425903,0.556518,-0.371282,-0.272385,0.953506,0.128969
0.412758,0.556985,-0.339814,0.527660,-0.824984,0.202425
0.416083,0.557741,-0.321008,-0.426358,0.855090,0.295025
0.420780,0.558262,-0.303283,-0.226635,0.972237,0.058246
0.420993,0.559018,-0.281767,-0.227623,0.973749,0.000573
0.407323,0.559426,-0.251739,0.316306,0.948652,0.003213
0.410490,0.560182,-0.232625,0.293519,0.947114,0.129700
0.530733,0.778870,-0.983099,-0.225195,-0.002975,0.974309
0.562565,0.779917,-0.980319,0.160649,-0.109609,-0.980907
0.596874,0.780846,-0.979530,-0.293439,0.205803,0.933562
0.629285,0.781893,-0.977214,-0.179291,0.264422,0.947595
0.695586,0.783928,-0.975549,-0.001120,0.176974,0.984215
0.184935,0.757245,-0.151946,-0.379786,-0.281748,0.881125
0.263164,0.759744,-0.144860,-0.269045,-0.302742,0.914310
0.318060,0.761199,-0.141634,-0.055517,-0.419049,0.906265
0.371161,0.774045,-0.992759,-0.077548,0.221083,0.972167
0.404839,0.775150,-0.991592,-0.280991,0.045340,0.958639
0.435613,0.776138,-0.989276,-0.251469,0.026121,0.967513
0.466865,0.776953,-0.987200,0.304743,0.023287,-0.952150
0.498271,0.777997,-0.984111,0.089906,-0.178497,-0.979824
0.147508,0.951113,-0.154863,-0.278917,-0.230309,0.932289
-0.287656,-0.980874,0.596537,0.900395,-0.378794,-0.214018
-0.301696,-0.964772,0.635727,0.738893,0.298406,0.604145
-0.257358,-0.968435,0.623716,-0.453760,-0.445634,-0.771694
-0.216448,-0.971224,0.614485,0.268508,0.591498,0.760285
-0.208371,-0.966806,0.624489,-0.375316,-0.465842,-0.801330
-0.152895,-0.972620,0.606695,0.305044,0.664123,0.682560
-0.379239,-0.868971,0.565704,0.177189,0.448756,0.875912
-0.393914,-0.853567,0.606335,-0.210623,0.977126,0.029366
-0.254558,-0.864962,0.566493,0.880411,0.244544,-0.406295
-0.245322,-0.854555,0.592522,0.238610,-0.482134,-0.842978
-0.359869,-0.819096,0.692230,0.805751,0.122702,-0.579404
-0.211538,-0.843801,0.617436,0.517253,-0.612278,-0.597968
-0.337168,-0.812236,0.707964,0.901482,0.329997,-0.280058
-0.324027,-0.809330,0.714519,0.704739,0.539186,-0.461108
-0.311516,-0.806016,0.721880,0.032467,-0.694943,0.718332
-0.371374,-0.739631,0.559561,0.085578,0.326649,0.941264
-0.296261,-0.737305,0.560076,-0.088463,0.270560,0.958630
-0.365198,-0.696671,0.679309,0.171242,0.381273,0.908464
-0.385257,-0.682255,0.720953,-0.448485,0.293739,-0.844143
-0.386207,-0.661503,0.779120,0.828068,0.521443,0.205915
-0.383198,-0.656968,0.791800,0.929238,-0.368599,-0.025529
-0.271450,-0.671790,0.740908,0.435121,-0.724014,0.535232
-0.378079,-0.647724,0.816783,0.957778,0.202702,-0.203893
-0.385576,-0.641504,0.834679,0.950996,-0.065072,-0.302280
-0.378394,-0.637843,0.844528,0.981002,-0.143991,-0.130005
-0.116788,-0.515826,0.773612,0.463215,0.775344,0.429271
-0.073610,-0.517860,0.763060,0.151625,-0.639869,0.753377
-0.146403,-0.502687,0.816903,0.085602,-0.899271,0.428934
-0.093827,-0.488562,0.855835,-0.098091,0.995104,0.012125
-0.340177,-0.594709,0.549094,0.134767,0.295120,0.945908
-0.307770,-0.595116,0.544874,-0.107954,0.383058,0.917394
-0.271979,-0.596047,0.538662,0.033772,0.484525,0.874125
-0.133574,-0.588896,0.547790,-0.305106,0.597602,0.741473
-0.353007,-0.547856,0.695576,0.455579,-0.887111,-0.074038
-0.350420,-0.538962,0.723321,-0.151988,0.954385,-0.257000
-0.185622,-0.546461,0.684526,-0.231506,-0.247124,0.940922
-0.221516,-0.535996,0.720215,-0.159006,0.575602,0.802122
-0.309509,-0.517569,0.785692,0.196537,-0.945166,-0.260833
-0.121383,-0.533264,0.719598,-0.256496,-0.756917,0.601070
-0.199134,-0.516872,0.777576,-0.662288,-0.383329,-0.643765
-0.218719,-0.509430,0.802764,-0.806021,-0.398732,-0.437428
-0.222254,-0.504431,0.818721,0.979468,0.199293,-0.030417
-0.186466,-0.420084,0.551359,0.194416,-0.805100,0.560372
-0.161710,-0.419154,0.552354,-0.070828,0.849862,-0.522224
-0.075511,-0.426826,0.515498,-0.770190,0.602804,-0.208413
-0.169101,-0.405201,0.603195,0.142780,0.847381,0.511429
-0.078307,-0.413341,0.564606,-0.664705,0.567668,-0.485717
-0.055081,-0.408224,0.580528,0.937884,0.213732,0.273300
-0.322812,-0.360324,0.781059,0.998491,-0.051615,0.018730
-0.268705,-0.363347,0.764124,0.905151,-0.034248,0.423708
-0.259362,-0.356836,0.786721,-0.615145,0.430469,0.660524
-0.108711,-0.364511,0.742881,-0.787277,0.450073,-0.421462
-0.195336,-0.349570,0.805767,-0.172001,0.887879,-0.426716
-0.134895,-0.353348,0.785932,0.950259,-0.283747,-0.128432
-0.015018,-0.364335,0.733376,0.173690,0.669045,0.722642
0.015440,-0.364452,0.730184,0.350242,0.677526,0.646753
0.092876,-0.366196,0.715274,-0.288486,-0.954616,0.074060
0.141122,-0.368231,0.702576,0.983123,-0.161968,0.085068
0.019239,-0.349513,0.782895,0.555941,0.273940,-0.784784
0.124285,-0.358406,0.740085,-0.115333,-0.655790,0.746081
0.105808,-0.352245,0.764072,-0.375480,0.817472,-0.436755
0.071657,-0.344514,0.795626,-0.060315,-0.576401,0.814938
0.080736,-0.341897,0.803931,-0.160670,-0.522074,0.837630
0.245586,-0.349978,0.757157,-0.549560,0.516884,-0.656365
0.516113,-0.280452,0.381319,-0.081093,0.329965,0.940504
0.095147,-0.232843,0.633994,-0.593919,0.580441,0.557090
-0.216767,-0.197093,0.822668,0.038762,0.998400,0.041164
-0.181556,-0.197499,0.816886,-0.214832,0.962825,0.163753
-0.177229,-0.194593,0.828279,0.191485,-0.958548,-0.210998
0.129298,-0.225985,0.658376,-0.503378,0.784986,0.361120
-0.182191,-0.190814,0.844699,-0.020262,-0.983526,0.179625
0.147299,-0.224297,0.662958,0.942669,0.124684,-0.309563
0.161445,-0.219124,0.682947,0.647751,0.613320,0.451947
-0.228907,-0.176805,0.909541,0.496379,0.814114,0.301376
-0.073136,-0.189188,0.837887,0.931775,-0.245555,-0.267393
-0.159438,-0.177502,0.897890,0.084510,0.995761,0.036315
-0.125816,-0.177676,0.893035,0.361011,0.837494,-0.410214
-0.094883,-0.177444,0.889689,0.156488,0.169930,0.972952
-0.118109,-0.172212,0.914688,-0.059726,-0.993218,0.099754
0.275197,-0.210288,0.705768,0.541421,0.476378,0.692768
-0.121064,-0.168957,0.928741,-0.164868,0.986086,0.021292
0.348306,-0.214066,0.680579,-0.746774,-0.497172,-0.441756
0.026842,-0.180060,0.863865,-0.444466,-0.866417,-0.227535
0.009528,-0.175293,0.885622,-0.567116,-0.565725,-0.598611
0.415239,-0.213893,0.673064,0.844825,0.274593,0.459205
0.081632,-0.160702,0.937475,-0.704040,0.403278,0.584547
0.109452,-0.160238,0.936136,0.799406,-0.336164,-0.497941
-0.149464,-0.252724,0.581575,0.521990,-0.136859,0.841900
0.080840,-0.278825,0.443553,0.978327,-0.130721,0.160585
0.035338,-0.269872,0.486895,0.801049,0.212665,0.559548
-0.016919,-0.260164,0.533858,-0.826821,0.531414,-0.184298
0.087808,-0.268013,0.487685,0.747890,0.318733,0.582297
-0.092245,-0.244470,0.608686,0.251127,0.640906,-0.725379
0.051176,-0.252957,0.555117,-0.380197,0.899769,0.214163
0.378552,-0.288650,0.364676,0.211153,-0.535932,-0.817430
0.175328,-0.255398,0.529259,0.791528,0.607170,-0.069486
0.128876,-0.246911,0.571195,0.829530,0.518495,0.207467
-0.247487,-0.203662,0.799298,-0.545218,0.445923,-0.709852
0.037980,-0.230285,0.651461,-0.075196,0.971856,0.223251
-0.384625,-0.103268,0.562650,-0.398094,0.894985,0.201304
-0.331733,-0.102048,0.560831,0.101468,-0.994818,0.006398
-0.286441,-0.103268,0.547979,0.049950,0.995524,0.080234
-0.262690,-0.102280,0.549317,0.093496,0.989538,0.109876
0.216976,-0.133090,0.320836,0.877068,0.214730,0.429702
-0.378027,-0.070715,0.725311,0.301147,0.716209,0.629568
0.149145,-0.117278,0.410386,0.829977,-0.557663,-0.012212
-0.361979,-0.069321,0.729927,0.796344,-0.294443,-0.528336
0.130671,-0.112513,0.437050,-0.866676,0.489842,-0.094484
0.141229,-0.110187,0.446933,0.698446,-0.710072,-0.089282
0.211222,-0.113093,0.421779,-0.202967,-0.975944,-0.079609
0.135262,-0.103444,0.482417,-0.593483,0.792377,-0.141128
-0.361080,-0.057926,0.787082,0.919748,-0.010299,0.392375
0.123280,-0.099316,0.504809,0.641478,-0.766294,-0.036059
-0.376548,-0.053858,0.809748,0.852740,-0.522097,0.015771
0.129298,-0.096758,0.516339,0.706254,-0.707954,-0.002609
0.165086,-0.096642,0.511295,0.601961,-0.798065,0.027114
-0.331363,-0.052171,0.811412,0.878619,-0.461553,-0.122462
0.176330,-0.088620,0.550433,0.988624,-0.150332,0.004803
-0.393228,-0.038802,0.888024,-0.119476,0.989779,0.077870
0.129933,-0.081702,0.591922,0.807099,-0.590278,0.012764
-0.379136,-0.037291,0.893103,-0.148804,-0.984183,-0.096133
-0.194752,-0.052347,0.789243,0.714290,0.440990,-0.543431
-0.239358,-0.046126,0.827678,0.025131,0.330270,0.943552
-0.185409,-0.050486,0.797445,0.916591,0.275976,-0.289307
-0.159335,-0.047172,0.810160,0.904819,-0.316575,-0.284750
0.107023,-0.068448,0.662185,0.974481,0.211983,-0.073824
-0.213439,-0.037406,0.867400,-0.473347,-0.880476,0.026549
-0.102696,-0.043393,0.820197,-0.452282,0.504894,0.735202
-0.143867,-0.037582,0.855766,-0.571608,-0.634272,-0.520542
-0.162554,-0.033627,0.878844,0.506821,0.862049,0.002009
-0.084854,-0.037000,0.850207,-0.440743,0.195337,0.876122
-0.188261,-0.026537,0.918618,-0.232171,-0.364786,0.901680
-0.134315,-0.027990,0.902849,-0.232966,-0.697376,0.677786
0.338331,-0.063740,0.650089,0.887968,-0.362936,-0.282470
-0.019980,-0.033918,0.855114,-0.481587,0.827256,0.289347
0.347252,-0.061531,0.659698,0.927253,-0.325490,-0.185088
-0.021246,-0.031245,0.869099,-0.620040,0.752195,0.223055
0.794662,-0.092282,0.436913,0.403630,-0.895110,0.189369
0.035499,-0.032989,0.851820,0.860415,-0.327919,0.390071
0.822325,-0.091468,0.436981,-0.143441,0.927831,-0.344317
-0.015018,-0.026652,0.891096,0.689498,-0.699222,-0.188894
0.412971,-0.055426,0.680545,-0.555559,0.451261,0.698368
0.862388,-0.088388,0.445801,-0.143441,0.927831,-0.344317
0.403151,-0.051997,0.699282,-0.609961,0.774936,0.165593
0.416718,-0.047463,0.720112,-0.429692,0.886434,-0.172047
0.692841,-0.064495,0.592299,0.839732,0.458941,-0.290214
0.739502,-0.062228,0.596006,0.839732,0.458941,-0.290214
0.748530,-0.060078,0.605700,0.839732,0.458941,-0.290214
0.755022,-0.057811,0.616132,0.816493,0.535266,-0.216399
-0.351315,0.073216,0.656523,-0.665082,0.575045,-0.476434
0.207317,0.036537,0.317130,-0.211483,0.929604,0.301845
0.182613,0.040780,0.348993,0.425293,0.787613,0.445861
0.128983,0.046941,0.397860,0.742472,0.666162,-0.070455
0.072395,0.053104,0.447500,0.542876,0.338538,0.768555
0.214863,0.051476,0.410335,0.985607,-0.167690,-0.021404
-0.298214,0.088446,0.742264,0.202680,0.040047,0.978426
-0.165089,0.086878,0.707552,0.186639,0.155934,0.969974
-0.207263,0.094086,0.760246,-0.045190,0.561534,0.826218
-0.339227,0.106293,0.863076,-0.471935,0.862887,0.180841
-0.079312,0.091063,0.716389,-0.159013,0.799189,0.579666
-0.034497,0.090598,0.705459,0.366578,0.702928,0.609518
-0.038032,0.092981,0.721245,-0.577012,-0.458811,-0.675684
-0.338754,0.112513,0.902283,-0.339931,0.935538,-0.095998
0.323444,0.074437,0.533806,0.924918,-0.362556,-0.114372
-0.320119,0.113618,0.905303,0.189804,0.981331,-0.031063
0.344875,0.075659,0.537032,0.932653,-0.360620,-0.010564
0.331942,0.081006,0.573614,0.699889,-0.676702,-0.228538
-0.221409,0.114200,0.890529,0.095303,0.612184,0.784951
0.277839,0.086296,0.617985,0.866060,0.399803,0.300163
-0.215446,0.115885,0.900567,0.532593,0.377970,0.757287
-0.230279,0.118791,0.921260,0.889781,0.429441,-0.154502
0.315895,0.088681,0.625913,0.925102,-0.363249,-0.110613
-0.114256,0.114432,0.871398,-0.012630,0.999844,-0.012338
0.297421,0.091993,0.649780,0.733199,0.598497,-0.322833
-0.115786,0.116756,0.885519,-0.265140,-0.932799,-0.244102
-0.050597,0.115129,0.863402,-0.063167,0.990184,0.124685
0.371374,0.092401,0.638370,-0.013295,0.804890,0.593275
-0.179497,0.124081,0.945127,0.922826,-0.294890,-0.247854
-0.046267,0.119082,0.887612,0.021067,-0.962039,0.272098
0.000449,0.118734,0.876134,-0.035944,-0.964730,0.260775
0.011110,0.120187,0.883289,-0.035944,-0.964730,0.260775
0.597666,0.091702,0.590309,0.421778,0.579628,-0.697234
0.624639,0.092575,0.590738,0.524615,0.600659,-0.603314
-0.356647,0.046186,0.487170,0.798756,0.161167,0.579668
-0.343663,0.047871,0.494822,0.735779,0.170181,0.655490
-0.033386,0.036711,0.365105,0.515962,0.817133,-0.257054
0.210906,0.033571,0.297827,-0.152344,0.935312,0.319347
-0.163556,0.202443,0.370287,-0.482186,0.827618,0.287306
-0.218665,0.212616,0.471058,0.911944,-0.202104,-0.357087
0.231490,0.195292,0.206338,0.311047,0.878592,0.362389
0.241839,0.196978,0.217697,0.789966,0.588954,0.170548
0.315105,0.195989,0.189969,-0.501685,-0.607342,-0.615994
-0.187945,0.228136,0.594101,-0.062821,0.827851,0.557420
-0.162766,0.229007,0.594496,-0.025132,0.871581,0.489607
-0.134418,0.231275,0.607158,-0.037438,0.856957,0.514027
-0.235189,0.243831,0.739879,0.341402,-0.051339,0.938514
-0.200455,0.244180,0.733753,-0.813802,-0.042778,-0.579565
-0.182033,0.245227,0.737030,0.766790,0.328751,0.551322
0.094935,0.235112,0.578796,0.782086,0.167226,0.600314
-0.036186,0.241681,0.668465,-0.636805,-0.556961,-0.533174
-0.001928,0.242031,0.663129,-0.563989,-0.467765,-0.680523
-0.232602,0.251912,0.807654,-0.290447,0.952855,0.087796
0.033279,0.242378,0.657930,-0.159624,0.785939,0.597344
-0.336853,0.257260,0.879926,0.880734,-0.146882,0.450260
0.344189,0.233253,0.498340,-0.553897,-0.674895,-0.487561
0.357333,0.234647,0.506370,0.468523,0.700183,0.538730
-0.272137,0.258190,0.870403,0.894517,-0.213987,-0.392490
-0.273509,0.259701,0.884078,0.120662,0.989592,0.078414
-0.247751,0.260457,0.883340,0.091839,-0.995716,-0.010756
0.086700,0.249063,0.699453,0.916435,0.386413,0.104074
-0.264907,0.262492,0.905526,0.826204,0.469466,-0.311430
-0.187681,0.261387,0.876717,0.600911,0.303730,0.739361
-0.142759,0.261562,0.865684,-0.657386,-0.543418,-0.522055
-0.220459,0.265689,0.920951,0.977793,-0.144763,-0.151541
-0.224999,0.267374,0.936102,0.922708,-0.077140,0.377704
-0.220301,0.268653,0.946071,0.985769,-0.166036,-0.026311
-0.251392,0.271096,0.975464,0.263552,0.964560,0.012794
0.066590,0.260922,0.806333,0.258926,0.938737,-0.227442
-0.212543,0.271328,0.967159,0.370433,0.921244,-0.118695
-0.082689,0.268829,0.911480,0.720774,-0.627799,0.293857
0.818101,0.240576,0.436827,0.155261,0.032720,0.987332
-0.140913,0.272141,0.954856,0.988061,0.149759,-0.036150
-0.142495,0.273711,0.968463,0.420440,0.887352,0.189307
-0.146033,0.275281,0.982413,-0.082852,-0.992119,0.094002
-0.143339,0.276560,0.993068,-0.024264,-0.999502,0.020168
0.010794,0.429967,0.889311,0.926259,0.326312,0.188584
-0.037294,0.431189,0.927248,0.842547,0.538461,-0.013174
-0.019874,0.432060,0.931057,0.829149,0.558431,-0.025823
-0.050439,0.433165,0.959026,0.230480,0.766201,0.599846
0.008736,0.433571,0.940855,0.802488,0.568137,0.182301
0.014857,0.434501,0.950378,0.878397,0.388226,0.278747
0.128454,0.382416,0.185422,0.633750,0.694458,0.340718
0.113727,0.384044,0.212944,-0.696227,-0.388666,-0.603495
0.137691,0.398460,0.400451,0.601029,-0.799207,0.005719
0.390009,0.395263,0.249252,0.285467,0.777947,0.559738
0.165141,0.399216,0.400451,0.673071,-0.733276,0.096337
0.163926,0.400321,0.417558,-0.686339,0.701316,0.192599
0.162605,0.401600,0.434545,0.981152,-0.188142,0.044085
0.146084,0.402936,0.459682,0.129993,-0.984533,-0.117462
