0.179439,-0.283867,0.884469,0.662783,0.629573,-0.405409
0.383866,-0.256135,-0.976341,-0.302244,0.226637,0.925897
0.250235,-0.184046,0.809641,0.971393,0.206357,-0.117529
-0.427219,0.365793,0.790755,0.182102,-0.929886,0.319610
-0.581052,0.339340,0.552328,0.770841,0.636078,-0.034760
0.265696,-0.272626,0.853685,0.024196,0.723291,0.690119
-0.914191,-0.076431,0.631247,0.192557,0.968655,0.156935
-0.893454,-0.174208,0.618225,-0.551297,-0.799240,-0.239346
0.927508,-0.407466,0.314243,0.844072,0.433419,-0.315738
0.022837,-0.610176,0.696905,-0.128015,0.613776,0.779032
-0.176670,-0.249613,0.809232,-0.035359,-0.930259,0.365194
0.215910,-0.498340,-0.942013,0.772196,-0.501604,0.390009
0.387082,0.141358,0.185246,-0.629881,-0.760920,0.155724
0.044646,-0.329113,-0.257040,0.417814,0.908531,-0.002013
-0.268023,0.271214,0.344004,-0.319949,0.928017,-0.190833
-0.106415,-0.037574,0.030749,-0.766899,-0.618001,-0.173032
0.648446,-0.372697,0.744154,0.874093,0.455072,0.169913
-0.345968,-0.092407,0.773573,-0.168382,0.548534,0.818998
0.067350,-0.338576,-0.169155,0.984872,0.170797,-0.029244
-0.388784,0.366823,0.785164,-0.373754,0.876078,-0.304624
0.227976,-0.345472,0.925888,0.928258,0.349124,-0.128257
0.255327,-0.547034,-0.963626,0.095936,-0.180643,0.978859
-0.316292,0.361963,0.771119,0.429063,0.332317,0.839923
0.307172,-0.260355,0.745415,0.914450,0.145787,-0.377528
-0.292068,-0.174208,0.815641,0.377406,0.820187,-0.429952
0.134746,0.233004,0.598691,0.976987,-0.200407,0.073025
-0.671957,0.227762,0.536715,0.992764,-0.008484,0.119779
0.190168,-0.424465,-0.929502,0.575709,-0.786496,0.223569
-0.342662,0.379983,0.662269,-0.125874,-0.975927,0.178108
0.241385,0.444271,0.427559,0.979860,-0.196368,-0.036251
0.059128,0.220733,0.667621,0.332935,0.747673,0.574577
-0.072538,-0.126919,0.678871,0.440372,0.807029,0.393417
0.393519,0.327326,0.539067,0.902563,0.120119,-0.413463
-0.110436,0.483511,0.715347,0.749989,0.416400,0.513934
-0.218505,-0.078857,0.567839,-0.501526,-0.864630,-0.029775
0.047238,-0.073240,-0.016602,0.891132,-0.317455,-0.324200
-0.570146,0.169730,0.545681,-0.143280,0.896271,0.419726
0.299663,0.455013,0.535215,-0.027401,0.943795,-0.329394
-0.510259,0.147880,-0.072305,-0.450265,0.310959,-0.836998
0.029272,-0.364007,-0.071487,0.480484,0.871034,-0.102149
-0.185342,-0.195295,0.511318,-0.515817,0.668404,-0.535882
-0.326393,-0.289492,0.778312,0.688825,0.440737,0.575561
0.451886,0.396342,0.584169,0.136855,-0.783351,0.606327
-0.062615,-0.196449,0.472455,-0.412966,-0.885120,0.214525
0.040178,-0.327584,0.316084,0.958018,-0.149174,-0.244844
-0.853677,-0.263928,0.509716,0.850037,0.523680,0.056546
-0.602771,0.116949,0.475830,0.656116,-0.748257,0.098097
-0.168536,0.546270,0.539886,0.618674,-0.741735,0.258980
0.022123,-0.240283,0.178121,0.935738,-0.333782,-0.113945
0.067707,-0.161173,0.862106,0.981010,0.141783,0.132351
-0.408091,-0.407973,0.461956,0.706433,0.642879,0.296072
0.158792,0.712041,0.271664,0.871687,0.390571,-0.295999
0.079685,-0.194787,0.612293,0.149741,-0.971960,-0.181306
0.001296,0.153122,0.501943,-0.367863,0.774450,-0.514689
-0.019621,-0.312115,0.147713,0.915292,0.396769,0.069387
-0.154682,-0.126661,0.800027,0.890453,0.214096,0.401569
-0.004337,-0.127301,0.447979,0.905942,0.194438,-0.376115
0.050637,-0.308667,-0.379730,0.999094,0.007112,0.041959
0.152535,-0.284640,0.811720,-0.222165,0.973651,-0.051452
0.460468,0.308534,0.580896,0.887326,0.453485,0.083684
-0.267308,-0.173951,0.804255,-0.624814,-0.771598,-0.119347
0.251664,-0.167687,0.840970,0.982416,0.184612,0.027868
-0.338815,0.355574,0.714972,-0.045815,0.945824,0.321431
0.322279,-0.007673,0.768937,-0.054655,0.987225,0.149664
-0.399777,0.374998,0.720359,-0.117026,-0.883432,0.453710
-0.367419,0.091385,0.630497,0.788200,-0.481192,-0.383661
0.392447,-0.463189,0.425036,0.753707,-0.231193,-0.615203
0.236557,-0.582053,-0.967614,0.184806,0.011311,-0.982710
-0.271061,-0.095730,0.553624,-0.284514,0.872910,-0.396332
0.045719,-0.230953,0.451694,-0.382615,0.851074,0.359553
-0.471374,0.083202,0.605100,0.166622,0.938845,-0.301343
-0.454751,0.255495,0.568521,0.200462,-0.971987,0.122701
-0.408178,0.451300,0.848333,-0.668889,0.603364,0.434211
-0.092381,-0.269303,-0.152996,0.046903,0.994764,-0.090799
0.300467,-0.315180,0.813698,0.119480,0.001565,0.992835
-0.191777,-0.271854,0.782539,0.236345,0.960403,0.147539
-0.186594,-0.196698,-0.113861,0.803940,-0.155200,0.574103
-0.577299,0.281059,0.575680,-0.546458,0.147052,0.824475
0.020156,-0.213315,0.491273,0.887826,0.459668,-0.021691
0.252559,-0.829501,0.603259,-0.530000,0.843515,0.087081
-0.409878,0.361448,0.796380,0.928935,-0.237296,0.284202
-0.481298,-0.293712,0.066135,-0.709885,-0.606691,-0.357756
-0.008715,-0.276074,0.077623,-0.581166,0.535605,0.612678
-0.438215,0.286301,0.470103,-0.088307,0.966277,-0.241891
-0.525096,0.328988,0.448694,0.442035,0.757603,-0.480252
0.378770,-0.264318,-0.973682,0.257025,-0.216950,-0.941738
-0.160939,-0.402224,0.844617,0.282547,0.944655,0.166712
0.242010,-0.105060,-0.985989,0.038321,0.218720,0.975035
0.074860,-0.137653,0.463319,0.383913,-0.366119,-0.847684
-0.551553,0.404268,0.739245,-0.472628,-0.630106,-0.616108
0.037227,-0.202581,0.525977,0.735099,0.677703,0.018622
0.167284,-0.454756,-0.965808,-0.800653,0.448691,0.397027
-0.184895,-0.136373,0.605918,0.821270,0.377962,0.427388
0.125450,-0.431619,-0.804970,0.991144,0.118861,0.059216
0.511686,-0.371036,0.510193,-0.661787,-0.377248,0.647859
0.139842,-0.344707,0.710370,0.318776,-0.893197,-0.317146
0.109451,-0.520964,0.400184,0.988533,-0.017211,-0.150020
0.142524,-0.543836,0.679689,0.796024,-0.523037,-0.304594
-0.033656,0.572980,0.519806,0.142559,0.839962,-0.523585
0.115352,-0.459101,-0.514863,0.779820,0.599902,-0.178879
-0.737566,0.190185,0.595487,-0.368208,-0.929713,-0.007580
0.135284,-0.670119,-0.967444,-0.135767,0.127104,0.982554
0.039998,-0.294477,-0.321436,0.690953,-0.722534,0.022976
0.170503,-0.586780,-0.967614,0.246349,0.100528,-0.963954
0.073340,-0.335634,-0.115770,0.994391,0.087583,0.059299
-0.267488,-0.078857,0.625793,-0.341212,-0.225207,0.912610
0.452067,0.280934,0.552158,0.893717,-0.254538,0.369432
0.209563,0.406187,0.408911,0.937704,0.182719,-0.295508
0.209205,-0.347009,0.666496,0.742935,0.353915,-0.568147
-0.567822,0.323746,0.496966,-0.280943,0.957575,-0.064195
-0.186594,-0.403504,0.931513,0.847937,-0.435608,0.302072
0.331305,-0.079496,0.884128,0.042066,-0.844952,0.533185
0.123129,0.088319,0.084032,0.856531,0.321473,-0.403744
-0.155576,-0.577583,0.639020,0.607596,0.789884,-0.083130
0.373227,-0.428428,-0.967001,-0.235278,0.137412,0.962165
0.120982,-0.873085,0.683985,0.523427,-0.265803,0.809551
-0.337209,-0.078225,0.548135,0.688377,0.724213,0.040657
-0.710482,0.037324,0.594328,-0.593079,-0.595855,-0.541493
-0.079151,-0.274795,0.929604,0.380200,0.564476,0.732676
-0.377343,0.366433,0.649894,-0.108146,0.979197,-0.171691
0.850278,-0.803680,0.325936,0.979653,-0.196527,-0.040719
-0.847242,-0.177914,0.639429,0.270604,0.899652,0.342637
0.423730,0.178429,0.220666,-0.761009,0.641884,-0.094073
0.082904,-0.341642,-0.487421,0.774862,-0.096611,0.624704
0.504356,0.072600,0.127361,0.268029,0.940419,-0.209220
-0.466191,0.364771,0.706586,0.830926,-0.053176,0.553835
-0.228158,0.073365,0.708905,0.691349,0.709158,-0.138316
-0.343376,0.744634,0.544965,0.733867,-0.032181,-0.678531
0.240581,-0.296396,0.851913,-0.785187,0.304278,0.539348
-0.179889,-0.539624,0.539817,-0.532848,0.835947,0.131399
0.360087,-0.106215,-0.995091,-0.343038,-0.088981,0.935097
-0.123041,0.025053,0.775380,0.327660,0.855931,-0.400026
0.297876,0.026839,-0.010909,-0.950257,0.154238,0.270596
0.239239,-0.371675,0.379730,0.545779,0.611466,-0.572918
-0.243622,0.343045,0.556999,0.293759,0.857024,-0.423339
0.181049,-0.560070,0.713609,0.927090,-0.325851,-0.185270
-0.123486,-0.026714,0.761403,0.107324,-0.941996,0.318003
-0.408178,-0.260604,0.023693,-0.642104,0.628097,-0.439541
-0.410950,-0.366823,0.418559,0.743228,0.032707,0.668238
-0.022927,-0.128447,0.621702,0.395925,-0.889603,0.227705
-0.520181,0.339598,0.849799,-0.007496,0.401695,0.915743
-0.227083,0.903119,0.571248,0.297103,0.871311,-0.390572
-0.065566,-0.476100,0.027784,0.548103,-0.833839,-0.065541
0.613049,-0.597772,0.506000,-0.303487,-0.836509,-0.456232
0.443127,-0.494760,0.598316,0.572754,0.218885,-0.789963
-0.272671,0.687881,0.462433,0.451915,0.855837,-0.251628
0.878434,-0.458337,0.216370,-0.470683,-0.612109,0.635437
0.101407,-0.497318,0.755301,0.744841,0.147937,-0.650635
-0.650235,0.325922,0.469012,0.749954,-0.604598,0.268386
0.103821,-0.466895,-0.644747,0.641562,0.764734,-0.059824
-0.266593,0.418200,0.731574,0.883417,0.376302,0.279232
0.153339,0.812885,0.518102,-0.068891,-0.902295,0.425579
-0.130281,0.645834,0.735801,-0.451219,0.802738,-0.389888
0.157006,-0.389953,-0.622452,0.920579,-0.246985,0.302542
-0.365633,0.841897,0.502557,0.751243,0.511665,-0.416932
-0.706011,-0.184942,0.619281,0.234551,0.938679,0.252721
0.233161,-0.902097,0.523079,0.301286,0.951456,0.062909
-0.067890,-0.148262,0.870935,-0.511522,0.780033,-0.360408
-0.081298,-0.213315,0.760994,-0.276006,0.953632,-0.120031
0.724871,-0.459101,0.131315,0.371376,0.907556,-0.196016
-0.350169,-0.269552,-0.038965,0.872905,-0.258585,0.413727
0.296357,-0.022369,-0.985750,-0.081924,0.262499,0.961448
0.185072,-0.373337,-0.907991,0.627842,-0.721287,0.292504
0.581317,-0.449638,0.531533,0.991836,0.015417,-0.126583
-0.386012,-0.150181,0.824163,0.900370,0.207902,0.382244
-0.217432,0.126661,0.757960,0.769821,0.631299,0.094001
-0.809879,-0.238621,0.399877,-0.385972,0.919761,-0.071170
-0.745254,-0.170628,0.602475,0.060676,0.938597,0.339639
-0.392717,-0.061476,0.791471,0.746784,0.247404,0.617337
-0.584001,-0.282081,0.637145,-0.369341,-0.924873,-0.090532
-0.318079,0.855954,0.596237,0.156057,0.969694,-0.187989
0.532246,-0.505112,0.509102,-0.629286,-0.537523,0.561309
-0.664360,0.222262,0.578680,-0.100991,0.873988,0.475337
0.015150,-0.259333,0.361969,0.943505,-0.294876,-0.151152
-0.262570,-0.582825,0.554408,0.964282,-0.251798,0.082205
-0.539218,0.286043,0.556931,0.806062,0.587200,-0.073890
-0.132692,0.629475,0.853685,0.769005,-0.424966,-0.477530
-0.909453,-0.120140,0.503307,0.736527,0.676381,-0.006134
0.185697,0.199514,0.583248,0.852135,-0.196971,0.484839
-0.246391,0.300866,0.328902,0.879121,0.447913,-0.162850
0.004692,0.365793,0.676076,0.464401,0.562592,0.683975
-0.011487,-0.232365,0.614850,0.463930,0.880296,-0.099241
0.047060,0.251407,0.010534,-0.810088,-0.412020,0.417129
0.511506,0.281059,0.485000,0.974630,0.006151,-0.223740
0.263375,-0.142895,-0.985444,-0.045706,0.076339,0.996034
-0.146102,-0.296911,0.336027,-0.222973,0.825438,-0.518590
-0.238794,0.552401,0.621191,-0.272736,0.131170,0.953105
-0.316292,-0.166025,0.695439,-0.352424,-0.395844,0.848000
0.028200,-0.334480,-0.292221,0.869253,0.483004,-0.105386
-0.044382,0.822979,0.073976,0.885052,0.334325,0.323897
-0.050192,-0.134072,0.766483,0.235121,0.630230,0.739952
0.711017,-0.398519,0.615907,0.780954,-0.624543,0.007595
0.030077,-0.247701,-0.994443,-0.057870,0.090486,0.994215
0.088624,-0.268405,-0.987625,-0.043456,-0.042668,0.998144
-0.594997,0.168583,0.556351,0.843868,0.536496,-0.007626
0.166212,-0.146343,0.496421,-0.613555,0.493457,0.616482
0.425162,-0.405547,-0.053862,0.401428,-0.907725,-0.122025
-0.423108,-0.206926,0.845913,0.378398,-0.879640,0.288181
0.665339,-0.329371,0.636088,-0.118278,-0.719444,0.684405
-0.113565,0.173186,0.922888,-0.427380,0.110923,0.897242
0.004782,-0.211911,0.795493,-0.595522,0.721431,-0.353398
0.267575,-0.375256,0.405911,0.257967,0.962568,0.083157
0.013718,-0.299977,0.832174,0.237647,0.685953,0.687744
-0.425252,0.114008,0.283903,0.405172,-0.799626,0.443209
0.117586,0.405929,0.601691,0.863344,0.371592,0.341403
0.054123,-0.179958,0.607111,0.268696,0.883306,-0.384151
-0.761075,-0.161173,0.588498,-0.166072,0.873951,0.456761
0.264537,-0.463064,0.584782,0.805839,-0.436047,-0.400609
-0.594279,-0.254473,0.115532,-0.886494,0.236240,-0.397894
0.195531,0.333973,0.299039,0.971677,0.041915,-0.232568
0.005496,-0.105442,0.815675,-0.676820,0.736062,-0.011300
0.091753,-0.319783,-0.523011,-0.637980,0.769698,0.023365
-0.424180,0.441205,0.818709,-0.389356,-0.306095,-0.868739
0.036335,-0.469453,0.448933,0.913915,-0.389160,0.115386
0.007193,-0.329628,0.116350,-0.781064,0.582166,0.225878
0.315307,0.153372,0.679723,0.444409,0.876578,-0.184696
0.076826,-0.388034,0.378571,-0.554842,0.134768,0.820968
-0.265521,0.376403,0.722438,0.366391,-0.148100,-0.918599
-0.052336,-0.312247,-0.120577,0.874493,0.469933,-0.120105
0.031864,0.012267,0.942660,0.772569,-0.510256,-0.377857
-0.963979,-0.175745,0.578373,0.786905,0.125738,0.604128
-0.663018,0.296520,0.522500,0.969646,-0.244253,-0.011310
-0.088627,0.192353,0.867526,0.738087,0.674302,-0.023330
0.311463,-0.832442,0.567669,-0.426867,0.901549,0.070667
-0.029722,-0.208080,-0.110145,0.791032,0.531033,0.303763
0.576939,0.066718,0.150644,0.442555,0.377307,-0.813502
-0.435801,0.353140,0.851947,0.952829,-0.273065,0.132489
0.199017,-0.173951,0.512307,-0.752963,0.117092,0.647562
0.018099,-0.231085,0.175769,0.670849,-0.741468,0.013674
0.384490,0.205139,0.186473,-0.607528,-0.755032,0.246650
0.455463,0.256516,0.405127,0.841498,-0.527931,-0.114760
0.035797,-0.241820,0.527818,0.875458,0.420742,-0.237800
0.821406,-0.439419,0.192439,0.045826,-0.951397,0.304539
-0.039019,0.177789,0.580248,0.978468,-0.146025,0.145868
-0.257922,0.330010,0.511386,-0.424047,-0.901491,-0.086586
-0.805678,-0.236835,0.653031,0.319083,0.515582,0.795211
0.043484,-0.651201,0.713302,0.432749,0.255730,-0.864482
-0.358928,0.717665,0.467546,0.752188,-0.657997,0.035412
0.028110,-0.259458,0.456808,0.386863,0.782858,0.487310
0.002101,-0.197089,0.597191,0.494522,-0.724259,0.480518
0.025876,-0.215874,0.721620,-0.501404,-0.812649,-0.296978
-0.083799,-0.608514,0.633497,0.104589,-0.960256,0.258783
-0.302170,0.558283,0.803096,-0.552209,0.812788,0.185585
-0.534212,0.030802,0.505591,0.829267,0.443626,0.339871
-0.463687,-0.450411,0.473376,-0.220808,-0.799688,-0.558339
-0.787085,-0.308667,0.351640,0.939269,0.040593,0.340772
0.130368,0.296138,0.620338,0.782924,-0.066202,0.618584
0.235038,-0.223924,0.681598,-0.670404,0.566267,0.479479
0.151283,0.266362,0.208632,0.984149,-0.128702,-0.122013
0.364558,-0.135227,-0.984182,-0.174631,0.373503,0.911043
-0.236293,-0.129220,0.624736,0.587185,0.478118,0.653160
0.670167,-0.316842,0.685041,0.702345,0.689982,-0.175032
-0.251667,-0.744376,0.717870,0.724460,-0.136986,0.675568
0.640044,0.182774,0.568419,0.508499,0.727421,-0.460747
0.131978,-0.069527,0.750085,0.884514,-0.440563,0.153423
-0.303242,0.372572,0.258812,-0.475785,-0.848763,0.230716
0.019886,-0.280295,0.266380,0.846229,0.317387,-0.427973
0.101407,-0.037706,0.355219,0.412245,0.376910,-0.829453
0.100782,-0.427531,-0.617611,0.630281,0.687074,0.361491
0.337206,0.092149,0.622384,-0.536481,0.835813,-0.116638
0.106860,-0.159636,-0.990557,0.374547,-0.060135,-0.925256
0.143238,-0.529271,0.745517,0.379663,0.732849,-0.564613
-0.238704,-0.655039,0.796380,-0.426145,0.902800,-0.057907
-0.379664,-0.196574,0.849663,0.096653,-0.992960,-0.068473
0.027396,-0.162577,0.797845,0.311559,-0.631559,0.709975
0.403260,0.206544,0.275517,-0.700675,0.709822,0.072163
-0.483175,-0.337554,0.508591,0.858773,-0.449483,0.245916
-0.255597,-0.697211,0.766551,-0.688570,-0.724749,-0.024705
0.450815,0.380366,0.587100,-0.366359,0.834446,-0.411680
-0.313610,-0.259840,0.698473,-0.601564,-0.792988,-0.096388
0.919464,-0.754222,0.282130,0.982649,-0.148441,0.111205
-0.187934,0.246804,0.281857,-0.442559,-0.827788,0.344832
-0.449028,-0.084996,0.805482,0.987015,0.111643,0.115488
0.871285,-0.560709,0.252506,0.973355,0.203249,-0.106158
0.867708,-0.480063,0.232870,0.835179,-0.202930,-0.511171
-0.150838,0.728275,0.809914,0.339230,-0.923178,-0.180735
0.138056,-0.535785,0.771801,0.843887,0.249022,-0.475228
0.035977,-0.750898,-0.973751,-0.279869,0.186446,0.941760
-0.209923,0.126279,0.176826,0.678386,-0.451608,0.579519
0.175596,-0.250510,-0.111543,0.543565,0.041739,-0.838329
-0.428648,-0.188141,0.876832,-0.388258,0.679570,-0.622447
0.873429,-0.574385,0.235154,-0.595996,0.610699,0.521378
0.142256,-0.059050,0.865378,0.345500,-0.937867,0.032176
0.636468,0.175230,0.575067,0.508499,0.727421,-0.460747
0.240133,-0.175745,-0.988307,-0.060355,0.048636,0.996991
0.323529,-0.245658,0.783323,-0.783755,0.604711,-0.141607
-0.013811,-0.337803,0.410616,0.465214,-0.210023,-0.859922
0.109451,-0.444911,-0.596236,0.812018,0.566773,-0.139265
0.384670,0.193633,0.277460,-0.700675,0.709822,0.072163
-0.264537,-0.254988,-0.084134,-0.264617,0.958471,-0.106358
0.222613,-0.199257,0.891491,0.407405,0.738494,0.537260
0.250949,-0.387652,-0.141338,-0.526548,0.668972,0.524617
0.557361,0.144299,0.518818,-0.683375,-0.526598,0.505661
0.186412,-0.135609,0.876832,0.491396,0.607302,0.624271
0.077451,-0.389571,-0.523284,0.779479,0.086550,-0.620420
0.052691,-0.349185,-0.099441,0.926583,-0.372759,-0.049943
0.088000,-0.394680,-0.610077,0.967667,0.228761,0.106251
0.141004,0.357742,0.589214,0.836645,0.358591,0.414050
-0.237097,0.130749,0.698268,0.768358,-0.601429,0.218882
0.273743,-0.556747,-0.426774,0.075229,0.954986,0.286954
0.013808,-0.275692,-0.022022,-0.391183,0.833339,-0.390542
0.226636,-0.514184,0.826652,0.966648,0.044833,-0.252156
0.138503,0.167304,0.077896,0.965104,-0.080617,-0.249147
0.120625,-0.365669,-0.219472,0.176583,0.892952,0.414071
0.078971,0.302527,0.038317,-0.492930,-0.517800,0.699216
-0.303062,0.452197,0.829141,0.989401,-0.018849,-0.143982
-0.028738,-0.165261,0.629884,0.840656,0.541541,0.005588
-0.127509,-0.116949,-0.017113,0.782371,-0.259652,0.566106
0.057429,-0.294477,0.531533,0.847055,0.531475,0.005659
0.227261,-0.328091,0.858969,0.787004,-0.155194,-0.597109
-0.013096,-0.480445,0.988648,-0.386518,0.514737,0.765278
0.026413,0.774793,0.115088,-0.788163,-0.419705,0.450164
0.227708,-0.272493,0.911195,0.060852,0.997330,-0.040370
0.382433,-0.331289,-0.967955,-0.195732,0.101390,0.975402
-0.383598,0.452073,0.796346,0.969465,-0.218594,0.111148
-0.284292,0.053550,0.225063,0.754956,-0.473435,0.453763
0.080133,-0.411554,-0.485853,0.712584,0.138960,0.687687
-0.382079,-0.032464,0.739961,0.550630,0.824381,-0.131158
-0.303062,-0.643408,0.788471,0.506013,0.857631,-0.091762
0.190793,-0.657208,-0.966694,-0.137464,0.162408,0.977101
-0.240314,-0.357875,0.725847,-0.712798,-0.380672,-0.589074
-0.221901,0.531572,0.773914,-0.831794,0.119357,-0.542101
-0.373320,-0.049720,0.668746,0.933903,-0.260027,0.245379
0.096939,-0.381778,-0.419377,0.862769,0.311176,-0.398496
-0.114370,-0.514575,0.091021,-0.899293,0.024216,-0.436676
0.117853,0.130882,0.150372,0.834184,-0.551099,-0.020639
-0.286883,0.452073,0.755949,0.781422,-0.617322,-0.091068
-0.371176,0.834993,0.506341,0.739631,0.530442,-0.414219
0.888268,-0.420627,0.235290,0.811437,0.577184,-0.091807
-0.276695,-0.143402,0.663258,0.758467,0.504222,0.412902
-0.364648,-0.348288,0.794198,-0.206200,-0.977969,-0.032526
-0.158168,-0.282596,0.346935,-0.195101,0.971674,-0.133358
-0.482013,-0.147498,0.860196,0.992269,0.077665,0.096804
0.317988,-0.365162,-0.971876,0.216951,-0.193076,-0.956898
0.129206,-0.629725,0.779335,-0.587247,0.732847,0.343621
-0.050997,-0.000769,0.777562,0.435250,0.497016,-0.750688
-0.260246,-0.638166,0.654906,0.878590,-0.329550,-0.345653
-0.143688,-0.354294,0.408400,-0.861021,-0.060983,-0.504899
-0.091756,-0.323746,-0.220359,-0.689625,-0.631617,-0.354228
-0.437140,-0.072982,0.873423,-0.663516,0.748018,-0.014707
-0.274371,-0.387395,0.362140,0.715612,-0.119925,0.688126
0.133675,-0.381263,-0.482103,0.842186,-0.486758,0.231926
-0.006391,-0.345729,0.083010,0.740946,0.526721,-0.416609
0.045898,-0.759074,0.678871,0.968927,0.247211,0.008157
-0.051711,0.776204,0.069237,0.897774,0.262745,0.353508
-0.199287,-0.812885,0.761744,0.877965,0.454219,-0.151205
-0.084336,-0.253194,0.436183,0.048900,0.949805,0.308999
0.087552,-0.268148,0.708529,0.667038,0.134641,0.732757
0.546815,0.076305,0.144645,0.442555,0.377307,-0.813502
0.406569,0.245018,0.262869,-0.655773,0.745810,0.117173
-0.325855,-0.299977,0.847890,0.768625,0.594674,0.235752
-0.071196,-0.113244,0.763244,0.652799,0.742978,0.147773
0.002545,-0.273391,0.949104,0.871399,-0.142808,-0.469328
-0.290997,0.100590,0.634418,-0.665296,0.352002,0.658389
-0.388069,0.317357,0.757074,-0.350437,0.575297,0.739072
-0.238974,0.342663,0.822220,-0.267254,0.003494,0.963620
0.346412,0.287705,0.588498,0.204942,0.113525,0.972168
-0.177118,0.462292,0.686814,0.694719,-0.030003,0.718656
0.360714,-0.220734,-0.976376,0.155131,-0.214747,-0.964271
-0.347220,0.779777,0.511079,0.485345,0.830243,-0.274110
-0.102302,-0.001915,0.789323,-0.610672,-0.789988,-0.054757
0.487016,0.070041,0.542340,0.659963,0.744186,0.103131
-0.154147,0.047676,0.874787,0.213254,-0.975332,0.057009
0.059306,-0.253194,0.791062,0.849568,-0.301686,0.432689
0.179172,-0.496679,-0.911775,0.868212,0.473027,0.149844
-0.752670,-0.332694,0.289698,0.895372,0.357757,0.265176
-0.210727,0.059689,0.167519,0.801953,-0.181374,0.569188
-0.363398,0.336399,0.658212,-0.310075,-0.950547,0.017735
-0.334794,0.363749,0.774153,-0.003899,0.985027,0.172359
0.574524,-0.407716,0.028056,0.811676,0.130530,-0.569336
-0.463957,-0.382027,0.450706,0.995102,-0.014925,0.097717
0.125897,-0.358765,-0.494546,0.966705,-0.000754,-0.255893
0.119015,-0.315820,0.660531,0.896276,0.211125,-0.390021
0.112313,-0.166158,0.785096,-0.706276,0.707853,-0.010817
-0.087912,0.455645,0.525397,-0.323097,-0.795849,0.512087
0.098993,-0.339855,-0.605475,0.869075,-0.480083,0.119281
-0.100605,-0.285919,0.393366,0.925782,-0.315883,0.207714
-0.167822,-0.181877,0.582566,0.472079,0.881469,-0.012415
0.308869,-0.116052,-0.985409,0.224509,0.246730,0.942719
0.079151,-0.018024,0.038045,0.497425,0.647224,-0.577641
-0.602951,0.333458,0.484830,0.316449,-0.693994,-0.646709
0.338101,0.382159,0.618668,0.865373,0.464403,-0.188306
-0.106415,0.055726,0.818334,-0.187109,-0.890785,0.414116
-0.177655,0.346369,0.675564,0.423466,-0.425955,-0.799524
0.058771,-0.096885,0.853345,0.446479,0.751319,-0.485979
0.145832,-0.386373,-0.614679,-0.300436,0.470343,0.829769
0.021675,-0.206926,0.668883,0.191335,0.964419,0.182446
0.395216,-0.405290,-0.073464,-0.234795,0.954593,0.183366
-0.622883,0.018024,0.296107,0.141655,-0.985773,0.090477
0.189006,0.041154,-0.052840,0.441626,0.807570,-0.390893
-0.155844,-0.076048,0.892923,-0.444287,-0.337200,-0.830003
0.152087,-0.381006,-0.984114,-0.175814,0.103642,0.978952
-0.436963,-0.399540,0.466592,0.747067,-0.555618,-0.364938
-0.790124,0.180854,0.601486,0.354333,-0.934396,-0.036775
0.837853,-0.678809,0.275960,0.959970,0.091373,-0.264782
0.332468,-0.001665,0.022397,-0.897350,0.370446,0.239859
0.214478,-0.086782,-0.077691,0.535514,0.726600,-0.430437
0.098635,-0.265980,0.874991,0.315401,0.948940,0.005907
-0.014349,-0.250003,0.897764,0.636483,-0.208775,0.742497
-0.359912,0.392512,0.752676,0.875010,0.310159,-0.371698
0.066101,-0.138932,0.888389,0.173074,0.976206,-0.130638
-0.443665,0.492716,0.832311,-0.114838,-0.734098,0.669263
-0.319063,0.315180,0.316527,0.083944,0.937037,0.338990
-0.543779,0.351736,0.798800,0.079987,0.994203,-0.071853
-0.229050,0.596110,0.757347,0.983229,-0.018226,-0.181460
0.178547,-0.643658,-0.964614,0.003357,0.014229,0.999893
0.424000,0.277220,0.303777,0.059417,-0.983057,0.173402
0.380647,-0.170246,-0.981455,0.285710,-0.202681,-0.936638
-0.147979,-0.202713,0.497580,0.425274,0.784397,-0.451512
-0.286525,0.375256,0.565249,-0.004411,-0.918236,0.396009
-0.082994,-0.144424,0.496796,0.087519,0.620532,0.779282
-0.203488,0.506009,0.734677,-0.675486,0.730819,-0.098097
0.068869,-0.059050,-0.018238,0.939369,-0.294819,-0.175122
-0.122057,-0.309306,0.382287,0.956185,0.234605,0.175132
-0.464044,0.347266,0.794505,-0.025594,0.996488,-0.079728
0.108827,-0.162834,0.616997,-0.523865,0.123360,0.842821
-0.421766,0.423567,0.730074,-0.621759,0.717561,0.313882
0.056981,-0.158232,0.436217,0.999791,-0.010967,-0.017248
-0.392090,0.039368,0.751892,0.907197,0.358051,0.220890
-0.373857,-0.268148,-0.005795,0.481845,-0.812027,0.329299
-0.134572,-0.114647,-0.187087,0.623520,-0.027613,0.781319
-0.396203,-0.007797,0.785266,0.968395,-0.049001,-0.244561
-0.393252,0.463704,0.759222,0.695982,0.578169,-0.425829
0.043664,-0.181237,0.856856,0.819213,0.126304,0.559408
-0.601164,0.151070,0.543260,-0.106885,0.882055,0.458862
-0.125900,-0.263928,0.443956,0.042888,-0.895814,0.442356
0.017384,-0.544351,-0.171985,0.992218,-0.121298,-0.028121
0.224489,-0.415260,0.382116,0.451846,0.606675,-0.654050
-0.188558,-0.561224,0.620134,-0.169831,-0.825070,0.538904
0.038212,-0.041919,0.895957,0.843022,0.459276,-0.279964
0.052246,-0.411937,-0.561874,0.851478,0.519464,0.071708
0.031954,-0.125639,0.904718,0.718910,-0.625298,-0.303597
-0.168626,0.404143,0.740711,-0.410965,0.905398,-0.106591
-0.299131,0.419605,0.774903,0.722848,-0.473308,0.503458
-0.135734,0.065439,0.933797,0.441052,-0.817723,-0.369868
-0.000046,-0.530036,0.524647,0.308755,-0.877651,-0.366604
-0.013811,-0.217660,0.732972,-0.105256,-0.970945,-0.214911
0.050099,-0.502171,-0.982546,-0.119568,0.312298,0.942430
0.460916,-0.418200,-0.034226,0.803591,-0.190222,-0.563966
-0.144136,-0.364647,0.870424,-0.752316,0.585889,-0.301256
-0.030794,0.144299,0.540908,0.145726,-0.624312,0.767462
-0.147622,0.578729,0.646860,0.491563,-0.658574,0.569777
0.106502,-0.218690,0.632952,-0.015507,0.999585,0.024274
-0.122147,-0.180980,0.899230,0.450837,0.245728,0.858116
0.138056,-0.382800,-0.983500,-0.146771,0.090039,0.985064
-0.441521,-0.417818,0.464580,0.063263,0.715313,0.695935
0.099083,0.457821,0.623952,0.650367,0.516361,0.557131
-0.169431,-0.510736,0.663565,-0.687127,-0.436025,0.581153
-0.664447,0.120272,0.538215,-0.784798,-0.473802,-0.399504
-0.203398,0.278500,0.638440,-0.148569,0.206928,0.967010
-0.279466,-0.232232,0.668780,-0.534360,-0.677403,-0.505554
-0.205632,0.088701,0.944945,0.566925,-0.682892,-0.460711
-0.458414,0.277860,0.714291,0.924028,-0.341270,0.172358
0.304491,-0.006900,-0.991512,-0.137002,0.230836,0.963299
-0.392090,0.225204,0.796823,0.471581,-0.604625,-0.641903
-0.421766,0.326562,0.791300,-0.588200,-0.758231,-0.281260
-0.096762,-0.422421,0.892514,-0.667336,-0.721810,0.183449
0.090234,-0.386630,-0.980500,-0.125958,-0.022341,0.991784
-0.416226,0.475717,0.397048,0.618448,-0.368231,0.694210
-0.590616,-0.316078,0.145054,-0.743704,0.615225,-0.261540
-0.627441,0.336142,0.514318,0.430798,-0.898626,0.082975
-0.277229,0.325025,0.831867,-0.575947,-0.348600,-0.739434
-0.252291,0.569017,0.706007,-0.374780,0.641872,-0.668984
0.445629,-0.548821,-0.318640,-0.003240,-0.985315,0.170717
-0.378683,0.406187,0.699087,0.234703,0.889739,0.391510
0.053495,-0.321195,0.487012,0.988783,0.075600,0.128817
-0.068605,-0.435839,0.973205,0.411340,-0.649868,-0.639118
0.169518,0.355956,0.566101,-0.624541,-0.469590,-0.624047
-0.409073,0.441330,0.696564,-0.623104,-0.176626,-0.761935
-0.307085,-0.208970,0.369026,0.089430,0.959822,0.265977
-0.252559,-0.172422,0.831015,0.710510,0.646452,-0.277984
0.138233,-0.348795,-0.764710,0.984733,0.167663,0.046800
0.019886,-0.418583,0.961444,0.870758,-0.090100,-0.483387
0.242992,0.469328,0.474842,0.952813,-0.298550,0.054902
0.031954,-0.332054,0.051715,0.846561,0.465754,-0.257698
0.274278,-0.777991,0.591805,0.354823,-0.934902,0.007618
-0.467263,0.044992,0.814413,0.908764,0.417309,0.000724
-0.839465,-0.157850,0.582566,-0.759784,0.555206,0.338340
0.212959,-0.388167,-0.158587,-0.200011,0.953791,0.224226
0.126435,-0.228651,-0.982546,-0.433533,-0.063769,0.898879
0.266323,0.502685,0.620645,0.094867,0.502777,-0.859195
0.044112,-0.448492,-0.982307,0.015443,0.280093,0.959849
0.970681,-0.577450,0.304800,0.872630,-0.482574,0.075098
0.527775,-0.730186,0.552567,0.353854,0.816132,0.456854
-0.393162,0.904905,0.526181,0.705266,0.676692,-0.211394
-0.012201,0.701689,0.066271,0.906897,0.421112,-0.014221
0.055552,0.581546,0.109361,0.952384,0.280223,-0.120163
0.099888,-0.089848,0.927252,-0.709741,0.286808,-0.643435
0.025966,-0.267766,-0.060101,0.969718,0.231997,-0.076311
0.028467,-0.212933,0.417775,0.998553,-0.027035,0.046490
-0.312715,0.872695,0.546669,0.109114,0.790930,-0.602099
0.177385,-0.405547,-0.982819,0.419120,0.131502,-0.898357
0.408983,-0.170121,-0.978012,-0.277832,0.301079,0.912228
-0.157901,0.016745,0.780903,0.298779,-0.783999,0.544130
-0.357231,-0.044478,0.688587,-0.730266,0.673181,-0.116356
-0.186504,-0.058793,0.734302,0.946770,-0.234541,0.220494
-0.228693,-0.400945,0.351128,-0.685366,0.369629,-0.627414
0.289652,-0.172804,0.718382,-0.702167,0.575864,0.418740
0.067888,-0.264958,-0.354231,0.824307,-0.551282,-0.128864
0.116601,-0.295631,-0.481114,-0.087525,0.990656,-0.104596
-0.026861,-0.143152,0.640451,-0.064885,-0.987621,0.142810
0.099530,-0.026075,0.027681,-0.985568,0.003371,0.169244
-0.129209,-0.009201,0.030511,0.984723,0.155071,-0.079205
0.460021,0.323106,0.418763,0.692551,0.718731,-0.061639
-0.309677,-0.344840,0.834561,0.926615,-0.227312,-0.299522
0.006569,-0.211146,0.482853,0.884522,0.409267,-0.223880
0.037317,-0.330010,0.272176,-0.444122,0.893264,-0.069531
-0.591153,0.100840,0.371276,0.909661,0.413910,0.034577
-0.373944,0.424972,0.755574,-0.651488,0.756895,0.051699
-0.032939,-0.254348,0.741631,-0.070618,-0.696236,0.714331
0.178547,-0.027736,0.428547,-0.115849,0.897293,-0.425962
0.347127,-0.299461,-0.976171,-0.183028,0.206864,0.961097
0.119105,-0.132543,0.620884,-0.610257,0.003410,0.792196
0.049652,-0.489775,-0.979444,-0.087833,0.345465,0.934312
0.425072,-0.131646,0.847856,0.978196,-0.006868,-0.207572
0.333540,-0.328349,0.670349,0.964899,0.187219,0.184173
0.174791,-0.488113,-0.978625,-0.667783,0.278908,0.690127
-0.339443,-0.123213,0.626270,-0.655822,0.216175,-0.723302
-0.184538,0.075791,0.163837,-0.621526,0.732741,-0.277121
-0.108382,-0.184178,0.752472,0.013454,0.820621,0.571315
0.247283,-0.443889,-0.945217,-0.658102,0.290771,-0.694518
-0.288492,0.330907,0.450433,0.056360,-0.986118,-0.156189
-0.225744,0.258818,0.333640,0.527608,0.697229,-0.485284
-0.496762,-0.312629,0.386719,0.633881,-0.771902,-0.048603
0.071283,-0.259458,0.689848,0.198330,0.850084,0.487876
0.231552,-0.498208,-0.943274,0.837061,-0.370251,0.402793
0.081652,-0.352376,-0.386718,0.978943,0.161874,0.124369
0.101584,-0.836655,0.708973,-0.206226,-0.406183,0.890217
0.129296,-0.043713,0.876355,0.068369,0.984478,0.161643
0.093183,-0.406312,-0.655178,0.979224,-0.138607,0.148015
-0.030437,-0.247827,0.275142,-0.345565,0.936973,-0.051631
0.284826,-0.265980,0.535283,-0.553101,0.147810,0.819897
0.007016,0.063270,0.476751,-0.532416,0.695064,-0.483135
-0.536359,0.319783,0.431922,0.080742,-0.821418,0.564582
0.034993,-0.175613,0.350992,0.919549,-0.369582,0.133562
-0.285186,-0.693381,0.748960,0.452310,0.887011,-0.092880
-0.361432,0.763294,0.563885,-0.689633,-0.061754,0.721521
-0.544671,0.214336,0.368003,0.916505,-0.293571,0.271727
0.160044,-0.183414,0.883241,0.232383,0.412308,0.880909
0.024267,-0.151203,0.720802,0.649550,0.738681,0.180096
-0.400404,-0.055602,0.699836,-0.313301,0.936933,-0.154914
0.318256,-0.182641,0.729427,0.651398,-0.280139,-0.705126
-0.120270,0.569400,0.646724,-0.441709,0.447141,0.777791
0.159417,-0.341127,-0.986432,0.123317,0.146582,0.981482
-0.342034,0.772241,0.538317,0.564902,0.014314,-0.825034
0.022123,-0.309564,0.009341,0.974544,0.158114,0.158945
0.077094,-0.039493,0.934445,0.443209,0.831045,-0.336049
-0.162458,0.090363,0.114986,-0.141672,-0.948891,0.282019
-0.035890,-0.028758,0.905195,-0.607878,-0.752175,0.254395
-0.373857,0.845088,0.516670,0.730830,0.610939,-0.304371
-0.218682,0.231467,0.197825,0.958527,0.197818,0.205166
-0.304314,-0.357360,0.775005,0.981848,-0.084508,0.169804
-0.292693,0.932895,0.577862,0.085515,0.958592,-0.271639
-0.240136,-0.212425,0.813254,0.293638,0.942323,-0.160636
0.009787,-0.329753,0.122656,0.904176,-0.377335,0.200208
-0.109364,0.417178,0.650610,0.808151,0.486937,0.331336
0.824715,-0.439162,0.214802,0.871755,-0.388440,-0.298593
-0.063689,-0.319018,0.923366,0.985796,0.142202,0.089357
-0.267933,0.524029,0.778483,-0.748959,0.615049,-0.246525
0.292513,-0.071828,0.888423,-0.835436,-0.285518,0.469602
-0.315577,0.689286,0.530749,-0.148398,-0.969901,0.193053
-0.128492,0.538219,0.524170,-0.196648,-0.804841,0.559964
-0.089074,0.488628,0.510500,-0.059376,-0.757797,0.649783
-0.093723,-0.033104,0.011250,-0.759053,-0.644319,0.093227
0.123129,-0.553041,0.443513,-0.711846,0.571975,-0.407578
0.001743,0.302784,0.596373,0.526420,0.822163,0.216632
0.610188,-0.339980,0.532727,0.975926,-0.207436,-0.067371
-0.159600,-0.049462,0.934752,0.981750,0.156260,-0.108394
0.407374,-0.060969,0.731029,-0.358234,0.910015,-0.208663
0.205184,0.269045,0.302925,0.885006,0.413725,-0.213533
-0.423465,-0.380116,0.464137,0.959045,-0.196555,-0.203959
0.261318,0.409635,0.561294,-0.773528,0.628496,0.081532
-0.341677,0.399283,0.728438,0.065996,-0.353369,0.933153
-0.211265,0.502943,0.617236,0.405670,0.199811,-0.891912
0.028915,-0.172804,0.567226,0.993792,-0.082477,-0.074664
-0.002101,-0.828862,-0.969217,0.321326,-0.332010,-0.886859
-0.368762,0.422545,0.847651,-0.204444,0.887387,-0.413216
-0.116247,0.407209,0.710064,0.861548,0.381429,0.335033
-0.276872,-0.313519,0.788675,-0.395014,0.792780,-0.464181
0.154144,-0.281698,0.813561,0.165173,-0.984578,0.057657
0.037139,0.694270,0.113111,0.856710,0.438415,-0.271736
-0.323174,-0.092025,0.879048,0.372263,0.923723,0.090310
-0.083979,-0.092789,0.798323,0.933460,0.352960,0.063812
-0.366257,0.505626,0.851265,-0.359044,0.830115,-0.426611
-0.309142,0.369756,0.794403,0.928933,0.279756,-0.242530
-0.341677,-0.365162,0.599680,0.141778,-0.334520,0.931663
-0.023822,-0.321062,0.813288,0.143404,0.989006,-0.036102
-0.210995,-0.509839,0.511182,0.892024,-0.448760,-0.053913
-0.174259,-0.008304,0.046124,0.828053,-0.512030,0.228371
-0.266236,-0.315056,0.765119,0.822393,-0.536422,0.189528
0.296177,-0.019171,0.422309,-0.076471,-0.874957,0.478123
0.029182,-0.332436,0.214870,-0.783391,0.613313,0.100725
-0.860024,-0.217917,0.657428,0.057314,0.956208,0.287023
-0.111688,-0.068887,-0.013193,-0.649972,-0.745308,0.148501
-0.299218,-0.078607,0.616622,-0.554291,0.597640,-0.579300
0.246121,0.404783,0.459092,0.887276,0.461238,0.000321
-0.158705,-0.927146,0.753392,0.629245,0.713303,-0.308624
0.128669,-0.213830,-0.983603,0.429167,-0.090434,-0.898686
-0.237722,0.249106,0.340322,0.974680,-0.221839,-0.028039
-0.025251,-0.164364,0.683269,-0.001678,0.591997,0.805938
0.241295,-0.320298,-0.978114,0.109861,0.166066,-0.979976
-0.234683,0.499744,0.711188,-0.633182,-0.348893,-0.690908
-0.148604,0.503707,0.712007,0.307322,0.043679,0.950603
0.761250,-0.492458,0.095657,0.078403,0.996889,0.008083
0.174614,-0.401584,-0.864969,0.901128,0.421968,-0.099558
-0.568089,0.236577,0.656917,0.464987,0.660787,-0.589192
-0.257477,0.046396,0.668064,0.846893,-0.471842,-0.245230
-0.059398,-0.226608,0.402025,-0.260570,0.886146,-0.383210
0.018727,-0.330775,0.239142,-0.504471,0.829752,-0.238791
0.063507,-0.291536,-0.101214,0.991717,0.125930,-0.025269
0.163260,-0.283618,0.825254,0.000272,-0.998314,0.058036
0.121429,-0.683537,0.707234,-0.103999,-0.782400,0.614031
-0.011039,-0.236453,0.754278,0.379743,-0.853010,0.358007
0.392177,-0.117074,0.841720,-0.890994,0.304935,0.336369
-0.045631,-0.285147,0.360708,0.345695,0.938246,0.013727
0.852154,-0.864395,0.290857,0.943308,-0.145962,-0.298104
0.590346,-0.393916,0.003648,0.776103,-0.276267,-0.566869
-0.061365,0.364647,0.624054,0.941189,-0.305952,0.143378
0.169965,-0.309564,0.539715,-0.219020,0.967747,0.124481
0.238077,-0.241695,0.907582,-0.470295,0.842350,0.263189
-0.073431,-0.222262,0.797437,-0.393979,0.917624,-0.052420
-0.232894,0.264318,0.326720,0.800741,-0.553822,0.228243
-0.141989,-0.877298,0.742211,0.840475,-0.535599,0.082075
-0.290549,-0.223924,0.618736,0.123698,-0.271816,-0.954366
0.403083,-0.413855,-0.085055,0.184808,-0.973331,-0.135914
0.375998,-0.423443,0.486603,-0.034034,-0.998679,0.038485
-0.628516,0.290771,0.553078,0.705159,-0.708203,-0.034614
0.529832,0.089084,0.498636,-0.612305,-0.436163,0.659427
-0.283397,0.175737,0.389684,0.903194,-0.405520,0.140691
-0.152718,-0.362727,0.426672,0.953700,-0.102728,0.282672
0.086925,-0.440059,-0.690496,0.903389,0.285155,0.320274
-0.380292,-0.280676,-0.012443,0.767768,-0.429377,0.475571
-0.357051,-0.017385,0.676621,-0.592771,0.719693,-0.361475
0.099440,-0.388549,-0.355662,0.899135,-0.174062,-0.401570
-0.187309,0.140079,0.178530,-0.196409,0.668989,-0.716852
0.203575,-0.088577,0.857469,0.311365,0.627418,-0.713722
0.396468,-0.149799,-0.980262,-0.199733,0.264429,0.943496
0.265161,-0.447595,0.697484,0.554024,0.533916,-0.638741
-0.172470,-0.095987,-0.174098,0.731599,0.265331,0.627983
0.553340,-0.376020,0.530511,-0.766506,-0.266761,0.584214
0.167641,-0.518405,-0.459330,0.675093,0.736911,0.034823
0.061720,-0.311990,-0.193427,0.959506,-0.201191,-0.197156
-0.422303,-0.393916,0.625213,-0.005589,0.999974,0.004518
-0.206436,-0.137653,0.596782,0.855929,0.460578,0.235059
0.085586,-0.725584,-0.962535,-0.351407,0.392966,0.849759
0.048847,-0.311607,-0.226018,-0.651318,0.455460,-0.606911
0.046166,-0.191331,0.564908,0.848621,0.500663,0.170820
-0.157990,-0.149409,0.742961,-0.189302,-0.299478,0.935135
-0.339443,-0.125639,0.615838,-0.659755,0.512427,0.549674
0.065383,-0.002687,0.918184,0.666899,0.435149,-0.604889
0.157540,-0.444022,-0.829822,0.883381,0.060115,0.464784
-0.169878,-0.671398,0.642020,-0.516675,0.854846,-0.047802
0.037317,-0.183538,0.519091,0.451454,0.888110,-0.086314
-0.216090,0.789622,0.538352,-0.125819,-0.796673,0.591169
-0.112583,-0.054190,0.751381,0.718024,0.664138,-0.208236
-0.263375,0.511376,0.784925,-0.610788,0.674638,-0.414490
0.059396,-0.364522,-0.266892,0.090174,0.993577,0.068356
0.003263,-0.125897,0.891662,0.853766,-0.510447,-0.102604
0.032848,-0.221241,-0.997307,-0.121891,0.140094,0.982607
-0.015153,0.043073,0.494818,-0.603071,0.681915,-0.413880
-0.447598,-0.164496,0.854776,0.941007,0.115273,0.318148
0.035977,-0.144682,0.618020,-0.356272,-0.914229,0.193016
0.208400,-0.381006,-0.162883,-0.593273,0.636103,0.493355
-0.226549,-0.088187,0.660667,-0.660367,-0.218171,-0.718552
-0.841431,-0.179575,0.596987,-0.155339,0.937646,0.310951
-0.258282,0.311225,0.306539,-0.672618,-0.735212,-0.083950
-0.688313,0.216256,0.592418,0.491918,0.862522,-0.118630
0.008893,-0.236453,0.339811,-0.697814,-0.274135,-0.661744
-0.242905,0.237350,0.361867,0.961444,-0.251985,0.110129
0.394768,-0.061858,-0.982239,-0.080470,0.097146,0.992012
0.489520,0.282463,0.514659,0.148403,-0.921383,0.359208
0.536356,-0.317357,0.554306,0.360463,-0.920775,0.149131
-0.190438,0.035787,0.833947,0.441503,-0.861306,-0.251448
0.007731,-0.209360,0.961103,0.968371,0.197476,-0.152515
0.474680,0.062755,0.127224,0.230896,0.971900,-0.045799
-0.407821,0.284000,0.829652,0.306607,0.948488,0.079764
0.151105,0.191714,0.117884,0.995175,0.008168,-0.097778
0.364735,0.083592,0.131008,0.102922,0.956718,-0.272208
-0.268918,0.441463,0.630804,0.395883,0.884561,0.246634
-0.289117,-0.683669,0.629645,0.975961,-0.215571,0.032093
0.043127,-0.230953,0.030477,0.017802,0.994057,0.107400
0.120892,-0.133947,0.834595,0.086883,-0.991377,0.098093
-0.366705,0.398136,0.723768,0.455837,0.589899,-0.666507
0.034010,-0.551504,-0.978455,-0.340461,0.128160,0.931483
0.681518,-0.333458,0.660974,-0.504754,-0.863026,-0.020239
-0.424357,-0.388291,0.468433,0.946791,-0.312298,0.077830
0.184535,-0.382667,-0.189371,-0.049758,-0.989765,0.133753
0.904177,-0.565694,0.293687,-0.683009,0.668516,0.294253
-0.229588,0.397746,0.376526,0.948294,-0.306603,0.082059
0.296357,-0.532337,-0.966455,0.057761,0.108924,0.992370
0.008625,-0.241180,0.863128,0.023775,-0.959171,0.281826
0.221003,-0.413340,0.930559,0.456308,-0.481703,0.748161
-0.056717,0.310453,0.592180,0.919710,0.247255,0.304955
0.337741,0.141233,0.612532,0.973119,0.124544,-0.193720
0.060200,-0.490157,-0.986807,0.040529,0.321982,0.945878
0.088892,-0.336399,-0.671507,0.903289,-0.427198,-0.039644
0.347842,-0.021730,-0.987387,0.181971,-0.063548,-0.981248
-0.597678,-0.305983,0.121293,-0.805182,0.494004,-0.328089
0.017742,-0.356721,-0.979750,0.009640,0.116565,0.993136
0.044379,-0.227380,0.511523,-0.270835,-0.958879,0.084848
0.492646,0.279654,0.470035,0.968529,0.237858,-0.073320
0.166122,-0.413731,-0.717154,0.984662,-0.169862,0.039831
-0.124471,0.683411,0.576226,0.892089,0.445649,-0.074658
0.629048,0.103781,0.556453,0.904611,0.328972,-0.271027
0.212424,-0.377042,0.826140,0.966852,-0.070174,-0.245504
-0.457610,0.098546,0.832618,0.848008,-0.096065,0.521204
0.469855,0.256516,0.428036,-0.588852,0.807554,0.033309
0.062792,-0.487216,0.495296,0.766395,-0.605979,-0.213141
-0.177385,-0.118993,0.729256,0.940516,-0.078463,-0.330564
-0.710302,-0.280934,0.227961,-0.288473,0.957034,-0.029481
0.104536,0.603014,0.185246,0.864205,0.443755,-0.237131
-0.474326,-0.427788,0.502421,0.215107,-0.824936,0.522694
-0.242728,0.257281,0.702257,0.026315,-0.999643,-0.004542
-0.237275,0.304321,0.607623,0.996561,-0.082118,0.011106
0.316646,0.148005,0.523181,-0.620651,0.562271,0.546483
0.351328,-0.467277,-0.965603,-0.211283,0.075522,0.974503
-0.390660,0.142123,0.868105,0.262648,-0.033269,-0.964318
0.164960,0.103141,0.746847,0.615243,0.788247,0.011972
-0.053408,0.586273,0.610861,0.964562,0.261359,0.036228
-0.301632,-0.052785,0.676655,0.393847,-0.019547,0.918968
0.422925,0.306747,0.478796,0.907749,0.416234,-0.052358
-0.333008,0.377814,0.850242,-0.008691,0.233204,0.972389
-0.216895,-0.106464,0.586998,0.728014,0.681129,0.077843
-0.890058,-0.216131,0.574760,-0.347343,-0.936343,-0.051133
-0.084156,-0.459741,0.037601,-0.682147,0.730526,0.031730
-0.065566,-0.424207,0.954558,-0.567160,0.822764,0.037276
0.405317,-0.391740,0.593543,-0.294554,-0.347129,0.890359
-0.145118,0.011245,0.797607,0.839873,-0.540962,-0.044411
-0.026326,-0.216389,0.731813,0.796408,0.342469,0.498447
0.304221,-0.250128,0.725813,0.647154,0.373384,-0.664662
-0.058771,-0.599691,0.683916,0.707679,0.624654,-0.330149
-0.199912,-0.240033,0.887639,0.291097,0.754489,0.588225
-0.650058,0.118868,0.576226,0.549493,0.802167,0.233634
-0.217252,-0.067615,0.839708,-0.788197,0.608197,0.094027
-0.247643,0.350714,0.529829,0.908017,-0.411529,-0.078410
-0.331218,0.352250,0.720086,0.039829,0.961489,0.271943
0.626009,-0.447852,-0.038795,0.119377,0.951050,-0.285051
-0.372695,0.370911,0.626952,0.018641,0.998718,0.047063
-0.217967,0.183920,0.225711,-0.644191,-0.708714,0.287651
0.096134,-0.387012,-0.654701,0.901923,-0.385858,0.194033
-0.399600,0.011120,0.635917,0.547022,-0.053962,-0.835377
0.261765,-0.282845,0.930388,0.644815,-0.702301,-0.301639
0.199194,-0.193765,0.653031,-0.536596,0.327985,0.777490
0.030792,-0.304446,0.321061,0.964380,-0.041285,-0.261279
-0.834012,-0.246422,0.484148,0.940367,0.322668,0.107680
0.097654,-0.458844,-0.651292,-0.651896,-0.712244,0.260268
-0.307980,0.447213,0.775687,-0.498308,0.493461,-0.712872
0.120177,-0.579112,-0.973717,-0.397775,0.096216,0.912424
0.286613,-0.264958,0.914127,0.241699,-0.967859,0.069510
-0.116156,-0.413731,0.333436,-0.038176,-0.449921,0.892252
0.121339,-0.353530,0.353310,0.130637,0.885454,0.445988
0.032311,-0.348670,-0.274937,0.586914,0.809642,0.003488
0.045898,-0.509972,0.881196,-0.493852,0.487696,-0.719905
0.051619,-0.307387,0.471842,0.940927,0.106624,-0.321384
-0.820962,-0.300101,0.640213,0.335158,-0.849062,0.408367
0.022657,0.866688,0.136940,0.857654,0.423715,-0.291369
-0.119108,0.519044,0.591975,-0.483068,0.875579,-0.002653
0.071641,0.494884,0.065283,-0.216942,-0.742986,0.633172
-0.483889,-0.175355,0.867662,0.920956,-0.122781,0.369818
0.255955,-0.488495,0.886821,0.823144,-0.557080,-0.109987
0.349541,-0.221498,0.810118,0.825036,-0.562234,-0.056637
-0.349274,-0.160400,0.658247,0.074659,-0.339057,0.937799
0.136089,-0.458337,-0.655758,0.537169,0.773363,0.336688
0.043037,-0.273648,0.579532,-0.680026,-0.721164,0.132237
-0.056270,-0.208205,0.694075,-0.216265,-0.952932,-0.212484
0.399417,-0.076431,-0.984284,-0.063401,0.089716,0.993947
0.101140,0.418708,0.613588,0.749170,0.425945,0.507262
0.219307,-0.381138,-0.972898,0.079415,0.685843,0.723404
0.216983,0.352375,0.595827,-0.037105,0.945665,0.323017
0.287150,-0.074387,0.724143,-0.695719,-0.518467,0.497159
0.278479,0.361448,0.595759,0.199176,0.876139,-0.438987
-0.000581,-0.500509,-0.985341,-0.048773,0.268001,0.962183
0.100422,-0.424465,-0.547897,0.490156,0.871429,-0.018955
0.042502,-0.294609,-0.112634,0.818557,0.528100,0.225997
-0.000046,-0.347266,0.218961,0.550473,-0.810114,0.201728
0.516067,-0.381006,0.000477,-0.759344,0.135600,0.636404
0.004602,-0.279140,0.232358,-0.201811,0.892359,0.403691
-0.197410,0.849050,0.550079,0.514250,0.707829,-0.484278
-0.465119,-0.241055,0.048033,0.815081,0.299026,0.496212
0.020246,-0.294477,0.036408,0.849699,0.357244,0.387800
0.568624,-0.588442,0.530068,0.319514,0.702796,0.635601
0.100512,-0.221623,0.672735,0.594742,0.797264,-0.103205
-0.060291,-0.246040,0.686132,-0.056027,0.940415,0.335382
0.022927,-0.105318,0.876049,0.997535,-0.000139,0.070177
0.137785,-0.285786,-0.556351,0.859856,0.310624,0.405167
0.190793,-0.143152,-0.982341,0.029891,0.167229,0.985465
-0.385388,-0.248981,-0.019159,0.767768,-0.429377,0.475571
0.011397,-0.323489,0.360708,0.823535,0.538693,0.177763
-0.863868,-0.226101,0.536306,0.964069,-0.235281,0.123343
-0.544046,0.378197,0.492159,0.131347,0.971970,0.194995
0.023105,-0.138168,0.620066,-0.222890,-0.956735,0.187023
0.080580,-0.125382,0.353208,-0.802252,0.348885,0.484428
-0.133320,0.434052,0.607793,0.326900,0.812412,-0.482828
0.341854,-0.224057,-0.979512,0.004499,0.250697,0.968055
0.277944,-0.827707,0.597225,0.438968,-0.893383,-0.095775
0.004244,-0.153372,0.732699,0.698584,0.601332,-0.387790
0.236023,-0.875894,0.599339,-0.465835,0.884481,0.026301
-0.719688,-0.255877,0.296891,0.875794,-0.395923,0.276098
0.139575,-0.248466,0.759460,0.997515,0.009138,-0.069853
-0.278571,0.351736,0.722063,-0.165078,0.085049,0.982607
-0.033296,-0.109406,0.699768,0.290006,0.948814,-0.125089
0.101407,-0.610683,0.392309,0.963751,-0.120556,-0.238015
0.143686,0.389446,0.345299,0.327089,0.939029,-0.106003
-0.440269,0.168459,0.613759,-0.482072,0.326440,0.813046
-0.028738,-0.284257,0.312470,0.216586,-0.920655,0.324784
0.026948,-0.195677,0.751619,-0.522401,0.274693,-0.807243
-0.833297,-0.324261,0.373014,-0.254871,0.965800,-0.047650
-0.538326,0.128962,0.612941,0.223297,0.930669,-0.289816
0.422033,0.277096,0.217495,-0.499526,0.824739,-0.265104
0.318881,-0.400820,-0.107657,0.864191,0.169228,-0.473852
-0.199554,-0.555982,0.509000,0.892024,-0.448760,-0.053913
-0.213589,-0.916412,0.743472,0.542009,0.765383,-0.347007
0.155039,-0.515846,0.703859,-0.769389,0.507253,0.388247
-0.039019,0.764573,0.077623,0.890237,0.305724,0.337654
0.004782,-0.090238,0.972796,0.956139,-0.289441,-0.044969
-0.567732,0.262399,0.581373,-0.230341,-0.077329,0.970033
0.438569,-0.009966,0.827027,-0.516906,0.833656,0.194490
0.202323,-0.493738,0.817686,0.885998,0.190630,-0.422690
-0.080583,-0.218050,0.529079,-0.230321,-0.928671,-0.290727
-0.024089,-0.191589,0.743881,-0.347518,0.913632,-0.210967
-0.275800,-0.270067,-0.106770,-0.229446,-0.962391,-0.145455
-0.070572,-0.504987,0.867833,-0.060110,0.924230,0.377074
0.038301,-0.147240,0.746608,0.646104,-0.409079,0.644363
0.145742,-0.251665,0.805345,0.639975,0.768391,0.002748
0.144848,-0.140212,0.863231,0.882045,0.465773,0.071082
0.082547,-0.445808,-0.726904,0.789357,-0.586068,0.182865
0.478614,0.300998,0.536647,0.885464,-0.426296,0.185002
0.344536,-0.615160,-0.396502,0.228142,0.965520,-0.125389
-0.253006,-0.218432,0.581373,0.917332,0.202445,-0.342809
0.041965,-0.253709,0.480910,-0.402870,-0.891859,0.205631
-0.311911,0.846117,0.549601,0.248144,0.766849,-0.591919
0.070302,-0.699513,-0.974773,0.372296,-0.324054,-0.869704
-0.064939,-0.287580,0.314379,-0.163720,-0.969823,0.180663
-0.231197,0.778888,0.506989,-0.268912,-0.672433,0.689579
0.186949,0.383822,0.219097,0.991266,-0.071670,-0.110706
-0.320582,0.389953,0.652110,0.434431,-0.897353,0.077639
0.504624,0.432515,0.531840,-0.215780,-0.570178,0.792677
0.082457,-0.498598,0.875776,-0.551803,0.626381,0.550600
-0.551196,-0.302660,0.659746,0.585129,0.790621,0.180393
-0.326303,-0.266744,0.387639,0.075444,0.919229,0.386427
0.564603,0.152989,0.534022,-0.517859,-0.779401,0.352641
-0.135554,-0.358765,0.306095,-0.588637,0.712295,-0.382285
0.787887,-0.428810,0.168371,0.136866,-0.990571,-0.006054
-0.389498,-0.139696,0.656031,0.988466,-0.085906,0.124719
0.152445,-0.557386,-0.969319,0.308864,0.000853,-0.951106
-0.054480,0.335120,0.605134,0.467895,-0.763381,0.445336
-0.026951,-0.333591,0.443785,0.957114,0.288035,0.031121
0.043394,-0.336142,-0.054612,0.996759,0.073159,-0.033449
