0.148765,-0.236231,0.196932,-0.195897,0.333348,0.922227
-0.515676,0.537311,0.501006,0.992508,0.059003,-0.106986
0.650814,-0.171747,-0.315852,-0.258381,-0.276106,0.925745
0.381594,-0.692604,0.213038,0.134091,0.202380,0.970083
-0.274717,-0.119627,-0.111877,-0.224047,0.104987,0.968907
-0.008950,-0.694731,0.249097,-0.406821,0.339204,0.848196
0.075640,0.041250,0.541696,-0.674745,0.584647,0.450452
0.420499,-0.396710,0.661469,0.762425,-0.089451,0.640864
-0.234994,-0.321922,0.678184,0.594903,0.764055,-0.249622
-0.399615,-0.453017,0.276798,-0.409865,0.449654,-0.793613
-0.567331,0.487120,0.635631,-0.618352,-0.239888,-0.748395
0.382240,0.076948,-0.308261,0.347931,0.414225,-0.841048
0.253422,-0.417185,-0.116561,-0.684328,0.002419,0.729171
-0.146952,0.766063,0.798619,-0.430888,-0.885352,-0.174608
-0.115188,-0.637427,0.445097,0.890189,0.023158,0.455003
-0.237862,-0.351970,-0.071396,-0.268791,0.712516,0.648129
0.054463,0.187502,0.831353,0.726382,0.672619,-0.141253
0.119105,-0.089181,0.594313,0.935502,0.033164,-0.351761
-0.566046,0.546352,0.629258,0.867673,0.035076,0.495896
0.587047,0.286554,0.793152,-0.309692,-0.873231,0.376243
-0.147830,0.375370,-0.718892,-0.199253,0.978991,0.043286
0.445828,0.189762,-0.105348,0.126751,0.489719,-0.862618
-0.126125,0.312082,-0.971167,0.190400,0.966452,0.172388
0.034575,0.156789,0.936117,-0.045975,-0.997815,-0.047443
0.016030,-0.035466,0.044547,-0.226229,-0.017323,0.973920
-0.134258,0.354362,-0.321929,0.318693,-0.942971,0.096130
-0.159881,0.137976,-0.972716,-0.037357,-0.131198,0.990652
0.126535,0.355758,0.826756,-0.193665,-0.802293,0.564642
-0.009300,-0.063986,0.820854,0.971634,-0.118712,0.204536
-0.041124,-0.641549,0.236491,-0.692679,0.499442,0.520340
0.211828,-0.791923,0.242341,0.353494,0.769346,0.532117
-0.815956,0.739870,0.577546,0.801422,0.476125,0.361978
-0.585876,0.440186,0.666362,0.401644,-0.522916,0.751825
-0.087691,0.292804,-0.000966,-0.619010,0.784118,-0.044553
-0.015912,-0.083264,0.139300,0.786235,0.605631,0.122662
0.166668,-0.227854,-0.087240,0.167742,-0.022384,-0.985577
-0.546215,-0.061924,0.568701,0.996330,0.003017,-0.085538
0.038553,-0.666212,0.504557,0.882053,0.456559,0.116349
0.157542,0.102077,0.771022,-0.638968,-0.695397,-0.328850
-0.399086,-0.008609,0.602845,-0.045773,-0.699176,0.713483
0.509709,0.121755,0.813245,0.178486,0.975320,-0.129973
0.466420,-0.457603,-0.125563,0.595198,0.623155,0.507363
0.577161,0.052950,0.732473,0.146310,0.985791,0.082517
0.447992,0.161907,0.580959,-0.286128,0.286854,0.914246
0.316485,0.226259,0.561963,0.831798,-0.109086,-0.544254
0.496723,-0.041250,0.485109,0.556905,0.828638,0.056707
0.152275,0.077812,0.448040,0.970220,-0.131266,0.203572
-0.545393,-0.632175,0.249410,0.549134,-0.178360,-0.816480
0.092722,0.143693,-0.110119,-0.376012,0.143089,0.915500
-0.277466,0.802294,0.678028,0.963543,0.135121,0.230926
0.056220,-0.348180,-0.177362,0.963095,0.259968,-0.069751
-0.556101,0.050424,0.525886,0.524198,-0.083670,-0.847476
0.153097,-0.621406,0.464894,0.839932,-0.072307,0.537853
-0.125425,0.337011,-0.863895,-0.764662,0.629726,0.136885
-0.103369,-0.381818,0.168708,0.809936,-0.470564,-0.350105
0.060898,0.133455,0.731185,0.529421,-0.823804,-0.202633
0.696499,0.007611,0.732978,0.058939,-0.995434,-0.075089
0.604950,-0.098222,0.537134,-0.566927,0.458342,0.684483
-0.086288,0.373109,-0.639496,0.093279,0.993483,0.065497
-0.015444,-0.419778,0.367529,0.295479,0.104215,0.949648
0.187667,0.010670,0.845439,-0.638006,-0.143616,0.756520
-0.520182,-0.553597,0.296543,-0.382351,0.847811,0.367456
0.543990,0.150939,-0.201703,0.522724,0.848764,0.079748
0.125950,-0.714143,0.525643,-0.659358,-0.534325,-0.528909
-0.392591,0.505202,0.330356,0.514658,-0.085401,0.853132
-0.519071,0.517766,0.509537,0.952841,0.301979,0.030043
0.399029,0.182184,-0.193015,0.009463,-0.903867,0.427709
-0.559494,0.021905,0.737940,0.648360,0.708368,0.279006
-0.064468,-0.236297,0.401917,0.959287,0.035825,-0.280153
-0.227271,0.427755,0.836472,0.988760,-0.080545,0.125960
0.689772,0.066511,-0.183212,-0.600306,-0.427966,0.675631
-0.119633,0.342197,-0.235760,0.227093,0.970471,-0.081330
0.614366,-0.155726,-0.317158,0.836895,0.463302,-0.291477
0.216392,0.070434,0.774400,-0.616570,0.785419,-0.054383
0.268982,0.729698,0.496113,-0.219685,-0.871057,0.439316
-0.075348,0.197541,0.111407,0.321265,0.912248,-0.254150
-0.089212,-0.433804,0.511348,-0.765999,-0.261520,-0.587242
0.361121,0.118364,-0.308801,0.360553,0.420000,-0.832827
-0.102902,0.355892,-0.048343,-0.276167,0.959284,-0.059213
-0.292498,-0.448828,0.540477,0.809819,-0.540194,-0.228874
-0.112028,-0.674123,0.069985,-0.085808,0.316905,0.944568
-0.081082,0.221207,0.933958,0.821078,0.498465,0.278142
0.416871,-0.034469,0.436444,0.797237,0.287843,-0.530622
-0.144259,0.297058,-0.760680,-0.499228,0.859366,0.110728
-0.247513,0.414459,0.264245,0.795496,-0.184031,0.577338
0.046098,0.147083,0.795781,-0.769096,-0.637856,0.040373
-0.722886,0.185508,0.619960,0.407583,0.034082,0.912532
-0.118462,0.362406,0.707035,0.971917,0.233471,0.029483
0.087573,-0.559780,0.379091,-0.225232,0.148546,0.962915
0.211711,0.156390,0.878485,-0.724602,0.543553,0.423676
0.242189,0.139704,0.921527,0.945894,0.098150,0.309276
0.638938,0.295595,0.758939,0.648563,0.714417,0.262629
0.303324,-0.212498,0.708916,0.897576,-0.397856,0.189915
-0.074587,0.372710,-0.629902,0.172277,0.984269,0.039176
-0.317656,-0.443510,0.551011,0.713489,-0.307765,-0.629456
-0.172984,0.249659,0.644441,0.910838,-0.096400,0.401348
0.349013,-0.152933,0.687674,-0.593061,0.529192,0.606823
-0.192698,0.319395,-0.805201,0.950162,0.311743,-0.002834
0.575932,-0.340203,0.709891,-0.596820,0.199464,0.777187
0.934948,0.020775,0.640419,0.119080,0.646064,0.753937
0.097228,-0.232308,0.051146,0.068656,-0.246636,0.966673
-0.049725,0.128602,-0.182150,0.960283,0.244913,-0.133693
0.061951,0.770383,0.508667,0.895713,-0.214268,0.389599
0.578682,0.241084,0.583814,-0.405789,0.619174,0.672279
-0.056627,0.071431,0.948114,0.796849,0.555103,0.238523
0.276880,0.235433,-0.102162,0.154315,-0.986447,0.055765
0.299346,-0.009673,0.671707,0.292014,-0.227258,-0.929022
0.272435,-0.252185,-0.315626,-0.101372,0.199280,0.974685
0.031123,-0.623533,0.525521,0.741912,0.651690,0.157694
-0.167486,0.757022,0.621789,0.135065,-0.678259,0.722303
0.170060,0.154861,0.773042,0.403183,-0.061533,-0.913048
-0.047094,-0.313279,0.178372,0.811022,0.482961,-0.330139
0.478413,0.205052,-0.178424,0.178870,-0.910914,0.371807
0.688369,0.340003,-0.182463,-0.246742,0.618596,-0.745961
0.134551,0.124812,0.947887,0.908196,0.375298,0.185287
-0.056509,0.222004,-0.982397,0.660160,0.200415,0.723894
-0.016087,0.635765,0.712450,0.892479,-0.229203,-0.388519
0.213175,-0.812465,0.385185,-0.212936,0.781554,-0.586372
0.137065,0.892970,0.500849,0.777697,-0.192568,0.598418
-0.895283,0.267143,0.437941,-0.499522,0.543730,-0.674415
0.358314,-0.262025,0.585590,-0.048569,0.164845,0.985123
-0.060780,-0.738474,0.515892,0.585523,0.808699,-0.056287
-0.126946,0.267476,0.755125,0.578865,0.790422,0.200370
0.341522,0.452020,0.733901,0.466568,0.244624,-0.849985
0.487304,-0.060661,0.660181,0.797443,-0.514890,-0.314600
-0.605182,-0.606714,0.237187,0.802903,-0.241863,-0.544839
0.325083,-0.340601,0.702752,0.663706,0.643603,0.381143
0.543876,0.150274,0.759217,0.931329,-0.334640,-0.143673
-0.068210,0.158983,0.938433,0.758428,0.627761,0.175223
0.066221,-0.093568,0.162266,-0.263165,0.951614,-0.158667
-0.418978,0.201263,0.642613,0.955951,-0.273281,-0.107123
-0.046915,-0.351438,0.187095,0.964245,0.095462,-0.247221
0.078740,-0.498422,0.212341,0.384737,-0.089038,-0.918722
-0.489411,0.204720,0.696432,0.566112,-0.052985,0.822623
-0.070902,-0.333090,0.053009,0.514366,-0.082619,-0.853582
0.229146,-0.736147,0.393211,-0.576398,0.354272,-0.736380
-0.189423,0.131992,-0.150827,0.942220,-0.329303,0.061491
-0.036561,0.196609,0.120252,0.305711,0.195440,-0.931850
0.141510,0.102742,0.559386,0.712117,0.699592,0.058822
0.073594,-0.595812,0.231407,0.231518,-0.823692,-0.517621
-0.293084,-0.408608,0.663924,0.882804,-0.450397,-0.133417
0.021118,-0.560977,0.513559,0.926348,-0.308209,0.216533
0.319177,0.234435,0.908033,-0.405550,-0.910362,-0.082283
-0.021879,-0.329433,0.410466,0.833156,0.399029,-0.382919
-0.136715,0.362473,-0.690459,0.403710,-0.914721,-0.017401
-0.299168,-0.574272,-0.028267,-0.441635,-0.244402,-0.863265
-0.137593,0.356756,-0.406583,-0.308130,0.950738,-0.033968
-0.514390,0.154662,0.419903,-0.603158,-0.536101,-0.590590
0.970047,0.063254,0.640053,0.119080,0.646064,0.753937
-0.381301,0.060927,0.503182,0.169990,0.436171,0.883662
-0.312333,0.393984,0.451627,0.156246,0.602863,0.782396
0.541709,0.171614,0.737697,0.929885,0.038522,-0.365828
0.226336,-0.099950,0.859751,0.077362,0.803209,0.590652
0.221480,-0.043643,0.825415,-0.697437,-0.438759,0.566632
-0.511405,-0.288815,0.583327,0.176361,-0.755899,-0.630487
0.102609,-0.579325,0.235864,0.542289,0.529458,0.652378
0.248509,-0.294399,0.705398,-0.566366,0.747365,0.347383
0.287760,0.088582,0.422758,0.545337,0.593005,-0.592412
0.033169,0.188234,0.916233,0.065109,0.995944,-0.062107
-0.699659,0.495696,0.647279,0.303620,-0.938189,-0.166182
-0.853925,0.532259,0.635509,0.764690,0.606352,0.218142
-0.562829,0.120625,0.531772,0.193062,0.619606,0.760799
-0.089330,0.217351,-0.958561,-0.574991,0.745266,-0.337587
0.133730,0.181187,0.753837,0.347391,-0.857556,-0.379366
-0.008071,-0.184577,0.643222,0.414827,0.726867,-0.547342
0.057273,0.251919,-0.315295,0.445104,-0.058578,-0.893561
-0.441908,-0.026758,0.670297,0.615446,0.146757,-0.774396
-0.096057,-0.670866,0.512915,0.798629,0.599125,0.056926
-0.699484,0.455610,0.593129,0.736854,0.358398,0.573235
-0.095179,0.334220,0.155301,0.299548,0.953745,0.025336
-0.233648,0.292205,0.105261,-0.168039,0.947122,0.273354
-0.005322,-0.179125,0.787459,0.977094,-0.174745,-0.121459
0.100856,0.065780,0.801910,-0.264854,0.026862,0.963914
-0.053353,0.039655,0.132405,0.928477,0.284830,0.238331
0.190066,0.208775,0.924887,0.691363,0.697573,-0.188175
0.138996,0.174140,0.416595,-0.183495,-0.025768,0.982683
-0.572012,0.510918,0.670993,0.770848,0.070385,-0.633119
-0.391656,-0.074289,0.671794,-0.166846,-0.045123,0.984950
-0.319291,-0.260096,-0.099515,-0.284824,0.598097,0.749103
0.244470,-0.671730,0.400176,0.311907,0.615508,0.723785
-0.757224,0.298919,0.625758,0.178516,-0.794641,0.580240
-0.055574,0.307761,0.345922,0.843283,-0.530706,0.085000
-0.033754,-0.045372,0.119486,0.978220,0.207532,0.003948
0.275534,-0.428818,0.075592,-0.113952,-0.184069,0.976286
0.606586,-0.097092,0.496200,0.814871,-0.576722,-0.058107
0.194865,0.090045,0.864086,0.592772,0.240841,0.768516
0.052592,-0.498089,0.208458,0.443154,0.346594,-0.826733
0.115188,0.141965,-0.323670,0.106712,-0.139958,0.984390
-0.069438,-0.549942,0.059242,0.401790,-0.339573,-0.850444
-0.269568,0.448363,0.270739,0.848626,0.265547,0.457515
0.178776,0.095496,-0.328667,-0.088999,-0.359646,0.928835
-0.011817,0.319063,0.398208,0.736281,-0.670397,-0.091968
-0.128524,0.283830,-0.771823,0.980720,0.187053,-0.056556
-0.144552,-0.259232,0.615294,-0.648517,-0.470712,0.598210
0.124429,0.052617,0.907597,0.809437,0.585246,-0.047946
-0.006436,-0.254114,0.368800,0.906636,0.397705,0.140861
0.501404,-0.051022,0.645973,0.292337,0.536878,0.791392
-0.012634,-0.525611,0.427616,0.996358,0.041167,-0.074668
-0.180297,-0.051953,-0.178598,-0.650366,0.625410,-0.431147
-0.982333,0.509324,0.631261,-0.015048,-0.429515,0.902934
0.219377,0.104936,0.807273,0.977489,-0.108424,0.180997
-0.197671,0.383081,0.687569,-0.326278,-0.811209,0.485265
-0.001287,0.193419,0.859002,-0.422047,-0.905711,0.039554
0.566688,0.075221,0.723924,0.424425,0.863703,0.271810
0.960863,0.061791,0.629781,0.119080,0.646064,0.753937
0.454019,-0.024431,-0.320971,-0.153357,-0.196716,0.968393
0.421666,-0.373375,-0.464929,-0.091900,0.935074,-0.342331
-0.136479,-0.680638,0.462544,0.875767,0.279256,0.393762
0.473440,0.162240,0.673953,0.991792,-0.054001,-0.115898
0.161812,0.637228,0.453229,0.823260,-0.368585,0.431727
-0.665378,0.310022,0.631069,-0.225576,-0.512712,0.828397
-0.096582,0.192887,0.818921,-0.541487,0.641651,0.543209
-0.191644,0.135981,0.785056,0.894057,-0.352981,0.275802
-0.107465,0.375037,-0.465591,-0.482744,0.874825,-0.040497
0.152043,-0.599402,-0.070316,0.456574,-0.213693,-0.863641
0.169007,-0.016454,0.621371,-0.679673,0.504486,0.532483
0.283375,0.568954,0.722705,-0.129119,-0.213923,0.968279
0.208144,-0.095762,0.865845,0.929110,0.358085,-0.092359
0.369312,0.015389,-0.124588,0.745027,0.260935,0.613879
-0.133905,0.377497,-0.436479,-0.610511,0.769265,-0.188435
-0.056627,0.313412,0.198464,0.666857,0.745095,0.011616
0.010356,0.078876,0.841138,0.914852,-0.340231,0.217461
-0.225636,0.005418,0.337878,0.951683,-0.284259,0.116173
0.524688,0.118764,0.800848,0.509183,0.710846,0.485212
0.019715,0.180189,0.918810,-0.014802,-0.933963,0.357063
0.214814,0.127074,0.783576,-0.623489,-0.753845,0.207313
0.291798,-0.667276,-0.134930,-0.371096,-0.239772,0.897105
0.371065,0.189829,-0.107385,-0.402489,0.493081,-0.771281
0.456769,0.129998,0.592886,0.057392,0.883727,0.464471
0.035393,0.312415,0.458870,0.093202,0.719226,0.688497
-0.141628,0.356756,-0.179608,0.079266,0.987184,0.138506
-0.231717,0.238358,0.740517,-0.713709,0.308808,0.628694
0.189073,-0.001296,0.905247,0.259681,0.918287,-0.298856
0.030012,-0.595479,0.517581,0.926034,-0.183742,0.329697
-0.202292,0.382881,0.249811,0.521021,-0.431712,0.736316
-0.303031,-0.259896,0.661226,-0.569593,-0.707152,-0.418928
-0.141335,-0.230713,0.535045,0.889326,0.415374,0.191217
-0.158242,-0.369985,0.608330,0.328592,0.546222,0.770499
0.154907,0.073625,0.965369,-0.239652,-0.928579,0.283386
-0.140225,0.224530,-0.972229,-0.353466,-0.397124,0.846968
0.595588,-0.126076,0.666675,0.932669,0.360723,0.002793
-0.076812,0.283763,-0.242097,0.404401,0.280712,-0.870437
0.479056,0.187835,-0.188313,0.036378,-0.918457,0.393844
0.661283,-0.118032,0.692444,0.249019,-0.952217,-0.176839
-0.002515,-0.363537,0.435660,0.955627,0.288965,0.057243
0.274717,0.008210,0.582334,0.606154,0.794460,0.037559
-0.166375,-0.706099,0.072701,0.211002,-0.146675,-0.966418
-0.698431,0.325910,0.463170,-0.195615,0.708705,0.677844
0.422605,-0.315141,0.577111,-0.457341,0.138135,0.878497
0.314614,-0.106266,0.456746,-0.728055,0.501887,0.466953
0.152979,-0.030081,-0.318481,0.216297,0.133360,0.967177
-0.593949,0.384477,0.482602,-0.291010,0.621950,0.726974
-0.278812,0.374838,0.628997,-0.599297,0.707468,-0.374609
-0.087106,0.266279,0.282596,-0.155322,0.890711,0.427210
-0.079968,0.103939,0.122516,0.866845,0.406705,0.288392
0.487657,-0.030679,-0.323478,0.194157,0.689481,0.697796
-0.132912,0.352368,-0.149399,0.251784,0.961300,-0.111837
0.030712,-0.590559,-0.114646,0.990450,0.137572,-0.009071
0.352169,0.022237,-0.191030,0.512020,0.696824,-0.502267
-0.838072,0.553599,0.640732,0.313791,-0.043855,0.948479
-0.100677,0.311351,0.187600,0.921105,-0.389315,-0.000053
0.206448,-0.541832,-0.093369,-0.108394,0.275460,0.955182
-0.163041,0.209373,0.491934,-0.653766,0.754921,0.051809
0.112963,-0.350307,-0.152759,0.663815,0.690249,-0.287933
0.145138,0.768854,0.475985,0.901581,0.167743,-0.398766
-0.071956,-0.043909,0.878468,-0.657797,-0.752984,-0.017847
0.086170,0.078145,0.951143,0.693790,0.635656,0.338523
0.726570,0.262623,-0.187425,-0.197073,0.863605,-0.464056
0.049432,-0.237294,-0.120757,0.871755,0.013101,-0.489766
-0.094361,0.215024,0.821411,0.855330,-0.002000,-0.518079
0.775066,-0.320725,-0.359990,-0.203782,0.534348,0.820333
0.108636,0.048696,-0.097408,-0.321746,0.540685,0.777264
-0.605943,0.453017,0.656786,0.918935,0.273690,0.283995
0.709957,0.104204,-0.176926,0.146983,0.562962,-0.813308
-0.254650,0.326176,0.566995,-0.598309,0.447395,-0.664729
-0.024453,-0.244474,0.806315,-0.626651,0.754024,0.196867
-0.351937,-0.434469,-0.059364,-0.295551,-0.533864,-0.792237
0.145841,0.881868,0.493762,0.728270,-0.231920,0.644853
-0.254650,0.452884,0.626699,0.814746,-0.010328,0.579726
-0.038960,-0.753432,0.517303,-0.181044,0.776882,0.603057
0.495963,-0.210636,0.471667,-0.336519,0.933089,0.126887
0.498655,0.112980,0.832885,0.129637,-0.990173,0.052455
0.290334,-0.718730,0.251830,-0.680767,-0.106376,-0.724735
0.027845,-0.384079,0.370872,-0.330994,-0.141473,-0.932967
-0.070667,0.352368,-0.280542,0.023342,0.979838,0.198426
0.904702,-0.528204,-0.376322,0.617031,0.676409,-0.402175
0.111792,-0.463387,0.470327,0.544649,0.072824,-0.835497
-0.153914,0.545089,0.618219,0.902861,0.182438,-0.389304
-0.043934,-0.704769,0.449468,0.179259,0.406837,0.895740
-0.004622,-0.796510,0.402770,-0.633963,-0.196608,0.747955
0.250380,-0.535582,0.382991,-0.678710,0.514435,-0.524128
0.256757,0.271863,0.871625,-0.837936,0.425264,-0.342073
-0.104480,-0.577464,0.546780,-0.790984,-0.206219,-0.576037
-0.030830,0.088915,0.686664,0.567402,-0.720169,-0.399264
-0.191412,0.477148,0.824684,0.092684,0.097516,0.990909
-0.083831,-0.199002,-0.079910,0.329589,-0.162866,0.929971
0.064761,0.184245,0.799263,0.182016,-0.976088,-0.118835
-0.128817,0.322586,0.612561,0.856367,-0.506470,-0.100614
0.335791,0.513644,0.731759,-0.580506,-0.072403,0.811030
0.731251,0.283031,-0.174106,-0.291068,0.450955,-0.843753
-0.127881,-0.437926,0.624592,0.478524,0.813846,0.329650
0.296361,-0.699185,0.411476,0.783098,-0.100069,0.613794
-0.170117,0.374639,-0.998433,-0.000243,0.296186,0.955130
-0.356029,-0.160113,0.265342,0.846116,-0.254313,-0.468415
0.587633,-0.035134,0.518156,-0.692610,0.599459,0.401174
-0.359425,0.183912,0.605439,-0.333940,0.892598,0.302908
0.040424,0.135516,0.520402,0.872551,-0.058324,-0.485029
-0.117291,0.365332,-0.306972,-0.332478,0.942936,0.018186
-0.069556,0.157254,-0.104338,-0.374790,-0.641055,-0.669761
-0.535624,-0.519894,0.246398,-0.693187,0.354019,0.627823
0.059437,-0.652717,0.247634,-0.255451,0.775083,0.577920
-0.194044,0.465315,0.822647,-0.612248,0.147648,-0.776758
0.244470,0.002294,0.838927,0.318520,0.937275,-0.141635
0.293319,-0.343527,0.226114,0.541062,-0.829383,0.139194
-0.538492,0.615223,0.498481,0.983977,0.171702,-0.048040
0.115013,-0.450490,-0.097617,0.374116,-0.559658,-0.739473
-0.254008,-0.723117,0.581011,0.712120,0.201828,0.672421
-0.070435,0.371780,-0.694760,0.350279,0.931321,-0.099725
0.426522,-0.369985,-0.472381,-0.091900,0.935074,-0.342331
0.189366,0.692538,0.483629,-0.647579,-0.069912,0.758785
-0.632269,0.482400,0.478876,-0.364297,-0.022474,-0.931012
0.446003,-0.388000,0.660895,-0.700355,0.572871,0.425819
-0.096057,0.387734,0.778683,-0.595982,0.220464,0.772140
-0.508892,0.144558,0.697389,-0.684637,-0.026413,-0.728406
-0.513687,0.540767,0.655584,0.286322,-0.938931,-0.190861
0.006318,0.267343,0.501249,0.894151,-0.235450,-0.380863
-0.136890,-0.170750,0.500657,0.832642,0.550220,-0.062964
0.152686,-0.416985,0.663594,-0.158106,-0.897959,0.410698
0.052300,-0.423366,0.168464,0.990347,-0.137061,-0.020656
0.057916,0.106266,0.846518,-0.674637,0.681950,-0.282504
0.064408,-0.641282,0.537221,-0.019614,0.797955,0.602398
0.249501,-0.273126,0.679438,0.077117,0.272962,0.958929
-0.121154,0.329500,-0.916826,0.979486,0.139232,0.145677
0.781853,0.274522,-0.179712,-0.322393,0.307332,-0.895327
0.513105,-0.301512,0.671986,-0.233914,0.591816,0.771387
-0.280155,-0.543095,0.543176,0.131837,-0.121824,0.983757
0.061776,0.170284,0.752061,0.110041,-0.934191,0.339379
0.309933,0.349908,0.868509,0.978116,-0.159808,0.133229
-0.108050,0.324647,0.181018,0.254777,-0.966709,0.023708
-0.100913,0.170883,0.824963,-0.572514,0.746909,0.338164
-0.255411,0.325644,-0.994550,-0.001250,0.306074,0.952007
0.009242,-0.516304,0.478823,0.691974,0.540685,0.478363
-0.077454,0.278644,-0.959466,0.917462,0.331058,0.220600
0.202645,-0.719395,-0.142138,0.088723,-0.141014,0.986024
-0.012109,-0.435466,0.379160,0.719052,0.043032,0.693623
0.261731,-0.749709,-0.065441,0.900720,0.402870,-0.162479
-0.003626,0.129799,0.916860,0.476372,0.625793,0.617619
0.579971,-0.391657,-0.443704,-0.459193,0.702481,-0.543748
0.007896,-0.393519,0.445602,0.820003,0.025647,-0.571784
-0.046448,0.118231,0.665021,-0.373738,0.598134,0.708911
0.150404,-0.520425,0.056474,0.962068,-0.247408,-0.114955
0.255761,-0.226060,0.200641,0.116411,0.356379,0.927061
0.106179,-0.616819,0.541330,-0.737281,0.664386,-0.122507
0.260442,-0.174207,0.676304,0.540401,-0.323281,-0.776824
-0.165904,-0.651653,0.553884,0.756757,-0.055956,0.651297
-0.508306,0.430480,0.636884,-0.645732,0.186253,0.740500
0.486543,-0.032807,-0.313780,0.250418,0.807744,0.533705
0.295308,-0.604919,0.365562,0.724819,0.687548,0.043761
0.718790,0.301778,-0.167594,-0.454196,0.454860,-0.766034
-0.003394,0.291939,0.746820,0.323085,0.817155,0.477361
0.024863,-0.117900,-0.137193,0.951927,0.157707,-0.262610
-0.640167,-0.144557,0.584232,0.922265,-0.380954,-0.065579
0.035511,0.176533,0.954208,-0.648490,0.376667,0.661500
-0.222008,0.419445,0.818277,0.910729,-0.119716,0.395273
-0.174270,0.270666,0.050067,0.647501,0.163053,0.744416
-0.265765,-0.412997,0.606850,0.379132,0.817849,-0.432877
-0.035625,-0.265215,0.068610,-0.796190,0.222856,0.562510
0.139407,0.012531,0.602741,-0.724816,0.372098,0.579814
-0.177666,0.633971,0.796721,-0.411931,0.910173,-0.043562
-0.162748,0.430082,0.807029,0.099653,0.955395,-0.278009
0.329764,-0.253914,0.725126,-0.638483,0.711732,0.292878
-0.021529,-0.204919,0.748770,0.421470,0.875261,0.237236
0.151283,0.838857,0.486519,-0.662900,-0.479235,0.575237
-0.011524,0.320725,0.408951,0.780618,-0.624040,-0.034786
0.021354,-0.098555,0.810616,0.903500,0.369025,0.217964
0.124721,-0.380023,0.704650,0.947251,-0.315440,-0.056680
0.602197,-0.193418,0.654818,0.487143,-0.573695,-0.658458
-0.199017,-0.307695,-0.070612,0.891987,-0.450556,0.036858
-0.073591,0.326508,-0.856652,0.983838,0.012859,-0.178599
0.555048,-0.176998,0.672560,0.404520,0.447997,0.797284
0.007489,-0.664019,0.398574,0.938872,0.278583,0.202262
0.113781,-0.074024,0.601104,0.861200,-0.045712,-0.506207
-0.535157,0.001961,0.541313,0.862533,-0.126058,-0.490048
-0.133262,-0.461193,-0.077072,0.626954,0.337025,0.702384
0.339065,0.039322,0.425875,0.513048,0.493685,-0.702180
0.065461,0.131726,-0.115551,-0.395374,-0.074830,0.915467
-0.134198,0.502077,0.570112,0.942762,-0.275911,0.187279
0.133730,0.587169,0.443983,0.882634,-0.273830,0.382065
0.233591,0.518298,0.438725,0.218673,0.709128,-0.670313
0.012577,0.184644,-0.254738,0.325534,0.817292,-0.475460
-0.247631,-0.058268,0.339218,-0.172684,-0.529625,0.830468
0.006261,-0.243011,0.812322,0.973262,-0.227244,-0.033499
-0.045102,0.250324,0.412050,0.867735,-0.470292,-0.160815
0.436820,-0.262157,0.662740,0.602017,-0.340442,-0.722270
-0.472679,-0.188499,0.554058,0.534024,0.672812,0.511999
0.048379,-0.085059,0.881306,0.952765,-0.298334,0.056883
-0.223822,-0.431610,0.384297,0.767917,-0.631118,-0.109512
-0.570902,0.495961,0.664725,-0.760590,0.647667,0.045050
0.496023,0.315207,0.818120,0.480813,0.659869,-0.577401
-0.143852,0.343194,0.676861,0.995415,-0.095382,0.007221
-0.044812,-0.422502,0.057519,-0.184697,0.131305,0.973984
-0.074237,0.371780,0.491185,-0.373468,-0.875085,0.307811
-0.030009,-0.148612,0.801753,0.954169,-0.036615,0.297020
0.349302,0.202260,-0.104791,-0.224352,0.271443,-0.935940
0.200595,0.344058,0.693454,-0.623266,-0.044920,0.780718
0.035861,-0.153399,0.123299,0.941130,0.196649,-0.274960
-0.086406,0.369852,-0.518051,0.169918,-0.985338,0.015424
0.355797,-0.401430,0.721939,0.156874,0.925969,0.343470
0.008657,-0.033804,0.682798,0.258819,0.940868,0.218587
-0.069792,0.491773,0.729983,-0.706916,0.373711,-0.600508
-0.816309,0.509590,0.624975,0.252164,-0.441067,0.861320
0.204048,0.083862,0.887922,0.566654,0.495644,0.658210
0.534864,0.151272,0.829089,0.231164,-0.390507,0.891105
-0.060198,0.368323,-0.648097,0.622056,0.778114,-0.087090
0.260442,-0.308891,0.467576,0.729581,-0.451855,-0.513361
-0.126125,0.132591,0.677279,0.058121,0.927246,0.369916
-0.096935,0.361742,0.528498,0.928850,0.332148,0.164056
-0.081607,0.321256,0.087849,-0.457910,0.860738,0.222370
0.694453,-0.091109,-0.315957,-0.088184,-0.322016,0.942618
-0.142156,0.437660,0.829194,0.371304,-0.741388,0.558997
-0.077512,-0.120891,0.043294,-0.256082,0.113151,0.960010
0.366034,-0.640485,0.221447,0.631229,0.005363,0.775578
0.305545,0.258700,0.551150,0.862427,-0.245623,-0.442594
-0.049375,0.110720,0.941463,0.877628,0.041520,0.477542
-0.662104,0.279243,0.617558,0.283314,0.487119,-0.826104
0.091961,0.181918,0.989936,0.791178,0.455694,-0.407898
0.649993,0.249992,0.748544,-0.083672,-0.869995,0.485909
0.444250,0.063720,-0.154466,-0.197414,0.877850,-0.436356
0.373757,0.063121,-0.140328,-0.495540,0.823133,-0.277293
-0.089269,0.404753,0.505062,0.888072,0.443407,0.121322
-0.136186,0.281436,-0.744661,0.132846,-0.973761,0.184775
0.042356,0.167891,0.677610,0.785719,-0.551281,-0.280597
-0.150404,-0.380289,0.625323,-0.735768,-0.239933,-0.633307
0.273488,0.244674,0.474122,0.150402,0.983524,-0.100300
-0.005968,-0.021771,0.049074,-0.228578,-0.050807,0.972199
0.182521,0.139372,-0.120391,-0.513559,0.037005,-0.857256
0.037850,0.084128,0.665143,0.953885,0.275400,-0.119412
-0.018719,-0.177065,0.844620,0.986945,0.141835,0.076298
-0.005029,-0.671264,0.551046,0.038790,-0.986788,-0.157306
-0.509534,0.106133,0.650378,-0.267431,0.876136,0.401081
-0.495788,0.477082,0.534244,0.890621,0.454734,-0.003418
-0.163565,0.343327,0.050937,0.844093,-0.424100,0.328094
0.251490,-0.022104,0.884527,0.936830,0.306259,-0.168981
0.011292,-0.203723,0.045487,-0.349503,0.289384,0.891126
-0.004447,0.050956,0.817441,0.915793,-0.367857,-0.161260
0.408680,-0.100149,0.591667,-0.589964,-0.805840,0.050633
0.345735,-0.768655,0.222753,-0.385661,-0.452085,-0.804292
-0.213525,-0.350839,0.477831,-0.647914,0.273053,-0.711090
0.267286,0.098355,0.423229,0.521474,0.798339,-0.301198
-0.031530,0.079674,0.901016,0.847218,-0.399243,0.350466
0.686263,0.074555,-0.164320,0.256402,0.671960,-0.694786
-0.202584,-0.297324,0.489026,-0.777821,0.513729,0.362046
0.357143,0.035333,0.606153,-0.730855,0.283483,0.620877
0.217856,0.205850,0.899797,0.571105,0.707407,-0.416430
0.106354,-0.001163,0.597761,0.866571,-0.169147,-0.469514
-0.083128,-0.066711,0.876727,0.296718,0.449204,0.842719
0.022814,0.052351,0.680413,0.892006,-0.074326,0.445871
0.237979,0.251786,0.875787,0.801406,-0.467794,0.372717
0.193986,0.125345,0.802049,-0.776270,0.592895,0.214198
0.221948,0.089446,0.760262,0.366124,0.541044,-0.757116
0.126478,0.284693,0.792299,0.714311,-0.308288,0.628266
0.434949,0.116570,0.649786,0.787014,0.111739,0.606732
-0.588801,0.092372,0.706252,-0.685354,0.503775,-0.525834
0.062536,0.025029,0.532329,0.757484,-0.177761,-0.628187
0.157249,0.012198,-0.085743,-0.514100,0.030889,0.857174
-0.179947,-0.822236,0.585782,0.136302,0.504602,0.852525
0.520357,0.186771,-0.116892,0.912900,0.321887,-0.251003
0.175791,0.069770,0.934533,-0.193826,-0.979509,-0.054704
-0.046041,0.001230,0.113079,0.968053,0.245803,-0.049534
-0.249619,-0.012133,0.330321,-0.803957,0.472388,0.361251
-0.292091,0.241482,0.592903,0.601652,-0.714590,-0.356898
0.134608,-0.406814,0.650291,-0.220224,0.833871,0.506123
0.260791,0.028221,0.912960,-0.269159,-0.918092,0.290964
-0.000059,-0.021041,0.678585,0.494782,0.813142,0.306580
0.380134,-0.056806,-0.148528,0.970813,0.195741,-0.138593
0.270386,-0.205651,0.722253,0.771417,-0.523904,-0.361165
-0.220312,-0.328436,0.494302,-0.371370,0.516139,0.771806
0.168889,0.063188,0.926141,-0.170252,0.880897,0.441628
-0.094886,0.334551,0.078674,0.049015,0.941261,0.334103
-0.128524,0.372644,-0.745863,-0.117836,0.920640,-0.372205
-0.096817,-0.060661,0.877006,0.903329,0.358311,0.235817
0.255236,-0.097956,0.441859,-0.621355,-0.641533,0.449837
-0.065989,0.338274,-0.373206,0.727467,0.676970,-0.111819
0.036971,-0.432873,0.456084,0.946577,-0.143395,-0.288844
0.347842,0.051089,0.421575,0.513048,0.493685,-0.702180
-0.482623,0.483264,0.713721,0.337302,0.914751,-0.222392
0.359542,0.002427,-0.315765,-0.380279,-0.454028,0.805758
-0.196854,0.397307,0.794162,-0.815880,0.564975,-0.123056
-0.585176,0.815123,0.599607,0.939242,-0.128861,-0.318149
0.269100,0.047033,0.899571,0.406200,0.895661,0.181086
-0.127239,-0.238557,0.498307,0.691055,-0.532176,-0.489113
0.493038,-0.168556,0.628074,-0.845287,-0.235139,0.479791
-0.058441,-0.484195,0.447135,-0.664133,0.098702,-0.741070
0.139582,-0.475552,-0.185649,0.429753,0.306543,-0.849320
-0.109921,0.367991,-0.741005,0.026539,-0.956991,0.288902
0.211536,-0.789197,0.383095,0.198788,-0.401355,0.894090
0.022932,0.178328,0.628823,0.855037,-0.502967,-0.126235
-0.075583,0.870832,0.715915,-0.153687,0.837265,0.524755
0.241371,-0.293734,0.748074,0.696092,-0.691003,0.194863
-0.194511,0.671065,0.733518,0.963714,-0.251739,-0.088788
0.096585,-0.364799,0.180652,0.821534,-0.185215,-0.539238
0.082542,0.239621,-0.215719,-0.361280,0.159751,0.918671
-0.063354,0.251122,-0.158435,0.621706,-0.764195,-0.171718
0.496784,0.127671,0.596542,-0.317121,0.636521,0.703047
0.102198,-0.420708,0.690947,0.819881,-0.572419,-0.011455
0.504096,0.304038,0.797192,0.832232,0.424989,0.356054
0.062947,0.286289,0.804417,0.689148,-0.146475,0.709662
0.145784,-0.613096,0.382869,0.495407,0.859072,0.128710
0.451445,-0.208775,0.611882,-0.675512,-0.715064,0.179908
-0.266701,0.298454,0.780599,0.349485,0.811545,0.468247
0.265822,-0.145688,0.438133,0.740206,0.072038,-0.668511
-0.173334,-0.877348,0.592485,0.030146,0.490070,0.871162
0.224172,-0.114642,0.813019,-0.601219,0.116486,0.790548
0.654381,-0.188965,-0.321998,-0.226068,-0.293275,0.928915
0.033404,-0.030879,0.671516,0.182838,0.932435,0.311666
-0.136186,-0.193485,0.510947,0.973967,0.226085,0.016534
-0.022346,0.325910,0.421244,0.819799,-0.564684,0.095188
-0.140985,-0.204520,0.623495,0.133690,0.060485,0.989176
-0.121154,-0.371115,0.682450,-0.168877,-0.855176,0.490056
0.063882,0.217151,0.608904,0.938835,-0.113777,0.325027
0.015327,0.219079,-0.990981,0.347932,0.428412,0.833910
-0.538492,0.125877,0.618829,0.587871,-0.797845,0.133606
0.210482,0.043111,0.895862,-0.546599,-0.091969,-0.832329
0.146659,0.042380,0.784464,0.719580,0.589987,0.366223
0.250323,0.263088,0.520889,-0.489433,0.665137,0.563957
-0.723175,0.323317,0.612508,-0.422817,0.676358,0.603130
-0.019129,0.497756,-0.183142,-0.899105,0.432446,-0.067826
-0.046858,0.310221,-0.226061,0.534222,0.828233,0.169224
-0.037850,0.309955,0.249567,0.506044,0.752429,-0.421627
0.373228,-0.233970,0.056195,-0.167152,-0.011793,0.985861
0.026149,-0.654046,0.438028,-0.208176,0.208287,-0.955656
0.225750,-0.171680,-0.081407,0.871958,0.422221,-0.247828
-0.563178,0.077414,0.540669,-0.009255,0.362054,0.932111
-0.310458,-0.509324,0.067704,0.940284,-0.337775,0.042124
-0.409559,0.073027,0.672177,0.981487,-0.146216,0.123713
-0.197729,0.135117,0.778753,0.859623,-0.389173,0.331049
0.188663,-0.404221,0.671847,0.255941,0.881807,-0.396120
0.404996,-0.135450,-0.100734,-0.077179,0.742076,0.665858
0.106822,-0.122154,0.059991,-0.129991,-0.041229,0.990658
0.395344,0.391125,-0.093230,-0.239060,0.055726,-0.969404
0.513105,0.159448,0.720111,0.780496,0.464904,-0.417960
-0.045630,-0.078212,0.848381,0.444389,0.798904,-0.405304
-0.573533,-0.544225,0.251726,-0.533662,0.581954,0.613624
-0.196093,0.444174,0.819095,0.887086,-0.269774,0.374566
0.162162,-0.594815,-0.183351,0.693548,-0.074650,-0.716532
0.272085,0.513312,0.442590,-0.136340,-0.145890,0.979861
-0.073009,0.994416,0.593234,0.790623,-0.472145,0.389866
-0.337780,-0.009606,-0.121192,-0.235937,0.222207,0.946022
-0.085820,0.296526,-0.853761,-0.718628,0.608304,0.336957
0.533111,0.137444,-0.216572,-0.078577,-0.509513,0.856867
0.317421,0.013595,0.658492,-0.479661,0.804128,-0.351146
-0.142038,-0.435732,0.634830,0.032986,0.982241,0.184704
0.491225,-0.118630,0.654627,0.970658,-0.083593,-0.225467
-0.018779,-0.530131,0.412242,0.933529,-0.226760,0.277676
-0.844038,0.256041,0.505149,0.287196,0.736816,0.612062
0.704222,0.118963,-0.176125,-0.074822,-0.318302,0.945032
-0.032994,0.327106,-0.556026,0.507754,0.858494,-0.071931
-0.505967,-0.035732,0.615468,0.967078,0.207071,0.147924
0.072891,0.245139,0.542427,0.793263,0.593854,-0.134430
0.470983,-0.276982,0.665753,-0.357733,0.406326,0.840789
-0.444015,0.873359,0.653617,-0.576309,0.634815,0.514663
0.033697,0.212498,-0.315156,-0.416250,-0.854496,-0.310762
0.193458,0.435000,0.749850,0.971940,-0.231686,0.040663
0.569030,0.148013,0.609392,-0.716515,0.559408,0.416736
-0.261202,-0.487983,0.503548,-0.760496,0.639778,-0.111045
0.783139,-0.033472,-0.202156,-0.472721,-0.243839,0.846804
-0.039603,0.069770,-0.168482,0.961674,0.270612,-0.044176
-0.421959,0.617948,0.220472,-0.643471,-0.757088,0.112972
-0.271264,0.279907,0.215040,-0.303202,-0.570215,0.763494
0.322451,-0.750108,-0.028389,0.836883,-0.131974,-0.531234
0.415057,-0.154862,0.688057,-0.029788,-0.916997,0.397781
-0.005147,0.082466,0.872009,0.998212,-0.035790,-0.047864
0.563178,-0.163836,0.658771,0.434581,0.899733,0.040246
-0.032819,-0.085325,0.821306,0.988894,0.116209,-0.092650
-0.139114,0.292737,0.773164,0.849915,0.121201,0.512791
0.078272,-0.408675,0.524023,0.946902,0.109051,0.302465
-0.155142,0.486787,0.872966,0.893871,-0.019350,0.447906
0.228500,-0.670799,0.225992,0.510029,0.610677,0.605760
0.271792,0.508525,0.439491,-0.375740,0.356782,0.855293
-0.008657,-0.243277,0.740778,-0.675494,-0.689688,-0.260840
-0.495027,-0.555260,0.256305,-0.792246,0.249033,0.557071
-0.197553,-0.592355,0.588446,0.732845,-0.269392,0.624793
-0.156546,-0.026027,-0.204123,0.415496,0.448744,0.791197
-0.272842,0.234369,-0.987429,-0.459241,0.314066,0.830939
0.199310,-0.062590,0.846414,0.981949,0.176915,-0.066915
0.070667,-0.495696,0.398661,0.221118,-0.661025,0.717044
-0.558969,0.477946,0.541522,0.862023,0.506071,0.028436
-0.118698,-0.098288,0.353374,0.605056,-0.393585,-0.692096
0.423598,-0.035732,0.696728,0.266345,0.963187,0.036479
-0.006493,-0.554329,0.216328,0.034839,0.572022,0.819498
0.400843,0.041982,0.434494,0.603751,0.776214,-0.181594
0.004679,-0.116902,0.889124,0.977391,-0.208368,-0.035907
0.346906,-0.217152,0.765642,0.921117,-0.386974,0.042354
0.145548,0.006348,-0.090304,-0.518684,0.092991,0.849894
0.241546,-0.040119,0.669217,0.270908,0.390756,-0.879727
0.068621,-0.665614,0.551185,0.106493,0.904630,0.412679
-0.016673,0.323117,-0.541801,0.840397,0.498044,0.213741
-0.304435,-0.406282,0.647732,-0.163295,-0.922164,0.350640
0.509009,0.109257,0.608904,-0.190948,0.913183,0.360050
0.071956,0.186305,0.665683,0.830867,-0.471670,-0.295275
0.194922,-0.439454,0.399706,-0.156808,0.562671,0.811672
0.551128,-0.328569,-0.456415,0.448058,-0.617495,0.646486
0.146252,0.894365,0.497715,0.777697,-0.192568,0.598418
0.295015,-0.575536,-0.136497,0.815964,0.529512,0.231993
0.088919,0.188632,0.768846,0.081327,0.986414,-0.142735
-0.479231,0.037062,0.682259,-0.557735,0.148650,-0.816599
0.220369,-0.069304,-0.071483,0.876368,0.243330,-0.415656
-0.537438,0.059331,0.541975,0.449850,0.744550,0.493234
0.139639,-0.488649,0.479293,0.480858,0.158697,-0.862317
0.294783,-0.361277,-0.055099,0.332627,-0.399303,-0.854351
0.232948,0.031544,0.578417,0.318280,0.894775,0.313169
0.000877,0.272594,0.420808,0.809970,-0.157081,-0.565043
-0.014684,-0.745321,0.251726,0.495975,-0.356136,-0.791944
0.374867,0.017982,-0.165365,0.974535,0.191473,-0.116699
-0.179362,0.624131,0.768010,0.922266,0.339808,0.184272
-0.092311,0.366728,-0.545840,-0.158442,0.955602,-0.248437
0.092958,-0.374439,0.185632,0.845052,-0.155351,-0.511619
0.368083,-0.767990,-0.132875,-0.219833,-0.178852,0.959002
-0.222358,0.340070,-0.993593,0.035806,0.254874,0.966311
-0.142799,-0.473159,0.196897,-0.373850,0.779141,0.503165
-0.533871,0.098554,0.621162,0.801092,-0.573775,0.170391
0.482859,-0.319462,-0.443774,0.165150,-0.633770,0.755686
-0.138468,0.260961,-0.814620,0.095759,0.986601,0.132097
0.565578,-0.168888,0.682589,-0.133581,0.485236,0.864120
0.183750,-0.076682,0.810320,0.801234,-0.122618,-0.585652
-0.366912,-0.332026,0.289021,-0.120934,-0.493632,0.861221
-0.238093,0.104072,0.522021,-0.384088,0.871269,-0.305559
-0.186381,0.706432,0.811904,0.680768,0.441067,0.584821
0.044166,-0.489779,0.473913,0.007008,0.494484,0.869158
-0.099977,0.279109,-0.107124,0.989937,0.023376,-0.139563
0.453316,-0.622004,-0.339166,-0.443893,0.101648,-0.890296
-0.097403,0.325976,0.128784,0.945201,-0.306464,-0.112585
0.296126,-0.646402,0.402875,0.572929,0.255738,0.778685
-0.144145,0.416919,0.523275,-0.947152,0.000647,-0.320783
0.370950,0.422769,0.734249,-0.489425,-0.263576,0.831258
-0.351409,-0.043178,0.530100,0.886195,-0.435334,0.158565
-0.148765,0.352834,-0.509259,-0.427073,0.893319,-0.139961
0.095646,0.127538,-0.120287,-0.376012,0.143089,0.915500
0.242364,0.441914,0.717308,0.853853,-0.431072,0.291741
-0.091026,-0.652452,0.075679,0.040753,-0.329244,-0.943365
-0.130573,0.705767,0.613153,-0.087571,-0.357923,0.929636
-0.872935,0.433339,0.626263,-0.181648,0.297310,0.937342
0.143210,-0.342397,0.676844,0.385970,-0.076557,0.919329
0.565346,-0.408608,-0.480739,0.417579,0.637090,-0.647877
0.525798,0.253648,0.751556,0.141781,-0.914792,0.378223
0.379198,0.245338,0.488069,-0.151646,-0.981218,0.119229
-0.175148,0.524148,0.869449,0.937793,0.075488,0.338890
0.284836,-0.305102,0.200171,0.057842,0.703730,0.708109
0.245877,0.090643,0.905125,0.953682,0.160540,-0.254397
-0.407334,0.539638,0.336467,-0.531322,-0.650688,-0.542496
-0.024160,0.313545,0.454656,0.064257,0.996642,-0.050744
-0.143560,0.363736,0.035215,-0.563615,-0.705404,-0.429818
0.260149,-0.281769,0.709368,-0.700256,0.690715,0.180425
-0.227564,-0.269070,0.206595,0.304173,-0.171615,0.937031
0.357375,-0.390527,0.715845,0.156874,0.925969,0.343470
-0.302621,0.448230,0.231442,0.771052,0.548400,-0.323630
-0.389435,0.516237,0.332828,0.514658,-0.085401,0.853132
-0.104833,0.370982,-0.355899,-0.091198,0.991455,-0.093276
-0.059612,0.335150,-0.703849,0.350279,0.931321,-0.099725
0.276002,-0.116636,0.437158,0.719500,0.242640,-0.650727
0.164269,-0.070301,-0.088703,-0.752037,-0.135110,0.645125
-0.146777,0.245405,0.657900,0.996543,0.081386,0.016695
0.271146,-0.044042,0.851898,0.142970,-0.839768,-0.523784
-0.043523,-0.426359,0.586670,0.824935,0.558271,0.088408
0.181000,0.118231,-0.200484,0.567535,-0.109509,-0.816034
0.026210,0.633172,0.635056,0.599023,0.165362,-0.783471
-0.092490,-0.409141,0.458121,-0.520470,0.099832,-0.848024
-0.116709,0.357022,-0.271383,-0.371295,0.924674,0.084363
-0.081139,-0.056473,0.349004,0.477406,-0.345673,-0.807833
-0.432725,-0.182317,0.560762,0.313643,-0.312362,0.896693
-0.140050,-0.162972,0.621057,-0.588467,0.375978,0.715784
0.219902,-0.405484,0.251604,-0.586835,0.649360,-0.483691
-0.311629,0.764002,0.684209,0.913274,0.237888,0.330665
0.361238,0.201196,0.599589,-0.527150,-0.833476,-0.165621
-0.155200,-0.411334,0.517529,0.129182,0.897889,0.420841
0.444718,0.163039,0.582125,-0.286128,0.286854,0.914246
-0.422895,0.435133,0.782148,0.956644,-0.271881,0.104465
-0.650228,-0.555459,0.246259,0.868845,-0.272666,-0.413233
-0.828592,0.454944,0.600373,-0.611762,0.402010,-0.681275
0.686730,-0.094432,-0.185406,-0.055009,0.399109,0.915252
-0.363634,0.545421,0.287681,0.921102,0.277080,-0.273492
0.550192,-0.024896,-0.176474,0.536355,-0.042716,-0.842911
-0.044519,-0.341533,0.392027,0.800195,0.050065,0.597646
-0.114602,0.371913,-0.039376,0.678937,-0.732514,0.049683
0.289809,-0.366728,-0.317506,-0.616693,-0.467912,0.633047
-0.008657,0.118497,0.662096,0.280590,-0.654094,-0.702446
0.148123,0.215223,-0.208371,-0.209624,0.329816,0.920477
0.158652,0.037726,0.670454,-0.122933,0.301244,0.945590
0.237687,-0.554529,0.370472,0.683282,0.536131,0.495670
0.059787,0.196145,0.697616,0.623136,-0.780070,-0.056500
0.542705,-0.159847,0.491029,0.944017,0.323076,0.066740
0.482216,-0.165830,0.467610,0.826133,-0.563118,-0.020059
-0.164854,0.640352,0.775636,-0.737594,-0.671209,0.073715
0.014802,0.039986,0.937319,0.504583,-0.799231,0.326536
0.109628,-0.460130,0.471075,0.459235,0.333848,-0.823194
0.305488,0.262423,-0.099132,-0.426517,0.297355,-0.854203
-0.730780,0.491042,0.624296,0.332534,0.832464,0.443198
-0.019890,0.036397,0.705555,0.993079,0.092347,-0.072570
0.029073,-0.664218,0.067304,-0.440810,-0.384155,-0.811240
-0.288988,0.167093,0.664255,-0.556821,-0.096857,-0.824966
0.211946,-0.078611,0.151210,-0.024837,0.974060,0.224925
0.330760,-0.657172,0.225713,0.219690,-0.904898,0.364550
0.014334,-0.532192,0.210844,0.086524,0.838377,0.538180
0.297708,0.636563,0.733048,-0.365596,0.026112,-0.930407
-0.446471,0.528269,0.668068,0.164717,0.728359,0.665102
-0.026677,-0.717666,0.372126,-0.693574,0.294418,0.657475
-0.167136,0.359615,-0.993035,-0.000243,0.296186,0.955130
0.096114,0.176267,0.747047,0.045271,-0.995713,0.080665
-0.030244,-0.187303,0.781730,-0.707534,0.677174,-0.202066
-0.091026,-0.048030,0.350867,-0.573821,0.370987,0.730136
0.523809,0.160379,0.760680,0.978015,-0.176557,-0.110974
0.129227,-0.312681,0.667546,-0.588242,0.391197,-0.707769
0.091319,0.066777,0.844150,-0.654869,0.336915,0.676487
-0.135487,0.321789,0.011970,0.846001,0.529482,-0.062704
-0.215924,-0.918298,0.598579,0.313683,0.493899,0.810967
-0.103194,-0.813062,0.378777,-0.038081,0.298663,0.953599
0.147712,0.225527,0.920029,0.314522,-0.821397,0.475798
0.730666,0.132192,-0.176526,-0.156580,-0.228000,0.960988
0.230781,0.323450,0.703118,0.313844,0.500699,-0.806723
0.776530,0.142962,-0.156050,0.558856,0.707703,-0.432246
-0.046390,-0.084992,0.868195,0.866619,0.406963,0.288710
0.178483,0.058003,0.568614,0.290488,0.868695,0.401229
0.045748,-0.563038,0.068000,-0.137228,-0.365700,0.920561
0.004972,-0.057470,-0.166271,-0.356085,0.294539,0.886820
-0.035450,-0.076682,0.150287,0.914176,0.393101,0.098763
-0.258510,-0.219079,0.643327,0.034490,-0.957084,0.287751
-0.168771,-0.338407,0.645608,-0.697737,-0.715742,-0.029595
-0.287935,-0.419644,0.644058,-0.660572,-0.701057,0.268631
-0.085759,0.347715,0.136636,-0.032139,0.997406,0.064413
0.269336,-0.588898,0.210287,0.113821,0.297142,0.948025
0.204284,-0.126076,-0.056178,0.483667,-0.715811,0.503667
-0.507196,-0.501612,0.265307,-0.579189,0.766286,-0.278111
-0.094479,0.243211,0.948079,0.877063,0.443028,0.185708
0.547736,0.087918,0.807464,0.112964,0.988957,-0.095929
0.055927,-0.251919,0.160055,0.922969,0.369361,0.108167
0.290452,0.030746,0.913204,0.470922,-0.422070,0.774655
-0.397976,-0.240751,0.216729,-0.720066,-0.009723,-0.693837
0.550953,0.260030,-0.177762,0.185279,0.097232,0.977864
-0.120919,0.265415,-0.829263,0.914821,0.368724,0.164756
0.025974,0.002826,0.881794,0.952774,-0.000200,-0.303679
-0.252604,0.419645,0.706165,0.463013,0.247566,0.851076
0.437930,0.203125,0.579845,-0.228082,0.110986,0.967296
0.118230,0.239954,0.510425,0.298585,0.044260,0.953356
-0.119223,0.367658,-0.999791,-0.063318,-0.309744,-0.948709
-0.122383,0.304836,0.467645,-0.500346,0.264122,-0.824557
0.295951,0.221140,0.882421,0.746931,0.517511,-0.417465
-0.065461,0.316403,0.038453,0.804772,0.580107,0.125767
0.055167,-0.318730,0.159794,0.928361,0.218372,-0.300764
0.245174,-0.083862,0.816605,-0.212658,-0.509927,0.833518
0.366034,-0.323716,-0.049109,0.040849,0.194180,0.980115
-0.381712,-0.183580,0.637494,0.291126,0.401525,0.868345
0.335323,-0.517101,-0.061140,0.150195,0.031159,0.988165
-0.175441,0.405684,0.792282,0.859474,-0.499750,0.107495
0.292266,0.294864,0.820871,-0.711479,0.700241,-0.058825
-0.003219,-0.472428,0.085081,-0.715447,-0.385877,0.582439
-0.218323,0.236962,0.723959,-0.321359,-0.864539,-0.386394
-0.055342,0.029749,0.904341,-0.434982,0.136093,-0.890095
-0.114367,-0.540036,0.535080,-0.798264,-0.252579,-0.546789
0.099449,-0.532525,0.376583,-0.126668,0.229895,0.964937
0.542648,0.193352,-0.185754,0.122689,0.827002,-0.548648
0.121211,-0.376433,0.716803,0.962751,0.150911,-0.224359
-0.450099,-0.138308,0.535376,0.018061,0.171713,0.984981
0.284604,-0.344856,-0.044373,-0.300110,0.491559,0.817498
0.634489,0.112514,-0.200118,-0.384831,-0.164608,0.908190
0.337544,0.314808,-0.098244,0.137414,-0.298026,0.944615
0.027202,-0.711417,-0.072318,0.347778,0.180625,0.920014
-0.002983,-0.705435,-0.052870,-0.519315,-0.111060,-0.847335
-0.265062,0.216886,0.751574,0.305977,0.931065,-0.198736
-0.371414,0.896692,0.656977,-0.135192,0.782063,0.608359
-0.090090,0.120824,0.946355,0.863913,0.255961,0.433750
0.643209,-0.040252,0.526409,-0.647753,0.589713,0.482344
0.215163,0.102410,0.801196,0.833526,-0.022424,0.552025
-0.018251,0.231111,-0.119469,0.634832,0.626365,0.452388
0.323212,-0.103340,0.687325,-0.458316,0.319373,0.829426
-0.011174,0.255243,0.899257,-0.755411,0.336377,0.562321
-0.125482,0.353099,-0.269068,-0.365721,0.929449,0.048703
-0.336259,-0.658036,-0.022278,-0.724263,-0.179533,-0.665741
-0.031005,-0.274389,0.415272,0.911185,0.230652,-0.341383
-0.146894,0.341931,-0.822160,-0.240432,0.933200,0.267077
0.121386,-0.217883,0.639078,0.803482,0.528231,0.274570
-0.607228,0.816121,0.565706,0.900322,-0.258714,-0.349983
0.065696,-0.790194,0.396868,0.413909,0.172839,0.893760
-0.119748,-0.020176,0.442294,0.938238,-0.284584,0.196779
-0.822801,0.385142,0.459584,-0.299176,-0.031040,0.953693
0.143852,0.296592,0.488330,-0.665913,0.430721,0.609131
0.036739,-0.424098,0.451522,0.922592,0.016172,-0.385437
-0.186792,0.046767,0.322399,-0.094274,0.414716,0.905054
0.105419,-0.231644,-0.058494,-0.034382,-0.129198,0.991023
0.151575,0.025761,-0.465678,0.273954,-0.194015,0.941970
-0.074587,0.315805,0.789792,0.772823,0.269962,0.574338
0.325026,0.046236,-0.163763,0.871533,0.442820,-0.210569
0.067450,0.293734,0.468168,-0.286311,0.882219,0.373786
0.212532,-0.033139,0.848329,0.003956,0.662944,0.748659
0.009885,-0.620210,0.380867,-0.441593,-0.087395,-0.892949
0.059202,0.197872,0.668800,0.797635,-0.513126,-0.316987
0.477124,-0.065448,0.457634,0.578974,0.533924,-0.616210
0.108811,0.052817,0.972751,-0.400618,-0.897702,0.183400
0.299636,-0.374639,-0.055116,0.211032,-0.249942,-0.944984
-0.061719,0.350108,-0.360547,0.447605,0.888577,0.100400
0.171053,0.202326,0.891474,-0.428440,0.705250,-0.564856
0.267815,0.137842,0.778387,0.854358,0.513275,0.081367
-0.647947,0.413462,0.465451,-0.480321,0.293663,0.826471
-0.132269,0.118897,-0.976181,0.028551,-0.184644,0.982391
0.007782,0.318796,0.472190,-0.271262,-0.933466,-0.234646
0.049783,0.278511,-0.336380,-0.265861,0.511339,0.817221
0.354333,-0.050889,-0.220646,0.452411,0.795094,-0.403918
-0.075583,0.355492,-0.306955,-0.686077,-0.721129,-0.096287
-0.781968,0.286621,0.613832,0.374527,0.862132,0.341258
-0.269275,0.397108,0.707227,0.793739,0.274847,0.542621
0.371065,0.172744,0.608678,0.841242,0.475502,-0.257313
0.438866,-0.039920,-0.195278,-0.052329,0.090202,0.994548
0.400140,0.035865,0.432822,0.603751,0.776214,-0.181594
0.178133,0.121357,0.422863,-0.166575,0.166515,0.971867
-0.420381,0.579325,0.630965,0.182424,0.872057,-0.454134
0.310344,0.380821,0.714940,0.266247,0.438831,-0.858219
-0.673451,0.452950,0.577181,-0.746147,-0.232579,-0.623836
-0.363166,-0.172411,0.670297,0.813867,0.511332,0.275971
-0.863283,0.277247,0.438307,-0.499522,0.543730,-0.674415
-0.448988,-0.453150,0.285017,0.259606,-0.408901,-0.874874
0.346963,0.600532,0.436322,-0.315298,0.521309,0.792984
-0.087516,-0.228120,-0.079144,-0.254175,0.417128,-0.872582
-0.501990,0.403955,0.659450,-0.477983,0.676538,0.560204
0.470458,-0.182915,0.651562,-0.715624,0.552126,0.427830
0.162923,0.757088,0.477622,-0.699884,-0.231255,0.675784
0.534807,-0.057204,0.631487,-0.076941,0.438576,0.895394
0.000352,-0.001695,0.666553,0.911996,-0.321114,-0.255244
-0.045573,0.153532,0.053114,0.760348,0.222506,0.610215
-0.106354,0.750108,0.620448,-0.098964,-0.587170,0.803391
0.571780,0.225461,0.585712,-0.405789,0.619174,0.672279
0.019772,0.238691,0.821202,0.756672,0.169108,0.631546
0.336902,0.250191,0.632723,0.597229,0.761727,-0.251174
0.052825,-0.459598,0.371308,-0.218763,-0.256712,-0.941404
-0.001052,-0.384943,0.375399,0.703056,0.076060,0.707056
-0.592489,-0.539505,0.274796,0.665188,-0.667027,0.335558
0.359425,-0.605650,-0.055238,0.244632,0.496036,0.833129
-0.044812,-0.042513,0.660076,0.318975,-0.947283,0.030167
-0.026617,0.278444,0.409665,0.856844,-0.453768,-0.244770
0.489236,0.111251,0.833216,0.234848,-0.971593,0.029211
0.625599,-0.129998,-0.316601,-0.545792,-0.471146,0.692916
-0.186792,0.361409,0.840755,0.861270,-0.507884,-0.016339
-0.107115,-0.343261,0.497471,-0.511210,-0.027955,0.859001
-0.031941,0.274854,0.330948,-0.783612,-0.615698,-0.082873
-0.115888,0.362805,-0.636379,0.298629,-0.934551,-0.193481
-0.240375,-0.318730,0.667128,0.730929,0.672440,-0.116473
-0.554930,0.530862,0.562746,-0.797058,-0.602291,-0.044092
0.186381,-0.103142,-0.315539,-0.673451,-0.208902,0.709101
-0.251844,-0.160645,-0.111250,-0.407081,0.253759,0.877435
-0.057448,0.849161,0.721086,-0.230262,0.614213,0.754799
0.010881,-0.424032,0.378916,0.072617,0.168328,0.983053
0.243535,-0.329766,0.634812,0.054448,0.994117,0.093632
0.127938,-0.619346,-0.042615,-0.161869,-0.749303,0.642140
0.306598,-0.565033,-0.057728,0.113185,0.360697,0.925790
