0.436097,-0.128407,0.514441,0.817907,0.532660,0.217487
-0.406951,-0.651163,0.782551,0.443282,0.818879,0.364606
-0.298818,-0.336218,0.932357,0.980802,-0.171267,0.093248
0.196290,-0.495931,0.539700,0.896472,0.425621,-0.123226
0.001835,-0.773584,0.480963,-0.035329,0.784682,0.618890
-0.147981,-0.464084,0.788164,0.912028,-0.372928,-0.170673
-0.064310,-0.210694,0.810502,-0.780829,0.623518,-0.039141
-0.370667,-0.662944,0.756748,0.459322,-0.349123,0.816784
-0.237363,-0.356475,0.917035,-0.564160,0.488586,0.665588
-0.660516,-0.665191,0.795266,0.912359,-0.408266,0.030341
0.365063,0.131818,0.501811,0.349814,-0.852522,0.388377
-0.022421,-0.386468,-0.318327,0.996910,-0.071279,0.033017
-0.307073,-0.766178,0.536063,0.026691,0.201016,0.979224
0.125358,-0.133269,0.576786,0.461912,-0.526770,-0.713548
0.100081,-0.758189,0.462377,0.907746,0.414173,-0.066767
-0.359458,-0.738717,0.700818,0.552011,0.568829,-0.609686
-0.719221,-0.470325,0.697982,-0.617047,-0.409575,0.671939
-0.196495,-0.360279,-0.005885,0.974248,0.213240,0.073278
-0.379333,-0.375365,0.305297,0.912526,0.254929,0.319857
0.050551,0.346061,0.281756,0.413093,0.892635,-0.180433
-0.027619,-0.550366,-0.978235,-0.028842,0.011009,-0.999523
-0.276396,-0.352588,0.693143,0.667440,0.536977,0.515926
-0.138505,-0.852365,0.580280,0.866076,0.445624,-0.226562
0.205769,-0.280619,0.081633,-0.670559,-0.697046,0.253924
0.352525,0.200376,0.714850,-0.225630,0.972468,-0.058285
0.281289,0.192197,0.573521,0.272419,0.956534,-0.104068
-0.249695,0.073283,0.442903,0.982937,0.163434,0.084408
-0.052896,-0.170085,0.003508,-0.625111,0.755617,-0.195649
-0.489096,-0.795981,0.601157,-0.695621,-0.699983,0.161668
-0.785363,-0.579978,0.651188,-0.770964,-0.632767,-0.072246
-0.135345,0.007650,0.349227,-0.007984,-0.999844,0.015780
-0.127600,-0.255000,-0.129086,0.832872,-0.341865,0.435261
0.286079,-0.179631,0.366554,0.972429,0.114601,-0.203099
-0.339789,0.509281,0.739680,0.957637,0.264274,0.114413
-0.155524,0.299711,0.644229,-0.080115,-0.929526,0.359948
-0.411844,0.036668,0.258616,0.408736,0.904105,-0.124614
-0.108335,-0.408485,0.690164,0.869273,0.473630,-0.141559
-0.226558,-0.400199,0.415267,-0.673691,-0.724189,-0.147279
0.304728,0.013094,0.384252,0.118714,-0.936339,0.330419
-0.232368,-0.221798,0.937483,0.983068,0.160459,-0.088492
-0.200162,-0.587278,-0.981672,-0.375823,0.088136,0.922491
0.225743,-0.248379,0.579306,-0.041818,-0.553972,0.831485
-0.147574,-0.359792,-0.633804,0.849013,-0.227923,-0.476685
0.427641,0.008137,0.620259,0.936529,-0.049180,0.347125
-0.178760,-0.199389,0.068402,0.934162,-0.352955,-0.052583
-0.381164,-0.438085,0.357160,0.830527,-0.517753,-0.205321
-0.306053,0.458830,0.794636,-0.782125,0.120494,-0.611361
-0.439257,0.046309,0.286080,-0.528741,-0.844011,0.089882
-0.155931,-0.417543,0.140341,-0.608984,0.630816,0.480843
-0.355175,-0.418221,0.290090,0.553005,0.823740,0.125050
0.133308,0.752935,0.411573,0.801876,0.471574,0.366895
-0.122400,-0.232211,-0.122270,0.852889,-0.306794,-0.422443
-0.558908,-0.499736,0.652448,-0.729118,-0.681540,-0.062364
0.237870,0.586410,0.453613,0.739164,0.596484,-0.312800
-0.501630,0.209910,0.651130,-0.604149,0.788721,0.113677
-0.424583,-0.637528,0.373770,0.960530,-0.272105,0.057804
-0.250407,-0.392317,0.370362,0.332044,0.409380,0.849797
-0.313290,0.333210,0.704311,0.927471,-0.057936,0.369379
-0.178250,-0.458045,-0.808411,0.740581,0.671692,-0.019217
-0.251222,0.514726,0.536607,0.988139,0.143287,0.055221
-0.630349,-0.534496,0.788278,0.999846,-0.012925,-0.011845
-0.356196,-0.375079,0.232756,-0.751109,-0.657276,-0.061832
-0.358031,0.119645,0.881152,0.788729,0.486495,0.375806
-0.076844,-0.361742,-0.390323,0.410626,0.864231,0.290675
-0.117202,0.421335,0.837078,0.759727,0.644664,0.084993
-0.539239,-0.636458,0.777682,0.707987,0.703470,-0.062321
-0.371482,-0.721575,0.701018,-0.345670,-0.713968,0.608902
-0.128210,-0.330286,-0.459513,0.861795,-0.494762,-0.111891
-0.246840,0.294646,0.890144,0.459020,0.884067,-0.087905
0.365573,-0.001016,0.367527,0.639082,0.462124,-0.614829
-0.188952,-0.393969,0.107121,0.497084,0.832228,0.245568
0.207502,-0.475579,-0.051076,0.981957,0.187552,0.024174
-0.116692,0.374307,0.784412,-0.617936,-0.180552,0.765216
-0.088156,-0.059837,0.750619,0.994004,0.077393,0.077246
-0.314615,0.353658,0.650901,-0.502152,0.836727,-0.218473
-0.171526,-0.381701,-0.065338,0.998183,0.055554,-0.023348
0.384020,0.088963,0.571087,0.873193,0.486506,0.029098
-0.396759,-0.754588,0.754256,-0.257205,0.855461,-0.449481
-0.022117,-0.113012,0.715996,0.985250,0.155689,0.071014
-0.058805,-0.381404,-0.335424,0.983357,0.100746,-0.151194
-0.398084,-0.693817,0.705113,-0.635891,0.452875,-0.624937
-0.556258,-0.526020,0.545341,-0.179969,0.962158,-0.204604
-0.064207,-0.368363,0.750419,0.869806,-0.445055,0.212986
-0.068182,-0.413454,-0.423658,0.053232,0.927409,0.370242
0.284346,-0.033161,0.292266,0.763303,0.433224,-0.479255
-0.034856,-0.367876,-0.394705,-0.700686,-0.712247,-0.041741
-0.195577,-0.116329,0.140141,-0.234263,-0.966368,0.106083
-0.224723,-0.349176,0.084153,0.836124,0.495087,-0.236190
-0.392682,-0.871160,0.708808,-0.654112,0.755358,-0.039645
-0.446495,-0.711149,0.734496,-0.484419,-0.847403,-0.217363
0.296983,-0.167648,0.376090,0.948969,0.000877,-0.315369
-0.146862,-0.317031,0.378095,0.379828,0.916823,-0.123148
0.249897,-0.123342,0.216604,-0.085505,-0.973844,0.210514
-0.139929,-0.421430,-0.980011,-0.463756,0.600010,0.651858
-0.087547,-0.458735,-0.969500,0.094549,0.506120,0.857265
-0.419181,0.060622,0.581998,0.253728,-0.774963,0.578839
-0.155729,-0.341282,0.587296,0.767746,-0.640665,0.010686
-0.150837,-0.256165,0.637699,0.935119,0.117208,-0.334388
-0.430698,0.658082,0.551069,-0.076731,0.159500,0.984211
-0.372300,-0.203978,0.704340,0.840255,-0.296009,0.454257
0.233080,-0.121393,0.218867,0.263046,-0.959728,0.098637
-0.189972,-0.387835,-0.010668,-0.630459,-0.772399,0.076943
-0.184772,-0.057210,0.284792,0.732338,0.654757,-0.187014
-0.264879,-0.242435,0.829345,0.992640,-0.062085,0.103981
0.509987,0.027217,0.557054,0.835285,0.549804,0.003709
-0.115775,-0.303408,-0.125850,0.944203,-0.290283,0.155616
0.018854,0.361159,0.321592,0.772886,-0.620939,0.130697
0.265694,-0.083114,0.269528,0.977810,0.017908,-0.208728
-0.216571,-0.409840,-0.992611,-0.385293,-0.204999,-0.899736
0.269772,-0.570825,0.701476,-0.610249,0.780514,0.135623
-0.320730,-0.341377,0.973309,0.603212,-0.601935,-0.523269
-0.366693,-0.607927,0.762160,0.838893,0.219025,0.498285
0.380452,0.110195,0.566505,0.063779,-0.952967,0.296286
-0.516917,-0.337883,0.722153,0.935192,-0.273526,0.224942
-0.453729,-0.316258,0.774246,0.650766,0.687019,0.323279
-0.447412,0.352873,0.680313,0.050609,-0.968565,0.243557
0.555851,0.240402,0.484543,0.978835,-0.190678,-0.074323
-0.342029,0.136098,0.768003,0.958049,-0.283116,-0.044586
-0.047798,-0.260457,-0.085327,0.963559,-0.055447,0.261685
-0.783935,-0.109897,0.700044,-0.496353,-0.285892,-0.819695
-0.688850,-0.460482,0.837937,0.986568,-0.093487,0.133951
-0.053303,-0.447049,-0.320532,0.936695,0.269074,-0.224059
-0.248062,-0.562931,0.759497,0.371323,-0.346644,0.861369
0.382287,0.091982,0.560348,-0.200909,0.951896,-0.231363
-0.899714,0.225792,0.741913,0.199260,-0.845058,0.496157
0.207601,-0.221596,0.593339,0.821998,-0.395191,0.410053
-0.314105,-0.375175,0.467446,0.851680,-0.508807,0.125524
-0.709234,-0.362122,0.823360,0.895354,-0.444009,-0.034599
-0.546168,-0.429716,0.748443,0.208666,0.707501,0.675205
-0.120363,-0.355988,-0.672580,0.959596,0.231176,-0.160417
-0.048921,-0.330476,0.745522,0.939059,-0.113333,-0.324536
-0.254177,-0.015341,0.753684,0.936866,-0.343624,-0.064846
0.300653,0.167851,0.550468,0.344851,0.922309,-0.174422
-0.160111,-0.219064,-0.047410,0.946484,-0.313801,0.075484
-0.026907,0.381701,0.825365,0.975857,0.136404,0.170578
-0.268549,-0.329204,0.246531,-0.053560,0.997165,0.052853
-0.242663,0.387348,0.549666,0.857531,0.251558,-0.448731
-0.225846,-0.028002,0.302805,0.650385,-0.452386,0.610202
-0.044638,-0.367769,0.736673,-0.127832,-0.818684,0.559835
0.003670,0.121690,0.530822,-0.550730,-0.823693,0.135006
0.284038,0.182746,0.648668,0.210705,-0.808931,0.548848
0.008255,-0.712421,0.647808,0.159794,0.952941,0.257620
-0.036181,-0.146809,0.557398,0.520390,-0.676484,0.521118
-0.274969,-0.746313,0.769120,0.741913,0.552551,-0.379806
-0.349468,-0.714763,0.630855,-0.558081,-0.561534,-0.610922
0.265287,0.280904,0.431476,0.979222,0.127801,0.157450
0.522524,-0.231819,0.081490,0.506681,0.707167,-0.493142
0.336629,0.015044,0.358535,-0.168302,-0.944265,0.282908
-0.106096,-0.342459,-0.519109,0.733632,-0.404537,0.546016
-0.161741,-0.160242,0.724501,0.029049,0.764375,-0.644117
-0.316245,0.536838,0.776050,0.966449,0.251083,-0.054164
-0.323582,-0.866286,0.654109,0.037729,-0.819764,0.571457
-0.281289,0.084968,0.642396,-0.746056,0.572525,-0.340023
0.589584,0.214296,0.513639,0.960505,-0.240563,-0.139859
-0.306155,0.359209,0.704970,-0.338599,-0.762285,0.551608
0.247552,0.140865,0.646262,0.964872,-0.224044,-0.137210
-0.048921,-0.395729,-0.278778,0.918786,0.392517,0.041992
-0.047798,-0.341187,-0.358535,0.834849,0.389962,0.388531
-0.205054,-0.102491,0.203975,0.899471,0.435352,-0.037681
-0.305953,0.167743,0.843665,-0.608857,0.025360,-0.792874
-0.194454,-0.138915,0.153085,0.570828,-0.801360,0.178822
0.092337,-1.000000,0.532368,0.993153,-0.074708,0.089812
-0.134019,-0.466426,0.024328,-0.674839,-0.735257,0.063156
-0.113738,-0.327065,-0.341782,0.980681,0.116555,0.157100
-0.180085,-0.385113,0.532569,0.760733,0.527765,-0.377820
0.215756,-0.116424,0.243438,0.255525,-0.915789,0.309900
0.080717,-0.420943,0.748357,-0.026843,0.871559,0.489555
-0.243375,-0.262502,0.924166,0.972709,0.198167,-0.120691
0.198737,0.179429,0.555365,-0.240840,-0.957743,0.157237
0.079494,-0.742807,0.582055,0.840505,0.382386,-0.383839
-0.786586,0.134149,0.746009,-0.197126,0.980349,0.007572
-0.256420,-0.560697,0.644286,0.752690,-0.552183,-0.358542
-0.522319,-0.249057,0.713390,0.991761,0.118965,-0.047510
-0.317467,-0.617758,0.674814,0.081304,0.996522,0.018289
-0.341114,0.427184,0.771325,0.971157,-0.220453,0.090856
-0.379637,-0.054191,0.260879,0.309383,0.950678,-0.022234
-0.244495,-0.208257,0.963687,0.965775,0.066130,-0.250810
-0.146352,0.002776,0.394648,-0.078669,0.981703,-0.173410
-0.518854,0.315189,0.774647,-0.139130,0.931707,-0.335505
-0.006929,-0.520278,0.684494,0.829619,0.112257,-0.546928
-0.544128,-0.584556,0.679110,0.862170,0.496060,-0.102895
0.001835,-0.358912,0.691968,-0.066140,0.872246,-0.484574
-0.390337,-0.571895,0.656772,0.766599,-0.586410,-0.261628
-0.412350,-0.799095,0.645374,-0.511520,-0.586933,-0.627580
0.278026,0.195894,0.447485,-0.199117,0.077893,0.976875
-0.056155,0.407902,0.827627,0.847917,0.522633,0.088839
0.024969,-0.436718,-0.211765,-0.633911,0.737947,0.231495
-0.247552,-0.221691,0.931526,0.974594,0.024831,-0.222596
-0.551978,-0.661292,0.752424,0.458660,0.876406,-0.146779
0.025989,-0.464191,-0.231897,-0.432370,-0.881335,0.190537
-0.026397,0.439452,0.296390,-0.667091,0.721179,0.186791
-0.766204,-0.401280,0.759497,0.066680,0.994660,-0.078769
-0.408988,-0.331939,0.765167,-0.393287,0.842262,-0.368674
-0.299328,-0.321608,0.784298,0.608758,0.733085,0.303316
0.323989,-0.022153,0.373312,-0.458284,0.787424,-0.412237
-0.267122,0.168136,0.684694,0.489011,-0.832537,0.260288
-0.295963,-0.308175,0.952117,0.945092,-0.243045,0.218474
0.225743,-0.479479,0.498232,-0.686739,-0.622765,0.374904
-0.750305,0.150994,0.804717,-0.090941,0.970860,0.221722
0.056768,0.791689,0.421424,-0.119838,-0.765802,0.631812
-0.124033,0.192577,0.774503,0.539049,0.831231,-0.135948
-0.288626,-0.325507,0.934619,0.895418,-0.155176,-0.417309
-0.158886,0.352493,0.501840,0.263963,0.961009,-0.082376
0.419893,0.049424,0.435858,-0.703342,0.632960,-0.323530
0.184163,-0.349949,-0.071982,0.478926,0.876231,-0.053372
-0.218509,0.266009,0.865830,0.544721,0.769741,-0.332833
-0.324907,-0.529633,0.451580,0.664862,0.738592,-0.111533
-0.090707,-0.368066,-0.347652,0.842402,0.513418,0.163589
-0.319507,0.298142,0.727594,0.892219,0.048807,0.448959
0.169383,0.603552,0.426550,0.828999,-0.553058,0.082989
0.027722,0.085456,0.123531,0.981496,-0.089583,-0.169232
-0.663881,-0.583093,0.704025,0.748584,-0.082334,-0.657908
0.446902,-0.234839,0.061042,0.361266,-0.076506,-0.929319
-0.279759,-0.307984,0.938228,0.910688,-0.219762,-0.349789
-0.044741,-0.576281,-0.978435,0.072432,0.132707,0.988505
-0.371890,0.042125,0.492189,-0.292103,0.956085,-0.024016
-0.107623,-0.520373,0.686012,-0.499621,0.007221,-0.866214
-0.114960,-0.374592,-0.273193,0.796476,0.604671,-0.000437
-0.666938,-0.475877,0.734124,0.007815,0.989139,0.146777
0.030779,-0.655158,0.382190,-0.715961,-0.661564,-0.223008
-0.423258,-0.265319,0.748643,0.777981,-0.508691,0.368753
-0.201487,0.070750,0.933015,0.955876,-0.282614,-0.080186
-0.298921,0.138048,0.683033,-0.304676,-0.944947,0.119364
-0.442825,-0.737350,0.499749,0.970747,-0.090807,0.222270
-0.126782,-0.420753,0.028967,0.718608,0.672240,-0.178036
-0.038424,-0.628279,-0.970589,0.094014,-0.013653,0.995477
0.415716,0.216436,0.701047,-0.191867,0.980681,-0.038092
-0.666531,-0.390177,0.644429,0.291467,-0.512708,0.807575
-0.300345,0.168920,0.780747,0.143571,-0.662388,0.735275
-0.317467,0.322595,0.709610,0.973575,0.015040,0.227873
-0.116083,-0.410921,-0.653651,0.174503,0.980746,0.087671
-0.189767,-0.206118,0.068803,0.837131,-0.540193,-0.086044
-0.194964,-0.424355,0.954780,-0.641211,0.546210,-0.538983
-0.372503,-0.497203,0.553790,-0.219436,0.955300,-0.198115
-0.245618,-0.002966,0.438693,0.964330,0.261463,0.041285
-0.478903,-0.704147,0.872532,-0.284713,-0.558727,-0.778950
-0.155116,-0.241270,-0.034409,0.867133,-0.444356,0.225007
0.284038,0.202706,0.533657,0.378774,0.837927,0.392950
0.216469,-0.394457,0.022553,0.834592,-0.538065,0.118078
-0.142479,-0.419778,0.166058,-0.603436,-0.792597,-0.087494
-0.374745,-0.448796,0.356530,-0.651025,0.750508,0.113595
-0.226253,-0.380917,0.362573,0.220020,0.823164,0.523442
-0.248165,-0.383936,0.754027,0.833195,-0.412725,-0.368029
-0.354566,-0.611137,0.677907,0.642196,0.720234,-0.262388
-0.234508,-0.455620,0.814740,-0.732266,-0.063864,0.678017
-0.587239,-0.191317,0.926543,-0.215802,0.874138,0.435101
-0.374337,-0.238833,0.740882,0.551438,0.112556,0.826588
-0.241030,-0.139890,0.773129,-0.267303,-0.010393,0.963556
0.312475,-0.061692,0.321993,0.965229,-0.215470,-0.148005
-0.852221,-0.351803,0.792059,-0.472995,0.864867,0.168169
-0.516917,-0.305345,0.663960,-0.297470,0.105731,0.948858
-0.405829,-0.539275,0.112763,0.515192,-0.789384,-0.333843
0.362923,0.167946,0.400117,0.969004,0.145958,0.199316
-0.243272,0.031604,0.935564,0.885988,-0.338465,-0.316965
-0.048205,0.403515,0.811361,0.745194,0.647623,-0.158964
0.240725,-0.454252,0.559546,0.716932,0.313751,-0.622550
0.053201,-0.332034,0.693658,0.790225,-0.271260,-0.549512
-0.379024,-0.552613,0.599181,0.154438,0.936396,0.315136
0.499083,-0.085848,0.229291,-0.625883,-0.154527,0.764455
-0.520484,0.376542,0.794865,0.198008,-0.856486,0.476680
-0.372708,-0.457855,0.408766,0.418206,0.902525,0.102730
-0.479718,-0.295609,0.762046,-0.557272,0.158025,-0.815154
-0.161128,0.758784,0.573407,-0.478809,-0.877217,-0.035113
0.296271,-0.217506,0.045520,-0.308469,0.946628,-0.093504
-0.579799,-0.471395,0.628678,-0.462799,-0.846858,-0.262009
-0.283021,-0.548131,0.352464,0.120031,-0.030394,0.992305
0.036384,0.501483,0.435199,-0.319704,0.916552,-0.240256
-0.485120,-0.937375,0.517648,0.663254,0.747789,0.030090
-0.050246,-0.353063,0.800278,0.961154,-0.125934,-0.245610
-0.196697,0.094704,0.917837,0.982305,-0.104381,-0.155507
0.185895,0.818568,0.414809,-0.277302,-0.951190,0.135428
-0.000815,-0.406725,-0.209445,-0.694085,0.646313,0.317057
0.213716,-0.083804,0.576872,0.614887,0.776229,-0.139222
0.040766,0.542389,0.457766,0.572012,-0.807643,0.143231
-0.441092,-0.807465,0.535032,0.900988,0.433734,0.009823
-0.273237,-0.514239,0.749674,0.326492,0.847212,-0.419087
-0.376477,-0.552708,0.602446,-0.009500,0.930397,0.366431
0.084794,0.825094,0.439438,0.567032,0.749959,-0.340642
0.285771,-0.009790,0.365265,0.691782,0.663128,-0.285832
-0.007337,-0.930658,0.503386,0.870339,0.229747,-0.435576
-0.296271,0.159470,0.781606,0.970126,-0.009604,-0.242412
0.286281,-0.051956,0.293727,0.840797,0.032804,-0.540356
-0.337646,-0.303598,0.740195,-0.485041,0.872791,0.054519
-0.052488,0.449486,0.801137,-0.664831,-0.679816,0.309597
0.331939,-0.480941,0.653536,-0.298590,0.952365,-0.062007
-0.411638,-0.338263,0.743574,0.223587,0.509239,0.831074
-0.150224,-0.465356,-0.793204,-0.533984,-0.840193,0.094539
-0.280574,-0.284316,0.804402,0.200162,-0.971843,-0.124324
-0.393904,0.197154,0.550382,0.974119,0.145677,0.172832
-0.029149,-0.114177,0.034180,0.438120,-0.837199,0.327336
0.376375,0.002681,0.411114,-0.648047,-0.147607,0.747160
-0.293111,-0.319955,0.369303,0.958100,-0.283703,-0.039461
-0.376070,-0.412574,0.314747,0.477968,0.877569,0.037664
-0.113635,-0.594684,-0.975028,0.094398,0.266475,0.959208
-0.043111,-0.512194,0.083838,0.630198,0.770287,0.097513
-0.467284,0.400793,0.668542,0.565985,0.772730,-0.287315
-0.069812,-0.491545,0.638959,0.936674,-0.150974,-0.315989
-0.245618,0.437503,0.555680,0.862698,0.372344,-0.342217
-0.746025,0.161609,0.789223,0.132194,0.950931,0.279742
-0.134122,-0.195205,-0.055801,-0.597569,0.788279,-0.146723
-0.554727,-0.230072,0.764566,0.626424,0.058764,-0.777264
-0.180698,0.251981,0.677793,0.913404,-0.219299,0.342930
0.053810,-0.424164,-0.196157,0.336355,-0.921740,0.193028
-0.370058,0.415890,0.802540,-0.380976,-0.865871,0.324229
-0.242968,-0.206605,0.693057,0.991647,0.127172,0.021538
-0.522726,-0.711743,0.221015,0.300216,0.953055,-0.039458
-0.379535,-0.823537,0.645747,0.324580,0.406320,0.854138
-0.030981,0.292792,0.660867,0.791743,0.490982,-0.363427
-0.196187,-0.120703,0.990750,0.950667,-0.063683,-0.303607
-0.648796,-0.666748,0.806807,0.878949,-0.122703,0.460860
-0.293415,-0.561766,0.717886,0.784937,-0.517467,0.340737
-0.720748,-0.414809,0.688188,0.880752,0.389463,-0.269432
0.041988,-0.591462,0.738305,-0.785518,0.465793,-0.407429
0.019059,-0.405857,0.755173,0.443856,0.844366,0.300065
-0.254382,-0.331249,0.411687,-0.732253,-0.680260,0.032432
-0.614042,-0.699178,0.735813,0.964324,0.247131,0.094895
-0.462596,-0.701413,0.216175,-0.171071,0.821434,0.544042
-0.041074,0.820720,0.532225,-0.098731,0.831586,0.546550
0.064105,0.318886,0.221501,0.016004,-0.974683,0.223018
-0.156644,-0.365629,-0.160330,0.985706,-0.167299,-0.019861
0.058603,0.853637,0.449461,-0.099162,-0.889771,0.445504
-0.113433,-0.387348,-0.575870,0.839228,0.464914,-0.282050
0.289338,-0.093635,0.302948,0.861994,-0.175256,-0.475660
-0.363228,0.289582,0.713103,0.820972,-0.324303,0.469928
-0.387484,0.079417,0.825422,0.410051,-0.900555,0.144424
-0.213411,-0.372452,0.018056,-0.690572,-0.713720,-0.117111
-0.075009,-0.378586,0.709438,0.885526,0.302293,-0.352793
0.260292,-0.282271,-0.006859,0.718382,-0.693665,0.052498
-0.450469,-0.604515,0.735756,-0.186198,-0.309991,-0.932328
-0.411741,-0.502363,0.464009,0.164288,0.787361,0.594199
-0.305542,-0.255880,0.746839,-0.606965,0.715608,-0.345686
-0.208827,-0.087203,0.262654,-0.720127,-0.691010,0.062624
-0.318997,0.045144,0.516703,0.986100,0.068241,-0.151495
0.411026,0.069681,0.567908,0.810476,-0.585772,0.000091
-0.038626,-0.444612,-0.284906,-0.773227,-0.623332,-0.116516
-0.340094,-0.447049,0.789567,-0.410464,-0.865322,-0.287640
0.024767,-0.332616,0.704512,-0.281848,0.952429,-0.115934
-0.595086,-0.456202,0.782637,0.869107,-0.472019,0.147820
0.266612,-0.118468,0.616593,0.628050,0.178730,-0.757370
0.074499,-0.529146,0.375660,-0.676472,0.603980,0.421419
0.342946,-0.006378,0.464925,-0.425950,0.867951,-0.255398
-0.150022,0.274283,0.755860,0.923873,-0.098973,0.369680
0.126375,0.328431,0.277145,-0.278750,-0.884984,0.372963
-0.238688,-0.035301,0.790684,-0.177708,-0.565776,0.805182
0.038523,-0.655550,0.369933,0.800838,0.492649,0.340522
0.150327,-0.879731,0.452554,0.986683,-0.145454,-0.072799
-0.280063,-0.255785,0.725819,-0.085273,-0.993901,-0.069921
-0.100998,-0.450555,0.235105,-0.803786,-0.594762,0.013666
0.294128,0.051183,0.546143,0.922706,-0.286998,0.257382
-0.204342,-0.227635,-0.024729,0.976500,-0.043513,0.211080
0.090909,-0.726936,0.462119,0.928500,0.162734,-0.333775
-0.302995,-0.345467,0.896273,0.723623,-0.679240,-0.122484
-0.011415,-0.123628,0.527042,-0.636263,0.441311,0.632782
-0.049633,-0.145537,0.515758,0.876229,-0.439417,-0.197825
0.357825,0.170085,0.546057,-0.553444,-0.792535,-0.256101
-0.054728,-0.362229,0.740682,0.300381,-0.935520,0.185938
-0.198125,-0.149341,0.087160,0.480300,0.864518,-0.148054
0.577659,-0.090223,0.563956,0.470962,0.496650,-0.729064
0.222686,0.305940,0.470653,0.419549,-0.158266,0.893829
-0.202404,-0.126944,0.120380,-0.144423,-0.971111,0.189959
0.541786,0.095299,0.593912,0.743099,0.501117,-0.443492
-0.244293,-0.452208,0.615734,0.902272,-0.367268,-0.225874
-0.114960,-0.404490,0.747154,-0.628066,0.755608,-0.185982
-0.316857,-0.686423,0.719089,0.924259,-0.141288,-0.354658
0.044741,0.100553,0.125907,0.978091,0.049877,-0.202114
-0.302386,0.111074,0.537351,0.336588,0.898172,-0.282834
-0.282104,0.057317,0.576700,0.685089,-0.728222,-0.018577
-0.140747,-0.401470,-0.661182,0.804084,0.593697,-0.031199
-0.190787,-0.192387,0.946447,0.872099,0.144177,0.467607
-0.251325,-0.194622,0.840944,0.997758,-0.064617,0.017434
-0.192112,0.198712,0.598780,-0.121629,-0.832709,0.540187
-0.266307,-0.338263,0.151539,0.956305,0.262007,0.129740
-0.310640,0.202515,0.802139,0.585519,-0.204738,-0.784379
-0.669588,-0.474212,0.645002,0.347541,0.080650,-0.934190
0.282306,0.028489,0.626845,0.864768,0.217468,0.452641
-0.094069,0.300483,0.644343,-0.000888,-0.845743,0.533589
0.147879,-0.016899,0.561808,-0.544733,-0.830530,0.116131
-0.283836,-0.639287,0.518192,0.127315,0.532227,0.836974
-0.222686,-0.596051,0.753913,0.777435,-0.555088,0.295756
0.490725,-0.014652,0.367527,-0.570785,-0.219670,0.791169
-0.365775,0.407700,0.700674,-0.053760,-0.821332,0.567911
-0.146862,-0.432831,0.014963,-0.628652,-0.776858,0.035895
-0.201997,-0.121880,0.776537,-0.259487,-0.672210,0.693398
-0.258970,-0.350829,0.505649,0.957790,-0.116224,-0.262928
-0.318997,0.199983,0.649956,0.835626,0.323157,-0.444183
-0.513859,-0.448309,0.664419,-0.558116,-0.659384,0.503707
0.104973,0.646396,0.272850,0.703038,0.674432,-0.225564
0.012842,0.094027,0.123788,0.983479,-0.035630,-0.177479
-0.152059,-0.158293,0.773072,0.248991,0.508849,-0.824061
-0.439360,-0.470218,0.451666,0.419447,-0.898631,-0.128553
0.209436,-0.176219,0.173475,-0.451899,-0.892063,-0.003180
-0.195475,-0.142720,0.561121,0.435291,0.527633,-0.729469
0.069915,0.087596,0.502441,0.953471,0.260953,0.150983
-0.169485,-0.436623,-0.805547,0.911716,0.407438,-0.052609
0.619038,0.021963,0.544883,0.927788,-0.299815,-0.222084
-0.879535,-0.272535,0.607944,-0.179273,-0.960457,-0.213034
-0.406643,-0.665191,0.855549,0.418477,0.790831,0.446614
-0.122198,-0.355405,0.618225,0.852144,0.512508,0.105761
0.446290,0.090033,0.446397,-0.461645,0.860156,-0.216830
0.242355,-0.247606,0.578962,0.450562,-0.188192,0.872684
-0.160824,-0.341092,0.572920,-0.651383,0.684309,0.327751
-0.774356,0.119443,0.724444,-0.178943,0.968944,0.170665
0.317775,-0.014069,0.628907,0.095218,-0.554320,0.826839
-0.108335,-0.435648,-0.739708,-0.026537,0.978461,-0.204720
-0.357623,-0.398641,0.742858,0.040590,-0.524863,0.850218
-0.160111,0.437408,0.767229,0.512262,0.772759,-0.374741
-0.436302,-0.359590,0.860704,0.983830,0.159772,0.080946
-0.180493,-0.307200,0.618483,0.729426,0.375856,-0.571550
0.189767,-0.348688,0.637585,0.812044,0.523895,0.257136
-0.014879,0.076492,0.473145,0.804723,-0.241696,0.542220
-0.343353,-0.323462,0.758810,0.769090,-0.616559,0.168395
-0.193948,-0.200174,0.028996,0.813177,0.520322,-0.260783
-0.090501,0.438287,0.806922,-0.688797,-0.670721,0.275123
-0.427230,-0.601305,0.357590,0.959493,0.073475,0.271981
-0.290156,-0.529729,0.511692,0.964205,-0.113630,-0.239576
0.062578,-0.713396,0.451408,0.933426,-0.325806,-0.150223
0.230228,-0.614548,0.691968,-0.802882,0.594262,-0.047258
-0.004485,-0.239903,0.501468,-0.671659,-0.093400,-0.734950
-0.343049,-0.698298,0.746524,-0.684043,0.691324,-0.232715
-0.966263,-0.669375,0.551556,0.789479,0.425817,-0.442044
-0.034244,-0.454550,-0.353380,0.320752,-0.858743,-0.399597
-0.081024,-0.474700,0.073872,0.591043,0.801923,0.087102
-0.286791,0.018551,0.639332,0.282948,0.606820,-0.742772
-0.118223,0.805812,0.431992,0.825480,-0.513942,0.233337
-0.893496,0.124020,0.820955,0.084815,-0.935265,0.343636
-0.268039,-0.305155,0.936166,0.878744,-0.328635,-0.346133
-0.008460,-0.535767,0.524407,0.313759,0.835891,0.450378
-0.182838,-0.376732,-1.000000,-0.257138,0.334994,0.906454
0.316957,-0.097534,0.374601,0.954808,-0.267537,-0.129485
-0.342436,0.146809,0.780546,0.484161,-0.665841,-0.567665
-0.150529,-0.108340,0.181379,-0.172112,0.978065,-0.117330
-0.640949,-0.403420,0.401263,0.247573,0.965486,-0.080899
0.336831,0.064224,0.518164,0.518426,0.650067,-0.555561
-0.075927,-0.490285,0.282357,0.214159,0.943061,-0.254501
0.078679,-0.499926,-0.975085,0.003583,0.025621,0.999665
-0.633407,-0.589417,0.525409,-0.551849,0.426478,-0.716645
-0.322257,-0.270098,0.709552,-0.683765,0.728287,-0.045435
-0.620465,-0.278859,0.778685,0.238159,0.678265,0.695152
-0.275274,-0.321228,0.339261,0.850104,-0.524346,0.048824
0.336729,-0.486588,0.689620,-0.777873,0.573091,0.257837
0.147372,-0.493399,0.449146,0.863587,0.416216,-0.284573
-0.031594,-0.443447,-0.275370,0.616360,0.777776,-0.123146
-0.139929,-0.378586,0.126996,0.928607,0.211605,-0.304817
-0.419790,0.007353,0.232699,-0.190304,-0.960985,0.200730
-0.208827,-0.094312,0.234933,0.957506,0.287559,-0.022168
-0.818689,-0.643079,0.659006,-0.375794,-0.907233,0.188964
0.005095,-0.530703,0.301745,0.313452,0.945703,-0.085985
-0.129432,-0.425912,-0.699157,-0.086022,-0.981652,-0.170177
-0.079392,-0.467306,0.193837,-0.576098,-0.815254,-0.058917
-0.040156,-0.401958,0.699815,0.954243,0.191253,0.229875
-0.237973,-0.009100,0.256154,0.960213,0.272618,0.060585
-0.202202,0.633438,0.411659,0.603021,-0.787644,0.126419
-0.130045,-0.429027,-0.711614,0.026474,-0.897776,0.439655
-0.376172,-0.733558,0.240889,0.769261,0.281576,-0.573544
0.228599,-0.158198,0.181208,-0.737833,0.493035,-0.460999
-0.360475,-0.612991,0.839512,-0.414012,0.734998,-0.537002
-0.236446,0.090615,0.990091,-0.737160,-0.516997,0.435097
-0.078984,0.408877,0.810502,0.756606,0.586602,-0.288869
-0.074297,-0.434483,0.554305,-0.597654,-0.335355,0.728249
-0.239808,-0.728981,0.798073,0.903140,0.354038,-0.242889
-0.209029,0.055071,0.769549,0.896204,0.387339,0.216304
-0.199449,-0.107948,0.172845,-0.296660,0.952659,-0.066589
0.333062,0.210112,0.592107,0.033614,-0.435860,0.899387
0.062677,-0.106783,0.516216,-0.584432,-0.088091,0.806647
-0.244087,-0.663241,0.332073,-0.071498,-0.713196,0.697309
-0.219016,-0.074352,0.329238,0.955754,-0.292340,-0.032728
0.398187,0.163559,0.613615,0.869690,0.096164,-0.484140
-0.286791,-0.250328,0.764165,-0.055405,-0.937736,-0.342902
-0.311558,-0.508782,0.531767,0.197137,-0.971254,-0.133427
0.019772,0.072891,0.723728,0.612717,0.768889,-0.182724
0.312677,-0.117791,0.572863,0.400507,0.915992,-0.023490
-0.278129,0.115056,0.722153,0.875088,0.348247,-0.336072
0.019977,-0.591082,0.372424,-0.260356,-0.627334,-0.733939
0.270994,-0.249651,-0.017970,0.750667,-0.658977,-0.047409
-0.564105,-0.733653,0.699586,0.850932,0.486610,-0.197801
-0.039848,0.847111,0.482194,0.948653,-0.000196,0.316319
0.439665,-0.376732,0.553675,-0.627548,-0.366978,0.686666
-0.656338,-0.612896,0.752223,0.927504,0.047128,0.370829
-0.178658,-0.160445,0.106663,0.338164,0.920185,-0.197243
-0.453322,-0.767925,0.547632,0.876378,-0.475640,-0.075683
-0.342539,0.135516,0.802454,0.963341,-0.246552,0.105762
0.259785,-0.098889,0.548721,-0.001631,0.821071,0.570824
-0.049938,-0.335053,-0.174793,-0.515398,-0.346071,-0.783964
-0.400326,-0.788765,0.404528,0.984090,0.170498,0.049972
-0.471464,-0.490582,0.529676,-0.500808,-0.840791,-0.205574
-0.241643,-0.570433,0.734353,0.570967,0.033901,-0.820273
0.344069,0.227349,0.714650,-0.120701,0.992007,-0.036784
-0.177538,-0.378194,-0.650815,0.777631,0.627037,-0.045988
-0.375050,-0.644541,0.756891,0.732311,-0.244958,0.635387
-0.445474,-0.492032,0.467302,0.953464,0.058264,0.295825
-0.231248,-0.180594,0.810645,0.721670,-0.684932,0.100303
-0.213107,-0.318981,0.584089,0.149755,0.962585,0.225840
0.493375,0.200269,0.655111,0.475686,0.115300,-0.872025
-0.295963,0.095299,0.509286,0.924411,-0.364801,0.111283
0.043416,-0.105321,0.592508,-0.248736,0.688664,-0.681082
-0.167041,-0.199496,0.884273,0.817379,-0.387337,-0.426453
-0.249185,-0.194622,0.908186,0.986366,0.156993,0.049357
-0.352018,0.127527,0.664676,0.841244,-0.539878,0.028989
-0.187118,0.053121,0.613185,-0.442814,-0.856078,-0.266546
0.120260,-0.710959,0.430903,0.948379,0.125094,0.291424
-0.283631,-0.379169,0.316523,-0.703630,0.701384,-0.113864
-0.345596,-0.274283,0.726248,0.644312,-0.759275,-0.091451
-0.305238,-0.386860,0.965949,0.915070,-0.053953,0.399670
0.389727,0.078834,0.458854,0.739048,-0.650918,0.173530
0.591316,-0.132389,0.575297,0.148402,0.684581,-0.713671
-0.371890,0.298736,0.674327,-0.374857,-0.818962,0.434492
-0.275989,0.080392,0.541160,0.705641,0.647597,-0.287556
0.193845,-0.135706,0.233043,-0.478704,-0.851480,0.214066
0.046371,-0.409257,-0.210562,-0.723823,0.625624,0.290989
-0.370565,-0.598191,0.762332,0.939338,0.012172,0.342777
-0.319812,-0.050886,0.278692,0.306759,0.951684,-0.014011
-0.408174,-0.649416,0.664619,0.636841,-0.654638,-0.407287
-0.418568,-0.658272,0.838596,-0.060759,-0.972856,-0.223292
-0.627090,0.051278,0.632888,-0.474175,0.866539,0.155783
-0.363330,-0.751176,0.256870,0.745499,0.274299,-0.607446
0.084082,0.544921,0.455446,0.795642,-0.598135,0.095858
-0.258867,-0.376245,0.232756,-0.516837,0.838138,-0.174367
-0.248778,-0.788480,0.772155,0.798244,0.535291,-0.276172
-0.538729,-0.627887,0.733093,0.590632,0.524485,0.613245
0.182530,-0.532938,0.491072,0.681048,0.709990,-0.179131
-0.176213,-0.454443,-0.978865,0.571114,-0.328050,-0.752471
0.039441,0.441200,0.379126,0.302452,0.919428,-0.251346
-0.290053,-0.358425,0.961024,-0.098694,0.953518,0.284716
0.433040,0.067636,0.546601,0.504134,0.846851,-0.169389
-0.565735,-0.453765,0.719604,0.859644,-0.496575,0.120103
-0.458009,-0.519018,0.700417,0.304846,0.929065,0.209541
-0.273849,0.538787,0.569569,0.061948,0.662672,-0.746343
-0.294843,-0.626139,0.827999,-0.407938,0.866468,-0.287782
-0.236853,-0.125185,0.765167,0.391157,0.656873,-0.644604
-0.007542,-0.598678,0.367384,0.830226,-0.502458,-0.241371
-0.213617,0.818283,0.595744,0.255968,0.955379,0.147417
-0.403076,0.006675,0.231840,-0.206448,-0.958097,0.198570
-0.236038,-0.499438,0.748214,-0.660623,0.485878,-0.572276
0.387892,0.147391,0.572232,0.759238,0.588004,0.278944
-0.188545,-0.350436,0.020147,0.934029,0.046751,0.354125
0.332757,0.118563,0.613070,0.922893,-0.384859,-0.012345
-0.241745,-0.165021,0.822129,-0.352561,0.877262,0.325748
-0.391357,-0.412669,0.323281,0.879385,0.342219,0.331009
-0.668263,-0.451328,0.762218,0.942797,0.121209,-0.310551
-0.309517,0.038713,0.626387,-0.549142,0.833657,-0.058814
-0.237261,-0.812148,0.827226,0.875452,-0.087178,0.475377
-0.386159,0.239035,0.633948,0.251293,0.880507,-0.401944
-0.860578,0.060622,0.606398,0.157055,0.126812,-0.979414
-0.340806,0.340415,0.741398,0.926272,0.211151,-0.312145
0.363026,-0.028382,0.337772,-0.104792,-0.524499,0.844937
-0.438442,0.044847,0.502928,-0.186051,-0.951595,-0.244646
0.198022,-0.065686,0.560147,0.471092,0.231622,-0.851131
-0.519364,-0.238738,0.806206,0.755929,-0.605166,0.249690
0.280676,-0.293660,0.574781,-0.707462,0.226534,-0.669462
-0.125457,-0.277790,-0.100248,0.460065,-0.867290,0.190129
-0.418873,-0.232306,0.911766,-0.013301,-0.285647,0.958243
-0.237463,-0.324045,0.416613,0.739306,-0.631904,0.232647
0.144517,-0.044847,0.580308,-0.828647,0.543470,0.134108
-0.197412,-0.260362,0.496399,0.985172,0.144739,-0.092122
-0.535771,-0.818865,0.532340,0.900982,-0.418734,0.113553
-0.848043,-0.451911,0.728597,-0.296108,0.955085,-0.011482
0.066960,0.154988,0.131721,0.993128,-0.094810,-0.068610
-0.040868,-0.100446,0.054828,0.922505,-0.366702,0.120477
-0.245412,0.031021,0.778513,-0.537384,-0.379226,-0.753264
-0.280474,-0.336028,0.110300,0.981519,0.020581,0.190257
-0.149611,-0.114284,0.761530,-0.790371,0.590629,-0.162698
-0.438747,0.079025,0.789682,0.315106,-0.893016,-0.321296
0.283531,0.172035,0.548778,0.446738,0.832510,0.327645
-0.316347,-0.737742,0.700130,0.982781,-0.006894,0.184648
0.215756,-0.350151,0.558973,0.086040,0.990838,0.104100
-0.763554,-0.392994,0.655999,0.492547,0.780625,-0.384737
0.328680,-0.196857,0.367985,0.985376,0.168928,0.022300
0.125663,-0.539168,0.408623,0.958777,-0.280473,-0.045631
-0.143702,-0.390462,-0.627103,0.884788,0.465622,-0.018584
0.210659,-0.290153,0.056002,0.183580,-0.972127,0.145835
-0.166531,-0.441592,-0.838395,0.950002,0.294500,-0.103757
0.109253,-0.926474,0.536378,0.988223,-0.105069,-0.111249
0.512740,-0.046309,0.541790,-0.259494,0.098218,0.960737
-0.393496,0.363299,0.725475,-0.582723,-0.478588,-0.656801
0.602933,0.030332,0.591105,-0.072227,-0.561624,0.824234
-0.126683,0.470515,0.806406,-0.124692,-0.884495,0.449579
0.079189,0.205820,0.190343,0.995679,-0.013022,-0.091940
-0.297391,-0.315189,0.951057,0.942823,-0.255215,0.214361
-0.096311,-0.342353,0.708120,-0.667963,-0.743873,-0.021888
-0.717591,0.151101,0.750390,-0.626945,0.777303,-0.052355
-0.095904,-0.338465,-0.477956,0.909368,0.413914,-0.041546
-0.212597,-0.736375,0.800135,0.998682,-0.042069,-0.029400
-0.189972,-0.171250,0.989347,0.967824,-0.123185,-0.219414
-0.888707,0.114866,0.822071,0.084815,-0.935265,0.343636
-0.290053,-0.445004,0.783238,-0.225620,-0.764577,0.603752
-0.221666,-0.063927,0.228060,0.961663,0.190117,-0.197637
-0.139217,-0.234648,-0.092716,0.916757,-0.320170,0.238847
0.185690,-0.184398,0.615791,-0.162880,0.396457,0.903489
-0.213309,0.098509,0.984478,0.885338,-0.302264,0.353290
-0.277211,-0.548523,0.603047,-0.619473,0.258836,-0.741119
-0.323787,-0.127432,0.913484,-0.288215,-0.890827,0.351226
-0.077865,-0.371181,-0.986569,-0.288099,0.162779,0.943664
0.373622,0.144277,0.609834,0.935249,0.007211,-0.353918
-0.163576,-0.518328,0.796039,-0.878873,0.240073,-0.412247
0.333979,-0.124507,0.176454,-0.405111,0.784506,-0.469507
-0.260904,0.111847,0.675902,0.163066,0.941761,0.294102
-0.308603,-0.272238,0.749646,0.529133,-0.819567,0.219836
-0.246433,-0.542092,0.707089,0.619296,-0.495057,0.609419
0.052078,0.540345,0.432421,0.397372,-0.879909,0.260490
0.181308,-0.363299,0.711356,-0.151845,0.730676,0.665624
0.388097,0.166769,0.342240,-0.381353,0.506590,0.773264
-0.289646,-0.339238,0.706173,0.784675,0.369955,0.497411
-0.256930,0.157722,0.723184,0.333624,-0.942054,-0.035057
-0.380350,0.436242,0.830520,0.260624,0.949344,-0.175559
-0.244495,-0.332711,0.029712,0.970881,-0.228683,0.071376
0.116692,-0.327362,0.596661,-0.648361,0.611530,-0.453498
-0.114450,-0.673073,0.622406,0.743273,0.659469,0.112459
-0.206687,-0.134149,0.550468,0.492868,0.203705,-0.845923
-0.324499,-0.207960,0.695720,-0.578831,0.089566,-0.810514
-0.201692,0.000921,0.265633,0.903058,0.364541,-0.227146
-0.564718,-0.524569,0.735928,-0.649518,-0.349001,0.675518
0.537198,0.013094,0.257786,0.608909,0.475502,-0.634923
-0.202811,0.421822,0.577702,0.951243,0.224674,-0.211325
-0.127292,0.341770,0.779630,-0.546422,-0.515840,0.659797
0.377090,-0.424937,0.722554,0.799541,-0.599409,-0.037991
-0.094884,-0.238738,-0.218695,0.944162,-0.325014,-0.054081
-0.212597,-0.386670,0.746810,-0.095181,0.155576,0.983228
-0.055238,-0.247499,-0.351919,0.773386,-0.583131,0.248659
0.297288,-0.049424,0.303779,0.971021,0.027512,-0.237405
-0.217691,-0.363976,0.051219,0.996564,-0.075300,-0.034504
-0.121688,-0.426304,-0.883815,0.972996,0.230816,0.001868
-0.161844,-0.154203,0.764996,-0.026687,-0.690055,0.723265
0.033631,-0.555335,0.707777,0.366876,0.897226,0.245737
-0.253362,-0.108922,0.940662,0.719534,0.493060,-0.489043
-0.253568,-0.290355,0.829002,0.970955,0.057188,0.232327
-0.219834,-0.544339,0.758753,-0.149462,-0.450563,0.880144
-0.232673,-0.612801,0.701190,0.344695,0.560424,0.753067
-0.362108,-0.424652,0.363690,-0.850762,0.480624,-0.212615
0.320730,0.585233,0.384080,0.950838,0.215774,0.222146
-0.137382,-0.038130,0.623781,0.827132,-0.548850,0.120902
-0.330107,-0.277492,0.782809,0.053438,0.998564,-0.003890
-0.549736,-0.623702,0.760385,0.800980,0.480563,-0.357057
0.431818,0.070655,0.365809,0.063437,0.522837,0.850069
-0.244190,0.124412,0.675559,0.498048,-0.696587,-0.516444
-0.841213,-0.238155,0.558429,0.293679,0.919893,0.259902
-0.538116,0.530894,0.608689,-0.785671,-0.483938,-0.385389
-0.245210,-0.364274,0.200768,0.388963,0.901651,-0.189035
-0.356401,0.184303,0.737503,0.843277,0.537212,0.016908
-0.272829,0.038320,0.334107,0.853321,0.520242,0.034517
-0.608031,-0.277885,0.878517,0.858052,-0.444177,0.257787
-0.106706,-0.448214,0.041683,0.575926,0.804549,-0.144949
-0.509477,-0.456107,0.804488,0.047952,-0.987646,0.149187
-0.183245,-0.378586,-0.676246,0.969716,0.236506,0.060959
0.262740,-0.380917,0.620402,0.967506,0.044335,0.248929
-0.210354,0.134244,0.785987,0.097035,-0.037082,0.994590
-0.298818,0.132983,0.865344,0.593878,0.804137,0.025926
-0.167345,-0.437990,-0.951143,0.908988,-0.416422,-0.018252
0.786281,0.072510,0.626674,0.173028,0.879796,-0.442743
0.438035,0.116329,0.571087,-0.355171,0.774702,0.523155
0.050551,0.683011,0.473832,-0.528826,-0.066728,-0.846103
-0.207704,-0.078632,0.269241,0.804465,0.589009,-0.076838
-0.495107,0.403420,0.836591,-0.442606,0.883265,-0.154737
-0.476763,-0.447334,0.759383,-0.472996,0.559943,0.680249
-0.131472,-0.356772,-0.315234,0.920126,0.390756,-0.026023
-0.262740,0.163654,0.703710,0.916248,0.299496,0.266066
0.177131,-0.347524,0.643169,0.889527,0.449294,-0.082928
-0.171625,-0.480347,-0.977634,0.622813,-0.287715,-0.727547
-0.305443,-0.340795,0.942982,0.854214,-0.493537,-0.163524
-0.168160,-0.361147,0.687845,-0.526697,0.301480,-0.794796
-0.203626,-0.131712,0.767401,0.287070,0.655840,-0.698187
0.139217,-0.300388,0.711614,-0.182090,-0.836681,-0.516535
-0.241338,-0.298237,0.603018,0.551668,-0.781681,0.290925
-0.842744,-0.204453,0.539127,-0.551602,-0.825818,-0.117302
-0.275071,0.119348,0.558601,0.623460,0.771319,-0.127922
0.615063,0.016506,0.578619,-0.651920,0.500268,0.569853
-0.122502,-0.459614,-0.798703,0.809072,0.545539,-0.218609
-0.525784,-0.665476,0.656114,0.076315,0.822928,0.562996
-0.964736,-0.295419,0.634721,0.413661,0.875598,0.249424
0.386464,-0.176314,0.594312,0.884984,-0.219369,0.410707
-0.357521,-0.525152,0.470138,0.017874,-0.995825,0.089515
-0.422848,-0.298046,0.761301,0.852972,0.026271,-0.521296
0.376782,0.145347,0.573435,0.643648,0.709826,0.286119
-0.651549,-0.541117,0.789395,0.999846,-0.012925,-0.011845
-0.076437,0.177290,0.796383,0.256440,0.961466,0.099106
-0.471566,-0.514536,0.649584,-0.440614,-0.891657,0.103956
-0.286281,0.028977,0.527586,0.954116,0.260308,-0.147991
-0.844884,-0.225982,0.567736,0.293679,0.919893,0.259902
0.662861,0.100351,0.640763,0.733328,0.494182,-0.466919
-0.138604,0.802115,0.559202,-0.326188,-0.930916,-0.164305
-0.211782,0.046892,0.904721,0.583516,0.811393,0.033915
-0.288523,0.009599,0.445709,0.975481,0.142155,0.168017
-0.632695,-0.383746,0.809614,-0.039215,-0.066767,0.996998
-0.242255,-0.193742,0.945444,0.590241,0.807191,0.007594
-0.241338,-0.307497,0.445251,0.913587,0.405986,0.023110
0.310335,0.151291,0.593768,0.242147,0.308571,0.919864
0.463107,0.112632,0.617452,0.066769,-0.928110,0.366270
0.379535,0.128205,0.664189,0.588628,-0.491499,0.641830
-0.852731,-0.422797,0.761960,0.248370,0.928049,-0.277555
-0.010600,0.036763,0.730802,-0.883720,0.376454,-0.278067
-0.035264,-0.404193,-0.308733,0.996383,0.007066,0.084680
-0.348246,-0.272725,0.734009,-0.188294,0.927523,-0.322871
-0.376477,0.598773,0.750848,0.981952,0.181775,-0.052224
-0.211271,-0.020786,0.213340,0.847221,0.483809,-0.219420
0.397677,0.045429,0.423142,0.858653,0.262541,-0.440213
0.026191,-0.539275,-0.969873,0.015346,0.117062,0.993006
-0.256217,-0.496811,0.773272,0.800429,0.594094,-0.079784
0.092641,-0.119729,0.559517,0.586667,-0.803842,0.098287
0.179270,-0.661874,0.559632,-0.258814,0.793132,0.551322
-0.135752,-0.450651,-0.679167,-0.028494,-0.998709,0.042048
-0.370565,-0.901640,0.587583,-0.691122,-0.703920,0.163850
-0.300245,-0.681739,0.730859,-0.660479,0.667205,-0.344390
-0.441500,-0.759259,0.640935,0.773414,0.512089,-0.373624
-0.070017,-0.345669,-0.577359,-0.454213,0.250181,-0.855044
-0.082349,0.199686,0.618340,0.683024,0.730354,-0.007827
0.294436,0.145644,0.468734,0.968379,-0.051602,-0.244089
-0.060845,0.182163,0.597835,0.365302,0.603560,-0.708710
-0.614655,-0.654480,0.687930,0.927243,0.362982,-0.091998
0.297696,-0.503041,0.507367,-0.120388,0.905547,-0.406806
0.460559,-0.415784,0.658977,0.648707,-0.749649,0.131172
0.240520,0.175542,0.551098,-0.175316,-0.982590,0.061495
-0.787606,0.122760,0.735642,0.906534,-0.336945,0.254290
-0.235018,0.232211,0.852915,-0.655404,0.753885,0.045851
-0.253975,0.172915,0.864227,0.387712,0.119412,0.914013
-0.263657,-0.516676,0.803886,0.659896,0.746524,0.085085
-0.415309,-0.519303,0.698498,0.619351,0.784259,0.036631
0.045658,-0.580074,0.342498,0.845337,-0.492523,-0.206945
0.304118,-0.295324,0.574695,-0.685099,0.280908,-0.672109
-0.286383,-0.303598,0.928834,-0.656345,0.601728,0.455120
-0.532206,-0.186633,0.838739,0.954494,-0.276540,0.111657
-0.175398,-0.616986,0.822215,-0.353660,0.114882,0.928292
-0.226048,-0.280619,0.570228,-0.584470,-0.811403,-0.004476
0.260497,0.173390,0.629681,0.355357,-0.672291,0.649420
-0.360985,0.244289,0.720950,0.280001,0.959814,0.018870
0.205972,0.291235,0.492991,0.423399,0.877309,0.225969
-0.237463,-0.320443,0.880092,0.930137,0.069325,-0.360610
0.308908,-0.509757,0.755860,-0.396605,0.767779,-0.503210
0.350591,-0.264154,0.048470,0.432856,0.615094,-0.659010
-0.148491,0.793746,0.556968,-0.330371,-0.900676,-0.282202
-0.349571,0.275364,0.807008,0.051559,-0.171689,0.983801
0.137382,-0.056818,0.551756,0.353668,-0.892726,0.279213
-0.756827,-0.592342,0.679797,-0.147883,-0.810489,0.566779
-0.332552,0.192292,0.848304,-0.056983,-0.313662,0.947823
-0.193030,-0.399616,0.010124,-0.482012,-0.874770,0.049413
0.102834,0.288703,0.237882,0.326714,0.921850,-0.208447
-0.282306,0.100839,0.586867,-0.704443,0.364073,-0.609270
-0.216266,-0.294052,0.518192,0.868744,0.373863,0.324824
-0.471666,-0.643959,0.705829,0.500840,0.858244,0.112144
0.131880,-0.322000,-0.094663,0.091414,-0.983596,0.155506
0.199960,0.554955,0.339605,0.866784,-0.360209,-0.344869
-0.176008,-0.346834,0.578218,0.240530,-0.955130,-0.172836
-0.264879,-0.162977,0.701161,0.896210,-0.394592,-0.202743
-0.178863,-0.515416,-0.979581,-0.580501,0.233852,0.779956
-0.111191,-0.443339,-0.673497,0.143411,-0.980850,0.131783
-0.232166,-0.262787,0.951916,0.937880,-0.346957,0.001557
-0.077457,0.192779,0.613987,0.725386,0.667948,-0.166314
0.089176,-0.340795,0.703338,0.479891,0.220229,-0.849237
-0.976966,-0.715143,0.552243,0.764447,0.450267,-0.461390
-0.657866,-0.396014,0.752939,-0.258951,-0.429948,0.864921
0.102834,0.806204,0.437519,0.608571,0.791633,-0.054389
-0.114248,-0.322392,-0.649699,-0.627091,0.764817,0.147690
-0.072157,-0.325804,-0.318728,0.928249,0.356360,-0.106590
-0.088769,-0.509864,-0.951430,-0.268010,-0.764067,0.586832
-0.287301,-0.326970,0.154975,0.941012,0.261008,0.215340
-0.169383,-0.402350,-0.018973,0.597272,0.799899,-0.058550
-0.052488,-0.396692,0.826911,0.179083,0.975725,-0.126053
0.034141,0.930563,0.499664,0.703659,-0.653863,0.278078
0.265389,0.176124,0.647207,0.752520,0.403038,-0.520839
-0.188747,0.142910,0.738849,-0.248160,0.936737,-0.246863
-0.192010,-0.333781,-0.123158,0.895624,-0.430866,-0.110509
0.599061,0.135218,0.631342,0.432379,0.597226,-0.675551
-0.882695,-0.243505,0.545800,0.345955,0.914946,0.207821
0.194965,-0.642592,0.584003,-0.696640,0.716110,0.043350
-0.289033,-0.270193,0.713504,-0.424689,0.905304,-0.008005
-0.089176,-0.218291,-0.006343,-0.439968,0.885440,-0.149747
-0.237158,-0.335243,0.103971,0.316598,0.205871,0.925950
-0.282919,-0.152265,0.745608,-0.240038,0.844135,-0.479393
0.241438,-0.468470,0.662929,0.894613,0.421718,-0.147722
-0.252547,-0.357747,0.106663,0.579832,0.728718,0.364370
-0.217184,-0.084671,0.216490,0.958914,0.280501,-0.042454
-0.397677,-0.318006,0.882469,-0.304673,-0.376318,0.874962
0.031491,-0.427766,-0.213225,-0.592526,0.786451,0.174378
-0.641969,-0.561957,0.759497,-0.733773,0.417370,-0.536078
0.638505,-0.019133,0.616335,0.974486,0.100180,-0.200852
-0.148389,-0.491937,-0.944786,0.866020,0.248350,0.433973
-0.620260,-0.771052,0.691396,0.840689,0.422558,0.338655
0.394924,-0.166971,-0.011956,-0.593636,0.790267,0.151900
-0.056460,-0.263084,0.534316,-0.643825,0.576078,-0.503609
-0.643089,-0.560114,0.757693,0.838619,-0.111839,0.533113
-0.153079,0.371775,0.767917,-0.114730,-0.876309,0.467889
-0.394719,-0.450555,0.373083,-0.530736,-0.820422,-0.212667
0.210251,-0.342257,-0.091284,0.734096,0.626104,-0.262861
-0.142681,-0.422215,0.157782,-0.515814,-0.853436,-0.074712
-0.383917,-0.521443,0.499664,0.416095,0.874644,-0.248723
-0.476456,-0.503920,0.462319,0.948961,-0.283972,0.137234
-0.419181,-0.299996,0.890316,0.683399,0.042806,0.728789
-0.405931,0.414809,0.779687,0.131453,-0.962115,-0.238864
-0.381472,0.254418,0.751507,0.893324,0.334550,-0.300082
-0.224418,0.268243,0.859874,-0.492409,-0.839666,0.229117
-0.400426,-0.254323,0.743317,0.706564,0.618550,0.343748
-0.369342,-0.494766,0.437805,0.699652,0.674474,0.235738
-0.186813,-0.322975,-0.028767,0.964156,-0.220030,0.148288
-0.663573,0.038320,0.624411,-0.540691,0.837947,-0.074146
-0.147574,-0.622335,0.719833,0.134024,0.976037,0.171434
-0.181920,-0.386468,0.200796,0.563746,0.804930,-0.185145
0.158478,-0.417436,-0.149992,0.003079,-0.998782,0.049237
0.632897,0.081176,0.596718,-0.586667,-0.757302,0.286908
0.357623,-0.415498,0.724988,0.794841,0.595616,0.116057
-0.379839,-0.225007,0.592881,0.847660,0.097939,-0.521421
0.333062,0.057115,0.604679,-0.335414,0.391490,-0.856874
-0.453017,-0.662849,0.398514,0.968148,0.156107,0.195753
-0.244803,-0.061787,0.147987,0.108364,0.993591,-0.032147
-0.063595,-0.246916,0.771124,0.972709,-0.222752,0.064948
-0.472381,-0.513169,0.473431,0.922613,0.185225,0.338343
-0.365165,0.236990,0.695863,0.765495,0.261514,0.587901
-0.174480,-0.233091,0.842347,0.618886,0.691196,-0.373134
0.295761,0.311492,0.443705,-0.693123,-0.412961,-0.590799
-0.036486,-0.463989,-0.312513,0.953861,0.251129,-0.164572
-0.524154,-0.548131,0.745779,0.466539,-0.421158,0.777796
0.301773,-0.459127,0.583831,0.928877,0.200585,0.311372
0.189257,-0.529633,0.518966,0.765859,0.590773,-0.253866
-0.238380,-0.369433,0.104916,0.535003,0.751529,0.385973
-0.334386,0.093837,0.432163,0.994295,0.100226,-0.036487
-0.010905,0.082436,0.488953,-0.280415,-0.848944,0.447952
-0.605993,-0.219943,0.752624,0.208892,0.781643,0.587706
0.418161,0.066174,0.612240,0.777578,-0.088835,-0.622480
-0.304217,-0.523975,0.744892,-0.403699,0.846608,0.346818
0.467999,0.103573,0.586151,-0.208576,0.875936,0.435008
-0.136057,-0.481809,-0.939516,0.883203,0.467344,0.039272
-0.253465,-0.630038,0.728568,0.333532,-0.861412,-0.383048
0.435385,-0.174270,0.586294,0.909980,-0.296357,0.290016
-0.550855,-0.567508,0.680628,0.947602,0.275074,-0.162432
-0.091929,-0.484733,0.050990,0.600880,0.798866,-0.027485
0.058805,-0.734331,0.399573,0.551755,-0.526469,-0.646836
-0.409293,-0.561671,0.357275,-0.823041,0.007815,-0.567929
-0.437627,-0.636268,0.671492,-0.503725,0.009461,-0.863813
0.296066,-0.024007,0.434770,0.492929,0.869179,-0.039359
0.057377,-0.568685,0.367355,-0.746739,0.653542,0.123547
-0.052386,-0.445872,-0.293641,-0.301909,0.891036,0.338978
0.112516,-0.191317,0.564242,0.743272,-0.315712,-0.589807
0.073582,-0.241365,0.560806,0.736206,0.472367,-0.484634
-0.317977,-0.522715,0.509229,0.744209,0.513468,-0.427205
-0.099978,-0.342257,-0.989318,0.325081,0.020503,-0.945464
0.192927,-0.260362,0.091198,-0.200478,0.961476,-0.188076
-0.220751,-0.779124,0.564128,0.866555,0.181024,-0.465094
-0.123827,-0.396406,-0.758122,0.534075,0.559843,-0.633514
-0.087954,-0.600521,-0.976230,0.005715,-0.100564,0.994914
-0.236853,-0.375959,0.426264,0.943201,0.330163,0.036932
0.193640,0.478111,0.418618,-0.281914,-0.334625,0.899194
-0.357623,-0.541509,0.711385,0.087395,-0.058884,-0.994432
-0.239605,0.001801,0.311969,0.989029,0.122180,0.083024
-0.269060,-0.290450,0.689420,-0.802463,0.359090,0.476558
-0.224316,-0.004916,0.791715,0.972197,-0.054986,0.227617
0.045761,-0.241270,-0.514298,-0.588509,0.795262,-0.145655
-0.123012,-0.445384,-0.734267,0.429758,-0.887438,0.166619
-0.321137,-0.218291,0.742572,0.708446,0.673330,0.211498
