0.767008,0.078282,0.564176,-0.671596,-0.214629,0.709150
-0.909784,0.265352,-0.960336,-0.038046,0.117151,0.992385
-0.254426,-0.222974,-0.749090,0.810937,-0.260279,0.524057
0.063186,-0.566804,0.710097,0.698795,-0.471326,-0.538087
-0.323390,-0.272022,0.670217,-0.687235,-0.513522,0.513812
0.522336,-0.034628,0.591296,0.837316,-0.235424,-0.493434
0.708108,-0.294683,0.502322,0.726282,0.100176,-0.680058
-0.045043,-0.486168,0.638740,-0.533113,-0.046354,-0.844773
0.411248,-0.372474,0.650110,0.476116,-0.071231,0.876493
-0.030876,0.372671,0.587419,0.237300,-0.784730,-0.572615
-0.109041,0.274868,0.761657,-0.094210,-0.463395,0.881130
0.600500,-0.107513,0.676034,0.532703,-0.361709,0.765110
0.311217,-0.502256,0.643743,0.559340,-0.006360,0.828914
0.334205,0.490093,0.428164,0.911597,-0.299188,-0.281917
0.137376,-0.476848,0.562332,0.296688,0.409455,-0.862741
-0.295555,-0.673533,-0.937356,-0.003007,0.137368,0.990515
-0.739916,-0.032665,0.454950,0.365471,0.276416,0.888834
-0.252188,0.409064,0.784110,-0.801639,0.319148,-0.505489
-0.358680,0.586031,0.470485,-0.406719,-0.525807,0.747065
0.503330,-0.230331,0.794236,0.553136,0.823870,-0.123605
-0.483314,0.317442,-0.036169,-0.465773,0.405445,0.786556
-0.653803,-0.641749,0.319178,-0.548392,0.834449,-0.054417
0.014729,0.396410,0.629069,0.829787,0.217260,-0.514054
0.147190,-0.326073,0.718283,-0.336981,0.934005,-0.118652
0.001054,0.815482,-0.987026,-0.228341,0.058083,0.971847
0.765021,0.245733,0.680008,0.274377,0.950901,-0.143194
-0.325377,-0.289582,0.499832,0.845198,0.291037,0.448261
0.360675,0.578478,0.352954,0.633268,0.478498,-0.608286
-0.707857,0.183442,0.560011,0.254895,0.278523,0.925988
0.748373,0.245242,0.608148,0.957553,-0.180362,0.224859
0.080334,0.694232,-0.228648,-0.602785,0.526381,0.599644
-0.591050,0.777222,-0.988295,-0.061823,0.149127,0.986884
-0.303382,-0.497057,0.121529,0.991032,-0.049153,-0.124256
0.057725,0.500588,0.568724,0.927685,-0.010381,-0.373220
0.364156,-0.093192,0.735039,0.576303,-0.348013,0.739434
-0.643989,-0.517068,-0.941976,-0.023170,0.110935,0.993558
-0.358058,-0.290956,0.303978,0.670194,0.742176,0.003737
-0.303261,0.132431,0.739444,0.973247,0.136446,-0.184858
0.580864,-0.423386,0.647812,0.653376,0.755231,0.052212
0.374342,-0.140278,0.796869,0.916927,0.339587,-0.209586
-0.289344,0.586326,0.461437,-0.651193,0.237332,-0.720847
0.317057,-0.410928,0.607334,-0.413642,-0.412204,0.811781
0.243246,-0.294976,-0.944561,0.140836,0.105763,0.984368
0.080334,0.780458,0.300890,-0.690926,0.148215,0.707569
-0.144581,-0.165784,0.827389,-0.368648,-0.805218,0.464460
0.125939,0.060625,0.641780,0.731904,0.664681,-0.150054
0.037216,-0.120463,0.947458,0.354447,0.467289,-0.809943
0.501957,0.531980,0.386370,0.943570,-0.163777,-0.287842
-0.523951,0.754171,-0.985279,-0.017035,0.199343,0.979782
0.572044,-0.380322,0.743274,0.247013,-0.941061,-0.231060
-0.307114,0.905043,-0.993561,0.057916,0.076197,0.995409
-0.053614,0.541299,0.507421,-0.751589,0.649400,0.115732
0.957383,-0.215714,0.477523,0.977429,0.116985,0.175920
0.118612,-0.484009,0.588759,-0.577755,0.703599,-0.413700
-0.766136,-0.223562,0.509742,-0.392541,0.892837,-0.220802
-0.084187,0.465764,-0.972544,0.018017,0.115345,0.993162
-0.527183,0.556504,0.534637,0.469254,0.874069,-0.125713
0.099098,-0.193348,-0.946453,0.324721,0.269760,0.906524
-0.247592,-0.151265,0.764721,0.777630,-0.628179,0.026122
-0.148927,-0.195606,0.825211,-0.115213,-0.970336,0.212542
0.208828,-0.035707,0.924837,0.448855,0.669924,0.591380
0.573409,0.336374,0.631439,0.665591,-0.408421,-0.624645
-0.785271,0.300374,0.594336,0.271850,-0.924747,0.266348
-0.374585,0.636747,0.553452,0.225607,-0.771290,0.595158
-0.150793,0.281145,0.632181,-0.161793,-0.874239,0.457743
-0.717179,0.231509,0.375215,0.166420,-0.058838,-0.984298
-0.532772,0.721896,-0.053164,0.991407,-0.104240,-0.079036
-0.167690,-0.445066,0.490521,0.959201,0.274333,-0.068366
0.605719,-0.128604,0.662342,0.421729,0.488152,-0.764102
0.583974,-0.278399,0.799430,-0.556404,0.711129,0.429780
0.285870,0.412890,0.339214,0.626978,0.222551,-0.746572
0.227091,0.689130,-0.976039,-0.043567,0.103189,0.993707
-0.466416,0.404062,-0.025062,0.945566,0.291088,-0.145511
0.240759,-0.101727,-0.177805,0.494473,-0.160970,-0.854158
-0.019446,-0.423484,-0.931420,0.097276,-0.124813,0.987400
0.038089,0.490485,0.542800,0.737994,0.657361,-0.152452
0.819697,-0.317833,-0.163515,0.119506,0.880484,-0.458765
0.019697,-0.215617,0.698367,-0.032230,-0.200677,0.979127
-0.064058,0.561998,0.512615,-0.908564,0.253366,0.332142
-0.468654,-0.669903,0.060777,0.196077,0.794872,0.574224
-0.283375,-0.421227,0.737170,0.610793,0.755426,-0.237201
-0.205097,0.501471,0.585887,0.051296,0.998628,0.010486
0.491892,0.491859,0.412103,0.171545,0.809544,0.561437
-0.354084,0.696881,0.367771,0.061457,0.666012,-0.743405
-0.315813,0.831273,0.358818,-0.124417,-0.471697,0.872939
-0.142343,-0.568177,0.621864,-0.590676,-0.354752,0.724744
-0.492636,-0.119384,-0.695926,0.802558,0.538291,0.257183
-0.370861,-0.655875,0.469504,0.782898,0.062266,-0.619027
-0.344513,0.959193,0.396759,-0.575148,0.812965,-0.091063
0.876981,-0.282126,0.565899,-0.273189,0.802521,0.530404
-0.349610,0.583088,0.636777,0.867426,0.491331,0.078521
-0.193037,-0.620855,0.466201,-0.398513,0.538474,-0.742451
0.507182,0.426134,0.428811,0.070617,-0.964425,0.254752
-0.511027,0.112616,0.444322,0.172714,0.983761,0.048832
-0.139355,-0.231214,0.062620,-0.303212,0.944978,-0.122798
0.378195,0.574554,-0.147333,-0.114365,0.085299,0.989770
-0.057095,-0.269570,0.859800,0.400453,0.837395,0.372032
0.873508,0.029037,-0.962275,0.044982,-0.093698,-0.994584
-0.295184,0.185403,0.560274,0.003418,-0.706775,0.707430
-0.083565,-0.195507,0.697889,-0.013647,-0.527526,0.849429
-0.231066,0.254660,0.752513,-0.024930,-0.309022,0.950728
0.607084,-0.525112,0.709642,0.875237,0.013674,-0.483502
-0.252931,-0.954777,0.575905,0.878980,-0.354390,0.319064
0.443929,-0.282029,0.694322,-0.003555,0.631680,0.775221
-0.163716,0.319306,0.714142,0.951261,0.106603,-0.289375
0.151665,-0.197665,0.861260,-0.539634,0.397112,0.742359
0.709602,-0.533648,0.642235,0.584749,0.197636,0.786771
-0.143458,-0.667256,0.304553,0.262498,0.746101,0.611905
0.126067,0.675105,0.298233,0.643114,0.165836,-0.747598
0.191301,-0.108789,0.896137,0.217311,-0.975532,-0.033367
-0.188441,0.258290,0.682330,0.993562,0.093864,-0.063431
0.514881,-0.013831,-0.952868,-0.097041,-0.095499,-0.990688
0.008760,-0.633804,0.384240,0.589729,-0.795488,0.139353
-0.813728,0.298901,0.580285,0.875259,0.482546,0.032727
0.394600,-0.187463,0.855826,0.801190,-0.395113,-0.449422
0.049147,-0.314302,0.015870,0.844772,0.533261,-0.044648
0.448032,-0.136355,0.679337,0.506363,-0.422306,-0.751834
0.018825,-0.408082,0.684699,-0.138638,0.812667,-0.565996
-0.515374,-0.462723,0.404132,0.346847,0.297414,0.889518
0.154152,-0.134392,0.916268,0.688228,0.594960,0.415168
-0.138741,-0.144888,-0.062955,0.136424,0.904747,0.403511
-0.236284,0.437610,0.677566,0.937293,-0.324610,0.126928
0.654433,0.249657,0.052375,0.759166,0.650643,-0.018175
-0.144581,0.474201,-0.207942,0.613460,-0.787961,-0.052756
-0.164831,-0.927408,-0.929864,0.054252,0.066570,0.996306
0.004786,0.496568,0.633665,0.083978,0.996020,-0.029879
0.592051,-0.014518,0.705405,0.053157,-0.682761,0.728705
0.923208,-0.188934,-0.116742,-0.018757,-0.781261,0.623923
0.366265,-0.057976,0.842517,0.548140,0.715792,-0.432648
-0.231187,0.250736,0.748516,-0.440733,0.374365,-0.815846
0.608699,0.081813,0.585599,-0.038426,0.652091,0.757166
0.203360,0.307339,0.595079,0.803252,-0.365741,0.470128
0.016466,-0.002747,0.885604,-0.174858,-0.982960,0.056690
0.670830,-0.018245,0.705549,0.078663,-0.734393,0.674151
0.570800,0.101138,-0.125862,-0.636945,0.769603,-0.044869
0.686242,0.176870,0.374521,0.818700,-0.094800,0.566342
-0.653432,0.285659,0.560920,0.674152,0.040836,0.737463
0.546075,0.017559,0.737481,0.817435,-0.520384,0.246981
-0.139734,0.189524,0.744614,0.045891,0.684692,-0.727386
-0.115252,0.080636,0.545265,0.911712,-0.396583,0.107248
-0.747873,0.248088,0.378615,-0.082616,-0.018119,0.996417
0.008517,0.868844,-0.985877,0.136512,-0.156721,-0.978163
-0.571664,0.270944,-0.963328,-0.043801,0.005703,0.999024
0.092514,-0.191093,0.938146,-0.431090,0.821483,0.373265
0.895252,-0.443300,0.711605,-0.629455,-0.658129,0.413101
-0.480705,0.745636,0.632827,0.867529,0.490872,0.080239
0.071392,-0.754267,0.553763,0.887065,-0.459616,0.043226
0.522215,0.339416,-0.964501,0.039104,0.219833,0.974753
-0.302268,0.803513,0.501987,0.775899,-0.491455,0.395542
-0.105059,0.211989,-0.360901,0.096588,0.995236,0.013246
0.474122,-0.486168,0.827221,0.282128,0.952866,-0.111582
0.638278,0.491172,-0.978552,0.051558,0.216423,0.974937
0.214168,0.164705,-0.300771,0.728830,-0.597285,0.334751
-0.266105,-0.822346,0.361954,-0.423545,0.847713,0.319361
0.400561,0.111830,0.783273,0.863795,0.036756,-0.502501
-0.232059,0.487346,0.673521,0.922784,-0.351455,0.157955
0.070398,0.073573,0.693628,0.820735,0.557203,0.126167
0.410755,-0.289974,0.643934,-0.179887,-0.978136,0.104360
-0.521714,-0.035412,0.685753,0.889633,0.429472,0.155261
0.507054,-0.083088,0.829184,-0.628322,0.178250,-0.757257
-0.322275,0.447322,0.586078,-0.683579,0.551932,0.477588
-0.565203,-0.054051,-0.353720,0.901708,-0.360602,-0.238516
0.142844,0.715226,0.395682,-0.251030,-0.925010,0.285204
-0.612180,-0.200804,0.411791,0.811180,-0.244743,0.531119
0.279780,0.317540,-0.255194,-0.603476,0.489793,-0.629221
0.758066,0.039925,0.557306,0.441177,0.746475,-0.498135
-0.525195,0.140769,0.587897,-0.349759,0.168735,0.921519
0.472264,-0.104963,0.507109,0.792657,-0.382545,0.474714
0.027281,0.820876,0.423569,-0.008682,-0.406075,0.913798
-0.643117,-0.047478,-0.950833,-0.117008,0.011697,0.993062
-0.225969,0.021876,0.734728,-0.671292,-0.282358,-0.685304
0.199378,0.354522,-0.970366,0.002946,0.234033,0.972224
0.062192,0.283304,0.680582,-0.657147,0.431870,0.617775
0.247220,0.467727,-0.684556,0.467457,-0.782883,-0.410582
0.318423,-0.389249,0.769150,-0.076345,0.922771,0.377710
0.050641,-0.707868,-0.934747,-0.035614,0.166097,0.985466
-0.257156,0.515500,0.612194,-0.660329,-0.709234,0.246887
-0.222366,-0.242005,0.493274,-0.286970,0.082255,-0.954401
-0.584096,-0.165097,0.321836,0.994956,-0.080358,0.060041
-0.651816,0.419659,0.532962,0.789965,-0.606578,-0.089548
-0.220007,0.358251,0.598549,-0.025779,-0.015992,0.999540
0.442685,-0.146359,-0.357406,0.007214,0.202178,0.979322
0.568070,0.230136,0.607310,0.985584,0.133077,-0.104477
0.848032,-0.118795,0.342589,-0.657808,-0.428448,-0.619452
0.000811,0.643909,0.568173,0.231768,0.512534,-0.826797
-0.312582,-0.862467,0.355036,0.087520,-0.994425,0.058821
0.796458,0.183048,-0.963687,-0.019849,0.074060,0.997056
0.196769,0.012361,0.796007,0.574704,-0.809750,0.118407
0.640137,0.038848,0.593211,-0.113890,-0.993043,-0.029894
0.891149,0.100746,0.566641,0.782582,0.334484,-0.525058
-0.447402,0.561409,0.699636,-0.697134,-0.716410,0.027566
0.737186,0.088680,0.533823,0.794188,-0.372765,-0.479908
-0.078597,0.585247,0.057042,-0.418726,-0.581575,0.697452
-0.461449,0.193839,0.045720,-0.044817,0.991796,-0.119714
0.276177,0.818718,-0.983388,0.073402,0.212706,0.974355
-0.439325,-0.182950,0.435633,0.424923,0.897170,0.120525
-0.018324,-0.496272,0.698703,-0.153783,-0.796829,0.584307
-0.402670,0.154405,0.023052,-0.111364,0.990606,0.079355
-0.369867,0.664606,-0.982981,-0.059059,-0.122187,-0.990748
-0.185582,-0.658426,0.319011,-0.297971,0.535013,0.790554
0.189192,0.163233,-0.297180,-0.569779,0.659252,-0.490651
-0.133766,-0.317932,0.658823,0.742601,-0.563299,0.362267
-0.089526,-0.588778,0.258689,0.555335,0.662973,0.502066
0.141228,-0.105159,-0.945734,0.090581,0.146828,0.985006
0.400311,0.301451,0.432832,-0.760977,-0.050055,-0.646845
-0.415343,0.850501,0.495955,-0.735296,-0.166476,0.656983
0.506932,-0.115852,-0.020562,-0.681092,0.728337,0.075090
-0.740910,0.209634,0.561279,0.272206,-0.116482,0.955163
-0.080584,0.691681,0.048090,-0.101172,-0.501793,0.859051
0.693819,0.209731,0.290214,0.974801,-0.073051,-0.210777
0.752226,-0.059936,0.678476,-0.489290,-0.496794,0.716792
0.476488,-0.234059,0.786265,0.708766,-0.674505,0.206624
0.302146,-0.153522,0.831506,-0.705800,0.667610,0.236944
-0.222859,-0.161271,0.616478,0.895684,0.412440,0.166264
-0.444793,-0.448401,0.383953,-0.190756,0.702244,-0.685905
-0.500220,0.651462,-0.510293,0.760995,-0.544050,-0.353405
0.662131,0.167844,-0.115305,-0.682386,0.701819,-0.204448
-0.254054,0.422995,0.649272,0.099965,0.992717,-0.067230
-0.671452,0.238081,-0.971443,0.065494,0.059576,0.996073
-0.374464,0.397685,-0.971970,-0.035342,0.131587,0.990674
-0.581858,-0.594859,0.314630,0.190405,-0.816025,0.545756
-0.253311,0.873161,0.359704,-0.546852,0.395639,-0.737850
-0.102328,-0.171767,0.739109,-0.511874,-0.811983,0.280478
0.150049,-0.399057,0.718858,0.995596,-0.049559,-0.079579
-0.284376,0.251128,-0.023913,0.301517,0.940441,0.157033
-0.297543,-0.969001,-0.383833,-0.134822,0.954242,0.266918
-0.075115,-0.278007,0.736260,-0.565515,0.789840,-0.237371
0.670580,0.382775,0.628040,-0.434768,-0.878722,0.197039
-0.514137,-0.793703,0.236571,0.655367,0.732706,-0.183404
0.075738,-0.065725,0.593403,0.275319,0.064608,-0.959179
-0.568563,0.736903,-0.157172,0.898462,0.024764,0.438352
0.108790,0.856091,-0.984752,-0.045214,0.192958,0.980165
0.663003,-0.266234,0.826743,0.735410,0.388090,-0.555481
0.526939,0.464195,0.445471,-0.721843,0.429654,-0.542531
0.036223,-0.531586,0.540597,0.234701,0.932209,-0.275501
0.262882,0.391504,-0.972376,-0.048519,0.217326,0.974892
0.398324,-0.117716,0.929170,0.648038,0.478384,-0.592617
-0.295555,-0.273690,0.716871,-0.414639,-0.711338,-0.567515
0.511650,-0.301353,0.767235,0.072527,-0.996541,0.040573
0.211809,0.150187,0.560322,0.625891,0.573505,0.528539
0.601616,0.363645,-0.971563,0.031080,0.241857,0.969814
0.563967,0.035903,0.779802,-0.299858,0.939587,-0.165113
0.433743,-0.115852,0.845557,-0.231436,-0.971529,0.050692
-0.302268,-0.300176,0.305079,0.655615,0.689412,0.308027
-0.323269,0.180793,0.752537,0.580133,-0.036653,0.813696
-0.414228,0.604768,0.649679,0.938501,-0.305443,0.160996
0.155639,-0.628604,0.022501,0.956736,-0.181156,0.227683
0.425165,-0.117813,0.832248,0.318745,0.663826,-0.676562
0.546697,-0.354815,-0.940301,0.024071,0.048686,0.998524
0.025537,0.676674,0.080237,0.863232,0.439017,-0.249188
-0.468654,-0.087993,0.575737,0.111499,-0.093904,0.989318
-0.175146,0.485777,0.591560,0.110850,-0.951239,-0.287847
0.700531,-0.307337,0.533464,-0.031762,0.590115,0.806694
0.656170,-0.495683,0.716560,0.938853,0.101215,-0.329107
0.124945,-0.566117,0.507109,0.503869,-0.800303,0.325009
0.057846,0.611830,0.402241,0.216776,0.204368,0.954590
-0.169306,-0.411222,0.619399,0.867844,-0.482883,0.116923
-0.056102,0.617914,0.664520,-0.471039,-0.690808,0.548550
-0.793970,-0.398370,0.189918,0.835948,-0.484374,0.258015
-0.266728,-0.501079,-0.722281,0.983816,-0.020225,0.178034
-0.501456,0.387385,-0.970916,-0.059722,0.196338,0.978716
0.708487,-0.023641,0.535499,-0.252163,-0.540203,0.802867
-0.063064,0.537277,0.658345,-0.097317,0.927143,0.361851
0.593045,0.464685,-0.974890,0.063087,0.213638,0.974874
-0.566818,0.688247,-0.090411,0.999094,-0.033653,-0.026041
0.300652,-0.234452,0.804290,-0.529199,0.712009,0.461509
-0.236534,0.297823,-0.102355,0.313343,0.386713,-0.867334
-0.312211,0.236610,0.600129,-0.709941,0.396503,-0.582039
0.441570,0.262605,0.509838,-0.533979,0.714132,-0.452640
-0.845415,0.296744,0.310896,-0.668623,0.043262,-0.742342
-0.017459,0.287914,-0.249282,0.642739,0.192547,-0.741493
0.410133,-0.549734,0.612744,0.560819,0.809929,0.171748
-0.139977,0.571612,0.454783,0.687541,0.653028,0.317555
-0.192044,-0.090445,0.731688,0.918925,0.304258,-0.251007
0.403914,0.501570,0.212012,0.511952,0.857071,-0.057737
-0.530413,-0.718461,0.115952,0.430197,-0.146792,-0.890720
0.642996,0.017462,-0.955572,0.057441,0.132453,0.989523
0.224111,0.347852,0.595079,-0.472825,-0.021654,-0.880890
-0.556883,-0.081813,0.538347,0.884375,0.343225,0.316351
0.454122,0.132431,0.803524,-0.696699,-0.448183,0.560128
-0.232802,0.231705,0.586964,0.286476,0.768506,-0.572128
0.314076,0.560821,0.348525,-0.067204,0.987484,0.142687
-0.597512,-0.649500,0.316067,-0.548392,0.834449,-0.054417
-0.681145,0.054837,0.360087,0.733255,0.558137,-0.388355
0.259651,0.427899,0.514913,0.940966,0.138579,-0.308834
0.630444,-0.208553,0.489946,0.095685,0.732293,0.674234
-0.095366,-0.303020,0.754285,-0.660353,0.678281,0.322286
0.222124,0.629096,0.365928,0.113159,0.908122,-0.403124
0.631816,-0.158524,0.541028,0.147179,-0.132260,0.980227
0.035108,0.589367,0.400661,0.002946,0.514447,0.857517
0.672946,0.293212,0.530855,0.702073,-0.239862,-0.670492
-0.550049,0.240731,0.536025,0.361011,-0.344822,0.866469
0.321032,-0.115656,0.876101,0.460972,0.885504,-0.058210
-0.152036,0.103002,0.720390,0.221138,-0.542237,-0.810603
-0.567812,0.445165,0.528916,-0.259328,0.873173,0.412696
-0.312954,0.680990,0.448344,-0.113747,0.992107,-0.052786
0.556010,-0.470179,0.682856,0.928441,-0.199095,-0.313622
0.651574,-0.283108,0.584690,-0.430478,-0.898571,-0.085202
0.203982,-0.077888,0.849148,0.320112,-0.669625,0.670172
-0.052378,-0.231214,0.659374,0.991265,0.001705,-0.131873
-0.407638,-0.422110,0.338137,0.988444,0.097864,0.115764
0.116868,0.205317,0.618489,0.930923,-0.363700,-0.033248
0.006280,0.396802,-0.700833,-0.026621,0.807127,0.589777
0.436473,0.397097,0.419691,0.286396,0.957443,0.035781
-0.475737,0.528645,0.498540,-0.663048,0.679958,-0.313089
-0.320531,-0.452815,0.281693,0.619067,0.570645,0.539556
-0.352719,-0.118795,0.503375,0.644028,0.085561,-0.760202
0.048275,0.094271,0.572195,-0.675309,0.661785,-0.325575
-0.558870,-0.612910,0.333924,0.338114,-0.768574,0.543114
0.906189,-0.454875,0.705836,-0.301233,0.827420,-0.473956
-0.186705,-0.547773,0.532531,0.055043,-0.861260,-0.505174
-0.376200,-0.856778,0.133617,-0.725889,0.380538,0.572953
0.552658,-0.004905,0.723789,-0.410964,0.908711,0.073170
-0.143337,-0.058465,0.529155,0.780821,-0.448724,-0.434701
0.583974,-0.591229,0.590913,0.453732,0.889448,-0.054855
-0.446166,0.319110,0.659110,0.991406,0.056263,-0.118103
0.665984,0.083284,0.557114,0.405210,0.901804,0.150180
0.016837,-0.060035,0.790382,-0.359921,0.895912,-0.260380
-0.087668,-0.514027,0.684939,-0.363155,0.595050,0.716962
-0.623110,0.201295,0.546845,-0.636207,-0.109590,-0.763696
-0.339545,-0.599666,-0.940803,0.053613,0.020520,0.998351
0.243496,0.332647,0.716823,-0.810845,-0.136897,0.569025
0.344020,0.421033,0.026594,0.446194,-0.571501,0.688692
-0.309473,0.102218,0.793973,0.594247,0.451970,-0.665277
-0.339295,0.228665,-0.389291,-0.153068,0.646541,0.747365
0.715942,-0.021875,0.325474,0.845415,0.277925,-0.456105
-0.186454,-0.701099,0.591584,-0.091534,0.692524,0.715564
-0.319416,-0.780165,0.606736,-0.476197,-0.271894,-0.836248
-0.361790,0.648912,0.586318,0.795314,-0.416507,0.440452
-0.761046,-0.297626,0.496936,0.595621,0.294747,-0.747235
-0.343648,-0.438395,0.538276,0.961887,0.128367,0.241445
-0.541972,-0.197861,0.636227,0.861279,0.458008,-0.220061
0.937998,-0.258780,0.458828,0.864730,-0.265844,-0.426109
-0.536003,0.490975,0.620524,-0.675157,0.477513,0.562267
0.153280,-0.166372,0.855898,-0.176741,0.659791,0.730368
-0.139977,-0.386894,0.774775,-0.623157,0.563026,0.542842
-0.033857,-0.188346,0.713520,0.348794,0.911004,-0.220031
-0.258529,-0.742299,0.585671,0.350736,0.844280,0.405186
0.225848,-0.010888,0.742053,-0.398275,-0.915882,-0.050372
0.123830,-0.084756,0.954376,-0.261440,-0.161596,0.951596
0.621995,-0.101727,-0.953155,0.110232,0.148107,0.982809
0.009382,-0.230626,0.837275,0.538942,0.333368,0.773568
-0.236284,-0.524033,0.695974,0.888422,0.457458,-0.037931
0.313948,0.476555,-0.425555,0.915442,-0.344945,0.207311
0.243989,-0.487542,0.562452,0.905279,-0.410636,0.108852
-0.398695,0.465471,0.658177,0.651631,0.658551,-0.376414
0.646849,0.139887,-0.965147,0.078194,0.087919,0.993054
-0.245476,-0.188051,0.789425,-0.132971,0.991092,0.007383
-0.675677,-0.494310,0.431875,-0.203893,0.316201,-0.926523
-0.345756,0.253679,0.760006,0.859062,0.326589,-0.394147
0.852506,0.155288,-0.962562,-0.041482,0.082042,0.995765
-0.519848,0.464489,0.592924,0.837996,-0.329654,0.434846
-0.540478,0.049440,0.529203,0.429111,0.068129,0.900679
-0.638642,0.184815,-0.962634,-0.006378,0.275476,0.961287
0.001054,0.309202,0.420217,0.724276,0.285398,0.627672
-0.011862,0.557092,0.405257,0.264165,-0.580901,-0.769916
-0.137990,-0.262115,0.693508,0.190050,0.393650,0.899400
0.727372,-0.514421,-0.164592,0.945870,-0.158373,0.283280
-0.463435,0.130568,0.595294,-0.521934,0.698314,0.489840
0.542094,-0.017167,0.756487,0.525369,-0.850494,-0.025461
0.217770,0.372180,0.603026,0.870483,-0.383609,-0.308388
-0.125066,0.266726,0.731209,0.600172,0.784909,0.153983
-0.510527,-0.694035,0.105683,0.430197,-0.146792,-0.890720
-0.132772,-0.307238,0.748229,-0.711714,0.692975,0.115104
-0.267721,-0.252501,0.688817,0.388392,0.101301,0.915909
0.172416,-0.149500,0.847400,0.752008,0.448925,0.482650
0.682267,0.108594,0.762782,0.708945,0.619448,-0.337165
-0.471141,0.510301,0.511777,0.673534,-0.739101,-0.009097
0.182731,-0.064842,0.850919,0.428345,-0.875698,0.222878
0.085559,-0.251520,0.715147,0.419690,0.902914,-0.092775
-0.006151,-0.702275,0.343044,-0.265830,0.784911,-0.559687
0.002177,-0.506082,0.680989,-0.130968,0.485981,0.864101
-0.489154,0.454189,0.542800,0.923277,-0.366705,0.114395
0.429761,0.031392,0.677518,0.758644,0.352950,-0.547619
-0.423420,0.262017,0.584714,0.985108,-0.133193,0.108727
-0.606090,-0.156073,-0.950019,-0.111180,0.078135,0.990724
0.589936,0.136257,0.627657,0.859876,-0.424107,0.284160
0.343648,0.479694,0.028533,0.179591,-0.538320,0.823382
-0.232552,0.698255,0.448080,0.790826,-0.200700,0.578199
0.794350,-0.213262,0.483890,0.603921,0.703050,0.375500
-0.083443,-0.390229,0.780855,0.651877,-0.703400,-0.283344
-0.043428,0.020502,0.789089,0.819989,0.499832,-0.278901
-0.453492,0.203061,0.039089,-0.024898,-0.983864,-0.177179
0.737065,-0.526192,-0.009862,-0.727525,0.419529,-0.542864
-0.751475,-0.447027,0.391828,0.894852,-0.092642,0.436643
-0.486917,0.177359,-0.754835,0.995457,-0.095206,0.001476
-0.463314,-0.160584,-0.109680,-0.588387,-0.747288,0.308807
0.100099,0.613793,-0.983794,0.108545,-0.167640,-0.979854
-0.502207,0.722974,-0.446189,0.614989,-0.788306,0.019028
0.349617,0.241417,0.792800,0.758668,0.310337,-0.572812
0.577634,0.468218,-0.316091,0.948274,0.283561,0.142720
-0.369367,-0.114773,0.658321,0.051408,-0.384472,0.921704
-0.223239,0.476654,0.683790,0.741029,-0.667516,0.072796
-0.127054,-0.435943,-0.677638,0.950507,-0.300730,0.078087
0.386151,0.275163,0.538084,-0.771813,0.489537,-0.405781
-0.203231,-0.829606,-0.247534,0.992000,-0.126133,-0.005230
0.221001,-0.173729,0.048257,-0.181447,0.975486,-0.124511
0.764528,0.370806,0.439918,0.778343,0.541853,-0.317140
0.095745,0.425742,0.578131,0.939860,0.312132,-0.138697
0.340668,-0.204139,0.821070,-0.671039,0.016291,-0.741243
0.624111,0.203355,0.657435,-0.382044,-0.722317,0.576455
-0.038081,0.546401,0.651546,0.381724,0.638297,-0.668478
-0.226340,0.314009,0.696883,-0.131635,-0.869142,-0.476722
0.657535,0.093781,-0.121721,0.649216,0.015652,-0.760443
-0.298536,-0.151756,-0.268599,0.494509,0.682156,-0.538632
-0.097983,-0.878751,0.175029,-0.156865,0.346363,0.924893
0.319044,0.193938,0.665933,0.546454,0.502338,0.670108
0.468411,0.043359,0.573750,0.733992,-0.388267,0.557229
-0.650944,0.317147,-0.454615,0.410384,-0.762947,-0.499496
-0.188942,-0.227095,0.458876,0.961400,-0.051515,-0.270288
-0.500713,0.235630,-0.962897,0.072181,-0.120397,-0.990098
-0.285370,0.207967,0.759527,0.257631,0.884975,0.387873
0.241009,-0.219736,0.869734,0.205347,0.350829,0.913648
-0.203481,-0.535608,-0.535236,0.785416,-0.560014,0.263638
-0.398445,0.210222,0.547874,0.138173,0.949708,0.281004
0.073500,-0.146851,0.973885,0.935639,0.119519,-0.332108
0.947190,-0.211006,0.490784,0.940117,0.224629,0.256364
0.251073,-0.333432,0.775086,-0.292565,0.461666,0.837419
0.291832,0.344026,-0.967709,-0.049025,0.294244,0.954472
0.903079,-0.275260,0.428188,0.632297,0.685312,-0.361314
0.215905,0.005885,0.725967,-0.123947,-0.990351,0.061990
-0.583473,-0.654306,0.504285,0.518720,0.790815,0.324871
-0.568934,0.679517,0.376173,0.696249,-0.143353,0.703340
0.286363,-0.488031,0.797372,-0.414759,0.842557,0.343615
0.715320,0.078381,0.784876,-0.716337,0.688905,-0.110774
-0.464801,0.929960,0.377657,-0.516059,0.839167,0.171705
0.477603,-0.469590,0.649081,-0.639335,-0.766643,0.059232
-0.424786,0.089170,0.518001,0.881091,0.258594,-0.395990
0.361047,-0.038062,0.853145,0.809492,0.037142,-0.585954
-0.658528,-0.173828,-0.366550,0.837393,0.440441,0.323704
-0.543337,-0.075927,0.196716,0.310337,0.542427,-0.780682
0.727994,-0.019914,0.711988,0.097921,-0.782073,0.615445
-0.491270,-0.210221,0.589812,0.149290,-0.946230,-0.286988
0.567198,0.053758,0.803284,0.207348,-0.913485,0.350074
-0.536132,0.449187,0.560154,0.936156,-0.308356,0.168905
0.221251,0.333727,0.599627,0.854993,-0.172104,0.489251
0.006029,-0.374141,0.612409,0.468121,0.528040,0.708545
-0.165453,-0.248478,0.572817,0.749883,0.660510,-0.037440
-0.470019,0.084658,0.577700,0.810605,0.512640,-0.283054
-0.112643,0.296841,-0.520275,0.381261,-0.894977,-0.231640
-0.789746,0.276830,0.306133,0.760625,-0.330538,0.558744
-0.443799,-0.898370,-0.929242,-0.013054,0.126410,0.991892
-0.705620,0.094861,0.566713,0.705182,0.301762,0.641606
-0.405779,0.593094,0.578753,-0.680264,0.519225,-0.517345
-0.239264,0.940162,-0.397262,-0.666910,-0.552732,0.499719
-0.746507,-0.271139,0.472879,0.880407,0.059082,0.470524
-0.269958,0.648813,0.466416,0.583244,0.203808,0.786314
-0.469647,-0.823033,0.234872,0.655367,0.732706,-0.183404
0.618764,-0.121247,-0.950618,0.080414,0.181952,0.980014
-0.019318,-0.276044,0.048880,-0.246856,0.901684,-0.355004
-0.450390,0.819304,-0.988869,0.035040,0.189564,0.981243
0.675677,-0.112320,0.478648,0.161113,0.088631,0.982948
-0.008259,0.921817,0.390344,0.016713,0.680201,0.732835
-0.693075,-0.230919,-0.656693,0.796383,0.600127,-0.074980
0.351725,0.296841,0.787438,0.790760,0.230299,-0.567151
-0.057224,0.054248,0.792967,0.772013,0.572373,-0.276379
-0.120971,0.948991,-0.993728,-0.033117,0.100870,0.994348
0.078347,-0.301256,0.691282,0.081186,0.264194,0.961047
0.978256,-0.261036,0.484608,0.769971,-0.153367,0.619374
-0.703511,0.093389,0.573008,-0.403892,-0.708981,0.578116
-0.131779,0.240731,-0.095509,-0.149603,0.988692,0.010337
-0.658028,-0.524132,0.417943,-0.035454,-0.506337,0.861607
0.273690,0.297429,0.368058,-0.214656,0.975057,0.056456
0.691210,0.165491,0.362433,0.980201,0.143735,0.136182
-0.479340,0.657544,-0.973956,0.026782,0.166702,0.985643
0.406401,0.019423,0.874162,0.985105,0.097806,-0.141428
-0.250079,0.334903,0.639123,0.855447,-0.168023,-0.489876
0.106561,0.072200,0.717948,-0.068492,0.342763,0.936922
0.825537,-0.239159,0.407985,0.984836,0.094178,0.145698
0.013485,0.261330,0.476518,0.601508,0.795218,-0.076260
-0.241251,-0.386502,0.430223,0.975156,-0.028212,-0.219714
0.164088,-0.219639,0.778581,-0.101467,0.994645,0.019616
-0.597512,0.393075,0.542800,-0.273306,0.284516,0.918888
-0.399318,0.269865,0.357191,0.826888,-0.210510,-0.521481
0.647971,-0.571119,0.721323,0.883068,0.028820,-0.468359
0.135009,-0.087502,0.842733,-0.053456,0.920271,-0.387613
0.699037,-0.080635,0.468187,-0.602986,-0.784881,0.142722
-0.101957,0.574751,0.452987,-0.513274,-0.274921,-0.812999
0.438589,0.035021,0.886993,0.825565,-0.504634,-0.252561
0.450512,0.615264,-0.981545,-0.052916,-0.010176,0.998547
-0.687607,0.218070,0.382133,-0.232421,0.200007,0.951829
0.283261,-0.358348,-0.947577,0.115705,0.179000,0.977022
0.069033,0.610458,-0.171223,-0.655419,0.110959,0.747070
-0.162723,0.789778,-0.502466,0.234694,0.968558,-0.082553
-0.047652,0.025015,0.690660,-0.067357,0.866715,0.494234
-0.028396,0.109674,0.614707,0.373042,0.858883,0.350941
0.210686,-0.000784,-0.952796,0.219713,0.018184,0.975395
0.034486,0.154209,0.586844,0.635796,-0.252615,0.729348
0.273690,0.327841,0.659206,0.956294,0.253826,-0.145167
-0.482078,-0.327055,-0.467062,-0.430204,0.464099,-0.774298
0.386644,-0.071905,0.736404,-0.816465,0.452259,-0.358953
0.638149,-0.391799,0.587897,0.822613,0.456080,0.339558
-0.619636,-0.533156,0.387998,0.349116,-0.643506,-0.681189
-0.489283,0.060427,0.649129,-0.726510,0.664176,-0.176221
-0.453121,0.386502,0.613199,0.176936,0.815730,-0.550707
-0.587197,0.563568,-0.435681,0.824685,0.535355,-0.182454
-0.080584,-0.030115,0.843044,0.495021,-0.864747,-0.084660
0.197763,-0.542181,0.410738,-0.113517,0.935347,-0.335021
0.016344,-0.371689,0.689894,-0.283281,-0.800364,0.528365
0.446166,-0.391210,0.621362,0.019964,0.939722,0.341357
-0.103322,0.049245,0.778892,-0.712069,-0.534711,0.455019
0.208828,0.128605,0.774368,-0.010986,-0.456856,0.889473
0.086052,-0.199824,-0.323583,-0.331947,0.818487,-0.468925
0.772233,-0.110751,0.374545,0.825602,0.497183,0.266816
-0.378688,0.674808,0.602116,0.583739,0.811003,0.039037
0.698665,-0.029134,0.502705,-0.033134,-0.747652,0.663263
0.210937,0.133804,0.718858,-0.659774,0.249561,0.708815
0.341411,-0.017853,0.695950,-0.306649,-0.937075,-0.166906
0.744770,-0.511771,0.672755,0.104492,-0.870825,0.480360
0.575768,-0.184128,-0.140918,-0.061527,0.912769,-0.403816
0.643868,0.450266,-0.974100,0.042417,0.209856,0.976812
0.715192,-0.630174,0.535690,0.929296,-0.368607,0.023203
-0.079340,0.757506,0.427973,-0.577657,0.322502,-0.749870
0.732962,0.392388,0.459666,0.325894,0.933769,-0.147882
-0.461941,0.340495,-0.705740,0.930050,-0.345296,-0.125612
0.761047,0.077006,0.342062,0.937174,0.348287,0.020020
0.396959,0.545026,0.102451,-0.365087,0.887243,0.281979
-0.062563,0.808713,0.079280,0.559643,0.670650,-0.486855
-0.213416,-0.708848,-0.934508,0.046321,0.156865,0.986533
0.641009,0.348539,-0.969528,0.012159,0.214192,0.976716
-0.786022,0.433491,0.138955,0.864678,-0.495276,-0.083870
-0.417709,0.579165,0.629333,0.453781,0.869207,0.196372
-0.211930,0.683050,0.434675,-0.349047,-0.726542,-0.591864
0.033364,-0.586520,0.712227,0.311573,0.540807,0.781313
0.339424,0.372474,-0.970102,-0.073721,0.235437,0.969090
0.012985,-0.466352,0.667034,-0.679722,0.722424,0.126812
0.498233,0.554053,0.453275,0.904016,0.095298,-0.416742
-0.269837,-0.333628,0.720102,-0.048716,0.965036,-0.257551
-0.614660,0.118109,0.559149,0.261647,0.243455,0.933954
-0.193659,0.251914,-0.445351,-0.243704,0.968015,0.059628
0.060705,0.068275,-0.954424,0.058412,0.073979,0.995548
0.627592,0.051502,0.778605,0.510348,-0.847069,0.148388
-0.234668,-0.505690,0.301920,0.622835,0.653270,0.430482
0.374342,0.241123,0.796486,0.794637,0.290105,-0.533283
0.434114,0.154700,-0.955788,-0.012151,0.111302,0.993712
-0.289344,-0.814007,0.607023,-0.576020,-0.063527,-0.814964
0.440577,-0.264469,0.758354,0.362110,-0.751032,-0.552111
-0.341661,0.862075,0.527001,-0.151793,-0.779234,0.608074
0.615161,0.423681,-0.149655,-0.562639,-0.463171,0.684771
-0.245104,0.284579,0.774799,0.727065,0.686567,-0.001213
-0.557876,-0.740828,0.234034,0.655367,0.732706,-0.183404
-0.371855,0.412106,0.534206,-0.134784,-0.694396,0.706857
0.389996,-0.383558,0.774560,-0.517900,0.574996,0.633371
-0.215282,0.850205,0.367795,-0.646447,0.335023,-0.685467
0.430633,-0.427506,0.788156,0.979167,-0.180287,-0.093424
-0.443549,0.929176,0.355132,0.215883,-0.343365,0.914054
-0.133894,-0.163331,0.647788,0.785694,0.571528,-0.236730
-0.839454,0.331568,-0.402695,0.795203,0.602953,-0.064020
0.560857,-0.547871,0.703203,0.733888,0.162442,-0.659561
0.503451,0.195508,-0.958828,0.060493,0.146129,0.987414
0.817710,-0.079654,0.491359,0.282796,0.827878,-0.484401
-0.248836,0.829312,0.347712,-0.670182,0.531054,-0.518495
-0.124073,-0.341476,0.499138,0.884448,0.378467,0.272974
0.385279,0.190504,0.794068,-0.703839,-0.368867,0.607081
0.157254,-0.661566,0.538826,-0.883906,0.111794,-0.454106
0.444672,0.144987,-0.960887,0.059441,0.011695,0.998163
0.309973,-0.375220,0.588448,-0.024649,-0.944832,0.326627
-0.124573,0.060722,0.695591,-0.518710,0.036923,-0.854153
-0.293819,0.789876,0.492819,-0.490254,0.580378,-0.650240
0.699287,0.404944,0.429577,0.724764,-0.199097,-0.659604
0.114016,0.606141,-0.976637,-0.061395,0.059684,0.996327
-0.153652,0.381500,0.720438,0.989801,0.109258,0.091412
-0.164710,-0.605945,0.699804,-0.568459,-0.821305,-0.048092
-0.435972,0.034727,0.542417,0.954475,-0.202359,-0.219155
-0.550171,0.517756,0.623013,0.857965,-0.239758,-0.454326
0.376701,-0.134883,0.718164,0.930018,0.268698,0.250736
-0.054115,0.613008,0.659829,0.451423,0.763020,-0.462621
0.034357,0.497841,0.642570,-0.139856,-0.922477,0.359829
-0.721153,0.378557,-0.964980,-0.046560,-0.390547,-0.919405
0.577140,0.410339,-0.973454,-0.021008,0.119606,0.992599
0.750861,-0.486266,0.628902,0.954485,0.286461,0.083055
0.248965,-0.646164,0.319705,-0.069920,0.997553,-0.000355
-0.246849,0.185599,-0.326767,0.765921,-0.621375,0.165099
-0.067660,-0.269472,0.859225,0.778810,0.587908,0.218678
0.792362,-0.257994,0.531621,-0.051766,0.805819,0.589894
0.367137,-0.073181,-0.947051,0.060783,0.072755,0.995496
-0.449397,0.768687,-0.186758,0.274766,-0.612147,0.741472
-0.127554,0.689130,-0.115018,0.830020,0.408635,-0.379585
-0.033614,-0.156073,0.689966,0.860500,-0.331678,0.386690
-0.307986,0.882678,0.362385,-0.076589,0.385140,-0.919675
-0.749981,0.275163,0.058909,0.965534,0.018756,0.259599
-0.218885,0.108888,0.726613,-0.416074,-0.893328,-0.169843
0.206462,-0.518835,0.708972,0.484468,0.155094,-0.860951
0.241130,0.212282,0.326288,0.934290,0.204375,-0.292119
-0.373963,0.541986,0.642857,0.900874,-0.091769,0.424269
-0.362655,-0.019619,-0.579424,0.810639,0.475298,-0.341988
-0.563967,0.745732,0.373277,0.707282,-0.161824,0.688160
0.334456,0.114676,-0.957607,-0.105066,-0.111964,-0.988142
-0.335942,0.159015,0.791627,0.837451,0.125651,-0.531871
0.446538,0.044046,0.763620,-0.528378,-0.136334,0.837991
-0.503823,-0.690994,0.512328,-0.062310,-0.995681,-0.068826
0.072135,-0.197273,0.860374,-0.561598,-0.050109,0.825892
-0.300773,-0.450560,0.421295,-0.102823,0.675125,0.730502
0.781054,-0.075632,0.507540,0.982862,-0.169797,0.071772
-0.043307,0.552581,0.450594,-0.003868,-0.992032,0.125928
-0.166196,-0.632626,-0.620883,0.931781,-0.355094,0.075445
-0.105559,0.548068,0.048186,0.374066,0.564656,-0.735689
-0.446780,-0.125269,-0.661815,0.754478,0.440329,-0.486697
0.193910,0.792819,-0.982574,-0.040983,0.139496,0.989374
-0.696549,0.044634,0.451168,0.232479,0.289145,0.928627
0.031126,-0.532665,0.439008,0.326919,-0.851831,0.409277
0.642874,0.272220,0.411815,0.676917,-0.708032,-0.201183
0.344392,-0.447910,0.796821,-0.707000,0.554346,0.439148
0.267599,0.323819,0.733938,0.921875,-0.223604,-0.316460
0.535882,-0.016480,0.780496,0.155954,-0.898634,0.410043
0.350110,0.333628,-0.966560,-0.064506,0.388527,0.919177
0.012492,-0.430842,0.671845,0.846667,-0.531131,0.032492
-0.509663,-0.102020,0.630290,0.763487,-0.372277,-0.527729
0.076731,0.275850,-0.407866,0.764708,-0.633685,-0.116895
-0.759924,-0.355013,0.491239,0.949192,0.091711,0.301038
-0.166697,0.035806,-0.956027,0.058880,0.069241,0.995861
-0.726621,0.107907,0.534230,-0.530485,-0.845000,-0.067536
0.860584,0.079656,0.382229,0.980971,-0.153263,0.119193
0.136132,-0.512655,0.673856,0.169445,-0.874352,0.454750
-0.315442,-0.550813,0.510939,0.957698,-0.287544,0.011511
0.262010,-0.069747,0.848861,-0.306930,0.515278,-0.800177
0.054243,0.503139,-0.165430,-0.672879,0.382055,0.633458
0.641881,0.092407,0.749306,-0.628594,-0.540939,0.558797
0.054866,0.009319,0.661552,0.017041,0.958570,0.284347
0.207585,-0.103099,0.933239,0.878288,-0.359017,0.315781
-0.919105,0.366196,0.429218,0.956263,-0.197339,0.215914
0.235048,-0.668137,0.131702,0.575891,-0.814368,-0.071799
0.404536,-0.577203,0.621864,0.673906,0.701818,0.230872
0.011619,-0.342456,0.713400,0.446880,-0.572732,0.687224
0.625104,-0.001569,0.784613,-0.723736,-0.689849,-0.017726
-0.894129,0.317442,-0.964166,0.006633,0.203606,0.979031
-0.308600,0.443595,0.607765,-0.285822,0.715339,0.637649
0.204976,0.152345,-0.958325,-0.054903,-0.130587,-0.989916
-0.548434,0.017952,0.676585,0.999982,-0.005940,-0.000666
-0.161972,-0.315872,0.749545,0.795021,-0.400887,-0.455225
0.338430,-0.279282,0.750766,0.084020,-0.989852,-0.114598
-0.025537,-0.252795,0.877035,0.901005,0.002044,-0.433803
0.797080,-0.134196,-0.954615,-0.047043,0.225005,0.973221
-0.519355,0.260055,-0.958660,0.072181,-0.120397,-0.990098
-0.994782,0.311262,0.473430,0.806253,0.495785,-0.322729
-0.610565,0.287522,0.375311,-0.081746,0.141040,0.986623
0.256913,-0.095546,0.914712,0.853183,-0.520340,-0.036393
0.187577,0.523249,0.520371,-0.691376,-0.205892,0.692537
-0.454858,0.717971,-0.980515,0.054164,0.152358,0.986840
0.735328,-0.516381,0.613199,0.948754,-0.315947,0.006563
-0.196268,0.321464,0.650158,0.942132,-0.307643,-0.133205
0.204846,-0.130861,0.847305,-0.401482,-0.737487,-0.543070
-0.349610,-0.306454,0.723071,0.726942,-0.316510,0.609407
0.211187,0.843044,0.257732,0.827762,-0.551493,0.103272
0.357072,0.057289,0.731736,-0.428930,-0.811574,-0.396696
-0.725999,0.183540,0.378303,0.023320,0.102596,0.994450
0.726629,-0.510201,0.379955,-0.761604,0.613565,-0.208559
-0.150663,0.115460,0.788826,-0.601210,-0.732817,0.318631
-0.013978,0.283795,0.599746,0.155299,-0.056012,0.986278
0.128305,0.578478,0.389099,-0.784255,0.282749,-0.552265
0.393606,0.492348,0.408560,0.155373,0.758141,0.633310
-0.496488,0.668336,-0.168685,0.874235,0.047857,0.483139
-0.342283,-0.303707,0.176250,-0.471494,-0.148641,-0.869252
-0.657163,0.314597,0.369686,-0.364051,0.302594,0.880854
-0.716185,0.262410,-0.960456,0.033364,0.165167,0.985701
-0.386394,0.149991,-0.955453,-0.109217,0.220734,0.969200
0.542715,0.486463,0.461485,-0.618560,0.377412,-0.689161
-0.504816,0.203061,0.514745,-0.760007,0.423756,-0.492767
-0.640015,0.366000,-0.963544,0.009098,0.317795,0.948116
0.731346,-0.607513,0.645777,-0.565195,0.810109,-0.155812
-0.228085,0.170885,0.692503,-0.146033,0.988254,-0.045045
-0.218885,-0.177947,0.771567,0.739146,-0.620873,0.261112
0.339424,-0.414851,0.649440,0.228553,-0.419235,0.878639
0.529548,-0.603590,0.684029,0.967587,-0.139716,-0.210367
-0.079090,0.765843,-0.238103,0.736564,0.348111,-0.579907
-0.580736,-0.084363,0.541268,0.905798,0.362146,0.219954
0.283876,0.585934,0.366095,0.512363,0.286308,-0.809637
0.535138,0.574652,0.461605,0.991760,0.101220,0.078522
-0.701395,0.246028,0.555702,0.318004,0.154882,0.935353
-0.374585,-0.886894,0.201862,-0.628578,-0.698340,-0.342362
-0.373098,0.811557,0.348885,0.042720,-0.639976,0.767207
0.148805,-0.306454,0.718570,-0.718913,-0.692899,0.055264
0.704505,-0.559839,0.668398,0.477308,0.877892,0.038513
0.307486,0.244949,0.558479,-0.070984,-0.455491,0.887406
-0.444922,-0.146753,0.614946,0.841108,-0.331202,0.427601
0.858718,-0.494310,0.671199,-0.710862,0.703324,-0.003230
-0.703511,-0.156073,0.418566,0.812964,0.561810,0.153164
-0.012112,0.010791,0.817287,0.150256,0.955847,0.252547
-0.327122,0.319797,0.600129,0.971973,-0.224411,-0.070065
0.572916,0.119581,0.642714,0.941061,-0.167125,-0.294064
0.139856,0.731314,0.366670,0.914473,-0.319553,0.248245
-0.525938,0.400432,0.605036,0.833863,0.443855,-0.328124
-0.014971,-0.154993,0.836365,0.190834,-0.310914,0.931083
0.595775,-0.244359,0.518480,0.305692,0.841465,0.445522
0.418824,0.055720,-0.965147,0.073018,0.173513,0.982121
0.609071,0.402982,-0.161001,0.274287,0.367357,-0.888715
-0.390618,0.220425,-0.099291,-0.271597,0.481769,-0.833147
-0.136375,0.545223,0.491885,0.909832,-0.382490,-0.160957
-0.182230,-0.605258,0.621074,0.798004,0.514231,0.314254
0.809511,0.094075,0.566019,-0.198484,-0.553321,0.808974
0.102086,-0.099469,0.841033,0.857300,-0.247897,-0.451203
-0.095495,-0.280165,0.794763,0.814527,0.292129,0.501204
-0.345885,0.372474,0.607095,-0.659094,-0.395044,0.639950
0.169928,0.694429,-0.154227,-0.803903,0.284251,0.522438
-0.135381,-0.846674,-0.928930,0.066091,0.053152,0.996397
-0.309223,-0.318128,0.488367,0.810928,0.571415,0.126022
-0.200622,-0.683736,0.569992,0.221847,0.134838,0.965713
0.434486,-0.117421,0.935489,0.797182,0.370677,-0.476550
-0.342404,0.692172,-0.982430,-0.048531,0.106209,0.993159
0.443436,-0.220227,0.656094,0.673192,-0.739368,-0.012121
0.488912,-0.024622,0.620141,0.843956,-0.335214,0.418771
0.249336,-0.036983,0.797563,-0.544739,-0.762503,0.349069
0.148805,-0.214635,0.746218,0.008054,-0.428170,0.903662
0.362662,0.460762,-0.972209,-0.045247,0.101044,0.993852
0.712583,0.104572,0.584307,0.455797,0.205662,0.865998
-0.467038,0.883953,-0.348932,0.859962,-0.501116,-0.096688
-0.148054,-0.456150,0.659661,0.306730,0.550581,0.776387
0.428275,0.281735,-0.956578,0.012154,0.209227,0.977792
-0.231437,-0.734059,0.592876,-0.111743,0.844315,0.524066
-0.306371,0.526192,-0.435753,0.945830,-0.257616,-0.197585
-0.643739,0.301451,-0.967565,0.005221,0.162263,0.986734
0.085802,-0.276928,0.696261,0.519411,0.388422,0.761144
0.067418,0.877672,-0.985925,-0.073157,0.291252,0.953845
-0.142093,-0.070335,0.884934,0.970081,0.203226,-0.132826
-0.740417,0.067982,0.480084,0.789558,-0.607846,-0.084388
0.114259,-0.060722,0.947984,-0.311383,0.275770,-0.909391
0.417588,0.245634,0.570950,-0.375506,0.067303,0.924373
-0.060948,0.762509,-0.108747,-0.008052,-0.213880,0.976827
-0.363276,-0.340102,-0.321189,-0.007243,0.352312,0.935855
-0.463435,0.693253,-0.356592,0.760137,-0.141771,-0.634108
0.512272,-0.241710,0.697003,-0.164288,-0.207583,0.964323
0.467660,-0.043064,0.827868,-0.151234,0.844140,0.514351
0.171794,-0.345498,0.570998,0.759774,0.593227,-0.266131
-0.158741,0.422602,0.505841,0.787144,-0.608254,-0.102133
-0.717300,-0.414361,0.194394,0.743217,-0.558728,0.368036
-0.152158,0.142634,-0.207775,-0.047109,-0.966612,-0.251875
0.477854,-0.477732,0.636610,-0.593368,-0.368583,0.715584
-0.262753,-0.409161,0.174813,-0.607667,0.046436,-0.792833
0.100963,0.446733,0.660595,0.891713,0.227943,-0.391011
-0.041069,-0.179026,0.835025,-0.629477,-0.549318,-0.549553
-0.297171,-0.324013,0.417345,0.600862,0.152246,-0.784720
0.323641,-0.066313,0.837826,0.496372,0.216398,-0.840706
0.458347,0.039240,0.670241,0.928038,0.272460,-0.253989
0.347008,0.099667,0.586868,-0.516180,0.111582,0.849181
0.145696,-0.528546,0.704639,-0.066892,0.375457,0.924423
0.098855,-0.168432,0.920576,-0.239116,-0.612652,-0.753313
-0.659643,0.012654,0.509982,0.701141,0.418844,-0.577036
0.024171,0.103590,-0.956075,-0.005706,0.131423,0.991310
0.409010,0.015795,0.748324,0.628077,0.542333,-0.558027
0.443929,-0.268883,0.702604,-0.244023,0.969605,-0.017850
-0.453371,0.541887,0.667082,0.719588,0.681949,0.130915
0.809761,-0.164509,0.391636,0.911236,-0.247240,-0.329427
0.620508,0.355308,0.395059,0.298974,-0.425300,0.854245
0.152158,-0.254758,0.732550,0.626099,0.703730,-0.335804
-0.213917,-0.164998,0.651403,-0.559092,-0.824178,-0.090259
0.206591,0.462037,-0.709786,0.467457,-0.782883,-0.410582
-0.458961,0.529528,0.663395,0.901744,0.360654,0.238297
0.026530,-0.196683,0.921079,-0.025950,0.972281,0.232373
0.357937,-0.161271,0.739252,0.135476,0.035886,0.990130
0.129170,0.576123,-0.333708,-0.344073,0.263344,-0.901257
-0.280023,-0.976260,0.599651,0.818674,-0.101691,0.565184
0.071642,0.575339,0.663060,-0.149300,-0.730306,0.666606
0.557012,0.108103,0.695160,0.746755,-0.022858,-0.664706
0.563345,0.565333,-0.488678,0.852692,0.519862,0.051569
0.591801,-0.267313,0.797659,0.705712,0.023418,-0.708112
0.754957,-0.546694,0.673138,-0.424666,0.706609,0.566005
-0.064300,-0.171278,0.853050,0.978791,0.176605,-0.103823
0.861820,-0.378555,0.539257,-0.456388,0.853785,0.250521
-0.551043,0.536493,0.360087,-0.518806,0.014879,-0.854763
-0.349738,0.775357,0.057425,-0.401120,-0.531160,0.746305
-0.095495,0.238866,0.738055,0.204876,-0.963218,-0.173888
0.051384,-0.151952,0.914831,-0.534482,0.831062,0.153834
0.295434,0.789191,-0.278725,-0.703084,0.630513,-0.328825
0.677293,-0.158132,0.486475,0.050505,0.471457,0.880442
0.646598,-0.649793,0.449708,0.960497,0.222713,0.166866
-0.534759,-0.363056,0.005793,0.544742,0.796283,0.263038
-0.602108,-0.481655,0.404538,0.451809,-0.176944,0.874391
0.185961,-0.338139,-0.112218,0.976516,-0.041909,0.211327
-0.558498,0.456837,0.544116,-0.594326,0.534943,0.600510
-0.252931,0.314303,0.744710,0.698859,-0.703363,-0.129909
0.537376,-0.538747,0.681372,0.807404,-0.504650,-0.305659
0.007274,-0.075240,0.765392,0.314212,-0.412740,0.854937
0.030504,-0.013930,0.843427,0.733455,-0.263027,0.626786
0.119606,0.133608,-0.963592,-0.062673,0.235307,0.969898
0.316557,0.772220,-0.986260,0.028785,0.173760,0.984367
0.401555,0.134491,0.796654,0.640430,0.139899,-0.755167
0.739674,0.379145,0.471084,0.273155,0.951978,-0.138291
-0.468403,-0.180498,0.633091,0.884156,-0.462999,-0.062452
-0.411869,-0.601432,0.574708,0.140048,0.525801,0.839000
0.579128,0.239945,-0.966177,-0.104802,-0.169919,-0.979869
0.521100,0.587698,-0.978074,0.077407,0.070309,0.994517
0.168313,-0.193741,0.967062,0.142026,0.963666,-0.226222
-0.738551,0.421916,0.339788,-0.693003,0.713268,0.104860
0.173038,0.091328,0.667656,0.408444,0.707379,-0.576878
-0.398445,0.929176,0.360303,-0.018405,-0.262854,0.964660
-0.110656,0.352266,0.752513,-0.608400,0.404332,0.682909
-0.237899,0.654700,0.409039,0.934615,-0.043984,0.352931
0.529170,0.515500,-0.976015,0.038853,0.203125,0.978382
0.909420,-0.353443,0.622917,-0.214000,0.961087,-0.174686
0.374843,-0.125172,0.831267,0.088899,-0.640027,0.763192
0.078104,0.523348,0.617603,0.411254,-0.818671,0.400809
-0.326872,-0.523837,-0.267091,0.722509,-0.135580,-0.677937
-0.599127,0.550912,0.544499,-0.302761,0.804495,0.511002
0.039825,0.417698,0.623157,0.968730,0.005754,-0.248050
-0.397823,0.242104,-0.097616,0.377680,-0.504131,0.776666
-0.593417,0.356779,0.345701,-0.060403,0.174500,0.982803
0.540857,-0.459093,-0.937620,0.060756,0.035413,0.997524
0.269716,-0.095938,0.917153,-0.689159,0.723613,0.037994
0.407145,-0.299489,0.761250,-0.273413,0.623517,0.732443
0.425286,-0.119972,0.842972,-0.154196,-0.962408,0.223595
-0.642374,-0.648029,0.303188,-0.548392,0.834449,-0.054417
-0.376329,0.467628,-0.150972,0.700537,0.501516,0.507671
0.506682,-0.066509,-0.443867,0.936753,0.192930,-0.292012
0.578506,0.405436,0.144868,0.619358,-0.137087,0.773047
-0.306985,0.232588,0.685130,-0.690386,0.373479,0.619581
-0.059082,-0.671081,0.431037,0.979045,0.197853,0.048224
0.503951,0.203453,-0.185250,0.770278,0.058378,-0.635030
-0.587948,0.274868,0.547707,-0.546434,-0.037187,-0.836676
0.283132,-0.103590,0.860470,-0.025337,0.925973,0.376738
-0.107175,-0.549245,0.664784,-0.406787,-0.795022,0.449960
0.479097,-0.280458,0.687763,0.808309,-0.525735,0.265027
0.294562,0.718265,-0.976446,0.066238,0.089709,0.993763
0.579750,-0.582892,0.570447,-0.532914,0.542631,0.649272
0.551293,-0.451540,0.154395,-0.769735,0.580007,0.266647
0.251445,0.039337,0.841201,0.618932,0.714970,-0.325179
0.979378,-0.372670,0.471970,0.895447,0.387191,-0.219675
0.572916,-0.340690,0.727738,0.185614,0.943511,0.274470
-0.799188,0.295861,0.372104,0.807983,-0.003469,0.589195
-0.159363,0.286443,0.633163,-0.039766,-0.846441,0.530995
0.031627,-0.703551,0.570854,0.684944,0.353304,0.637203
-0.146439,-0.726211,0.576168,0.890140,-0.305821,-0.337823
-0.268221,-0.979399,0.211724,0.426947,0.877544,0.218250
0.569807,-0.333432,0.724962,0.323968,0.937163,0.129503
0.602609,-0.709044,0.671318,-0.095606,0.993832,-0.056192
-0.469769,0.536198,-0.170289,-0.710072,-0.302755,0.635718
-0.604596,0.000392,0.545026,0.799449,0.520191,0.300471
0.584968,-0.273985,0.697506,0.572452,0.748307,0.335165
0.475366,-0.063763,0.841153,0.643241,0.707030,-0.293851
0.236162,0.189229,0.682162,0.636299,-0.034093,0.770689
0.087046,0.706299,0.410882,0.779317,-0.423679,0.461694
-0.496117,0.028645,-0.337012,0.703324,-0.704878,0.092100
-0.223481,0.856878,0.431300,-0.706984,-0.200435,0.678232
0.336564,-0.515009,0.490760,0.159320,0.694782,0.701353
-0.261388,0.450560,-0.208660,-0.710105,0.400248,-0.579269
0.299409,-0.160388,0.923640,-0.316202,-0.508412,0.800958
0.477482,-0.359721,-0.948487,-0.109715,0.083863,0.990419
0.198635,-0.675593,0.488127,0.979125,-0.176421,-0.100946
0.440326,0.047088,-0.131846,0.914301,-0.405025,-0.002925
0.402177,0.114872,0.532555,0.587768,0.771583,-0.243287
0.265112,-0.557582,0.030735,0.987785,-0.110126,0.110237
-0.320288,0.536297,0.591177,0.781463,0.479340,-0.399436
-0.167190,-0.343535,0.491766,-0.787213,-0.164931,0.594217
-0.694311,0.091918,-0.228409,-0.717688,0.692893,-0.069451
0.445294,0.201099,0.507229,0.164672,-0.430607,0.887390
-0.213788,0.515009,0.602499,0.866258,0.490677,-0.093984
0.758809,0.085639,0.570591,0.542645,0.555295,-0.630226
0.351354,-0.064449,-0.041340,0.864231,-0.502976,0.010966
0.810755,-0.490093,-0.036576,0.921911,-0.251829,0.294386
0.651073,0.286346,0.557210,0.720136,0.131373,-0.681282
-0.014971,-0.190013,-0.268001,0.336036,0.894264,0.295586
0.225597,-0.123406,0.759671,-0.545498,0.357158,-0.758202
