0.228444,-0.024926,0.875609,0.996522,0.082306,0.012986
0.620975,0.573796,0.369664,0.520352,0.490848,0.698786
-0.766887,0.622593,-0.029870,0.907994,0.226853,-0.352257
-0.522753,0.629796,0.686667,0.702469,0.074427,0.707812
-0.077910,0.335383,-0.971432,0.293322,0.091564,0.951619
-0.696688,-0.173142,0.586480,-0.386902,-0.283574,-0.877436
-0.320691,0.212910,0.808454,-0.570690,0.797656,0.195087
-0.785564,0.293310,0.773810,0.222964,0.868353,0.443000
0.248803,-0.038470,0.609915,0.996227,0.081956,-0.028555
-0.664964,0.259690,0.629034,0.394507,-0.846730,0.356950
0.574844,0.149993,0.564086,0.788664,-0.271470,0.551646
0.185128,0.004275,0.845206,-0.781850,0.617043,0.089268
-0.210665,-0.489938,0.688056,0.911219,-0.180116,-0.370456
0.598582,-0.223763,0.523639,-0.883016,0.374110,0.283415
-0.914495,0.589742,0.529244,0.881432,-0.456684,-0.120490
-0.268717,0.736133,0.465040,-0.087867,-0.472908,0.876720
-0.538615,0.317325,0.054396,0.252848,-0.468833,0.846323
0.267255,0.006772,0.762080,0.815978,-0.285760,-0.502515
-0.029644,-0.901541,-0.075351,-0.439328,-0.286230,-0.851506
0.263766,-0.505787,0.393495,0.806291,-0.517834,-0.285907
0.483605,-0.485711,0.528550,0.921935,-0.345529,-0.175057
-0.456262,0.020124,0.754913,0.149722,-0.730029,0.666814
-0.061032,0.135680,0.662364,0.442121,-0.489366,0.751698
-0.491818,0.437107,0.748044,-0.632136,-0.428554,0.645559
0.163525,0.090149,0.014693,-0.479855,0.700857,0.527767
-0.261404,0.289948,0.869310,0.279935,0.626837,0.727125
-0.102885,0.116374,0.690908,0.810946,0.541411,0.221903
-0.161616,-0.007827,-0.956478,0.109631,0.177808,0.977939
0.016824,-0.078238,0.793897,0.837248,-0.335192,0.432044
-0.289983,0.162097,-0.126982,-0.612075,0.734070,0.294116
0.313049,-0.177176,0.476571,0.230439,0.958834,0.165940
-0.612872,0.585611,0.557887,0.280826,-0.944667,0.169531
0.057770,-0.071514,0.678409,0.154870,0.985979,-0.062132
-0.010403,0.073052,-0.969175,0.050295,0.250433,0.966827
-0.324296,0.881850,0.570658,-0.624254,0.575677,-0.528112
-0.626373,0.445752,0.771677,-0.442721,0.896098,0.031729
0.173427,0.590126,0.658471,-0.301919,-0.704670,-0.642095
-0.461776,-0.048749,0.654081,-0.556732,0.389783,-0.733566
0.451654,0.230585,0.664968,0.916577,0.396193,0.054010
-0.555493,0.797704,0.571923,0.455065,0.482431,-0.748449
0.933509,0.472649,0.641781,0.528648,0.813982,-0.240759
-0.510606,0.210605,0.597862,0.811582,0.583748,-0.023916
0.247004,0.036934,0.796749,0.695101,0.706881,0.130971
-0.291446,-0.202247,0.535469,0.469863,-0.882304,-0.027703
0.191088,-0.100907,0.761584,0.894020,-0.382203,0.233771
0.231032,0.168052,0.881114,0.986888,-0.137471,-0.084575
0.452781,-0.715576,0.480018,-0.666489,-0.347339,-0.659657
0.175343,0.518756,0.697082,0.265753,0.961588,-0.068736
-0.027508,0.166611,-0.975350,-0.292495,-0.001728,-0.956266
-0.121445,0.615965,0.783878,0.851667,0.263729,-0.452891
0.599146,-0.229336,0.094793,-0.215253,0.823659,0.524644
-0.038083,-0.400028,0.530236,0.428777,0.857130,0.285445
-0.283796,0.228855,0.643393,-0.174989,0.831519,0.527215
-0.220114,-0.296671,0.386874,0.328491,-0.050057,0.943180
0.278509,0.002258,0.652296,0.967221,-0.088172,0.238138
-0.737751,0.407618,0.475604,0.816757,-0.404953,-0.411000
-0.031333,-0.150280,0.300177,0.571789,0.808913,0.136813
-0.492828,0.306277,0.724609,0.800913,-0.030646,0.597995
0.188280,0.449019,0.367233,0.996397,-0.057116,0.062698
0.117401,-0.060372,0.292564,-0.120669,-0.989028,-0.085225
-0.210775,-0.253254,0.105581,-0.252456,0.499259,0.828858
0.017043,-0.192353,0.300202,0.708483,0.448223,0.545113
0.267371,0.771673,0.493211,0.649013,-0.592314,0.477437
-0.545592,-0.505306,0.396893,0.248288,0.944521,0.215021
-0.713223,0.543635,0.531203,0.841253,0.237067,0.485893
-0.026382,0.406081,0.537328,0.970677,0.240278,0.007269
-0.400346,0.192642,0.659636,0.802779,0.234408,0.548269
0.065420,-0.112434,0.779960,0.367919,0.909417,-0.193898
-0.957021,0.503770,0.485548,0.794157,-0.578303,0.186764
-0.256453,-0.088709,-0.131744,-0.278535,-0.918270,0.281424
-0.892446,0.046443,0.374623,0.721755,0.621246,-0.305160
-0.443215,0.121945,0.627745,-0.747021,0.178550,0.640374
0.171401,-0.121272,0.800989,0.675994,-0.492087,-0.548527
-0.456379,-0.057777,-0.963967,0.021842,0.276141,0.960869
0.369411,0.577351,0.399844,-0.018444,0.992668,0.119461
-0.949035,-0.107536,0.408647,0.943242,0.009675,0.331965
-0.339932,0.292253,0.764957,-0.419206,-0.702510,-0.575105
-0.754739,0.393401,0.522945,0.036678,0.098830,0.994428
-0.324406,-0.066711,0.364902,0.624155,0.636896,0.452542
0.054625,0.629604,0.643616,0.327336,-0.759367,-0.562329
-0.515103,-0.110225,0.711962,-0.715074,-0.645930,-0.267288
-0.164088,0.302436,0.865367,0.126290,-0.812549,0.569047
0.184565,-0.042697,0.763097,0.975191,-0.006329,0.221273
-0.494963,0.595410,0.561210,-0.366256,0.070136,-0.927867
0.174780,0.156140,0.805081,-0.657281,-0.259981,-0.707384
-0.054735,-0.375534,0.615122,0.107271,-0.466188,0.878158
-0.491818,0.150282,0.619784,0.850093,-0.150483,-0.504675
-0.334309,0.787042,0.562350,0.400205,0.607896,-0.685783
-0.217079,-0.128476,0.389627,0.780368,-0.614716,0.114672
-0.452891,0.111666,-0.963298,0.243963,0.197386,-0.949484
0.067672,0.407521,0.759154,0.046705,0.948422,0.313552
-0.052482,0.020220,-0.729023,-0.365353,-0.537034,0.760336
0.156212,0.027040,0.799204,0.739036,-0.510870,0.439133
-0.762726,0.582057,0.534526,-0.524042,-0.160621,-0.836409
-0.064747,-0.059988,0.745589,-0.002178,0.770750,0.637134
-0.673059,0.748716,0.453533,-0.044802,0.994744,-0.092076
-0.222593,0.640652,0.637516,0.726525,-0.685518,0.047199
-0.066100,-0.050766,0.767387,-0.492140,0.241511,0.836344
-0.131237,0.532588,0.768627,-0.532292,0.349010,0.771270
0.015018,0.476010,0.457377,-0.364358,-0.099755,0.925901
0.127413,-0.476874,0.492393,0.433459,-0.862876,0.259919
-0.024246,0.185919,-0.641533,-0.232875,-0.964773,-0.122404
-0.237556,0.184382,0.764163,0.762495,-0.029830,0.646306
-0.433196,0.465732,0.650039,-0.403384,0.574673,-0.712062
-0.168139,0.837856,0.592109,-0.016322,-0.934442,0.355742
-0.485514,0.460642,0.713921,-0.697853,-0.117268,0.706576
0.126623,-0.151337,0.348932,-0.060960,-0.616540,0.784960
-0.131121,-0.124633,0.381121,0.960061,-0.149137,0.236729
0.002644,0.632486,0.656090,-0.148600,-0.962873,-0.225373
-0.815490,0.644398,0.516349,0.029617,-0.982869,0.181910
-0.675195,0.775419,0.578197,0.752715,-0.055580,-0.655996
-0.177025,0.640267,0.683741,-0.640848,0.689319,0.337866
0.331157,-0.070361,0.767387,-0.702055,-0.285349,-0.652453
-0.076448,0.175353,0.934903,0.605241,0.685515,-0.404664
-0.332846,0.501081,0.759699,0.041362,0.959179,0.279757
-0.374925,0.540945,0.626431,-0.517346,-0.748454,0.414934
-0.480453,0.668988,0.583429,0.770529,-0.213036,0.600750
-0.507117,0.047500,0.645278,-0.548112,-0.471249,-0.691012
-0.327785,0.471495,0.807809,0.704117,0.707946,0.055068
0.364914,0.135488,0.311138,0.980609,-0.181701,-0.073424
-0.430498,0.130782,0.734925,0.886110,-0.378556,-0.267403
0.271759,-0.597618,0.549331,0.233138,0.886929,0.398754
-0.003996,0.092647,0.682253,-0.541380,0.837021,0.079400
-0.184675,0.520677,0.775744,-0.788380,0.596905,-0.148863
-0.429489,0.030883,0.697281,-0.711297,0.378276,-0.592422
-0.233168,0.279670,0.891753,-0.242573,0.852352,-0.463309
0.125160,0.453533,0.413062,0.830941,-0.455849,0.318965
-0.250266,0.282360,0.741968,0.066227,0.786607,-0.613891
-0.463575,0.005332,0.498047,-0.188932,0.976319,-0.105388
-0.789616,-0.008500,0.294002,0.323161,0.880205,-0.347572
0.112224,0.370732,0.520490,0.478348,-0.801346,-0.359204
0.477982,0.671678,-0.038004,-0.513076,0.425885,-0.745235
-0.477075,0.121176,0.804982,0.616236,0.762865,-0.195677
-0.344320,0.591855,0.816737,0.912728,0.396567,-0.098296
0.250493,-0.386388,0.471934,-0.122971,0.795795,0.592948
0.014008,0.355075,0.662562,-0.150438,0.278853,-0.948478
-0.751025,0.406561,0.681434,0.962714,0.115523,-0.244614
-0.484951,-0.595888,0.336036,0.814957,0.251819,-0.521950
-0.087922,0.227607,0.627348,-0.715387,0.580680,0.388630
-0.319572,0.233178,-0.941624,-0.124499,-0.049296,-0.990994
0.758565,-0.165554,0.604112,-0.650977,-0.687411,0.322017
0.512631,0.121272,0.656735,0.993323,0.040591,0.107991
-0.603980,0.654196,0.632977,-0.664718,-0.289649,0.688661
-0.500141,0.578502,0.706903,0.042472,0.985840,0.162222
0.166904,0.080256,0.824102,0.913981,-0.280268,-0.293409
-0.224392,-0.052014,-0.122791,-0.598678,-0.495880,0.629038
-0.080609,0.895298,0.579189,-0.337082,0.937897,0.082005
0.488557,-0.212718,0.514414,0.057442,-0.992094,-0.111581
-0.423412,0.243265,0.687981,0.522136,0.852369,-0.028996
-0.412164,0.566880,0.552357,-0.207681,0.213011,0.954723
-0.290656,0.218289,0.895498,0.821276,-0.187900,0.538702
0.230243,-0.172566,0.896093,0.735190,0.591918,0.330347
-0.728639,-0.348927,0.508760,0.764194,0.573287,0.295549
-0.737861,0.424524,-0.136282,-0.327248,0.636408,-0.698493
-0.231025,0.120888,0.536708,0.063236,0.997738,0.022795
-0.515440,0.301187,0.682079,0.890962,0.449912,-0.061368
-0.032123,-0.265837,0.377922,0.300923,0.768642,0.564478
-0.417788,-0.659574,0.346650,-0.037682,-0.560994,0.826962
-0.068235,0.533740,0.112103,-0.581331,0.669254,-0.462767
-0.275694,0.262379,0.905566,0.395210,-0.851494,0.344627
-0.126623,0.824985,0.307939,-0.228269,-0.736325,0.636960
0.526468,-0.129820,0.718261,0.651568,0.749311,-0.118290
-0.614108,0.220884,0.451277,0.898625,0.425441,0.107112
-0.759354,-0.225685,0.506206,0.978066,0.204820,0.037896
-0.347582,0.309543,0.923049,0.906857,0.198023,-0.372018
-0.446250,0.573508,0.567608,-0.143745,0.305592,-0.941250
-0.342631,-0.064022,0.512852,0.809739,0.510435,0.289444
0.149235,-0.096873,-0.271510,0.854004,0.518536,0.042396
-0.206731,0.165939,0.915014,0.427041,0.061385,-0.902146
-0.409239,-0.101772,0.461196,0.719411,-0.661289,-0.212472
0.336897,0.217233,0.791864,0.159794,-0.981386,0.106526
0.290546,-0.269967,0.665811,0.809110,-0.174273,0.561222
-0.171628,0.644398,0.648353,-0.113584,0.965782,0.233161
0.456152,-0.061429,-0.281752,-0.623592,0.775236,-0.100706
0.171175,-0.354114,0.411524,0.891630,0.407036,0.198287
-0.278619,0.292734,-0.030639,0.921814,-0.386167,0.033685
0.269960,-0.143268,-0.314809,-0.234359,0.968036,-0.089340
-0.144401,0.696941,0.469454,-0.137726,-0.608847,0.781240
-0.174100,0.079680,0.671093,-0.388023,0.171134,-0.905622
0.152161,0.444215,0.503404,0.560396,-0.100554,-0.822098
-0.287958,0.151914,0.710300,-0.743701,0.584447,0.324548
-0.438937,0.078526,0.541247,-0.529010,-0.331937,-0.781003
0.169939,-0.080543,0.655296,0.812225,-0.223551,0.538808
0.103675,0.362663,0.642748,0.983482,-0.176435,-0.040419
0.205488,-0.119830,0.844437,0.747930,0.649893,0.135056
-0.543792,0.347967,-0.708738,0.225066,-0.572998,0.788047
0.029644,-0.482926,0.520738,-0.480567,-0.768308,-0.422798
-0.683414,0.023486,0.530658,0.862462,-0.470514,-0.186484
-0.110871,0.700111,0.400216,0.710980,0.701471,-0.049451
-0.151378,0.077469,0.452070,0.957170,-0.248114,-0.149218
-0.572482,0.704050,0.583330,-0.283481,0.762294,-0.581847
-0.665520,0.208972,-0.028060,0.397032,0.119164,-0.910036
-0.536026,0.685222,0.698025,-0.663700,-0.679240,-0.313267
-0.950161,-0.071995,0.423824,-0.729799,-0.451580,-0.513292
-0.125497,0.069690,0.177002,-0.323563,0.628873,0.706984
0.214380,0.134528,0.879205,0.944738,-0.228378,-0.235187
0.190415,0.897412,0.332465,0.204736,-0.587027,0.783252
-0.742702,0.673599,0.552728,-0.279730,0.838513,-0.467597
0.329811,0.066040,0.733239,0.773400,0.628316,-0.084092
0.003996,0.687142,0.641111,0.944716,-0.327661,0.012245
-0.523989,0.245858,-0.969547,-0.159498,0.154007,0.975111
0.000281,-0.304836,0.377401,0.284927,0.685572,0.669931
0.259378,0.107152,0.184937,0.828137,0.560524,-0.001298
-0.509926,0.439028,0.543925,0.172836,-0.609170,0.773977
-0.280191,0.494261,0.679674,-0.105387,0.993359,-0.046177
-0.111770,-0.013400,0.648601,-0.301755,-0.831913,-0.465688
-0.587555,0.791653,0.571352,0.466023,0.866426,0.179243
-0.247004,0.208012,0.630175,-0.292531,-0.644476,0.706453
-0.871523,0.297249,0.422659,-0.201337,0.958293,0.202825
-0.371100,0.295903,0.872980,0.808577,0.283153,0.515778
-0.086796,0.177754,-0.966199,0.189732,0.022580,0.981576
-0.781067,-0.248450,0.609617,0.752634,-0.657702,0.031147
0.232715,-0.004754,0.853538,0.921264,0.053619,-0.385224
0.335208,0.847173,0.295565,0.038381,-0.876571,0.479740
0.059912,0.743433,0.695644,0.369309,0.863685,-0.343013
0.088485,0.003123,0.457402,-0.318806,-0.945278,-0.069373
-0.684424,0.670813,0.591092,0.040353,0.963386,0.265064
-0.361199,0.364007,0.741646,0.444294,0.608894,-0.657153
0.377734,-0.710292,0.533088,0.594749,0.212411,-0.775342
0.190869,-0.497910,0.588191,0.833939,0.186542,-0.519373
-0.693646,-0.371979,0.370383,0.119538,0.690732,0.713162
-0.133710,0.848903,0.449789,0.770548,0.513645,-0.377391
-0.013782,-0.145382,0.289886,-0.337909,-0.923255,-0.182808
0.427017,0.011095,0.492963,-0.292922,-0.955556,0.033307
0.012655,-0.290331,0.614750,0.503124,-0.789668,-0.351129
0.610174,-0.005138,0.536956,-0.063620,-0.762928,0.643345
-0.501493,0.233851,0.731578,0.017159,0.462782,0.886306
-0.575517,0.024062,0.671490,0.986069,-0.061875,0.154398
-0.478765,0.105519,0.766941,0.903463,-0.298991,-0.307180
0.316984,0.018587,0.301318,0.885578,-0.453745,-0.099333
0.042698,0.483791,0.648998,0.858563,0.022998,-0.512191
-0.564269,0.439893,0.525450,0.885053,0.200755,-0.419974
0.016480,0.229048,0.478803,-0.568891,0.144391,-0.809638
0.051247,0.005235,0.467024,0.899729,-0.242349,0.362981
-0.650557,0.717401,0.625786,0.984471,0.058771,-0.165415
0.245878,-0.332405,0.740282,0.942144,-0.079821,-0.325566
-0.849130,0.662649,0.512282,0.011065,0.955574,0.294542
-0.446024,0.205033,0.805776,-0.491657,-0.149618,-0.857839
-0.642345,-0.161711,0.571328,0.963790,0.058841,0.260089
-0.903247,0.257481,0.413483,-0.233287,0.953219,-0.192226
0.096471,-0.165554,0.325447,-0.742790,0.156519,0.650972
-0.465491,-0.085538,0.435976,0.712932,-0.696804,0.078690
-0.701975,-0.303396,0.370532,-0.138792,-0.089017,0.986313
0.505764,0.501081,0.602549,-0.075082,-0.613533,0.786091
0.209766,0.473225,0.470000,0.559401,-0.322828,-0.763448
0.360862,-0.306469,0.782316,0.985017,0.151071,-0.083177
0.187490,-0.069592,0.884909,0.916072,-0.399801,0.031182
0.341058,-0.292540,0.633697,-0.443473,0.741210,-0.503924
0.011310,0.002258,0.797418,0.906322,0.039066,0.420778
-0.768913,0.302436,0.683021,-0.501653,-0.848781,0.167078
0.276930,-0.390038,0.447755,-0.257136,0.959919,0.111524
-0.356921,0.145574,-0.157683,-0.585140,0.641538,-0.496025
-0.742812,-0.157294,0.590596,0.211883,0.873949,0.437401
-0.718847,0.544499,0.539114,0.908774,0.054584,-0.413704
-0.220114,0.355075,0.758162,-0.349516,-0.201882,-0.914922
-0.622548,0.752557,0.579660,0.029890,0.213600,0.976464
-0.209766,-0.546706,0.515927,0.899097,0.434890,0.049946
-0.401472,-0.051054,0.619462,0.968465,0.001600,-0.249144
0.047312,0.536045,0.644732,-0.648369,-0.198547,0.734980
-0.720873,-0.169877,0.584967,0.928417,-0.095390,0.359086
-0.256789,0.236156,-0.426502,0.408314,0.911392,0.051412
-0.707709,0.845253,0.588984,0.853328,-0.325658,-0.407159
-0.003770,0.126843,0.632804,0.153085,-0.361771,0.919612
0.660123,0.410500,0.372466,0.993191,0.109075,0.040908
-0.467963,0.179483,0.811380,-0.521338,-0.454398,-0.722309
0.121789,0.447386,0.503131,-0.548727,-0.491341,0.676375
-0.046405,0.772538,-0.124354,0.963277,0.264977,0.043411
-0.852055,0.112050,0.340599,0.411710,-0.660364,0.628024
-0.523879,0.112436,0.271311,0.909293,-0.403148,0.103239
-0.366822,0.450843,0.755955,0.730456,0.674393,-0.107834
-0.643924,0.656886,0.583355,-0.039680,-0.981618,0.186686
-0.467736,-0.034917,0.685204,-0.735901,-0.247167,-0.630364
0.603197,0.655540,0.627943,-0.676452,0.070433,0.733111
0.317093,0.287739,-0.187070,0.916761,0.399089,0.016663
0.266355,0.009943,0.534129,0.851201,-0.521734,0.057016
-0.135399,0.612507,-0.486466,-0.477612,0.867162,-0.141128
-0.351523,0.902022,0.498717,0.023079,-0.931689,0.362522
-0.300895,0.030787,0.332019,0.711329,0.381283,-0.590452
-0.134389,0.379090,0.670622,0.570344,-0.807143,0.152407
-0.335661,0.080640,0.689841,0.054079,-0.804692,0.591225
-0.213700,0.501850,0.798708,0.824291,-0.031787,0.565273
-0.286268,-0.006003,0.333656,0.692398,0.235773,-0.681907
-0.293245,-0.630756,0.479597,-0.139739,-0.811738,0.567057
-0.106709,0.247203,0.664274,-0.271024,0.915718,0.296660
0.415199,-0.028576,0.733462,0.367362,0.928668,0.051193
-0.236093,0.382450,0.905789,-0.929421,-0.027639,0.367986
-0.659449,0.446232,0.418244,-0.548005,0.653740,-0.521839
-0.629298,0.675521,0.620504,0.949102,0.304129,-0.081922
-0.700060,0.294654,0.513522,0.152935,-0.777685,0.609768
0.214264,-0.035109,0.897903,0.986315,-0.118234,0.114902
-0.186137,-0.132510,0.538668,-0.153899,0.861188,0.484427
0.012772,0.816917,0.331498,-0.387705,0.622940,-0.679434
-0.275357,-0.245185,0.371548,0.660136,-0.402148,-0.634427
-0.265119,-0.201960,0.722328,0.261415,-0.053696,0.963732
0.453337,0.272273,0.640169,0.583782,0.753836,-0.301545
-0.245432,-0.161230,0.487483,-0.069836,0.444326,0.893139
-0.097707,0.127132,-0.966571,-0.007707,0.058858,0.998237
-0.120546,-0.397915,-0.121675,0.472532,0.197988,-0.858786
-0.489903,-0.062869,-0.320934,0.933195,0.238021,0.269247
-0.906509,0.353154,0.535816,-0.399933,0.706472,-0.583910
-0.301904,0.325680,0.996751,0.974384,0.002354,-0.224877
-0.392133,0.607320,0.636276,0.651343,0.671250,0.353800
-0.945663,0.240959,0.416310,0.406276,-0.780113,0.475776
-0.271869,0.067960,0.648204,-0.101227,0.975154,0.197047
-0.647522,0.040777,0.546330,0.897645,-0.143614,0.416664
0.057887,-0.542289,0.533286,0.851487,0.295456,0.433216
-0.826854,-0.035780,0.318578,0.662085,0.109970,-0.741316
0.289084,0.080640,0.695793,-0.515569,-0.807208,-0.287409
0.580358,0.313578,0.254994,0.802166,-0.549422,0.233803
-0.490912,0.612026,0.673524,0.793271,0.590349,-0.149028
-0.000844,0.382931,0.745242,-0.690821,0.529942,0.491862
0.319119,0.578695,0.303674,-0.584601,-0.379081,-0.717313
0.012209,-0.235963,0.753029,0.912710,-0.402402,0.070947
-0.363224,0.295327,-0.616288,-0.079372,-0.993315,0.083823
0.188953,-0.288794,0.570708,-0.691441,-0.371825,0.619400
-0.231705,0.407713,0.855894,0.921457,0.316797,0.224850
0.172637,0.711157,0.606468,0.709327,0.259959,-0.655192
-0.623221,-0.154123,0.512703,-0.502553,0.309769,-0.807145
-0.637057,-0.387829,0.386998,0.509405,-0.560457,0.652989
-0.631323,0.260266,0.530286,-0.465613,-0.552396,0.691421
0.129548,-0.410211,0.751838,-0.015332,-0.826281,0.563049
-0.342748,0.196197,0.883520,0.797423,-0.480039,-0.365622
-0.078020,-0.402621,0.649717,0.388229,-0.856896,-0.339127
-0.387526,0.195045,0.791864,0.876874,-0.385836,0.286746
-0.724141,0.337784,0.721608,0.760724,0.646466,-0.058150
-0.115595,-0.467268,0.697182,0.986343,-0.030674,-0.161822
-0.092537,0.353154,0.715930,-0.460149,0.087096,-0.883559
0.072733,-0.281109,0.298069,-0.288406,0.420574,-0.860197
0.081962,0.367275,0.641682,0.991168,-0.026759,-0.129884
0.772854,0.121464,0.560615,0.801923,0.093374,0.590086
-0.509479,0.528649,0.766147,0.350667,-0.240291,0.905148
-0.509479,0.308007,0.738298,-0.565599,0.246054,0.787118
0.314512,0.330004,0.327258,-0.469760,-0.664857,-0.580767
-0.261294,-0.346237,0.661918,0.944336,-0.028670,0.327732
0.451318,-0.583208,0.511017,0.893300,-0.356137,-0.274194
0.521407,0.543057,0.393892,0.318707,0.696168,0.643254
0.177815,-0.127035,0.768205,0.961017,-0.275806,0.019428
-0.018732,0.691946,-0.043807,-0.299195,-0.911264,-0.282986
-0.854981,0.449498,0.568377,-0.517545,-0.806143,0.286847
0.286385,-0.034339,0.779836,-0.166134,-0.037853,0.985376
0.226754,0.694348,0.577106,0.988105,0.077864,0.132611
-0.178488,-0.338647,0.695644,0.093256,-0.103278,0.990271
0.349161,-0.387349,0.760915,-0.879074,0.268024,0.394197
-0.658097,-0.155180,-0.956156,-0.097489,0.242050,0.965354
0.320582,-0.057009,0.788094,-0.777416,0.480824,0.405504
-0.703438,0.243649,0.626902,0.103207,0.990206,0.094022
0.079599,0.442870,0.481829,-0.509403,0.740837,0.437799
-0.279965,0.574853,0.595655,-0.207764,0.721575,0.660427
-0.584972,0.394650,0.709730,0.605541,-0.462356,-0.647724
-0.430498,0.649585,0.698942,0.778100,0.627528,0.027729
0.029534,0.053552,0.355528,-0.481744,-0.807312,0.340837
-0.089275,0.632102,0.820481,-0.450022,-0.838923,0.306085
-0.581484,0.270353,0.612717,0.399668,-0.804027,0.440235
-0.396075,0.651218,0.844090,0.578142,-0.743493,0.336110
-0.283343,0.269488,-0.037384,0.832521,-0.549063,-0.073752
-0.559765,0.502810,0.568823,0.272275,-0.499259,0.822561
0.011083,-0.029441,0.292118,-0.647656,-0.751088,-0.128100
-0.508580,0.022429,0.596598,-0.599431,0.228861,0.767011
-0.237556,0.521926,0.700852,0.440952,0.819672,0.365650
-0.088931,0.037031,0.741324,0.333835,0.554322,0.762418
-0.742929,-0.205322,0.534377,0.918818,0.366934,0.145373
0.154076,0.264398,0.757021,-0.210010,-0.393734,0.894913
-0.219215,0.926421,0.492517,0.990766,0.046771,-0.127258
-0.537152,-0.214351,0.329589,0.816182,0.456794,0.353815
-0.240254,0.302531,0.953180,0.277682,0.880522,-0.384153
-0.970075,0.380241,0.560962,0.807769,-0.288745,0.513941
0.135063,-0.196580,0.630076,0.108826,-0.283295,0.952838
-0.594648,0.595601,0.780456,0.182999,-0.976572,-0.113219
-0.769476,-0.167474,0.238007,-0.688334,0.272184,0.672393
-0.306628,0.160656,-0.710548,-0.366611,0.909199,-0.197367
-0.635485,0.552855,0.792657,0.864817,0.487981,0.118178
0.487314,0.646031,-0.295218,0.607856,-0.749476,0.262291
-0.720200,-0.332405,0.347989,-0.509715,0.720743,0.469808
0.146537,-0.519907,0.448623,0.422809,0.090478,0.901691
-0.104011,0.721052,0.823234,0.936593,0.325843,-0.128917
-0.007705,0.345277,0.716376,0.829089,0.201177,0.521670
-0.219331,0.820469,0.502436,0.785271,-0.259933,-0.561946
0.041118,-0.411075,0.564111,0.252726,-0.596023,0.762159
0.165214,0.044331,0.847586,0.945319,-0.204603,-0.253987
-0.061485,0.164978,0.556944,-0.453494,0.663937,0.594584
-0.602071,-0.266509,0.350494,0.163017,0.178171,0.970402
-0.395848,0.284280,0.744423,0.062190,0.002864,0.998060
-0.032569,0.297922,0.645600,0.944866,0.161348,-0.284947
-0.348035,-0.071322,0.549852,0.985332,0.054191,-0.161813
-0.314504,-0.203496,0.333631,-0.670097,0.428833,0.605865
0.304046,-0.011863,0.543875,-0.819793,0.450718,-0.353259
0.433313,-0.762258,0.598358,0.871354,0.315020,-0.376171
0.309444,0.218770,0.812670,0.838362,-0.507836,0.198120
0.323171,-0.541616,0.375219,0.900280,0.292647,-0.322263
0.235193,-0.598002,0.536287,0.131031,0.900276,0.415130
0.058450,-0.068248,0.845528,-0.268875,0.957690,-0.102649
0.405524,0.156621,-0.974234,-0.010510,0.247393,0.968858
-0.577660,-0.100043,0.615668,-0.167300,0.922663,0.347424
-0.364007,0.150090,0.643815,-0.472028,0.113219,-0.874283
-0.096135,0.205033,-0.964240,0.262835,0.003868,0.964833
0.300332,-0.012535,0.020447,-0.662048,-0.655650,-0.363063
-0.566405,0.621825,0.691602,-0.186264,-0.309314,0.932540
0.075438,-0.081216,0.318355,0.619638,-0.132553,-0.773614
-0.583057,0.528360,0.753872,-0.522601,0.779283,0.345841
-0.250719,0.383988,-0.921735,-0.824189,0.331544,-0.459119
0.100186,0.542386,-0.008196,0.245652,0.835073,0.492248
-0.424084,0.211182,0.575593,-0.119349,-0.990880,0.062557
0.323843,0.084962,0.472256,0.986330,-0.098294,-0.132255
-0.953876,-0.086595,0.186053,-0.113367,0.867823,0.483768
-0.748436,-0.243936,0.528971,0.021916,0.990592,0.135079
-0.929911,0.138083,0.382658,0.710056,-0.463401,0.530170
-0.045623,0.633159,0.128371,0.679146,-0.732878,0.040637
-0.230126,0.376400,0.748738,0.148809,0.299028,0.942570
-0.729765,-0.282839,0.306625,0.972427,0.213904,0.092906
0.199864,-0.028960,0.815844,0.716545,-0.252467,0.650249
0.343757,0.475434,-0.023770,0.257491,-0.429165,0.865746
-0.029198,0.845253,0.562450,-0.744313,0.446355,0.496754
0.293582,0.453341,-0.025654,0.154859,-0.410164,0.898768
-0.140796,0.411556,0.760419,-0.649323,0.747381,-0.140717
-0.208750,0.133279,0.720493,0.912105,-0.399640,0.091389
-0.131011,-0.020220,0.665588,-0.501644,-0.788383,-0.356097
0.334425,0.249507,0.614527,-0.642249,0.292466,0.708506
0.261631,0.053360,0.619264,0.954488,0.274260,-0.117195
0.272095,0.750348,0.511042,-0.703767,0.659618,-0.263850
0.038419,-0.096873,0.327258,0.815753,-0.201972,-0.541992
-0.801090,0.321455,0.524607,0.830170,-0.313574,-0.460966
0.298869,-0.213294,0.676028,-0.728459,0.340352,-0.594565
-0.536480,-0.030690,0.682749,0.363896,-0.930340,-0.045241
0.169149,-0.061813,0.623182,0.908717,-0.192982,0.370123
0.061485,0.398108,0.478034,0.365570,-0.720268,-0.589553
0.126850,0.637097,0.648006,0.275618,0.755536,0.594307
-0.549643,-0.316076,0.459485,0.911521,-0.405627,0.067797
-0.231478,0.460834,0.853861,0.984394,-0.143995,0.101166
0.203805,-0.040199,0.555704,0.925205,-0.347897,-0.151535
-0.481237,0.281303,0.615370,0.120074,-0.674193,0.728729
-0.298642,0.308391,0.859738,0.198586,-0.911849,0.359297
-0.619286,0.486289,0.696810,-0.180718,0.639916,-0.746892
0.474040,-0.570625,0.500676,0.922990,-0.269662,-0.274538
-0.431961,0.410595,0.524532,-0.056887,-0.302522,0.951443
0.130784,-0.459007,0.719501,0.884677,0.463783,-0.047450
0.387752,-0.024735,-0.115996,0.531913,-0.843978,0.069068
-0.270070,0.262571,0.156915,0.773781,-0.292375,-0.561943
-0.079936,0.480045,0.775298,0.672761,0.584841,-0.453160
-0.475503,0.414341,0.716773,0.646610,0.276396,-0.710986
-0.300895,0.060083,-0.063175,0.836721,0.538829,-0.097780
-0.852509,0.295135,0.380625,-0.714245,0.395460,-0.577465
0.338023,0.348927,0.761336,-0.079193,-0.981836,0.172413
-0.064074,-0.250083,0.251820,-0.086559,-0.882930,0.461457
-0.104347,-0.357091,0.808603,0.979316,-0.158241,-0.126092
-0.101758,0.863983,0.327481,-0.239836,0.886757,-0.395147
-0.473477,0.802604,0.466949,-0.007671,-0.162405,0.986694
-0.771838,-0.172182,0.577428,-0.739441,0.485878,0.465993
-0.888284,0.209261,0.398629,0.481280,-0.752060,0.450305
-0.109298,0.255080,-0.320661,0.503387,0.845876,-0.176338
-0.210775,-0.169493,0.225384,-0.142423,0.843828,0.517368
-0.711541,0.747275,0.389403,0.473006,0.029320,-0.880571
-0.798838,-0.188896,0.541271,-0.527645,-0.186705,-0.828693
-0.689712,0.827097,0.584744,0.907417,-0.016136,-0.419922
-0.388535,0.145382,0.905194,0.910286,0.412594,-0.033843
-0.212691,0.913741,0.616809,0.686181,0.529022,-0.499291
-0.483942,0.200519,0.347989,0.980687,0.073457,0.181264
0.204369,-0.000528,0.432082,-0.721560,0.687847,0.078854
-0.711314,0.387062,0.703729,0.560640,0.359493,0.745954
-0.529840,0.477739,0.742985,0.761870,0.618987,0.190813
0.059459,0.699054,0.739166,-0.571841,0.358614,0.737831
-0.263656,-0.165169,0.563392,0.991839,0.125653,-0.021620
-0.542557,-0.058450,0.578990,-0.206962,0.978066,0.023526
-0.523769,0.581673,0.725130,0.751307,0.603899,0.266164
-0.615235,0.132895,0.458890,0.996265,0.006235,0.086121
-0.708053,-0.106382,0.490880,-0.621857,-0.535635,0.571304
0.234740,0.076029,0.932101,-0.447258,0.852956,-0.269121
-0.731674,0.280343,0.781051,0.218763,0.868723,0.444369
-0.497325,-0.109168,0.403936,0.886593,-0.451974,0.098349
-0.584293,-0.336438,0.460303,0.788316,-0.581542,0.200916
-0.338696,0.417415,0.792186,-0.351374,0.325293,0.877907
-0.395176,0.494645,0.741398,0.035549,0.995597,0.086738
-0.336671,0.273522,0.890662,0.065330,0.463668,0.883597
-0.352869,-0.602036,0.340550,-0.002019,-0.632937,0.774201
-0.139223,0.170934,0.751987,-0.185971,0.597530,0.779982
0.152051,-0.028289,0.840196,0.979440,-0.122815,-0.160043
-0.045623,-0.271505,0.698769,0.601018,0.530203,0.598049
-0.289420,0.326545,0.855745,0.733621,-0.663877,-0.145147
-0.420376,0.633256,0.843395,-0.652417,0.606986,-0.453784
-0.366822,0.586187,0.643145,0.366965,0.004167,0.930225
0.524895,0.599924,-0.296631,0.614010,-0.715750,0.332707
-0.199074,0.330676,-0.207851,-0.148798,0.988719,0.017172
0.474713,0.234331,0.672457,0.892542,0.380428,-0.242164
-0.045733,0.396379,0.837444,0.793057,0.608935,0.016093
-0.270970,-0.159886,0.385237,0.887567,-0.445516,-0.117217
-0.481799,0.041353,0.708167,0.963166,-0.268906,0.000329
-0.489676,-0.051438,0.584421,-0.377961,0.925766,-0.010125
-0.767677,0.267759,0.582636,0.647754,-0.745222,0.158298
0.231369,-0.388789,0.743456,-0.760025,0.422644,0.493695
-0.197392,0.350943,0.754616,-0.011650,0.233795,0.972216
-0.510942,0.830844,0.593349,0.444750,-0.794992,0.412535
-0.256570,-0.420585,0.673920,0.932011,0.287234,-0.221025
-0.318446,-0.563325,0.368002,0.577805,0.553628,-0.599698
0.215506,-0.158062,0.578246,0.626503,-0.756723,-0.186721
-0.792651,0.203785,-0.036615,-0.393889,0.712405,0.580802
-0.616924,0.549879,0.790872,0.961113,-0.024596,0.275058
-0.195476,0.861678,0.572171,0.771876,0.586194,0.246139
-0.310233,0.304357,0.981698,0.958780,-0.057648,-0.278242
-0.470325,0.074974,-0.134224,0.990067,0.085726,-0.111442
-0.026492,0.198502,-0.971382,-0.336612,-0.090743,-0.937261
0.163525,-0.471879,0.515654,-0.356075,-0.830244,-0.428842
-0.647069,-0.321166,0.461246,0.722810,0.688252,0.062094
-0.053156,0.691178,0.802750,0.838048,0.433728,0.330992
0.192441,0.117334,0.227641,-0.379985,0.501986,-0.776931
-0.005233,-0.226839,-0.029969,-0.592098,-0.803821,0.057374
-0.119427,0.959848,0.372763,0.186482,-0.903032,0.386986
0.259158,0.488690,0.336508,0.795301,-0.545787,-0.263843
-0.517019,0.251142,0.616858,-0.704570,-0.623455,0.338946
-0.617144,-0.322223,0.365820,0.124999,0.496929,0.858742
-0.242163,0.536910,0.778522,-0.539541,0.401401,-0.740117
-0.270633,0.561116,0.826309,0.604734,0.351537,-0.714646
-0.744728,0.373421,0.666357,0.939316,-0.252960,0.231724
-0.156438,0.069209,0.722452,0.376764,0.886470,0.268737
-0.210556,-0.856683,0.264839,0.746514,0.510141,0.427169
0.124261,0.215984,0.417600,0.982391,-0.158861,0.098342
-0.393486,0.385140,0.914965,0.980928,0.000982,0.194367
0.653146,0.277846,0.430198,-0.511837,-0.767562,0.385839
-0.948025,0.523270,0.491079,0.744387,-0.662849,0.080743
-0.288404,0.326066,0.898920,-0.206690,-0.812162,0.545594
-0.680599,-0.323471,0.352726,-0.159063,0.477437,0.864149
-0.331610,0.296768,-0.726915,-0.488756,0.846503,-0.211070
-0.965014,0.460064,0.568327,-0.570337,0.675750,-0.466988
-0.407213,0.208588,0.938549,0.822729,-0.549468,0.145610
-0.250719,0.532876,0.744002,-0.138095,0.513107,0.847143
0.001071,0.011479,0.605426,0.685121,0.329701,-0.649543
-0.176126,0.240863,0.922876,-0.160773,-0.668094,0.726500
-0.565615,-0.316268,0.411350,0.556568,-0.494317,-0.667744
-0.786018,0.197254,0.523615,-0.882314,0.380276,0.277331
-0.340159,-0.022140,0.157733,0.061024,0.610622,0.789568
-0.620069,0.612699,0.371821,-0.277654,-0.763881,0.582575
-0.649438,-0.150761,0.448598,0.523594,0.670519,0.525598
-0.282217,0.242016,0.802155,-0.297352,0.941908,-0.156175
-0.574171,-0.130012,0.623951,0.284230,0.809211,0.514189
-0.169939,-0.467268,0.692172,0.628647,0.654971,-0.419305
-0.204479,0.154123,0.684832,-0.120900,-0.681493,0.721769
-0.341848,0.219922,0.896118,0.962227,-0.179833,-0.204401
-0.204142,0.266318,0.915262,0.329559,0.920621,0.209400
-0.062611,0.593391,0.777951,0.033391,-0.986450,0.160630
-0.060469,-0.119927,-0.060918,0.263026,0.853792,0.449285
0.314731,0.404351,0.532145,-0.028336,0.825342,0.563922
-0.242280,0.338168,0.664001,0.939288,-0.070190,-0.335875
-0.418797,-0.028576,-0.963893,0.065407,-0.230134,-0.970958
0.074422,0.304164,0.785267,-0.728579,0.287199,-0.621844
-0.043707,0.738438,0.482002,0.428369,0.884370,-0.185444
-0.333409,0.467365,0.651502,-0.288133,0.957189,0.027742
0.445687,0.435379,0.532939,0.970411,0.108969,-0.215472
-0.732464,-0.118678,0.551910,0.548871,-0.794997,0.258303
0.387072,-0.350462,0.376905,-0.638683,0.080201,0.765279
-0.656751,-0.104654,0.623380,0.496344,0.762386,0.415223
-0.935535,0.328372,0.427519,0.604518,-0.457657,0.652004
-0.208530,0.067673,0.698174,-0.161707,0.971218,0.174889
-0.477302,0.320782,-0.244380,0.996857,-0.038310,-0.069338
-0.086006,-0.031554,0.305459,0.878585,-0.289952,-0.379496
-0.490575,0.138275,0.628117,-0.744018,0.233189,0.626147
-0.715812,0.324529,0.665266,0.691654,0.511474,0.509912
-0.472467,0.120408,-0.961339,0.330690,0.143341,-0.932790
-0.787590,-0.036069,0.338095,0.865500,0.500639,-0.016405
-0.256906,-0.115891,0.533336,-0.347831,-0.437958,-0.828979
-0.056761,0.311464,0.794666,-0.687261,0.700901,0.190813
-0.521627,-0.019355,0.766122,-0.675401,-0.736190,-0.043093
0.004559,0.594161,0.615990,0.595563,-0.330453,-0.732192
-0.505655,-0.342394,0.357636,0.835995,0.121842,0.535039
-0.128649,0.102829,0.567583,-0.148303,0.786691,-0.599269
-0.490356,0.019068,0.775347,0.908085,-0.391209,0.149457
0.218315,-0.087555,0.691354,0.959469,-0.158455,0.233048
-0.227544,0.303109,0.900210,0.361216,0.805298,-0.470125
-0.217752,0.109457,0.489987,0.304079,-0.734096,0.607156
0.789279,0.048076,0.516175,0.939153,-0.263288,0.220614
-0.938570,0.187455,0.380823,-0.694943,0.250764,-0.673923
0.242733,-0.023773,0.805676,-0.210637,0.962407,0.171478
0.224056,-0.309351,0.757294,0.976616,0.213974,-0.020879
0.267035,-0.559003,0.463230,0.078286,-0.009776,-0.996883
-0.458961,-0.018587,0.565748,-0.295837,-0.472697,-0.830083
-0.049221,0.084770,0.500105,0.995080,-0.098822,-0.007031
-0.651457,0.667644,0.584595,0.255752,-0.965515,0.048691
0.139560,-0.169877,0.515828,0.504284,-0.827972,0.245277
-0.906399,0.524616,0.446490,-0.746677,0.079573,-0.660411
0.180177,0.013208,0.733239,-0.726777,-0.182652,0.662143
-0.195703,-0.057682,0.225012,-0.755802,0.638426,0.145518
-0.856107,0.127516,0.356099,0.709895,-0.649578,0.272208
-0.908981,0.026945,0.320612,-0.095594,-0.958675,0.267961
-0.428925,-0.457855,0.404456,0.241924,0.969185,0.046411
-0.101758,-0.216848,0.404704,-0.516159,-0.754146,0.406010
-0.631097,0.576389,0.638309,0.975853,-0.205013,-0.075371
0.080726,-0.280630,0.686816,0.790490,-0.546671,-0.276183
0.446930,-0.253254,0.585537,0.519807,0.848093,-0.102659
-0.181303,0.678498,0.562078,0.872334,-0.446436,0.199321
-0.561008,0.503770,0.544768,0.183992,0.596014,-0.781610
0.065873,0.750253,0.697702,0.257010,0.910707,-0.323356
0.748216,-0.231640,0.567856,0.787571,0.431300,-0.440127
-0.568994,-0.065654,0.509802,-0.556649,0.819280,-0.137557
-0.493727,0.534988,0.622116,-0.426924,0.673037,-0.603951
-0.645160,0.302531,0.756376,0.143378,-0.984139,0.104466
-0.162736,0.528554,-0.533088,-0.539796,0.835707,0.101069
-0.152277,0.346910,0.875212,0.023694,0.999678,-0.009071
-0.469542,0.435763,0.646518,-0.435314,0.587133,-0.682478
-0.693426,-0.140483,0.601905,-0.702789,0.690509,-0.171132
-0.242280,0.126460,0.619041,0.345063,0.408959,-0.844798
0.015697,-0.043273,0.754021,-0.553007,-0.402642,-0.729426
-0.225628,0.327315,0.870327,0.850239,0.445888,0.279781
-0.197392,0.415495,0.913700,-0.598963,-0.648105,0.470323
0.112787,-0.113202,0.865218,0.724238,0.666781,-0.175733
-0.634695,0.593488,0.747523,0.778005,-0.540774,0.319800
-0.380886,-0.160462,0.489839,-0.406138,0.911515,0.064739
-0.239128,0.304741,-0.064117,-0.617379,0.775881,-0.129815
-0.534117,0.086692,-0.968853,-0.055809,0.046119,0.997376
-0.136861,-0.353825,0.394289,-0.187180,0.302364,0.934634
0.036847,0.504059,0.512009,0.255175,-0.818593,0.514578
-0.264892,0.273235,0.921710,0.770659,-0.635414,-0.048306
-0.482926,0.587147,0.055835,-0.703499,-0.644257,0.300038
-0.162289,0.196581,0.756525,-0.035411,0.700269,0.713000
0.216852,-0.130396,0.554812,0.993166,-0.107624,-0.045146
0.342075,-0.684933,0.493360,-0.551393,-0.819372,-0.156828
-0.676321,0.042697,0.478927,-0.700209,0.697022,-0.154492
0.574055,0.556410,-0.330581,-0.589142,0.711170,-0.383600
-0.900096,0.080159,0.346749,0.876988,-0.334425,0.345038
-0.141140,0.573796,0.246860,-0.567793,0.755658,-0.326483
-0.039093,0.677538,0.528252,-0.169593,-0.827046,0.535942
-0.322154,0.248836,0.772992,0.430064,0.900490,0.064512
0.211565,-0.172854,0.609964,0.014230,0.941827,0.335797
0.473367,-0.243552,0.548810,0.356320,-0.772984,-0.524911
-0.270743,0.115988,0.755186,0.328650,0.935863,0.127078
0.117284,0.217040,0.721708,0.284358,0.957614,0.045989
0.095798,-0.427981,0.725849,-0.676985,-0.385124,0.627192
0.220794,0.120119,0.898598,0.914778,-0.020840,0.403418
-0.647975,-0.129341,0.587372,-0.724037,0.599455,-0.341210
-0.735726,0.297152,0.763221,-0.421520,-0.752862,-0.505490
-0.248803,0.559772,0.537254,0.327199,0.876552,0.352984
0.222703,-0.612121,0.478679,0.588812,0.692916,0.416134
-0.074649,0.648144,0.801733,-0.661494,0.558085,-0.500965
0.457052,-0.408962,0.368746,0.583996,-0.121202,-0.802657
0.442989,-0.527400,0.628687,-0.778413,0.626997,0.030795
0.133154,0.763893,0.604409,-0.571701,0.360077,0.737226
-0.168923,0.291101,0.892249,-0.370987,0.913047,0.169448
0.374472,-0.165746,0.025357,0.157789,0.793683,0.587511
-0.741350,0.185438,-0.971407,-0.048794,0.189769,0.980615
0.270406,-0.123768,0.376582,0.994617,-0.034923,-0.097561
-0.087132,-0.074012,0.084056,0.596438,0.513209,-0.617153
-0.475613,-0.628548,0.193840,-0.114013,0.084759,0.989857
0.585756,0.407330,0.415864,0.076160,0.176884,0.981281
-0.332509,0.208012,-0.949708,0.163186,0.073503,0.983853
-0.178714,0.342107,-0.243934,0.053692,-0.686848,0.724816
-0.313605,0.669853,0.540081,-0.132516,-0.395402,0.908899
-0.796929,0.590510,0.323290,0.886075,0.396527,-0.240079
-0.445124,0.192739,-0.142606,-0.604084,0.682561,0.411330
-0.351297,0.061140,0.778894,-0.415016,0.799812,-0.433662
0.170055,0.467846,0.655123,0.919324,-0.063379,-0.388365
-0.034258,0.605111,-0.655743,-0.285008,-0.926849,0.244380
-0.245542,0.910476,0.580255,0.531329,0.410432,0.741104
-0.399336,0.202152,0.731206,-0.851378,0.206424,0.482229
0.430841,0.508285,0.497675,-0.324687,-0.945804,-0.005738
-0.202679,-0.104749,0.547595,-0.337755,0.082426,0.937618
0.116165,-0.439988,0.703332,-0.678665,-0.602683,-0.419747
-0.189852,0.421834,-0.969795,0.310932,0.300343,0.901729
-0.161499,-0.465155,0.698471,0.864163,0.260152,-0.430747
-0.266691,0.586571,-0.988320,0.089009,0.369297,0.925039
-0.482143,-0.075837,0.674739,-0.880934,0.472325,-0.029384
-0.421949,0.483983,0.743655,-0.460875,0.863637,0.204269
0.023230,0.321647,-0.979814,0.259200,0.113184,0.959169
-0.388988,0.908554,0.509504,-0.282476,0.945930,-0.159447
-0.000844,-0.267662,0.625786,0.520417,-0.853573,-0.024071
-0.329920,0.746218,0.376458,0.032544,0.757693,0.651799
-0.295717,0.867538,0.598234,0.432641,-0.686724,-0.584151
0.220794,0.016379,0.869682,0.962394,0.267787,0.045684
-0.302467,-0.082081,0.561830,0.697434,-0.049372,-0.714947
-0.925296,0.087844,0.410532,0.984111,0.171517,0.045911
0.614672,0.241631,0.394090,0.687820,0.017711,-0.725666
0.322271,-0.021372,0.517861,0.847614,-0.529752,-0.030227
0.273441,0.002546,0.586331,0.937143,-0.334775,-0.098433
-0.736515,-0.084673,0.282025,0.165789,0.226758,0.959737
-0.669008,0.344220,0.395330,0.896575,0.096974,-0.432145
0.161390,-0.090341,0.535617,0.353237,-0.838986,0.413916
0.104684,0.745642,0.295193,-0.247845,0.747484,-0.616312
-0.328458,0.476874,-0.094471,0.323243,-0.936566,-0.135495
-0.607921,0.206955,-0.968853,-0.135880,0.051189,0.989402
-0.346236,0.557275,0.811752,0.975835,-0.142302,-0.165823
0.094446,-0.069785,0.787846,-0.212930,0.975672,0.052192
0.552795,0.162097,0.568054,0.766456,-0.061295,-0.639365
-0.751814,0.612026,0.250604,0.769057,-0.606354,0.202202
0.464928,-0.735844,0.593101,0.954280,-0.296373,0.038905
-0.175336,0.135585,0.676921,-0.492943,0.549420,-0.674645
-0.519155,0.596945,0.639078,-0.361151,0.929237,-0.078022
-0.707599,0.368907,0.324307,-0.347132,0.728642,0.590407
-0.502503,0.139619,0.609617,0.971389,0.041986,0.233752
-0.052482,-0.085635,0.572791,0.108230,0.861058,-0.496855
-0.031896,0.342588,0.542437,0.356776,0.309964,0.881268
0.098160,0.368330,0.759575,0.417840,0.836246,-0.355110
-0.484842,0.691274,0.593225,0.943239,0.240770,0.228757
-0.774763,0.659479,0.548314,-0.237222,0.886447,-0.397413
0.091520,-0.166034,0.622909,0.082163,-0.490920,0.867322
0.277156,-0.117621,0.881586,0.991082,0.132761,-0.011429
-0.756765,0.224052,0.369763,-0.182184,0.843444,-0.505382
-0.148789,0.150377,0.703778,0.943925,0.007982,-0.330064
-0.566858,-0.062581,0.690040,-0.541328,0.565898,-0.621871
-0.449286,0.103694,0.834939,0.746626,-0.664730,0.026145
-0.010183,0.402334,0.710623,0.514952,0.494515,0.700200
-0.839008,0.204457,0.489690,0.917249,-0.303116,0.258409
-0.749679,0.159023,0.015685,-0.025821,-0.999633,-0.008198
-0.363897,0.351329,0.925281,0.730299,0.633208,-0.256343
-0.809756,0.554393,0.504991,0.210145,-0.018894,-0.977488
-0.622431,0.056722,0.352180,0.861493,-0.232189,-0.451573
0.462456,-0.082368,0.817729,0.970902,0.009956,-0.239269
-0.499351,0.025888,0.658818,0.719883,0.650106,0.243170
-0.560671,0.211469,0.574675,-0.658534,-0.752496,-0.009046
-0.102212,0.276597,0.469454,-0.275088,-0.553318,0.786235
-0.178941,0.014649,0.638904,0.292412,0.743153,0.601846
-0.150924,0.112820,0.644831,0.946786,-0.088970,-0.309322
-0.453563,-0.043849,0.695694,-0.648932,-0.227260,-0.726113
-0.636494,0.251334,0.777951,0.706316,0.381717,0.596163
0.230016,-0.065559,0.754268,0.941913,-0.315200,0.115970
-0.321598,-0.519427,0.376062,0.765242,0.454721,-0.455667
0.177705,-0.206377,0.867202,0.868390,0.018386,-0.495542
0.033022,0.150282,-0.310419,0.496800,0.465380,-0.732537
-0.479774,0.483215,0.551191,-0.062568,0.458132,-0.886680
0.014008,-0.142116,-0.037012,0.814342,0.575610,-0.074299
-0.130784,0.380817,0.771008,0.859944,-0.052326,0.507699
-0.598129,0.568801,0.769173,0.500043,-0.137650,0.854991
0.084997,-0.001104,0.867673,0.353998,-0.560533,0.748657
0.024356,0.708661,0.668688,0.930156,-0.351709,-0.105404
0.280871,-0.487248,0.403192,0.913545,-0.337521,-0.226971
-0.262194,0.438356,0.925033,-0.543628,-0.388225,-0.744144
0.116948,-0.183228,0.623083,0.087161,-0.497247,0.863220
0.553805,-0.205033,0.541941,0.132487,-0.893384,0.429317
-0.640436,0.748620,0.612568,-0.655457,0.695750,-0.293783
-0.159247,0.220691,0.652817,-0.271465,0.728317,-0.629175
0.308318,0.535661,0.494774,0.298364,-0.916176,-0.267583
-0.068908,0.293597,0.454600,-0.453702,-0.406535,0.793021
-0.746300,-0.171221,0.312552,0.900737,-0.404225,0.158984
-0.235640,0.171990,0.557539,0.479574,-0.487057,0.729921
-0.298196,0.288988,0.807164,0.238748,-0.761438,0.602670
0.310907,0.290140,0.599772,-0.625900,0.463060,0.627555
0.218432,-0.003410,0.839279,0.764561,-0.640413,-0.072924
0.356248,-0.106575,0.805304,0.244747,-0.927784,0.281632
-0.371320,0.127516,0.705737,0.609132,0.766342,0.204150
0.474150,-0.242015,0.397066,0.831665,-0.029461,-0.554496
-0.651457,0.784064,0.588340,0.766662,0.585301,0.263915
0.213591,0.183709,0.574576,0.638421,0.184737,-0.747189
-0.044043,0.315884,0.803593,0.345773,-0.435723,-0.831016
0.489456,0.622497,0.374847,0.126605,0.714045,0.688557
0.014008,0.250469,0.473992,-0.022435,-0.355850,0.934274
0.230016,-0.510879,0.401753,0.836733,-0.537269,-0.105923
-0.490239,0.299938,0.751565,0.090059,-0.624990,0.775420
-0.541541,0.492917,0.739786,0.755948,0.600172,0.261414
-0.474487,0.211277,0.604409,0.804452,0.518662,0.289564
-0.145747,0.418088,-0.037781,0.357858,-0.365451,0.859292
0.250046,-0.547284,0.518655,0.495332,0.720143,0.485840
-0.607921,0.780223,0.625017,0.867447,-0.490455,0.083602
-0.118184,0.419433,0.826755,-0.132208,-0.989690,-0.055096
0.186480,-0.138945,0.482473,-0.803213,-0.585412,-0.110186
-0.824156,-0.123289,0.216035,0.781727,0.581592,-0.225064
0.190642,0.167763,0.863011,0.896019,-0.443805,0.013684
-0.242507,0.287163,0.963372,-0.148105,-0.854000,-0.498748
0.067898,0.287450,0.649394,-0.652543,0.755911,-0.052783
0.525005,0.593583,0.375963,-0.390764,-0.690816,-0.608339
-0.247568,-0.864078,0.254349,0.746766,0.531831,0.399371
-0.544919,0.064694,0.709308,0.778427,-0.449606,-0.438070
-0.147889,0.561021,0.742613,-0.555763,0.803347,0.213921
0.187264,0.082561,0.843296,0.976427,-0.215808,-0.004132
-0.474376,0.134528,0.844784,0.886347,-0.450257,0.107971
0.341731,-0.180251,0.471016,0.323482,0.912725,0.249585
-0.268381,0.175640,0.748218,-0.209699,0.120138,0.970357
-0.161953,0.658422,0.681112,0.914693,-0.050486,-0.400984
-0.208530,0.824312,0.603120,0.196158,0.927418,-0.318462
-0.208530,0.403967,0.830946,0.975559,0.123303,0.181881
-0.448276,0.635561,0.843271,0.590835,-0.727595,0.348598
-0.188280,0.646128,0.638359,-0.275230,0.945718,0.172818
0.584973,0.426253,0.408151,-0.070330,-0.387275,-0.919278
-0.396858,-0.681379,0.306228,-0.200189,-0.901085,0.384669
-0.509143,-0.128284,0.441382,0.763834,-0.621744,0.173182
-0.105920,-0.378128,0.785589,0.961253,-0.140244,0.237327
-0.562807,0.412613,0.716475,0.372228,-0.419322,-0.828019
-0.217079,-0.515201,0.635780,0.679822,-0.730376,0.066281
-0.140240,0.895010,0.497898,0.936182,0.334946,-0.106653
-0.696571,0.664666,0.563640,-0.345107,0.933357,0.098723
-0.929011,-0.240478,-0.040658,-0.527021,0.525826,-0.667650
-0.706027,-0.166322,0.630820,0.841337,-0.322739,-0.433580
-0.715702,-0.140867,0.560044,0.800419,0.176655,0.572819
0.030997,0.103789,-0.972523,0.118224,0.274368,0.954330
-0.120773,0.173334,0.704497,0.817456,0.416088,-0.398292
-0.415652,0.330388,0.706506,-0.209470,-0.133016,0.968725
-0.060586,-0.181500,0.573336,-0.136244,0.830425,0.540214
-0.104347,0.445080,-0.715905,-0.149867,-0.335330,0.930104
0.209766,0.133183,0.866458,0.989343,-0.084391,-0.118656
-0.126733,0.348351,0.740059,0.933001,0.276156,0.230754
-0.226981,-0.566495,0.578321,-0.088690,-0.357593,0.929656
0.369185,-0.045098,0.752657,-0.586954,0.780980,-0.213434
-0.512178,0.163154,0.695917,0.888865,0.247948,-0.385280
-0.402708,0.129436,0.637317,-0.580152,0.178496,0.794709
-0.364797,0.739398,0.348237,-0.615080,-0.055486,-0.786510
-0.099060,0.600308,-0.673424,-0.070185,-0.814328,0.576146
-0.586772,0.875318,0.499609,-0.480451,0.854494,0.197503
0.090174,-0.198789,0.327506,0.694316,0.428357,-0.578304
-0.590033,-0.016377,0.416757,-0.069390,0.399390,0.914151
-0.751478,-0.205706,0.513026,0.997474,-0.041471,0.057663
-0.667772,0.326353,0.739712,-0.347091,0.937175,-0.035083
-0.070371,0.253735,0.659711,-0.380736,0.302979,-0.873638
-0.139223,0.330484,0.753128,0.090693,-0.958286,0.271041
-0.479218,0.387542,-0.407854,0.839247,0.486624,0.242615
0.232152,-0.142981,0.439199,0.955122,-0.296194,-0.003237
-0.157228,0.525095,0.657950,0.084265,0.981125,-0.174048
-0.534117,0.022237,0.658892,0.891703,0.197077,0.407462
-0.428026,0.700879,0.673400,0.435456,0.849954,0.296573
0.146427,0.449690,-0.613783,-0.620314,0.690341,-0.372345
-0.076784,-0.253157,0.793599,-0.628751,0.767902,-0.122469
0.217869,-0.134526,0.686617,0.842473,0.158539,0.514883
0.481806,-0.184957,0.480192,-0.606259,-0.793010,-0.059884
-0.505538,0.612699,0.604161,-0.365779,0.632879,0.682400
0.054508,0.000625,0.714094,0.926143,0.271162,-0.262167
-0.008604,0.087844,0.648799,0.949217,0.244131,-0.198462
-0.196376,0.552471,0.173703,0.770463,-0.623914,0.130835
0.489003,-0.013976,-0.258615,-0.790896,0.593700,0.148341
-0.545701,0.039048,0.752756,0.782763,0.354617,-0.511399
-0.140350,0.671967,0.736463,-0.407972,0.909787,0.076463
-0.395395,-0.102348,0.424047,0.861807,-0.497250,-0.100157
0.224845,0.662936,0.586281,0.966104,-0.027407,0.256694
-0.383701,0.318957,0.727883,-0.610014,-0.161599,0.775738
-0.150698,0.499161,0.753475,0.955859,0.011295,-0.293609
0.209766,0.832285,0.568228,-0.717193,0.430965,-0.547635
0.300449,0.005812,0.740728,0.386879,0.885155,0.258506
0.048431,0.591279,0.655594,0.923118,-0.314825,-0.220767
-0.331836,0.539888,0.557515,0.196248,-0.269348,0.942835
-0.210775,0.084097,0.631018,0.618803,0.088657,-0.780527
-0.381332,-0.019451,0.634267,0.285252,0.881079,-0.377268
-0.066100,0.065270,-0.964835,-0.073254,-0.156026,-0.985033
-0.256007,0.190721,0.829781,-0.399436,0.893382,-0.205716
-0.190752,0.239135,-0.710573,-0.464925,-0.544006,0.698500
-0.550433,-0.157294,0.695619,0.336695,0.857930,0.388062
-0.433087,-0.018587,0.676995,-0.716952,-0.577338,-0.390719
-0.089611,0.317997,0.742613,-0.560992,0.808298,-0.178723
-0.115376,0.501273,0.506652,-0.544320,-0.630792,0.553008
-0.178941,0.186111,0.590844,-0.610864,0.741978,0.276250
0.227881,-0.043849,0.570137,0.984524,-0.151565,-0.087982
-0.093436,0.087268,-0.972027,-0.023594,0.011254,0.999658
0.394049,-0.018683,-0.004352,-0.038489,0.941950,0.333539
-0.409239,0.643533,0.845479,-0.651346,0.647689,-0.395282
0.162179,-0.101484,0.659636,-0.640558,-0.666445,0.381492
0.097151,0.697422,0.631465,0.297388,0.757382,0.581320
-0.787254,0.348543,0.604632,0.926855,0.164952,0.337240
-0.383475,0.915471,0.516646,0.395930,-0.915044,0.077034
0.665637,-0.232121,0.549430,0.689710,0.406615,-0.599136
-0.675422,-0.343163,0.507867,0.248120,0.692126,0.677789
-0.145637,0.122329,-0.968456,0.060888,-0.051618,0.996809
0.198181,-0.039142,0.788664,-0.769440,-0.599382,0.220687
0.399900,0.458624,0.555580,0.982491,0.040801,-0.181786
0.012992,0.557851,-0.123759,-0.394552,0.414474,0.820085
-0.661358,0.546227,0.815075,-0.664042,0.644881,-0.378387
0.167350,0.563614,0.658396,0.768029,-0.597003,-0.231773
-0.374699,0.621632,0.542139,0.075911,0.916318,0.393191
-0.575071,0.084097,0.712408,0.858191,-0.244660,-0.451276
-0.132700,0.552568,0.720616,0.728732,-0.529643,0.434083
0.009057,-0.487248,0.732545,-0.569361,0.796327,0.204186
0.186254,0.431920,0.504966,-0.559576,0.302924,0.771435
