0.654955,0.306077,0.644164,0.952895,-0.091446,-0.289187
-0.611068,0.859643,0.394177,0.369291,-0.503073,0.781372
-0.067949,-0.103940,0.821067,0.924433,-0.381162,-0.011805
0.077648,-0.609867,0.596085,0.609761,-0.757763,0.232350
-0.040347,-0.534265,0.530658,0.750467,0.655374,0.085349
0.568918,-0.589664,0.597773,-0.499904,-0.863293,0.069436
0.813863,0.142752,0.568926,-0.205889,0.790139,0.577312
-0.533728,0.411664,0.372278,0.726077,-0.051689,0.685668
0.672737,-0.414004,-0.945241,0.027262,0.121679,0.992195
-0.397944,0.603169,0.552532,0.920937,0.074179,-0.382586
-0.515074,-0.318199,0.524150,0.473339,0.055831,-0.879109
0.677093,-0.546599,0.635845,-0.718168,-0.631947,0.291337
-0.547403,0.626456,0.367238,0.873053,-0.307648,0.378327
0.103511,-0.638258,-0.931759,-0.064955,-0.061917,0.995965
0.042465,-0.077249,0.823269,-0.034734,0.998023,0.052374
0.356789,0.316923,-0.090555,-0.179429,-0.048794,0.982560
-0.521911,0.636557,0.433619,0.540051,-0.412276,-0.733739
-0.246375,-0.311180,0.808050,0.411974,0.730253,0.544984
-0.723219,-0.148386,0.547101,0.802555,-0.518727,0.294664
0.346225,-0.491413,-0.411011,0.857827,0.308339,0.411169
-0.844697,0.200915,0.299853,0.920306,0.241099,0.308072
-0.399811,0.344037,0.488353,-0.661434,-0.041968,0.748828
0.648991,-0.143601,0.469342,-0.669979,0.561197,-0.485990
-0.554985,-0.089266,0.700979,0.169694,0.342650,0.924010
0.183834,0.260780,0.759946,0.616403,0.664291,-0.422806
0.516068,0.630390,0.421605,0.405304,-0.787549,-0.464214
-0.298846,0.236749,0.645510,0.210637,-0.299631,0.930513
-0.454399,-0.152001,0.703279,-0.147796,0.922371,0.356916
-0.052907,-0.198575,0.784365,-0.448608,0.506312,0.736478
0.518929,-0.715880,0.142892,-0.357553,0.857908,-0.368985
-0.029533,-0.601148,0.540005,0.592926,0.416190,0.689365
0.305069,0.009199,0.731245,-0.014660,-0.996226,0.085549
0.325332,0.815621,0.317152,0.068699,0.997636,-0.001886
0.366867,-0.424211,-0.694446,0.237268,-0.927878,-0.287655
0.474169,-0.382104,0.610448,0.735476,0.589453,0.334095
0.202860,0.080121,0.737852,-0.101632,-0.994691,0.016128
-0.288904,0.603275,0.118424,-0.399419,0.284820,-0.871402
-0.410633,0.668244,0.367898,-0.546760,0.784782,0.291840
0.133230,-0.815832,0.183166,-0.607203,-0.050299,0.792953
-0.729063,0.023340,0.701957,0.447003,0.825819,-0.343819
-0.614422,-0.496198,0.585882,0.424931,0.774483,0.468625
-0.472180,0.702057,-0.349107,0.721723,0.623827,0.299927
-0.039353,-0.171460,0.881918,-0.319060,-0.651690,0.688114
-0.798814,-0.222712,0.523832,-0.008178,-0.981163,0.193010
-0.685297,-0.129990,0.591779,0.097890,0.895985,0.433161
0.073549,0.471104,0.266063,-0.715004,0.348448,0.606097
-0.378797,0.955978,0.271935,-0.747446,0.639336,0.180479
-0.726201,-0.284279,0.621311,-0.478049,-0.801288,0.359731
0.698479,-0.382954,0.573183,0.884361,-0.172816,-0.433636
-0.016722,0.188048,0.817421,0.602284,0.362304,-0.711329
-0.639162,-0.538943,0.589136,0.527688,0.835642,0.152472
0.092697,0.425913,-0.102838,0.914869,-0.324838,-0.239783
-0.801675,0.160296,0.519892,0.178646,-0.982297,-0.056368
-0.735278,0.015471,0.734598,-0.070333,-0.994305,0.080064
-0.536338,-0.038652,0.592317,0.915108,0.340778,-0.215518
0.164315,-0.081184,0.815610,-0.164687,-0.980140,-0.110470
-0.381036,0.084163,0.683435,-0.803857,-0.509584,0.306818
-0.519923,-0.396990,0.692806,-0.593271,-0.604678,-0.531407
-0.164565,0.149131,0.856398,-0.192545,0.661836,-0.724499
0.810258,0.003137,0.187448,-0.838556,0.338130,-0.427191
0.299347,-0.359986,0.523342,-0.145819,0.725751,0.672326
0.145418,0.229200,0.835919,-0.705683,0.289002,-0.646907
-0.449921,-0.006539,0.742647,0.038549,0.612461,0.789561
-0.337520,-0.201445,0.371006,0.069862,0.532247,0.843702
0.743611,-0.449731,0.617054,0.983991,-0.140474,-0.109677
0.338014,0.286513,0.212185,0.747214,0.294581,0.595729
0.397823,-0.643467,0.168216,0.398743,-0.233593,0.886814
0.532483,-0.116274,-0.092121,0.747456,0.069634,-0.660652
-0.397079,-0.360731,0.608833,-0.692926,0.462984,0.552720
-0.449800,-0.287681,0.208711,-0.567076,0.442553,-0.694674
0.013619,0.170079,-0.962075,-0.046126,0.102786,0.993633
0.576621,0.063003,0.615023,0.745664,-0.661094,-0.083309
0.072176,-0.023871,0.968510,-0.723254,0.429756,0.540568
-0.739634,-0.077037,0.598801,0.185392,0.982620,0.009408
0.628720,0.351694,0.699755,0.325592,-0.918176,0.225703
-0.538577,0.099155,0.736677,-0.420362,0.754634,-0.503809
0.152006,-0.141792,0.783558,0.158394,0.827041,0.539364
0.478024,-0.467595,-0.940959,0.107263,0.284035,0.952795
0.128631,-0.038225,0.897284,0.418981,-0.796366,0.436183
0.267268,0.663353,0.283362,-0.380204,0.663123,-0.644758
-0.731180,-0.011005,0.513335,0.036411,0.006282,0.999317
0.763130,-0.246530,0.491192,0.978278,0.157764,-0.134474
0.163442,-0.913339,0.444311,0.696137,-0.707429,-0.122219
0.002174,-0.428783,-0.728554,0.614587,-0.788165,0.032841
-0.356166,0.547239,0.511035,0.854666,0.504111,-0.124166
0.067706,-0.167525,0.685931,0.850060,-0.436332,0.294978
-0.884737,-0.152533,0.589552,0.590754,-0.776197,0.220292
-0.845319,0.020256,-0.966528,0.093169,0.216477,0.971832
-0.720487,0.223033,-0.968339,-0.074225,0.125892,0.989263
-0.477030,0.562975,0.527893,-0.138811,0.524761,0.839856
-0.015227,0.249084,0.808368,-0.214754,0.772466,0.597642
0.137829,-0.078207,0.775826,0.979608,-0.195156,0.047773
0.075166,-0.151576,0.870345,0.771718,0.487289,0.408658
-0.098540,-0.233770,0.857695,-0.844968,0.003010,-0.534808
-0.156725,0.180818,0.603083,-0.584660,-0.597610,-0.548666
-0.676341,0.227178,0.431074,0.221317,-0.631704,0.742946
-0.479140,0.017491,0.544629,-0.095203,0.708566,0.699193
-0.053157,-0.524269,-0.919452,0.450968,-0.005563,-0.892523
0.478897,-0.604125,0.734157,-0.793386,0.370901,-0.482671
-0.401306,0.336914,0.598801,-0.625925,0.272117,0.730869
-0.375321,0.474507,0.539442,0.919113,0.222104,0.325426
-0.303574,-0.077144,0.752214,0.791296,-0.421124,0.443290
-0.535344,-0.647084,0.167556,0.919853,0.263058,0.290983
0.332170,0.184008,0.791975,0.180440,-0.982553,0.045062
-0.084113,-0.138285,0.889772,-0.225690,-0.969661,0.093918
-0.170530,0.253868,0.246367,0.462394,0.311523,0.830148
-0.533599,0.094583,0.715635,0.118591,-0.845105,0.521281
-0.474662,0.671222,0.556178,0.234903,0.843229,-0.483513
0.215291,-0.023126,0.883949,-0.052408,0.962937,0.264585
-0.706182,-0.188579,-0.955860,-0.045897,-0.115730,-0.992220
0.359027,0.276517,0.708662,-0.692785,-0.315569,-0.648433
-0.186816,-0.298313,0.454368,0.883785,-0.465985,0.042204
-0.761514,-0.056941,-0.954808,0.105553,0.206004,0.972842
-0.429408,0.715136,0.586176,0.277132,0.927995,-0.249044
0.761142,-0.105747,0.425275,0.952477,-0.293929,-0.079960
0.506248,0.088735,-0.644996,0.502892,0.446599,-0.740033
0.223752,-0.345525,0.352214,-0.523342,0.807013,-0.273576
-0.661300,-0.320538,0.228065,-0.577394,0.240008,0.780393
-0.590919,-0.402095,0.650232,-0.167354,-0.938772,0.301165
-0.557102,-0.095963,0.664571,0.924680,0.183849,0.333415
0.364256,-0.385187,0.800954,0.888163,0.394680,0.235360
-0.105006,0.448244,0.411231,0.008244,-0.999539,0.029230
-0.252097,-0.694720,-0.924345,0.010923,-0.056356,0.998351
0.424430,0.528843,0.200098,-0.723220,0.441496,-0.531068
0.033760,-0.227178,0.789821,-0.075802,0.444073,0.892779
-0.128259,0.380829,0.566675,-0.127118,-0.857463,0.498596
-0.260180,0.044926,0.816981,0.994426,-0.015094,-0.104350
-0.382280,-0.532883,0.472474,0.942210,-0.324792,0.082163
-0.224496,0.573290,-0.978224,-0.137645,0.236604,0.961807
-0.096795,0.568930,0.556496,0.381950,-0.890606,0.246850
0.102267,-0.135308,0.729875,0.411698,-0.506908,0.757330
0.554370,0.235685,0.589112,0.934593,0.198863,0.294941
-0.671864,0.839014,0.393222,0.709786,0.089253,0.698740
-0.626231,0.032910,0.711329,-0.150738,0.920675,-0.360048
0.912339,0.098305,0.577710,0.860124,-0.406970,0.307512
0.269507,-0.232920,0.700514,0.917238,0.374211,0.136527
0.536589,0.031847,0.410252,0.526784,-0.111890,0.842603
0.553126,0.196768,0.597186,0.817133,-0.086147,0.569976
0.306185,0.637620,0.461243,0.938497,0.342367,0.044818
0.020578,-0.611462,0.533888,0.533482,0.607062,0.588959
0.239788,-0.406772,0.650575,0.665118,0.209902,-0.716630
-0.906495,0.328513,0.475508,0.215922,-0.789429,0.574612
-0.500898,-0.608272,-0.645412,0.026200,-0.907899,-0.418369
-0.596269,-0.044712,0.380083,-0.394522,0.638687,-0.660629
-0.538820,-0.436440,0.561732,0.111285,0.805138,0.582553
-0.474290,0.195810,-0.966993,-0.025173,0.126525,0.991644
-0.874538,0.359138,0.301321,0.972968,0.182746,-0.141201
-0.864217,-0.008877,0.407096,-0.898614,0.438714,-0.004832
0.288282,0.649211,0.247101,-0.692531,0.517427,-0.502663
0.510475,0.365410,0.726474,0.725584,0.172903,0.666057
-0.542053,-0.432718,0.700954,0.579517,0.743530,0.333652
0.059995,-0.094583,0.897700,-0.100348,0.982548,0.156621
-0.448927,-0.172735,0.711965,-0.275046,0.944070,0.181886
-0.138330,-0.819447,0.356129,-0.275589,0.685251,0.674153
0.783651,0.352438,0.525226,0.919956,-0.154769,-0.360177
-0.118059,-0.743632,0.551749,-0.523355,0.674564,0.520637
0.190672,-0.353501,0.747541,0.841305,-0.324383,-0.432413
0.592414,0.205062,0.693173,-0.696201,0.233799,0.678706
-0.171403,-0.238130,0.806166,0.090066,0.695573,0.712788
-0.149888,0.122229,0.751187,0.226175,-0.763612,0.604765
-0.903634,-0.096283,0.362491,0.909236,-0.169313,0.380292
-0.584833,0.007284,0.626156,0.927724,0.367260,0.066691
-0.692385,-0.127013,0.339002,-0.667553,0.093494,0.738669
0.582343,0.566378,0.359555,-0.588273,0.252744,0.768151
0.081875,-0.750439,0.556276,0.147361,0.894164,0.422794
0.155610,0.486416,0.479741,0.550179,0.094286,-0.829707
0.612935,-0.099261,0.714436,-0.689641,-0.702857,0.174319
0.333665,-0.440055,0.754049,0.542658,0.782013,-0.306558
-0.252469,-0.093943,0.673942,-0.141155,0.870929,0.470700
0.687164,0.195067,0.487521,0.891048,-0.435580,0.127686
-0.293503,-0.076505,0.764473,-0.817729,-0.052798,-0.573178
-0.291014,0.658781,0.132298,0.221842,-0.577018,0.786026
-0.089092,0.340635,0.638219,0.348233,0.611946,0.710109
-0.455644,0.577649,0.555175,0.480449,0.345007,-0.806312
-0.531739,0.017386,0.620382,0.793723,0.606468,0.046908
0.082876,0.656653,0.265867,0.673314,0.136515,-0.726645
0.014985,-0.436014,-0.855885,0.995401,0.073758,-0.061126
-0.249236,0.056728,0.637925,0.820443,-0.204170,-0.534030
0.053530,-0.842097,0.536261,0.195575,-0.933236,-0.301365
0.525395,-0.341485,0.584071,0.416593,0.697560,0.582975
-0.352190,0.101600,0.722413,0.200974,0.965111,0.167842
0.018217,-0.062151,0.935870,0.857270,-0.508653,-0.079756
0.419459,0.076294,0.698263,0.204921,-0.079790,0.975521
0.242528,-0.187197,0.625447,0.795656,-0.004877,0.605730
-0.294247,-0.196873,0.494960,-0.147477,-0.877517,0.456305
0.108983,-0.036950,0.914876,-0.199211,0.687484,0.698341
0.590054,0.693125,-0.069758,0.966172,-0.015659,-0.257423
-0.202981,-0.059918,0.811329,0.685753,0.425532,0.590479
0.336275,0.673029,0.463910,-0.357326,0.772833,0.524450
0.510353,-0.415492,-0.947076,-0.157469,-0.254070,-0.954281
0.526761,-0.134670,-0.147443,-0.495344,0.744661,0.447342
0.080016,0.092563,0.873795,0.055341,-0.686447,0.725071
0.218030,-0.705778,0.484708,0.908782,-0.415154,-0.041971
0.099163,0.302142,0.796868,0.164252,0.986034,0.027542
-0.224739,-0.338614,-0.413164,0.202875,-0.968768,0.142583
-0.321727,-0.388909,0.646146,-0.030246,-0.996121,0.082636
0.275844,-0.324578,0.595743,-0.082517,0.873561,-0.479668
-0.326576,-0.355839,0.648936,-0.276242,0.961088,-0.000893
-0.019705,-0.260035,0.723563,-0.407952,0.649939,-0.641213
0.371337,0.671647,0.432053,0.175564,0.903932,0.389979
-0.672987,0.658675,-0.988500,-0.136996,0.116736,0.983669
0.578238,0.152001,0.393125,-0.633931,-0.555914,0.537671
-0.560335,-0.099473,0.666846,0.932725,0.032404,0.359129
0.587443,0.134882,0.697920,-0.654566,-0.581298,0.483358
-0.869939,0.168590,0.332885,0.928496,0.265402,0.259725
0.610317,-0.438780,-0.945217,0.009284,0.243979,0.969736
0.208210,-0.688341,-0.929924,0.053895,0.048190,0.997383
-0.054152,-0.108725,0.917837,-0.501322,0.536001,-0.679249
-0.171774,-0.295763,0.789846,0.958113,-0.206883,0.198039
-0.064966,-0.375830,0.729582,-0.255242,-0.935415,-0.244643
-0.901023,-0.181242,0.604233,-0.703741,0.675418,0.220361
0.406277,0.172524,0.852532,0.378543,0.723015,0.577888
0.575384,-0.347227,0.571593,0.210004,0.394208,-0.894706
-0.372209,-0.149344,0.653878,-0.233766,-0.648040,0.724844
0.497422,0.009517,0.567433,-0.518738,-0.623290,-0.585168
-0.242649,-0.069275,0.732542,0.820233,0.422764,0.385343
-0.177497,0.748844,-0.987472,0.169832,-0.148285,-0.974253
-0.509602,0.573927,0.427013,0.923341,-0.007741,0.383902
-0.259929,0.103302,-0.956692,0.013793,0.201388,0.979414
-0.445566,-0.279067,-0.944947,-0.039091,0.139836,0.989403
0.672616,-0.283215,0.585124,0.601414,0.404030,-0.689246
-0.857880,0.242597,0.623685,0.935431,-0.333337,0.117709
-0.401799,-0.090966,-0.501174,0.436491,0.886924,-0.151136
0.648490,0.351161,0.200025,-0.536711,0.763295,0.359613
0.548899,0.133607,0.601590,0.976042,-0.100754,-0.192848
0.059995,0.324153,0.481502,0.479355,-0.341901,0.808284
0.495676,0.608699,0.434524,0.684364,-0.645505,-0.339071
-0.155610,-0.035887,0.749425,-0.756290,-0.157781,0.634926
0.407651,-0.421659,0.553903,0.388273,0.903513,-0.181406
-0.256325,-0.027805,0.819427,0.904510,0.416109,0.093356
0.003047,0.350099,0.768167,0.805876,-0.590232,0.046801
0.253843,-0.345632,-0.929679,-0.287616,-0.217459,-0.932732
0.742617,0.178904,0.380573,-0.584824,-0.119788,-0.802267
0.366989,-0.712797,0.168021,-0.441467,0.608225,-0.659674
-0.515203,0.370195,0.374260,-0.783683,-0.219342,-0.581146
-0.125269,0.499815,0.379741,0.379834,0.361486,0.851501
0.033388,0.792758,0.199486,-0.660468,0.737496,0.140999
-0.296858,0.341699,0.676780,0.501868,0.834534,-0.227336
0.190300,-0.371152,0.711500,-0.599067,0.036048,-0.799887
-0.238050,0.250253,-0.964032,0.030066,0.177569,0.983649
0.799065,0.238557,0.179936,0.699854,0.428236,0.571681
0.369721,-0.519591,-0.642721,-0.724495,0.416463,-0.549241
0.367611,-0.427508,0.662784,0.847017,0.409414,-0.339033
-0.110098,0.168484,0.655591,-0.284636,0.565229,0.774273
0.477402,-0.433568,0.547932,0.499257,0.862907,0.078319
-0.275722,-0.259183,0.729019,0.445746,0.787602,0.425434
0.636802,0.201978,0.650551,0.066387,-0.991485,-0.112027
0.000064,-0.009729,0.935405,0.830525,0.555026,-0.046631
0.606963,-0.181774,0.352899,0.966631,0.254145,-0.032182
-0.351074,0.954065,0.225740,-0.445894,0.823134,0.351609
-0.295492,-0.451219,-0.239931,0.036437,0.028457,0.998931
-0.638540,-0.120101,0.608001,0.266172,0.825574,-0.497573
-0.156976,-0.468340,-0.518057,-0.829787,0.227249,0.509718
-0.557845,0.105642,0.738243,-0.472479,0.867403,-0.156129
0.600997,-0.185814,0.485637,0.818709,0.561346,0.120855
-0.132608,0.352863,-0.968290,-0.006407,0.204293,0.978889
-0.176874,-0.369450,0.426205,0.698016,-0.508107,0.504580
0.612184,-0.048539,0.585442,0.972557,-0.225557,0.057066
-0.430273,0.676857,0.350869,0.006429,0.766391,0.642343
-0.440344,0.741187,0.575801,0.028243,-0.971742,0.234351
0.788000,-0.436120,0.433986,0.979566,0.177755,0.094088
0.602235,0.026105,0.403230,-0.442225,0.767689,-0.463779
0.561580,0.702483,-0.989601,0.162797,0.391428,0.905694
-0.694123,0.784784,-0.986078,-0.080763,0.182751,0.979836
-0.836744,-0.154766,0.619207,0.812983,-0.551709,0.186214
0.464592,-0.436333,-0.939736,0.155886,0.239295,0.958351
-0.456266,-0.479504,0.513947,0.864179,-0.152412,0.479546
-0.403788,0.689936,-0.983729,0.021748,0.145289,0.989150
-0.463104,-0.109255,0.615439,0.123231,-0.296414,0.947076
0.271996,-0.262693,0.786029,0.483734,0.320248,-0.814520
0.257820,-0.896751,0.255689,0.263272,0.565989,0.781245
0.437240,0.199852,0.704698,0.917136,-0.075920,0.391276
0.153371,0.569887,0.244703,0.152477,-0.527262,0.835910
0.627104,-0.453878,0.581723,0.693125,-0.707444,0.138206
0.413987,-0.730661,0.156839,0.165656,-0.696123,0.698549
0.448427,-0.162953,0.390555,-0.131440,-0.101798,-0.986084
0.477030,0.171035,0.688060,0.354566,0.684176,-0.637328
0.180358,0.033974,0.900024,0.137912,-0.032461,0.989912
0.197517,0.130630,0.924321,-0.017701,-0.648929,0.760643
-0.825300,0.144559,0.598948,-0.263860,-0.964348,-0.020276
-0.452411,-0.279174,0.688378,0.306032,-0.717943,0.625222
-0.186816,-0.026104,0.807683,0.407810,-0.151502,0.900410
0.437362,0.247806,0.702765,-0.673971,-0.704207,0.223283
0.208081,0.220268,0.622094,0.010499,0.968828,0.247514
0.188440,-0.332553,0.746073,-0.608741,0.562396,0.559594
0.202366,0.643256,-0.115904,0.884940,-0.452721,-0.109199
-0.186695,0.186986,0.567776,0.276612,0.953363,0.120769
-0.715137,-0.163910,0.677441,0.878620,0.432400,-0.202627
-0.228844,-0.004732,0.820308,-0.514525,0.319287,-0.795814
-0.014362,-0.250996,-0.311377,0.220357,0.945730,-0.238825
0.484118,0.424638,0.350648,0.460522,0.229349,-0.857507
-0.033881,0.547557,0.634793,0.957864,0.046014,0.283513
0.179486,0.651124,0.282799,-0.165670,-0.574679,0.801435
-0.280200,0.587006,0.328285,0.947712,0.063353,0.312776
0.166925,0.069275,0.749621,-0.923504,0.310518,0.225207
0.093319,-0.524801,0.607585,0.999174,-0.022270,0.033987
0.604101,0.176459,0.706288,0.615197,0.435365,-0.657259
0.167176,-0.499600,0.159114,0.421072,0.054134,0.905410
-0.411627,0.133075,0.356863,0.213130,-0.357148,0.909407
-0.399189,-0.184751,0.538194,0.947758,-0.059182,-0.313453
0.073671,-0.150619,0.699486,0.991861,-0.019164,0.125877
-0.490827,0.695465,0.564620,0.050003,-0.373638,0.926226
-0.436990,0.906959,0.317103,-0.770241,-0.381980,-0.510705
-0.095178,-0.499282,-0.182212,0.988344,-0.005549,0.152133
-0.320612,-0.150939,-0.240788,0.857728,0.421898,0.293778
-0.000687,0.623798,0.218889,0.884408,0.146894,-0.442996
-0.241154,0.095752,0.839026,0.761582,0.216664,0.610778
-0.242277,0.304694,0.666528,0.762003,0.474992,-0.440151
0.107245,-0.242277,0.716124,-0.259424,0.322892,0.910187
-0.024926,0.033867,0.870149,0.717988,0.695636,-0.024169
0.549020,0.450156,0.364057,-0.670577,-0.090411,0.736310
0.250982,0.539264,0.226376,0.854552,-0.410500,0.318169
0.245510,-0.329256,0.575116,-0.011564,-0.907857,0.419119
-0.719242,0.604870,0.208393,-0.891933,0.153274,-0.425398
-0.611812,0.454729,-0.073697,0.853366,0.509822,0.108846
-0.052285,0.050136,0.852532,-0.477489,0.848827,0.226930
0.122909,0.367324,0.734524,0.819525,-0.565686,0.091526
-0.417220,0.078101,0.386127,-0.799644,0.314870,-0.511299
-0.780038,-0.450582,0.300734,-0.491466,-0.720687,0.488949
-0.642396,0.438460,-0.082212,0.925064,0.343204,-0.162688
-0.013368,-0.722686,0.408515,-0.372258,-0.535165,-0.758303
0.200499,0.025998,0.638708,0.993541,0.019461,-0.111788
0.131492,0.318306,0.831074,-0.645441,-0.756382,0.106263
-0.272611,0.020151,0.814142,0.972186,0.149194,0.180542
0.207709,-0.206230,0.801811,-0.725115,0.435894,0.533109
0.321978,-0.497261,0.688769,-0.578662,0.127684,0.805511
-0.549141,0.522038,-0.975190,-0.084329,0.147740,0.985424
-0.720980,0.441012,-0.984463,0.119028,-0.201188,-0.972294
0.615295,0.192833,0.516614,-0.239215,0.307229,0.921079
-0.358906,0.946941,-0.993516,0.071441,0.105922,0.991805
0.686541,-0.592003,0.530585,0.546218,-0.515567,0.660179
-0.384398,0.972885,0.297260,-0.514015,-0.752308,-0.412094
0.083620,-0.461641,0.365672,0.691930,-0.716674,0.087241
-0.765247,0.042480,-0.960044,0.101637,0.130217,0.986262
-0.051040,0.096285,0.901174,-0.288255,0.716331,0.635436
-0.038359,-0.782549,0.411647,0.090939,0.070466,0.993360
-0.295613,-0.447604,-0.452190,0.919277,0.022195,0.392986
0.542804,-0.563613,0.417201,-0.052648,0.767864,0.638446
-0.020828,0.414004,0.529704,-0.742123,0.670253,-0.003809
-0.402672,-0.495241,-0.568485,-0.470406,0.268400,0.840642
-0.483496,0.495560,-0.235503,0.523617,0.106123,-0.845318
-0.889708,-0.361050,-0.948177,-0.099714,0.108609,0.989071
0.421448,0.410921,-0.973770,0.040504,-0.190484,-0.980854
0.498044,-0.438247,0.328554,0.171129,0.982927,0.067594
0.426426,-0.815407,0.558649,0.811859,-0.053217,-0.581423
0.375071,-0.822318,-0.923489,0.041211,0.137293,0.989673
0.113582,-0.090116,0.837534,0.375046,-0.896593,-0.235503
0.239045,-0.127758,0.773134,-0.447773,0.800361,0.398649
-0.060990,0.616248,-0.983924,0.082489,-0.133357,-0.987629
0.758782,0.128183,-0.954612,-0.115117,0.294869,0.948578
-0.176996,-0.806688,-0.931539,-0.145284,0.164453,0.975627
-0.521047,-0.686639,-0.548348,0.573955,0.119536,-0.810116
0.009263,-0.440055,-0.906337,-0.902193,0.418937,0.102660
0.692013,0.093308,-0.957891,0.134331,-0.182061,-0.974068
0.318373,-0.266095,0.817568,0.972841,-0.013294,-0.231094
0.668760,0.307459,0.687962,0.966612,0.145529,0.210907
-0.270622,0.236430,0.533986,0.530391,0.835736,-0.142232
-0.450916,-0.196341,0.740861,0.448062,0.597648,-0.664874
-0.688780,0.017491,-0.969709,0.008916,0.134589,0.990861
0.101773,0.342974,0.639344,0.238410,-0.571312,0.785342
0.117065,0.234942,0.726841,-0.635520,0.678607,0.368249
-0.625366,-0.548726,0.432444,-0.426352,-0.902366,-0.062924
0.532483,-0.437822,0.147321,0.533965,-0.162266,-0.829790
0.067577,0.094795,0.869635,0.310014,-0.113830,0.943893
-0.190800,-0.300440,0.813286,-0.284498,0.790196,0.542818
0.336647,-0.686214,0.509053,0.963876,0.230679,-0.133155
0.423937,0.010899,0.676878,0.090177,-0.567621,0.818337
-0.253964,-0.017917,0.632616,0.823483,0.406714,-0.395551
-0.107867,-0.768620,0.611696,-0.694870,-0.642846,-0.322343
-0.447933,-0.299378,0.437362,0.326084,0.532955,-0.780787
-0.099656,0.224521,-0.385270,-0.681331,-0.174715,-0.710818
0.025056,0.515126,0.232469,0.924101,0.164552,-0.344906
0.415855,0.641236,0.392562,0.402470,-0.817960,0.411047
-0.158471,0.591366,0.182824,0.958323,-0.170490,-0.229240
0.114576,-0.951406,0.355787,0.899701,0.436460,-0.006328
-0.371587,0.714498,0.419525,-0.639216,0.766891,-0.057285
0.355795,-0.471529,0.695400,0.701993,0.667286,-0.248868
0.426047,-0.283747,0.554001,0.147472,-0.569192,-0.808871
-0.347090,0.447286,0.703279,0.132360,-0.989738,0.053843
-0.756042,0.065767,0.556814,-0.361023,-0.914764,0.181301
-0.206715,-0.161678,0.712625,-0.271810,0.346231,0.897911
-0.299840,0.629645,0.433301,0.122182,-0.083459,0.988993
0.228351,-0.459513,-0.141669,0.136681,0.469173,0.872465
-0.132858,-0.677387,0.557304,-0.412590,0.864616,0.286720
-0.595275,-0.000372,0.657769,-0.129433,0.988886,-0.073154
-0.570284,-0.446329,-0.362686,0.903219,0.217648,0.369900
0.216535,0.061620,0.921042,0.999888,-0.000733,0.014938
-0.695367,0.661332,0.455322,-0.547378,0.294249,-0.783451
-0.610939,0.658461,-0.990825,-0.301466,0.000751,0.953477
0.118059,-0.196873,0.669122,0.197711,-0.892504,-0.405397
-0.709665,-0.038758,0.640274,-0.283139,0.886788,-0.365293
-0.382531,-0.721621,-0.563959,-0.126374,-0.426718,0.895512
-0.834748,0.205806,0.599095,0.379361,-0.878975,0.288943
0.239416,0.345846,0.643797,-0.107036,-0.771068,0.627692
0.234688,0.049604,0.917494,0.209207,0.560015,-0.801633
0.029161,-0.221223,0.619085,0.129384,-0.579946,0.804315
0.693751,-0.514912,-0.224810,0.964024,-0.226181,-0.139646
0.483496,-0.611355,0.566185,0.770150,-0.079820,-0.632849
0.165309,0.178479,0.612968,-0.590788,0.770017,0.240922
0.745478,0.349461,0.527869,0.887386,-0.212739,-0.409008
0.176503,0.141687,0.560509,0.357858,0.501972,-0.787377
-0.538205,-0.160296,0.615513,0.262426,0.774402,0.575703
0.605847,0.193046,0.506435,-0.267737,0.431025,0.861704
0.024312,-0.098516,0.783974,0.428449,-0.900171,0.078260
0.547532,-0.782444,0.576413,-0.673342,-0.247693,0.696605
0.518557,0.162635,0.719501,0.321252,0.772148,0.548255
-0.714021,-0.361581,0.206313,-0.120128,-0.962028,0.245094
-0.790359,0.032272,0.579545,0.976812,-0.148040,-0.154668
-0.391979,-0.474825,-0.935772,-0.042873,0.178253,0.983050
-0.412120,0.893562,0.297039,0.978078,-0.152469,0.141830
-0.225118,-0.353394,0.819403,0.558100,0.713529,0.423557
-0.146534,0.279706,0.647150,0.646873,0.376299,0.663291
-0.328314,0.108619,0.818742,0.877637,-0.411492,0.245820
-0.476036,0.000267,0.721679,-0.486353,0.619920,0.615759
-0.075409,0.260143,0.820235,-0.416439,0.777713,-0.470894
0.242399,-0.439735,0.760117,0.170240,0.985257,0.016946
0.546659,-0.545004,0.593834,0.832765,0.465948,-0.298989
-0.128502,-0.232070,0.631050,-0.442006,0.616875,-0.651227
-0.498416,0.746079,0.580499,-0.086260,-0.897360,0.432787
0.053901,0.278644,-0.968950,0.044735,0.147705,0.988019
0.721603,0.133287,0.377906,-0.163314,0.631274,-0.758170
0.593537,-0.622626,-0.935111,0.103630,0.079901,0.991401
-0.231205,0.405922,0.403328,0.565365,-0.823657,0.044177
-0.208202,0.467382,-0.974358,-0.059089,0.139724,0.988426
-0.836243,0.281833,-0.968412,-0.095552,0.179768,0.979057
0.438607,-0.294593,0.573208,-0.233798,0.918000,0.320336
-0.220891,-0.788398,-0.926523,-0.089545,0.039560,0.995197
0.025799,-0.126801,0.910790,-0.499167,0.866372,0.015206
0.358405,0.137115,-0.962809,0.000003,0.173885,0.984766
0.341747,-0.467063,0.664766,0.967348,0.244085,-0.068269
-0.214425,0.463342,0.462956,0.182120,0.838651,0.513319
0.090207,0.088521,0.863861,0.508135,-0.231567,0.829563
-0.638168,-0.205380,0.666088,0.644037,0.764969,0.006208
0.376566,0.691956,0.246538,0.708835,-0.568005,0.418239
0.055396,0.432932,0.395376,-0.299055,0.523441,0.797857
-0.000064,-0.087564,0.928114,0.954151,-0.023842,0.298375
-0.698229,-0.435908,-0.943430,-0.023220,0.191209,0.981275
0.024934,-0.164018,0.893149,0.887720,-0.421496,0.185188
0.628720,0.199640,0.205212,-0.357855,0.895410,0.264918
0.450544,-0.311819,0.598410,-0.212550,0.449000,0.867883
0.010257,-0.188154,0.865354,0.424722,-0.829635,-0.362376
0.355423,-0.186134,0.538610,-0.188644,0.640396,0.744518
-0.267640,-0.349247,0.646415,0.065506,-0.970459,0.232204
0.201866,-0.343930,0.714240,0.681505,0.048564,0.730200
0.200128,-0.194428,0.807707,0.872430,-0.248212,-0.421019
0.085487,0.277154,0.736163,0.918258,0.376404,-0.122970
0.013239,-0.082034,0.950844,-0.562313,0.619547,0.547692
-0.234688,-0.180072,0.750379,0.152310,0.974868,0.162583
-0.899286,-0.027593,-0.958967,-0.001400,0.171067,0.985258
-0.688530,0.707694,0.194666,-0.765640,-0.273787,-0.582097
-0.180973,-0.193578,0.638439,-0.648361,0.752220,0.117440
-0.339630,0.467702,0.616736,-0.110307,-0.971535,0.209646
0.049553,-0.054282,0.955982,0.958419,-0.255021,0.128052
0.249366,0.813281,0.294250,-0.629125,0.663268,0.405312
-0.032637,-0.174969,0.800661,0.957771,-0.004577,0.287497
0.380914,0.568185,0.477612,0.202294,-0.132004,0.970388
-0.463104,-0.027380,-0.955199,-0.059623,0.240708,0.968765
0.405283,-0.024296,0.803793,-0.413031,0.508990,0.755205
0.244888,-0.059066,0.573477,0.923981,-0.282176,0.258138
-0.558468,-0.366048,-0.942305,-0.064232,0.266400,0.961720
-0.665649,0.447179,0.225422,0.875526,0.197612,0.440912
-0.523034,-0.717049,0.401174,0.995163,0.055980,-0.080725
0.075789,0.280664,0.688892,0.851411,-0.301725,-0.429023
-0.262418,0.404327,0.482848,-0.349194,-0.847602,-0.399541
-0.087225,0.431868,0.598361,0.819790,-0.550598,0.157438
-0.588559,-0.496836,0.571226,-0.890587,0.117364,-0.439409
0.014734,-0.047477,0.957646,-0.708459,0.626915,0.324135
0.158471,0.285981,0.669660,0.160102,0.577216,0.800743
0.483124,0.277474,0.342745,0.698009,-0.390735,0.600091
-0.071060,0.352226,0.724737,-0.696139,0.380250,0.608934
-0.018961,-0.019618,-0.953144,0.003375,0.250877,0.968013
0.122537,-0.147961,0.869342,-0.649880,0.544804,-0.529948
0.517313,0.517358,-0.465818,0.588770,0.002998,0.808295
-0.337148,-0.087031,0.608417,0.210141,-0.797105,-0.566095
-0.088219,0.062365,0.882848,0.097908,-0.716567,0.690613
0.119182,0.213356,-0.962662,0.076614,0.113241,0.990609
-0.208331,-0.037588,0.727942,0.767938,0.555797,-0.318374
-0.413243,-0.674410,0.484120,-0.136010,-0.065036,0.988570
0.476901,-0.821786,0.560240,0.744471,-0.387979,-0.543355
0.512835,0.150301,0.637534,0.167025,0.703000,0.691298
-0.015106,0.466107,0.580891,-0.555087,0.640859,-0.530263
0.259930,-0.217502,0.671740,0.760234,0.424235,0.492005
-0.581349,0.204530,-0.965305,0.034063,0.093252,0.995060
-0.563196,0.016323,0.680230,0.089791,0.988193,-0.124145
0.181975,0.763625,0.288622,-0.767680,0.050113,0.638871
-0.411126,0.420384,0.536702,0.861219,0.351016,-0.367546
0.260552,0.112659,0.787326,-0.404624,0.382706,0.830551
-0.331927,-0.130523,0.762662,0.061924,-0.247716,0.966852
-0.205349,-0.080971,0.806313,0.386027,-0.199762,0.900599
-0.512342,-0.178584,0.780303,-0.549167,-0.677165,0.489758
0.084986,0.509384,0.702716,0.761444,0.594573,0.258237
-0.703700,0.394545,-0.964620,0.000368,0.271514,0.962434
0.292009,0.437822,0.184561,0.513402,0.133418,0.847714
0.282310,0.594980,0.476902,-0.413097,-0.038938,-0.909854
-0.375071,0.339892,0.635650,-0.352624,0.927537,0.123822
-0.028911,-0.260035,0.565647,-0.658172,-0.358771,0.661886
0.017967,-0.292253,-0.430976,0.449139,-0.868949,-0.207852
0.577866,0.218673,0.639026,-0.694450,0.699774,-0.167497
0.562695,0.607316,0.449474,-0.649565,0.282083,-0.706041
0.083120,-0.466638,-0.816247,0.453940,0.890409,-0.033324
-0.280571,-0.327874,0.396648,0.296944,0.905087,0.304373
0.215670,-0.605400,0.462001,0.957882,0.259383,0.123221
-0.172268,-0.126376,0.773795,0.268890,-0.338960,0.901557
0.102267,-0.542240,0.639956,0.998771,0.035460,0.034635
-0.050168,-0.469935,0.367189,0.907045,-0.241356,0.344988
0.017345,0.294487,0.541253,0.774703,-0.588910,0.230261
-0.959216,-0.349354,-0.953168,-0.124584,0.069846,0.989748
-0.031643,-0.254931,0.697455,0.870529,-0.027219,0.491364
-0.310662,-0.026104,0.522731,-0.006312,-0.552126,0.833737
0.424681,0.208039,0.310179,0.877417,-0.426266,0.220083
0.742867,0.277154,-0.400538,-0.448717,0.694178,0.562823
0.353935,-0.680365,0.379202,-0.471557,-0.199388,0.858998
-0.240410,-0.720878,0.450942,-0.454604,0.890214,0.029216
0.569040,0.667607,0.142892,0.144902,-0.988781,-0.036268
-0.339258,0.273114,0.515243,0.795889,0.605439,0.002086
0.409882,-0.336381,0.713898,0.969876,0.191252,0.150877
0.691512,-0.426444,0.308344,0.521976,0.851255,-0.053902
0.790360,-0.522781,0.414289,-0.548417,0.798942,0.246842
0.332549,-0.009092,0.746685,0.689798,0.394542,-0.607055
-0.405283,-0.126481,0.823269,0.050040,0.850674,0.523307
-0.882620,0.215164,-0.963005,0.043623,0.113975,0.992525
-0.256325,0.958743,0.445143,0.871205,0.460630,-0.169769
0.087225,0.200808,0.764399,-0.089143,0.972119,0.216883
0.178985,0.436652,0.473257,-0.591756,0.654888,-0.470049
0.433135,0.571162,0.466137,0.513643,-0.768214,0.382122
0.169043,0.380297,-0.154563,0.804643,-0.459321,0.376263
-0.316134,0.082249,0.796281,-0.586889,-0.616199,0.525223
-0.950261,0.347866,-0.975165,0.061235,0.296233,0.953151
-0.883614,0.073635,0.363886,0.984140,0.148072,-0.097690
0.049173,-0.515764,0.661219,0.920932,-0.017527,0.389329
-0.284176,0.462917,0.703083,0.320340,0.918449,-0.232020
-0.446689,-0.515764,0.453487,-0.295642,0.198466,0.934455
0.286043,-0.361369,0.751456,0.205611,0.329106,0.921636
0.128881,0.485885,0.566675,0.995634,-0.072489,0.058812
0.866084,0.135732,0.181649,0.696725,0.227850,0.680190
0.038109,0.168270,0.438537,0.976913,-0.091239,-0.193177
0.020950,-0.793291,0.416907,0.938296,0.337162,0.076957
0.083120,-0.350949,0.688353,0.836778,-0.066284,0.543516
0.039975,0.204212,0.453169,0.729151,-0.658397,0.186688
0.315390,0.681004,0.467091,0.388281,-0.729353,-0.563279
0.163943,-0.000053,-0.953731,-0.142124,0.300054,0.943275
0.023317,-0.799032,0.413457,0.894511,0.427200,0.131722
0.289277,-0.585942,-0.139051,0.346464,0.428692,-0.834378
0.947780,0.196875,0.170418,0.906220,0.357687,0.225446
0.680448,-0.435588,0.244336,-0.549872,-0.822757,0.143912
0.719986,0.093838,0.410937,0.114717,-0.977944,-0.174545
-0.612684,-0.510765,0.569513,-0.882567,-0.293367,-0.367439
-0.131363,-0.417937,0.738684,-0.620049,-0.501417,-0.603423
0.513958,0.741614,0.451431,0.326786,-0.944867,-0.020919
0.000808,-0.758944,0.534059,0.890387,0.448923,0.075359
-0.350573,0.455793,0.145412,-0.410680,-0.720155,-0.559213
0.434129,0.194003,0.597406,-0.138700,-0.460982,-0.876503
0.182590,0.574991,-0.989626,-0.023970,0.094231,0.995262
-0.503758,-0.533840,0.407316,0.866099,0.224327,0.446709
-0.759032,-0.475250,0.309689,-0.450829,-0.809795,0.375480
-0.152377,-0.498643,0.110374,0.266736,0.836519,0.478631
-0.058872,-0.261630,0.715880,0.283878,-0.645753,-0.708814
-0.784516,-0.238980,0.521703,-0.273299,-0.930999,-0.241970
-0.165309,-0.735232,0.508588,-0.314293,0.935872,-0.159256
0.244144,0.745759,0.303010,-0.730344,-0.141687,0.668223
0.531740,0.116381,0.666112,0.921576,-0.344205,-0.179500
0.081503,0.166570,0.694005,0.685060,0.321820,-0.653547
-0.116192,0.173694,0.492391,-0.443828,0.767708,-0.462213
0.511097,0.509384,0.360215,0.147084,-0.225358,-0.963110
-0.230089,0.010794,-0.952875,0.008651,0.153851,0.988056
0.394097,0.746079,0.236628,0.639253,-0.547479,0.540021
-0.263291,0.044607,-0.951602,-0.053496,0.150913,0.987098
-0.697727,0.520443,-0.982408,-0.022601,0.137796,0.990203
-0.647245,-0.414641,0.657793,0.329751,0.943636,0.028565
0.167297,0.313201,0.213017,0.606338,0.637842,0.474880
-0.783272,0.498112,-0.978591,-0.107159,-0.007337,0.994215
-0.152377,-0.503215,0.564155,0.949605,-0.142114,-0.279383
-0.105871,-0.058216,0.911329,-0.502270,-0.133530,0.854339
0.455022,-0.328300,0.410399,0.901093,0.253809,-0.351584
-0.204226,0.213356,0.652777,0.586969,0.448506,0.674025
-0.468075,-0.344144,0.664913,0.093722,-0.931006,0.352766
-0.868322,0.391780,0.469171,0.586600,-0.373595,0.718559
0.569412,0.731937,0.168143,-0.060205,0.967813,0.244362
-0.099656,0.420171,0.570712,0.066100,-0.859331,0.507130
0.312400,-0.631240,0.505774,0.695628,0.615269,0.370872
-0.239044,0.347546,0.688060,0.232710,0.784552,-0.574738
0.518929,-0.587006,0.567507,0.895804,-0.369689,0.246710
0.619522,-0.102663,0.330560,0.697653,0.551285,0.457564
0.404660,0.459727,0.354392,0.474133,0.207298,-0.855702
-0.177869,0.270457,0.648446,0.908970,0.361669,0.207291
-0.298603,0.855921,0.417250,0.872614,0.233866,-0.428780
-0.336154,0.527567,0.445681,0.944326,-0.175488,0.278302
-0.143300,-0.071827,0.860607,-0.729688,-0.668152,0.145355
-0.105006,-0.800627,0.633839,0.134530,-0.928612,0.345805
-0.262418,-0.754691,-0.933570,0.013939,0.036604,0.999233
-0.622383,-0.309692,0.526230,0.206313,0.285330,0.935961
0.256074,-0.703333,0.471666,0.821814,0.408609,-0.397065
-0.701089,-0.003668,0.680866,0.473914,0.868796,-0.143524
-0.072305,-0.410707,0.562173,-0.308581,-0.373747,0.874695
-0.483367,0.300547,0.490384,0.938681,0.205671,0.276726
-0.262168,0.324473,0.405236,0.260400,-0.423772,0.867531
0.095930,0.450369,0.468755,-0.196477,-0.197130,0.960488
0.011501,-0.125844,0.733227,-0.392412,0.919754,-0.008019
0.629471,0.145834,0.672767,0.997407,-0.019744,0.069204
0.177869,-0.068425,0.907903,-0.667151,0.736589,0.111110
-0.402050,-0.319794,0.660974,-0.203830,-0.977090,-0.061232
-0.502392,-0.040352,-0.412748,0.526896,0.828644,0.189023
-0.187940,0.576904,0.350648,0.694180,0.719466,0.021994
-0.397823,0.026637,0.788671,-0.590114,0.357695,-0.723754
0.446939,-0.543302,0.712479,0.360413,0.617715,0.698949
-0.010628,-0.250889,0.519966,0.375798,0.143250,-0.915563
0.327943,-0.400393,0.662491,0.987009,0.153806,-0.046448
0.455765,0.059068,-0.616589,0.894918,0.047960,0.443645
-0.480756,0.604870,0.529361,-0.244770,-0.809885,0.533080
-0.327821,0.902280,0.413555,0.945861,0.123611,-0.300112
0.541067,0.644001,0.192024,-0.173266,0.931581,0.319586
-0.652595,0.083631,0.496036,0.367558,0.927633,0.066322
-0.293503,-0.250889,-0.939662,-0.041374,0.201034,0.978710
-0.343364,-0.269605,0.774920,-0.191590,0.776536,0.600238
0.337019,0.605189,0.482359,0.212409,0.410895,0.886594
0.188683,-0.178904,-0.289870,-0.225042,0.712255,0.664868
0.790489,0.061938,-0.959310,-0.048792,0.046266,0.997737
0.102267,0.197300,0.869587,0.932433,-0.360726,-0.021118
-0.389247,0.064065,0.718033,-0.270667,-0.615054,-0.740573
-0.249980,-0.046414,0.836163,0.987538,0.035488,0.153329
0.153250,-0.063958,0.829337,-0.359643,0.645317,0.673961
0.619773,-0.033228,0.398605,0.127671,0.094088,0.987344
0.032887,-0.312349,-0.487375,0.853887,-0.485531,0.187449
-0.009384,0.125100,-0.963102,-0.015595,0.203993,0.978848
-0.562445,0.659313,0.167874,0.802921,0.473719,0.361812
0.258442,-0.227923,0.716785,0.888617,0.331275,-0.317201
0.204848,0.667393,0.281747,0.046204,-0.633402,0.772442
-0.147899,-0.678877,-0.930193,0.140999,0.089448,-0.985961
-0.863222,0.376150,0.474602,0.262824,-0.745425,0.612589
-0.002546,0.190601,0.828040,-0.528597,0.551970,0.644914
0.740879,-0.222074,-0.950771,0.012556,0.165874,0.986067
-0.302580,-0.138815,0.832028,0.181691,-0.982723,-0.035273
0.176252,-0.224413,0.938733,0.859109,-0.510890,-0.030385
0.251225,-0.279174,0.398581,0.582131,-0.013136,-0.812989
0.636552,0.265885,0.566773,0.897161,0.366029,0.247234
-0.020828,-0.230475,0.872107,0.331269,0.879799,0.340902
-0.430273,-0.805837,-0.930511,0.030060,0.018748,0.999372
-0.065960,-0.743845,0.602080,0.178321,0.918840,0.352044
0.117809,-0.068955,0.766699,0.834441,-0.476594,-0.276707
-0.018339,-0.029720,0.951505,0.845652,-0.277577,-0.455876
0.033016,-0.422511,-0.695180,-0.012926,-0.999367,0.033140
0.016472,0.570419,0.244874,0.740042,0.260671,-0.619990
0.543427,-0.022383,-0.956105,-0.014984,0.209144,0.977770
0.899908,0.086183,0.575263,0.860124,-0.406970,0.307512
0.187940,0.760647,0.287570,0.826742,0.008105,-0.562522
-0.524401,-0.231218,0.616809,-0.390360,0.917516,-0.076053
-0.016100,-0.802860,0.373110,0.850689,-0.038136,-0.524283
-0.449671,-0.159231,0.730438,-0.325460,-0.915451,0.236697
-0.059373,-0.661970,0.380132,0.923734,0.331370,0.192120
0.556358,-0.099048,0.401174,-0.172609,0.036453,0.984316
-0.326076,0.878569,0.416858,0.858544,0.240798,-0.452680
-0.585948,0.656653,-0.981062,-0.132061,-0.022701,0.990982
-0.482373,0.380297,-0.661292,-0.586596,0.293426,0.754855
-0.031149,-0.480355,0.518498,0.705874,0.378601,0.598668
-0.269378,-0.054388,0.812992,0.239722,-0.305055,0.921669
0.444200,-0.689936,0.158087,0.526259,0.574658,0.626753
0.362883,-0.807220,0.109273,0.080684,0.990362,-0.112573
-0.437734,-0.724386,0.375581,0.711873,-0.654801,0.253915
-0.711904,-0.521718,-0.614754,0.978530,0.165374,-0.123002
-0.027044,0.112766,0.740323,0.764886,-0.601444,0.230682
0.138580,-0.215801,-0.187203,0.744874,-0.642439,0.180095
0.185580,-0.134882,0.724419,-0.276906,0.281799,-0.918647
-0.560213,-0.488329,0.431539,0.836578,0.489965,-0.245095
-0.525767,-0.219947,0.610986,0.396838,-0.788905,-0.469200
-0.342369,0.004839,0.729753,0.481136,0.831290,0.278327
-0.796826,0.101175,0.549425,-0.417984,-0.864565,-0.278957
-0.263413,0.559785,0.323342,0.741871,0.228285,0.630486
0.762136,-0.238662,0.444629,0.901486,-0.427898,0.065010
0.053279,-0.149874,0.855273,0.829845,-0.544181,-0.123386
0.312651,0.131905,0.763005,-0.408818,-0.697418,0.588621
0.811252,-0.534370,0.233423,0.948469,-0.293507,0.119418
-0.275350,0.358180,0.679839,0.461023,0.785246,-0.413335
0.030026,-0.825615,0.459824,0.602090,0.787592,-0.131097
-0.059995,-0.156893,0.910228,0.891392,0.430478,-0.141805
-0.316005,0.412834,0.667605,0.239037,0.330878,-0.912897
0.692385,0.077569,0.382530,-0.292247,0.955639,0.036695
0.487222,0.360093,-0.201272,-0.714777,0.097902,-0.692466
-0.076904,-0.197193,0.751089,-0.013999,-0.442648,0.896586
-0.723963,0.128396,-0.961537,0.055067,0.077883,0.995441
-0.131735,0.184965,-0.963910,0.056884,0.214457,0.975076
0.893070,0.144879,-0.964913,0.059831,0.262713,0.963017
0.301464,0.043649,0.482946,0.019346,0.555196,0.831495
-0.166925,0.740657,0.364204,0.983449,0.149729,-0.102029
-0.207588,-0.494816,0.492195,-0.491155,0.462295,0.738275
0.081503,-0.222393,-0.940616,-0.008303,0.389266,0.921088
-0.139324,-0.018554,0.879667,-0.415414,0.598075,0.685374
-0.755799,-0.507362,0.456374,-0.226540,-0.961738,-0.154078
-0.468325,-0.368068,0.523660,0.852528,0.040808,0.521086
-0.268884,0.006327,0.649963,0.088420,-0.368417,0.925447
0.542061,-0.312031,0.570785,-0.216480,0.569576,0.792918
-0.931365,0.376576,-0.350722,0.890282,-0.233415,0.391045
0.234567,0.633687,0.467042,0.402600,-0.738132,-0.541364
-0.679203,-0.137965,0.553095,-0.567808,0.823103,-0.009792
-0.002424,0.814769,0.208784,-0.678002,0.731057,0.076607
-0.646873,-0.005795,0.702643,-0.397619,-0.846360,0.354365
0.088341,0.360520,0.837142,-0.788870,-0.612764,-0.046954
-0.287781,0.395928,0.699413,-0.600366,-0.782693,0.164173
0.448677,0.479186,-0.118963,0.595343,0.070802,-0.800346
0.258685,0.454304,0.680817,-0.381850,-0.901126,-0.205337
-0.519551,0.007709,-0.144458,-0.504201,-0.838712,0.205776
-0.225741,-0.769790,0.444164,0.437930,-0.841028,0.317630
-0.737889,0.658036,-0.988573,0.015287,0.132914,0.991010
0.492072,0.635600,0.119525,0.915668,-0.394389,-0.077518
0.053780,0.024191,0.446146,0.998118,-0.004984,0.061126
0.428164,-0.746397,0.547003,-0.696406,0.254748,0.670911
-0.101523,-0.189431,0.687301,0.050169,0.781634,0.621716
-0.912961,-0.220904,0.555004,-0.676784,0.720541,-0.150941
0.529873,-0.456856,0.598703,0.761339,0.567038,0.314373
0.615166,0.292253,0.176193,-0.545015,0.674263,0.498325
0.433135,-0.437077,0.159726,0.170130,0.804033,0.569725
-0.195027,0.180606,0.805554,-0.599773,0.797985,-0.059091
-0.161704,0.386889,0.380426,0.970232,0.223057,-0.094312
-0.137207,0.042162,0.299339,0.770038,0.203899,0.604538
0.101773,-0.708012,0.509714,0.915875,0.382052,-0.123328
0.146412,-0.159231,0.775606,0.065525,0.923081,0.378982
-0.184706,0.347546,0.660264,0.939541,0.325486,0.106405
-0.887598,0.442502,0.297186,-0.608483,0.401608,-0.684441
-0.437734,0.651976,0.563518,0.415361,0.731212,-0.541115
0.206093,-0.260248,0.685050,0.505303,0.810095,0.297346
-0.209576,-0.273113,0.799046,0.282902,0.385878,0.878103
-0.709043,0.280664,0.427869,0.894750,0.400819,0.196893
0.260430,-0.283641,0.744629,0.147544,0.925204,0.349612
-0.948152,-0.381997,0.438512,-0.741453,-0.590024,-0.319560
-0.059995,0.255676,0.560020,0.913716,-0.149141,0.377995
0.234445,0.080228,0.923636,-0.001939,-0.510403,0.859933
0.232078,-0.202935,-0.491142,0.585342,-0.681064,0.439915
0.435123,-0.351799,0.389308,0.751589,0.567961,-0.335460
0.228101,-0.395608,-0.059897,0.441829,0.885923,0.141166
0.713149,0.663247,0.382065,0.270487,-0.962714,-0.004355
0.566308,0.723856,0.452532,0.799023,0.081241,0.595787
0.594281,0.005157,0.706117,-0.050416,-0.098772,0.993832
-0.402551,-0.073847,0.780206,-0.240352,-0.969438,0.049206
0.520052,0.610081,0.453095,-0.638434,0.251037,-0.727586
-0.313523,0.159338,0.841620,0.911225,-0.411840,0.007483
0.568789,-0.113402,0.365011,0.928740,0.237615,0.284572
0.098540,-0.945769,0.431050,0.897882,-0.412559,0.153633
0.080137,-0.105427,0.747468,-0.582290,0.812601,0.024862
0.380664,0.162955,0.653536,-0.181160,-0.868837,0.460764
0.236684,-0.121696,0.469856,-0.035719,0.258960,0.965227
-0.310784,0.370834,0.404869,-0.626812,-0.778697,-0.027169
-0.254086,0.858578,0.438170,0.920555,-0.333766,0.202925
0.213674,-0.003987,0.878419,-0.726950,0.652779,0.213129
-0.304940,0.699717,-0.981307,0.148586,0.109112,0.982862
0.401306,0.327663,-0.970785,-0.119573,0.208434,0.970700
-0.376808,-0.018129,0.742109,0.100947,0.330038,0.938555
0.225240,-0.179434,0.797798,-0.792057,0.153099,-0.590937
-0.776934,-0.484501,-0.942574,-0.040823,0.260936,0.964493
-0.530745,-0.002073,0.766871,0.824878,0.483552,0.292837
0.406900,0.233772,0.726621,-0.716746,-0.380160,0.584597
-0.338385,0.517466,0.405285,0.885972,-0.450902,-0.108358
0.389490,0.028657,-0.960705,-0.226737,-0.303222,-0.925552
-0.078771,-0.502897,0.538072,-0.740624,-0.643134,0.194564
0.179364,-0.612844,0.631148,0.732870,-0.677929,-0.057567
-0.387251,-0.223456,0.490751,0.225094,0.769797,-0.597281
0.470564,-0.172949,-0.152288,-0.531407,-0.209743,0.820740
-0.499782,-0.053326,0.772988,0.515990,0.413471,-0.750197
-0.947772,0.487053,-0.976535,0.011831,0.006415,0.999909
-0.001059,-0.143389,0.751578,0.784493,-0.489453,0.380798
-0.014734,0.329258,0.547517,0.792173,-0.472895,0.385787
-0.203482,0.136584,0.809420,-0.215173,0.672783,0.707859
0.478396,0.754373,0.420259,0.491914,0.869991,0.033705
-0.518185,-0.636237,0.474211,0.592831,0.757412,0.273640
-0.321977,-0.056196,0.570418,0.954513,0.252940,-0.157881
0.628599,0.639854,0.390213,0.995548,0.047751,-0.081263
0.313774,-0.134882,-0.944238,0.149187,0.252857,0.955932
0.406900,0.300229,0.740176,0.946052,0.192392,-0.260710
-0.867700,-0.134775,0.426303,0.975285,0.032104,-0.218607
0.152628,0.496518,0.175752,0.844028,0.294365,0.448292
0.825801,0.294380,-0.975532,0.095856,0.125038,0.987511
0.156233,0.789993,0.250869,-0.597507,0.480458,0.641985
-0.072305,-0.399543,0.716687,0.827061,0.441176,0.348330
-0.573639,0.044819,0.421654,0.842346,0.300599,-0.447317
0.323716,-0.045137,0.735723,-0.132251,0.774020,0.619195
0.476529,0.131160,0.475434,-0.204256,0.795405,0.570623
-0.923654,-0.200808,0.381747,0.974491,-0.157092,0.160279
-0.539200,0.829655,0.374505,0.772059,0.515022,0.372395
0.288032,-0.720134,-0.931319,0.036177,0.169585,0.984851
-0.478396,0.368813,0.360313,0.618619,-0.574410,-0.536062
0.020828,-0.678982,0.378052,0.970509,0.220420,0.097604
-0.669132,-0.518209,0.509763,-0.696753,-0.334479,0.634555
0.161826,-0.799563,0.560631,0.231757,0.946593,0.224165
-0.238293,-0.574672,-0.932077,-0.137719,0.023749,0.990187
-0.820579,0.217291,0.626303,0.704555,-0.562032,0.433269
0.093691,-0.456216,0.322192,-0.695176,0.694966,0.183720
0.215169,-0.408793,0.761267,0.107027,0.913434,0.392661
-0.652846,0.042906,0.711622,0.011646,-0.972223,0.233767
-0.381780,0.550321,0.409836,-0.015054,-0.395564,0.918315
0.370221,-0.466106,0.760509,-0.647549,-0.630949,0.427298
0.058629,0.413686,0.552508,0.952753,-0.300456,0.044593
-0.451288,0.524483,0.485197,0.994270,0.057627,0.090035
0.271996,0.121166,-0.958967,0.069847,0.276728,0.958406
0.196394,0.110426,0.795155,0.331938,0.439045,0.834899
-0.780911,0.524695,0.195204,0.938552,0.119461,0.323805
-0.089335,-0.441012,0.702251,-0.074771,-0.996761,0.029596
0.143301,-0.220586,0.082334,0.565021,0.791732,0.232189
-0.163943,-0.031527,0.889895,-0.468241,0.879873,-0.081081
-0.529743,0.121378,0.735870,-0.453053,0.715690,-0.531536
0.203854,0.201660,-0.968461,-0.065875,-0.381484,-0.922025
0.450043,0.383806,0.359065,0.460584,0.016158,-0.887469
0.334037,-0.491413,0.680426,0.447884,-0.438104,-0.779400
-0.220018,-0.036205,0.820480,0.797707,0.528390,0.290632
0.030156,0.073635,0.595473,-0.617970,-0.786198,-0.002336
-0.280071,0.673562,0.380157,-0.433279,-0.685651,0.584937
0.088098,-0.339784,0.594250,-0.619894,0.580033,-0.528483
0.877900,0.182413,0.592684,-0.664199,0.704696,0.249487
0.220519,0.104472,0.926915,0.577475,-0.561319,0.592827
-0.188562,-0.140837,-0.484463,0.478882,0.868973,-0.124732
-0.323966,0.954065,-0.509347,0.493689,0.868716,-0.040044
0.136713,-0.654739,-0.932273,-0.021794,0.016826,0.999621
0.313394,-0.033441,0.686298,-0.190974,-0.931388,-0.309913
0.202981,-0.252271,-0.934157,0.085445,0.345127,0.934658
-0.031771,0.361263,0.402055,0.705619,0.197452,-0.680526
-0.438235,0.846776,0.312014,0.918165,0.207598,0.337456
0.032265,-0.785846,0.408711,0.877160,0.371554,0.304201
0.077405,-0.377319,0.669024,0.858756,-0.475251,-0.191508
0.033259,0.486523,0.679423,-0.677358,0.696669,-0.236302
0.150890,-0.947472,0.463690,0.224853,-0.798445,0.558503
-0.300964,-0.695038,-0.929949,-0.011478,-0.073138,0.997256
-0.020828,-0.715136,0.418645,0.613001,0.591331,0.523982
0.369721,-0.071402,0.809665,-0.629967,0.284783,0.722524
-0.038359,-0.230688,-0.940005,-0.059090,0.327265,0.943083
0.661179,0.034505,0.406802,-0.052288,0.298984,0.952824
-0.499410,-0.627199,0.167262,0.972958,0.229256,-0.028170
0.114705,0.346164,0.424908,0.923264,-0.135175,0.359599
-0.314768,-0.417724,0.443210,0.408481,-0.721529,-0.559052
0.596892,0.603807,0.408539,-0.309085,0.922237,-0.232262
-0.121414,0.644851,0.158258,0.900087,0.300934,-0.315092
-0.606218,0.633367,-0.070272,0.877411,0.470500,-0.093697
-0.105249,-0.234620,0.791754,-0.140017,0.855241,0.498956
0.552253,0.234409,0.604722,0.918425,-0.229778,-0.322022
0.096423,-0.512360,0.484854,-0.021608,-0.747769,0.663607
-0.203231,-0.094476,0.871764,0.908576,-0.414297,0.053361
0.475414,0.708864,0.152606,0.504296,-0.863472,-0.010095
0.531368,0.707906,-0.986640,0.086190,0.303757,0.948843
-0.537826,0.350631,0.329631,0.962752,0.263639,-0.060028
-0.824806,0.050668,0.552361,-0.548722,0.829836,0.101374
0.640165,-0.472380,0.593785,0.904287,0.393162,-0.166402
0.384519,-0.045562,0.676853,-0.259947,0.951934,-0.162014
0.520052,-0.100855,0.654857,-0.244232,0.840981,0.482805
-0.396206,0.707587,0.394128,0.381464,-0.085782,-0.920395
0.027165,-0.129140,0.919721,-0.594627,0.237570,-0.768101
-0.008640,-0.751289,0.186102,-0.649359,0.119976,0.750958
0.099413,-0.123929,0.857035,-0.136114,0.769847,0.623545
0.226606,-0.425168,0.191950,0.284065,0.610688,0.739166
0.197639,-0.500770,0.505016,0.666476,0.584379,-0.462938
0.089957,0.341911,0.810032,0.393648,0.918255,-0.043003
-0.542675,-0.095008,0.587301,-0.154652,0.789408,0.594069
0.482502,0.708969,0.443235,-0.437846,0.618335,-0.652650
-0.760269,-0.094051,0.657255,0.973821,0.060624,-0.219083
-0.406649,-0.015789,-0.958870,-0.064146,0.266456,0.961710
-0.145539,0.081291,0.272572,0.866055,0.240402,0.438356
-0.176123,-0.183476,-0.611377,0.362312,-0.569402,0.737910
