0.562386,-0.022273,0.714176,0.421685,0.782270,-0.458514
0.154462,-0.088293,0.376970,-0.646339,0.232378,0.726805
-0.100057,-0.098229,0.689204,0.421567,-0.906787,-0.004438
0.161794,0.390406,-0.010105,0.815592,-0.113522,0.567382
-0.635305,0.524272,0.500564,0.627957,-0.368679,0.685380
-0.817278,0.285324,0.498630,-0.372616,0.889148,0.265658
-0.397799,-0.013135,0.703736,0.429394,-0.187539,0.883431
-0.714555,0.160822,0.231578,-0.695618,-0.595859,0.401333
-0.067881,-0.507367,-0.985518,-0.184433,-0.147402,0.971729
-0.043666,-0.390176,0.718962,0.809907,-0.163131,-0.563417
0.387246,-0.520274,0.367745,-0.270798,-0.961317,0.050384
-0.370475,0.442833,0.689130,0.493189,0.869564,-0.024950
0.047510,-0.588464,0.769451,0.998887,-0.045705,-0.011671
-0.003166,0.516848,0.286804,-0.742604,-0.228433,0.629569
-0.612819,-0.385380,0.693519,-0.696273,0.717527,0.018928
-0.833797,-0.067732,0.727865,-0.449925,0.471096,-0.758706
-0.007145,0.057681,0.537042,0.677197,0.437780,-0.591399
0.034720,-0.184923,0.686204,0.724987,-0.244779,0.643799
0.161794,-0.291490,-0.136303,-0.018829,-0.830274,0.557037
0.420036,-0.342432,-0.992213,-0.028695,0.006757,0.999565
0.215448,-0.354312,-0.999479,0.063983,-0.069402,0.995535
0.216691,0.275957,0.399735,-0.398592,0.875124,0.274376
0.617413,0.422273,0.214170,-0.710191,0.702581,0.044823
0.544873,0.181611,0.590334,0.925676,-0.167682,-0.339128
0.134834,-0.277212,0.704554,0.674039,-0.136896,-0.725900
-0.224895,-0.134780,0.880696,0.830913,-0.537521,-0.143718
0.898885,0.521074,0.400280,-0.278431,-0.562312,-0.778640
0.184273,-0.696973,0.600179,-0.296177,0.200956,0.933754
-0.062294,0.573845,0.550384,0.094982,0.994557,-0.042830
-0.485995,-0.728042,-0.329680,0.557158,-0.730146,-0.395552
0.250854,-0.840549,-0.004402,0.534861,-0.785015,0.312532
-0.636670,0.553741,0.491761,-0.202822,0.259101,0.944314
0.143530,-0.171673,0.657636,-0.084114,-0.130380,0.987890
-0.010375,-0.569388,0.663935,-0.187603,0.432188,0.882054
-0.306874,0.352485,0.226767,-0.887685,0.157588,-0.432645
0.536678,-0.321987,0.376003,-0.253469,-0.431101,0.865971
0.202408,0.742206,0.021438,0.412125,-0.447457,0.793685
0.306381,-0.041919,0.760524,-0.396688,0.897972,0.190485
-0.167882,-0.215419,0.828843,-0.096453,-0.179689,0.978984
0.903858,0.354312,0.404670,-0.592941,-0.286321,-0.752623
-0.300293,0.132154,-0.525213,0.845293,0.489775,0.213542
0.159929,-0.651742,-0.676160,-0.129016,-0.776646,0.616584
-0.118442,-0.377270,0.792761,-0.525696,0.432857,0.732310
-0.204644,0.105540,0.597649,-0.678895,-0.083523,-0.729469
0.926709,0.079270,0.426294,-0.122410,0.158932,0.979672
0.017328,-0.611536,0.729129,-0.536543,0.404802,-0.740444
-0.459535,-0.160707,0.683153,0.352964,0.891222,-0.284851
-0.136828,-0.019531,-0.988841,0.119595,0.224013,0.967220
0.042423,0.173273,0.668845,0.571166,-0.718590,-0.396734
0.810446,0.598287,0.128938,0.891044,-0.018677,0.453533
0.388610,-0.903827,0.641393,0.307997,0.068860,0.948892
-0.670203,0.696518,0.293202,0.507151,0.161666,-0.846559
0.991797,0.207196,0.353412,0.962648,-0.078124,-0.259239
-0.543630,-0.149971,0.678219,-0.658300,-0.752740,0.004800
-0.678278,-0.426271,0.557848,-0.776922,0.133268,-0.615331
0.030989,-0.692633,-0.993676,0.002341,0.082806,0.996563
-0.226381,-0.230382,0.906734,-0.354617,-0.921983,-0.155542
-0.433205,-0.262478,0.910478,0.463102,-0.878608,-0.116555
0.193090,-0.753855,-0.989485,0.122501,0.112447,0.986078
-0.088874,-0.315819,-0.526999,0.978650,-0.189278,-0.080113
-0.409975,0.985722,0.297764,-0.049582,0.998559,-0.020556
-0.190732,-0.320960,0.823809,0.744928,-0.510175,-0.429889
-0.375691,-0.275158,0.830132,-0.753010,0.386173,-0.532773
0.708467,0.587551,0.418631,0.308417,-0.025709,0.950904
-0.795913,0.290348,0.678962,-0.640045,-0.750529,-0.164468
0.249360,-0.798744,0.602658,-0.339566,0.910089,0.237554
-0.429975,-0.345289,0.847962,0.427021,-0.594619,0.681236
-0.370104,-0.446258,-0.378830,0.196620,-0.938833,0.282725
-0.373455,0.300743,0.116390,-0.275749,0.359171,-0.891604
-0.343523,-0.240206,0.083334,-0.213478,-0.960526,0.178375
-0.303394,-0.084294,0.897063,0.750617,0.652064,-0.106712
-0.346502,0.158196,0.641468,0.947834,-0.092823,-0.304951
0.411090,-0.104168,0.668944,-0.610945,0.744690,-0.268669
0.355941,-0.308509,-0.143916,-0.074093,-0.721075,0.688884
0.439535,-0.040548,0.191182,-0.317240,0.948319,-0.007098
-0.184023,-0.300971,0.867999,0.423418,0.874775,-0.235553
-0.403766,0.970075,0.276711,0.616807,-0.392155,0.682469
0.766845,0.026615,0.433163,-0.165774,0.822520,0.544040
-0.393205,0.376242,0.683501,0.749656,0.157931,-0.642708
-0.313083,-0.121644,0.705993,0.427667,0.578254,0.694783
-0.648839,-0.345289,0.536968,0.071871,0.540906,0.838007
-0.340414,0.362993,0.677202,0.802194,0.431581,-0.412580
-0.075213,-0.661222,0.656297,0.797818,0.601859,0.035381
-0.018942,0.316849,0.644642,0.796387,0.106545,-0.595329
-0.028632,-0.352827,0.716805,0.917711,0.138744,-0.372231
-0.208246,0.090578,0.711795,0.498418,-0.355217,0.790823
-0.270482,-0.437464,-0.188330,-0.494357,0.806140,-0.325191
0.378792,0.393376,0.591152,0.114163,-0.821384,0.558834
0.738528,-0.170873,0.405091,0.159946,-0.455702,0.875645
-0.132597,0.799201,0.488512,0.906891,0.175029,-0.383294
-0.302158,-0.104055,0.800374,0.431315,-0.606816,0.667639
0.459657,-0.112506,0.411762,-0.669527,0.693515,-0.266028
0.112976,0.096517,0.450273,0.393962,-0.350634,-0.849617
-0.410597,-0.379784,0.465971,-0.014875,-0.500651,0.865521
0.270103,0.266363,0.588375,0.703507,0.000173,0.710689
-0.544623,-0.140033,0.636930,0.984369,-0.066227,-0.163193
-0.434319,0.118104,0.837894,-0.341252,0.936862,0.076402
0.249611,-0.029698,0.719805,0.380107,-0.916448,-0.125066
0.466245,0.581839,0.362240,0.207966,0.670993,0.711701
-0.454819,0.451513,0.687518,-0.319123,-0.744471,0.586449
-0.649589,0.135008,0.785520,0.093487,-0.516667,0.851067
-0.325509,0.773615,0.284175,-0.224565,-0.735211,0.639559
-0.226009,0.568247,0.537439,0.202088,-0.077447,0.976300
-0.613690,-0.494461,0.653594,-0.609789,0.731248,-0.305668
-0.801872,-0.408339,0.480478,0.820316,-0.486554,-0.300577
0.030125,-0.681439,0.607097,0.227369,0.431011,0.873231
0.038813,-0.494461,0.651040,0.820345,0.052935,-0.569414
-0.357806,-0.689320,-0.982988,-0.070401,-0.169865,-0.982949
0.408110,0.019647,0.055288,0.803338,-0.510913,-0.305966
-0.070246,-0.403312,-0.506888,0.904148,-0.312881,-0.290897
-0.584001,-0.303826,0.784578,0.852621,-0.522522,0.002730
0.006895,0.280869,0.609800,0.880954,0.340184,0.328932
-0.470468,-0.243861,0.777635,-0.516112,-0.844201,0.144752
0.417678,0.131582,0.257492,0.110368,-0.600417,0.792034
0.420657,-0.051513,0.291565,0.189664,0.350828,-0.917032
-0.401650,-0.163336,0.905023,0.531668,0.373768,-0.760018
0.798149,0.512508,0.262080,0.951452,-0.301428,-0.062288
0.452704,0.535124,0.619720,-0.457674,-0.581686,0.672440
-0.295569,-0.109423,0.690444,0.994208,0.091898,0.055724
0.476927,0.567790,0.641964,-0.695289,-0.275514,0.663826
0.733555,0.734439,0.299401,0.877155,0.448775,0.170882
0.017578,-0.247059,0.688559,-0.133163,0.332827,0.933538
-0.231104,-0.272301,-0.031977,-0.258072,-0.955961,0.139778
-0.352090,-0.504397,0.611363,-0.283781,0.383799,-0.878730
0.212097,0.318447,0.705298,-0.024393,-0.714136,0.699581
0.224766,-0.587321,-0.228553,0.185911,0.921401,-0.341259
0.465995,0.831869,0.258385,-0.203375,-0.964514,0.168380
-0.016585,-0.703254,0.516956,0.758926,0.383199,-0.526488
-0.179307,-0.475157,-0.613867,-0.115384,-0.099036,0.988372
-0.144523,-0.662250,-0.203407,0.635511,-0.757250,-0.150660
-0.313083,0.043404,0.838341,0.253981,-0.896226,0.363693
-0.190111,-0.397373,0.671225,-0.706750,0.506982,0.493431
-0.634926,0.214734,0.788471,0.548319,0.417280,0.724723
0.223522,-0.022045,0.744107,0.305714,-0.937624,0.165528
0.231726,0.294918,0.330374,0.307565,0.589877,-0.746625
-0.727345,-0.499942,0.618405,-0.308867,0.950354,0.037798
0.010747,-0.235751,-0.978252,0.038868,0.324480,0.945094
-0.470839,0.148373,0.641641,-0.429109,0.835535,0.343143
0.001058,-0.463278,0.735602,0.873337,-0.291186,0.390504
-0.096828,-0.181953,0.056800,0.981977,-0.111530,-0.152587
0.481522,-0.341976,-0.442487,0.911975,0.082887,-0.401784
-0.409103,0.175671,0.541432,0.812935,0.329302,0.480309
-0.034219,-0.396916,0.812997,0.838582,-0.252354,-0.482802
-0.059807,-0.303254,0.687319,0.507925,-0.787992,0.347967
0.141915,-0.471615,0.543019,0.940558,0.322484,0.106560
-0.658657,-0.316047,0.410745,0.477047,-0.805726,-0.351045
-0.058442,-0.536950,-0.995090,-0.080701,-0.057831,0.995059
0.181415,-0.427756,0.334788,-0.113127,-0.702211,0.702924
0.255699,0.031982,0.547433,-0.632796,-0.727846,0.264213
0.584373,0.384238,0.400553,-0.164303,0.813758,0.557496
0.405502,0.173502,-0.231181,-0.006800,0.769213,0.638956
0.324266,-0.747802,0.600030,-0.045472,0.965318,0.257085
-0.402773,-0.525527,-0.222923,0.884335,0.371342,-0.282943
0.224645,0.830611,0.051345,0.833425,0.552424,-0.015186
-0.728467,-0.355453,0.539845,0.021869,0.929185,0.368967
-0.335942,0.210394,0.905816,-0.880669,0.370052,-0.295776
-0.429975,0.215762,0.738801,0.427354,0.245457,-0.870126
-0.799764,0.578641,-0.113712,0.784758,0.331091,-0.523959
0.256070,-0.195202,-0.147215,0.204640,0.780179,-0.591137
-0.007267,0.691263,0.615132,0.899818,-0.304834,0.312095
0.255820,0.010393,0.362835,0.500862,0.107692,0.858801
-0.023666,-0.090348,0.604121,0.306588,-0.948732,-0.076892
-0.052604,-0.714334,0.653668,-0.703345,0.000615,-0.710849
0.456677,0.037007,0.689725,0.619189,-0.620938,0.480667
-0.836535,-0.346546,0.524470,0.598500,-0.786233,-0.153739
0.483508,0.028898,-0.767864,0.350959,0.899986,-0.258561
-0.009003,-0.210965,0.169855,-0.220599,-0.062574,0.973355
-0.486617,-0.119246,0.723922,-0.253840,-0.597942,0.760283
-0.282408,0.259052,0.713209,0.893230,0.449571,-0.005178
-0.467610,-0.044204,0.839481,0.430375,-0.195963,-0.881122
0.490218,-0.696745,0.445363,-0.268992,0.079248,-0.959877
-0.560029,-0.385037,0.830752,0.463914,0.870383,-0.164979
0.425873,-0.072415,0.101313,-0.348130,0.824078,-0.446880
-0.373333,-0.321987,0.508152,-0.629373,0.684897,-0.367158
-0.015713,0.218389,0.394378,-0.305329,-0.862228,-0.404149
-0.104280,-0.263050,0.713730,0.237399,-0.809624,0.536797
0.441279,0.318218,0.459275,0.977554,0.114742,0.176701
-0.599278,0.828554,0.147165,-0.148833,-0.087238,0.985007
0.125645,-0.162536,0.837820,0.809293,-0.583885,-0.064217
0.026274,-0.271044,0.576124,0.729489,-0.677541,-0.093729
0.046888,0.651514,0.193662,0.435341,0.884061,0.170044
-0.441521,-0.004797,-0.012982,0.671698,-0.558852,-0.486320
-0.143409,-0.460307,0.344261,0.772541,0.239002,0.588268
-0.072726,0.610510,0.612082,-0.469653,0.798045,-0.377558
0.529968,-0.611079,-0.998214,0.047224,0.101299,0.993735
-0.014098,-0.457681,0.342649,-0.523145,0.138543,-0.840908
-0.394819,0.370417,0.680326,-0.705200,-0.099996,0.701921
0.068131,-0.252312,0.631895,0.490238,0.586210,-0.645000
0.124402,-0.708509,-0.995908,-0.026731,0.035095,0.999026
0.260793,-0.338664,0.431501,-0.552642,-0.155622,0.818760
-0.572447,-0.317190,0.868520,0.842673,-0.503333,0.191203
-0.644987,-0.465219,0.651213,0.536894,-0.842869,-0.036277
-0.493819,-0.582409,0.341533,0.834038,-0.444397,0.326943
0.130239,-0.101085,0.721095,-0.617512,0.439644,0.652221
0.359042,0.639521,0.362314,0.449509,-0.401091,-0.798165
-0.314827,0.348144,0.566255,0.973302,-0.026131,-0.228038
0.663994,0.624444,0.373845,0.227466,0.935636,-0.269897
-0.207502,-0.103712,-0.950056,-0.602798,0.746060,0.282896
0.526859,-0.864192,-0.994743,0.068704,0.104900,0.992107
-0.095334,-0.302228,0.639657,-0.682151,0.206205,0.701534
0.283522,0.413593,0.352445,0.287341,0.051594,-0.956438
-0.419293,-0.427984,0.506962,-0.276390,0.792253,-0.544008
0.081551,0.355797,0.341980,0.632389,-0.130902,-0.763511
-0.072233,-0.674471,0.598170,-0.249149,0.221328,-0.942835
0.696663,0.415420,0.513980,0.881794,0.068282,-0.466666
-0.184273,-0.148258,0.708894,0.077683,0.727487,0.681709
-0.399171,-0.834381,0.082566,0.147399,0.876610,-0.458070
-0.555055,-0.440890,0.628325,0.643398,-0.548842,0.533678
0.638285,0.467506,0.514203,0.790474,-0.221719,-0.570957
-0.082665,-0.670018,0.489678,-0.757194,-0.292515,0.584031
-0.122415,-0.437122,0.806351,-0.377608,-0.924071,-0.059212
0.295941,-0.058024,-0.640972,0.889471,-0.445042,-0.103824
0.080929,-0.330668,0.561419,0.095530,0.442410,-0.891710
0.256191,-0.454598,0.431427,0.659501,0.323338,-0.678610
-0.338921,-0.146201,0.808335,0.814150,-0.578836,-0.045913
-0.599528,-0.267048,0.507929,0.741348,0.216188,-0.635347
-0.169739,-0.138550,0.867627,0.850278,0.159534,0.501574
-0.752440,-0.130897,0.737288,0.016099,0.899591,0.436437
0.470839,-0.266020,0.704629,0.312975,0.771082,0.554509
0.161043,-0.047858,0.644642,0.400299,-0.281980,-0.871922
-0.222408,0.008452,0.855823,0.505084,0.591127,0.628856
0.834669,0.567105,0.100768,0.895418,-0.114135,0.430349
-0.312090,-0.276412,0.732254,0.546440,0.830395,0.108845
-0.865974,-0.487608,0.603601,0.572170,-0.819860,-0.021235
-0.674805,-0.081668,0.745893,0.765598,0.196571,0.612552
-0.199428,0.346430,0.723500,0.988506,0.126322,-0.083056
0.425130,-0.027984,0.675243,0.102914,-0.956980,0.271290
-0.047639,0.731581,0.614363,0.156846,0.955593,-0.249481
-0.193219,-0.630268,0.451712,-0.686310,-0.327855,-0.649223
0.005652,0.847743,0.514228,0.884034,0.453848,-0.111832
-0.177563,-0.250599,0.815005,-0.576144,0.776600,-0.254854
-0.725238,0.662137,0.498060,-0.124633,-0.801027,-0.585510
-0.547731,-0.290920,0.951098,-0.521015,0.853179,-0.025083
0.285259,-0.758995,0.581431,-0.394395,0.864252,-0.312282
-0.089246,0.552027,0.581754,0.492876,-0.018730,0.869898
-0.066645,-0.308509,0.724765,0.776126,0.449109,-0.442638
-0.009503,-0.443747,0.737957,0.911738,0.406822,-0.056833
-0.781508,0.216906,0.520849,0.937206,0.347604,0.028555
0.808582,0.080411,0.466417,-0.578797,0.619817,-0.529925
0.847960,0.586522,0.337144,0.778703,0.175518,-0.602342
0.508724,-0.084980,0.284795,0.177716,-0.055782,0.982500
-0.104773,-0.347687,0.853071,0.865869,-0.023039,-0.499739
-0.398550,0.023301,0.721020,-0.629514,-0.721083,-0.289399
0.291847,-0.282695,0.375953,0.370027,0.323147,-0.871009
0.334076,0.075500,0.408811,-0.285576,0.005480,0.958340
-0.000686,-0.443975,0.827281,0.723614,0.670014,-0.165723
-0.006395,-0.771902,0.685658,0.943661,-0.167728,0.285256
0.013977,0.138435,0.549689,0.856701,-0.512656,0.056981
-0.738027,-0.082010,0.460664,-0.691767,-0.632186,-0.348998
-0.340293,0.121874,0.768955,0.895998,-0.332039,0.294853
-0.333212,-0.084751,0.914793,0.122662,0.916056,0.381831
-0.555434,0.448773,-0.294565,0.670155,-0.722295,-0.170830
0.313333,0.442718,0.605857,-0.106227,-0.684667,0.721074
0.420908,0.387093,0.487868,0.922774,0.255139,-0.288776
-0.164652,-0.386180,0.082739,0.838644,0.505124,-0.203780
0.018692,-0.392461,0.783561,0.655203,-0.235764,0.717722
0.653061,0.187436,0.503590,0.744842,0.536585,-0.396594
-0.283151,0.156711,0.511376,0.298374,-0.161834,-0.940629
-0.760886,-0.104055,0.756060,0.865069,0.500705,0.030827
-0.396063,-0.264648,0.857386,0.182893,0.508123,-0.841642
0.009375,-0.267161,-0.187288,0.679749,0.630013,0.375533
-0.383265,0.623872,0.032374,-0.525036,0.848490,-0.066349
-0.871061,0.206740,0.692849,0.401409,0.913506,-0.066167
0.092726,0.067734,0.733618,-0.685754,-0.333121,0.647126
0.396556,0.052998,0.720227,0.973405,-0.226941,-0.031297
-0.007017,-0.667505,0.531364,0.915541,0.380360,-0.130808
-0.747717,0.214506,0.536249,0.574499,0.742867,-0.343655
-0.205638,-0.730555,0.361099,0.478895,-0.092661,-0.872968
0.341408,-0.777042,0.008245,0.901763,0.432166,0.007437
-0.514691,-0.426499,0.636310,-0.296860,0.696629,-0.653133
-0.400286,-0.464762,0.618926,-0.727573,0.422245,-0.540691
0.074091,-0.627070,0.723178,-0.673590,0.517533,-0.527670
0.554434,-0.083723,0.771212,0.955476,-0.141633,-0.258856
0.405874,-0.071959,0.702843,-0.719186,-0.587339,0.371220
0.247503,-0.304398,0.728931,-0.044612,0.961252,0.272039
0.366252,-0.910908,-0.990750,0.097590,0.208215,0.973202
0.856777,0.202970,0.477651,-0.694049,0.419248,-0.585258
-0.203901,0.224557,0.744182,0.699965,-0.119863,0.704046
-0.608224,-0.112050,0.799259,0.884235,-0.012125,0.466885
0.859635,-0.410393,0.414762,0.273470,0.570183,0.774665
-0.258928,0.050943,0.631350,-0.011050,-0.729752,0.683623
0.122666,0.449001,0.277777,0.708627,-0.280532,-0.647417
-0.264273,0.331924,0.778527,0.991002,-0.133846,0.000314
0.737035,0.283152,0.403752,-0.677838,0.345338,-0.649059
-0.699642,0.188007,0.672961,0.950142,0.234171,0.205897
0.605366,-0.242489,0.516981,-0.083458,0.985811,0.145640
0.286252,0.480526,0.351825,-0.079635,-0.167635,0.982627
0.005774,-0.302569,0.817064,0.966999,0.253189,-0.028427
0.328739,-0.856196,0.031605,0.498871,-0.781887,-0.373871
0.161043,-0.308966,0.404397,0.552225,0.261380,-0.791661
0.832554,0.494689,0.408116,-0.333645,0.059878,-0.940795
-0.549968,-0.232782,0.794968,-0.215946,0.901445,0.375187
0.438792,-0.131582,0.424806,-0.471959,0.714471,-0.516514
0.449224,0.142890,0.679582,0.959121,-0.209706,0.190026
0.649089,-0.522559,-0.580836,-0.304220,-0.720442,0.623229
0.401158,-0.090348,-0.557823,-0.378857,0.635191,0.673052
-0.245638,-0.836322,0.668200,0.208566,0.294774,0.932528
-0.704866,0.140376,-0.250921,-0.076055,-0.993202,0.088124
-0.252347,-0.775329,-0.983782,0.185491,-0.027750,0.982254
-0.604002,-0.129297,0.857584,0.240068,-0.943159,0.229822
0.442515,-0.278356,0.709142,-0.601573,0.437780,0.668176
-0.635677,0.576356,0.534389,0.897774,0.279954,-0.340039
-0.233833,0.002056,0.394056,0.540147,0.840762,-0.036888
-0.560279,0.177841,0.762706,-0.535914,0.063140,-0.841908
-0.314827,0.302571,0.685360,0.379731,0.692107,-0.613834
0.508353,-0.819075,-0.994296,0.020833,0.089064,0.995808
-0.559157,-0.792689,0.579869,0.863643,0.503322,-0.028078
0.751690,0.302000,0.142280,0.889552,-0.260594,0.375218
0.371840,-0.441233,0.693122,0.957816,0.254281,-0.133902
0.358921,-0.162650,0.644766,-0.127018,0.762475,0.634428
0.002794,-0.385721,0.175460,0.950100,0.072554,0.303389
-0.760886,0.269446,-0.198100,-0.433759,-0.865079,-0.251976
0.291969,0.161394,0.569503,-0.581276,-0.698255,-0.417802
0.990932,-0.533295,0.407422,-0.566874,0.209164,-0.796809
0.558164,0.117761,0.602882,-0.793557,0.604943,0.065657
-0.325009,0.155226,0.740784,0.103478,-0.446416,0.888822
-0.068632,-0.124157,-0.814361,-0.135055,-0.947074,0.291222
0.730325,-0.038836,0.804491,-0.449196,0.352843,0.820807
-0.123909,-0.614506,0.650841,0.906827,0.388702,-0.163023
0.203030,-0.319017,0.710084,-0.649770,-0.009526,-0.760071
0.277184,-0.072302,0.737536,-0.588151,0.807790,-0.039414
-0.043908,-0.564477,0.554302,-0.552264,0.382774,-0.740600
0.628096,-0.375557,0.325315,0.329167,-0.941091,0.077438
0.498042,-0.595545,0.438866,0.454697,0.120306,0.882483
-0.209118,0.066705,-0.486751,0.596438,0.700328,-0.392177
-0.214462,0.866590,0.265328,-0.366284,0.449923,-0.814497
-0.793926,-0.593604,-0.087922,0.898141,-0.435336,0.061846
0.540400,0.304169,0.519039,0.801275,-0.179716,-0.570667
0.198807,-0.840320,0.567147,-0.423503,-0.302624,0.853852
-0.465623,0.443403,0.239166,0.703844,0.705940,-0.079072
-0.310725,0.298229,0.364323,-0.265019,-0.964068,-0.018398
-0.592819,0.092633,0.715589,-0.362076,0.412817,-0.835753
-0.594805,-0.473672,0.643799,0.688709,-0.675604,0.263132
-0.471711,-0.080982,0.931210,0.875152,0.066294,0.479286
-0.329611,-0.300400,0.646303,-0.065411,-0.808723,0.584541
0.663251,0.345746,0.416573,-0.654870,0.343611,-0.673110
-0.754919,-0.192691,0.418606,0.953103,0.242239,0.181426
-0.182036,-0.207881,0.949089,0.761328,0.488875,-0.425890
0.145516,-0.708852,0.009461,0.109475,0.983659,0.142934
0.767967,0.321530,0.108579,0.728397,-0.669519,0.145541
0.028753,0.677442,-0.250474,0.933280,0.311338,0.179047
0.139307,-0.691946,0.508227,0.907868,0.391497,0.150018
0.226509,-0.870930,-0.991643,-0.129943,0.112710,0.985094
-0.169368,-0.280526,0.731659,0.126426,0.991135,0.040839
0.480028,0.614049,-0.106248,0.595759,-0.080944,0.799074
-0.141422,0.603883,0.581332,0.492122,0.086899,-0.866178
0.253712,-0.792689,0.564891,-0.425198,-0.402455,0.810702
0.316935,0.393261,0.593185,-0.077618,-0.687740,0.721795
0.400657,0.782183,0.273041,-0.501054,-0.743713,-0.442533
-0.361408,-0.122101,0.902072,0.926756,0.058177,0.371131
0.403887,-0.675157,-0.133452,0.798655,0.121105,-0.589477
0.251847,-0.684524,-0.667630,0.320188,-0.199785,0.926048
0.851811,-0.194060,0.462648,0.407208,-0.898891,-0.161791
-0.502022,-0.109537,0.776221,0.837176,-0.510004,0.197565
-0.266381,0.227642,0.332110,0.868726,0.263967,0.419091
-0.033476,-0.234151,-0.662323,0.973508,0.045851,-0.224008
-0.470097,0.093889,0.819345,0.205189,0.949692,0.236607
0.203772,-0.140148,0.539820,-0.038450,0.911226,0.410108
-0.499536,-0.614277,0.609230,-0.637451,0.419534,0.646256
-0.032112,-0.230840,0.406108,-0.457809,0.809942,-0.366613
-0.366995,-0.186979,0.892698,-0.109818,-0.989071,0.098376
0.107009,-0.235980,0.555443,-0.410065,-0.125858,-0.903331
0.765602,0.385267,0.556683,0.665320,0.565208,-0.487740
0.581265,0.251399,-0.073217,0.251773,-0.472770,0.844452
-0.377556,-0.092748,0.864701,0.438263,-0.786137,0.435792
-0.301536,-0.197715,0.913206,0.703851,0.491240,-0.513106
0.301908,-0.404341,-0.162217,-0.349512,-0.588154,0.729326
-0.503387,-0.163907,0.708993,0.238199,0.970266,-0.042959
-0.053726,-0.328726,-0.705496,0.995796,-0.076543,-0.050318
0.741258,-0.207994,0.234008,0.187881,0.140523,-0.972087
-0.213962,0.311366,0.567817,-0.657804,0.095469,-0.747115
0.609218,0.076528,0.464185,-0.030633,0.757468,-0.652153
-0.220543,0.238036,0.605957,0.419242,0.885065,0.202227
-0.135334,-0.167219,0.851657,0.712983,0.622173,0.323352
-0.014098,-0.098344,0.428401,-0.160481,-0.354245,0.921280
0.232218,-0.009594,-0.620711,-0.372687,0.881894,0.288733
-0.811690,-0.517304,0.630135,-0.251959,0.967661,0.012225
-0.637042,-0.111365,0.735577,0.889066,-0.239133,0.390355
-0.703372,0.231412,0.604741,-0.171683,-0.435383,-0.883723
-0.918513,0.252771,0.670531,-0.307921,0.835836,-0.454492
0.403887,-0.136494,0.500961,-0.722532,-0.679499,-0.127393
-0.226760,-0.333753,-0.103570,-0.545204,0.836479,0.055272
-0.410597,-0.070130,0.708646,-0.045099,-0.071412,0.996427
0.227374,-0.577613,0.586614,-0.126069,-0.100504,-0.986917
0.014598,0.107597,-0.156564,-0.647896,0.752207,-0.120061
0.100921,-0.715819,0.189396,0.124377,-0.204480,0.970937
-0.042172,-0.684296,0.608412,0.275412,-0.332393,0.902033
0.420286,-0.509880,0.434403,-0.499026,-0.866211,-0.025512
0.412083,0.566305,0.376920,0.828435,-0.360828,-0.428368
-0.219057,-0.712279,0.715093,0.862426,0.297149,0.409785
-0.337306,-0.163677,0.904229,0.562702,-0.540461,0.625514
-0.748839,-0.300400,0.341856,-0.755723,0.317114,-0.572994
0.620271,-0.413820,-0.997123,0.021452,-0.001012,0.999769
0.335570,0.497544,0.589069,-0.355409,0.921036,-0.159304
-0.624745,0.125986,0.645187,-0.640942,0.555209,-0.530034
-0.260043,-0.379553,0.844044,0.556464,-0.758299,-0.339604
-0.120429,-0.475728,0.770592,0.629027,0.774215,-0.070106
-0.164273,-0.272644,0.543316,0.262654,0.643769,-0.718731
0.094220,-0.113422,-0.021041,-0.658797,0.277057,0.699447
0.858642,0.441462,0.405537,-0.291700,0.216387,-0.931712
-0.250482,0.219874,0.623464,0.934646,-0.079329,0.346617
-0.744737,-0.080753,0.723202,-0.441317,-0.658978,-0.609088
0.076456,-0.355797,0.677053,0.879182,-0.169765,-0.445217
-0.378299,-0.357395,0.816940,0.983496,0.176094,-0.041543
-0.390596,-0.150314,0.878836,0.874733,-0.206190,-0.438553
-0.804730,0.592575,0.632094,0.959800,0.062393,0.273661
-0.219428,-0.807195,0.608511,0.159329,-0.443544,0.881977
-0.233340,-0.167219,-0.150885,-0.490840,0.842213,-0.223054
0.066024,0.171902,0.490942,-0.265409,-0.960459,-0.084128
0.543880,0.018847,0.732998,0.957784,0.126832,0.258000
0.426124,-0.943233,0.637649,-0.315340,-0.187267,-0.930318
0.307374,-0.183324,0.427980,0.430097,-0.714223,0.552179
-0.076456,-0.273329,0.765211,0.408510,0.851328,-0.329182
-0.511833,-0.121644,0.760499,0.697914,-0.697480,-0.162599
0.036827,-0.158309,-0.772526,0.195480,-0.951304,0.238344
0.221043,-0.278697,0.684368,-0.408813,-0.853916,-0.322024
-0.749210,-0.436322,0.586614,-0.714808,0.684802,-0.141758
0.100800,-0.522901,0.571785,-0.585911,0.308548,0.749338
-0.459042,-0.272301,0.898228,-0.041271,0.976102,0.213358
0.319914,0.005369,0.623167,0.471315,0.880921,0.042908
-0.392211,-0.045004,0.802606,-0.516578,-0.305033,0.800064
-0.335820,-0.175785,0.240059,-0.098726,-0.814236,0.572078
0.712933,0.457909,0.421582,-0.156029,0.640864,0.751630
0.334205,-0.296973,0.651188,0.472887,-0.440334,-0.763206
0.464880,0.589949,0.638616,-0.565187,0.791811,0.231514
0.819264,-0.469217,0.411216,0.634934,0.225070,-0.739055
-0.115584,-0.257795,0.828272,-0.170548,-0.048792,0.984141
-0.058571,-0.544603,0.439511,0.945959,0.112734,0.304062
-0.808460,0.592575,0.637078,0.923901,-0.067235,0.376678
-0.460279,-0.513078,0.311279,0.932740,-0.223704,0.282759
-0.092726,0.558424,0.580861,0.694276,0.161307,0.701399
-0.114841,-0.422501,0.803226,0.969201,0.155065,0.191323
-0.379914,-0.103368,0.898749,0.965435,0.248021,-0.080128
-0.009132,-0.769617,0.675689,-0.333519,0.770511,0.543210
-0.721386,0.044318,-0.320653,-0.639378,-0.762544,-0.098603
0.107009,-0.786750,0.583886,0.882955,0.312011,-0.350771
-0.067267,-0.620445,0.350684,-0.275949,0.284520,0.918096
-0.528474,-0.060422,0.578604,0.658374,0.213483,-0.721781
-0.234084,0.631525,0.572057,0.680573,-0.213356,-0.700928
0.311840,0.152599,0.581630,0.686239,0.594640,-0.418903
-0.093598,-0.276984,-0.456597,0.869168,0.402449,0.287370
0.710082,0.463392,-0.174567,0.935282,0.260720,0.239316
-0.356062,0.135237,0.522461,0.452351,0.646082,0.614781
0.924602,0.499944,0.414192,-0.557056,0.747983,-0.360846
0.290475,0.397601,0.556559,-0.222971,-0.849213,0.478667
-0.508853,-0.348372,0.478940,-0.591177,-0.791154,0.156793
0.544001,0.076185,0.086013,0.957751,-0.000479,0.287599
-0.510589,0.420560,0.144090,0.241287,-0.781079,0.575930
0.534812,-0.532839,0.404174,0.523735,-0.835317,-0.167173
-0.178185,0.815078,0.270040,0.008263,-0.021286,0.999739
0.593440,-0.353968,0.381756,-0.686436,-0.412373,0.598960
-0.194705,-0.250942,0.682434,-0.679075,-0.276393,0.680047
0.731197,-0.076185,0.284869,0.012528,0.247778,0.968736
-0.443758,-0.251627,0.845854,-0.620093,-0.362720,0.695643
-0.170861,-0.205596,0.760623,-0.367099,-0.867773,0.334976
0.588846,-0.165049,-0.190934,0.989298,-0.122566,-0.079169
-0.506116,-0.001484,0.534439,-0.738304,0.088416,0.668647
-0.133719,-0.274814,0.795316,0.512264,0.447951,-0.732752
0.566730,-0.523129,-0.190289,0.075093,-0.566590,0.820571
-0.190361,-0.338664,-0.988221,-0.091383,-0.092172,-0.991541
-0.102165,-0.774986,0.659446,-0.642650,-0.449285,-0.620600
-0.679521,0.887721,0.161449,0.797026,0.226708,-0.559780
-0.651447,-0.105540,0.706662,0.046689,0.998626,0.023802
0.886717,0.382182,0.400131,0.547519,-0.355559,0.757496
0.119307,-0.089091,0.694486,-0.638810,-0.744932,-0.192351
-0.010618,-0.497772,0.607891,0.977433,-0.158907,-0.139188
-0.435563,-0.079840,0.731535,-0.771949,0.628294,0.096646
0.570340,0.105768,-0.037185,0.942223,-0.238821,-0.234904
-0.208374,-0.145973,0.866263,-0.801410,-0.106658,-0.588528
0.583129,0.155341,-0.474650,0.834702,0.393424,0.385343
-0.235327,-0.089091,0.902989,-0.398112,0.842081,-0.363877
-0.196449,-0.270360,0.691089,0.665698,0.739095,-0.102882
0.168003,-0.695488,-0.992833,-0.065061,-0.067706,-0.995582
0.205638,-0.734323,0.575083,-0.636721,0.540816,-0.549640
-0.058692,0.725530,-0.223940,0.936569,0.327648,0.124436
-0.652447,-0.784123,0.343815,0.639428,-0.365041,-0.676666
-0.281786,-0.101085,0.902022,0.355945,-0.820935,0.446507
0.992176,0.559681,0.423665,0.999850,0.010221,0.013995
0.137692,0.105084,0.725757,0.975745,-0.130155,-0.176014
-0.290604,-0.435979,0.258831,0.918718,-0.381725,-0.101205
0.257806,0.031754,0.561295,-0.106438,0.703905,0.702274
-0.060929,-0.622502,0.190016,0.824687,0.408182,0.391509
0.728839,0.342319,0.551772,-0.675291,-0.586814,0.446801
-0.429225,-0.265220,0.886548,-0.116919,-0.849205,-0.514957
0.644244,-0.599657,-0.112175,0.317738,-0.943760,-0.091432
0.336191,0.302341,0.570198,-0.693907,0.446879,-0.564617
0.215077,-0.648773,-0.689551,-0.503705,-0.613660,0.608032
-0.068010,0.049687,-0.473980,-0.487047,0.017145,0.873208
0.459786,-0.330783,0.376127,-0.066647,-0.522751,0.849876
-0.008260,-0.651856,0.617289,0.937232,-0.128361,0.324222
-0.015220,-0.644089,0.133030,0.675763,0.552870,0.487523
-0.557913,0.424329,0.448736,-0.575267,0.695208,-0.430991
0.395441,-0.058024,0.111406,-0.352642,0.749035,-0.560884
-0.068753,0.187779,0.599658,0.018031,-0.117706,0.992885
-0.684494,-0.491147,0.687270,-0.512570,0.724275,-0.461192
-0.052483,0.058481,0.893963,-0.572315,0.818748,-0.045906
0.187252,-0.250599,0.641294,0.747248,0.071141,-0.660727
0.325752,-0.718332,-0.994371,0.058098,0.130930,0.989688
0.022051,-0.774072,0.485214,0.387039,0.850140,0.357020
-0.094591,0.659967,0.473832,-0.211473,-0.608187,0.765106
-0.406002,-0.331124,0.833604,-0.717849,-0.405445,-0.565957
-0.549718,0.067734,0.582200,-0.244149,-0.373563,0.894898
-0.281165,-0.194060,0.733122,0.960311,0.039410,0.276133
0.166016,-0.061108,0.714300,-0.243289,0.940498,-0.237221
0.042915,-0.695375,0.516410,0.568360,0.449581,-0.689089
0.469346,0.014164,0.729799,0.546931,0.101924,-0.830950
0.340414,-0.720045,-0.994172,0.021079,0.229932,0.972978
-0.397799,-0.785380,-0.306518,-0.611778,0.755083,0.235749
0.123287,-0.956026,0.357801,-0.312934,0.739332,-0.596205
-0.192719,-0.326670,0.835786,-0.556120,0.759816,0.336765
0.623751,0.264535,0.530347,0.490259,-0.106719,-0.865019
0.449224,-0.663163,-0.991593,-0.097286,0.185083,0.977896
-0.166267,-0.107482,0.856518,0.961819,-0.144641,0.232345
-0.627724,-0.141177,0.726079,-0.147660,0.977294,0.151961
-0.217071,-0.222272,0.715416,-0.155453,-0.060433,0.985993
-0.441400,-0.038264,0.795316,-0.062248,0.900728,0.429901
-0.799264,0.594288,0.627853,0.942787,0.256504,0.212975
0.991304,-0.531582,0.401743,-0.709530,0.152379,-0.688003
0.197563,-0.086121,0.732229,-0.481680,0.730315,0.484381
-0.093348,0.400229,0.419325,-0.206805,-0.391381,0.896690
-0.617663,0.445460,0.530545,0.811362,0.559829,0.168180
-0.009625,-0.729983,0.686873,0.912521,-0.100358,0.396528
-0.702258,-0.260422,0.386567,0.233669,-0.963618,0.129765
0.421400,-0.741748,-0.997297,-0.011727,-0.052870,0.998533
-0.103537,-0.314562,0.777089,-0.200987,0.598324,0.775637
-0.214705,-0.146316,-0.701008,-0.483726,-0.874783,-0.027616
-0.100679,0.032552,0.855253,0.922392,-0.010589,-0.386110
-0.322401,0.272188,0.750505,-0.206086,0.892582,-0.401032
0.168624,-0.132724,0.647692,0.333996,0.509203,0.793196
-0.081179,-0.803084,0.367348,0.053047,-0.005534,0.998577
0.098442,-0.772587,0.654139,0.911450,0.353419,0.210603
0.238678,0.605027,0.348427,0.816063,-0.206367,-0.539865
-0.135334,-0.023073,0.219402,0.986116,-0.009726,-0.165773
-0.403015,0.079955,0.711374,-0.292976,0.366813,-0.882957
-0.574684,-0.301769,0.545771,-0.254615,0.929208,0.267849
0.802622,0.473215,0.411018,-0.207246,-0.156139,-0.965748
0.250111,-0.813363,0.487248,0.345082,-0.926665,0.149033
-0.246380,0.060651,0.440801,-0.168217,-0.913400,0.370680
-0.318428,-0.004341,-0.996652,-0.080978,0.231976,0.969345
0.875284,-0.006282,0.430187,0.087742,-0.317291,0.944261
0.481772,-0.072987,0.435667,0.243878,-0.960455,0.134350
0.468482,-0.263392,0.383789,-0.045565,-0.430080,0.901640
-0.674555,0.699945,0.288143,0.465050,0.290654,-0.836211
0.026395,-0.268761,0.511029,0.749269,-0.449596,-0.486271
-0.108003,-0.221131,0.472493,-0.694157,0.708945,-0.124671
-0.009253,-0.507938,0.737015,0.304216,0.124184,0.944474
-0.689339,0.618391,0.506094,0.578381,0.101362,0.809445
-0.081922,-0.800799,0.195075,0.361018,-0.334448,0.870523
-0.117571,-0.174871,-0.418581,0.918556,-0.391618,0.053759
-0.052354,-0.557739,0.637624,0.662532,0.511567,0.547129
0.553197,0.021016,0.047823,0.996228,-0.003014,0.086720
0.381279,-0.272073,0.681740,-0.400615,0.243201,0.883380
-0.026145,-0.220787,0.474005,0.760799,-0.648679,-0.020035
-0.389232,-0.086808,0.903039,0.934936,0.316549,0.160285
-0.207874,-0.638721,0.046112,-0.694731,0.199351,-0.691092
-0.216199,0.256997,0.534587,0.359541,0.910737,-0.203194
-0.158192,-0.582981,0.620364,-0.654188,-0.729612,-0.199258
-0.725480,0.769732,0.516708,0.941196,-0.086149,0.326693
-0.000186,0.027984,-0.231652,0.906773,-0.401697,0.128073
0.214955,-0.597259,0.278893,-0.034198,0.946181,0.321826
-0.687224,0.061451,0.633061,-0.184134,-0.773062,0.607017
0.580893,-0.274129,0.702868,0.817061,-0.575562,0.033740
0.203280,-0.301541,0.704777,-0.090956,-0.957921,-0.272239
-0.170111,-0.368246,-0.143991,-0.533468,0.845760,0.010075
-0.162036,-0.358766,0.698999,-0.183216,-0.684674,0.705446
-0.033355,-0.389606,-0.240555,0.882749,0.138651,-0.448920
-0.214834,0.424329,0.543787,0.264799,-0.828154,0.494007
-0.150982,-0.611308,-0.537340,0.979401,-0.125580,-0.158128
0.534562,-0.221246,0.600774,0.664606,0.746346,0.035582
-0.280414,0.332609,0.675367,-0.735347,-0.492640,0.465371
0.208867,-0.264992,0.442685,0.678692,-0.260069,-0.686834
0.755048,-0.353283,0.388204,0.767990,-0.358870,0.530474
-0.900129,0.296745,0.413894,-0.496521,0.338102,-0.799471
0.126388,-0.681439,0.568858,0.127042,0.412872,-0.901885
0.465745,-0.042490,0.435171,0.164554,-0.982109,-0.091565
-0.097699,-0.218617,0.848161,-0.406309,-0.913250,0.029788
0.452083,-0.804682,-0.081350,0.749474,-0.651816,0.115865
0.337435,-0.852428,0.638194,0.230512,0.633593,0.738528
0.235077,-0.811422,0.577191,0.894833,0.417978,-0.156744
0.233833,-0.261222,0.652081,0.284897,0.854917,0.433533
0.616791,0.220332,0.490992,-0.010005,-0.494962,0.868857
-0.749453,-0.658023,0.703736,-0.535247,-0.489183,-0.688630
-0.001179,-0.204111,0.829612,0.843902,0.385380,-0.373244
-0.495684,0.062479,0.729452,0.788299,-0.274066,0.550884
0.026145,-0.203198,-0.567941,0.372382,-0.928074,0.003154
-0.586359,-0.703826,0.564568,0.800108,0.522675,0.294344
-0.283773,-0.242148,0.857857,-0.553269,0.503301,-0.663763
-0.258807,0.464992,0.681839,0.352309,-0.903623,-0.243606
-0.038692,-0.501999,0.228379,0.745664,0.618389,-0.248154
0.005531,0.849001,0.061214,0.574310,-0.756002,0.314052
0.384630,-0.091376,0.666216,0.691733,-0.669411,0.270914
-0.770818,0.725530,-0.068331,0.755907,0.170518,-0.632082
-0.581143,0.276871,0.461358,-0.272531,0.961322,-0.039828
0.512076,-0.137065,0.282092,-0.069212,-0.553810,0.829762
-0.216077,0.292290,0.554252,0.869246,-0.117355,0.480249
0.012733,-0.287950,0.877497,-0.622490,0.772814,-0.123551
-0.782622,0.369961,0.473956,0.875968,-0.386667,0.288390
-0.565366,-0.136835,0.830479,0.736784,0.060840,-0.673386
0.002673,-0.595660,-0.993825,-0.064245,-0.242596,0.967998
0.732683,0.342775,0.143867,0.795170,-0.240663,0.556584
0.383766,0.441005,0.167946,-0.404511,-0.792187,0.456958
-0.454691,-0.406739,0.785818,0.952538,0.160279,-0.258807
-0.828581,-0.164136,-0.216352,0.870641,0.489880,-0.044746
0.307374,0.346545,0.705621,-0.523840,-0.764343,0.375995
0.097199,-0.051628,0.686848,-0.631941,-0.774885,0.014275
0.319914,0.078583,0.675565,0.881008,-0.460558,-0.108215
-0.197321,0.047288,0.703017,0.739977,-0.550431,0.386600
0.138814,-0.359338,0.723029,0.845370,-0.318240,-0.429037
-0.210611,-0.429241,0.126607,0.808229,0.444423,0.386334
0.297928,-0.763449,0.622894,-0.239611,0.750908,0.615405
-0.624623,-0.251286,0.829736,0.564040,-0.825002,-0.035079
-0.688839,0.223187,0.811484,0.961553,0.271633,0.040395
-0.748460,0.707596,-0.069447,0.755907,0.170518,-0.632082
-0.527360,0.116048,0.602063,0.738632,0.668415,-0.087431
-0.241286,-0.463621,0.502647,-0.340921,-0.729264,0.593252
0.246381,-0.362421,0.748869,0.132936,-0.770772,-0.623088
-0.720764,0.485779,0.491017,-0.176024,0.600999,-0.779625
-0.092976,-0.200685,0.842730,0.877610,0.446771,0.173775
0.642008,-0.403997,-0.999306,0.054686,-0.004471,0.998494
0.139929,-0.781382,0.478940,0.060941,0.455221,0.888291
-0.280042,0.048202,0.611710,-0.140154,0.966889,-0.213266
0.379543,-0.481668,0.421458,0.819430,0.546697,0.172212
0.079314,-0.798516,-0.993156,-0.074701,0.155640,0.984985
0.009875,-0.362308,0.827826,0.989278,0.010327,-0.145680
0.079686,-0.252655,0.666241,0.130928,-0.820366,-0.556649
0.209489,-0.663963,-0.677673,-0.600210,-0.718793,0.350834
0.272590,-0.294232,0.682484,0.312162,0.750261,0.582806
0.404387,0.002856,0.463615,-0.228776,0.621110,-0.749589
0.084402,-0.189149,0.814088,0.968080,-0.069699,-0.240755
0.429225,-0.378070,0.320380,0.076691,0.808335,0.583706
-0.510089,0.232097,-0.267039,0.044451,-0.998598,0.028759
-0.546859,-0.235408,0.814261,-0.301911,0.941941,-0.146961
-0.019071,-0.475157,0.722186,0.964037,0.255038,-0.074749
-0.301908,0.466590,0.717548,0.960735,-0.171896,-0.217807
0.466245,-0.219532,0.317653,0.990781,0.083743,0.106487
-0.173219,-0.191434,0.003732,0.342507,-0.754245,0.560182
0.530961,-0.372816,-0.193091,-0.406415,-0.562289,-0.720179
-0.185145,-0.063277,0.887044,0.944157,-0.301100,0.133815
0.374198,0.486008,-0.049758,0.640891,0.758371,-0.118882
-0.008882,0.021131,0.664183,0.810395,0.441789,0.384816
0.758521,0.166077,0.682236,-0.577457,-0.486222,-0.655844
0.351469,-0.099144,0.613371,-0.689296,0.449944,0.567822
0.545616,-0.150428,0.800325,-0.523006,0.360505,0.772335
-0.899264,0.280869,0.434006,-0.589424,0.669970,0.451354
-0.113848,-0.281211,0.901650,-0.616262,-0.784916,0.064257
-0.173719,-0.706911,0.466789,0.596787,0.793341,-0.120229
0.542386,0.042490,0.735899,-0.444518,-0.892552,0.075859
0.191854,-0.365506,-0.202787,0.760828,0.415834,-0.498219
-0.029996,0.328498,0.536670,0.428913,0.497871,-0.753763
0.544130,-0.561850,0.352469,0.858780,0.285038,0.425735
0.589960,0.521074,-0.138857,0.844571,0.177720,0.505090
0.333705,0.205826,0.416126,0.085721,-0.618394,-0.781179
-0.427610,-0.633010,0.614661,-0.001758,0.129227,0.991613
0.596299,-0.426956,0.378011,0.703762,0.435278,-0.561473
-0.389232,-0.087036,0.895922,0.781037,-0.607609,0.144197
0.056706,-0.485208,0.770964,-0.594977,0.696070,-0.401857
0.194462,-0.282124,0.710431,-0.190393,-0.923780,-0.332237
-0.646481,0.120618,0.641889,0.881009,0.037547,0.471607
0.446495,-0.091719,0.434105,-0.315037,0.890247,-0.328955
-0.063287,-0.519131,0.543490,0.955932,0.278709,-0.092281
-0.446988,-0.169160,0.849425,-0.573395,0.750880,0.327716
0.495555,-0.455855,-0.993552,-0.039715,0.030959,0.998731
0.157813,0.387321,0.716557,0.815062,0.579109,-0.017512
-0.118814,0.097887,0.596682,0.111175,0.947707,0.299150
-0.755291,0.181611,0.672416,0.465352,-0.492656,0.735348
-0.739392,-0.455624,0.573397,0.081505,-0.973027,0.215814
-0.202408,0.007310,-0.498630,0.695623,0.111861,-0.709644
-0.824980,-0.391661,0.554451,-0.482256,0.592347,0.645410
0.382522,-0.539463,0.425475,0.620258,0.742007,-0.254372
-0.548474,0.376586,0.478866,0.056383,-0.034949,0.997797
0.390347,-0.327126,0.362835,0.385236,0.165975,-0.907770
-0.351590,-0.491262,0.360901,0.539507,-0.774030,0.331377
0.375441,-0.545403,0.272421,-0.688850,0.700290,0.187292
0.100307,-0.411878,0.370398,0.829646,0.349379,-0.435457
-0.400286,-0.004225,0.724467,-0.849528,0.527543,-0.000571
-0.420036,-0.285437,0.533422,0.079431,-0.923746,0.374678
-0.138935,-0.546431,-0.992387,0.006440,0.069105,0.997589
-0.536677,-0.198743,0.764640,-0.239280,0.008532,0.970913
-0.404137,-0.687950,0.616521,-0.091991,0.043719,0.994800
-0.588596,-0.414392,0.675168,0.698558,-0.658749,0.279404
0.215577,-0.068076,-0.021984,-0.513262,0.114732,0.850529
0.173962,-0.092861,-0.742049,-0.406051,0.908209,-0.101388
-0.200422,-0.461907,0.588375,-0.351856,-0.935488,-0.032538
-0.881122,-0.087378,0.753828,-0.449085,0.893280,-0.019329
-0.444137,0.561509,0.185528,0.376126,-0.924343,0.064177
-0.349232,0.778869,0.283481,-0.430008,0.365234,-0.825649
0.743365,-0.328611,0.021141,-0.573010,0.197893,-0.795297
-0.482143,-0.145403,0.676061,-0.529056,-0.660375,0.532921
-0.148003,-0.017247,0.259426,0.996270,0.073835,0.044659
-0.181543,-0.685094,-0.472071,-0.696079,0.489709,-0.525032
0.593941,0.617134,0.388600,-0.601819,0.332227,-0.726250
0.095705,0.146659,0.713432,0.904217,0.155641,0.397702
0.153340,-0.883951,0.559881,-0.571341,-0.073637,0.817403
0.332590,0.058138,0.567420,0.361865,0.349230,-0.864345
-0.573691,0.161279,0.559782,0.401097,0.141959,0.904969
-0.167753,-0.225929,-0.614809,0.756980,-0.569077,-0.321143
0.733555,0.373044,0.563998,-0.578837,-0.569986,0.583150
-0.029003,-0.473330,0.772105,0.056307,-0.460707,0.885764
-0.660393,0.333296,0.470335,0.585290,0.751793,-0.303715
-0.017949,0.027299,-0.212310,0.831531,-0.529984,0.166355
-0.787216,-0.511708,0.677648,-0.194036,-0.980161,0.040435
-0.110489,-0.304169,0.698702,0.448475,-0.837184,0.313038
0.203772,-0.319360,0.698975,-0.344883,0.914605,0.211080
-0.005402,-0.641463,0.357999,-0.265074,0.290622,0.919388
0.490339,-0.863392,-0.999405,-0.013973,0.071511,0.997342
-0.007145,-0.417933,0.644220,0.826747,0.388897,-0.406508
-0.630461,-0.112393,0.721739,-0.073218,-0.986749,-0.144792
-0.204023,-0.094689,0.268602,0.798222,-0.447791,0.402896
0.692440,0.144603,0.438916,0.295560,0.221583,0.929271
-0.077077,0.638378,0.631127,0.596950,-0.651070,0.468784
0.262901,-0.189492,0.030390,0.734445,-0.668507,0.116996
0.537913,-0.311707,0.696520,-0.685226,0.721056,-0.102680
0.105766,0.284865,0.636880,0.099525,-0.549153,0.829774
0.501772,0.644204,0.386294,0.421915,0.728167,-0.540149
0.247124,0.316849,0.680078,0.285400,0.911536,-0.296057
0.849575,-0.009937,0.481098,0.879376,0.032401,-0.475023
0.332833,0.376129,0.161002,0.509762,0.484201,-0.711120
0.404759,0.567333,0.614264,0.649205,0.639444,-0.411878
-0.333212,-0.101542,0.800077,0.998360,0.056831,0.006927
-0.824730,0.425358,0.420962,0.900285,-0.423719,-0.099749
-0.187753,-0.352714,0.621753,0.138488,-0.197105,-0.970552
-0.656913,-0.128497,0.759333,-0.618116,0.734804,0.279275
0.321529,-0.165848,0.677524,-0.309029,-0.020649,0.950828
-0.228245,-0.413022,0.686253,0.224033,-0.723484,0.652978
-0.241415,-0.628327,0.708621,0.976675,0.159746,0.143484
0.414691,-0.555797,-0.999975,-0.016232,-0.047225,0.998752
0.021550,-0.334551,0.722012,-0.302236,-0.649768,0.697463
-0.465874,-0.382752,0.577315,0.242598,0.969274,-0.040664
-0.046023,0.153284,0.533075,-0.672183,-0.145202,0.726007
0.443015,0.237465,0.503565,0.365625,-0.205321,-0.907834
0.101793,-0.270475,0.620191,-0.509569,-0.722384,0.467441
-0.198314,-0.315362,0.789091,0.134798,-0.634864,0.760774
0.060057,-0.609938,0.664208,0.773097,-0.103975,-0.625708
0.005652,-0.737521,0.721541,-0.660396,0.491342,-0.567856
0.096206,-0.292862,-0.139552,-0.019254,-0.919542,0.392521
0.153219,-0.140605,0.651808,0.053364,0.368150,0.928234
-0.044037,-0.210851,0.818477,0.652560,0.672546,-0.349065
-0.845352,-0.322215,0.528685,-0.487178,0.853743,0.183794
0.101051,-0.504512,0.293921,0.938938,0.336006,-0.074133
-0.270604,-0.366761,-0.159415,-0.452265,0.660289,-0.599562
-0.059435,0.603998,0.591251,-0.373244,0.867117,-0.329844
-0.365130,-0.016905,0.703736,-0.111404,-0.139772,0.983897
-0.309360,-0.427756,0.876877,0.959589,0.268003,-0.085810
0.403387,0.068190,0.724070,0.956288,-0.248127,-0.154744
-0.215827,-0.461336,0.621059,0.746792,0.466830,-0.473678
-0.315820,-0.090119,0.866164,0.484141,0.661471,-0.572768
-0.222158,-0.312051,0.880547,0.308570,0.620525,-0.720925
0.234205,-0.050828,0.650494,-0.253060,0.143849,0.956697
-0.124030,-0.240434,0.715837,0.123095,-0.682042,0.720879
-0.061922,-0.311479,0.402661,0.972856,-0.159104,0.168040
0.496056,-0.450941,-0.999975,-0.013977,0.009198,0.999860
-0.329982,0.433696,0.135361,-0.547250,0.676716,-0.492518
-0.862494,-0.068304,0.396932,0.950215,0.156393,0.269504
0.356806,-0.082466,0.618232,0.769985,-0.372223,-0.518241
-0.272340,0.258023,0.780585,0.864254,-0.304068,-0.400759
-0.287124,-0.176813,0.918587,-0.065993,0.569786,0.819139
-0.464259,-0.525414,0.491587,-0.584674,-0.799269,0.139013
-0.541765,-0.262593,0.795316,0.940094,0.166654,-0.297404
-0.319792,-0.261794,0.018214,0.507168,0.773257,0.380597
0.703994,-0.484523,0.388823,-0.098588,0.432415,0.896269
0.440900,-0.705539,-0.067910,0.661188,-0.748889,-0.044678
-0.063166,-0.300056,0.062380,0.979558,0.052697,-0.194135
-0.668095,0.442718,0.589243,0.842690,-0.257951,0.472583
-0.128374,0.691948,0.623191,0.088360,0.964053,0.250588
0.007889,-0.268761,0.560898,-0.677826,0.612000,-0.407441
-0.206259,-0.840777,0.674350,0.075844,0.756491,-0.649592
0.570089,-0.203426,0.686253,0.700530,-0.705261,-0.108925
-0.384387,0.991205,0.303989,-0.261852,-0.961029,-0.088637
-0.639149,0.120618,0.572033,0.957535,-0.282063,-0.059730
0.482765,0.426727,0.385352,-0.559306,0.518987,0.646397
0.437799,0.808797,0.272371,-0.501431,-0.749954,-0.431434
-0.058321,0.750885,0.649676,0.625505,-0.627868,0.463168
0.371719,-0.416105,0.689006,0.969736,0.199311,-0.141021
-0.252969,0.307024,0.535158,0.868675,0.166855,-0.466437
0.452204,0.490121,0.608536,0.263477,0.693328,-0.670728
0.642508,-0.643404,-0.053229,0.736427,-0.628884,0.249360
0.829203,-0.341404,0.281993,0.990637,0.102910,0.089713
0.014598,-0.266248,-0.991445,0.212407,-0.036478,0.976500
-0.299671,0.016905,-0.022033,-0.236950,0.289804,0.927291
0.321157,-0.838607,0.038747,-0.720807,0.692645,-0.026086
0.374820,0.835407,0.341732,0.021814,0.595449,0.803097
0.579528,0.785038,-0.202514,0.796193,0.592478,0.122668
-0.362894,0.102227,0.729526,-0.170386,-0.814913,0.553972
-0.815784,-0.317875,0.492654,0.965942,-0.131656,0.222762
-0.082916,0.662593,0.469318,-0.052852,-0.623868,0.779741
0.475184,0.176356,0.413200,-0.328464,0.497135,0.803099
0.287374,-0.111936,0.757647,0.300841,-0.951842,0.059084
-0.095584,-0.788691,-0.021934,0.187381,0.978517,-0.085980
0.428853,-0.025471,0.137667,-0.452079,0.820146,-0.350694
-0.416063,-0.170532,0.862742,-0.081425,0.924277,0.372936
-0.828953,0.614849,0.653668,0.911496,-0.066708,0.405864
0.539900,-0.200913,-0.156712,0.701142,-0.535392,0.470910
0.036827,0.293546,0.655603,-0.800233,-0.267481,0.536732
-0.184773,-0.111822,-0.094965,-0.381459,0.795677,-0.470517
0.002051,-0.238493,0.874546,-0.341228,0.891782,0.297133
-0.505745,-0.414505,0.627506,0.839161,-0.460860,0.288819
-0.470718,-0.586294,0.333846,0.821039,-0.563760,-0.089837
0.408982,0.173386,-0.127078,-0.418905,0.559524,0.715158
0.962737,-0.455168,0.383665,-0.530512,-0.056736,0.845777
-0.111111,-0.151113,-0.997595,-0.415805,-0.083791,-0.905586
-0.028510,-0.471387,-0.766153,0.959207,0.209099,0.190263
0.030368,-0.238835,0.850492,0.829320,-0.370614,-0.418178
-0.780507,-0.670018,-0.383343,0.831495,-0.535726,0.147015
-0.679150,-0.495146,0.547631,0.451904,0.651946,0.608892
0.198064,0.368247,0.708844,-0.032806,0.978415,-0.204030
0.115584,-0.464078,0.691783,0.931735,-0.216738,-0.291367
0.553440,0.014848,0.754126,0.923967,0.041356,-0.380229
-0.760264,-0.041575,0.761069,0.797711,-0.598749,0.071810
-0.195455,-0.300743,0.269346,-0.426658,0.750997,0.503950
-0.640150,-0.775214,0.344484,0.369481,-0.575957,-0.729217
-0.267746,-0.254597,-0.344187,0.965951,0.086103,0.243978
-0.667224,-0.346887,0.583167,-0.689716,0.667354,-0.280946
-0.249861,0.121531,0.264560,0.654127,0.539230,-0.530423
-0.073969,-0.674586,0.608164,0.741095,-0.373883,0.557664
-0.626109,-0.574643,0.368390,-0.176182,0.313732,0.933023
0.336063,0.413135,0.551500,-0.587476,-0.782731,0.205435
-0.039314,-0.421245,0.725856,0.970864,0.152040,-0.185220
-0.026395,-0.594632,0.463441,-0.641484,-0.689524,-0.336236
0.537913,0.675614,0.406852,-0.207995,0.764616,0.610001
0.342401,-0.451628,0.444123,-0.543547,-0.337496,0.768540
0.309732,0.029582,0.678417,-0.707077,-0.706610,0.027301
-0.371840,0.262365,0.340021,-0.160040,-0.986236,0.041549
-0.213712,-0.019988,0.928085,0.013560,0.998992,0.042800
-0.320415,-0.296517,0.478494,-0.328793,0.271617,-0.904500
-0.071733,0.203313,-0.343021,0.885396,-0.149145,-0.440260
-0.564130,0.591549,0.304882,-0.194302,-0.039550,0.980144
0.428853,0.062022,0.703810,-0.458154,-0.814832,0.355167
0.710697,0.675042,0.335780,-0.684732,-0.594792,-0.421145
-0.541022,0.385380,0.132013,-0.327065,0.621671,-0.711726
-0.625237,-0.265791,0.620042,-0.367418,0.920204,-0.135015
-0.077199,-0.707824,0.173030,0.981325,0.103474,0.162155
0.410718,-0.785037,0.627060,0.131864,0.304514,0.943336
-0.112233,0.090806,0.446777,-0.175359,0.793851,0.582280
-0.168746,-0.362193,-0.436610,0.888311,-0.443750,-0.118275
-0.833547,-0.346087,0.523825,0.598500,-0.786233,-0.153739
-0.176327,0.108167,0.705596,0.859573,-0.020888,0.510586
0.349232,-0.389948,0.437031,0.781943,0.506064,-0.363958
0.044280,0.298573,0.258236,0.699918,-0.016565,-0.714031
-0.278056,0.182183,0.418085,0.042015,0.974410,0.220815
-0.203780,-0.716277,-0.672763,-0.083872,0.995935,0.032849
-0.658285,-0.509195,-0.089757,0.649160,-0.430931,-0.626810
-0.341408,-0.351570,0.765657,-0.094225,0.830616,0.548816
0.092976,-0.362421,-0.159688,0.092888,0.962257,-0.255799
-0.224394,-0.271273,-0.481965,0.960117,0.046061,-0.275778
0.606981,-0.393718,0.041103,-0.574657,0.016411,-0.818230
0.330975,-0.806282,-0.001351,-0.170982,0.848692,-0.500487
