-0.266221,0.890565,0.158365,0.830761,-0.348073,-0.434373
0.022456,-0.829416,-0.203983,0.933763,0.063097,-0.352287
0.062623,0.113483,0.855010,-0.254645,-0.523868,-0.812846
0.020339,0.126287,0.767364,0.736164,0.671198,0.086923
0.196343,-0.223812,-0.692530,-0.010716,0.978020,0.208233
0.638449,-0.076194,0.350764,0.961060,0.199151,-0.191580
-0.287345,0.543246,0.121079,-0.278879,-0.600265,0.749606
-0.257969,0.124415,0.617870,-0.739530,0.591823,-0.320689
-0.107485,-0.262257,0.783109,-0.582564,-0.567162,-0.582191
0.312747,-0.366367,0.752199,-0.111056,-0.541026,0.833641
-0.403430,-0.393956,-0.246116,0.303295,-0.594268,0.744887
0.001329,0.239844,0.838459,0.768760,-0.639529,-0.003220
-0.461848,-0.041824,0.252914,0.484610,0.867709,0.110605
0.386225,0.219234,0.414299,0.997260,0.002550,0.073937
0.343614,-0.094454,0.745177,0.412971,-0.866343,0.280902
-0.252335,-0.167738,0.833185,-0.679862,-0.599465,0.422409
-0.189758,0.074167,0.239802,-0.676537,0.273898,0.683577
0.510058,-0.339607,-0.958632,-0.341735,-0.290633,-0.893728
0.162129,0.620502,0.609764,0.322200,0.921503,-0.216837
-0.051253,-0.024628,0.596759,-0.653030,-0.301124,-0.694893
0.063977,-0.000106,0.968893,0.808871,0.581416,0.087657
-0.008385,-0.205388,0.691838,0.944967,-0.041196,0.324562
0.046297,-0.033687,0.452918,-0.269890,0.948830,-0.163955
-0.387344,-0.463183,0.264968,0.125539,0.991240,0.041026
0.046760,-0.094949,0.853355,-0.646451,0.762881,0.010713
0.183326,0.132669,0.586291,-0.354334,0.915594,0.190090
0.312581,-0.187115,0.789739,-0.285964,0.576331,0.765550
0.168057,-0.455387,0.650085,0.256858,0.960721,-0.105065
0.053460,-0.160867,0.679397,0.995054,-0.065247,0.074907
0.007108,0.218840,0.299044,0.922631,0.341655,-0.178953
-0.140412,-0.111876,0.811372,0.942396,0.135959,0.305623
0.383124,-0.044041,0.866627,0.344457,0.850000,0.398559
0.159515,-0.036584,-0.355759,0.945575,-0.260028,-0.195638
-0.141811,-0.164250,0.061497,-0.886110,0.277723,-0.371051
0.214942,-0.327677,0.674691,0.503651,0.859521,0.086940
0.677596,0.252003,0.360709,-0.178810,0.798211,-0.575226
0.220087,-0.091963,0.622465,0.816921,0.568798,-0.095438
-0.311488,-0.051978,0.221849,0.910615,0.130463,0.392123
0.493991,-0.200569,0.740961,-0.081207,0.928608,0.362068
-0.526339,0.186041,0.345458,-0.579087,-0.790145,-0.200820
-0.494271,-0.141163,0.272465,-0.468791,0.865687,-0.175558
0.030107,0.074038,0.735236,0.612631,0.602019,-0.512110
0.451986,-0.128221,0.654223,-0.371730,0.335864,0.865455
-0.109357,-0.406133,0.583622,0.945297,0.326146,0.006517
0.334076,0.027301,0.842795,-0.550229,-0.699672,-0.455748
-0.291725,-0.490836,-0.938214,0.936866,-0.312560,0.156808
-0.004942,-0.199400,0.104270,0.058123,0.738268,0.671998
0.578483,-0.189628,-0.980280,-0.245071,0.205146,0.947552
-0.291634,-0.439790,0.726641,0.828086,0.287770,0.481104
-0.639169,-0.286285,0.158476,0.092952,-0.763893,0.638614
0.136856,-0.245765,0.655611,-0.205243,-0.973858,0.097343
0.046294,0.550869,0.567606,-0.090186,-0.354675,0.930630
-0.065316,-0.098857,0.905718,-0.105898,-0.110671,0.988199
0.293235,-0.203292,0.494921,-0.570156,0.769946,0.286541
-0.614023,-0.042717,0.510255,-0.268106,0.951792,0.149036
0.319679,-0.221161,0.652650,-0.440859,0.625244,-0.643982
0.263836,0.226789,0.769903,-0.514694,0.751268,0.413142
-0.456606,0.320054,0.454790,-0.579231,0.033597,-0.814471
0.283212,-0.529319,-0.944039,-0.743668,-0.522231,0.417412
0.221010,-0.146376,-0.127735,0.714988,0.687604,0.126462
0.043931,-0.083681,-0.222223,0.145941,0.989198,0.013750
0.006703,0.030006,0.906004,-0.073764,0.644378,0.761142
0.194371,0.011874,0.847592,0.775779,0.567241,0.276414
0.633085,0.232719,0.389243,-0.867466,0.260551,-0.423812
0.256417,-0.605643,0.371913,-0.284260,0.791740,0.540689
0.479189,-0.493335,0.172619,0.730450,0.682964,-0.001615
0.676969,-0.042975,0.367601,0.937105,0.141526,-0.319069
0.161290,0.016853,0.007722,0.767686,-0.604710,0.212095
-0.241551,-0.029479,-0.006031,0.226927,-0.609712,0.759444
-0.307321,0.210752,0.293384,-0.487910,0.649942,0.582683
0.385891,0.283258,0.347535,0.158855,0.949766,0.269647
0.134217,-0.366253,0.530281,-0.473479,-0.428570,-0.769510
-0.000439,0.018305,0.732436,-0.186237,0.569935,0.800306
-0.060644,0.037723,0.937672,0.474065,-0.874633,-0.101391
0.014963,0.021872,0.374273,0.504559,0.851124,-0.144943
0.057966,-0.314049,0.686003,-0.239101,0.970994,0.001060
0.550804,0.472403,0.388165,-0.604204,-0.582793,0.543406
-0.228283,0.087659,0.689297,0.768311,0.584573,-0.260715
-0.109280,0.500844,0.621893,0.833330,0.501891,0.231659
0.262759,-0.198976,-0.954753,0.454738,-0.859472,-0.233497
-0.125782,-0.040311,0.330447,0.331764,0.805269,-0.491400
0.008578,-0.568321,0.770814,0.878122,-0.170316,0.447096
0.050226,-0.096671,0.869584,0.567854,0.394801,-0.722270
0.217704,-0.060517,0.051731,-0.216412,-0.902273,0.372919
-0.045837,-0.018482,0.799742,-0.478435,-0.868808,-0.127565
0.018247,0.022621,0.483582,0.331420,0.572311,-0.750081
0.134843,-0.568351,-0.118538,0.805241,-0.143910,0.575219
-0.027181,0.025893,0.883132,-0.231602,0.654002,0.720167
0.196017,0.063498,0.667189,-0.026035,0.408377,0.912442
0.088896,-0.089676,0.222014,0.219918,0.071685,0.972881
0.234070,0.139575,0.702758,0.291165,-0.919851,-0.262865
0.116886,-0.068545,0.630903,-0.305236,-0.807406,0.504903
0.583362,-0.278715,-0.977084,-0.356561,0.739488,0.570983
-0.680520,-0.455014,0.076283,-0.033107,0.628905,0.776777
0.247522,-0.182052,-0.302033,0.060097,-0.992539,0.106091
-0.014162,0.126461,0.687568,0.873721,0.486052,-0.019085
-0.190446,-0.564712,-0.932454,0.540526,0.685711,-0.487475
-0.144484,-0.017416,0.700639,0.748399,0.598126,-0.286607
-0.594280,-0.423273,0.043942,0.695140,-0.694759,-0.184635
-0.242021,-0.306904,0.836692,-0.679411,-0.089458,-0.728284
0.475832,-0.331816,0.714799,-0.470844,0.109644,-0.875377
-0.036051,-0.629962,0.654956,-0.271336,-0.961828,0.035540
0.419013,-0.406818,-0.112786,0.297826,-0.081932,0.951098
-0.023369,-0.087558,0.543363,0.157040,-0.268470,0.950401
-0.008698,-0.176544,0.701349,-0.304168,0.605201,0.735672
-0.020600,-0.798725,0.357339,0.954580,-0.049598,0.293797
0.061484,-0.026887,0.308876,-0.040657,0.427014,0.903330
0.072879,-0.095984,0.445598,0.204296,-0.978879,0.007678
0.109784,-0.103334,0.709904,0.931663,0.172673,-0.319669
-0.285382,-0.067745,0.077361,0.809881,0.445128,0.382040
0.245443,0.057940,0.795397,-0.637716,-0.746834,0.188566
-0.398873,-0.192117,0.023589,0.044708,0.901063,0.431379
-0.317953,-0.291522,0.380958,0.219482,0.847258,0.483716
-0.362944,0.161323,-0.004005,0.464135,0.603029,-0.648795
-0.009721,-0.101269,-0.051031,-0.078473,0.966705,-0.243564
-0.258923,0.088433,0.757616,0.189411,0.960278,0.204915
0.148157,-0.423515,0.563350,0.684859,0.672178,0.281328
0.098434,-0.007788,0.245081,-0.615024,-0.210148,-0.759989
-0.286388,-0.403464,-0.928015,-0.427960,-0.237825,0.871946
0.205091,0.355619,0.773757,0.049164,0.846137,0.530693
-0.602582,-0.042073,0.767581,-0.603319,0.679726,0.417108
0.002093,0.081383,0.728884,0.507379,0.861057,-0.033882
0.509591,-0.550636,0.182953,0.676494,0.320445,0.663077
0.033561,0.241717,-0.232038,-0.645925,0.268358,0.714678
0.248593,0.000862,0.568532,0.262542,-0.964353,-0.033087
-0.535985,-0.183416,-0.287910,0.022327,-0.660637,0.750374
0.051037,0.109698,0.692972,0.735725,0.644771,-0.207311
-0.151675,-0.317997,0.677474,0.815674,-0.577426,-0.035414
-0.723917,-0.414189,0.087511,-0.179237,0.031768,0.983293
0.071707,-0.780319,-0.180565,0.964367,0.183702,-0.190395
-0.083302,0.037016,0.763574,-0.182221,0.965159,0.187785
-0.498229,-0.275222,0.072159,0.746568,-0.647863,0.151362
-0.624435,-0.098064,0.488799,-0.405475,0.894901,-0.186394
-0.081736,0.177403,0.562658,0.163445,0.229387,0.959514
0.176072,-0.109743,0.629635,-0.475411,-0.645659,0.597585
-0.009281,-0.120884,0.745201,0.946334,0.026771,-0.322079
0.041888,0.463574,0.567942,0.220017,0.345691,0.912190
-0.555152,-0.204974,-0.020294,-0.197961,0.344943,0.917511
0.014453,-0.026778,0.622765,0.506058,-0.539741,0.672744
-0.348216,0.091583,0.582930,-0.426964,0.840424,0.333750
0.256559,-0.340495,-0.965368,0.278257,0.244234,0.928936
-0.263929,0.361118,0.119828,-0.129228,-0.575714,0.807375
0.273981,-0.457385,-0.949521,0.926750,0.264599,0.266685
-0.137004,0.056363,0.889465,0.969490,0.207947,-0.129796
0.227545,0.405591,0.073287,0.468799,-0.694198,-0.546183
0.268337,0.322688,0.343727,-0.114015,-0.990913,-0.071355
-0.136313,-0.150584,0.852131,-0.228445,0.937541,0.262356
0.216742,0.436044,-0.106751,0.993350,0.089787,-0.072067
-0.198580,-0.126962,0.234801,-0.265361,-0.711254,0.650923
-0.291882,-0.103999,0.679137,0.922171,0.167804,0.348486
-0.458532,-0.270005,0.281171,0.759383,0.080101,-0.645694
0.007944,0.249888,0.560916,0.301307,-0.298698,-0.905535
-0.217798,0.122570,0.857825,0.027841,0.995279,0.092971
-0.113723,-0.039889,-0.712230,0.878864,0.475703,-0.036112
0.400376,-0.019469,0.801492,-0.179925,-0.202353,0.962642
-0.530263,-0.033316,-0.246599,0.174240,-0.130861,-0.975969
0.191135,0.544994,0.416677,-0.640225,0.743096,-0.194729
0.282223,0.106826,0.855274,-0.732663,0.491469,-0.470811
-0.641237,-0.196622,-0.025273,-0.434955,0.899265,-0.046216
-0.472879,0.050129,0.043315,-0.759523,0.635987,0.136549
-0.522896,-0.339289,0.066569,0.843326,-0.416110,0.340078
-0.097563,-0.027972,0.723104,0.861337,-0.507475,0.023819
-0.129675,-0.021863,0.569494,0.795439,-0.600400,0.082438
0.491360,-0.112490,-0.636774,0.727746,-0.685673,-0.015416
0.034591,0.014874,0.039032,0.136448,-0.020463,0.990436
-0.253388,0.081159,0.554453,0.888576,0.359801,0.284564
-0.177473,-0.036362,0.399958,-0.630199,0.771245,0.089609
-0.233468,-0.459180,0.647863,0.991398,-0.092875,0.092218
0.066986,-0.164589,0.295874,0.750293,-0.328536,-0.573694
0.117494,-0.229261,-0.795015,0.329684,-0.894088,0.303175
-0.522663,-0.023081,0.036988,0.979412,-0.176319,0.098305
-0.222192,-0.428301,-0.932414,0.932132,0.341733,0.119783
-0.172224,-0.312925,0.646676,0.721208,-0.690107,0.060087
0.521491,0.359256,0.368059,-0.716392,0.344402,0.606770
0.264777,-0.252547,0.726859,-0.659840,0.615531,-0.430967
-0.042352,0.071991,0.643938,0.096193,-0.684451,0.722685
0.518510,-0.433285,-0.948573,0.661076,0.128667,-0.739205
0.226824,-0.536267,-0.019399,0.891305,0.304497,-0.335942
-0.379020,0.063567,0.748501,-0.701189,-0.423717,0.573410
0.059265,-0.001077,0.604297,0.976388,0.041030,0.212092
0.552669,-0.591615,-0.955712,-0.295936,0.603923,0.740067
-0.537978,0.103979,-0.010538,-0.248960,0.748266,0.614912
0.246965,-0.103663,-0.983996,0.088655,0.529996,0.843353
0.081568,-0.362411,0.722283,-0.104409,-0.497915,-0.860918
-0.042164,-0.238424,0.559150,-0.429901,0.702277,-0.567444
0.154617,0.068996,0.633219,0.025324,-0.961959,0.272018
-0.858707,-0.631672,0.076515,-0.090516,-0.717650,0.690497
0.107992,-0.228794,-0.691969,0.152634,-0.987099,-0.048352
-0.165434,-0.165855,0.845742,0.156903,-0.789059,0.593943
-0.454142,-0.189546,-0.028987,0.390436,0.911893,0.126536
-0.119938,-0.046624,0.245716,0.055216,0.220272,0.973874
0.068480,-0.023197,0.199517,0.882651,-0.352920,0.310443
-0.135651,0.346809,0.129556,0.741235,0.558831,-0.371857
-0.188147,-0.255504,0.840130,-0.721283,0.411632,-0.557054
-0.444348,-0.605007,-0.225943,-0.258608,0.496700,-0.828499
-0.497339,0.046310,0.695723,0.178857,-0.944157,-0.276725
0.073018,0.067524,0.742928,-0.554016,-0.361848,0.749755
-0.331816,-0.449197,-0.236402,0.676648,-0.270774,-0.684711
0.063220,0.706702,-0.075199,0.482559,0.257664,0.837106
0.136600,-0.163951,0.337223,0.922958,-0.143093,0.357313
0.141318,-0.044836,0.641484,-0.565313,-0.824876,0.001171
-0.172244,-0.167469,-0.250411,0.617898,-0.782031,-0.081425
0.114863,0.080572,0.863262,0.944339,0.036289,0.326965
-0.020033,0.141835,0.785571,0.651464,0.248908,-0.716687
0.023111,-0.025668,-0.090541,0.242549,0.874915,-0.419157
-0.300598,0.065312,-0.223032,-0.347853,0.703181,0.620109
-0.548469,-0.564419,-0.341576,-0.614441,0.786067,0.067532
-0.547012,-0.143627,0.128823,-0.652001,0.754132,0.078611
0.061180,-0.071696,-0.036704,0.260420,0.946988,-0.188134
-0.426441,0.137791,0.903513,-0.700816,-0.637382,-0.320316
-0.088234,0.031055,0.882249,0.466526,0.884505,-0.001923
-0.001065,0.043559,0.535979,0.437411,0.604823,0.665478
-0.398595,0.159692,0.370683,-0.087202,0.489279,0.867757
0.421330,-0.546065,-0.965725,0.203672,0.316942,-0.926318
-0.045716,-0.409589,-0.953201,-0.229726,0.443207,0.866483
-0.236540,-0.799340,0.382990,0.239639,0.433520,0.868697
-0.105115,0.103243,0.847260,0.004829,0.316375,0.948622
0.131367,-0.527402,-0.111004,-0.849437,0.307926,-0.428531
0.226439,-0.387478,0.021448,0.641753,-0.753154,-0.144611
0.089220,-0.113781,0.867307,0.433282,-0.901049,-0.019459
0.661721,0.284538,0.374412,0.153592,-0.772445,0.616228
0.475026,-0.672696,-0.956825,0.012836,-0.995733,0.091382
0.000848,-0.232767,0.649769,0.799411,0.585800,0.133340
-0.133592,-0.049189,0.020936,0.044098,0.467806,0.882730
0.376944,-0.074195,0.451588,-0.357003,0.843062,0.402237
0.166665,-0.150324,0.900009,0.868917,0.422079,0.258521
-0.024294,-0.004814,0.548041,0.168016,0.271927,0.947537
-0.010826,0.540830,0.325263,0.981568,-0.128771,-0.141217
-0.114861,-0.493715,0.323369,0.554865,0.797823,-0.235803
-0.177821,0.096488,-0.253254,0.620189,0.006339,0.784427
-0.158611,0.194604,0.346614,0.128425,-0.732029,0.669059
-0.162106,-0.126750,0.220637,0.356114,-0.475865,-0.804199
0.067854,-0.231496,-0.614638,-0.447969,-0.862810,0.234269
0.599338,-0.200755,0.471930,0.093338,0.947685,0.305255
-0.020042,0.023228,0.033520,-0.664041,-0.078062,-0.743610
-0.330868,-0.408018,0.291189,-0.107250,-0.651664,0.750887
0.668878,-0.454960,-0.942742,0.934998,0.255751,-0.245703
0.006080,0.529636,-0.007988,0.393245,-0.720667,-0.570962
-0.317571,-0.420854,0.868235,0.888715,-0.449106,-0.092138
0.048530,-0.305258,0.717169,-0.189355,0.372265,0.908605
-0.299886,0.038016,0.543956,0.954694,-0.283193,0.091441
0.172211,-0.209544,-0.969399,0.034575,0.337115,0.940828
-0.119223,-0.380365,-0.950538,0.428419,0.035112,-0.902898
0.089220,0.029004,0.722248,0.528036,0.820582,-0.218687
0.564058,0.280216,-0.019494,0.959071,0.054917,0.277789
0.294152,-0.097347,-0.376732,-0.270551,0.775155,-0.570909
-0.051612,0.020124,0.007809,-0.562513,-0.784726,0.260353
-0.099977,-0.339184,-0.950734,-0.137948,0.229568,0.963467
-0.094993,-0.164856,0.724893,0.043121,-0.459612,0.887072
0.347756,0.429871,0.553674,-0.708384,-0.647864,0.280116
0.073292,-0.547319,0.353309,0.635192,-0.229177,-0.737569
-0.506109,-0.496051,-0.314213,0.645430,0.057396,-0.761660
-0.307092,-0.794417,0.385039,-0.328743,0.637911,0.696418
-0.473585,0.085678,0.833127,-0.221058,-0.321054,0.920901
-0.507456,-0.069219,0.503447,0.092072,0.890701,0.445169
0.102482,0.067842,0.185831,0.947961,0.086929,0.306291
-0.336929,-0.392726,0.289799,-0.566767,-0.053762,0.822122
-0.267576,0.061691,0.840057,0.003134,-0.911898,0.410405
0.108666,0.359881,0.602657,0.820587,0.312715,0.478378
-0.138410,-0.382601,0.687390,0.821863,-0.090589,-0.562437
-0.061346,-0.665269,0.572393,-0.664046,0.417486,-0.620281
0.271307,-0.010157,0.393967,0.584385,0.015965,0.811320
-0.560020,-0.077210,0.607982,0.274416,-0.041019,0.960736
0.179492,-0.638243,-0.203201,0.941546,-0.032229,-0.335339
0.054753,-0.014806,0.583502,-0.661196,0.199648,0.723160
-0.601397,0.030747,0.772499,0.820826,-0.532852,0.205699
0.369051,-0.087683,0.729793,-0.176327,-0.875265,0.450355
-0.492705,-0.014299,0.767697,-0.609299,0.786340,0.102097
0.194119,0.283077,0.823189,-0.443458,-0.853825,0.272630
-0.571018,0.616225,0.330128,-0.772406,0.443137,-0.454992
0.540032,0.296593,0.395705,-0.487259,-0.591529,-0.642396
-0.428393,-0.121423,0.042081,-0.718437,-0.102794,0.687955
0.643982,-0.071379,-0.976155,-0.355651,-0.021303,0.934376
0.107043,0.057548,0.808542,0.825026,-0.528151,-0.200969
-0.092942,0.370184,0.022328,0.983941,0.173860,0.040408
0.141785,0.580869,0.596063,0.800732,0.418628,-0.428460
0.030676,0.430343,0.604274,-0.230910,-0.886962,-0.399974
-0.404935,-0.013258,0.590390,0.927621,0.307756,0.211672
-0.071359,-0.468642,0.680542,-0.461818,-0.860873,0.213595
-0.494971,0.326740,0.444911,-0.542348,0.548856,-0.636095
-0.377454,-0.014904,0.775439,-0.031059,0.068162,0.997191
-0.133663,0.014937,0.529739,0.833861,0.126124,-0.537371
0.276770,0.038804,0.748959,-0.566955,-0.571282,-0.593464
-0.394075,-0.624953,-0.234562,-0.704243,0.709041,-0.036096
-0.147576,-0.542168,-0.914893,0.320146,-0.944607,-0.072271
-0.001679,-0.203996,0.567436,-0.181582,0.321330,0.929395
0.100464,-0.011720,0.514482,0.143876,0.753099,-0.641982
-0.530864,-0.007191,0.666922,0.507761,-0.793768,0.334829
-0.207036,-0.039579,0.561014,0.436509,0.776367,-0.454658
0.403472,-0.020115,0.823276,0.642519,0.749261,-0.160556
0.406161,-0.089904,0.887526,-0.616134,-0.785042,0.063935
0.090377,0.323446,-0.022071,0.892747,0.424093,0.152147
-0.435483,0.196549,0.690675,0.140752,-0.968472,-0.205550
0.517493,0.204985,0.346860,0.736750,0.301613,0.605169
-0.489558,-0.175649,0.561226,0.484800,0.868851,0.100336
0.132800,-0.157692,-0.107235,0.438295,-0.845697,0.304457
-0.213702,-0.475867,-0.948067,-0.817417,0.029869,-0.575272
0.439787,-0.311559,-0.963062,0.206663,0.692141,0.691543
-0.074389,-0.064709,0.636302,0.253891,0.807871,-0.531868
0.066761,0.051538,0.534148,-0.435629,-0.854177,-0.283917
-0.374461,0.432214,-0.618660,0.910292,-0.098968,0.401962
-0.429276,-0.352149,0.656909,-0.624131,0.372081,0.687034
-0.228275,-0.042095,0.324151,-0.147170,-0.700195,0.698619
-0.196866,-0.574553,0.614512,-0.720433,-0.579204,-0.381442
-0.067685,0.041839,0.484746,0.316258,0.514473,-0.797056
0.203290,0.069001,0.606278,-0.346081,-0.770907,0.534724
-0.079701,-0.190675,0.743412,-0.550486,0.833677,0.044134
0.532122,-0.667340,-0.964104,-0.138029,0.355486,0.924434
0.139225,-0.735337,-0.065613,0.900608,0.248684,-0.356456
-0.591712,-0.316429,0.612283,-0.668665,0.518513,-0.532946
0.024127,-0.362580,0.739257,-0.204805,-0.046767,0.977685
0.242619,-0.161226,-0.553054,0.689327,-0.457849,0.561429
-0.505529,-0.281996,0.149780,-0.499675,0.801997,-0.327300
-0.085265,-0.698418,0.316423,-0.390353,0.431280,-0.813402
0.537069,-0.372635,-0.963164,0.210916,-0.058843,0.975732
0.592270,-0.165218,0.753329,-0.053663,0.916945,0.395389
0.178521,-0.233633,0.485485,-0.253352,0.959050,0.126634
-0.524048,-0.075164,0.827362,0.187075,-0.980747,0.056026
0.344733,-0.614695,-0.952121,-0.010664,-0.226007,0.974067
0.028443,-0.005384,0.830106,0.662861,0.627862,-0.407928
-0.043893,0.176366,0.571866,0.275228,-0.341676,-0.898614
-0.512451,0.097994,0.413837,-0.355261,0.930658,0.087555
0.071851,-0.313927,0.560666,-0.324072,0.443099,-0.835847
-0.111615,-0.115557,-0.024294,-0.041908,0.975681,-0.215153
0.771491,0.157517,0.331922,0.269356,0.962416,0.034689
-0.033179,-0.134256,-0.288414,-0.309641,0.905048,-0.291566
0.490580,-0.612281,-0.094338,-0.030881,0.258282,0.965576
-0.315350,-0.090836,-0.070636,0.246430,-0.935560,-0.252981
0.205973,-0.079390,0.498497,0.817063,-0.542056,0.196426
-0.715677,-0.265257,-0.001564,0.463576,0.691336,0.554213
0.207154,0.123455,0.574046,0.899375,-0.281947,0.334111
0.171444,0.099277,0.566302,-0.473915,0.425925,-0.770709
-0.310949,-0.444393,0.752043,0.960392,-0.188035,-0.205647
0.219808,-0.073654,0.843153,0.959358,-0.281733,-0.016082
0.047288,-0.147096,0.853726,-0.335400,0.941922,0.017015
0.420694,-0.542926,0.001077,0.923393,-0.221296,-0.313645
-0.384629,-0.058688,0.609163,0.847892,-0.517670,-0.114444
-0.398038,-0.247609,-0.027124,0.496426,-0.857493,-0.135154
0.324698,0.087542,0.471226,0.731634,0.560871,-0.387474
-0.071583,-0.300705,0.771598,0.945560,-0.106943,0.307376
0.003878,-0.361574,0.721473,-0.216647,0.851663,0.477215
0.201628,-0.031113,0.714295,-0.429580,-0.873680,-0.228352
-0.455820,0.003448,-0.547901,0.556120,0.670942,0.490476
0.505061,-0.144632,0.783819,-0.587460,-0.797231,-0.138972
-0.096662,-0.063715,0.305782,0.810241,-0.535773,0.237607
0.185012,0.826453,0.562160,0.838966,0.138976,0.526138
0.039073,-0.129806,0.496041,0.281533,-0.131423,0.950509
0.268414,0.435520,0.069082,-0.480943,0.772218,0.415177
-0.490176,-0.196178,-0.034100,-0.902224,0.132488,-0.410412
0.055983,-0.122535,0.687728,-0.518210,0.495510,-0.697086
-0.110361,-0.635029,-0.311618,0.466939,0.441890,0.765964
0.649003,-0.557520,-0.947552,-0.041639,-0.032988,0.998588
0.104347,-0.643897,0.323299,-0.727196,0.561382,0.395014
0.588160,-0.063978,0.011997,0.267845,-0.951061,-0.154081
0.170493,0.143767,0.494869,0.697032,0.659364,-0.281755
0.013116,0.030625,0.782528,-0.347824,0.741735,-0.573452
-0.923372,-0.554981,0.074592,-0.141379,-0.384743,0.912132
-0.546179,0.193444,0.606049,-0.573791,-0.813170,-0.097558
0.029996,-0.064112,0.343997,0.159852,-0.267875,0.950100
0.027063,-0.167723,-0.482057,0.029251,-0.997840,0.058818
-0.313094,-0.014858,0.235320,-0.553499,0.826756,0.100568
0.294389,-0.502107,-0.938101,-0.058780,0.977721,0.201509
0.042945,-0.696355,-0.969070,-0.168780,0.229374,-0.958593
-0.380724,-0.143164,0.597376,0.847404,-0.501627,0.174002
-0.240057,0.229942,0.363645,0.078413,-0.834554,0.545318
0.115120,0.057121,0.194703,0.963017,0.210647,0.168007
0.076737,-0.085879,-0.945112,-0.366286,-0.161908,-0.916308
0.279999,0.236659,0.546707,0.936580,-0.170479,0.306194
0.034789,-0.287314,0.602647,0.568423,-0.062162,-0.820385
-0.376043,0.034316,0.499981,-0.504441,0.235375,0.830746
0.358804,-0.309875,-0.950861,-0.404735,0.200478,-0.892187
0.576317,-0.062852,0.751566,0.536507,0.828428,0.160832
-0.007608,-0.053257,0.869443,0.269468,0.434380,-0.859477
0.123163,-0.609524,-0.955346,0.160926,0.386054,0.908331
0.071326,0.001417,0.286640,0.197827,0.891626,-0.407269
0.167611,-0.299741,0.636578,0.127574,-0.785299,0.605830
-0.515601,0.006947,-0.253766,0.354538,0.466144,-0.810563
0.005542,-0.223405,0.233818,0.612236,0.387269,0.689341
0.536794,-0.357722,0.672583,0.929643,0.367751,-0.022878
0.939110,-0.120094,-0.033546,0.262575,0.963320,0.055403
-0.014031,-0.271325,0.649806,-0.768833,0.427941,-0.475145
0.207159,-0.158309,0.502862,-0.644152,0.217867,-0.733214
0.109910,-0.042206,0.029908,0.033224,-0.251967,0.967165
0.164489,0.304162,0.573510,-0.737206,-0.592649,0.324491
0.137133,0.512382,0.572018,-0.516659,-0.330709,0.789744
-0.634377,-0.100704,0.542632,0.755628,-0.613818,0.228589
-0.406895,0.028898,0.656051,-0.378251,-0.774716,-0.506697
0.050966,-0.346586,0.526147,0.251635,0.741294,0.622224
0.076626,-0.439235,-0.058939,0.592987,0.057282,-0.803172
0.008065,0.093528,0.832611,0.526626,-0.074513,0.846825
0.502929,-0.008899,0.412401,-0.576095,-0.779245,-0.246763
0.037038,0.425352,0.594479,0.381303,-0.264475,0.885811
-0.599288,0.184173,0.548401,-0.046557,-0.995901,0.077547
-0.446715,-0.518419,0.603316,0.588126,0.790820,0.169448
0.080549,0.067376,0.154906,0.944229,-0.235136,0.230528
-0.046018,0.441913,0.607565,-0.467609,-0.869963,-0.156544
-0.334031,-0.096540,0.232025,0.783908,-0.606028,0.134972
0.563975,-0.314156,0.788365,0.981915,-0.001785,0.189312
-0.203478,-0.327724,0.835780,-0.747369,-0.027188,-0.663852
-0.114549,-0.096688,0.246327,-0.049407,-0.260052,0.964330
-0.550163,0.176037,0.613556,-0.622485,-0.739618,-0.255886
-0.492956,0.148801,0.427657,-0.446434,0.857290,-0.256419
-0.100419,-0.306587,0.538654,0.686273,0.645646,0.334920
-0.183896,-0.092225,0.571347,0.476049,0.078280,0.875928
-0.046762,0.118541,0.650099,0.882869,-0.331389,-0.332751
0.006521,-0.105697,0.482045,-0.340956,0.749283,0.567736
0.277697,-0.327245,-0.003911,0.861660,-0.043124,-0.505651
0.184116,-0.035319,0.731647,0.074979,-0.859387,0.505798
-0.541097,0.052450,0.619705,0.462189,-0.092715,-0.881921
-0.313670,-0.283167,0.841985,-0.675431,-0.201763,-0.709285
-0.052804,-0.105225,0.939792,-0.100504,-0.625145,0.774011
-0.095356,0.168662,0.283703,0.381384,-0.008902,-0.924374
-0.578570,-0.401575,0.131820,0.936027,-0.307396,0.171352
-0.108923,-0.143622,0.467160,0.490823,0.628647,-0.603238
0.106803,0.019358,0.819797,0.862663,0.233638,-0.448582
-0.573975,0.451467,0.299637,-0.942371,0.294710,0.158376
0.261203,-0.091325,0.451283,0.108898,0.660732,0.742681
-0.544304,0.062854,0.674480,0.976634,-0.088869,0.195676
-0.534226,0.506046,0.296965,-0.548494,0.469885,-0.691638
0.130516,0.317986,0.409796,-0.690626,0.082246,-0.718520
-0.000713,-0.467733,-0.901613,0.008763,0.678844,0.734230
-0.445385,-0.357711,0.049700,-0.009939,0.997463,-0.070489
-0.031415,0.520256,0.261863,0.896494,-0.035843,0.441603
0.145636,-0.380004,-0.956976,0.943038,0.201328,-0.264853
0.170280,-0.003086,0.835560,-0.782281,0.362590,0.506523
0.152936,0.345513,0.826844,0.049406,-0.488883,0.870949
-0.415650,-0.034615,0.017772,0.042563,-0.991639,0.121822
-0.035469,-0.124705,0.742183,0.995815,0.057702,-0.070872
-0.101990,-0.173698,0.648687,0.771210,0.408057,0.488595
-0.454933,0.336073,0.191261,-0.154451,-0.981570,0.112544
-0.611009,-0.469295,0.081750,-0.780476,0.624628,0.026403
-0.090715,-0.190871,0.703539,-0.586170,-0.027496,-0.809721
0.101885,-0.584354,0.758863,0.929510,-0.367128,-0.035056
0.577172,0.226746,0.426855,0.696081,-0.717853,-0.012575
0.017545,-0.174065,0.694809,-0.291024,0.510689,-0.809013
-0.035995,-0.133560,0.457885,-0.124842,0.944944,0.302483
0.473252,0.009795,0.813800,0.197314,0.836428,-0.511326
-0.023939,0.127471,0.804206,-0.580350,0.804519,0.126266
-0.038051,-0.337587,0.267488,0.023138,0.885962,0.463181
0.045376,-0.051541,0.315015,0.074978,0.865474,-0.495310
-0.169079,-0.418996,0.356458,0.202193,-0.252810,0.946153
0.607702,0.304030,0.420699,0.574255,-0.800965,0.169367
0.077577,-0.158963,-0.262280,0.178145,-0.334366,0.925453
0.240024,-0.179016,0.646361,-0.650793,0.176410,0.738477
-0.013092,0.105633,0.664708,0.942533,0.280470,0.181572
0.640216,-0.463578,-0.942202,-0.559830,-0.025526,0.828214
-0.118775,-0.536891,-0.940725,-0.583813,0.149920,-0.797926
0.285058,0.030130,0.371903,0.754712,-0.454012,0.473585
-0.161153,-0.343108,0.683208,0.744167,-0.630444,-0.220809
0.415499,0.237946,0.430025,-0.100220,0.977877,0.183609
-0.583115,-0.117362,0.259271,0.162966,0.668216,-0.725899
0.723117,0.144140,0.358967,-0.621749,0.301830,-0.722722
-0.094805,-0.136450,0.258397,-0.867814,0.181980,-0.462367
-0.438429,-0.178990,0.102333,0.347875,-0.153784,0.924842
0.007264,-0.070849,0.037722,0.303138,-0.590590,0.747871
0.372888,0.129322,0.774181,-0.123285,0.184670,0.975037
-0.280751,0.404568,0.479989,0.507245,0.817011,-0.274217
0.257576,-0.050322,0.486036,0.367083,0.910733,-0.189250
0.001898,-0.014278,0.301182,-0.238470,0.842639,0.482795
-0.086046,0.106745,0.702883,0.780090,0.508224,0.364922
0.063939,0.530345,-0.015123,-0.339926,0.907582,0.246465
-0.152774,0.277476,-0.479656,0.598970,0.797259,0.074921
-0.488147,-0.400577,-0.233690,-0.236833,0.636878,-0.733687
0.691040,0.263277,0.375138,-0.564169,0.787508,-0.248082
-0.117743,-0.368580,0.494127,0.385204,0.452532,-0.804259
0.306209,-0.566088,-0.000134,-0.827215,0.440593,0.348704
-0.492993,-0.074461,0.810732,0.429026,0.571015,-0.699914
-0.015044,0.317682,0.445622,-0.242308,0.963310,0.115415
-0.036747,0.190578,0.430040,0.233853,0.616674,-0.751682
-0.547165,0.091295,0.397974,0.992527,-0.083335,0.089138
-0.460963,0.622980,-0.039439,-0.146480,-0.868512,0.473530
-0.137729,0.884706,0.179811,0.607979,-0.359715,-0.707790
-0.367307,0.521710,0.138182,0.827045,0.521152,0.210704
0.240947,-0.012483,0.756243,0.178267,0.609214,0.772709
-0.327369,-0.241659,0.052804,0.820449,-0.567142,0.072205
0.023692,-0.073290,0.916689,-0.425300,-0.540250,0.726120
-0.411453,-0.013096,0.835770,-0.192756,0.684178,-0.703382
0.287189,0.539458,-0.054061,-0.105373,-0.946631,0.304610
-0.163293,-0.102348,0.530452,-0.489672,0.502338,0.712656
0.530431,-0.048316,0.732477,0.465093,0.769835,-0.437084
-0.020205,0.793782,0.265386,-0.073493,0.746894,0.660869
0.064225,0.004372,0.364703,0.544503,0.838552,-0.018638
-0.252051,-0.160337,-0.594361,0.235204,0.948062,-0.214146
0.126712,-0.015353,0.679919,0.403471,-0.910731,0.088203
0.184441,-0.094047,0.739179,0.910137,0.402791,0.097007
0.682103,-0.266154,0.057636,-0.399479,-0.033000,0.916148
-0.277364,-0.421204,-0.928905,0.771503,0.356966,-0.526649
-0.131981,0.250848,0.568419,0.780330,-0.323248,-0.535347
-0.489886,-0.381546,0.069927,-0.771440,0.375547,-0.513658
-0.507620,-0.391311,-0.312110,0.921852,-0.001533,-0.387540
0.063513,-0.091833,0.689877,0.415411,0.051591,0.908170
-0.120496,0.435530,0.030841,0.970279,0.108152,0.216478
-0.100865,-0.047247,0.818443,0.337796,-0.750660,-0.567805
-0.227602,0.252581,0.663289,-0.093694,0.905165,0.414605
-0.077260,0.177174,0.727924,0.957669,-0.237998,0.161950
-0.662336,-0.088009,-0.248430,0.948374,-0.221825,0.226672
-0.544281,-0.327591,0.372714,0.490445,-0.747749,-0.447589
-0.185768,0.766938,0.153321,0.963368,0.171982,-0.205775
0.021065,-0.429260,0.703032,0.791496,-0.589546,-0.161152
0.566555,0.130922,0.400890,0.813161,-0.136621,0.565776
0.206009,0.372533,0.769090,-0.077035,-0.863188,-0.498971
0.478153,-0.155180,-0.497146,0.357856,0.883798,-0.301397
0.008675,0.039581,0.991794,0.836136,0.522146,-0.168049
-0.012782,0.021978,0.885132,-0.539506,0.068249,0.839211
0.016882,-0.643725,-0.954377,0.064560,-0.441417,0.894977
0.204470,-0.729293,-0.024698,0.948646,-0.118913,0.293138
-0.444930,-0.314410,-0.332956,-0.426267,0.882135,-0.200334
0.490991,-0.100911,0.744475,0.163690,-0.190446,-0.967955
0.177392,-0.174218,0.117731,-0.551425,-0.305122,0.776422
-0.192005,0.036271,0.584472,0.883629,0.140723,-0.446538
0.308683,-0.413816,0.689020,-0.095520,0.819074,0.565680
0.027797,0.412234,0.636143,-0.451606,-0.378288,-0.808053
-0.285589,0.445570,0.147126,0.952147,0.148568,0.267101
-0.694846,-0.746030,-0.259868,0.843671,0.531492,-0.075729
0.086553,-0.135759,-0.379628,-0.353840,0.750835,-0.557712
-0.054191,-0.000469,0.331248,-0.462763,-0.504399,-0.728994
-0.268379,-0.338609,-0.238870,-0.574305,0.686951,0.445277
-0.138694,-0.354896,-0.198549,0.963788,0.149056,-0.221124
-0.489268,-0.060728,-0.211268,0.510888,-0.228777,-0.828646
0.046786,-0.661207,0.310589,-0.518658,0.854838,-0.015669
0.380638,-0.108006,0.876608,0.295799,0.916311,0.269959
0.405270,0.219766,0.412208,0.986774,0.159796,-0.027261
-0.003549,-0.100663,0.559517,-0.215815,-0.129674,0.967785
-0.409169,0.034500,-0.009115,0.310312,0.295496,-0.903542
0.131132,-0.115905,0.813618,0.002438,-0.989345,0.145572
0.542163,-0.364812,-0.957595,0.215265,0.262576,0.940593
0.636639,-0.278832,-0.975093,-0.683851,0.252291,0.684615
0.172398,-0.809187,-0.099376,0.997588,0.045779,0.052181
0.386699,-0.028989,-0.602209,-0.590106,0.771450,-0.237991
-0.147133,-0.131623,0.562884,0.832554,0.244355,0.497137
0.434388,-0.268118,-0.979849,-0.303821,-0.356240,-0.883621
0.254736,-0.216586,0.658558,-0.517584,0.586586,0.622915
-0.121802,-0.428589,-0.204747,0.820740,-0.051109,-0.569011
0.206544,0.077816,0.822713,-0.687411,0.544008,0.481168
-0.018642,-0.399714,0.543780,-0.481482,-0.507267,-0.714741
-0.219820,-0.585367,0.336728,0.422613,-0.289151,-0.858947
-0.459197,0.217685,0.828650,-0.818335,0.376508,0.434246
0.593345,0.453631,0.323023,0.816296,0.318924,-0.481609
0.585336,0.434485,0.392996,-0.592963,-0.676769,0.436323
-0.774605,-0.604622,0.090547,-0.462379,0.712098,-0.528320
0.188042,0.034354,0.466103,0.902176,-0.083161,0.423275
0.030382,0.077796,0.736894,0.569393,0.749227,-0.338307
-0.311373,-0.403304,0.738197,0.997955,0.063541,0.006962
-0.191432,-0.234504,0.792857,0.331092,0.840999,-0.427899
-0.444925,-0.386177,0.275107,0.686742,0.299097,-0.662516
-0.285711,-0.058993,0.585547,-0.170368,-0.980599,-0.096953
-0.113174,0.116163,0.531641,-0.252227,0.736698,0.627422
-0.100531,-0.570644,0.656767,0.639014,0.691003,-0.337899
0.238065,-0.101387,0.523646,-0.412724,0.784151,0.463429
0.116901,-0.089923,0.492495,-0.102378,0.758424,-0.643671
0.429437,-0.267897,0.693138,-0.401458,-0.673947,0.620183
0.225642,0.335185,0.758440,-0.571208,-0.605980,0.553633
-0.280245,-0.174311,0.139871,-0.233744,0.969495,-0.073782
-0.369223,0.057425,0.038416,-0.472924,0.767650,-0.432499
-0.055161,0.127416,0.390715,-0.728764,0.670616,-0.138480
0.009054,0.052641,0.386157,0.199707,-0.214619,0.956063
0.164317,0.005093,0.327186,-0.241177,-0.944439,0.223315
0.149306,0.011143,0.827506,-0.166697,-0.815804,0.553783
0.481919,0.296324,0.776075,0.058503,-0.986636,0.152076
0.471049,-0.336825,0.652098,0.870970,0.487998,-0.057175
-0.026843,0.076788,-0.503134,0.917235,0.131005,0.376188
-0.164363,-0.022211,0.199969,0.056976,-0.804935,0.590621
0.104534,-0.270213,-0.732760,-0.017981,-0.999268,0.033770
-0.650331,0.310121,0.418071,0.389216,-0.918197,-0.073659
0.581596,-0.292278,0.815258,0.895269,0.323274,0.306575
-0.316888,-0.259868,0.605097,-0.582206,0.427449,0.691610
-0.639282,0.006015,0.755673,-0.526728,-0.542409,-0.654485
-0.418231,-0.366297,0.035096,-0.001780,-0.998784,0.049277
-0.003695,-0.163497,-0.153799,0.702265,-0.648076,0.294654
0.195219,-0.453037,0.628897,0.080232,0.993112,-0.085391
-0.130587,-0.209984,0.741563,-0.262360,0.916743,0.301245
-0.069739,-0.138009,0.682336,0.002579,-0.972063,0.234707
0.463122,0.269521,0.401717,-0.631816,0.677381,-0.376782
-0.105646,0.315467,0.632775,0.907287,-0.322092,-0.270348
-0.216803,-0.363180,-0.220375,0.593771,-0.566238,-0.571673
0.713763,-0.199955,-0.958918,-0.477910,0.333558,0.812614
-0.216864,-0.149564,0.848661,-0.576994,0.630015,0.519768
-0.021819,0.111123,0.852472,0.928114,-0.127541,-0.349767
-0.673235,0.249652,0.423450,0.197043,0.974274,-0.109382
0.101600,-0.037217,0.815852,-0.550561,0.797173,-0.247785
0.141388,-0.457718,-0.040390,0.691847,-0.714459,0.104383
-0.557158,-0.136240,-0.047537,0.765213,0.158754,0.623896
0.020529,-0.162587,0.203852,0.971705,-0.074559,-0.224120
-0.104888,-0.028950,0.930099,-0.843126,0.442577,-0.305391
-0.524645,0.204154,0.585151,0.495166,0.751216,0.436446
0.158534,-0.041903,0.361188,-0.275338,-0.960948,0.027698
0.000368,0.001243,0.892945,0.816805,-0.568786,-0.096502
-0.080329,-0.180392,0.821484,0.839374,-0.532165,-0.110687
-0.545946,-0.676371,-0.218675,-0.580963,-0.463394,-0.669140
-0.037421,0.032501,0.948586,-0.051209,0.977219,0.205965
-0.521181,-0.103095,0.510745,0.082650,0.680645,0.727936
0.327863,-0.359014,0.580476,-0.671135,0.397315,0.625874
-0.007577,-0.158309,0.169029,0.983122,0.128289,-0.130431
-0.336016,-0.445500,-0.226085,-0.524528,0.628672,0.574144
0.120465,0.021428,0.598290,0.505307,0.334540,-0.795455
0.137281,0.145186,0.548069,-0.579453,0.542349,0.608352
-0.450817,-0.341401,0.111312,0.817576,-0.575821,-0.000444
0.308635,-0.521076,0.012633,0.891541,0.322051,-0.318494
0.029393,-0.143978,0.872161,0.246087,-0.965935,0.080071
-0.148140,0.007101,0.042696,-0.660562,0.354981,0.661548
0.112243,0.127338,0.653376,-0.457913,-0.009548,0.888946
-0.271708,-0.026724,0.644437,0.920215,-0.384498,-0.073248
-0.438907,-0.070205,-0.146465,0.407556,0.894061,-0.185882
-0.345647,0.006086,0.675421,0.197535,0.978297,-0.062574
-0.017195,-0.073438,0.646815,-0.736395,0.375558,0.562742
0.044405,0.062749,0.196632,0.096354,0.845974,0.524446
-0.000143,0.111812,-0.283831,0.966817,0.210815,0.144297
0.318112,0.091122,0.552663,0.927139,0.171081,0.333382
0.081895,-0.674836,0.343514,-0.737508,0.595504,0.318522
-0.261397,0.872329,0.171513,0.787688,-0.276836,-0.550372
0.052288,0.058933,0.739746,0.777089,0.531078,-0.337770
-0.576852,0.027526,0.014029,0.942223,0.324863,-0.081730
0.101741,-0.037663,0.508517,0.365988,0.748983,-0.552339
-0.656502,-0.205022,-0.024978,-0.415545,0.903061,-0.108644
-0.105650,-0.317480,-0.201184,0.539479,-0.783190,-0.309154
0.189140,0.415444,0.397388,0.840788,-0.168850,0.514359
0.325641,-0.196039,0.749848,0.041452,-0.999051,0.013385
-0.050661,0.175542,0.687379,0.951090,0.086936,-0.296429
-0.171146,-0.130499,0.279589,-0.060428,0.935053,-0.349321
0.181499,0.036336,0.824376,0.718211,-0.690787,0.083589
-0.098822,-0.042645,0.847723,0.760119,0.573625,0.305242
-0.042261,0.039715,0.376076,0.254093,0.902307,0.348250
0.371960,-0.013174,0.769447,-0.070960,-0.957368,0.280019
0.291866,-0.150213,0.494218,0.064183,-0.253637,0.965168
0.219095,0.033325,0.609525,-0.255151,-0.650306,0.715542
-0.294039,0.165931,0.691808,0.234111,0.715368,0.658362
0.067830,0.046931,0.847722,-0.417265,-0.889504,0.186207
-0.017228,-0.052643,0.198512,-0.683051,0.687050,-0.247797
0.531216,-0.204362,0.043721,0.330264,0.846075,0.418429
-0.118418,-0.640455,0.362967,0.837189,0.372679,0.400280
0.035960,0.202547,0.684642,0.145110,-0.794041,0.590289
-0.080375,0.124823,0.909960,0.886694,-0.043291,-0.460325
0.182447,-0.530280,-0.035511,-0.474458,-0.775088,-0.417287
0.118840,0.007698,0.899196,-0.382332,0.056263,0.922311
0.049696,-0.270433,0.544930,0.708854,0.668964,-0.223638
-0.153600,-0.119477,0.198078,-0.292418,-0.908151,0.299589
0.895376,-0.098978,-0.017648,-0.328644,-0.943029,-0.051856
0.056479,0.053721,0.912918,-0.171137,-0.846969,0.503345
-0.633627,0.157889,0.557454,0.271383,-0.946501,-0.174606
-0.195504,-0.518416,0.665530,0.755297,0.412008,-0.509682
-0.155022,0.249631,-0.126194,0.590289,0.798158,0.120429
-0.013106,0.034392,0.903561,0.498399,0.676473,0.542202
0.548501,0.515929,0.405819,-0.323866,-0.933572,-0.153472
0.029008,-0.208227,0.596150,0.527611,-0.071417,-0.846479
-0.059788,0.003757,0.900208,0.965766,0.169812,0.196112
0.561792,-0.203634,0.757958,0.163593,-0.898742,-0.406816
-0.538306,-0.199391,0.246613,0.879096,-0.242334,0.410444
-0.096022,-0.135150,0.786263,0.499500,-0.816381,0.289865
0.147824,-0.028461,0.875540,0.885113,-0.266358,0.381613
0.489090,-0.039419,-0.594808,-0.741139,0.631411,-0.228106
0.260693,0.058524,0.513268,-0.347452,0.144475,-0.926501
0.455847,-0.401635,0.683594,0.856848,0.353990,0.374837
0.155216,0.191533,0.836452,0.296221,-0.823900,-0.483158
-0.544358,-0.679485,-0.236367,0.087867,0.590453,0.802275
0.220144,0.157834,0.560226,0.837162,-0.546439,-0.023765
0.246837,-0.164667,0.470100,-0.485906,0.706305,0.514809
0.199631,-0.111430,-0.114225,0.493058,0.865555,0.087796
-0.083029,0.039613,0.947689,-0.214728,0.915560,0.340061
0.105766,-0.062778,0.099162,0.619020,0.601000,-0.505581
0.187009,-0.201316,0.525894,0.921617,-0.093855,-0.376581
0.012972,0.124714,0.603278,0.991581,-0.121595,0.044521
0.218900,0.058669,0.393698,0.010675,-0.847676,0.530408
0.387644,-0.087045,0.742295,-0.512169,0.146809,-0.846244
-0.109023,0.032865,0.653956,0.899558,0.053611,-0.433500
-0.095281,-0.096188,0.667909,0.826040,-0.271060,-0.494150
0.548120,0.256153,0.379542,-0.643884,-0.362089,-0.674022
0.623756,-0.075173,-0.964979,-0.641397,0.120492,0.757688
-0.073917,0.030626,0.949013,-0.175820,0.916745,0.358700
-0.031777,0.734626,0.561788,0.847804,0.047857,0.528146
0.189211,-0.145184,-0.303982,-0.034693,-0.997008,0.069083
0.122317,0.948811,0.209216,-0.583027,0.624633,0.519531
-0.089625,-0.031098,0.975382,0.805795,-0.480132,-0.346653
0.352846,0.183877,0.467669,0.688593,0.183490,0.701549
0.250473,0.448830,0.508054,0.891000,0.423436,0.163770
-0.096522,-0.828054,0.383512,0.337735,0.811638,0.476632
0.167092,-0.076152,0.115822,-0.574436,-0.237240,0.783416
0.109518,-0.015475,0.819596,-0.544710,0.817139,0.188610
-0.097266,0.331101,0.755897,0.998776,-0.024386,0.043031
-0.354597,-0.522245,-0.195980,-0.423456,0.893957,-0.146717
0.416027,0.031422,0.826617,0.609665,0.783622,0.119353
-0.135248,-0.470865,0.743176,-0.139660,-0.107263,-0.984373
0.380750,-0.649874,-0.960552,0.171668,0.248283,0.953355
0.216470,0.266808,0.790879,-0.099945,0.983060,-0.153633
0.679271,-0.446304,-0.936878,0.534448,0.368300,0.760736
0.080100,-0.062994,0.659572,-0.182877,-0.982781,0.026418
0.174206,0.003873,0.901568,0.856243,-0.168200,0.488423
0.625623,-0.592707,-0.954381,0.261993,-0.225461,-0.938364
-0.156680,-0.453034,0.329889,0.088159,0.861321,0.500355
-0.093025,-0.584581,-0.951656,0.052005,-0.723020,0.688866
0.003009,0.260351,0.821699,-0.539628,0.695948,-0.473770
0.153156,-0.184816,-0.718692,-0.393893,-0.832971,-0.388598
0.003370,-0.013781,0.868253,0.719012,-0.673130,0.172965
0.265890,-0.017643,-0.076200,0.681560,-0.047247,0.730235
0.425746,0.639344,0.402045,0.854493,0.135045,-0.501603
-0.260719,-0.532929,-0.906420,0.375062,0.571715,-0.729706
-0.129987,-0.334209,-0.955585,-0.665886,0.572576,0.478281
0.617994,-0.543025,-0.965471,-0.198671,-0.147528,0.968899
-0.339669,-0.209700,0.054403,0.717237,0.689137,-0.103256
0.429568,0.211196,0.418843,0.943735,0.313157,0.106286
-0.543339,0.110270,0.433589,-0.650127,0.758802,0.039417
-0.054231,0.020466,0.970526,-0.512922,0.858081,-0.024642
-0.132500,-0.183496,0.866608,0.906218,-0.033934,-0.421448
-0.038326,-0.022528,0.878080,0.928025,0.370341,0.040202
0.346176,0.786109,0.277316,0.016962,0.368874,0.929324
0.434522,0.602043,0.393735,0.856683,0.258433,-0.446439
-0.382198,0.202072,0.274373,-0.197239,0.637269,0.744974
-0.464017,0.335034,0.269916,0.037676,-0.425565,0.904143
-0.497480,0.105297,0.413919,-0.568424,0.822719,0.005338
-0.022602,-0.004263,0.823027,-0.383932,0.859424,0.337619
0.087997,0.044173,0.904423,-0.188860,-0.896724,-0.400272
0.695731,-0.472106,-0.944765,0.891009,-0.296007,0.344213
-0.005919,-0.035532,0.817133,0.032082,-0.638468,0.768980
-0.028226,0.048239,0.979769,-0.078427,-0.873755,0.480002
-0.380558,-0.221119,-0.304896,0.847472,-0.347579,-0.401224
0.167782,0.686332,0.270314,0.341476,-0.920750,0.188714
-0.085261,0.356159,-0.018369,0.857368,0.501152,0.117336
0.065991,0.084912,0.664044,0.400388,0.880330,-0.254381
-0.277825,-0.091723,0.217687,-0.073525,0.159822,0.984404
0.036719,0.006085,0.300729,0.736620,0.675622,0.030421
0.431396,0.544243,0.408026,0.954929,0.262828,-0.137957
0.989277,-0.452894,-0.055669,0.942895,-0.330252,0.043394
0.336988,-0.371922,0.676273,0.082973,-0.994079,-0.070165
-0.255258,-0.194076,0.821085,-0.488616,-0.868799,0.080269
-0.455550,-0.269254,-0.016901,-0.164525,0.826958,0.537655
-0.352855,-0.269800,0.050397,0.781929,-0.620595,0.058728
0.057640,-0.069670,0.340872,-0.273234,-0.184044,0.944177
-0.017611,-0.271365,0.516559,0.494143,0.867695,0.054114
0.178797,0.122537,0.665930,0.524549,0.726136,-0.444495
-0.104566,0.242156,-0.241204,0.359411,-0.314250,-0.878675
-0.407582,0.222410,0.805586,0.991581,0.119848,-0.049020
-0.140052,-0.107765,-0.022703,0.111856,-0.948267,0.297117
0.380618,-0.075498,0.733176,-0.111490,-0.690902,0.714300
-0.336406,-0.112453,-0.178696,-0.581625,-0.774580,-0.248471
-0.156888,-0.595194,0.338897,0.807237,0.586193,0.068885
0.366222,-0.475653,0.693722,0.176856,0.917380,0.356560
-0.118888,0.181772,0.617732,0.129588,-0.265206,0.955444
-0.105359,-0.003083,0.548710,-0.623863,0.682432,0.380896
0.054003,0.590252,0.481086,0.621399,0.759911,-0.190783
-0.212538,-0.484313,0.620211,0.404686,-0.909256,0.097381
0.334724,-0.130498,-0.481838,0.212443,0.958083,-0.192209
-0.149774,-0.168075,0.726745,0.930293,-0.359830,0.071251
0.282992,0.420127,0.561203,0.841562,0.170413,0.512575
0.283874,-0.385066,-0.885131,0.976163,-0.135931,0.169200
0.019208,0.034633,0.813105,0.338324,0.941029,0.000771
0.045827,-0.034636,0.206795,0.825024,-0.486261,0.287898
-0.119231,-0.483047,0.325757,0.153960,0.416745,0.895890
-0.190923,0.007724,0.966585,0.893582,0.015878,-0.448619
0.184652,0.353368,0.512693,-0.622994,0.399770,0.672356
0.063832,-0.598426,-0.118480,-0.439861,0.897509,0.031623
0.132404,-0.254948,0.687609,-0.487893,0.767568,0.415692
-0.112131,-0.115717,-0.192408,0.222195,0.663726,-0.714211
-0.143406,0.913303,0.169402,0.593013,-0.438225,-0.675496
-0.045250,-0.155222,0.234082,0.981953,0.144391,-0.122146
-0.158211,-0.063938,0.635455,0.867567,0.299120,-0.397310
0.427445,-0.546035,-0.923004,0.446161,0.757453,0.476661
0.106002,-0.041306,0.504027,0.714092,0.512235,-0.477166
0.040282,-0.557247,0.610592,0.335405,-0.908380,-0.249699
0.577420,-0.359657,-0.963860,0.087863,0.048105,0.994970
-0.244691,0.267545,0.233892,0.808363,0.372515,0.455831
0.491810,0.398783,0.315078,-0.832092,0.184297,0.523124
-0.616463,0.037383,0.280423,0.049011,-0.418533,0.906878
0.009226,0.064498,0.866991,0.675165,0.718329,0.167797
0.176707,-0.602326,-0.950297,0.081565,-0.214637,0.973282
-0.240952,-0.024080,0.574092,0.012465,0.999886,0.008488
0.043936,0.189104,0.794855,0.822692,-0.098829,-0.559831
-0.480800,-0.370603,0.370136,0.868610,-0.493129,0.048377
0.289534,0.012235,0.815348,0.144096,-0.382213,0.912770
0.908760,-0.136080,-0.054878,0.271936,0.942362,0.194949
0.201524,-0.885799,-0.036541,-0.663518,-0.007474,-0.748123
0.801921,-0.091661,0.013245,-0.043905,-0.998573,0.030418
-0.143892,-0.192568,0.726907,0.809236,-0.587230,0.017253
0.537246,0.259915,0.000228,0.143250,0.308335,0.940430
0.170898,0.085049,0.528084,0.822980,-0.181105,0.538428
0.185611,-0.858094,-0.081942,0.943593,0.244709,-0.223047
0.313953,-0.064685,0.244006,0.803478,-0.509834,0.307396
0.140795,-0.023377,0.332445,0.870118,0.146570,-0.470545
0.427302,-0.585384,-0.963923,-0.004499,-0.204949,0.978762
-0.118505,-0.153753,-0.483073,0.327734,0.498958,-0.802266
0.219906,0.516440,0.391611,-0.691461,0.202513,-0.693448
0.020934,-0.020484,-0.091355,-0.195330,-0.853345,0.483371
0.207575,0.316587,0.196354,0.849765,-0.339907,0.402943
-0.160140,-0.104766,0.829136,-0.691118,-0.676126,-0.255362
0.423097,0.261891,0.347488,0.141859,0.932458,0.332263
0.469768,-0.018149,0.407421,-0.122882,-0.991899,-0.032196
-0.357163,0.403914,0.130675,0.256926,-0.478543,0.839635
-0.032194,-0.293543,0.527999,0.316667,0.885403,0.340271
0.426342,-0.342271,0.757583,0.545229,-0.672089,-0.501020
0.007675,-0.206560,0.693223,0.970363,0.081618,-0.227452
-0.611272,-0.290770,-0.348989,-0.469614,0.457506,0.755084
0.611417,-0.047303,0.402661,0.647803,0.679558,0.344314
-0.221041,-0.348022,0.308428,-0.384050,0.101823,0.917681
-0.556231,0.228227,0.358739,-0.512760,-0.811931,-0.279008
0.024307,-0.042622,0.746194,0.449616,-0.238466,-0.860802
-0.377906,-0.279266,0.383987,0.088143,0.896481,0.434226
-0.481110,0.254414,0.260425,-0.546838,-0.399655,-0.735693
-0.231057,0.554706,0.176391,0.877047,-0.184247,0.443669
0.249766,-0.664724,-0.962680,-0.153419,0.277383,0.948431
0.319689,-0.470490,0.701174,0.369604,0.925015,-0.087983
0.389161,-0.580166,-0.958569,0.197432,-0.130926,0.971534
-0.035726,0.676638,0.294884,0.354743,0.308273,-0.882681
-0.403471,-0.297112,0.042592,-0.385558,0.488829,-0.782554
-0.271045,-0.309431,0.045148,-0.831030,0.338379,0.441462
0.243637,-0.135584,-0.966843,-0.085610,0.881176,0.464972
0.278865,0.054080,-0.216175,0.525067,-0.331903,0.783674
0.112457,0.157743,0.730360,-0.608820,0.763768,0.214470
-0.136103,-0.353894,0.278128,0.854054,-0.518603,0.040525
0.256442,-0.163895,-0.951902,-0.182933,-0.874126,-0.449932
0.082599,-0.022915,0.918107,0.681684,0.510314,-0.524297
-0.113934,-0.037274,0.958844,-0.010550,0.999627,0.025174
0.093825,-0.193451,0.008232,0.832291,0.520393,0.191005
0.056511,-0.050421,0.361110,-0.492939,-0.756196,0.430325
-0.200822,-0.113841,0.675600,0.139567,-0.549655,0.823651
0.040646,0.294430,0.764951,-0.053598,0.978694,-0.198204
-0.123553,0.030026,0.788719,-0.458617,-0.872014,-0.171061
0.376440,-0.471357,0.635375,-0.289680,0.953205,0.086523
-0.273758,-0.741507,0.370959,-0.130124,0.844510,0.519491
0.045240,-0.346231,0.546215,-0.237976,0.347029,0.907160
0.008377,-0.241924,0.766763,0.822085,-0.479446,0.307096
0.230741,-0.029684,0.707934,0.819595,0.570834,0.049118
-0.011720,-0.217712,0.653699,0.166206,-0.694400,-0.700132
0.146647,0.109658,0.793224,0.205579,0.965840,-0.157769
-0.113579,0.154010,0.443342,-0.811043,-0.161952,-0.562122
0.100637,0.206968,0.622076,0.489746,0.304577,-0.816934
-0.274114,0.017106,0.772662,-0.639891,0.751465,-0.160747
0.052352,0.070379,0.331385,-0.162266,-0.051423,0.985406
-0.291892,-0.246353,0.195151,0.409100,0.681079,0.607264
-0.527711,-0.241913,0.018742,0.932774,-0.270586,-0.238149
-0.431919,0.132702,0.905663,-0.700816,-0.637382,-0.320316
0.049501,0.022719,0.538058,-0.376418,-0.666292,-0.643712
-0.283106,0.108302,0.620403,-0.517515,-0.855559,0.014078
-0.203595,-0.311009,-0.226283,0.735518,-0.395378,-0.550172
0.023034,0.003866,0.974551,-0.355667,-0.819343,-0.449642
-0.227912,-0.692014,0.374903,0.273579,0.507291,0.817197
0.781088,-0.137623,0.000982,-0.352864,-0.433368,-0.829264
0.025300,0.108102,0.502439,-0.836813,0.444778,0.319243
0.585446,-0.603406,-0.943270,-0.054657,0.911855,0.406858
-0.553443,-0.515405,0.125675,0.952895,-0.290430,-0.087415
0.058317,-0.000923,0.594768,-0.663448,-0.288502,0.690365
0.034990,0.253214,0.460553,-0.629537,0.382165,0.676486
-0.004716,0.137722,0.699084,-0.773812,-0.018067,-0.633157
0.551643,0.409267,0.336164,0.860601,0.487120,0.148594
0.019225,-0.010335,0.991560,-0.656518,-0.688378,-0.308415
-0.183829,0.263631,0.124511,0.637361,0.683760,-0.355308
0.024875,-0.083837,0.751284,-0.492684,0.369049,0.788077
0.092677,0.412997,0.596466,0.819723,0.251290,0.514692
-0.119203,0.033743,0.642900,0.953434,-0.048759,-0.297634
-0.072241,-0.324548,0.574321,0.948720,0.037491,0.313888
-0.258205,-0.060855,0.556248,-0.039973,-0.695159,0.717744
