0.254336,0.287255,0.864046,-0.223745,0.242357,0.944034
0.286800,0.263469,0.868207,-0.135371,0.237095,-0.962009
0.223626,0.321779,0.903528,0.030444,0.303765,0.952261
0.200655,0.345433,0.924948,-0.522102,0.533465,-0.665451
0.190225,0.358087,0.942122,-0.359423,0.920383,0.153980
0.218586,0.337590,0.947200,0.766651,-0.445681,-0.462184
0.330283,0.245257,0.924698,0.656839,-0.708118,0.259097
0.340717,0.239946,0.935685,0.049027,0.890681,0.451977
0.371775,0.217302,0.940014,0.746435,0.489168,0.451165
0.377169,0.216670,0.952555,0.790020,-0.609558,0.065633
0.335323,0.256135,0.979440,0.374339,0.925926,-0.050306
0.370133,0.230079,0.982021,0.217778,0.975982,-0.005638
0.384901,0.221101,0.991343,-0.054467,0.995136,-0.082086
-0.219058,0.527196,0.665691,-0.389523,0.257483,-0.884293
-0.253517,0.561473,0.694075,0.270750,-0.655460,-0.705029
-0.292312,0.599549,0.723707,0.372691,-0.537818,0.756210
-0.077240,0.416397,0.660641,-0.606311,0.627182,-0.488906
0.079465,0.284344,0.619244,0.586944,0.281787,-0.759008
-0.087556,0.437519,0.710001,0.835390,-0.366344,-0.409774
-0.057314,0.415632,0.714829,0.908452,-0.076629,-0.410906
-0.122365,0.476351,0.753312,0.226323,-0.906627,0.356097
0.194678,0.205537,0.656702,0.964418,-0.144928,0.221122
0.155530,0.243489,0.685529,0.885595,-0.423785,0.190072
0.163148,0.240834,0.697960,-0.721354,0.678670,-0.138045
0.074775,0.321655,0.744267,0.373049,0.922247,-0.101466
0.213078,0.205923,0.710944,0.798404,0.522795,0.298725
0.163617,0.253101,0.743490,0.688569,-0.708868,-0.152902
0.172759,0.249179,0.755643,-0.280451,0.932646,0.226975
0.232067,0.202001,0.750371,0.857149,-0.503217,0.109853
0.232886,0.205035,0.764660,0.405164,-0.790625,-0.459079
0.252927,0.191880,0.772429,-0.702064,0.586437,0.403977
0.214719,0.228944,0.800397,0.861862,-0.124940,0.491512
0.156703,0.282823,0.834247,0.239099,0.969083,-0.060914
0.202529,0.247411,0.833914,0.279217,0.842311,-0.461031
0.249060,0.211358,0.833165,0.999299,0.031007,0.020956
0.079815,0.360989,0.904083,0.865848,0.236695,0.440774
0.179791,0.278778,0.885022,-0.243347,-0.936715,0.251690
0.184481,0.278400,0.897396,-0.296807,-0.873764,-0.385283
0.200655,0.268402,0.906497,0.243942,0.944024,0.222063
0.199951,0.272702,0.920536,-0.616203,0.773534,0.148120
0.205695,0.271691,0.933022,0.307305,0.877051,0.369249
0.279299,0.212246,0.923449,0.640372,-0.384547,0.664866
0.356187,0.150014,0.913017,0.993746,-0.075908,0.081891
0.382441,0.131293,0.918427,0.302121,0.855872,-0.419769
0.353021,0.160135,0.941567,0.935505,-0.352513,-0.023786
0.350328,0.166457,0.956717,-0.537304,0.527569,-0.658009
0.424283,0.106627,0.946867,0.625348,-0.124770,-0.770307
0.083449,0.237158,0.456848,-0.379494,-0.425138,0.821731
-0.218357,0.505317,0.586921,0.926420,0.189160,0.325521
-0.042080,0.360233,0.552599,0.143407,-0.907316,0.395236
0.040434,0.292566,0.538366,0.450817,0.269486,0.850965
-0.099041,0.418165,0.605510,-0.096469,-0.994859,-0.030820
0.006912,0.220970,0.445362,-0.209724,0.386130,0.898287
-0.365215,0.549963,0.602181,0.531134,0.705071,-0.469864
-0.437181,0.616750,0.644771,-0.661560,-0.689154,-0.295643
-0.352907,0.568306,0.707227,-0.417000,0.884873,0.207630
-0.305557,0.531241,0.704951,-0.302661,-0.592556,0.746508
-0.311416,0.540730,0.722709,0.026647,0.550383,-0.834487
0.036332,0.242856,0.611642,0.327105,-0.304199,0.894687
0.154711,0.144324,0.584951,0.088464,0.344640,-0.934557
0.155998,0.147613,0.600572,-0.406838,-0.649806,0.642055
-0.074193,0.351254,0.698653,0.779319,-0.604193,-0.166170
-0.120606,0.395398,0.730061,0.337630,-0.361658,0.869028
0.153419,0.162026,0.647906,-0.734879,-0.580501,-0.350673
0.234760,0.096127,0.635004,0.974756,0.169033,0.145874
0.267109,0.072094,0.638778,0.530133,0.784783,-0.321052
0.161975,0.167214,0.691217,0.949839,0.307795,0.055399
0.212376,0.127502,0.689164,0.972010,0.212825,-0.099505
0.150726,0.185179,0.726066,-0.541992,0.821619,0.176597
0.114275,0.220468,0.753285,-0.544069,0.834251,0.089524
0.185067,0.163547,0.743657,0.972582,-0.091090,0.213979
0.179559,0.172147,0.760720,0.938677,-0.073798,-0.336807
0.189638,0.167214,0.771791,-0.600558,0.763572,0.237248
0.194442,0.167214,0.785275,0.606898,-0.688365,-0.397275
0.151077,0.208826,0.814936,-0.463366,0.354775,-0.812051
0.184713,0.183913,0.818543,0.783376,-0.433211,0.445702
0.241678,0.138503,0.813715,0.570053,-0.144272,0.808842
0.125058,0.242856,0.867042,0.605315,0.571141,-0.554430
0.185536,0.194536,0.861576,-0.168956,0.760097,-0.627460
0.080284,0.289022,0.910464,0.909994,0.148491,0.387119
0.043950,0.324188,0.936823,0.479793,-0.482645,0.732702
0.142871,0.242856,0.918761,-0.320962,0.657472,0.681699
0.193036,0.203769,0.916652,0.620030,-0.358513,-0.697876
0.190107,0.209845,0.931385,0.734688,-0.028974,0.677786
0.227846,0.181002,0.932911,0.256364,0.492569,-0.831657
0.271566,0.147358,0.933050,0.916963,-0.064703,0.393691
0.365447,0.070582,0.916707,0.884476,0.079496,-0.459764
0.532700,-0.068682,0.877835,-0.327283,-0.925510,0.190569
0.596457,-0.119527,0.872036,0.938725,0.313181,-0.143920
0.615565,-0.131802,0.880582,0.048155,0.875240,0.481286
-0.338256,0.462563,0.704729,-0.592505,0.755291,-0.280130
-0.115448,0.273088,0.639333,0.359472,-0.920312,0.154290
0.012774,0.166203,0.608812,-0.322971,0.247990,-0.913341
0.092474,0.101315,0.595633,-0.547051,0.011934,-0.837014
0.035395,0.154823,0.631536,0.703444,0.591044,-0.394758
0.182252,0.031618,0.594967,-0.269756,0.349079,-0.897427
-0.021216,0.212246,0.682671,0.044847,0.552529,0.832286
0.181433,0.040859,0.626597,0.300822,0.207219,-0.930895
0.214132,0.016826,0.630759,0.860230,-0.160800,-0.483887
0.188465,0.043260,0.655536,0.747551,-0.513443,0.421360
0.170180,0.063494,0.677067,0.197005,-0.678236,-0.707945
0.201710,0.040095,0.680951,-0.529717,0.761873,0.372759
0.092942,0.138125,0.734168,0.727547,-0.682941,-0.065326
0.198663,0.050849,0.712415,-0.723597,0.608171,0.326397
0.123063,0.120415,0.753784,-0.211231,-0.084864,-0.973745
0.175102,0.079815,0.751176,0.520903,0.106716,0.846919
0.144044,0.110425,0.776841,-0.138758,0.447055,0.883679
0.183776,0.079815,0.777840,-0.453796,-0.772041,-0.444996
0.159282,0.105113,0.800563,0.816757,-0.556849,-0.151089
0.195966,0.077661,0.803227,-0.533643,-0.842561,0.072914
0.246836,0.037949,0.800591,0.703103,0.689370,0.174401
0.211321,0.072349,0.827310,0.391643,0.828063,0.401157
0.159514,0.120793,0.859246,0.901998,-0.143064,0.407349
0.253982,0.043514,0.842737,0.971965,-0.173657,0.158513
0.247418,0.053126,0.859024,0.497969,0.796775,-0.342311
0.290788,0.019860,0.858885,0.703081,0.560408,-0.437745
0.241209,0.066150,0.889627,0.695720,0.460342,0.551416
0.319385,0.002907,0.878224,0.405776,0.737138,0.540345
0.339075,-0.010248,0.886381,-0.149740,0.987772,0.043421
0.439520,-0.092591,0.868568,0.782814,0.519157,0.343044
0.283520,0.045282,0.932994,0.869521,0.435781,0.232439
0.312703,0.024029,0.937433,-0.792551,0.392231,-0.466924
0.402950,-0.049459,0.922645,0.894850,0.328908,-0.301768
0.426160,-0.065517,0.929637,0.664169,0.684427,-0.300730
0.466125,-0.096258,0.930747,-0.468590,-0.353270,-0.809706
0.119196,0.042372,0.897951,0.850170,0.521183,-0.074693
0.126933,0.039971,0.909882,0.492773,0.826843,0.271117
0.176744,0.000884,0.908134,-0.098066,0.812321,0.574906
0.190576,-0.007083,0.917512,-0.298635,-0.951905,-0.068515
0.164672,0.018849,0.939625,-0.268700,0.321391,-0.908024
-0.008558,0.001262,0.400247,0.132420,-0.850458,0.509103
-0.072200,0.071461,0.474911,0.052526,0.551345,0.832622
-0.207223,0.203013,0.573686,0.935189,0.332775,-0.121169
0.062117,-0.023404,0.506680,-0.644890,0.229125,0.729122
0.020508,0.017706,0.538504,-0.596858,-0.192179,0.778991
0.076299,-0.026692,0.533788,0.531980,-0.712902,-0.456911
-0.184248,0.205035,0.644438,0.211062,0.632287,-0.745430
0.102203,-0.040349,0.556400,-0.767679,0.566630,0.299331
0.108766,-0.041484,0.569635,0.684053,-0.579889,0.442494
0.062940,0.003038,0.602347,0.774836,0.575802,0.260923
0.106774,-0.030861,0.602625,0.747871,0.661087,0.060438
0.099506,-0.020238,0.621104,0.308305,0.938265,0.156867
0.222456,-0.122947,0.592747,0.744554,0.664077,0.068123
0.218117,-0.114848,0.609672,0.943030,0.322122,-0.083262
0.066688,0.021373,0.678898,-0.431897,0.612010,0.662502
0.084036,0.010627,0.687804,-0.557211,0.112904,0.822660
0.120602,-0.016950,0.690579,0.539829,0.003903,-0.841766
0.150021,-0.037949,0.695906,0.666885,-0.488846,-0.562400
0.162329,-0.044526,0.707088,0.363519,-0.876570,-0.315403
0.136193,-0.017583,0.731088,0.981695,0.099337,-0.162506
0.154592,-0.029217,0.739550,0.991310,0.036919,0.126257
0.206632,-0.070072,0.737109,-0.606249,0.794067,0.043815
0.096576,0.029348,0.789160,0.098860,0.932462,0.347478
0.078528,0.048949,0.810247,0.285374,0.934157,0.214271
0.081689,0.050470,0.824009,0.131390,0.913320,0.385465
0.136426,0.007338,0.820485,0.361443,0.929898,0.068177
0.137713,0.010372,0.834386,0.967585,0.247361,0.050904
0.133729,0.017583,0.849812,0.998911,-0.021758,-0.041267
0.123535,0.030483,0.867902,-0.711942,0.686963,0.145673
0.112751,0.043762,0.885549,-0.105254,-0.935096,0.338404
0.012657,0.001393,0.823037,0.979028,0.107507,-0.173050
0.015117,0.003540,0.836966,0.445673,-0.838956,-0.312295
0.031996,-0.006960,0.845512,-0.343839,0.711772,0.612499
0.052388,-0.020493,0.853447,-0.289794,0.956579,0.031256
0.075244,-0.035926,0.860661,0.211680,-0.961033,-0.177785
0.170180,-0.114092,0.843874,0.812212,0.573202,0.108405
0.156703,-0.098281,0.862547,0.601758,0.772437,-0.203050
0.173228,-0.108649,0.871149,0.136625,-0.883185,0.448685
0.074307,-0.014927,0.931829,0.251594,0.846509,0.469172
0.100679,-0.033895,0.937544,0.494293,0.672019,0.551422
0.139237,-0.062992,0.939486,-0.569464,0.517072,0.639020
-0.207923,0.070072,0.465672,-0.667922,-0.640482,-0.379029
-0.121311,-0.001393,0.449579,-0.256212,-0.614511,0.746145
-0.137131,0.016950,0.471803,-0.023262,0.816212,0.577284
0.014180,-0.101315,0.465283,0.880959,-0.259237,-0.395862
0.020393,-0.102327,0.479017,0.636251,-0.362261,-0.681140
0.037737,-0.113204,0.488590,0.759915,0.551896,-0.343423
0.031410,-0.102836,0.507540,0.986917,-0.004347,-0.161172
0.012538,-0.081582,0.530403,-0.712292,0.701443,0.024839
0.056376,-0.110680,0.547161,-0.288733,0.826509,0.483236
0.080634,-0.127116,0.554652,0.367128,0.231348,0.900941
-0.089079,0.025426,0.631480,-0.134991,-0.945222,-0.297209
-0.040320,-0.012649,0.629233,0.086296,-0.956643,-0.278185
0.014649,-0.056160,0.625487,0.978000,-0.133895,0.159964
0.055203,-0.087272,0.626292,0.661477,-0.613578,-0.431243
0.077472,-0.102072,0.634283,0.153339,0.974560,0.163460
0.232886,-0.233244,0.595217,0.820730,0.466949,0.329181
0.106774,-0.118894,0.655508,0.519653,0.525995,0.673268
0.164672,-0.164936,0.650320,0.540738,0.624095,0.564010
0.122244,-0.123703,0.680230,0.811664,0.273716,0.516024
0.081689,-0.083860,0.709862,-0.574939,0.813132,0.090892
0.104896,-0.099925,0.716660,-0.056965,0.662627,0.746780
0.139591,-0.125603,0.720323,0.260986,-0.189449,-0.946570
0.172409,-0.149890,0.724429,-0.618631,-0.078053,-0.781795
0.216361,-0.183658,0.724845,-0.678694,-0.150908,-0.718750
-0.163034,-0.065015,0.498079,-0.196732,-0.131389,0.971614
-0.057432,-0.152924,0.474606,0.085822,-0.464581,0.881362
0.001758,-0.200102,0.469112,0.351656,0.638516,-0.684570
0.071964,-0.257022,0.459845,-0.041711,-0.963547,0.264269
-0.056026,-0.139638,0.523882,-0.522281,0.792065,-0.315999
-0.018988,-0.167345,0.526074,-0.530883,0.060773,-0.845263
-0.074779,-0.114092,0.562255,-0.401349,-0.109359,-0.909373
-0.024850,-0.152924,0.560312,-0.535210,-0.830198,-0.155952
-0.000589,-0.169747,0.567138,-0.074008,0.627575,0.775030
-0.044659,-0.126491,0.599240,0.803755,0.203714,-0.558997
-0.072787,-0.097015,0.625404,-0.699956,-0.223354,-0.678361
-0.050986,-0.111305,0.633645,0.563880,0.671574,0.480653
0.008085,-0.158614,0.627790,0.969417,-0.222885,0.102723
0.011719,-0.157602,0.641719,0.609615,0.508586,0.608037
0.063054,-0.197446,0.639416,-0.621326,0.187167,-0.760869
0.040316,-0.173668,0.662500,0.138043,0.965454,0.221005
0.071728,-0.196180,0.667495,-0.387288,-0.918979,-0.074068
0.145332,-0.256011,0.657451,0.788964,-0.612801,-0.044844
0.141348,-0.247658,0.674597,0.935304,-0.332448,0.121178
0.001640,-0.121426,0.737913,0.573673,-0.687888,0.444645
0.034339,-0.145837,0.741298,0.851445,0.281358,0.442582
0.095403,-0.194281,0.735610,-0.174543,0.982948,-0.057863
0.108884,-0.201870,0.745654,0.887012,-0.452900,-0.089954
0.167133,-0.243613,0.756392,0.865183,0.475008,0.160707
0.473629,-0.505564,0.668327,-0.480425,0.876179,-0.038759
0.512655,-0.535040,0.670186,-0.604748,0.688204,0.400817
-0.007620,-0.078927,0.858885,0.718278,-0.621069,0.313609
0.001053,-0.081961,0.870732,-0.582193,0.802956,-0.127721
0.523790,-0.531496,0.711693,-0.267653,0.910364,0.315593
-0.476094,0.157603,0.435068,0.388181,-0.467020,-0.794486
-0.331224,0.034528,0.395308,0.660697,0.179031,0.728991
-0.304852,0.016062,0.401607,-0.015845,0.118836,0.992787
-0.206869,-0.065517,0.380242,-0.598761,0.159631,0.784858
-0.141938,-0.113204,0.389121,0.271647,0.924071,-0.268887
-0.155301,-0.096127,0.411623,0.755389,0.654991,0.019324
-0.313644,0.053628,0.506180,0.251586,0.799904,-0.544846
-0.306848,0.052115,0.519609,0.246894,0.645141,0.723074
-0.186241,-0.049328,0.490032,-0.285149,0.196453,-0.938134
-0.292198,-0.112826,0.386457,-0.102860,0.216974,-0.970743
-0.161393,-0.223502,0.353107,-0.022528,0.161594,0.986600
-0.141001,-0.236533,0.362624,-0.048718,0.301656,0.952171
-0.100915,-0.267143,0.363928,-0.500463,0.160894,0.850676
-0.399320,0.002150,0.495304,0.212565,-0.666779,0.714298
-0.429444,0.033895,0.523632,0.559053,0.523561,0.642917
-0.391000,0.004683,0.524992,-0.643401,-0.661676,-0.384993
-0.285516,-0.083736,0.501658,-0.740590,0.603703,-0.295073
-0.139127,-0.208324,0.463063,-0.166065,0.460863,-0.871796
-0.083804,-0.252089,0.459179,-0.125749,-0.134818,0.982859
-0.058605,-0.269413,0.465921,-0.137075,-0.065956,0.988362
-0.139477,-0.178849,0.560784,0.434400,0.199753,0.878291
-0.162448,-0.153557,0.585506,-0.277951,-0.495894,-0.822698
-0.073606,-0.226790,0.569496,0.274900,0.502054,-0.819983
-0.026020,-0.264101,0.567887,0.083625,0.925017,0.370608
-0.017818,-0.266634,0.580484,-0.110116,-0.984975,-0.133034
0.154943,-0.413486,0.534565,0.935052,0.341978,0.093430
-0.076421,-0.201113,0.648822,0.370649,-0.740731,-0.560300
-0.064113,-0.202634,0.675957,0.688639,-0.206445,0.695095
-0.030123,-0.228056,0.679037,-0.765662,0.190014,0.614538
-0.011255,-0.240324,0.687583,0.101787,0.404880,0.908687
0.026019,-0.268155,0.690191,-0.152020,0.446260,0.881897
0.075949,-0.307110,0.687888,0.798980,0.221801,0.558959
0.081221,-0.307110,0.701622,0.718791,-0.666031,0.199355
-0.008089,-0.224637,0.747791,0.806241,-0.279621,0.521332
-0.037154,-0.194659,0.772901,-0.431012,0.098596,-0.896943
0.020393,-0.240833,0.767768,-0.387972,0.874281,0.291737
0.023555,-0.239058,0.781280,-0.419895,-0.879966,-0.222146
0.081689,-0.285100,0.776757,0.641766,0.766866,-0.007317
0.116385,-0.311156,0.779532,0.324214,0.625909,-0.709312
0.148848,-0.334811,0.783916,-0.569597,0.805892,-0.161547
-0.439173,-0.339234,-0.341842,-0.182636,0.980709,0.069675
-0.611348,0.028838,0.427771,0.344597,-0.506738,-0.790233
-0.289032,-0.238046,0.368367,-0.422262,-0.407508,-0.809711
-0.256915,-0.261068,0.373528,0.533345,0.665382,0.522313
-0.218944,-0.289655,0.375526,0.678395,0.591120,0.436300
-0.160105,-0.336833,0.370171,0.235999,0.277210,0.931375
-0.433429,-0.088538,0.492668,0.759935,-0.497670,0.418119
-0.425223,-0.090561,0.506403,0.788276,-0.582977,-0.196871
-0.346343,-0.155958,0.492391,0.064090,-0.944284,0.322832
-0.387134,-0.114594,0.524049,-0.558353,0.726509,-0.400534
-0.170535,-0.301799,0.458791,-0.019581,0.619651,0.784633
-0.129280,-0.333166,0.459540,0.568046,0.108048,-0.815873
-0.110763,-0.344422,0.469445,0.928903,-0.346158,-0.131579
0.120487,-0.538707,0.417255,0.116848,-0.782700,0.611332
0.196553,-0.601193,0.405491,0.182850,0.456707,-0.870623
0.014885,-0.435496,0.488728,0.173067,0.939275,-0.296327
-0.241328,-0.204147,0.599129,0.720455,-0.053929,0.691402
0.140178,-0.535927,0.475660,0.718215,0.631472,-0.292250
-0.145572,-0.279032,0.595994,0.117199,0.775610,0.620237
-0.084040,-0.328488,0.589862,0.276480,0.383040,0.881385
0.148498,-0.528208,0.522412,0.201290,0.875042,0.440210
0.085323,-0.467751,0.560840,0.371342,0.331625,0.867254
0.165023,-0.533017,0.547910,0.906884,-0.411338,-0.091446
-0.092242,-0.301922,0.655425,0.992739,0.069547,0.098148
-0.096226,-0.293832,0.671962,0.958421,-0.224635,-0.175978
0.011133,-0.383509,0.649904,0.757059,0.238751,-0.608161
-0.059073,-0.317231,0.690218,-0.175006,-0.946023,-0.272787
-0.042431,-0.326843,0.700207,0.803315,0.576605,0.149036
0.051805,-0.404886,0.682422,0.603894,-0.674441,0.424784
0.119783,-0.450798,0.704480,0.040224,-0.924767,0.378403
0.114156,-0.441062,0.721849,0.054630,0.962305,0.266431
0.197726,-0.509231,0.708947,-0.637705,0.700311,-0.320776
0.248828,-0.549206,0.707115,0.261838,-0.577615,0.773176
0.317274,-0.604729,0.698847,0.286122,-0.728763,0.622124
0.061298,-0.376422,0.799426,-0.823623,-0.532861,-0.194175
0.071141,-0.380722,0.811079,-0.745736,0.518236,-0.418700
-0.170653,-0.452319,0.376247,0.005045,0.074434,0.997213
-0.080052,-0.522139,0.375831,0.222112,0.248689,0.942773
0.169011,-0.738681,0.298586,0.911155,0.014864,0.411796
-0.188702,-0.409565,0.467780,-0.582075,0.803976,0.121702
-0.182607,-0.409819,0.481737,0.601926,-0.772499,-0.202312
-0.070326,-0.504306,0.456543,0.275935,-0.715244,0.642095
0.089076,-0.640782,0.413510,-0.275281,0.744874,-0.607769
0.113570,-0.657481,0.421445,-0.080813,-0.070988,0.994198
0.213900,-0.735393,0.418559,0.330592,0.258115,-0.907792
-0.172058,-0.388064,0.575684,0.845054,0.447518,0.292593
-0.182492,-0.369211,0.611143,0.393922,-0.850935,-0.347468
-0.165263,-0.379587,0.620382,-0.173986,-0.314557,0.933158
-0.122012,-0.412598,0.620826,-0.154151,-0.244195,0.957396
0.136308,-0.635594,0.544969,0.855146,-0.505182,0.116258
0.131504,-0.626361,0.562948,-0.539525,0.684689,-0.490014
-0.189643,-0.333421,0.707088,-0.634924,0.322367,-0.702105
-0.161510,-0.353532,0.712637,0.822446,0.315485,0.473341
-0.154246,-0.355045,0.725039,0.449930,0.644467,0.618243
-0.114042,-0.385408,0.726565,0.405814,0.851358,0.332421
-0.083804,-0.407163,0.731449,-0.525581,-0.665651,-0.529786
0.178854,-0.604482,0.747846,-0.643443,-0.704585,-0.299235
-0.679562,-0.089549,0.282522,0.825469,0.263934,-0.498939
-0.497308,-0.187325,0.418060,0.388283,0.285954,-0.876052
-0.405533,-0.263855,0.399442,-0.172647,-0.818454,-0.548020
-0.372483,-0.288011,0.403771,0.445780,0.705850,0.550505
-0.333453,-0.317610,0.405214,-0.630137,-0.224118,-0.743437
-0.251289,-0.385787,0.390064,0.022589,-0.382848,0.923535
0.233355,-1.000000,0.113577,0.276709,0.904215,-0.325312
-0.249769,-0.535927,0.390619,0.872368,0.479682,0.094235
-0.242501,-0.536939,0.404437,0.374477,0.257085,0.890884
-0.146509,-0.600560,0.436317,0.274600,-0.827330,0.490021
-0.192336,-0.553884,0.470416,0.769289,-0.432300,-0.470438
-0.010314,-0.668104,0.550268,0.759900,-0.236739,-0.605397
-0.291024,-0.625095,0.417422,0.896980,-0.015971,0.441783
-0.235118,-0.670250,0.412594,0.840695,-0.367097,0.398085
-0.319035,-0.577917,0.493972,0.416982,0.466502,0.780065
-0.267700,-0.618394,0.491614,-0.268720,0.765339,-0.584846
-0.541610,-0.500253,0.577487,0.316072,-0.874793,0.367199
-0.437296,-0.533395,-0.997225,-0.125565,0.091420,0.987864
-0.421239,-0.429552,-0.992731,-0.130358,0.190961,0.972903
-0.115448,-0.679236,-0.970784,0.403423,0.020887,-0.914775
-0.065755,-0.655072,-0.963265,-0.314955,0.002690,0.949103
-0.026843,-0.687582,-0.962432,-0.325164,-0.044637,0.944604
-0.285280,-0.413232,-0.986876,-0.232294,0.081290,0.969243
-0.189056,-0.427274,-0.983075,0.257643,-0.026309,-0.965882
-0.043485,-0.376553,-0.966566,-0.267577,0.039185,0.962739
-0.159636,0.508730,-0.505681,-0.746642,0.517809,0.417612
-0.145454,0.551739,-0.523854,-0.526406,0.042382,-0.849177
-0.179677,0.587907,-0.495942,-0.746642,0.517809,0.417612
0.552036,-0.036551,-0.944203,0.205798,0.056360,0.976970
0.425105,0.212624,-0.653622,0.976727,-0.163696,0.138594
0.456868,0.106758,-0.951639,-0.041424,0.303929,0.951794
0.530708,0.045916,-0.946784,-0.169432,0.329637,0.928780
0.568680,0.016193,-0.937905,0.197350,0.226561,0.953794
0.484177,0.139893,-0.959658,-0.101349,0.151783,0.983204
0.673227,-0.015560,-0.944009,0.398159,0.072460,0.914450
0.582161,0.135214,-0.957022,-0.275409,0.235593,0.932012
0.425924,0.340500,-0.945812,-0.006494,-0.036966,0.999295
0.457336,0.379966,-0.961350,0.030935,-0.094354,0.995058
0.533401,0.314576,-0.964929,0.182383,-0.005837,0.983210
0.236170,0.948020,-0.540863,-0.665622,-0.731656,-0.147061
-0.923348,-0.192768,0.373916,0.819229,0.553562,0.149775
-0.836149,-0.259547,0.397805,-0.643315,0.636399,0.425608
-0.905650,-0.144069,0.412011,0.890397,0.368148,-0.267695
-0.847634,-0.199592,0.384376,0.581710,-0.289637,-0.760082
-0.908111,-0.094737,0.380270,-0.292262,0.812234,0.504835
-0.878695,-0.121303,0.372113,-0.443438,0.346829,0.826482
-0.851501,-0.137113,0.400136,-0.136037,0.686641,0.714155
-0.515943,-0.543895,0.575711,0.294654,-0.874347,0.385611
-0.811182,-0.268402,0.446943,0.362722,-0.275609,0.890209
-0.783054,-0.293446,0.440867,0.661375,-0.385806,0.643224
-0.488748,-0.506830,0.571855,0.262257,-0.854398,0.448581
-0.344119,-0.678472,0.367562,-0.736779,0.194339,0.647603
-0.336618,-0.613962,0.433875,0.934630,0.320561,0.153972
-0.318097,-0.616240,0.486980,0.451967,-0.559344,0.694882
-0.284110,-0.651529,0.458652,0.479070,-0.877705,0.011177
-0.247541,-0.694414,0.410846,0.852526,-0.363881,0.375221
-0.821498,-0.204780,0.450328,0.096228,0.215804,0.971683
-0.792783,-0.229191,0.448885,-0.306250,-0.064123,-0.949789
-0.763832,-0.254236,0.445195,0.661375,-0.385806,0.643224
-0.735235,-0.281310,0.432488,-0.701242,0.665050,-0.256840
-0.594938,-0.392487,0.456488,0.364306,0.733084,0.574342
-0.823959,-0.158359,0.406656,-0.662913,0.741814,0.101284
-0.796532,-0.172526,0.441533,0.156303,0.785035,0.599408
-0.768990,-0.194790,0.444724,-0.308192,-0.189964,-0.932165
-0.740157,-0.219711,0.441533,-0.530249,0.155731,-0.833417
-0.630688,-0.484952,-0.244648,-0.267774,0.956972,0.111809
-0.597398,-0.515809,-0.255941,-0.267774,0.956972,0.111809
-0.569270,-0.364664,0.433542,-0.556267,-0.564497,-0.609844
-0.358065,-0.668104,-0.066354,0.595978,0.616113,-0.514991
-0.325366,-0.695294,-0.066410,-0.476420,-0.804921,0.353731
-0.349276,-0.535163,0.484955,-0.426405,0.791151,0.438473
-0.318684,-0.564006,0.473080,0.959670,0.203686,0.193767
-0.293485,-0.580195,0.493001,0.170352,-0.149654,0.973953
-0.256333,-0.624462,0.439813,0.203146,-0.973403,0.105920
-0.218472,-0.670126,0.385625,-0.855248,0.182612,-0.484978
-0.098805,-0.774224,0.369948,0.209607,0.817626,-0.536240
-0.773443,-0.143436,0.429824,0.103796,0.800133,0.590773
-0.745548,-0.165315,0.434985,0.162572,0.815064,0.556095
-0.716833,-0.187456,0.441227,-0.422970,-0.171062,-0.889851
-0.688819,-0.211991,0.437010,-0.439458,0.308784,-0.843522
-0.610175,-0.452319,-0.243233,-0.267774,0.956972,0.111809
-0.546650,-0.332031,0.433708,-0.433731,-0.495268,-0.752720
-0.516880,-0.358843,0.425829,-0.617582,0.034898,-0.785732
-0.488634,-0.383509,0.421750,0.261918,-0.784117,0.562636
-0.398852,-0.463574,0.402161,-0.177995,-0.593484,0.784917
-0.334626,-0.638381,-0.069878,-0.633269,-0.022455,0.773606
-0.371074,-0.486596,0.403438,0.556142,0.826293,-0.089146
-0.323960,-0.508097,0.471665,-0.326916,-0.896030,-0.300428
-0.292198,-0.541617,0.445556,0.974601,-0.116023,0.191552
-0.270747,-0.547940,0.490005,0.175312,0.273959,0.945628
-0.234296,-0.589683,0.446416,-0.548347,0.832454,-0.079600
-0.197258,-0.632437,0.401107,0.897529,-0.168325,0.407565
-0.079819,-0.735138,0.383322,-0.205136,-0.766798,0.608227
-0.254573,-0.524417,0.422138,0.901046,-0.393965,-0.181407
-0.233008,-0.531118,0.465977,-0.445260,0.453307,-0.772176
-0.191166,-0.587027,0.385708,0.712403,0.050207,0.699972
-0.209683,-0.504306,0.645770,0.144681,-0.408464,-0.901235
-0.202769,-0.482296,0.752924,0.370040,0.493654,0.787005
-0.176043,-0.504430,0.753673,0.767343,0.252841,0.589285
-0.148151,-0.530740,0.742713,0.153293,0.914609,0.374154
-0.073606,-0.686061,0.382740,0.566240,0.424908,-0.706276
-0.044541,-0.711738,0.377828,-0.006358,-0.699755,0.714355
-0.022740,-0.720593,0.413315,-0.101855,-0.862028,0.496521
-0.822668,-0.070072,0.343701,0.132773,-0.980530,-0.144680
-0.766762,-0.104604,0.390508,-0.267163,0.735436,0.622702
-0.731133,-0.169492,0.254804,-0.601400,0.077913,0.795140
-0.681905,-0.166836,0.424136,-0.253009,-0.552597,-0.794118
-0.654596,-0.186947,0.434014,-0.296852,-0.605607,-0.738322
-0.624593,-0.215913,0.419253,-0.339384,-0.579822,-0.740692
-0.537626,-0.292434,0.404936,0.998972,-0.042890,0.014695
-0.509494,-0.313310,0.414231,0.396891,-0.835205,-0.380671
-0.481366,-0.337721,0.411623,0.731090,0.657164,-0.183422
-0.453470,-0.360487,0.413343,0.110546,-0.687442,0.717776
-0.395922,-0.410066,0.408543,-0.024044,-0.261370,0.964939
-0.366975,-0.433852,0.409903,-0.177893,-0.414473,0.892506
-0.335209,-0.465088,0.391146,0.315074,0.682687,0.659293
-0.280358,-0.506576,0.408016,0.141356,0.504199,0.851940
-0.764537,-0.027194,0.459096,-0.498203,0.389243,-0.774780
-0.736054,-0.050594,0.461343,-0.551258,-0.827653,0.105377
-0.708159,-0.077159,0.448136,0.738272,-0.029009,0.673880
-0.670420,-0.151148,0.283715,-0.261967,-0.234000,0.936278
-0.648737,-0.133315,0.421916,0.188879,0.605194,0.773346
-0.620254,-0.155325,0.429297,-0.519237,0.506046,-0.688702
-0.592244,-0.180369,0.423942,0.528934,0.461803,0.712017
-0.542547,-0.395275,-0.245287,-0.267774,0.956972,0.111809
-0.510667,-0.418543,-0.232690,-0.350467,0.931845,0.094009
-0.534110,-0.231214,0.414897,0.907588,0.223328,-0.355540
-0.504690,-0.259678,0.399664,-0.644502,0.123448,-0.754571
-0.459096,-0.422086,-0.079811,-0.467277,0.234941,0.852323
-0.477381,-0.277890,0.417838,0.253723,0.831562,0.494094
-0.448899,-0.301290,0.420335,0.239313,-0.097387,0.966046
-0.416668,-0.404377,0.126285,0.833099,-0.498657,-0.239349
-0.419483,-0.326465,0.417338,-0.445455,0.030524,-0.894784
-0.390532,-0.353022,0.408709,-0.467683,-0.029253,-0.883412
-0.362518,-0.376298,0.408765,0.617025,-0.118844,0.777918
-0.302159,-0.432586,0.386069,-0.480411,0.108726,-0.870278
-0.272621,-0.457630,0.384349,-0.118349,0.625581,0.771130
-0.250939,-0.463320,0.432876,0.864895,-0.447239,-0.227888
-0.219763,-0.492540,0.420252,0.973344,-0.083513,-0.213606
-0.199253,-0.498740,0.462980,0.785155,-0.372020,-0.495109
-0.211207,-0.431320,0.684364,0.972191,-0.209013,0.105635
-0.188938,-0.443332,0.710390,0.135964,0.965368,0.222660
-0.125295,-0.585005,0.368978,-0.058246,0.090893,0.994156
-0.170185,-0.449277,0.748346,0.601503,0.140250,0.786463
-0.142993,-0.472429,0.746376,0.929276,0.160527,0.332683
-0.114511,-0.498608,0.738024,-0.001398,0.792387,0.610018
-0.044659,-0.644071,0.401718,0.859655,0.402719,-0.314341
-0.015472,-0.667849,0.403965,0.377705,0.804551,-0.458297
-0.323606,-0.369976,0.397112,0.668588,-0.198539,0.716639
-0.294072,-0.397421,0.386319,-0.275946,0.423622,-0.862785
-0.265590,-0.421330,0.385320,0.921156,-0.038598,-0.387274
-0.248596,-0.413988,0.466338,0.576151,-0.814066,-0.073120
-0.175929,-0.601062,-0.010918,-0.672307,0.177407,0.718700
-0.227968,-0.419809,0.509760,0.760455,-0.461700,0.456663
-0.216948,-0.401219,0.614972,0.400727,0.529219,0.747893
-0.195734,-0.409441,0.651790,-0.747483,0.423605,-0.511691
-0.179445,-0.406021,0.715134,0.916398,-0.369692,0.153437
-0.156821,-0.420697,0.731948,-0.157652,0.979429,0.125956
-0.131741,-0.440429,0.736221,0.671851,0.151799,0.724965
-0.104900,-0.462941,0.736082,0.479183,0.050327,0.876271
-0.075248,-0.492286,0.719351,-0.166560,0.957359,0.236053
-0.756331,0.010750,0.469556,-0.733446,0.252074,-0.631281
-0.727499,-0.016571,0.458042,0.790994,0.175125,0.586225
-0.699370,-0.040982,0.453602,-0.487456,0.696065,-0.527144
-0.667605,-0.090816,0.366148,-0.254189,0.905467,0.339878
-0.633499,-0.141791,0.280996,-0.163969,-0.045745,0.985404
-0.613222,-0.120793,0.423248,-0.045670,0.471339,0.880769
-0.583688,-0.147991,0.414370,0.466926,0.029117,0.883817
-0.554269,-0.174170,0.407627,-0.529182,-0.147511,-0.835588
-0.505395,-0.385787,-0.238184,-0.350467,0.931845,0.094009
-0.525668,-0.196937,0.412316,0.530129,0.496358,-0.687454
-0.496953,-0.223378,0.403410,-0.706007,0.317568,-0.633012
-0.468239,-0.249434,0.395586,-0.444527,0.330568,-0.832539
-0.437882,-0.277767,0.384238,-0.009275,0.465058,0.885232
-0.392875,-0.430308,-0.050456,-0.512282,0.345274,0.786354
-0.412447,-0.292566,0.408737,-0.258401,-0.775469,-0.576088
-0.383618,-0.316344,0.410374,0.477017,0.357350,0.802967
-0.354199,-0.341264,0.408709,-0.638327,-0.059658,-0.767450
-0.739335,0.033648,0.453935,-0.598011,-0.561414,-0.572011
-0.711675,0.008983,0.448525,-0.634723,-0.480532,-0.605157
-0.683078,-0.014039,0.452270,-0.717737,-0.187619,-0.670561
-0.653894,-0.041237,0.441560,0.560068,0.383182,0.734504
-0.621427,-0.085628,0.376580,-0.093572,-0.859347,0.502759
-0.596815,-0.089936,0.436538,-0.282422,0.508998,-0.813117
-0.565050,-0.133191,0.374721,-0.181755,-0.146011,0.972443
-0.538095,-0.145081,0.413593,-0.008007,-0.078367,0.996892
-0.510667,-0.166836,0.418587,-0.412883,-0.140532,0.899877
-0.480193,-0.196937,0.402134,-0.642355,0.293905,-0.707813
-0.449836,-0.225270,0.390453,-0.379505,0.057642,-0.923392
-0.420184,-0.251078,0.387012,0.058508,0.504020,0.861708
-0.393812,-0.269166,0.401551,-0.208859,-0.807577,-0.551541
-0.366270,-0.291555,0.404270,0.445780,0.705850,0.550505
-0.337087,-0.315966,0.404242,-0.630137,-0.224118,-0.743437
-0.308136,-0.342021,0.397278,0.588034,0.111818,0.801070
-0.278599,-0.367065,0.395170,0.051799,-0.331730,0.941951
-0.248245,-0.394387,0.387650,0.246063,-0.551151,0.797299
-0.222810,-0.408553,0.413593,0.941194,-0.082781,-0.327567
-0.157057,-0.582472,-0.026872,-0.251205,0.216450,0.943422
-0.198313,-0.423221,0.435789,0.955295,-0.260945,-0.138997
-0.124944,-0.611307,-0.033975,0.191420,-0.608609,0.770035
-0.201947,-0.367567,0.630204,-0.313521,0.874405,-0.370297
-0.180614,-0.375789,0.666107,0.807336,-0.589473,0.027000
-0.164089,-0.373766,0.724429,-0.027930,0.999585,-0.006990
-0.137485,-0.395522,0.726177,0.427595,0.760451,0.488751
-0.111463,-0.416011,0.731060,0.273619,0.522952,0.807251
-0.082630,-0.442707,0.721710,-0.661841,0.224867,-0.715123
-0.055908,-0.466485,0.716771,-0.032743,0.965370,0.258821
0.099273,-0.686316,0.381130,-0.261700,0.860349,-0.437393
-0.585327,-0.051860,0.441394,-0.305202,0.389776,-0.868865
-0.553915,-0.090692,0.396446,-0.146043,0.220832,0.964316
-0.525085,-0.113081,0.402966,0.943965,0.062304,-0.324110
-0.498595,-0.130157,0.420474,-0.091092,-0.196277,0.976308
-0.470700,-0.154059,0.419031,-0.015814,-0.319152,0.947572
-0.410927,-0.212246,0.388982,0.063479,0.494195,0.867030
-0.382094,-0.235769,0.391812,-0.453347,-0.590738,-0.667462
-0.352674,-0.260566,0.390730,-0.316505,-0.816061,-0.483599
-0.323491,-0.285224,0.390120,0.483293,0.549697,0.681367
-0.295828,-0.307110,0.394420,0.215228,0.356743,0.909072
-0.266763,-0.333290,0.386929,0.033005,-0.142290,0.989275
-0.238398,-0.354165,0.395863,-0.024216,-0.105159,0.994161
-0.238985,-0.300155,0.592831,0.888486,0.340502,0.307655
-0.211558,-0.322288,0.595855,0.987764,0.043179,-0.149862
-0.165380,-0.392364,0.480682,-0.353560,0.922273,0.156233
-0.083568,-0.602328,-0.035972,0.443994,-0.521582,0.728575
-0.163739,-0.349478,0.643023,-0.782033,0.622415,0.032006
-0.148620,-0.342909,0.711832,0.409902,0.345802,0.844038
-0.121428,-0.367698,0.705145,0.796649,-0.281297,0.534998
-0.091072,-0.398177,0.687111,0.038576,0.658635,0.751473
-0.070559,-0.406909,0.717465,0.737350,0.622115,0.263226
-0.044072,-0.428664,0.719546,-0.646058,-0.121580,-0.753544
-0.016996,-0.451307,0.718852,-0.630997,0.769164,-0.101138
0.062822,-0.623327,0.334711,0.884413,0.154393,0.440427
0.050395,-0.558941,0.531263,0.583018,-0.642678,-0.497047
0.108530,-0.645970,0.391563,0.098681,-0.743798,0.661080
0.087784,-0.537441,0.724346,0.891539,0.265716,0.366814
0.135138,-0.570707,0.747708,0.845077,0.444204,0.297537
-0.726680,0.065270,0.439646,0.537303,0.687129,0.489039
-0.699134,0.044649,0.447720,0.388694,0.607447,0.692766
-0.671475,0.020740,0.445417,0.600532,0.081839,0.795401
-0.641937,-0.006327,0.435984,-0.281123,0.236410,-0.930097
-0.614159,-0.028584,0.438980,-0.086306,0.008186,0.996235
-0.636311,0.030861,0.429019,0.743709,-0.611336,-0.270490
-0.609002,0.011005,0.439951,0.134912,0.014476,0.990752
-0.581224,-0.011383,0.442060,-0.148177,0.210004,-0.966407
-0.551808,-0.038072,0.433931,-0.507984,0.861100,0.021417
-0.523208,-0.066281,0.419225,0.370766,-0.709716,0.599029
-0.501875,-0.052616,0.531374,0.669618,0.036468,0.741810
-0.465778,-0.112826,0.424358,-0.768639,0.174873,-0.615316
-0.444914,-0.102836,0.522634,0.695446,-0.319120,0.643831
-0.407879,-0.164559,0.412011,0.519440,-0.415046,0.746940
-0.377405,-0.197323,0.386069,0.276594,0.151386,0.948988
-0.346111,-0.227925,0.370032,0.454684,0.554537,0.696958
-0.319270,-0.246778,0.383211,-0.294545,-0.833674,-0.467151
-0.317396,-0.182902,0.617802,0.841166,0.539419,0.038292
-0.291024,-0.267769,0.392173,0.030675,0.551334,0.833720
-0.287859,-0.211358,0.603929,0.612695,0.199430,0.764743
-0.264420,-0.283456,0.415174,-0.091915,0.898059,-0.430165
-0.232071,-0.317231,0.390702,0.697621,0.343756,0.628615
-0.214373,-0.311534,0.464062,0.231981,-0.273995,-0.933334
-0.203352,-0.288265,0.580012,0.564524,0.329533,0.756783
-0.180264,-0.299267,0.610754,-0.757504,0.421899,0.498185
-0.164440,-0.293199,0.679564,0.897779,0.154005,-0.412644
-0.132091,-0.328742,0.649016,-0.540251,0.827689,-0.151852
-0.107479,-0.344044,0.667911,0.015493,0.952254,0.304913
-0.085796,-0.353277,0.699763,0.256787,-0.434296,-0.863393
-0.051222,-0.394889,0.654232,0.356592,0.854926,-0.376754
0.093529,-0.731602,-0.119598,0.355312,-0.699680,0.619839
-0.019456,-0.429166,0.626819,-0.139697,-0.943552,0.300324
0.003396,-0.481153,0.508650,-0.805912,0.319631,0.498339
-0.001175,-0.431443,0.673682,-0.606769,-0.783112,-0.136257
0.064696,-0.577794,0.346170,0.418936,0.621869,0.661643
-0.001876,-0.394641,0.802728,-0.038876,0.908750,0.415525
0.093529,-0.602452,0.343729,0.370716,0.660929,0.652489
0.051805,-0.474707,0.676484,0.244915,0.755799,0.607276
0.066688,-0.471418,0.732642,-0.612722,0.474114,-0.632287
0.133496,-0.575640,0.559064,0.914527,-0.215297,0.342473
0.138654,-0.523274,0.762302,0.970705,0.200168,0.132911
-0.599745,0.059449,0.440645,-0.129208,0.716619,0.685392
-0.570794,0.034783,0.438425,0.290106,0.668827,0.684477
-0.541610,0.009361,0.434513,-0.765135,-0.049207,-0.641987
-0.514419,-0.010750,0.443558,-0.585415,0.183547,-0.789683
-0.464372,-0.024917,0.542250,0.702918,-0.136041,0.698140
-0.433429,-0.064884,0.492169,0.309989,-0.756421,0.575964
-0.407407,-0.079058,0.520026,0.825823,-0.253961,0.503508
-0.368262,-0.144571,0.402328,-0.665442,0.439237,-0.603538
-0.348454,-0.134203,0.498745,0.071411,-0.870498,0.486964
-0.265239,-0.443464,-0.353939,-0.318940,0.946171,0.055115
-0.308722,-0.201492,0.377273,0.234729,0.445000,0.864221
-0.304620,-0.144069,0.593718,-0.491586,-0.596619,-0.634341
-0.280945,-0.223756,0.380880,0.219378,0.737984,0.638164
-0.277547,-0.165315,0.599434,0.560925,0.675286,0.478907
-0.250939,-0.187070,0.600683,-0.536389,-0.638810,-0.551551
-0.220700,-0.217680,0.581372,0.964457,0.074834,0.253424
-0.169480,-0.307234,0.415008,0.828010,-0.242822,-0.505408
-0.150962,-0.302301,0.487508,0.958955,-0.268676,0.090658
-0.145572,-0.266124,0.631952,0.868805,-0.443302,-0.220594
-0.125645,-0.271567,0.672267,0.028627,-0.974967,0.220500
-0.091072,-0.312800,0.628456,0.825697,-0.562673,0.040285
-0.068917,-0.323809,0.654842,0.604904,0.432163,-0.668824
-0.059542,-0.303822,0.754477,0.196042,-0.738114,0.645566
-0.020980,-0.353532,0.691828,-0.462727,-0.541602,-0.701820
0.004451,-0.372500,0.700540,-0.418925,-0.706388,0.570542
0.026720,-0.385655,0.720433,-0.015467,0.770437,0.637329
0.034808,-0.368077,0.806778,-0.002041,0.647792,0.761815
0.074307,-0.418041,0.746320,-0.257134,0.841262,-0.475564
0.102789,-0.444853,0.734889,0.667461,-0.235809,0.706321
0.130800,-0.469642,0.730533,0.146309,0.862856,0.483811
0.155998,-0.488495,0.737802,-0.106789,0.916873,0.384629
0.186122,-0.517330,0.724956,0.344407,-0.711992,0.611924
-0.101738,-0.235391,0.647406,0.893563,-0.375372,-0.246256
-0.089430,-0.219835,0.740050,0.893955,-0.448157,0.000414
-0.068098,-0.228813,0.771763,0.607165,-0.380393,0.697604
-0.034930,-0.268155,0.730117,-0.636085,0.510843,-0.578304
-0.016996,-0.271691,0.771569,0.362135,-0.829393,-0.425400
0.013125,-0.301799,0.753617,0.481520,0.794264,-0.370517
0.037505,-0.320135,0.760915,0.763403,0.632743,-0.129817
0.060007,-0.332911,0.782751,-0.653310,-0.586857,-0.478315
0.089076,-0.360364,0.771541,0.904935,0.222928,0.362485
0.116267,-0.383632,0.769571,0.649541,-0.756833,-0.072798
0.152951,-0.427522,0.721821,0.157020,-0.963592,-0.216416
0.178386,-0.448397,0.724068,0.153253,-0.082659,0.984724
0.219877,-0.500129,0.663222,0.802679,0.480308,0.353569
0.273558,-0.576149,0.553154,-0.268066,-0.892144,-0.363620
-0.633968,0.108271,0.287488,0.440941,-0.493835,0.749466
-0.579232,0.096891,0.409819,0.361809,0.862076,0.354851
-0.566573,-0.027194,0.006146,0.243407,0.969581,-0.025789
-0.546182,0.031240,0.274142,0.021115,-0.183616,0.982771
-0.520629,0.037439,0.372751,0.916334,0.072205,0.393851
-0.495430,0.032382,0.429297,0.165197,0.109328,0.980182
-0.468357,0.019482,0.463147,0.310236,-0.868410,-0.386805
-0.442103,0.007083,0.498190,0.987440,0.120581,0.102092
-0.415494,-0.006327,0.528793,0.712686,0.187586,0.675936
-0.386666,-0.036173,0.508705,-0.656615,-0.563740,-0.501053
-0.359707,-0.058561,0.510287,0.519589,-0.787618,0.331188
-0.327358,-0.096891,0.469778,0.809556,-0.390678,0.438166
-0.295946,-0.133948,0.431544,0.068557,-0.993787,-0.087682
-0.270629,-0.145968,0.463619,0.557781,0.758529,0.336919
-0.232772,-0.200102,0.384182,0.991523,-0.057763,0.116386
-0.217420,-0.180747,0.498023,-0.658124,-0.716365,0.231720
-0.201829,-0.168357,0.589002,-0.461485,-0.763290,-0.452128
-0.174520,-0.192135,0.585062,0.484358,0.434663,0.759253
-0.131977,-0.256513,0.482513,0.779865,0.612259,-0.130187
-0.107246,-0.271822,0.501658,0.835908,0.447073,-0.318407
-0.784227,0.397544,0.643494,0.072576,-0.546718,0.834165
-0.646509,0.183535,0.292177,-0.288537,0.957019,-0.029334
-0.618029,0.158738,0.288515,-0.481338,-0.838606,0.255058
-0.582279,0.047683,0.000985,0.243407,0.969581,-0.025789
-0.562356,0.141792,0.393505,-0.559320,-0.756578,-0.338748
-0.548760,-0.008604,-0.099982,0.760964,-0.118175,0.637940
-0.530944,0.096637,0.326832,0.143901,-0.443712,0.884541
-0.503167,0.087527,0.377384,0.387417,0.888679,-0.245269
-0.476094,0.078425,0.425024,-0.520986,0.584758,-0.621797
-0.450422,0.068049,0.464090,0.419678,-0.866131,-0.271456
-0.425928,0.061471,0.513256,0.785947,0.216602,0.579112
-0.391000,0.005817,0.419558,0.005674,-0.340570,0.940202
-0.361463,-0.025048,0.396917,-0.709637,0.403273,-0.577742
-0.340367,-0.016193,0.491697,-0.064762,0.997313,-0.034237
-0.311888,-0.039971,0.491531,0.805737,-0.212361,-0.552893
-0.273090,-0.101948,0.386901,-0.201817,0.973746,0.105301
-0.245899,-0.122183,0.395974,-0.280320,0.878122,-0.387714
-0.225271,-0.119658,0.465477,0.039372,0.964009,-0.262939
-0.200072,-0.132435,0.495720,0.297570,0.275417,0.914110
-0.173818,-0.152036,0.504100,-0.063755,0.557461,0.827751
-0.147915,-0.168102,0.523938,0.911302,0.255447,-0.322918
-0.126114,-0.172657,0.571772,-0.467042,-0.575023,-0.671729
-0.097986,-0.196813,0.569247,-0.598696,-0.534599,0.596461
-0.081929,-0.190490,0.639721,-0.172293,0.545638,0.820119
-0.061885,-0.196057,0.679758,0.932149,0.361018,0.027625
-0.044072,-0.194914,0.736110,-0.700566,0.702514,-0.125224
-0.021334,-0.209459,0.752868,-0.394638,0.651680,0.647746
0.005156,-0.230203,0.757280,-0.130940,0.697993,0.704031
0.029299,-0.246646,0.770931,-0.632917,-0.324707,-0.702838
0.056140,-0.269166,0.770237,0.497990,0.661914,0.560246
0.082630,-0.292689,0.766186,0.682943,0.445535,0.578868
0.113806,-0.326079,0.740022,0.690439,-0.212163,0.691578
0.134433,-0.335188,0.768350,0.582112,-0.584683,-0.565058
0.176980,-0.391854,0.693187,-0.430178,0.567280,-0.702239
0.205813,-0.417786,0.686334,0.320046,0.096169,-0.942508
0.230661,-0.435875,0.696350,-0.421637,-0.648931,-0.633334
0.262424,-0.467874,0.677760,0.887059,0.450424,-0.101221
0.342355,-0.534283,0.678565,-0.066655,0.223406,-0.972444
-0.516880,0.148493,0.322503,0.176311,-0.760699,0.624700
-0.491095,0.147103,0.394198,-0.034896,0.835794,0.547934
-0.463549,0.132937,0.426217,-0.673909,0.480904,-0.560873
-0.434602,0.101948,0.402134,-0.495043,0.862634,0.103897
-0.404832,0.075260,0.394864,0.346858,0.305768,0.886677
-0.378693,0.066528,0.440895,0.483962,0.019803,-0.874865
-0.347635,0.031749,0.410236,-0.581891,0.499646,-0.641683
-0.327122,0.040859,0.503600,0.399606,0.475729,-0.783580
-0.300167,0.020493,0.511425,0.116686,0.049016,0.991959
-0.270983,-0.006574,0.502490,-0.059452,-0.600232,0.797613
-0.243206,-0.030483,0.499577,0.099917,-0.855755,0.507642
-0.203120,-0.094869,0.390425,-0.475522,0.378539,0.794095
-0.184485,-0.085249,0.480738,0.761717,0.379478,-0.525150
-0.151313,-0.123201,0.444058,0.290507,0.841807,0.454936
-0.129516,-0.128382,0.490809,-0.464382,-0.846859,-0.259188
-0.108652,-0.132435,0.538282,0.493905,-0.788704,0.366066
-0.094820,-0.115227,0.640165,0.958570,0.253859,0.129229
-0.071145,-0.130281,0.657728,0.798662,-0.463187,0.384183
-0.048407,-0.140526,0.688443,0.942545,-0.312872,-0.117134
-0.024264,-0.155835,0.706061,-0.471090,0.852665,0.225913
-0.004573,-0.160004,0.749594,-0.464596,-0.445069,-0.765548
0.022972,-0.186190,0.738968,-0.651440,-0.396676,-0.646741
0.048757,-0.207567,0.739550,0.458613,0.731843,0.504063
0.075012,-0.228558,0.743157,-0.246147,0.508070,0.825395
0.099388,-0.247025,0.749844,0.952815,-0.233918,-0.193456
0.128339,-0.274223,0.739134,0.814579,-0.332535,0.475270
0.151896,-0.289779,0.754783,-0.038822,-0.967401,0.250256
0.181433,-0.317988,0.742158,-0.518875,0.847370,-0.112840
0.218471,-0.362510,0.693298,0.587602,-0.038110,0.808252
0.248710,-0.393120,0.675291,0.852354,0.421284,0.309859
0.465892,-0.575138,0.673765,-0.445292,0.813385,0.374326
0.490386,-0.593852,0.680258,-0.562395,0.825277,-0.051287
-0.604316,0.213002,0.291206,0.183518,-0.983015,-0.001426
-0.574192,0.184669,0.280135,0.017553,-0.732569,0.680467
-0.545126,0.169747,0.313625,0.095518,0.988280,0.119077
-0.522270,0.217047,0.317731,-0.502439,0.751507,0.427542
-0.494260,0.199090,0.337292,-0.724763,-0.065007,0.685925
-0.464372,0.170001,0.323197,-0.261188,-0.571821,0.777690
-0.432374,0.127880,0.268344,0.125585,-0.811613,0.570538
-0.419365,0.030738,-0.038497,-0.260168,-0.953695,0.150923
-0.409986,0.151913,0.420973,-0.271080,0.947886,-0.167417
-0.382208,0.129015,0.421695,-0.507349,0.784259,0.357121
-0.354549,0.106503,0.424081,0.560802,-0.664677,-0.493666
-0.322787,0.069439,0.386069,0.235188,-0.790276,0.565818
-0.292080,0.034150,0.351470,0.068724,0.458857,0.885848
-0.262309,0.008349,0.348806,0.036816,-0.046163,0.998255
-0.235351,-0.104480,0.027898,0.172591,0.963472,-0.204779
-0.238634,0.007971,0.417477,0.623634,0.780166,0.049213
-0.214956,0.002907,0.470694,-0.077994,0.555291,0.827991
-0.183312,-0.034659,0.431711,0.964898,0.238910,0.109058
-0.162097,-0.035416,0.491614,0.374103,0.633816,-0.676997
-0.132678,-0.062228,0.484428,-0.565350,-0.494694,0.660043
-0.099159,-0.104349,0.434291,0.254151,0.451016,0.855565
-0.099041,-0.043761,0.650458,-0.356485,-0.748595,-0.559038
-0.062940,-0.090947,0.589418,-0.877452,0.427721,0.217099
-0.046651,-0.082972,0.666607,0.309958,0.795196,0.521143
-0.025551,-0.091325,0.699430,-0.313235,0.924166,-0.218637
-0.018637,-0.063625,0.818515,0.990537,-0.056272,0.125181
0.000817,-0.068559,0.859190,-0.841215,-0.108580,-0.529686
0.024964,-0.087149,0.864184,0.542183,-0.831197,-0.123082
0.066688,-0.146725,0.777562,-0.699317,0.358002,-0.618700
0.099273,-0.183156,0.745294,0.224490,0.888969,0.399173
0.128106,-0.209713,0.735999,0.130306,0.791625,0.596951
0.162680,-0.251078,0.692244,0.195670,0.596532,-0.778372
0.178268,-0.249935,0.742464,0.656572,0.399455,0.639804
0.215070,-0.293446,0.697071,0.798389,0.177926,-0.575254
0.239568,-0.311912,0.705257,-0.059545,-0.647505,0.759731
0.338138,-0.445988,0.521025,0.568945,0.273165,-0.775682
0.387717,-0.480397,0.546245,0.782174,0.325578,-0.531228
0.471987,-0.524162,0.641719,0.848381,-0.479782,-0.223739
0.499178,-0.546551,0.643328,0.951086,-0.256835,-0.171671
0.514065,-0.546551,0.687305,-0.666489,0.734250,-0.129107
0.533401,-0.556162,0.710417,-0.454995,0.838379,0.300167
-0.461325,0.334811,0.634560,-0.650287,-0.759687,0.001788
-0.452533,0.248422,0.349528,-0.386608,0.911022,-0.143432
-0.434717,0.311033,0.628484,0.060967,0.868960,0.491112
-0.424169,0.224011,0.346531,-0.545634,-0.322991,0.773279
-0.393461,0.183535,0.293509,-0.057691,-0.997309,0.045247
-0.361231,0.143938,0.247923,-0.318199,0.621570,-0.715822
-0.344001,0.185048,0.448747,-0.771665,0.541224,0.334080
-0.314113,0.156846,0.436650,-0.855098,0.423579,0.298977
-0.284579,0.129648,0.428187,-0.358376,0.781702,-0.510400
-0.253868,0.098150,0.406795,-0.699444,-0.707432,0.101573
-0.232654,0.102458,0.485815,-0.163722,0.980367,0.109894
-0.202769,0.069817,0.459235,-0.761001,-0.552350,-0.340274
-0.190580,0.105360,0.623323,0.855926,0.093881,0.508505
-0.145103,0.017073,0.443558,-0.546757,0.423741,-0.722150
-0.118964,0.002150,0.468418,-0.508848,0.860618,0.020284
-0.094703,-0.007840,0.504877,-0.315122,0.890772,0.327450
-0.080169,0.009616,0.612419,-0.314735,-0.948297,0.040919
-0.050400,-0.021628,0.589418,-0.736956,0.597668,0.315737
-0.028953,-0.029348,0.626569,0.081241,0.736759,-0.671257
-0.024027,0.008473,0.778200,0.939400,-0.159753,0.303327
-0.007034,0.009616,0.833026,0.695136,0.522237,0.494019
0.019688,-0.013785,0.829086,0.958325,0.282248,-0.044140
0.042895,-0.028337,0.846621,-0.630116,0.544865,0.553242
0.070909,-0.055149,0.835107,-0.585208,-0.800377,0.130105
0.109821,-0.108016,0.761164,-0.421947,-0.876196,-0.232897
0.138300,-0.136102,0.746071,0.872287,-0.378517,0.309579
0.161038,-0.114980,0.891431,0.311770,0.926380,-0.211235
0.240623,-0.251711,0.638195,-0.597776,0.798257,0.073819
0.293131,-0.327098,0.524881,0.964005,0.254859,-0.075768
0.313054,-0.333544,0.562477,-0.664425,0.747024,0.022225
0.463549,-0.643438,-0.101452,-0.673461,0.618271,0.405204
0.337902,-0.352011,0.571466,-0.584600,-0.227402,0.778801
0.365211,-0.374777,0.571244,0.821343,-0.553494,0.137984
0.491327,-0.625605,0.046738,0.836532,0.314691,0.448534
0.565282,-0.772704,-0.260880,0.910092,-0.368762,-0.189068
0.389941,-0.391476,0.584868,-0.536802,0.689122,0.486779
0.415376,-0.410954,0.591055,0.357737,0.503476,0.786471
0.441394,-0.430810,0.598407,0.711315,0.696568,-0.093938
0.473861,-0.462185,0.583147,0.686728,0.707284,-0.167792
0.495194,-0.473309,0.607980,0.467718,0.848170,-0.248693
0.514415,-0.481917,0.635226,0.419082,-0.774050,-0.474569
0.530003,-0.484318,0.673488,0.234577,0.971029,-0.045566
0.552741,-0.498987,0.689497,-0.307409,0.925329,0.221959
0.576885,-0.517330,0.696184,0.465076,-0.865932,-0.184026
-0.071965,0.058816,0.536423,0.933269,0.313313,0.175625
-0.038796,0.020493,0.497718,-0.352540,0.820184,0.450572
-0.012893,0.001393,0.507790,-0.509611,-0.696600,-0.505020
0.011251,-0.010495,0.538532,0.839451,0.426717,-0.336503
0.025666,0.002907,0.631619,-0.203483,0.907011,0.368680
0.044537,0.002274,0.687139,0.468985,-0.392784,-0.791059
0.055203,0.019729,0.783167,0.801679,-0.115403,-0.586510
0.080520,-0.001393,0.783305,0.889750,0.403686,-0.213033
0.094935,0.005817,0.853613,-0.517261,0.705815,0.484010
0.118495,-0.011762,0.861798,0.962943,-0.266467,0.041677
0.137950,-0.018849,0.896092,-0.489439,0.467023,-0.736437
0.159164,-0.029850,0.919787,-0.020001,0.981583,0.189986
0.186824,-0.056037,0.909521,0.563306,-0.008444,0.826205
0.215424,-0.085126,0.890182,-0.420269,0.762714,0.491570
0.263243,-0.187325,0.663860,-0.014704,0.998950,-0.043401
0.287741,-0.205668,0.671851,0.790332,-0.611606,-0.036238
0.321141,-0.241335,0.644604,-0.569590,0.615846,-0.544335
0.358297,-0.284722,0.599295,-0.478043,0.705789,-0.522816
0.392989,-0.321910,0.570467,0.497540,0.148000,-0.854722
0.421589,-0.345943,0.569996,-0.137884,-0.906238,0.399650
0.439638,-0.349988,0.610089,-0.627686,0.441748,0.640990
0.472337,-0.383130,0.588336,-0.360591,-0.046013,0.931588
0.490504,-0.389577,0.621270,0.569017,0.664113,0.484947
0.515939,-0.408677,0.629760,-0.311198,-0.812177,-0.493482
0.572550,-0.458518,0.621298,0.204426,-0.967184,-0.150882
-0.514419,0.461174,0.650847,0.449692,-0.703676,0.550106
-0.488165,0.438908,0.650375,0.443982,-0.598542,0.666804
-0.433547,0.383509,0.615416,0.921324,0.108448,0.373364
-0.407525,0.365544,0.629483,0.301367,0.563488,0.769194
