-0.361646,0.537859,0.529160,0.862611,0.406954,0.300484
-0.240325,0.110848,0.757593,0.274121,-0.590468,0.759082
-0.314366,-0.341849,0.568713,0.489033,0.759440,-0.429066
0.015644,0.051177,0.886968,0.000949,-0.559448,0.828865
-0.074158,0.211051,0.640899,0.839660,0.470668,0.271003
-0.633952,0.069049,0.572805,-0.547474,0.774627,-0.316583
0.303941,0.070686,0.842272,0.677459,0.420098,-0.603794
-0.015411,0.450995,0.517636,0.177748,-0.409228,0.894952
-0.272190,-0.544528,0.481206,-0.318693,-0.425956,0.846756
-0.240208,-0.004091,0.596150,0.298447,0.253039,-0.920272
-0.468712,0.204758,-0.032983,0.131404,-0.914259,0.383227
-0.687716,-0.412854,0.415024,-0.385581,-0.567575,-0.727452
-0.319699,0.312521,0.525956,-0.592064,0.794551,-0.134721
-0.263385,0.162336,0.704443,-0.345120,-0.246414,-0.905634
0.367208,0.484235,0.616828,0.501285,0.357239,-0.788095
-0.031748,0.036570,0.972482,0.856701,0.515650,-0.012928
-0.050522,0.863538,0.539365,0.193670,-0.403708,0.894154
-0.511935,-0.237490,0.220113,0.199331,-0.818540,0.538757
0.173349,-0.548309,0.457377,-0.026305,-0.959436,0.280696
-0.474274,0.342480,0.698250,-0.463681,-0.710085,0.529886
0.213326,0.365392,0.367501,0.358918,-0.662264,0.657711
-0.235572,0.086422,0.650215,-0.712513,-0.620052,-0.328423
0.024220,-0.212311,0.709828,-0.181464,0.487774,0.853901
-0.012281,-0.005605,0.854712,0.954792,0.267136,0.130427
-0.122247,0.736259,0.573882,0.360524,0.855845,-0.370881
-0.293743,0.132247,0.632364,0.784490,-0.620065,0.009683
0.377056,-0.157296,0.334895,0.405736,0.888495,-0.214370
-0.825838,0.083149,0.325363,0.865734,-0.111541,0.487918
-0.698262,0.685777,0.524610,0.929047,-0.153786,-0.336484
-0.369061,0.351669,0.508670,0.976899,0.211417,-0.031147
0.238472,0.342480,0.359235,-0.377617,0.561059,-0.736626
-0.043106,-0.066152,0.640684,0.281240,-0.951631,0.123704
-0.417033,-0.695343,0.445396,0.813826,0.203031,-0.544487
0.350871,-0.219987,0.685676,-0.196974,0.832922,0.517148
-0.454924,-0.135144,0.586511,-0.663754,-0.667012,-0.338416
-0.035224,0.833826,0.499461,0.076385,0.863316,-0.498849
-0.218888,-0.015171,0.867394,-0.055790,0.502070,0.863026
0.014717,0.857368,0.574098,0.994899,0.092136,-0.041081
-0.339395,0.184742,0.616478,0.503761,-0.180716,-0.844729
-0.079491,0.068796,0.946796,0.786812,-0.596644,0.157930
0.039050,0.213571,0.557512,0.366981,0.884446,-0.288238
-0.420163,0.129227,0.643215,0.424951,0.440226,0.790959
0.308924,-0.442182,0.499354,0.875434,0.471530,0.106183
-0.223984,-0.669918,0.575148,0.116693,0.196233,0.973589
-0.263498,0.107575,0.794615,0.164949,-0.674884,0.719252
-0.296869,0.305467,0.576952,0.736771,0.483800,0.472341
-0.486326,-0.476175,0.612143,0.567636,0.246230,0.785595
0.036154,-0.119154,0.616855,-0.295460,0.168632,0.940355
-0.229200,-0.189275,0.719440,-0.013234,0.139823,0.990088
0.372771,0.348526,0.599892,-0.055247,0.971518,0.230435
0.360836,-0.565935,0.502181,0.709637,0.637912,0.299139
-0.453071,-0.432870,0.602989,0.744054,-0.061961,0.665240
0.182154,0.117518,0.756031,0.108372,0.993709,0.028261
-0.689340,0.500601,0.482095,-0.135683,0.984465,-0.111438
-0.638585,0.003339,0.421190,0.408965,-0.681071,0.607363
-0.298726,0.225780,0.668659,-0.457229,-0.504453,0.732440
0.394324,0.134261,0.591815,0.739139,-0.589400,-0.326009
-0.213092,0.089196,0.702019,0.940817,0.324862,0.096581
-0.458054,-0.489767,0.605735,-0.090222,0.429535,0.898532
-0.031285,0.495062,0.553877,0.638523,0.575105,0.511412
-0.255156,-0.134514,0.589984,0.167357,0.413166,0.895146
-0.144727,-0.054066,-0.290172,0.977728,0.023214,0.208586
-0.369987,-0.037200,0.530695,-0.402257,0.373606,0.835828
-0.273813,0.412723,0.332876,-0.048521,0.284760,-0.957370
0.455851,0.073206,0.699677,-0.360634,0.932403,0.023828
-0.348785,0.002202,0.737453,-0.409373,0.780752,0.472060
-0.076478,0.107575,0.210016,0.713194,0.231145,-0.661760
0.493394,0.103164,0.697254,-0.455952,-0.116496,0.882347
0.505563,-0.706169,0.509774,0.421331,0.871832,0.249777
-0.042410,0.659215,0.569925,0.857329,-0.346956,-0.380273
0.240092,-0.462198,0.628191,0.059701,0.986894,0.149921
0.100001,-0.570338,-0.976171,0.094014,0.076333,0.992640
-0.362572,-0.511420,0.554066,0.876946,-0.079662,0.473940
-0.122481,0.235223,0.887911,0.048621,0.994784,-0.089675
-0.066742,0.008118,0.749677,-0.241251,-0.668777,0.703232
-0.112862,-0.465848,0.625067,-0.064866,-0.385981,0.920224
-0.657008,0.577138,0.448061,-0.653925,-0.692744,0.304116
0.010428,-0.044000,0.662870,0.994548,-0.065433,0.081197
-0.042177,0.386668,0.478810,0.442106,0.891361,-0.100088
0.452491,0.298675,0.575417,0.360169,-0.141439,-0.922103
0.385978,-0.138540,0.680641,0.791654,0.228859,-0.566486
-0.429778,0.183858,0.646904,0.810323,-0.142779,0.568323
0.098261,0.579282,0.217932,0.768164,-0.052933,0.638062
-0.352607,0.058730,0.359101,0.242396,-0.317209,0.916855
-0.609966,-0.264552,0.226817,-0.112812,-0.985173,-0.129256
-0.743568,0.027888,0.578810,-0.673466,0.672467,-0.306972
-0.371840,-0.252342,0.559208,0.922836,0.031495,0.383904
0.171726,-0.517336,0.538853,0.947147,0.071044,-0.312836
0.408458,0.346759,0.185218,0.837027,-0.003502,0.547150
0.001623,0.504121,0.563517,0.207734,-0.883787,0.419245
0.169990,-0.399131,0.490092,-0.623031,0.207787,0.754093
-0.399883,-0.023600,0.363867,0.192495,0.704706,0.682887
-0.005213,0.679615,0.548977,0.826964,0.247035,-0.505078
-0.263151,0.109964,0.722159,0.179159,0.757110,0.628241
-0.055155,-0.002332,0.968902,-0.137467,0.976906,0.163580
-0.334876,0.155283,0.667825,0.824242,0.101998,-0.556975
-0.008459,0.044001,0.957377,-0.163988,0.983105,0.081319
-0.297336,-0.147983,0.581691,0.086536,0.292646,0.952297
-0.830244,-0.122804,0.520948,0.741749,-0.449262,-0.497968
-0.951678,0.225657,0.255089,0.944927,0.251037,0.209982
0.201045,-0.009255,0.665320,0.068946,0.286766,0.955517
-0.031402,-0.424556,0.658724,0.776595,0.626809,0.063331
-0.151099,0.179579,0.691788,-0.392308,0.892078,-0.224259
0.021090,-0.372569,-0.202558,-0.497707,-0.857927,-0.127473
-0.801969,-0.420153,0.414243,-0.426711,-0.185307,-0.885200
-0.039397,-0.001448,0.875040,0.840452,-0.073347,-0.536900
0.312513,0.034181,0.574717,0.943589,-0.328221,-0.043706
-0.102083,0.084155,0.770463,0.836289,0.101278,-0.538854
0.261878,-0.078238,0.689257,0.732587,-0.204303,0.649290
0.273233,0.024615,0.734141,-0.303583,-0.030086,0.952330
-0.228967,0.099638,0.728998,0.732562,0.678023,-0.060313
-0.381229,0.624093,0.575363,0.114222,0.984425,0.133647
0.356546,0.548186,0.620140,0.574580,0.392022,-0.718454
0.101044,0.015172,0.725336,0.301134,0.442379,-0.844760
0.448205,0.499587,0.207216,0.794393,0.552118,-0.253192
-0.037891,0.464088,0.829698,0.844152,0.334638,-0.418837
0.112399,0.201738,0.600431,-0.000562,0.684275,0.729224
0.007416,0.780701,0.599892,-0.647482,-0.411682,0.641316
0.114022,0.265182,0.781126,0.002726,-0.929697,0.368315
-0.110312,0.001448,0.828837,0.948793,-0.173904,-0.263721
0.225031,0.195315,0.772590,-0.122755,0.527751,0.840482
-0.324101,0.008249,0.875040,0.803809,0.589931,-0.076633
-0.450521,0.749728,0.493753,0.801171,0.362722,0.475981
-0.000927,0.863661,0.519978,0.937888,0.330897,0.104273
-0.409848,0.138164,0.594480,0.069084,0.703301,0.707527
0.049479,0.148483,0.755600,0.452533,-0.562048,0.692326
-0.447508,0.286212,0.623075,-0.739365,0.243830,-0.627604
-0.438470,-0.801846,0.490199,0.503631,0.630410,-0.590710
0.716105,-0.009501,0.374744,0.059057,-0.791871,0.607826
-0.201158,-0.044377,0.842703,-0.217634,-0.841936,-0.493740
-0.142640,0.026751,0.577329,0.820158,0.570415,-0.044354
0.116571,-0.385031,0.500915,-0.745352,0.026999,0.666124
0.009502,0.301318,0.835541,0.913880,-0.349158,0.207152
-0.084586,0.773901,0.525498,0.898730,0.318185,0.301733
-0.580067,0.848555,0.517501,-0.274976,-0.093010,0.956942
-0.078097,0.401774,0.907916,0.868749,0.137377,-0.475819
-0.267324,-0.008118,0.879672,0.578023,0.728058,-0.368540
-0.422826,-0.003838,0.661120,0.615028,-0.053651,0.786678
-0.095945,-0.322341,0.565913,-0.566195,0.625726,0.536554
0.241135,0.302570,0.597254,0.548817,-0.826166,0.127475
-0.079720,0.374835,0.607431,-0.065576,-0.256701,0.964264
-0.259442,0.144833,0.680075,0.527375,-0.125602,0.840298
-0.495134,-0.077608,0.246365,-0.366747,0.733487,-0.572270
-0.106490,0.217974,0.702693,0.405367,0.622110,0.669818
-0.755966,-0.614150,0.416909,0.665894,-0.147189,0.731383
0.021206,0.626490,0.562170,0.152790,-0.382418,0.911269
0.361416,-0.013657,0.048708,-0.511133,0.804625,-0.302196
-0.218309,0.030277,0.841869,0.943580,-0.213306,0.253293
-0.403242,-0.781708,0.464432,0.886435,-0.421906,0.190336
-0.035688,0.102158,0.654900,0.971710,0.195884,-0.131945
-0.207300,-0.005851,0.823263,-0.615416,-0.777305,0.130615
-0.076128,0.488138,0.693188,0.901368,0.310255,0.302122
-0.641367,-0.097501,0.555196,-0.474525,-0.604430,-0.639915
0.325261,0.074712,0.103850,0.728178,-0.684739,0.029810
-0.232676,-0.369172,0.755304,0.697409,-0.632177,-0.337599
-0.495711,-0.017438,0.348923,-0.178869,-0.712014,0.679001
-0.671726,0.098255,0.573452,0.258762,0.348478,0.900891
0.435227,-0.574994,0.552989,0.737439,0.272998,0.617783
-0.188526,-0.403787,0.473479,0.444982,0.714788,0.539508
-0.165700,-0.031914,0.725687,-0.740687,-0.037517,-0.670802
0.806024,-0.106814,0.321702,0.547799,0.230770,-0.804153
0.378333,0.202745,0.557539,0.454604,-0.708660,-0.539570
-0.258749,0.342480,0.479537,0.916795,-0.063920,-0.394209
-0.113209,0.154530,0.833522,0.647879,0.737875,-0.189192
0.221784,0.977718,0.217232,-0.607229,0.648845,-0.458555
-0.140091,0.416757,0.559047,-0.359337,0.051367,-0.931793
-0.359096,-0.103042,0.261201,0.685560,0.692217,0.225485
-0.087486,-0.070186,-0.652396,0.909893,0.414633,0.013160
0.044843,-0.215838,0.611524,-0.578987,-0.770810,0.265756
-0.209270,-0.256499,0.815159,0.886964,-0.426020,0.178331
0.114831,0.263046,0.751293,-0.061512,0.631843,0.772651
-0.297103,0.222507,0.305654,-0.419505,0.901171,-0.109118
-0.049708,0.676841,0.540684,0.893845,-0.062190,-0.444043
-0.245537,-0.092338,0.656193,-0.158640,0.732931,0.661548
-0.104057,-0.048280,0.802127,-0.030411,-0.930738,0.364420
-0.150406,0.134514,0.768121,0.034227,0.809087,0.586691
-0.132329,0.089572,0.746150,0.420018,-0.872110,0.251016
-0.469755,0.335680,0.650646,0.038934,-0.990011,-0.135507
-0.565816,-0.716873,0.355143,-0.261724,0.713051,0.650430
-0.247740,0.151257,0.823236,-0.516812,-0.838835,-0.171060
0.226537,-0.305091,-0.975229,0.003974,0.055207,0.998467
0.201621,-0.347766,0.593107,0.442668,-0.246014,0.862277
-0.557704,-0.409450,0.644642,-0.880866,0.283445,-0.379123
-0.328041,0.179079,0.662466,-0.467136,0.419479,-0.778345
0.068716,0.679108,0.568444,0.508274,0.499547,-0.701506
-0.091192,0.075972,0.956220,-0.599585,0.562391,-0.569398
0.048899,0.725433,0.566774,0.937125,0.243184,-0.250316
0.246117,-0.360859,-0.978244,-0.115125,0.153340,0.981444
-0.601157,-0.017054,0.538503,0.051966,-0.518466,0.853518
0.103710,0.165233,0.764593,0.369258,-0.007021,-0.929300
-0.093625,0.020204,0.922240,0.600515,0.772602,0.206076
-0.730473,0.016301,0.491922,-0.275074,0.955754,0.104253
0.124567,0.592751,0.525767,-0.497788,0.558011,-0.663951
0.207300,0.336310,0.362574,-0.356606,0.495243,-0.792191
-0.110196,0.028895,0.879591,0.070905,-0.984799,0.158567
-0.585166,-0.252719,0.717340,0.872529,0.099044,0.478417
0.319932,-0.592367,0.537803,-0.416122,-0.799047,-0.434012
-0.507532,0.090955,0.764620,0.244123,0.414837,0.876535
-0.034531,0.345630,0.550458,-0.550516,0.334545,-0.764861
0.240325,-0.146600,0.676763,0.944250,-0.111465,-0.309785
-0.276939,-0.401651,0.566909,0.628396,0.681598,-0.374890
-0.450288,-0.121920,0.607701,-0.074456,0.991701,0.104811
0.389108,0.671432,0.407377,0.753100,0.384435,-0.533900
-0.416337,-0.193555,0.498977,-0.146974,0.987884,0.049839
0.544730,0.122305,0.643134,-0.491681,0.201303,0.847188
-0.171726,-0.258136,0.781341,0.366436,-0.900800,-0.232990
-0.234529,0.132624,0.740549,0.907271,-0.419610,-0.028034
-0.119234,-0.434629,0.467798,-0.726329,-0.380743,-0.572260
0.089572,-0.030907,0.886699,-0.226585,-0.965900,-0.125284
-0.306258,0.477935,0.572025,0.646477,-0.313847,-0.695390
0.418773,0.654182,0.609478,-0.285133,0.889300,-0.357553
0.100347,-0.204634,0.718928,0.164435,-0.257569,0.952165
0.598494,0.460439,0.501750,0.413488,0.323296,-0.851180
-0.152142,0.369296,0.576817,0.531018,0.713048,0.457802
0.043223,0.230191,0.774071,0.628308,0.190171,-0.754364
-0.348668,0.585198,0.509828,-0.093450,-0.575616,0.812363
0.108226,-0.243030,0.560043,0.953524,0.247630,-0.171669
-0.094322,0.019320,0.934707,-0.398234,0.885591,-0.239035
-0.523870,0.428590,0.505035,-0.669189,0.287922,-0.685045
0.068716,-0.048779,0.867932,0.050597,-0.996482,0.066811
0.048552,0.565805,0.524610,-0.604855,-0.790789,0.093830
-0.127230,0.518473,0.803393,0.577882,-0.341311,0.741323
-0.549825,0.382135,0.616236,-0.094033,-0.121426,0.988136
0.126186,-0.248693,0.813759,0.572084,-0.248225,-0.781732
0.397800,0.310377,0.436187,0.617227,-0.318328,-0.719512
0.069409,-0.106568,0.877437,0.610720,-0.396848,0.685224
-0.417380,-0.506640,0.484868,-0.242737,0.633486,0.734693
-0.819699,0.696988,0.476575,-0.123817,0.957192,0.261635
-0.234183,-0.150119,0.726063,0.377644,0.108252,-0.919601
-0.360949,0.497451,0.608778,0.985299,0.072486,0.154696
-0.050289,0.786241,0.543646,0.758027,0.100891,-0.644373
0.054808,0.035441,0.840280,0.382806,0.050522,0.922446
0.147856,-0.446716,0.548735,0.306062,-0.231006,0.923560
-0.678561,0.020581,0.547927,0.815069,-0.384429,0.433448
-0.243914,-0.253603,0.713005,-0.358085,-0.443522,-0.821622
-0.541133,0.467615,0.631341,-0.047358,-0.375018,0.925807
-0.582387,0.025744,0.704039,0.515913,0.807066,0.287191
-0.046003,0.057969,0.958024,-0.381123,-0.913086,-0.144983
-0.358169,-0.053943,0.575444,0.917763,-0.157328,-0.364636
-0.256662,0.109964,0.708724,0.569279,0.122042,0.813036
0.515991,-0.103164,0.690092,-0.256909,0.159228,0.953228
-0.101737,-0.064393,-0.293915,0.739346,-0.014989,0.673159
0.426535,-0.137026,0.359208,-0.270694,-0.830226,-0.487288
-0.370221,0.195822,0.640307,0.020957,-0.154146,0.987826
-0.252026,0.294518,0.613651,0.614361,-0.693211,0.376855
-0.379373,0.235346,0.584787,0.011234,-0.892169,0.451562
-0.262688,0.302325,0.325956,0.386870,-0.470228,0.793232
-0.188063,0.533956,0.431206,-0.206089,0.086008,0.974746
0.001390,-0.021341,0.656193,0.859287,-0.507696,0.062217
0.037891,-0.237613,-0.530829,0.731857,0.641624,0.229573
0.042760,-0.061872,0.598627,0.115085,0.981548,-0.152703
-0.403129,-0.200478,0.508454,-0.216930,-0.973943,-0.066152
-0.858283,0.727445,0.469655,0.860341,0.335226,0.383975
-0.328041,0.417511,0.402100,0.230260,0.964040,0.132692
-0.473118,0.559888,0.494750,-0.102555,-0.655641,0.748076
-0.179488,-0.163842,0.728433,-0.535653,-0.363896,0.762008
0.323985,-0.057093,0.456166,0.922666,0.259912,0.284839
0.572538,-0.792534,0.543080,0.316277,0.767527,0.557558
-0.756662,0.236484,0.630614,-0.403086,0.176297,-0.898021
0.338356,0.377732,0.577571,-0.502706,0.439970,-0.744119
0.016108,0.675712,0.582337,0.986426,0.163121,-0.018849
-0.482156,0.335680,0.647577,0.145323,-0.976677,0.158062
-0.084010,0.231197,0.774179,-0.619070,0.282115,0.732915
0.161414,0.623839,0.198331,-0.346660,0.558335,0.753716
-0.741831,-0.063256,0.519494,0.073920,0.996469,0.039808
-0.160371,-0.018068,0.649111,-0.008693,-0.321108,0.947003
-0.678911,-0.253726,0.254012,-0.704001,-0.692773,-0.156358
-0.160601,0.266196,0.464190,0.071976,-0.189720,0.979196
-0.269177,0.358216,0.537641,0.745880,-0.665446,0.029077
0.113442,0.194685,0.762735,0.182943,0.692298,0.698037
-0.271030,-0.701390,0.566047,-0.005467,0.145960,0.989275
-0.419466,0.179333,0.372159,-0.599842,-0.255956,0.758074
-0.064773,-0.313781,-0.304631,0.403335,-0.700999,0.588150
-0.840556,0.686161,0.465563,-0.428747,0.893686,0.132291
-0.341945,-0.738779,0.564809,-0.122639,0.358611,0.925396
0.571262,0.029271,0.034814,-0.467049,0.818651,-0.334178
-0.788874,-0.277898,0.569305,0.236811,0.864964,0.442445
-0.140441,-0.051177,0.867905,-0.091204,0.783053,0.615232
0.336616,-0.131871,0.331664,-0.240731,0.820043,-0.519209
-0.640324,-0.821993,0.351427,-0.448608,0.821202,0.352674
-0.453997,0.187262,0.668363,-0.255320,0.215727,-0.942483
-0.277519,0.093222,0.590442,0.195276,0.148573,0.969429
0.020164,0.691317,0.574771,0.436269,-0.877618,0.198634
-0.726997,-0.664631,0.269979,0.400973,-0.798685,-0.448690
-0.860949,-0.030024,0.531933,-0.734136,-0.159900,-0.659906
-0.011935,-0.063133,0.654712,-0.701129,-0.531645,0.475155
-0.237312,-0.203244,0.725148,-0.247303,0.314922,-0.916332
-0.323868,-0.085792,0.667232,-0.507786,0.369173,-0.778373
0.359212,0.385915,0.588961,-0.095445,-0.962781,0.252871
0.615065,0.066529,0.374879,-0.332715,0.446885,0.830418
-0.258398,-0.734998,0.398304,0.174483,0.961673,0.211521
0.009965,-0.306228,0.633495,0.589256,-0.489673,-0.642649
-0.376130,0.759302,0.526252,-0.550749,-0.274041,-0.788402
-0.187717,0.184365,0.863732,0.937668,-0.221754,-0.267589
-0.327578,-0.617677,0.561147,0.177223,0.976593,-0.121897
0.607650,-0.689557,0.550108,0.684870,0.595647,0.419711
-0.177288,0.170266,0.746419,0.572035,0.783886,0.241453
-0.200231,-0.179579,0.800404,0.948249,0.154247,0.277545
-0.611585,-0.208915,0.552585,0.438312,-0.513102,0.737977
-0.153649,0.147230,0.738826,0.860952,0.461258,0.214482
0.073002,0.155283,0.855708,0.749873,-0.226334,-0.621662
-0.354806,-0.294141,0.655708,0.074494,0.987882,0.136161
-0.382385,-0.486117,0.620894,0.498243,0.428457,-0.753776
0.251450,-0.130987,0.717044,-0.431897,-0.247547,0.867286
0.033488,-0.052429,0.835891,0.291617,0.721821,-0.627642
0.253649,-0.113360,0.652181,-0.545834,-0.074182,0.834603
-0.659211,-0.166486,0.601050,0.110133,0.990103,-0.086989
-0.141714,0.412723,0.699731,0.061787,0.021552,0.997857
-0.323292,0.145840,0.734841,0.599267,0.599431,-0.530624
-0.490265,-0.260026,0.646096,0.810380,-0.390443,0.436851
-0.404865,0.448983,0.586537,-0.506093,-0.259446,0.822531
-0.483313,-0.534840,0.611308,0.934185,0.007668,0.356707
-0.129546,-0.236230,0.499192,-0.022597,-0.899792,0.435733
-0.352724,0.610247,0.602235,0.248379,-0.138287,0.958741
0.006259,0.633913,0.568148,-0.108371,0.593247,-0.797692
0.292583,0.116888,0.743026,0.941138,0.121179,-0.315557
-0.582270,-0.077985,0.393807,0.559516,-0.783112,-0.271438
-0.519234,-0.034934,0.491384,0.834284,-0.452906,0.314398
-0.763035,-0.181345,0.582875,-0.220133,0.730473,-0.646491
-0.171146,0.236860,0.486645,-0.587582,-0.766819,-0.258332
0.156315,0.325867,-0.484680,-0.836181,0.180434,-0.517925
-0.987252,-0.237613,0.517178,-0.292110,0.295600,0.909556
0.473581,-0.004591,0.614163,-0.203836,0.346292,0.915714
-0.864772,0.140553,0.342865,-0.589656,0.758607,-0.277167
-0.388182,-0.325990,0.575013,0.998905,-0.046543,-0.004668
0.097914,-0.291998,-0.332229,0.182362,0.970850,-0.155545
-0.176128,-0.240510,0.801104,0.903170,-0.312600,0.294220
0.189686,0.300688,0.764216,-0.247552,-0.962914,0.107306
-0.961759,0.031284,0.325579,-0.789057,0.405063,-0.461859
-0.155618,0.007242,0.900673,0.285705,0.937383,-0.199211
-0.292003,0.163343,0.711120,0.704452,0.341023,0.622455
-0.302782,0.180208,0.718928,0.744145,0.398264,0.536314
-0.211006,-0.796690,0.416909,-0.841817,0.409501,-0.351643
0.273696,-0.543906,0.627437,0.822180,0.178667,0.540461
-0.119931,0.094982,0.959182,0.619674,0.784819,0.007957
-0.012515,-0.216590,-0.833468,0.993912,0.104678,-0.034379
-0.082387,0.229560,0.863489,-0.107509,0.883180,-0.456546
0.443802,0.247809,0.558616,-0.212203,0.871265,-0.442569
0.361182,0.271729,0.558912,0.974084,-0.022941,0.225018
-0.249827,-0.414614,0.619602,-0.245593,0.743782,0.621670
-0.492468,-0.276892,0.698950,0.415293,-0.906158,0.080054
-0.099187,0.009754,0.758401,0.044254,-0.572576,0.818656
0.241021,-0.216337,-0.980668,0.038556,0.419185,0.907082
-0.032562,0.116135,0.733010,-0.132163,-0.969332,-0.207193
-0.399190,-0.110848,0.563086,-0.709658,0.677208,-0.194357
0.078794,0.281425,0.622429,0.970377,-0.143292,0.194514
-0.260835,-0.027127,0.418875,0.468091,-0.881032,-0.068359
-0.503360,-0.701390,0.497227,0.767664,-0.475748,-0.429366
0.106373,-0.068419,0.631045,-0.611966,-0.319963,0.723271
0.042063,-0.046766,0.776306,-0.162993,0.269618,0.949073
-0.105910,-0.005605,0.858024,-0.187479,-0.102820,-0.976872
-0.383082,-0.304338,0.482014,0.872306,0.447558,-0.196914
0.443915,0.329387,0.487345,-0.312980,0.389149,0.866376
-0.604053,0.617923,0.474825,0.489414,0.861212,0.137068
-0.100114,-0.068419,0.686538,0.196945,0.742507,0.640231
-0.179838,-0.120914,0.601939,-0.187761,-0.486191,0.853443
-0.272307,0.053820,0.620409,0.564755,0.491121,0.663213
-0.586906,0.420284,0.314109,0.390431,0.138565,0.910145
0.114831,-0.205887,0.694615,0.152000,-0.915834,-0.371678
-0.177635,-0.006857,0.644023,0.424061,0.092680,-0.900879
-0.876710,-0.126453,0.514055,0.793583,-0.326404,-0.513503
-0.418657,0.039967,0.626467,-0.408096,0.879007,0.246583
0.309270,0.440677,0.292596,-0.143426,-0.091353,0.985436
0.041717,-0.526779,0.638745,-0.328000,0.861466,-0.387675
-0.193509,0.084916,0.814028,0.165904,0.566952,0.806871
-0.385862,0.138041,0.753904,0.862912,0.387577,0.324294
-0.530592,-0.384401,0.285757,-0.494437,0.570706,0.655611
-0.517497,-0.106315,0.602692,0.937308,0.346188,0.040101
0.076595,0.336563,0.814943,0.194248,0.920766,-0.338316
0.331170,0.450742,0.490926,0.916318,-0.243328,0.318045
-0.364658,0.172156,0.835353,0.310224,0.927521,0.208484
0.035691,0.281548,0.557620,0.834518,0.550955,-0.005298
-0.551795,-0.135389,0.629537,-0.232556,-0.364732,0.901603
0.533951,0.180838,0.698869,-0.455330,-0.611092,0.647488
0.368598,-0.049663,0.395503,0.850055,0.433056,-0.299782
0.276592,0.213694,0.729968,-0.828637,-0.345830,0.440184
-0.061180,0.134383,0.940576,0.899304,0.435726,-0.037345
-0.595365,-0.264175,0.215024,-0.111452,-0.948129,-0.297709
0.487719,0.013281,0.360070,0.374245,0.442634,-0.814872
-0.290960,0.186632,0.740038,-0.203566,-0.262458,0.943227
0.145770,0.288095,0.791492,0.730641,0.565335,-0.382830
0.175202,-0.094098,0.756274,0.816906,-0.576709,0.008453
-0.412977,0.033044,0.760366,0.847870,0.113578,0.517896
-0.341715,0.790390,0.525040,0.423368,-0.475402,0.771202
-0.660834,-0.170896,0.559801,-0.689490,0.658739,-0.301108
0.223871,0.118402,0.739068,0.996063,-0.087357,0.015075
0.469408,-0.655695,0.522644,0.263347,0.787667,-0.556982
-0.810427,0.707683,0.485191,-0.466752,0.777402,0.421651
-0.641831,-0.011644,0.536160,0.693243,0.714811,-0.091970
0.396293,0.109964,0.602100,0.244786,-0.493009,-0.834879
-0.571262,0.400261,0.404496,0.833065,0.509272,0.215973
-0.023986,0.877638,0.224636,0.369514,0.202386,-0.906918
0.466395,-0.535723,0.543403,0.572383,0.817495,0.063872
-0.639048,0.415121,0.409101,0.902922,0.370367,-0.218081
0.096755,0.248946,0.888961,-0.366694,-0.926908,-0.079851
-0.072075,0.047397,0.986780,-0.003562,-0.995582,0.093826
-0.548665,0.087559,0.683172,-0.619911,0.685401,-0.382015
-0.981343,-0.095865,0.526440,0.944583,0.022469,-0.327502
-0.075664,0.672185,0.522159,-0.517490,-0.731002,0.444793
-0.702548,-0.089818,0.469898,0.752899,0.393161,-0.527795
0.050059,-0.083656,0.898411,-0.200527,-0.067294,0.977374
-0.872074,0.030154,0.480210,0.484047,0.874545,-0.029471
-0.463729,-0.725939,0.479564,0.903681,-0.236800,0.356773
0.052608,0.706300,0.234383,-0.748321,0.311374,-0.585714
0.219585,0.160569,0.784087,-0.101888,0.962843,0.250104
-0.365121,0.287342,0.672159,-0.672050,0.740426,-0.010899
-0.552955,0.080882,0.686914,-0.675440,0.642081,-0.362647
-0.502663,-0.723043,0.512332,-0.663938,-0.507735,-0.548991
0.286674,-0.238750,0.617609,0.969378,0.082044,-0.231464
-0.593858,-0.322463,0.700889,0.889219,-0.430961,0.153503
-0.102317,-0.189022,0.722267,-0.524501,-0.313771,-0.791484
0.003822,0.714606,0.580102,0.976957,0.147773,0.154004
-0.249014,0.140553,0.798546,-0.426997,0.514196,-0.743825
-0.422479,-0.161330,0.577114,0.829278,0.387691,0.402484
-0.040787,-0.221247,0.754739,0.926932,-0.278612,0.251342
0.199651,0.566566,0.219036,-0.742980,-0.055765,-0.666986
-0.178331,0.199848,0.619871,0.737416,-0.198738,-0.645539
-0.135225,0.020711,0.960420,0.999437,-0.033532,0.000546
0.198608,0.259266,0.511820,0.805343,0.370617,-0.462672
0.338819,0.799710,0.201077,0.859490,-0.128042,-0.494856
-0.187600,-0.347766,0.753581,0.632889,-0.674093,-0.380855
-0.300925,0.014034,0.355546,0.911979,0.029194,-0.409196
-0.036731,0.539373,0.541788,-0.412306,0.619925,0.667605
0.377056,0.336310,0.546715,0.936549,0.057436,-0.345800
-0.359906,0.819473,0.553312,-0.187841,-0.709602,0.679103
-0.286791,0.195568,0.645180,0.464975,0.885059,-0.021664
0.128389,0.051423,0.735407,0.883409,0.177808,-0.433558
0.424219,0.142566,0.581879,-0.744885,0.603643,0.284186
-0.048666,0.130864,0.871513,0.866242,0.491045,-0.092192
-0.691310,-0.176812,0.479968,0.988521,-0.104839,0.108785
-0.084010,0.303708,0.473371,-0.605488,-0.313002,-0.731720
0.080187,0.165102,0.785595,0.516766,0.231513,-0.824230
-0.296756,-0.664755,0.545207,-0.470857,-0.877673,-0.089347
-0.039860,-0.192172,-0.321890,0.730803,0.659218,0.177085
0.052608,0.896893,0.596634,-0.549148,0.751198,-0.366249
-0.299769,0.167623,0.773533,-0.111538,-0.968591,-0.222242
-0.579604,-0.234086,0.522698,-0.189331,0.703256,0.685262
-0.326418,0.207148,0.289742,-0.333472,0.939313,-0.080547
-0.592932,-0.205641,0.506435,0.505301,0.859032,0.082069
0.390731,-0.437150,0.479644,0.452021,0.891985,0.006337
-0.057011,0.444073,0.509935,0.004291,-0.335902,0.941887
-0.249014,-0.304591,0.475444,-0.094936,-0.155519,0.983260
-0.065700,-0.118778,0.690334,0.903367,-0.220642,-0.367756
0.231170,0.004092,0.062682,-0.582867,0.791049,-0.185760
-0.130939,-0.764711,0.578595,-0.169175,-0.203880,0.964268
0.086326,-0.161952,0.784195,-0.594689,0.442370,0.671308
-0.506372,-0.292505,0.550512,0.554531,-0.130032,-0.821941
-0.260718,-0.163212,0.531718,-0.203857,0.517410,-0.831101
0.012978,-0.246933,-0.725229,0.806026,0.590800,0.035738
-0.474624,0.106568,0.593861,0.758569,-0.597847,0.259138
-0.363269,0.289486,0.604200,0.485923,-0.643853,-0.591043
0.336616,-0.143826,-0.979348,-0.230614,0.260833,0.937434
0.063847,0.866427,0.609451,0.987298,-0.158417,-0.012080
-0.500117,0.123557,0.769467,0.028590,0.296904,0.954479
0.019120,0.470512,0.627868,0.001015,0.351658,0.936128
-0.092932,0.526534,0.666801,-0.438152,0.144066,-0.887281
-0.183894,-0.048657,0.822590,-0.477901,-0.834491,-0.274290
-0.446002,0.021718,0.779295,-0.383702,-0.814869,0.434467
0.503130,0.273995,0.136726,0.942620,-0.324359,0.079115
-0.204404,0.788508,0.537695,-0.178737,0.791535,0.584401
-0.040440,-0.155282,-0.802881,0.930495,0.354053,-0.093939
-0.365351,0.113614,0.719063,0.878275,0.446992,0.169798
-0.438587,0.832819,0.518174,0.766440,0.167793,-0.620012
0.304518,0.914266,0.196258,0.450204,0.483583,-0.750642
-0.180881,0.149366,0.704281,-0.498902,-0.114360,0.859080
-0.081344,-0.015801,0.774610,0.910725,0.379944,-0.161933
-0.165237,0.263169,0.360312,0.441161,-0.269774,-0.855920
0.656315,0.513187,0.497227,0.221983,-0.167067,-0.960631
-0.901506,0.629887,0.401993,-0.453297,-0.881466,0.132440
-0.024796,0.163090,0.587588,0.709166,-0.678644,-0.191121
-0.301738,0.175053,0.660285,-0.552427,0.588365,-0.590467
0.305795,0.019951,0.668444,0.807136,0.416831,0.418070
0.416107,-0.611884,0.484168,-0.465089,-0.844870,-0.264361
-0.057591,-0.042233,0.885326,0.928144,-0.169480,0.331398
0.024450,-0.020580,0.660097,0.858946,-0.472143,0.198225
0.514485,0.488638,0.491465,-0.482771,-0.304384,0.821147
-0.436500,-0.409327,0.611497,-0.389292,0.912668,-0.124452
-0.142524,-0.160945,0.790388,-0.700224,0.419290,-0.577825
-0.387601,0.180716,0.602800,-0.447678,-0.411356,0.793959
0.101044,-0.030654,0.908535,-0.584086,-0.496252,0.642322
0.630822,0.005475,0.380668,0.425002,0.433758,-0.794498
0.196989,-0.388935,-0.978164,-0.169028,0.071401,0.983022
-0.421089,-0.336309,0.568794,0.293754,0.953381,0.069091
-0.353650,-0.200854,0.720679,0.117952,-0.988324,0.096450
-0.094322,0.547303,0.538880,-0.199318,0.793467,0.575050
-0.182037,0.201738,0.845827,-0.550949,0.340567,-0.761885
-0.292003,0.334673,0.786484,-0.588334,0.703028,-0.399518
-0.599421,-0.043870,0.531664,0.121480,-0.987131,-0.103996
-0.742988,0.169006,0.583441,0.587229,0.152619,0.794902
-0.077171,0.839742,0.535406,-0.654574,-0.345609,0.672374
-0.501273,-0.097125,0.594023,-0.716198,-0.490764,-0.496197
-0.555968,0.636810,0.665024,-0.056544,0.810422,0.583112
-0.367091,-0.723166,0.456920,-0.683500,0.433368,-0.587385
0.265584,0.043747,0.794669,-0.540527,0.839439,-0.056327
-0.904982,0.561402,0.268282,0.337348,0.637467,-0.692699
0.082733,-0.267326,0.530910,0.934561,0.355666,-0.009875
0.027695,0.074090,0.782499,0.015000,0.982802,0.184050
-0.383429,0.749859,0.531745,0.497274,0.489414,0.716375
-0.028506,0.467869,0.650108,0.738092,-0.641162,0.210073
0.222594,-0.100145,-0.993780,-0.021022,0.162595,0.986469
-0.259095,-0.144710,0.660824,-0.119933,-0.151502,0.981154
0.176015,-0.468368,0.520140,-0.539213,0.436361,0.720305
0.276016,-0.053566,0.737614,0.044277,-0.605138,0.794888
-0.273000,0.126331,0.749596,0.463457,-0.682152,-0.565576
0.240671,0.464596,-0.555870,0.188621,0.906961,-0.376623
-0.375780,0.548563,0.507754,-0.214203,-0.219411,0.951828
-0.223984,0.107575,0.669871,-0.376646,0.322964,-0.868235
-0.013905,0.016931,0.873963,0.773492,0.449479,-0.446855
0.228507,0.329010,0.583602,-0.068371,0.383981,0.920806
-0.622014,0.210928,0.330237,-0.018006,0.857632,0.513949
-0.476940,-0.293511,0.279537,-0.548225,0.237757,0.801824
-0.137891,0.029140,0.764432,0.392835,-0.421170,0.817494
-0.249014,-0.395735,0.327840,-0.220613,-0.892154,0.394198
0.060140,-0.199594,0.625310,-0.046156,-0.059039,0.997188
-0.143567,-0.006857,0.900673,0.234937,0.944579,-0.229291
-0.165700,-0.092592,0.857135,-0.430321,0.878972,0.205502
-0.743105,0.634289,0.556839,0.831133,-0.457073,-0.316706
0.374393,0.491788,0.599892,0.483343,0.484838,-0.728912
0.368368,0.159693,0.563436,-0.387245,-0.679569,-0.623079
-0.504866,0.225527,0.658616,-0.383885,0.228403,0.894687
-0.591772,0.087052,0.693619,-0.324566,-0.789150,-0.521439
-0.314833,-0.408321,0.370840,0.556694,0.815317,0.159216
-0.200348,0.106315,0.771513,-0.189263,0.966167,0.175218
0.008692,-0.096618,0.622563,0.879635,-0.411292,0.238917
-0.382735,0.179202,0.723210,0.600701,-0.178972,0.779184
0.112052,0.563292,0.374179,0.178539,0.066177,0.981705
-0.610196,0.749106,0.516343,0.000532,-0.043771,0.999041
-0.238239,-0.675205,0.562520,-0.609689,-0.694032,-0.382883
-0.473231,0.425317,0.610716,-0.166705,0.984287,0.058212
-0.159328,0.023477,0.880075,-0.713684,0.669626,0.205565
-0.092469,0.258259,0.753258,0.361753,0.927847,0.090741
-0.013558,-0.102665,0.472994,0.836052,0.448731,-0.315687
-0.159211,0.630893,0.531772,0.877505,0.177327,-0.445578
-0.038354,0.113491,0.649084,0.989662,0.059774,-0.130370
0.390268,0.736390,0.419144,0.748185,0.238652,-0.619084
-0.227347,-0.731856,0.365940,-0.210387,0.977618,0.000279
-0.153069,-0.018944,0.937076,0.764309,-0.541767,0.349742
-0.368715,-0.044000,0.525741,-0.194175,0.332797,0.922791
0.220975,-0.467362,0.435326,-0.189574,0.100680,0.976691
-0.036151,-0.308111,-0.507728,0.569003,0.822313,-0.006017
-0.504056,0.262293,0.653150,-0.376235,0.445450,0.812417
0.289107,0.550453,0.267340,-0.392982,0.211924,0.894792
-0.499420,0.174799,0.756300,-0.391708,-0.893605,-0.219170
-0.219698,-0.397617,0.614136,0.825727,-0.095706,-0.555892
-0.551449,0.813687,0.519790,0.383857,0.315641,-0.867770
0.102317,0.105309,0.644265,0.830499,0.272850,-0.485617
-0.569292,-0.777927,0.355062,0.241164,-0.611881,-0.753287
-0.605447,-0.037953,0.257243,0.010283,-0.887864,0.459991
0.090615,-0.081635,0.504496,-0.039543,0.645583,0.762666
-0.660371,-0.011268,0.547684,0.455855,-0.443198,0.771863
-0.113555,0.052683,0.961066,0.912326,0.036477,0.407837
-0.331864,-0.174415,0.637049,-0.694409,0.695594,-0.184242
-0.711819,0.110971,0.705304,-0.304479,0.951644,-0.040818
0.033025,-0.083525,0.570490,0.574782,-0.399333,0.714255
-0.236152,-0.253856,0.724314,0.313354,0.494959,0.810447
-0.367671,-0.727699,0.300511,-0.189657,-0.720781,0.666712
0.011355,-0.094605,0.744265,-0.371752,0.906995,-0.197891
-0.898839,-0.033297,0.496042,0.977101,0.142702,-0.157828
-0.716339,-0.188515,0.564997,0.150977,-0.973063,0.174223
0.012051,0.656572,0.452100,-0.465459,0.769626,-0.437062
0.454577,-0.083402,0.341976,-0.145751,-0.391775,0.908443
0.029665,0.141314,0.694561,0.640466,0.766049,0.054517
-0.049825,0.785488,0.511039,-0.326529,-0.850113,-0.413143
-0.636498,-0.197834,0.643996,0.976398,0.046619,0.210887
-0.540787,0.750235,0.518740,-0.129261,-0.234636,0.963451
-0.038124,-0.079376,0.849273,0.048997,0.847050,0.529250
-0.346465,0.138794,0.814997,-0.786730,0.257348,0.561096
0.004289,0.081512,0.671244,0.588024,0.360071,-0.724277
-0.052142,0.493671,0.619682,-0.611105,0.704628,0.360624
-0.733949,-0.880150,0.333145,0.814013,-0.209944,-0.541577
0.115182,-0.358469,0.580318,0.299124,0.921454,-0.247887
0.004753,-0.091078,0.742569,-0.371752,0.906995,-0.197891
-0.065700,0.965508,0.538045,0.236906,-0.489364,0.839285
-0.144610,0.646253,0.512278,0.690624,0.271292,-0.670403
-0.158981,0.420031,0.301939,0.930026,-0.289232,0.226709
-0.390034,0.170012,0.581341,-0.087561,-0.832294,0.547375
0.092815,0.240886,0.579456,-0.370600,0.490031,-0.789003
-0.254693,-0.069679,0.674852,-0.251362,0.949398,-0.188311
0.523060,0.350663,0.474933,0.277427,-0.689020,0.669542
-0.428158,0.440423,0.667663,0.032485,-0.712214,0.701210
-0.350174,-0.191288,0.683360,0.170990,-0.022312,0.985020
-0.454924,-0.242653,0.709155,-0.400535,0.872763,-0.279027
-0.209153,0.140307,0.630910,0.761596,0.482218,-0.432940
-0.763035,0.020957,0.257485,-0.230760,0.815731,-0.530407
-0.115528,0.229184,0.694238,0.304612,0.199765,0.931292
-0.036038,0.761692,0.518390,-0.016157,0.890813,0.454082
0.505099,0.647382,0.644642,0.970358,-0.082077,-0.227309
0.310430,-0.279035,0.445234,-0.274504,-0.145693,-0.950485
0.010311,-0.132116,0.885837,-0.332611,0.918227,0.215008
0.092815,0.539750,0.646554,-0.268674,0.898546,-0.347029
-0.089686,0.156543,0.871621,0.842313,0.448721,0.298594
-0.399653,-0.291114,0.680425,0.127742,-0.402190,0.906601
-0.009619,-0.126830,0.882553,0.813764,-0.287022,-0.505377
-0.755619,-0.916156,0.335730,-0.806113,0.247846,0.537358
-0.665583,0.480455,0.606220,-0.514088,0.689630,-0.510023
0.291540,0.040351,0.415805,-0.236936,0.543154,0.805509
0.037891,0.599928,0.350700,0.543120,0.253086,0.800605
-0.841252,-0.093975,0.523344,0.992478,-0.012573,0.121775
0.029665,-0.176559,0.457701,0.211909,0.484699,0.848624
-0.588063,-0.262539,0.219709,0.758426,-0.648124,0.068738
0.414254,0.210805,0.449246,-0.503567,0.415467,-0.757501
0.180534,0.239880,0.776090,-0.729458,-0.573145,0.373356
-0.144610,-0.047904,0.788934,0.709357,0.426748,-0.560980
-0.013905,0.178572,0.797334,0.095080,-0.977036,-0.190682
-0.320509,0.679108,0.517690,0.523470,0.120445,0.843488
-0.091425,-0.097371,0.923613,-0.439679,0.593756,-0.673896
0.039280,-0.155029,0.839014,-0.118711,-0.989409,-0.083528
-0.058284,0.467492,0.691357,0.971129,-0.194965,0.137469
-0.190496,0.136904,0.829241,-0.395962,0.898209,-0.190877
0.089456,0.367029,0.606058,-0.066873,-0.868044,0.491964
-0.143337,0.009885,0.786753,0.109596,-0.985142,-0.132227
0.196175,-0.551459,0.536295,0.932496,-0.301001,-0.199623
-0.320045,0.105055,0.798465,-0.540558,-0.784510,-0.303876
-0.359326,-0.485488,0.538907,0.747251,0.486526,0.452669
0.005679,-0.060236,0.210366,0.176241,0.362823,0.915040
-0.160717,0.289101,0.892973,0.647988,0.440428,-0.621398
-0.188180,0.179579,0.750054,0.104110,0.946995,0.303912
-0.536731,-0.046136,0.569440,0.168890,-0.021099,-0.985409
-0.219118,0.207278,0.746661,0.597841,0.646273,0.474255
-0.280185,-0.112231,0.336134,-0.205818,0.701344,0.682463
-0.622247,0.341473,0.597146,0.858101,-0.319907,0.401650
-0.481226,-0.347896,0.611228,-0.676580,0.733116,-0.069143
-0.247970,0.020834,0.708212,0.974768,0.064745,0.213624
-0.008342,-0.108958,0.874852,-0.539848,-0.149812,0.828324
-0.291310,0.734753,0.507916,0.829212,-0.183708,0.527882
0.183548,0.172909,0.316451,0.653561,0.038579,-0.755890
-0.197798,-0.667528,0.548708,-0.672612,0.533489,-0.512819
-0.123523,-0.135267,0.440361,-0.030988,0.084871,0.995910
0.431751,-0.065522,0.653689,-0.374532,0.748281,0.547541
0.336036,-0.050416,0.352585,-0.617719,0.400476,0.676788
-0.530475,-0.179079,0.597684,0.514793,0.191900,-0.835561
-0.048899,0.046013,0.996015,0.716307,-0.538290,0.444014
-0.123987,-0.493294,-0.988934,0.005008,-0.060599,0.998150
-0.113325,0.022095,0.828998,0.946797,0.041013,-0.319206
-0.465235,0.575502,0.610124,0.586193,-0.422391,-0.691349
-0.206024,-0.641596,0.577706,0.203913,0.171160,0.963911
-0.695829,-0.132116,0.469736,0.405146,0.816275,0.411766
0.350057,0.323977,0.476010,0.685348,-0.180071,-0.705601
0.048206,-0.252849,0.615213,-0.630473,-0.776142,-0.010357
0.394324,0.329517,0.564970,-0.014136,-0.722551,0.691173
-0.722711,-0.567695,0.410151,0.697998,-0.151615,0.699865
-0.211586,0.012651,0.730479,-0.111088,-0.028763,0.993394
-0.495364,0.598414,0.638018,-0.736110,0.348596,-0.580191
0.014138,0.783974,0.396661,-0.388420,-0.175195,0.904675
-0.215412,0.216591,0.586403,-0.347087,-0.292599,-0.891020
-0.302318,0.439293,0.469682,-0.327077,-0.666105,0.670317
0.099074,0.481838,0.649865,0.429292,-0.903104,-0.010585
-0.325028,0.066030,0.540253,0.973464,-0.172754,-0.150080
-0.835340,0.076602,0.571244,-0.008711,-0.900929,0.433878
-0.304288,-0.505004,0.634733,0.582233,-0.482792,-0.654153
0.092005,-0.030147,-0.995504,0.038600,-0.036666,0.998582
-0.795713,-0.108705,0.544669,-0.125089,0.463666,0.877136
0.794206,-0.182598,0.306300,-0.498415,-0.102221,0.860891
-0.040440,-0.176682,-0.041788,-0.510763,0.768049,-0.386293
0.235109,-0.626483,0.466532,-0.374332,0.887654,-0.268226
-0.460486,0.101659,0.574771,0.969530,-0.168078,0.178217
-0.308457,0.139800,0.838988,0.106503,0.152311,0.982577
-0.949131,0.053444,0.451454,0.910595,-0.010263,-0.413172
0.062803,0.201231,0.783253,0.468594,0.326145,-0.821005
-0.089919,0.378992,0.523802,-0.679201,0.579893,-0.449901
-0.308227,0.195691,0.596581,0.940256,0.242396,-0.239088
-0.591889,-0.128843,0.553958,-0.302586,-0.935126,0.184342
-0.738469,-0.403534,0.399327,0.324984,0.800167,0.504101
0.224914,0.078616,0.802046,0.287353,-0.494583,-0.820254
0.084706,0.150880,0.869628,0.469295,0.619425,-0.629345
-0.148203,0.129097,0.754470,-0.593171,-0.805063,-0.004658
0.384242,0.817967,0.405574,0.762076,0.523433,-0.381127
0.030128,-0.408198,-0.986914,0.237643,-0.238658,0.941577
-0.415410,0.000188,0.333145,-0.235563,0.779086,-0.580978
0.018657,0.354689,0.634626,0.852678,0.338777,0.397706
-0.420510,0.614527,0.449569,0.356104,-0.547823,0.757020
0.343222,0.095112,0.826575,-0.534951,-0.690940,0.486239
0.285865,-0.209921,-0.983737,0.307601,-0.335046,-0.890576
-0.698725,-0.774784,0.327141,-0.539599,0.393211,0.744459
-0.043106,0.039091,0.943430,0.271492,-0.321169,-0.907272
-0.381693,-0.591237,0.400700,-0.622432,0.400483,0.672452
-0.659094,-0.335556,0.192946,0.364081,0.885521,0.288614
-0.100927,-0.167623,0.604739,0.353549,0.431520,-0.829936
-0.118654,0.165356,0.764136,-0.380306,0.656832,0.651106
-0.111472,0.013788,0.933710,-0.527652,0.814146,-0.242382
-0.355157,0.189905,0.770625,0.017149,-0.980565,0.195444
-0.071145,0.011268,-0.154173,0.996409,-0.004455,-0.084557
-0.394784,-0.657709,0.483818,-0.660828,0.606288,-0.442403
0.135688,-0.196198,0.647658,-0.903316,0.401265,0.151678
-0.395713,-0.600173,0.536430,0.947381,-0.263052,-0.182409
-0.520623,0.709066,0.573990,0.906774,0.311961,0.283621
-0.151562,0.398755,0.661174,-0.406081,0.794326,-0.451824
-0.914947,-0.047397,0.501723,0.700103,-0.670945,-0.244311
0.409964,-0.035187,0.074906,-0.496086,0.826122,-0.267246
-0.891771,-0.232834,0.577464,-0.164721,-0.176444,-0.970430
-0.211240,0.067290,0.712547,0.504539,0.862819,0.031362
0.106836,0.078116,0.269198,-0.711981,0.641681,0.285181
-0.521783,0.273749,0.572833,-0.468220,-0.529634,-0.707289
0.068716,0.359099,0.542272,0.059940,0.018711,0.998027
-0.857819,0.656702,0.503150,-0.534712,0.627266,0.566234
-0.248204,0.315917,0.529348,-0.561463,0.782365,-0.269562
-0.107300,0.862778,0.533576,0.302011,0.456323,-0.836994
-0.284471,0.736013,0.574502,-0.353583,0.801522,0.482226
-0.761991,0.560649,0.500135,-0.255870,0.851873,-0.456994
-0.172536,-0.027004,0.684060,0.916203,-0.084744,0.391651
0.188413,0.802730,0.191761,-0.138863,-0.006195,0.990292
-0.127809,-0.135144,-0.726279,-0.806912,-0.555487,-0.200818
-0.554578,-0.166616,0.554577,-0.622856,-0.768881,-0.144473
-0.383892,-0.105808,0.390334,0.105157,-0.948897,0.297550
0.017731,0.701513,0.590657,0.887622,0.223892,-0.402492
0.093628,-0.091838,0.826117,-0.055918,-0.969523,-0.238533
-0.563730,0.082019,0.587614,0.274710,-0.278636,-0.920270
0.131173,-0.548309,0.516236,0.484621,0.869533,0.095161
-0.308807,-0.567948,0.657324,0.881550,-0.439648,-0.171983
-0.089919,0.762576,0.719952,-0.050110,-0.989111,0.138380
-0.092932,0.000941,0.854739,0.432594,0.889878,0.144845
-0.336963,0.036947,0.668874,-0.271060,-0.342608,0.899526
-0.214369,-0.369042,0.592892,-0.117466,0.988802,-0.092050
-0.145536,0.063133,0.829025,-0.448118,0.642185,0.621923
-0.573115,-0.582547,0.540845,-0.798630,-0.148689,0.583166
-0.275319,0.345376,0.573398,0.063625,-0.861444,0.503852
-0.033488,0.273872,0.770732,-0.354770,-0.405295,-0.842540
-0.152376,0.000695,0.867959,0.375859,-0.912179,-0.163278
0.462456,-0.174922,0.425552,0.887380,0.454530,0.077192
0.468945,0.462199,0.270194,0.594273,0.093777,0.798777
-0.046233,0.418018,0.816397,0.970616,0.155232,-0.183869
-0.360719,-0.612383,0.556516,-0.089708,0.247251,0.964790
0.530359,0.113115,0.637695,-0.597719,0.215700,0.772143
-0.404982,0.254863,0.723425,-0.353810,0.934786,0.031507
-0.459326,-0.576001,0.600404,-0.672700,-0.726624,-0.139615
-0.373580,-0.100644,0.364190,-0.056325,0.989011,0.136689
0.114252,-0.460562,0.634868,-0.542830,-0.501105,0.673965
0.032215,-0.261785,0.619090,0.756647,0.510080,0.409027
0.011588,0.053690,0.885703,0.924592,-0.369867,-0.091263
-0.877520,-0.204634,0.403823,0.675567,-0.049919,0.735607
-0.047509,0.426447,0.673129,0.960007,-0.125906,0.250070
0.254229,0.145209,0.769763,-0.524390,0.621489,-0.582037
-0.529315,0.571598,0.666828,-0.151505,0.719924,-0.677315
-0.429315,0.020957,0.772429,0.327907,0.939811,-0.096090
0.213906,-0.479825,0.641680,0.337515,0.848859,0.406844
-0.090149,0.228800,0.866209,-0.511925,0.836610,0.194979
-0.474507,0.362119,0.609128,0.271049,-0.511049,0.815697
0.163501,0.244037,0.810016,0.963767,-0.076160,-0.255640
-0.316106,0.096242,0.710582,-0.469241,0.834152,-0.289833
0.321668,-0.122305,0.666074,-0.459446,0.745771,-0.482425
0.062340,0.514701,0.656597,0.644063,-0.598436,0.476505
0.296523,0.173793,0.566020,0.780764,0.583667,-0.223026
-0.763035,-0.246933,0.559558,0.226390,0.136228,0.964463
0.066396,0.158556,0.876521,-0.528858,0.759369,0.379036
-0.479027,0.196951,0.842165,0.651716,0.368615,-0.662864
0.171726,0.127460,0.791115,0.423753,-0.507801,-0.750048
-0.015177,0.273995,0.834060,-0.276681,-0.812380,0.513309
0.187833,-0.176559,-0.984545,-0.089193,0.545939,0.833064
-0.152956,0.451249,0.518578,-0.155953,0.867797,0.471813
0.712166,0.299174,0.407754,-0.131390,0.490371,0.861553
-0.087486,0.104801,0.735218,-0.182194,0.918419,0.351159
-0.335807,0.047650,0.782256,0.011319,-0.672152,0.740326
-0.076708,-0.220117,0.766721,-0.160744,-0.960173,-0.228536
0.120628,-0.330140,0.541653,0.806487,0.487856,0.334028
0.303941,-0.156036,0.649677,-0.151725,0.604961,-0.781666
-0.436267,0.123180,0.659935,-0.216038,-0.847581,-0.484700
-0.645190,-0.132116,0.560205,-0.244334,0.384635,-0.890144
0.084706,0.085039,0.699273,-0.175262,-0.820300,0.544418
0.260718,-0.249953,0.629241,0.978497,-0.108377,-0.175493
-0.587253,0.419777,0.654093,0.680835,-0.008254,-0.732390
0.280185,0.096372,0.807566,0.966086,0.049689,-0.253396
-0.280185,0.566819,0.596877,-0.442163,0.575905,-0.687623
0.010198,-0.011644,0.830614,0.903110,-0.349577,-0.249377
-0.204517,-0.677848,0.361874,0.942564,-0.224581,-0.247259
-0.272883,0.737895,0.509316,-0.157231,-0.270096,0.949909
-0.134645,0.738526,0.512251,0.938606,0.112435,-0.326154
0.241368,0.066529,0.819009,0.629750,0.150221,-0.762134
-0.073231,0.663118,0.546015,0.744564,0.430607,-0.510100
-0.292237,0.298675,0.580533,0.732885,0.536107,0.418890
-0.395943,-0.105178,0.527490,-0.033517,-0.023445,0.999163
-0.292120,0.128221,0.815724,0.046533,0.990184,0.131797
0.214369,-0.441176,0.639445,-0.395451,0.082521,-0.914772
0.447045,0.272866,0.554416,0.065303,-0.864186,0.498917
-0.327461,0.754769,0.538530,0.197932,-0.232564,0.952227
-0.120857,0.011898,0.918659,0.675731,0.000877,-0.737148
-0.571609,0.237114,0.608912,-0.366658,0.456621,0.810592
-0.925839,0.492917,0.303258,0.892646,-0.269240,0.361515
-0.048202,0.364509,0.730425,0.820246,0.532673,0.208461
0.259909,-0.416880,0.491546,-0.046057,0.034775,0.998333
-0.277056,0.152009,0.706220,0.407655,0.426776,0.807267
-0.147510,-0.240633,0.782822,0.250195,0.954442,0.162615
0.104983,-0.078362,0.892057,0.389004,0.272093,-0.880137
-0.221321,0.069426,0.608347,0.958245,0.276765,-0.071894
0.225957,0.127337,0.670302,-0.141989,0.417570,-0.897482
-0.442643,-0.030277,0.365401,-0.140603,0.988557,0.054642
-0.888411,-0.170642,0.516451,-0.595051,0.422573,0.683627
0.223061,0.401652,0.270409,-0.536700,-0.357801,0.764154
0.356433,0.192172,0.571244,-0.175025,0.557119,0.811779
-0.317842,0.113991,0.607081,0.861364,-0.381358,0.335587
-0.011125,0.585068,0.570490,0.119140,0.182658,0.975931
-0.555968,-0.415873,0.636053,-0.462277,0.876948,0.131390
-0.268251,0.144080,0.790253,0.846498,-0.008596,-0.532322
-0.546929,0.289355,0.362978,-0.114987,-0.757361,0.642793
-0.302202,0.106945,0.784141,0.586359,0.612694,-0.529896
-1.000000,-0.117394,0.502396,0.066327,0.332772,0.940672
0.331750,0.828539,0.190092,-0.532512,0.386981,0.752779
-0.623407,0.203252,0.618551,-0.384583,-0.777615,-0.497405
-0.141484,0.065906,0.923129,-0.392509,0.187310,-0.900473
0.363962,0.271859,0.626171,0.481592,0.471080,0.739022
-0.470218,-0.231574,0.706839,-0.495112,0.667391,-0.556285
-0.112515,0.167369,0.642003,-0.158558,-0.755396,0.635796
-0.326534,-0.056087,0.539526,0.989753,0.029801,-0.139647
-0.140091,0.034304,0.648142,0.693762,0.211010,-0.688599
0.086213,-0.427207,0.434949,-0.052367,0.619412,0.783318
-0.643337,0.086046,0.532418,-0.609795,0.743674,-0.274043
-0.401969,-0.259519,0.589984,0.866774,-0.488866,0.098551
0.446929,0.645876,0.408131,0.060637,0.531166,-0.845095
0.326304,0.240134,0.562278,-0.587484,0.371344,-0.719004
0.218655,0.695474,0.368525,0.297422,0.186958,-0.936262
-0.467555,0.008625,0.581583,0.375902,0.507935,0.775048
-0.134065,-0.147353,0.605870,0.886781,-0.164567,-0.431899
-0.717032,0.622333,0.530937,-0.728715,0.669589,0.143618
0.269873,0.281679,0.407916,0.911480,0.044247,-0.408958
-0.157588,-0.075849,0.940199,0.771249,-0.425682,0.473254
0.348204,0.233464,0.545450,0.633799,-0.478302,0.607886
0.907302,0.378992,0.080345,-0.430976,0.793305,-0.430031
-0.603940,0.228178,0.593107,0.811372,0.486819,0.323547
-0.047739,0.020581,0.885972,-0.359402,0.864086,-0.352399
-0.081690,0.337946,0.775767,0.970403,0.231740,0.067927
-0.502779,0.156043,-0.041492,0.702520,-0.650559,0.288511
-0.732443,0.326113,0.637641,0.258540,-0.237792,0.936276
0.477174,0.202745,0.505789,-0.397775,0.861995,0.314229
-0.474854,-0.141306,0.525606,-0.206647,0.917728,-0.339223
0.517381,-0.623463,0.474717,-0.636964,-0.675251,-0.371904
0.186097,-0.064016,-0.990980,-0.102670,0.175633,0.979087
-0.026882,0.218857,0.856139,0.344735,0.096541,0.933723
0.002666,0.109335,0.840657,-0.367719,0.921800,-0.122751
-0.466396,-0.681874,0.494965,-0.511826,-0.176219,-0.840821
0.161068,-0.170642,0.654173,-0.368830,0.021672,0.929244
-0.542990,0.578775,0.638880,-0.601615,0.514406,-0.611102
0.260718,-0.262669,0.543403,0.831966,0.544539,0.106343
-0.142640,-0.086045,0.567394,0.786334,0.483269,-0.384877
0.233256,-0.271605,0.347711,-0.641998,0.554422,-0.529580
-0.261878,0.336940,0.562466,-0.455708,-0.837532,-0.301446
-0.406372,-0.222507,0.695342,-0.149701,0.988294,0.029391
0.125377,0.194815,0.658643,-0.402759,-0.635535,0.658696
-0.577405,-0.291744,0.528406,0.336218,0.347491,0.875333
-0.248087,0.147353,0.651239,0.893627,0.213443,0.394807
-0.868828,0.634666,0.490684,-0.580741,0.531757,0.616421
-0.196409,-0.397994,0.631125,-0.150523,0.592123,0.791665
-0.374507,0.919176,0.561632,-0.595287,0.449204,-0.666220
0.384935,0.190789,0.615267,0.875671,0.184480,-0.446282
0.800462,-0.145970,0.325229,0.522435,0.159892,-0.837554
-0.296176,-0.462198,0.429672,-0.220512,-0.969222,0.109467
-0.060254,0.083026,0.596607,-0.750652,0.660357,0.021203
-0.038817,0.339337,0.874475,0.940980,-0.248134,0.230186
-0.375433,-0.348526,0.561551,0.446890,0.891811,0.070440
0.218888,0.138041,0.818417,0.268567,0.963116,0.016685
0.004983,-0.134637,0.880506,0.066634,0.997704,0.012067
0.103477,0.247686,0.558293,-0.384957,0.848775,-0.362476
