-0.132278,0.316629,0.035710,-0.669608,0.037504,-0.741767
0.333170,0.268830,-0.984263,-0.177550,0.204163,0.962701
0.152795,-0.091668,0.493060,-0.397516,-0.640687,-0.656887
0.084145,-0.265489,0.069041,0.280664,0.955174,-0.094183
0.015778,0.503403,-0.311580,-0.050171,0.967681,0.247137
0.438219,-0.031585,0.413854,0.981017,-0.009471,-0.193691
0.608687,0.687918,-0.158120,0.047613,-0.747101,0.663004
0.179990,-0.017603,-0.971784,0.267943,-0.099571,-0.958276
0.047678,0.101584,-0.235534,-0.649225,0.666397,-0.366635
-0.081683,0.167988,-0.094487,0.336285,-0.905935,0.257284
-0.117799,0.795439,-0.151603,-0.632543,0.177423,-0.753930
0.366828,0.593040,0.507689,0.399094,0.886489,0.234225
0.516565,0.643254,-0.194807,-0.571763,0.785127,-0.238041
0.516565,0.201244,0.584680,-0.255136,-0.837479,0.483254
0.290098,0.194715,0.448130,0.874542,0.209878,-0.437182
0.046130,0.438953,0.252053,-0.252005,-0.741057,0.622358
0.571795,-0.107958,0.662713,-0.417515,0.310843,-0.853849
-0.047674,-0.168710,-0.246220,-0.114212,0.295078,0.948623
0.474476,0.202169,-0.465072,-0.136146,0.257664,0.956595
-0.586691,-0.201501,-0.721849,0.344176,0.443355,-0.827635
-0.359941,0.214761,0.062427,0.519386,0.614132,0.594205
-0.308995,0.197388,-0.631142,0.594686,0.791967,-0.138333
0.412713,-0.019043,-0.947511,0.110759,-0.030006,0.993394
0.100378,0.447125,0.782451,0.796227,0.603187,-0.046788
0.460704,0.818107,-0.272742,-0.197136,-0.290528,0.936339
-0.024836,0.384934,0.399485,0.110095,-0.896270,0.429627
0.086534,0.401331,0.424280,0.111589,0.993298,-0.030104
0.288409,0.083032,-0.381305,0.989298,-0.086434,-0.117551
0.560344,0.648703,-0.531604,0.306536,-0.271633,0.912278
-0.434492,-0.159562,-0.320116,0.009131,-0.027294,0.999586
0.334787,0.312516,0.671445,0.146260,0.913839,-0.378821
0.299161,0.484029,-0.224358,0.867551,-0.057373,-0.494029
-0.162981,0.193997,0.359116,-0.779731,-0.285380,-0.557295
0.257564,0.077222,-0.207970,0.959314,0.276984,0.054748
0.137480,-0.339912,0.453506,0.875899,-0.482169,-0.017709
0.472228,0.151594,-0.954092,0.091443,0.146281,0.985008
0.408146,-0.197956,0.774371,-0.267704,-0.508166,0.818598
0.363457,0.075782,-0.945816,-0.412502,0.131418,-0.901427
0.216178,0.022795,0.946305,0.850775,0.002013,0.525526
-0.219969,-0.412587,-0.426267,0.708313,-0.705585,-0.021019
0.047819,-0.263588,-0.271309,0.856974,-0.380091,-0.348033
0.191934,0.224884,0.117555,-0.217038,0.271279,0.937711
-0.128623,0.119264,0.090251,-0.487207,0.853404,-0.185285
0.134315,0.482281,0.450541,0.985865,0.146313,-0.081630
0.038260,0.485208,-0.280529,-0.086751,0.985905,0.143058
0.039173,0.145477,-0.211586,0.441012,0.872400,-0.210777
-0.152653,-0.251254,0.672651,-0.440968,-0.537955,-0.718437
-0.041704,-0.079641,0.596344,0.879153,0.097382,0.466483
0.304011,0.617248,-0.227551,-0.303471,-0.321268,-0.897047
0.088995,-0.046643,0.318878,0.790356,0.112928,0.602150
-0.119415,0.039754,-0.979636,-0.137871,-0.030619,0.989977
-0.391210,-0.556961,-0.374756,-0.058391,0.910400,0.409588
-0.764253,-0.403489,-0.358074,0.713795,0.665466,-0.218292
0.400066,0.314160,0.686335,-0.030424,-0.762180,0.646650
0.099816,0.409039,0.304770,0.958024,-0.159861,0.237982
0.365001,-0.149900,0.691255,0.957616,-0.145922,0.248350
-0.078874,0.054661,-0.075981,-0.160870,-0.708491,-0.687140
-0.602572,-0.068950,-0.344813,-0.332984,0.360923,0.871124
0.174298,0.136483,0.809071,0.800848,-0.597872,0.034520
-0.126797,-0.189938,-0.572657,0.459701,-0.759263,0.460646
0.288902,-0.101945,-0.954776,-0.162132,-0.078341,0.983654
0.226012,-0.495902,-0.158250,-0.302071,0.916559,-0.262056
-0.191230,0.429445,-0.275349,-0.617934,0.715681,-0.325511
0.325721,-0.109091,-0.949955,-0.324681,0.099333,0.940593
0.163053,-0.069207,0.449726,-0.300036,-0.701210,-0.646748
0.470260,-0.172822,0.070930,-0.849177,0.523257,0.071417
-0.110212,-0.018889,-0.311515,-0.310791,0.898355,0.310431
0.070867,0.564465,0.388668,0.722981,-0.653165,0.225108
0.021821,0.065505,-0.264336,-0.272540,0.806556,-0.524585
-0.663000,-0.185671,-0.083246,0.608214,0.184540,0.772024
0.169238,0.157351,-0.985794,-0.182170,0.094808,0.978686
0.395005,0.438335,0.520722,-0.489844,-0.014598,-0.871688
0.155677,-0.200061,-0.214062,0.635256,0.058539,-0.770080
-0.490987,0.003622,-0.082986,-0.346634,-0.814682,0.464907
0.247584,0.836402,-0.302522,0.488253,-0.450966,0.747154
0.279488,0.095777,-0.118109,-0.252870,0.963915,-0.083213
-0.358534,0.018836,-0.645738,-0.418012,0.594403,-0.686987
0.127431,0.507876,0.321778,0.138900,0.966090,-0.217663
-0.499702,0.036774,-0.313241,0.339392,0.472427,-0.813404
-0.084492,-0.125949,-0.574352,-0.497034,0.772349,0.395517
0.497171,0.386992,0.502639,0.888116,0.268069,0.373349
0.287778,0.438900,0.227486,-0.467758,0.811455,-0.350347
0.248429,0.245444,0.373908,0.853444,0.514663,0.082190
-0.250604,0.016524,-0.352958,-0.381734,0.912793,0.145214
0.337596,0.003675,0.211977,0.847287,0.305356,-0.434583
0.084638,-0.319201,-0.484556,-0.623686,0.300631,-0.721551
-0.316445,0.097060,0.624397,-0.677373,0.709603,0.193981
0.199804,-0.384884,0.559299,-0.543645,-0.647114,0.534503
0.252152,0.089300,-0.305878,0.830181,-0.134113,0.541122
0.261287,0.713617,-0.505148,0.427896,0.017744,0.903654
0.694200,0.136226,-0.918676,0.551814,0.201577,-0.809239
-0.142536,0.210237,0.313958,0.212068,-0.895256,0.391846
0.254892,-0.000899,-0.945588,0.272064,0.261994,-0.925927
0.071639,0.162335,-0.251205,-0.484997,0.742827,0.461504
-0.028632,-0.317658,0.189463,-0.412708,-0.430702,0.802601
0.406461,0.602444,-0.363157,0.307584,0.502746,-0.807860
-0.581488,-0.181869,-0.098332,0.541598,0.411003,0.733313
-0.279484,0.423996,-0.271830,0.021405,-0.915451,0.401860
-0.072480,0.165933,0.436628,0.774055,0.106564,0.624085
0.225450,0.066635,-0.351753,-0.038498,0.169077,0.984851
0.073745,-0.264360,0.054998,0.196193,0.978940,0.056431
0.395777,0.020379,-0.942884,-0.061090,0.109467,0.992111
0.333591,0.423688,0.383455,0.638829,0.244530,-0.729454
-0.258757,-0.561588,-0.428124,0.821316,-0.500808,-0.273188
0.332540,0.232491,0.057832,0.941343,-0.281990,0.185353
-0.634261,-0.009328,-0.351981,0.122977,-0.720015,0.682976
0.117944,0.386117,-0.107911,0.737963,-0.030805,0.674138
0.293191,0.143987,-0.492408,0.979601,0.055470,-0.193145
0.077892,0.735717,-0.082399,-0.290421,-0.952092,0.095795
-0.456909,-0.046439,-0.339274,-0.341063,0.699488,0.628007
-0.068122,0.047825,-0.983155,-0.065755,-0.116409,0.991022
0.063134,0.303061,0.216506,0.403056,-0.643775,-0.650462
-0.812175,-0.021666,-0.347061,-0.455831,0.756937,-0.468256
0.224537,-0.147074,-0.010752,0.661142,0.226803,0.715158
-0.175281,-0.428058,-0.458198,0.775020,-0.625778,0.088011
0.538772,-0.065559,0.565750,0.975024,0.211730,0.067067
0.071781,0.043095,-0.982341,-0.135296,0.119089,0.983622
-0.112459,-0.717368,-0.486185,0.735641,0.318783,-0.597670
-0.061518,0.069565,-0.986641,-0.019988,0.198635,0.979870
-0.011558,-0.227353,0.193796,-0.507121,-0.366916,-0.779873
0.135580,0.228739,0.553108,-0.616909,0.766861,-0.177050
-0.040228,0.106569,0.681904,0.303890,-0.865024,0.399229
0.401820,-0.282347,0.732992,0.905283,0.235887,-0.353300
-0.086954,0.144244,-0.106086,-0.271183,0.901770,-0.336557
0.790397,-0.242414,0.242245,0.711693,-0.057176,-0.700160
0.402592,0.183099,-0.955558,0.140160,-0.026100,-0.989785
0.321930,-0.133556,0.810537,0.949682,0.028703,0.311896
-0.301408,-0.152162,0.760263,0.896647,-0.275243,0.346793
0.150054,0.385088,0.814512,-0.601978,-0.785030,0.146116
0.260935,0.393877,0.318356,0.972831,-0.231308,0.009801
-0.041000,0.167166,-0.066141,0.618279,-0.534948,0.575814
-0.235988,-0.379181,-0.120064,0.071139,-0.706199,0.704430
0.325442,0.320431,0.710967,-0.009888,0.867159,-0.497933
0.295155,0.115205,-0.319367,0.964600,-0.206321,0.164250
-0.018304,0.303676,-0.505669,0.621287,0.561507,0.546545
0.320664,0.374707,0.758667,-0.388952,0.665735,-0.636799
0.246812,0.351628,0.716799,-0.514532,-0.798537,-0.312404
0.148862,-0.206539,-0.270299,-0.679651,0.428308,0.595506
0.203668,0.508955,0.294441,0.080002,-0.832161,0.548733
0.215753,-0.072905,0.466636,0.683839,-0.701719,-0.199887
-0.297471,0.036156,-0.327903,0.310169,-0.551109,0.774644
0.651759,0.246319,0.666395,0.128472,-0.876050,0.464792
-0.161016,-0.191839,-0.213443,-0.249496,-0.819102,-0.516549
0.168045,0.004600,-0.263131,0.045226,0.971491,-0.232724
0.145418,-0.513736,-0.320670,0.960931,-0.010264,0.276597
0.080349,0.388585,0.348723,0.981085,0.162577,0.105076
0.188631,0.640992,-0.204646,-0.362932,-0.230045,-0.902973
0.495628,-0.168763,0.779812,0.745514,-0.292531,0.598861
0.281453,0.023617,-0.340349,0.688097,-0.622546,-0.372771
-0.519868,0.271092,0.148149,-0.408641,-0.707326,0.576803
0.083725,0.289337,0.265704,0.841718,0.140805,-0.521234
0.099884,0.857065,-0.258569,0.035512,-0.796024,0.604223
-0.247863,-0.319301,0.053402,-0.216359,0.937313,0.273189
0.586832,0.181763,-0.951681,-0.302209,-0.021554,0.952998
0.133474,0.522215,0.487619,0.931979,-0.318128,0.173811
0.061522,0.064991,0.566695,0.991805,-0.108073,-0.068136
0.028563,0.263124,-0.516487,0.451969,0.041781,-0.891055
0.397394,-0.304448,0.019191,0.827631,-0.443011,-0.344629
0.489233,-0.294375,0.850547,0.947941,-0.143190,-0.284437
0.185681,-0.108269,-0.203604,0.337796,-0.701110,0.627964
-0.131711,0.344485,0.032679,0.683309,-0.202196,0.701573
0.071429,0.635493,-0.355207,-0.415692,-0.853677,0.313745
0.211400,0.079023,0.119934,-0.108260,-0.975607,0.190974
-0.410882,-0.136741,-0.316206,-0.498778,0.792864,0.350123
0.151744,-0.218720,-0.231429,0.757881,-0.354230,-0.547848
0.283211,0.084572,-0.128959,-0.511865,0.824399,0.241581
0.361630,-0.209315,0.464974,0.990029,-0.046931,0.132813
0.320030,0.314932,0.577154,0.537597,-0.102281,0.836976
-0.221865,0.167477,0.601753,0.800161,-0.134940,0.584409
0.243793,0.213014,0.337287,0.261783,0.964958,-0.018060
0.237189,-0.044331,0.426984,-0.716408,0.306158,-0.626918
0.409270,-0.535940,0.090480,0.665989,0.691981,-0.278604
0.393950,0.526996,0.306562,0.512029,-0.627793,0.586261
-0.058215,0.179090,0.470904,0.121767,-0.989828,0.073581
0.586411,-0.420708,0.613059,0.184314,0.699501,0.690454
0.066720,-0.262048,-0.332465,0.301607,-0.570159,-0.764167
0.517620,0.319455,0.671119,0.901732,0.384215,-0.198137
0.156873,-0.046181,0.366545,0.302935,0.931001,-0.203636
0.219549,0.509417,-0.212270,-0.538499,-0.561366,0.628400
0.283983,0.138027,-0.115079,-0.675591,0.243801,0.695800
0.493801,0.028705,-0.949140,-0.010178,-0.554499,-0.832122
0.408425,0.259115,0.400658,0.940320,0.104325,0.323904
-0.030317,0.115873,0.064382,0.195763,-0.902555,0.383500
0.126166,0.394803,0.406588,-0.472934,-0.877633,-0.078057
0.448267,-0.560609,-0.003291,0.784719,0.564733,-0.255525
-0.342795,-0.068846,0.817151,0.864497,0.236158,0.443705
0.585991,0.069411,-0.945295,-0.158569,0.076898,0.984349
0.784212,0.257318,-0.415027,-0.243404,-0.381896,0.891577
-0.192423,0.230487,0.145184,0.583776,0.714448,0.385708
0.351088,-0.027883,0.074123,0.939248,-0.210715,-0.270948
-0.360503,-0.202530,0.812622,0.939270,-0.053691,0.338954
0.736011,0.478887,-0.536101,0.173410,-0.309801,-0.934854
-0.115273,0.961914,-0.146064,-0.337394,0.721521,-0.604626
0.305276,0.028140,-0.945849,-0.179801,0.015353,0.983583
0.337245,0.500373,-0.032354,0.943090,0.066125,-0.325897
-0.565187,-0.174005,-0.117588,-0.575633,-0.397952,-0.714340
0.362754,0.146967,-0.959533,-0.385514,0.263620,0.884242
-0.012120,-0.081696,-0.241073,0.383642,-0.896071,-0.223330
0.183854,0.002132,0.542063,-0.744926,-0.404835,-0.530276
-0.367107,-0.707245,-0.539913,0.496938,-0.817127,-0.292158
0.230511,0.267441,0.186042,0.671915,-0.083158,0.735945
-0.519658,0.132267,-0.609964,-0.618487,-0.480090,0.622084
0.193833,0.248785,-0.986902,-0.046297,0.131945,0.990175
-0.200854,-0.431553,-0.403591,0.635232,-0.497176,-0.591013
0.009731,0.619613,-0.400528,0.961828,0.046807,0.269623
0.201982,0.054093,-0.443112,0.756408,0.593007,-0.276025
-0.209852,-0.587798,-0.108595,-0.445329,-0.352112,-0.823225
0.104735,0.309586,0.274566,-0.732649,-0.611340,0.299146
-0.517269,-0.195951,-0.108204,-0.509922,-0.547634,-0.663383
0.215616,0.292113,-0.992115,0.227546,-0.215293,-0.949669
-0.978218,-0.145016,-0.449596,-0.057662,-0.903865,0.423914
-0.276533,-0.618584,-0.408250,0.855195,-0.517527,0.028412
0.089416,-0.028140,-0.597648,-0.376225,0.839090,0.392915
0.720619,0.337393,0.674540,-0.015871,-0.787098,0.616624
0.246533,-0.094184,-0.959240,-0.098564,0.271578,0.957356
-0.126020,-0.877214,-0.534602,0.773839,-0.401195,0.490119
-0.140074,-0.028962,-0.400104,0.372108,-0.109183,0.921745
0.108175,-0.167938,-0.143197,0.870951,-0.490263,-0.032979
-0.070159,0.338268,-0.549459,0.203330,0.822094,0.531807
0.362329,-0.109091,-0.944741,-0.160662,0.158116,0.974262
-0.166845,0.498161,0.025968,0.162449,0.539042,-0.826465
0.224116,0.037185,-0.957220,-0.325155,0.212997,0.921361
0.112395,0.640170,-0.308028,0.204553,0.969972,0.131577
0.372661,0.440082,0.005669,-0.786835,-0.089648,0.610618
-0.146049,-0.034358,-0.322462,0.829253,0.067562,-0.554775
0.521343,0.081849,0.442330,0.749257,0.321675,-0.578913
0.354181,0.482485,0.525088,-0.420922,-0.221977,-0.879517
-0.223623,0.269909,0.076958,-0.545305,-0.800028,-0.250196
0.104173,0.046128,0.036394,0.399077,0.862268,-0.311820
-0.433368,0.331686,-0.547960,0.640597,-0.631013,-0.437559
0.146332,0.299052,0.398280,-0.495535,-0.647730,0.578697
-0.274423,0.079638,0.153037,0.774183,-0.030368,-0.632233
0.649160,-0.004808,0.669686,0.767621,-0.510995,-0.386837
-0.157783,-0.305116,0.243125,0.138769,-0.891464,0.431318
0.245127,0.055429,0.577675,0.944741,0.286624,-0.159096
0.424027,0.042222,-0.952691,0.164667,0.197230,0.966429
0.076348,-0.219592,-0.275153,0.952010,-0.142836,-0.270693
0.013526,0.208901,0.226052,0.466227,0.724019,-0.508359
-0.100373,-0.272789,0.265313,-0.258982,0.294858,-0.919776
-0.321012,0.743631,-0.204581,0.406413,0.651132,-0.640980
0.250325,0.063243,-0.686531,-0.411035,0.813054,0.412301
0.402875,-0.103281,0.046918,0.673951,-0.127380,-0.727712
-0.098058,-0.078408,0.612049,-0.350407,0.496888,-0.793925
-0.062851,0.699124,-0.228496,-0.457873,-0.799463,0.388858
0.589783,0.235885,0.169002,0.133806,-0.939936,0.314034
0.149424,0.178732,-0.983220,-0.070334,0.077348,0.994520
0.242807,0.332201,-0.379382,-0.504485,0.674796,-0.538651
0.493728,0.308764,0.638407,0.100591,-0.751617,0.651884
0.117944,-0.151748,-0.138929,0.959162,-0.280379,0.037375
0.269367,0.461464,0.282973,0.323738,-0.794933,0.513103
-0.063765,0.895713,-0.220448,0.704422,-0.551932,0.446274
0.303801,0.120086,-0.277695,-0.763728,-0.645175,-0.021633
0.200858,0.031735,-0.088688,0.257451,0.272035,0.927209
0.311598,0.096907,-0.387951,0.977085,0.199521,-0.074134
-0.122298,0.481303,-0.019223,-0.421965,0.582304,-0.694887
-0.478902,-0.039860,-0.345628,0.226273,-0.217745,-0.949414
0.470895,0.199085,-0.973283,0.136732,0.235634,0.962175
-0.143167,-0.637654,-0.333768,0.669953,-0.640867,-0.374771
0.224751,-0.013852,0.230092,0.955724,-0.038991,0.291670
0.308506,-0.561174,-0.164440,-0.785178,0.156015,0.599295
-0.118013,0.054403,-0.524925,0.259034,0.545162,-0.797308
-0.097706,-0.367411,-0.408934,-0.666892,0.591883,-0.452692
0.456557,-0.407859,-0.084452,0.691658,-0.690392,-0.212057
0.209925,0.316218,0.743646,0.399990,0.880481,-0.254482
0.339565,-0.502273,-0.027955,0.949484,0.290344,-0.119085
-0.383619,-0.151029,-0.678776,0.341199,0.436580,-0.832455
-0.023502,0.136483,-0.155545,-0.187577,-0.956633,-0.222864
0.543619,-0.034051,0.687541,0.866466,0.357152,-0.348825
-0.401258,-0.088738,-0.665906,0.782623,0.309222,-0.540263
-0.047815,0.157351,-0.101688,-0.218243,0.920017,-0.325482
-0.176053,0.396447,0.109833,-0.661957,-0.691534,0.289127
0.345539,0.410993,0.182686,-0.584680,0.620032,-0.523172
0.593368,-0.174108,-0.616643,0.781257,0.497346,-0.377207
0.386853,0.228636,0.845921,0.250245,0.957181,-0.145539
0.279415,-0.278031,0.069790,-0.335955,0.683093,0.648474
0.408356,0.526532,0.332008,0.739250,-0.443438,0.506825
-0.120539,-0.031121,0.416786,0.897622,0.439066,-0.038678
-0.172115,-0.232905,0.643360,-0.474772,-0.332143,-0.815029
-0.034747,-0.049111,0.601916,0.773279,-0.256485,0.579876
0.389666,-0.130369,0.419295,0.365930,0.531203,0.764146
-0.697498,-0.403746,-0.474619,-0.496524,-0.774933,0.391078
0.274076,-0.479505,-0.206829,-0.523043,0.447603,0.725313
0.278785,-0.024593,-0.082823,0.632220,-0.514065,-0.579685
-0.119278,-0.012568,-0.313535,0.440303,-0.823703,-0.357277
0.448829,0.821548,-0.263228,0.155341,0.951983,0.263815
0.024347,0.167681,0.229245,-0.115137,-0.041909,0.992465
0.461056,0.065709,0.505571,0.575534,0.059017,-0.815646
0.336824,-0.070647,-0.951518,-0.078664,-0.030779,0.996426
-0.178300,-0.186700,0.658087,0.748244,0.439759,0.496732
0.323894,0.260862,-0.980777,-0.149267,0.307011,0.939927
0.294803,0.050959,0.106673,-0.582990,-0.688818,-0.430874
0.298882,0.200522,0.328424,-0.270627,-0.948835,0.162706
0.312160,-0.232184,0.330607,0.258636,-0.913473,-0.314123
0.054072,-0.295043,0.402157,0.505643,0.689394,0.518711
-0.182936,0.120343,0.576274,0.789590,-0.090582,0.606912
0.140220,0.064065,0.070181,0.315620,0.948622,-0.022364
0.268947,0.238401,0.323505,0.802724,0.525454,-0.282017
0.118785,0.187673,0.221914,0.701851,0.483794,0.522828
-0.186311,0.142958,-0.672683,0.235027,0.647346,-0.725055
0.268805,0.043198,0.039326,0.658303,0.752207,0.028669
0.077750,-0.275409,0.643620,0.916093,-0.312505,-0.251226
-0.452131,-0.191324,-0.325492,-0.234226,0.578591,0.781262
0.472649,-0.055636,0.603773,0.778974,-0.098334,0.619298
0.099181,0.260298,-0.484491,0.713000,0.285513,-0.640401
0.193902,0.151387,-0.213573,0.834934,0.522528,0.172768
-0.082035,-0.578032,-0.523948,0.004099,-0.229339,0.973338
0.373291,0.390383,0.492408,0.446751,-0.121862,0.886320
0.219407,0.117106,0.018507,0.915835,0.396382,-0.064252
0.164460,0.116334,-0.128014,-0.710146,-0.605769,-0.358799
0.065665,0.081746,-0.224358,0.804207,-0.547056,0.232339
0.035734,0.600182,-0.285579,-0.543893,-0.071650,-0.836090
0.218846,0.337854,0.477030,-0.695295,0.245354,0.675548
0.442083,-0.546116,-0.028183,0.918708,0.242891,-0.311416
0.299933,0.056458,-0.245341,0.902126,-0.389401,-0.185839
0.333522,-0.005937,-0.216930,0.914106,0.169167,-0.368500
-0.119626,0.524220,0.006223,-0.594118,0.394896,-0.700771
0.011773,0.522112,-0.316141,0.001881,0.902456,0.430778
-0.126235,-0.571507,-0.120097,-0.347095,-0.450344,-0.822627
0.455858,-0.027061,0.388016,0.993320,-0.114223,-0.016409
-0.410603,0.008299,-0.364916,-0.088883,0.790841,0.605533
0.603065,-0.004651,0.773850,-0.256275,0.952424,0.164961
-0.079646,-0.827666,-0.590154,-0.018029,-0.931457,0.363405
0.271335,0.501452,-0.231820,0.887332,0.461110,-0.004379
0.103045,0.175956,-0.991138,-0.222117,0.151479,0.963181
0.224820,-0.280600,-0.316141,-0.143135,0.499432,0.854447
0.213926,0.359957,0.783168,0.037312,-0.818966,0.572628
-0.208163,-0.671113,-0.279161,0.874350,-0.289576,-0.389434
-0.073110,-0.310204,-0.387984,0.988029,-0.096436,0.120415
0.199662,0.456119,0.275251,0.062044,-0.823557,0.563830
0.179779,-0.565287,-0.167080,-0.053020,0.644331,0.762907
-0.122928,-0.043713,-0.312166,-0.593282,0.508490,0.624063
-0.109298,0.838253,-0.230158,-0.104271,-0.750039,0.653123
-0.222710,-0.062114,0.281213,-0.300235,0.854342,-0.424215
0.245337,0.034101,0.902645,0.914198,0.083832,0.396503
0.240628,0.843084,-0.258243,0.449369,-0.856527,0.253828
-0.047043,0.889135,-0.187997,0.176004,-0.802812,0.569662
0.277588,0.444195,0.515900,-0.078467,-0.500154,0.862374
0.338300,0.399841,0.191613,0.659617,-0.643361,0.388577
0.004182,-0.153652,0.582171,0.253695,0.858653,0.445370
0.445810,0.173694,0.906588,0.218631,0.973334,-0.069441
0.226998,0.357335,-0.417373,0.324416,0.883073,-0.339022
0.152374,0.347672,-0.110518,-0.682552,0.184990,-0.707037
0.399011,0.068021,-0.097094,-0.598650,0.059102,0.798827
0.230442,0.062061,0.928581,0.911162,-0.096673,0.400547
0.103680,-0.131552,0.136094,0.805065,-0.274435,0.525886
0.317289,-0.039192,0.040857,0.935471,0.319910,0.150171
-0.109230,0.339808,0.307442,0.853752,-0.199364,0.481001
0.532378,-0.063243,0.540108,0.995449,0.041572,-0.085755
-0.593226,-0.068897,-0.342956,-0.290313,0.387584,0.874927
0.556828,-0.107394,0.641340,0.878306,0.311963,0.362296
-0.059198,-0.266569,-0.412420,0.991282,-0.113619,0.066711
-0.065030,0.973633,-0.241529,0.313734,0.891277,0.327410
-0.010083,0.138848,0.723837,0.025219,-0.937767,0.346349
0.533711,0.298127,0.706210,0.555777,0.756494,-0.344714
0.369286,-0.188805,0.505474,0.683155,0.249759,-0.686236
0.137831,-0.101534,-0.157468,0.941553,0.155908,0.298614
0.022872,0.391719,0.357845,0.850562,-0.208251,0.482882
-0.608541,-0.004497,-0.382119,0.034565,-0.637100,0.770006
0.180620,-0.004704,-0.166069,-0.256775,0.962024,-0.092609
0.183644,0.003418,-0.963508,-0.326079,-0.038628,0.944553
-0.053999,-0.077893,0.584940,0.930804,0.098736,0.351931
-0.256437,0.106057,-0.027043,-0.415447,0.864779,-0.282067
0.412713,-0.099429,0.915385,-0.686212,0.649712,0.327089
0.058215,0.018682,-0.974032,-0.138524,0.166819,0.976208
-0.231000,0.370391,0.095367,0.098802,0.978255,-0.182362
0.201562,0.383908,-0.422977,0.121581,0.800114,-0.587397
0.035661,-0.284405,0.394891,0.314832,0.755571,0.574450
0.348700,0.273300,0.567118,-0.392820,0.015545,0.919484
-0.147031,0.282194,0.319660,0.801805,0.166744,0.573851
0.153429,0.279521,0.597028,0.475508,0.789766,-0.387507
0.247095,0.076246,-0.165809,-0.291246,-0.947339,-0.133134
0.152936,-0.085140,-0.303239,-0.459338,-0.055175,-0.886546
0.421355,0.283273,0.685911,-0.011777,-0.812370,0.583023
0.494152,-0.051166,-0.069432,0.567598,0.540324,0.621194
-0.366545,-0.410121,0.811742,0.908365,-0.125628,0.398862
0.319258,0.256957,0.064935,0.953982,-0.150846,0.259159
0.260935,0.003161,-0.273817,0.393265,-0.534225,-0.748296
-0.034958,-0.707603,-0.453506,-0.646524,0.096165,0.756808
-0.287285,0.270681,0.138766,0.163471,0.976782,-0.138473
-0.150895,0.124095,0.382445,0.640088,-0.281826,0.714746
0.071146,0.213014,0.360583,-0.454781,0.598472,-0.659550
-0.298106,0.019915,0.727747,0.809781,0.403528,0.425934
-0.550502,-0.180687,-0.305617,0.170602,0.942324,0.287960
0.119068,-0.219335,-0.330998,0.236693,0.469966,0.850358
-0.013033,-0.185311,0.169230,0.947275,0.208826,0.243026
0.028074,0.171175,-0.990779,-0.045688,0.061411,0.997066
0.299233,0.104464,-0.336407,0.929883,-0.150495,0.335661
-0.326703,-0.207361,-0.675388,-0.302645,0.097937,0.948058
0.119210,-0.033897,0.250880,0.780907,0.009771,0.624571
-0.092787,0.228482,-0.140818,-0.105297,-0.888340,0.446950
0.103470,-0.394291,-0.225857,0.818571,0.191208,0.541647
0.383481,-0.676305,0.012055,-0.644057,0.616090,0.453458
0.092860,0.216558,0.063306,-0.329281,-0.716770,0.614667
-0.105576,0.934725,-0.142578,-0.408062,0.665772,-0.624686
0.041352,0.065298,-0.983025,-0.047567,0.013302,0.998779
0.200228,-0.054353,-0.958132,-0.156668,0.061131,0.985758
-0.037908,0.124095,0.016910,0.247560,0.718448,0.650036
0.093421,0.116491,-0.978757,-0.117404,0.220458,0.968305
0.521768,0.177085,0.053206,-0.789612,0.133234,0.598967
-0.094614,-0.121683,0.602470,-0.472641,-0.187065,-0.861172
0.227350,0.209519,-0.979441,-0.027536,0.284649,0.958236
0.257002,0.269549,0.673400,-0.357288,0.893382,-0.272422
-0.141691,-0.088427,0.241822,-0.309897,0.525156,-0.792575
-0.146752,-0.483978,-0.357585,0.651620,-0.631148,-0.420766
-0.134031,0.086730,0.565392,0.683910,-0.397029,0.612074
0.161368,0.389665,0.724912,-0.171586,-0.881498,0.439909
0.620700,0.005472,0.841001,-0.421150,0.874193,0.241702
0.262762,0.263792,0.642545,-0.638733,-0.758052,0.131823
0.135228,0.057384,-0.563893,0.611237,-0.791328,-0.013781
-0.258615,-0.665664,-0.512349,-0.039653,-0.883215,0.467290
-0.345183,-0.398712,-0.674410,0.587440,-0.223262,-0.777862
-0.079226,-0.280807,0.205298,-0.630770,0.618014,-0.469242
0.010717,0.198006,-0.093347,0.385600,-0.611191,0.691201
0.177107,-0.039961,-0.965822,-0.190699,0.223958,0.955760
0.004602,0.690541,-0.134009,0.126398,-0.843755,0.521633
0.792151,-0.095470,0.541151,-0.602980,0.407209,-0.686000
-0.601023,-0.245755,-0.266063,0.023495,0.735701,0.676899
-0.309420,-0.302290,-0.677831,0.499652,-0.033100,-0.865593
0.233534,0.189834,0.487586,-0.080973,0.262674,-0.961481
0.044937,0.196309,0.031670,-0.288268,0.707108,0.645678
-0.526893,-0.088995,-0.340121,-0.035572,0.153705,0.987476
0.231283,0.157865,-0.197413,0.809400,0.582776,-0.072411
0.421004,0.146299,0.775153,0.707022,0.700619,-0.096193
-0.061024,0.395060,0.586635,0.803566,-0.374732,-0.462447
0.326004,0.453446,-0.313795,0.971852,-0.203254,-0.119126
-0.249060,0.174002,0.634302,-0.700523,0.431725,-0.568226
-0.246319,-0.634981,-0.079206,-0.453572,-0.230754,-0.860828
-0.324314,-0.026240,0.362244,0.868204,-0.481807,0.118671
0.038543,0.294529,0.087449,-0.032028,-0.510748,0.859134
0.131222,-0.056305,-0.971882,-0.159225,0.066513,0.984999
0.212592,0.280547,-0.995373,-0.215935,0.171250,0.961273
0.043603,0.001206,0.567998,0.961833,0.035136,-0.271372
0.239294,0.079691,-0.964453,-0.577465,0.263190,0.772829
-0.043809,0.028909,-0.984589,-0.079013,0.025198,0.996555
-0.367386,0.068332,-0.297830,-0.065881,-0.458862,0.886062
0.168114,-0.090332,0.278216,0.849449,0.246048,-0.466794
-0.844289,-0.059184,-0.336407,-0.631978,-0.444159,-0.635079
0.364933,0.262148,0.651342,0.493552,0.796766,-0.348669
-0.235567,0.263074,0.134009,0.641111,0.764799,0.063703
0.552123,0.030656,-0.941418,-0.334746,0.251418,0.908149
0.128272,0.126925,-0.984621,-0.117663,0.197446,0.973227
0.185119,-0.056461,-0.572690,-0.473660,0.803399,0.360827
-0.122859,-0.064169,0.636159,0.439683,-0.285612,0.851531
0.565684,-0.171022,0.723902,0.253903,0.588376,0.767689
0.554370,0.772978,-0.121530,0.303396,0.710974,-0.634402
0.526125,0.208697,-0.037143,-0.499465,0.855564,-0.136177
-0.259949,-0.153241,0.713997,0.820334,-0.459916,0.339896
0.171275,-0.086580,0.063372,0.214587,-0.712436,0.668122
0.251873,0.036877,-0.954581,-0.357249,-0.068421,0.931500
0.267754,0.033329,0.032810,0.572292,0.798299,-0.187618
0.303728,0.116180,0.090838,0.937529,0.099613,-0.333342
0.238732,0.528383,-0.125244,0.921285,0.054376,0.385067
0.073393,0.161924,-0.989248,-0.137321,0.129856,0.981978
0.090891,-0.281783,0.102730,-0.097723,0.942938,-0.318306
-0.031724,-0.331225,0.184152,-0.118927,-0.049568,0.991665
-0.397742,-0.164136,-0.684673,0.316307,0.222755,-0.922133
0.130733,0.159612,-0.986153,-0.224479,0.059831,0.972640
0.153850,0.073112,0.482047,-0.325763,-0.188605,-0.926448
0.072904,-0.387249,0.487456,-0.469351,-0.618827,-0.629892
-0.417277,-0.147174,-0.334028,-0.407670,0.424975,0.808209
0.128907,0.168299,-0.985534,-0.148914,0.013166,0.988762
-0.347430,0.309072,0.192949,-0.313278,-0.428715,0.847385
-0.107051,0.376505,0.152352,-0.150418,0.463484,-0.873245
0.119913,0.204842,0.521406,-0.731875,0.627588,0.265506
0.073745,0.006398,-0.289815,-0.236883,0.832382,0.501025
-0.374063,-0.130162,-0.677668,0.432556,0.469796,-0.769537
0.228894,0.295350,0.491170,0.905327,0.289439,0.310818
0.526965,0.145477,0.029421,0.939275,-0.309541,-0.148144
-0.774374,-0.133556,-0.455754,-0.504029,0.845148,-0.177985
-0.432948,-0.537687,-0.400528,-0.592063,0.790336,-0.157574
-0.210483,0.206278,0.184185,0.303231,0.952734,-0.018659
-0.178862,-0.305426,0.707155,-0.591473,-0.247322,-0.767458
0.403368,-0.005576,-0.193373,0.819748,0.491440,0.294109
-0.410110,-0.041451,-0.181448,-0.620995,0.443311,-0.646406
0.165163,0.288719,0.416656,0.132924,-0.614893,0.777327
-0.415029,0.136433,0.673009,0.594718,-0.185630,0.782210
0.519027,0.077533,-0.065522,-0.398281,0.256681,0.880617
0.040087,-0.206385,0.277662,-0.643217,0.612401,0.459606
0.102977,-0.010564,-0.150202,0.811076,0.569937,-0.131631
0.180620,-0.267751,-0.138407,-0.597091,-0.785887,-0.160822
0.280329,0.091254,0.456569,-0.686755,0.489017,-0.537801
0.213575,0.127336,0.753812,-0.640621,0.706575,-0.300593
0.201703,0.633077,-0.282810,0.917286,-0.386393,-0.096365
-0.053999,0.223036,0.307018,-0.507804,0.090802,-0.856674
0.126376,0.529512,-0.372084,-0.696468,-0.654940,0.293233
-0.352281,-0.081849,0.241659,0.511553,0.847757,0.140077
-0.145697,0.202683,0.321713,-0.322366,0.933575,-0.156584
0.634124,-0.167016,-0.032061,-0.705135,-0.481144,-0.520851
-0.090960,-0.298691,0.156588,-0.305684,0.862097,0.404162
0.426695,-0.150618,0.679069,-0.466785,-0.054684,-0.882678
-0.086251,-0.853778,-0.578978,-0.546242,0.733855,-0.403827
0.095742,0.191271,-0.015607,0.429297,0.657031,-0.619689
0.219270,-0.511371,-0.203995,-0.063776,0.825644,0.560576
-0.042476,0.065709,-0.985957,-0.015069,0.156917,0.987497
0.313073,0.120858,-0.570149,0.786181,-0.600236,-0.147096
-0.383199,0.368744,-0.309592,-0.613989,0.513724,-0.599254
0.130382,-0.106468,0.528965,0.640885,0.105129,0.760404
0.060887,-0.140081,0.372507,0.825302,0.472424,0.309342
0.248288,-0.039653,0.441972,0.835751,-0.449599,0.315247
0.403368,0.545859,-0.231852,0.121351,0.368110,0.921829
-0.150192,0.086630,0.371074,0.979627,-0.102097,0.172939
0.588800,0.082517,-0.948456,-0.165202,0.242740,0.955921
0.620421,-0.215583,0.154079,0.932940,0.307448,-0.187347
0.152936,0.489939,0.354001,0.092525,-0.560325,0.823089
-0.061376,0.377123,0.098136,-0.430701,-0.609218,0.665845
-0.545514,-0.188087,-0.681969,0.969228,-0.232158,0.081849
0.369710,-0.068385,0.392545,-0.100232,0.872879,-0.477531
0.675158,0.710326,-0.527141,-0.272528,0.165377,-0.947829
0.280260,0.456890,-0.216799,0.863488,0.163150,-0.477253
0.081404,-0.363452,0.730907,0.164982,0.749471,0.641151
0.511787,0.155653,0.631924,0.356157,0.645381,-0.675748
-0.358886,-0.218666,0.736935,0.367584,-0.451676,0.812939
0.396549,0.338421,0.704972,-0.473520,0.592973,-0.651277
-0.850821,-0.293757,-0.383260,0.179210,-0.817790,0.546903
-0.251028,-0.049058,-0.233221,-0.809481,0.302455,-0.503252
-0.003268,-0.193125,0.338916,0.992621,-0.113747,0.042025
-0.034113,0.091461,-0.991040,-0.066017,0.037362,-0.997119
0.356360,0.283477,-0.980093,-0.189128,0.207788,0.959716
-0.129044,-0.474727,-0.333116,0.734420,-0.568574,-0.370610
0.416788,0.293192,-0.588720,0.808921,-0.071652,-0.583535
0.116890,0.697119,-0.301316,-0.112663,0.501851,-0.857585
0.202686,0.375837,0.796168,0.021510,-0.974337,0.224063
0.369847,0.291752,-0.044376,0.989257,0.066909,0.129976
0.325369,-0.292885,-0.247752,0.953863,0.164925,0.250890
0.333805,0.070901,-0.137625,0.935815,0.343162,0.080558
0.210907,0.081849,0.820344,0.687425,0.689557,-0.227941
0.253348,0.650911,-0.351916,-0.317111,0.505939,-0.802164
0.238171,0.144501,-0.987195,-0.192665,0.289179,0.937686
0.431755,0.241331,0.611397,0.348018,0.847775,-0.400200
-0.147382,-0.641149,-0.111853,-0.380054,-0.215302,-0.899558
-0.099743,-0.000488,-0.549850,-0.169969,-0.705991,0.687523
0.248922,0.100916,-0.788740,0.992613,0.104401,-0.061801
0.328461,0.014209,0.179949,-0.049895,0.985262,0.163611
-0.408425,0.337600,0.175779,0.825502,-0.027574,-0.563725
0.359662,0.152827,-0.155024,-0.511865,0.856466,-0.066779
0.364933,0.336775,0.469373,-0.637163,0.543971,-0.546002
0.192779,-0.092129,-0.951747,0.036697,0.242507,0.969455
0.344411,0.013541,0.375635,-0.501825,0.862022,0.071340
0.585078,0.598282,-0.522547,0.128307,-0.225456,0.965768
0.157225,-0.622747,-0.146129,0.900384,-0.401626,-0.167349
-0.034113,-0.335903,-0.314610,0.832733,-0.364230,-0.417004
0.057653,-0.276027,0.389808,-0.596808,-0.720767,-0.352583
-0.366824,0.201912,0.069334,0.374041,0.713617,0.592321
-0.235074,0.281115,0.151831,-0.138344,-0.496153,0.857142
0.242103,0.433865,-0.387593,-0.151640,-0.806121,0.571991
-0.356990,0.312312,0.022449,-0.210613,0.919253,-0.332591
0.262200,-0.038421,-0.122377,-0.661427,0.730384,0.170450
0.173175,0.395060,0.812915,0.051563,-0.932268,0.358075
0.212592,0.032046,0.232829,0.716005,-0.443904,0.538781
-0.288126,-0.033947,-0.328815,0.061840,-0.006412,0.998066
0.313635,-0.347622,-0.280269,-0.388335,0.729974,0.562436
0.349262,0.030810,-0.945360,0.060060,-0.211130,0.975611
0.473562,0.061854,-0.947999,-0.047035,0.221971,0.973918
0.229597,0.339036,-0.312362,0.987150,0.036180,0.155649
0.588800,0.277567,-0.030399,0.813413,-0.153212,-0.561147
0.211400,0.209004,-0.985175,-0.065486,0.164591,0.984186
0.593788,-0.170971,0.139385,0.931513,-0.004037,-0.363687
-0.140919,0.500473,-0.001564,0.374984,-0.785056,0.493026
0.511294,-0.081388,-0.125831,0.899061,-0.033897,-0.436509
0.411028,-0.022949,-0.949694,-0.032782,-0.136631,0.990079
0.092088,0.358928,0.195165,0.237185,0.928368,0.286139
-0.178158,-0.225813,0.688876,0.950013,0.110404,0.292038
-0.229456,0.433761,0.151179,0.927579,0.373072,-0.020344
0.580579,-0.080924,0.529323,-0.427196,-0.902973,0.046295
0.229246,0.257625,-0.982732,-0.010124,0.220101,0.975425
-0.207742,-0.236246,-0.355598,0.562022,0.329058,0.758849
-0.184905,-0.326805,0.043040,-0.301448,0.899656,0.315829
-0.456836,-0.182484,0.866121,-0.681260,-0.373173,-0.629783
-0.138106,0.058720,0.535514,0.557564,0.197632,0.806265
0.356218,-0.514250,-0.074221,0.870176,0.491934,-0.028185
0.333732,0.079123,-0.741203,0.891583,-0.442872,0.094578
0.047746,0.444092,-0.468787,0.418406,0.488759,-0.765540
0.155398,0.415106,0.401864,0.441693,0.560330,-0.700670
-0.157993,-0.000284,-0.591131,0.387840,0.727402,0.566098
0.486913,-0.544162,0.003388,0.831327,0.541034,-0.127189
0.305907,0.059081,-0.278835,0.992845,0.109892,0.046726
0.271335,0.120500,-0.302196,0.032833,-0.920740,0.388794
-0.040297,0.078251,-0.987163,0.100717,0.019300,-0.994728
-0.380951,0.060107,0.124527,0.450439,0.771283,0.449696
-0.813860,-0.197749,-0.337906,-0.318900,0.088091,-0.943686
0.217091,0.007838,-0.133748,-0.642817,0.090318,0.760676
-0.260862,0.120961,-0.293008,0.261419,0.569247,0.779498
-0.004743,0.264925,-0.521895,0.577079,-0.049707,-0.815174
0.242176,-0.026136,-0.537339,0.755468,-0.646272,-0.107702
0.024420,0.120704,-0.987684,-0.056690,0.338282,0.939336
-0.028139,0.183563,0.799035,0.096785,-0.898803,0.427534
0.061097,-0.260043,0.641079,0.135357,0.697816,0.703372
0.216315,-0.400870,-0.335918,0.910453,-0.037762,0.411885
0.145276,0.176367,-0.983872,0.159662,-0.091673,-0.982906
0.261360,0.670599,-0.308093,0.723669,-0.625290,0.292088
0.531391,-0.278031,0.821061,0.986359,-0.129895,-0.101111
0.243158,0.022434,0.141666,-0.507316,-0.755255,-0.414994
0.491202,0.718037,-0.306269,-0.412355,0.911002,0.006239
0.063769,-0.195076,-0.349994,-0.449946,0.765094,0.460630
0.011558,0.922030,-0.214453,0.533506,-0.596279,-0.599852
-0.023082,0.263177,0.367359,-0.123628,-0.378678,0.917235
-0.540526,-0.199550,-0.643099,-0.473486,-0.830740,-0.292716
-0.307241,-0.142447,-0.212629,0.902735,-0.172166,0.394245
0.407022,0.013541,-0.219015,0.876009,0.482277,-0.004053
0.500474,0.261326,0.663300,-0.004455,-0.706799,0.707400
0.250960,0.033997,0.893588,0.922276,0.104657,0.372093
0.100588,0.021201,-0.130881,0.990776,0.118468,0.065785
0.874293,-0.507004,0.348560,0.417468,0.771716,0.479766
0.105859,0.096085,0.056562,0.555735,0.831309,-0.009187
-0.361343,0.463726,0.090838,-0.700232,0.695307,0.161936
0.204864,0.097628,-0.971328,-0.224745,0.148066,0.963102
0.289112,-0.630561,-0.150202,0.530412,0.678277,0.508531
0.687102,0.136433,0.009221,0.819453,0.508669,0.264106
-0.055402,-0.172872,0.617816,0.331684,0.684686,0.648992
0.325232,0.093208,-0.117620,0.917543,0.375023,0.132187
-0.124056,0.622490,-0.241007,0.321746,-0.380287,0.867099
-0.727785,-0.144451,-0.331454,0.312399,0.665044,-0.678324
0.296562,0.129597,-0.848755,0.987129,-0.134488,0.086537
-0.146679,-0.238662,-0.613873,0.742362,0.214415,-0.634763
0.429718,0.542619,-0.116317,0.402662,-0.323468,0.856290
0.111691,-0.013955,-0.970546,-0.056090,-0.039324,0.997651
-0.233951,0.038317,0.604099,0.785363,-0.106669,0.609776
0.525773,0.683191,-0.499576,0.381166,-0.284450,0.879659
0.095317,0.159201,-0.150560,0.122371,0.969639,0.211720
0.779576,-0.396807,0.261371,0.416500,0.776931,0.472129
-0.394371,-0.101844,-0.242083,-0.533377,0.845215,-0.033466
-0.333659,0.001106,-0.368370,-0.170268,0.885652,0.432006
-0.645292,-0.054046,-0.372898,0.295590,-0.048265,-0.954095
0.506868,-0.249917,-0.304412,-0.078926,-0.900604,-0.427415
0.429084,0.011847,0.394761,0.944158,-0.325034,0.054028
0.477289,0.026854,0.589665,0.507831,0.859397,0.059543
0.444471,0.172050,-0.960804,0.022316,-0.032164,0.999233
-0.529916,-0.235217,-0.161736,0.906371,-0.395101,0.149623
-0.297544,-0.670084,-0.520592,0.092130,-0.818924,0.566459
-0.517269,-0.339297,-0.223120,-0.032139,0.691893,0.721284
-0.052173,0.020634,-0.527206,0.145960,0.290124,-0.945793
0.100378,0.828334,-0.281637,0.669723,0.178785,0.720768
-0.523732,0.101791,0.017561,0.069571,-0.927971,0.366101
0.302956,0.121065,-0.398443,0.915364,-0.367301,-0.164918
0.406739,0.104821,-0.953506,0.225980,0.389858,0.892717
0.056954,0.159662,-0.993679,-0.110432,0.084039,0.990324
0.391634,0.272632,0.177994,0.684175,-0.252002,-0.684397
0.122370,-0.171640,-0.323179,0.844189,-0.417710,-0.335950
-0.221865,-0.307531,0.720155,-0.491770,-0.556234,-0.669901
0.104242,-0.028348,-0.174801,0.988529,0.130794,0.075516
-0.121594,0.347108,0.014499,0.819623,-0.538150,-0.196503
0.536521,0.218563,0.616512,-0.229074,-0.742481,0.629482
-0.011065,0.071569,-0.185944,0.358958,0.342468,-0.868254
-0.082528,0.237529,0.304346,0.523483,0.550190,0.650581
-0.460563,-0.196259,-0.320377,-0.234226,0.578591,0.781262
-0.249060,0.338318,0.049622,0.885235,0.338780,0.318728
0.354674,0.003572,0.161768,-0.241765,0.942114,0.232315
0.259812,-0.025314,-0.955102,-0.109627,-0.210397,0.971450
0.425220,0.234239,0.589144,-0.564009,-0.772156,0.292692
-0.296279,0.096085,0.632152,0.400338,-0.616244,-0.678213
0.290309,0.116695,0.186302,-0.282855,0.877354,-0.387612
-0.152233,0.544316,0.053988,0.894562,0.173440,0.411919
0.357063,0.062933,0.663528,0.292005,0.927389,-0.233843
-0.127847,0.090636,0.367946,0.174559,-0.929715,0.324283
0.035241,0.019608,-0.982764,-0.232578,0.085362,0.968825
0.151251,-0.062986,-0.053727,-0.272704,0.894456,0.354373
0.854899,0.168556,-0.406099,0.087398,-0.883191,-0.460799
0.303938,0.175956,0.349961,0.390907,0.915739,0.092812
-0.096509,0.318273,-0.464551,0.832704,0.481413,0.273580
-0.196780,0.134018,-0.018995,-0.722370,0.631929,-0.280798
0.144294,0.287743,0.437378,0.067512,-0.666070,0.742828
0.171485,0.164443,0.498110,0.501574,0.203260,0.840897
0.240418,0.266569,-0.983937,-0.139243,0.131300,0.981515
0.226925,0.286768,0.697348,0.326862,-0.805935,0.493590
0.512349,-0.047672,0.356901,0.998278,-0.044148,0.038617
0.308437,0.372395,-0.404796,0.857980,-0.374662,0.351423
-0.254820,0.356717,-0.317900,-0.193001,0.718490,-0.668224
0.420232,-0.495695,0.029845,0.952261,0.239598,0.189190
0.106841,0.174516,-0.991789,-0.238991,0.129056,0.962407
-0.191441,-0.242360,0.693014,0.832402,-0.198348,0.517461
0.371044,0.047465,0.754203,-0.718551,-0.463580,-0.518438
0.744370,0.180119,0.487782,-0.221245,-0.757410,0.614314
0.122512,0.816410,-0.257168,-0.694744,0.328709,0.639750
-0.099602,0.962325,-0.130718,-0.408062,0.665772,-0.624686
0.282928,0.167220,-0.051186,-0.619755,0.707178,-0.340299
0.047326,-0.114229,0.551772,-0.654098,-0.468464,-0.593883
0.422547,0.269445,0.667372,0.083878,0.649216,-0.755965
0.119982,-0.245344,0.483807,0.972816,0.166719,-0.160732
0.487968,0.037134,0.614134,0.606017,0.785455,-0.125716
0.205846,0.080616,0.031246,0.637183,-0.309904,0.705661
0.246392,0.098039,-0.168057,0.237464,0.966107,0.101228
0.545094,0.353686,-0.373127,-0.118854,-0.500078,0.857786
0.154622,0.016060,-0.970285,0.038043,0.286507,-0.957323
0.287285,0.245290,0.457318,0.865699,-0.442326,0.234334
0.287075,0.297459,0.668904,-0.404551,0.896193,-0.182146
0.689491,0.088889,0.720807,-0.596198,0.770419,-0.225836
0.129961,-0.080667,-0.123257,0.985474,-0.118086,0.122055
-0.220741,0.487677,-0.250521,0.844891,0.434125,-0.312560
0.328955,-0.368283,0.168252,0.327286,0.665459,0.670856
-0.325438,-0.019865,0.605141,-0.487927,0.546909,-0.680307
0.378845,-0.283326,0.454711,0.917772,-0.249100,-0.309262
0.443421,0.125021,-0.958751,0.102957,0.157180,0.982189
-0.355373,0.073624,-0.630067,0.301797,-0.724127,0.620127
-0.235919,-0.310976,0.708067,-0.436160,-0.680931,-0.588300
-0.210483,0.179297,0.024534,-0.343403,-0.007058,0.939162
0.455717,0.399841,0.402352,0.903406,0.130952,-0.408300
0.349755,0.085548,-0.448814,-0.227581,-0.477980,0.848376
-0.556545,-0.074345,-0.144402,0.701588,-0.081974,0.707852
0.029691,0.441729,-0.407957,0.811947,-0.575663,-0.096719
-0.000176,0.683137,-0.298742,-0.451624,0.283782,-0.845875
0.229739,-0.163571,0.256288,0.353336,0.677975,0.644596
-0.201768,-0.461260,-0.416656,0.963235,0.052910,-0.263399
0.099113,-0.290316,0.365079,0.284661,0.740749,0.608489
-0.253065,-0.910209,-0.527043,-0.461048,-0.066086,-0.884911
-0.646840,-0.005937,-0.315229,-0.659278,-0.694205,-0.288847
-0.685061,-0.312262,-0.228170,0.084746,0.770502,0.631779
-0.559427,-0.361293,-0.229245,0.097189,0.725914,0.680884
-0.586270,-0.277055,-0.260654,0.073118,0.652058,0.754635
-0.240066,-0.008148,0.169262,0.558553,0.182237,0.809202
-0.637143,-0.190964,-0.301545,0.213253,-0.032711,0.976449
0.057165,-0.115155,0.396651,0.897153,0.438942,0.049465
0.008891,0.117313,0.064577,0.306828,0.893468,-0.327980
0.225381,0.068846,-0.081096,0.036943,-0.547566,0.835947
0.217512,-0.106725,0.493875,-0.772391,0.072642,-0.630980
-0.685906,-0.321460,-0.183044,0.085962,0.806645,0.584752
-0.139586,0.191993,0.064284,0.492172,0.587485,-0.642362
0.153498,0.625420,-0.254431,0.842609,-0.495025,-0.212039
0.130099,-0.140546,-0.144272,0.936724,-0.340221,0.082451
0.005447,0.389868,0.403036,0.153402,-0.839222,0.521703
-0.282855,-0.175341,0.721817,-0.804668,0.366799,-0.466870
-0.003126,-0.251922,0.638863,0.059457,0.574310,0.816476
0.523243,-0.268369,0.437997,-0.208348,-0.875832,-0.435326
-0.121736,-0.230336,0.255669,0.390201,0.344323,0.853923
-0.288550,-0.052709,0.186335,-0.568639,-0.443198,-0.692982
-0.002072,0.159355,0.145673,0.274009,0.889438,0.365813
-0.072480,0.456737,0.176039,0.056866,-0.801835,0.594833
0.266699,0.064269,0.826339,0.113991,-0.011319,0.993417
0.076627,0.441729,0.423824,0.259477,0.222022,-0.939882
0.141764,-0.007273,-0.540011,-0.304520,-0.416099,0.856814
0.292766,0.060314,-0.183272,-0.561784,0.519195,-0.644078
0.548748,0.185207,-0.960934,-0.137251,-0.065392,0.988376
0.450939,0.471898,0.196403,-0.420340,0.631337,-0.651711
0.723853,0.381028,-0.334257,-0.077029,-0.698083,0.711861
0.043672,0.371159,-0.071973,0.693263,-0.073745,0.716901
-0.000875,-0.141367,-0.421804,0.437394,-0.898469,0.037944
0.153005,-0.110427,0.255441,0.878774,0.325993,-0.348547
-0.212803,-0.128518,-0.277629,0.106525,-0.745621,0.657800
0.143874,0.439929,0.762609,-0.199790,-0.857239,0.474579
-0.140636,-0.053221,-0.075264,0.849998,0.044439,0.524908
-0.782381,-0.236450,-0.346344,0.780284,0.490153,0.388467
0.064121,0.346697,0.117132,-0.044299,-0.473878,0.879476
0.163126,0.423378,0.850906,-0.640616,-0.760755,-0.104223
0.583812,-0.175134,0.734459,0.476410,0.852348,0.215722
0.285531,0.303315,-0.985599,-0.061883,0.072545,0.995444
0.322491,0.119471,0.479213,-0.154316,-0.815799,0.557368
0.285741,0.270370,0.665352,-0.395712,0.842760,-0.364921
0.330640,0.432632,0.492701,-0.035793,-0.695616,0.717521
0.359452,-0.075374,0.375212,-0.079302,0.987756,-0.134347
0.146332,0.675841,-0.266780,0.800983,0.555422,-0.223456
0.175564,-0.101226,0.502215,-0.662728,-0.236162,-0.710647
0.349613,0.254798,-0.706569,0.932296,-0.071957,-0.354466
0.405195,0.230436,0.655545,0.354830,0.890647,-0.284329
0.337879,0.113561,-0.551642,-0.597189,-0.778255,-0.194125
0.426695,0.523705,0.034993,-0.531932,-0.552386,0.641808
0.072621,0.434069,-0.101362,0.688406,-0.013748,0.725195
-0.286089,-0.176624,0.748925,0.576238,-0.725761,0.375794
0.397463,0.354251,0.414277,0.812955,-0.570586,-0.116341
-0.238377,-0.436591,-0.381761,0.155662,0.311392,0.937446
0.291853,0.079280,-0.775218,0.999322,0.011355,-0.035018
0.755122,-0.343510,0.244950,-0.046553,0.409959,0.910915
-0.831148,-0.079744,-0.426333,0.449050,-0.806272,0.385071
-0.137334,0.336724,-0.364558,0.788472,0.407707,-0.460530
-0.190386,0.458998,0.005050,-0.154095,0.958384,-0.240322
0.386291,0.380721,-0.197706,0.782682,0.130452,-0.608598
0.122653,0.495592,0.306399,-0.005727,-0.945441,0.325742
0.367459,0.557729,-0.148084,-0.682586,0.709247,0.176196
-0.402172,0.309329,0.100873,-0.707728,0.587758,-0.391997
0.282507,-0.222368,-0.018409,0.797379,0.414014,-0.439067
0.027229,-0.245394,0.006679,0.675798,-0.555749,-0.484190
0.069319,0.169532,-0.108106,-0.430726,-0.801403,-0.415004
-0.284052,-0.700153,-0.552880,-0.329712,0.924826,0.189703
0.189193,0.484490,-0.373941,0.793222,0.526686,-0.305616
-0.016053,-0.365817,-0.281995,0.873753,-0.369777,-0.315944
0.326424,0.229100,0.025935,0.731361,-0.554493,0.397051
0.332047,0.045717,0.253323,-0.887380,0.295293,0.354060
0.227560,0.050855,0.066043,-0.241111,0.416248,0.876700
0.009662,0.112482,-0.982764,-0.112229,0.362703,0.925122
-0.423178,0.240563,0.081552,0.196859,-0.686496,0.699978
0.399153,-0.246012,0.493125,-0.490064,-0.021695,0.871417
0.232968,0.171329,0.357031,-0.344805,-0.829394,0.439562
-0.187718,-0.333333,-0.597876,0.923018,0.088974,0.374328
0.152443,0.841490,-0.237456,0.124907,0.960318,-0.249374
0.112532,0.044277,-0.154438,-0.462051,0.369062,-0.806413
0.348700,0.318169,0.574775,0.867821,0.376459,0.324294
0.245127,0.233570,-0.984719,-0.056169,0.080767,0.995149
0.050839,0.396961,-0.349505,-0.294989,0.885922,0.357945
-0.134876,0.062422,-0.349538,0.375485,-0.216225,0.901253
0.385025,0.705341,-0.263978,0.020675,0.375841,0.926454
0.077047,0.050187,-0.980581,0.172713,-0.023473,-0.984692
-0.242665,-0.156118,0.723641,0.938202,0.065836,0.339769
0.448267,0.075217,-0.375701,0.185386,-0.883606,-0.429968
0.533291,0.143783,0.919327,0.500086,0.789822,-0.355099
0.060467,-0.305219,0.673368,-0.281427,0.760393,0.585322
-0.025188,0.362526,0.214225,0.510845,0.586740,0.628310
0.261145,-0.078458,-0.964356,-0.288420,0.117203,0.950304
0.352633,0.221289,-0.974651,-0.041523,0.299430,0.953214
-0.291921,0.060364,-0.073276,0.461810,-0.885115,-0.057475
-0.119767,0.051473,-0.212075,0.291158,-0.762880,0.577271
0.364933,0.357695,0.022514,0.956394,0.038872,0.289482
0.267120,0.038624,-0.089730,0.910039,-0.231323,0.343976
0.206056,0.132217,-0.350352,0.352503,-0.360912,-0.863414
0.086744,0.451802,0.143979,-0.555798,-0.701870,0.445496
-0.064400,-0.236143,0.241952,-0.504921,-0.731398,-0.458380
0.087237,-0.164650,-0.263098,-0.669682,0.599229,0.438692
-0.366125,0.346697,0.128861,0.928994,-0.009340,-0.369976
-0.183712,0.386581,-0.069301,0.482661,0.610069,-0.628374
-0.191509,-0.162850,0.641633,0.122696,0.626664,0.769570
-0.233110,-0.560198,-0.352600,0.844392,-0.383463,-0.374109
0.364791,-0.285688,-0.289000,-0.206736,0.737145,0.643334
0.314759,0.310154,0.685814,0.148747,-0.926774,0.344912
-0.588097,-0.161720,-0.364004,-0.607131,0.069169,0.791585
0.252152,0.077018,-0.017953,0.808396,0.580272,0.098895
-0.755049,-0.359853,-0.469015,0.449519,-0.493822,0.744360
-0.139586,-0.244315,0.260654,-0.158000,0.351238,0.922858
0.261218,0.436127,0.004757,0.995188,-0.017338,-0.096436
0.025261,0.112739,-0.088395,-0.323967,-0.893555,0.310813
0.225030,-0.441576,-0.228789,-0.379966,0.544293,0.747911
-0.049642,0.177703,-0.003226,-0.272828,0.903595,0.330273
0.479468,0.036105,0.473869,0.861784,0.408075,-0.301335
-0.792991,-0.048955,-0.366741,0.175237,-0.788507,0.589532
0.419949,0.263228,0.630588,0.307192,0.920756,-0.240503
-0.064468,0.481099,0.217483,0.857944,0.191236,0.476825
0.172330,0.850487,-0.236739,0.203474,0.944351,-0.258455
0.258688,-0.636779,-0.124625,0.031805,0.938820,0.342938
-0.308506,0.503917,-0.331389,0.341895,0.644930,0.683501
-0.013244,0.240459,-0.505116,0.082244,-0.253343,0.963874
-0.618590,-0.281476,-0.250554,0.548537,-0.783802,-0.291137
0.191792,-0.053582,-0.545061,-0.328789,0.809466,0.486480
-0.053716,-0.316014,-0.398769,0.997200,-0.050469,-0.055180
0.167483,0.125331,-0.175648,-0.362957,0.810650,0.459465
0.455575,-0.093105,0.056106,0.414467,0.885076,-0.211797
-0.078943,0.806284,-0.254920,0.012541,-0.259495,0.965663
0.241053,-0.121272,0.336048,0.883652,-0.381091,-0.271899
0.256719,-0.014573,-0.958621,0.200244,0.104936,-0.974110
0.185050,0.035591,0.033983,-0.087654,0.793864,-0.601745
-0.183288,0.435201,-0.253519,-0.005915,-0.622544,0.782563
0.448550,0.356306,0.427473,0.900033,-0.378625,-0.215834
0.431545,0.854032,-0.330835,-0.445180,-0.644040,0.622115
0.472511,0.086373,-0.958035,0.189608,0.146236,0.970909
0.214420,-0.213117,-0.196240,-0.281526,0.520582,0.806063
0.562450,-0.062986,0.665450,0.980463,-0.016140,-0.196040
0.024982,0.367718,0.365242,0.802463,0.593855,-0.058217
0.185964,0.699688,-0.216245,0.914940,0.374785,0.149735
0.064190,-0.224373,0.618142,-0.400432,-0.831872,-0.384244
0.267051,-0.004240,-0.348332,-0.292496,0.681120,0.671209
0.255806,0.020430,-0.510752,0.578660,0.512619,-0.634329
-0.103046,0.319559,0.048677,0.895742,-0.413800,-0.162529
0.031518,0.013798,0.562492,-0.499844,-0.201995,0.842232
