-0.858932,0.510066,0.511972,0.830362,0.542115,0.128883
0.225479,0.419612,0.792369,0.966408,-0.134908,0.218760
-0.191702,0.413521,0.748065,-0.695006,0.170914,-0.698395
0.125804,0.343586,0.646428,-0.838573,0.544246,0.024298
0.119502,0.343051,0.702879,0.795498,-0.590324,-0.136752
0.042454,0.341769,0.722755,0.975887,-0.217062,-0.022987
0.264433,0.272685,0.480610,0.855896,-0.222961,0.466615
0.253406,0.272366,0.538253,0.795024,0.537780,-0.280587
0.094153,0.269855,0.513076,-0.160617,-0.949561,0.269324
-0.034021,0.267663,0.505655,-0.021619,0.999404,0.026919
-0.092884,0.266754,0.534013,0.873989,-0.444446,0.196498
-0.125107,0.266115,0.576682,0.226597,-0.901549,0.368597
-0.226071,0.264350,0.584103,-0.345259,0.876383,-0.335781
0.258275,0.181965,0.359096,0.819960,-0.237299,0.520917
0.202708,0.181322,0.390060,0.070293,0.651105,0.755726
0.237511,0.182232,0.473852,0.968866,0.157422,-0.191096
0.095443,0.179721,0.455830,-0.359009,0.932686,0.034786
0.156307,0.181270,0.553183,0.930837,0.037910,0.363463
0.306251,0.184368,0.699742,0.915965,0.275309,0.291914
0.081409,0.101930,-0.088046,0.235964,0.958470,0.160178
0.233215,0.105830,0.067436,0.887605,0.180578,-0.423732
0.157311,0.104868,0.088373,0.182993,-0.134582,0.973859
0.292361,0.108553,0.231663,-0.808840,-0.536832,0.239977
0.101168,0.105990,0.316957,0.133053,-0.546895,0.826561
0.265294,0.110210,0.471290,0.986446,-0.026279,-0.161970
0.345349,0.113148,0.641172,0.846888,-0.463862,0.260023
0.261282,0.111867,0.657559,-0.649146,0.748210,-0.137078
-0.099758,0.104493,0.521380,0.509112,-0.790257,0.341026
-0.438601,0.097870,0.399115,-0.409884,-0.877229,0.249930
0.324869,0.035253,0.185328,-0.630149,-0.578349,0.518097
0.220182,0.033489,0.189082,0.878235,-0.472364,0.074663
0.041304,0.029960,0.153127,0.873650,0.466607,-0.137891
-0.100047,0.027505,0.138993,-0.054460,-0.710980,0.701100
0.021113,0.031457,0.273184,0.303697,0.749517,0.588211
0.117496,0.034663,0.389707,0.822887,-0.520020,-0.228991
-0.154180,0.028786,0.299510,-0.593018,0.098997,0.799080
-0.313005,0.025741,0.275922,0.284801,-0.939523,-0.190221
0.442589,-0.030626,0.027814,0.279371,-0.725899,0.628509
0.353225,-0.031748,0.043583,0.032633,-0.983289,0.179100
0.285914,-0.032442,0.071809,0.781188,-0.520224,0.345126
0.221327,-0.033085,0.098885,-0.133538,0.926794,-0.351028
0.187669,-0.032922,0.143542,0.840593,-0.535932,-0.078617
-0.000368,-0.036662,0.102419,0.914196,-0.106091,-0.391141
-0.331764,-0.044518,-0.021171,-0.685128,-0.722799,-0.090332
-0.415402,-0.045424,-0.001559,-0.347217,0.082745,0.934127
0.047607,-0.031907,0.325261,0.113831,0.735644,0.667735
-0.309566,-0.040350,0.190363,-0.680807,0.243496,0.690805
0.048468,-0.028542,0.512634,0.885338,-0.340186,-0.316938
0.008652,-0.028542,0.553890,0.869071,-0.268377,0.415560
-0.765844,-0.045532,0.317973,-0.563396,0.387328,-0.729769
0.310263,-0.109858,-0.005093,0.333094,-0.925835,0.178544
0.234504,-0.110716,0.018759,0.851933,0.522321,0.037285
0.229491,-0.109431,0.083116,0.863214,-0.441553,0.244728
0.033718,-0.113706,0.035014,0.722178,0.364003,0.588184
-0.211609,-0.119690,-0.040165,0.890720,-0.372403,-0.260642
0.191966,-0.106013,0.256355,0.825644,-0.405536,-0.392241
-0.564629,-0.127170,-0.108674,-0.530150,0.574208,0.623880
0.396620,-0.111942,-0.157438,0.922473,-0.382100,-0.055171
0.354658,-0.111570,-0.113091,0.955650,-0.104961,0.275165
0.287632,-0.111997,-0.086367,-0.483381,-0.861498,-0.155446
0.419679,-0.196359,-0.233280,0.293603,-0.565051,0.771048
0.372704,-0.195932,-0.191627,-0.091723,-0.286790,0.953592
0.276605,-0.197213,-0.181644,0.734349,0.149422,0.662121
0.286203,-0.195185,-0.109690,0.561661,-0.821283,0.100151
0.219465,-0.195557,-0.080228,0.481883,-0.591044,0.646881
0.178793,-0.195129,-0.038398,0.761229,-0.272075,-0.588648
0.055054,-0.197321,-0.042462,0.238145,0.494784,0.835749
0.035724,-0.196092,0.014740,-0.418397,0.729786,-0.540700
0.088279,-0.192459,0.111916,-0.184728,-0.849891,-0.493518
-0.258723,-0.202131,-0.021790,0.986853,-0.071567,0.144912
-0.225499,-0.199297,0.061517,0.824375,-0.262925,0.501275
-0.172798,-0.195664,0.157721,-0.362580,0.810254,0.460460
-0.362554,-0.200207,0.113638,-0.682815,-0.714853,-0.150831
-0.497319,-0.202825,0.103877,-0.404216,0.482671,-0.776942
-0.548734,-0.202610,0.140804,0.759405,-0.649989,-0.028613
0.650106,-0.264373,-0.246752,0.416441,0.302512,-0.857358
0.328020,-0.269183,-0.231557,-0.146725,-0.188008,-0.971146
0.295224,-0.268221,-0.181821,-0.089088,-0.890667,0.445843
0.139122,-0.271531,-0.204525,-0.192342,0.835323,-0.515014
0.061930,-0.272174,-0.183543,0.155390,0.916994,0.367390
0.112339,-0.268381,-0.088444,-0.620697,0.737810,0.265277
0.064219,-0.267739,-0.048204,-0.678380,0.734344,-0.023219
0.095586,-0.262290,0.101712,0.032224,0.826811,0.561556
0.082410,-0.260741,0.160769,0.359135,0.137936,0.923036
-0.218195,-0.263092,0.248316,0.819038,-0.053230,0.571265
0.002783,-0.361238,-0.265436,0.503171,0.831402,-0.235776
0.121076,-0.348895,0.008600,0.960283,0.194222,-0.200337
-0.096896,-0.354986,-0.051119,0.967006,0.237398,-0.092418
-0.140431,-0.354347,-0.011321,0.507194,-0.758897,-0.408447
0.045317,-0.344890,0.161431,0.824134,-0.393973,-0.406925
-0.003804,-0.344140,0.197033,0.963556,0.250899,0.092783
0.064364,-0.385441,-0.015341,-0.501271,0.477818,0.721400
-0.053785,-0.387577,-0.015606,-0.191690,-0.288776,-0.938010
-0.235669,-0.389768,0.012487,-0.437645,0.486933,-0.755886
0.129240,-0.386618,0.051843,-0.671845,-0.516661,0.530740
-0.190700,-0.394203,0.002637,0.777516,-0.321474,0.540485
-0.015835,-0.382183,0.232547,-0.727138,-0.270919,-0.630772
0.133392,-0.392387,0.054317,0.885175,0.411985,-0.216180
-0.184398,-0.399708,0.003609,0.777516,-0.321474,0.540485
-0.000368,-0.387365,0.240630,-0.787927,-0.249404,-0.563000
0.139694,-0.400295,0.036825,0.989763,0.057085,-0.130805
-0.252709,-0.408095,0.008291,-0.453777,0.503902,-0.734962
0.128239,-0.410926,0.036737,0.924542,-0.268248,-0.270676
-0.263596,-0.418458,0.014519,0.276209,0.069772,0.958562
0.138405,-0.404782,0.062312,0.972002,0.181678,0.149013
-0.265598,-0.415360,-0.037426,0.549555,-0.783779,-0.289275
-0.303552,-0.414239,0.005243,-0.586675,0.370207,-0.720249
0.150004,-0.414398,0.052992,0.969913,-0.110483,-0.216940
-0.189839,-0.422574,-0.007346,-0.532164,0.609525,-0.587606
-0.264025,-0.422893,0.014696,0.317340,0.140496,0.937847
0.160030,-0.412797,0.058292,0.993331,0.051390,0.103216
-0.271328,-0.421879,0.010058,-0.396596,-0.091302,-0.913442
0.146141,-0.411033,0.070263,0.847789,-0.113270,0.518095
-0.301117,-0.420705,0.010278,-0.820713,0.327797,0.467953
0.154016,-0.396502,0.063284,0.954874,0.045247,0.293543
0.104035,-0.382878,0.000296,0.783232,-0.321312,-0.532266
-0.118661,-0.388379,-0.060439,-0.427270,0.893348,-0.139178
0.131963,-0.365565,-0.004121,0.814152,-0.161726,-0.557675
-0.105488,-0.371764,-0.075987,0.846771,-0.256899,0.465813
-0.148450,-0.371014,-0.033274,0.906151,0.421091,-0.039665
0.012376,-0.361665,0.188906,0.988571,-0.137503,-0.061811
0.116496,-0.345905,-0.027753,0.686463,-0.145360,-0.712488
-0.010967,-0.348363,-0.033760,-0.121006,0.199284,0.972442
-0.126681,-0.350284,-0.032744,0.904124,-0.046296,0.424754
0.022258,-0.341897,0.182766,0.895332,0.224662,-0.384588
0.325585,-0.303323,-0.266850,-0.363435,0.835866,0.411391
0.234071,-0.304660,-0.253996,-0.181375,-0.806335,0.562962
-0.033881,-0.308185,-0.206822,-0.240255,-0.757533,0.606977
0.144279,-0.299634,0.032541,0.904918,-0.115609,-0.409583
0.142417,-0.296696,0.159709,0.400122,-0.914749,0.056012
0.056772,-0.297873,0.177156,0.418275,-0.891065,-0.176208
0.667435,-0.219492,-0.216230,-0.454434,-0.858466,0.237752
0.309974,-0.225744,-0.225373,-0.595857,0.803046,0.008462
0.301526,-0.224945,-0.163799,0.061008,0.982472,0.176146
0.226479,-0.225744,-0.139196,0.211310,-0.942398,0.259294
0.166761,-0.226226,-0.105670,0.113847,0.780503,-0.614698
0.187529,-0.223608,0.039520,0.864289,-0.498273,0.068768
-0.157760,-0.231568,-0.094672,0.185334,0.234626,0.954255
0.109765,-0.223288,0.125741,0.814431,-0.464380,-0.347927
-0.281782,-0.230394,0.100387,0.122769,-0.979021,0.162620
-0.191990,-0.226973,0.216557,0.848386,-0.527337,0.046440
-0.632085,-0.236378,0.096809,-0.340617,0.660591,-0.669028
-0.407811,-0.229376,0.286258,0.890716,0.326108,0.316668
0.396620,-0.185673,-0.180142,0.925118,-0.291840,-0.242869
0.268157,-0.187170,-0.120732,-0.634028,0.714275,-0.296343
0.213162,-0.187437,-0.083673,-0.094647,-0.914919,0.392383
0.138693,-0.188399,-0.058672,0.867442,0.497488,0.007033
0.166905,-0.186742,0.022558,0.692770,0.062630,-0.718434
0.018967,-0.189573,0.001930,-0.635567,0.421169,0.647049
0.094297,-0.186902,0.112313,0.979357,-0.094519,0.178681
-0.366850,-0.197321,-0.087295,0.570404,0.259669,-0.779238
-0.303696,-0.194758,0.015535,0.994802,0.097465,0.029498
-0.203445,-0.191337,0.138507,-0.401561,0.716765,0.570085
-0.390053,-0.195077,0.099371,0.670088,0.486790,0.560372
-0.488727,-0.196519,0.107234,-0.464146,0.456896,-0.758824
-0.552742,-0.197269,0.134620,0.734300,-0.637087,0.234359
-0.488298,-0.194970,0.235241,-0.307047,0.948771,0.074535
0.408508,-0.170072,-0.183764,0.670367,-0.181214,-0.719562
0.311408,-0.170715,-0.103506,0.574330,-0.810060,0.118101
0.260998,-0.171034,-0.064635,-0.682514,0.716109,-0.146159
0.092436,-0.174295,-0.097454,-0.188879,-0.646529,0.739138
0.184378,-0.171301,0.021100,0.754338,0.369555,-0.542590
-0.034882,-0.175684,-0.038044,0.882364,0.469597,0.030194
0.074101,-0.172476,0.089168,0.767967,0.510244,0.387140
-0.374442,-0.181988,-0.100016,0.779720,-0.002268,-0.626124
-0.242828,-0.178247,0.041728,0.102451,-0.985003,0.138828
-0.209175,-0.176751,0.127155,-0.431403,0.718294,0.545844
-0.363559,-0.179529,0.103523,-0.517424,-0.170842,-0.838502
-0.471109,-0.181293,0.106439,-0.552306,0.593247,-0.585676
-0.470536,-0.179796,0.234667,-0.453237,0.838088,0.303620
-0.415258,-0.177660,0.329590,-0.769594,-0.397446,-0.499761
0.392608,-0.111462,-0.165875,0.883168,-0.377433,-0.278493
0.402922,-0.110716,-0.093611,0.910087,0.003914,0.414399
0.265723,-0.112959,-0.105317,-0.306510,-0.718920,-0.623863
0.300665,-0.111890,-0.019184,0.788487,-0.582404,0.197724
0.236938,-0.112584,0.011692,0.012918,-0.197407,0.980237
0.111910,-0.114720,0.006877,0.056752,0.872971,0.484459
0.045745,-0.115682,0.036339,0.714227,0.579562,-0.392413
-0.090449,-0.117873,0.022116,0.157954,0.968847,0.190751
-0.017269,-0.115522,0.193720,0.931654,-0.349662,0.098778
-0.558616,-0.126368,-0.112782,-0.518516,0.244035,0.819505
-0.291953,-0.119370,0.298670,0.365103,-0.019870,-0.930755
0.350362,-0.056965,-0.132349,0.869094,0.316327,-0.380280
0.390606,-0.055843,0.022867,-0.312045,0.241917,-0.918751
0.308685,-0.057124,0.042656,0.974689,0.054827,0.216739
0.261282,-0.057767,0.079671,-0.474353,0.708320,-0.522754
0.057489,-0.061188,0.029404,-0.482047,0.224284,-0.846952
0.146425,-0.059531,0.147164,-0.802331,0.595259,0.043952
0.284486,-0.057340,0.292133,0.997537,0.047088,0.051986
-0.337065,-0.067276,0.195443,-0.134954,0.766493,0.627914
0.032857,-0.060545,0.529552,0.956803,0.277493,-0.086748
0.299948,0.001270,-0.029873,0.984412,-0.142650,-0.102880
0.240518,0.000148,0.003299,0.475134,0.767628,0.430110
0.306111,0.000950,0.108691,-0.313532,-0.734377,0.601987
0.260281,0.000256,0.148887,0.743025,0.040289,0.668050
0.131963,-0.001880,0.139081,0.441450,0.574867,-0.688948
0.049613,-0.003325,0.155601,0.571672,0.819674,0.036397
-0.171076,-0.006742,0.097339,-0.108362,-0.918634,0.379958
-0.427574,-0.010483,0.016153,0.429729,0.766259,-0.477682
-0.020848,-0.004766,0.310906,-0.567405,0.708664,0.419341
-0.032736,-0.005193,0.368858,0.612661,-0.786664,-0.076195
0.067803,-0.004019,0.489179,-0.258243,0.860346,0.439449
-0.370001,-0.010590,0.306577,0.276049,0.925743,0.258451
-0.499181,-0.012514,0.296948,-0.506969,0.813776,-0.284166
-0.605590,-0.014275,0.302469,-0.318489,0.578871,-0.750648
-0.706842,-0.015827,0.308565,-0.346756,0.262896,-0.900359
0.180655,0.071208,0.028742,-0.549929,0.405249,-0.730309
0.332460,0.072330,0.183340,-0.479291,0.871953,-0.099889
0.329165,0.071636,0.244826,-0.577071,0.481930,-0.659343
0.265578,0.070406,0.274376,0.191133,-0.425029,0.884770
0.124655,0.068215,0.259800,-0.354635,0.934498,-0.030782
0.133536,0.067628,0.329899,-0.486306,0.817050,0.309735
0.045605,0.066027,0.342797,-0.395317,-0.862938,-0.314742
-0.422990,0.060470,0.142835,-0.104727,-0.535733,0.837868
0.253262,0.153702,0.032055,0.993213,-0.110605,0.035981
0.221327,0.152472,0.081084,0.462887,0.682714,0.565364
0.196695,0.148145,0.325394,-0.458438,-0.863211,0.211428
0.133252,0.146648,0.351852,0.679933,0.448152,0.580389
0.082694,0.145367,0.388161,0.178490,-0.810716,0.557567
0.278900,0.145634,0.561797,0.983052,0.100200,-0.153521
-0.239248,0.141091,0.337541,-0.476543,0.837337,-0.267905
-0.255861,0.139918,0.389707,-0.035380,-0.908788,0.415755
-0.281927,0.138688,0.436483,-0.034386,0.860325,0.508585
-0.458509,0.136122,0.403399,0.691581,-0.173666,0.701111
0.213735,0.253664,0.304192,0.838942,0.476688,0.262575
0.276032,0.252171,0.401854,-0.440127,0.222727,-0.869874
0.282479,0.250726,0.467359,0.856875,-0.370239,0.358733
-0.046914,0.245329,0.473676,0.409254,0.912360,0.010561
-0.082285,0.243568,0.517537,-0.592183,0.779403,-0.204574
-0.117948,0.241856,0.561090,-0.057841,-0.459725,0.886176
-0.232946,0.240203,0.557909,0.137025,-0.938187,0.317850
-0.360692,0.238331,0.548634,0.032484,-0.866318,0.498435
-0.511353,0.236515,0.529552,-0.080215,-0.859502,0.504800
0.362534,0.339738,0.590419,0.705487,-0.132757,0.696178
0.305394,0.337866,0.618600,0.740788,0.084685,-0.666379
0.202853,0.336213,0.622266,-0.136613,0.828996,-0.542312
0.104891,0.334341,0.630968,-0.526557,0.476083,-0.704331
0.085845,0.332472,0.680395,0.868525,-0.491080,0.067124
0.099738,0.330333,0.749700,0.968655,-0.185072,0.165696
-0.576517,0.325634,0.567141,-0.619504,-0.429130,0.657315
0.202135,0.430084,0.724787,0.487069,0.871619,-0.055170
0.197411,0.427465,0.783888,0.927070,0.069410,0.368407
-0.172510,0.425062,0.701200,0.798006,0.292422,-0.526949
-0.189123,0.422551,0.753586,0.810081,-0.159053,0.564332
0.341481,0.551634,0.630173,0.920790,0.296091,0.253920
0.381152,0.547786,0.714716,-0.526193,-0.844625,-0.098638
0.343059,0.545007,0.755751,-0.680592,0.659740,-0.318651
0.061785,0.545275,0.661623,0.072560,-0.786858,0.612854
0.128667,0.541482,0.757871,-0.016064,0.575879,0.817377
-0.790333,0.539718,0.506583,0.100774,0.171890,0.979948
-0.871821,0.537634,0.525090,0.830362,0.542115,0.128883
0.583084,0.653252,0.734240,0.372095,0.823312,0.428606
0.626479,0.648925,0.818297,0.471027,0.757418,-0.452163
0.473095,0.647963,0.795328,-0.657525,0.458214,-0.598080
0.419963,0.645185,0.825364,0.898122,0.338588,0.280598
0.251973,0.644330,0.794754,-0.369909,0.355108,-0.858526
0.427555,0.762033,0.779206,-0.416623,0.852793,0.314912
0.098877,0.756691,0.779471,-0.556298,-0.794731,0.242765
-0.057797,0.755996,0.753454,0.849760,0.222819,-0.477765
0.104035,0.868569,0.701377,-0.767330,0.594821,0.239567
0.530952,0.752096,0.817237,0.246669,0.369439,-0.895918
0.074534,0.754927,0.753586,0.098178,0.990358,0.097738
0.405212,0.624722,0.690422,-0.274089,0.662156,-0.697442
0.263717,0.609337,0.795726,-0.714833,0.006571,-0.699264
-0.507201,0.637760,0.499295,0.864002,-0.001265,0.503487
0.298086,0.455836,0.744399,0.839657,-0.208770,0.501390
0.198268,0.453859,0.749655,-0.396341,-0.555062,0.731314
-0.171510,0.458722,0.669220,0.796982,-0.381027,0.468656
-0.646835,0.468713,0.534322,0.161976,-0.098246,0.981892
-0.777588,0.468019,0.526813,0.708441,0.641398,0.294483
0.272309,0.334448,0.409186,-0.472580,0.258190,-0.842619
0.186524,0.331670,0.423365,0.749198,-0.155314,0.643879
0.325730,0.318098,0.564049,0.730778,0.638346,-0.241822
0.280045,0.313451,0.602566,0.866708,0.286397,-0.408405
0.147430,0.313024,0.590022,0.564569,-0.621485,0.543156
0.034434,0.311527,0.590949,-0.535357,0.419245,-0.733230
0.015816,0.305435,0.644087,-0.529171,0.826074,-0.193857
-0.081857,0.303084,0.653583,0.144369,0.982429,0.118287
-0.272045,0.305435,0.610164,0.839122,0.373452,-0.395485
0.411943,0.202587,0.240762,-0.091732,-0.956772,0.275992
0.374277,0.197833,0.282725,-0.383685,0.278944,-0.880327
0.274887,0.189285,0.355474,0.647061,-0.718416,-0.255323
0.198701,0.186400,0.375351,-0.562504,-0.807918,0.175665
0.151866,0.181805,0.414133,0.095388,-0.802075,0.589556
0.175926,0.174164,0.493508,-0.050135,-0.998697,-0.009576
0.064652,0.172560,0.495761,-0.204613,0.936691,-0.284155
0.112627,0.164332,0.584147,0.763685,0.563863,-0.314394
0.308973,0.149802,0.754293,-0.762321,0.522351,0.382120
0.332172,0.064047,-0.089106,0.720940,0.684952,-0.105292
0.369409,0.038670,0.198756,-0.752104,-0.439422,0.491170
0.241807,0.037549,0.191512,-0.404072,0.846947,-0.345552
0.123654,0.036107,0.190672,-0.105317,-0.756672,0.645256
-0.094890,0.038351,0.132367,-0.221304,-0.328274,0.918292
-0.170364,0.035517,0.153790,-0.075359,-0.996207,0.043507
0.026126,0.022268,0.328839,0.924070,-0.368119,0.102875
-0.055935,0.019382,0.348053,0.803548,-0.591610,0.065633
0.078830,0.008858,0.486309,-0.570902,-0.667365,-0.478221
-0.375443,0.019649,0.297345,-0.312814,-0.799802,-0.512312
-0.509347,0.018635,0.288379,0.642402,-0.629783,0.436685
0.466365,-0.082557,-0.106377,-0.455432,-0.013213,0.890173
0.346210,-0.083734,-0.110529,0.930454,-0.122346,0.345380
0.181944,-0.083838,-0.137120,0.597977,0.430269,0.676234
0.304389,-0.093778,0.004006,0.574281,-0.453585,0.681515
0.204570,-0.096074,0.014431,-0.727023,0.498434,-0.472231
0.188530,-0.100724,0.070748,0.796757,-0.466537,-0.384086
-0.030442,-0.098640,0.009572,0.049040,-0.911801,0.407693
0.046033,-0.106815,0.121589,0.861397,-0.500228,0.088130
0.211729,-0.117394,0.280914,0.807022,-0.223568,-0.546564
-0.367283,-0.103930,0.017390,0.973629,0.177247,-0.143631
-0.340788,-0.125889,0.292575,-0.581425,0.320352,0.747877
-0.556754,-0.129574,0.300437,-0.165400,0.986093,0.016202
0.316421,-0.231943,-0.239596,0.351418,-0.588899,0.727807
0.307968,-0.236537,-0.176874,0.930240,-0.290655,0.223992
0.239801,-0.239476,-0.149841,0.047241,-0.998040,0.041046
0.097877,-0.240330,-0.163799,0.193599,-0.636273,0.746777
0.161748,-0.247009,-0.059688,-0.700241,0.713844,-0.009428
0.057489,-0.249092,-0.051649,0.743500,-0.668224,-0.026154
0.104319,-0.260313,0.111916,-0.597138,-0.552671,-0.581361
0.069521,-0.263894,0.156573,0.860579,0.114257,-0.496336
-0.270755,-0.406279,0.011957,-0.451345,0.473520,-0.756351
-0.063955,-0.419420,0.261434,0.953261,-0.145624,0.264738
0.085561,-0.929661,-0.912629,0.512799,0.144861,-0.846199
0.197695,-0.970638,-0.901939,-0.472812,-0.416996,0.776250
-0.469391,-0.803836,-0.983037,-0.471867,0.685031,0.555044
-0.189123,-0.798921,-0.937143,0.026566,-0.411017,0.911240
0.913046,-0.774666,-0.894474,-0.514558,0.692260,0.505970
-0.255576,-0.737585,-0.934228,0.570542,-0.705849,-0.419833
0.293934,-0.730104,-0.782766,0.789661,-0.552536,0.266721
0.304821,-0.427811,-0.427234,-0.423969,0.898365,-0.114851
-0.205451,-0.932331,-0.931931,-0.136740,0.653971,0.744059
-0.425712,-0.891083,-0.962630,0.249227,-0.265434,-0.931360
-0.304408,-0.819919,-0.945713,-0.056849,-0.640430,0.765910
0.457628,-0.506348,-0.556876,-0.638609,-0.191515,-0.745319
0.007940,-0.298940,0.189038,0.663875,-0.687695,-0.293847
0.052336,-0.289163,0.020261,0.599739,-0.381736,-0.703272
0.287059,-0.269288,-0.267998,0.763924,-0.478632,0.432818
-0.558183,-0.211161,0.154364,-0.603728,0.793314,0.078517
-0.209603,-0.207153,0.223226,0.813118,-0.415733,0.407439
0.224622,-0.192674,0.141024,0.843062,-0.436632,-0.314005
0.157311,-0.185780,-0.009863,0.832507,0.077331,0.548591
0.300953,-0.175309,-0.140742,0.764463,-0.467720,0.443660
-0.571649,-0.122256,0.322169,-0.258638,0.955095,0.144566
-0.365421,-0.114935,0.277159,-0.663650,0.637441,0.391456
0.100595,-0.103714,0.263820,-0.728868,0.453025,0.513342
-0.107778,-0.096341,0.067215,0.427211,0.535217,-0.728721
0.000632,-0.092601,0.045439,0.797518,-0.240750,0.553176
0.167622,-0.089024,0.048177,-0.609586,0.653845,-0.448209
0.239084,-0.085228,0.012266,0.279997,-0.839488,0.465684
0.318855,-0.081435,-0.021215,0.963956,-0.103620,-0.245054
0.256842,-0.077643,-0.108232,-0.157713,0.530508,0.832879
0.387022,-0.073954,-0.119805,0.900480,0.430176,-0.063910
0.019539,-0.014330,0.514622,0.762619,-0.601846,-0.237054
-0.300545,-0.002095,0.218854,0.078123,-0.712856,0.696946
-0.249130,0.010192,0.053257,-0.459266,0.884632,-0.080631
0.173924,0.013293,0.149108,-0.325731,-0.640672,0.695297
0.285630,0.016978,0.131218,-0.689856,-0.723743,-0.017168
0.179221,0.021201,0.030774,0.787177,0.043714,0.615176
0.063074,0.112988,0.373938,-0.030696,-0.104105,0.994093
0.242091,0.129766,0.198623,0.432320,0.660832,0.613515
0.251829,0.134146,0.140185,-0.037108,-0.981843,0.186032
0.231781,0.230531,0.453092,-0.690301,0.243034,0.681483
0.223906,0.173310,0.445892,0.654341,0.738826,0.161168
0.067370,-0.060493,0.194339,0.748690,-0.662919,-0.001336
0.119358,-0.060170,0.154497,-0.822514,0.558835,-0.105706
0.129095,-0.062577,0.033689,0.777702,0.387048,-0.495352
0.293362,-0.058677,0.033159,-0.300834,0.603817,0.738176
0.233787,-0.061719,-0.049617,-0.196276,0.980186,0.026662
0.273742,-0.061775,-0.095113,-0.744445,0.377966,-0.550402
0.279757,0.017405,0.150433,0.891622,-0.447225,0.070707
-0.431154,-0.202291,0.306974,0.971553,0.095250,-0.216821
-0.555749,-0.230929,0.142615,-0.529941,0.826702,-0.189014
-0.157187,-0.207045,0.228394,-0.899044,0.431817,-0.072485
0.082121,-0.214793,0.135326,0.676137,-0.582386,-0.451293
0.132819,-0.229484,0.031215,-0.525473,0.457104,-0.717589
0.074101,-0.243591,-0.050236,0.666685,-0.712560,-0.218608
0.166905,-0.263679,-0.197236,-0.156843,0.884376,-0.439635
0.265294,-0.265016,-0.222900,-0.682109,0.095301,-0.725014
-0.437028,-0.455164,0.031790,0.296929,-0.886006,-0.356128
-0.461228,-0.479475,0.012752,0.296929,-0.886006,-0.356128
0.017389,-0.283020,0.170000,-0.356817,0.763423,0.538393
0.244097,-0.292424,-0.238006,-0.023212,-0.870436,0.491735
0.294367,-0.292851,-0.282707,0.196798,0.192863,0.961288
0.271019,-0.125194,0.042612,0.879986,-0.421440,0.219117
0.149003,0.018260,0.134045,-0.000623,0.776170,0.630523
0.316849,0.030068,0.188994,0.745348,-0.337790,-0.574765
0.124655,0.132385,0.507024,-0.187051,0.691050,0.698184
-0.016696,0.275571,0.615199,0.042236,-0.722488,0.690092
0.101312,0.334181,0.635341,0.016303,-0.767728,0.640568
0.166476,0.367094,0.660607,-0.756656,0.647418,0.091225
0.191109,0.362552,0.541169,0.075607,-0.798910,0.596680
0.210440,0.446969,0.590154,0.284281,-0.665000,0.690622
0.238367,0.440290,0.532997,-0.320752,0.876700,0.358489
0.308112,0.494465,0.689185,0.639363,-0.323736,0.697431
0.342342,0.539346,0.664317,0.557566,0.229359,-0.797819
0.450753,0.549550,0.702613,-0.507235,-0.384325,0.771367
0.276605,-0.413065,-0.379000,-0.003693,-0.951776,0.306770
0.474669,-0.545992,-0.429840,0.891456,0.118581,-0.437316
-0.810384,0.451831,0.563873,0.862228,0.501728,0.069505
-0.484430,0.565418,0.506406,0.875587,0.016353,0.482784
-0.418553,0.180951,0.362011,-0.528247,-0.033315,-0.848437
-0.251564,0.333486,0.531539,0.935927,0.289935,0.199948
-0.268177,0.248375,0.529772,-0.636345,0.711887,-0.297124
-0.264309,0.190619,0.348318,-0.614805,-0.242351,-0.750520
-0.268605,0.047915,0.053036,-0.295467,0.878209,-0.376096
-0.137712,0.263923,0.566611,-0.218882,0.889929,-0.400146
-0.124679,0.238758,0.361923,-0.221205,-0.802515,-0.554111
-0.135706,0.156105,0.305473,-0.626876,-0.449124,-0.636642
-0.212898,-0.263199,0.251231,0.848605,-0.056070,0.526047
0.008368,0.428323,0.624608,-0.224565,0.004727,-0.974448
-0.014835,0.294964,0.599784,-0.703378,0.556163,-0.442653
0.004929,0.271189,0.340677,-0.374980,-0.160253,0.913076
-0.004520,0.212739,0.322213,-0.311037,-0.933459,0.178634
-0.019703,0.135055,0.318636,0.097192,0.636962,-0.764744
-0.011111,0.149426,0.255250,0.864884,0.500922,-0.032455
-0.019271,0.034503,0.107808,0.868546,0.478142,0.130415
-0.016120,0.005437,0.015005,-0.543974,0.786115,0.293454
-0.025145,-0.049592,-0.002840,0.770297,0.629731,-0.100405
0.142845,0.395035,0.696032,-0.658910,0.210636,-0.722128
0.138405,0.356248,0.667188,0.078097,0.996245,0.037373
0.156307,0.405561,0.581143,-0.354742,-0.325123,0.876615
0.146569,0.344812,0.563696,-0.071392,0.612422,0.787300
0.142128,0.305276,0.533306,-0.578374,-0.376315,0.723789
0.153872,0.330493,0.463605,-0.645661,0.744636,0.169230
0.141128,0.259488,0.455124,-0.320725,-0.844509,0.428883
0.135826,0.216854,0.426899,-0.607832,-0.482012,0.631034
0.141844,0.219792,0.371243,-0.022088,0.730989,0.682032
0.127522,0.141626,0.365678,0.042753,-0.916907,0.396805
0.114345,0.071049,0.355474,-0.304245,0.909648,0.282800
0.137115,0.140129,0.254234,0.273070,-0.949731,0.153117
0.130813,0.092206,0.231442,0.789448,0.445930,-0.421804
0.138977,0.102569,0.170266,-0.500681,0.865508,0.014616
0.148003,0.115767,0.104937,-0.594515,-0.023462,0.803742
0.120647,-0.011660,0.134752,-0.644123,-0.729017,0.231604
0.131102,0.007414,0.065183,0.930187,0.025012,-0.366232
0.127094,-0.030358,0.033468,0.514779,0.692019,-0.506076
0.083410,-0.221416,0.104981,0.778445,-0.627071,-0.028372
0.335039,0.556496,0.816883,0.510636,0.266586,0.817424
0.330026,0.516637,0.786582,0.851196,-0.144413,-0.504588
0.328308,0.487040,0.749920,-0.229019,-0.374221,0.898615
0.336757,0.499379,0.687418,-0.684345,0.163873,-0.710505
0.331744,0.455196,0.661888,0.798351,-0.602021,0.014367
0.311692,0.355126,0.670766,0.790717,0.612071,-0.011646
0.294651,0.243835,0.632293,0.964665,-0.159055,-0.210053
0.288921,0.198100,0.605968,0.949734,0.203796,0.237640
0.297230,0.207932,0.544305,0.664646,0.225925,-0.712182
0.309118,0.230746,0.474250,0.930000,-0.274082,0.244907
0.324012,0.265420,0.398364,-0.107392,-0.291456,0.950537
0.317710,0.218938,0.374423,0.828608,0.183014,-0.529070
0.316849,0.192543,0.335376,0.913145,0.338085,0.227737
0.304533,0.125491,0.324908,-0.057782,0.236990,0.969792
0.309546,0.123942,0.269694,-0.643738,0.761080,0.079743
0.307256,0.089428,0.235859,0.920141,0.389113,-0.043945
0.303672,0.052722,0.203659,0.258027,-0.153146,-0.953923
0.304105,0.031940,0.163021,-0.670444,0.740654,0.044004
0.300381,-0.004766,0.132809,0.702779,-0.053426,0.709399
0.300525,-0.027205,0.091067,0.964008,-0.256232,0.070951
0.295079,-0.070804,0.065536,0.808663,-0.247161,0.533831
0.293506,-0.099547,0.027903,-0.265465,-0.023093,0.963844
0.293218,-0.123590,-0.013000,-0.542937,0.804030,-0.242393
0.293790,-0.145122,-0.055801,0.880646,-0.279979,0.382197
0.298231,-0.150623,-0.106995,-0.564772,0.321419,-0.760080
0.300092,-0.166227,-0.151652,0.876605,-0.481125,0.009054
0.421108,0.476833,0.756678,-0.043831,0.440527,0.896669
0.416239,0.436175,0.726952,-0.460775,0.480364,0.746282
0.431278,0.443763,0.611621,0.617696,-0.724485,0.305898
0.429416,0.413309,0.577389,0.077884,0.067894,0.994648
0.379291,0.172987,0.620721,0.858566,0.456894,-0.232622
0.424548,0.300146,0.430697,-0.862875,0.372783,0.341291
0.407502,0.142428,0.312231,0.011854,0.445762,0.895073
0.410225,0.105563,0.226053,-0.160792,-0.921668,0.353092
0.400916,0.046096,0.208694,0.823863,-0.075527,-0.561734
0.399627,-0.125834,-0.067992,-0.491031,0.869457,-0.054164
0.421541,-0.067439,-0.165257,0.794715,-0.204709,0.571421
0.496439,0.281823,0.745106,-0.198180,0.669616,0.715779
0.505892,-0.090680,0.049105,-0.029750,0.999552,0.003359
0.509187,-0.270305,-0.279173,0.354906,-0.430520,0.829876
0.603565,0.251209,0.786715,-0.213260,0.761318,0.612303
0.653402,0.197458,0.275834,0.722730,-0.686665,0.078438
0.985514,0.498150,0.811627,-0.191114,-0.147252,0.970460
0.920637,-0.621915,-0.547247,0.280250,0.899142,-0.336160
0.764107,-0.619348,-0.559924,0.268018,0.887657,-0.374475
0.770549,-0.556251,-0.437261,0.590469,0.183878,0.785834
0.389889,-0.374970,-0.350686,-0.108193,-0.982263,0.153148
0.403206,-0.365457,-0.297593,-0.102860,-0.807134,0.581338
0.605999,-0.844601,-0.874642,0.444193,-0.205361,0.872077
0.470233,-0.868912,-0.888025,0.614043,0.043552,0.788070
0.423542,-0.794646,-0.909802,-0.492355,0.082844,-0.866443
0.430846,-0.513027,-0.447951,0.885923,-0.189403,-0.423400
0.404924,-0.461523,-0.442650,-0.270273,0.882143,-0.385714
0.394469,-0.427328,-0.418621,0.827371,0.558569,0.058801
0.288781,-0.286277,-0.508509,0.714255,0.591428,0.374236
0.323868,-0.605619,-0.516460,-0.373105,0.860214,-0.347597
0.277750,-0.531406,-0.536646,-0.508001,0.807062,-0.300975
0.269731,-0.498441,-0.508376,-0.456029,0.650293,-0.607583
0.269731,-0.474665,-0.472642,0.348629,-0.885743,0.306459
0.269731,-0.450517,-0.434832,-0.607201,0.626919,-0.488139
0.262427,-0.418514,-0.405679,0.741082,-0.395635,0.542467
0.260710,-0.392546,-0.369901,0.203575,0.370363,-0.906305
0.258131,-0.365832,-0.337744,-0.148016,-0.803782,0.576217
0.253979,-0.337622,-0.307266,-0.099168,-0.937240,0.334285
0.183662,-0.602733,-0.609749,0.272244,0.366683,-0.889622
0.168911,-0.562447,-0.591948,-0.199075,0.945286,-0.258465
0.171918,-0.541346,-0.550295,0.108331,0.670165,-0.734264
0.166044,-0.510516,-0.519728,0.148583,0.762883,-0.629232
0.149864,-0.468521,-0.501839,-0.567397,-0.666317,-0.483820
0.162609,-0.458692,-0.450910,0.683640,0.145536,-0.715161
0.163037,-0.435931,-0.414116,0.505583,0.751437,0.423943
0.138405,-0.383784,-0.407004,-0.294075,-0.838373,0.458966
0.142845,-0.365565,-0.365616,0.540808,0.812676,-0.216991
0.071527,-0.262609,-0.413100,-0.672453,0.179606,-0.718017
0.064792,-0.582538,-0.640271,-0.029716,-0.237805,0.970858
0.063791,-0.557213,-0.605773,-0.396455,-0.863597,0.311486
0.080259,-0.551601,-0.549544,-0.340224,0.919189,-0.198341
0.081693,-0.528200,-0.510806,0.263960,-0.695461,0.668326
0.029133,-0.447256,-0.538059,0.003656,0.274204,0.961664
0.090574,-0.489838,-0.425733,0.844953,-0.396945,0.358453
0.073529,-0.446242,-0.409389,-0.025584,-0.098323,0.994826
-0.004665,-0.335646,-0.465663,0.823293,-0.166739,-0.542574
0.036436,-0.357657,-0.380281,0.964695,0.107687,0.240347
0.036008,-0.333510,-0.345651,-0.447445,-0.889242,-0.095089
0.041881,-0.315825,-0.301215,-0.589114,-0.805632,-0.062460
-0.019843,-0.607380,-0.633557,0.257131,0.030983,0.965880
-0.039179,-0.561006,-0.620261,0.164908,-0.450388,0.877471
-0.009961,-0.542894,-0.510585,-0.415729,0.291776,-0.861415
-0.043763,-0.482573,-0.515179,0.152363,-0.089615,0.984253
-0.073265,-0.426474,-0.514693,0.289478,0.706312,0.646007
-0.020421,-0.459224,-0.414513,0.876827,-0.260479,-0.404136
-0.105488,-0.341685,-0.481167,-0.275427,0.053188,0.959850
-0.158761,-0.258497,-0.507184,-0.189191,0.572169,0.798016
-0.063382,-0.339011,-0.356119,-0.156959,0.706540,0.690047
-0.040756,-0.339386,-0.291541,0.668992,0.666039,0.329912
-0.136423,-0.561218,-0.586647,-0.185143,-0.965842,0.181307
-0.094029,-0.582590,-0.498085,-0.632483,0.765648,0.117256
-0.128403,-0.520452,-0.502325,0.072014,-0.144593,0.986867
-0.157187,-0.464409,-0.499454,0.383074,0.058957,0.921834
-0.225358,-0.365405,-0.546054,0.627700,0.391862,-0.672635
-0.199293,-0.369681,-0.479577,-0.154160,-0.612506,-0.775288
-0.335632,-0.171354,-0.568581,0.759376,-0.271119,-0.591475
-0.297538,-0.815803,-0.949688,-0.034528,-0.597291,0.801281
-0.274623,-0.612618,-0.591462,0.936545,0.054572,0.346273
-0.305842,-0.505442,-0.521274,-0.003422,-0.925153,0.379578
-0.283788,-0.505227,-0.459302,0.028044,0.805422,0.592039
-0.463950,-0.878848,-0.969830,0.180430,-0.094898,-0.978999
-0.505628,-0.809712,-0.985511,-0.497753,0.150233,0.854208
-0.477267,-0.509127,-0.479886,-0.273309,0.813907,0.512697
0.297230,-0.092333,0.018008,0.153634,0.917997,0.365621
0.268730,-0.080741,0.070881,0.874948,-0.315812,0.367054
-0.552458,-0.268541,0.177200,-0.634837,0.370567,0.677984
-0.425568,-0.195397,0.107499,0.075298,0.006385,0.997141
-0.249702,0.312809,0.393373,0.651630,0.640184,-0.406869
-0.162056,0.234646,0.525399,0.300474,-0.931153,0.206566
-0.158905,0.254091,0.562371,0.168418,-0.758027,0.630104
-0.263881,0.399417,0.480654,-0.497634,0.253979,-0.829370
-0.247412,0.402998,0.533306,0.562509,0.745231,0.358069
-0.223781,-0.348843,-0.067418,0.845379,0.290391,0.448338
-0.312288,-0.226546,-0.134249,-0.268982,-0.837602,0.475470
-0.352672,-0.158212,-0.146352,-0.611854,0.730625,-0.303021
-0.355679,-0.131230,-0.114769,-0.043350,0.787221,0.615145
-0.269894,-0.177605,0.053964,-0.672869,-0.729646,0.121920
-0.288368,-0.132620,0.068805,0.162106,0.913693,0.372675
-0.168358,-0.242469,0.242087,0.969965,-0.128475,0.206548
-0.340929,0.143175,0.325261,0.841765,0.413898,0.346584
-0.340645,0.166416,0.359229,0.807737,0.547050,0.219765
-0.471542,0.460059,0.421952,0.192753,0.973118,-0.126049
-0.490444,0.552755,0.504904,0.881647,0.043128,0.469934
-0.489443,0.574607,0.540064,0.950768,-0.059193,0.304199
-0.478128,0.609868,0.622929,0.781389,-0.562955,-0.269282
-0.044908,-0.310855,-0.261505,0.610506,0.590396,-0.527935
-0.037745,-0.295415,-0.217511,0.220361,-0.974626,-0.039318
-0.044480,-0.263092,-0.189109,0.704320,-0.331431,0.627763
-0.030730,-0.230713,-0.101518,-0.123740,-0.415962,0.900924
-0.073408,-0.158799,-0.114858,0.092976,0.566447,0.818836
0.072384,-0.274685,0.126315,0.527120,0.838748,0.136547
0.064936,-0.242841,0.151802,-0.668598,0.402205,0.625466
-0.111930,-0.019832,-0.016887,-0.059829,-0.987574,-0.145323
-0.018126,-0.078872,0.163021,-0.302198,0.942378,-0.143529
-0.217623,0.171226,-0.030712,-0.688135,-0.702594,-0.181195
-0.088732,0.049357,0.154011,-0.046686,-0.994029,-0.098624
-0.138997,0.153646,0.164788,0.992331,0.123109,0.011085
0.029277,0.031725,0.463428,0.397842,0.878597,0.264178
-0.126681,0.234750,0.322302,-0.184018,-0.048390,0.981731
-0.113219,0.243513,0.373098,0.911558,-0.366481,0.186422
-0.122245,0.276638,0.397613,-0.311803,-0.653939,0.689306
-0.120383,0.297368,0.434187,0.842036,0.381339,-0.381517
-0.067251,0.282410,0.562812,0.975300,-0.183252,-0.123321
-0.065100,0.304046,0.600137,-0.415406,-0.078819,0.906215
-0.091450,0.357849,0.606586,-0.216030,0.111163,-0.970038
-0.111358,0.404866,0.619528,0.052280,-0.647796,0.760018
-0.062238,0.370300,0.708091,0.357971,0.560975,-0.746434
-0.065100,0.395944,0.738833,0.028731,-0.153200,0.987778
-0.105628,-0.303003,-0.115962,0.083372,0.772646,0.629339
-0.104055,-0.280561,-0.077401,-0.360049,0.374695,0.854382
-0.030875,-0.266082,0.150344,0.441974,-0.665226,-0.601776
-0.125968,-0.136412,0.075077,-0.399578,0.913599,0.075323
-0.073120,-0.172850,0.170840,0.939774,-0.169261,-0.296943
-0.196142,0.013453,0.099504,0.063560,-0.790898,0.608638
-0.207024,0.050426,0.122738,0.291993,0.778112,0.556131
-0.197715,0.063835,0.169691,0.094106,0.995551,0.004702
-0.165636,0.052027,0.241778,-0.488770,0.800842,0.346059
-0.176234,0.133451,0.335200,0.210917,-0.865351,0.454622
-0.229222,0.241856,0.344387,-0.307729,0.563505,-0.766658
-0.245550,0.284334,0.362144,0.335072,-0.432167,0.837233
0.056344,-0.307969,-0.249137,0.033210,-0.990378,0.134344
0.035724,-0.261116,-0.236195,-0.414433,-0.019517,0.909871
0.053625,-0.256198,-0.178773,0.217823,-0.950970,0.219567
0.079547,-0.261487,-0.111368,-0.401650,0.887219,0.226978
0.121220,-0.284569,-0.027664,-0.701114,0.491987,0.516128
0.098594,-0.236537,-0.019051,0.964139,-0.144392,-0.222680
0.027988,-0.133582,-0.064724,0.462882,-0.438257,-0.770500
0.101312,-0.192299,0.055156,0.925600,0.238059,-0.294267
0.109048,-0.177126,0.101271,0.778466,0.586628,0.223289
-0.020276,-0.006957,-0.012867,0.296563,-0.692764,0.657365
-0.015835,0.011689,0.029051,-0.152740,-0.099927,0.983201
0.009225,0.029588,0.127861,0.687996,0.721544,-0.077686
-0.009822,0.098510,0.176891,-0.388337,0.779875,0.490907
-0.049633,0.167965,0.167306,0.939671,0.342079,0.000919
0.040592,0.088893,0.306533,-0.174175,-0.462984,0.869085
0.085845,0.060737,0.394035,0.417028,0.874446,0.247855
-0.003520,0.185438,0.327514,0.526711,0.356703,0.771582
-0.025717,0.233951,0.336657,0.564042,0.368233,-0.739095
0.004789,0.222355,0.407419,-0.254671,0.906201,-0.337553
0.000060,0.251153,0.435821,0.162464,0.780053,-0.604253
0.005501,0.268091,0.478004,-0.183765,0.944521,0.272234
-0.006382,0.329267,0.535912,-0.127956,0.567447,0.813408
0.039587,0.298385,0.621604,0.799036,-0.598657,0.056132
0.043311,0.317032,0.659238,-0.330314,0.943772,0.013716
-0.007672,0.399525,0.637682,-0.024491,-0.425764,0.904503
0.037152,0.369817,0.721254,0.367310,-0.832413,0.414935
-0.002086,0.438419,0.713744,0.217589,0.750402,0.624141
0.019539,0.482390,0.841928,0.077329,-0.918205,0.388484
0.135826,-0.284836,-0.262433,-0.310103,-0.791049,0.527330
0.123226,-0.247064,-0.242202,0.977307,0.194567,0.083748
0.108187,-0.206243,-0.224578,-0.752688,-0.301867,-0.585096
0.143134,-0.221257,-0.145998,0.711263,0.516553,-0.476737
0.135114,-0.189361,-0.119672,0.819126,0.475291,-0.321140
0.124082,-0.152975,-0.095599,0.219685,0.144900,0.964750
0.139983,-0.146404,-0.040562,-0.546044,0.831443,0.102658
0.099450,-0.077108,-0.051296,0.001429,0.928044,0.372469
0.160602,-0.122628,0.054759,0.966737,-0.210502,0.145289
0.097733,-0.029077,0.017169,0.649649,-0.038218,-0.759273
0.076680,0.018527,0.029537,0.149978,-0.950103,-0.273517
0.124082,-0.011552,0.118718,0.638114,0.650583,-0.411768
0.102745,0.036319,0.130998,-0.117181,-0.297742,0.947427
0.116635,0.068698,0.218633,0.358133,0.212192,0.909239
0.119930,0.087823,0.257326,0.110201,0.703533,0.702067
0.133680,0.094449,0.308035,0.706035,0.539503,-0.458750
0.133680,0.118118,0.344829,-0.510580,0.627157,-0.588202
0.095586,0.184795,0.335906,0.310232,0.933624,-0.179173
0.101168,0.202643,0.377825,-0.415382,-0.050956,0.908219
0.110477,0.215465,0.424602,-0.655262,-0.462893,0.596961
0.097877,0.253129,0.446555,0.306247,0.937275,-0.166519
0.107330,0.264243,0.491741,-0.169110,-0.873203,0.457076
0.132391,0.258314,0.553581,-0.362868,-0.916251,0.169739
0.120075,0.295767,0.575754,0.371865,-0.844802,0.384742
0.104891,0.336213,0.592716,-0.239562,-0.555040,0.796581
0.116635,0.346364,0.640818,-0.657011,0.707256,-0.261009
0.122221,0.362927,0.682913,0.248136,-0.946144,0.207944
0.069949,0.446969,0.660828,-0.471947,0.572536,-0.670424
0.059923,0.480789,0.684194,-0.125027,-0.553628,0.823325
0.106181,0.473148,0.803588,-0.339449,0.676593,0.653449
0.319856,0.421804,0.689097,-0.757334,-0.630513,0.169995
0.305822,0.460645,0.707428,-0.390644,0.267052,-0.880954
0.313554,0.473520,0.751290,-0.669314,0.485299,-0.562587
0.321574,0.486717,0.796123,0.837961,-0.532645,0.118790
0.310118,0.522568,0.817413,0.762081,-0.141940,0.631732
0.250544,0.615588,0.788173,0.875495,-0.190676,0.444018
0.172347,0.753913,0.773994,-0.154633,0.537967,0.828662
0.255841,-0.315770,-0.267689,-0.170861,0.759439,-0.627741
0.252978,-0.289111,-0.235709,-0.634049,0.688847,-0.351386
0.248682,-0.260525,-0.203200,0.330174,0.884989,-0.328298
0.248682,-0.236055,-0.166670,-0.331352,0.744775,-0.579237
0.249254,-0.212869,-0.128727,0.685741,-0.376944,0.622634
0.239373,-0.179102,-0.104478,-0.112527,-0.989350,0.092323
0.242091,-0.158854,-0.066270,-0.495978,0.479498,-0.723938
0.243380,-0.136412,-0.027620,0.536283,-0.783584,0.313681
0.232065,-0.101311,-0.005093,-0.179525,0.830860,-0.526728
0.249394,-0.096609,0.051181,-0.012860,-0.408944,0.912469
0.217603,-0.036985,0.051137,0.062636,-0.109660,0.991994
0.225623,-0.021916,0.096588,0.236963,0.798431,-0.553494
0.229775,-0.004127,0.137005,-0.446039,0.856487,-0.259769
0.223333,0.026275,0.164214,-0.022474,-0.834394,0.550711
0.240085,0.030710,0.220223,-0.481095,-0.876648,-0.005935
0.226052,0.069712,0.238686,0.328562,0.941111,0.079730
0.221182,0.098457,0.269738,-0.348467,0.761516,-0.546502
0.220321,0.122605,0.304722,0.002217,-0.849688,0.527281
0.223045,0.143390,0.343592,0.130906,-0.757499,0.639577
0.215025,0.174699,0.369520,0.449771,0.865749,-0.219512
0.225479,0.184795,0.416298,0.442412,0.347906,-0.826579
0.242808,0.188911,0.471644,0.875611,0.234612,-0.422212
0.266006,0.184316,0.532600,-0.821002,-0.066302,0.567063
0.269302,0.203976,0.571735,0.992816,0.119478,-0.006501
0.232498,0.269480,0.566611,0.938435,-0.048703,-0.342006
0.228486,0.297850,0.597354,0.118094,0.119184,0.985824
0.188386,0.366504,0.587371,0.823400,-0.232116,0.517817
0.168911,0.411920,0.599651,0.396675,-0.595016,0.699003
0.194544,0.404918,0.664229,0.429772,0.701651,-0.568315
0.187958,0.434678,0.691394,0.095231,-0.912181,0.398569
0.165615,0.484421,0.702039,0.535211,-0.770288,-0.346708
0.198985,0.468126,0.774833,-0.332675,-0.685965,0.647132
0.018250,0.793824,0.751555,0.514956,-0.580962,-0.630320
0.507465,-0.285263,-0.281338,0.237105,-0.248222,0.939237
0.481260,-0.047296,0.019289,0.088311,-0.130274,0.987537
0.471089,-0.011820,0.044069,0.973401,-0.179438,-0.142451
0.478681,0.047485,0.161476,0.325089,0.028128,-0.945265
0.438726,0.116354,0.152288,-0.033550,0.318332,0.947386
0.422970,0.156105,0.170619,-0.388004,-0.569427,0.724711
0.495866,0.119934,0.326631,-0.711942,-0.623888,-0.322339
0.413661,0.305008,0.376367,0.917234,0.377541,0.127060
0.388744,0.469943,0.562415,-0.358017,0.056766,-0.931988
0.360672,0.525507,0.567892,-0.424757,-0.035481,0.904612
0.361533,0.546824,0.603317,0.235382,0.700132,0.674100
0.400628,0.523371,0.683311,0.622436,0.181967,-0.761223
0.381725,0.568248,0.698726,0.645753,0.762358,0.042594
0.413521,0.553075,0.770283,-0.564768,0.449486,0.692098
0.389172,-0.326137,-0.276788,0.281122,-0.462806,-0.840703
0.375138,-0.286010,-0.256558,-0.594802,0.739716,-0.314692
0.355375,-0.240972,-0.243218,-0.261794,0.423128,-0.867425
0.359383,-0.222594,-0.202360,-0.732297,0.504080,-0.457870
0.341481,-0.178407,-0.186503,0.089712,-0.009084,0.995926
0.343059,-0.157358,-0.148339,0.895655,-0.354534,0.268529
0.347639,-0.138336,-0.106112,0.997227,0.074270,-0.004668
0.338191,-0.104357,-0.080139,-0.502544,-0.740786,-0.445741
0.355375,-0.100401,-0.022452,0.852598,-0.483124,0.199168
0.366686,-0.090732,0.026622,-0.564615,0.778828,-0.273196
0.338618,-0.035863,0.029007,0.121497,-0.488612,0.864001
0.338618,-0.011764,0.065360,0.079397,-0.928148,0.363645
0.314843,0.037549,0.073531,0.869375,0.236852,0.433691
0.290355,0.089428,0.081703,0.234786,-0.062378,0.970043
0.337757,0.058654,0.173578,-0.709508,0.514338,-0.481720
0.339908,0.079384,0.212890,0.250289,-0.487539,0.836458
0.332889,0.110370,0.239702,-0.266998,-0.508729,0.818478
0.344632,0.118972,0.288644,0.024797,0.983397,0.179763
0.354230,0.131582,0.335641,0.627104,-0.061556,-0.776499
0.306539,0.208571,0.316604,0.917487,-0.055562,0.393867
0.325585,0.209748,0.374733,0.852070,-0.055072,-0.520523
0.306111,0.255268,0.389486,-0.635433,-0.547018,0.544973
0.327592,0.254091,0.449647,0.958086,0.098037,0.269186
0.314415,0.291974,0.469126,0.911190,0.220458,0.348039
0.318855,0.308749,0.509366,0.793028,0.184208,-0.580667
0.312409,0.339790,0.537723,0.942700,0.259518,0.209682
0.260854,0.421749,0.515108,-0.371546,0.609889,0.699992
0.331027,0.363406,0.629113,0.751440,0.624239,-0.213690
0.314131,0.405776,0.646428,-0.881059,0.388548,0.269751
0.562031,0.541215,0.710785,-0.601802,0.556808,0.572537
0.541123,0.609924,0.758975,0.109308,0.266889,-0.957508
0.549859,0.621624,0.805311,-0.037233,0.981009,-0.190354
0.393040,0.599613,0.781856,0.182653,-0.393473,0.901009
0.367691,0.651863,0.788128,0.886296,0.065229,-0.458503
0.347211,0.698828,0.801910,0.605548,0.625843,0.491561
0.735462,0.508732,0.748153,-0.393350,0.267688,0.879556
0.720140,-0.133047,0.096721,0.484348,0.749905,-0.450610
0.850748,0.603513,0.857256,0.598394,0.257313,-0.758758
0.736179,0.530261,0.785257,-0.771077,-0.105093,-0.628009
0.721713,0.590423,0.839587,-0.041448,0.020257,0.998935
0.701521,0.637225,0.853236,0.837443,0.228912,-0.496275
0.641085,0.730884,0.821654,-0.093342,0.839392,0.535451
0.592677,0.810974,0.804957,0.956474,0.149045,-0.250883
0.949994,0.664046,0.881726,0.276591,0.458768,-0.844411
-0.597710,-0.866186,-0.988470,-0.330446,0.002587,0.943822
-0.445332,-0.282912,-0.592610,0.883424,0.082344,-0.461282
-0.492879,-0.841236,-0.976146,-0.361425,0.063247,0.930254
-0.490589,-0.888037,-0.964088,-0.428800,-0.115647,0.895967
-0.245695,-0.732136,-0.947524,-0.770017,0.623394,0.135845
-0.239248,-0.809232,-0.953796,-0.139767,0.816953,-0.559511
-0.237102,-0.855662,-0.939396,0.394275,0.041203,-0.918068
-0.367567,-0.809392,-0.938424,0.429732,-0.824115,0.369006
-0.362842,-0.835627,-0.965324,-0.419676,-0.366997,0.830172
-0.360119,-0.875430,-0.963690,0.193613,-0.336468,-0.921577
-0.356828,-0.917050,-0.961084,0.048173,0.296842,0.953711
-0.331480,-0.194331,-0.549941,-0.632562,0.289894,0.718211
-0.332768,-0.277303,-0.475778,-0.755050,0.546050,0.362945
-0.328757,-0.307650,-0.490752,0.904124,0.222954,-0.364487
-0.322599,-0.319191,-0.540400,0.817976,0.382878,-0.429325
-0.324605,-0.404942,-0.459877,-0.793054,0.595047,0.130323
-0.123674,-0.808645,-0.950527,0.541158,-0.013770,-0.840808
-0.121528,-0.856784,-0.935862,-0.376218,0.219244,0.900218
-0.119811,-0.911014,-0.909272,-0.247585,0.236298,0.939609
-0.115798,-0.942000,-0.923892,0.071987,-0.582040,0.809967
-0.136851,-0.329127,-0.362259,0.430578,0.892602,-0.133658
-0.124679,-0.286385,-0.501221,0.326161,-0.261849,-0.908325
-0.127113,-0.377800,-0.413983,-0.648297,0.721242,0.243968
-0.120523,-0.388059,-0.465928,-0.518404,-0.848805,0.103867
-0.115082,-0.411141,-0.495169,-0.713953,-0.604495,0.353351
-0.116087,-0.485243,-0.433330,-0.157420,0.694648,0.701913
-0.226071,-0.270090,-0.418356,0.249267,0.942316,0.223399
-0.217623,-0.264960,-0.495523,-0.286426,0.623140,0.727775
-0.215905,-0.319191,-0.472554,0.277050,0.174625,0.944854
-0.216478,-0.389449,-0.418400,0.475515,-0.832201,-0.285180
-0.213038,-0.424498,-0.424628,-0.650821,0.705096,0.281552
-0.201155,-0.387525,-0.559350,-0.529426,-0.304805,0.791708
-0.205735,-0.498069,-0.434346,-0.470384,0.856742,-0.211498
-0.004953,-0.517570,-0.500514,0.241577,-0.309268,0.919779
-0.031303,-0.851922,-0.917841,0.819733,-0.210800,-0.532542
-0.028868,-0.895251,-0.909051,-0.161727,-0.407649,-0.898703
-0.024428,-0.927094,-0.926233,-0.106041,-0.056918,0.992731
-0.036600,-0.317267,-0.367074,0.201403,0.955689,0.214698
-0.030586,-0.329610,-0.411907,-0.541066,-0.237430,0.806768
-0.025145,-0.351194,-0.443975,0.896958,0.046458,0.439668
-0.020704,-0.377856,-0.464780,0.828064,-0.051699,-0.558245
-0.018414,-0.431121,-0.443180,0.740743,0.663251,-0.106764
-0.016264,-0.480009,-0.428294,-0.510597,0.805301,0.301300
-0.010106,-0.495662,-0.470964,-0.932840,-0.045550,0.357400
0.137404,-0.521841,-0.534437,0.352876,-0.921452,0.162499
0.141984,-0.549785,-0.553475,-0.032662,-0.848593,0.528037
0.147569,-0.570088,-0.586515,-0.144309,0.942015,-0.302956
0.153155,-0.596642,-0.611030,0.186748,-0.341610,0.921101
0.158024,-0.621220,-0.636207,-0.206392,-0.902854,0.377168
0.169340,-0.665618,-0.701138,0.466974,0.717363,-0.517036
0.175497,-0.688859,-0.732058,0.433948,0.736230,-0.519283
0.103029,-0.191389,-0.482404,0.790834,0.609272,-0.058043
0.103606,-0.255826,-0.442518,0.858334,0.513023,0.008384
0.107042,-0.296002,-0.442871,-0.700134,0.213990,0.681190
0.106897,-0.361398,-0.397728,0.836086,0.446561,0.318658
0.113488,-0.377428,-0.437394,0.102065,-0.048409,0.993599
0.117496,-0.412263,-0.446935,0.804910,0.439072,-0.399169
0.120219,-0.455432,-0.439426,-0.010011,-0.640109,0.768219
0.125804,-0.476964,-0.471714,0.527569,0.645673,-0.552066
0.131530,-0.498281,-0.504931,-0.281554,0.539073,-0.793806
0.264862,-0.340348,-0.306736,-0.136838,-0.951609,0.275166
0.270735,-0.362894,-0.336507,0.388485,-0.874464,0.290502
0.275316,-0.393029,-0.353955,0.071548,-0.052176,0.996072
0.282623,-0.402590,-0.406651,0.864723,-0.443444,0.235820
0.287059,-0.431336,-0.423877,0.541321,-0.729582,0.417949
0.289210,-0.482038,-0.402808,-0.350789,0.716237,0.603284
0.299376,-0.468629,-0.496627,-0.620449,0.721229,-0.308014
0.306395,-0.479634,-0.545568,-0.768800,0.571850,-0.286243
0.308685,-0.531298,-0.525470,-0.208827,0.945681,-0.249155
0.197411,-0.342807,-0.311153,0.288624,0.867088,-0.406022
0.202564,-0.368291,-0.336198,-0.449445,-0.689772,0.567639
0.208294,-0.393616,-0.362303,0.889565,0.242524,-0.387113
0.213162,-0.418458,-0.386067,0.490227,0.863497,-0.118534
0.218460,-0.440953,-0.413806,0.149020,0.901644,-0.405993
0.223473,-0.468521,-0.435980,-0.253374,-0.819594,0.513875
0.228774,-0.490481,-0.465310,-0.611495,0.505454,-0.608761
0.235789,-0.506616,-0.507537,-0.194343,0.840931,-0.505041
0.241519,-0.528041,-0.541019,-0.017392,-0.859574,0.510716
0.243953,-0.578850,-0.521760,0.643502,0.580439,0.498995
0.252545,-0.577089,-0.593891,-0.614864,0.694000,-0.374574
0.259276,-0.589644,-0.641110,0.146261,-0.453873,0.878981
0.262572,-0.630677,-0.639696,-0.436973,-0.170182,0.883229
0.265434,-0.672564,-0.633954,0.877273,0.217076,-0.428100
0.269446,-0.710659,-0.637930,0.900570,0.197527,-0.387243
0.342915,-0.374435,-0.294633,0.350734,0.885801,-0.303878
0.349934,-0.384639,-0.345651,-0.738702,0.670434,0.069555
0.363535,-0.339118,-0.493402,-0.653952,-0.507039,-0.561478
0.365541,-0.395700,-0.465398,0.745407,-0.630251,-0.217145
0.365257,-0.464409,-0.413453,0.019370,0.649952,0.759728
0.374422,-0.455056,-0.497334,0.705660,-0.704571,-0.074996
