0.313407,-0.265686,0.678396,0.881735,0.235241,0.408906
-0.160706,-0.441695,0.657211,-0.197950,0.739702,0.643162
0.094080,-0.010679,-0.082998,-0.121449,-0.776921,0.617773
-0.285317,0.354806,0.615541,0.408983,0.513048,-0.754662
-0.081488,0.100056,0.341340,0.914126,-0.135304,-0.382188
0.057681,-0.088734,0.886047,-0.415101,-0.069013,-0.907154
-0.487002,0.136682,-0.085245,0.690526,0.502764,-0.520002
0.111463,-0.237466,0.753285,0.698132,0.572754,-0.429610
-0.038836,-0.087103,0.560453,0.993871,-0.080152,-0.076134
0.059050,0.529785,0.558174,-0.232942,-0.736293,0.635303
-0.564338,0.050307,0.355995,0.151417,-0.300984,0.941531
-0.441100,-0.043359,0.433212,-0.537057,0.121206,0.834793
-0.678842,-0.389029,0.388546,-0.703246,0.619293,0.349172
0.301589,-0.349144,0.798147,0.826701,0.550835,0.114654
0.654264,0.167903,0.594193,-0.419815,-0.869137,-0.261450
-0.171069,-0.468885,0.847731,0.919393,-0.248589,0.304829
-0.722434,-0.027490,0.366563,0.025014,-0.707570,0.706200
0.494971,-0.104259,0.770286,0.603203,0.465973,-0.647314
-0.216459,-0.400608,0.524092,-0.544135,0.460927,0.701044
-0.610157,-0.307115,0.654850,0.294751,0.946762,-0.129476
-0.594739,-0.299223,0.713993,-0.419485,-0.822562,0.383959
-0.769622,-0.293991,0.671850,0.324497,-0.932451,0.158860
0.708219,0.238925,0.395809,-0.589116,0.773917,-0.232368
-0.129962,-0.045246,0.800557,0.717139,0.603390,-0.348758
0.461742,0.193464,0.419111,-0.519006,0.847842,-0.108611
-0.087483,0.464940,-0.276074,0.524139,0.844093,0.113069
0.415664,-0.190633,0.559835,-0.277509,-0.947945,-0.156173
-0.420031,0.366385,-0.056407,0.413034,0.055807,-0.909004
-0.184001,0.318695,0.595643,0.860121,0.354027,-0.367228
-0.578896,0.086932,0.512612,-0.488644,-0.860378,0.144838
0.124654,-0.613930,0.455016,0.873689,0.483436,-0.054376
0.637051,-0.182399,0.522577,0.181651,0.982322,-0.045234
-0.406671,-0.304713,0.709173,-0.063670,0.619990,0.782022
-0.142891,0.011279,-0.019736,0.989428,0.069531,-0.127270
0.019828,-0.417421,0.391949,-0.346059,0.408312,0.844704
-0.356827,0.407643,0.606699,0.711876,-0.318122,-0.626123
-0.062045,-0.334391,0.910146,-0.595924,-0.733172,0.327617
-0.714640,-0.200498,0.638843,-0.032041,0.780735,0.624041
-0.380378,0.369902,0.556952,0.769333,0.062125,0.635820
-0.385346,-0.226658,0.703555,0.280870,0.467566,0.838149
0.276153,-0.396063,0.604387,0.780241,-0.385841,0.492291
-0.196248,0.061372,0.794630,0.690838,0.715776,0.102016
-0.356312,-0.640348,0.438635,-0.633686,0.078931,-0.769553
-0.716525,0.190719,0.532869,0.755163,0.634887,0.163241
-0.393566,-0.063087,0.377555,0.915629,0.010939,0.401876
-0.150685,0.220569,-0.286919,0.277622,0.938372,0.205872
-0.811929,-0.321782,0.633535,-0.529343,0.625900,0.572752
-0.644669,-0.520264,0.507482,0.119938,0.244906,0.962100
-0.170556,-0.076382,0.752243,0.232557,-0.456857,0.858603
-0.164046,0.542823,0.156943,0.918268,-0.313690,0.241623
0.116432,-0.582107,0.418769,0.878075,0.477899,0.024449
-0.194536,-0.102886,-0.686441,0.976743,0.141674,-0.160940
0.761061,-0.212162,0.489082,0.568355,0.812594,-0.129088
-0.264335,-0.055281,-0.670434,-0.675755,-0.730186,0.100915
-0.271527,-0.158125,-0.846949,0.345381,0.938115,-0.025558
-0.216631,0.099541,0.817313,-0.558521,-0.819934,-0.125546
-0.338843,0.644208,0.358340,0.978654,0.202919,0.032576
-0.179291,0.320667,0.300744,-0.754048,-0.078716,0.652086
0.370875,-0.791654,0.415203,-0.371633,0.901903,-0.220135
-0.695799,-0.503281,0.496898,0.037071,0.688199,0.724575
0.110865,-0.144229,0.799873,0.943479,0.240336,-0.228222
-0.227935,0.098684,0.892918,0.650289,0.759091,0.030085
0.515611,0.072179,0.651007,-0.292783,-0.953582,-0.070427
-0.111120,0.026719,0.576998,-0.741852,-0.584479,0.328694
-0.248318,0.318008,0.592451,0.709117,0.621170,-0.333618
-0.030274,-0.182742,0.392080,0.675067,-0.390781,0.625759
-0.291824,0.135652,-0.067659,-0.032198,0.065481,0.997334
0.578044,-0.761118,0.601912,-0.557160,0.329635,-0.762177
0.248149,-0.280181,0.459445,-0.207823,-0.867250,0.452423
-0.212092,0.459450,-0.305792,0.298765,0.293808,0.907974
-0.121826,-0.017455,0.736660,0.831188,-0.345069,0.435951
-0.274611,-0.269117,0.014313,0.401705,0.509247,0.761118
-0.275210,0.589141,0.433261,0.478199,0.877410,-0.038438
-0.212347,0.019600,0.739216,-0.541887,0.542269,0.642108
0.002442,-0.109833,0.575809,-0.200787,-0.472929,0.857918
-0.106923,-0.151177,0.285438,0.915420,0.380199,-0.132116
-0.729799,-0.317408,0.683396,0.146636,-0.321986,0.935320
-0.196504,0.033838,0.746723,-0.484483,0.195882,0.852588
0.150003,0.646524,0.416049,0.811131,-0.508462,0.289020
0.206870,-0.290131,0.913892,-0.263154,0.866217,-0.424756
0.025309,-0.298452,-0.018238,0.311372,0.362941,0.878249
-0.387401,0.411588,0.562375,0.868543,0.203989,0.451687
-0.097159,0.048591,0.732100,-0.698851,-0.679812,-0.222401
0.405301,-0.812240,0.398561,-0.293001,0.914748,-0.278186
0.067273,-0.218596,0.718373,0.882233,0.406855,0.236928
-0.041406,-0.016426,0.836560,0.987246,-0.112952,0.112192
-0.242323,0.265171,-0.268535,-0.471465,-0.805959,0.357983
-0.341582,-0.013767,0.233900,-0.117121,-0.481192,0.868756
-0.044061,-0.226830,0.705541,0.941005,-0.052916,-0.334229
0.126538,0.339624,0.813600,0.277028,0.270671,0.921951
0.375757,-0.581164,0.608881,-0.175331,-0.176271,0.968601
0.773564,0.341682,0.539627,0.150188,-0.977764,-0.146359
0.260911,-0.274778,0.802316,0.827288,0.405055,-0.389262
0.093309,-0.034438,0.907557,-0.509368,-0.859354,0.045334
0.619323,-0.445297,0.654883,0.463231,0.531170,0.709419
-0.292681,0.093194,-0.069450,-0.157320,0.031112,0.987057
-0.672504,0.153150,0.362606,-0.458850,0.055223,0.886796
-0.596111,-0.287301,0.414112,-0.344303,0.832963,0.433160
-0.386972,0.611185,0.505838,-0.322150,0.811674,-0.487241
0.242239,-0.259424,0.810425,-0.047609,0.453556,0.889955
-0.159164,0.269717,0.620361,0.986717,0.156947,0.041919
-0.318459,-0.350002,-0.090244,0.641401,-0.765913,0.044513
0.396653,-0.051765,0.771588,0.163627,0.984687,-0.060140
0.364537,0.378050,0.491573,0.079015,-0.985790,0.148239
-0.314176,-0.117125,-0.889352,-0.433089,0.895647,0.101249
0.021111,-0.703907,0.736187,0.293511,0.323196,-0.899664
0.324714,-0.005618,0.655876,0.143202,-0.041710,0.988814
-0.287969,0.453875,0.641367,0.912166,0.407929,-0.039334
-0.170041,-0.122357,-0.150266,0.442586,0.888228,0.123159
-0.521261,-0.008020,0.729185,-0.704967,-0.611829,0.358730
-0.227849,0.200841,0.763528,0.930542,0.358577,-0.074251
-0.596966,-0.362096,0.656446,-0.502294,-0.862004,0.068189
-0.159164,-0.104602,-0.032177,0.975809,0.134173,0.172608
0.268104,0.125016,0.591914,-0.680646,0.724963,0.105592
0.689976,-0.191148,0.528293,-0.135851,0.983572,0.118872
-0.117114,-0.334991,0.823077,0.761211,-0.648469,-0.006758
0.226997,-0.489814,0.749996,0.918720,0.081162,-0.386480
-0.051599,-0.443925,0.799824,0.826465,-0.010382,0.562893
-0.210121,-0.022516,-0.982625,0.358245,0.833309,0.421018
-0.106494,-0.156237,-0.947290,0.452909,0.891281,-0.022169
-0.232475,-0.642063,0.414046,-0.581404,0.789131,-0.198097
-0.563909,-0.298709,0.713683,-0.399734,-0.880415,0.255112
-0.221683,-0.265343,0.902330,0.390085,0.849080,0.356226
0.439474,0.303427,0.405172,-0.310747,0.666427,-0.677725
-0.554746,0.572758,-0.171647,-0.287362,-0.382297,-0.878221
-0.115571,0.101343,0.877888,-0.480303,-0.393393,-0.783933
0.543701,0.189261,0.593574,0.360879,0.771497,0.523984
-0.272554,-0.483209,0.834574,0.774472,-0.587475,-0.234662
0.603905,-0.407728,0.507922,0.397214,0.916519,-0.047055
0.239843,-0.720461,0.403771,0.664422,0.744812,-0.061633
0.194453,0.946648,0.437462,-0.033751,-0.973957,0.224208
-0.860659,0.055024,0.353487,0.082755,0.572683,-0.815589
-0.716352,-0.291161,0.659377,0.539749,-0.813247,0.217489
-0.059991,0.508771,0.133820,0.828580,-0.334027,0.449313
-0.167472,-0.017798,0.758317,0.179596,-0.046762,-0.982628
0.414208,-0.176652,0.564736,-0.242039,-0.940009,-0.240417
-0.263221,0.287816,-0.059940,0.076241,-0.193394,0.978155
0.281464,-0.477720,0.581231,0.698701,0.631322,-0.336525
-0.042862,0.025346,0.760336,0.559395,0.825086,-0.079432
0.357770,0.353862,0.493804,0.275853,-0.958636,-0.070159
0.226824,-0.315606,0.807917,-0.399167,0.914100,-0.071327
-0.079773,-0.084960,0.076582,-0.813288,-0.581000,-0.031643
0.278981,0.356264,0.290502,0.122448,0.028928,0.992053
-0.275382,-0.704164,0.582909,0.675200,0.359569,0.644061
0.058282,0.263799,0.915683,0.828469,0.506757,0.238403
-0.152912,0.004503,-0.991826,0.423832,0.375351,0.824305
-0.012032,-0.091821,0.798261,0.989795,0.142493,-0.000880
0.117717,-0.072608,0.809888,-0.175616,0.041344,0.983590
0.488460,0.178282,0.613164,0.198417,0.971170,0.132132
0.145207,-0.071064,0.752113,-0.734371,0.568985,-0.370076
0.145550,-0.039327,0.894384,-0.179607,0.832573,0.523988
0.456431,0.050907,0.660224,-0.590199,0.618029,0.519332
0.023338,-0.300253,0.874192,-0.696479,0.251761,0.671962
0.061622,-0.296221,-0.023351,0.077964,0.277350,0.957600
0.395796,-0.090192,0.513068,0.104796,0.977719,0.181887
-0.245148,-0.494961,0.347674,0.913057,-0.406844,0.028371
-0.603563,0.080242,0.401394,-0.097603,0.882764,0.459566
-0.008007,-0.333104,0.863005,0.784039,-0.394792,-0.478981
-0.283688,-0.578505,0.652114,0.723011,-0.629127,-0.285403
0.013660,-0.017369,0.905506,0.876088,0.206544,0.435672
0.195223,-0.394261,0.736041,-0.648936,-0.752598,0.111709
-0.030873,0.641635,0.587566,0.928857,0.162144,-0.333067
-0.353144,0.211391,0.493658,-0.608190,-0.572193,0.550182
0.818525,0.233864,0.402273,-0.296046,0.927163,-0.229621
0.223228,-0.303770,0.630473,0.302036,-0.669106,0.679022
0.411383,0.145087,0.681832,-0.268329,0.952748,-0.142374
0.175525,0.061972,0.858543,-0.517251,0.742374,-0.425832
-0.040807,-0.017112,0.789207,-0.664867,-0.746821,-0.014514
0.561599,0.035382,0.654720,0.766020,0.624793,-0.151154
-0.282747,-0.498392,0.645373,0.747643,0.439187,-0.498142
-0.285317,-0.237294,0.002752,0.265604,0.750995,0.604533
-0.018712,-0.366556,0.697432,-0.480139,0.677087,0.557691
-0.456514,-0.216109,0.705949,0.195276,-0.899606,0.390610
-0.003038,0.482438,0.561724,-0.285596,-0.707157,0.646811
-0.198731,-0.439293,0.367507,0.900492,-0.422811,0.101706
-0.206524,-0.029635,-0.702415,0.970436,-0.197479,-0.138770
-0.201901,-0.361667,0.761981,0.520625,-0.525991,-0.672520
0.399993,-0.048076,0.748726,0.203001,-0.885930,-0.417035
0.038154,0.108204,0.795818,0.840069,-0.266011,0.472781
-0.561084,0.351632,0.243865,0.187878,0.148869,-0.970845
0.046035,0.289188,0.808178,-0.602358,0.196923,0.773554
0.071982,-0.723034,0.677599,0.380634,0.489499,-0.784543
0.390657,-0.497019,0.598280,-0.715575,-0.673888,-0.183921
-0.125336,0.091564,0.719089,0.704722,0.672194,0.226986
0.157112,0.037698,0.796209,-0.684073,0.718258,-0.127080
-0.245577,-0.345885,0.460211,0.841802,-0.207306,0.498391
0.326339,-0.251962,0.627787,0.262464,0.547513,0.794570
0.146151,-0.217395,0.911205,0.596568,0.731160,0.330926
0.176382,-0.566411,0.637443,0.916231,0.204800,-0.344350
-0.027104,0.084531,-0.330999,-0.803507,0.522798,0.284708
0.709931,0.212077,0.379460,-0.528722,0.739168,-0.417234
-0.093819,-0.141913,0.920373,0.345285,-0.406187,0.846044
0.666768,-0.551743,0.659149,0.587969,0.799380,0.123624
-0.693144,-0.318179,0.415284,-0.474048,0.769293,0.428331
-0.308353,-0.537848,0.638045,-0.569991,-0.189202,0.799571
0.224940,-0.679718,0.434157,0.698627,0.613877,-0.367527
0.003127,-0.009821,0.956750,0.961121,0.220293,-0.166487
-0.547381,-0.640777,0.635293,-0.663777,0.077088,-0.743947
0.157198,-0.612214,0.526746,0.213434,0.630772,0.746038
-0.188025,0.177939,0.720343,0.836113,0.424168,0.347846
-0.157967,-0.336964,0.743027,0.047141,-0.825375,0.562613
-0.040209,0.598405,0.599144,0.711697,0.590359,-0.380741
0.701110,0.369216,0.430607,0.910548,-0.358810,-0.205325
0.816471,-0.477463,0.502581,-0.529174,-0.716035,-0.455268
-0.404358,-0.683836,0.414274,0.553602,-0.822771,0.128732
-0.009805,-0.397692,0.786325,0.798164,-0.580399,-0.161464
-0.149572,-0.372904,0.627477,0.177337,0.929774,0.322603
-0.038923,-0.368100,0.882090,0.908547,-0.336043,0.248230
-0.023594,-0.025175,0.803781,-0.381974,0.694155,-0.610119
-0.733738,-0.370931,0.629464,0.100089,0.988101,-0.116786
-0.435274,-0.260711,0.546824,-0.237274,0.965965,0.103014
-0.125678,0.031265,0.827897,0.876539,0.478902,0.048282
0.252775,-0.293391,0.872303,0.533626,0.416565,-0.736014
0.095620,-0.016083,0.765058,0.778978,0.447460,0.439286
0.159509,-0.615559,0.571575,0.817701,0.494162,-0.295243
-0.009977,-0.101599,0.784713,0.980901,0.092873,0.170902
-0.096560,0.373590,-0.179137,-0.371478,0.176727,0.911467
0.189398,-0.262684,0.577323,0.561787,0.728317,0.392364
0.380467,-0.470601,0.606227,0.685562,0.689067,0.234928
-0.843874,-0.354891,0.594470,0.167045,0.536464,-0.827226
0.853210,0.296393,0.381577,-0.287541,0.954147,0.083211
-0.269131,-0.229918,0.913192,0.841558,-0.256288,0.475497
0.539248,-0.749796,0.606308,0.339789,0.479203,-0.809264
-0.316489,0.103658,-0.075573,-0.310623,-0.140192,0.940138
0.275983,0.156581,0.869828,0.907003,0.061300,-0.416639
0.261081,-0.379079,0.602970,0.833491,-0.042830,0.550870
-0.024877,0.550971,0.575255,-0.599496,-0.614988,0.512244
-0.282747,-0.632028,0.681865,-0.168476,-0.294030,-0.940831
0.429025,-0.547369,0.614548,-0.211166,0.093483,0.972970
-0.694001,-0.354033,0.411180,0.501214,-0.643194,0.578866
-0.067186,-0.026375,0.069515,0.844084,0.535907,0.018069
-0.059306,0.173221,0.513556,-0.123056,-0.118323,-0.985321
-0.414378,-0.039670,0.426487,0.385667,0.856820,-0.342230
-0.586603,-0.424282,0.501734,-0.079121,0.266138,0.960682
-0.288055,0.165073,-0.066682,0.121115,-0.228501,0.965981
-0.208751,-0.371874,0.650307,0.017873,0.571681,0.820281
0.174325,-0.163615,0.679618,-0.399556,0.916629,-0.012060
-0.177663,0.573616,0.451092,0.438398,0.898699,-0.012120
-0.129703,-0.405412,0.872889,-0.595813,0.579367,0.556184
0.147434,-0.019685,0.790103,0.635644,-0.010948,-0.771905
0.870254,-0.195608,0.505447,0.351299,0.907360,-0.230839
-0.369759,-0.408243,0.616876,0.834884,-0.163252,0.525659
-0.640817,0.069692,0.370259,0.507447,0.652918,-0.562314
-0.119855,-0.173650,0.741577,0.579997,-0.461000,-0.671627
-0.430993,-0.435175,0.737930,0.017154,0.705842,0.708162
-0.374983,0.454733,0.532608,-0.558046,-0.399666,0.727222
0.038497,-0.443067,0.479360,0.872912,0.471571,0.125081
-0.203613,0.094052,0.847128,0.708474,0.698477,-0.100962
0.425685,-0.021315,0.408624,0.495862,0.587467,0.639534
0.107611,-0.255135,0.395972,0.276812,0.957096,0.085685
-0.792060,0.053395,0.366856,-0.103990,-0.993718,-0.041365
-0.347491,-0.356693,0.751771,-0.708568,0.417248,0.569066
0.666083,0.396749,0.415219,-0.019974,-0.903373,0.428390
0.078921,-0.177252,0.898178,0.487993,0.872060,-0.037067
0.595599,-0.708624,0.607025,0.707094,-0.162516,0.688191
0.856122,0.275807,0.399570,-0.213469,0.899566,0.381068
-0.196933,-0.134451,0.748726,-0.165443,0.198840,0.965967
-0.202157,0.088305,0.786504,0.590443,0.728783,0.346775
-0.526057,-0.320067,0.632020,0.674826,-0.737149,0.034951
-0.236842,-0.039670,-0.585091,0.992261,0.115963,-0.044396
0.665913,-0.240640,0.504226,0.077587,-0.968171,0.237960
-0.100928,-0.169962,0.766931,0.936414,-0.227370,-0.267268
-0.114803,-0.296736,0.904480,-0.419698,-0.898128,-0.131226
0.000644,-0.506712,0.679715,0.941793,0.167207,-0.291665
0.123711,0.110092,0.931120,0.858784,-0.511916,-0.020786
0.149232,0.101857,0.122910,0.026098,-0.674562,0.737757
0.167216,0.952481,0.412841,-0.268712,-0.954657,-0.128155
-0.351087,0.071836,-0.996727,0.324851,-0.489519,-0.809224
0.037556,-0.111549,0.901386,-0.635212,0.311369,-0.706792
0.219203,-0.416392,0.625360,0.758599,0.603579,0.245398
0.288144,-0.053309,0.811923,-0.092556,0.900695,0.424479
-0.767223,0.039585,0.367214,0.021279,-0.345446,0.938197
-0.032072,0.017798,0.935647,0.386702,0.900412,-0.199299
-0.075835,0.008878,0.909739,-0.444075,0.757077,0.479198
0.228024,0.078441,0.799499,0.075342,-0.626563,0.775721
0.383635,0.261998,0.241553,0.904916,-0.376237,0.198928
-0.532821,-0.518548,0.630311,0.341983,-0.751622,-0.564014
0.266133,0.322126,0.285714,-0.137692,0.167879,0.976144
-0.425768,0.099970,-0.072967,-0.205005,-0.796338,0.569051
0.606561,-0.629712,0.623699,0.301052,0.379415,-0.874878
-0.000728,-0.271518,0.567016,0.787864,-0.012929,-0.615713
0.768339,-0.457477,0.512742,0.482311,0.873061,0.071700
-0.264076,0.262941,0.781993,0.949733,0.305324,-0.069165
0.306215,0.316293,0.282018,0.313331,-0.114701,0.942692
0.402818,0.459708,0.296543,-0.070307,0.224094,0.972028
-0.097501,-0.295106,-0.094022,-0.280558,-0.852033,-0.441959
0.193768,-0.691898,0.590204,0.754564,0.459244,-0.468753
-0.277264,-0.493416,0.437055,0.316390,-0.931521,0.179350
0.622321,-0.436291,0.659263,0.319136,0.215358,0.922916
-0.285058,0.709568,0.586344,-0.514515,-0.857461,0.005935
0.232135,0.129905,0.547736,-0.401896,0.795708,0.453132
-0.169699,-0.333190,0.763756,-0.371794,0.496420,0.784434
0.521520,-0.669168,0.610298,0.613075,0.090793,0.784790
-0.013401,-0.166016,-0.236391,-0.146110,-0.981342,-0.124979
0.268618,-0.303512,0.876911,0.583313,0.048502,-0.810798
-0.026333,-0.060085,0.832392,0.865457,0.291851,-0.407194
0.141269,0.902646,0.418296,0.554223,0.773879,-0.306511
0.475528,0.565725,0.288955,0.272338,-0.275943,-0.921785
0.035928,-0.228631,-0.139763,-0.616003,0.735785,-0.281356
-0.353743,0.198267,0.827327,0.570199,-0.308857,0.761236
-0.497022,-0.009564,0.566788,-0.750201,-0.465501,-0.469582
-0.177663,-0.086074,0.873427,-0.425057,-0.016466,-0.905017
-0.205241,-0.046704,-0.640374,0.674104,-0.657078,0.337389
0.035841,-0.173393,0.345785,0.167240,0.936909,0.306972
0.487347,0.193550,0.513165,0.065839,0.961583,0.266503
0.243781,0.108891,0.301021,0.360126,0.084425,0.929076
0.144692,0.125617,0.552051,-0.548801,0.751005,0.367163
-0.269899,-0.746794,0.587305,-0.617761,-0.176010,-0.766414
0.489145,-0.410559,0.645357,0.567449,0.822612,0.036212
0.030105,-0.378307,-0.019443,-0.326902,0.153419,-0.932522
-0.227765,-0.051336,-0.513182,0.744809,-0.644490,0.172893
0.137756,0.353262,0.811239,0.277028,0.270671,0.921951
-0.253543,-0.104002,-0.615916,0.760509,-0.635223,0.134600
0.085685,0.025690,0.648239,-0.313126,0.949667,0.009249
-0.236500,-0.793541,0.566690,-0.794293,-0.306860,0.524343
0.114461,-0.044731,0.882855,0.963910,-0.193049,0.183327
0.002014,-0.049706,0.941053,0.999545,0.019134,0.023322
-0.619147,-0.247759,0.715344,-0.183529,-0.572905,-0.798810
-0.517406,-0.011536,0.707805,-0.171384,-0.841545,0.512279
0.818183,-0.187288,0.431796,0.059150,0.995014,-0.080302
-0.147946,-0.347686,0.828630,0.996404,-0.082297,-0.020160
-0.146404,-0.222284,0.004576,0.484733,0.335686,0.807681
0.098189,-0.511515,0.425803,0.869546,0.428471,-0.245565
0.096906,-0.145344,0.900246,0.512888,0.714274,0.476191
0.038497,-0.165416,0.777776,-0.001621,0.999997,-0.001841
0.235130,-0.252562,0.473026,0.254500,0.922690,-0.289610
0.161393,-0.363383,0.695918,0.247567,0.715065,-0.653753
-0.864514,-0.030407,0.352168,0.236704,0.641486,-0.729704
-0.383289,-0.212077,0.705020,-0.578680,0.325675,-0.747707
-0.083456,-0.094823,0.960024,0.965237,0.018352,-0.260731
0.369848,0.794313,0.418020,0.722418,0.691427,-0.006405
0.141355,-0.307029,0.714269,0.572767,0.799023,0.183030
-0.002526,-0.073980,0.799254,0.985283,-0.144803,0.090824
0.349634,-0.768066,0.597189,-0.601877,-0.005984,-0.798566
-0.285230,-0.482609,0.839394,0.850841,-0.339674,-0.400863
-0.223139,-0.599433,0.664995,0.453699,0.873520,0.176412
0.305959,0.210362,0.537265,-0.370365,0.781228,0.502507
0.060250,-0.583222,0.567797,-0.692756,-0.237318,0.681007
-0.343722,-0.033495,0.698100,0.187400,0.926800,-0.325458
0.491030,0.190033,0.578577,0.493501,0.076940,-0.866336
0.326598,0.203929,0.393806,0.034110,0.841789,-0.538728
-0.137583,0.003903,-0.176499,0.991392,0.100423,-0.084004
-0.139381,-0.390659,0.308740,0.127492,0.962818,0.238176
-0.145291,0.506026,0.543779,-0.011005,0.637475,0.770392
0.437503,-0.565553,0.610998,-0.087442,-0.220256,0.971515
0.154201,0.896470,0.446174,0.814860,-0.354058,-0.458962
0.154629,-0.691727,0.426341,0.753297,0.631191,-0.184772
0.060336,-0.633057,0.554705,0.936159,-0.142785,-0.321276
-0.499336,-0.027319,0.668626,0.456573,0.354445,-0.816033
-0.065814,-0.063430,0.804188,0.300765,-0.790138,0.534062
-0.282489,-0.412103,0.725049,-0.394754,0.834899,-0.383554
0.015973,0.678775,0.151113,0.348957,-0.400682,0.847161
-0.452403,0.396663,0.255036,-0.514682,-0.392906,0.762055
-0.095018,0.106232,0.169856,0.972567,0.008238,-0.232476
-0.123538,0.103144,0.663904,-0.702517,-0.670392,-0.238839
0.094593,0.051336,0.378043,-0.027453,-0.607675,0.793711
-0.064531,-0.416992,0.766068,-0.195876,-0.703835,0.682825
-0.455059,0.301111,0.502239,0.909266,0.367919,0.194607
0.599282,-0.038127,0.653026,-0.739486,-0.365744,0.565147
-0.308010,-0.085388,-0.783264,0.631122,-0.775440,0.019435
-0.640216,0.094652,0.517985,0.830349,0.555018,0.049748
-0.630282,-0.059656,-0.174040,-0.528061,-0.707686,0.469395
0.062134,-0.186087,0.868981,-0.555894,-0.349355,-0.754276
-0.730912,-0.470772,0.503900,-0.180689,0.341111,0.922494
-0.492313,-0.105545,0.698767,-0.013138,-0.853739,0.520536
-0.035925,-0.148947,0.865806,0.093583,0.901602,-0.422322
0.061878,-0.162242,0.341405,-0.143153,0.788066,0.598714
-0.318546,0.168590,0.812037,0.540502,0.829976,0.137835
-0.324797,0.413733,-0.337724,0.582432,-0.172590,-0.794346
0.589946,-0.110949,0.459348,-0.354242,-0.840400,-0.410170
-0.196590,0.592143,0.416554,0.653585,0.708981,-0.264902
-0.238813,-0.092336,-0.487763,0.714998,0.688310,0.122499
-0.248488,-0.051078,-0.511684,0.675745,-0.709113,0.201316
0.155570,-0.126646,0.811663,0.112132,0.029181,0.993265
0.036184,-0.212420,0.641123,0.901899,-0.280416,0.328549
0.356743,-0.241069,0.866929,0.624671,0.714094,0.316001
-0.098787,-0.402839,0.352461,-0.146271,0.939482,-0.309804
0.136729,-0.613843,0.595984,-0.728081,-0.596051,0.338557
0.354260,-0.178796,0.452753,-0.644119,0.517279,0.563501
-0.047145,0.401724,0.558043,-0.402389,-0.677149,0.616078
0.388174,-0.327615,0.630441,-0.337305,-0.748522,-0.570912
-0.604247,0.084702,-0.127322,0.494489,0.365006,-0.788829
-0.206010,-0.025260,-0.619075,0.572635,-0.809828,0.127544
-0.759430,-0.511430,0.503053,-0.134360,0.555909,0.820312
-0.723119,-0.258910,0.677680,-0.276335,0.870747,0.406743
-0.205155,0.008620,-0.993747,-0.208284,-0.376790,-0.902578
-0.197189,0.332075,0.587859,0.778013,0.500582,-0.379624
-0.114032,-0.097740,0.792448,0.782005,0.137838,0.607840
-0.287885,0.454218,0.584814,0.800750,-0.122435,-0.586353
0.070785,-0.018913,0.927977,0.932124,-0.336222,-0.134537
0.639278,0.669254,0.281187,-0.579870,-0.495147,-0.646978
-0.164302,-0.117554,-0.469476,0.990419,-0.082593,-0.110670
-0.181774,0.666681,0.570973,-0.128191,-0.980082,-0.151678
-0.268702,-0.472573,0.830242,0.860478,0.415586,0.294730
0.219203,-0.231891,0.716403,0.937396,0.311850,0.155042
0.064876,0.125188,0.924297,0.846693,-0.106620,-0.521290
0.034987,-0.234378,-0.141359,-0.383703,0.890160,-0.245740
-0.143921,0.160956,0.696471,0.985547,0.164593,0.040078
-0.798568,-0.002016,0.357656,0.476217,0.554865,-0.682160
-0.111633,-0.205558,0.905962,0.146919,0.986919,-0.066381
-0.693656,0.111292,0.622869,0.282431,0.933465,0.221079
-0.238470,0.573015,0.451580,0.438398,0.898699,-0.012120
-0.502503,-0.368443,0.536989,0.673302,-0.671115,0.310274
-0.642529,-0.456362,0.574555,0.064085,0.983195,-0.170943
0.327539,0.198267,0.270570,0.953361,-0.229446,0.196105
-0.524685,-0.233263,0.703066,-0.490488,0.870071,-0.048964
0.097846,-0.027233,0.967107,-0.657429,0.664444,0.355388
-0.104783,-0.005361,0.116754,0.928563,0.326839,-0.175916
-0.062474,0.131106,0.129814,-0.150159,0.772216,-0.617361
0.495912,0.178711,0.679960,-0.425185,0.825763,-0.370586
-0.534535,-0.314406,0.644526,0.888515,-0.103966,0.446915
-0.110692,-0.223399,0.907085,0.417462,0.699147,0.580447
0.047833,-0.349916,0.885004,-0.046164,0.288713,0.956302
0.233505,0.832225,0.392291,-0.707996,-0.195789,0.678534
0.658033,-0.400952,0.557897,0.448407,0.893549,0.022376
-0.237613,0.268946,0.695592,0.986525,0.107900,0.122991
-0.198132,0.096796,0.844425,0.642106,0.766362,-0.019718
-0.293965,0.452674,0.749328,0.596471,0.790229,0.140571
-0.244550,0.298366,0.724463,0.862578,0.062492,0.502049
-0.606474,0.118154,0.222615,-0.247122,-0.268610,0.931010
-0.673704,-0.392203,0.416424,-0.070057,-0.650552,0.756224
-0.103068,0.556633,0.197571,0.973717,-0.157314,0.164701
-0.523401,-0.392461,0.704141,-0.623174,-0.606670,-0.493564
-0.093819,-0.040271,0.527511,-0.761940,-0.647561,-0.010638
-0.491285,0.125788,-0.079904,0.772527,0.282054,-0.568900
0.040125,0.531072,0.581215,0.860257,0.481519,-0.167620
-0.202157,0.115066,-0.308463,0.653260,0.732309,0.192291
0.361283,-0.208731,0.620133,-0.528495,0.847504,-0.049291
-0.157282,-0.253420,0.627982,0.898073,0.338994,-0.280264
-0.301672,-0.692928,0.674472,-0.018718,0.917916,0.396333
0.162935,-0.347429,0.740112,-0.720582,-0.604056,0.340408
0.907508,-0.465711,0.519614,0.124265,0.969882,-0.209492
-0.105381,0.040957,0.955269,0.798278,0.559789,-0.222235
0.696400,-0.578505,0.657244,0.481053,0.874408,-0.063236
0.163364,-0.202299,0.816189,0.420706,0.902086,0.096159
0.050830,-0.570956,0.533927,-0.638479,-0.378243,-0.670282
0.364707,0.687438,0.422465,-0.020523,-0.579655,0.814603
0.178180,0.898786,0.416782,-0.455477,-0.741410,-0.492800
0.223056,-0.631342,0.574490,0.956828,0.290118,-0.017656
-0.275808,0.631085,-0.304261,-0.709190,-0.142173,0.690533
-0.167815,-0.060771,0.237677,0.506264,0.861051,0.047827
-0.242751,-0.098083,0.741805,-0.550839,0.256906,-0.794088
0.408472,0.310460,0.499520,0.861107,0.500461,-0.089630
0.064960,-0.493760,0.420478,0.914503,0.379777,-0.139478
-0.364790,0.225115,0.495237,0.536028,0.710395,-0.456085
-0.695799,-0.334219,0.640162,-0.130439,-0.610252,0.781395
-0.525113,-0.489471,0.632997,-0.675659,0.661005,-0.326432
-0.141864,-0.269632,0.447916,-0.612658,0.144891,-0.776954
0.060422,-0.069863,0.833450,-0.259557,-0.238983,0.935691
-0.453344,0.178797,0.546254,0.442881,0.476945,0.759197
0.756777,-0.161899,0.511065,0.140014,0.989505,0.035732
-0.228706,0.401981,0.737572,0.921101,0.376463,-0.099238
-0.329078,0.291676,0.531257,0.599999,0.696780,-0.393064
0.441272,-0.329673,0.656250,0.672182,0.678853,-0.295516
0.295337,-0.047476,0.648760,-0.418142,-0.187146,-0.888895
-0.524857,-0.607325,0.643142,-0.493901,0.024905,-0.869161
-0.505757,-0.489214,0.606683,0.651495,0.688165,0.319346
-0.296962,0.172793,0.865627,-0.647242,-0.748631,-0.143628
-0.444267,0.636403,0.633502,0.522270,0.851106,0.053404
-0.049030,0.427542,0.557132,0.388778,0.734550,-0.556137
-0.538388,-0.310031,0.643403,-0.174261,-0.386918,0.905498
-0.489487,0.640606,0.505300,-0.740832,0.547611,-0.388961
0.437333,-0.087961,0.775854,-0.367061,-0.421667,0.829134
-0.135184,-0.102886,0.005341,0.723621,0.628487,-0.285266
-0.220400,0.253849,0.767289,0.848627,0.524675,0.067437
-0.169785,-0.057340,0.752699,0.184362,-0.650671,0.736640
-0.019825,-0.501479,0.722086,0.971707,-0.020372,-0.235311
-0.281634,-0.083672,-0.552507,-0.826168,0.536314,0.172667
0.206613,-0.706137,0.466741,0.737390,0.537125,0.409576
-0.286513,0.414333,0.763365,0.747223,-0.033041,0.663751
0.710616,-0.412188,0.568921,-0.440724,-0.885448,-0.147458
-0.332419,-0.306428,0.035271,-0.731349,-0.156258,-0.663861
0.597397,-0.352746,0.498054,0.477872,0.799231,-0.364510
-0.305870,-0.695329,0.574392,0.931569,0.177701,-0.317179
-0.273582,0.209675,0.740421,0.403214,0.383930,-0.830672
-0.020424,-0.109491,0.810213,0.996665,-0.063502,0.051244
-0.474499,-0.386027,0.497419,0.384493,-0.667854,-0.637289
0.487862,-0.431659,0.651756,0.474485,0.739229,-0.477916
0.777761,-0.178539,0.434238,0.105511,0.993200,-0.049198
-0.173039,-0.076553,0.737848,0.021631,0.973608,-0.227200
0.068300,-0.022172,0.969989,-0.016917,-0.401552,0.915680
-0.570590,-0.060342,0.356711,0.368600,-0.097188,-0.924493
-0.109064,-0.081529,0.627803,-0.536774,0.728191,-0.426159
0.041152,-0.133079,0.904577,-0.634679,-0.732552,0.246070
-0.033186,0.232063,0.524124,-0.457716,0.441501,-0.771734
0.401964,-0.197324,0.623374,0.859812,-0.506677,0.063253
0.532053,-0.427713,0.656723,0.286543,0.699735,-0.654419
0.170130,-0.169190,0.849376,0.857204,-0.182584,-0.481524
-0.075835,-0.071235,-0.068440,0.393280,-0.676117,-0.623055
0.489404,0.250676,0.577682,-0.230447,0.676623,0.699339
-0.554832,0.173050,0.554396,0.098205,0.082613,0.991731
0.537706,0.128962,0.373516,-0.495081,0.857470,0.140144
-0.203786,-0.171420,0.884092,0.302943,0.157140,0.939964
0.055969,0.220912,0.808520,-0.030548,0.032088,0.999018
-0.016313,0.012566,0.874957,0.806947,-0.476016,-0.349635
0.667967,0.126217,0.594405,0.610977,0.552119,0.567337
-0.165674,0.386371,0.694257,0.068055,0.482194,-0.873417
-0.282319,0.283699,0.260181,0.371414,0.640933,-0.671756
-0.293622,-0.044560,-0.857745,0.113359,0.991498,0.063886
0.739650,-0.127332,0.491736,0.566029,0.822394,-0.057260
-0.512952,0.029721,0.588901,-0.588253,-0.787487,-0.183908
0.293625,-0.463567,0.708538,-0.371689,0.135539,-0.918410
0.088341,0.003388,0.928808,0.982827,-0.182320,0.028478
-0.137925,-0.310460,-0.084675,-0.230615,0.829158,0.509228
-0.288570,0.317494,0.564068,0.702391,0.708438,-0.069006
-0.793001,-0.049277,0.351745,-0.265607,-0.682566,0.680850
-0.158479,0.143458,-0.075670,-0.016731,-0.433957,0.900778
-0.316661,-0.210704,-0.944440,0.307401,0.921072,-0.239023
-0.541642,-0.249303,0.671899,0.003801,-0.555949,0.831208
-0.357083,-0.015825,-0.162723,0.001864,-0.737603,0.675232
-0.330790,-0.244757,0.697693,-0.456094,0.370561,0.809112
0.058366,-0.221683,0.361108,0.864916,0.488247,-0.116344
0.153171,-0.293219,0.666819,0.300035,-0.284188,0.910613
-0.178433,-0.187202,0.478937,-0.622958,0.656771,-0.424942
0.260310,-0.694643,0.598492,0.893669,0.447776,0.029182
-0.031043,0.181799,-0.287913,-0.522327,0.283520,-0.804233
0.325056,-0.784105,0.595121,0.036944,0.003546,0.999311
-0.738790,-0.446670,0.391721,0.328946,-0.941822,-0.069037
-0.061703,-0.240897,0.913745,0.356374,0.147053,-0.922699
0.402390,0.117039,0.649411,0.874014,-0.419160,0.245771
0.016744,0.075868,0.192702,0.924771,-0.363012,-0.114105
0.110865,-0.188489,0.834395,0.965761,0.228704,0.122476
-0.249003,-0.354805,0.711762,0.904119,-0.186000,-0.384672
0.225113,-0.566839,0.619824,0.987912,-0.145488,-0.053502
-0.059134,0.008449,0.632314,0.815092,0.560963,0.144724
-0.006295,-0.105974,0.955318,0.108778,-0.689688,0.715890
-0.653234,-0.386628,0.579457,-0.149953,-0.808991,0.568372
0.162593,-0.256508,0.937210,0.426781,0.904256,0.013386
-0.063245,0.128018,0.973995,0.680188,0.356697,-0.640399
-0.218429,-0.297680,-0.009591,-0.057470,0.454103,0.889094
-0.633535,0.129820,0.561919,-0.130765,0.000176,0.991413
0.064447,-0.587168,0.689046,0.480855,0.115532,0.869155
0.416521,0.251619,0.442478,-0.287570,0.937284,0.196985
-0.075748,-0.064803,0.896240,0.738657,0.330036,0.587760
-0.454972,-0.115924,-0.994415,-0.017887,0.421063,0.906855
0.279324,-0.005704,0.903600,0.141816,-0.974634,0.173141
0.237702,-0.521636,0.757568,-0.231048,0.078551,0.969766
0.221942,-0.282411,0.391021,0.746715,0.651232,-0.135331
0.160280,-0.016769,0.624937,0.247185,0.959714,-0.133597
0.272730,-0.768323,0.437511,-0.074957,-0.814241,0.575668
-0.163790,0.318609,0.616095,0.942605,0.325050,-0.076412
0.239328,0.917742,0.401003,0.448802,0.892656,0.041729
0.218173,-0.380624,0.516259,-0.764795,0.590307,-0.258122
0.106069,0.107776,0.709824,-0.776801,0.624786,0.078884
0.613583,-0.706909,0.599779,0.827427,0.025874,0.560977
-0.413437,-0.207016,0.757275,0.213237,-0.974110,0.075099
0.014860,-0.448300,0.695299,0.849318,0.380263,0.366141
-0.147089,-0.503023,0.866311,0.839193,0.387938,-0.381127
-0.680468,0.206245,0.624628,0.582767,0.591047,0.557715
-0.209695,-0.375820,0.813958,-0.705922,0.473205,-0.527021
0.533080,0.018313,0.635342,0.525419,0.145473,-0.838315
0.720895,-0.422653,0.547638,-0.390265,-0.919937,0.037538
-0.245749,0.274778,0.757991,0.987558,0.156812,-0.011776
-0.271613,0.262512,0.123773,0.420534,0.816989,-0.394563
-0.246520,-0.180598,0.610330,0.387557,-0.686263,0.615503
-0.159164,0.075524,0.132029,-0.354638,0.934990,-0.005131
-0.281634,-0.123729,-0.837244,0.222032,0.975001,-0.008624
0.013660,0.329760,0.159548,0.520107,-0.658432,0.544019
-0.322571,0.330360,-0.051978,-0.118287,0.281388,-0.952276
0.033189,0.533988,0.584097,-0.789572,-0.588275,0.174668
-0.254484,0.605867,0.349140,-0.391585,-0.848850,0.355126
0.145806,-0.704249,0.381202,0.918175,0.377658,-0.119705
-0.234788,0.592915,0.529172,0.202510,0.704046,0.680668
-0.072325,0.272891,-0.054746,0.115196,-0.023944,0.993054
0.002529,-0.031350,0.945254,-0.713398,-0.700393,-0.022650
0.396138,-0.491701,0.594356,-0.523288,-0.840418,0.140953
-0.253457,0.266115,0.387227,0.491062,-0.761391,-0.423252
0.347666,-0.037698,0.651545,-0.060846,0.468521,-0.881355
-0.256967,0.167732,0.566234,0.854508,-0.503621,-0.127207
-0.043805,-0.110434,0.340232,0.578717,0.464242,-0.670497
-0.282405,0.173650,0.812281,0.733159,0.679994,0.009270
-0.233931,0.018227,0.240169,-0.009973,-0.386002,0.922444
-0.521261,-0.558005,0.581785,0.190455,-0.872921,-0.449151
-0.465335,-0.458163,0.741073,-0.229062,0.919906,0.318283
-0.452147,0.044646,0.335819,-0.199058,-0.102328,0.974631
0.466109,0.031694,0.667796,-0.475464,0.367147,0.799460
0.195223,0.753485,0.445311,0.773778,-0.627370,0.087610
-0.209609,0.044045,0.847291,-0.601756,-0.766728,-0.223649
0.120629,-0.174679,-0.137353,-0.711098,0.693872,-0.113497
-0.157794,-0.087103,0.732165,0.170848,-0.982241,-0.077544
-0.619832,-0.380366,0.546075,0.313832,-0.779195,-0.542553
-0.042605,-0.464939,0.894807,0.985679,-0.155236,-0.065865
0.186058,0.432860,0.251974,0.686486,-0.378834,-0.620662
-0.481521,-0.417764,0.742131,-0.282169,0.857548,0.430107
-0.312806,-0.319295,0.742913,-0.758375,0.425166,-0.494066
0.418406,-0.046532,0.761313,0.088802,-0.959184,-0.268476
-0.097418,-0.030664,-1.000000,0.449154,0.338821,0.826717
-0.038581,-0.065231,0.964925,-0.693723,0.614715,0.375332
-0.181089,0.076983,0.807119,-0.647703,-0.728230,0.223971
0.246523,-0.036325,0.629382,0.227273,-0.964715,-0.132939
-0.156082,-0.546168,0.669082,0.847508,0.270866,0.456467
-0.409154,-0.045846,-0.161909,-0.067643,-0.216919,0.973843
0.431338,-0.031265,0.629985,-0.678706,0.582158,0.447716
-0.216801,0.308745,0.292114,0.754740,-0.356336,-0.550810
0.099302,-0.001844,0.568074,0.564810,-0.432163,-0.703011
0.454460,-0.519577,0.590839,0.661858,0.522304,-0.537720
0.295852,0.003989,0.350866,0.385991,-0.894046,-0.227359
-0.243436,0.409187,0.759115,0.931659,-0.058186,0.358644
-0.424997,-0.363211,0.516422,0.397308,-0.682546,0.613414
0.105982,-0.698245,0.690951,0.800789,0.554840,-0.225586
-0.130046,0.570957,0.159369,0.927701,-0.333408,0.167955
0.047062,-0.155637,0.732963,0.766028,0.642773,-0.006658
-0.023850,-0.316035,0.925046,0.745688,-0.550360,0.375570
-0.459170,0.503881,0.539219,0.810439,0.298649,-0.503981
-0.573073,-0.106489,0.697481,-0.455466,0.495390,-0.739689
-0.441442,0.074409,0.605527,-0.028040,0.846218,0.532098
-0.115402,-0.062658,0.247887,0.251473,0.928132,0.274469
-0.605361,0.398122,0.246894,0.359632,0.249372,-0.899154
0.568622,-0.675945,0.612480,0.854497,-0.155466,-0.495646
0.146065,0.670712,0.432105,0.936730,-0.315859,-0.150895
-0.413265,0.236523,0.507613,-0.048686,-0.721844,0.690341
0.036356,0.000043,0.970624,-0.021578,0.642146,0.766279
-0.067785,-0.330188,0.374542,-0.571133,-0.391340,0.721568
0.014089,-0.030836,0.313560,0.645960,-0.755828,-0.107054
-0.112746,-0.086074,0.737572,-0.246001,0.429918,-0.868708
-0.453430,-0.127933,0.388188,0.996904,0.063151,0.046842
-0.217486,-0.117468,0.886779,-0.045285,0.416924,0.907813
-0.644755,0.380881,0.241260,0.828959,0.106519,-0.549073
-0.230591,0.299310,0.762616,0.866525,0.405908,0.290471
-0.177663,-0.276236,-0.121232,-0.171554,-0.760479,0.626292
-0.252257,0.525068,0.659393,-0.803943,0.594296,0.022091
-0.204726,-0.470944,0.858869,0.877261,0.309733,-0.366713
0.297394,0.355492,0.491997,0.395824,-0.917290,0.043623
0.281292,-0.171162,0.548973,0.284187,0.856080,0.431701
-0.232219,-0.389629,0.822459,0.924537,-0.292360,0.244453
-0.044320,-0.162070,0.671850,0.787513,0.463506,0.406185
-0.481694,-0.196209,0.761737,0.478711,0.667377,0.570477
-0.338242,0.204615,0.823322,-0.679645,0.297949,-0.670305
-0.291997,-0.683750,0.584798,0.113133,0.464574,0.878278
0.107355,0.052451,0.886242,0.759297,-0.376709,0.530620
0.412669,0.097225,0.361466,0.647362,-0.747470,0.149034
-0.294307,-0.686323,0.572585,0.855231,0.501010,0.132552
-0.596198,0.090621,-0.143883,-0.702188,-0.694791,0.155556
0.318289,0.250504,0.545831,0.387681,-0.762178,-0.518448
0.380553,-0.491100,0.610184,0.741531,0.617524,0.262290
0.482122,-0.007762,0.659963,-0.218810,0.363641,0.905476
-0.268702,0.577562,0.645047,0.766855,0.473482,-0.433300
-0.694769,0.302569,0.359984,0.816072,-0.329833,-0.474592
-0.557059,-0.483381,0.747114,-0.193580,0.779267,0.596045
0.686552,0.322383,0.553240,-0.189693,0.981793,0.009905
-0.577955,-0.369730,0.455847,-0.289692,0.667174,-0.686263
0.011177,0.289789,0.399619,-0.689765,0.243144,0.681986
0.040980,-0.532272,0.537965,0.883044,0.228340,0.409992
-0.202157,0.472660,0.402420,0.849031,0.391284,-0.355025
-0.165073,-0.026890,-0.756151,0.436388,-0.889879,-0.132969
-0.443326,-0.166445,0.757666,-0.489582,0.201804,-0.848283
-0.704620,-0.293649,0.675905,-0.215473,0.956457,-0.196881
-0.102470,-0.384826,0.763316,0.848955,0.078632,-0.522583
0.171244,-0.005790,0.646155,0.052580,-0.960687,0.272608
0.122427,0.146374,0.699614,0.563762,-0.808844,0.167166
-0.084227,-0.053223,0.754409,0.699998,0.563992,-0.438081
-0.361965,-0.729381,0.445360,0.890264,0.455333,-0.010133
-0.183831,0.083416,0.767403,0.763071,0.610392,-0.212473
-0.381833,-0.360037,0.502711,-0.541830,0.679916,0.494100
-0.144350,0.164387,0.665614,0.778701,0.620672,-0.091597
-0.320001,0.100142,-0.141261,-0.082636,0.916532,0.391331
0.438104,0.043273,0.637280,-0.283054,0.776891,0.562423
0.250548,0.205901,0.292749,0.111593,0.112158,0.987404
0.051944,-0.695329,0.713048,0.864266,-0.430266,0.260605
-0.122594,0.019428,0.822849,0.817080,0.485277,0.311266
-0.898770,0.023459,0.359024,0.230891,0.329597,-0.915453
-0.129191,0.459193,0.131507,0.896972,-0.171546,0.407447
-0.056651,-0.114208,0.883702,-0.155721,-0.580319,0.799363
0.034728,0.149376,0.936070,-0.555890,-0.255327,-0.791072
-0.498651,0.108376,-0.160362,-0.480843,-0.178090,0.858530
0.136473,-0.214307,0.945645,0.807380,0.581353,-0.100832
0.672248,0.604924,0.282197,-0.527713,-0.344479,-0.776436
0.348438,0.118926,0.420381,-0.590522,0.710368,-0.382962
0.075322,-0.672685,0.693964,0.809100,0.375201,-0.452307
-0.223996,-0.274864,0.598899,-0.176776,-0.656027,0.733743
-0.713185,-0.495647,0.554217,-0.381730,0.642677,-0.664266
0.244124,-0.754685,0.608262,0.966434,0.249952,0.059411
-0.340040,0.226401,0.832848,0.867997,-0.019899,0.496171
0.108382,-0.019942,0.769716,-0.167227,-0.863621,0.475598
0.687749,0.289446,0.562473,0.321449,-0.946773,-0.017049
-0.474242,0.166617,-0.066356,-0.126491,-0.485200,0.865206
-0.088680,-0.041300,0.895231,0.521122,0.377254,0.765579
-0.786835,0.167989,0.615330,0.938536,0.343563,0.033374
-0.025050,-0.087018,0.970396,0.640621,-0.767856,-0.001310
0.171842,-0.234978,0.693247,0.251788,0.816186,0.520042
-0.276579,0.281211,0.768136,0.925994,0.321208,0.198396
0.140584,-0.238839,0.950807,0.781291,0.589300,-0.205694
-0.270414,0.539907,0.645731,0.855571,0.471488,-0.213772
-0.115146,-0.633229,0.697595,-0.091837,-0.891386,0.443843
0.045091,-0.235236,0.865692,0.462910,0.773104,0.433619
0.406159,0.084102,0.345834,-0.295223,0.921887,0.250932
0.271274,-0.185573,0.869942,0.135061,0.990819,-0.006001
-0.107608,0.408500,0.703669,-0.180862,-0.798479,0.574213
-0.273155,-0.371188,0.727069,0.771824,0.372719,0.515140
0.113690,-0.048419,0.875299,0.963156,-0.229831,0.139673
-0.809103,-0.296221,0.622641,-0.557115,0.028873,-0.829933
-0.443668,-0.602779,0.624400,0.519342,0.110944,0.847334
-0.142465,-0.239096,0.431568,-0.685266,-0.663354,-0.300621
-0.255427,-0.686237,0.678999,0.171851,0.252588,0.952190
-0.673359,0.212592,0.357770,0.904645,-0.176019,-0.388116
-0.314947,-0.379594,0.737067,-0.085663,0.978742,-0.186348
-0.515265,-0.320410,0.614694,0.956693,-0.281180,-0.075342
-0.393908,0.067633,0.243914,-0.063424,-0.031885,0.997477
-0.304414,0.160613,-0.070704,-0.288912,-0.502212,0.815054
-0.208409,-0.224171,0.009901,-0.134246,0.405920,0.903995
-0.157196,-0.027147,0.433033,0.021903,0.955784,0.293252
0.334220,0.043273,0.335917,-0.209164,0.954642,0.211917
-0.174239,-0.069176,-0.966846,0.755860,0.353382,0.551178
-0.106152,-0.430115,0.901809,0.947985,-0.275789,-0.158946
0.449581,-0.388514,0.652017,0.697885,0.567751,-0.436594
-0.760287,0.166359,0.631418,-0.456659,-0.161744,0.874815
-0.211749,-0.023545,-0.577502,0.997328,0.009237,-0.072474
-0.183831,0.205987,0.659426,0.969660,0.236697,0.061109
0.117887,-0.657589,0.659865,-0.286603,0.549582,0.784741
-0.295164,-0.051422,-0.934474,0.957908,0.267340,-0.104607
-0.844217,-0.253763,0.627884,0.950770,-0.145307,-0.273721
0.060765,-0.568040,0.690642,0.398495,0.342663,0.850755
-0.286942,-0.636488,0.403136,-0.657719,0.743801,0.119022
-0.666681,0.194922,0.554331,-0.358213,-0.703286,0.614062
0.119343,-0.686666,0.380697,0.898005,0.425088,-0.113520
0.216205,-0.627653,0.586996,0.792842,0.566413,-0.224897
0.382521,-0.056740,0.650779,-0.705482,0.223143,-0.672683
0.252945,-0.786765,0.400743,0.463838,0.884998,-0.040397
0.021111,-0.247416,0.933969,0.108447,-0.828293,0.549700
-0.266133,0.523009,0.669196,0.945865,-0.011342,-0.324362
-0.024020,-0.236437,0.865024,0.561687,-0.121458,-0.818386
0.367192,0.178196,0.435085,-0.466685,0.711076,-0.525904
-0.429965,-0.057769,-0.157284,-0.478843,0.111375,-0.870807
0.751555,-0.221769,0.492843,-0.250549,0.869313,-0.426052
0.243954,0.098255,0.549071,-0.387963,0.822444,0.416016
-0.641588,-0.268344,0.680578,-0.043710,0.873669,0.484553
-0.483578,0.119612,0.362020,-0.705577,0.572454,-0.417682
-0.359054,0.303513,-0.054681,0.140822,-0.270827,0.952272
-0.640558,0.134194,0.612708,0.271025,0.861224,-0.429928
-0.384831,-0.679804,0.447444,0.946105,-0.187359,-0.264163
-0.268187,0.144058,0.810979,-0.684635,-0.728662,0.018058
0.266305,-0.683407,0.443813,0.375986,0.882710,0.281883
0.310496,0.181885,0.289622,0.162281,-0.141426,0.976557
-0.652377,0.152807,0.535360,0.679944,0.687510,0.254963
0.301848,0.448128,0.290095,0.552349,-0.327463,-0.766602
-0.171241,-0.236522,0.800752,0.550102,-0.732533,-0.400977
-0.573159,0.171677,0.336096,0.176948,0.397681,0.900300
0.333705,-0.194836,0.857762,0.454708,0.804328,0.382488
0.002785,0.336965,0.523131,0.909105,0.329599,-0.254739
-0.102726,-0.322297,0.887805,0.812144,0.542271,0.215324
0.275555,-0.695329,0.593884,-0.273050,-0.607301,0.746076
-0.017685,-0.005361,0.989627,0.808857,-0.574850,-0.123682
-0.083456,0.124759,0.671834,0.853790,0.185291,0.486529
-0.336530,-0.212763,0.760401,0.347725,-0.219685,0.911496
-0.500961,-0.315692,0.397877,-0.326966,0.728540,-0.601933
-0.218429,-0.475833,0.354073,-0.730832,0.628421,-0.266405
-0.393310,-0.591199,0.626679,-0.655622,0.237953,-0.716616
0.701452,0.360038,0.442234,0.833638,-0.549673,0.053923
0.302276,0.459708,0.284460,-0.613006,0.191399,0.766545
0.343811,-0.066346,0.465959,-0.345170,0.923244,0.168752
-0.415747,-0.492645,0.588559,-0.659846,0.613138,-0.434357
-0.440585,0.174680,-0.314553,-0.008729,-0.854603,0.519209
-0.120540,-0.439636,0.297439,0.131023,0.939224,0.317319
-0.550293,-0.581592,0.635131,-0.087624,0.345826,0.934198
-0.281976,-0.667539,0.578170,0.606326,-0.365319,-0.706336
-0.518004,-0.401038,0.730032,-0.184666,0.876347,0.444876
-0.122511,0.513317,0.550651,0.482732,0.733266,-0.478844
0.011948,-0.069520,0.987266,-0.571852,0.778020,0.260135
-0.535732,-0.411417,0.650861,0.688508,0.689617,0.224468
-0.014857,0.047562,0.406654,0.896887,-0.229780,0.377881
-0.418576,0.401210,0.394604,0.733263,-0.379475,0.564202
0.265364,-0.993910,0.603377,0.118379,-0.042977,-0.992038
0.346809,0.335764,0.512335,0.084685,0.962951,0.256035
-0.042948,0.154351,0.114540,0.097140,0.380405,-0.919704
0.047148,0.236952,-0.300842,0.364202,-0.627359,0.688315
0.485977,0.292705,0.440849,-0.520679,0.724911,0.450997
0.085001,-0.067290,0.644852,0.289634,-0.917038,0.274140
-0.640817,0.246987,0.233330,-0.676677,-0.339552,0.653309
0.635509,0.157782,0.654003,-0.228534,-0.144486,0.962754
-0.679354,0.093022,0.625002,-0.128842,-0.959355,0.251074
-0.771248,0.250418,0.560828,0.656692,0.733949,-0.173421
0.107867,-0.056568,0.815587,-0.132784,0.433305,0.891412
0.100930,0.067719,-0.050610,0.420103,-0.152262,-0.894612
-0.393054,0.159669,-0.331553,-0.135935,0.621022,-0.771916
-0.638331,0.161642,0.525150,0.726586,0.680330,0.096042
-0.176293,0.124073,0.319829,-0.681213,-0.442535,-0.583191
0.083717,0.054338,0.888522,-0.638380,0.412894,-0.649607
0.320004,-0.202213,0.869453,0.553080,0.822014,0.135628
-0.525971,0.281297,-0.323313,-0.398427,0.235234,-0.886522
-0.132615,0.006905,0.896419,0.132428,-0.159739,0.978236
-0.281718,-0.574645,0.459462,-0.464380,-0.404480,-0.787875
0.933887,-0.498305,0.520819,0.124265,0.969882,-0.209492
0.200103,-0.291847,0.824999,0.359962,-0.742346,0.565111
-0.015199,-0.634086,0.739640,-0.472353,0.218194,-0.853975
0.052372,0.808638,0.151813,-0.793869,0.594583,0.127448
-0.082771,-0.366899,0.004218,0.757661,0.174186,0.628975
0.079776,-0.177167,0.833010,0.748673,0.543110,0.380159
-0.068041,0.071407,0.815554,-0.410992,0.877663,0.246565
-0.010918,0.253335,0.861833,0.771031,-0.339838,-0.538536
-0.050485,-0.292104,0.867581,0.990314,0.095897,-0.100407
-0.235472,0.563066,0.361499,-0.608307,-0.771544,-0.186233
0.074039,-0.205301,0.745713,-0.673036,-0.673557,0.305522
0.991009,-0.187202,0.521959,-0.407089,0.536510,-0.739213
-0.246949,0.157525,0.854342,-0.678608,-0.731098,-0.070618
-0.061619,-0.322297,0.865171,0.849995,-0.367975,-0.376966
-0.813986,0.038727,0.363616,0.295492,0.865776,-0.403877
0.155912,0.624909,0.420478,0.811131,-0.508462,0.289020
-0.206096,0.093537,0.111283,0.913404,-0.096638,-0.395417
-0.027360,-0.179997,0.820765,0.932999,-0.129208,0.335884
-0.032501,-0.437406,0.879956,0.821206,0.024659,0.570099
-0.060762,-0.043873,0.895589,0.301338,-0.340458,-0.890665
-0.195563,0.407128,0.333084,-0.185623,-0.744800,0.640950
0.073783,-0.277608,0.726971,0.845279,0.488858,-0.215687
0.110951,-0.134280,0.891664,-0.143225,0.004075,0.989682
-0.077121,-0.016940,0.293498,-0.154148,-0.723791,0.672581
-0.096132,0.139941,0.516552,0.068865,0.352604,0.933235
0.173471,-0.274521,0.359252,0.517118,0.853393,0.065652
0.172441,-0.329245,0.756591,0.681347,0.729151,-0.064080
-0.607844,-0.109833,0.359138,-0.079155,0.240018,0.967536
-0.047744,-0.214393,0.849685,0.955452,-0.226792,0.188885
-0.178433,0.204014,0.635245,0.945572,0.304645,-0.114391
-0.521261,-0.539392,0.611519,0.845689,-0.527107,0.083478
-0.325226,0.286358,0.543274,0.790126,0.588135,-0.172621
-0.332332,0.110263,0.900295,0.446090,0.771086,0.454346
0.228367,-0.407471,0.692873,0.900310,0.433004,0.044163
-0.523830,-0.472316,0.748628,0.278228,-0.788057,-0.549140
-0.026592,-0.653214,0.682060,0.125714,0.414955,-0.901115
-0.235985,-0.047819,-0.812053,0.602640,-0.792051,0.097364
0.619406,0.339195,0.453648,-0.341930,0.857222,-0.385038
-0.319400,-0.405927,0.819804,0.086096,-0.723422,-0.685017
-0.224082,-0.410816,0.650323,-0.398904,0.524720,0.752027
-0.212690,0.585024,0.680497,0.807260,0.590191,-0.002469
-0.634821,0.073294,0.620540,0.005274,-0.949097,0.314938
0.109665,0.257280,0.145870,0.912900,0.038696,0.406345
-0.305098,-0.154351,-0.764879,-0.539153,0.799439,0.264974
-0.182289,-0.039242,-0.200567,0.970808,0.225734,-0.081088
-0.123282,0.083330,0.776848,0.697509,0.582441,-0.417426
-0.626343,0.101257,-0.140854,0.173961,0.955160,-0.239599
-0.715667,-0.457134,0.532592,0.806126,-0.569347,0.161260
0.208840,-0.413218,0.729951,-0.694167,-0.716521,-0.068771
0.596713,-0.459279,0.656495,0.239834,0.058495,0.969050
-0.358797,-0.706394,0.457915,0.816142,0.360103,-0.451927
-0.078919,0.606124,0.136083,0.838504,-0.368975,0.400959
0.011007,-0.578676,0.718129,0.179031,-0.756661,0.628818
0.293197,0.250504,0.287147,-0.478972,-0.284286,-0.830522
0.386633,-0.029206,0.752976,0.066558,-0.997771,-0.004766
0.599196,0.255908,0.572780,-0.806215,0.418448,-0.418232
-0.228792,-0.309345,0.009200,-0.382181,-0.306531,-0.871766
0.072497,-0.645494,0.693394,-0.733377,-0.165363,0.659403
-0.673787,-0.513145,0.487649,0.029145,0.966929,0.253376
0.117289,0.001330,0.384198,0.030959,-0.664442,0.746699
0.153001,-0.412618,0.634365,0.793549,0.556837,0.245384
-0.125336,-0.524381,0.369429,0.923740,-0.382908,0.009213
-0.285486,-0.476948,0.604191,0.711964,0.581098,0.394249
0.291398,-1.000000,0.603589,0.820127,-0.238577,-0.520070
-0.630538,0.545053,0.213903,0.568221,-0.534047,-0.626034
-0.051685,0.110006,0.402892,0.941487,0.051859,0.333036
-0.243094,0.251876,-0.288759,-0.607933,-0.743085,-0.279718
