-0.387309,-0.877528,-0.894771,0.151329,0.119223,-0.981267
0.253366,0.250737,0.232914,0.760442,-0.379418,0.527038
-0.996126,-0.939800,-0.962984,-0.549384,0.107214,0.828663
-0.562306,-0.710964,-0.899791,-0.411750,-0.126901,0.902418
-0.845950,-0.806873,-0.955808,-0.481534,0.009855,0.876372
-0.219642,0.216815,-0.231587,0.905601,0.422734,0.034388
0.063571,-0.140146,-0.220537,0.974630,0.056265,-0.216636
0.335916,-0.033331,0.165772,0.828180,-0.560165,-0.018263
-0.011772,0.455916,0.043342,0.841667,0.323151,-0.432632
-0.871627,-0.778145,-0.944400,0.391397,0.018334,-0.920039
-0.650851,-0.669405,-0.923528,0.076546,-0.368693,0.926394
-0.317873,0.045602,-0.432165,0.553299,0.821860,0.135675
0.000648,0.302010,-0.202226,-0.269832,0.227441,-0.935661
-0.554515,-0.928705,-0.925932,0.566790,0.653048,0.502273
-0.702298,-0.838836,-0.912024,0.514783,-0.334075,-0.789552
-0.477289,-0.527086,-0.910906,0.444740,0.461095,-0.767853
-0.292857,0.036375,-0.373951,-0.021912,0.968030,0.249875
0.244949,0.124062,-0.203487,0.881322,-0.310286,0.356363
0.219233,0.105819,-0.227159,0.855020,0.432151,-0.286680
0.797661,0.938302,0.565647,-0.524162,0.850551,-0.042628
-0.130841,-0.199188,-0.504472,0.727555,-0.003466,0.686041
-0.492413,-0.077026,-0.582783,-0.693040,0.374454,0.616019
-0.891279,-0.708299,-0.970082,-0.247906,0.020409,0.968569
0.984766,0.608683,0.682502,-0.660716,0.007341,0.750600
-0.623344,-0.432752,-0.935959,-0.159606,0.310081,0.937217
-0.673367,-0.917450,-0.932130,0.214962,-0.228658,-0.949477
0.402515,0.657119,-0.095811,-0.515054,-0.118044,-0.848991
-0.350666,-0.335284,-0.614853,-0.573716,-0.010761,0.818984
-0.452683,-0.750634,-0.908877,0.094284,-0.001995,-0.995543
-0.344604,-0.100862,-0.516447,0.797832,0.413188,0.439021
-0.426479,-0.752058,-0.918151,-0.076827,-0.278597,0.957330
0.259772,0.422707,-0.115955,0.824577,0.496836,-0.270606
-0.018189,0.056684,-0.241706,0.023273,-0.547796,0.836288
-0.268925,-0.110909,-0.468864,0.250923,0.594655,-0.763821
0.076560,0.272721,-0.272543,0.952937,0.275891,0.125680
0.391125,-0.005660,0.169254,-0.821622,0.346304,-0.452782
-0.284828,-0.792755,-0.879642,0.041080,0.011509,0.999090
-0.827975,-0.824055,-0.944598,-0.209050,0.222046,0.952362
-0.688051,-0.790194,-0.931831,0.190553,0.122355,-0.974022
0.005415,0.249544,-0.157675,0.161380,-0.623240,0.765198
-0.875415,-0.608761,-0.947825,-0.050970,-0.092796,0.994380
-0.900736,-0.695609,-0.945200,-0.026664,0.097787,0.994850
0.112636,0.269053,-0.138222,0.630671,0.753084,-0.187400
-0.440369,-0.367126,-0.651925,-0.097332,0.942317,0.320258
-0.352212,-0.586900,-0.907713,0.642902,-0.029506,-0.765380
-0.848232,-0.634879,-0.965300,-0.112654,-0.031185,0.993145
0.839929,0.718928,0.907410,0.996482,-0.079854,-0.025432
0.337470,0.140709,0.194884,-0.540650,0.604067,-0.585492
-0.293156,-0.170315,-0.487728,0.998198,-0.051384,-0.031000
-0.493415,-0.825490,-0.916121,-0.063272,0.086278,0.994260
-0.844279,-0.649557,-0.966112,-0.180392,0.008519,0.983558
-0.670529,-0.351374,-0.951758,-0.013468,0.423378,0.905853
-0.326160,-0.315938,-0.600879,0.877120,0.020174,-0.479847
0.375410,-0.087601,-0.012151,-0.252734,-0.709307,0.658034
-0.821079,-0.568730,-0.956417,0.320702,0.259778,-0.910860
0.114045,0.280363,-0.096808,0.653227,0.644130,-0.397983
0.426358,0.456060,0.219706,0.316907,0.889696,0.328649
-0.309248,0.132326,-0.224730,-0.168700,-0.975341,-0.142304
-0.100203,-0.290845,-0.487703,-0.466180,-0.865591,-0.182834
-0.464337,-0.435920,-0.729786,0.523753,0.589459,-0.614997
-0.794058,-0.767613,-0.929101,-0.293805,-0.082157,0.952328
-0.674139,-0.669137,-0.913966,0.120523,-0.447433,0.886159
-0.440555,-0.298962,-0.895542,-0.505076,-0.587392,0.632352
0.072504,-0.033240,-0.291252,0.725249,0.688431,0.008731
-0.709511,-0.313817,-0.928519,-0.408620,-0.090169,0.908240
-0.459928,-0.807237,-0.909896,-0.156480,-0.050342,0.986397
-0.009569,0.063765,-0.282901,-0.434207,0.380125,0.816682
-0.872655,-0.697434,-0.956501,-0.362304,0.345187,0.865784
0.458623,0.441182,0.221577,0.377321,0.907638,0.183905
-0.740409,-0.284142,-0.944193,0.025441,0.513366,0.857792
0.892412,0.739997,0.637830,-0.800948,-0.048587,0.596759
-0.537062,-0.773686,-0.918129,-0.106911,-0.312498,0.943883
-0.294190,-0.652671,-0.870447,0.926000,0.300582,-0.228417
-0.379396,-0.650091,-0.886021,0.011064,0.231083,0.972871
0.324967,0.226397,0.154198,0.831176,0.054229,0.553359
0.866916,0.859409,0.924532,0.897935,0.402635,-0.177756
-0.363074,-0.103225,-0.700049,-0.665553,0.746350,0.001231
-0.478864,-0.077007,-0.539718,-0.469270,-0.822192,0.322159
-0.836580,-0.259032,-0.977307,0.314843,-0.052295,-0.947702
0.319519,-0.240366,-0.264495,0.007020,-0.855259,0.518152
0.097013,0.384048,0.070548,-0.066330,0.813261,0.578106
0.219897,0.331670,-0.044757,-0.333249,0.281892,0.899712
-0.740025,-0.678850,-0.895462,-0.126836,0.923486,-0.362057
-0.521400,-0.393528,-0.862967,-0.277241,-0.251097,0.927409
-0.503431,-0.277393,-0.920349,-0.484368,-0.762105,0.429632
-0.443421,-0.951470,-0.893413,-0.084774,0.172408,0.981371
0.643277,0.390853,0.181518,0.977330,0.043240,-0.207259
0.755906,0.971068,0.591417,-0.441952,0.896716,0.024066
-0.737828,-0.780839,-0.953329,0.350634,-0.044992,-0.935431
0.811360,0.725697,0.789115,0.949393,-0.044726,-0.310889
-0.414840,-0.866503,-0.881996,-0.602448,0.545146,0.582985
0.724727,0.487497,0.570716,0.041535,0.667263,0.743663
-0.666439,-0.705771,-0.912377,-0.239365,-0.356183,0.903238
-0.848878,-0.730912,-0.947601,0.225384,0.135401,0.964815
0.839854,0.789871,0.840333,0.847450,0.172613,-0.502030
0.443696,0.391923,0.147035,-0.335524,0.941795,0.021093
-0.854999,-0.325233,-0.967080,0.347960,-0.252954,-0.902739
0.306444,0.064126,-0.265807,0.339565,-0.554172,-0.759993
-0.320403,-0.999509,-0.891063,0.231862,0.764298,-0.601738
0.747220,0.908203,0.622986,-0.518333,0.854687,0.028984
-0.458605,-0.280793,-0.631434,-0.111048,-0.005466,0.993800
-0.426625,-0.580139,-0.920325,0.184237,0.387803,0.903142
-0.832904,-0.914158,-0.953996,0.001119,0.185828,0.982582
-0.149144,-0.895242,-0.861910,-0.101508,0.179326,0.978539
0.796102,0.709763,0.766549,0.983255,0.081331,-0.163078
0.601280,0.708001,0.387723,-0.359080,-0.798172,0.483718
0.232890,-0.091440,-0.132403,0.290852,0.944424,0.153196
-0.602255,-0.553129,-0.864197,0.092091,0.699509,-0.708665
0.287755,-0.054638,0.232330,0.860603,-0.137585,0.490340
-0.341212,-0.307898,-0.574421,-0.791672,-0.359934,0.493662
0.468049,0.465609,0.208988,0.544525,0.817815,0.186202
0.525158,0.631002,0.352445,-0.122082,-0.968913,0.215181
0.224605,0.298815,-0.019587,0.927656,0.051594,0.369854
-0.234881,-0.115353,-0.452435,0.311318,0.849674,0.425600
0.433785,0.056821,0.457035,-0.229845,0.943709,0.237876
0.085155,-0.043149,-0.042707,0.218650,0.256538,0.941478
-0.584600,-0.391005,-0.792898,-0.706406,0.358975,0.610022
0.506917,0.462596,0.244869,-0.773033,0.595711,-0.218057
0.099169,-0.115424,-0.210161,0.773108,0.491784,0.400564
-0.619107,-0.674862,-0.923039,0.908311,0.180699,-0.377252
0.418261,0.461936,0.221841,0.666385,0.662157,0.342752
-0.315986,-0.948072,-0.855315,0.045074,-0.038328,-0.998248
0.519540,0.390572,0.245412,0.492430,-0.425100,0.759475
-0.658509,-0.573114,-0.858070,-0.633941,0.705606,-0.316604
-0.474867,-0.750394,-0.907153,0.087504,-0.079209,0.993010
0.529314,0.496989,0.135141,0.920952,-0.279967,-0.271047
-0.094754,-0.001934,-0.544702,0.568539,0.451776,0.687504
0.107715,0.192998,-0.140362,0.780000,0.114672,-0.615183
-0.493166,0.243372,-0.197950,0.261862,0.568661,0.779778
0.221042,0.023335,-0.169087,-0.277163,0.232476,-0.932275
-0.434525,-0.613381,-0.882269,0.434028,-0.096723,-0.895692
-0.610856,-0.475400,-0.908200,0.323302,0.834728,0.445764
-0.284599,-0.427969,-0.404709,0.147801,-0.121312,0.981549
0.112512,0.031890,-0.140686,-0.413183,-0.549137,-0.726449
0.246694,0.596513,0.244946,-0.400452,-0.787018,-0.469297
-0.381156,-0.938011,-0.885865,0.085780,-0.018497,0.996142
-0.776442,-0.910337,-0.928606,0.387090,0.402085,0.829752
-0.613463,-0.748733,-0.919102,0.534727,-0.016484,-0.844864
0.509732,0.368332,0.197557,0.401546,-0.912593,-0.077039
0.058018,-0.023571,-0.258213,0.788658,0.575037,0.217604
-0.875699,-0.858649,-0.962730,0.111049,-0.265210,-0.957774
-0.173964,-0.061459,-0.451552,0.050733,-0.240585,0.969301
-0.648612,-0.642498,-0.911880,-0.030684,0.870234,0.491683
-0.366047,-0.025071,-0.444094,0.421157,-0.520154,0.743012
-0.019335,0.490821,0.043208,0.909598,0.406982,-0.083649
-0.488968,-0.724132,-0.885395,0.082695,-0.522777,0.848449
-0.348788,-0.009481,-0.462989,0.873389,0.027981,0.486218
-0.575665,-0.506082,-0.880389,0.914571,-0.364037,0.176171
0.231380,0.750361,0.217042,0.969865,0.241480,0.032405
0.009008,-0.064104,-0.030172,-0.865197,0.074606,-0.495851
-0.326188,-0.607930,-0.513183,0.551356,0.428274,-0.715953
-0.486511,-0.932114,-0.893836,-0.036357,0.337280,0.940702
0.304918,0.104824,-0.264199,-0.900331,0.199339,-0.386869
-0.543007,-0.682286,-0.899245,0.122325,-0.071773,0.989891
-0.359478,-0.864414,-0.879309,-0.477677,-0.173049,0.861324
-0.841107,-0.662383,-0.954907,-0.013252,-0.007616,0.999883
-0.763145,-0.906426,-0.937293,-0.207542,-0.113931,0.971569
0.058126,0.119251,-0.188219,-0.832419,0.253048,0.492996
0.263434,0.260940,0.204462,0.607546,-0.516641,0.603300
0.776500,0.929218,0.712534,-0.521025,0.853519,0.006164
-0.335036,-0.661789,-0.879419,-0.286841,-0.016399,0.957838
-0.381247,-0.191013,-0.608215,0.567559,-0.095241,-0.817806
-0.281180,-0.852551,-0.879040,0.050654,-0.186327,-0.981181
-0.825008,-0.834761,-0.947133,-0.238501,0.286111,0.928040
-0.174255,-0.929150,-0.859117,0.212168,-0.036031,-0.976569
-0.726918,-0.190607,-0.969741,-0.047666,0.088776,0.994910
-0.460783,-0.508255,-0.870314,-0.176924,-0.979863,-0.092559
0.412686,0.381972,0.212919,0.213004,0.972495,0.094250
0.406786,0.582262,0.342032,0.712925,0.505821,-0.485679
0.090693,0.023237,-0.142919,-0.693681,0.110666,-0.711730
-0.500896,-0.498586,-0.855635,-0.548128,-0.772928,0.319591
0.360569,0.913213,0.341041,-0.224964,-0.237601,0.944953
-0.398435,0.211577,-0.217291,0.014221,0.762436,0.646907
-0.494410,-0.728603,-0.892947,-0.271385,-0.209213,0.939457
-0.496670,-0.860321,-0.914831,-0.041632,-0.294112,0.954864
-0.919435,-0.555001,-0.955159,-0.399003,-0.008912,0.916906
0.076917,0.120513,-0.206128,-0.220243,0.737418,0.638520
0.328284,0.572661,0.212383,0.270690,0.751230,0.601981
-0.599814,-0.842630,-0.922400,-0.156257,0.014599,0.987608
0.181890,0.314374,0.067821,0.869635,-0.452891,0.196529
0.094835,0.257831,-0.174205,0.374588,0.633871,-0.676676
-0.681203,-0.629081,-0.901717,0.387380,-0.017756,0.921749
0.145227,0.024387,-0.062055,0.563249,-0.726642,-0.393372
-0.470931,-0.163423,-0.579855,-0.385020,-0.676040,0.628275
0.541542,0.551226,0.346660,0.196314,-0.228688,0.953500
-0.642477,-0.192094,-0.934251,0.286703,0.091937,-0.953598
-0.519779,-0.106597,-0.655726,-0.422884,-0.867234,0.262821
0.216198,0.294260,0.008030,0.774468,0.111372,0.622732
0.063991,-0.136976,-0.267624,0.933370,0.334709,-0.129577
-0.149679,-0.967300,-0.870803,-0.241638,-0.165333,0.956178
-0.088939,0.118392,-0.251045,-0.184665,-0.852921,-0.488287
-0.632897,-0.573974,-0.902516,-0.163519,-0.324238,0.931736
0.479366,0.611214,0.069593,0.906551,-0.370103,-0.202954
-0.039039,-0.233222,0.010197,0.137353,0.562672,0.815190
-0.348571,-0.297558,-0.673345,-0.068745,-0.268392,0.960854
0.599240,0.452558,0.298738,0.223971,0.895247,-0.385187
-0.692642,-0.482885,-0.895858,0.427631,-0.823765,-0.372215
-0.168324,0.144553,-0.185378,-0.457854,-0.253897,-0.852001
-0.420532,-0.555719,-0.888021,-0.339096,0.032805,0.940180
0.820384,0.737963,0.756698,0.956048,-0.007587,-0.293112
0.327198,0.632899,0.171910,0.940371,0.261918,0.217029
0.014234,0.057961,-0.266783,0.811257,-0.575886,0.101081
0.405864,0.429367,0.091516,-0.223046,-0.706731,-0.671402
0.321605,0.670993,0.179006,0.760392,0.615674,0.206763
-0.524022,-0.447850,-0.622192,-0.397585,0.489688,0.775971
-0.261096,-0.207319,-0.501208,0.156463,-0.603456,0.781896
0.300240,0.552141,-0.083166,0.056429,0.333412,0.941091
-0.446666,-0.829705,-0.893154,-0.010783,0.246352,0.969120
-0.471447,-0.703371,-0.897575,0.197956,-0.336065,0.920801
0.462071,-0.085311,0.004522,0.030085,0.987438,0.155116
0.526747,0.389852,0.194323,-0.284054,-0.908961,0.305128
0.384414,0.256251,0.132975,0.896028,-0.399045,0.194671
0.238994,0.109793,-0.220211,0.065558,0.103277,0.992490
-0.235321,-0.194666,-0.441140,-0.402960,-0.027277,-0.914811
-0.384215,-0.861344,-0.882695,0.092069,-0.007422,-0.995725
0.581385,0.681271,0.359755,0.796329,-0.356117,0.488917
0.433719,-0.108340,0.011372,-0.502221,-0.618196,0.604656
-0.324584,-0.712154,-0.894768,0.098397,-0.144072,-0.984663
0.349683,0.504854,0.153972,0.891136,-0.444269,0.092203
-0.274593,-0.008437,-0.494727,0.540594,0.358405,0.761120
0.422548,0.446671,0.120434,-0.217674,0.975359,-0.035945
-0.597856,-0.731167,-0.890222,-0.351261,-0.546623,0.760144
-0.591336,-0.738602,-0.932543,-0.330869,-0.053087,0.942182
-0.196566,0.079468,-0.190580,-0.498272,-0.864101,-0.071098
-0.407551,-0.156020,-0.618830,-0.695575,0.400997,0.596135
0.415801,0.149835,0.367281,0.966533,-0.125277,-0.223875
-0.351174,-0.384712,-0.608855,-0.778805,0.290877,0.555745
-0.762598,-0.273386,-0.950727,0.280025,-0.319892,-0.905127
-0.702057,-0.223684,-0.940407,-0.261621,0.181278,0.947994
0.330221,0.497164,0.284833,0.599454,0.561797,0.570122
0.326595,0.633941,0.204406,-0.682737,-0.147092,-0.715706
-0.227962,-0.001445,-0.421920,0.741994,-0.490492,0.457014
0.475369,0.441351,0.200586,0.518880,0.844926,0.129855
-0.207863,0.142145,-0.197340,-0.673888,-0.371966,-0.638369
-0.758228,-0.550406,-0.954508,0.240073,0.058536,-0.968988
-0.851747,-0.921056,-0.944703,-0.227490,0.114005,0.967084
-0.268203,-0.227152,-0.636780,0.057562,0.460571,0.885755
-0.853757,-0.285997,-0.978607,0.259959,-0.022718,-0.965352
0.223613,0.216287,-0.082262,-0.025803,0.949199,-0.313617
-0.631711,-0.135884,-0.936823,-0.394242,-0.213596,0.893840
0.314187,0.373562,0.075965,0.798208,0.091622,-0.595374
-0.693959,-0.603242,-0.934778,0.292040,-0.245210,-0.924437
-0.813199,-0.872309,-0.932778,0.248100,0.021934,-0.968486
-0.212976,-0.894046,-0.852053,-0.095753,0.257261,0.961586
0.343826,0.990170,0.360685,0.180622,-0.542875,0.820160
-0.816814,-0.361265,-0.972301,-0.416972,-0.265853,0.869170
-0.526743,-0.205242,-0.629487,0.099355,-0.776271,0.622520
0.772821,0.800030,0.376762,-0.779420,0.560355,-0.280192
-0.585592,-0.417481,-0.810584,0.558746,0.438795,-0.703749
-0.363297,-0.083558,-0.445799,-0.664854,0.472744,-0.578344
0.503043,0.254860,0.283695,0.572847,0.795047,0.199365
-0.162826,-0.133995,-0.391424,-0.255611,0.490172,0.833303
-0.960350,-0.571786,-0.959864,0.155258,-0.219464,0.963188
-0.451241,-0.570087,-0.914755,-0.156471,-0.230683,-0.960366
-0.362213,-0.773930,-0.896091,-0.094977,0.180795,0.978924
0.425459,-0.170487,-0.035693,0.360555,0.570567,-0.737870
-0.477951,-0.348951,-0.886573,0.174293,-0.800195,0.573855
0.811144,0.806426,0.804354,-0.541943,-0.653834,0.528014
0.050331,0.342991,-0.140715,0.459394,0.405683,-0.790176
0.021822,-0.094310,-0.033613,-0.486672,-0.192292,-0.852158
-0.744863,-0.408417,-0.952451,-0.251753,-0.080339,0.964451
0.590849,0.496959,0.223435,0.662748,-0.494147,0.562658
-0.651590,-0.206919,-0.940492,-0.332720,-0.290633,0.897123
0.375185,-0.004037,0.020252,-0.689741,-0.723310,0.032870
-0.635311,-0.637958,-0.928730,0.205884,0.315458,0.926336
-0.458967,-0.700944,-0.908914,-0.241309,-0.288777,0.926487
0.792630,0.621709,0.591251,-0.108607,-0.849193,0.516793
-0.550266,-0.631745,-0.922181,-0.056027,-0.145268,0.987805
0.190987,0.095997,-0.171089,0.228434,0.018161,0.973390
-0.794811,-0.561107,-0.928413,-0.573278,0.538262,0.617759
-0.813022,-0.635031,-0.964858,0.276907,-0.121928,-0.953130
-0.348038,-0.495934,-0.467954,0.941435,0.275930,0.193809
0.368785,0.421433,0.027461,0.845537,-0.370119,-0.384811
-0.684443,-0.700220,-0.904774,0.001905,-0.631047,0.775743
-0.782163,-0.622744,-0.939679,0.027643,0.116340,0.992825
-0.806573,-0.322718,-0.953237,-0.127374,0.290856,0.948250
0.083081,0.154362,-0.165905,0.767171,-0.003158,-0.641435
-0.308795,-0.244016,-0.587084,0.249828,0.664198,-0.704576
-0.654617,-0.879189,-0.901944,-0.158267,0.213458,0.964047
-0.766113,-0.404673,-0.962359,-0.554532,0.137549,0.820716
0.414263,0.037764,0.497527,0.080395,0.979688,0.183709
0.952616,0.786917,0.686357,0.869247,0.241513,-0.431371
-0.429634,-0.565380,-0.912092,0.056023,0.455712,0.888362
0.030024,-0.015718,-0.215080,0.749025,0.637741,-0.179576
-0.473194,-0.688500,-0.896081,0.111727,-0.461768,0.879936
-0.598028,-0.899559,-0.900852,0.078466,0.117210,0.990003
-0.879080,-0.246704,-0.970043,-0.306738,0.146919,0.940386
0.185071,0.167930,-0.132068,0.995246,0.095818,-0.017469
-0.185879,-0.018599,-0.512855,0.208762,0.139697,0.967938
0.374045,0.619294,-0.108791,0.221326,0.253411,0.941699
-0.019757,0.473624,0.044533,0.944950,0.143637,-0.294004
0.483634,0.076918,0.366266,0.927498,-0.360498,0.098934
-0.013805,0.509605,0.003228,0.950279,0.175713,-0.257088
0.636626,0.473862,0.284301,-0.095600,-0.912108,0.398647
-0.774273,-0.661039,-0.959107,-0.028860,0.107859,0.993747
-0.141118,-0.140394,-0.501295,-0.556614,0.345522,-0.755510
0.352050,0.338701,0.234534,0.663362,-0.636534,0.393415
-0.342118,-0.540878,-0.445303,0.953408,0.238779,0.184387
-0.814988,-0.500021,-0.977665,-0.173123,0.003102,0.984895
-0.390214,-0.383622,-0.675060,0.788675,-0.271320,-0.551704
-0.416780,-0.372108,-0.888090,-0.538675,-0.484453,0.689300
-0.308460,-0.760468,-0.882797,-0.136764,0.078884,0.987458
-0.555451,-0.196060,-0.631112,0.551325,0.563416,0.615308
0.311542,0.171115,0.256642,-0.759415,0.649520,0.037586
-0.841542,-0.833089,-0.953366,-0.242211,0.291901,0.925272
-0.252152,-0.252791,-0.464963,-0.416854,0.488610,0.766481
0.940267,0.839488,0.671242,0.861368,0.179628,-0.475161
-0.914598,-0.779978,-0.957273,-0.087469,-0.012563,0.996088
-0.005293,0.393399,-0.101608,0.098616,0.992534,-0.071770
-0.885364,-0.589861,-0.956941,0.354236,0.091837,-0.930636
-0.771804,-0.292177,-0.957502,-0.083521,-0.037610,0.995796
0.838563,0.255424,0.444050,-0.101071,-0.210292,0.972400
0.265597,0.738733,0.177692,0.773182,0.525009,0.355747
-0.706309,-0.803235,-0.929762,-0.153551,0.032989,0.987590
0.094371,0.322701,-0.182438,-0.656767,-0.738008,-0.154924
0.889564,0.725067,0.672306,0.733798,-0.215129,-0.644407
-0.689814,-0.822186,-0.927694,0.362171,-0.406359,-0.838871
-0.891001,-0.609131,-0.984486,-0.333625,-0.131615,0.933473
-0.260831,-0.916504,-0.878587,0.087613,0.139510,0.986337
0.407922,0.752619,0.362028,0.847560,0.177083,0.500284
0.168486,0.024825,-0.223557,0.770927,0.512426,-0.378274
-0.889930,-0.313010,-0.959273,-0.256769,0.221121,0.940837
0.701001,0.524628,0.562499,-0.581480,-0.088278,-0.808757
-0.695402,-0.393895,-0.912207,-0.368744,0.047694,0.928307
0.480943,0.393685,0.220462,0.132283,0.158119,0.978519
0.881848,0.774254,0.642299,0.770031,-0.218771,-0.599326
-0.464795,-0.286845,-0.641032,0.913087,-0.326334,-0.244494
0.609904,0.453435,0.294332,-0.065897,-0.884267,0.462308
-0.979085,-0.809504,-0.970540,-0.872781,0.207252,0.441927
0.267732,0.230189,0.234263,-0.697589,0.061919,-0.713817
-0.217686,-0.896146,-0.880735,-0.164657,0.093878,0.981873
-0.629909,-0.501552,-0.875155,0.774730,-0.054426,0.629945
-0.906863,-0.666909,-0.971432,-0.246565,-0.081201,0.965718
0.501523,0.276584,0.288117,0.368339,0.581751,0.725184
0.230082,0.044644,-0.164941,-0.540870,-0.564380,-0.623646
-0.981487,-0.824625,-0.964669,-0.218499,0.140343,0.965692
0.580987,0.603754,0.437633,-0.329299,-0.089545,-0.939970
0.607810,0.730680,0.617754,0.925736,0.205673,-0.317351
0.545134,0.577911,0.331929,0.492885,0.869529,-0.031368
-0.948510,-0.900932,-0.946893,-0.045913,0.244557,0.968547
-0.600199,-0.630076,-0.898778,0.535017,0.288595,-0.794021
-0.760070,-0.592185,-0.962338,-0.128357,0.050368,0.990448
-0.715844,-0.709071,-0.935794,-0.232773,0.047418,0.971374
-0.457048,-0.367257,-0.903598,-0.078138,-0.613462,0.785849
0.712460,0.509785,0.398243,0.931178,0.359942,-0.057877
0.220302,0.223009,-0.204294,0.606675,-0.664242,0.436723
-0.646092,-0.657588,-0.907189,-0.088328,0.730939,-0.676702
-0.211124,-0.018152,-0.395546,0.210981,0.909498,0.358190
-0.336643,-0.662006,-0.870450,-0.230434,-0.211939,0.949727
0.692697,0.532753,0.398603,0.866374,0.341310,0.364559
-0.595091,-0.688200,-0.910686,-0.297576,-0.242534,0.923377
-0.862435,-0.653920,-0.950634,-0.468141,-0.200395,0.860631
-0.201060,-0.310997,-0.456054,-0.749099,-0.042412,-0.661099
-0.784964,-0.910948,-0.919707,-0.459863,-0.024671,0.887647
-0.615526,-0.783689,-0.918371,0.132952,0.187940,0.973141
0.094943,-0.215291,-0.254178,0.483434,0.139721,-0.864158
0.681851,0.410900,0.304212,0.729935,0.082834,0.678479
-0.402279,-0.929501,-0.891624,-0.452168,0.091782,0.887198
-0.752179,-0.436144,-0.965832,0.347646,-0.097243,-0.932570
-0.612840,-0.485617,-0.865292,-0.294059,0.277187,0.914711
-0.082025,-0.283061,-0.505747,0.393677,0.788650,0.472282
0.596042,0.696026,0.382404,0.599926,0.688394,-0.407679
-0.309051,-0.064112,-0.436259,0.070059,0.709334,-0.701383
0.524737,0.178715,0.285775,0.053659,-0.613770,0.787659
-0.788843,-0.235793,-0.970341,-0.216101,0.085764,0.972597
-0.041062,0.490128,0.047775,0.775693,0.627914,0.063429
-0.793105,-0.225787,-0.959496,-0.293237,0.340143,0.893485
-0.553667,-0.497330,-0.893972,-0.702822,0.212517,-0.678880
-0.718689,-0.645185,-0.955908,0.417705,-0.039494,-0.907724
-0.423612,-0.393307,-0.898733,-0.497370,-0.407671,0.765785
0.359270,0.922091,0.357641,0.170154,-0.515914,0.839571
-0.564172,-0.364971,-0.932395,-0.128347,0.001372,0.991728
-0.832104,-0.729020,-0.955545,-0.520945,0.095884,0.848188
-0.823133,-0.476006,-0.955695,-0.236114,-0.070372,0.969174
-0.511555,-0.916960,-0.892058,-0.250215,0.205449,0.946141
0.584732,0.440929,0.262474,0.622128,0.698591,-0.353452
-0.528316,-0.688259,-0.923729,0.025001,0.169806,0.985160
-0.516677,-0.820078,-0.906597,-0.135945,-0.036014,0.990062
-0.699602,-0.328443,-0.950910,0.013554,0.514182,0.857574
-0.720430,-0.930666,-0.922441,0.312638,0.141007,-0.939348
0.106969,-0.130326,-0.247367,-0.364518,-0.340854,0.866571
-0.449604,-0.839225,-0.913757,0.358004,-0.263758,-0.895692
0.563840,0.510451,0.285052,-0.617732,0.283549,0.733490
-0.573664,-0.727006,-0.909281,0.271580,0.660152,-0.700317
0.334409,0.611966,0.188038,0.983858,0.045875,0.172972
-0.163981,-0.950669,-0.857673,-0.164071,0.029389,0.986011
0.058008,0.497903,0.134006,0.971020,0.191510,0.142985
0.176829,0.118908,-0.166170,0.095502,-0.142641,0.985156
-0.834985,-0.245759,-0.953788,-0.419044,0.207887,0.883847
0.136853,-0.185774,-0.260799,-0.136190,-0.972582,-0.188512
-0.889219,-0.885240,-0.947367,-0.390435,-0.014842,0.920511
-0.240836,-0.880029,-0.862625,0.095842,0.219103,0.970983
-0.602848,-0.857868,-0.899659,-0.273818,0.137982,-0.951832
0.206834,0.145438,0.229516,-0.420330,-0.745501,0.517254
-0.360763,-0.156644,-0.599040,0.602630,0.179321,-0.777612
0.293729,0.626037,0.214906,-0.351859,-0.133795,-0.926442
-0.462117,-0.278401,-0.738273,0.895066,-0.072733,0.439962
-0.810715,-0.149346,-0.963866,-0.293314,0.026985,0.955635
-0.494943,-0.388853,-0.746909,0.161108,0.735403,-0.658199
-0.181523,-0.116095,-0.438447,-0.003312,-0.805169,0.593036
-0.473826,-0.692353,-0.917456,0.187547,0.338612,-0.922045
0.261969,0.016339,-0.189077,0.108677,-0.634417,0.765313
-0.360365,-0.247985,-0.590396,0.484324,0.514675,-0.707488
-0.792468,-0.408220,-0.968733,-0.150621,-0.109594,-0.982498
0.795283,0.705638,0.558481,-0.650461,0.730892,-0.206632
-0.501456,-0.359716,-0.640212,0.824199,-0.534015,0.188479
-0.732784,-0.907622,-0.947034,-0.035258,0.003157,0.999373
0.799635,0.843178,0.820822,0.732751,0.588120,-0.342331
-0.410779,-0.667934,-0.888004,-0.337296,-0.181104,0.923814
0.241587,0.251433,-0.018207,0.601411,0.311900,-0.735543
0.537738,0.613153,0.071633,0.209727,0.925555,-0.315220
0.859354,0.775365,0.912812,0.861287,-0.497062,0.105421
0.463144,0.014838,0.371229,0.951159,-0.287429,0.112609
-0.616612,-0.652802,-0.889333,0.243604,-0.666031,0.705025
0.782754,0.715700,0.565132,-0.575762,0.806817,-0.132457
-0.928038,-0.759874,-0.960370,-0.267805,0.071858,0.960790
0.201469,0.323130,-0.171592,-0.160645,-0.314096,0.935701
0.074111,-0.115011,-0.238468,-0.165601,0.597975,0.784221
-0.810316,-0.871587,-0.932668,-0.207852,-0.031810,0.977643
-0.391459,-0.870031,-0.904112,-0.031152,0.014863,0.999404
-0.159912,0.006177,-0.404996,0.913735,0.259172,0.312919
-0.245969,0.141998,-0.228712,-0.236096,0.677427,0.696671
0.310445,0.215245,0.051116,0.902379,0.357564,-0.240540
0.787121,0.602757,0.541179,0.902513,0.430487,-0.012263
-0.260704,-0.222860,-0.364462,0.875994,-0.409894,0.254208
0.411678,0.317120,0.130574,-0.501604,0.834268,0.228888
0.696404,0.265556,0.298340,-0.428444,-0.766720,0.478097
-0.288346,0.095582,-0.143185,0.288308,0.576452,0.764580
-0.566803,-0.405076,-0.787909,-0.622662,-0.272151,0.733639
0.231286,0.270201,0.287999,0.123028,0.235881,0.963963
0.417794,0.734252,0.413715,-0.496831,0.053796,0.866178
0.349159,-0.039900,0.125617,-0.666816,0.638812,-0.383765
-0.564672,-0.494798,-0.827233,-0.710080,-0.635304,0.303603
-0.060352,0.276963,-0.176178,-0.058907,-0.601968,0.796344
-0.321967,-0.955909,-0.871572,-0.157777,0.095667,0.982830
0.020729,0.067346,-0.207852,0.633118,-0.019422,-0.773812
-0.953838,-0.834062,-0.951574,0.137322,-0.106194,-0.984818
-0.477417,0.000236,-0.520570,0.769336,0.539061,-0.342833
0.840791,0.665819,0.952737,-0.369168,0.431813,0.822953
-0.869683,-0.493925,-0.968766,-0.238952,0.264634,0.934276
0.718043,0.400078,0.227392,0.351346,-0.935950,-0.023537
-0.139898,0.104257,-0.234503,-0.177871,0.983524,0.032293
0.138278,0.068243,-0.495185,0.729478,0.416928,0.542248
0.447646,0.521639,0.107977,0.232865,0.497282,-0.835754
-0.412779,-0.872270,-0.883495,0.710175,-0.150812,-0.687683
-0.130034,-0.210422,-0.471195,-0.741662,-0.223054,0.632602
0.906046,0.700249,0.639508,0.872785,0.047991,-0.485740
-0.463645,-0.719599,-0.920157,0.396077,0.011932,-0.918140
0.550669,0.543591,0.439508,0.498327,0.798743,0.337164
-0.830785,-0.669813,-0.960734,-0.395262,0.149530,0.906316
0.481829,0.530763,-0.026631,-0.355680,0.874460,-0.329867
0.345842,0.386076,0.076844,-0.695504,0.216135,0.685245
0.601531,0.585275,0.382152,-0.579909,0.062798,-0.812258
-0.256984,-0.169269,-0.452271,0.925019,-0.029429,-0.378779
-0.398881,-0.547200,-0.906631,0.144611,0.063920,-0.987422
-0.300399,-0.401500,-0.569183,0.637741,0.595957,0.487976
0.573659,0.512143,0.163887,0.370607,0.646833,-0.666527
0.223166,0.279320,-0.008163,-0.408314,-0.838612,-0.360568
0.158909,-0.355305,-0.320320,0.960907,0.012788,-0.276577
0.479315,0.083387,0.416017,-0.274083,0.861884,0.426655
-0.539702,-0.822682,-0.918531,-0.125430,-0.166920,0.977960
-0.698000,-0.130022,-0.961005,0.502721,-0.120990,-0.855940
-0.511028,-0.382881,-0.728291,0.427328,0.655305,-0.622869
0.649776,0.278262,0.350170,-0.552400,0.618357,0.559007
-0.732262,-0.608605,-0.907909,0.400587,0.730212,0.553462
0.589701,0.464721,0.283787,-0.425801,-0.886316,-0.182034
0.828845,0.731893,0.841335,-0.741023,-0.564403,-0.363778
0.591822,0.580911,0.332944,0.372412,0.909201,0.186181
0.226324,0.257130,-0.038951,0.789918,-0.540983,-0.288734
-0.375238,-0.953006,-0.895757,0.406297,-0.337735,-0.849034
0.209040,0.150083,-0.065770,0.961695,-0.202509,-0.184750
-0.502025,-0.395589,-0.902381,0.186085,0.637425,-0.747704
-0.369550,-0.583624,-0.913716,-0.348519,-0.079671,0.933910
-0.381622,-0.451648,-0.874271,0.748502,0.472560,-0.465222
0.612318,0.787401,0.615758,0.941765,0.049515,-0.332606
-0.373815,0.160968,-0.186445,-0.214544,0.300336,-0.929392
0.507141,0.699826,0.419892,0.894940,0.408203,-0.180148
-0.550323,-0.012554,-0.475037,-0.115678,0.993016,0.023187
-0.182065,0.056957,-0.520246,0.890138,-0.379488,-0.252276
-0.752107,-0.403504,-0.953704,-0.352849,-0.113854,0.928728
-0.188312,-0.963904,-0.841955,-0.405764,0.273314,0.872155
-0.480051,-0.474971,-0.910224,0.192037,0.273263,0.942576
-0.763327,-0.734594,-0.941439,0.377582,-0.104732,-0.920034
-0.970302,-0.902443,-0.962851,-0.011629,0.174020,0.984674
0.718488,0.639260,0.508606,0.669980,0.693246,-0.265586
-0.602612,-0.658167,-0.931398,0.446518,-0.018954,-0.894574
0.668507,0.639502,0.282415,0.664854,-0.722856,0.188276
0.250973,0.446725,0.323801,0.401155,0.384910,0.831215
-0.480691,-0.504764,-0.902441,-0.042266,0.064766,0.997005
-0.810219,-0.283049,-0.980951,-0.240346,0.032644,0.970138
-0.700578,-0.780117,-0.926833,0.413807,-0.161816,-0.895868
-0.224624,-0.011882,-0.394701,0.019278,0.535918,0.844050
0.716206,0.469783,0.261210,-0.486022,-0.832695,-0.265335
-0.292772,-0.065685,-0.434974,-0.357174,-0.638021,0.682170
-0.803494,-0.933738,-0.948885,-0.048054,0.221315,0.974018
0.018966,0.173528,-0.221105,0.774983,0.347018,-0.528186
0.217877,0.177627,0.250310,0.575895,-0.510021,0.638924
-0.763123,-0.160364,-0.957408,-0.082529,0.039028,0.995824
-0.643987,-0.772105,-0.937145,-0.338484,-0.144519,0.929808
0.502055,0.494376,0.246548,-0.256308,-0.941420,0.219168
-0.817693,-0.787363,-0.947824,-0.231209,-0.066299,0.970643
0.150156,0.091353,-0.482721,0.740347,0.452247,0.497351
0.645166,0.671660,0.429681,-0.423162,-0.250229,0.870816
-0.604515,-0.961793,-0.897474,0.179355,-0.464044,0.867465
-0.530651,-0.391263,-0.684616,0.269928,-0.962787,0.013442
0.708889,0.638908,0.477562,0.917189,0.354530,-0.181858
0.303746,0.370800,-0.030991,0.923552,-0.001068,-0.383471
-0.768050,-0.809466,-0.946467,-0.115718,0.208458,0.971162
-0.218083,-0.224658,-0.494136,0.264793,-0.912759,-0.311055
-0.684002,-0.846856,-0.910208,0.225558,-0.150558,0.962526
0.094625,0.249901,-0.186749,0.871734,-0.471292,-0.134027
0.475363,0.442208,0.234057,0.081843,-0.994548,0.064621
-0.307135,-0.767135,-0.865475,-0.251118,0.597353,0.761649
0.769326,0.341298,0.407265,-0.646932,0.239925,0.723819
-0.205758,-0.191022,-0.459948,0.701582,0.169010,0.692256
0.076039,0.032770,-0.121165,0.259662,0.566835,0.781840
-0.726877,-0.552490,-0.888295,-0.485894,-0.000232,0.874017
-0.780636,-0.414485,-0.963298,-0.419202,0.388937,0.820364
-0.658494,-0.339715,-0.941425,0.311900,-0.374538,-0.873178
0.247624,0.285267,-0.033848,0.825148,-0.303258,-0.476618
0.806822,0.981075,0.762892,0.961986,0.006978,-0.273008
-0.422351,-0.350902,-0.633477,-0.151221,-0.203722,0.967279
-0.420659,-0.600475,-0.899910,-0.202802,0.022049,0.978971
0.482765,0.434205,0.269895,0.781546,-0.431017,0.451011
-0.519773,-0.032018,-0.539050,0.413858,-0.100018,0.904830
-0.734307,-0.315418,-0.954187,-0.062289,0.503831,0.861553
-0.632555,-0.456746,-0.931924,-0.028902,0.679995,0.732647
0.279018,0.236324,0.027143,0.917552,0.299965,-0.260996
-0.717297,-0.905913,-0.926630,-0.031955,0.087374,0.995663
-0.554136,-0.353728,-0.866307,0.242212,0.912316,0.330170
-0.349552,-0.958127,-0.864203,-0.133433,0.023708,0.990774
0.579151,0.750704,0.567517,0.850418,-0.503232,-0.153449
-0.579007,-0.410602,-0.844260,-0.572759,0.811903,0.112968
-0.288849,-0.785372,-0.893963,-0.426911,0.227131,0.875305
-0.419575,-0.355625,-0.876313,-0.554063,-0.768570,0.319865
0.158177,0.249335,0.296427,0.514706,-0.011453,0.857290
-0.653437,-0.532534,-0.904984,0.143346,0.796583,-0.587288
-0.468536,-0.354639,-0.614950,-0.071845,0.996446,0.043965
-0.823609,-0.920942,-0.925739,-0.032600,0.069144,0.997074
-0.620751,-0.189230,-0.930390,0.439462,0.776015,-0.452409
-0.607493,-0.800856,-0.923312,0.269686,0.108622,-0.956802
-0.693754,-0.301035,-0.939158,0.456857,-0.388969,0.799991
0.670105,0.285983,0.323303,0.770558,-0.380829,-0.511086
-0.156960,-0.218776,-0.481268,0.895729,0.282007,-0.343717
-0.735530,-0.853911,-0.948745,0.213203,0.123392,0.969185
-0.736594,-0.555790,-0.890602,-0.455272,0.783709,0.422524
-0.546824,-0.617657,-0.905476,-0.037518,-0.069417,0.996882
-0.616700,-0.512541,-0.846252,0.466108,0.582865,-0.665592
-0.838902,-0.650639,-0.945960,0.010076,0.489154,0.872139
0.531158,0.432415,0.231496,-0.667679,0.267929,-0.694564
-0.583315,-0.494214,-0.823545,-0.195558,-0.946647,0.256158
-0.565175,-0.741176,-0.907497,-0.501699,0.290322,0.814869
-0.764220,-0.922998,-0.934202,0.173216,-0.357035,-0.917890
-0.323551,-0.869128,-0.884311,-0.192232,0.243162,0.950747
0.866785,0.744006,0.889292,0.989710,0.074820,0.121968
0.514400,0.635872,0.113030,-0.677927,0.665090,0.313161
0.041165,0.131413,-0.262856,0.771335,-0.559808,0.302749
0.151640,-0.415095,-0.319060,0.335722,0.432051,-0.837032
-0.210426,-0.877833,-0.865365,-0.209409,0.262808,0.941849
0.335217,0.199302,0.337233,-0.266964,0.852947,0.448566
0.478890,0.094118,0.343808,-0.812335,-0.242569,-0.530351
-0.773665,-0.773150,-0.953494,-0.491823,0.005173,0.870680
-0.015080,0.216703,-0.173618,0.329525,-0.002803,0.944143
0.448658,0.401312,0.088534,-0.804945,0.200791,0.558342
0.879872,0.824791,0.924196,0.968533,-0.133384,-0.210125
-0.908362,-0.509435,-0.962251,0.196701,-0.196001,-0.960673
-0.889496,-0.650310,-0.950860,-0.111403,-0.014793,0.993665
-0.962712,-0.797411,-0.957620,0.375705,-0.093480,-0.922013
0.405530,-0.090094,-0.018782,0.511814,0.783155,-0.353149
-0.487008,-0.659137,-0.900070,0.029726,0.057018,0.997931
-0.408832,-0.609075,-0.903441,-0.325104,-0.072525,-0.942893
-0.374377,-0.945508,-0.888082,-0.601014,0.292207,0.743907
-0.119512,-0.135695,-0.489162,-0.464532,-0.030552,-0.885029
0.294766,0.444238,0.314430,-0.045546,-0.829776,0.556235
0.251957,0.516707,0.316655,-0.461505,-0.550216,-0.695899
-0.152054,-0.939674,-0.858984,-0.123451,0.008882,0.992311
-0.289545,-0.295754,-0.450635,-0.635054,0.315779,0.704975
-0.747478,-0.634341,-0.898231,0.807009,0.202198,-0.554845
-0.607706,-0.583905,-0.892377,0.273338,-0.651512,0.707685
-0.524669,-0.408497,-0.617683,-0.279425,0.413721,0.866462
-0.219090,-0.102609,-0.471674,0.068477,0.754003,0.653292
0.439184,0.386531,0.173416,0.999609,-0.023653,0.014889
-0.301622,-0.868532,-0.886473,0.310976,-0.051467,-0.949023
-0.640824,-0.622797,-0.925210,0.137628,0.031804,0.989973
-0.328409,-0.851516,-0.894694,-0.316511,-0.605320,0.730348
0.786210,0.783490,0.797526,0.918111,-0.386580,0.087337
-0.511276,-0.042595,-0.537322,0.098159,-0.173231,0.979977
0.070894,-0.056879,-0.270659,0.749559,0.642221,0.160357
-0.642455,-0.467278,-0.658847,0.231057,-0.893000,-0.386217
0.768537,0.327283,0.414938,0.936209,0.007833,-0.351357
0.562161,0.470943,0.252220,0.328949,0.931827,-0.153265
-0.408187,-0.856072,-0.874662,0.200541,-0.348137,-0.915742
-0.831062,-0.195529,-0.971224,-0.204792,-0.051436,0.977453
-0.745492,-0.363169,-0.948765,-0.120272,0.011052,0.992679
-0.477306,-0.421147,-0.713768,-0.393592,-0.681915,0.616504
-0.790510,-0.489254,-0.971878,0.628543,-0.273786,-0.727994
0.869089,0.323522,0.396792,0.688051,0.666711,0.286501
0.783658,0.939061,0.586966,-0.524162,0.850551,-0.042628
0.236285,0.220200,-0.033262,0.201222,0.887065,-0.415481
0.762683,0.240150,0.459637,0.941562,0.106496,0.319562
0.268026,0.388405,0.209846,-0.484681,-0.372036,-0.791628
0.716007,0.349111,0.436516,0.896469,0.150804,-0.416654
-0.805170,-0.424464,-0.962057,0.050193,0.196510,0.979216
-0.658141,-0.779216,-0.920172,-0.354387,0.220198,0.908803
-0.190323,-0.224740,-0.460499,-0.556715,0.021534,-0.830424
-0.214508,-0.169981,-0.661428,0.527154,0.384661,0.757723
-0.919623,-0.246018,-0.972373,-0.039927,0.106620,0.993498
0.875028,0.714173,0.655229,0.908946,-0.015390,-0.416630
0.332647,0.320814,0.173434,0.828191,-0.518310,0.213199
-0.294066,-0.860928,-0.870523,0.141227,0.055274,0.988433
0.177101,0.182531,-0.115320,0.389869,0.893423,-0.223154
0.422840,0.334656,0.109241,-0.433916,0.809436,-0.395639
0.435344,0.459926,0.226339,0.248613,0.948813,-0.194794
-0.975566,-0.935165,-0.969710,-0.250921,0.169170,0.953111
0.260790,0.597589,0.248581,0.284519,0.906639,0.311537
-0.940911,-0.853879,-0.966805,-0.407734,0.018222,0.912919
0.233885,0.050954,-0.151544,0.318734,0.282157,0.904874
-0.500765,-0.791569,-0.919352,-0.115030,0.136657,-0.983917
0.785045,0.959020,0.713124,-0.521025,0.853519,0.006164
-0.269329,-0.132690,-0.490654,0.801446,0.421711,-0.424080
-0.551126,-0.886597,-0.920358,0.131708,-0.186313,0.973622
0.174221,0.413673,0.040356,0.747583,0.587508,-0.309766
-0.170470,-0.118462,-0.447710,0.339734,0.891126,-0.300792
-0.233174,-0.236354,-0.504716,0.660149,0.701840,-0.267628
0.743209,0.661871,0.574058,0.964141,-0.084321,0.251638
-0.895813,-0.712713,-0.973746,-0.032006,0.117727,0.992530
-0.316017,-0.713444,-0.873844,-0.085676,-0.236990,0.967727
-0.953360,-0.597990,-0.957878,0.044200,-0.040882,0.998186
-0.647657,-0.763778,-0.930134,-0.378886,-0.064344,0.923204
-0.250983,-0.167274,-0.467725,0.872487,-0.241072,-0.425031
0.743173,0.197718,0.406076,0.916722,0.340640,-0.208772
-0.814095,-0.718665,-0.935968,0.096572,0.098948,0.990395
-0.314764,-0.178956,-0.594391,0.507544,0.615172,0.603293
-0.536699,-0.950977,-0.911406,-0.157993,-0.032860,0.986893
-0.820769,-0.169952,-1.000000,-0.304679,0.216547,0.927512
-0.625510,-0.938076,-0.899576,0.642114,0.761419,0.089053
-0.722628,-0.738944,-0.947814,0.157580,0.272225,-0.949243
0.173398,-0.073424,-0.160758,0.628737,-0.326364,0.705816
-0.845063,-0.929422,-0.944781,-0.085928,0.216485,0.972497
0.211767,-0.008099,-0.182263,0.745097,-0.177622,-0.642870
0.087211,0.432171,0.322874,-0.423385,-0.159531,0.891793
0.128683,-0.424894,-0.323415,0.335722,0.432051,-0.837032
-0.812455,-0.551824,-0.939145,-0.529916,0.273202,0.802838
-0.499549,0.171251,-0.175505,0.160123,0.680456,0.715081
0.722797,0.325599,0.361287,0.490757,0.596701,-0.634906
-0.142991,-0.945013,-0.860073,-0.283746,-0.189371,0.940014
-0.292275,-0.216314,-0.524226,-0.452636,-0.336228,0.825876
-0.603622,-0.656343,-0.910002,0.260053,0.175103,-0.949585
-0.319856,-0.583589,-0.882928,-0.378125,-0.134524,0.915928
0.625182,0.766620,0.259156,-0.164469,0.617768,0.768968
-0.429421,-0.402186,-0.692699,0.257342,-0.957520,0.130118
-0.901791,-0.450578,-0.979087,0.045761,0.039422,0.998174
0.242808,0.319881,-0.026715,0.382690,-0.890268,0.246925
0.340568,0.519397,0.140768,0.983951,0.062322,0.167203
-0.251963,-0.903970,-0.860403,-0.040906,0.040157,0.998356
-0.207941,-0.051920,-0.405284,0.366465,0.895519,-0.252485
-0.642439,-0.304122,-0.949098,0.161444,0.055643,-0.985312
0.698535,0.289273,0.340222,-0.692206,-0.063457,0.718905
-0.448115,-0.904150,-0.902289,0.169057,0.144353,-0.974978
-0.850525,-0.283983,-0.977844,0.186425,-0.081872,-0.979052
-0.700608,-0.646371,-0.904564,0.383171,-0.909731,0.159904
-0.705589,-0.890011,-0.924273,-0.401497,0.202990,0.893082
-0.066267,-0.130947,-0.526304,0.607031,0.179596,0.774118
-0.454593,-0.751414,-0.891564,-0.329877,-0.168941,-0.928784
0.338110,0.100455,0.190542,0.273001,-0.767762,0.579666
-0.833252,-0.733576,-0.955584,-0.661623,0.605635,0.442110
0.418711,0.530247,0.070847,-0.820289,0.434455,0.371987
-0.553744,-0.286274,-0.678478,0.031328,-0.876413,0.480541
0.030603,-0.244326,-0.298692,-0.059884,-0.688589,0.722675
-0.173546,0.010519,-0.521747,-0.527893,-0.229729,-0.817651
-0.292334,-0.859491,-0.876464,-0.034103,0.146545,0.988616
0.693765,0.644729,0.525074,-0.645621,-0.673727,0.359536
0.083663,0.190354,-0.177794,-0.457556,0.401932,0.793154
0.884922,0.597292,0.956446,0.524807,0.295296,0.798359
0.501373,0.594474,0.332793,0.024091,-0.836350,0.547666
-0.369551,-0.800411,-0.897578,-0.429849,0.139385,0.892077
-0.382557,-0.224725,-0.608048,0.775808,0.106431,-0.621928
-0.184008,-0.848256,-0.852669,-0.361315,-0.041376,0.931525
-0.707234,-0.947144,-0.919526,-0.132074,-0.031567,0.990737
-0.485388,-0.363968,-0.719605,-0.347757,-0.930304,0.116618
0.426325,0.705259,-0.130778,-0.515054,-0.118044,-0.848991
-0.860430,-0.472581,-0.977058,-0.119758,0.001581,0.992802
0.285468,0.704840,0.211599,0.851607,0.489833,0.186624
0.191408,0.023094,-0.216673,0.823515,0.289785,-0.487697
0.596890,0.560128,0.398331,-0.217568,0.976025,0.006307
-0.451121,-0.460880,-0.890838,0.821570,0.042631,-0.568511
0.186040,-0.337189,-0.272870,0.619831,-0.453942,0.640114
0.737091,0.630358,0.355888,0.926872,-0.360829,-0.103493
0.444729,-0.114250,-0.008632,0.642794,0.481391,-0.595885
0.118146,0.021624,-0.060188,0.287899,-0.823926,-0.488119
0.150443,0.003135,-0.181748,-0.679404,0.259996,-0.686158
-0.636311,-0.890447,-0.912006,0.093905,-0.139883,-0.985705
0.212196,0.000326,-0.159986,0.883078,-0.227716,-0.410266
-0.811733,-0.330421,-0.951493,0.213607,0.113518,-0.970302
-0.945343,-0.779813,-0.958675,-0.178371,0.137888,0.974254
-0.640237,-0.512266,-0.881580,0.896799,0.249754,-0.365204
-1.000000,-0.938406,-0.965039,-0.549384,0.107214,0.828663
-0.631837,-0.940038,-0.899759,0.745909,0.555708,-0.367162
-0.518371,-0.428953,-0.908733,-0.363596,0.433913,-0.824328
0.903387,0.850303,0.638350,0.729029,0.079847,-0.679810
-0.276787,-0.439710,-0.415487,0.111022,0.091172,0.989627
0.801071,0.839159,0.855174,-0.638978,-0.657837,0.398694
0.040160,0.319585,0.089740,-0.406216,0.759617,0.507907
0.007351,0.267138,-0.178548,0.853145,-0.520209,0.039072
-0.322363,-0.689632,-0.890123,-0.341610,-0.413753,0.843867
0.430172,0.662980,-0.105537,-0.515054,-0.118044,-0.848991
0.557299,0.225467,0.309554,-0.602330,-0.210944,0.769871
-0.375426,-0.159798,-0.475647,-0.820851,-0.243874,0.516459
-0.371491,-0.905219,-0.900108,0.008597,0.081965,0.996598
-0.494793,-0.678484,-0.914287,-0.264271,0.236018,-0.935124
-0.704486,-0.175316,-0.936233,0.459235,0.068599,-0.885662
0.304045,0.349236,0.045722,0.547571,0.831004,0.097974
0.084582,-0.070027,-0.036616,0.256361,0.513629,0.818819
0.897824,0.780299,0.927165,0.789017,-0.600380,-0.130368
-0.773069,-0.636873,-0.909561,0.732266,-0.456313,-0.505535
-0.753609,-0.691361,-0.948043,0.190635,-0.108768,-0.975617
-0.664284,-0.092715,-0.940510,0.280023,0.045817,-0.958899
-0.512779,-0.805984,-0.905858,0.014944,-0.022068,0.999645
-0.900844,-0.867298,-0.947841,-0.558562,-0.120772,0.820623
-0.494489,-0.546741,-0.895284,0.455866,-0.069408,-0.887338
-0.492951,-0.664121,-0.901814,-0.063283,0.331369,-0.941377
-0.637014,-0.240187,-0.954351,-0.219660,0.021253,0.975345
0.447551,0.149015,0.340519,-0.329631,0.514741,-0.791445
-0.827019,-0.243014,-0.961853,-0.189553,0.061567,0.979938
0.472724,0.464066,0.237868,-0.082553,-0.799566,0.594878
-0.551703,-0.723857,-0.909498,0.147623,-0.360905,0.920845
-0.627242,-0.799274,-0.934110,-0.286277,0.397226,0.871927
-0.159586,0.069653,-0.484971,0.957274,0.112908,-0.266231
0.415753,0.067628,0.439062,-0.232651,0.829946,0.507014
0.279512,0.235059,-0.246502,-0.100143,0.978080,-0.182568
0.293698,0.372983,-0.009332,0.975502,-0.129345,0.177951
-0.431518,-0.784064,-0.913515,-0.171237,0.476742,0.862204
-0.619604,-0.629317,-0.923522,-0.304829,-0.064734,0.950205
0.099870,-0.059989,-0.080591,0.763183,0.639217,0.094623
-0.557139,-0.315664,-0.703767,0.828865,0.553258,-0.083002
0.666452,0.373692,0.303583,-0.647840,0.101811,-0.754942
-0.784412,-0.882954,-0.935250,0.297561,-0.299370,-0.906551
-0.810528,-0.816944,-0.945495,-0.168857,0.210868,0.962820
0.470393,0.536890,0.342417,-0.657727,0.332537,-0.675880
-0.352364,-0.890984,-0.889079,-0.318751,0.075996,0.944787
0.561624,0.706242,0.424866,0.705526,-0.671993,0.225076
-0.490023,-0.637595,-0.908111,-0.026322,0.518574,0.854627
-0.283088,-0.935725,-0.876596,0.047073,0.108125,0.993022
0.236881,0.170754,-0.103327,-0.276455,0.592324,-0.756785
0.146762,-0.434397,-0.303114,0.335722,0.432051,-0.837032
-0.794528,-0.171157,-0.960583,0.212054,0.200461,-0.956477
0.644104,0.583569,0.401282,0.414963,0.638378,-0.648289
-0.591502,-0.428367,-0.838003,0.738583,-0.666004,-0.104565
-0.348479,-0.833250,-0.888201,-0.179022,0.147162,0.972777
-0.423840,-0.197279,-0.614465,0.466697,0.508943,-0.723305
-0.945156,-0.814842,-0.971989,0.327770,0.123917,-0.936596
0.703931,0.601975,0.361927,-0.656370,0.342986,-0.671966
0.046183,0.048293,-0.164901,-0.681804,0.609150,0.405069
0.254889,0.145234,-0.220338,0.828647,-0.218957,-0.515171
0.865191,0.596367,0.999728,0.187417,0.379018,0.906212
0.819529,0.709211,0.600913,-0.452730,0.224703,0.862870
-0.009919,0.138534,-0.233915,0.529038,0.290473,-0.797336
-0.816589,-0.384156,-0.945790,-0.167220,0.064561,0.983804
0.037477,0.016969,-0.307795,0.655225,0.737583,-0.163252
-0.781972,-0.696187,-0.948785,-0.022048,0.133647,0.990784
-0.332945,-0.790056,-0.871265,-0.030830,-0.033875,0.998950
-0.491778,-0.369508,-0.680663,0.817252,-0.248072,-0.520154
0.301864,0.181972,-0.278637,0.554196,0.444200,-0.703956
-0.598161,-0.356813,-0.938873,0.135560,-0.200350,-0.970301
0.621259,0.309073,0.213554,0.833112,0.421503,0.358134
0.277475,0.693262,0.185525,0.521197,0.709112,0.474883
-0.532959,-0.395300,-0.851942,0.132405,0.485580,0.864107
0.134388,0.043912,-0.461465,-0.662662,-0.410167,-0.626611
0.226004,-0.038950,-0.163921,0.039357,0.398966,0.916121
-0.673163,-0.914043,-0.930234,-0.117777,0.123679,0.985308
-0.779894,-0.382822,-0.964739,0.223255,0.387930,-0.894242
-0.065040,-0.260446,-0.500674,0.154668,0.741612,0.652755
-0.255555,0.114467,-0.156799,0.231422,0.562468,0.793772
0.071694,-0.301478,-0.279092,0.210203,0.680427,-0.702022
0.068237,0.107185,-0.184807,0.822915,-0.017501,-0.567895
-0.292559,-0.741018,-0.880369,-0.205016,0.228727,0.951658
-0.215626,-0.164860,-0.453987,0.975797,-0.203355,0.080421
-0.562800,-0.901364,-0.921906,-0.301768,0.199468,-0.932282
-0.840681,-0.889107,-0.932899,-0.013369,-0.061054,0.998045
-0.442689,-0.691869,-0.893244,-0.336748,0.366363,0.867398
-0.742191,-0.664027,-0.881169,0.073051,0.997181,-0.017140
-0.264235,0.139280,-0.167510,0.154697,0.608846,0.778059
0.571161,0.698896,0.405335,0.861507,0.503346,-0.066703
0.530446,0.674817,0.110632,0.346080,-0.899647,-0.266203
0.854500,0.683085,0.947098,-0.782487,0.295223,0.548231
-0.572136,-0.563738,-0.894636,-0.059520,-0.836468,0.544774
0.506478,0.626394,0.338690,-0.073598,-0.926667,0.368608
0.235883,0.004350,-0.173997,-0.442748,0.352870,-0.824292
-0.693927,-0.591878,-0.938021,0.293827,0.130112,-0.946962
-0.616732,-0.484205,-0.838564,0.857821,0.088367,-0.506294
0.790416,0.666701,0.537372,0.875224,-0.061483,0.479794
-0.656160,-0.516898,-0.844678,0.822446,-0.206809,-0.529917
-0.346777,-0.848896,-0.875253,0.333376,-0.231565,-0.913914
0.361959,0.679676,-0.098459,0.361085,0.185034,0.913991
-0.809377,-0.375357,-0.965460,-0.007263,0.092039,0.995729
0.322181,-0.390217,-0.001610,0.213671,-0.476987,-0.852542
-0.097030,0.455842,-0.016122,0.834942,-0.178777,-0.520491
-0.372776,-0.069821,-0.559039,0.165568,-0.769518,0.616790
-0.817554,-0.603448,-0.963259,-0.222347,-0.039048,0.974185
-0.933788,-0.952284,-0.959542,0.196376,0.003702,-0.980522
-0.464584,-0.788657,-0.905337,-0.083301,-0.544273,0.834762
-0.653355,-0.469391,-0.900824,-0.544651,0.779520,0.309360
-0.605110,-0.203661,-0.913332,0.678690,0.733678,-0.033103
0.751018,0.185482,0.424984,0.900983,0.316672,-0.296562
0.468382,0.441045,0.208364,-0.359783,-0.929736,0.078401
-0.529965,-0.503798,-0.919349,0.193845,-0.168628,0.966431
0.612899,0.328216,0.224951,0.929575,0.365310,0.049384
-0.680691,-0.198231,-0.964587,0.358077,-0.065948,-0.931360
0.328802,0.595912,0.196031,0.855820,0.046043,0.515220
0.298175,0.582690,-0.066681,-0.608677,-0.420094,0.673077
0.593909,0.366081,0.129674,0.281678,0.910110,-0.303904
-0.182733,-0.010767,-0.395585,-0.282271,-0.594092,-0.753245
0.054635,0.257429,-0.163550,0.477150,-0.464840,0.745823
-0.277134,-0.817275,-0.887634,-0.011695,0.312931,0.949704
0.401246,0.457963,0.230578,0.238218,0.928743,0.284057
-0.304584,-0.777551,-0.897051,-0.233388,0.200514,-0.951485
0.704000,0.627352,0.478990,0.914984,0.338786,-0.219152
-0.165518,0.069657,-0.530804,-0.395576,-0.396547,-0.828414
-0.668013,-0.640324,-0.910873,0.931863,0.270372,-0.241930
0.569897,0.118810,0.303731,0.582552,0.477427,-0.657797
-0.582979,-0.844305,-0.922442,-0.332734,-0.057673,0.941256
0.232513,0.102746,-0.209094,-0.639211,-0.551460,-0.536005
-0.639176,-0.595035,-0.909384,0.951365,0.055519,-0.303023
-0.878202,-0.525382,-0.964448,0.045950,0.073704,0.996221
-0.328084,-0.874491,-0.883108,-0.173182,0.163974,0.971144
0.164568,0.200721,-0.123343,0.537441,0.673926,-0.506933
-0.802030,-0.727578,-0.950756,-0.001196,0.086751,0.996229
-0.654395,-0.832544,-0.932077,0.086745,-0.030131,-0.995775
0.078931,0.154246,-0.204996,0.798371,0.103842,-0.593145
-0.219524,0.255204,-0.279677,0.675725,0.721334,0.151898
-0.279805,-0.126537,-0.495100,0.812049,-0.343474,0.471806
-0.591351,-0.418922,-0.933744,0.280843,0.187689,-0.941223
-0.498591,-0.442305,-0.616500,-0.351295,0.687970,0.635051
-0.532192,-0.527901,-0.889853,0.169116,0.212306,0.962458
-0.420591,-0.500367,-0.891858,0.287688,-0.154434,0.945191
0.397079,0.073869,0.142209,0.769107,-0.292106,0.568462
-0.009331,0.106678,-0.257675,0.279494,-0.624239,-0.729526
0.564526,0.492064,0.292742,-0.499812,-0.864927,-0.045704
-0.642334,-0.444297,-0.889776,-0.279690,0.393707,0.875653
