0.689818,0.125169,0.371138,0.889872,-0.153782,0.429511
0.512784,0.363989,0.725636,-0.000431,-0.759404,0.650619
0.732210,0.090335,0.363869,0.038659,-0.783544,0.620133
0.543236,0.341598,0.730353,0.101882,-0.930609,0.351550
0.764754,0.084191,0.431072,0.134706,-0.942447,-0.306019
0.780724,0.081270,0.464896,0.460596,-0.887266,0.024715
-0.064440,0.408031,-0.363134,0.989293,0.084231,0.119180
-0.109816,0.605587,0.193751,0.565485,0.140240,-0.812748
0.048409,0.365445,-0.209165,-0.732708,-0.245438,-0.634744
0.014673,0.445347,-0.023370,-0.154783,0.265035,0.951735
0.175289,0.236090,-0.314438,-0.538090,-0.176522,-0.824196
-0.176241,0.473007,-0.080197,0.054187,-0.996282,0.066982
-0.073095,0.342625,-0.247234,0.803964,-0.584614,0.108944
0.053930,0.244726,-0.245209,0.193093,-0.401334,0.895347
0.136327,0.151802,-0.341963,-0.349520,0.933341,0.081917
-0.043540,0.452224,0.194250,0.516025,0.045056,0.855387
-0.050405,0.488513,0.298136,0.831700,0.417572,0.365936
0.238280,0.059611,-0.384305,0.914514,-0.169019,0.367556
0.142003,0.232142,-0.058859,0.809588,-0.585044,-0.047863
0.152749,0.243405,0.006929,-0.649301,0.646716,0.400209
0.030197,0.447392,0.369807,0.435995,0.533045,-0.725101
0.180810,0.230239,0.035370,-0.010775,-0.999525,0.028889
0.249923,0.157947,-0.027033,0.833091,0.520931,0.185987
0.073787,0.434521,0.438564,0.542186,-0.812273,-0.215052
0.232158,0.233892,0.180738,0.351718,0.805915,-0.476230
-0.019506,0.607928,0.776441,0.819635,-0.044082,-0.571187
0.248279,0.258329,0.304351,0.442282,0.634413,-0.633962
0.203199,0.342035,0.466866,0.562007,0.803708,-0.195450
0.392774,0.082145,0.090726,-0.142727,0.989062,-0.037225
0.063337,0.553927,0.810487,-0.652101,-0.545591,-0.526398
0.409938,0.082145,0.134955,-0.260786,0.947066,-0.187235
0.431731,0.075706,0.169639,0.438685,-0.717536,-0.541015
0.483229,0.049956,0.217808,0.069998,-0.671307,0.737866
0.424269,0.148435,0.393558,-0.436505,0.296249,0.849529
0.460393,0.121801,0.397692,0.716109,0.142456,-0.683296
0.426506,0.184724,0.520585,-0.469473,0.857544,-0.210269
0.334261,0.323743,0.744476,-0.402401,0.911007,-0.090215
0.349189,0.321841,0.777884,-0.242264,0.967733,-0.069288
0.377099,0.303549,0.788456,-0.223777,0.953866,0.200157
0.488158,0.178142,0.658072,0.112043,-0.989697,0.089143
-0.048018,0.594753,0.321971,0.976030,0.215141,0.032852
0.052591,0.446668,0.082124,-0.537715,-0.291135,-0.791267
0.115878,0.381691,0.027185,0.568668,0.571476,-0.591635
0.143793,0.367347,0.052574,0.167353,0.620775,0.765918
0.286940,0.187502,-0.181945,0.262070,-0.803372,0.534708
0.219175,0.311016,0.060870,0.655273,0.090363,0.749968
0.130806,0.482957,0.415090,0.942625,-0.324405,-0.078868
0.217380,0.385791,0.312564,0.485673,-0.016812,-0.873979
0.134537,0.521881,0.558820,0.304804,-0.690494,0.655983
0.316495,0.272673,0.188562,0.488633,-0.326874,-0.808945
0.203054,0.448571,0.490645,0.390009,0.561413,-0.729869
0.202006,0.469935,0.561429,-0.330540,0.286499,-0.899256
0.585478,-0.047505,-0.192240,-0.077898,-0.995642,0.051278
0.366800,0.269744,0.313064,0.178958,0.896160,-0.406044
0.534878,0.066783,0.063977,0.097696,-0.047487,-0.994083
0.574732,0.036344,0.065199,0.024368,-0.004605,0.999692
0.443821,0.229212,0.379379,-0.274616,0.937470,0.213859
0.570550,0.083905,0.219223,0.679832,0.699952,-0.218851
0.592197,0.075563,0.248219,0.893905,0.425657,-0.140533
0.566223,0.147265,0.424580,-0.124632,0.923747,0.362158
0.564734,0.167022,0.488259,-0.592430,0.801596,-0.080442
0.459346,0.334283,0.782018,0.325655,0.869566,-0.371219
0.728780,-0.004044,0.339007,-0.419974,-0.404392,0.812458
0.490545,0.311159,0.786541,-0.182787,0.671524,-0.718084
0.765350,-0.031848,0.341616,-0.363653,0.494860,-0.789221
0.509354,0.167754,0.678744,0.560232,0.806928,-0.187101
0.537415,0.149605,0.690203,0.232543,0.969514,0.077249
0.563390,0.132921,0.702467,0.547626,0.755722,-0.359151
-0.572401,0.815719,0.036730,0.937390,-0.322770,0.130845
-0.433878,0.724260,0.091059,0.979578,-0.199974,0.020899
-0.274013,0.489540,-0.278256,-0.183086,0.060488,-0.981234
-0.323124,0.610116,-0.002560,-0.481726,0.370151,-0.794310
-0.070859,0.201703,-0.382530,0.584466,-0.802397,0.120657
-0.092201,0.367205,0.102407,-0.842169,0.317904,-0.435533
-0.093694,0.399403,0.203435,0.038510,0.514782,0.856456
-0.072348,0.394419,0.241726,-0.112184,-0.848980,0.516380
-0.168179,0.565199,0.556046,-0.405346,0.862059,-0.304219
-0.044437,0.380227,0.266587,0.579319,-0.128536,0.804903
-0.118476,0.516906,0.524414,-0.260016,-0.920327,0.292216
-0.007567,0.352860,0.270666,0.805786,0.105060,-0.582813
0.053930,0.289357,0.218696,0.384557,0.917379,-0.102627
0.135284,0.196290,0.121997,0.853015,-0.408165,-0.325217
-0.052647,0.492031,0.609958,0.960105,0.127296,0.248987
0.308136,-0.027168,-0.168544,0.186175,-0.982467,-0.009843
-0.009954,0.454421,0.595280,0.968447,-0.072279,-0.238506
0.167973,0.224532,0.296665,-0.586111,0.657463,0.473515
0.279629,0.066783,0.065032,-0.197577,-0.563011,0.802485
-0.028913,0.524659,0.776386,0.637516,0.145956,-0.756486
0.317392,0.039265,0.070609,-0.138935,-0.941997,0.305513
0.157377,0.286428,0.471556,0.072587,0.046818,0.996263
0.309931,0.074241,0.166503,-0.196977,0.396222,0.896776
0.022138,0.494809,0.808933,0.883981,0.444744,0.144152
0.316349,0.088880,0.230821,0.547116,0.758665,-0.353684
0.051247,0.474177,0.815176,0.928234,0.137019,0.345843
0.312167,0.138486,0.381183,0.509911,0.828691,-0.230786
0.346050,0.114335,0.388175,-0.243245,0.789712,0.563194
0.378593,0.090925,0.394696,-0.076818,0.433735,0.897760
0.343216,0.159117,0.526772,-0.093575,-0.984377,0.149149
0.273060,0.271208,0.715536,-0.327590,0.885221,-0.330254
0.308587,0.242967,0.714038,-0.082715,0.907168,-0.412557
0.325155,0.239019,0.743061,0.890562,0.249474,-0.380345
0.360978,0.210045,0.738566,0.123136,0.991348,0.045460
-0.765109,0.824356,0.210261,-0.656652,-0.598159,0.459362
-0.730776,0.800643,0.220416,0.688022,0.393819,-0.609534
-0.617034,0.579239,-0.202673,0.690327,0.684779,0.233509
-0.687487,0.761871,0.203352,0.739979,0.165207,0.652025
-0.647632,0.729530,0.199439,0.807168,0.210138,0.551653
-0.531503,0.511931,-0.205364,0.788206,0.613912,-0.042930
-0.608224,0.698359,0.197192,0.695154,0.476523,0.538225
-0.521349,0.538565,-0.096318,-0.358808,0.410237,0.838429
-0.411338,0.423107,-0.192600,0.790594,0.612273,-0.009096
-0.493138,0.607490,0.191725,0.722266,0.476483,0.501293
-0.368349,0.427349,-0.072538,0.919408,0.023256,-0.392618
-0.297149,0.344375,-0.160469,-0.221359,0.967522,0.122070
-0.291924,0.373501,-0.054752,0.897778,-0.261072,-0.354734
-0.250280,0.341008,-0.055668,0.849800,-0.360589,-0.384468
-0.213855,0.315107,-0.047732,-0.638764,0.371466,0.673790
-0.306552,0.498614,0.306044,-0.640751,-0.033334,-0.767025
-0.156536,0.256284,-0.093709,0.832439,0.320293,0.452170
-0.266251,0.465684,0.300411,-0.559846,-0.032253,-0.827969
-0.099516,0.199649,-0.133138,0.299794,0.453853,0.839131
-0.236992,0.448419,0.318641,0.086202,0.852473,0.515615
-0.030553,0.123123,-0.205808,0.216158,-0.684595,0.696136
-0.223708,0.457788,0.380212,0.571471,-0.317015,0.756917
-0.071305,0.220137,0.001547,0.478874,0.870415,-0.114267
-0.164598,0.395151,0.327354,-0.578703,-0.815058,-0.027982
-0.029806,0.187359,0.000104,0.668467,0.332040,0.665508
-0.079363,0.293305,0.214173,-0.425571,0.289494,0.857370
-0.062645,0.295502,0.262259,-0.595319,0.705044,-0.385369
-0.210425,0.542513,0.683516,0.712269,0.698660,0.067436
-0.015179,0.250871,0.238174,0.830172,-0.422731,0.363474
-0.183553,0.527445,0.700997,0.928928,0.352525,0.113220
0.062891,0.162627,0.150105,-0.317578,-0.081292,-0.944741
-0.000998,0.282623,0.373580,-0.292342,0.177642,0.939670
-0.047125,0.398956,0.629326,0.890675,-0.025713,0.453913
0.100950,0.185600,0.316865,-0.768849,0.012185,-0.639315
0.017660,0.329308,0.568171,-0.034286,0.221592,0.974536
-0.042793,0.436862,0.760820,0.976333,0.214306,-0.029088
0.149164,0.165119,0.370944,0.303973,0.777254,0.550886
-0.017716,0.422080,0.776136,0.871451,-0.258674,-0.416726
-0.500304,0.620074,-0.105696,-0.226978,0.902053,0.367126
-0.421191,0.602658,0.036536,0.852754,0.512546,-0.100533
-0.287296,0.370714,-0.380643,-0.747250,0.627025,0.220127
-0.361484,0.536368,-0.028087,-0.561954,-0.824287,0.068980
-0.322227,0.506661,-0.026284,-0.468448,-0.811707,0.348838
-0.403876,0.677727,0.326105,0.570318,-0.320544,0.756299
-0.267594,0.451786,-0.065713,-0.494319,0.813947,0.305187
-0.367156,0.648753,0.324718,-0.631644,0.181672,-0.753672
-0.219977,0.407736,-0.088271,0.976467,0.062238,0.206490
-0.335810,0.630167,0.342892,-0.037724,0.456803,0.888768
-0.121309,0.360184,0.609237,-0.675860,0.617990,0.401624
0.085576,0.054931,0.159345,0.394216,-0.664129,0.635238
-0.095339,0.345840,0.626718,0.917710,-0.391675,0.066322
0.007060,0.195844,0.407820,0.601858,0.650287,0.463566
-0.058915,0.316428,0.623887,0.924191,0.299173,-0.237417
-0.029209,0.296234,0.632655,0.221485,0.073248,0.972409
0.092591,0.121364,0.382487,0.620261,0.194306,0.759949
-0.062349,0.366035,0.770364,0.417345,-0.493394,0.763141
0.137224,0.081851,0.367837,-0.104174,-0.774495,0.623943
-0.074439,0.404663,0.861847,0.989025,-0.090085,0.117109
0.173198,0.054779,0.371250,0.266246,0.917803,-0.294535
-0.013088,0.339838,0.807351,0.939810,-0.252966,0.229708
0.038410,0.288035,0.770836,0.373153,0.387610,0.842921
0.121103,0.193798,0.676995,-0.282485,-0.951464,0.122139
0.135284,0.194969,0.715203,-0.518216,0.844468,0.135373
0.409492,-0.180960,0.208069,0.896599,-0.437722,-0.067154
0.135881,0.213993,0.775692,0.973340,0.098969,-0.206916
0.351129,-0.079113,0.384013,-0.241935,0.888712,-0.389433
0.217084,0.123704,0.691368,0.058381,-0.978323,0.198685
0.235893,0.117997,0.719809,-0.619027,0.772124,0.143630
0.422329,-0.091117,0.518198,0.473947,0.515070,0.714197
0.483079,-0.132819,0.535707,0.202974,0.972973,-0.110113
0.526669,-0.171448,0.521556,-0.564734,-0.820272,0.090717
0.555030,-0.189016,0.535152,-0.420032,-0.899330,0.121570
0.602347,-0.231307,0.517949,-0.570078,-0.804925,0.164639
0.193200,0.125749,0.355073,0.750509,0.435043,-0.497467
0.218127,0.114924,0.381405,-0.127725,-0.240971,0.962091
0.025573,0.403350,0.822307,0.752581,0.275858,0.597934
0.258132,0.081851,0.374385,0.152217,0.610959,0.776891
0.227830,0.145506,0.502910,0.006193,0.080883,0.996704
0.557418,-0.306519,-0.120735,-0.745751,-0.551187,0.374230
0.111551,0.325351,0.787318,-0.469876,0.780889,-0.411616
0.601003,-0.340906,-0.122733,-0.745751,-0.551187,0.374230
0.190959,0.237554,0.704354,-0.340641,0.928720,0.146431
0.352619,0.018928,0.408653,0.608488,0.394164,-0.688750
0.244252,0.185019,0.668227,0.370968,0.915303,-0.156853
0.219321,0.236965,0.772251,-0.307284,0.950616,0.043655
0.461436,-0.065359,0.409263,0.947678,0.223084,-0.228344
0.575630,-0.155353,0.404685,-0.696756,-0.692884,0.185586
0.623246,-0.197644,0.388259,0.810708,0.339454,0.476994
0.624736,-0.241400,0.540590,0.499763,0.850413,-0.164421
-0.963786,0.761139,-0.178560,-0.526056,-0.755704,-0.390099
-0.639870,0.467881,-0.308889,0.699155,0.672436,-0.242922
-0.741075,0.715043,0.215255,0.907339,0.355060,0.225098
-0.595537,0.430279,-0.319127,0.662220,0.722233,-0.199609
-0.704355,0.686802,0.216420,0.903316,0.344899,0.255079
-0.575685,0.439639,-0.241768,0.810645,0.582719,-0.057398
-0.523590,0.389006,-0.273483,-0.530832,-0.837182,0.131700
-0.625242,0.621682,0.205155,0.460435,0.525125,0.715711
-0.497170,0.384469,-0.223566,0.781855,0.617690,-0.084629
-0.585684,0.590073,0.202269,0.443549,0.246995,0.861544
-0.462239,0.365302,-0.198843,0.790594,0.612273,-0.009096
-0.544937,0.556705,0.196415,0.227458,0.425079,0.876111
-0.396264,0.290376,-0.273178,-0.638342,-0.754078,0.154552
-0.505529,0.525391,0.194167,0.328420,0.387074,0.861577
-0.379100,0.302236,-0.194265,0.833003,0.552567,0.027857
-0.466867,0.494372,0.191282,0.812785,0.535361,0.229716
-0.322974,0.244280,-0.238910,0.502319,0.864078,0.032316
-0.426116,0.459690,0.181986,0.915443,0.221190,0.336214
-0.275653,0.201846,-0.256557,-0.580156,-0.798314,0.161597
-0.384471,0.424857,0.174578,0.876571,0.477925,0.056661
-0.218929,0.145211,-0.295209,0.725529,0.580932,-0.368952
-0.342976,0.389596,0.164700,0.660598,0.671829,0.335047
-0.207436,0.163655,-0.210747,0.642971,0.653716,0.399053
-0.162657,0.197603,0.002684,0.729283,0.048202,-0.682513
-0.236846,0.347011,0.288008,-0.690020,-0.196555,-0.696591
-0.124744,0.200086,0.102296,0.852365,-0.295605,0.431384
-0.060409,0.130581,0.042612,0.924805,0.216050,-0.313142
-0.153702,0.303844,0.355156,-0.620444,-0.756011,0.208559
-0.086233,0.229069,0.286094,0.998685,0.037932,0.034500
-0.003686,0.132778,0.185815,0.927030,0.369536,0.063712
-0.134296,0.355647,0.563010,0.892453,0.178165,-0.414469
0.039900,0.096043,0.176465,0.638455,0.635921,-0.433567
-0.807351,0.563439,-0.130336,-0.691289,-0.617389,-0.375434
-0.708086,0.410370,-0.363134,0.723499,0.675093,-0.144218
-0.628080,0.355352,-0.341186,0.571531,0.771463,-0.279637
-0.584791,0.319796,-0.346320,-0.633198,-0.691102,0.348480
-0.493138,0.243842,-0.361414,-0.614773,-0.783655,-0.089097
-0.443285,0.198773,-0.380920,-0.467279,0.324766,-0.822300
-0.587925,0.505929,0.214145,0.759321,0.637935,0.128341
-0.455374,0.264769,-0.208000,0.824365,0.565543,0.024151
-0.551651,0.478563,0.216726,-0.540296,-0.635982,-0.551005
-0.436119,0.271360,-0.141657,0.301568,0.930885,0.206179
-0.509711,0.442864,0.207791,0.615623,0.386990,0.686474
-0.387459,0.227452,-0.160303,0.897036,0.203827,0.392148
-0.468211,0.406423,0.194944,0.943144,0.161201,0.290679
-0.427013,0.372322,0.188701,0.613833,0.499468,0.611344
-0.228933,0.033272,-0.377341,-0.490606,-0.852102,-0.182286
-0.459105,0.462468,0.387287,0.728814,0.674601,0.117235
-0.390593,0.346573,0.196248,0.489106,0.781347,-0.387649
-0.442387,0.467738,0.443337,0.589885,0.803201,0.083083
-0.352528,0.318331,0.199550,0.740329,0.648154,-0.178352
-0.412536,0.449151,0.457044,-0.520681,-0.853058,-0.034395
-0.316405,0.291259,0.202131,0.543525,0.827039,-0.143484
-0.198631,0.097508,-0.110524,-0.037075,-0.985738,-0.164151
-0.382380,0.429984,0.469863,-0.673866,-0.738770,0.011115
-0.275507,0.256427,0.192919,0.768037,0.422009,-0.481693
-0.327301,0.371599,0.422942,0.830268,0.538030,-0.145531
-0.270728,0.368964,0.548443,0.710798,0.594373,-0.376149
-0.121459,0.137164,0.194389,0.762335,-0.360511,-0.537473
-0.131313,0.181652,0.307709,-0.437521,0.885721,0.155155
-0.103698,0.166870,0.328047,-0.738081,0.031335,-0.673984
-0.084443,0.164387,0.366338,0.819905,0.291434,-0.492770
-0.068467,0.167754,0.413869,0.593914,0.723096,0.352701
-0.073396,0.200533,0.502161,0.752944,0.508974,-0.417158
-0.083244,0.240037,0.599692,0.356496,0.804710,0.474713
-0.065333,0.237992,0.636124,-0.708317,0.307206,-0.635540
-0.008464,0.179606,0.592644,0.850706,0.325970,0.412362
0.269028,-0.220178,0.030154,-0.430643,-0.869266,0.242741
-0.053990,0.266528,0.751025,0.999528,0.027848,-0.012965
0.312915,-0.257494,0.020775,-0.467394,-0.843246,0.265477
0.041394,0.152821,0.629353,-0.681238,0.295718,-0.669676
-0.026526,0.270476,0.827718,0.936067,0.010610,-0.351663
0.066170,0.161315,0.713788,0.600867,-0.008025,0.799309
0.122001,0.104831,0.674498,-0.168921,0.745896,-0.644287
0.006168,0.284820,0.949639,0.934950,0.030068,-0.353502
0.198872,0.019803,0.597389,0.015476,0.712414,0.701589
0.138122,0.124142,0.771169,0.877393,0.217013,-0.427887
0.261416,-0.044138,0.549608,0.720588,0.692888,0.025657
0.289477,-0.062429,0.561262,0.259570,0.947296,-0.187758
0.329482,-0.096092,0.552466,-0.190009,-0.919903,0.343039
0.380980,-0.144671,0.526162,-0.604022,-0.196873,-0.772268
0.414266,-0.169697,0.529075,0.005206,0.731280,0.682058
0.441735,-0.185934,0.544281,-0.046668,-0.898347,0.436800
0.515322,-0.263354,0.483265,0.019085,0.976947,0.212629
0.447406,-0.154916,0.652661,0.418995,0.905123,0.072083
0.503829,-0.192669,0.671390,-0.518993,0.266712,0.812103
0.539506,-0.220625,0.670946,-0.516612,0.417782,0.747375
0.603390,-0.267301,0.679631,-0.587817,0.327862,0.739579
-0.080411,0.162627,0.639925,-0.089071,-0.983871,-0.155124
-0.052050,0.145211,0.653910,-0.047242,0.997339,-0.055525
-0.038912,0.149168,0.695531,-0.530714,-0.393657,-0.750584
0.016016,0.093122,0.656379,0.614470,0.784511,-0.083484
-0.036525,0.189851,0.823473,-0.593559,0.181524,0.784052
0.003033,0.155608,0.812568,-0.343103,0.778678,-0.525301
0.209021,-0.133114,0.426550,-0.626634,-0.768260,0.130790
0.008404,0.187216,0.920421,0.824886,0.538319,0.172559
0.099311,0.081708,0.816258,0.823577,0.470084,0.317398
0.153196,0.027270,0.778800,0.339333,-0.935505,0.098405
0.367547,-0.182425,0.648610,-0.557956,0.605920,0.567050
0.459346,-0.247696,0.667201,0.747262,0.177076,-0.640502
0.521294,-0.291005,0.680963,-0.559358,0.289219,0.776834
-0.821382,0.487932,-0.112106,0.576186,0.693674,0.432233
-0.782570,0.458958,-0.108249,0.576186,0.693674,0.432233
-0.739732,0.423840,-0.113354,-0.655535,-0.654264,-0.377110
-0.658232,0.362229,-0.107639,0.637382,0.522694,0.566158
-0.491794,0.227747,-0.123982,0.205401,-0.954619,-0.215670
-0.455224,0.204481,-0.108277,0.255794,0.078670,0.963525
-0.409398,0.165119,-0.119709,-0.522238,-0.138225,-0.841523
-0.369543,0.135993,-0.113743,0.223163,-0.083115,0.971231
-0.328344,0.103367,-0.116240,0.109858,0.700638,0.705009
-0.287296,0.070293,-0.119348,-0.175303,-0.974658,0.138965
-0.226692,0.006638,-0.169098,-0.652145,0.749982,-0.110605
-0.317899,0.192923,0.176576,-0.423747,-0.385833,-0.819494
-0.190272,-0.018093,-0.158943,-0.260276,0.964824,-0.037027
-0.457164,0.453688,0.634431,0.760797,0.647207,0.048076
-0.263864,0.137896,0.138007,-0.274952,-0.384818,0.881088
-0.176688,-0.004196,-0.085580,0.256117,0.215882,0.942231
-0.419847,0.422955,0.629021,0.748259,0.662077,0.041992
-0.235798,0.126196,0.167502,0.422179,-0.075058,0.903400
-0.377009,0.383156,0.609820,0.615352,0.560276,0.554467
-0.151912,0.024198,0.057624,0.840544,-0.177483,-0.511845
-0.312824,0.308819,0.536872,0.946498,0.227300,-0.229079
-0.122357,0.008389,0.079655,0.871454,-0.435470,-0.225685
-0.172060,0.200086,0.538066,-0.765280,0.229471,0.601406
-0.142956,0.182974,0.553465,0.959637,0.195206,-0.202463
-0.106681,0.154142,0.552466,0.836926,0.246330,-0.488750
-0.097726,0.164530,0.605630,-0.059048,-0.507275,0.859759
-0.774958,0.357692,-0.107195,0.730726,0.593132,0.337985
-0.653007,0.261991,-0.110136,0.052705,0.141896,0.988477
-0.613900,0.234187,-0.101950,-0.143431,-0.099206,0.984675
-0.567026,0.192039,-0.118904,0.040165,-0.718224,0.694652
-0.526574,0.162190,-0.114936,0.527778,0.324549,-0.784932
-0.477764,0.114486,-0.142822,0.047171,0.775457,0.629636
-0.450149,0.106288,-0.104531,0.001862,-0.076453,0.997071
-0.614046,0.437004,0.494197,-0.123808,0.991147,0.047944
-0.282071,-0.108677,-0.351064,-0.142506,-0.176571,-0.973917
-0.257295,-0.069602,-0.180419,-0.114419,0.833099,-0.541160
-0.238486,-0.062581,-0.117378,-0.763493,0.558896,0.323596
-0.215499,-0.065948,-0.073842,0.184070,0.016009,-0.982783
-0.223111,-0.018825,0.046552,0.910206,-0.397936,-0.114772
-0.205646,-0.013413,0.102740,0.796799,-0.489821,0.353818
-0.197438,0.004736,0.175133,0.330681,-0.630165,-0.702525
-0.240130,0.103805,0.368808,-0.097312,0.143912,0.984794
-0.201469,0.072634,0.366061,-0.338784,0.485365,-0.806007
-0.266546,0.202435,0.598665,-0.696675,0.714929,0.059333
-0.089067,-0.071942,0.196998,-0.316788,0.456734,0.831287
-0.247742,0.199649,0.632878,0.649907,0.599199,-0.467527
-0.103547,-0.021461,0.312564,-0.609643,0.771607,0.181543
-0.199077,0.150633,0.600718,0.379300,0.835465,0.397654
-0.083395,-0.024827,0.348996,0.956355,0.004931,-0.292167
-0.175048,0.140531,0.625580,-0.609082,0.591158,-0.528726
-0.053243,-0.042530,0.365451,0.817669,0.418491,-0.395326
-0.118772,0.080681,0.578798,-0.696922,-0.508106,0.506090
-0.153998,0.157947,0.724859,-0.506459,0.782956,-0.361220
0.057962,-0.154916,0.289201,0.892057,0.437524,-0.113173
-0.046975,0.024778,0.578604,0.456608,0.736138,-0.499611
-0.064290,0.096043,0.748333,0.071996,0.848120,0.524890
-0.068171,0.123123,0.818922,0.820297,0.313125,-0.478608
-0.060559,0.133654,0.867674,0.374386,0.853096,-0.363403
-0.041900,0.127509,0.892230,-0.528678,-0.840047,0.121743
-0.018167,0.115067,0.909572,-0.321562,0.604928,-0.728464
0.036169,0.079368,0.929633,0.965314,-0.091372,0.244583
0.158270,-0.049407,0.828939,0.215164,0.208920,0.953969
0.492636,-0.460026,0.647445,0.990302,-0.123930,-0.062799
-0.708983,0.211796,-0.107056,-0.036838,-0.076899,0.996358
-0.581507,0.105555,-0.128171,0.856029,0.516858,0.008464
-0.442537,-0.017950,-0.173316,-0.168533,0.950177,-0.262220
-0.387905,-0.073111,-0.209582,-0.706689,0.601348,-0.372787
-0.350738,-0.096235,-0.193544,0.232690,-0.627718,0.742850
-0.338944,-0.077943,-0.114076,-0.741921,0.326436,0.585656
-0.317448,-0.077363,-0.064048,0.783666,-0.582659,0.215352
-0.292075,-0.082043,-0.021373,0.856264,0.200512,-0.476031
-0.252371,-0.113500,-0.022427,0.491571,0.757614,0.429394
-0.277448,-0.036385,0.143168,-0.546712,0.831440,-0.099062
-0.194454,-0.137946,0.036591,0.722306,0.680456,-0.123511
-0.270282,0.017901,0.316310,0.798252,-0.202223,0.567361
-0.190122,-0.110874,0.124383,0.668165,0.743686,-0.022038
-0.269089,0.046000,0.399718,-0.442069,0.859154,-0.257739
-0.188778,-0.081749,0.211176,0.255790,-0.956482,-0.140407
-0.160417,-0.096824,0.231848,0.748546,-0.595741,0.291157
-0.146536,-0.088045,0.288424,0.771730,-0.538202,0.338778
-0.231917,0.072339,0.558931,-0.066177,0.020859,0.997590
-0.450896,-0.103845,-0.166074,0.491299,-0.473841,-0.730821
-0.428356,-0.103113,-0.114048,-0.039719,-0.669380,0.741858
-0.373278,-0.158863,-0.151035,0.654665,0.028189,0.755394
-0.323420,-0.206281,-0.176063,0.855373,-0.485739,0.179985
-0.387309,-0.057455,0.105182,0.386096,-0.862669,-0.326699
-0.362382,-0.062724,0.144306,-0.556471,0.817609,0.147833
-0.334617,-0.074139,0.173440,0.518308,-0.708940,-0.478290
-0.300434,-0.097262,0.182791,-0.328819,0.600229,0.729112
-0.343573,0.005174,0.378381,-0.225601,-0.233772,-0.945756
-0.217736,-0.200574,0.072829,-0.124622,0.375199,0.918529
-0.203259,-0.190186,0.134095,0.912756,0.021802,0.407923
-0.313120,0.046000,0.561539,-0.348232,-0.611313,0.710655
-0.179973,-0.164722,0.258097,0.899400,-0.302187,0.315853
-0.341928,0.119461,0.705991,-0.102470,0.924092,0.368178
-0.119072,-0.229547,0.208374,0.879071,-0.408160,0.246250
-0.307449,0.092828,0.705963,-0.164547,0.937426,0.306850
-0.064290,-0.284128,0.174023,0.353515,-0.669039,-0.653769
-0.343422,0.173604,0.855493,-0.021853,-0.962078,0.271896
-0.206393,-0.036680,0.561484,0.979433,-0.179142,-0.092840
-0.309390,0.145211,0.850720,0.095734,-0.956543,0.275428
-0.039659,-0.236720,0.362592,0.955294,-0.168398,-0.243015
-0.236992,0.084191,0.836708,0.482026,0.093337,-0.871171
-0.003836,-0.263934,0.363897,-0.074300,-0.282650,0.956341
0.035126,-0.295248,0.361538,-0.571065,-0.013661,-0.820791
0.079308,-0.334028,0.348580,0.228644,0.251624,0.940429
0.091698,-0.326276,0.397692,-0.650719,0.148837,0.744588
0.041394,-0.229690,0.560568,0.946967,0.320385,-0.024641
0.020794,-0.177307,0.663372,-0.677424,-0.197137,0.708685
-0.097426,-0.106480,0.344668,-0.105428,0.891237,0.441115
-0.214156,0.097945,0.672806,-0.293377,-0.955938,0.010606
-0.267594,0.203016,0.856630,0.136471,-0.988795,0.060498
-0.023838,-0.162231,0.349135,0.744390,0.303996,-0.594533
-0.242964,0.188967,0.871253,-0.011843,-0.927650,0.373263
0.005716,-0.180379,0.362870,0.630257,0.456325,-0.628127
-0.197438,0.144193,0.843978,0.243706,0.442391,-0.863074
0.046318,-0.215203,0.353908,-0.741378,-0.502799,0.444468
-0.194750,0.163360,0.904910,0.398215,-0.860253,0.318418
-0.038912,-0.064483,0.597278,0.149533,0.599934,0.785951
-0.118175,0.073223,0.817091,0.954220,0.299090,-0.002868
0.009452,-0.111749,0.569697,-0.640580,-0.306428,0.704102
-0.036525,-0.021755,0.725858,0.944187,0.325561,0.050199
-0.025328,-0.015163,0.769532,0.932502,0.302507,0.197308
-0.007567,-0.018683,0.799693,0.831013,-0.546271,0.104910
0.002136,-0.011511,0.841980,0.535535,0.839980,-0.087385
0.243355,-0.350275,0.405351,-0.196426,-0.239207,0.950893
0.281419,-0.381151,0.401744,0.272123,0.387288,-0.880884
0.078711,-0.077800,0.823279,-0.186577,-0.332850,-0.924337
0.110653,-0.102085,0.824166,0.418915,0.120685,0.899969
0.148567,-0.133989,0.817230,0.319402,-0.517438,0.793877
0.182003,-0.159748,0.817424,0.393413,-0.055049,0.917712
0.219321,-0.190766,0.811791,0.375430,0.604218,0.702832
0.255896,-0.221349,0.805381,0.801106,0.288347,0.524485
0.459496,-0.435732,0.643643,0.990302,-0.123930,-0.062799
0.004523,-0.131649,0.757240,0.797530,0.331211,0.504227
0.064977,-0.195447,0.708960,0.927156,0.270499,0.259254
0.033185,-0.129166,0.826886,0.193988,0.131265,0.972182
-0.644348,-0.134864,-0.141879,0.607125,0.765955,0.211454
-0.595838,-0.179647,-0.161967,-0.365208,0.750860,-0.550302
-0.556876,-0.208621,-0.157833,-0.167701,0.714011,-0.679753
-0.452837,-0.356125,-0.340493,0.777317,-0.621081,0.100179
-0.528515,-0.129890,0.117030,-0.220902,0.896128,0.384912
-0.491198,-0.158140,0.119056,0.005342,-0.993728,0.111697
-0.364021,-0.384367,-0.228727,-0.490490,0.863313,-0.118788
-0.432237,-0.223840,0.063867,-0.243529,0.968243,-0.056568
-0.315808,-0.349105,-0.030640,0.175333,-0.446088,0.877647
-0.632258,-0.064046,-0.186496,-0.225167,0.858916,0.459960
-0.590463,-0.095360,-0.184165,-0.332444,0.636882,0.695602
-0.564789,-0.099165,-0.138577,0.053462,0.966702,0.250259
-0.534186,-0.112624,-0.109303,0.125169,-0.977083,0.172169
-0.480150,-0.167063,-0.144403,-0.015062,-0.907711,0.419326
-0.432534,-0.211398,-0.164631,0.469218,0.247380,-0.847725
-0.489407,-0.067851,0.111370,-0.352969,0.932930,0.071088
-0.388352,-0.247545,-0.169820,0.466789,-0.745150,0.476298
-0.451493,-0.095798,0.116198,-0.182703,0.786090,0.590493
-0.269385,-0.415100,-0.378062,-0.701572,0.503340,-0.504426
-0.432684,-0.090528,0.170998,-0.623311,0.745298,-0.236674
-0.376859,-0.150530,0.124411,-0.332219,0.717455,0.612282
-0.437162,-0.014431,0.373247,-0.027685,0.344152,0.938506
-0.275206,-0.250769,0.065587,0.192839,0.864677,0.463838
-0.277593,-0.213301,0.164700,0.191163,0.941139,0.278772
-0.133995,-0.449924,-0.182917,0.930431,-0.026874,0.365480
-0.243711,-0.234665,0.178740,0.464009,0.875432,-0.135329
-0.212065,-0.252520,0.196914,-0.450994,-0.831129,0.325315
-0.193110,-0.250912,0.242780,0.978440,-0.087023,0.187302
-0.108025,-0.355098,0.136592,-0.027508,0.976782,0.212460
-0.227289,-0.110428,0.558404,-0.888554,0.441969,-0.123026
-0.218187,-0.022925,0.822862,-0.178807,-0.665770,0.724416
0.012436,-0.366664,0.364784,0.809987,0.063102,0.583043
-0.188181,-0.043852,0.828467,0.554260,0.440268,-0.706372
0.048710,-0.394173,0.366200,0.349983,0.396475,0.848716
-0.153255,-0.028480,0.946282,0.701220,-0.068717,0.709626
0.043335,-0.288960,0.647250,0.948648,0.306264,-0.079185
0.044829,-0.268033,0.707822,0.962461,0.116503,0.245143
0.091102,-0.311789,0.687151,0.933985,0.276308,0.226552
0.191706,-0.431784,0.570724,0.801255,0.379232,-0.462789
-0.243265,-0.296275,0.267031,0.182201,0.052716,0.981847
-0.174597,-0.374274,0.199411,0.945538,0.047960,0.321958
0.017360,-0.467198,0.353491,-0.730472,-0.174825,0.660187
0.048560,-0.487535,0.363758,0.887474,-0.065673,-0.456154
0.086323,-0.516509,0.364368,0.857115,0.068157,0.510597
0.004373,-0.302715,0.773583,0.903594,-0.067517,0.423035
0.062590,-0.363440,0.731851,0.966477,0.256749,0.001605
0.123344,-0.427685,0.684654,0.991426,0.109753,0.070915
0.172301,-0.474513,0.660902,0.254186,0.745145,0.616562
0.297390,-0.604163,0.571945,0.754222,0.293433,-0.587406
-0.774211,-0.023944,-0.114353,-0.731917,-0.673303,0.104696
-0.728986,-0.064189,-0.128005,-0.688450,-0.708086,0.157005
-0.692712,-0.087598,-0.115491,-0.618845,-0.741345,0.259690
-0.626436,-0.147601,0.112313,0.021187,-0.885801,0.463582
-0.565085,-0.220035,0.045942,0.117173,-0.955605,0.270352
-0.531799,-0.238765,0.065309,-0.015745,0.999613,0.022930
-0.455675,-0.335788,-0.036717,0.071702,0.921789,0.381003
-0.572551,-0.087893,0.384152,-0.395475,0.634785,-0.663813
-0.413429,-0.369442,-0.039492,-0.539941,-0.841586,-0.014010
-0.461793,-0.244615,0.193751,0.742831,-0.598795,0.299411
-0.289984,-0.504219,-0.143571,0.827951,-0.424820,0.366094
-0.338197,-0.315004,0.263702,-0.465780,0.629526,0.621889
-0.296552,-0.351151,0.253269,0.858396,-0.356190,-0.369167
-0.200572,-0.441144,0.211592,0.994378,0.065415,-0.083265
-0.319539,-0.219446,0.557849,-0.601034,0.465375,-0.649757
-0.332376,-0.117894,0.803023,-0.061974,-0.807496,0.586608
0.056322,-0.576797,0.382071,0.920004,0.329806,0.211707
0.094682,-0.607673,0.378630,0.931568,0.335129,0.140958
0.130656,-0.634745,0.381599,0.969992,0.230900,-0.076167
0.018107,-0.401346,0.772917,-0.710251,-0.176321,0.681509
0.047662,-0.421102,0.781130,0.828119,0.412339,-0.379731
-0.810039,-0.128139,0.033705,-0.343714,-0.920176,-0.187451
-0.662409,-0.230717,0.065309,-0.022054,0.996400,0.081856
-0.557473,-0.256029,0.212314,-0.526545,0.607263,-0.594964
-0.510157,-0.302715,0.186093,-0.273637,-0.916116,-0.293009
-0.330435,-0.580896,-0.179337,0.068818,-0.073800,0.994896
-0.289387,-0.611478,-0.175591,-0.120729,-0.034059,0.992101
-0.348497,-0.399586,0.261454,0.863023,0.189026,0.468466
-0.313567,-0.423442,0.269390,0.930461,-0.071353,0.359377
-0.188632,-0.596410,0.069888,-0.326621,-0.331954,0.884944
0.118120,-0.714646,0.383986,0.915527,0.299998,-0.267976
0.151555,-0.737618,0.391449,-0.749996,-0.581174,-0.315820
0.180514,-0.755615,0.404102,-0.749996,-0.581174,-0.315820
0.069159,-0.527486,0.776303,0.734235,0.636977,0.234859
-0.634795,-0.290710,0.206681,-0.349738,0.933616,-0.077746
-0.557177,-0.435000,-0.010468,-0.524362,0.439465,-0.729325
-0.465824,-0.517384,-0.040379,-0.683101,0.622865,-0.381329
-0.374617,-0.639577,-0.173427,-0.043956,-0.312621,0.948860
-0.218784,-0.675428,0.045803,-0.653271,0.506894,-0.562401
0.181261,-0.849423,0.397138,0.864157,0.500700,0.050320
-0.726594,-0.286031,0.218113,-0.057069,0.998134,0.021708
-0.597628,-0.486365,-0.039852,0.865051,0.499882,0.042481
-0.564342,-0.505237,-0.022094,0.328268,-0.793658,0.512198
-0.518516,-0.545625,-0.035024,-0.512842,-0.708000,0.485519
-0.422835,-0.676017,-0.179365,0.131344,0.129922,0.982786
-0.370887,-0.536560,0.281599,0.464069,-0.584494,-0.665588
-0.371784,-0.606208,0.284678,-0.874419,0.395847,-0.280530
-0.310137,-0.675133,0.229573,0.947682,-0.251666,0.196373
-0.556580,-0.660065,-0.052755,0.813205,0.357635,-0.459123
-0.416713,-0.635477,0.284484,0.669268,-0.242442,-0.702355
-0.804964,-0.294229,0.225438,0.010492,0.995902,0.089827
-0.764062,-0.330081,0.214839,0.010492,0.995902,0.089827
-0.649126,-0.504952,-0.004253,-0.401973,0.819803,-0.407848
-0.545830,-0.607530,-0.062355,-0.014628,-0.498309,0.866876
-0.470001,-0.703669,-0.158249,-0.001038,-0.072395,0.997376
-0.407161,-0.579726,0.281931,-0.352655,0.506771,0.786649
-0.173705,-0.934291,0.268197,0.730141,0.671050,0.128788
-0.136387,-0.963416,0.267919,0.730141,0.671050,0.128788
-0.216247,-0.935174,0.270361,-0.631684,-0.754027,-0.180052
-0.179973,-0.961219,0.274745,-0.674634,-0.730702,-0.104611
-0.243265,-0.974974,0.278130,0.559314,0.815678,-0.147775
-0.208484,-1.000000,0.282930,0.559314,0.815678,-0.147775
-0.477914,-0.244034,-0.980120,-0.443714,0.295847,-0.845927
0.017360,-0.497342,-0.966968,-0.027757,-0.156463,0.987294
0.133644,-0.556308,-0.956424,0.711129,-0.395872,-0.581017
-0.659872,-0.266863,-0.986918,0.156669,0.379044,0.912020
-0.535384,-0.330081,-0.977845,0.085437,0.481455,0.872297
0.143342,0.586706,0.423026,-0.556529,0.830809,-0.005626
0.509054,0.410960,0.733821,-0.127749,0.991488,-0.025124
0.099757,0.429395,0.064838,0.987992,0.057685,0.143333
-0.046379,0.509734,0.271360,0.787570,-0.337430,0.515630
-0.157879,0.567977,0.307348,-0.253857,-0.220869,0.941687
0.223056,0.464371,0.308347,0.582417,0.125438,-0.803153
0.144239,0.508421,0.411427,0.394008,-0.758960,0.518400
0.080501,0.542808,0.487149,0.105941,-0.716391,0.689609
0.120506,0.525248,0.553826,-0.153476,-0.663901,0.731902
0.429941,0.371742,0.729188,-0.212100,0.868342,-0.448325
0.089307,0.340133,0.072801,-0.111851,-0.462784,0.879386
-0.002046,0.389596,0.178518,0.945113,0.059906,0.321205
-0.220574,0.504465,0.297664,0.566071,0.097526,0.818567
-0.021000,0.404083,0.369168,-0.021236,-0.108849,0.993831
0.419195,0.180044,0.395195,0.077270,0.996555,-0.030110
0.021838,0.387542,0.551412,-0.244605,0.824747,0.509863
0.159464,0.317893,0.561151,0.482038,-0.049156,0.874770
0.358591,0.302674,0.276326,-0.109901,0.993714,-0.021290
0.633095,0.164968,0.365312,0.711938,0.335831,0.616735
-0.048169,0.518808,0.551856,-0.355116,-0.758707,0.546128
0.490992,0.242672,0.521306,-0.236424,0.965783,-0.106620
0.440541,0.273406,0.710458,-0.451878,0.771767,-0.447418
0.255148,0.370867,0.797696,-0.467624,0.209699,-0.858693
0.140358,0.211215,0.293946,0.370678,-0.528628,-0.763642
-0.214452,0.394276,0.379185,0.648165,0.056369,0.759411
0.096026,0.235500,0.370584,0.983509,0.166315,0.071052
0.248580,0.157947,0.377631,0.175069,-0.980715,0.086879
-0.154895,0.367499,0.488731,0.039553,-0.162570,0.985904
-0.047271,0.314089,0.548471,0.119392,0.322405,0.939042
0.132150,0.222630,0.552993,-0.652140,0.215996,-0.726677
-0.097876,0.341892,0.598526,-0.687406,0.683378,-0.245903
0.469795,0.160877,0.645197,0.075271,-0.993308,-0.087602
0.408895,0.194093,0.697889,-0.068621,-0.931046,0.358392
0.132897,0.336471,0.769810,0.920224,0.346190,-0.182592
0.227383,0.288919,0.783017,0.092676,-0.864607,0.493828
0.024079,0.394133,0.825193,0.755940,0.236650,0.610370
-0.026376,0.421347,0.874583,0.554531,0.269459,0.787329
0.047662,0.173166,0.322637,0.484321,0.850909,0.203437
-0.176538,0.288768,0.370140,0.897780,0.317453,0.305310
0.150507,0.122534,0.381932,0.105004,0.951131,0.290385
0.001835,0.200238,0.467643,0.735154,0.103831,-0.669902
-0.072203,0.240475,0.545252,0.403155,-0.435212,0.805019
0.037809,0.184430,0.556795,0.959783,-0.258451,0.109636
-0.102800,0.257310,0.594365,0.408150,0.754928,0.513319
-0.139220,0.277059,0.620530,0.915708,0.201180,-0.347858
0.009597,0.200676,0.629104,-0.073642,0.100856,0.992172
0.046469,0.182974,0.672029,-0.104202,0.961918,0.252696
-0.014883,0.214725,0.700275,-0.398141,0.882646,0.249840
-0.025328,0.304862,0.614648,-0.760365,0.310014,0.570733
0.109013,0.236090,0.623860,0.190824,0.439005,0.877987
0.177525,0.201989,0.640480,-0.032492,0.969194,0.244147
0.068858,0.258918,0.697750,0.141143,-0.003103,-0.989984
0.083786,0.253506,0.763927,0.522670,0.014383,0.852414
-0.050109,0.323743,0.821836,0.933690,-0.293036,0.205799
-0.168329,0.166138,0.526939,0.775424,-0.432488,0.460078
-0.144149,0.154142,0.548027,0.805475,-0.391069,-0.445281
0.053930,0.053172,0.550746,0.185803,0.755761,0.627935
-0.027123,0.095900,0.582378,0.008737,0.953871,0.300091
0.000642,0.209313,0.766397,-0.203143,0.502402,0.840432
0.054532,0.181947,0.784322,-0.117741,0.975214,-0.187335
0.118415,0.149900,0.801441,-0.716570,-0.136911,-0.683946
-0.039659,0.231552,0.839289,-0.749402,-0.242446,-0.616131
0.208278,0.087263,0.186509,0.054211,-0.160173,0.985599
-0.086529,0.241064,0.289007,0.793019,0.567398,0.221764
-0.101757,0.120194,0.095693,0.860492,0.396673,0.319693
-0.032944,0.089166,0.255377,0.923349,-0.023045,0.383271
-0.099963,0.124579,0.286704,0.999501,0.031014,-0.006008
-0.002643,0.074830,0.300383,0.883453,-0.466603,-0.042338
-0.090560,0.120926,0.332792,0.738333,-0.184888,-0.648599
-0.139075,0.146390,0.360872,0.428294,0.343619,-0.835757
-0.074740,0.114486,0.400856,-0.730510,0.133129,0.669800
-0.043841,0.099562,0.421527,0.971368,0.177899,0.157469
-0.054437,0.025510,0.557100,-0.175457,-0.723232,-0.667944
-0.024586,0.095900,0.628910,-0.439533,-0.581956,0.684206
0.028557,0.069266,0.645946,-0.333859,0.501635,0.798060
0.047065,0.060192,0.666479,0.176093,-0.786319,-0.592194
-0.016523,0.093122,0.695836,0.748496,0.652154,0.120207
-0.072348,0.122829,0.723555,0.592515,0.769675,-0.237751
-0.094592,0.136146,0.772113,0.793724,-0.492816,-0.356561
0.027810,0.073509,0.783378,-0.363245,0.799906,0.477706
-0.054437,0.116094,0.813317,0.737911,0.125238,0.663177
-0.081008,0.130724,0.837901,-0.242805,0.946279,-0.213546
-0.106235,0.144774,0.863179,0.571526,0.805713,0.155514
-0.057420,0.120488,0.880632,-0.379586,0.919138,0.105357
-0.076380,0.041900,0.787068,0.974095,0.196787,-0.111420
-0.082051,0.045857,0.832685,0.151872,0.596318,0.788251
-0.214306,-0.096378,0.807823,-0.071183,-0.789505,0.609602
-0.195051,0.009121,0.827440,0.005826,-0.607096,0.794607
-0.048319,-0.547823,0.053656,0.838831,-0.193157,0.508973
-0.164895,0.281748,-0.603508,0.114916,-0.747903,-0.653785
-0.093995,0.143603,-0.491493,-0.195253,-0.120123,-0.973369
0.077217,-0.032723,-0.971935,-0.096316,-0.020582,0.995138
0.264997,-0.029651,-0.968133,-0.111283,0.199090,0.973642
-0.077277,-0.066091,-0.550095,0.893852,0.236620,0.380840
-0.057571,-0.069307,-0.498790,0.915864,-0.324474,-0.236451
-0.052647,-0.071504,-0.472597,0.982121,0.125567,0.140257
-0.051749,-0.072968,-0.447153,0.894337,0.444923,-0.046952
-0.130415,0.034004,-0.389799,0.371863,0.894282,-0.248954
-0.259386,-0.038725,-0.985170,-0.209429,0.171474,0.962671
0.063337,0.081556,-0.974016,0.103042,0.616241,0.780787
0.253805,0.084780,-0.970603,0.281056,-0.144647,-0.948728
0.295450,0.189851,-0.967439,-0.497754,0.027680,0.866877
-0.081304,0.079654,-0.984143,-0.465568,0.696033,-0.546613
-0.112800,0.049956,-0.602231,-0.305027,0.661343,0.685262
0.056768,-0.312227,-0.869770,-0.355437,-0.934698,0.001914
-0.122803,-0.212863,-0.852233,0.583978,-0.806646,-0.091057
-0.129818,-0.214917,-0.823765,0.988867,-0.076911,-0.127387
-0.089367,-0.216088,-0.801095,0.251182,0.938138,-0.238337
-0.129818,-0.219598,-0.768881,0.943024,0.317603,0.099170
-0.101457,-0.220473,-0.745851,0.709274,0.697271,-0.103650
-0.103101,-0.151110,-0.542547,0.752942,0.593570,0.284169
-0.080857,-0.152718,-0.518407,0.640241,-0.542601,0.543761
-0.088920,-0.154621,-0.491798,-0.392144,-0.852683,-0.345187
-0.042046,-0.155505,-0.471459,-0.300625,-0.919588,0.252949
-0.457315,-0.124914,-0.985364,-0.405226,0.830525,0.382127
-0.241174,-0.120967,-0.984365,0.048458,0.171482,0.983995
-0.053690,-0.147458,-0.575150,-0.285465,-0.739641,0.609460
-0.118621,-0.135454,-0.754147,0.903291,0.324844,0.280251
-0.155492,-0.138821,-0.722460,0.526968,0.848089,0.055222
-0.093544,-0.141161,-0.676344,0.955427,-0.107059,-0.275131
-0.065183,-0.142036,-0.653508,0.444695,0.895674,0.003747
-0.125636,-0.145555,-0.619601,0.989057,0.071158,-0.129238
-0.060559,-0.074871,-0.420710,0.146080,0.985781,0.083050
-0.055781,-0.076336,-0.394711,-0.776673,0.628311,0.044770
-0.253263,0.593440,0.737762,0.803120,0.477168,-0.356804
0.374266,0.519835,0.545835,-0.094847,0.973438,-0.208378
0.215440,0.463058,-0.020290,0.882668,-0.429064,0.191839
-0.210425,0.354182,-0.123760,-0.753243,-0.627829,0.196100
0.085877,0.342473,0.070942,-0.111851,-0.462784,0.879386
-0.071601,0.328575,0.185677,0.972428,0.051439,0.227458
-0.092948,0.204918,0.301743,-0.405754,0.903023,0.141116
-0.046524,0.176820,0.633099,0.333480,0.728011,0.598992
-0.078471,0.379208,-0.368351,0.924623,0.168944,0.341365
0.416507,0.389158,-0.371403,-0.011135,0.429536,0.902981
0.127075,0.378476,-0.314216,0.712827,0.607636,0.350223
0.175139,0.377744,-0.293184,-0.237861,-0.731465,0.639047
-0.462540,0.356084,-0.197623,0.788527,0.614850,-0.013626
-0.409398,0.300915,0.413592,0.746804,0.660438,-0.078130
0.321570,0.270628,-0.370238,-0.374979,0.914580,0.151443
0.263653,0.264920,-0.311053,0.911944,-0.012363,0.410129
0.025870,0.216485,0.192280,-0.650965,0.660635,0.373908
0.333664,0.287749,0.725497,-0.412875,0.909128,-0.054963
0.067965,0.277648,0.772723,-0.020775,-0.799354,0.600502
0.229024,0.277942,0.805354,0.624995,-0.427141,0.653400
-0.003836,0.234777,-0.028282,0.609109,-0.764450,-0.211195
-0.221321,0.213698,0.168029,0.790213,0.585260,0.181754
-0.125636,0.214430,0.182486,-0.373782,0.847672,0.376483
0.066321,0.364569,-0.179115,-0.740236,0.672211,0.013535
-0.155492,0.346421,-0.028087,0.717441,0.481567,0.503360
-0.043540,0.158680,0.843256,0.794161,0.589270,-0.148561
-0.102500,0.155170,0.872252,0.147429,0.883453,-0.444719
-0.063392,0.154000,0.892369,0.797775,-0.570663,0.194674
-0.068321,0.150338,0.938817,0.161799,0.376606,0.912135
0.033782,0.122677,-0.195014,0.997553,0.034764,-0.060664
0.113787,0.122971,-0.177617,-0.249563,0.968118,0.021574
-0.184601,0.112290,-0.120957,0.096831,0.912356,0.397782
0.009001,0.076438,0.378630,0.240733,0.914348,-0.325601
-0.025478,0.266528,0.873834,-0.598976,0.140352,-0.788371
0.108417,0.266966,-0.373068,-0.117309,0.357886,0.926367
-0.007120,0.062389,0.548276,0.025882,0.713235,0.700447
0.011839,0.060924,0.569836,0.172048,0.797656,-0.578052
0.117969,0.058289,0.631573,0.708107,-0.086596,-0.700775
0.071846,0.043802,0.800137,0.657625,-0.681743,0.320556
-0.075933,0.038095,0.836708,-0.099699,-0.925845,-0.364514
-0.057571,0.246629,-0.174842,0.335321,0.809025,0.482740
-0.077423,0.164093,0.777190,-0.596938,0.738912,0.312529
-0.146090,0.218092,0.135288,-0.161180,-0.978458,-0.129002
-0.057420,-0.015610,0.281044,0.716329,0.687155,-0.121205
-0.002492,-0.015753,0.300411,0.488888,-0.606476,0.627037
-0.079067,-0.036385,0.548166,0.229498,-0.419192,-0.878412
0.080802,-0.033455,0.556656,0.374173,-0.527422,-0.762772
-0.171016,0.119024,-0.198871,0.769202,0.613999,-0.177014
-0.059065,0.108190,-0.033692,0.754185,-0.655951,-0.030538
0.060950,0.075563,0.397165,-0.392504,-0.919700,-0.009592
0.023181,0.072776,0.425412,0.674375,0.580719,-0.456053
0.018554,0.051412,0.688732,-0.540620,-0.541690,0.643663
0.076174,0.049366,0.729493,0.911446,-0.207615,0.355194
-0.040853,0.044535,0.763567,0.947420,0.218315,0.233953
0.012586,0.044392,0.781630,-0.045074,-0.234120,0.971162
-0.058022,0.099562,0.065892,0.436568,-0.182799,0.880905
-0.140564,0.095605,0.099605,0.880634,0.010216,0.473686
-0.074740,0.095757,0.117141,0.944456,0.013326,-0.328367
-0.091754,0.093417,0.143973,-0.172683,0.416356,-0.892652
-0.121459,0.090193,0.172108,-0.652459,0.104116,-0.750638
-0.149074,0.075849,0.345639,0.489516,0.869483,0.066139
-0.154594,0.073366,0.370722,-0.134520,0.964532,0.227119
-0.098619,0.088728,0.194556,-0.532733,0.356942,0.767325
-0.156239,0.077903,0.321665,0.136258,-0.496118,0.857497
0.013779,0.036344,0.875304,0.269084,-0.173830,0.947300
-0.116385,0.227310,0.033262,0.892492,-0.435019,-0.119235
-0.020704,0.225550,0.074133,0.176413,0.434648,0.883153
-0.080411,0.021857,-0.215075,0.756287,-0.586343,0.290226
-0.055334,0.012640,-0.091545,0.617367,0.594403,0.515308
-0.072945,0.010443,-0.064159,0.779439,-0.558758,-0.283308
-0.089517,0.007665,-0.036772,0.974278,-0.155732,-0.162877
-0.080411,0.006344,-0.013187,0.862451,-0.154625,0.481944
-0.081901,0.004146,0.011397,0.558183,0.667678,-0.492583
-0.080857,0.002539,0.036785,-0.203066,0.974542,0.095038
0.204693,-0.002579,0.181320,0.259007,-0.548346,0.795130
0.271415,-0.017656,0.394779,0.018963,0.507990,0.861154
-0.008314,0.107314,-0.013409,-0.629218,-0.735871,0.250156
-0.019506,0.102929,0.037562,-0.384827,-0.916890,0.105930
-0.039659,-0.052480,0.780631,-0.471372,-0.318301,-0.822492
-0.265804,-0.121994,0.182680,-0.169129,-0.583750,-0.794123
0.081995,-0.114527,0.172774,-0.185672,0.619527,0.762701
0.274850,-0.087751,-0.147372,0.113875,0.409244,0.905291
0.312915,-0.136043,0.540146,0.255228,-0.004650,0.966870
-0.043987,0.034147,-0.374178,0.194263,0.298923,0.934295
0.114985,-0.160042,0.816786,-0.607834,-0.705830,0.363787
-0.048615,0.020536,-0.193571,-0.808132,0.542179,0.230139
-0.023242,0.019223,-0.171429,0.594613,0.113476,0.795964
-0.093398,0.015418,-0.137994,0.625042,0.320484,-0.711767
-0.105489,-0.000239,0.063589,0.317871,0.078370,0.944890
-0.850786,-0.022773,0.165199,0.143881,0.923657,0.355184
-0.303568,-0.209496,0.190699,0.446675,0.885436,0.128390
0.185288,-0.200279,0.191032,-0.095818,0.734539,0.671767
0.028557,-0.208183,0.255683,0.801112,0.508004,0.316469
-0.067574,-0.078819,-0.368101,0.943570,-0.322627,-0.074744
-0.160271,-0.091992,-0.202950,-0.781439,0.534971,-0.321184
-0.118025,-0.092868,-0.182695,0.718247,-0.657792,-0.226785
-0.224455,-0.097995,-0.145291,0.385894,-0.604189,-0.697167
-0.028015,-0.129746,0.354934,0.732773,0.669150,-0.123625
-0.180720,-0.164427,0.796169,-0.245116,0.218748,-0.944493
-0.043390,-0.185934,-0.060607,0.374316,0.626039,0.684078
-0.337751,-0.201306,0.070831,0.096499,0.967129,-0.235263
-0.161013,-0.198528,0.076769,0.398615,-0.362643,-0.842375
-0.388652,-0.210085,0.174300,-0.599138,0.741069,-0.303069
-0.058619,-0.080721,-0.342768,-0.210867,0.826915,-0.521294
-0.068021,-0.082624,-0.315437,-0.847069,-0.341973,-0.406852
-0.061753,-0.084678,-0.289910,-0.163444,-0.874767,0.456145
-0.059511,-0.086143,-0.264937,0.518239,0.850252,0.092194
-0.108025,-0.089063,-0.234693,-0.080256,0.996643,-0.016151
-0.185198,-0.102237,-0.073842,-0.286646,0.957020,0.044118
-0.440747,-0.297302,0.189422,-0.346745,0.870709,-0.348761
0.020198,-0.215355,0.354629,-0.546057,-0.700730,0.459128
0.078114,-0.404418,0.360428,-0.372201,0.520968,0.768153
-0.067574,0.506367,-0.647487,-0.302041,0.910261,0.283189
-0.395216,0.473445,-0.510749,0.936837,0.349480,-0.014128
-0.134296,0.373644,-0.622459,-0.244779,0.715275,0.654572
-0.203259,0.363543,-0.635861,0.366901,-0.800159,-0.474478
0.016613,0.311454,-0.590467,-0.137516,0.046492,0.989408
-0.031300,0.301942,-0.606838,-0.222345,-0.179220,0.958354
-0.173855,0.291259,-0.606283,0.102718,0.709574,0.697104
-0.309089,0.281158,-0.606005,0.308665,0.154392,0.938557
0.308286,0.197309,-0.967134,-0.628635,-0.115584,0.769063
0.187228,0.186626,-0.971269,-0.176373,0.090529,0.980151
-0.011147,0.205213,-0.498207,-0.445320,-0.635368,-0.630871
-0.227589,0.193941,-0.484167,-0.245429,0.490876,0.835946
-0.414623,0.183411,-0.474123,-0.596254,0.350943,-0.722025
0.056768,0.176972,-0.588635,0.766326,-0.163272,-0.621359
0.045722,0.167165,-0.612914,0.356535,0.214981,-0.909212
0.027660,0.138629,-0.686999,0.790250,-0.382392,-0.478833
-0.087873,0.128098,-0.691633,0.333938,-0.907500,0.254813
-0.121760,0.118435,-0.710778,-0.746894,0.593997,-0.298859
-0.046228,0.098830,-0.779675,0.932689,-0.359495,-0.029231
0.234845,0.049804,-0.969521,0.109002,0.403753,0.908351
0.087070,0.038979,-0.968272,-0.011382,0.355527,0.934597
0.001238,0.028583,-0.979204,0.508594,-0.292722,-0.809720
-0.139075,0.018053,-0.979232,-0.476416,0.342741,0.809664
-0.237142,0.007808,-0.986502,-0.498611,0.589084,0.635899
-0.359694,-0.002141,-0.988389,0.305931,-0.651331,-0.694388
-0.154449,0.113316,-0.420460,-0.666752,0.308018,-0.678650
0.196184,0.106144,-0.510888,0.466355,0.701704,0.538632
-0.096829,0.056244,-0.585167,0.885641,0.307321,-0.348129
-0.249979,-0.012529,-0.739219,-0.129885,0.989721,0.059850
0.142299,-0.031116,-0.869187,0.438118,-0.889629,0.128889
-0.128775,0.011613,-0.442796,0.560379,0.819170,-0.122210
-0.070112,0.002539,-0.479395,0.783152,0.251094,-0.568880
-0.163405,-0.007268,-0.486998,-0.685252,-0.687516,0.240314
-0.111460,-0.016780,-0.522680,-0.411861,0.895695,0.167631
-0.080261,-0.026435,-0.554673,0.898650,0.018975,0.438255
-0.091904,-0.036242,-0.578813,0.936566,0.106643,-0.333872
-0.096532,-0.045602,-0.603314,0.998921,-0.035471,0.029966
-0.171914,-0.065359,-0.640911,-0.325887,0.921477,-0.211372
-0.125937,-0.074728,-0.675345,-0.571495,0.779746,0.255713
-0.153998,-0.084973,-0.696738,0.798056,-0.595904,0.089473
-0.139672,-0.094922,-0.726372,-0.413333,-0.842111,-0.346419
-0.169076,-0.105015,-0.747738,0.767897,0.407743,0.494044
-0.139371,-0.114670,-0.779536,0.991309,0.120589,0.052578
-0.051899,-0.124182,-0.822877,0.991230,-0.013062,0.131499
0.341873,-0.133846,-0.927539,0.896422,-0.416510,0.151483
-0.120416,-0.144823,-0.863249,0.982525,-0.185350,-0.017014
-0.043094,-0.155210,-0.906285,0.719013,-0.227740,0.656624
-0.100263,-0.165597,-0.922656,0.974108,-0.008252,-0.225931
-0.112203,-0.175985,-0.948183,0.883547,0.028206,0.467493
-0.132506,-0.185934,-0.970963,-0.253439,-0.328595,0.909832
-0.246548,-0.196179,-0.975042,0.833826,0.226920,-0.503231
-0.345809,-0.206575,-0.983172,0.107850,0.331294,0.937344
-0.474630,-0.216668,-0.984032,-0.198658,-0.167632,0.965627
-0.613900,-0.227056,-0.983977,-0.583264,-0.042427,-0.811174
0.214096,-0.061992,-0.965636,-0.014543,0.188651,0.981936
0.104832,-0.072236,-0.970852,0.505411,-0.300241,-0.808960
-0.031004,-0.082919,-0.971879,0.105520,0.355329,0.928766
-0.208334,-0.093020,-0.963222,-0.250128,0.093910,0.963648
-0.270428,-0.103550,-0.978816,0.290050,0.107072,0.951003
-0.381933,-0.114090,-0.984338,-0.283313,0.736462,0.614294
-0.489557,-0.124477,-0.990775,0.014023,0.087186,0.996093
-0.102800,-0.128576,-0.402452,0.570484,-0.799596,0.187604
-0.038762,-0.137651,-0.439911,0.648026,0.724697,-0.234257
-0.036675,-0.146725,-0.464966,0.795243,0.511023,-0.326259
-0.075337,-0.156523,-0.483696,-0.314215,-0.940013,-0.132831
-0.095936,-0.166330,-0.506115,0.980105,0.180953,0.081544
-0.046825,-0.175699,-0.541382,-0.118748,0.852142,0.509660
-0.366409,-0.186962,-0.506559,-0.002732,0.965670,0.259757
