0.595137,-0.308793,0.006837,-0.446516,-0.064029,0.892482
0.033471,-0.258603,0.640139,-0.047773,0.946671,-0.318640
-0.074253,0.162695,-0.994820,0.415769,0.032187,-0.908900
0.181277,0.469455,0.066383,0.951085,0.288783,0.109738
0.609304,-0.560210,0.542577,0.521759,0.458664,0.719302
-0.004565,-0.310992,-0.929231,-0.477782,0.814104,0.330089
0.019495,0.241071,-0.446603,-0.293321,0.891049,0.346402
0.005200,0.543295,-0.402487,0.941449,-0.070408,-0.329720
-0.617476,-0.274141,-0.501274,-0.258090,0.691202,0.675004
-0.278215,-0.359667,0.193327,0.726492,0.635786,0.260740
-0.903891,-0.695028,-0.302502,0.184809,0.040551,0.981937
-0.438081,0.581173,-0.241788,0.852110,0.065255,-0.519279
-0.027601,0.142759,-0.104316,-0.061985,-0.204317,0.976940
0.177129,-0.097386,0.329128,0.994908,-0.075050,0.067274
-0.609752,-0.390945,-0.315425,0.380065,-0.384533,0.841240
0.042025,-0.233992,-0.952570,-0.105736,-0.038123,0.993663
0.051662,-0.051393,-0.962485,-0.132618,-0.004229,0.991158
-0.127352,0.505756,-0.053933,-0.380400,-0.644345,0.663412
-0.392453,-0.010899,0.042291,0.744713,0.439473,-0.502261
0.110307,-0.167924,-0.245408,0.998160,-0.057579,0.018983
0.508536,-0.152452,0.805489,-0.331068,-0.099681,0.938327
0.144390,-0.288165,0.483617,-0.339268,0.794917,0.502995
0.572545,-0.516691,0.568311,0.903763,0.390522,-0.175226
0.564311,-0.423121,0.781399,-0.366852,0.638537,0.676528
0.293913,0.104188,0.229366,0.881916,0.269137,-0.387027
0.601136,-0.721564,0.027141,0.713293,-0.344433,-0.610393
-0.033089,-0.150804,-0.966106,-0.171338,0.037186,0.984510
-0.150069,-0.446292,0.422317,-0.669259,0.707912,0.225728
0.059639,0.408200,-0.041735,0.637353,0.225739,0.736765
0.219504,0.253101,0.101280,-0.699700,0.636524,0.324432
-0.510644,-0.299372,-0.463425,0.006988,-0.999860,0.015176
0.082741,-0.075659,-0.947334,-0.617162,0.161831,0.770014
-0.117267,0.334503,0.042542,0.855118,-0.477584,-0.201709
-0.099654,0.296892,-0.387615,-0.766290,0.426376,-0.480628
0.353521,0.662986,-0.252677,-0.851060,0.140674,0.505873
-0.015986,-0.321579,0.350406,-0.145132,-0.540055,-0.829022
0.021922,0.107558,0.100806,0.970528,-0.216884,0.105057
-0.843520,-0.817472,-0.289802,0.470948,-0.356572,-0.806886
0.128879,-0.231239,0.481277,0.836209,0.228087,-0.498729
0.174001,-0.188753,0.218866,0.219212,0.910901,0.349580
0.245348,0.193151,0.871691,-0.506379,0.611293,-0.608195
0.185550,0.500737,0.131192,0.142711,-0.727236,0.671388
0.064169,0.367912,0.167091,0.815438,-0.219355,0.535672
0.332526,-0.278471,0.489243,-0.231034,-0.150439,-0.961245
-0.072976,0.155134,-0.989918,-0.417254,0.056170,0.907053
-0.140432,0.227043,0.161605,-0.436785,-0.898168,0.050140
-0.121097,0.421883,-0.085210,0.926837,-0.336088,0.167385
-0.221420,0.029182,0.794544,-0.335684,0.695910,-0.634843
-0.001437,-0.294837,0.350211,0.139481,0.511445,0.847921
0.050193,-0.274896,-0.793346,0.979500,-0.201270,0.008350
-0.345481,-0.240249,-0.308017,-0.166247,-0.549738,0.818627
-0.477009,0.457357,-0.388395,0.236127,-0.397866,0.886536
-0.791126,-0.429172,-0.287407,0.145401,-0.092542,0.985035
0.174573,-0.172871,0.583573,0.961819,-0.263814,0.072851
0.214460,0.340344,-0.635181,0.933432,0.026534,0.357771
0.872235,-0.324671,0.113952,-0.779027,0.442205,0.444492
-0.328697,-0.077996,0.059420,0.928866,0.192361,0.316552
-0.498837,0.501220,-0.381766,0.053573,-0.551935,0.832165
0.161747,0.053381,-0.764744,0.851880,-0.051258,-0.521222
-0.037175,0.280465,0.131442,-0.528942,-0.552835,0.643890
-0.874342,0.125778,-0.635738,0.323127,0.393128,0.860837
0.003030,-0.114712,0.715336,0.757011,-0.485327,0.437483
0.703692,-0.763022,-0.514002,-0.278416,0.371256,0.885807
0.217650,-0.280809,-0.037084,-0.296172,-0.610516,0.734542
-0.052363,-0.214535,0.106042,0.439780,0.771318,0.460068
0.057274,-0.180781,0.861219,0.539201,-0.830652,-0.138848
0.138325,-0.008491,0.205052,0.084307,-0.611471,-0.786763
0.154918,-0.326941,0.400509,0.937649,-0.260603,0.230000
-0.234247,0.541369,-0.109607,-0.238182,0.966250,0.098131
-0.209548,-0.421611,-0.187590,-0.622962,0.239087,0.744819
0.745490,-0.393765,0.092144,0.866550,0.021427,-0.498630
-0.150707,-0.154450,0.044046,0.448138,0.686046,-0.573160
-0.157088,-0.243064,-0.291279,-0.025201,0.999487,-0.019776
-0.564186,-0.058131,-0.669494,-0.566837,0.823449,-0.025064
-0.038706,0.346944,0.150130,0.703886,-0.257946,-0.661822
-0.238968,0.182287,-0.452842,-0.394446,-0.727620,0.561232
0.000094,-0.081093,-0.452480,-0.319491,-0.288315,0.902663
0.099778,-0.408477,0.386333,0.840605,-0.470785,-0.267852
-0.001055,-0.260252,0.003913,0.508751,-0.495830,-0.703793
-0.731071,-0.136436,-0.543997,0.294998,0.850024,0.436389
-0.012795,-0.184012,-0.533191,0.367826,0.624938,-0.688590
0.142664,-0.154861,0.492195,0.791625,-0.605933,0.078581
0.061742,0.569970,-0.048948,-0.766073,-0.069997,0.638931
-0.263028,-0.345161,-0.566222,0.057739,-0.629783,0.774623
-0.152238,-0.205668,0.021181,-0.614084,0.424444,-0.665393
-0.152943,-0.273524,0.387587,-0.691239,-0.070423,-0.719187
-0.024411,-0.149566,0.707844,-0.003777,0.321203,0.947003
-0.073743,0.047335,-0.986130,-0.366216,0.134166,0.920807
0.477967,-0.756489,-0.058417,-0.751150,-0.148613,0.643186
-0.801655,0.159326,-0.731323,0.305492,-0.813078,-0.495559
0.450779,0.331133,-0.298046,0.637912,0.769782,-0.022456
0.083952,0.031863,0.128796,0.906026,0.381753,0.182707
-0.603691,-0.504728,-0.308268,-0.231971,0.218458,0.947874
-0.539616,-0.685058,-0.278996,0.161722,-0.117755,0.979786
0.279236,-0.032967,0.810614,-0.124136,-0.706767,0.696470
-0.085358,-0.222512,0.452842,0.831292,-0.367521,0.416991
0.149878,-0.418724,-0.116292,0.929598,0.255520,-0.265625
-0.009158,0.009863,-0.408392,-0.773861,-0.559282,-0.297226
0.142793,-0.288441,-0.180376,0.968804,0.068055,0.238302
-0.330995,0.283213,-0.718260,0.842827,0.130334,-0.522165
0.242221,-0.211509,-0.315175,-0.262169,-0.959046,-0.107234
-0.063787,-0.399060,0.187423,-0.189414,0.964582,0.183587
0.303359,-0.644154,0.199788,-0.161879,-0.385778,-0.908279
-0.461440,-0.000585,0.183663,0.954660,-0.277171,0.108630
0.533933,-0.734971,-0.126958,0.877602,0.323261,-0.354002
0.106354,-0.034066,-0.956330,-0.073504,0.281807,0.956651
0.125050,-0.447870,0.719569,0.986446,0.163864,-0.008585
0.063402,0.081982,0.154169,0.649482,0.750256,-0.123649
0.143494,0.406139,0.036666,0.876094,-0.013355,-0.481955
0.500111,-0.455847,0.542967,-0.368406,-0.013488,0.929567
0.050322,0.069608,0.019788,0.819007,-0.546941,-0.173445
-0.318998,-0.333542,-0.481361,-0.211154,-0.474978,-0.854289
0.261813,-0.335258,0.683391,-0.545183,-0.645515,0.534870
0.434185,0.393211,-0.166562,0.059988,-0.486695,0.871510
-0.255690,-0.147984,-0.127042,0.676903,0.641440,-0.361050
-0.789911,-0.419068,-0.288271,0.145499,-0.095869,0.984703
0.480967,-0.461004,-0.030316,-0.515407,-0.390962,0.762564
-0.364692,-0.174248,-0.605576,-0.131985,0.986122,-0.100710
-0.091357,0.313530,-0.015220,0.994176,-0.107770,-0.000208
0.340885,0.290913,-0.033212,-0.650175,-0.712609,-0.263556
-0.178468,-0.423742,0.390678,-0.365513,-0.252323,-0.895954
0.117073,-0.061291,-0.951122,0.140165,0.444355,0.884818
-0.724562,0.042039,-0.649580,0.056390,0.504127,0.861787
0.779378,-0.895365,-0.479105,-0.513711,0.295257,0.805558
-0.096144,0.033928,-0.442899,0.675501,0.594891,0.435664
-0.456781,0.021344,-0.699378,0.962950,-0.042640,-0.266287
0.011580,-0.105703,-0.305399,0.700617,0.395613,0.593824
0.557292,0.365986,-0.181518,-0.716043,0.272443,-0.642695
0.150131,-0.194460,0.482252,-0.547706,0.337549,0.765558
-0.082741,-0.217766,0.705254,-0.441448,0.843704,-0.305430
-0.084400,0.165788,-0.996379,-0.235848,0.051411,0.970429
0.083505,0.032002,0.612650,0.228478,-0.583806,0.779081
0.554230,-0.427317,0.135508,-0.370736,-0.764813,0.526893
0.673060,-0.958819,-0.499993,-0.404528,0.258406,0.877259
-0.390408,-0.076347,-0.713219,0.735248,0.461337,-0.496567
-0.080061,-0.243891,0.431062,0.923963,-0.380475,0.039127
0.234372,-0.174524,0.748450,-0.053403,-0.873962,0.483051
0.728963,-0.653226,0.184331,0.588807,0.168340,-0.790549
-0.583779,-0.011034,-0.243876,0.144905,-0.686805,0.712251
0.163024,-0.190818,0.459359,0.453941,-0.890334,0.035271
0.398004,-0.410885,-0.029508,0.624984,0.558507,-0.545403
-0.673508,0.202294,-0.735862,-0.232983,-0.822442,-0.518948
-0.214588,-0.121242,0.140744,0.669475,0.124971,0.732247
-0.325440,-0.212953,0.024161,0.758984,0.085955,-0.645411
-0.185168,0.012750,0.158764,0.806918,0.258444,0.531121
-0.244203,-0.075319,0.079667,0.021644,-0.976792,0.213094
-0.274067,0.092364,-0.462172,-0.191872,-0.311880,0.930546
0.393216,0.002784,0.231482,-0.047134,-0.505782,0.861373
0.149940,-0.182774,-0.025247,0.787416,0.592042,0.171645
0.405724,-0.330655,0.144783,-0.579411,0.196798,-0.790919
0.021283,0.546664,-0.565721,-0.693472,-0.080906,0.715926
-0.045725,-0.283834,0.352355,-0.389880,-0.587347,-0.709236
0.103607,-0.122824,-0.949840,-0.020152,0.277248,0.960587
-0.574080,0.371215,-0.424099,0.022495,-0.632608,0.774145
-0.081849,0.121653,-0.997577,0.223613,-0.338084,-0.914164
0.302019,-0.337528,0.518068,0.214102,0.467693,0.857569
-0.016944,-0.138635,-0.955745,-0.125351,0.529309,0.839118
-0.120458,0.279705,0.115317,-0.469489,0.089374,0.878404
-0.761511,-0.521299,-0.297712,0.106072,-0.217874,0.970196
0.570247,-0.773748,0.041929,0.809138,-0.256896,-0.528488
-0.111460,0.051732,0.099358,-0.437421,-0.890251,0.126948
-0.026709,-0.083703,-0.967275,0.244050,-0.129006,-0.961144
-0.245796,-0.087005,0.104705,-0.221232,-0.916818,0.332419
0.700626,0.115463,-0.253318,0.589037,-0.800939,0.107391
-0.345738,-0.239493,0.240228,0.734495,-0.122143,0.667531
-0.120458,0.091675,-0.477072,-0.037288,0.223937,0.973890
-0.068574,-0.115468,-0.965214,-0.437160,0.213515,0.873672
0.000160,0.078613,0.175669,0.740203,0.435658,0.512153
0.320973,-0.518752,-0.136149,-0.448093,0.218705,-0.866823
0.412680,-0.637415,-0.040732,0.434595,0.096673,-0.895422
-0.589777,-0.149842,-0.601788,0.053782,0.854307,0.516979
-0.007116,0.109828,0.053599,-0.006328,-0.967292,0.253585
-0.074511,-0.327696,-0.943296,0.505175,-0.551290,-0.663986
0.663805,0.259564,-0.352356,0.469095,0.702338,0.535416
0.127606,-0.197280,0.565247,0.028572,0.997372,0.066582
0.462137,-0.314911,-0.585635,0.215498,0.656139,0.723216
-0.154026,0.437900,0.176059,-0.298752,-0.831654,0.468080
0.561312,0.127565,-0.277632,-0.383012,-0.758885,-0.526683
0.155429,-0.090098,-0.950091,-0.226360,0.245347,0.942638
0.246435,0.344468,-0.304675,-0.646144,0.180302,-0.741613
-0.456781,-0.312158,-0.595466,-0.547508,0.110823,-0.829430
-0.006797,-0.045069,-0.968361,-0.323062,0.556734,0.765296
0.144323,0.498539,0.101057,0.930237,-0.364253,0.044480
-0.056511,0.159876,-0.303811,0.667437,0.525772,0.527345
-0.292257,0.178922,0.155282,0.511713,0.567086,0.645417
-0.168450,0.087827,0.021153,-0.432023,-0.862444,-0.263716
-0.577204,0.176446,-0.463536,-0.151288,-0.352319,0.923571
0.222819,0.562748,0.195499,0.050123,-0.847963,0.527680
0.109991,-0.197280,-0.204467,0.911193,-0.109095,0.397272
0.099015,-0.182636,-0.204607,0.880556,-0.214884,0.422428
0.069977,-0.152318,-0.945830,-0.322949,0.116898,0.939169
0.137495,-0.208350,0.670385,-0.371047,-0.279836,-0.885447
0.658956,-0.451928,0.493448,0.340481,0.564284,0.752101
0.213949,-0.240660,0.176505,0.321529,0.392346,0.861791
0.078912,0.030420,0.125176,0.839435,0.542131,0.038001
-0.303682,-0.258603,-0.314088,0.042266,-0.999023,0.012924
0.059253,0.542401,-0.057081,-0.780022,0.342022,0.524010
0.051595,0.111338,0.165949,0.339668,0.938567,-0.060979
-0.182106,0.227526,0.119912,0.493187,-0.439005,-0.751027
0.389002,-0.251180,0.158959,0.533324,-0.083336,0.841796
-0.019561,0.047675,-0.421843,0.870832,0.374605,0.318312
0.066720,-0.194666,-0.468911,0.977530,0.092890,-0.189226
-0.662785,-0.261011,-0.686873,-0.560864,-0.563227,0.606800
-0.181915,-0.355337,0.197978,-0.468925,-0.883208,0.007214
-0.114650,0.308789,-0.034605,0.885242,-0.449093,-0.121091
-0.016500,-0.084941,0.730376,0.447050,-0.865876,0.224508
0.020964,-0.080128,-0.954408,-0.258658,0.302328,0.917439
0.036599,-0.216734,0.818635,0.489594,-0.726349,0.482405
-0.192892,-0.411573,0.413516,0.327264,-0.229738,-0.916580
0.401832,-0.013854,-0.206055,-0.400230,0.239138,-0.884663
0.546315,-0.407860,-0.004776,-0.282172,-0.390525,0.876281
-0.206100,-0.279986,0.218755,0.283230,0.225370,0.932196
0.285874,-0.061979,-0.175614,0.350238,0.073956,0.933737
-0.006158,-0.053453,0.061815,0.237960,0.790189,-0.564779
0.142282,-0.222579,0.755692,0.851026,-0.381481,0.360870
-0.514472,0.296758,-0.442954,-0.009688,-0.630253,0.776329
-0.187466,-0.342341,-0.204078,-0.690439,0.722873,-0.027354
0.002582,0.229380,-0.537174,0.976588,0.156292,-0.147814
-0.336292,-0.038880,0.090808,0.135962,0.685857,0.714923
0.127730,-0.112237,0.947194,0.360613,0.927979,-0.093877
0.318164,-0.598159,0.199064,0.198668,0.442897,0.874284
-0.070167,0.152864,-0.414435,0.601997,0.343655,-0.720764
0.431825,-0.111616,0.801618,-0.317310,-0.080334,0.944913
-0.307125,-0.615553,-0.275431,0.621761,0.747550,-0.233629
-0.181978,-0.091059,-0.042542,0.329230,-0.140506,-0.933738
0.049617,-0.245746,-0.778585,0.995426,0.036690,0.088204
0.693416,-0.519851,0.155394,0.634362,0.165249,-0.755168
-0.074511,0.139801,-0.993037,0.405822,-0.146212,-0.902181
-0.299277,0.800141,-0.208032,0.603188,-0.448030,-0.659873
-0.339291,0.097659,-0.770453,0.026898,-0.184458,0.982472
-0.169790,-0.380291,0.055437,0.347644,0.079581,0.934243
0.045534,-0.233098,0.818663,-0.490187,0.763250,-0.420910
0.715307,-0.868690,0.127905,-0.153819,0.636038,0.756172
-0.396663,-0.235230,-0.306736,-0.331545,-0.736568,0.589530
-0.155686,-0.250836,-0.206668,0.793037,-0.607155,-0.049539
0.116882,-0.155549,-0.067942,0.740085,0.658108,-0.138452
-0.223715,0.163933,-0.443094,-0.630987,-0.598165,0.494018
0.157216,-0.522192,-0.108075,0.993250,0.046650,-0.106202
-0.092825,0.077308,-0.470443,-0.625868,-0.336334,-0.703682
-0.375668,0.313257,-0.444235,-0.226895,0.382830,-0.895522
-0.023581,0.264444,0.017337,-0.136931,-0.295582,0.945453
0.044833,0.540269,0.009901,-0.238627,0.833225,0.498791
-0.451102,0.049257,-0.665205,-0.766995,-0.360631,-0.530719
0.511536,-0.511601,-0.008119,-0.672532,-0.092285,0.734292
-0.279813,-0.511052,0.004943,0.025652,0.732016,0.680804
0.013306,0.261351,-0.045689,0.334196,0.317514,0.887411
0.196526,0.171839,-0.288326,-0.882293,0.369852,0.291151
-0.102462,0.530782,-0.373244,0.997412,-0.032891,0.063933
-0.205847,-0.143448,-0.065018,-0.469133,-0.844644,0.257856
0.147708,-0.210615,0.437384,0.483073,-0.866929,-0.122781
-0.039216,-0.182086,0.710490,0.593679,-0.512019,0.620791
0.123009,-0.199273,-0.181518,0.991373,-0.012373,-0.130485
-0.005266,-0.156372,-0.956330,0.161621,0.553525,0.817000
-0.241204,0.407855,-0.365668,0.075065,0.581228,-0.810271
-0.086060,0.269806,-0.423125,0.988401,0.132668,-0.073907
0.097547,-0.136847,-0.343917,0.936654,-0.226402,-0.267248
0.508980,-0.324398,0.074459,-0.671085,-0.330603,0.663586
0.461755,0.399123,0.151300,0.280449,0.587856,-0.758797
0.078974,-0.194527,-0.456184,-0.434004,0.895085,0.102292
0.106096,-0.090031,0.173079,0.937699,0.336353,-0.087106
-0.490603,-0.028909,-0.710824,0.281984,0.325208,0.902621
0.123901,-0.085423,-0.952598,-0.012032,0.120941,0.992587
-0.253964,0.039291,-0.012603,-0.304975,0.604284,-0.736092
-0.255433,0.057922,0.180070,0.917188,0.111891,0.382421
0.036728,-0.062735,0.729039,-0.513014,0.524547,-0.679461
0.079613,-0.170811,-0.045856,-0.492838,0.851960,-0.176844
0.742557,-0.542678,0.181240,0.637905,-0.112234,-0.761893
-0.065575,0.210750,-0.077189,0.733960,0.479490,-0.481032
0.298319,0.079301,0.232485,0.881916,0.269137,-0.387027
-0.183637,0.117457,0.115010,0.740748,0.357025,0.569057
-0.501965,0.268501,0.214605,0.630001,0.159934,0.759947
0.039661,-0.123373,-0.547312,0.955287,0.185024,-0.230634
0.107822,-0.008218,0.581763,-0.806128,0.243703,-0.539228
0.174001,-0.142898,-0.944632,-0.144891,0.033394,0.988884
0.139092,-0.164349,0.216053,-0.215829,-0.223005,0.950624
-0.720156,0.442646,-0.400203,-0.577418,-0.702500,-0.416032
-0.013181,-0.319036,0.341299,0.042054,0.537870,0.841978
-0.121860,-0.182292,0.131971,0.763149,0.179398,0.620822
-0.200807,0.049051,-0.691273,0.650114,0.594873,0.472734
-0.249816,0.707331,-0.616159,-0.529039,-0.645991,0.550285
-0.320400,0.609980,-0.117405,0.882995,-0.193656,-0.427571
-0.107440,0.153825,-0.469524,0.459517,0.041809,-0.887184
-0.007436,-0.215084,-0.545613,-0.083889,0.828533,0.553620
0.270429,-0.058887,0.811338,-0.190251,0.497352,-0.846431
0.018155,0.113265,0.094373,-0.732133,0.199898,-0.651170
-0.037495,-0.326186,-0.935943,-0.478563,0.522384,0.705757
0.150832,-0.215840,0.492251,0.931454,-0.258416,-0.256153
0.211207,0.363443,0.079389,-0.283614,-0.434414,0.854896
0.121478,0.154718,0.884614,-0.253250,0.688794,-0.679285
-0.040303,-0.247193,-0.957611,-0.293093,0.171250,0.940622
0.123391,0.027327,0.119466,0.943716,0.325402,-0.059282
-0.604264,-0.424636,-0.327262,0.207321,-0.411235,0.887640
0.115604,-0.050771,0.828327,-0.675236,0.416943,-0.608453
0.189317,-0.183735,0.732019,0.284055,0.785997,-0.549110
0.597116,0.404968,-0.177480,-0.769855,0.402940,-0.494936
0.296402,-0.209927,-0.325897,-0.140855,-0.807060,0.573424
-0.041577,-0.000380,-0.464066,0.695460,0.677132,-0.240474
-0.715373,0.424699,-0.414575,0.615769,0.466564,0.634938
-0.416895,0.230484,-0.450669,-0.066130,-0.134070,0.988763
0.016815,-0.178028,-0.955884,-0.274180,0.351303,0.895216
0.512174,-0.480185,0.550041,0.867034,0.393227,-0.305981
0.130796,0.015087,0.184247,-0.109494,0.691356,0.714170
-0.518812,0.455293,-0.389202,0.254020,-0.086021,-0.963366
0.176423,-0.187516,0.450558,0.966611,0.031476,0.254306
0.171831,-0.112442,0.225578,0.925563,-0.106570,-0.363286
-0.011327,0.016602,-0.973096,-0.254544,0.153047,0.954874
-0.857877,-0.502047,-0.301166,0.225380,0.315124,-0.921901
-0.010817,0.108863,-0.028283,-0.459075,-0.136593,-0.877834
0.145854,-0.550101,-0.093983,0.994947,-0.042012,-0.091187
-0.445548,0.607026,-0.320216,-0.183494,0.959267,0.214794
0.160344,-0.213641,0.295178,0.968675,-0.096659,0.228749
0.227481,-0.049261,0.519823,0.994917,-0.011102,0.100089
-0.103802,0.251864,0.008146,-0.250902,-0.435992,0.864268
0.012605,-0.013098,-0.443344,0.632125,0.352250,-0.690173
0.554803,-0.484654,0.556447,0.809385,0.436001,-0.393446
0.182040,-0.173081,0.301639,0.967896,-0.202956,0.148276
-0.318869,0.700113,-0.179179,0.515570,0.852224,-0.088887
-0.218612,0.157333,-0.443790,-0.630987,-0.598165,0.494018
0.065957,-0.214191,0.441423,0.119618,0.838314,-0.531903
0.225308,0.415350,0.096963,0.137948,-0.990341,0.013951
0.184147,-0.204980,0.339461,0.866206,-0.498480,-0.034706
-0.096273,-0.118904,-0.974321,-0.311054,0.384773,0.869020
0.628320,-0.470697,0.133810,0.411618,0.304009,-0.859156
0.129199,0.098414,-0.294203,0.468963,-0.160728,-0.868470
-0.063339,-0.218865,0.306095,0.805341,0.543172,0.237466
0.176042,-0.061224,0.131804,0.821933,0.549728,0.149085
0.105076,-0.180781,0.023214,-0.702490,0.709360,0.057591
-0.060087,-0.102955,-0.347565,-0.823288,0.159301,0.544811
0.138516,-0.175074,0.678712,0.069816,-0.654323,0.752986
0.253388,0.317588,-0.281614,-0.619894,0.164136,-0.767327
0.312867,0.442575,-0.171269,0.048736,-0.717722,0.694622
0.043618,-0.121930,0.664675,-0.306386,0.899957,0.310170
0.422827,-0.307484,0.125816,0.964164,-0.189881,0.185292
-0.270238,0.640436,-0.181323,0.247096,0.924533,0.290141
0.071889,-0.217904,-0.947390,0.349496,-0.049021,-0.935654
0.170043,-0.178234,0.655735,0.917636,0.291876,-0.269728
0.594308,-0.683547,-0.525588,-0.193746,0.181434,0.964129
0.139283,-0.163799,0.645876,0.836739,-0.545508,0.047830
-0.197422,-0.364341,0.217111,0.314656,0.906614,0.281144
0.839048,0.024440,-0.307766,0.335979,0.690812,0.640232
-0.567443,-0.145235,-0.618359,0.051254,0.849197,0.525583
0.014899,-0.332854,-0.795742,-0.669930,0.741779,-0.030945
0.690674,-0.603795,0.156452,0.830250,0.043990,-0.555652
0.028813,0.030147,0.750957,0.739481,-0.125508,0.661374
0.038449,-0.277578,-0.801590,0.969784,-0.226772,-0.089967
0.132899,-0.372524,0.621005,0.989252,-0.023817,0.144268
-0.021860,-0.236397,-0.021041,0.970064,0.216796,-0.109435
0.176743,0.062181,0.167593,-0.618439,0.511268,0.596773
0.036537,0.261145,0.009984,-0.079026,-0.395876,0.914897
-0.256964,-0.442508,-0.008146,-0.383594,-0.205649,0.900313
0.132646,-0.111754,-0.938839,-0.167274,0.232464,0.958113
0.241328,0.142688,0.189567,-0.778720,0.451239,0.435865
-0.206358,-0.164693,0.029452,-0.304312,-0.331055,0.893195
0.073358,0.095871,0.004609,-0.716027,0.633187,0.293903
-0.176236,0.336424,0.009511,0.450595,0.159236,-0.878412
-0.725711,0.464231,-0.423069,-0.633240,-0.643620,-0.429838
-0.095887,0.394999,0.040036,0.926190,0.194936,-0.322756
0.093207,-0.418241,0.709014,0.913464,0.404383,0.045373
-0.604135,0.258943,-0.460946,-0.038198,0.263341,-0.963946
-0.526150,-0.074698,-0.444570,0.082548,0.510926,0.855652
0.436866,0.100131,0.259501,0.467106,-0.786797,0.403438
-0.089888,0.271321,-0.090195,0.880587,0.469280,0.065891
-0.348098,-0.165721,0.242651,0.837431,0.214924,0.502511
0.133028,-0.166342,0.169180,0.939601,-0.334988,-0.070238
0.314846,0.687735,-0.295456,0.893299,-0.172368,-0.415097
-0.148090,-0.347977,-0.287073,0.910070,-0.323065,0.259619
0.214140,0.599255,-0.528735,0.654337,0.049148,0.754604
-0.704202,0.051321,-0.649135,0.255656,0.629367,0.733851
-0.161365,-0.176240,0.761485,-0.678612,0.421018,-0.601855
-0.191170,-0.194599,-0.553968,0.655658,0.747296,-0.107990
0.092950,-0.779933,-0.019816,-0.692381,0.063141,-0.718764
0.159258,0.355194,0.030789,0.959683,-0.107979,-0.259517
0.715241,-0.495379,0.171631,-0.513928,-0.008219,0.857794
0.028622,-0.163522,-0.060952,-0.448118,-0.351281,-0.822066
-0.145539,-0.383245,0.410285,-0.432437,-0.743875,-0.509557
-0.111908,-0.432886,0.004832,0.930695,-0.292966,-0.219040
-0.117840,-0.026367,-0.494284,0.188714,-0.969924,0.153737
-0.402790,0.274481,-0.441590,0.001665,-0.621896,0.783098
-0.076103,-0.253584,0.748980,-0.550205,-0.042082,-0.833969
0.461183,-0.384760,0.750985,-0.207045,0.574455,0.791918
0.076295,-0.403873,0.691133,0.999809,0.013091,0.014546
-0.032197,-0.118837,0.773210,0.432169,-0.899798,0.059941
0.429527,-0.493247,0.764743,0.796359,-0.066833,-0.601120
-0.166662,-0.249665,0.759313,-0.109227,-0.310644,0.944230
-0.304636,-0.032417,-0.513445,0.821840,0.567793,0.046794
-0.214974,-0.288030,0.402988,0.009049,0.026454,0.999609
-0.081401,0.085625,0.265461,0.286342,0.766556,-0.574804
0.334310,0.724380,-0.272981,-0.865874,0.112218,0.487513
0.240881,0.140762,0.211625,0.984621,-0.110797,-0.135075
0.045663,-0.213024,-0.771344,0.997895,0.064761,0.003411
0.654106,-0.567566,0.015276,0.316537,-0.274496,-0.907996
0.325951,0.459212,0.144421,0.461113,0.520594,-0.718579
0.316762,0.073938,0.256465,-0.382217,-0.899998,-0.209556
-0.339482,-0.235574,0.235827,0.743459,-0.027618,0.668211
0.131306,0.239145,-0.074571,0.200725,-0.217065,0.955297
0.243241,-0.292017,-0.366309,0.413773,0.670400,-0.615918
-0.018155,-0.056000,-0.477295,0.743775,0.594790,0.305000
-0.436678,0.112644,-0.725084,0.764482,0.505906,0.399532
0.134625,-0.123373,0.941095,0.966821,0.251529,0.044602
-0.168321,0.221546,0.164390,-0.123886,-0.948090,0.292877
0.151409,-0.224983,0.400148,0.171195,-0.906088,0.386907
0.421550,-0.284799,0.500661,-0.429553,0.227495,-0.873917
0.077377,0.176308,-0.488936,0.772286,0.546128,-0.324528
-0.659212,-0.189374,-0.666653,0.975952,-0.113799,-0.185921
0.113053,0.162490,0.128602,-0.060868,0.993834,0.092681
-0.009158,0.068303,0.745861,0.834031,-0.224526,0.503965
-0.376880,0.479358,-0.187618,0.279031,0.894315,-0.349776
-0.299339,-0.322816,0.214661,-0.521616,0.130877,-0.843082
0.143560,-0.129147,0.764186,-0.348707,-0.714856,0.606123
-0.043365,0.335187,0.164557,0.149971,-0.424556,0.892895
-0.434890,0.070774,0.225021,-0.185028,0.336534,0.923315
0.026261,0.401188,0.212210,0.344477,-0.853636,0.390692
-0.105080,-0.349353,0.006642,0.141479,-0.255186,0.956485
-0.552189,-0.082192,-0.669076,0.158675,-0.674080,-0.721414
-0.345863,-0.059504,-0.484870,-0.407226,0.746052,-0.526853
-0.758450,0.628473,-0.334252,-0.234016,-0.831389,0.504013
-0.518874,0.325082,-0.433652,0.047776,-0.681037,0.730689
-0.143369,0.112094,-0.426578,0.138063,0.985678,0.096835
0.026261,-0.228424,0.814262,-0.486417,0.809805,-0.328047
0.069910,-0.188065,-0.300831,0.676667,-0.736084,0.017367
-0.200293,-0.613698,-0.209675,-0.293153,0.228464,-0.928367
0.617538,-0.562480,0.563131,0.708515,0.073980,0.701808
0.183571,0.106731,-0.196613,0.638922,0.487773,-0.594858
0.187657,0.065001,-0.248973,0.968706,-0.165174,-0.185272
0.119562,-0.057372,-0.309576,0.768860,0.268024,-0.580533
-0.019051,0.371005,0.179234,-0.292276,-0.726450,0.621969
-0.815058,0.296414,-0.721742,-0.063373,0.910623,0.408350
0.651742,-0.443061,0.158764,0.310388,0.332655,-0.890505
-0.548551,0.464231,-0.387086,-0.364678,-0.141139,0.920375
-0.688761,0.140762,-0.688154,-0.358144,-0.395384,-0.845816
0.065447,-0.186211,0.550320,-0.219281,0.964819,0.145049
-0.026580,-0.160702,-0.028394,0.996505,-0.074083,0.038588
-0.274772,0.020039,0.197699,0.984795,0.017486,0.172838
-0.200421,0.115119,0.127042,0.738261,0.355542,0.573202
0.178659,-0.196659,0.442787,0.953130,-0.215889,0.211978
-0.030986,-0.273659,0.004247,0.965588,0.220976,0.137145
-0.194805,-0.059025,0.058417,0.313083,-0.919200,0.238851
0.792209,-0.386615,0.147067,0.407430,-0.887871,0.213743
-0.246053,0.060393,0.035023,-0.792711,-0.195724,-0.577323
0.082612,-0.191024,0.083483,-0.431294,0.787735,0.439840
0.043108,-0.256060,-0.825876,-0.776678,0.629726,0.014706
0.157855,-0.185867,0.655568,0.947447,0.229149,-0.223237
0.057594,-0.117872,0.832616,0.356093,0.810438,0.465174
-0.200678,0.454743,0.210901,0.342222,0.825433,-0.448937
0.184210,-0.176656,0.286070,0.987275,-0.135873,-0.082628
-0.035964,-0.235503,-0.951344,-0.376538,0.269121,0.886450
-0.121988,-0.041078,-0.305315,-0.320838,0.929547,0.181673
0.677080,-0.852740,-0.505842,0.529446,-0.232176,-0.815954
-0.630365,-0.466778,-0.317041,0.863096,0.322332,0.388802
0.050002,-0.055035,-0.963710,0.247043,-0.113198,-0.962370
0.081592,-0.155067,0.728899,0.590856,0.777270,-0.216195
0.005648,-0.197074,0.623901,0.761105,0.575134,0.299898
0.488305,-0.479979,0.792734,0.493855,-0.543602,-0.678678
-0.543955,-0.328935,-0.315258,-0.696253,0.699305,0.161877
0.221545,-0.007186,0.528874,-0.577298,0.728070,-0.369651
0.165832,-0.203260,0.671081,0.640247,0.759514,0.114990
-0.512747,-0.284040,-0.336564,0.083341,0.650895,0.754579
-0.312489,0.241482,-0.037306,-0.210837,0.232649,0.949432
-0.119437,-0.396035,0.010541,0.916359,-0.135513,-0.376726
-0.558059,0.774360,-0.234017,0.332480,0.676288,-0.657337
-0.491818,-0.241277,-0.728705,-0.069751,-0.248682,0.966070
-0.069786,0.145990,-0.999359,0.415769,0.032187,-0.908900
-0.146431,-0.014475,0.773238,-0.643746,-0.750016,0.151878
-0.048662,0.458940,-0.451533,0.578765,-0.096034,-0.809820
-0.267749,0.043621,0.013884,-0.440038,0.881115,0.173213
0.022047,0.222990,-0.564858,-0.458905,-0.283731,-0.841964
-0.469098,-0.696194,-0.688711,0.900229,0.422215,0.106404
0.249115,0.599049,0.019927,0.842258,0.101129,-0.529504
-0.005009,-0.263277,-0.331523,0.289490,-0.633267,0.717752
0.242606,-0.059365,0.803067,0.202985,0.627023,-0.752090
0.126581,-0.167441,0.738452,0.119002,-0.962812,0.242551
-0.362966,-0.114574,0.070616,0.067423,-0.890128,0.450696
0.106287,-0.201816,-0.226581,0.627072,-0.737913,0.249530
-0.197103,-0.134581,0.101447,0.439977,0.877951,0.188738
-0.289578,-0.443128,-0.173581,-0.240810,0.742733,0.624786
-0.626918,-0.090165,-0.684004,0.397944,-0.705433,-0.586519
-0.098185,-0.160291,-0.963320,-0.367147,0.197452,0.908964
0.124731,-0.216599,-0.066383,-0.121359,0.047629,0.991465
0.180829,-0.001341,0.551183,-0.243994,0.844629,-0.476517
-0.051852,0.131207,-0.987941,-0.610818,0.014102,0.791646
-0.321421,-0.322195,0.217223,-0.608298,0.187861,-0.771156
-0.081272,-0.336152,0.036721,-0.215584,-0.792008,-0.571181
0.109544,-0.160291,0.754773,-0.055427,0.993571,-0.098714
-0.539168,-0.089548,-0.436549,0.163017,0.408495,0.898086
-0.001757,0.403320,0.162858,-0.537280,0.773505,-0.336185
-0.733178,0.456808,-0.405217,-0.633240,-0.643620,-0.429838
0.065957,-0.241210,0.390260,-0.183088,0.936900,-0.297820
0.180062,-0.170055,0.530183,0.888425,-0.422093,0.180384
-0.455694,0.264305,-0.456211,0.186352,0.623870,-0.758986
-0.096206,0.157194,-0.998468,0.368978,-0.178350,-0.912166
-0.844603,0.175070,-0.727312,-0.343409,0.819796,0.458263
0.191295,-0.206352,0.386696,0.996745,-0.029407,-0.075061
0.178340,-0.584958,-0.148014,0.951514,-0.297316,-0.078894
0.082355,0.121237,0.027085,0.773526,-0.614527,-0.154963
0.528830,-0.440447,-0.378146,0.060248,-0.687651,0.723538
-0.148090,0.519918,-0.088023,-0.545258,-0.746939,-0.380494
0.328311,0.593825,-0.264987,-0.901915,0.248264,0.353432
-0.844988,-0.619333,-0.315425,0.057898,0.283144,-0.957328
0.361817,-0.192329,0.748312,0.284586,0.508016,-0.812976
0.152940,-0.182841,0.653368,0.973833,0.101915,-0.203134
0.703882,-0.902238,0.142109,0.759151,0.516513,0.396111
-0.378668,-0.127154,0.007004,0.990344,-0.025794,0.136213
-0.205018,0.467600,-0.082592,-0.264504,0.047081,0.963235
-0.210568,-0.293393,0.405272,-0.325406,0.010027,-0.945521
0.592711,-0.701423,-0.534862,-0.193746,0.181434,0.964129
0.621430,-0.541923,0.017421,-0.466566,0.266492,0.843385
-0.368455,0.094768,0.133447,-0.025362,-0.720214,0.693289
0.649958,0.180638,-0.340018,0.419746,0.682639,0.598178
-0.152558,-0.374996,0.265321,0.388258,0.909992,0.145500
0.006158,-0.203671,0.620977,0.678707,0.601983,0.420682
-0.494050,0.288165,-0.455849,0.123555,-0.514420,0.848591
-0.032579,-0.075180,0.752489,-0.444421,-0.770453,0.457048
0.089441,-0.052353,-0.945941,0.090145,0.511626,0.854466
-0.050131,0.171700,0.127682,0.693999,0.107293,0.711937
-0.594436,-0.035510,-0.658186,0.271712,0.059941,0.960510
-0.300106,0.621738,-0.111612,0.854661,-0.137869,-0.500547
0.331821,0.313396,0.088106,0.759351,0.321106,-0.565930
0.425254,-0.330516,0.075935,-0.701235,0.573554,-0.423445
0.298957,0.405930,-0.042152,-0.542244,0.444472,0.713033
-0.151856,-0.292566,-0.269388,0.973246,0.029242,-0.227897
0.489516,-0.399405,0.136483,-0.300195,-0.842596,-0.447119
0.217845,-0.031247,0.808859,0.108013,0.674402,-0.730421
-0.889339,-0.492559,-0.298548,-0.217663,-0.357849,0.908056
0.230481,-0.215290,0.180404,0.044337,-0.094071,0.994578
-0.658063,-0.713247,-0.265628,-0.035210,-0.636421,0.770538
0.422060,0.663880,-0.200429,-0.724221,0.336816,0.601713
0.380070,-0.027328,0.211012,-0.228100,-0.554261,0.800478
-0.141838,-0.033861,-0.387866,0.696962,0.228040,-0.679884
0.315294,0.195765,0.842559,0.640596,-0.605456,0.472292
-0.134882,-0.126743,0.766025,-0.184005,0.556149,-0.810457
-0.677909,-0.420096,-0.302892,0.863044,0.320140,0.390725
0.046746,-0.203121,-0.205776,0.851082,-0.330930,-0.407609
-0.201442,0.949122,-0.568423,0.217584,0.419947,-0.881080
0.184147,0.143238,-0.419114,0.257707,0.146568,0.955042
0.126199,-0.153485,0.203938,0.866883,0.492454,-0.077485
-0.074382,0.367845,0.164195,0.211561,-0.375829,0.902216
-0.068317,-0.226637,-0.964713,-0.326954,0.054396,0.943473
0.555633,-0.406622,-0.006698,-0.341200,-0.415378,0.843234
0.031492,-0.137397,-0.952598,0.439090,-0.096393,-0.893257
-0.121860,0.461411,-0.548147,0.463874,0.680434,0.567301
0.056254,-0.047335,-0.303839,-0.147618,0.516424,0.843514
-0.819268,-0.733116,-0.282728,-0.053041,0.213035,0.975604
0.745175,-0.865731,-0.484898,0.443984,-0.327251,-0.834137
0.136284,-0.254893,0.711576,-0.150834,0.945405,-0.288892
-0.656085,-0.147434,-0.654398,-0.165745,0.922317,0.349083
-0.075145,-0.163593,0.725140,-0.613088,0.788163,0.054059
0.054213,-0.121724,0.808887,0.739888,-0.318733,0.592431
0.593159,0.093879,-0.223295,-0.712833,0.655017,0.250644
0.165895,-0.397340,-0.061119,0.698387,0.217308,-0.681933
0.031364,-0.198724,-0.299884,-0.536023,0.826908,0.170008
0.106864,-0.093400,0.669521,0.479102,0.772591,0.416611
-0.779573,0.124196,-0.667850,0.479882,0.455422,0.749869
0.036537,-0.132722,-0.954965,0.521631,-0.099960,-0.847295
0.117649,0.502592,0.089304,0.055554,-0.965115,0.255864
-0.060531,-0.269055,-0.952681,-0.077201,0.577602,0.812659
-0.136222,0.204565,0.127376,-0.456922,0.638822,0.618974
-0.006224,-0.049466,-0.350016,0.935050,-0.344321,-0.084403
-0.187404,-0.114712,0.792511,-0.778987,0.550534,0.300153
-0.220014,-0.153347,0.168818,0.948671,0.316220,0.005301
-0.366156,0.299851,-0.434933,0.349087,-0.845362,0.404354
0.382302,-0.271737,0.148431,-0.536975,0.136990,-0.832401
-0.052553,0.328108,0.130662,-0.124208,-0.506331,0.853347
-0.012476,-0.270427,-0.955912,0.250949,-0.369319,-0.894778
-0.642748,-0.027193,-0.648717,0.377446,0.470022,0.797881
-0.438782,0.074144,-0.695395,0.957277,0.261917,0.122560
-0.401895,-0.189647,-0.217418,0.849784,-0.476005,-0.226467
-0.494880,-0.734488,-0.278913,0.024824,-0.630556,0.775746
-0.787102,0.091197,-0.670051,0.528173,0.345818,0.775528
-0.317782,0.185590,-0.456824,0.215944,0.667088,-0.712995
0.333609,-0.059848,0.782512,-0.717128,0.662740,-0.215646
0.390536,-0.143792,0.761485,0.604652,0.508088,-0.613386
0.059763,-0.191435,-0.588030,0.999339,0.017988,0.031587
0.424615,0.101851,0.256186,-0.895429,0.407811,0.178596
-0.131115,0.560000,-0.597638,-0.575674,-0.045093,0.816435
-0.118417,-0.230967,0.677041,-0.698805,0.661830,-0.271390
0.123391,-0.192056,0.203437,0.524179,-0.828402,-0.197450
-0.144261,0.392733,-0.071507,-0.339861,-0.522034,0.782288
-0.003159,-0.004438,-0.977803,-0.149018,-0.130375,0.980202
-0.117715,-0.364753,-0.694086,-0.001440,-0.978384,0.206790
0.109544,0.527689,0.182994,-0.782137,0.440485,-0.440720
0.297298,-0.273453,-0.350601,-0.149519,-0.608361,0.779449
0.002010,-0.391566,0.032878,-0.217022,0.785738,0.579239
0.317911,-0.323643,0.167676,-0.350915,0.141155,-0.925707
-0.344780,-0.578702,-0.146370,0.182622,-0.311307,-0.932597
-0.067106,-0.280397,0.354110,0.340733,-0.471214,0.813547
0.165003,-0.165104,0.344167,-0.768661,0.639259,0.022530
0.180891,-0.002029,0.564579,-0.195848,0.902487,-0.383615
-0.058042,-0.321096,-0.305427,0.528531,-0.532608,0.661048
-0.313124,-0.213641,-0.379900,-0.462024,-0.566131,-0.682664
-0.048152,-0.324810,-0.333779,0.247497,0.722937,0.645064
0.063211,-0.168473,-0.662336,0.827133,-0.551673,-0.107271
0.516194,-0.823728,-0.534667,0.320485,-0.020230,0.947037
0.002072,0.202638,-0.521327,0.966636,0.247428,-0.066291
0.067935,-0.199202,-0.462450,0.993781,0.089933,0.065657
0.077572,-0.326736,-0.258610,-0.520729,0.701348,0.486778
-0.136159,-0.428140,0.015777,0.905515,-0.243162,-0.347729
0.082422,-0.176446,-0.381710,0.903771,0.427838,-0.012327
0.070997,-0.186827,-0.559622,0.892055,0.409155,-0.191913
-0.110373,-0.208140,0.473785,0.897243,-0.036895,0.439992
0.124859,-0.143381,0.039701,0.967236,-0.228718,0.110193
0.193847,-0.277167,0.507791,0.099402,0.979742,-0.173851
0.120201,0.012683,0.609865,0.535960,-0.559399,0.632313
0.042979,-0.398372,0.434014,-0.302715,-0.915496,-0.265013
-0.415045,0.484994,-0.367952,-0.063726,-0.701680,0.709636
-0.005776,-0.149427,0.024244,0.925803,0.164328,-0.340418
0.172213,-0.759653,-0.091086,-0.599372,-0.129946,-0.789852
0.108905,0.458663,0.248527,-0.638980,0.763182,0.096224
0.223777,-0.534978,0.306234,0.905836,0.412595,0.096055
-0.097355,-0.265480,-0.016613,0.564522,-0.618436,-0.546673
-0.131497,0.269806,-0.055242,0.927319,-0.250525,0.278058
0.204313,-0.028154,0.527621,0.856964,-0.396677,0.329028
-0.467692,-0.438798,-0.212488,-0.515270,-0.831452,-0.207811
0.406873,0.488501,-0.127710,-0.612113,0.384464,-0.691018
-0.116247,-0.266374,0.161633,0.560915,0.569420,0.600945
-0.664382,0.091197,-0.236858,-0.191551,-0.627424,0.754750
0.191548,0.085146,0.847544,0.232009,-0.683311,0.692285
0.045663,-0.020865,-0.090696,0.828048,0.555133,-0.078513
-0.368330,0.521706,-0.172912,0.746397,0.665173,-0.020889
0.177701,-0.243824,0.422651,0.851703,-0.515072,0.096445
-0.126328,-0.107835,0.797747,0.327237,-0.684956,0.650961
-0.305723,0.315045,-0.236357,-0.685296,0.276898,-0.673570
0.043875,0.093879,0.877929,0.278309,-0.720892,0.634712
-0.453272,-0.099862,0.145758,0.685783,0.519257,0.509975
0.563672,-0.402564,0.482252,-0.339083,-0.525619,-0.780223
-0.224419,0.387299,-0.407417,0.294423,0.061174,-0.953715
-0.438657,-0.463136,-0.501581,-0.694480,-0.546598,0.467898
0.037047,-0.021281,0.080085,-0.568782,-0.335085,0.751136
0.135388,-0.262249,0.335561,-0.541040,0.816384,0.201972
0.716070,-0.820908,-0.494980,-0.451277,0.316783,0.834265
0.070997,0.202982,-0.002632,0.872809,0.115515,-0.474196
0.070678,0.046025,0.211653,0.217700,0.753613,0.620221
-0.032388,-0.202504,0.663338,-0.601396,0.561387,-0.568478
0.095887,-0.185317,-0.084124,0.880241,-0.465333,0.092956
0.206034,0.200574,0.164111,-0.650500,0.447117,0.613951
0.155047,-0.184079,0.506872,-0.505618,0.358423,0.784782
-0.327867,0.317177,-0.437886,-0.042532,-0.575251,0.816870
0.379942,-0.265959,-0.637103,-0.080782,0.859165,0.505282
0.134878,-0.091197,0.934550,-0.342328,-0.927302,0.151403
0.326909,-0.335946,0.166200,0.457615,-0.141320,0.877848
-0.255433,0.120344,0.163220,0.752540,0.481935,0.448801
0.106416,-0.241486,0.620921,-0.675146,0.591641,-0.440612
0.367434,0.635350,-0.284761,0.893299,-0.172368,-0.415097
0.595009,-0.573134,0.032460,-0.468095,0.229763,0.853286
0.097161,-0.446637,0.644789,0.720064,-0.687863,-0.091391
-0.274387,0.774775,-0.597610,-0.238833,-0.477092,0.845779
-0.267749,-0.284934,0.049923,0.505164,0.797980,0.328691
-0.378477,0.462720,-0.400677,0.770566,0.631948,-0.082885
0.257026,-0.158021,0.721491,-0.346821,-0.734239,0.583617
0.245730,-0.109967,-0.185222,-0.524960,0.842980,-0.117480
-0.142282,0.572101,-0.599226,0.703211,0.173405,-0.689511
0.449310,-0.368122,0.490273,-0.645673,-0.700790,-0.303313
0.595901,0.253307,-0.214661,0.108933,-0.361416,0.926020
-0.257474,0.415350,-0.055298,-0.462586,0.485333,-0.741934
0.101757,-0.431786,0.667878,0.839100,0.543315,-0.026834
-0.552252,-0.526108,-0.299745,-0.039492,0.355348,0.933900
0.197613,0.310643,0.202963,0.824683,0.387884,-0.411635
-0.241266,-0.227325,0.183663,-0.755667,-0.172527,-0.631825
0.022304,-0.221412,0.418863,-0.076984,0.909787,-0.407875
-0.155238,0.001202,-0.407695,0.695180,-0.372385,-0.614861
-0.387537,0.389707,0.025887,0.852264,-0.081844,0.516670
-0.322507,0.415555,-0.113228,0.678318,0.636175,-0.367648
0.503492,-0.906363,-0.526089,0.221251,-0.226991,-0.948432
-0.365713,0.775325,-0.247664,-0.406933,-0.707320,-0.578018
0.092569,0.323911,0.967164,-0.236730,-0.723341,0.648643
0.061041,-0.417759,0.667767,0.964478,-0.171247,-0.201138
-0.829669,-0.688566,-0.307794,-0.167665,-0.036458,0.985170
-0.296406,0.284245,-0.122808,-0.247459,0.599193,0.761401
0.064040,0.246639,0.009037,0.668026,0.492172,-0.558129
0.524491,-0.799457,-0.536255,0.160610,-0.043224,0.986071
-0.342801,0.756900,-0.117044,-0.606405,-0.478461,0.635097
-0.665273,0.091331,-0.676958,-0.280382,-0.371696,-0.885002
0.101375,0.022859,0.843004,0.120246,-0.713117,0.690655
-0.428763,-0.564746,-0.207837,0.535160,0.256866,0.804750
-0.026771,0.168331,0.321887,0.370265,0.773383,-0.514570
-0.454736,0.573268,-0.180766,0.853966,0.407675,0.323330
-0.069213,0.160152,0.145200,-0.343889,-0.899365,0.269968
0.747344,-0.401536,0.069947,0.761461,0.310221,-0.569157
-0.175150,-0.203671,0.773628,0.433494,-0.005842,0.901138
-0.480647,0.253718,0.206835,0.630001,0.159934,0.759947
0.093141,-0.180437,0.837768,-0.455714,0.828840,-0.324575
-0.611477,0.238939,-0.453900,-0.088455,0.207333,-0.974263
0.209482,0.178028,-0.638078,0.972278,-0.167921,0.162718
-0.370624,0.424082,-0.391570,-0.751991,-0.608891,0.252510
0.622131,-0.534840,0.530295,-0.551442,-0.695187,-0.461115
-0.543445,0.175275,-0.739316,0.522548,0.690304,0.500423
0.375856,-0.383522,-0.571291,-0.416782,-0.515539,-0.748674
0.414912,0.307828,-0.169904,-0.426967,0.159181,-0.890147
0.432846,-0.345572,0.149128,0.659105,-0.235270,0.714303
0.130348,0.062319,0.858851,-0.276278,0.573915,-0.770903
0.168703,-0.232616,0.185194,0.196819,0.202670,0.959264
0.052744,-0.136503,-0.138127,0.879091,0.476621,-0.005643
0.003603,-0.233166,-0.950787,0.371239,-0.124695,-0.920127
0.103160,0.260319,0.927365,-0.236876,-0.731084,0.639849
0.558441,-0.803582,0.032209,0.808083,-0.262010,-0.527591
-0.053511,-0.220653,0.695144,0.370458,-0.919447,-0.131826
-0.650534,-0.041150,-0.306652,0.418340,0.874973,-0.243751
0.276747,0.099447,0.828828,0.598440,-0.483776,0.638617
-0.149305,0.386338,0.151105,0.036123,-0.570089,0.820788
0.265323,0.149700,0.219674,0.854721,-0.435946,-0.281786
0.665402,-0.579323,0.027113,-0.344566,0.379374,0.858691
0.083952,-0.180504,-0.096768,0.830569,-0.540289,-0.135068
-0.212294,-0.219004,0.490162,0.294587,0.906473,-0.302530
-0.069466,-0.118078,-0.966690,-0.418700,0.292609,0.859692
-0.060850,-0.018050,-0.980282,0.262713,-0.189526,-0.946077
-0.207507,-0.088038,0.028700,0.429445,0.492146,-0.757211
-0.129903,0.269462,-0.474398,0.906687,0.323943,-0.270146
0.065189,0.115740,0.629193,0.342852,-0.418221,0.841156
0.037366,-0.197280,0.095877,-0.227424,0.774666,0.590060
0.185359,-0.160362,0.441033,0.964814,-0.256807,-0.056425
0.065189,-0.240454,0.805601,-0.442041,0.894500,-0.066854
-0.221673,0.204632,0.167370,-0.321840,0.943953,-0.073293
-0.378921,-0.162767,0.153611,-0.027387,0.869304,0.493518
0.278660,0.360418,-0.414825,-0.342796,0.449787,-0.824732
0.556334,-0.475649,0.590647,0.891238,-0.304615,-0.336013
-0.577013,0.189509,-0.186141,0.238330,-0.567122,0.788398
0.374516,-0.596578,0.752406,-0.712027,0.173387,0.680407
0.094481,-0.154106,-0.936639,0.033246,0.151453,-0.987905
-0.569227,-0.491733,-0.693696,0.885076,-0.365074,0.288726
-0.191486,-0.048506,-0.635822,0.216642,0.779914,0.587197
0.134048,-0.207040,-0.041790,0.522132,0.852683,-0.017632
-0.481987,-0.143448,-0.335116,-0.567340,-0.295500,0.768638
0.016496,-0.160291,-0.948949,-0.520155,0.061945,0.851823
-0.139283,0.277024,-0.013271,0.969752,-0.238716,-0.050948
-0.459652,-0.192740,-0.328682,-0.322739,-0.049533,0.945191
0.846515,-0.591282,0.214326,0.774170,0.294584,-0.560251
0.092183,-0.388818,0.620086,0.922365,-0.384805,-0.034179
0.277386,-0.058198,0.808442,-0.096879,-0.475942,0.874124
-0.217397,0.710356,-0.601314,0.400736,0.651380,-0.644295
-0.178020,-0.035716,0.830750,0.861007,0.488667,0.140963
0.136923,-0.148878,0.766442,0.921264,-0.228153,-0.314991
-0.162066,0.089959,-0.035969,0.411777,0.680344,0.606277
-0.246244,-0.065005,0.076548,0.021644,-0.976792,0.213094
0.541528,-0.627994,0.574633,0.596047,-0.205942,0.776090
0.482816,-0.281908,0.136400,-0.534031,0.155450,-0.831051
0.090781,-0.162011,-0.413683,0.856612,-0.399795,-0.326160
-0.101247,0.545771,-0.050953,0.712562,0.522474,0.468270
0.516958,-0.559866,0.574745,0.887582,-0.333678,-0.317581
0.004308,-0.284178,-0.946498,0.316758,-0.645428,-0.695045
0.051085,-0.290846,0.922296,-0.632902,-0.045865,0.772872
0.655127,-0.533946,0.526813,-0.705304,-0.541283,-0.457777
0.218226,-0.660309,0.382267,0.824722,0.544488,0.152858
0.046746,-0.283284,0.897926,0.774315,-0.358522,-0.521439
0.063211,-0.190268,-0.237777,0.103697,0.874851,0.473162
-0.177000,-0.140355,-0.469636,0.280931,0.442500,0.851629
0.277705,-0.016741,0.809555,0.119967,-0.352097,0.928243
0.164555,-0.179816,0.488463,0.815262,-0.201678,-0.542838
0.690865,-0.605239,0.149406,-0.699685,0.031626,0.713751
-0.005266,-0.256886,0.566473,-0.610627,0.494545,-0.618514
0.065318,-0.114091,-0.033936,0.366408,0.925307,-0.097738
0.583713,-0.417553,0.002576,0.362121,-0.002005,-0.932129
-0.057851,0.130725,-0.988080,-0.536603,0.101373,0.837723
0.228373,0.127427,0.180265,-0.640840,0.069566,0.764516
0.033981,0.254818,-0.047333,0.864947,0.450800,-0.220559
-0.408217,0.537932,-0.164056,0.668506,0.552221,-0.498148
0.043299,-0.090992,-0.548481,0.870685,0.023247,-0.491292
0.566800,-0.503696,0.594547,0.916352,-0.355223,-0.184704
-0.023390,0.276889,0.132891,-0.528680,-0.533529,0.660186
-0.355756,-0.407516,-0.740708,0.948494,-0.303010,0.092435
-0.170172,0.106870,-0.458829,0.004570,-0.465712,0.884925
0.525956,-0.434808,-0.003300,0.245299,0.304748,-0.920303
-0.066915,-0.330034,-0.003885,-0.139249,0.909399,-0.391923
0.055810,-0.152797,-0.547507,0.979434,0.183264,-0.084399
-0.492772,0.804132,-0.199092,0.668112,0.736255,-0.107495
0.015285,-0.047335,-0.080419,0.974769,0.201648,0.095728
0.150708,-0.209793,0.411288,-0.659335,0.745455,-0.097848
0.123329,-0.098486,0.660860,0.724246,0.681145,-0.107279
-0.385558,0.329413,-0.437412,0.008593,-0.560101,0.828379
0.092249,-0.183047,-0.543691,0.943040,0.329031,0.049128
-0.234181,0.300195,-0.122697,0.781342,-0.619420,-0.076312
-0.149940,0.036265,-0.003857,-0.108795,0.984688,-0.136212
0.435463,-0.257298,0.493336,-0.553548,0.369606,-0.746308
0.775678,-0.890413,-0.463620,-0.513711,0.295257,0.805558
-0.366986,-0.471453,-0.467073,-0.498086,-0.504245,0.705441
0.140366,-0.664501,-0.105736,0.897831,-0.044907,0.438044
-0.100355,0.757244,-0.582794,-0.123716,0.045420,0.991278
0.596797,0.467600,-0.174555,-0.948925,0.223340,0.222845
-0.170748,-0.245406,0.775884,0.326775,0.100562,0.939737
-0.831647,0.528856,-0.407472,0.642606,0.397973,-0.654733
0.090843,0.028016,0.860105,-0.089603,-0.923117,0.373932
-0.217206,0.087206,-0.511690,-0.759024,-0.304087,-0.575686
0.414083,-0.474478,-0.547061,0.432569,0.627322,0.647573
0.708093,-0.515865,0.161577,0.654154,0.157945,-0.739686
-0.401384,0.152037,0.193299,0.756129,-0.003329,0.654415
-0.445867,0.523287,-0.238111,-0.710556,0.178382,0.680654
0.100160,0.024713,0.184777,0.072175,0.685708,0.724290
0.104184,-0.189714,-0.178984,0.871339,0.042376,-0.488849
-0.050450,0.517375,-0.066216,0.118338,-0.667979,-0.734711
-0.365327,0.479287,-0.235883,0.633348,-0.289476,-0.717686
-0.227800,-0.466711,-0.001601,0.302196,-0.170238,-0.937921
0.644022,-0.729126,-0.516202,-0.104567,0.451987,0.885874
0.142602,0.597539,-0.020011,0.605117,0.026795,-0.795685
-0.068508,0.433293,-0.434293,0.856843,-0.427866,-0.287664
-0.594179,0.060259,-0.692944,0.505436,0.612894,0.607367
-0.879001,0.025469,-0.634541,-0.293799,0.415042,-0.861059
-0.155366,0.216733,-0.364638,0.749494,0.659768,0.054441
-0.620409,-0.515109,-0.444291,0.761687,-0.253838,-0.596154
-0.165322,0.221546,0.114592,-0.582700,-0.007792,0.812650
-0.050703,0.014747,-0.982092,-0.313682,0.059751,0.947646
-0.018031,-0.186211,-0.965242,-0.275086,0.093642,0.956848
0.236798,-0.298961,0.671638,0.729061,0.490820,-0.477039
-0.259838,0.234399,-0.427553,-0.605966,-0.655377,0.450873
0.215480,-0.094772,0.794627,-0.185457,-0.524105,0.831216
0.076867,-0.247193,0.243041,0.592650,0.414087,-0.690868
-0.327548,-0.186693,-0.408559,0.123787,0.552650,0.824169
0.873193,-0.373141,0.130328,0.787889,-0.609452,-0.088309
0.013945,-0.083224,0.054295,-0.251828,-0.541683,0.801974
0.056893,-0.033655,-0.957834,-0.145620,0.168556,0.974876
-0.074125,-0.162011,-0.965827,-0.003488,0.421073,0.907020
-0.057216,-0.201955,-0.958307,-0.112506,0.054509,0.992155
0.178340,-0.182774,0.194190,-0.278562,-0.919180,0.278410
0.152238,-0.123646,0.131554,0.860239,-0.493369,-0.128747
0.154537,-0.200511,0.408921,0.801611,-0.592648,-0.078670
0.123776,-0.372109,0.217780,0.621635,0.187884,0.760440
0.068765,-0.262866,-0.941792,-0.338699,0.383907,0.859010
0.587160,-0.517585,0.589004,0.973407,-0.195902,0.118745
-0.274515,-0.057993,-0.028979,0.283522,-0.418278,0.862936
-0.477266,0.109757,-0.238640,-0.541800,0.337426,-0.769802
-0.289640,0.944447,-0.566445,-0.112611,-0.350342,0.929828
-0.049683,0.063490,-0.369539,0.946025,0.212898,-0.244358
-0.637641,-0.196453,-0.504226,-0.131179,0.823983,0.551221
-0.167554,0.263000,0.152330,0.922896,-0.360127,-0.136274
0.608794,-0.720876,0.050814,-0.627681,0.503647,0.593595
0.208843,0.398645,-0.054351,0.207812,-0.123567,0.970333
-0.874790,0.206146,-0.644818,0.179993,0.774140,0.606885
0.158046,-0.225466,0.592486,0.782395,-0.622688,-0.010860
0.171064,-0.040529,0.806074,-0.067501,-0.825050,0.561013
-0.084657,0.152520,-0.306262,0.752532,0.607918,0.253244
0.010751,-0.099380,-0.962178,0.208288,-0.124783,-0.970075
-0.007627,-0.030630,-0.403518,0.924727,-0.380062,-0.020800
-0.524939,0.152381,-0.204969,0.289073,-0.497176,0.818079
-0.295705,-0.083636,-0.470360,0.105421,-0.373765,0.921513
0.222819,-0.188615,0.367534,-0.065154,0.994368,0.083587
-0.024668,-0.248427,-0.010542,0.939886,0.305269,0.153052
0.669484,0.174931,-0.290220,-0.039932,0.980154,0.194172
0.053255,-0.237152,-0.705727,0.977120,0.000777,0.212686
0.368264,-0.682309,0.200150,0.093798,0.466790,0.879380
-0.318998,0.628338,-0.448636,0.738249,-0.024132,0.674096
-0.175087,0.433981,-0.114843,-0.759386,0.329416,0.561087
-0.320848,-0.444089,-0.206166,0.329861,-0.537128,-0.776328
-0.183637,-0.041422,-0.683948,0.253429,0.793428,0.553395
0.469160,0.042656,-0.212488,0.600856,-0.048819,0.797865
0.003288,0.071601,-0.097631,0.961460,0.193548,0.195278
-0.278663,-0.259702,0.211987,-0.677115,0.163086,0.717578
