0.503837,-0.123958,-0.942492,-0.115066,0.241604,0.963529
0.205536,-0.442283,0.389602,-0.642043,-0.553180,-0.530823
-0.117810,0.114654,0.328848,-0.030858,0.899617,0.435587
0.201462,0.103284,0.797114,0.282273,-0.952799,-0.111782
-0.296742,0.073312,0.388923,0.789456,0.593729,-0.155706
-0.189956,0.116854,0.499808,0.928457,0.031934,-0.370064
-0.201821,-0.700277,-0.964740,-0.147481,0.043126,0.988124
0.034394,-0.245272,0.611401,0.136405,0.346222,0.928183
0.219917,0.245911,-0.953409,0.073214,0.106573,0.991606
-0.093001,0.365024,-0.983299,0.301607,-0.112978,-0.946715
0.268934,-0.377947,0.793278,0.103837,0.986637,0.125562
-0.635907,0.118400,0.263698,0.772334,0.584820,-0.247963
-0.473517,-0.625345,-0.971379,0.286205,0.177360,-0.941611
0.394296,0.125118,-0.954531,-0.044638,0.202074,0.978353
-0.196430,0.103804,-0.976542,-0.035227,0.055709,0.997825
-0.000600,-0.493962,0.614529,0.984171,0.167040,-0.059196
0.232982,-0.344491,0.749343,0.113958,0.952960,0.280857
0.127158,-0.397582,0.883597,0.843357,0.429869,-0.322431
0.610856,-0.011438,0.539819,0.221046,0.345309,-0.912086
0.284515,-0.014016,0.396093,0.384917,0.192403,0.902674
0.151246,-0.294877,0.750140,0.816655,0.223975,-0.531892
-0.967522,0.385565,0.384438,0.953155,-0.155125,0.259677
-0.363856,0.029644,0.756189,-0.595137,-0.798629,-0.089464
-0.224834,-0.149152,0.432888,-0.591701,0.641952,-0.487635
-0.054891,-0.181063,0.824496,0.994933,-0.075534,0.066355
-0.095518,-0.150705,-0.833053,0.817931,0.571205,-0.068662
-0.053933,-0.851562,0.550677,-0.765188,-0.616253,-0.186333
0.086769,0.546540,-0.978962,-0.409213,0.095247,0.907454
-0.212489,0.097598,0.499100,-0.511247,0.375841,0.772897
0.022051,-0.488403,0.842849,0.853018,0.419317,-0.310697
-0.065197,-0.238940,0.650173,-0.511112,-0.755016,-0.410750
-0.018935,0.219818,0.719306,-0.235816,0.874515,-0.423809
0.200142,-0.700411,0.558821,-0.195860,0.947068,-0.254363
0.126679,0.540855,-0.973415,-0.030801,0.172064,0.984604
-0.281282,-0.270331,0.860730,-0.235964,0.940193,-0.245680
0.226870,-0.137135,-0.942374,-0.067608,0.318574,0.945484
-0.124521,-0.501453,-0.955268,-0.337865,0.000827,0.941194
-0.040748,-0.154711,-0.952318,0.229251,-0.587735,-0.775894
-0.026725,0.061295,0.753445,0.544431,0.535347,0.645755
-0.021213,-0.040116,0.857012,-0.751654,-0.353198,0.557017
0.185881,-0.328468,0.744062,0.167638,0.876689,0.450903
0.308965,-0.400554,0.756425,-0.059491,0.982878,0.174391
0.184082,-0.105358,0.895902,-0.352743,0.488319,0.798196
-0.041827,-0.009884,0.553982,-0.038543,0.795865,0.604246
-0.025408,-0.030946,0.738987,-0.550359,0.823942,0.134997
0.037631,-0.563722,-0.947597,-0.020186,0.010349,0.999743
-0.204699,0.459464,0.436665,-0.224100,0.744557,0.628819
-0.534515,-0.252376,0.329143,0.935150,-0.056421,-0.349731
-0.052495,0.021507,0.309758,-0.295739,-0.507231,0.809478
-0.117331,-0.034557,0.854828,0.441964,0.791974,0.421243
0.573704,0.408431,0.315334,0.027463,-0.997406,-0.066538
0.366251,0.165553,0.597563,0.781357,-0.118788,-0.612675
0.189356,0.129896,-0.958957,-0.017687,0.053918,0.998389
-0.133749,0.210901,-0.096456,0.422640,0.416050,-0.805157
0.229624,-0.468643,0.400962,0.214550,0.651023,0.728105
0.203858,-0.490343,0.517246,0.410023,0.855063,-0.317408
-0.799738,0.284540,0.335428,-0.718480,-0.000948,-0.695547
0.026845,0.002779,0.379511,0.827950,0.422022,-0.369319
-0.825383,0.047220,0.241273,0.412409,-0.566345,0.713564
0.048179,-0.548354,0.646602,0.412743,0.058649,0.908957
0.168026,0.142299,0.366203,0.366657,0.918327,0.149123
0.494009,0.550798,0.591927,0.930764,-0.355305,0.086239
-0.093243,-0.178997,0.689888,-0.340953,-0.769162,0.540500
0.014381,-0.015695,0.596235,0.422947,0.537662,0.729407
-0.194272,-0.412572,0.716296,0.246182,0.631599,-0.735171
-0.025650,0.011816,0.498893,0.335961,0.873757,0.351680
0.015339,0.915250,0.451447,0.820143,0.014737,-0.571969
-0.318314,0.046187,0.741937,-0.082279,0.992537,0.090002
-0.757790,0.358053,0.333127,-0.190172,-0.245050,0.950676
0.120084,-0.208582,0.861084,0.872749,-0.257379,-0.414808
0.404124,0.230542,0.332123,-0.303432,0.935039,-0.183387
0.138423,-0.154451,0.554985,-0.288593,-0.070426,0.954858
-0.104266,-0.026554,0.674397,0.008770,0.793857,0.608042
0.537752,-0.320978,-0.930158,0.822217,-0.245018,-0.513737
-0.011148,-0.345003,-0.814848,0.859423,0.511162,-0.010303
-0.260906,-0.094373,-0.113688,0.073444,0.996396,0.042441
-0.160835,0.048766,0.479891,-0.275154,0.084154,0.957710
-0.105587,-0.214393,0.766132,-0.505882,0.016128,0.862452
0.085931,0.627410,-0.974093,-0.252268,0.165892,0.953331
-0.271572,-0.068408,-0.971526,0.291059,-0.216994,-0.931771
0.071067,-0.243072,0.777020,0.219542,0.973715,0.060666
-0.214285,0.415283,0.411466,-0.483601,-0.754196,-0.444206
-0.032478,-0.244239,0.952967,0.141706,0.466616,-0.873034
0.022171,-0.016476,0.402172,-0.418948,-0.768697,-0.483310
-0.014743,-0.788126,0.674073,0.848008,-0.366507,0.382824
-0.597555,-0.301469,0.311410,0.299829,0.953914,0.012290
-0.041589,-0.321624,0.645451,0.996068,0.032862,-0.082278
-0.502038,-0.337638,-0.192234,0.003679,-0.988349,0.152160
-0.026008,-0.370843,0.728010,0.877719,-0.042193,0.477314
-0.374521,0.026545,-0.084211,0.793481,0.314592,0.520979
0.177133,0.263226,0.541619,-0.785905,-0.300136,-0.540622
-0.166826,-0.603771,0.265174,0.807485,0.075723,0.585007
-0.450625,-0.317484,0.390871,0.785656,-0.390538,-0.479817
-0.410236,-0.164394,-0.677820,0.865267,0.115467,0.487833
0.042543,0.147338,0.286625,0.256705,0.869348,0.422299
-0.681808,-0.209875,0.367944,0.933562,0.039866,-0.356192
-0.767497,0.088948,0.249063,-0.223915,-0.322642,0.919654
-0.473517,-0.262966,0.791420,0.047002,-0.864754,0.499991
-0.320109,0.423161,0.539642,0.953139,0.161499,0.255820
-0.036794,0.059363,0.585259,0.541585,0.228947,-0.808869
-0.129437,-0.769138,-0.057803,0.825496,0.446461,-0.345294
0.079458,0.222657,-0.968900,0.232313,-0.252913,-0.939184
-0.191993,0.070474,0.472220,-0.770388,0.363100,0.524081
-0.085211,-0.248244,-0.145289,0.823737,0.505227,-0.257300
0.577420,-0.634002,-0.928211,-0.034678,0.361774,0.931621
-0.305370,-0.147733,0.503880,-0.856025,-0.294433,0.424889
0.022171,0.372909,-0.973710,0.234099,-0.019485,-0.972018
-0.319992,0.104837,0.412233,-0.829901,0.546591,0.111817
-0.048538,-0.770171,0.588829,0.921348,0.325951,-0.211835
-0.651246,0.302628,0.326458,0.815391,0.098639,0.570445
-0.165989,-0.130551,-0.420141,0.620635,-0.751264,-0.224532
-0.082336,-0.187009,-0.479596,0.588897,-0.641800,0.491217
-0.603308,-0.376655,-0.623410,0.385755,0.920745,0.058498
-0.139502,-0.262193,-0.952141,-0.681935,0.555638,0.475637
-0.421863,-0.083523,0.566581,-0.461064,0.506195,-0.728826
-0.412993,-0.011564,-0.181405,0.585257,0.810786,0.009980
-0.366731,-0.717198,-0.969520,-0.085145,0.062150,0.994428
-0.267260,-0.055618,0.635715,0.181811,-0.471914,0.862694
0.498921,-0.088822,0.697855,-0.794845,0.112149,0.596359
0.356782,-0.219692,-0.943672,-0.130150,0.059655,0.989698
0.107503,0.448354,0.710188,-0.626682,-0.646399,-0.435244
-0.026008,0.205602,0.494025,-0.135012,0.968779,-0.207941
-0.030320,-0.541375,0.715175,0.981148,0.184338,0.058036
-0.461648,0.520314,-0.697648,0.226323,0.308971,0.923750
0.026845,-0.630131,0.608451,0.522482,0.023665,0.852322
-0.296501,0.389058,0.533416,0.705440,-0.003146,0.708763
0.109178,0.049413,-0.950931,-0.094259,0.179383,0.979253
-0.157241,0.034431,0.489274,0.881072,0.376793,0.285900
-0.066397,-0.144113,0.941725,0.072578,-0.792637,0.605359
0.645013,-0.019315,0.384704,0.906186,-0.186025,0.379766
0.130991,0.668366,-0.980998,-0.182814,0.030075,0.982687
-0.015222,-0.143341,-0.306010,0.997744,-0.009284,0.066489
0.010065,-0.173312,-0.943525,0.476572,-0.436209,-0.763283
0.255991,-0.393190,0.390133,-0.814732,0.528437,-0.238677
-0.024092,0.238033,0.768493,-0.670280,-0.718451,0.185884
-0.171859,0.203410,0.544982,0.829858,0.074432,-0.552988
-0.102108,-0.211161,0.862087,0.896641,0.410567,0.165741
0.035353,-0.355988,-0.954914,0.100655,-0.121268,0.987503
0.054049,-0.097607,0.582691,0.215431,0.952614,0.214748
0.282357,-0.331441,0.689180,-0.507285,0.640302,0.576781
-0.243051,-0.710741,0.670916,0.075024,0.774396,0.628238
-0.318314,-0.172791,0.489481,0.134331,0.872965,-0.468922
-0.084253,-0.149412,0.749373,0.457033,-0.457697,0.762650
-0.379195,-0.521994,-0.969195,-0.070278,-0.121194,0.990138
0.236936,-0.394743,0.690980,-0.256133,-0.899299,0.354482
-0.116493,0.332600,-0.372370,0.884042,0.074461,-0.461438
-0.797101,0.226402,0.329822,0.922526,-0.255686,0.289086
-0.571309,-0.277956,0.415833,0.275341,0.916630,0.289786
0.403283,-0.475361,-0.933493,0.038235,-0.221059,-0.974511
0.056328,-0.375495,0.428314,-0.729693,0.392061,-0.560212
0.341322,-0.040116,0.617804,0.763925,-0.542060,-0.350128
0.186840,-0.387512,0.770352,0.278473,0.952810,0.120855
-0.279245,0.121759,0.492579,-0.136084,0.083627,0.987161
-0.211052,-0.333767,0.742144,-0.267775,0.963453,-0.007364
0.521451,-0.256382,-0.936532,-0.515735,0.064232,0.854337
-0.100071,0.019180,0.446343,-0.825099,0.534911,0.181885
-0.944872,0.360632,0.387714,0.303844,-0.419245,0.855519
-0.137585,0.141527,0.263492,-0.096650,-0.895250,0.434956
0.059203,-0.249017,-0.877018,-0.558372,-0.716469,-0.418201
-0.019055,0.776629,0.437166,-0.678598,-0.173748,0.713665
-0.352349,0.324849,0.510519,0.674980,0.462268,-0.575074
-0.219201,-0.306122,-0.963147,-0.117234,0.008923,0.993064
0.244368,-0.088562,0.651854,-0.019097,-0.391595,0.919940
-0.791110,0.251730,0.346582,0.351679,0.934374,0.057168
-0.773251,0.103284,0.247057,-0.223915,-0.322642,0.919654
-0.179891,-0.215426,-0.710867,-0.546533,0.723386,-0.421917
-0.023250,-0.142954,0.842731,0.875042,0.319778,0.363378
-0.033078,-0.251469,0.855065,0.270310,0.812305,0.516811
-0.052612,-0.797690,0.592694,0.827968,0.411215,-0.381276
-0.238735,0.343710,0.489422,0.915847,-0.251339,0.313133
-0.460094,-0.108717,0.633531,0.432081,-0.880748,0.193881
-0.387944,-0.366711,0.399605,0.440632,-0.632407,-0.637106
-0.031999,0.454426,0.338703,0.769683,-0.216076,0.600749
-0.599713,-0.586976,-0.762474,-0.200917,-0.896536,0.394786
-0.414910,-0.307020,0.764510,-0.547876,-0.699742,-0.458469
-0.185523,0.210640,-0.978726,0.208593,-0.133143,-0.968897
-0.089885,0.248623,0.540616,0.754107,0.596184,0.275477
-0.343960,-0.180937,0.792364,0.000205,-0.850079,0.526655
0.133986,-0.185968,0.655130,-0.364757,-0.898416,-0.244542
-0.276008,-0.367484,0.395415,-0.323285,0.878284,0.352284
-0.179649,0.924807,-0.076864,-0.004661,0.460858,0.887462
-0.360861,0.581811,0.490100,0.943928,0.327291,0.043364
-0.116610,-0.233129,-0.577882,-0.803867,0.538835,0.251902
-0.562681,0.572120,0.401463,0.379895,-0.921477,-0.080993
0.111336,-0.045154,-0.431914,0.175957,-0.925592,0.335139
0.149208,0.139461,-0.960137,0.035095,-0.057752,0.997714
-0.024092,0.928553,0.425039,0.985575,-0.130137,-0.108193
0.167305,0.111295,0.749756,0.973512,-0.227466,0.023075
0.256112,-0.638134,0.545336,0.697214,0.618101,0.363103
0.009827,-0.151738,-0.155971,0.697960,-0.683062,-0.215122
-0.156878,0.466569,0.352188,0.860051,-0.507418,-0.053275
0.492930,0.555064,0.321826,-0.009852,-0.799969,0.599961
0.096117,-0.043475,-0.338084,0.963017,-0.257147,0.080464
-0.238015,0.447321,0.656192,0.462864,0.595846,-0.656295
-0.121884,0.316065,0.342952,0.313982,-0.582803,0.749504
-0.251079,-0.139201,0.528341,-0.574980,0.817143,-0.040932
-0.178212,0.540082,0.318551,0.962060,0.161583,-0.219842
-0.305128,-0.178737,-0.972766,-0.309297,0.335413,0.889850
0.785356,-0.029778,0.394884,0.961652,-0.274180,-0.007145
-0.399688,-0.674185,-0.969785,0.325107,0.202578,-0.923725
0.113973,-0.445902,0.584432,0.459784,0.208490,0.863209
-0.152566,0.168912,0.249948,-0.409162,0.694600,-0.591707
-0.146092,-0.336346,-0.375114,0.584465,0.769209,-0.258298
0.211410,-0.654283,0.552595,0.081061,0.972078,0.220211
0.074663,-0.352108,0.588091,0.970026,0.219967,-0.103270
0.231303,0.223430,0.498451,0.416904,-0.760752,-0.497441
0.075862,0.119433,-0.966510,-0.105536,-0.049278,0.993194
0.087368,0.337765,-0.970287,0.241627,-0.145403,-0.959414
0.069392,-0.299403,0.862766,0.528791,0.469287,-0.707213
-0.224834,0.147985,0.411142,-0.247202,0.307112,0.919007
-0.196909,-0.437764,0.492992,-0.587130,0.652307,-0.479347
0.095876,-0.512437,-0.952672,-0.032075,-0.015591,0.999364
0.088806,-0.018542,0.145614,-0.427290,0.246740,0.869795
0.397771,-0.119181,-0.943731,-0.140736,0.154448,0.977926
-0.257191,0.310892,0.693104,0.726172,0.644928,0.238207
-0.632670,0.272136,0.275324,-0.258511,-0.832223,0.490486
-0.096476,-0.315939,0.759877,0.864414,-0.478869,-0.153207
0.164548,0.049933,-0.963501,0.443296,0.197675,-0.874308
-0.611698,0.108196,0.333776,0.259357,0.007491,0.965752
-0.552016,0.459591,0.330589,-0.738497,0.666970,0.098859
0.170180,-0.135455,-0.951610,0.412836,-0.276583,-0.867795
0.483582,-0.015695,0.507922,-0.685811,0.452849,0.569729
-0.049858,0.399387,0.336018,-0.807469,0.111083,-0.579357
-0.134707,0.156256,-0.976926,-0.113694,-0.109863,0.987423
-0.300096,-0.499647,0.503880,0.724907,-0.670608,0.157463
-0.036914,-0.185968,0.772034,-0.533494,0.829305,-0.166244
-0.019897,-0.411018,0.442064,-0.183474,0.824871,0.534719
-0.584374,0.359338,0.431147,-0.317503,-0.856816,0.406274
-0.495447,-0.229896,0.580419,-0.235878,0.969337,-0.068901
0.346355,-0.337512,0.399192,0.823343,0.406084,0.396486
-0.138065,-0.180543,-0.699802,0.794900,-0.219305,-0.565720
-0.448708,-0.183649,0.814818,0.871834,0.401316,0.280804
0.252757,-0.596666,0.531114,0.318219,0.764853,0.560121
-0.051654,0.882172,0.429495,0.630438,0.178900,-0.755343
0.150288,-0.034431,-0.956449,-0.275770,0.378726,0.883469
0.038469,-0.135069,0.496916,0.746427,0.483518,0.457228
0.164068,-0.339839,0.408397,0.685537,0.116675,0.718628
-0.566156,-0.328082,0.588357,-0.327497,0.927473,0.180388
0.171738,-0.116594,-0.949957,-0.425848,-0.208688,0.880399
-0.210452,-0.136748,0.023664,-0.228042,0.654231,-0.721096
-0.198588,-0.550680,0.817562,-0.458882,-0.887687,-0.037929
-0.255754,-0.308574,-0.694108,-0.253811,0.839250,-0.480874
-0.153762,0.068408,-0.974211,0.156739,-0.186061,-0.969956
0.048896,0.052259,-0.513411,0.825181,0.117697,-0.552471
-0.357024,-0.344357,0.724647,0.026873,0.995094,-0.095210
-0.148251,0.434011,-0.086513,-0.471245,-0.849660,0.236656
0.186360,0.042308,0.441415,0.473080,0.009147,-0.880972
-0.143218,-0.356894,-0.640613,-0.210138,-0.958098,-0.194656
-0.329458,-0.069701,-0.218996,0.746950,0.663309,0.045693
-0.170901,-0.550806,0.410020,0.875488,-0.157867,-0.456726
-0.142497,-0.423035,-0.942433,-0.393468,-0.349054,0.850496
-0.250121,-0.071893,0.593461,0.826930,0.208050,0.522400
-0.188519,-0.270465,0.394087,0.209586,-0.724949,-0.656142
-0.351629,-0.405207,-0.087575,0.936962,-0.339027,-0.084632
0.021333,-0.656869,0.581865,0.372577,0.914756,0.156230
-0.146572,-0.338419,0.799091,0.921905,-0.321534,-0.216120
-0.158199,-0.141921,0.623204,-0.276795,0.905598,-0.321367
0.255274,0.174984,0.509398,0.776500,0.325478,-0.539547
0.326700,-0.211421,-0.946003,-0.084789,0.130732,0.987785
0.486815,-0.384153,-0.935499,-0.166357,0.101395,0.980839
-0.071309,0.763193,-0.067422,0.100668,0.598818,0.794533
0.433844,0.431685,0.430350,0.941765,-0.290520,-0.169342
-0.027087,-0.333247,0.887581,-0.261459,-0.719939,0.642905
-0.526487,-0.292552,0.619102,0.177102,-0.792798,0.583187
-0.071668,-0.130290,-0.199640,-0.590439,0.736684,0.329664
-0.173180,-0.178863,0.662064,0.525746,0.430984,-0.733379
0.007070,0.070986,0.625830,0.842912,-0.362035,0.398034
0.341681,-0.479879,0.413354,-0.519737,0.638050,0.568125
-0.031399,-0.337386,0.595556,0.353726,-0.930083,-0.099110
-0.037394,0.166586,0.317842,-0.127699,-0.000138,0.991813
-0.221717,0.362311,0.452686,0.438498,0.557249,-0.705119
0.085569,-1.000000,0.670443,0.796419,0.574045,0.190237
-0.526129,-0.325882,0.754861,-0.485272,0.874346,-0.005572
-0.160236,-0.374975,0.782450,-0.314434,0.949237,0.009026
0.070230,-0.461924,0.527721,0.527186,-0.711035,0.465300
0.013181,0.836312,0.428845,-0.734945,-0.205425,0.646264
0.039431,0.750916,0.409873,-0.569811,0.687877,0.449601
-0.549379,0.282986,0.390163,0.393846,0.512812,-0.762829
-0.479387,-0.282995,-0.158213,0.315218,-0.945585,0.080666
0.738856,0.072666,0.543979,0.481631,-0.466624,0.741818
-0.136865,0.033650,-0.121389,0.201686,0.523178,0.828014
-0.248204,0.020474,0.478150,0.301374,0.577497,-0.758730
-0.375958,-0.344357,0.401021,0.018311,0.999285,0.033072
0.217643,0.017887,0.148594,-0.701993,-0.219850,0.677401
-0.383870,-0.170986,0.355434,0.269926,-0.698113,-0.663158
-0.718722,-0.025907,0.266797,0.835351,0.414069,-0.361575
-0.092164,-0.070734,-0.083710,-0.661014,0.622264,0.419343
0.218001,-0.064788,-0.951492,-0.091762,0.149702,0.984464
-0.432528,0.158582,0.466613,0.873536,0.195133,-0.445936
-0.441514,-0.320717,0.348322,-0.323930,-0.158266,0.932749
-0.294584,-0.524966,0.422383,-0.716786,-0.490516,0.495592
-0.222675,-0.172145,0.026939,-0.123464,0.764444,0.632758
-0.120206,0.227309,-0.714526,-0.630432,-0.710631,-0.312346
0.006949,-0.034304,0.191083,-0.537319,0.837103,-0.102696
0.433844,0.487244,0.577764,-0.635764,0.685865,0.354108
-0.217881,-0.286866,0.675460,-0.389679,0.336168,-0.857404
0.275887,-0.474580,0.549379,-0.278454,0.955448,-0.097888
-0.094918,-0.154711,-0.215190,0.783929,-0.591485,-0.188684
0.470517,-0.119440,-0.953970,-0.058851,0.122539,0.990717
-0.270255,0.169046,0.292585,0.190606,-0.545462,-0.816174
0.043622,0.178216,-0.128087,0.731531,-0.680546,-0.041472
-0.104628,-0.092568,0.696202,0.087326,0.929525,-0.358270
0.099833,-0.673404,0.546517,0.115153,0.501937,0.857204
0.261744,-0.092047,-0.949751,-0.170262,0.089008,0.981371
0.016539,0.103157,-0.100410,0.442496,0.177833,-0.878961
-0.180849,0.449261,0.406745,-0.466956,0.601742,0.647965
-0.026367,-0.586463,0.726270,0.991808,-0.006294,0.127579
-0.139743,-0.427427,0.138473,0.906006,0.365494,0.213464
-0.260548,-0.639688,-0.959340,-0.276384,-0.157357,0.948077
-0.107382,-0.314520,-0.809212,-0.754187,-0.633900,0.171382
-0.275887,0.362958,0.507421,-0.210122,0.751485,0.625396
-0.010427,-0.388545,-0.667965,0.959555,0.229108,-0.163597
-0.129075,0.202116,0.354047,0.744426,0.077010,0.663249
-0.053333,0.694458,-0.520138,-0.506724,-0.110685,-0.854973
-0.131353,-0.721338,0.687823,-0.028390,0.810053,0.585669
-0.298659,-0.485438,-0.966717,-0.194247,-0.104483,0.975372
0.125358,-0.219306,-0.956478,0.359711,0.244783,-0.900383
0.009227,-0.200958,0.830693,0.743378,-0.210974,-0.634727
-0.291110,0.510497,0.446549,0.973089,-0.186135,0.135838
-0.175217,-0.345776,-0.610900,0.961136,-0.267544,-0.068107
0.298179,0.102637,-0.957688,-0.252203,-0.259144,-0.932329
-0.314360,0.656609,0.341566,0.286980,-0.359235,0.888028
-0.200146,-0.525739,0.543241,-0.102157,-0.392856,0.913908
-0.040510,-0.072153,-0.170547,-0.659799,0.609808,-0.439090
0.032120,-0.208062,0.757871,-0.173737,-0.956160,0.235741
-0.024809,0.297456,0.318285,-0.290960,0.201200,0.935340
0.284036,-0.663327,0.541648,0.267988,0.772419,0.575805
0.475191,0.405979,0.471718,-0.453202,0.887312,-0.085360
0.390581,-0.078872,0.576348,0.833962,0.409824,0.369529
-0.185523,-0.441510,0.407778,0.324993,0.077152,0.942564
-0.226392,-0.009758,0.332950,0.297059,0.850223,0.434600
-0.786673,0.264519,0.357942,-0.038834,-0.837378,0.545244
-0.034515,-0.151990,0.116403,-0.434863,0.897709,0.070798
-0.099954,0.774815,0.395267,0.454488,0.708446,-0.539949
-0.133511,0.151478,0.574223,0.959602,0.134321,0.247228
0.167905,-0.383633,-0.950252,-0.326051,-0.087907,0.941256
0.163352,-0.083397,0.662683,0.629953,0.633777,0.448873
-0.081616,-0.683482,0.545454,0.876633,0.019395,-0.480769
0.245084,-0.209615,0.639934,-0.497718,0.802470,0.329118
0.603908,-0.565536,-0.929008,0.381621,-0.040269,-0.923441
-0.026008,-0.340351,0.871677,0.835871,0.268054,0.479026
0.049137,0.390351,-0.976247,-0.201639,0.043718,0.978484
0.331974,-0.075512,0.504529,0.351993,-0.587640,-0.728547
0.095876,-0.325109,0.603080,0.493188,-0.828576,0.265005
-0.337011,0.585556,0.463988,0.865820,0.398899,-0.302052
0.729624,0.506618,0.355758,-0.108785,0.913368,-0.392332
-0.081974,-0.158070,-0.410050,0.771401,-0.589833,-0.238825
-0.260186,0.045280,0.702753,0.744517,-0.540822,0.391415
0.023129,-0.093987,-0.375410,0.895906,-0.419638,0.145797
-0.675575,0.323169,0.324452,0.024690,-0.784878,0.619158
-0.197267,0.190486,0.656959,-0.112378,-0.013885,0.993569
-0.074667,-0.688655,0.570682,0.869396,-0.493260,-0.029080
-0.169463,0.255728,0.544599,0.509381,0.552351,-0.659878
-0.257790,0.205736,0.403942,0.064520,0.547497,0.834316
0.132549,0.015956,0.529698,-0.239717,-0.842666,0.482130
-0.589168,-0.235061,0.304978,0.833693,0.017420,-0.551953
-0.064360,0.538915,-0.977487,-0.251494,0.162182,0.954174
0.137102,-0.544601,0.461656,0.393006,0.917213,0.065320
0.012944,-0.386085,0.696084,-0.165216,-0.801453,0.574784
-0.039190,-0.345524,0.667552,0.863122,-0.241527,-0.443492
0.076821,-0.166854,0.852173,-0.782501,0.622645,0.002471
-0.218722,0.591887,0.465227,0.885995,-0.118592,-0.448274
-0.064119,-0.085724,-0.339441,0.829364,-0.558135,0.025315
-0.100792,-0.403787,0.412705,0.153939,-0.331110,0.930951
-0.577900,-0.334414,0.454250,0.339129,-0.611133,0.715198
0.431207,-0.086756,-0.947361,-0.069152,0.071702,0.995026
-0.116851,-0.217879,-0.865333,0.809170,0.586145,0.040952
-0.072388,-0.738386,0.600041,0.816007,0.099312,-0.569447
0.040027,-0.246565,0.538461,0.811408,0.050645,-0.582282
0.153404,-0.661395,0.574223,-0.668600,0.089000,-0.738277
-0.348275,-0.259481,0.111534,-0.277937,0.784120,0.554893
-0.267739,0.572632,0.615886,0.955099,-0.150702,0.255097
-0.020975,-0.428460,0.718096,0.966726,-0.200447,-0.158939
-0.154724,-0.250177,0.391254,-0.643355,0.041283,0.764454
-0.258990,0.462697,0.558142,-0.795237,0.251703,-0.551582
0.115651,-0.271624,0.723378,0.780461,0.316414,0.539224
-0.068072,-0.346817,0.735210,-0.554324,-0.461197,0.692836
-0.183965,0.210774,0.405329,-0.204685,0.683261,0.700898
0.269893,0.007558,-0.952200,-0.046459,0.363291,0.930517
-0.103308,0.010270,0.569768,-0.792029,-0.271185,0.546945
-0.192593,0.358305,0.613378,0.782222,0.545805,0.300376
-0.140939,-0.218786,0.756543,-0.387880,0.507793,0.769217
-0.347438,0.497447,0.413826,-0.004678,0.031762,0.999485
-0.220038,0.800915,0.381901,-0.488014,0.731524,-0.476146
-0.019176,-0.290099,0.890000,0.602174,0.539848,-0.588176
-0.061602,-0.115301,0.727273,0.290746,0.576215,0.763834
0.463327,0.178343,0.627925,-0.474905,0.880033,0.002632
-0.028166,-0.159749,0.826001,-0.436792,0.297182,0.849056
0.027324,0.261673,-0.972943,-0.204682,0.300933,0.931421
-0.017018,-0.237907,0.789265,0.130928,0.983872,0.121876
-0.369368,0.081450,0.763211,0.551921,0.756097,0.351711
0.203258,0.046313,0.395975,-0.441314,-0.128738,-0.888070
-0.219680,-0.008465,0.473636,0.638540,-0.202787,-0.742391
-0.374163,0.700790,0.483904,0.981261,-0.168286,0.093841
-0.487177,-0.215040,0.566994,0.241077,0.896777,0.371042
-0.092763,-0.278729,0.702222,0.742638,0.144990,-0.653810
-0.012344,-0.184809,0.616948,0.765700,-0.020094,0.642884
0.244126,0.066594,0.820985,0.957678,-0.284120,-0.046142
-0.310044,-0.205223,0.795403,-0.167909,0.720192,-0.673149
-0.351750,0.289705,0.400932,-0.470339,0.727453,0.499593
-0.158678,-0.481298,0.671447,-0.388653,0.612090,-0.688690
-0.185403,0.111295,0.531026,0.954434,0.294534,-0.048009
-0.485019,-0.312193,0.332153,-0.458778,0.562978,0.687443
-0.344439,-0.510111,0.561742,-0.168342,-0.674070,0.719229
-0.114094,-0.555710,-0.958160,-0.278639,-0.196055,0.940172
-0.005874,-0.040629,0.723968,-0.609933,0.787992,0.083968
-0.004674,-0.013629,0.123986,0.997497,0.049623,-0.050376
-0.244488,0.485690,0.364079,-0.484668,0.393895,-0.780989
-0.045301,-0.293198,-0.626597,0.863532,0.328370,-0.382736
-0.173779,-0.783221,0.717683,0.886601,0.290679,-0.359783
0.307407,-0.705963,-0.944233,0.020859,0.089166,-0.995798
-0.639743,-0.273430,0.292290,0.936047,0.336146,-0.104029
0.017497,-0.036883,0.525803,0.154737,-0.558649,0.814842
-0.148251,0.030677,0.616948,0.465336,0.064693,-0.882767
0.038110,-0.390477,0.934260,0.872167,0.310531,-0.378014
0.482503,0.137395,0.605264,-0.344068,0.915075,0.210370
-0.315197,0.563462,0.606120,0.955962,0.244151,-0.162872
-0.287514,-0.115821,0.616122,0.321641,-0.936253,-0.141342
0.022051,0.134288,0.656634,0.974653,0.219870,-0.041330
0.433245,0.052511,-0.948305,-0.179716,0.089606,0.979629
-0.458415,-0.350302,0.373255,0.797132,0.496746,-0.343255
-0.460211,0.069054,-0.194506,0.520160,0.712326,-0.471195
0.519534,-0.657642,-0.915199,0.016652,0.454039,0.890826
-0.041347,-0.696658,-0.951137,-0.167643,-0.218337,0.961366
0.018576,-0.242173,0.657166,-0.487059,0.845522,0.218781
0.158436,0.058330,0.401375,0.869827,-0.492370,0.031186
-0.088089,-0.215040,0.897288,0.435110,-0.894137,-0.105823
-0.358941,0.124858,0.368328,0.194514,-0.350105,0.916292
-0.282957,0.393962,0.608923,0.852551,-0.522231,-0.020779
-0.217043,-0.221498,0.124192,0.175069,-0.967060,0.184786
0.623800,-0.529619,-0.923401,0.378220,0.076283,-0.922567
0.403162,-0.060270,0.313653,-0.032947,-0.337744,0.940661
-0.119968,0.316065,0.739223,0.098670,-0.993836,-0.050536
-0.008149,0.373555,0.691836,0.895993,-0.426347,0.124195
-0.148492,0.158188,0.311646,-0.123308,0.316146,0.940663
-0.078741,-0.336992,0.601281,-0.438269,0.890118,0.124944
0.008390,-0.261034,-0.207341,-0.188006,-0.205654,0.960396
-0.182649,-0.089981,0.494940,0.410917,-0.856908,-0.311217
-0.268938,0.202889,0.495028,0.729649,-0.286355,0.620977
-0.072388,0.897808,-0.992269,-0.066717,-0.003169,0.997767
-0.204458,0.357919,-0.980467,-0.241168,0.171136,0.955275
0.177491,-0.494475,0.416630,-0.569055,-0.685678,-0.453896
0.028045,-0.056777,0.496887,-0.003026,-0.978778,0.204902
-0.119130,-0.234414,0.756779,0.828820,0.085038,-0.553015
-0.080416,-0.338671,0.581747,-0.697805,0.611843,0.372446
0.049375,-0.834506,0.660618,0.373759,-0.734567,0.566318
0.286073,0.496675,0.389307,0.579219,-0.778182,-0.242771
-0.270614,0.604157,0.586734,0.863642,0.292178,-0.410797
-0.087010,0.786833,-0.991089,0.263054,-0.229718,0.937034
-0.166589,-0.004333,0.552123,0.900842,0.049044,-0.431368
-0.390222,0.237899,0.502464,-0.363635,-0.307381,0.879367
0.192351,-0.187261,0.663037,-0.283911,0.063282,-0.956760
-0.154245,0.112462,0.815083,0.923027,-0.327165,0.202446
-0.063040,0.531290,0.357086,0.236741,-0.803280,0.546530
0.164668,-0.481046,0.493435,-0.759166,-0.634848,-0.143645
-0.480824,0.598732,0.408692,0.292474,0.956005,-0.022665
-0.004316,-0.197212,0.833761,-0.609547,0.360169,0.706209
-0.167905,0.031970,-0.971438,0.081095,-0.430732,-0.898829
-0.038831,-0.216333,-0.938568,-0.023240,0.656881,0.753636
-0.014981,-0.599899,0.709303,0.944256,-0.321777,-0.069569
-0.017139,-0.316585,0.844324,0.989473,0.083647,-0.118093
0.029961,-0.215553,0.824172,-0.668532,0.589518,-0.453358
-0.583536,0.104963,0.325101,-0.006144,-0.689277,0.724471
0.098634,-0.142694,0.846714,0.881053,0.141529,-0.451347
0.539789,-0.590594,-0.933109,0.135244,0.303725,0.943112
0.042664,0.024740,0.606473,0.998256,0.031868,0.049700
-0.078379,0.016854,0.443599,-0.623260,-0.388984,0.678408
0.003716,-0.348623,0.812103,-0.639005,-0.706447,-0.304311
-0.062081,-0.461018,0.702074,0.002691,-0.769442,0.638711
-0.240052,-0.124479,-0.249122,0.255003,0.953737,-0.159246
-0.468842,-0.323950,0.736833,0.398853,-0.698263,0.594429
-0.121284,-0.244885,-0.527043,-0.150177,0.983244,-0.103336
-0.091443,-0.252376,-0.209023,-0.657232,0.028339,0.753156
-0.122125,-0.179896,0.730017,0.445985,0.343419,-0.826535
-0.233703,0.296037,-0.979936,-0.305320,0.113529,0.945458
0.329457,0.138167,0.380868,-0.293878,-0.828837,-0.476093
0.113614,-0.664360,0.600838,0.806948,-0.276356,0.521979
0.099233,-0.154837,0.859402,0.977289,0.170690,0.125581
-0.038231,-0.135455,0.827270,0.973687,-0.056717,-0.220717
-0.174379,0.249144,0.426691,0.612233,0.783072,-0.109403
0.190077,-0.360892,0.794547,0.122194,0.932841,0.338933
0.324546,0.090754,0.578059,-0.759250,0.296745,0.579208
0.382432,0.139074,0.620224,-0.837332,0.133161,0.530229
0.067234,-0.738134,0.687911,0.933230,0.236383,0.270564
-0.088327,0.251856,-0.974536,0.024431,0.178146,0.983701
0.689956,-0.057944,0.533917,0.191186,-0.701986,0.686049
-0.392259,0.087915,-0.687085,0.985274,0.152297,0.077719
-0.497005,-0.060917,0.702369,-0.528666,-0.462072,-0.712041
-0.066276,-0.054711,0.749166,-0.532300,0.788652,0.307707
0.681686,0.031198,0.446195,-0.623206,-0.226910,0.748416
0.305370,-0.459212,0.402496,-0.121933,0.796210,0.592606
-0.303691,0.588915,0.424124,-0.058714,-0.960394,0.272389
-0.032599,-0.648606,0.444749,0.351020,-0.872287,-0.340440
-0.056687,0.007558,-0.120593,-0.710704,-0.209193,0.671668
0.250600,-0.573413,0.516096,-0.774054,-0.366964,-0.515925
-0.401008,0.531290,0.408368,0.879173,0.476238,0.015899
-0.151846,0.707121,0.359594,0.811390,-0.225044,-0.539446
-0.063639,-0.135715,-0.408161,-0.569552,0.803942,0.171136
-0.598034,-0.295910,0.476262,0.094076,-0.806037,0.584340
0.504316,-0.584783,-0.928211,-0.103915,0.309222,0.945295
0.388302,-0.461664,-0.935145,0.055243,0.436716,0.897902
-0.125358,-0.230282,0.655661,-0.613059,0.750325,-0.247330
0.059323,0.245012,0.676404,-0.565225,0.451477,0.690427
-0.378358,-0.137915,0.811041,-0.709850,-0.482704,-0.512942
-0.655203,-0.071507,0.244814,0.841690,0.516958,-0.155923
-0.295063,-0.115048,0.662359,0.127554,0.410534,-0.902880
-0.522892,-0.134422,0.661533,0.552028,-0.356674,0.753690
-0.075863,0.216073,0.648019,0.246427,0.908401,0.337760
0.659756,-0.001620,0.360568,0.960915,0.164895,-0.222379
-0.319751,0.072666,-0.400519,-0.648915,0.140867,-0.747707
-0.099592,0.110909,0.481485,-0.404943,-0.312520,-0.859275
0.024808,0.227696,-0.970494,-0.249490,0.447017,0.859029
0.148129,-0.438537,-0.940397,0.117975,-0.010398,0.992962
-0.692476,0.248237,0.289192,0.383911,0.793902,-0.471521
0.051175,0.516955,-0.968753,-0.119751,0.359117,0.925578
-0.185523,0.161681,0.604084,-0.161329,0.076416,0.983938
-0.267618,0.324076,0.443658,0.101311,-0.355625,0.929121
-0.064239,-0.233902,0.873949,0.442190,0.740101,0.506674
0.136744,0.011429,0.564368,0.327377,-0.355444,-0.875491
-0.352950,0.177444,-0.209584,0.106442,0.986504,0.124417
0.054529,0.376914,0.713847,0.978172,-0.115237,0.172918
-0.206257,-0.199538,-0.533209,0.924021,0.106777,-0.367129
0.307528,-0.374722,-0.943141,-0.098579,-0.026112,0.994787
-0.246405,0.230542,0.580508,0.986069,0.006261,0.166220
0.642618,-0.390225,-0.922339,-0.076482,0.264484,0.961352
-0.003596,0.711387,0.344015,-0.591098,-0.681440,0.431558
0.144776,-0.241266,0.836122,-0.314187,0.705387,-0.635386
0.084969,-0.525093,0.128530,-0.586756,-0.263850,0.765572
-0.111457,-0.272397,-0.345107,0.820734,0.194174,-0.537301
0.113256,-0.126671,0.619663,-0.112504,-0.973370,-0.199733
-0.086411,-0.406240,0.624207,0.867756,-0.487125,0.098538
-0.162032,0.170725,0.614529,0.715290,0.286555,0.637374
-0.101750,-0.387378,0.733026,-0.383155,-0.651168,0.655113
-0.011506,-0.266972,0.833201,-0.435316,-0.225184,0.871661
0.121763,0.268005,-0.964622,-0.463507,0.199916,0.863247
0.320230,-0.511530,0.501106,0.767186,0.516730,0.380021
-0.004795,-0.181449,-0.101886,0.229719,-0.071345,0.970638
-0.429891,-0.152637,0.808681,0.526708,0.220691,0.820898
-0.202062,-0.209095,-0.024520,-0.353824,0.923331,0.149225
-0.017018,-0.225504,0.685344,0.316901,-0.580976,0.749694
0.652445,0.534649,0.387979,0.514854,-0.822623,0.241283
0.493888,0.416963,0.305656,-0.120083,-0.510766,0.851292
-0.378237,-0.014410,0.361896,0.596714,0.089144,-0.797488
0.305249,-0.586723,-0.937092,-0.143800,0.106137,0.983899
0.277325,0.179249,0.524623,-0.559967,0.249512,0.790051
-0.117930,-0.090628,0.610870,0.995810,-0.091441,-0.000113
-0.218601,0.339058,-0.984303,-0.267610,0.152973,0.951306
-0.072267,0.387378,-0.083149,0.193086,-0.482037,0.854610
-0.353549,-0.326276,0.737305,-0.265252,-0.923619,0.276712
-0.139144,0.548732,0.130713,0.391115,-0.146308,-0.908638
0.022409,-0.319810,-0.030362,0.501827,-0.859815,0.094277
-0.045301,-0.188940,0.691747,0.226208,-0.597445,0.769343
-0.311361,-0.438671,0.143371,0.605847,0.794715,0.037106
-0.334852,-0.089209,-0.209141,0.736507,0.658814,0.153371
-0.202062,0.372522,0.675991,0.947859,0.292499,0.126518
-0.433727,-0.126931,0.359918,-0.322447,0.351710,0.878822
-0.266181,-0.250563,0.687882,-0.229786,0.478404,-0.847542
-0.415747,-0.683230,-0.971969,0.320304,0.148339,-0.935629
0.248562,-0.212067,0.714231,-0.176218,-0.970656,-0.163629
0.341322,0.005098,0.472721,0.792367,0.121960,-0.597730
-0.127279,0.735153,0.380219,0.342653,0.570021,-0.746770
-0.012823,0.360892,-0.008675,-0.659563,0.115283,0.742756
0.006232,-0.089595,-0.463604,-0.590186,0.801286,0.098087
0.068792,-0.465149,-0.236995,0.312379,-0.947991,-0.061090
-0.595997,-0.230929,-0.717270,0.028925,0.369715,0.928695
-0.033915,0.551445,0.341123,0.908751,-0.169593,0.381327
-0.429053,-0.323169,0.443185,-0.667404,0.635353,-0.388456
0.507432,-0.605450,-0.923608,-0.017369,0.533835,0.845410
-0.072509,0.781534,-0.065386,0.057128,0.494847,0.867100
-0.389861,-0.332474,0.412440,0.610018,0.792387,-0.001208
0.407478,-0.543315,-0.932371,0.444796,-0.293998,-0.846003
-0.229745,0.308440,0.575787,0.869302,0.368490,-0.329437
0.083411,-0.173312,0.623233,0.224165,0.542445,0.809631
-0.056687,0.186874,0.813254,0.875533,-0.263775,-0.404802
-0.425458,-0.172926,0.261662,-0.813030,0.469535,0.344266
0.185282,-0.059103,0.413885,0.961360,0.237090,-0.139912
0.506591,0.207281,0.641173,0.396786,0.179233,-0.900242
-0.262106,0.467342,0.560532,-0.795237,0.251703,-0.551582
0.032836,-0.181323,-0.946948,0.261062,-0.275751,-0.925099
-0.031282,-0.628964,0.514178,0.423874,-0.684820,0.592750
0.253833,-0.598220,-0.940338,-0.302733,0.009864,0.953024
-0.533557,0.306248,0.442330,-0.458660,-0.733214,0.502023
-0.232266,0.516821,-0.388510,-0.535982,-0.249530,0.806510
-0.524329,0.314772,0.408397,0.649793,0.733035,0.201070
0.027804,-0.282474,0.730813,0.180195,-0.471310,0.863363
0.032957,-0.549899,0.589507,-0.110734,0.947055,0.301372
-0.160835,-0.443962,0.690508,0.765857,0.244352,-0.594773
0.110019,-0.453653,0.592930,0.308728,0.225461,0.924042
-0.590127,0.078737,0.330648,-0.108901,0.684083,-0.721229
-0.084015,-0.084556,0.487770,0.301852,-0.023628,-0.953062
0.262702,-0.011950,-0.949603,-0.065150,0.262924,0.962614
-0.782478,0.207028,0.347762,-0.445110,-0.202468,-0.872286
-0.008511,-0.296297,0.820749,0.839041,0.446391,-0.311039
-0.446909,0.567341,0.419551,0.667343,0.659321,-0.346337
-0.289310,-0.489696,0.537134,-0.701385,0.608572,0.371079
0.113373,0.055870,0.486707,0.546378,-0.302698,-0.780925
-0.378475,-0.183902,-0.973444,-0.381448,0.289154,0.878002
0.015460,-0.457785,0.463604,-0.120218,0.740570,0.661138
-0.653645,0.511143,0.356584,0.389057,-0.522056,0.759008
-0.006712,0.433498,-0.976513,-0.188401,0.010338,0.982038
0.511265,0.250050,0.639816,-0.017170,0.114308,0.993297
-0.650050,-0.258322,0.661650,-0.361815,0.901203,-0.238587
0.051533,-0.163361,-0.955799,-0.050517,0.053529,0.997288
-0.336648,-0.159876,0.727833,0.971103,0.177077,0.160008
-0.296501,0.007818,-0.981441,0.343422,-0.228322,-0.911005
0.021930,-0.178863,0.896728,0.786300,-0.528113,-0.320669
-0.010427,0.182869,0.698622,-0.267760,0.808493,-0.524065
0.087606,0.075764,0.727892,-0.736927,-0.385053,-0.555583
0.727708,0.017761,0.462246,-0.545281,-0.226016,0.807208
-0.132911,-0.050453,0.661208,0.574282,0.672714,-0.466536
-0.891422,0.319164,0.365613,0.613787,0.625410,0.481796
-0.076941,-0.149278,-0.730459,-0.400431,0.854305,0.331387
-0.203620,-0.327309,0.393113,-0.231408,0.917055,0.324748
-0.191156,-0.241393,0.549526,-0.029820,0.941423,0.335906
0.194630,0.308826,-0.713198,0.888296,-0.305937,-0.342538
0.680007,0.570440,0.386120,-0.119926,0.989205,0.084214
-0.252399,0.537236,0.326311,0.502094,0.207480,-0.839556
0.050812,-0.702603,0.590953,-0.056985,-0.992062,0.112099
-0.162273,-0.199925,-0.241746,-0.752782,0.485130,0.444937
0.204337,0.103544,0.266029,-0.441498,-0.760210,0.476613
-0.311361,0.027318,0.352040,0.822995,-0.053496,-0.565524
-0.139743,0.343063,0.303945,-0.307614,0.647733,0.697005
-0.233940,-0.164788,0.511374,0.229947,0.015024,-0.973087
-0.462727,0.118013,-0.187808,0.181746,0.898174,0.400315
-0.099592,0.102125,-0.982591,0.412254,-0.181211,-0.892866
-0.201463,-0.602486,0.393969,0.342104,-0.444559,-0.827848
0.289430,-0.504812,0.524033,0.820125,0.546214,0.170427
0.100192,-0.180290,-0.954324,-0.245675,-0.083590,0.965741
-0.539073,-0.235968,0.232038,0.694177,0.496747,-0.520923
-0.510669,-0.232734,0.610782,0.333029,-0.939152,-0.084174
-0.501679,-0.251343,0.601605,0.038873,0.636143,0.770592
-0.443793,-0.240234,0.612345,-0.433834,0.897975,-0.073687
-0.464647,-0.424849,0.435809,0.546338,-0.721420,0.425521
-0.036436,0.149538,-0.094922,0.515663,0.406560,-0.754188
-0.092880,0.513982,0.362013,0.203015,-0.366045,0.908183
0.116010,-0.168139,0.864359,-0.602650,-0.568199,-0.560324
-0.067476,-0.177318,0.967277,-0.418115,0.907362,-0.043296
0.046021,-0.510623,0.426308,-0.470252,-0.318476,-0.823065
0.035832,0.119953,-0.960668,-0.366458,0.023448,0.930139
0.085211,-0.343063,0.745212,0.363907,0.269689,-0.891538
0.057166,-0.236094,-0.920244,0.513772,0.506316,0.692591
-0.096476,-0.138948,-0.786197,0.997964,0.051768,-0.037264
-0.142380,-0.144113,-0.174353,0.391406,-0.797238,0.459579
-0.274688,0.682709,0.393467,0.256959,0.171322,0.951115
-0.448946,-0.043088,0.314715,-0.652490,-0.194664,0.732368
0.348754,-0.330668,0.599008,0.515747,0.066768,-0.854135
-0.241131,-0.051873,0.375439,0.857220,0.262542,-0.442996
-0.324667,0.377041,0.300139,0.157517,-0.331480,0.930220
-0.311123,-0.505458,0.404591,-0.693998,-0.710863,0.114194
-0.265939,-0.348497,0.010180,0.053034,-0.721614,0.690261
-0.375242,0.175117,0.756573,0.773143,-0.102570,0.625883
-0.202304,-0.641888,0.425069,0.220940,-0.469203,-0.855005
-0.175575,0.142433,0.421203,-0.518630,0.142985,0.842958
-0.292426,0.526646,0.625446,0.995110,0.041121,-0.089805
0.145255,-0.142560,0.587295,0.956829,0.246887,0.153380
-0.084494,-0.173572,0.935086,0.899908,-0.369195,0.232077
-0.282361,-0.299530,0.706736,0.831940,-0.236984,0.501711
-0.163231,0.245012,-0.977192,-0.222268,0.070946,0.972401
0.046621,-0.252763,0.791803,0.444345,-0.809206,0.384374
0.021692,-0.345650,-0.230356,-0.202074,-0.977601,-0.058842
-0.078379,-0.192560,0.736626,-0.082621,-0.755221,0.650243
0.242089,-0.647699,0.525980,0.318219,0.764853,0.560121
-0.579458,0.573799,0.330471,0.275408,0.344207,0.897592
-0.285594,-0.094760,-0.423947,0.583877,-0.079996,0.807891
-0.073226,0.659061,-0.986634,-0.034018,0.117239,0.992521
-0.008511,0.063369,0.694137,0.988820,0.081585,0.124817
-0.156520,-0.376788,0.234280,0.048772,0.770002,0.636175
-0.710573,0.236220,0.354047,0.678844,0.352232,0.644285
-0.230224,-0.120986,0.630049,0.180576,0.381988,0.906354
-0.153762,0.298103,-0.980644,-0.204501,0.148494,0.967538
-0.797700,0.189453,0.360715,-0.592349,-0.744119,0.308885
0.415147,0.403779,0.569797,0.913245,0.174397,-0.368198
-0.011985,0.030039,-0.171875,-0.769763,-0.417803,-0.482603
0.470638,-0.084430,-0.942640,0.049345,0.071007,0.996255
-0.579458,0.058977,0.286477,0.529011,0.828851,0.182079
-0.690677,-0.001100,0.284176,0.946527,-0.040595,-0.320062
-0.150650,-0.379241,0.759641,-0.156074,0.987658,0.013120
0.248321,0.115821,0.777787,0.454628,-0.880168,-0.136448
0.172459,-0.456499,-0.949721,0.254795,0.035499,-0.966343
-0.094321,-0.593954,-0.957068,-0.192234,-0.251512,0.948571
-0.285956,0.392929,0.619633,0.869507,-0.362270,-0.335735
0.181566,0.185581,-0.964622,-0.006163,-0.108221,0.994108
-0.208294,0.046313,0.511404,0.860014,0.495591,-0.121511
0.388181,0.183775,0.546163,0.954711,0.015374,-0.297138
-0.450025,-0.237521,-0.380426,-0.276156,0.926766,0.254640
-0.069272,-0.742912,-0.955740,0.208089,0.093478,-0.973633
0.497604,-0.367610,-0.936797,-0.109259,0.283086,0.952851
0.319392,-0.033524,0.561417,-0.662765,-0.268851,0.698900
0.132911,0.147598,-0.649140,0.858054,-0.486451,0.164645
-0.011148,-0.115695,-0.523413,0.658938,-0.383233,-0.647250
0.450142,-0.337512,-0.942669,-0.342983,0.564949,0.750463
-0.094801,-0.140242,0.859933,0.830790,0.111836,0.545235
-0.021692,-0.317484,0.577853,0.146878,0.620535,-0.770301
0.252275,0.172405,-0.960786,-0.153500,0.100499,0.983025
-0.194992,-0.034171,0.492048,-0.679661,0.703784,0.206759
0.052854,-0.415544,0.730518,0.595013,-0.785223,-0.171417
-0.294584,-0.228737,-0.568499,0.689074,0.633659,-0.351644
-0.119488,-0.757255,0.703255,0.078233,0.790335,0.607660
0.677854,0.136748,0.538048,-0.632634,0.589450,0.502318
-0.533798,-0.367744,-0.222567,-0.096985,-0.990712,0.095312
-0.369847,0.452226,0.396713,0.763542,0.609982,-0.211959
-0.356186,-0.275504,-0.968782,-0.208308,0.202180,0.956938
0.020013,-0.306894,-0.303207,0.965055,0.230136,-0.125323
0.472196,0.411144,0.423918,0.989078,-0.087009,0.118973
-0.033199,0.754275,0.396536,-0.757551,0.514049,-0.402330
0.373442,-0.291006,-0.942669,0.003477,0.101186,0.994861
-0.100433,-0.617728,0.636718,-0.577359,-0.789523,-0.208111
-0.215006,0.355727,0.675518,0.940680,0.319354,0.114601
-0.352470,-0.075126,0.575138,-0.622632,0.739515,-0.255827
-0.617930,0.092174,0.340562,-0.387978,-0.093506,-0.916913
-0.117810,0.057684,0.620312,0.935760,0.352637,0.000861
0.132549,-0.190234,0.890177,0.801859,-0.090287,-0.590652
0.094318,-0.141527,0.891594,-0.127290,0.080565,0.988588
-0.401725,-0.448354,0.729751,0.079235,0.607782,0.790141
0.027445,-0.168139,-0.939217,0.273822,-0.689455,-0.670576
0.500120,0.039982,0.324127,0.499888,-0.465495,-0.730360
-0.366373,0.581164,0.382048,0.015630,0.774346,0.632569
-0.044226,-0.246818,0.817149,0.895063,0.444794,0.031945
-0.338207,-0.159103,-0.403027,-0.245495,-0.616847,-0.747818
-0.172821,-0.262067,0.395680,-0.586459,0.343269,0.733643
-0.501079,-0.013890,-0.281491,-0.459974,-0.864531,0.202511
-0.009948,-0.729862,0.521613,0.941259,-0.328071,0.080008
-0.553091,0.327687,0.305892,0.370262,0.182461,0.910832
0.013302,0.052645,0.035142,-0.557325,-0.703467,-0.441048
0.637823,-0.589822,-0.926441,-0.350020,-0.068092,0.934264
-0.187919,-0.281828,-0.376088,0.356551,0.911770,-0.203830
-0.115414,-0.171372,-0.253489,-0.593690,0.789846,0.153871
0.103907,-0.267232,0.737629,0.764332,-0.378205,0.522262
0.323466,-0.116081,0.606769,0.921865,0.355131,-0.155071
-0.468360,0.096053,0.506595,-0.049354,-0.337299,0.940103
-0.101750,-0.187647,0.207548,-0.015514,0.335312,0.941979
-0.272771,-0.222405,0.430085,0.796409,-0.096045,0.597084
-0.021213,-0.047480,-0.052521,0.970743,-0.045898,0.235695
0.033915,-0.142173,0.824614,0.793787,-0.432383,0.427723
-0.026487,-0.272657,0.892420,0.802396,-0.034297,-0.595806
0.114093,0.190099,0.460004,0.243633,0.964699,0.099999
-0.306928,0.407919,0.464666,-0.608993,-0.070732,0.790016
0.158915,0.089721,0.374613,0.757640,-0.541155,-0.364873
-0.359419,-0.160522,0.616830,-0.562266,0.603718,-0.565138
0.342642,-0.292165,-0.938391,-0.168550,0.120595,0.978288
-0.046622,-0.200571,-0.861468,0.819526,0.558973,0.126196
-0.129795,0.136488,-0.971467,-0.080907,-0.081262,0.993404
0.266059,-0.414125,0.797232,-0.047134,0.974403,0.219810
0.059444,-0.025907,0.658936,0.946970,0.188835,0.259981
0.018455,-0.112202,0.957953,-0.767364,0.551765,0.326662
0.186481,0.341510,-0.973739,-0.120690,0.231193,0.965393
-0.310523,0.365410,0.625977,0.909921,-0.327844,-0.254090
-0.331978,-0.441770,-0.964120,-0.145556,-0.077208,0.986333
0.073104,-0.517215,-0.946505,-0.098526,0.032184,-0.994614
0.466443,0.440082,0.462925,0.873692,-0.366220,-0.320228
-0.022171,0.218911,0.765188,0.844454,-0.525502,0.103660
0.078020,0.105996,-0.968841,-0.174467,-0.097438,0.979830
-0.386865,0.529611,0.420761,-0.153851,-0.716603,0.680301
-0.198467,0.254955,0.461627,0.842236,0.233560,0.485889
-0.004553,0.000059,0.123602,0.997497,0.049623,-0.050376
-0.235382,0.168013,-0.982355,-0.302818,0.258071,0.917443
0.142618,-0.067501,0.184503,-0.521336,0.766451,-0.375182
-0.192714,0.576125,0.321000,0.991042,0.124251,0.048960
-0.243647,0.632969,0.372783,-0.503560,-0.457532,-0.732866
0.067834,0.595759,-0.983978,-0.342857,0.170692,0.923750
0.347555,0.163487,0.587295,0.961593,0.029661,-0.272872
0.162390,0.176276,0.495353,-0.729480,-0.418538,0.541004
-0.106424,-0.582844,0.636157,0.700940,0.677605,0.222562
0.161794,-0.164914,0.441474,0.009348,0.854649,0.519121
-0.033078,-0.208322,-0.960255,-0.130779,0.644400,0.753423
0.474712,0.370323,0.549556,-0.457259,0.869880,-0.184992
-0.198467,-0.187135,0.891210,-0.493928,0.831891,0.252968
0.693913,0.024740,0.458824,-0.574851,-0.141813,0.805875
0.140818,0.259607,-0.712372,0.805013,-0.372056,-0.462091
-0.459374,0.558297,0.343011,0.467596,0.511080,-0.721215
-0.188881,0.251982,0.346257,-0.039520,0.925787,0.375975
-0.118768,-0.279375,-0.683072,0.943983,0.244770,-0.221324
-0.062919,-0.157029,0.823316,0.978111,0.094211,-0.185535
-0.131591,-0.297590,0.605707,0.077349,-0.934625,0.347121
0.166227,-0.119181,0.892272,-0.305085,0.536334,0.786936
-0.032361,-0.235581,0.745183,0.893982,-0.090611,0.438846
-0.393097,0.539302,0.446962,-0.755213,-0.152289,0.637543
-0.099475,-0.229123,0.397244,0.802284,0.201651,-0.561852
0.186002,-0.565922,-0.947567,0.288709,0.022518,-0.957152
-0.094801,-0.273564,0.551975,0.942384,0.325065,0.079027
0.185881,-0.081718,0.034965,0.136327,-0.912094,0.386652
0.429528,-0.358826,-0.938479,0.020100,0.136853,0.990387
-0.032120,-0.212974,0.830840,-0.377116,0.926036,0.015499
0.517139,-0.137269,0.313594,0.153612,-0.963406,0.219663
-0.181449,0.433885,-0.985188,-0.197995,0.160723,0.966936
0.102829,-0.098119,0.744445,-0.774794,-0.311492,0.550152
0.166227,0.176537,-0.955888,-0.092315,-0.114627,0.989110
-0.027087,-0.203410,0.856097,-0.273568,-0.960876,0.043324
-0.636148,0.328334,0.326960,0.633568,-0.122024,0.764004
-0.134228,0.119046,-0.987312,0.195348,-0.028762,-0.980312
-0.333653,-0.171112,0.446283,-0.174350,0.983008,0.057431
0.446909,-0.087655,0.231359,-0.897495,-0.048236,0.438379
0.352587,-0.310380,0.704228,-0.577232,0.622345,0.528668
-0.046742,-0.020087,0.816677,0.826865,-0.558654,-0.064800
0.011027,-0.336346,0.681390,0.763508,-0.561107,-0.319709
0.184802,-0.736194,-0.945561,-0.255037,0.077955,0.963784
-0.111578,-0.261287,0.618719,-0.037999,-0.733830,0.678269
0.219439,-0.250697,-0.940309,0.095473,0.062277,0.993482
0.228787,-0.590594,0.531144,0.921748,0.258743,0.288847
-0.147892,-0.192560,-0.061639,-0.371424,-0.161671,-0.914279
0.301054,-0.723278,0.556873,0.178362,-0.924862,-0.335883
-0.081016,-0.234935,0.935794,-0.415832,0.621578,0.663871
0.105465,-0.094894,0.785518,0.165226,0.646188,0.745078
-0.346596,0.461917,0.561594,-0.104431,-0.847806,0.519923
-0.332936,0.187135,0.477324,-0.215740,0.916966,0.335604
-0.292189,-0.265939,0.433006,0.970581,0.220330,-0.097091
-0.618651,-0.163495,0.175533,0.687846,0.717945,0.106876
0.433844,0.013629,0.626036,0.954102,-0.089970,0.285648
-0.148850,-0.414771,0.599333,0.390540,0.646419,0.655455
-0.138664,-0.006651,-0.240211,0.994003,0.061582,-0.090365
0.133869,-0.211941,0.666608,-0.676299,-0.356388,-0.644676
-0.659036,0.231055,0.342008,-0.350275,-0.646758,-0.677504
0.147771,-0.494349,0.871205,0.786594,0.378952,-0.487509
-0.122246,-0.411665,0.682216,-0.133216,0.045972,0.990020
0.064718,-0.152385,-0.946446,0.015021,0.763704,0.645392
0.258269,0.461270,0.525184,-0.667241,-0.113917,0.736079
-0.202783,0.472640,0.668614,0.746983,0.660236,-0.078135
-0.279841,-0.181063,0.852498,-0.156011,0.986689,0.045878
-0.070830,-0.266073,0.721460,-0.173637,-0.984713,-0.013798
-0.169943,0.275756,0.509575,0.952180,-0.160477,0.260002
-0.105707,-0.069054,0.574400,0.386674,-0.796549,-0.464750
-0.572150,0.242938,-0.258476,0.979524,0.163462,-0.117529
-0.232861,-0.263226,0.076894,-0.678844,-0.734266,-0.004930
0.301654,-0.142954,0.666814,-0.023598,-0.121703,0.992286
-0.138664,-0.169566,0.023162,-0.213641,0.915008,0.342226
0.282119,0.386471,0.507775,0.403187,0.548113,-0.732811
-0.244847,-0.250957,0.616506,0.859696,0.491808,-0.138012
0.130632,-0.266846,0.656870,0.772234,-0.309254,-0.554992
-0.172459,0.637621,-0.380189,0.595842,0.275330,-0.754431
-0.143576,-0.205870,-0.095306,0.388218,-0.674570,0.627886
0.079937,0.296817,0.640288,-0.039204,-0.973472,0.225421
-0.222317,0.633355,-0.031395,0.941581,0.080553,0.327010
0.058244,-0.375109,0.858399,-0.670853,0.352324,0.652552
-0.220038,-0.137781,0.425334,0.897979,-0.339654,-0.279765
-0.102350,0.179770,0.424213,0.278337,0.700830,0.656784
0.000717,-0.318912,0.924670,0.992798,0.042443,0.112033
-0.298900,-0.323690,-0.961317,0.134663,-0.218102,-0.966591
-0.272650,-0.329761,0.844147,0.408397,-0.474469,0.779801
-0.168264,0.075378,0.251837,-0.466588,-0.772111,0.431439
-0.067114,-0.179383,0.857661,-0.731527,-0.639922,-0.235302
-0.253116,0.340091,0.624384,-0.680598,-0.546028,0.488508
-0.164431,-0.564108,0.472574,0.859776,0.270242,0.433307
-0.186123,-0.339704,0.534242,0.842008,0.231696,-0.487175
-0.162752,-0.477040,0.718627,0.442982,-0.519816,0.730450
-0.025167,0.821070,-0.991414,-0.259064,0.047789,0.964677
