-0.012866,-0.834092,0.644951,0.192603,-0.758455,0.622616
-0.384748,0.033163,0.512728,0.768147,0.614348,0.180352
0.195796,0.627277,-0.975353,-0.035900,0.143801,0.988955
-0.232262,0.690402,-0.990733,0.181823,-0.017569,-0.983174
-0.101535,-0.840311,0.636856,0.292501,0.627985,-0.721164
-0.258290,0.143587,0.713281,0.492889,0.221558,-0.841411
0.531801,-0.382409,0.698264,0.873265,-0.287331,0.393510
-0.318136,0.634744,-0.009853,0.297247,0.847092,0.440545
0.758547,0.276609,0.293697,0.388628,-0.573216,-0.721382
-0.289756,-0.980442,0.527578,-0.635868,0.756764,-0.151591
0.500917,0.253133,0.436471,-0.119710,0.004048,0.992801
-0.023600,-0.137021,-0.631748,0.903842,-0.240287,-0.354023
-0.220204,0.090427,0.705493,-0.545865,0.171721,0.820087
0.705756,-0.605049,0.412103,0.908140,0.299378,0.292668
0.486508,-0.736822,0.660554,0.564780,-0.524948,-0.636751
-0.175943,0.488926,0.565176,-0.561723,-0.751020,0.347040
0.147855,-0.765096,-0.212192,0.901658,-0.339791,-0.267496
0.183738,-0.510981,0.887651,0.981593,-0.065438,0.179425
0.112713,0.572326,-0.502987,0.839967,-0.320170,-0.438117
0.657524,-0.399135,-0.901775,-0.644846,0.721843,-0.251228
-0.343136,0.015559,0.617289,0.873287,-0.094717,0.477911
0.042717,0.687559,0.397253,-0.579926,0.291726,-0.760646
-0.083006,-0.066245,0.477502,0.032812,-0.987590,0.153586
0.899272,0.145368,0.393541,0.740334,0.546945,-0.390841
-0.092712,0.478974,-0.981940,0.030698,-0.063982,-0.997479
0.227999,-0.089363,0.510942,0.655966,0.599160,0.459038
-0.328430,-0.693256,0.751019,0.466209,0.863979,0.190234
0.237261,0.275187,0.485290,0.425531,0.819629,-0.383577
0.602825,-0.860412,0.401999,0.286642,0.592043,0.753207
-0.824864,0.324615,-0.450846,0.997308,0.073237,0.003493
0.480481,-0.561483,-0.925836,0.668747,0.416909,-0.615601
-0.222407,0.077978,0.242952,0.652402,0.757108,-0.034041
0.047716,-0.086693,0.735276,0.657300,-0.657177,-0.368882
0.455041,-0.338496,-0.938899,-0.008837,0.166378,0.986022
-0.297991,-0.056813,0.164294,-0.328110,0.917117,-0.226362
-0.436513,0.244417,0.604784,0.275681,-0.872140,-0.404192
-0.798397,-0.086867,0.579384,-0.015924,0.992229,-0.123400
-0.092273,0.908592,0.240021,-0.312649,-0.948972,0.041260
0.170060,-0.588161,0.544325,-0.575091,-0.816567,0.049885
-0.071392,-0.479864,-0.950762,-0.277889,0.253508,0.926559
0.065217,-0.155331,0.577625,-0.435523,-0.050493,-0.898760
-0.182414,-0.188586,0.711104,0.131123,-0.456658,0.879926
0.499890,0.380098,0.053341,0.900446,-0.379062,-0.213331
0.197851,0.193210,0.774130,-0.703052,0.320860,0.634639
-0.028307,-0.033163,0.812064,0.610926,0.574007,0.545239
0.239321,0.782158,0.370820,0.129321,0.366399,0.921427
0.114037,-0.407134,0.916541,-0.527463,-0.288463,-0.799107
0.192121,0.320707,0.795372,-0.660870,0.102931,0.743409
-0.169472,-0.665515,0.547926,-0.262739,0.822071,0.505141
0.481800,-0.574290,0.734020,0.815314,0.181330,0.549893
0.388280,-0.319111,0.646011,0.771789,-0.635600,-0.018825
0.553709,-0.223079,0.458689,0.691708,0.445597,0.568316
-0.123004,-0.735042,0.781834,0.817547,-0.507390,-0.272346
-0.240644,-0.722951,0.749930,-0.329654,0.942657,-0.052221
0.682964,-0.254912,-0.920198,-0.679451,0.194488,0.707475
-0.113445,-0.938298,0.795316,0.974641,0.212767,0.069318
-0.024040,0.935096,-0.255596,-0.636576,-0.128532,0.760428
0.097124,-0.185743,0.753224,-0.636898,0.079624,-0.766825
0.474890,0.133276,0.650338,-0.686239,0.231981,0.689392
0.057719,0.611453,-0.387986,-0.754666,-0.621210,-0.211131
-0.099771,-0.364273,-0.009127,0.218328,-0.729717,-0.647955
-0.095652,-0.117452,0.673003,0.982187,0.131183,-0.134533
-0.149179,-0.296525,0.433093,0.860378,0.315642,-0.400150
0.085362,0.239436,-0.978898,-0.124476,-0.035015,0.991605
-0.200499,0.771141,0.314046,0.999987,0.005101,-0.000182
0.522534,-0.271627,-0.946073,0.400039,0.371619,0.837776
0.146532,0.264865,-0.101435,-0.445764,0.469188,-0.762337
0.199032,-0.555264,0.795177,-0.103791,0.971178,-0.214571
-0.086242,-0.851870,0.598504,-0.159221,0.933631,0.320909
-0.789718,-0.276077,0.513063,-0.728078,0.593545,0.342938
0.137566,-0.369429,0.685229,0.117481,0.453252,0.883607
0.276522,-0.042768,-0.953525,0.184839,0.722012,0.666733
-0.228878,0.120828,0.061352,0.942907,0.330742,0.039197
0.209470,0.820753,0.388321,-0.432708,-0.803726,-0.408397
0.101535,0.519870,-0.196142,-0.684287,0.728441,-0.033543
-0.685315,-0.225749,0.517027,0.733713,0.607778,-0.303763
0.481657,-0.116920,-0.698571,-0.856801,0.509961,-0.076365
0.178443,-0.566997,0.852342,0.117158,0.152337,0.981360
-0.004631,-0.390951,-0.288868,-0.641211,-0.750264,0.161100
-0.121976,-0.579272,0.320884,-0.664954,-0.142919,-0.733083
0.129183,-0.364632,0.158684,-0.590402,-0.804693,-0.062414
-0.075068,0.073701,-0.692933,0.980141,-0.006289,-0.198203
-0.166385,0.200135,0.516720,0.493038,0.318493,-0.809615
-0.169032,-0.251895,-0.092363,0.058759,-0.175384,0.982745
-0.023308,0.809368,0.409005,-0.705438,0.708687,0.010920
0.615471,0.047393,-0.182716,0.402425,-0.788819,-0.464563
-0.075068,-0.099500,0.017306,0.211202,0.800348,0.561103
-0.364604,-0.814176,-0.975716,-0.078211,-0.069928,0.994481
-0.641203,0.419041,0.395579,0.824989,-0.564605,-0.024765
0.407249,-0.840843,0.658600,0.258039,0.725208,-0.638349
0.052863,-0.352714,0.901831,0.504681,-0.608766,0.612127
0.064630,-0.455497,0.779350,0.556600,0.744511,-0.368646
-0.073892,-0.441811,-0.135628,0.137217,0.983951,-0.114073
-0.047128,-0.373705,0.076844,0.531566,-0.825216,-0.190936
-0.186969,-0.852402,0.674733,0.165288,0.984378,0.060657
-0.282258,-0.091675,0.614665,0.792137,0.189006,0.580342
-0.290932,-0.020367,0.574862,0.873209,0.322915,-0.365009
0.234321,0.768287,0.368085,0.692627,-0.223576,-0.685771
-0.156238,-0.179339,-0.644420,0.077522,0.385316,0.919523
-0.017277,-0.366770,0.376319,0.242937,0.188109,0.951628
-0.020809,-0.822359,0.475018,0.243600,-0.108596,-0.963777
-0.765750,-0.317505,0.621476,0.982058,0.152649,0.110731
-0.191089,-0.690586,0.762686,-0.201169,0.976256,0.080347
0.071244,-0.397713,-0.094038,0.265607,0.962601,0.053407
-0.065657,-0.373879,-0.952186,0.020331,0.471649,0.881552
-0.032422,-0.275187,-0.470357,0.976566,0.214105,-0.021870
0.789866,-0.144489,0.471836,-0.138657,0.723128,-0.676654
0.931623,-0.024632,-0.091777,0.440313,0.864034,0.244069
-0.381073,-0.311991,0.547368,-0.490707,0.790441,-0.366620
-0.349162,-0.143240,-0.273851,0.133043,0.954381,-0.267313
-0.085950,0.281406,0.685954,0.090567,-0.981848,0.166650
-0.071684,-0.125636,0.035421,0.559953,0.764625,0.319062
0.400338,-0.052547,0.644281,0.320509,0.770675,0.550757
0.399454,0.301855,0.617289,-0.422382,0.721162,0.549107
0.304610,-0.204943,0.751521,0.892351,-0.442381,-0.089490
0.109770,-0.215611,0.746218,0.431235,-0.401931,0.807767
0.264173,-0.376722,0.785128,-0.021144,-0.992357,0.121578
-0.100655,-0.569308,0.723162,0.974662,-0.058945,-0.215775
0.284169,0.298479,0.781499,-0.676182,-0.206663,0.707156
-0.710755,-0.153377,0.313794,-0.576399,0.813969,-0.072246
-0.255938,0.563078,0.463853,-0.445460,0.800803,0.400350
-0.282994,0.754416,0.602356,0.968195,0.123652,-0.217507
0.214320,0.639726,0.378691,0.272818,0.285438,0.918747
0.689727,0.587803,-0.972897,-0.003099,-0.092101,-0.995745
-0.277698,-0.155331,-0.031234,0.748601,0.561704,-0.352257
0.221676,-0.420473,0.878831,0.619777,0.782704,0.057009
0.062570,-0.332982,0.843493,0.397297,0.851612,0.341923
0.132270,-0.173999,-0.947664,0.544668,-0.021836,-0.838368
-0.234322,-0.614828,0.716435,0.423962,-0.015582,0.905546
0.130358,0.808120,0.054793,0.547783,0.802234,-0.237390
0.296227,0.211347,-0.480377,-0.562841,-0.789935,-0.243337
0.705168,0.180403,0.002596,-0.716473,0.675439,0.174498
0.294172,0.248151,0.801596,0.211246,-0.977190,0.021812
0.107418,-0.596876,-0.754536,0.703363,0.710675,0.014894
-0.787075,0.160302,0.525596,-0.651530,0.753362,-0.089185
0.436073,-0.387391,0.713700,-0.254412,0.707368,-0.659473
-0.382837,-0.621416,0.486462,0.022145,-0.721606,0.691950
0.257998,-0.567528,0.833668,0.302126,0.933161,-0.194759
-0.355045,-0.484487,-0.153185,-0.416794,-0.747674,-0.516978
-0.171235,0.111048,0.590325,0.872816,0.366448,-0.322347
-0.092861,-0.688806,0.392871,0.179790,0.648900,0.739327
-0.160210,-0.232326,-0.025568,-0.345956,0.168314,0.923030
0.369163,-0.630121,0.806705,0.411897,0.883312,0.223832
0.588999,-0.638478,0.688048,-0.142213,-0.664099,0.733995
0.145652,-0.058951,0.439876,-0.606618,-0.509727,-0.610076
-0.182558,0.136479,0.711271,0.566002,-0.664051,-0.488547
-0.321080,0.539613,0.478089,-0.146301,0.988201,-0.045332
0.051248,0.501018,-0.403171,0.959954,0.167015,0.224934
0.565471,-0.711393,0.721683,-0.000299,0.230526,0.973066
0.740315,-0.001688,0.417825,0.815341,0.368802,0.446324
0.108742,0.970652,0.481075,0.012309,-0.956535,0.291356
0.021984,-0.532677,0.680763,0.935913,0.316826,-0.153909
0.079923,-0.296699,0.934461,0.378367,0.357863,-0.853682
0.313729,-0.187696,-0.388796,-0.479435,0.390543,0.785887
-0.343576,-0.110517,-0.108301,0.044153,-0.817707,0.573938
0.423718,-0.157828,0.666890,-0.625893,0.689881,-0.363761
0.123596,0.288342,0.489812,-0.239605,-0.431463,0.869729
-0.232410,-0.250474,0.349355,-0.511606,0.737162,-0.441421
0.074188,-0.674045,0.277033,-0.000918,0.876350,0.481674
0.174032,-0.013431,-0.971110,-0.523606,0.356456,0.773806
0.257850,0.784296,0.368699,-0.185220,0.443287,0.877035
-0.161237,0.536943,-0.300620,0.221428,0.899257,0.377234
0.233437,0.750509,-0.978228,-0.027724,0.055184,0.998091
-0.174471,0.068014,0.515743,-0.608470,0.407852,-0.680750
-0.469303,-0.311286,0.575252,0.193917,0.675831,-0.711090
0.176827,-0.409446,0.599257,0.880363,-0.472701,0.038929
-0.564147,-0.780215,0.155948,-0.171827,0.925033,0.338806
0.323431,0.396455,0.562776,0.684230,0.709728,-0.167676
0.080067,0.403574,0.608776,0.566670,0.699314,-0.435711
0.687523,0.088647,0.394071,-0.396832,-0.255994,-0.881471
-0.243880,-0.491423,0.521130,-0.204356,-0.612133,0.763892
0.445335,-0.739493,0.696366,0.819331,-0.087391,-0.566622
-0.216820,-0.064823,0.664824,-0.009424,-0.814760,0.579722
-0.167120,0.594022,0.443477,-0.502161,-0.852329,0.146182
-0.306522,0.455497,-0.990900,0.313391,-0.048469,-0.948386
-0.066685,0.015385,0.561547,0.994112,-0.028676,0.104490
-0.102271,0.768287,0.317451,0.178966,0.416911,0.891155
0.891329,0.291186,0.428683,0.768568,-0.633058,-0.092420
0.068008,0.782343,0.387484,-0.284366,-0.775905,0.563123
-0.016393,0.207960,0.474237,0.573980,0.111733,0.811210
-0.398718,0.023558,0.581170,-0.299889,0.529004,0.793865
0.106539,-0.461369,0.779881,0.963544,0.108326,0.244641
0.135798,0.625139,-0.976805,-0.206720,0.150352,0.966779
-0.260053,-0.601142,0.389103,0.795628,-0.007059,0.605745
-0.081390,-0.326752,-0.251493,0.021916,-0.929575,0.367980
0.443719,-0.620873,-0.914783,-0.566402,0.548425,0.615158
0.868537,0.115314,0.444845,0.289290,0.405373,-0.867170
-0.064185,-0.174184,0.418662,0.885614,-0.462633,0.040715
0.205206,-0.301865,0.514459,0.971340,0.105875,-0.212812
-0.257114,-0.072290,-0.632725,0.950778,-0.303065,0.064605
0.181382,-0.551172,0.768660,0.493189,0.188812,-0.849184
-0.416956,0.249399,0.624937,0.650348,-0.747993,0.132491
-0.033598,0.242279,0.579691,0.306903,0.935311,0.176080
-0.208442,-0.114967,0.616089,-0.030334,0.933068,0.358419
0.895889,-0.152661,0.384274,0.854657,-0.415860,0.310840
0.098304,0.861118,0.420951,0.821461,0.552814,-0.139993
-0.492391,-0.544942,-0.979624,-0.069012,0.029321,0.997185
0.035954,-0.249583,0.331463,0.501048,-0.634666,-0.588346
-0.109918,-0.016807,-0.975409,0.090631,0.249576,0.964105
0.153447,-0.232869,0.232597,0.978948,-0.001161,-0.204104
-0.063158,-0.288884,-0.288980,0.371572,0.928178,-0.020511
0.094624,-0.256161,0.856501,0.138927,-0.981609,0.130933
-0.133150,0.282828,-0.699604,0.964431,-0.261722,-0.037071
0.058159,-0.106251,0.743762,-0.346499,0.888313,0.301394
-0.083742,-0.839606,0.611176,0.369873,-0.929010,-0.011638
-0.949708,-0.235528,0.515771,0.824694,0.514186,-0.235570
-0.088010,-0.910198,0.616731,-0.193265,-0.977859,-0.080256
0.015662,-0.433096,0.865684,0.994580,0.065679,0.080603
-0.623701,0.169549,0.461173,0.524801,-0.844976,-0.102954
0.086538,0.331550,-0.975353,-0.389584,-0.083504,0.917198
0.577825,-0.846541,0.465416,-0.274641,0.961519,0.007303
-0.110802,0.331908,0.536594,0.190967,0.706750,0.681202
0.549594,-0.472039,0.419946,-0.674706,0.394545,-0.623783
-0.647817,-0.297947,0.459806,0.915146,0.239914,-0.323957
-0.050803,-0.615544,0.241110,-0.441398,0.619170,0.649459
0.291080,0.202989,0.609027,-0.701719,-0.238601,0.671312
-0.486508,-0.405712,0.041199,0.163116,0.985920,-0.036803
0.340345,0.389877,-0.037933,-0.672285,0.628516,-0.391151
-0.196088,-0.032100,0.600402,0.359048,0.734144,-0.576296
0.263877,-0.343120,0.498325,0.893687,0.195039,-0.404084
0.123596,-0.467588,0.924692,-0.665131,-0.740311,-0.097678
-0.354754,-0.661422,0.719617,0.709903,0.243066,0.661027
-0.514887,0.591004,-0.542037,0.244111,-0.962098,-0.121564
0.456217,-0.369971,0.438899,0.803515,0.592962,0.052537
0.132562,0.929930,0.038017,0.472913,0.791393,-0.387363
-0.325051,-0.319111,0.601853,0.328298,0.703681,0.630122
-0.001104,-0.035660,0.415536,-0.526440,0.717260,-0.456507
-0.486064,-0.713346,0.592670,-0.764980,0.063394,-0.640927
0.777516,0.494082,0.479931,-0.631315,0.172970,0.755991
-0.034482,0.244949,0.601658,0.571933,0.573130,0.586869
-0.083890,-0.581758,-0.941300,0.120751,0.194573,0.973427
-0.266964,-0.518633,-0.970273,-0.311210,0.003048,0.950336
0.075804,-0.238556,0.911991,-0.710229,-0.233162,-0.664236
-0.019337,-0.572336,0.283900,-0.702742,-0.389540,-0.595325
0.922652,0.148754,0.418942,0.951098,0.308671,-0.011609
-0.041541,-0.176669,-0.004996,-0.563642,-0.544100,0.621500
0.537976,-0.018055,-0.945096,-0.304843,0.944864,-0.119595
0.358726,0.004358,0.199911,-0.361292,0.915606,0.176445
0.461513,0.833376,0.369536,0.190090,-0.677963,0.710093
-0.705904,-0.204769,0.601714,0.946305,-0.079947,0.313233
-0.273583,0.096819,0.536817,0.841394,0.531712,-0.096636
-0.240349,-0.433454,0.717803,0.681276,0.384433,0.622956
0.042865,-0.569482,0.736309,0.097237,0.821107,0.562431
0.574886,-0.616608,0.683554,0.426021,0.598672,-0.678306
0.162413,-0.081896,0.750991,-0.424479,0.283504,0.859909
0.085654,-0.321065,-0.952604,-0.005289,-0.135754,0.990728
0.284757,-0.204769,-0.921035,0.773982,0.453381,-0.442038
-0.020513,-0.073712,0.789845,-0.278040,-0.940440,0.195617
-0.253439,0.091490,-0.979847,-0.162294,0.196330,0.967014
-0.323139,-0.894199,0.562525,-0.427848,0.293990,-0.854702
-0.433716,-0.005074,-0.272065,0.645209,0.141633,-0.750763
0.000076,-0.601315,0.451655,0.852505,-0.507196,-0.126441
0.478570,0.798341,0.363479,-0.006642,-0.989836,0.142056
0.009190,-0.259536,0.415871,0.902285,0.391894,-0.179722
0.046101,0.067482,0.594875,0.862570,-0.038779,0.504450
-0.220204,-0.661955,-0.224139,0.848973,0.223574,0.478810
-0.335049,0.398951,0.017725,-0.451442,-0.885583,-0.109285
-0.228291,-0.817019,0.550913,-0.635021,-0.348448,-0.689443
0.043601,-0.269500,0.855942,-0.194955,0.137076,-0.971186
0.001840,-0.543173,0.332831,0.210945,-0.371300,0.904234
-0.597234,-0.171155,0.557249,-0.543448,-0.791978,0.278272
0.021984,-0.278562,0.951432,0.549047,0.625285,-0.554586
-0.474742,0.091306,0.687322,-0.099602,-0.951692,0.290450
0.141829,0.478974,0.377519,-0.321086,0.043064,0.946070
0.133886,-0.330139,0.771730,-0.007879,0.694315,0.719628
-0.019337,-0.567886,0.651259,0.667182,0.671105,0.323243
-0.037718,0.032273,0.585636,0.459115,-0.637424,-0.618792
0.196088,-0.232869,0.711662,0.646319,-0.263073,-0.716285
-0.497682,0.189824,0.551415,-0.530221,-0.841479,-0.103820
0.245792,-0.697879,0.646737,0.661067,0.100496,-0.743566
0.891186,-0.006843,0.389243,0.824088,-0.410929,0.389892
-0.267260,0.384722,-0.201474,0.826065,0.512907,0.233542
-0.312548,-0.449094,0.398175,0.865360,0.054663,0.498161
0.566795,-0.336358,0.512700,-0.665018,-0.042635,-0.745610
-0.176971,0.529118,0.423938,0.423792,0.905731,0.007114
-0.447538,-0.178091,0.605119,0.548828,-0.751606,0.365890
-0.315636,0.144130,0.488807,0.818778,-0.303347,0.487425
0.597090,0.338485,0.368922,0.495176,-0.868300,-0.029265
-0.217116,0.487147,0.419081,0.885036,-0.046452,0.463199
-0.143592,-0.414775,0.765813,0.966129,-0.254979,0.039749
0.095508,0.854714,0.411712,0.467320,0.841094,0.272349
0.018601,0.131681,0.605705,0.507933,-0.247320,-0.825129
-0.290492,-0.663203,0.565874,0.292333,0.866026,-0.405636
-0.567679,-0.231979,0.623262,-0.225366,0.806455,-0.546664
0.732372,-0.677964,-0.112293,0.952950,0.303114,-0.002972
0.205794,0.219877,0.578769,0.809871,-0.511237,-0.287656
0.241084,-0.774159,0.703037,-0.413334,-0.832265,0.369445
-0.067717,-0.076024,0.700218,0.045612,0.357882,0.932652
0.340048,-0.657689,0.662340,0.737845,0.251341,-0.626429
-0.384748,-0.171155,0.369201,-0.090463,-0.731518,0.675794
0.475922,-0.020182,0.612321,0.038906,-0.911237,0.410041
-0.920445,-0.217392,-0.526266,0.095627,-0.902950,0.418972
-0.803248,0.105893,-0.429604,0.157009,-0.979934,-0.122790
-0.190353,-0.069262,0.443226,-0.281376,-0.547760,0.787900
0.539887,-0.191961,-0.928097,-0.560233,0.707348,-0.431042
0.253586,0.882814,0.092977,-0.628675,-0.733468,-0.258441
-0.253439,-0.545832,-0.969575,0.350196,-0.008718,-0.936636
0.093597,-0.320349,0.931419,0.638793,0.762223,-0.104687
-0.520622,-0.248336,0.623123,-0.383960,0.817560,-0.429151
-0.441067,0.119047,0.590298,0.303640,0.133997,0.943317
-0.345047,0.072464,0.639926,0.596799,0.624806,0.503436
0.149179,-0.392732,-0.082119,0.328467,0.938440,0.106962
0.059922,-0.111938,0.810250,0.824844,0.543372,-0.156138
0.595766,0.274644,0.647826,-0.644878,0.073806,0.760713
-0.542387,-0.832486,-0.401636,-0.376456,0.923617,-0.072189
0.706932,0.273049,0.643974,-0.783714,0.023862,0.620663
-0.293140,-0.662486,0.725953,-0.420181,-0.768895,-0.481923
-0.363725,-0.111764,0.635349,-0.007923,-0.919337,0.393391
0.509300,-0.735216,0.722771,-0.605673,0.165213,0.778373
-0.214909,-0.383658,0.299643,-0.538555,0.829459,0.148178
0.450482,-0.807946,0.560068,-0.281190,0.959647,-0.003205
0.742666,0.290480,0.697482,0.492586,-0.832583,-0.253308
-0.125948,0.280516,0.333417,-0.298057,-0.157188,0.941517
0.068893,-0.261316,0.825294,-0.542468,0.105919,0.833372
-0.049188,0.836578,0.331575,-0.582046,0.733076,0.351883
0.542975,0.144130,0.635823,-0.702932,0.703712,0.103326
-0.167120,-0.164220,0.610925,0.435117,0.870937,-0.228347
-0.158298,-0.051484,0.697064,0.569203,0.305803,0.763212
-0.161386,0.346495,-0.980573,-0.032797,0.168453,0.985164
-0.671054,-0.306304,0.512952,0.367134,-0.928751,0.051325
0.045804,-0.419051,0.900854,0.309461,-0.543186,0.780502
-0.584296,0.258462,0.620248,-0.491333,0.783184,0.381071
0.129331,0.006138,0.572852,0.445408,0.528376,0.722793
0.676641,-0.597223,0.716658,0.260383,0.890659,0.372731
0.672817,-0.596692,0.703484,0.494972,0.457243,-0.738871
0.068745,0.413353,-0.974767,0.338669,-0.032400,-0.940347
0.179470,-0.472570,0.667225,0.289539,0.384739,-0.876438
0.451366,-0.609499,-0.936443,-0.101293,0.632654,0.767781
0.131094,-0.493908,0.821666,0.759606,0.649825,0.026940
0.192709,0.612516,-0.451516,0.921078,-0.346039,0.178529
-0.399163,-0.640975,0.568358,0.649580,0.583257,0.487705
-0.281670,-0.883346,0.736225,0.048610,-0.691531,0.720709
0.339021,0.132571,-0.418607,0.247573,-0.728587,0.638646
-0.045512,-0.802085,0.548150,0.159813,0.683034,-0.712688
0.043893,-0.144836,0.740049,0.696498,-0.556447,-0.453053
0.831775,-0.169202,-0.933010,-0.553378,0.686432,0.471789
0.350634,-0.232153,0.728242,0.895122,-0.031215,-0.444727
-0.261229,-0.247619,-0.970859,-0.078430,-0.570483,0.817556
0.561796,0.321065,0.460448,-0.561445,0.156738,0.812535
-0.284757,-0.342229,0.719785,-0.155969,0.374601,-0.913974
-0.228586,0.272691,0.743203,0.879787,-0.288658,-0.377693
-0.511652,0.082417,0.619075,0.204993,-0.864954,-0.458074
0.154475,-0.018402,0.744459,0.919539,-0.259636,-0.295022
0.517831,-0.044549,0.734578,0.670580,0.698740,-0.249168
0.767518,-0.667826,-0.931251,0.301720,-0.435757,-0.847986
-0.506356,0.534805,0.431028,-0.467697,0.882280,0.053310
0.697373,-0.661955,-0.923240,0.074682,0.768107,0.635952
-0.322107,0.031557,0.621699,-0.704417,0.577032,-0.413316
0.193297,0.698227,-0.976944,-0.099768,0.122409,0.987452
0.847953,0.495862,0.482024,0.327644,0.873661,-0.359675
0.330342,-0.515431,0.768520,0.415776,0.107196,0.903128
0.036982,0.547427,0.372523,-0.447052,-0.099628,0.888942
-0.787366,0.337954,-0.442835,0.910067,0.374166,0.178262
0.072420,-0.213832,0.771870,0.861587,-0.475499,0.177675
-0.239173,0.435940,-0.984592,-0.139305,0.010499,0.990194
0.656348,-0.766876,0.433177,0.196503,0.728325,0.656452
-0.357989,0.005063,0.669933,0.313845,-0.910632,-0.268794
0.094037,0.959093,0.472897,0.012309,-0.956535,0.291356
-0.552825,0.160129,0.533049,0.467150,0.661680,0.586473
-0.090361,-0.459947,0.041785,-0.064496,0.979924,-0.188650
-0.064921,-0.561668,0.760258,0.042643,0.692651,0.720012
-0.484157,0.049346,0.640289,-0.190594,0.658874,0.727708
0.842953,0.377960,0.323759,-0.486103,-0.619430,-0.616450
-0.064333,-0.079225,-0.031737,0.060340,-0.087093,-0.994371
-0.190940,0.173468,0.724027,0.967858,-0.073808,-0.240423
-0.922505,-0.158359,0.470329,0.448425,0.876060,-0.177293
-0.319020,-0.167064,0.657232,0.854206,0.147045,-0.498708
-0.260053,-0.197660,0.602049,0.053288,-0.995432,-0.079216
0.113889,-0.423490,0.832691,0.952365,0.111117,-0.283995
0.202855,-0.159423,0.723497,0.974058,0.005870,-0.226222
0.621938,0.294561,-0.259700,0.267920,-0.436055,0.859113
0.026100,-0.399667,0.444314,0.946535,0.045932,0.319314
-0.307989,-0.741446,0.669849,0.786006,0.585841,-0.197447
0.326666,0.134167,0.402752,0.192839,0.970011,0.147960
-0.934414,-0.051657,0.515464,0.938820,-0.342057,-0.040176
-0.142417,0.144836,0.515966,-0.526778,0.839158,-0.135344
0.671938,0.502440,0.466672,-0.726911,-0.172544,0.664702
0.341812,0.529823,0.446436,0.834356,-0.351796,-0.424370
0.170796,-0.054154,0.606543,0.381644,-0.764553,-0.519429
0.100068,-0.067667,0.744599,0.907238,-0.263009,-0.328247
-0.853980,0.094161,0.546810,-0.687152,0.725899,0.029878
-0.327402,-0.619104,-0.123653,0.238776,-0.723262,0.647980
0.207706,0.589225,0.383744,-0.374587,0.291672,0.880120
0.018013,-0.215080,0.622899,0.241075,0.598753,0.763791
0.188441,-0.841733,0.677050,-0.122311,-0.986874,-0.105446
-0.312400,-0.123324,0.598141,0.847375,0.361449,0.388987
-0.271375,-0.112481,-0.979791,-0.016067,0.195068,0.980658
-0.049924,0.112112,0.194189,0.580955,0.813903,-0.007276
-0.133446,0.066950,0.758723,0.698232,0.681823,-0.218150
0.238437,-0.838531,0.526740,0.041644,0.997138,0.063098
0.282258,0.406950,0.809859,0.432570,-0.802083,-0.411760
0.489304,-0.348090,-0.933093,0.226844,0.163592,0.960094
0.782076,0.179513,0.390889,-0.429071,0.903224,-0.009205
-0.103743,-0.259536,0.404399,0.428811,0.813324,-0.393223
-0.611056,0.262380,0.449869,0.846459,-0.528975,0.060764
-0.301078,-0.971021,0.523084,0.636193,-0.751124,0.176270
0.495182,-0.543878,-0.914280,0.701658,0.673836,-0.231560
0.069629,-0.078151,0.572098,-0.414787,0.361190,-0.835161
0.494742,0.028182,0.752080,0.360186,0.267725,-0.893638
0.480185,0.375648,-0.392899,-0.133327,0.964852,0.226460
-0.405926,-0.552062,-0.979149,-0.208284,0.013193,0.977980
0.235645,0.278563,0.788589,-0.590337,0.204251,0.780887
0.380485,-0.748740,0.627617,0.656919,-0.637682,-0.402267
0.243732,0.694494,0.380450,-0.423844,0.254385,-0.869278
-0.123448,-0.229483,0.024117,0.738148,0.655681,-0.158805
0.172856,-0.321782,-0.505583,0.940691,0.268720,-0.207101
-0.191824,-0.292433,0.585804,-0.008035,0.480434,0.876994
0.220204,-0.115140,-0.396723,0.421480,-0.204560,-0.883464
0.161089,-0.471507,-0.372634,0.700850,-0.122267,0.702752
-0.587971,-0.079757,0.646263,0.556359,0.611660,0.562438
0.106683,-0.182541,0.608971,0.321885,-0.435102,0.840878
0.010223,-0.414960,-0.190672,-0.000883,-0.995812,0.091417
0.043013,0.827330,0.374839,0.826187,0.413346,-0.382831
0.856479,0.376365,0.334003,0.655456,0.481517,0.581824
-0.166236,0.488037,-0.241891,0.922755,0.198212,0.330508
-0.196528,-0.011651,0.049015,0.896476,0.376753,-0.233212
-0.015217,-0.279094,0.512924,0.743272,-0.266598,-0.613574
0.521798,-0.413179,0.364540,0.006891,0.973360,0.229178
-0.167560,-0.005779,0.610255,0.420883,-0.081613,0.903436
-0.051248,-0.101986,-0.223162,-0.234721,-0.658581,0.714967
-0.030219,0.784828,0.408279,0.858016,-0.483434,0.173494
-0.041689,-0.317332,0.705354,0.745267,0.622545,-0.238778
-0.348135,0.544410,0.127254,0.328674,0.541005,-0.774136
0.723989,0.352715,0.466393,-0.200252,0.497762,-0.843879
0.135506,0.739482,0.388266,-0.044983,-0.695445,0.717170
-0.009042,-0.453186,0.888098,0.854272,0.213279,0.474058
0.439896,-0.019477,0.452018,0.394506,0.270782,0.878090
-0.169324,-0.472570,0.724837,-0.431531,0.544290,0.719395
0.091097,-0.376549,0.439625,-0.203175,-0.936064,-0.287235
-0.239613,-0.018228,0.706107,-0.350646,-0.574044,0.739947
-0.340784,-0.428114,0.701697,0.483787,0.521902,-0.702544
-0.044041,0.764380,0.299531,0.079591,0.848540,0.523110
0.123448,-0.394685,0.684168,-0.123210,0.724516,0.678156
0.508861,-0.102691,0.737146,0.290403,0.952937,-0.087043
0.137417,-0.384722,0.026015,-0.471857,0.877428,-0.086435
-0.171972,-0.242995,0.052253,-0.210052,0.666239,0.715544
0.773253,-0.394511,-0.928069,0.425346,0.157300,0.891256
-0.157710,0.552409,-0.306146,0.221428,0.899257,0.377234
-0.244468,-0.697879,0.740356,0.096021,0.988213,0.119223
-0.063598,-0.059310,-0.973343,-0.028822,0.197731,0.979832
0.084774,-0.210641,0.827779,0.876568,0.317472,0.361719
-0.061686,0.079400,0.595405,-0.334380,0.696372,-0.635025
0.626206,-0.187870,-0.931363,-0.071006,0.031839,0.996968
0.209766,-0.438078,0.694244,0.131964,0.617389,0.775511
0.152123,-0.380282,0.850583,0.477613,0.853456,0.208565
0.258438,0.662487,0.238821,0.539076,0.840432,-0.055422
0.414308,-0.528412,0.680232,0.766203,0.218942,-0.604150
-0.367400,0.199787,-0.516329,-0.674124,-0.571357,-0.468091
0.678113,0.349512,0.446798,0.442908,0.655145,-0.612060
-0.252846,-0.210282,0.403785,0.310741,0.927784,-0.206537
-0.232850,-0.910555,0.502010,-0.513647,0.853225,0.090410
-0.041833,0.131323,-0.972841,0.024565,-0.118398,0.992662
-0.449302,-0.371393,0.013510,-0.035382,-0.982798,0.181265
0.173295,-0.842449,0.646039,-0.601309,0.269861,0.752065
0.101095,-0.281232,0.888042,0.103467,0.274697,0.955948
0.077419,-0.339918,0.976665,0.507117,-0.859342,0.066062
0.574738,-0.316800,-0.939039,0.303983,0.625988,-0.718146
0.037866,-0.300617,0.917518,-0.191993,-0.797915,0.571376
-0.364900,0.105719,0.606124,0.727207,-0.261420,-0.634689
-0.380486,0.257225,0.511667,0.125445,-0.914968,0.383533
-0.271375,0.501908,-0.983420,-0.283123,0.001850,0.959082
0.677081,-0.826267,0.551332,0.938822,0.293618,-0.180006
0.206970,-0.422785,0.686540,0.646616,0.755354,-0.106436
0.005515,-0.202099,0.669793,-0.141669,-0.856952,-0.495543
0.062570,0.672982,-0.978200,-0.249629,0.199020,0.947669
-0.337697,-0.677432,0.532993,0.348774,0.780252,-0.519194
0.359461,-0.469901,-0.949227,0.374671,0.165457,-0.912275
0.335488,-0.563621,0.647267,-0.464536,0.871581,0.156696
0.228735,0.203694,0.572294,0.983011,-0.183507,0.003921
-0.232998,-0.503687,0.575448,0.792318,-0.096176,-0.602480
-0.183294,0.336000,0.517390,0.359543,-0.933119,0.004297
0.036394,-0.226107,0.742868,-0.613335,0.781262,-0.115973
-0.184178,-0.875520,0.552643,-0.036217,0.990036,0.136076
0.072420,-0.216144,0.840674,0.847546,0.507227,-0.156161
0.024188,0.089179,0.836599,0.192510,0.934659,-0.298921
-0.231378,-0.756912,0.751912,-0.029939,0.998423,0.047484
0.013602,0.390409,0.608943,-0.047862,0.609149,0.791610
0.181530,-0.330486,0.689862,0.525276,0.007539,-0.850899
-0.168736,0.224501,0.745715,-0.492267,0.852365,0.176485
-0.547826,-0.114250,0.362530,0.400768,0.873177,-0.277394
0.969121,0.380098,0.427901,-0.436647,0.718861,0.540905
-0.147564,0.526632,0.576285,0.671005,0.735233,0.095834
0.651201,-0.776297,0.560989,0.938822,0.293618,-0.180006
-0.005955,-0.397170,0.108217,0.158289,0.975834,0.150639
-0.003895,-0.627809,0.594066,0.846124,0.466364,-0.258029
-0.813834,-0.130617,0.539720,0.655528,0.668973,-0.350370
-0.528561,0.180403,0.569028,-0.457888,0.825210,0.330707
-0.021837,-0.813644,0.585999,0.560777,-0.716797,-0.414405
0.086834,0.351998,0.653492,-0.487703,0.868236,-0.091171
-0.030071,-0.624076,0.572880,0.798798,0.574358,0.178982
-0.155354,-0.460306,0.500586,0.324889,-0.166692,0.930946
-0.036685,-0.228419,0.955675,0.475551,0.738082,-0.478629
0.733404,0.055033,0.448669,0.476600,-0.847363,-0.234154
0.187265,-0.542283,0.000167,-0.284682,-0.958092,0.031879
0.100804,-0.633149,-0.378943,0.989321,0.049386,0.137131
-0.071536,-0.195522,0.702590,0.641751,0.763117,0.076217
0.847068,0.545116,0.333585,0.785280,0.492871,0.374719
-0.511360,-0.138085,-0.316111,0.369742,0.928995,0.016115
0.273435,-0.454434,0.787333,0.979053,-0.185278,-0.084425
0.216232,0.111407,0.460559,0.788615,0.109897,-0.604986
0.186529,-0.534989,-0.436275,-0.228528,-0.971674,0.060202
-0.415044,-0.463150,0.413806,0.961892,-0.096996,0.255648
0.162413,0.815945,0.413331,-0.528355,-0.846690,-0.062899
0.035954,-0.227887,0.834561,0.653795,0.327599,-0.682079
0.280934,0.689338,0.362418,0.828533,0.326999,0.454538
0.867070,-0.050594,0.428990,0.270283,-0.459441,0.846086
-0.010366,-0.364457,0.698152,0.745831,0.606840,-0.274737
-0.038894,-0.756023,0.609027,0.855213,-0.254248,-0.451630
-0.061098,0.056639,0.842572,0.745240,-0.261603,-0.613337
-0.774720,0.222721,-0.308100,0.984812,0.104332,0.138784
0.281521,-0.036191,-0.157986,0.867355,-0.255053,0.427369
0.369459,0.636166,0.010328,-0.768759,0.638512,0.036216
0.523566,0.199787,0.635377,-0.622200,0.574957,0.531311
-0.174032,-0.930114,0.562971,-0.065127,0.954952,-0.289527
0.079627,0.156926,0.756294,0.863274,0.059379,-0.501231
0.038894,0.933131,0.449701,-0.162098,0.934499,-0.316915
-0.644730,0.294214,0.405181,0.946466,-0.218696,-0.237434
-0.211821,0.415491,0.575001,0.190569,-0.810956,0.553203
0.896037,0.230015,0.417183,0.955389,0.207973,-0.209710
0.294612,-0.685962,0.727126,-0.040947,-0.693257,0.719526
-0.129914,0.602911,-0.987774,0.099633,-0.031992,-0.994510
0.214029,0.725611,-0.155976,-0.897404,0.352627,-0.265179
0.083302,-0.315378,0.831603,0.798930,0.547426,-0.249068
0.077864,0.402326,-0.971334,-0.150865,0.150928,0.976965
0.735755,-0.365348,0.416988,0.950786,-0.101279,-0.292829
0.079775,-0.328174,0.947273,-0.065789,0.987715,-0.141746
-0.765750,-0.375658,0.423966,-0.848190,0.056258,0.526696
-0.126827,-0.333514,-0.968235,-0.436595,0.167308,0.883964
0.049484,-0.206017,0.811171,0.984670,-0.062114,0.162996
-0.080067,0.555080,-0.985234,-0.041830,0.249402,0.967496
-0.236965,-0.645598,0.531346,-0.005175,-0.994001,0.109248
0.231822,-0.282296,0.713002,0.096752,0.374248,0.922267
-0.105655,-0.045439,0.704656,0.897429,0.335286,-0.286713
-0.240936,0.138790,0.580528,-0.265319,0.935428,-0.233625
0.380342,0.422416,-0.173338,0.981228,0.043353,0.187918
-0.264464,0.553658,0.572601,0.460744,0.879843,0.116579
-0.817954,0.002046,0.500279,0.428051,0.901522,-0.063482
-0.270787,-0.380988,-0.974488,-0.228052,0.044031,0.972653
-0.253730,-0.749272,0.556579,0.943925,0.060869,-0.324501
-0.081243,0.659816,-0.987356,0.065812,-0.147228,-0.986911
-0.251966,-0.509386,0.719198,-0.708008,0.136846,-0.692819
0.274611,-0.250821,0.538910,-0.306859,-0.513570,-0.801301
0.241084,-0.430958,0.562329,0.629793,0.703997,0.328252
-0.168000,-0.009513,0.608636,0.420883,-0.081613,0.903436
0.226378,-0.224859,0.465193,0.893622,0.437286,-0.101101
-0.543855,-0.281059,0.508625,-0.544600,-0.805028,0.235248
-0.309461,-0.710676,0.791604,-0.321635,-0.926511,-0.195266
0.200647,-0.544769,0.813683,-0.539245,0.726837,0.425350
-0.146532,0.064996,0.315441,-0.137690,-0.267575,0.953648
-0.158298,-0.137021,-0.650310,0.491176,0.276025,0.826170
-0.627821,-0.627104,0.596913,-0.473556,0.793987,0.381220
0.225351,0.293855,0.775135,0.725689,0.318933,-0.609637
0.248440,0.351824,0.789985,-0.235663,-0.690512,0.683854
-0.047276,0.015385,0.757718,0.220368,0.793025,0.567935
-0.307401,-0.546375,0.683470,0.576572,0.816745,-0.022195
-0.032275,0.328174,0.617987,0.230794,0.775540,0.587599
0.161386,-0.300085,-0.407944,0.481763,-0.108703,-0.869533
0.641790,-0.358944,-0.899124,-0.739642,0.620804,-0.259870
0.069921,0.767940,0.388740,0.385763,0.805413,-0.449997
-0.858831,0.135415,-0.357617,0.855124,-0.491947,-0.163554
-0.116681,0.062858,0.369034,0.691160,0.592412,0.413941
-0.642818,-0.499954,-0.598671,-0.085019,-0.897989,0.431726
0.881627,0.193384,0.436136,0.682904,-0.469097,-0.559991
-0.207410,-0.300259,-0.431056,-0.463289,-0.446936,0.765253
-0.004927,0.099316,0.334031,-0.407701,0.104739,-0.907088
-0.775160,0.124919,-0.401329,-0.093194,-0.995367,0.023656
0.038894,-0.377971,0.878356,-0.741260,-0.508081,0.438620
0.292700,-0.735759,0.647435,0.907805,0.279821,-0.312393
-0.327254,-0.849027,-0.979289,-0.084099,-0.074243,0.993688
0.611500,0.094692,0.427706,0.513385,0.770257,-0.378338
-0.327106,0.205301,0.519762,0.656990,0.503064,-0.561507
0.201971,0.756196,0.387903,0.714076,-0.627047,0.311300
-0.155942,-0.705347,0.766203,0.575804,0.809874,0.112042
-0.286229,-0.862192,0.558365,-0.532288,0.502711,-0.681140
-0.024776,-0.904869,0.605091,-0.371897,0.902928,0.215440
0.367400,-0.030504,0.013035,-0.641907,0.638123,0.425152
-0.346075,-0.748023,0.790152,0.373680,0.924432,0.076080
0.205942,0.106610,0.553844,0.696728,0.573035,-0.431511
0.098008,0.344889,-0.544186,0.214041,0.868094,0.447883
-0.188737,-0.744995,0.792162,-0.314006,0.905010,0.286978
0.455777,-0.697348,0.683358,0.890770,-0.424603,-0.161988
-0.039334,-0.766691,0.675487,0.808046,-0.589115,-0.002255
0.054923,-0.245850,0.942751,0.513747,-0.856312,0.052856
0.053599,-0.315910,0.810864,0.697976,0.552688,0.455374
-0.077271,-0.639553,0.605203,0.990031,-0.139988,0.015579
0.325930,0.155679,0.605482,0.754922,0.352108,-0.553275
-0.441951,0.145552,0.524368,0.479923,-0.522047,0.705082
0.006987,-0.119058,0.914504,0.751013,-0.578502,-0.318301
-0.652377,-0.060015,0.356082,-0.628613,-0.680694,0.376166
0.036838,-0.209925,0.092838,0.670303,-0.704622,0.232811
0.336812,-0.791058,0.650561,-0.205104,-0.344024,0.916286
-0.038010,0.047566,0.502177,-0.106546,0.986720,0.122600
0.020808,-0.302212,0.162089,0.938915,-0.096827,-0.330249
0.082274,-0.568603,-0.688466,0.967203,0.254002,-0.001095
-0.018749,-0.597408,0.430469,0.835389,-0.522622,0.170267
-0.080215,-0.239446,-0.108664,-0.291403,-0.900411,0.323022
-0.120652,0.725252,0.329314,-0.464382,-0.101142,-0.879841
-0.178883,-0.685605,0.779378,0.090227,0.840340,0.534498
0.030807,-0.388640,0.972506,-0.882801,0.314628,0.348814
0.281521,0.846889,0.381762,-0.439020,-0.506869,-0.741852
0.301670,0.383126,0.004717,-0.313847,0.843476,-0.435945
-0.294464,-0.115325,0.617038,0.529910,0.393330,0.751323
-0.221528,-0.283903,0.429102,-0.274578,0.949426,0.152305
-0.038454,-0.348807,-0.118238,0.025301,-0.989375,0.143171
-0.539151,-0.784654,0.614777,0.489422,0.839824,0.234866
-0.794722,0.216144,0.593731,-0.209039,-0.942057,0.262356
-0.152707,-0.494983,-0.657344,-0.537679,-0.828011,0.159053
-0.152119,-0.092022,0.699185,0.838443,0.313300,-0.445933
0.280934,0.659643,0.218417,0.395482,0.877228,0.272149
-0.104479,0.463139,-0.701837,0.950662,0.112933,-0.288942
-0.306814,0.787856,-0.029867,0.291321,0.935548,-0.199704
0.074188,-0.371740,0.782839,0.554372,0.664187,0.501525
-0.177559,0.060547,0.495422,-0.838469,-0.212271,0.501907
-0.063158,0.389704,0.595657,0.900372,0.014226,-0.434888
-0.327550,0.233390,0.433735,0.668581,0.103463,-0.736407
-0.338576,0.210988,-0.639843,-0.215521,-0.091116,0.972239
0.570326,0.146258,0.516050,-0.107066,-0.973527,0.201944
0.068453,0.416370,-0.974292,0.338669,-0.032400,-0.940347
0.748549,0.310570,0.433400,0.845297,0.231647,0.481469
-0.610320,0.103050,0.575783,0.269018,-0.624782,0.732991
0.457980,-0.719391,-0.914168,0.043329,0.772472,0.633569
-0.106978,-0.152846,0.803550,0.653157,-0.128151,0.746299
-0.205206,0.290654,0.732708,0.655269,0.447367,-0.608675
0.340488,0.556859,-0.974851,0.017023,0.044087,0.998883
-0.012278,-0.060731,0.204879,0.794501,0.597001,0.111169
-0.502538,0.339560,0.588846,-0.298199,0.737053,0.606490
0.676349,-0.648616,-0.933010,-0.462244,-0.025433,0.886388
0.440924,-0.475067,0.693128,0.424691,0.229839,-0.875678
0.083011,0.482176,-0.973399,0.302087,-0.223853,-0.926625
0.126683,-0.558465,-0.677050,0.000113,-0.985886,0.167420
0.987354,0.319286,0.429158,0.450188,-0.647274,-0.615115
0.091245,-0.571620,-0.678474,0.000113,-0.985886,0.167420
-0.905739,-0.189292,0.291101,-0.712792,0.701362,0.004438
0.761339,-0.384722,-0.932870,0.537251,0.121112,0.834681
-0.121092,0.504219,0.597862,0.468358,0.876388,-0.112180
0.324167,0.439141,0.055183,0.359216,0.932999,-0.021814
-0.209761,-0.442875,-0.525791,-0.107707,-0.866847,0.486801
-0.647082,-0.336000,0.472394,-0.651615,0.508462,-0.562908
0.883683,0.343825,0.330430,-0.780078,-0.125773,-0.612910
0.368724,-0.714410,0.671077,0.866119,-0.189650,-0.462462
-0.118301,0.438425,0.348713,-0.144528,0.689725,0.709501
0.051984,-0.619452,0.660582,0.498189,0.164704,0.851281
0.025368,0.516495,-0.979875,0.244857,-0.079093,-0.966328
0.482981,-0.402152,0.729833,0.505282,0.744321,-0.436666
0.105654,-0.519870,-0.809970,0.976717,-0.012065,0.214192
0.124327,-0.624433,0.683358,-0.109128,0.980475,0.163582
0.158298,-0.294214,0.775080,0.275279,0.594015,0.755889
-0.312845,0.033521,0.667309,0.932231,0.361709,-0.010556
0.013454,0.129901,0.650421,0.833415,-0.444312,0.328644
0.436660,-0.780747,0.692235,0.870810,0.137818,-0.471907
-0.022128,-0.097894,-0.589349,0.985087,-0.146702,-0.089905
-0.140209,-0.197302,0.753810,-0.587166,-0.783244,0.204363
-0.024188,-0.721888,0.615000,0.722556,0.482101,0.495470
-0.429014,-0.197833,0.616368,-0.145660,0.679116,-0.719434
-0.192264,-0.657331,0.674622,-0.843117,0.243802,0.479286
0.041541,0.447314,-0.978172,0.288642,-0.215763,-0.932809
-0.039629,-0.230372,0.740635,-0.451131,-0.445024,-0.773586
0.589735,0.404465,0.456512,0.679789,-0.518107,-0.519088
0.095212,-0.522008,0.797968,0.809177,-0.131609,-0.572636
0.188001,-0.636351,0.720092,0.502280,0.813742,-0.292469
-0.133886,0.742684,0.331463,0.234390,0.377469,0.895868
0.778544,-0.111764,0.452521,0.913517,0.267174,0.306766
-0.346663,0.114077,0.643164,0.956960,0.251528,0.144781
0.358577,-0.500312,0.708201,0.649781,0.251303,-0.717378
-0.128447,-0.079400,0.137582,-0.256895,-0.964739,0.057306
-0.062125,-0.633855,0.612014,-0.531351,0.626946,0.569741
-0.267552,0.082069,0.696226,0.748546,-0.654708,0.105055
-0.051248,0.202099,0.588009,0.441258,0.756532,0.482650
0.333285,0.554547,-0.185061,0.706557,0.668426,0.232343
0.031103,-0.506889,-0.465500,0.638443,0.752944,-0.159583
-0.763398,-0.484314,0.595740,0.706796,-0.315051,0.633389
0.377546,-0.027118,-0.167225,-0.006617,-0.200418,0.979688
0.377546,0.172046,-0.430414,-0.312816,0.899103,-0.306204
0.207410,-0.713704,0.738626,0.410537,0.911131,0.036062
-0.077567,0.122075,-0.707363,0.862302,-0.180257,-0.473226
0.713111,-0.666936,0.714509,0.792069,-0.395028,-0.465381
0.045952,-0.254022,0.826662,-0.504634,0.715902,0.482523
-0.107858,-0.032816,0.597080,0.768794,0.205768,0.605488
0.153739,-0.777013,0.554625,-0.602109,-0.793987,-0.083966
-0.434013,0.177201,0.567437,0.489561,0.751272,-0.442628
0.456069,0.277141,0.543655,0.283307,0.888232,-0.361637
-0.862950,-0.155157,0.483727,0.543650,0.442125,-0.713421
-0.000368,0.446956,0.610339,0.070217,0.863343,0.499708
0.348431,-0.021962,-0.959917,0.239552,-0.262630,-0.934687
0.028604,0.991284,-0.243399,0.659550,0.223262,-0.717738
-0.202263,-0.702145,0.460727,-0.051675,0.735999,0.675008
0.004340,-0.211878,0.659968,0.971084,0.238350,-0.013607
0.034334,0.420289,0.635181,0.239577,-0.970785,0.013402
0.190940,-0.431142,0.955786,-0.425850,0.540359,0.725716
0.509152,-0.384547,0.733211,0.397778,0.895493,-0.199663
0.774133,0.389704,0.458271,0.977085,-0.163430,0.136365
0.052571,0.424022,0.100458,0.971002,-0.211958,-0.110587
-0.127859,-0.714410,0.762128,0.252175,0.700619,0.667488
-0.160062,-0.773279,0.674873,0.390067,0.885120,-0.253791
-0.102567,0.373521,-0.984034,0.268643,-0.197022,-0.942875
0.028011,-0.214190,0.779350,-0.251129,0.380252,-0.890136
0.332110,-0.464040,0.569000,0.527730,0.135910,0.838469
-0.079039,-0.153019,0.704991,-0.311283,0.931145,0.189925
0.141241,0.711740,0.386870,0.107176,-0.543946,0.832248
-0.311373,0.871960,-0.284877,-0.060946,-0.453163,0.889342
-0.247259,-0.690760,0.746385,0.201263,-0.930147,-0.307115
0.597382,0.458700,0.070787,0.843648,-0.368184,-0.390766
-0.196088,0.263270,0.550438,-0.283289,-0.873865,-0.395105
0.610616,-0.690760,0.695528,-0.465942,0.694108,0.548737
-0.160353,-0.442169,0.018422,0.048465,-0.992117,0.115567
-0.132710,-0.297415,0.204098,0.771425,0.389838,0.502922
0.922356,0.230904,0.432786,-0.490751,0.197873,0.848534
-0.083742,-0.687384,0.345699,0.690013,-0.436918,0.577048
0.125064,0.913573,0.410512,0.468733,0.543030,0.696712
0.424015,0.124746,-0.506308,0.345819,-0.871889,-0.346726
-0.023748,0.110875,0.317898,-0.087311,-0.334556,0.938323
-0.943825,-0.247087,0.403031,0.970181,0.213876,0.114045
-0.147564,-0.192678,0.657093,-0.197312,0.897913,0.393473
0.329022,0.138258,0.496008,0.714849,0.382329,-0.585505
0.589444,-0.710861,0.502233,0.892830,0.145041,-0.426400
0.591355,-0.690586,0.439234,-0.670864,0.222349,0.707462
0.026984,-0.308974,0.769692,-0.299796,-0.913637,0.274571
-0.293432,-0.937049,0.486128,-0.360231,0.926387,0.109734
0.106539,-0.319643,0.941634,-0.323512,0.834741,0.445586
0.107418,-0.331734,0.991822,0.018576,-0.986116,0.165018
0.232410,-0.280874,-0.949813,-0.486683,-0.113235,0.866209
0.097124,-0.219172,0.812008,0.814725,-0.576816,-0.059219
0.272556,0.821285,0.372076,0.042329,0.162384,0.985819
-0.080506,-0.275014,-0.439792,0.249324,0.802542,-0.541999
-0.171532,0.513109,-0.280215,0.107890,0.977695,0.180202
0.254466,-0.393621,0.763217,-0.566428,-0.699624,0.435529
-0.642818,-0.021256,0.584296,0.982977,-0.115959,0.142513
0.712519,0.096472,0.199855,0.089499,-0.979086,0.182705
0.160797,-0.384374,0.774940,0.882819,0.074145,0.463825
0.326374,-0.498532,0.822224,0.548872,0.806055,-0.221393
-0.050216,0.208145,0.768129,-0.287526,-0.583113,0.759808
-0.811631,0.139322,0.488947,0.837598,-0.319971,0.442774
-0.290788,-0.313240,0.605622,-0.358526,-0.861384,-0.359830
0.213589,-0.502624,0.821275,-0.352898,-0.562886,-0.747411
-0.919269,-0.132745,0.437755,0.978834,0.003063,-0.204633
0.638555,-0.237492,-0.185591,-0.126528,0.028411,-0.991556
0.714287,-0.247087,0.436638,0.759488,-0.552578,0.343270
-0.477685,0.783233,-0.136270,0.996794,0.043594,-0.067096
-0.618850,-0.542457,0.590967,0.876753,0.173657,-0.448494
-0.317844,0.875163,-0.278848,-0.044402,-0.297808,0.953593
-0.209173,-0.382236,0.684196,0.870646,0.343217,0.352388
-0.048892,-0.077272,0.544884,-0.398627,0.892855,-0.209539
-0.095361,-0.064996,0.827137,-0.908486,0.391589,0.145983
0.391955,0.269847,0.570926,0.272406,0.710737,0.648574
0.179327,-0.788920,0.614330,-0.223875,0.944686,-0.239683
0.639439,-0.566997,0.713923,-0.117753,0.735688,0.667006
-0.021688,-0.161908,0.137861,-0.075926,-0.996513,-0.034594
0.116537,-0.444297,0.789538,0.535382,0.628777,0.563920
-0.272407,0.066234,0.603724,0.755966,-0.631655,-0.171834
0.139477,-0.178622,0.941439,0.690887,0.675318,-0.258109
0.483712,0.092380,0.639061,-0.718377,-0.000621,0.695654
-0.544002,0.082417,0.494641,-0.144263,-0.698783,0.700636
0.167120,-0.406602,-0.193574,0.018184,0.967799,0.251066
0.211529,0.565575,0.388433,0.440413,-0.199014,-0.875460
-0.074480,-0.391657,-0.554402,0.743574,-0.384707,-0.546898
-0.518271,-0.791416,-0.977781,-0.110966,-0.107179,0.988028
-0.278286,0.395749,-0.986434,0.259632,-0.074777,-0.962808
-0.119036,-0.580693,0.581003,0.295101,0.944460,0.144609
0.083011,-0.527696,0.009853,-0.285452,-0.957801,-0.033692
0.101244,0.907170,0.441411,0.227024,-0.798352,0.557759
0.429014,-0.097004,-0.919863,-0.096612,0.943706,0.316361
0.105946,-0.101269,0.763942,-0.267347,0.658393,0.703594
0.366076,-0.533393,0.680651,-0.067352,-0.191018,0.979273
-0.074040,-0.441985,0.680400,-0.710083,0.671665,-0.211303
0.535916,-0.491065,0.522247,0.951701,-0.142079,-0.272173
0.237118,-0.577308,0.915704,-0.580836,-0.805943,0.114396
-0.329605,-0.572336,0.718082,0.888806,-0.368919,0.271886
0.967061,0.097536,0.378105,0.998872,-0.022296,-0.041927
0.140653,-0.454076,-0.214286,0.301634,0.886544,-0.350794
0.380194,-0.012183,0.599257,0.121464,0.746722,-0.653951
0.720314,-0.435940,0.396946,0.969750,-0.036025,-0.241425
0.345783,-0.075307,0.593926,-0.128446,-0.580724,0.803904
-0.817805,-0.205659,0.635405,0.967136,-0.122661,-0.222714
-0.319316,-0.748382,0.737481,0.655329,0.179726,0.733650
-0.058302,-0.011120,-0.618210,0.795080,-0.475300,-0.376746
0.305934,-0.363926,0.476665,0.303781,0.880442,0.364059
0.120212,-0.177385,0.889996,0.253522,-0.679041,0.688934
-0.405629,0.519870,0.486407,0.289288,0.295643,-0.910444
-0.275346,0.509907,0.595433,-0.045810,-0.993554,0.103695
0.522682,0.647009,-0.247725,-0.513512,0.512099,-0.688520
-0.206086,-0.744648,0.779964,0.259261,0.940903,0.217912
0.002280,-0.414775,-0.751465,0.892857,0.445115,-0.068399
0.608116,0.417445,0.449617,-0.596091,0.570258,0.565227
0.185206,0.200135,0.573745,0.260748,0.396130,0.880393
-0.074040,-0.806177,0.593256,-0.175687,0.787343,0.590952
-0.072860,-0.772737,0.635991,0.097876,0.365319,0.925722
-0.823541,-0.032816,0.500112,0.340427,0.940252,0.006017
0.009042,-0.393969,0.520237,0.861549,0.319580,-0.394463
0.010515,-0.220767,0.689946,-0.171103,-0.969740,0.174150
0.807516,-0.438078,-0.919025,0.149078,0.441099,0.884990
0.069481,0.612343,0.371155,0.286917,0.081430,-0.954488
0.065366,0.559171,0.372886,-0.041150,0.379255,0.924377
0.025368,-0.557934,-0.847373,-0.053705,-0.997782,0.039326
-0.173587,0.528944,0.592196,-0.312578,-0.843396,0.437010
0.587384,-0.825735,0.448445,0.228851,-0.944383,-0.236153
0.121240,-0.334762,0.603975,-0.166028,0.303685,0.938195
0.901184,0.072106,0.480991,-0.908347,0.026661,-0.417366
-0.191529,0.325146,0.000447,0.893210,0.414895,-0.173314
-0.038745,0.581041,-0.319405,-0.618489,-0.664261,-0.419795
-0.208734,0.011825,0.756657,0.871720,-0.422364,-0.248421
0.502977,-0.650927,-0.903478,-0.223906,0.489970,0.842493
-0.156826,0.019466,-0.973343,0.023639,0.106657,0.994015
0.915742,0.394327,0.321415,0.808959,0.135297,0.572084
-0.008015,0.545658,-0.517529,0.813956,0.180698,-0.552108
0.138297,-0.377796,0.835538,0.775346,0.588058,-0.230273
0.877360,0.265050,0.429604,-0.421816,0.905381,-0.048547
-0.341960,-0.609857,0.730140,0.950600,0.216581,0.222376
0.305494,-0.401447,0.615586,-0.044765,-0.017900,0.998837
0.037718,-0.135057,0.202311,0.813046,0.578542,0.065151
-0.677965,0.291186,-0.341009,0.843045,0.177803,0.507603
-0.282554,-0.205301,0.645006,0.972658,-0.140854,-0.184653
0.001252,0.095582,-0.969771,0.081424,0.107900,0.990822
-0.098008,0.225391,0.719338,-0.139982,-0.742485,0.655073
0.010223,-0.005779,-0.973706,-0.180866,0.567488,0.803271
-0.511360,0.161551,0.692374,-0.611932,0.621736,-0.488860
0.720314,0.394327,-0.508820,0.612184,-0.673973,0.413511
0.131831,0.819863,0.413610,0.638064,0.769491,0.027526
-0.200939,0.041521,0.708424,0.270878,0.239425,-0.932363
-0.961470,-0.067308,-0.425166,0.382844,-0.794477,0.471420
-0.167412,-0.262738,0.810305,0.199143,0.875274,-0.440725
0.364312,-0.761005,0.438759,-0.094609,0.836698,0.539431
-0.004779,-0.439500,0.472004,0.962056,0.192026,0.193843
0.202855,-0.541751,0.856194,0.123627,-0.331405,0.935354
-0.050364,-0.038861,0.819572,-0.382209,-0.919133,-0.095451
-0.108594,-0.016090,0.840591,-0.573041,0.803653,-0.160517
0.744870,-0.032457,0.772707,0.617825,0.412881,-0.669195
0.609440,-0.693788,0.716128,-0.309016,0.792877,0.525219
0.269612,-0.476304,-0.183638,-0.566812,0.782106,0.258910
0.632380,-0.840669,0.445570,-0.084457,0.958232,0.273239
0.186677,-0.519338,0.730140,0.479564,0.518057,0.708263
-0.216084,0.261664,0.626361,0.097673,-0.442506,0.891431
0.186825,-0.432922,0.041757,0.968034,0.242114,0.065503
0.085950,-0.570915,-0.664099,0.254172,0.936693,-0.240839
0.075804,-0.109985,0.694803,0.244024,0.797185,0.552221
0.038305,-0.262738,0.877380,-0.547789,0.772188,-0.321952
0.616203,-0.517026,0.499888,0.933432,0.323196,0.155724
-0.192413,-0.022678,-0.650087,-0.649644,-0.367084,-0.665742
0.105803,0.328000,0.385307,-0.384395,0.647074,-0.658434
-0.261377,0.063749,0.703148,0.816410,-0.273947,-0.508358
0.090949,-0.159065,0.781583,-0.608755,-0.305472,0.732192
0.651497,-0.458526,0.000698,0.431962,-0.191287,0.881373
0.152123,-0.552952,0.637693,0.872329,0.488330,0.024010
0.107127,0.019293,0.692458,-0.236808,0.327761,0.914601
-0.416072,-0.021256,0.635963,0.662556,0.438500,0.607237
0.617674,0.360008,0.458438,-0.476970,0.452634,0.753407
0.769282,-0.213300,-0.919835,0.228726,-0.593704,0.771492
0.097712,-0.122965,0.690811,0.841448,0.293020,-0.453986
0.113889,-0.250474,-0.649668,0.861555,0.484566,0.151391
0.185062,-0.483597,0.166471,0.455129,0.613002,0.645822
