0.156231,0.233431,0.521895,0.318549,0.577811,0.751439
0.144392,0.251685,0.556528,-0.571374,-0.528908,0.627526
0.217245,0.438162,0.609294,-0.416580,0.073114,0.906154
0.035560,0.119625,0.610353,0.293366,0.572584,-0.765561
0.109479,0.307816,0.662908,0.390775,0.860010,-0.328143
-0.041851,0.049718,0.671687,0.349919,0.269574,-0.897155
0.081701,0.337263,0.733656,0.799141,-0.134347,0.585939
-0.062191,0.092585,0.742466,0.142003,-0.836167,-0.529773
-0.073419,0.111533,0.776705,0.453960,-0.043056,0.889981
-0.115918,0.070547,0.806433,-0.099305,-0.788911,0.606430
-0.139450,0.063317,0.838220,-0.572257,0.761490,-0.304391
-0.182250,0.020103,0.867767,0.527054,0.658640,-0.537036
-0.219436,-0.011930,0.898585,0.796988,-0.012422,0.603867
0.147880,0.367908,0.289972,0.334058,0.890782,0.308078
-0.005271,0.104986,0.297570,0.837811,0.330628,-0.434462
0.183853,0.560417,0.413729,-0.407871,0.858139,-0.311830
0.083067,0.398899,0.430228,-0.608375,0.323232,0.724846
0.179758,0.629285,0.486657,0.773928,-0.537546,-0.334784
-0.113797,0.089317,0.466344,-0.111922,-0.239136,0.964514
0.010061,0.373079,0.527919,-0.467307,-0.393752,0.791570
0.070621,0.531832,0.578143,0.748311,-0.562652,0.351360
-0.045038,0.344493,0.593491,-0.372998,-0.109209,0.921383
-0.053232,0.367739,0.630122,0.256209,-0.588309,0.766974
-0.090877,0.332439,0.659275,-0.311922,0.012881,0.950020
-0.262849,0.031631,0.662423,0.996687,0.080200,0.013496
-0.205776,0.182818,0.711284,0.985913,-0.167255,0.001005
-0.256169,0.122547,0.738076,-0.600731,0.793397,-0.098201
-0.293509,0.087940,0.768894,0.176517,0.819923,0.544581
-0.270436,0.173864,0.810944,0.994946,0.054118,0.084585
-0.450453,-0.139177,0.814758,-0.614574,0.782923,-0.096594
-0.301554,0.189869,0.878726,-0.206644,0.537737,-0.817397
-0.140056,0.052986,0.077363,0.155711,-0.985893,-0.061398
0.011580,0.575740,0.339741,0.101855,-0.746200,0.657883
0.037687,0.662179,0.381972,0.535030,-0.842323,-0.065074
-0.073571,0.482070,0.398047,0.141645,0.779535,0.610133
-0.151891,0.365333,0.419208,0.260278,-0.194950,0.945648
-0.194090,0.391669,0.525558,-0.837403,0.503066,0.213732
-0.331908,0.158531,0.535185,0.748078,-0.631481,0.203989
-0.153864,0.541301,0.606357,-0.575697,0.109626,0.810281
-0.209422,0.470363,0.633391,0.362610,-0.723945,0.586872
-0.464419,0.008563,0.620677,0.241247,0.108559,0.964373
-0.459866,0.053848,0.659547,0.865317,0.410634,-0.287412
-0.278635,0.443154,0.731749,0.951398,0.071959,0.299440
-0.356500,0.327100,0.754575,-0.053483,-0.715118,0.696954
-0.402487,0.273555,0.782033,0.666575,0.242764,-0.704800
-0.134590,0.002363,-0.546931,0.884907,0.445307,-0.136537
-0.176483,0.062970,-0.394717,-0.529840,-0.792018,0.303279
-0.212303,0.551285,0.220768,-0.638105,0.357638,-0.681848
-0.312482,0.388569,0.237418,-0.318381,-0.794421,-0.517232
-0.313848,0.487577,0.351154,0.509600,0.801283,0.313454
-0.447113,0.497393,0.624642,0.558270,0.821464,-0.116326
-0.430419,-0.267275,-0.921502,0.961724,0.263626,-0.074752
-0.457739,0.305924,-0.164641,0.488654,0.834286,0.255313
-0.541071,0.492054,0.239930,0.404103,-0.890534,-0.208926
-0.524372,0.097756,-0.962128,-0.108062,0.114771,0.987497
-0.704542,-0.221822,-0.963067,0.229978,-0.093180,-0.968725
-0.867559,-0.505583,-0.959494,-0.590135,0.207689,0.780132
0.191942,0.693242,-0.957048,-0.239151,0.113517,0.964324
-0.393936,-0.298275,0.520401,0.927977,0.149154,-0.341485
-0.091080,-0.418656,0.569165,0.611856,0.469482,0.636569
0.365887,0.027875,0.586385,-0.408752,-0.138959,0.902005
0.157467,0.465247,0.516446,0.197981,0.941242,0.273620
0.030414,-0.614314,0.516644,0.602147,0.679493,0.419175
-0.192713,0.201657,-0.477919,0.287930,0.779682,0.556050
0.141785,-0.408976,0.587778,0.999395,0.032982,0.011015
0.697718,-0.230947,0.178020,-0.274326,0.279013,-0.920270
0.311683,-0.148914,0.460179,0.762677,-0.174425,0.622815
0.055770,-0.298034,0.550618,0.565355,-0.342137,-0.750543
-0.941955,-0.561209,-0.979597,-0.535345,0.034149,0.843943
0.050811,-0.354191,0.661340,0.590250,0.609084,-0.529738
-0.193679,0.076239,0.939007,-0.137775,-0.970320,0.198740
0.015232,0.097125,-0.925937,-0.274111,0.377356,0.884571
-0.189260,0.378697,0.764146,0.462839,0.319180,-0.826985
-0.115674,0.283455,-0.646343,0.448618,0.878822,0.162522
-0.309499,-0.163984,0.725187,0.110917,0.955246,0.274231
-0.773414,0.285285,0.513328,0.395257,0.791097,-0.466837
0.417154,-0.501257,0.310739,0.884245,0.450659,0.122546
0.017638,0.668212,0.552219,0.974256,0.215226,0.067104
0.629269,0.730993,0.559501,0.990736,0.134865,0.015950
-0.388864,-0.403256,-0.906263,0.811461,0.583620,-0.030317
0.422919,-0.706118,0.616508,0.857808,0.179868,0.481470
0.145425,-0.458925,0.018794,0.917196,0.219536,-0.332499
0.059244,0.385747,0.741090,-0.693362,0.631401,0.347249
0.063542,-0.400448,0.644369,-0.399205,0.840646,-0.365991
-0.219235,-0.045095,0.772802,-0.673161,-0.000831,-0.739495
0.546141,-0.725719,0.055637,0.300998,0.496059,-0.814448
-0.288616,0.391898,0.589774,-0.287970,-0.787175,-0.545369
0.561278,0.345762,0.659184,0.960193,-0.177224,0.215919
0.600756,0.221999,0.180142,0.132528,-0.001957,0.991177
0.162873,0.575384,-0.957019,-0.125912,0.155643,0.979756
-0.090378,0.155732,0.864102,-0.316398,0.491417,0.811420
-0.893245,-0.378197,-0.184655,0.893966,-0.325967,-0.307524
-0.667171,-0.138844,-0.299580,-0.490539,0.834661,-0.250424
0.068306,-0.204102,-0.243224,0.937548,0.310087,0.157641
-0.680856,-0.542175,-0.951082,0.132337,-0.281923,-0.950267
0.558536,0.043566,0.478164,-0.604105,-0.053879,0.795081
-0.515332,0.196941,0.381800,-0.291537,0.956021,-0.032077
0.889639,0.358285,0.220131,0.973602,0.126861,-0.189750
0.547567,-0.902628,0.285837,0.021335,0.974677,0.222597
-0.114467,0.306135,0.632473,0.925942,0.356552,0.124510
0.360013,0.108439,0.305159,0.771852,0.248349,-0.585293
-0.054099,-0.327879,-0.933102,-0.194737,0.043282,0.979900
-0.429622,0.268029,-0.135010,-0.149468,-0.945234,-0.290159
-0.800130,0.456965,-0.987099,-0.294010,0.267970,0.917469
-0.455109,-0.302904,0.445034,-0.520229,0.846019,-0.116682
0.248617,0.706734,0.607739,-0.764454,0.515972,-0.386500
0.298234,-0.423963,0.296804,-0.361425,0.349115,-0.864576
0.855539,-0.397365,0.345867,0.710045,-0.140803,0.689935
0.550488,-0.366887,0.607877,0.332725,0.917534,-0.217773
-0.062833,0.293642,-0.446901,-0.143231,0.843464,0.517739
-0.720149,-0.401038,0.104458,-0.777361,0.460501,-0.428543
-0.009945,-0.335832,0.654175,-0.497119,-0.538729,0.680179
-0.344953,0.539001,0.752150,0.970649,0.179821,0.159705
-0.626634,-0.399288,0.663240,-0.837678,-0.181968,0.514959
0.494716,0.198554,0.641721,0.885342,-0.044973,0.462761
-0.713852,0.347424,0.528440,0.808145,0.531885,-0.252982
0.050857,-0.218772,0.871280,0.332036,-0.557245,-0.761071
-0.034084,-0.047035,0.789033,-0.459672,-0.884820,-0.076129
-0.570105,0.349276,0.575236,-0.092746,-0.903144,0.419200
0.084189,-0.219299,-0.244618,0.937548,0.310087,0.157641
0.092520,-0.378007,0.684729,-0.478318,-0.830404,0.285729
0.341467,0.032751,0.540221,0.679454,0.330289,-0.655173
0.188080,-0.507254,0.102202,0.535276,0.788908,-0.301835
0.063871,-0.172479,0.666220,-0.066120,-0.363921,0.929080
-0.704041,0.436949,0.587830,-0.404819,-0.855358,0.323241
-0.629955,0.037039,0.236829,-0.433554,-0.339077,-0.834900
0.654734,-0.268977,0.130453,0.969431,-0.063603,0.236977
-0.245617,0.401072,0.580089,0.237481,0.556548,0.796152
-0.036208,0.255169,-0.557845,-0.629072,0.727826,0.273016
-0.098051,0.193405,0.900539,0.103590,-0.992326,0.067509
-0.245474,0.119420,-0.506345,-0.330177,0.031369,0.943398
0.276843,0.310452,0.354469,-0.325320,-0.832233,-0.448950
-0.145247,-0.065151,0.834412,-0.339698,0.187168,-0.921723
0.520542,-0.760352,0.648228,0.819910,-0.528085,-0.221072
-0.159871,0.195153,0.041532,0.909523,-0.214986,0.355738
-0.313060,-0.217980,-0.697973,0.133097,0.984856,-0.111107
-0.781492,0.273679,0.309900,0.982536,-0.136719,-0.126222
0.010954,-0.146506,-0.929884,-0.064890,-0.026125,0.997550
-0.481395,-0.547968,0.553690,0.255050,0.953658,-0.159645
-0.615337,0.369040,0.571101,0.540042,0.670500,-0.508708
-0.451613,0.488748,0.472009,-0.132491,0.602438,0.787092
-0.070378,-0.241940,-0.930714,-0.011925,0.182814,0.983075
0.179430,-0.133538,0.812580,0.718443,0.687756,-0.104077
0.426136,-0.032640,0.619992,0.281078,0.595201,-0.752815
0.824131,0.496488,0.080088,0.813564,-0.546646,-0.198223
-0.226264,0.436665,0.714701,0.182436,0.797115,0.575608
-0.465094,-0.358822,0.796450,0.992473,0.116250,0.038503
-0.571762,0.623152,0.606821,-0.503460,0.844453,0.182832
0.154683,-0.146495,0.810913,-0.613890,-0.591490,0.522761
-0.835036,-0.514124,-0.956727,-0.661111,0.173787,0.729884
-0.087120,-0.162082,0.728910,0.260019,0.684791,0.680773
-0.640475,0.113871,-0.977173,0.321161,-0.251231,-0.913093
0.338368,0.781436,0.646711,-0.196013,-0.955043,-0.222421
-0.311346,-0.103087,-0.185118,0.910826,-0.030164,-0.411687
0.677971,-0.536404,0.334124,-0.488430,-0.100619,0.866783
0.102306,0.745011,0.508885,0.531527,-0.842124,0.091137
-0.006375,-0.512955,0.715407,0.850006,0.340681,0.401778
0.539244,-0.501764,0.155163,0.301465,0.572591,-0.762403
-0.069352,-0.070626,0.748879,0.762689,-0.130251,0.633514
-0.257038,0.430008,-0.972324,0.072684,-0.004968,0.997343
-0.538183,0.260261,-0.138774,0.210946,0.822628,0.528001
-0.430603,-0.455925,0.521985,-0.785548,-0.250587,-0.565792
0.103138,0.073128,-0.136472,0.477660,0.855583,-0.199545
-0.869391,-0.423138,0.211873,-0.326313,-0.353858,0.876530
0.261005,-0.199997,0.312125,0.157052,0.173936,-0.972153
-0.168576,0.242508,0.706691,-0.097810,0.512661,0.853002
0.395779,0.359566,0.035038,-0.017526,-0.996115,0.086301
-0.683442,0.108062,0.547770,0.304807,0.922850,-0.235457
0.680779,0.473036,-0.057022,-0.651041,-0.154384,0.743176
0.109011,0.373780,-0.953913,-0.073634,-0.020531,0.997074
0.260535,-0.112884,0.740154,0.224778,0.603595,-0.764950
-0.399597,-0.090124,0.749112,0.185865,0.115997,0.975704
0.638747,-0.560368,0.167459,0.764317,0.578605,-0.284667
0.527762,-0.733603,0.282155,-0.103208,0.029225,0.994230
-0.426525,0.169995,0.503990,0.539914,-0.624408,-0.564453
-0.433277,0.358402,0.777142,0.961580,-0.215211,-0.170437
0.020095,-0.729135,0.698973,0.029638,-0.867611,0.496360
-0.581884,0.328757,-0.960258,-0.225432,0.355696,0.907007
-0.794598,-0.398286,0.429545,-0.661765,0.656316,0.362376
-0.226260,-0.276453,-0.930446,0.217728,-0.561698,0.798179
-0.128268,-0.167621,0.635663,0.974717,0.202085,0.095328
-0.260673,0.066626,0.727863,0.809932,0.409121,0.420275
-0.355752,0.304494,0.498951,0.380935,-0.785433,-0.487836
0.700719,0.279463,0.215000,-0.728530,0.457211,-0.510100
0.641864,-0.104961,0.195945,0.810253,0.207037,-0.548294
0.522578,0.349099,0.585674,0.937847,0.305971,0.163782
0.031823,0.074609,0.759021,0.978426,-0.122136,0.166630
0.116037,-0.104366,0.496732,0.570163,0.094833,-0.816040
0.120526,-0.266685,0.716818,-0.715647,0.194190,0.670925
-0.225669,0.422894,0.640870,0.127140,-0.630624,0.765604
0.530169,0.683408,0.617918,0.914483,0.319349,0.248471
0.621320,0.680847,0.199552,0.993994,0.014976,0.108402
0.089645,-0.315585,0.665115,0.440253,-0.854700,0.275073
0.457385,0.188619,0.452406,-0.544217,0.137193,0.827651
-0.021194,-0.548209,0.772575,0.536939,0.777428,0.327568
0.016237,0.016888,0.719407,-0.665300,0.335999,-0.666694
-0.712594,-0.546452,0.504955,0.041694,0.981750,-0.185547
-0.308585,-0.013407,-0.569971,-0.534800,0.844607,-0.025057
0.493873,-0.765724,0.660987,-0.692090,-0.696215,0.190515
-0.276339,-0.021432,0.591055,-0.400727,0.471368,-0.785640
0.170080,-0.837543,0.001848,-0.167936,-0.720528,0.672783
-0.415881,0.393105,0.580804,0.363923,-0.659894,0.657342
-0.726738,0.273459,0.580290,0.150323,0.046976,0.987520
-0.747882,-0.418824,-0.979413,-0.364491,0.542705,0.756715
0.339010,-0.089396,0.753314,0.852963,0.047881,-0.519770
-0.242914,0.465712,0.325878,-0.157109,-0.964589,-0.211861
0.331132,0.206607,0.530482,0.041414,-0.976343,0.212223
-0.678406,0.333482,-0.991403,-0.145701,0.055652,0.987762
0.419727,-0.044513,0.491579,0.892142,-0.009411,0.451657
-0.096196,0.576060,0.192964,-0.542986,0.827102,-0.145148
0.118296,-0.233635,0.679449,0.685539,-0.154487,-0.711456
-0.165686,-0.168114,0.753116,-0.594873,-0.140885,0.791377
-0.394189,0.120981,-0.954410,0.352324,-0.081241,-0.932345
-0.027991,-0.791160,-0.934444,-0.469876,0.049222,0.881359
-0.206637,-0.186080,0.393998,0.391919,0.918986,-0.043185
0.520823,0.145067,0.690341,0.988391,-0.045532,-0.144948
0.379388,0.230332,0.380798,-0.447821,-0.477827,-0.755736
-0.056768,0.061170,0.830113,0.876132,0.287930,-0.386638
0.438587,0.079720,0.656831,-0.483780,-0.805615,-0.341969
-0.133070,0.136175,0.806144,-0.006320,0.680128,0.733066
-0.343346,0.132928,-0.962920,-0.013023,0.359087,0.933213
0.663227,-0.439165,0.350618,0.685160,0.394088,-0.612576
0.170092,-0.160301,0.652560,-0.279019,-0.140072,0.950015
-0.475842,0.028716,0.567853,0.911881,-0.343903,-0.224060
-0.151873,-0.255064,0.728645,0.261350,0.459653,-0.848773
0.246593,-0.249947,0.312341,0.141674,0.165352,-0.976006
-0.279124,0.432497,0.768354,-0.103736,-0.953417,0.283257
-0.333510,0.558907,0.756269,0.971338,0.237589,-0.007302
0.618495,0.038912,0.565947,-0.097835,0.742724,0.662411
0.752432,-0.381073,-0.019798,0.799308,-0.578922,-0.161112
-0.599334,0.352500,0.614635,-0.755086,0.552668,0.352708
-0.521953,0.445137,-0.973874,-0.185158,0.563192,0.805315
-0.148013,0.194711,0.767786,0.845215,0.061175,-0.530914
-0.141354,0.647169,0.497138,0.014905,-0.969795,0.243464
0.589736,0.074595,0.640727,0.944335,0.232332,0.232924
-0.821722,-0.395667,-0.959115,-0.270274,0.402495,0.874614
0.745476,-0.637861,0.395794,0.948255,-0.317264,-0.012477
0.111123,-0.199998,0.810754,0.019002,-0.510991,0.859376
-0.420983,0.372411,0.751959,0.893983,-0.134048,0.427581
0.035158,-0.512675,0.661938,0.831437,-0.433135,-0.348004
0.050225,0.201462,0.829826,0.587912,0.679273,-0.439258
-0.050548,-0.027478,0.838655,0.661187,0.182454,-0.727697
0.069717,-0.354045,0.647977,-0.632239,0.694826,-0.342769
-0.032604,-0.364966,0.648009,-0.597511,-0.552855,0.580802
0.882317,-0.201911,0.319304,0.392331,-0.256189,-0.883427
-0.589403,0.034752,0.616970,-0.167460,0.719971,0.673498
-0.729266,-0.282501,0.266058,0.945300,0.183818,-0.269480
-0.126341,0.151914,0.634235,0.950716,0.220270,-0.218220
0.142875,-0.558602,0.668097,-0.594984,0.061136,0.801409
-0.798794,-0.429052,0.177170,0.827866,-0.403929,0.389204
-0.145993,0.035564,-0.491905,0.299317,-0.870844,0.389923
-0.916262,0.157947,0.534987,0.892348,0.072997,-0.445407
0.617229,0.459354,0.083985,-0.623609,0.484567,-0.613438
-0.503215,0.250756,0.592820,-0.220490,0.615211,0.756901
0.064919,-0.301894,0.701733,0.823454,0.563732,0.064260
-0.782720,0.488083,0.589920,-0.362312,0.545382,-0.755836
-0.126862,-0.051711,0.952758,-0.887349,0.455579,0.071133
-0.506216,-0.035335,0.550632,-0.640127,-0.718995,-0.270708
0.919439,-0.171017,0.164962,-0.240274,0.024191,0.970404
0.649986,-0.513182,0.175402,0.651891,0.316793,-0.688970
-0.392763,-0.434261,-0.948897,-0.301131,0.085622,0.949731
0.001944,-0.486415,0.560778,0.352465,0.935534,-0.023353
0.637181,0.173154,0.181885,-0.261776,-0.861736,0.434608
-0.539763,-0.305078,-0.425071,-0.655292,0.739541,-0.153857
0.414354,0.129810,0.132814,0.902910,-0.122683,-0.411950
0.635489,-0.340691,-0.042265,0.268094,-0.159832,0.950042
-0.815370,0.173843,0.383389,0.971735,0.030035,-0.234154
0.517197,-0.548276,0.632857,0.392162,-0.086925,-0.915780
-0.265388,0.375579,-0.958054,0.333137,-0.035581,0.942207
-0.817950,0.334831,-0.971826,-0.219794,0.047811,0.974374
-0.005913,0.216335,0.650744,0.830045,0.176204,-0.529129
-0.273950,-0.206362,0.457239,-0.362237,-0.878524,-0.311416
-0.137829,0.244013,0.752681,-0.572264,-0.349818,0.741715
-0.286553,0.096198,0.671302,-0.788280,-0.547182,-0.281438
0.073866,0.627865,0.549209,0.595072,0.777627,-0.202943
-0.160509,0.149852,-0.585105,0.908771,0.406209,-0.095552
-0.807152,-0.384270,-0.972753,-0.398302,0.371209,0.838785
-0.387065,-0.480082,0.589951,0.373224,0.568837,-0.732891
-0.073720,0.200083,0.630894,0.959363,-0.213594,-0.184390
0.333379,0.017970,0.778238,0.866334,-0.141089,-0.479124
0.131836,-0.021844,0.765241,0.018791,0.970906,0.238722
0.534720,0.096426,0.011876,0.190195,0.955239,0.226591
-0.911276,0.073217,0.265391,0.995558,-0.068531,-0.064563
0.607984,0.650958,0.131011,0.810663,0.278395,0.515094
0.145353,0.541569,0.666547,-0.389547,0.756416,0.525441
0.037769,0.699852,0.554269,-0.616830,-0.695871,-0.367810
0.769642,0.264553,0.202055,0.884032,0.225685,-0.409334
0.564879,-0.321877,0.639301,0.993598,-0.055279,-0.098526
0.232659,0.708826,0.600052,0.779919,-0.600318,0.177047
0.425216,0.091200,0.621869,-0.332771,0.065905,0.940702
0.674445,0.274880,0.184422,-0.163718,-0.053098,0.985077
0.004996,0.385282,-0.944817,-0.215625,0.302039,0.928589
-0.032062,0.128787,-0.331332,-0.287941,-0.899153,-0.329566
0.069526,-0.185403,0.487961,-0.145846,-0.012479,0.989229
-0.204480,0.113433,-0.488627,0.497709,0.544062,0.675487
0.057752,-0.287476,0.890207,-0.255790,0.523346,0.812822
0.194311,-0.393067,0.537117,-0.479918,-0.777905,-0.405638
0.446423,-0.038957,0.766735,0.835374,-0.323082,0.444712
0.240425,-0.832668,0.005223,0.243747,0.763471,-0.598079
0.649304,0.895470,0.370626,0.496188,-0.830410,0.253410
-0.357808,0.335655,0.737296,-0.063402,-0.986475,0.151155
0.718541,-0.409429,0.204659,-0.313780,-0.644185,0.697544
0.701015,-0.360046,0.147602,0.975835,0.112432,-0.187362
0.648028,-0.189843,0.181659,0.699424,0.290180,-0.653148
0.092014,-0.431108,-0.426645,-0.514891,-0.376033,0.770381
-0.618070,-0.182530,-0.977307,-0.255212,0.073835,0.964062
-0.804362,0.239753,0.572313,0.439031,0.462762,0.770132
-0.125347,0.404619,0.599203,-0.426631,-0.904089,-0.024686
0.577783,0.013744,0.316482,0.266721,0.114344,0.956967
0.137183,0.019737,0.808795,0.828200,-0.046607,0.558491
-0.259035,0.421542,0.436089,-0.381730,-0.734423,-0.561165
-0.051444,-0.509832,0.798492,-0.663601,-0.709369,-0.237549
0.796740,-0.503200,-0.047599,0.266507,0.189664,0.944988
-0.137284,0.084057,0.924716,0.516280,0.725968,-0.454340
0.894524,0.322359,0.216209,0.851057,0.098667,-0.515720
0.616411,0.209022,0.230702,-0.087909,-0.477323,0.874320
-0.230390,0.284311,0.544597,-0.251019,0.963297,0.095119
-0.142769,-0.142750,0.734587,0.345612,0.076941,-0.935218
0.124755,-0.058646,0.686625,0.961381,-0.057650,-0.269116
-0.087031,-0.186889,-0.937620,-0.066130,-0.247505,-0.966627
0.260104,-0.043366,0.717508,-0.025796,0.044882,0.998659
0.465427,-0.136979,0.501780,0.084060,0.988544,-0.125362
0.438934,0.229154,0.214583,0.279808,0.613814,-0.738200
0.524684,-0.560678,0.028640,0.014168,-0.356323,0.934255
-0.300948,0.602508,0.668384,-0.015361,0.922433,0.385852
0.308076,-0.141338,0.723017,0.672762,-0.677597,-0.297075
0.096856,-0.187452,0.044102,0.120564,-0.209803,0.970282
-0.831306,-0.487054,0.525215,0.075606,0.863841,-0.498059
-0.163321,0.378087,0.721074,-0.400943,-0.568379,-0.718464
-0.843982,-0.125041,0.530663,-0.432541,0.285224,0.855310
-0.054801,-0.840402,0.389697,0.686945,0.693819,0.216152
-0.482809,-0.050207,0.534906,-0.567637,-0.745768,0.348737
-0.564173,0.397510,0.608065,-0.251855,0.235124,-0.938768
0.379738,-0.947690,0.172721,-0.442671,0.890022,0.109107
-0.893402,-0.160917,-0.972794,0.167877,-0.085953,-0.982054
-0.224898,0.377272,0.828023,0.077844,0.809186,0.582373
-0.153354,0.009384,0.837144,0.975025,0.170997,0.141728
0.228651,0.196233,0.826997,0.730719,-0.067677,-0.679315
0.162644,0.175081,0.440454,-0.487209,-0.525390,-0.697563
-0.069132,0.226559,0.639845,0.869725,0.179255,-0.459832
-0.208301,0.376334,-0.973503,0.014655,-0.006878,0.999869
0.117450,-0.717088,0.687755,-0.484006,0.782345,-0.392014
-0.854520,-0.051468,-0.970725,-0.028338,-0.032368,0.999074
-0.201741,0.021762,0.781358,0.804333,0.371220,-0.463944
-0.056364,-0.006220,-0.310104,0.500367,0.800970,0.328755
-0.381095,-0.255296,-0.923938,0.843678,0.530587,-0.081753
0.021181,0.138112,0.961836,0.856616,0.329210,0.397278
0.183862,0.049326,0.539565,0.681363,0.540929,0.493092
-0.421871,0.234188,0.597701,0.656675,0.500478,-0.564181
0.461236,-0.016371,0.627827,0.742883,0.669174,-0.018167
0.260780,-0.517168,0.582614,-0.038067,0.247603,0.968113
0.509290,-0.064997,0.486076,0.399791,0.714824,-0.573753
0.098883,-0.522000,0.702342,0.666221,0.745458,0.020997
-0.245107,0.015898,0.689987,-0.286257,0.075946,-0.955138
-0.733258,-0.370909,0.325206,0.979901,-0.154899,-0.125697
0.232164,0.148030,0.635106,0.749875,0.511701,-0.419343
0.625055,0.458533,0.196554,0.528434,0.662038,-0.531472
0.014340,0.113217,-0.089650,-0.408030,-0.912942,-0.006977
-0.088664,0.057745,-0.025717,0.384463,0.913640,-0.132101
-0.186445,0.153745,0.881974,-0.179738,0.582788,0.792498
-0.285724,0.320192,0.540387,-0.323252,0.565256,-0.758943
0.369044,-0.012030,0.429097,-0.692711,-0.717096,0.076977
0.844876,-0.269731,0.356125,0.952732,0.083991,0.291971
0.145649,-0.437108,-0.093040,0.411470,0.854254,-0.317714
0.659547,-0.381962,0.172121,0.978576,0.174413,-0.109407
0.168476,-0.150223,0.527868,0.837005,-0.358683,0.413243
-0.702281,-0.294761,0.492495,0.659477,0.469613,-0.586988
0.459135,0.143486,0.028093,0.671844,-0.727051,0.141500
0.300435,-0.050539,0.716120,-0.054244,0.097011,0.993804
0.493957,-0.109145,0.468405,0.221005,0.892385,-0.393453
0.299873,0.172765,0.728996,-0.609737,-0.022703,-0.792279
-0.051132,0.349353,0.406688,0.006113,0.254035,0.967176
-0.163113,0.085216,-0.437978,0.431927,0.900564,0.049237
-0.223823,-0.148317,0.832061,0.847106,-0.323748,-0.421425
0.382000,-0.352722,0.160043,-0.154324,-0.214070,0.964551
-0.339479,-0.419717,0.566058,-0.591348,0.081213,0.802317
-0.179161,0.110519,-0.263942,-0.144955,0.989151,0.023855
-0.404574,0.328359,0.701874,0.039602,-0.710919,0.702158
0.041492,0.334130,-0.947117,0.235568,0.063306,-0.969794
0.127241,-0.304391,0.294945,-0.168689,0.505702,0.846055
0.233107,0.735948,0.535920,-0.010517,-0.999502,0.029762
0.361558,-0.056494,0.330393,0.445514,-0.183731,0.876219
0.262043,-0.829008,0.512887,0.890016,0.406650,-0.206172
-0.685418,0.282512,0.651641,0.683810,-0.707221,0.179563
0.495927,-0.062677,0.486472,0.192757,0.913116,-0.359255
0.201988,0.017383,0.711827,0.166835,-0.407249,0.897950
-0.199082,0.371398,-0.974202,-0.020001,-0.008817,0.999761
-0.433231,0.126705,0.563060,0.782009,-0.551582,-0.290204
-0.115369,-0.115866,0.792033,0.736053,-0.218816,-0.640582
0.261877,-0.390818,0.589780,0.495055,0.213496,-0.842223
-0.311393,0.319485,0.685750,-0.653741,0.514603,0.554804
-0.958999,-0.629572,-0.177665,-0.719549,0.569559,0.397305
-0.593971,0.321339,0.577669,0.216537,0.955674,-0.199496
0.311254,-0.923248,0.509160,0.045391,0.989852,0.134657
0.226938,0.700540,0.487954,-0.802296,0.519013,0.294867
0.015204,-0.552472,0.770140,0.528651,0.812785,0.244763
-0.312973,-0.189790,0.831971,0.279700,0.787034,0.549859
0.083206,-0.377784,0.718358,0.500528,-0.700562,-0.508610
0.437693,-0.121661,0.665440,-0.441510,0.703935,-0.556367
0.641856,0.039870,0.342866,0.537601,-0.212703,-0.815931
0.053090,-0.025800,0.798026,-0.380439,0.846131,-0.373269
-0.303535,0.008984,0.796649,0.057767,0.766597,0.639525
0.152020,0.277723,0.726039,0.795545,0.564711,0.219568
0.136549,0.537425,0.797838,0.865118,-0.382800,0.324090
0.216409,0.372297,0.611307,0.234988,0.234302,0.943336
-0.100692,0.578210,0.603333,-0.491934,-0.187757,0.850146
0.517845,-0.143203,0.500708,0.331318,0.812864,0.479041
-0.356167,0.463362,0.747145,-0.215956,-0.072918,0.973677
0.023446,-0.688649,0.608721,-0.485398,-0.857170,-0.172185
0.128803,0.173213,0.863949,-0.175993,-0.720224,0.671046
0.048620,-0.240103,0.879266,-0.238223,0.639176,0.731235
0.767465,-0.142960,0.164353,-0.078581,0.371764,0.924995
0.116608,-0.156042,0.779675,0.726881,0.603001,0.328684
0.829102,0.592974,0.078807,0.974524,-0.211091,-0.075782
-0.028702,0.070502,0.032666,-0.159797,0.975797,-0.149280
0.124104,0.201441,0.499334,-0.111063,-0.934597,0.337924
0.527012,-0.069122,0.686576,0.998813,0.048708,0.000298
0.001702,-0.525791,0.650743,0.812641,-0.482036,-0.327499
0.957971,-0.527075,0.225023,0.906024,0.128186,-0.403347
-0.276853,-0.089268,-0.681812,-0.611971,0.789555,-0.045761
0.208568,0.413782,0.519132,0.520427,0.838553,0.161197
0.092792,0.452611,0.727087,0.961436,-0.195816,-0.193124
0.442273,0.047577,0.486744,0.826892,-0.473750,0.303003
-0.091571,-0.139871,-0.932448,0.180167,-0.115321,0.976853
0.442428,-0.218814,0.200056,0.010429,0.570311,-0.821363
0.022460,0.580109,0.527328,0.262937,0.735078,-0.624920
0.223346,-0.466599,0.313408,-0.320668,-0.467071,-0.824025
-0.273198,-0.015549,-0.590642,0.661141,-0.700374,0.269015
0.778697,-0.220736,-0.036214,0.718004,0.401972,-0.568233
0.114349,0.011984,0.494473,0.608215,-0.281062,-0.742347
-0.838281,-0.477667,-0.962470,-0.569415,0.205234,0.796019
0.621589,-0.727084,0.278165,0.523513,0.203314,-0.827404
-0.184881,0.107148,-0.955401,0.109957,-0.438606,-0.891927
0.542575,-0.288862,0.325114,0.601820,0.709129,-0.367354
0.367684,0.477242,0.464750,-0.055029,-0.579049,0.813434
0.144143,0.598445,0.552686,-0.064975,-0.619309,0.782454
0.531731,-0.192445,0.630443,-0.437589,0.747481,-0.499788
-0.197414,0.287814,0.608670,0.250436,0.868588,-0.427594
-0.244879,0.160679,0.865911,0.306687,-0.819934,0.483375
0.486042,0.609873,0.184016,0.969320,-0.049921,-0.240678
-0.247886,0.351479,0.723251,0.961098,-0.061166,-0.269351
-0.510034,-0.156042,-0.958519,0.570524,-0.187097,-0.799686
0.416418,-0.705099,0.621003,0.965148,0.094569,0.244022
0.761264,-0.483038,0.108080,0.976751,0.183700,0.110505
0.160501,-0.013324,0.634596,0.757216,-0.024212,0.652715
0.088449,0.254419,0.774890,-0.587797,0.192288,0.785824
-0.154705,0.534923,0.670059,0.733714,0.678349,-0.038808
-0.230984,0.103562,0.703388,0.966604,0.213409,-0.141889
-0.387898,-0.330820,0.029442,-0.494573,0.477594,0.726156
0.101493,0.160128,0.746494,-0.479778,-0.635989,-0.604426
0.830925,-0.604781,-0.043541,0.335497,-0.040057,0.941189
-0.149010,0.210966,0.730609,-0.063821,0.897216,0.436957
-0.080231,0.122543,0.952512,-0.337780,0.939371,-0.059057
-0.491321,0.170743,0.627640,0.120878,-0.123153,0.984998
0.791802,-0.596245,0.385795,0.919959,0.044189,0.389517
0.715300,-0.607308,0.350994,-0.598552,0.646059,0.473649
-0.746911,0.260843,-0.970509,-0.110775,0.075041,0.991008
-0.006566,-0.745735,-0.917172,-0.367214,0.418650,0.830594
0.695670,0.025818,-0.002102,0.102930,-0.708210,0.698458
0.203733,0.019310,0.462131,-0.401582,0.512004,0.759331
-0.695175,0.339397,0.569778,0.225064,-0.110636,-0.968042
0.124075,0.517071,0.723659,-0.727159,0.484471,0.486341
0.234429,0.271287,0.378513,0.975120,-0.208766,0.074546
-0.449861,0.265565,0.587458,0.842456,0.165260,-0.512794
-0.099522,0.083191,0.797738,-0.247495,-0.071949,0.966214
-0.625231,0.584865,0.199092,-0.413180,0.910504,0.016298
0.022248,0.260847,-0.961381,-0.174037,0.152059,0.972928
0.693872,0.393498,0.228109,-0.346405,0.586943,-0.731779
0.647115,-0.507059,0.182571,0.851744,0.180811,-0.491773
0.642442,0.055595,0.170226,-0.605366,0.288623,-0.741774
-0.284205,-0.051243,-0.962017,-0.287228,0.446825,0.847259
-0.290414,0.199495,-0.611271,0.788871,0.611603,-0.060198
-0.242404,0.132405,0.798052,0.994096,-0.102177,-0.036500
0.174117,-0.064184,0.655413,-0.056541,0.307853,0.949752
-0.103262,0.293040,-0.648708,0.407840,0.814096,-0.413417
-0.125095,-0.363095,0.704212,-0.440964,0.449671,-0.776754
0.009092,0.671648,0.421879,-0.400254,0.906915,-0.131537
0.061116,-0.353230,0.358784,0.786316,-0.010064,0.617742
0.141102,-0.386886,0.329874,-0.678991,-0.220332,-0.700304
0.075095,-0.022521,0.854262,0.490357,0.783687,-0.381294
0.417020,0.065983,0.668779,-0.579050,0.565499,0.587291
-0.183212,0.098310,0.822271,-0.284578,0.448335,0.847355
0.816361,-0.056525,0.335221,0.058355,-0.231090,0.971181
0.133946,0.461380,-0.951628,-0.143960,0.129816,0.981032
-0.564727,-0.168355,0.509287,-0.344578,0.876606,0.335898
0.337603,0.082326,0.741280,-0.232414,-0.416923,0.878726
0.385252,-0.886601,0.233833,-0.630491,0.776191,0.002915
0.164751,-0.269973,0.729257,0.864288,-0.480943,-0.147307
-0.276648,-0.283251,0.751372,0.445887,0.848980,0.283578
-0.656249,0.079038,0.532069,0.269206,0.930164,-0.249645
0.177033,-0.572740,0.702650,0.951688,0.189808,-0.241376
0.026400,0.442467,0.623472,0.061436,-0.973540,0.220103
0.773987,-0.437080,0.365888,0.983382,-0.057206,-0.172300
0.013315,-0.107571,0.845455,0.260280,0.253855,0.931564
0.041866,0.558909,0.682272,0.220103,-0.699891,0.679490
0.114810,-0.264539,0.792153,0.952957,0.296624,0.062343
0.077362,-0.395199,-0.920928,-0.228045,-0.106340,0.967826
0.508440,0.052893,0.189937,0.005935,-0.794279,0.607524
0.267714,-0.868973,0.503748,0.912089,0.362137,-0.192224
-0.052121,0.040589,0.931815,0.358827,0.417770,-0.834692
-0.456543,0.475395,0.598678,-0.472979,0.309683,-0.824856
-0.468562,-0.393091,0.672281,-0.534464,-0.051049,-0.843648
-0.144972,-0.476602,-0.933083,0.349397,-0.089745,-0.932667
0.703017,0.971294,0.197767,0.786601,-0.570185,0.236957
-0.241127,0.394841,0.485572,-0.347022,0.710878,-0.611741
-0.054020,-0.020906,0.802228,0.906248,-0.258103,-0.334809
0.040388,0.168296,0.871702,-0.652122,-0.517377,0.554127
-0.387350,-0.153397,0.725207,-0.109637,0.942322,-0.316241
0.584570,0.149343,0.191075,-0.167654,0.978910,0.116736
-0.009448,-0.393315,0.549203,0.831350,-0.499652,-0.243323
-0.193804,-0.504702,-0.940131,0.243509,-0.043690,-0.968914
0.232438,-0.343475,-0.095112,0.584890,0.636373,-0.502925
0.608905,-0.041698,0.573294,0.935026,0.149736,0.321411
0.174726,0.553009,0.723772,0.628465,-0.389612,-0.673226
0.032760,0.013314,0.759148,0.831665,0.214120,0.512333
0.297956,-0.609867,0.619107,0.923208,0.230631,-0.307404
-0.134846,-0.177896,0.828502,-0.563043,0.817143,-0.123531
0.026045,-0.333542,0.622229,-0.724030,-0.362395,-0.586899
0.071037,-0.033524,0.731497,-0.413497,0.559813,0.718073
0.128496,-0.584364,0.693618,0.890889,0.317244,-0.325074
0.108115,-0.336536,0.822838,-0.737058,0.521167,-0.430267
-0.021438,0.026179,0.800908,-0.463966,0.401273,0.789756
-0.837835,0.168781,0.378299,0.971735,0.030035,-0.234154
-0.891714,0.281963,-0.987785,-0.221567,-0.116336,0.968181
0.009495,0.009205,0.714625,0.531890,-0.189400,0.825361
0.069891,0.160768,0.638194,0.035279,-0.197299,0.979708
-0.293566,0.187863,0.854783,-0.250593,0.654220,0.713582
-0.018763,-0.492397,0.774224,0.501251,0.463431,0.730739
-0.309975,-0.033223,-0.552845,0.316401,-0.939572,0.130745
0.710532,-0.176301,0.492800,0.991514,0.024548,-0.127658
0.124887,0.040047,0.841793,0.884260,-0.239531,-0.400886
0.431331,-0.813762,0.264053,-0.434487,0.041724,0.899711
0.591874,-0.737972,0.044422,0.029378,-0.359352,0.932740
-0.696648,-0.520186,0.526933,0.104079,0.993154,-0.053043
-0.095068,0.417113,0.637253,-0.641741,0.744060,-0.185861
-0.297709,-0.158262,-0.833740,0.980595,0.188665,0.053282
0.507497,0.145480,0.563697,-0.562670,-0.766278,0.310195
0.017420,-0.333354,0.543518,0.323769,0.020062,-0.945923
0.506570,0.082458,0.652158,0.884152,0.429935,-0.182840
0.276823,0.032818,0.346123,-0.706565,-0.593709,0.385065
0.167240,-0.471822,0.565391,0.242363,-0.401121,-0.883381
0.558575,0.194618,0.189638,0.456472,0.397574,0.795970
0.413730,-0.580980,0.508169,0.649327,-0.454769,-0.609557
-0.028891,0.176516,-0.514886,-0.058883,0.059831,0.996470
0.238209,0.037700,0.653135,0.168246,-0.105079,0.980128
-0.441449,0.058904,0.791554,0.705636,-0.598374,-0.379508
-0.179998,0.070268,-0.582086,-0.714815,0.676806,0.175990
-0.038396,0.129594,-0.669859,-0.372207,-0.822535,0.429998
-0.721133,0.239419,0.572770,0.138864,-0.742494,0.655301
0.491749,-0.291443,0.488862,-0.352212,-0.561081,-0.749089
0.219545,-0.366144,0.582307,0.259162,0.696866,-0.668740
0.862977,-0.328803,0.320864,-0.475782,0.513375,0.714197
-0.331722,0.468505,0.769064,0.882980,-0.053976,0.466298
0.121393,0.634853,0.645404,-0.568653,-0.627276,0.532127
0.317934,0.745286,0.485524,0.263916,0.952983,-0.148902
0.721705,0.109166,0.520390,-0.757788,-0.571771,0.314381
-0.457974,0.062736,0.586860,-0.159046,-0.100140,0.982179
-0.240482,0.500450,0.332336,0.041860,0.982784,0.179952
-0.115649,0.247279,0.537934,-0.156783,0.987591,-0.009089
0.070127,-0.650851,0.645295,-0.662850,0.447886,-0.600023
0.152586,-0.038437,0.736745,-0.694210,0.270966,0.666821
-0.114156,0.043341,-0.467712,0.913224,0.389523,-0.119556
0.101585,-0.393801,-0.910107,-0.018457,0.249704,0.968146
-0.744312,-0.163523,0.642346,0.571223,0.218978,0.791045
-0.759261,-0.474455,0.392548,-0.331454,-0.905033,0.266559
-0.177565,0.298552,0.622691,-0.295524,-0.450694,0.842342
0.084459,-0.064074,-0.926590,0.191645,-0.020789,-0.981244
-0.188306,0.081900,-0.344135,0.018593,-0.999257,-0.033753
-0.196991,-0.279230,0.720487,-0.656710,-0.669269,-0.347579
-0.224187,0.108381,0.762372,0.117663,-0.091279,0.988850
-0.140508,0.518262,0.514958,0.965826,-0.132190,-0.222948
0.593860,-0.052580,0.603188,0.951611,0.270725,0.145414
-0.526787,0.381796,-0.993940,-0.154112,0.289246,0.944768
-0.404582,-0.012977,0.474571,-0.606163,-0.002070,-0.795338
0.236904,-0.894534,0.301941,0.892353,-0.451073,-0.015457
0.215303,0.011851,0.302671,0.258505,0.903093,0.342927
-0.108863,0.227298,0.482328,0.113890,-0.226803,0.967259
-0.403014,-0.191474,-0.658241,0.058396,0.984448,-0.165687
0.136247,0.115820,0.707166,0.717078,0.262443,0.645695
0.510732,0.134418,0.323468,-0.036035,-0.257716,0.965549
-0.241718,0.202850,-0.201836,-0.640715,-0.702561,-0.309664
0.290030,0.023802,0.648714,0.242641,0.879556,-0.409275
-1.000000,-0.612967,-0.983298,0.486729,-0.043218,-0.872483
-0.094816,0.215050,-0.957406,-0.062547,0.267340,0.961570
0.406294,-0.684175,0.290251,-0.638372,0.159999,-0.752915
0.211871,0.222131,0.860692,-0.499883,0.745153,0.441435
0.484400,0.187325,0.530863,0.346571,0.881462,0.320800
0.051745,0.335769,-0.959083,0.340486,-0.077637,-0.937039
0.507203,-0.757185,0.012719,-0.679240,0.562766,-0.471092
-0.474710,0.408517,-0.964848,-0.124004,0.296112,0.947069
-0.720937,-0.167125,0.532356,0.921202,0.378450,-0.090347
-0.290711,0.314180,0.615624,0.300417,-0.945412,-0.126280
-0.154687,-0.086576,0.706723,-0.070344,0.988778,0.131794
0.000396,-0.113249,0.765286,0.996172,-0.049591,0.071987
0.516190,0.366109,0.094656,-0.338803,0.833612,-0.436237
0.223621,-0.238667,0.691469,-0.630587,0.774725,-0.046495
-0.055385,0.182313,0.670561,0.924182,0.284775,0.254539
0.029573,0.059916,0.833161,0.507009,-0.861875,-0.010638
0.610577,0.303050,0.186670,0.555054,0.480608,0.678919
0.004972,-0.724379,0.679620,0.981814,-0.162918,0.097465
0.034400,0.036537,0.890326,0.653020,-0.744041,0.141307
-0.909818,-0.112223,0.503670,0.860385,0.500912,-0.093946
0.505340,-0.592643,0.607802,0.997449,0.019224,0.068746
0.745880,0.341590,0.189427,0.617468,0.189520,-0.763424
0.496631,0.559223,0.619294,0.937111,-0.332963,-0.104685
0.007688,-0.773526,-0.906661,-0.445410,0.093479,0.890433
-0.770669,0.343451,-0.426194,0.970246,0.062623,0.233882
0.439075,0.092583,0.471716,0.776493,-0.286441,-0.561258
-0.635340,0.232720,0.625799,0.959864,0.129471,0.248793
-0.108137,0.069080,0.016717,-0.224434,0.972105,-0.068123
0.438106,-0.216714,0.608963,0.498168,0.859691,0.112964
0.167678,0.065368,-0.245369,0.321821,-0.255450,0.911689
-0.459690,0.452217,-0.972502,0.077086,-0.455383,-0.886952
-0.044124,-0.059945,0.771429,0.028487,0.885485,0.463794
0.619405,-0.085742,0.516127,-0.701491,0.205771,-0.682326
-0.020966,0.094046,-0.933635,0.313031,-0.596393,-0.739139
-0.203733,0.145788,0.861942,-0.278113,-0.726405,0.628482
0.001465,0.466035,-0.959516,-0.220393,0.200001,0.954687
0.739327,-0.029520,0.165534,-0.470034,-0.387251,0.793162
0.506385,0.001688,0.466021,-0.714898,-0.260589,0.648856
0.763052,-0.196115,0.173901,-0.739780,0.466292,-0.485075
0.165309,-0.852943,-0.904834,-0.042277,0.086406,0.995363
0.001898,0.221441,0.609874,0.100673,-0.040269,0.994104
0.509616,0.283928,0.211326,0.916407,0.124737,0.380315
0.000376,-0.362289,-0.925710,0.215558,-0.178213,-0.960091
0.774390,-0.359519,0.321889,0.277174,-0.179967,0.943815
-0.155267,0.482934,0.285127,-0.319362,0.836965,0.444407
0.305917,-0.769451,0.589070,-0.234415,0.944164,-0.231525
-0.720977,0.276473,0.564030,0.828491,-0.156532,-0.537681
-0.019419,0.225140,0.867832,-0.569508,-0.506946,-0.647044
-0.254029,0.112763,-0.948945,0.175076,0.630724,0.756000
-0.648720,0.252096,0.377128,0.299120,-0.952769,0.052515
0.406110,-0.665882,0.541663,-0.283218,-0.837291,0.467688
0.867135,-0.492220,0.198808,-0.489328,-0.641311,0.590998
0.457727,-0.904142,0.230558,0.003108,-0.860845,0.508858
0.030982,-0.439935,-0.925293,-0.341220,0.100524,0.934593
-0.509716,-0.080598,0.559240,0.913767,0.399764,0.072245
-0.078497,-0.035808,0.977990,-0.348712,0.936489,0.037262
-0.512729,0.389565,-0.972019,-0.289253,0.095717,0.952455
-0.041555,-0.578909,0.630739,0.003283,-0.161933,0.986796
0.080418,0.371161,0.659089,0.025090,-0.146754,0.988855
0.063980,-0.558228,-0.913744,0.019039,0.056393,0.998227
0.601995,0.081611,0.589506,0.984351,0.114760,0.133729
0.413041,-0.102932,0.620466,0.628928,0.766781,-0.128436
-0.507284,0.267728,0.497464,0.550353,0.825809,-0.123087
-0.454488,-0.178556,0.614625,-0.645493,0.057755,0.761579
0.205217,0.008125,0.741814,0.769577,-0.637066,0.043566
0.340156,-0.726383,0.582513,-0.051228,-0.159944,0.985796
0.762532,0.082018,0.195907,0.574533,0.212205,-0.790494
-0.300594,0.067202,-0.845571,0.968061,0.196925,-0.155175
-0.193635,-0.550255,0.587163,-0.170013,-0.930465,-0.324546
0.392187,0.740852,0.513799,-0.644994,0.755287,0.116290
0.768892,0.203835,0.030308,0.823759,-0.359069,0.438738
0.689505,-0.372257,-0.031464,-0.253531,0.221174,0.941703
-0.176579,0.478258,0.198488,-0.587478,-0.149665,-0.795280
-0.565220,0.299295,0.342520,0.370811,-0.904247,-0.211748
0.202732,-0.308511,0.306370,-0.018504,0.236734,0.971398
-0.525956,0.054733,0.613517,0.379432,0.265329,-0.886359
0.626677,-0.764441,0.037962,-0.501253,0.406230,0.764018
0.855140,-0.565657,0.198870,0.422250,0.693194,-0.584112
0.109420,-0.323645,-0.930521,-0.125612,-0.023580,0.991799
-0.943372,-0.228628,0.209060,0.115305,-0.618399,0.777359
-0.261821,-0.046174,-0.162304,0.794978,-0.425478,-0.432410
0.113116,-0.290535,0.533145,-0.552418,0.222127,-0.803427
-0.416217,0.014319,-0.940648,-0.572652,0.216924,0.790578
-0.196250,-0.080491,0.745249,0.647417,0.753970,0.111266
-0.593369,-0.169007,0.630093,0.472344,0.106049,0.875012
0.080096,0.398963,0.723547,0.729233,-0.573811,-0.372774
-0.109068,0.135541,0.478061,-0.065550,-0.548803,0.833378
0.143911,0.680624,0.511996,0.719631,-0.610945,0.329966
0.188900,0.157148,0.368088,0.200730,-0.396636,0.895761
0.110717,-0.234164,0.630577,-0.735181,0.676469,-0.043564
0.011283,-0.349732,0.877798,-0.264791,0.574655,0.774375
-0.183679,0.047423,0.846658,0.931112,0.319081,0.176686
0.253015,0.142541,0.425798,0.694224,0.654692,-0.299051
0.170797,0.636588,-0.951957,-0.189577,0.164411,0.968003
0.956928,-0.383981,0.181474,-0.196899,-0.266548,-0.943495
-0.319684,-0.134793,0.411255,-0.050257,0.930348,0.363218
0.798318,-0.238078,0.327667,0.197651,0.524392,0.828220
0.437856,0.092995,0.491441,0.039408,0.733163,0.678910
-0.851017,-0.277436,0.227490,-0.263364,-0.663191,0.700583
0.245715,0.001928,0.329506,-0.342848,-0.712549,0.612152
-0.505769,-0.298493,0.655805,0.564968,0.775141,0.282785
0.858249,0.396360,0.210784,0.987002,-0.076835,-0.141152
-0.071268,-0.464146,-0.917909,-0.038498,-0.075178,-0.996427
-0.368738,0.556153,-0.193539,0.376246,0.241117,0.894596
-0.732670,-0.160219,0.512506,0.830041,0.298155,0.471313
0.350009,-0.176542,0.550749,0.871154,0.193867,0.451117
-0.752371,-0.462226,0.454592,0.726144,-0.085312,-0.682230
-0.738172,-0.096121,0.645187,0.812286,0.023360,0.582792
-0.504324,-0.186472,-0.692316,-0.066659,-0.966538,0.247711
-0.079751,-0.002144,0.833410,0.503044,-0.190738,-0.842951
-0.211256,0.151930,0.739084,0.369513,0.815090,-0.446193
0.127590,0.434662,-0.960198,-0.270803,-0.061318,0.960680
-0.385570,0.218165,0.606686,-0.109554,0.114848,0.987324
-0.281527,0.202574,0.503118,0.162658,-0.982152,0.094447
-0.010056,-0.674379,0.663278,0.967968,-0.241326,-0.069287
0.286823,0.625938,0.476145,-0.165653,-0.263051,0.950454
-0.243330,0.296968,0.748316,0.264305,0.956450,0.123880
0.245315,0.118655,0.744564,-0.076089,0.409133,0.909297
0.089594,0.827627,-0.102761,-0.753014,0.534271,-0.384088
0.480312,-0.530045,0.285136,-0.445601,0.719297,-0.532966
0.105057,-0.126206,0.667977,0.809594,0.206454,0.549485
-0.746019,0.311551,0.415393,-0.710777,0.618832,-0.334428
-0.450542,-0.217139,0.738065,0.889251,-0.383141,-0.249873
0.286269,-0.512456,0.083353,0.205215,0.975809,-0.075391
-0.223308,0.007001,0.817959,0.942045,0.328972,-0.065785
0.269395,-0.691123,0.307192,-0.594392,0.361383,-0.718401
-0.121008,-0.552037,0.591898,-0.005811,-0.971696,0.236164
-0.340521,0.394342,0.759652,0.638420,0.327941,0.696329
-0.305014,0.344417,0.609531,0.495643,-0.818866,-0.289476
0.181436,-0.436927,-0.914547,-0.018595,0.012054,0.999754
-0.485194,0.371595,0.597740,0.830085,0.557613,0.005112
0.156020,-0.986730,0.235697,0.560476,-0.788755,0.252451
-0.331672,-0.106242,0.760397,0.148770,0.967313,0.205360
-0.325873,0.329708,0.733367,-0.752276,0.554488,-0.355842
0.515595,-0.739676,0.634400,0.681139,-0.579018,-0.448093
-0.043906,-0.009618,0.820319,0.722665,-0.666132,0.184456
-0.383689,0.397733,0.646748,0.844393,0.498205,-0.196958
-0.091477,-0.003762,0.779577,0.899733,0.422081,0.111030
-0.351260,-0.387552,0.576718,0.793881,0.556214,-0.245722
-0.506275,-0.449803,0.532674,-0.044770,0.869403,0.492071
0.347609,-0.271461,0.571566,0.814205,-0.149140,-0.561095
-0.485616,0.554517,0.359158,0.012822,-0.698669,0.715330
0.427457,-0.321021,0.608211,-0.162125,0.975877,-0.146219
-0.045504,0.271444,0.127256,-0.371696,0.411390,0.832226
-0.442820,-0.160053,0.803608,0.686844,-0.686269,0.239334
-0.105648,-0.211075,0.787902,0.312307,0.931826,-0.184838
0.550948,-0.407779,0.485886,0.461064,-0.695156,-0.551523
-0.031190,-0.052444,0.740967,0.527757,-0.409815,0.743992
-0.169573,0.478800,0.653024,-0.589261,0.803447,0.085120
-0.635016,0.111223,0.521604,0.509107,0.860423,-0.021961
-0.763087,0.481360,-0.981006,0.316028,-0.127357,-0.940163
0.218746,-0.157973,0.738007,-0.145578,-0.646298,0.749070
0.052561,-0.191350,0.844157,0.289283,0.558613,0.777346
0.409949,0.383354,0.092439,-0.462505,0.880946,-0.100116
-0.292108,-0.024106,0.718288,-0.387584,-0.908495,-0.156254
-0.823652,0.178560,-0.988853,-0.376136,0.221745,0.899639
0.551251,0.384058,0.180972,0.506353,0.616068,0.603380
-0.733371,0.243511,0.486327,-0.156127,0.464364,0.871774
0.017915,0.649305,0.642119,-0.084456,-0.795689,0.599788
-0.271742,0.178082,-0.973612,-0.016147,0.222975,0.974690
-0.448026,0.273147,0.593085,0.886285,0.418241,-0.198931
-0.573882,0.002799,0.487911,0.974719,0.105814,-0.196792
0.108317,0.610034,0.687969,-0.176092,-0.825931,0.535565
-0.796906,0.330931,0.506104,-0.079963,0.939368,-0.333458
-0.503411,-0.207894,0.628511,-0.552428,-0.449859,-0.701748
0.204331,-0.496987,0.597535,-0.562021,-0.614846,-0.553259
0.501860,-0.509024,0.279189,-0.698937,0.516850,-0.494321
-0.292991,0.456941,-0.965530,0.247931,0.216804,0.944207
-0.612581,0.049308,0.503603,0.271324,0.912007,0.307613
-0.059933,-0.338662,0.756626,0.830491,0.293000,-0.473746
-0.710351,0.146425,0.495166,-0.206971,0.287502,0.935150
0.017712,-0.275080,0.612945,0.170266,0.272691,0.946916
-0.841737,-0.320343,-0.982080,-0.069059,0.049622,0.996378
-0.375880,0.158696,0.877926,0.023838,-0.057442,0.998064
0.646908,0.288364,0.173582,0.224831,0.129916,0.965698
-0.607997,-0.319690,0.663416,-0.640571,0.746620,-0.179523
0.280107,0.445735,0.723218,-0.515625,0.850571,0.103249
-0.516128,0.634637,-0.976992,-0.183225,0.068378,0.980690
0.585979,0.885750,0.470643,-0.318334,0.927176,0.197504
0.105262,0.469722,0.159576,-0.720158,0.130639,-0.681400
-0.145928,0.046126,-0.556221,0.837992,0.452435,0.305076
0.368323,-0.073310,0.644997,0.906827,0.417867,0.055238
0.162208,0.111606,0.622696,0.759004,0.354346,-0.546216
0.754298,-0.301795,0.189868,-0.165830,-0.318118,0.933435
-0.656630,-0.161370,0.635385,0.273514,0.106191,0.955988
0.188634,-0.422723,0.563864,0.431533,0.722500,-0.540160
-0.094654,-0.265987,0.746483,0.891243,0.081379,-0.446165
0.278744,0.078908,0.724693,-0.681949,-0.326738,0.654361
-0.011748,-0.409709,0.578983,-0.312118,0.949980,-0.010987
0.114119,-0.001159,-0.027579,-0.301002,-0.925012,0.231844
-0.478708,-0.148506,0.605040,0.315738,-0.534422,-0.784030
0.526775,-0.423226,0.271068,0.818238,-0.060912,0.571643
0.285163,-1.000000,0.236302,-0.525903,0.805124,-0.274229
0.404024,-0.674266,0.539529,0.130137,0.843482,-0.521156
-0.346354,0.329496,0.247330,0.311112,0.866371,0.390654
-0.458027,-0.157236,0.480091,0.904315,0.030062,0.425807
-0.157612,-0.180323,0.790952,-0.036882,-0.949761,0.310796
-0.279357,0.113180,0.753371,0.947347,0.284108,-0.147700
-0.387739,-0.079728,0.802538,0.180316,-0.983280,-0.025423
0.127471,-0.015361,0.868076,0.527982,-0.057284,-0.847321
-0.301541,0.372981,0.681240,-0.863180,0.280971,0.419495
-0.268929,0.109731,-0.266594,0.059125,-0.997542,-0.037612
0.255593,-0.856546,0.379189,0.269762,0.916277,-0.296084
-0.444734,0.145504,0.582671,0.831073,-0.225542,0.508378
0.393488,0.011862,0.454914,-0.493724,0.079300,0.865995
-0.429055,0.142716,0.569687,0.960971,-0.169500,-0.218642
0.295688,-0.067484,0.334900,0.128082,-0.437174,0.890210
0.235095,0.088817,0.720409,0.584416,-0.380386,-0.716774
-0.177716,0.021607,0.925160,-0.145143,0.641709,0.753089
-0.633518,0.203363,-0.964145,-0.362423,0.021731,0.931761
0.111705,-0.316449,0.303216,0.092434,0.369821,0.924494
0.355661,0.117546,0.553634,-0.038303,-0.092837,0.994944
-0.336968,0.449254,0.443230,0.651621,0.361026,0.667121
0.279387,0.757847,0.422227,0.981151,0.152733,0.118388
0.391085,-0.649975,0.636994,0.713795,-0.412609,-0.565908
0.150927,-0.257683,-0.922206,0.585379,-0.146112,-0.797485
-0.141313,-0.172522,0.850997,0.520511,0.752081,0.404279
-0.321941,0.105763,0.867524,-0.495976,0.589887,-0.637214
-0.477746,-0.329221,0.579491,-0.496937,-0.578423,0.646901
0.577958,0.093602,0.207403,-0.468315,0.661221,0.586061
0.271545,0.667198,0.432492,-0.155450,-0.706588,-0.690339
0.382687,0.543462,0.468300,0.720929,0.659023,-0.214359
-0.033434,0.189914,0.891538,0.254099,0.947823,0.192524
-0.301232,0.153705,-0.918417,0.796015,0.581149,0.169192
0.095503,0.680550,-0.963251,-0.239856,0.219914,0.945572
0.077519,0.514733,0.655855,0.988820,-0.062820,0.135237
-0.123780,0.108518,-0.941676,-0.167424,0.293048,0.941325
-0.206712,0.069766,0.952835,-0.421669,0.126490,0.897884
0.260409,0.664697,0.671891,0.622787,-0.734757,-0.268827
-0.345380,-0.531777,0.590709,-0.002390,-0.999654,0.026187
0.427999,-0.772918,0.645156,-0.771463,0.009986,0.636196
0.486703,-0.223676,0.327745,-0.235521,0.011511,0.971801
0.370817,-0.076286,0.591193,0.987464,0.152848,0.039392
0.382819,0.160784,0.512150,0.139141,-0.985194,-0.100160
-0.060306,0.008395,-0.150033,0.398461,0.916726,0.029011
-0.294958,0.336047,0.592893,-0.360478,0.783798,0.505684
0.294202,-0.341321,0.647414,-0.092988,-0.993848,-0.060158
0.481783,0.841539,0.494530,-0.496417,0.867438,0.033478
0.717992,-0.210588,-0.024217,0.269925,0.525350,0.806937
-0.003792,-0.693756,0.333566,0.932003,-0.243315,-0.268640
0.660123,-0.100450,0.507704,-0.673417,-0.413386,0.612879
0.092400,-0.540631,0.711512,0.741489,0.374666,0.556614
-0.000029,-0.704031,-0.928779,-0.313651,0.204994,0.927146
0.110651,-0.284486,-0.918739,-0.104758,-0.089124,0.990496
-0.687151,0.519234,-0.967516,0.423437,0.127136,-0.896960
-0.295771,0.031073,0.692798,0.780861,-0.609442,0.137245
0.251492,0.724357,0.290609,-0.403495,0.909186,0.102823
-0.961711,-0.383251,-0.979985,0.343773,-0.117962,-0.931614
0.750109,0.212346,0.155676,0.453980,0.023089,0.890713
0.031042,0.039956,0.875221,-0.656517,-0.753359,-0.037879
0.327101,0.600531,0.401824,-0.743317,0.571769,0.347217
0.148899,-0.093085,0.724423,0.686874,0.535603,-0.491257
-0.222370,-0.070245,0.801508,0.135661,-0.981961,0.131716
-0.754977,0.528875,0.443322,0.922741,-0.360357,0.136722
0.682085,-0.527078,0.020670,0.885097,0.255685,0.388881
-0.360878,0.263755,0.478597,-0.287775,0.828400,0.480561
-0.099990,-0.317585,0.505866,-0.191528,0.939013,0.285607
0.481349,-0.265424,0.611531,0.428691,0.666203,-0.610244
0.081136,-0.351040,0.692377,0.968984,0.116140,0.218132
-0.413444,0.108934,0.642416,0.775996,0.567006,-0.276286
0.212039,-0.116625,0.863044,0.725307,0.131903,-0.675671
-0.141621,-0.429898,0.576599,0.867953,0.083182,0.489631
0.127606,0.440047,0.651018,0.929909,-0.150339,-0.335660
-0.626696,0.375469,0.610875,-0.799726,0.193985,0.568162
0.153221,0.415755,0.757041,-0.531063,0.841567,0.098672
-0.030620,0.306548,-0.957726,0.183929,-0.099118,-0.977929
0.187698,0.471078,0.675103,0.782464,0.492665,0.380830
-0.460487,-0.147212,0.731924,0.800099,-0.443035,0.404428
-0.591709,0.381630,-0.974553,-0.424050,0.389325,0.817684
