-0.050290,0.113423,0.468007,0.873960,-0.435007,-0.216710
-0.034093,0.105670,0.442951,0.183961,-0.765395,-0.616708
-0.029235,0.097470,0.419754,0.973599,0.032742,-0.225903
-0.046609,0.088690,0.399903,0.996505,-0.083101,0.008494
-0.035711,0.080793,0.375533,0.987135,-0.045005,-0.153427
-0.026583,0.072299,0.350476,0.928603,-0.315021,0.196107
-0.021576,0.063813,0.326049,0.055531,0.252876,0.965904
-0.009501,0.055470,0.300220,0.899123,0.389467,0.199735
-0.024372,0.046547,0.279969,-0.376445,-0.581991,0.720816
-0.024668,0.038204,0.257115,0.981790,0.084691,-0.170048
-0.104781,0.028101,0.248134,0.870488,-0.410516,-0.271527
0.062954,0.022688,0.193759,-0.308824,-0.188876,0.932177
0.004049,0.012737,0.180630,-0.619878,-0.532686,0.576192
-0.033207,0.003367,0.163697,0.658011,0.648648,0.382461
-0.076064,-0.006289,0.147507,0.970201,-0.212958,0.115577
-0.571904,-0.149859,0.102114,0.193673,0.293104,0.936259
0.068994,-0.167268,-0.095707,0.866075,-0.216230,-0.450732
-0.507256,-0.202980,-0.056320,-0.140460,0.719090,0.680574
-0.297550,-0.284203,-0.326678,-0.060575,0.515895,0.854508
0.398865,0.212939,0.856269,-0.311960,0.767471,0.560061
0.074441,0.196548,0.888762,0.682186,0.712305,-0.165059
0.253807,0.193770,0.837619,0.066484,-0.531004,0.844757
0.154702,0.183820,0.833128,0.058606,-0.878544,-0.474053
0.028349,0.172109,0.832442,0.957593,-0.251144,0.141218
0.023046,0.163918,0.811590,0.817858,-0.467134,-0.335998
-0.064576,0.153521,0.804525,-0.632258,0.367593,-0.682001
-0.006260,0.147376,0.773691,0.478919,0.744029,0.465893
-0.017891,0.139185,0.754555,0.886555,0.190012,0.421802
-0.057507,0.130109,0.739281,0.373710,0.895970,-0.239954
0.019657,0.124107,0.704986,0.504919,0.565110,-0.652463
-0.061633,0.113861,0.696691,0.451599,0.733310,0.508246
-0.014948,0.106840,0.666457,0.386879,-0.267681,0.882424
0.006993,0.099087,0.640314,0.441826,-0.742022,-0.504177
0.000220,0.091030,0.619948,0.657104,-0.649099,0.383256
-0.029823,0.082249,0.603587,0.972694,0.096957,-0.210869
-0.017599,0.074201,0.578731,0.786038,0.538078,-0.304329
-0.018484,0.066153,0.557335,0.992206,-0.120047,0.033417
0.002724,0.058400,0.530906,-0.063042,0.986163,0.153323
0.001838,0.050352,0.508252,-0.585802,0.754633,-0.295576
0.060011,0.043474,0.475072,0.813294,-0.469136,0.344188
0.066491,0.035131,0.451789,-0.618044,0.450483,-0.644272
-0.019662,0.024885,0.444839,0.928509,-0.145014,-0.341822
0.030996,0.017418,0.412488,0.589229,0.806157,0.054038
0.066195,0.009960,0.383685,0.128771,-0.808566,0.574143
-0.021576,-0.000581,0.376219,0.582472,-0.100369,-0.806630
-0.034830,-0.009361,0.355224,0.490249,0.296661,0.819542
-0.032030,-0.017999,0.331198,0.876950,0.304034,0.372185
0.020395,-0.025457,0.298876,-0.330197,0.874103,-0.356249
-0.012885,-0.034533,0.282114,-0.717796,0.644814,0.262650
0.014799,-0.042876,0.253139,-0.458005,0.531637,0.712456
0.028349,-0.051067,0.227625,-0.115091,0.523110,-0.844458
-0.047643,-0.061312,0.217843,-0.703156,-0.531666,-0.472125
-0.041013,-0.070093,0.192500,0.989206,0.140798,-0.040598
-0.066343,-0.079463,0.173136,0.335413,-0.894189,-0.296521
0.020983,-0.095264,0.109780,0.466976,0.389093,-0.794065
-0.090202,-0.114728,0.082864,0.421335,0.165464,-0.891683
-0.077978,-0.267669,-0.053002,0.559840,-0.785056,-0.265079
0.070464,0.122794,0.962587,0.276010,-0.959521,0.056018
-0.063691,0.111378,0.964017,-0.175135,0.853979,0.489946
0.031589,0.106403,0.927977,0.456476,0.887735,-0.059634
0.043369,0.098640,0.904694,0.976630,-0.105669,0.187158
0.079888,0.091914,0.878064,0.995082,-0.091271,-0.038494
0.043220,0.082982,0.862533,0.039583,-0.994576,0.096188
0.052941,0.075085,0.839335,0.247591,-0.033599,-0.968282
-0.030115,0.065420,0.831384,0.643199,-0.709835,-0.287106
-0.014211,0.058400,0.808100,0.110279,0.861642,-0.495391
-0.047786,0.049324,0.792826,0.087944,0.686358,0.721927
-0.093146,0.040106,0.778668,0.506254,0.309736,-0.804842
-0.021280,0.033961,0.745459,0.717598,0.574829,0.393223
0.076652,0.028253,0.706845,0.323089,0.265128,0.908472
0.074293,0.019910,0.684792,0.176135,-0.946788,-0.269386
-0.033356,0.008932,0.680987,0.865409,-0.095069,0.491965
0.008171,0.002054,0.652442,0.333776,-0.149703,0.930689
0.081214,-0.004386,0.618261,0.728552,0.412483,0.546873
-0.042636,-0.015659,0.617231,-0.368139,0.395253,0.841575
0.025109,-0.022090,0.583822,0.669174,-0.618182,-0.412379
0.056770,-0.029995,0.555562,0.445380,0.273052,0.852689
0.105074,-0.037311,0.524384,0.990891,0.134076,-0.012584
0.058096,-0.055024,0.487886,0.992155,0.118052,0.041132
0.321256,-0.057659,0.418838,0.590980,0.806584,-0.012824
0.041895,-0.071709,0.445582,-0.173294,0.942671,-0.285203
0.100948,-0.078435,0.412803,-0.478239,0.827568,-0.293971
0.073412,-0.088100,0.394468,0.145460,-0.981856,0.121656
0.026579,-0.097756,0.379423,0.285465,0.713922,-0.639394
0.088135,-0.105224,0.344727,0.766939,0.582890,0.268408
-0.028498,-0.116050,0.343325,-0.043673,0.165719,0.985205
-0.136591,-0.126438,0.340608,-0.242436,-0.819271,-0.519633
0.276045,-0.127466,0.240926,-0.650816,0.741179,0.164596
0.102274,-0.139176,0.250279,-0.452239,0.818598,-0.354086
0.081951,-0.148394,0.230142,-0.683845,0.719789,0.119414
-0.175762,-0.162150,0.254169,0.497647,0.155610,0.853307
0.244239,-0.163463,0.151655,0.591643,0.090106,0.801149
0.063395,-0.175316,0.162295,0.439016,0.227166,0.869288
0.018925,-0.184830,0.147107,0.928838,-0.281589,-0.240764
-0.032767,-0.212636,0.084551,-0.089226,0.349851,0.932546
0.148662,-0.237075,-0.023884,0.364193,0.235877,0.900958
0.034825,0.059132,0.977404,0.801129,0.446576,-0.398449
0.028789,0.051370,0.957782,-0.709615,0.519964,-0.475483
0.086076,0.045081,0.927148,0.295333,-0.912664,-0.282529
0.066931,0.036738,0.908756,0.749386,-0.661854,0.019239
-0.017303,0.026493,0.901119,0.045619,0.367104,0.929060
-0.006998,0.019178,0.878694,0.496434,0.273034,0.824018
0.174729,0.016542,0.828094,-0.787750,-0.608962,0.092822
0.045431,0.005270,0.827780,-0.766736,0.518037,-0.379148
0.028938,-0.002921,0.809588,0.967857,0.248353,0.039657
-0.007878,-0.011853,0.794028,-0.668542,0.742916,-0.033566
-0.061188,-0.020777,0.781099,0.083539,0.959418,0.269328
0.030407,-0.026190,0.743657,0.955299,0.215132,-0.202787
0.114497,-0.032193,0.708161,-0.675340,-0.734384,0.067800
0.056330,-0.041554,0.696748,0.901628,-0.430168,0.044968
-0.156028,-0.054872,0.710878,-0.350747,-0.706425,-0.614768
-0.023046,-0.059410,0.666686,0.790906,-0.611792,0.013384
0.068109,-0.065555,0.628558,-0.613771,-0.216966,0.759086
-0.125985,-0.078293,0.639770,-0.636236,0.090007,-0.766226
-0.118772,-0.086198,0.616115,0.162899,0.646167,0.745609
0.058536,-0.090289,0.563399,0.492807,0.622279,0.608202
0.144685,-0.096292,0.526387,0.187656,0.981901,0.025607
0.353506,-0.108002,0.444410,-0.362516,-0.912404,0.190002
0.394007,-0.115612,0.413947,0.281581,0.959272,-0.022561
0.047050,-0.131709,0.452590,0.965680,-0.089058,0.243990
0.057948,-0.139908,0.427391,0.791209,0.092563,-0.604501
0.053234,-0.148243,0.405938,0.929211,-0.369419,0.009780
0.086076,-0.155415,0.377507,-0.600835,-0.788282,0.132696
0.033504,-0.164785,0.363634,-0.009813,-0.657329,0.753540
0.120241,-0.171663,0.325162,0.458122,0.883055,-0.101675
-0.140712,-0.185562,0.349304,0.526868,0.774575,0.349920
0.311094,-0.185276,0.242613,0.917288,0.302883,-0.258545
0.054856,-0.198880,0.265925,-0.763512,0.641947,-0.070384
-0.111554,-0.210448,0.273877,-0.487361,-0.409013,0.771484
-0.117149,-0.219076,0.251938,0.918985,-0.351734,-0.178184
0.252190,-0.221130,0.158577,-0.575080,-0.062241,-0.815726
0.231427,-0.292108,-0.031035,0.762251,0.573048,-0.300980
0.107869,0.008494,0.994222,-0.463537,0.290189,0.837212
0.118915,0.001617,0.971282,0.946159,-0.265527,0.185144
0.109343,-0.006869,0.951575,0.858679,-0.501395,-0.106177
-0.087699,-0.042286,0.900747,-0.509421,0.843811,0.168740
0.230838,-0.041554,0.826493,-0.627621,0.641600,0.440956
0.039243,-0.054586,0.836475,-0.630462,-0.338614,-0.698468
-0.001105,-0.063510,0.821573,-0.104942,-0.914429,0.390904
0.308443,-0.062929,0.748634,-0.141922,0.106388,-0.984144
0.202413,-0.073460,0.745316,0.900419,0.202272,-0.385139
0.279433,-0.086341,0.688768,-0.514825,0.555654,-0.652842
0.303881,-0.094094,0.662309,-0.644326,0.693157,0.323075
0.062366,-0.108440,0.681188,0.726219,0.593438,-0.347040
0.068994,-0.116345,0.657762,0.821243,0.568164,-0.052439
-0.087551,-0.135657,0.641801,-0.037228,-0.999244,0.011231
-0.050146,-0.142829,0.612826,0.352579,0.138685,0.925448
0.083574,-0.147510,0.567718,0.777711,-0.321244,-0.540341
0.244531,-0.152048,0.516747,-0.376027,0.862147,0.339568
0.533758,-0.153512,0.442722,0.321666,0.945250,-0.055083
0.362787,-0.165804,0.450016,-0.333105,-0.941265,0.055322
-0.004197,-0.182194,0.492978,0.929127,-0.197480,-0.312610
0.029675,-0.189367,0.464889,0.938997,-0.077796,0.335011
0.122304,-0.195665,0.425217,0.801631,-0.359748,-0.477461
0.053234,-0.205320,0.415263,0.960374,-0.091976,-0.263102
0.033207,-0.214253,0.395269,0.888841,0.452713,0.070804
0.095649,-0.220979,0.360488,-0.314955,-0.368926,0.874470
0.105514,-0.228884,0.335202,0.466326,0.482782,0.741257
0.200206,-0.235467,0.295072,-0.613190,-0.476122,-0.630322
0.238051,-0.242935,0.265238,0.860021,0.491688,0.136408
-0.104192,-0.266784,0.281685,0.864901,-0.172319,-0.471437
0.177083,-0.287427,0.156946,-0.058627,0.623983,0.779235
0.052941,-0.324014,0.085524,-0.447393,-0.242909,-0.860718
0.037477,-0.057069,0.973885,-0.666645,-0.739428,-0.093972
0.099478,-0.100535,0.836561,0.307958,0.464404,0.830356
-0.030412,-0.111655,0.837247,-0.396290,-0.082998,0.914366
0.363667,-0.108440,0.749550,0.828545,0.031731,-0.559022
0.104485,-0.123071,0.771889,-0.684824,0.002533,-0.728705
0.164419,-0.137122,0.717657,0.047999,0.874984,0.481767
0.229067,-0.158050,0.641458,0.984014,0.137763,-0.112863
0.390030,-0.162007,0.591173,-0.337682,-0.717399,-0.609352
0.068846,-0.194057,0.579932,0.828175,0.058042,-0.557457
-0.284444,-0.234154,0.553073,0.159033,-0.235413,0.958796
0.037036,-0.250688,0.427534,0.964812,0.094669,0.245307
0.103599,-0.265471,0.369669,0.850686,0.415284,0.322293
0.080922,-0.274252,0.350791,0.569763,0.780080,-0.258547
0.265295,-0.278057,0.293556,0.734559,0.328643,0.593647
0.295635,-0.285078,0.265067,-0.640799,-0.717990,0.271786
0.111994,-0.331178,0.180859,0.887646,0.458111,0.047115
-0.007878,-0.175316,0.838992,0.455364,0.279976,-0.845138
0.060599,-0.188786,0.783873,0.949780,-0.261458,0.171925
0.163390,-0.193762,0.744544,0.809839,0.533754,0.243451
0.182827,-0.216155,0.676411,0.721176,0.672516,-0.166215
0.234078,-0.221863,0.646092,0.957774,0.095131,0.271327
0.088283,-0.257128,0.582420,0.863660,0.392245,-0.316599
0.036596,-0.314206,0.433426,0.968603,0.244557,-0.044734
0.153080,-0.327668,0.366637,0.856399,0.493557,-0.151598
0.300053,-0.340548,0.293670,0.736922,0.627322,0.251819
0.356454,-0.347569,0.259460,0.887572,0.432177,-0.159494
-0.091231,-0.381673,0.272447,-0.348944,0.936184,-0.042387
-0.157943,-0.391766,0.260776,0.143892,0.108592,0.983617
0.033059,-0.242497,0.836160,0.403744,-0.157652,0.901186
0.031881,-0.264882,0.772461,0.391732,-0.274009,0.878331
-0.182832,-0.457777,0.270044,0.253755,0.449332,0.856568
0.315957,-0.320352,0.748005,-0.683118,-0.707583,0.180765
0.068405,-0.335278,0.767598,0.488459,0.495992,-0.717913
0.005375,-0.436116,0.491376,0.878395,0.220067,0.424255
-0.223769,-0.529048,0.279769,0.797759,0.083558,-0.597158
-0.015833,0.491300,-0.392552,0.708209,0.270545,-0.652108
-0.541272,0.408461,-0.470696,0.439838,0.462094,0.770072
-0.231575,0.423681,-0.408283,-0.478254,-0.830050,-0.286863
-0.172081,0.429979,-0.654615,0.882663,0.438507,0.169167
-0.193285,0.395142,-0.466291,0.947656,0.140443,-0.286749
-0.153525,0.328703,-0.654215,0.907452,0.344065,0.241145
-0.234667,0.306024,-0.568834,0.200666,0.846044,0.493905
-0.273987,0.291089,-0.506507,0.681346,-0.202077,0.703514
-0.264711,0.357537,-0.594891,0.721263,0.632503,0.282345
-0.403872,0.325336,-0.480621,0.053685,-0.685253,0.726324
-0.167219,0.350212,-0.512228,-0.532314,-0.078122,-0.842935
-0.100067,0.345970,-0.458911,0.758587,0.650468,-0.037901
-0.699875,0.208259,-0.538257,0.121651,0.932851,0.339101
-0.596056,0.218361,-0.547267,0.179720,0.894067,0.410298
-0.044254,0.300316,-0.735362,0.583037,0.704749,-0.404224
-0.171048,0.268704,-0.625611,0.410650,0.902547,0.129521
-0.210223,0.253188,-0.560768,0.141275,0.782670,0.606192
-0.264711,0.234600,-0.489288,0.612854,0.116404,0.781575
-0.128637,0.226257,-0.386688,0.909389,0.413108,-0.048515
-0.164716,0.301924,-0.515946,-0.558373,-0.088912,-0.824812
-0.123922,0.292259,-0.448099,0.865682,0.487792,-0.112485
-0.049557,0.151332,-0.833557,0.810761,-0.580832,-0.072801
-0.074149,0.137862,-0.775664,0.909624,0.005629,0.415394
-0.046757,0.134495,-0.744687,-0.763646,0.463230,0.449735
-0.117590,0.113129,-0.663024,0.934365,-0.327456,-0.140481
-0.079893,0.111378,-0.637282,-0.673363,0.220726,0.705593
-0.096678,0.099373,-0.583593,0.958538,-0.165158,-0.232224
-0.117298,0.087377,-0.528761,0.961527,0.066428,0.266557
-0.082396,0.084884,-0.501587,0.899852,0.401848,-0.169658
-0.070760,0.078444,-0.465461,0.859008,0.511952,0.003172
-0.110668,0.063813,-0.404536,-0.451811,0.148411,0.879682
-0.138798,0.196986,-0.659649,0.997540,0.062115,0.032477
-0.176939,0.164356,-0.508452,-0.115727,-0.634124,0.764522
-0.127900,0.165088,-0.490060,0.289722,0.955551,-0.054629
-0.126870,0.148546,-0.403821,0.926915,-0.200707,-0.317090
-0.060748,0.151913,-0.392637,-0.177714,-0.832598,-0.524594
-0.034241,0.053862,-0.860244,0.745395,0.666166,-0.024692
-0.076064,0.028833,-0.746375,0.899676,0.427110,-0.090332
-0.081367,0.019178,-0.697406,0.985599,0.012838,0.168613
-0.153085,-0.002188,-0.615143,-0.824342,0.018871,-0.565778
-0.129666,-0.006584,-0.583250,-0.336542,-0.756626,0.560586
0.024812,-0.012434,-0.485055,-0.213672,0.976797,0.014553
-0.117886,-0.045359,-0.373216,0.720950,-0.692564,-0.024205
0.003609,0.170359,-0.908584,-0.188268,-0.832597,0.520900
-0.493265,-0.149707,-0.537284,-0.293940,0.947513,0.125769
0.370444,0.003081,-0.972627,0.753776,-0.110068,-0.647847
-0.091231,-0.086778,-0.695461,0.985949,0.049528,0.159538
0.452027,0.009075,-0.967621,0.060996,0.187242,0.980418
-0.230398,-0.119712,-0.579360,-0.090767,-0.990603,0.102312
0.559824,0.019178,-0.972798,-0.019180,0.054828,0.998312
0.027464,-0.091316,-0.618461,0.653575,0.436770,0.618119
-0.063840,-0.115755,-0.528846,0.952122,-0.041280,0.302919
-0.609457,-0.153512,-0.567947,-0.121137,-0.987310,0.102689
-0.596200,-0.159515,-0.528875,0.051207,0.998244,-0.029770
0.323022,0.003519,-0.994994,-0.280408,0.070423,0.957294
-0.125985,-0.255959,-0.536054,0.865879,0.441136,-0.235909
0.683382,-0.117515,-0.933955,0.800954,-0.582696,-0.137615
-0.049849,-0.250545,-0.530648,0.990224,0.131078,-0.047697
0.330240,-0.291670,-0.990847,-0.228277,0.154523,0.961256
0.231130,-0.144294,-0.991619,0.029175,-0.060284,0.997755
0.324496,-0.136978,-0.990561,-0.551657,0.440025,0.708556
0.389293,-0.133906,-0.976860,0.918164,-0.203220,-0.340112
0.481333,-0.126438,-0.975172,-0.331668,0.322915,0.886410
0.053089,-0.208688,-0.713652,0.743951,0.057167,0.665784
0.549074,-0.123366,-0.960413,0.478387,-0.102780,-0.872113
0.624917,-0.119123,-0.950516,0.744114,-0.122347,-0.656753
0.131139,0.990487,-0.213924,0.736571,0.214460,0.641460
0.198291,0.934883,-0.224908,0.830793,0.077530,0.551156
-0.368827,0.765265,0.330340,0.932177,0.294898,0.209956
-0.395482,0.752090,0.409971,0.997927,0.042077,0.048698
-0.374125,0.741112,0.015703,0.805233,-0.591677,0.038965
-0.434945,0.716673,0.154944,0.834543,0.454820,0.310928
-0.302264,0.705695,0.314150,0.931292,0.246264,0.268420
-0.176791,0.676138,0.599354,0.911452,-0.310460,-0.269943
0.025109,0.682132,0.676726,0.682177,0.712793,0.162974
-0.074149,0.746088,-0.319270,0.863779,0.482071,0.146610
-0.405346,0.668090,0.031035,0.820307,-0.566758,0.076691
-0.351151,0.659890,0.121249,0.935564,0.335764,0.109468
-0.490762,0.633986,0.219902,-0.636707,-0.744079,0.202364
-0.261910,0.642329,0.298647,0.918104,0.396013,0.016064
-0.038070,0.684034,-0.328967,0.994047,0.025526,-0.105922
-0.283263,0.609841,0.513315,-0.182491,-0.555817,0.811027
-0.245125,0.605598,0.565144,0.648020,-0.697982,-0.304780
-0.172081,0.606912,0.598896,0.883269,-0.246218,-0.399014
-0.301671,0.579248,0.715826,0.662264,0.079279,0.745065
-0.194318,0.590083,0.704328,0.058908,-0.826983,0.559133
-0.023194,0.600909,0.730014,0.817241,-0.575810,-0.023667
0.009941,0.601347,0.747204,0.887829,-0.052781,0.457138
-0.492232,0.603249,-0.036383,-0.347802,-0.880317,0.322608
0.171048,0.685794,-0.222562,-0.226963,0.529036,-0.817685
-0.311688,0.596961,0.110466,0.823895,0.373524,-0.426236
-0.471028,0.567842,0.218014,-0.662278,-0.731094,0.163981
0.315957,0.668233,-0.017934,0.784002,-0.597418,-0.168617
-0.240262,0.576175,0.296473,0.809891,0.490091,-0.322316
-0.487077,0.519687,0.540946,-0.523217,-0.807242,0.273138
-0.252338,0.543983,0.508509,-0.329500,-0.674811,0.660348
-0.442014,0.511639,0.620663,-0.607900,0.530290,-0.590973
-0.153229,0.539150,0.599211,-0.800669,-0.395250,0.450229
-0.250424,0.516034,0.704070,0.594766,0.636792,0.490663
0.262351,0.584518,0.527245,0.866050,-0.470229,0.169832
0.019365,0.536230,0.719545,0.995010,-0.022086,0.097305
0.147925,0.549834,0.700295,-0.176284,-0.685558,0.706353
0.303585,0.593451,-0.035954,0.812838,-0.518522,-0.265384
-0.354688,0.460126,0.498784,-0.401462,0.177723,-0.898467
-0.182832,0.475194,0.493293,0.854849,0.045375,0.516890
-0.197999,0.448853,0.663110,-0.029460,-0.675208,0.737039
0.024960,0.471542,0.636795,0.914301,-0.043917,-0.402647
0.046168,0.469487,0.660679,0.130620,-0.847680,0.514176
0.063691,0.467441,0.685822,0.913587,0.225881,-0.338136
-0.023783,0.450318,0.752467,0.821877,0.113859,0.558171
0.438037,0.445780,0.766140,0.171807,-0.984841,-0.023869
0.036596,0.617300,-0.346758,0.973068,0.214900,0.083404
-0.031293,0.588761,-0.192843,0.879139,-0.375844,0.293011
0.032322,0.575738,-0.066302,0.101009,0.795765,0.597123
-0.247040,0.527887,0.097938,0.979377,0.102012,0.174399
-0.387823,0.501545,0.198364,-0.670921,-0.727408,0.144021
-0.357043,0.508129,-0.067017,-0.579780,-0.722993,0.375680
0.437888,0.612914,-0.313321,-0.824059,0.559437,0.089199
-0.237467,0.497007,0.070050,-0.149797,0.982882,0.107254
-0.133202,0.507101,0.059924,0.370908,0.922374,-0.107953
-0.376777,0.464226,0.206344,-0.684681,-0.712913,0.151548
0.230249,0.551156,-0.027259,0.808116,-0.585000,0.068723
-0.208749,0.467299,0.277366,0.780813,0.613878,-0.116126
-0.408438,0.432024,0.398444,0.812894,0.578115,0.070606
-0.051323,0.480322,0.278224,0.894602,0.036799,-0.445346
0.009056,0.483975,0.288207,0.879019,0.183797,-0.439937
-0.342024,0.421047,0.506279,0.951643,0.053211,-0.302562
-0.451587,0.394124,0.620005,-0.565063,-0.823517,-0.050231
-0.122745,0.427639,0.581048,0.839389,0.484247,-0.246842
-0.169722,0.410801,0.664655,-0.232661,-0.361291,0.902960
-0.007878,0.429684,0.631332,0.873318,-0.324524,-0.363319
-0.395922,0.367631,0.820400,-0.202087,0.835675,-0.510694
0.052056,0.428514,0.670662,0.911656,-0.185619,-0.366645
-0.002872,0.415928,0.723435,-0.022571,-0.542878,0.839508
-0.544072,0.465833,-0.242012,-0.337354,-0.726753,0.598349
-0.084014,0.519982,-0.339264,0.996619,-0.057791,-0.058399
-0.014359,0.504761,-0.208289,0.967625,-0.020679,0.251542
-0.166482,0.468317,-0.059895,-0.103075,-0.413046,0.904858
0.391356,0.555694,-0.315151,-0.824059,0.559437,0.089199
-0.230398,0.440367,0.082835,0.984465,-0.174859,-0.015921
-0.299756,0.417536,0.189211,-0.454649,-0.773774,0.441099
0.195491,0.494077,-0.031035,0.794214,-0.597266,0.111791
-0.164716,0.415633,0.273247,0.266785,0.223744,0.937424
-0.318609,0.386514,0.374332,0.791171,0.589270,0.163738
-0.023194,0.425441,0.282744,0.839699,0.030163,-0.542214
0.239525,0.454275,0.241984,-0.354772,0.844543,0.401102
-0.167219,0.387389,0.448156,0.954641,-0.268901,0.127876
-0.161772,0.382851,0.478934,0.719958,0.417514,0.554384
-0.367645,0.346121,0.599468,-0.605664,-0.795583,-0.014831
-0.514617,0.319190,0.692658,0.645676,0.636710,0.421549
-0.310065,0.344362,0.640800,-0.259923,0.745326,0.613946
0.160446,0.404218,0.513773,-0.700931,0.678680,-0.219291
-0.072235,0.364709,0.640142,-0.088623,0.796029,-0.598735
-0.009793,0.368801,0.646063,-0.077780,0.594491,-0.800332
0.013914,0.366898,0.668917,0.982892,0.001076,0.184179
-0.107285,0.344362,0.748348,0.970116,0.110693,0.215923
-0.058536,0.346559,0.760505,0.460151,0.640025,0.615328
0.052644,0.357975,0.747891,-0.287490,0.420913,0.860338
-0.106547,0.324460,0.871657,0.994320,0.106100,0.008380
0.351740,0.381681,0.753297,0.083173,-0.976478,0.198931
-0.506662,0.424852,-0.241011,-0.510634,-0.857096,0.068116
-0.595171,0.403485,-0.156346,-0.498235,-0.839536,0.216659
-0.047054,0.479447,-0.335459,0.844420,0.249859,-0.473841
-0.049701,0.458366,-0.212008,-0.788580,0.033369,-0.614026
-0.193285,0.403200,0.048368,0.787511,0.553311,0.271429
-0.143067,0.404656,0.063957,0.669145,0.738357,0.084106
0.186364,0.450613,-0.046509,0.838143,-0.495926,-0.227098
-0.243943,0.376706,0.181288,-0.569654,-0.733464,0.370843
-0.054707,0.400270,0.135065,-0.101358,-0.883920,0.456521
-0.043958,0.384022,0.239667,0.917748,-0.001372,0.397161
-0.044105,0.377733,0.275965,-0.419386,0.474630,-0.773849
0.241292,0.416366,0.187552,0.524102,-0.793355,-0.309684
0.217585,0.406710,0.232459,0.179263,0.751543,0.634860
-0.061044,0.358117,0.386459,-0.126355,0.927225,0.352547
-0.094031,0.347729,0.433769,0.340571,-0.764024,0.547977
-0.133643,0.335724,0.484769,0.887745,0.446680,0.111295
-0.279730,0.307775,0.579846,0.503930,0.860886,-0.070219
-0.474120,0.272509,0.693859,-0.480606,-0.850128,-0.215176
0.206390,0.365147,0.476703,0.777628,-0.617698,-0.117239
-0.097564,0.313777,0.634536,0.066344,0.454656,0.888193
0.015685,0.325630,0.620148,0.975177,0.079982,-0.206476
0.041603,0.324023,0.642402,0.922350,0.027224,-0.385394
-0.181209,0.285238,0.764395,0.778437,-0.530254,0.335955
-0.013474,0.304845,0.728984,0.806112,0.482912,0.342022
-0.028349,0.297824,0.765310,0.802875,0.403270,0.439050
0.130254,0.306309,0.793913,0.057020,0.287297,0.956143
-0.471028,0.376563,-0.249936,-0.426834,-0.889517,0.163010
-0.441870,0.374366,-0.222591,0.562810,0.803069,0.195771
-0.089021,0.418858,-0.308487,0.997093,-0.037617,0.066261
-0.054856,0.403637,-0.204056,0.729661,-0.599547,-0.328843
-0.359546,0.347139,-0.022968,-0.812644,0.251149,0.525865
-0.476035,0.321682,0.069849,-0.695912,-0.658202,0.287188
-0.045872,0.378019,-0.050170,0.253866,0.501593,0.827017
-0.160738,0.346559,0.077372,-0.677388,-0.443090,-0.587211
0.042928,0.372901,0.022940,0.957660,-0.084297,0.275283
-0.130254,0.338654,0.137725,0.499030,-0.041676,0.865582
-0.089757,0.338949,0.157032,0.432893,0.734237,0.522973
0.013325,0.348756,0.148966,0.274145,0.961196,0.030756
0.178261,0.368952,0.112497,-0.704171,0.633160,-0.321329
-0.088580,0.320950,0.263723,0.094368,-0.868688,0.486288
-0.096678,0.313339,0.303281,0.509332,0.850798,-0.129319
0.045283,0.324023,0.312319,0.279644,0.956024,-0.088417
-0.092849,0.290508,0.440863,-0.599723,0.439326,0.668823
-0.033653,0.293724,0.449072,0.700571,0.706800,0.098156
-0.070469,0.282460,0.497698,-0.300064,-0.168513,0.938917
-0.077241,0.275430,0.534424,-0.360174,-0.845652,0.393887
0.003609,0.276601,0.566803,-0.823580,0.561067,-0.083185
-0.074886,0.259039,0.631933,-0.348453,-0.871337,0.345473
0.023194,0.268553,0.624467,0.922276,0.271211,0.275410
-0.099182,0.244408,0.705157,0.279698,-0.816693,0.504760
-0.098593,0.239433,0.735763,0.607228,-0.289604,-0.739867
-0.066931,0.238995,0.754755,0.851946,0.504609,-0.139848
0.020103,0.246749,0.750493,0.616281,-0.010266,0.787459
0.137323,0.259191,0.735620,0.592919,-0.593562,0.544180
0.062514,0.242211,0.796545,0.338369,0.931839,-0.131081
0.051615,0.235628,0.831784,0.898921,-0.294318,0.324526
-0.058392,0.213824,0.904122,0.737126,0.672282,0.068426
0.181649,0.244551,0.840279,0.308857,0.576686,-0.756334
0.236581,0.247624,0.849661,-0.077200,0.279808,0.956947
-0.412712,0.350069,-0.316553,0.926319,0.376697,-0.005640
-0.437596,0.338511,-0.264180,-0.391908,-0.840966,0.373074
-0.356895,0.345094,-0.262550,-0.365509,-0.797358,0.480233
-0.136294,0.353142,-0.202912,-0.191892,0.804818,0.561645
-0.019662,0.364996,-0.216441,0.781027,-0.312189,0.540865
-0.223917,0.324166,-0.083207,0.921571,0.388208,0.000801
-0.288125,0.307042,-0.015589,0.507219,0.379709,0.773660
-0.329507,0.293438,0.042304,-0.116620,-0.993172,-0.003163
-0.048672,0.332946,-0.048139,0.353167,-0.916216,-0.189263
-0.106251,0.309534,0.055233,0.832875,0.480062,-0.275424
-0.064576,0.309677,0.074769,0.860079,0.471550,-0.194690
-0.105222,0.296511,0.128887,-0.424445,0.070438,-0.902710
-0.018484,0.304121,0.126884,0.109040,-0.156394,0.981657
0.100067,0.316707,0.112182,0.676058,-0.668931,0.308993
0.048964,0.302067,0.170333,-0.640295,0.696506,0.323884
-0.065605,0.277333,0.256715,-0.487344,0.075581,-0.869933
0.031881,0.279968,0.286491,0.545010,0.715093,0.437727
0.005375,0.269874,0.332027,-0.841050,0.508523,0.184496
-0.105074,0.246606,0.412689,-0.517211,-0.855394,0.028196
-0.122893,0.237378,0.454878,0.787176,0.141725,-0.600223
-0.061337,0.241041,0.462001,0.599186,0.088443,-0.795710
-0.056622,0.235922,0.494151,0.124282,-0.380150,0.916537
-0.085929,0.225087,0.540202,0.826574,-0.524319,0.204612
-0.043958,0.225677,0.556449,0.370982,-0.788567,-0.490443
-0.139238,0.205329,0.627471,-0.004529,-0.598251,0.801296
-0.054267,0.212796,0.624324,0.845841,-0.067075,0.529202
0.048375,0.223042,0.615371,0.955641,-0.046237,-0.290883
-0.041454,0.203284,0.682961,0.906292,0.422613,-0.005668
-0.058392,0.195235,0.721919,0.740161,-0.246134,0.625763
-0.033653,0.193475,0.743800,0.969718,0.228283,0.086797
0.042339,0.199621,0.745660,0.821326,-0.243004,0.516112
0.134672,0.208116,0.739453,-0.818247,0.016025,-0.574643
0.043958,0.188795,0.805412,0.853648,-0.238226,0.463178
0.051027,0.184401,0.833758,0.974336,-0.187863,0.124006
0.030264,0.175915,0.871428,0.995721,0.091580,-0.012324
0.138942,0.187035,0.859529,-0.476461,0.875841,0.076730
0.218762,0.193913,0.859186,0.512868,-0.825740,-0.234777
0.057359,0.163918,0.951317,-0.087861,-0.873792,0.478296
-0.303585,0.303532,-0.317354,-0.065450,0.764975,0.640726
-0.358958,0.286703,-0.248648,0.425196,0.903339,-0.056454
-0.163978,0.247776,0.053374,0.274186,-0.079115,-0.958417
-0.171785,0.239576,0.095078,0.428419,-0.255008,-0.866849
-0.068406,0.249821,0.085181,-0.797295,0.266431,0.541605
-0.084014,0.240451,0.129859,0.613376,-0.519006,-0.595317
0.053827,0.255824,0.106462,0.350091,0.302135,-0.886652
0.004934,0.241335,0.165156,-0.552382,-0.273449,-0.787464
-0.025846,0.230062,0.213924,0.747412,-0.622583,-0.231875
0.018777,0.230795,0.229599,0.766521,0.640791,-0.042814
0.032910,0.226552,0.259718,0.740713,0.058104,-0.669304
-0.043814,0.207669,0.327108,0.946801,0.089536,-0.309114
-0.037774,0.202408,0.359887,0.989312,0.062631,0.131677
-0.030115,0.197433,0.391722,0.126109,-0.573936,0.809132
-0.015245,0.193332,0.420268,0.247151,-0.935835,0.251256
0.175906,0.217629,0.373731,0.082288,0.996438,-0.018440
-0.030560,0.178550,0.493150,-0.573626,-0.816824,0.061247
-0.090346,0.162748,0.551758,-0.597867,0.248250,0.762185
0.017451,0.174164,0.539515,0.954768,0.147196,-0.258363
-0.074001,0.153815,0.610452,-0.447791,0.874321,-0.187205
-0.029527,0.154843,0.624953,-0.295551,-0.827279,-0.477765
0.002575,0.153673,0.644575,0.434987,0.308632,-0.845892
-0.012004,0.140203,0.712537,0.834679,-0.449262,-0.318552
-0.021132,0.133039,0.748062,0.961586,-0.272072,-0.036465
-0.020691,0.127617,0.778382,0.043246,0.876425,0.479593
-0.043665,0.118256,0.818655,0.329018,0.944314,-0.004342
0.035122,0.124991,0.818712,0.389975,-0.348834,-0.852194
0.050586,0.121471,0.843626,0.997970,0.036845,0.051948
0.066931,0.118399,0.866823,0.850627,0.504982,-0.146376
0.068257,0.113423,0.895484,0.925227,-0.006148,0.379365
0.097267,0.112396,0.914619,-0.480061,0.739062,0.472577
0.081070,0.104795,0.949658,0.425364,0.698897,-0.574986
0.115383,0.104348,0.966334,-0.290141,0.771140,0.566710
-0.219792,0.260648,-0.319499,-0.198313,0.937698,0.285299
-0.283999,0.241916,-0.246961,0.620760,0.776776,-0.106186
-0.183124,0.251581,-0.254855,0.256676,0.624020,0.738049
-0.460719,0.188938,-0.042905,0.645957,0.714535,0.268661
-0.344527,0.201086,-0.057121,-0.240051,0.315223,0.918156
-0.154702,0.226115,-0.106662,0.840465,0.084990,-0.535158
-0.293132,0.195968,-0.004920,0.148419,0.964601,0.217982
-0.243502,0.196548,0.012013,-0.280686,-0.869070,0.407349
-0.173407,0.201524,0.017505,-0.034126,-0.053592,0.997980
0.013033,0.225239,-0.027888,0.853759,-0.291886,0.431159
-0.087106,0.201524,0.055719,0.803537,0.490988,-0.336540
-0.024080,0.204748,0.065616,0.068849,-0.030056,0.997174
-0.019217,0.198888,0.099568,0.699607,-0.583292,-0.412699
-0.033504,0.189527,0.141987,-0.715659,-0.624171,-0.313437
-0.029823,0.183382,0.177455,0.126463,-0.970925,-0.203251
-0.036745,0.175772,0.215869,0.901770,-0.092663,-0.422167
-0.037625,0.168599,0.252653,0.865740,-0.397282,0.304403
-0.069291,0.156745,0.302594,0.584060,0.768773,0.260504
-0.021428,0.158058,0.317668,-0.122805,-0.981259,-0.148489
-0.013033,0.152940,0.348131,0.917852,-0.391297,-0.066597
-0.007141,0.147813,0.379480,0.915854,0.121513,-0.382684
-0.024960,0.138015,0.421842,0.236391,-0.907553,0.347082
-0.051027,0.127769,0.466005,0.879343,-0.468063,-0.087597
-0.022605,0.125714,0.488287,0.825785,0.497869,-0.264963
-0.047054,0.115621,0.532422,0.216883,-0.390572,0.894659
-0.027172,0.112253,0.557793,-0.044021,-0.439921,0.896957
-0.095352,0.095568,0.617688,0.962010,-0.272426,0.017885
-0.004638,0.104348,0.612225,0.916930,-0.063872,-0.393904
-0.000958,0.098640,0.643603,-0.581885,0.162081,-0.796957
-0.015981,0.090450,0.680873,-0.643486,-0.747027,0.166960
-0.019954,0.084009,0.714682,-0.244230,-0.406176,0.880552
-0.047197,0.073469,0.757873,0.949729,0.059060,0.307451
-0.052649,0.066743,0.791654,-0.043363,0.662473,0.747830
-0.003609,0.068645,0.802323,0.709107,-0.592547,0.382172
-0.332891,0.276314,-0.179743,0.283814,0.941066,-0.183968
-0.528756,0.235922,-0.048397,0.301114,-0.568647,0.765488
-0.290040,0.261674,-0.081691,0.706315,-0.130995,0.695672
-0.294749,0.253921,-0.039787,0.785883,0.121681,-0.606286
-0.280467,0.249241,-0.007036,0.172517,0.716129,0.676312
-0.293720,0.239727,0.038100,-0.252623,0.963901,-0.084119
0.020543,0.067028,0.822831,0.369976,0.924969,0.086887
0.015828,0.060151,0.855639,0.078804,-0.905893,0.416111
0.017599,0.055175,0.884300,0.050550,-0.921750,0.384477
0.076652,0.058543,0.891822,0.978967,0.090284,0.182954
0.032767,0.046109,0.938961,0.844358,0.309638,-0.437246
0.079156,0.047860,0.951117,0.918671,0.259458,-0.297867
0.072086,0.041276,0.982438,-0.001702,0.243442,0.969914
-0.047786,0.127179,0.165585,0.793213,0.587506,-0.160154
-0.040277,0.121623,0.199308,0.908382,-0.405234,-0.103090
-0.057359,0.111378,0.243528,-0.682944,0.663561,-0.305409
-0.071206,0.102303,0.284374,-0.238396,0.954485,-0.179237
-0.016714,0.104937,0.295043,0.925609,0.378358,0.009674
-0.036596,0.094987,0.339321,0.982759,-0.141102,-0.119476
-0.054707,0.085474,0.380967,0.948417,-0.288103,-0.132296
-0.064429,0.076988,0.420040,0.930850,0.101845,0.350923
-0.051472,0.072299,0.449272,0.681184,0.490716,0.543310
0.055885,0.083277,0.438660,0.843719,-0.243992,-0.478128
0.024960,0.071861,0.484511,-0.080613,-0.075894,0.993852
-0.036596,0.055765,0.542576,-0.022770,0.923129,0.383817
0.054707,0.064251,0.538371,-0.067920,0.996342,-0.051861
-0.028349,0.044787,0.604617,0.956043,-0.137114,-0.259193
-0.032767,0.037614,0.639341,-0.356786,0.934139,0.009388
-0.028052,0.031906,0.670061,-0.408112,0.130379,0.903574
0.031441,0.035274,0.678327,0.834252,-0.125528,-0.536905
0.004638,0.025323,0.719945,0.506130,0.862110,-0.024477
0.007878,0.020053,0.749664,0.418781,-0.760147,-0.496789
0.008171,0.013765,0.781214,0.940355,0.175716,0.291302
-0.018925,0.003367,0.822173,-0.185281,-0.024802,0.982373
-0.042488,-0.006146,0.862418,-0.576508,0.636323,0.512573
0.094764,0.009370,0.839593,-0.014441,-0.999166,0.038194
0.180323,0.017132,0.836904,-0.185910,-0.133723,0.973425
0.287091,0.028396,0.824977,-0.596306,0.257046,-0.760491
0.102125,-0.012140,0.955551,0.825849,-0.526075,-0.203021
0.138649,-0.012140,0.970253,0.818539,-0.569423,0.075841
-0.078715,0.140935,-0.343154,0.819515,-0.350386,-0.453459
-0.060748,0.136112,-0.311232,0.437789,-0.303453,-0.846320
-0.151903,0.112253,-0.226710,0.687147,0.229699,0.689252
-0.093586,0.114745,-0.214010,-0.244787,0.489805,0.836762
-0.085636,0.108010,-0.176826,0.896352,0.433355,0.093577
-0.118915,0.094549,-0.120849,0.784855,0.248661,-0.567600
-0.056033,0.097765,-0.109865,0.004620,-0.783085,0.621897
-0.080041,0.086207,-0.061039,0.239429,0.925227,0.294327
-0.093883,0.076693,-0.017019,0.922208,-0.360092,0.140947
-0.121127,0.064402,0.034210,0.423763,-0.854554,0.300271
-0.110668,0.059275,0.066274,-0.723006,0.550742,0.417068
-0.084459,0.056059,0.092560,0.801145,-0.596716,-0.045798
-0.097861,0.046690,0.136323,-0.618914,0.604763,0.501205
-0.096975,0.039374,0.173365,0.949704,-0.071367,0.304908
-0.096975,0.032639,0.208890,0.342033,-0.122080,0.931724
-0.001694,0.042009,0.202540,0.218091,0.591177,0.776496
-0.008467,0.033523,0.242012,0.844236,0.361363,-0.395832
0.003020,0.028833,0.272275,0.271866,0.958997,0.080087
-0.098301,0.004984,0.351735,-0.459495,0.825713,-0.327205
-0.060599,0.004538,0.371157,0.836886,-0.227638,-0.497798
0.096238,0.023564,0.339636,0.876565,-0.380109,-0.295215
-0.036892,-0.004967,0.429650,0.850331,-0.371206,0.373019
0.069583,0.006297,0.417923,-0.326635,0.695890,0.639568
-0.058245,-0.021358,0.505706,-0.671175,0.525549,-0.522802
0.132465,0.003081,0.459140,0.730984,0.533984,0.424880
0.072086,-0.013166,0.518034,0.852825,0.458111,-0.250647
-0.066783,-0.042001,0.608678,-0.083110,0.359725,0.929350
-0.194022,0.206946,-0.312834,-0.067576,0.989500,-0.127762
-0.172225,0.202694,-0.281170,-0.234826,0.877838,-0.417441
-0.189604,0.191573,-0.231372,0.362727,0.861607,0.355052
0.022605,0.220701,-0.291353,0.717852,0.506724,0.477408
-0.056919,0.199335,-0.214525,-0.486860,0.734645,-0.472509
-0.306385,0.148403,-0.058093,0.075651,-0.104314,-0.991663
-0.232753,0.153815,-0.053974,-0.106541,-0.095400,-0.989721
-0.081807,0.172261,-0.083836,0.167517,-0.966109,-0.196395
-0.182386,0.147670,0.001545,-0.284536,-0.905136,0.315859
-0.104485,0.153235,0.005034,-0.189831,-0.980437,0.052040
-0.022458,0.159818,0.005177,0.233498,-0.763305,0.602366
-0.060159,0.146500,0.059066,0.030329,-0.999466,0.012153
-0.079745,0.135817,0.105775,-0.595695,0.778642,0.197138
-0.030704,0.137130,0.120592,0.245955,0.969199,-0.012621
-0.068406,-0.056632,0.239352,0.872778,-0.475906,0.108502
-0.063988,-0.063072,0.273905,0.828872,0.279003,-0.484901
-0.187838,-0.090441,0.363319,-0.173184,0.984639,-0.022213
0.124070,-0.045359,0.263637,0.697497,0.176506,0.694509
0.058244,-0.062339,0.326049,-0.472352,-0.528011,-0.705754
0.083425,-0.065412,0.350734,0.903861,0.044486,0.425508
0.056770,-0.083268,0.430937,-0.336072,0.818342,0.466232
0.062514,-0.089119,0.463030,0.206666,-0.058638,0.976653
0.303585,-0.056488,0.397128,0.580499,0.812429,0.054592
0.049404,-0.110047,0.567003,0.398861,0.488181,0.776266
0.248657,-0.084295,0.518864,-0.733904,0.587505,0.340913
0.068994,-0.119561,0.623810,0.133768,0.906310,-0.400884
0.149251,-0.112826,0.624038,-0.183684,0.742583,0.644074
0.158972,-0.117363,0.652699,0.543167,0.465603,0.698701
0.099919,-0.133316,0.708618,0.396994,0.478051,0.783494
0.123036,-0.135371,0.730014,-0.586583,-0.805068,-0.088239
0.170162,-0.133906,0.741798,0.958652,-0.086940,0.270975
0.071053,-0.155567,0.812362,0.970006,0.010772,-0.242841
0.089905,-0.158488,0.834702,-0.433984,0.181756,-0.882396
0.075470,-0.025314,0.583879,0.287307,0.693619,-0.660566
0.144685,-0.020482,0.587483,0.935701,0.331751,-0.120016
0.113909,-0.031317,0.631618,0.123585,0.827836,0.547188
0.151606,-0.031898,0.649038,-0.402121,0.898932,0.173838
0.095793,-0.046681,0.702411,-0.622488,-0.569708,-0.536602
0.126721,-0.047708,0.721776,-0.222870,-0.267808,0.937341
0.087843,-0.060142,0.768828,-0.788454,-0.022250,0.614691
0.097267,-0.064680,0.796402,-0.795121,0.583195,-0.166331
0.051318,-0.077855,0.844312,-0.655062,-0.555052,-0.512651
0.241732,-0.053702,0.799748,0.015607,-0.021382,0.999650
0.312861,-0.048440,0.803124,0.186551,0.619336,-0.762641
-0.098593,0.057810,-0.367581,0.997229,-0.017762,0.072242
-0.052501,0.058105,-0.348760,0.621127,-0.511661,-0.593636
-0.044695,0.051227,-0.310374,0.055320,0.110939,0.992286
-0.050586,0.041857,-0.265810,0.195917,0.305241,0.931904
-0.098153,0.025913,-0.202311,-0.707307,-0.542564,-0.453147
0.030115,0.040249,-0.222734,0.778457,-0.528583,0.338533
-0.179883,-0.003064,-0.086725,-0.432498,0.848179,0.305840
-0.109639,0.001322,-0.079145,-0.060901,0.819840,0.569344
-0.052204,0.003957,-0.066989,0.618672,0.234156,-0.749944
-0.203446,-0.029557,0.040960,0.909888,0.143074,0.389402
-0.181061,-0.033362,0.069506,0.604840,-0.376339,-0.701810
-0.109788,-0.028530,0.075799,0.367589,-0.873987,-0.317845
-0.090643,-0.032630,0.103830,0.857488,-0.513526,-0.031719
-0.158680,-0.050781,0.169703,0.884463,-0.429992,-0.181195
-0.021280,-0.034828,0.146478,0.416648,0.908367,-0.035680
0.007581,-0.037025,0.169446,0.528606,0.760863,0.376381
-0.876887,-0.122053,-0.299219,0.209350,0.801055,0.560787
-0.725056,-0.103321,-0.330683,-0.430741,-0.527834,-0.732020
-0.448495,-0.078873,-0.340179,-0.189716,0.931455,0.310483
-0.659082,-0.123803,-0.196476,-0.214061,-0.976799,-0.006440
-0.366764,-0.072879,-0.338491,-0.151580,0.188196,-0.970364
-0.688097,-0.136541,-0.141014,0.022263,0.995797,-0.088843
-0.615053,-0.131566,-0.134836,0.076471,-0.989408,0.123382
-0.479715,-0.115755,-0.158262,0.215110,-0.958623,0.186465
-0.092998,-0.064537,-0.262035,-0.592852,0.760214,-0.265710
-0.362198,-0.118533,-0.094448,0.876480,-0.133277,-0.462623
-0.310803,-0.117220,-0.079803,0.390727,-0.709230,0.586793
-0.090494,-0.087074,-0.142015,0.946887,0.155342,0.281555
-0.524190,-0.168296,0.097795,0.737750,-0.416373,0.531374
-0.418159,-0.157907,0.087927,-0.705370,0.707881,-0.036864
0.046901,-0.086046,-0.086811,0.541679,0.090871,0.835659
-0.040128,-0.108145,-0.009668,-0.246920,0.676872,-0.693451
-0.175762,-0.152343,0.164526,-0.479596,0.876666,-0.038007
0.041306,-0.123517,0.106032,0.989467,-0.144029,0.014540
0.103748,-0.120150,0.116130,-0.117375,-0.678189,0.725453
0.004638,-0.143267,0.195275,0.639762,0.762329,-0.097775
-0.483248,-0.230787,0.442722,0.664530,-0.664219,0.342365
-0.011856,-0.159515,0.273820,-0.221116,0.273698,0.936054
0.090643,-0.149126,0.264237,-0.491456,0.824890,-0.279333
0.215814,-0.135657,0.246646,0.262004,0.950753,0.165599
0.164275,-0.150735,0.304425,0.743750,0.489327,0.455406
0.120830,-0.164785,0.358114,0.778932,0.585803,0.223831
-0.095501,-0.206196,0.482910,-0.518777,-0.016952,0.854742
-0.004786,-0.197862,0.477761,0.859952,0.048212,0.508092
0.418451,-0.148832,0.403507,0.177483,0.978415,0.105845
0.089020,-0.207956,0.572466,-0.623039,0.237908,0.745133
0.512846,-0.146634,0.433140,0.155024,0.987911,0.000478
0.134820,-0.219076,0.650039,0.654270,0.598402,0.462435
0.172962,-0.219076,0.667429,0.940179,0.332327,-0.074976
0.234370,-0.215128,0.673865,0.812720,-0.568129,-0.129288
0.059125,-0.249223,0.775436,-0.446631,0.366328,-0.816287
0.230393,-0.228009,0.739338,-0.654821,-0.689230,-0.310115
0.073412,-0.258888,0.832528,0.761336,-0.077445,0.643716
-0.651280,-0.201810,-0.327822,0.117574,-0.528555,0.840718
-0.275604,-0.168439,-0.340923,0.007313,0.340335,0.940276
-0.158383,-0.163463,-0.313893,0.818910,-0.571361,-0.054156
-0.507845,-0.231224,-0.107663,0.340493,0.939663,-0.033139
-0.519035,-0.241032,-0.061726,0.431069,-0.776311,-0.459914
0.208012,-0.132584,-0.320557,0.649253,0.269223,-0.711330
-0.084899,-0.189367,-0.145219,-0.430670,0.461345,0.775683
-0.119653,-0.209563,-0.050714,0.364637,0.232173,0.901740
0.276638,-0.150439,-0.193530,0.479039,0.803033,-0.354486
-0.124515,-0.225222,0.028060,-0.210053,0.454327,-0.865716
-0.343938,-0.268982,0.165470,0.578718,-0.764423,0.284152
0.187690,-0.187760,-0.034982,0.783964,0.482661,-0.390434
0.460273,-0.149270,-0.119219,-0.653150,-0.662747,0.366282
0.050438,-0.224052,0.099625,0.949541,-0.300145,0.091020
-0.083870,-0.259906,0.231629,0.765525,0.536634,0.354958
0.058536,-0.243515,0.206173,0.893171,0.436948,0.106405
0.185478,-0.249375,0.294099,-0.487000,-0.291858,-0.823195
0.224060,-0.249956,0.313321,-0.714665,-0.692720,-0.096919
0.129373,-0.271322,0.386688,-0.506810,-0.860462,0.052434
-0.018040,-0.301915,0.483224,0.896660,0.149068,0.416869
0.715780,-0.190252,0.211750,0.118790,0.992825,0.013669
0.159264,-0.304550,0.575727,0.860253,-0.097251,-0.500507
0.172077,-0.320647,0.667487,0.651178,0.755214,0.074959
0.076652,-0.347426,0.768256,0.481766,0.433988,-0.761286
0.247772,-0.332348,0.762335,-0.468259,-0.563567,-0.680533
-0.295195,-0.307623,-0.326392,-0.050940,0.480278,0.875636
-0.724913,-0.394839,-0.036984,0.842678,-0.523129,-0.127396
-0.004786,-0.281424,-0.338034,0.175724,-0.508044,0.843215
0.287977,-0.254931,-0.352707,0.433890,0.735367,0.520552
-0.268683,-0.354447,-0.055061,0.658174,-0.551400,-0.512606
-0.023491,-0.335278,-0.048340,-0.280930,0.959683,-0.009368
0.448935,-0.264739,-0.224364,0.115092,0.903602,-0.412623
0.291069,-0.370838,0.291468,0.805738,0.538465,0.246662
0.242765,-0.384746,0.346844,0.797157,0.457762,0.393692
0.205064,-0.396894,0.396185,0.856040,0.417970,0.304132
0.452913,-0.398501,-0.303738,0.517055,0.824809,0.228791
0.334657,-0.524797,0.378021,0.632017,0.756004,0.170330
-0.335251,-0.600463,-0.199222,-0.954524,0.248721,-0.164384
0.694280,-0.193324,-0.950717,0.750418,-0.358264,-0.555445
0.608864,-0.198300,-0.949916,0.499599,-0.387904,-0.774552
0.521242,-0.202685,-0.947656,0.150044,-0.623235,-0.767506
0.436711,-0.210590,-0.957495,-0.566641,0.579561,0.585685
0.347471,-0.223471,-0.980006,0.439565,0.106969,-0.891818
0.258670,-0.230644,-0.986728,-0.145517,0.224487,0.963551
0.660556,-0.119712,-0.938102,0.650146,0.054792,-0.757831
0.575729,-0.134924,-0.968908,-0.202823,0.653554,0.729198
0.487374,-0.142097,-0.974114,-0.219840,0.225516,0.949112
0.399306,-0.149564,-0.981608,-0.645956,0.425267,0.633947
0.311683,-0.153512,-0.977775,0.599288,0.019055,-0.800306
0.226272,-0.162883,-0.990733,0.004569,0.096934,0.995280
-0.811353,-0.083563,-0.553560,0.137478,0.170848,-0.975659
-0.894414,-0.093362,-0.567518,0.233716,0.489831,-0.839906
0.573814,0.004394,-0.972855,0.021426,-0.090654,0.995652
0.486340,-0.002626,-0.979263,-0.299063,0.489278,0.819249
0.402254,-0.006289,-0.973942,-0.253855,-0.067972,0.964851
0.316986,-0.016096,-0.989846,-0.189249,0.448200,0.873671
0.228924,-0.023117,-0.994308,0.461909,-0.376820,-0.802899
0.552903,0.076836,-0.978376,-0.598005,0.202198,0.775568
0.464988,0.069226,-0.984955,0.011914,0.267651,0.963442
0.381195,0.064840,-0.982409,0.660857,0.314293,-0.681534
0.292538,0.056202,-0.993736,-0.135276,0.063641,0.988762
0.058096,0.130689,-0.715140,0.087020,-0.967649,0.236819
-0.578088,0.147376,-0.542719,-0.181133,0.835387,0.518960
-0.734629,0.148840,-0.508338,0.355365,0.919986,0.165350
-0.821663,0.137282,-0.529161,-0.002749,0.996683,0.081335
-0.780428,0.171377,-0.520923,0.120154,-0.988457,-0.092280
-0.861427,0.165088,-0.525929,-0.002749,0.996683,0.081335
-0.756426,0.168742,-0.528246,0.243267,-0.958601,-0.148005
0.512995,0.100400,-0.982724,-0.517720,-0.057046,0.853646
0.424932,0.094987,-0.982209,-0.487733,-0.074454,-0.869812
0.360872,0.235476,-0.536684,-0.160568,0.967119,-0.197229
0.335394,0.086787,-0.990303,-0.293074,0.504713,0.812018
0.280022,0.226552,-0.549212,-0.349251,0.870420,-0.346977
0.021280,0.158648,-0.711021,-0.208707,0.974328,-0.084415
-0.533614,0.180747,-0.538772,-0.195135,-0.945087,-0.262168
0.531111,0.095719,-0.978405,0.511523,-0.085754,-0.854980
0.446135,0.087082,-0.988473,-0.111938,0.432390,0.894712
0.385172,0.229920,-0.552330,-0.167731,0.984479,-0.051642
0.362198,0.081079,-0.991247,-0.671691,-0.002109,0.740828
0.302556,0.228312,-0.541661,-0.159400,0.928239,-0.336101
0.274278,0.075961,-0.989932,-0.255844,0.186111,0.948634
0.039540,0.152065,-0.721347,-0.153095,0.979233,0.132906
-0.599885,0.172547,-0.545236,-0.216398,0.795704,0.565710
-0.841545,0.161578,-0.533680,0.114491,-0.992475,-0.043411
0.545541,0.091619,-0.981007,0.681615,0.104888,-0.724155
0.475298,0.240308,-0.539515,-0.261588,0.957635,-0.120443
0.457330,0.083420,-0.988215,-0.261000,0.249064,0.932655
0.394888,0.237235,-0.534968,-0.168206,0.919518,-0.355238
0.371914,0.078444,-0.988187,-0.672997,0.278685,0.685135
0.283410,0.071423,-0.992220,-0.177480,0.181145,0.967309
0.046168,0.144454,-0.740568,-0.112946,0.992161,-0.053479
-0.588542,0.172842,-0.548068,0.167264,0.905262,0.390543
-0.744058,0.176790,-0.509282,0.322816,0.936192,0.139049
-0.830498,0.163918,-0.530563,-0.002749,0.996683,0.081335
0.279730,0.242648,-0.545007,-0.300809,0.843552,-0.444899
0.019806,0.164061,-0.721003,0.292191,-0.941805,-0.166216
-0.281204,0.236655,-0.466863,0.431118,0.335860,-0.837458
-0.781314,0.184257,-0.528589,0.107756,-0.989768,-0.093535
-0.860690,0.180309,-0.526844,-0.002749,0.996683,0.081335
0.524922,0.261094,-0.534681,-0.254965,0.949182,0.184514
0.510051,0.099668,-0.985126,-0.304557,0.031761,0.951964
0.422428,0.092495,-0.990618,-0.119358,0.533148,0.837560
0.334365,0.085617,-0.994508,-0.197408,0.326621,0.924310
0.535083,0.082401,-0.981866,-0.564731,0.095614,0.819718
0.468372,0.241773,-0.540288,-0.261588,0.957635,-0.120443
0.450261,0.074201,-0.990389,-0.169744,0.335296,0.926695
0.385612,0.239433,-0.532279,-0.194073,0.968129,-0.158308
0.362198,0.067913,-0.992392,0.390453,-0.024150,-0.920306
0.038951,0.148108,-0.721890,-0.153095,0.979233,0.132906
-0.752156,0.178407,-0.510712,-0.016912,0.996770,0.078510
-0.836098,0.165526,-0.531964,0.114491,-0.992475,-0.043411
0.589427,0.051084,-0.973971,0.895368,0.443316,-0.042288
0.501656,0.043760,-0.978519,-0.387187,0.346406,0.854452
0.413885,0.039668,-0.974915,-0.714667,-0.029731,-0.698833
0.325525,0.027664,-0.992077,-0.323296,0.153341,0.933791
0.270746,0.198308,-0.539773,-0.230846,0.874945,-0.425655
0.016862,0.142257,-0.645348,-0.392014,-0.880650,-0.266046
-0.627128,0.143133,-0.541117,-0.472185,-0.832853,0.288786
-0.784406,0.150010,-0.498556,0.232964,-0.937246,-0.259418
-0.867759,0.138015,-0.516890,-0.054800,0.982695,0.176942
0.477356,0.038204,-0.982695,-0.226662,0.401869,0.887201
0.410353,0.208259,-0.543262,-0.200443,0.963947,-0.175013
0.390471,0.037909,-0.970110,-0.440185,0.383360,0.811956
0.305059,0.022831,-0.995738,0.009666,-0.020605,0.999741
0.062514,0.101865,-0.757730,0.782236,-0.544118,0.303384
-0.567190,0.153083,-0.531793,-0.081424,0.671495,0.736522
-0.805317,0.146938,-0.510941,-0.327599,0.935292,0.133822
0.561446,0.046690,-0.974657,-0.320609,0.304427,0.896958
0.510051,0.044492,-0.981093,-0.336180,0.418493,0.843710
0.423166,0.041276,-0.975058,0.340466,0.815366,0.468254
0.334954,0.031031,-0.987529,-0.411842,0.202078,0.888567
0.279141,0.208116,-0.542633,-0.230846,0.874945,-0.425655
0.024812,0.142838,-0.664941,0.743600,0.668322,0.020092
-0.690303,0.171529,-0.486313,0.366306,0.921818,0.126773
-0.777633,0.156013,-0.511255,0.272872,-0.960788,-0.049274
-0.857009,0.151332,-0.511484,0.241794,-0.949667,-0.199168
0.549959,0.077568,-0.976116,-0.470540,0.424571,0.773518
0.481630,0.253626,-0.539258,-0.261588,0.957635,-0.120443
0.465428,0.067913,-0.986070,0.045667,-0.378309,-0.924552
0.401666,0.245873,-0.546523,0.103228,-0.954155,0.280948
0.381635,0.067475,-0.974772,0.645326,0.297723,0.703502
0.292835,0.052540,-0.997111,-0.022319,-0.016780,0.999610
0.141444,0.151618,-0.734733,0.820378,0.570821,0.033804
0.053530,0.132593,-0.768342,0.283410,0.905150,-0.316832
-0.237611,0.253332,-0.432768,0.884544,0.466126,0.017535
-0.581621,0.186750,-0.543119,-0.097651,0.863251,0.495239
-0.734925,0.188500,-0.515660,0.322816,0.936192,0.139049
-0.819748,0.179139,-0.525786,-0.050060,0.990503,0.128054
0.486637,0.134647,-0.988158,0.286780,-0.176606,-0.941577
0.399306,0.132593,-0.980636,0.235781,0.418024,0.877304
0.062366,0.144008,-0.902634,0.909845,0.082925,0.406577
-0.017303,0.170502,-0.827951,0.962799,-0.121298,0.241464
-0.228038,0.295778,-0.494923,0.691302,-0.152894,0.706204
-0.298727,0.327238,-0.409056,0.775948,0.624660,0.087779
-0.386646,0.295046,-0.472898,0.161022,-0.294747,0.941911
0.425080,0.221872,-0.987672,-0.199148,-0.586341,0.785203
0.005667,0.258459,-0.838048,-0.682399,0.730680,0.020957
-0.196233,0.406558,-0.451732,0.985399,0.006790,-0.170127
-0.347619,0.423244,-0.389033,-0.705348,-0.677162,0.209610
-0.524482,0.379779,-0.467578,-0.132494,0.054748,0.989671
0.122448,0.549548,-0.630245,0.985488,-0.059579,0.158946
-0.209487,0.522465,-0.646091,0.192070,-0.955646,0.223271
-0.676020,0.559204,-0.487171,-0.261851,0.112183,0.958566
-0.270306,0.811357,-0.427591,0.222794,-0.970914,-0.087684
