0.004464,-0.518449,0.467823,0.850449,-0.159679,-0.501238
-0.003654,-0.694741,0.443358,-0.487060,-0.863982,0.127700
-0.224727,0.022900,0.693595,-0.529514,0.799418,-0.283806
0.471028,-0.139100,0.703837,0.146900,0.864970,0.479840
0.233840,0.204053,0.846752,-0.163781,-0.470066,0.867302
-0.474497,-0.140331,0.085680,0.200281,-0.907755,-0.368602
-0.273442,-0.219222,0.599985,-0.310363,0.950418,-0.019514
-0.522466,-0.611690,0.541759,0.786198,0.457972,-0.414914
-0.347441,0.069930,0.738274,0.974101,-0.222448,0.040540
0.677163,-0.158135,0.112353,0.161070,-0.980125,0.115808
0.289806,0.287572,0.533499,0.972891,-0.089329,-0.213317
0.376697,-0.141384,0.472359,0.445560,0.873747,-0.195044
-0.180972,0.039827,0.631824,0.630462,0.745735,0.215398
-0.050137,-0.104955,0.580716,0.788952,0.429568,0.439348
-0.014503,-0.160712,0.790028,-0.122777,0.919773,0.372752
0.204092,0.038128,0.404445,0.986208,-0.161502,0.036211
-0.052494,0.103608,0.371060,0.583746,0.808694,-0.072484
-0.319864,0.523252,0.443043,0.921686,0.267514,0.280948
0.298359,0.082406,0.651663,-0.534572,0.828699,0.165806
0.378493,-0.290851,0.407870,0.420680,0.385746,0.821114
-0.064330,-0.673538,0.581828,-0.211966,-0.926946,0.309583
-0.281809,-0.400492,0.582579,-0.602758,0.796243,0.051771
0.576885,-0.238725,0.473425,0.269438,-0.509586,0.817144
0.513172,0.471126,0.234813,0.975812,0.170251,-0.137136
0.471213,0.290734,0.795419,-0.575515,-0.571583,0.584873
0.129469,0.194741,0.821461,-0.683860,-0.729020,-0.029422
-0.124574,-0.311526,0.504108,0.341220,-0.727859,0.594803
-0.127798,-0.140741,0.600721,-0.598901,0.371282,-0.709554
-0.338146,-0.398676,0.292769,-0.302231,-0.888885,0.344296
-0.025099,-0.355160,-0.990343,-0.078281,-0.427171,0.900776
0.370005,-0.128382,0.603004,0.431893,-0.837616,0.334468
0.766655,-0.439733,0.540257,0.366945,0.916809,0.157520
-0.085464,0.002753,0.766900,0.448683,0.839035,0.307740
-0.277906,-0.293370,0.065766,-0.298132,0.954356,-0.017939
-0.772667,-0.534556,0.348262,0.816215,0.011672,0.577630
-0.334303,-0.241713,0.017466,-0.680293,0.683873,0.263663
0.221134,-0.134708,0.594158,0.450365,0.842618,0.295240
0.750420,-0.159658,0.516603,0.186070,-0.959186,-0.212932
0.654106,-0.535024,0.403094,0.472374,0.193460,0.859904
-0.603902,-0.666100,0.503116,-0.620631,0.759193,0.196069
-0.572603,-0.133712,0.696688,0.728102,-0.510435,0.457518
-0.295692,0.466616,0.445100,-0.578244,-0.595083,0.558131
0.326495,0.374663,0.562259,0.880158,-0.289141,0.376455
0.087204,-0.173539,-0.463197,0.491085,0.869974,-0.044496
-0.717570,0.260571,0.049756,-0.275920,-0.952063,0.132075
-0.536409,0.031978,0.493955,0.158017,0.014995,0.987323
0.612208,-0.377240,0.601081,0.392732,0.914389,-0.098253
-0.784938,0.089727,0.098040,0.047392,-0.996197,-0.073112
0.128232,0.146012,0.804626,0.504259,0.856854,-0.107351
0.356307,-0.183203,0.264804,0.332091,0.336510,0.881179
-0.622373,0.081411,-0.026177,-0.424919,-0.820064,0.383327
-0.084163,-0.040178,0.395479,-0.436094,0.894901,-0.094736
0.149242,-0.044864,0.195404,0.972202,0.229817,0.044810
0.194053,0.162938,0.868244,0.440238,-0.677646,0.589056
0.195850,-0.563840,0.516588,0.790682,0.387197,0.474236
-0.337030,0.563371,0.436465,0.873283,0.486169,-0.031879
-0.108085,-0.001405,-0.031779,0.483429,0.738839,0.469481
0.097614,0.189528,0.062011,-0.211778,0.101255,0.972059
0.286334,-0.019327,0.952722,0.148660,-0.980301,0.130040
-0.491848,0.535199,0.111437,0.628423,0.745647,-0.221575
-0.344218,-0.370447,0.521904,0.475769,-0.868068,-0.141778
-0.693338,0.418649,0.050402,-0.316494,-0.394877,-0.862499
0.178619,-0.371442,0.738364,0.974832,0.045460,-0.218255
-0.421194,-0.049549,-0.104964,0.136923,-0.387820,-0.911509
0.292284,0.177814,0.537508,0.930585,0.063698,0.360493
-0.699409,0.520499,0.047338,0.413169,0.414533,0.810835
-0.178369,-0.253602,0.379650,0.385337,-0.913672,-0.129302
0.300776,-0.076139,0.945228,-0.221162,0.974268,0.043469
0.841093,-0.102377,0.188090,-0.350025,0.887292,-0.300324
-0.708458,-0.560561,0.280348,0.873619,-0.393268,-0.286584
-0.202477,0.242122,0.347811,0.586871,0.414805,-0.695355
0.589712,-0.183906,0.506300,0.043942,-0.958692,0.281033
0.057453,0.298232,0.857055,0.915676,0.370253,0.156368
0.081810,0.642556,0.079087,0.909451,-0.227102,-0.348316
0.400312,-0.026122,0.798829,-0.644899,0.692254,-0.323867
0.133252,-0.133771,0.043163,-0.606223,0.783864,0.134353
-0.472015,-0.494261,0.581888,-0.485615,-0.834533,-0.260256
-0.160148,0.022256,0.599069,0.761478,-0.026429,-0.647651
0.023366,0.487467,0.093760,-0.173678,0.981138,-0.084872
-0.473566,0.376947,0.157077,0.385487,0.197912,0.901238
0.135915,0.479618,0.545558,0.951931,0.294426,-0.084506
0.348375,0.560091,0.587520,0.832744,0.051325,-0.551275
0.172173,-0.229647,0.719802,0.986160,0.061061,0.154142
0.073878,-0.119246,-0.213231,0.525054,0.849138,0.057298
-0.845428,-0.367342,0.293850,-0.091422,-0.228543,0.969232
-0.507592,0.055581,0.487768,-0.280003,0.517397,0.808640
0.012150,-0.225021,0.866096,-0.641364,0.742918,0.191641
0.145894,0.089493,0.400120,0.911253,-0.323507,-0.254874
0.391260,0.034322,0.867643,0.125960,-0.934262,0.333600
-0.190145,0.011889,0.785642,-0.096895,-0.830989,0.547785
-0.005886,0.315567,0.767695,-0.374974,0.842234,-0.387345
0.104121,0.353578,0.356056,0.925280,0.281091,0.254645
0.091108,-0.065597,0.610858,-0.001567,0.965598,0.260036
0.057702,0.370329,0.336727,0.968482,0.057847,-0.242273
0.387171,0.713659,0.215334,0.305176,0.420166,0.854592
0.443012,0.115439,0.532462,0.491811,-0.861500,0.126256
-0.298605,0.096404,-0.070436,0.518521,0.613636,-0.595471
-0.567772,0.105599,0.463092,-0.198025,0.826912,-0.526311
0.296127,0.335598,0.757092,0.970193,-0.168497,0.174165
0.098916,0.487935,0.549088,0.975945,0.214209,-0.040564
0.228264,0.105892,0.337704,0.838699,-0.297057,0.456444
0.289061,0.141384,0.563250,0.991468,-0.119196,-0.052757
-0.335665,0.399614,0.149028,-0.698922,-0.295889,-0.651120
-0.260425,0.128031,0.726245,-0.050243,-0.929143,0.366290
-0.429130,-0.399028,0.454427,-0.176604,0.888933,0.422622
0.212395,-0.700246,0.436705,0.857338,-0.132237,-0.497479
0.108645,-0.143317,0.669009,-0.691283,0.664345,0.284207
-0.146140,0.074792,0.712383,0.403811,0.897638,0.176588
0.131455,0.300282,0.183930,0.672105,-0.229745,-0.703912
0.066380,-0.193745,0.881400,-0.567622,0.739123,0.362633
0.408120,0.252079,0.498911,0.856676,-0.512583,0.058009
-0.051317,-0.184374,0.684869,-0.694567,0.242469,-0.677337
0.233530,-0.087384,0.684584,-0.000927,0.675305,0.737538
0.094702,-0.217524,-0.977668,0.908515,0.274711,0.314854
0.088131,-0.161650,0.655974,0.524914,-0.345219,-0.778003
0.139388,-0.078131,0.429631,0.047900,0.661240,0.748644
-0.061542,-0.135118,-0.104303,-0.186355,0.281179,0.941387
-0.054166,0.171606,0.429361,0.065431,0.014515,0.997752
0.102574,0.161650,0.813186,-0.626279,-0.694907,0.353383
0.352218,-0.012651,0.142194,-0.715198,0.681268,-0.156098
0.684970,0.459178,0.566329,0.927788,-0.341292,-0.150765
-0.549301,-0.297938,0.300113,0.220406,-0.893707,0.390781
0.201180,-0.088966,0.826583,-0.388865,0.910148,-0.142881
-0.158847,0.249268,0.422873,0.920111,0.379003,0.098757
0.449212,0.048905,0.900954,0.956970,-0.272584,-0.099527
0.552153,-0.900316,0.415154,-0.093127,-0.926956,0.363429
0.315590,-0.445766,0.482121,-0.487175,-0.474710,0.733015
0.351223,-0.100679,0.845446,0.439608,0.704116,-0.557643
-0.479267,0.153391,0.573267,-0.529914,-0.843217,-0.090416
0.190085,0.765198,0.142930,0.678197,-0.733964,-0.036680
0.050326,-0.364179,0.782143,0.945362,-0.294016,0.140871
0.430926,-0.568877,0.611955,0.914321,0.403821,-0.030760
0.300776,-0.750030,0.516498,0.891922,0.405103,0.200914
0.402109,-0.080180,0.873185,0.588224,-0.799554,-0.121271
0.938893,-0.056285,0.140812,0.961602,-0.271429,0.040586
0.174405,0.787396,0.119591,0.722257,-0.690684,-0.036065
-0.133559,-0.066769,0.038567,-0.100584,-0.531905,0.840809
-0.483666,-0.152571,0.666982,0.190472,-0.978372,0.080675
-0.411960,-0.550838,0.501810,0.878775,-0.383415,0.284161
0.357053,-0.015286,0.946970,-0.814500,0.376788,0.441158
0.384013,0.497423,0.577367,0.989532,-0.122150,-0.076849
0.567526,0.062200,0.814598,0.130577,-0.986813,0.095653
0.140504,-0.100211,0.352302,-0.250336,-0.922207,0.294730
-0.256151,0.291321,0.158910,0.095816,0.180494,0.978898
0.034586,0.000000,0.881625,0.297821,-0.509638,0.807200
0.324388,0.402425,0.566569,0.934641,0.239086,0.263218
0.178929,0.363945,0.576421,0.278895,0.456586,0.844835
0.577812,0.472472,0.363941,0.698746,0.467960,0.541080
0.067867,-0.191285,-0.938650,0.823800,0.548761,0.142177
-0.297118,0.074441,0.726004,0.564236,-0.054760,0.823795
0.217230,0.188590,0.635744,0.995497,-0.094145,0.011112
-0.181592,0.126625,0.451183,0.581113,0.795288,-0.172699
-0.088627,-0.146773,0.103942,-0.053328,0.356391,0.932814
0.218470,0.018508,0.857971,0.890828,0.302915,0.338628
-0.200865,-0.246574,0.820260,0.047864,0.998216,0.035694
0.139823,0.405353,0.491207,0.981317,0.191015,0.023046
0.243758,-0.241654,0.420620,0.906281,0.206053,0.369049
0.141060,-0.017395,0.577968,0.213952,0.532808,0.818743
0.255099,-0.528523,0.769438,-0.264023,-0.216897,0.939812
-0.490237,-0.168971,0.099212,-0.132592,0.890647,0.434933
0.379053,-0.328746,0.788601,0.732394,0.608102,0.306287
0.539946,-0.591309,0.399369,-0.476736,-0.189909,-0.858287
0.349737,0.687244,0.217782,-0.199196,0.387888,0.899924
0.372297,-0.074616,0.944958,0.636423,0.737938,0.224529
0.524637,0.268420,0.536998,-0.531337,0.797268,0.286435
-0.055096,-0.220511,0.836675,0.456215,-0.852692,-0.254525
0.438242,-0.348893,0.821536,-0.663221,-0.684769,-0.302043
-0.168640,0.057983,0.710205,-0.308022,0.901065,0.305294
-0.443879,0.281832,0.083953,0.421350,0.267533,0.866539
0.112363,-0.051013,0.942810,-0.366886,-0.925558,-0.093471
0.162009,0.141384,0.808575,0.800197,0.509910,-0.315715
0.011280,0.458417,0.341428,0.940729,0.335249,0.051342
0.087390,0.474112,0.264159,0.977327,-0.037939,0.208309
-0.249455,0.126333,0.155170,0.421037,0.075195,0.903921
0.282800,0.303209,0.562965,0.913278,-0.348826,0.210342
-0.463462,-0.321014,0.416175,0.673856,-0.212687,-0.707589
-0.251997,-0.009254,0.687512,-0.275877,0.959493,-0.057133
-0.339077,0.111866,0.748262,-0.334762,0.831268,-0.443765
-0.126557,0.351821,-0.016836,-0.094906,-0.286557,-0.953351
-0.111929,0.044102,0.541038,0.414364,0.877377,0.241893
0.785312,-0.365761,0.409146,-0.271585,-0.961572,-0.040263
0.013697,0.622174,0.334219,0.072711,0.992673,0.096507
-0.513107,-0.109347,-0.293204,-0.657370,0.741145,0.136268
0.387731,0.462048,0.555350,0.972429,-0.220985,-0.074480
0.254849,-0.234626,0.535451,0.155491,-0.510183,-0.845894
0.507282,-0.067237,0.862447,0.197769,-0.953290,0.228312
-0.324199,0.142615,-0.009672,-0.665181,0.580191,-0.470014
-0.003408,0.023838,0.165983,-0.092181,0.172948,0.980608
0.399132,-0.898325,0.359270,0.929641,0.157865,0.332936
-0.044686,-0.063547,0.454337,0.100298,0.985768,-0.134914
0.232293,0.187127,0.364031,-0.354862,-0.082992,-0.931228
-0.487449,0.398442,0.157873,0.217045,0.335329,0.916758
-0.189400,0.188532,0.163956,-0.403826,-0.326975,0.854407
0.170686,-0.060091,0.808065,0.228618,-0.271475,-0.934898
0.086769,-0.204814,-0.558084,-0.150431,0.987224,0.052536
0.508833,0.331849,0.819178,-0.560475,-0.544414,0.624084
-0.400865,-0.438151,0.027333,0.909574,-0.374267,-0.180555
0.086088,-0.196088,-0.539326,0.915358,0.352552,-0.194493
0.505054,0.379466,0.234287,-0.766755,0.311201,0.561463
0.079268,0.257585,0.384005,-0.465164,-0.010113,0.885167
0.232599,-0.037484,0.868078,0.036293,0.792946,0.608210
0.003968,-0.188122,0.821116,0.324349,-0.945811,0.015499
0.016795,-0.173012,-0.967155,-0.302357,-0.951928,-0.049118
0.014068,-0.136582,-0.217827,0.246561,0.958303,0.144443
0.073692,0.403420,0.022828,-0.480034,0.803910,0.351136
-0.330709,-0.616669,0.511151,-0.642533,0.104116,-0.759152
-0.148311,0.152102,0.156717,0.398134,0.396872,0.827032
0.411778,-0.077838,0.927356,0.540134,0.837491,0.082845
-0.374590,0.612217,0.442052,0.903539,0.418753,0.090902
0.748003,-0.374254,0.602763,0.367256,0.930106,-0.005170
0.112303,0.256120,0.847428,0.960334,0.276325,0.037455
0.187482,-0.114384,0.675497,-0.591631,0.711687,0.378780
0.006756,-0.149057,-0.640069,-0.238867,-0.966296,-0.095997
-0.327051,0.276795,-0.072163,-0.699972,-0.470063,0.537662
0.533065,0.319374,0.818698,0.664230,0.542798,-0.513974
-0.407870,0.364179,0.149583,-0.168537,0.455996,0.873878
0.383018,0.145719,0.772321,-0.133288,0.256345,0.957351
-0.481684,-0.157783,0.096884,-0.132592,0.890647,0.434933
-0.017352,-0.256179,-0.881054,-0.799460,-0.559462,-0.218780
0.674806,-0.770177,0.424645,0.789215,0.613417,0.029316
0.482429,0.330444,0.236029,0.708012,-0.165909,-0.686435
0.504494,0.473995,0.514215,-0.346811,0.042476,0.936973
0.479516,0.227656,0.783300,-0.828385,0.042939,0.558511
0.199504,-0.119187,0.240820,0.218647,0.219773,0.950733
0.067246,0.360138,0.778554,-0.386977,0.816956,-0.427588
-0.349052,-0.559447,0.483307,0.819233,-0.073058,0.568789
-0.650138,0.208211,0.054907,-0.193140,-0.721894,0.664505
0.267806,-0.121413,0.929504,0.723543,0.413112,-0.553013
-0.509514,-0.126216,0.667658,-0.115927,0.939975,-0.320948
-0.358225,0.466733,-0.055072,0.358035,-0.465109,-0.809620
0.111187,-0.186950,-0.028445,0.087944,-0.983611,0.157402
-0.310691,-0.262973,0.621581,0.034766,-0.988411,0.147763
-0.355067,0.493206,0.416055,-0.498678,-0.792470,0.351157
-0.216545,0.350181,0.442802,0.720407,0.392913,0.571519
0.196160,0.031334,0.525103,0.925594,-0.061742,0.373448
-0.303871,0.442662,0.404746,0.964112,0.258726,-0.059564
0.183699,-0.096228,0.807179,0.003099,0.242027,0.970265
0.302758,0.659072,0.212570,-0.632860,0.356047,0.687546
0.535607,-0.278552,0.208125,-0.153669,0.968888,-0.194014
0.312056,-0.011304,0.843388,0.055264,0.998052,0.028964
0.221073,-0.060852,0.946925,0.215639,-0.605682,0.765930
-0.629250,-0.459587,0.550695,0.945997,0.209763,0.247162
0.619400,-0.144079,0.753218,-0.034038,-0.998896,0.032362
0.065385,0.749327,0.220005,0.988579,0.042058,0.144717
-0.260490,-0.122584,0.643764,0.186698,-0.980249,-0.065236
0.608305,-0.023486,0.817376,-0.575749,0.610079,0.544349
-0.255035,0.434227,0.427168,0.705177,0.672610,-0.224326
0.915651,-0.114209,0.168657,-0.576452,0.804512,-0.143048
0.201921,-0.107884,0.463077,0.759790,0.362639,0.539641
0.082741,0.293195,0.851123,0.915676,0.370253,0.156368
0.627767,-0.001113,0.676639,0.208084,-0.972994,0.099921
0.455965,-0.516282,0.442532,0.785179,0.615376,0.069329
0.088256,-0.181269,-0.952812,-0.691510,-0.700647,0.175803
-0.426338,-0.307427,0.061365,0.493732,0.752534,-0.435800
0.297182,-0.519093,0.396200,0.924505,-0.005618,-0.381128
-0.853175,-0.326637,0.299782,-0.121603,-0.138371,0.982887
-0.030678,-0.107005,0.290170,-0.258954,0.932059,-0.253395
0.025844,-0.137987,-0.675723,-0.404741,-0.913512,-0.041000
0.502201,-0.010366,0.800450,-0.676411,0.654040,0.338673
-0.520049,0.381984,0.072884,0.193894,0.944751,0.264291
0.108524,-0.093944,0.635038,-0.114618,0.987410,0.109018
-0.053980,0.069755,0.162995,-0.020182,0.200523,0.979481
0.259313,0.022081,0.816956,0.985726,0.112712,-0.125059
0.042828,-0.132423,-0.693114,0.474493,0.880141,-0.014436
-0.391446,0.026356,0.457310,0.269443,0.936719,-0.223515
0.176016,-0.319608,0.819539,0.988865,-0.004181,0.148756
0.344161,-0.062492,0.925359,0.028940,-0.916762,0.398384
-0.667119,0.250557,0.106225,-0.092168,0.380291,0.920263
-0.032910,-0.155734,0.252730,0.036181,0.969052,0.244191
-0.120977,0.135294,0.003229,0.588853,-0.276802,-0.759363
-0.296373,-0.415720,0.701885,0.047670,0.917911,0.393912
0.310941,-0.205049,0.781918,0.632642,0.724557,-0.273462
0.185870,0.013881,0.802208,0.515796,0.073310,-0.853569
0.393182,-0.095877,0.838282,0.316834,-0.904589,-0.285192
-0.281684,0.045098,0.495787,-0.030779,-0.877968,0.477729
-0.338952,-0.258170,0.606743,0.061012,-0.998134,0.002277
0.622252,0.041056,0.827499,0.500699,0.383689,-0.775940
-0.490857,0.039768,0.491627,0.068847,0.192228,0.978932
0.505485,-0.155851,0.564692,0.499116,-0.553988,0.666319
-0.045738,-0.009840,0.145949,0.044632,0.239706,0.969819
0.414006,-0.054762,0.828670,-0.349887,0.909520,0.224394
0.112863,0.216470,0.570774,0.969655,0.243722,-0.019211
0.068052,0.822244,0.216700,0.983795,0.144498,-0.106148
0.501086,-0.601734,0.686266,0.878759,0.469257,0.087072
0.052993,-0.118485,-0.062311,0.749607,0.661762,-0.012657
-0.174961,0.134356,-0.098866,-0.216579,-0.906759,0.361776
0.377192,-0.469428,0.550379,0.784921,0.618107,0.042934
0.136475,0.491039,0.540873,0.912433,0.375314,-0.163112
-0.441707,0.355804,0.061620,0.526957,0.736414,0.424277
-0.152647,-0.275741,0.857220,-0.533225,0.845842,-0.014909
-0.157174,-0.359435,0.673815,-0.530732,0.811237,0.245395
0.010104,-0.141560,-0.693625,0.358453,0.932818,0.036911
0.022065,-0.143200,-0.735196,0.413811,0.910320,-0.008899
0.253798,0.414373,0.221251,0.964220,-0.260927,0.046870
-0.335544,0.077311,0.155440,0.299749,0.512353,-0.804764
0.483919,0.298876,0.806668,-0.673667,-0.436571,0.596304
0.136971,-0.056050,0.629496,0.725281,-0.515578,-0.456231
-0.714843,0.209675,0.016565,-0.430005,-0.861366,0.270451
-0.073257,0.166627,0.889329,0.602038,0.758592,-0.249175
0.649457,0.477802,0.334955,-0.612034,-0.649400,-0.451325
0.096128,0.504393,0.499212,-0.807298,-0.019939,-0.589807
0.088566,0.278493,0.858932,0.905317,0.301422,0.299243
0.437497,0.372555,0.215950,-0.754374,0.603317,0.258707
-0.298790,0.230234,0.431494,-0.665095,-0.739809,-0.101642
0.339697,-0.010835,0.941038,-0.653590,0.719044,-0.236209
0.861111,-0.060326,0.175895,-0.538531,0.796006,-0.276331
0.470037,-0.022256,0.943456,0.964279,0.049636,0.260197
-0.455965,0.035844,0.468379,0.422930,0.901015,-0.096445
0.472019,-0.569756,0.533393,0.847036,0.530520,-0.032847
-0.196095,0.054469,0.323136,0.419892,0.892695,-0.163665
0.318748,0.408575,0.578824,-0.491955,0.530584,-0.690261
0.166408,-0.032565,0.698896,0.029699,0.903729,-0.427074
0.054230,-0.046035,0.695532,0.087590,0.931979,-0.351771
0.082245,0.295010,0.858346,0.915676,0.370253,0.156368
0.291293,0.393288,0.217331,-0.783685,0.551149,-0.286484
0.269167,-0.619597,0.453886,0.418224,-0.904774,-0.080451
0.016054,0.448635,0.345964,0.971154,0.182676,0.153262
0.586490,-0.700774,0.579635,0.744137,0.653202,0.139953
0.140749,0.571805,0.493595,0.629630,-0.009936,-0.776831
-0.479948,0.637343,0.363175,0.738835,0.551213,0.387668
-0.101083,0.427903,-0.110641,0.450342,0.861260,0.235421
0.079022,0.544102,0.124397,-0.706870,0.476874,0.522423
-0.605452,0.414724,0.466847,0.631338,0.773924,0.049532
0.039666,-0.084573,0.671427,0.763644,0.341661,0.547829
0.014999,-0.135001,-0.283337,-0.268767,0.949675,-0.160877
0.377627,0.051189,0.556357,0.790083,-0.594476,-0.149555
0.058940,0.602905,0.259803,0.895759,0.216099,0.388480
0.201055,0.363477,0.530089,-0.509530,-0.809509,0.291675
0.308459,-0.332494,0.917023,0.497203,0.447965,0.743046
0.338767,0.226192,0.878246,-0.288398,0.738979,-0.608881
-0.291043,0.415018,0.364572,0.859831,0.491415,-0.138569
-0.257202,-0.656671,0.606473,-0.200187,-0.959574,0.197845
-0.047909,0.168560,0.361538,0.467447,0.782441,-0.411435
0.797523,-0.413787,0.590659,0.379008,0.920796,-0.092130
0.108709,-0.053005,0.750920,0.410661,0.907787,0.085319
-0.043074,-0.085569,0.562844,0.346236,0.804558,0.482502
-0.079018,0.035785,0.623233,0.526915,0.837204,-0.146458
0.142921,0.655909,0.500939,0.457666,-0.870374,0.181633
-0.054105,-0.013061,0.507201,0.311741,0.949182,-0.043262
-0.400865,0.222092,0.669415,0.785972,-0.288497,0.546825
-0.300216,-0.322127,0.291883,-0.769773,0.483233,-0.417056
0.203222,0.371793,0.422843,0.976064,0.216555,-0.020078
0.382337,0.487584,0.372366,0.874341,-0.449669,-0.182553
-0.068854,-0.221155,0.419959,-0.279955,0.742431,0.608623
0.265884,-0.132892,0.928287,0.785752,0.616406,-0.051356
0.369509,0.380110,0.353233,-0.352373,0.501444,-0.790182
0.365046,0.063781,0.925419,0.838612,-0.542888,0.044755
0.082987,0.366171,0.263843,0.957032,0.144560,-0.251381
-0.355808,0.054528,0.504168,-0.054948,-0.861557,0.504679
-0.010906,-0.346668,0.076954,0.194969,0.742331,-0.641040
-0.355437,0.333489,-0.039468,0.541522,0.475723,-0.693139
0.441401,-0.536079,0.432965,0.769862,0.637629,-0.027233
-0.266501,0.221975,0.328377,0.445787,0.477722,-0.757004
0.280633,0.202003,0.349043,0.839427,0.027424,0.542779
0.610476,-0.392937,0.517098,0.287476,0.956491,-0.049830
-0.244931,-0.636992,0.613021,-0.408683,0.900417,-0.149088
-0.582272,0.316856,0.099452,-0.234906,0.007879,-0.971986
-0.109266,-0.217875,0.463528,-0.702458,0.708451,0.068191
-0.322837,0.518039,0.442953,0.969471,0.225026,0.097413
0.191386,0.136641,0.870692,0.265075,0.619075,-0.739244
-0.347009,0.213717,0.351280,0.536217,0.781669,0.318534
0.089867,0.400433,0.166389,-0.624793,0.409263,0.664934
0.154697,0.333489,0.484944,0.976223,-0.132576,0.171501
-0.280259,0.119480,0.641661,-0.246856,-0.926503,0.283997
-0.440096,0.377592,-0.154509,0.517113,-0.855853,-0.010507
0.459498,-0.578247,0.667192,0.959394,0.270536,-0.079833
-0.279763,-0.404417,0.698716,0.021161,0.915468,0.401834
0.430926,-0.233278,0.859698,0.886607,0.359841,0.290591
0.254664,0.231755,0.567035,0.980329,-0.008862,0.197173
0.293710,0.402015,0.573718,0.945969,0.028070,0.323040
0.092409,0.462575,0.493009,0.981632,0.175470,0.074890
0.675180,-0.131779,0.195449,-0.210284,0.972962,0.095524
-0.072883,-0.001054,0.707937,-0.128973,0.972488,-0.193991
0.380540,-0.011011,0.954930,0.776990,-0.154348,-0.610298
0.121537,0.004100,0.190614,0.996838,0.038448,0.069538
-0.411029,0.011070,0.481880,0.393199,0.889574,0.232492
-0.240346,0.044336,0.056274,0.533134,0.549410,-0.643364
0.557733,-0.116258,0.722445,0.120925,0.992661,0.001400
0.610476,0.019152,0.676323,-0.300978,0.947756,-0.105690
-0.141866,-0.173831,0.602763,-0.466044,0.525920,-0.711485
0.861172,-0.147769,0.285455,-0.497532,0.845205,0.195169
0.332200,0.131838,0.661636,-0.468965,-0.640015,-0.608649
-0.327547,0.238198,0.085109,0.399030,0.713342,0.576123
-0.339448,0.433642,0.144928,0.471901,0.734731,0.487319
-0.036939,-0.277147,0.637261,-0.552187,0.833354,-0.024706
-0.099287,-0.159716,0.416130,0.849325,0.362930,0.383313
0.132261,-0.304849,0.106435,-0.027297,-0.262999,0.964410
0.126496,0.431768,0.529338,0.953546,0.299509,-0.032324
0.069168,0.719164,0.201292,0.956350,0.086610,0.279094
-0.139448,0.060150,0.578899,-0.593094,-0.732596,0.333981
0.016795,-0.291321,-0.865886,0.605128,0.780671,-0.156118
-0.310627,-0.485827,0.721108,-0.605667,-0.494268,-0.623591
-0.360707,0.221565,0.163701,-0.011552,0.223537,0.974627
-0.223116,-0.385557,0.683532,0.393010,-0.888078,-0.238454
-0.488005,0.073620,0.494391,0.183724,0.475254,0.860453
0.129223,-0.091425,0.269475,-0.300844,-0.928094,-0.219396
0.794917,-0.462165,0.357213,-0.193274,0.897557,0.396277
0.562692,-0.182558,0.255057,0.020616,-0.977135,0.211620
-0.124820,0.368103,-0.086491,-0.587411,-0.770357,-0.247988
0.279021,0.326695,0.606098,0.968473,-0.183341,0.168662
0.622747,0.494436,0.253616,-0.163704,0.179518,0.970038
-0.169567,-0.180216,-0.988256,0.931741,-0.361672,0.032431
0.558599,-0.307837,0.783900,0.649177,0.755983,-0.084020
-0.103625,-0.040354,0.084253,0.939766,0.303553,-0.157147
0.096934,0.408809,0.172036,0.660686,-0.323077,-0.677581
0.107034,0.133068,0.779034,0.828022,-0.325987,0.456194
0.339327,0.110577,0.678156,0.311936,0.852202,0.420057
0.141620,-0.022783,0.860719,0.557019,0.828827,-0.052688
0.022996,-0.471068,0.255403,0.946009,0.227087,-0.231297
0.653672,-0.104487,0.454502,0.205295,-0.348580,0.914520
0.150604,0.326637,0.574078,0.904647,-0.093277,-0.415829
0.142796,0.252782,0.488323,0.944603,0.027306,-0.327077
0.348435,0.367284,0.099632,-0.598076,0.453894,0.660519
-0.340499,0.570926,0.438642,0.873283,0.486169,-0.031879
-0.002663,-0.334661,-0.990689,-0.072173,0.594081,-0.801161
0.315835,0.118016,0.665826,0.831163,-0.555944,0.009702
0.349056,-0.097341,0.856394,0.531647,0.843099,-0.080835
0.075614,-0.269709,0.527476,0.973293,-0.068619,0.219071
-0.395104,0.077252,0.145108,0.357633,0.627883,-0.691275
-0.028447,0.013178,0.638552,0.535511,0.819176,-0.205374
0.172544,-0.048788,0.944297,-0.009002,-0.909212,0.416236
0.233344,0.257175,0.637997,0.952398,-0.269224,0.143023
0.091169,0.426789,0.139326,-0.133110,0.754871,0.642223
0.331640,0.199602,0.754059,-0.795519,0.463577,0.390187
0.270098,0.429073,0.236149,0.996125,0.013921,-0.086841
-0.256336,-0.361016,0.467553,-0.590652,0.806307,-0.031616
0.177938,0.045918,0.436600,0.975956,-0.102225,0.192512
0.349737,-0.117898,0.843628,-0.396087,-0.841123,0.368277
-0.431172,-0.045508,-0.290591,-0.657370,0.741145,0.136268
0.214937,-0.105014,0.950800,-0.351547,0.935302,-0.040317
-0.304741,0.094178,0.059578,-0.281225,-0.783273,0.554433
0.671273,-0.403186,0.537869,0.573987,0.812371,0.102921
-0.270219,0.128090,0.639859,-0.322893,-0.920636,0.219475
0.370746,0.208622,0.334370,-0.700123,0.556068,-0.447903
0.139203,0.755067,0.136577,0.752973,-0.656546,0.044485
-0.713167,0.210906,0.029406,0.542648,0.786614,-0.294571
0.370065,-0.107005,0.612165,-0.232116,0.967221,-0.102984
-0.047289,-0.295186,-0.986904,-0.053267,0.190675,0.980207
-0.769443,-0.459236,0.329278,0.839747,-0.144992,0.523261
0.130464,0.566476,0.175250,0.916221,-0.084170,-0.391733
0.129534,0.411502,0.561943,0.846495,0.292025,0.445161
0.369445,-0.318379,0.902170,0.884407,0.384697,0.264258
-0.098171,-0.276737,0.885725,0.296339,-0.949138,-0.106398
0.707966,0.096170,0.285875,-0.428448,0.903549,-0.005556
-0.066127,-0.095056,0.440430,-0.172758,-0.895555,0.410044
0.462290,0.319667,0.455523,0.853816,-0.520112,0.021956
0.155438,-0.112393,0.814192,0.995775,0.090690,-0.014418
0.530152,0.519387,0.503267,0.092509,0.706358,0.701784
-0.416359,0.224200,0.369077,-0.706842,-0.707188,0.016107
0.680261,-0.768010,0.426042,0.784800,0.601306,0.150066
-0.150233,-0.271290,0.458331,-0.546562,0.829305,0.116289
0.479766,-0.373492,0.830067,0.744677,0.514137,-0.425581
0.324513,0.172660,0.493895,0.849610,-0.479567,0.219496
0.121476,-0.048905,0.627228,0.719382,-0.692164,-0.058301
-0.355002,-0.509898,0.458602,0.440693,0.311757,0.841782
-0.690175,-0.543165,0.322220,0.973734,0.031469,0.225502
0.013017,0.008434,0.828715,0.449072,0.882805,0.137803
0.292469,-0.122291,0.908133,0.290494,0.692909,-0.659916
0.591078,0.477627,0.249951,-0.333748,0.229757,0.914234
0.073321,-0.461872,0.518946,0.809167,0.364881,0.460555
-0.245922,-0.207040,0.792476,0.150585,0.799248,0.581831
-0.693833,0.122175,-0.038717,-0.450317,-0.818091,0.357689
0.251256,0.083519,0.644725,0.524818,-0.349238,-0.776272
-0.432413,0.107239,0.147045,0.407467,0.422801,-0.809451
-0.835200,0.545800,0.039408,-0.506971,0.841950,-0.184662
-0.730583,0.080649,0.497109,0.616569,0.778341,0.118440
-0.229622,-0.406525,0.578434,0.539484,-0.840298,-0.053440
-0.781094,-0.591719,0.304979,0.699222,-0.671520,-0.245255
0.032104,0.008726,0.834662,0.486279,0.873716,-0.012386
0.391945,0.557281,0.348096,0.374452,-0.669663,-0.641356
-0.612208,0.593417,0.124067,-0.448425,-0.879804,-0.157669
0.294206,-0.098571,0.299857,-0.236579,0.849229,-0.472060
0.346143,0.382043,0.083547,-0.632864,0.542684,0.552247
-0.227455,0.116376,0.637005,-0.326206,-0.937924,0.117847
0.456460,-0.045567,0.285124,-0.670185,-0.520467,0.529118
-0.045242,-0.034145,0.727161,-0.446156,-0.844029,-0.297589
-0.110692,0.004041,0.736232,0.544231,0.838558,0.025156
-0.410223,0.486940,0.155185,0.772267,0.605805,0.191323
-0.213387,0.148588,-0.068033,0.505270,0.800768,-0.321672
-0.018407,0.088029,-0.050642,0.338214,-0.323913,-0.883568
0.092595,0.345028,0.265450,0.978885,0.187246,-0.081997
0.331269,-0.248038,0.938560,0.847680,0.267215,-0.458297
0.585808,-0.130783,0.911797,0.262191,-0.964134,0.041252
0.306541,-0.376889,0.618337,0.743509,0.491220,-0.453760
0.194548,-0.365351,0.097379,0.334504,-0.006891,-0.942369
-0.831360,0.487759,0.078111,-0.300204,-0.078126,0.950670
0.189899,-0.521144,0.758955,-0.618181,0.724459,0.304979
0.117573,0.607884,0.145663,0.961547,-0.241672,-0.130472
0.022315,-0.181856,-0.930480,-0.620005,-0.770839,-0.146291
0.542178,0.488462,0.348742,-0.604753,-0.664398,-0.439146
0.044996,0.015930,0.874626,0.466408,0.527360,0.710180
0.721474,-0.106244,0.200691,0.217982,-0.970702,0.101096
-0.450075,0.393698,0.151611,-0.425067,-0.251237,-0.869597
0.306231,-0.137695,0.877345,0.031011,0.990881,0.131124
0.200744,-0.106536,0.571210,0.718257,0.631640,-0.291784
0.061111,0.089200,0.366449,0.019743,0.343338,0.939004
-0.365106,0.174652,0.660644,0.288503,-0.451240,0.844481
0.219586,0.054059,0.360396,0.963604,0.081813,0.254507
-0.236999,0.050194,0.150259,0.446665,0.867391,-0.219370
-0.406009,-0.236617,0.623188,-0.580348,0.783026,-0.223756
0.154572,-0.141794,0.864654,-0.714096,0.683197,-0.152672
-0.346699,-0.102905,0.656199,-0.068166,-0.997410,0.022965
0.108460,0.545332,0.484674,0.993861,-0.088735,0.066075
0.143231,-0.118308,0.023414,-0.697445,0.692909,0.182887
-0.089062,0.264262,-0.067282,0.922798,0.035321,-0.383663
0.112674,-0.322186,0.518060,0.914318,0.107002,0.390605
-0.131576,0.022490,0.720793,0.563549,0.808625,0.168935
0.089432,-0.130900,-0.295202,0.021603,-0.985614,0.167627
0.502387,0.242298,0.787700,-0.131720,-0.715244,0.686349
0.220888,-0.323298,0.462522,-0.637794,-0.341042,-0.690586
0.712490,0.096872,0.519757,0.602745,-0.054032,0.796103
-0.260550,0.055113,0.760381,0.533191,0.801936,0.269455
0.504554,0.047031,0.817572,0.787485,-0.585826,-0.191507
0.335918,0.581703,0.578854,0.784430,0.165127,-0.597831
0.282925,0.473878,0.630202,0.996806,0.000672,0.079859
-0.546574,0.040646,0.478967,0.329346,0.864607,0.379456
0.200188,-0.052595,0.241226,0.128543,0.588647,0.798105
-0.449890,0.089551,0.023218,-0.497411,-0.804970,0.323429
0.751286,-0.149115,0.152797,0.245252,-0.967203,0.066099
0.207625,0.155090,0.600075,0.923392,-0.321799,0.209264
-0.297428,0.092363,-0.081024,0.390654,0.754370,-0.527556
-0.507282,0.350123,0.086146,-0.670645,-0.306033,-0.675706
0.330649,-0.000118,0.720373,0.593847,0.454818,0.663692
0.302448,0.379700,0.576076,0.963886,-0.166128,0.208149
0.269602,-0.036196,0.846632,0.403252,-0.909758,-0.098631
0.007006,-0.140448,-0.644094,-0.259480,-0.961639,-0.088995
0.012581,0.284702,0.764722,-0.349836,-0.809662,0.471234
-0.165727,0.017512,0.165608,0.000736,0.698359,0.715747
-0.115587,-0.242591,0.491102,0.553146,-0.829590,-0.076223
0.767401,-0.156320,0.762829,-0.452104,0.315037,0.834478
0.192937,-0.286693,0.095607,-0.785469,0.024362,0.618422
-0.365787,0.201007,0.340497,-0.661177,-0.749712,0.027878
0.321230,-0.526474,0.323466,0.367790,0.803765,0.467645
-0.109387,-0.289094,0.633431,-0.332031,0.924920,0.185145
-0.910068,-0.318496,0.056815,-0.551919,0.828676,0.093173
0.184694,-0.214947,0.717789,0.967696,0.249936,0.033121
0.075739,-0.520792,0.382954,0.139227,-0.792406,-0.593893
-0.609421,0.075085,0.612961,-0.229839,-0.832145,0.504687
0.232724,0.171957,0.542675,-0.212373,-0.342208,0.915310
-0.204089,-0.074675,0.398243,-0.687269,-0.723352,-0.066503
0.330895,0.780778,0.159075,0.110539,-0.979558,-0.168069
0.414751,0.249151,0.777322,0.338218,0.300431,-0.891824
0.130275,0.475518,0.552527,0.981868,0.189558,0.001648
0.081254,-0.126859,0.656424,0.290715,0.207475,0.934044
0.169816,0.447933,0.444605,-0.599159,-0.000918,-0.800630
0.536103,0.458885,0.257776,-0.152706,0.438321,0.885751
0.411589,-0.475401,0.429962,0.797969,0.598485,-0.071142
0.028511,-0.486061,0.725028,0.840606,-0.499605,-0.209229
0.011344,-0.185721,0.569663,-0.697686,-0.677705,0.232274
-0.140935,0.300165,0.419359,0.911473,0.280188,0.301184
0.461854,0.339698,0.514020,-0.416362,0.545431,0.727425
0.014874,0.612510,0.322130,0.265257,0.923837,-0.275979
0.154262,-0.148881,0.084238,0.349475,-0.923051,-0.160760
0.042333,0.181856,0.807344,0.775785,0.619806,0.118318
0.288440,-0.001874,0.904483,-0.823541,0.558305,0.100373
0.073133,-0.002109,0.843553,-0.205458,-0.976166,-0.069903
-0.188534,-0.256413,0.084509,-0.473256,-0.537050,0.698287
0.514412,-0.386318,0.829541,0.799774,0.514104,-0.309933
0.419151,-0.034263,0.713209,0.279603,0.846420,0.453205
-0.621752,0.213893,0.049080,-0.247469,-0.703943,0.665750
0.023926,0.880755,0.208681,0.961906,0.056486,-0.267480
-0.243198,-0.245929,0.380011,-0.286069,-0.951727,0.111263
-0.004029,0.369216,0.795810,-0.489402,0.717800,-0.495227
0.155563,0.167389,0.370999,0.242552,-0.877156,0.414447
-0.437618,-0.510250,0.593272,0.019639,0.855026,-0.518213
0.046052,0.956074,0.215589,0.957900,0.044252,-0.283670
-0.095504,-0.053766,0.563070,0.269802,0.841217,0.468572
0.117198,-0.097224,0.299227,0.110529,-0.972222,0.206321
0.349801,-0.071102,0.704258,0.211116,0.958031,-0.193925
-0.354571,0.521612,0.351446,0.863595,0.497692,-0.080667
-0.282430,0.499473,0.397522,0.936277,0.332286,-0.113896
0.381905,0.163758,0.366088,0.174407,0.403707,0.898111
0.670157,-0.544981,0.398543,0.529885,0.261960,0.806597
0.444068,0.302273,0.509589,-0.895564,0.411601,0.168966
0.335483,0.156026,0.734625,-0.404380,-0.910468,0.086744
-0.102445,-0.125395,-0.172516,0.139733,0.931783,-0.335045
0.214317,-0.024247,0.657475,0.892683,-0.449327,-0.034979
0.506665,-0.315275,0.446031,-0.278364,0.821560,-0.497547
0.057082,-0.125629,-0.329158,0.661771,0.712362,-0.233666
0.160957,-0.067881,0.240760,0.011883,0.499137,0.866442
0.545772,0.440612,0.233791,-0.656577,0.321073,0.682509
0.125630,0.061497,0.150935,-0.240991,-0.827741,-0.506723
0.276604,-0.088556,0.468769,0.212652,0.521617,-0.826253
0.008432,0.486412,0.340497,0.995257,-0.094915,-0.021309
0.054975,0.452208,0.352332,-0.719921,-0.603360,0.343031
0.522840,-0.171957,0.461095,-0.205686,-0.216455,-0.954380
-0.030183,-0.291203,0.849996,-0.349922,0.905548,0.239870
0.258258,0.046855,0.835293,0.991881,0.126931,-0.007823
0.306231,-0.081293,0.674747,-0.199226,0.473164,-0.858152
0.424360,0.271172,0.491357,0.941190,-0.325157,-0.091833
0.015494,0.334427,0.762814,-0.270676,0.880873,-0.388325
0.403161,0.081820,0.913104,-0.619071,0.594604,-0.513027
0.022810,-0.159833,0.577863,-0.591955,-0.623159,0.511138
-0.615617,0.083753,0.473335,0.921975,-0.384008,-0.050008
0.081129,0.268127,0.383720,-0.512415,-0.004835,0.858724
-0.240781,-0.712136,0.560607,-0.258532,-0.965646,0.026257
0.140814,-0.173948,0.148877,-0.076330,0.986399,-0.145573
-0.062162,-0.175588,-0.620530,0.141592,0.984931,0.099312
0.583637,-0.649292,0.427198,0.749803,0.603582,0.271081
-0.166654,0.034673,0.141864,0.200388,0.972108,-0.121862
-0.282241,0.219867,0.341413,0.213605,-0.412416,0.885599
0.158351,-0.043809,0.861861,-0.676863,-0.720305,0.151714
-0.337465,0.166569,0.658992,-0.123155,-0.745712,0.654787
-0.091229,0.111338,0.854952,-0.435278,-0.880415,0.188155
-0.079949,-0.278200,0.855703,-0.205918,0.976787,0.059028
0.123148,0.391531,0.561538,0.818170,0.282853,0.500592
0.273691,0.140213,0.510580,0.785297,-0.543552,0.296410
0.148561,0.490864,0.451273,-0.687157,-0.715404,0.126540
0.150793,0.594120,0.142254,0.980543,-0.189551,-0.051046
0.244749,-0.574675,0.787249,-0.468491,0.383791,0.795752
0.395289,0.530222,0.361192,-0.617468,0.540217,0.571751
0.349612,-0.213541,0.583074,-0.130633,-0.284916,-0.949609
-0.232289,-0.148003,0.106556,-0.085176,-0.234888,0.968283
0.029502,0.566476,0.303732,0.989753,-0.129702,0.059711
0.085097,-0.162001,0.872959,0.418325,-0.882575,-0.214629
0.229130,-0.448226,0.588977,-0.602637,-0.774226,-0.193400
-0.328478,0.078013,0.512157,-0.205251,-0.898120,0.388912
0.260058,0.265550,0.365232,0.854168,0.025996,0.519348
0.330524,-0.009313,0.936277,0.420080,-0.836085,-0.352838
0.194548,0.374254,0.446662,0.824815,-0.524258,0.211743
0.020018,-0.064953,0.241226,-0.247191,0.781660,0.572630
0.220328,-0.182207,0.710175,0.973443,-0.188789,0.129489
0.133933,0.587560,0.141924,0.966621,-0.247868,-0.064856
0.124079,-0.174710,-0.140828,0.325426,0.945284,-0.023156
-0.385125,-0.328921,0.415364,-0.734915,-0.036777,0.677161
-0.387357,-0.396158,0.468589,-0.511045,0.855772,-0.080545
0.167339,0.654329,0.512593,-0.372450,0.841823,-0.390659
-0.740437,0.605600,0.055944,0.108518,0.759824,-0.641009
-0.056397,0.163406,0.425742,0.061189,0.020993,0.997905
-0.399628,0.001874,-0.254907,-0.794479,0.560838,0.232948
0.222685,-0.363243,0.756462,0.926103,0.211505,-0.312408
0.426156,-0.281422,0.863032,0.961984,0.246779,-0.116993
0.549986,-0.844090,0.395014,-0.803853,-0.086961,0.588438
0.186306,-0.178693,0.369468,0.964712,0.233471,0.121748
0.399382,-0.096872,0.804836,0.871805,-0.489770,-0.008992
-0.349922,0.096814,0.548712,-0.398891,-0.909642,-0.115921
0.298174,0.459763,0.538695,0.894866,-0.438286,0.084382
0.429194,-0.523545,0.552572,0.790890,0.611392,-0.026336
-0.252122,0.029167,0.492709,-0.148965,-0.785231,0.601018
-0.118499,0.235505,0.000481,-0.201701,0.339267,0.918811
-0.161510,-0.177873,0.778013,-0.207837,0.974180,0.088190
0.048094,0.319550,0.750770,0.814193,-0.218579,0.537879
-0.117939,-0.322069,0.688023,-0.684464,0.702850,0.193678
0.354696,0.022432,0.763550,0.777858,-0.221507,-0.588109
0.188473,-0.224845,0.775550,-0.808623,0.449995,0.378990
0.333376,0.542697,0.575340,0.994002,-0.105181,-0.029959
0.722469,-0.830562,0.436269,0.755211,0.640627,0.138758
0.560831,-0.016458,0.690291,0.320955,-0.899932,-0.295145
0.156183,0.661239,0.506270,-0.486553,0.872066,-0.052607
0.356432,-0.293897,0.408200,0.691956,0.346914,0.633126
-0.247534,-0.014877,0.577623,-0.278794,-0.960329,-0.006574
0.543105,-0.217465,0.225141,0.792048,-0.608799,0.044982
-0.519614,-0.098688,-0.105369,0.489513,-0.115961,-0.864251
-0.263834,-0.251787,0.573838,-0.631967,0.402245,-0.662433
0.671958,-0.426555,0.382248,0.744289,0.597230,0.298916
-0.103440,-0.010483,-0.018022,0.305953,0.164972,0.937644
-0.373409,-0.387548,0.488819,0.757421,-0.652901,-0.005902
0.333872,0.092538,0.223309,-0.331027,-0.181784,-0.925946
0.272761,0.370915,0.625066,0.954085,-0.298767,-0.021449
-0.215679,0.049490,0.646572,-0.562039,-0.822246,-0.089581
0.195539,-0.061673,0.656034,0.902103,-0.431176,-0.017225
-0.004150,-0.026707,0.481039,0.034285,-0.764393,0.643839
0.432912,0.275097,0.227003,0.540610,-0.246747,-0.804274
0.245555,-0.017570,0.473350,0.207839,-0.506408,0.836871
-0.246917,0.076666,0.718195,0.367877,-0.339913,0.865521
-0.227890,0.002167,0.785778,-0.165683,-0.938204,0.303848
0.251691,-0.133420,0.812676,-0.555905,-0.669294,0.492965
0.507902,0.468900,0.250116,0.768992,-0.258220,-0.584786
-0.351223,0.150697,0.766404,0.910894,-0.174335,0.374005
0.005455,0.277674,0.757123,0.195179,-0.480246,0.855142
0.329593,0.323650,0.552572,0.875639,-0.482889,-0.008647
-0.113044,-0.509664,0.505985,0.928852,0.031252,-0.369130
0.245616,-0.519504,0.772772,-0.264023,-0.216897,0.939812
0.355131,-0.203058,0.429797,0.883589,-0.247873,0.397278
-0.498109,-0.115615,0.683653,-0.521955,-0.206673,-0.827556
-0.031234,0.001288,0.706721,0.234510,0.946666,-0.220973
0.768827,-0.354516,0.334625,0.434990,0.704428,0.560861
0.538766,0.028523,0.823504,-0.241244,0.923367,0.298656
0.090238,-0.111515,-0.077750,0.585603,0.810573,-0.006405
0.129284,0.441431,0.549268,0.971727,0.232618,0.040447
0.033780,-0.099684,-0.007780,-0.720643,0.648830,0.244322
0.092844,0.130432,0.722745,0.954601,0.285239,0.085885
-0.261912,0.028347,0.724863,-0.147384,-0.899691,0.410894
-0.448528,-0.296005,0.423414,-0.550270,0.184492,0.814350
0.142425,0.269650,0.576661,0.999953,-0.005976,0.007689
0.277410,-0.243001,0.908989,0.943520,-0.099762,-0.315939
0.379734,-0.238902,0.767350,0.315231,0.948894,-0.015166
-0.405389,0.253075,0.317924,0.668922,0.731624,-0.131416
-0.062223,-0.112569,0.776361,0.835356,0.403742,0.373058
-0.475673,0.040003,0.600661,0.446274,0.674598,0.588010
-0.434891,-0.161005,0.097319,-0.091910,0.779638,0.619449
-0.292405,0.472942,0.440910,-0.634762,-0.703479,0.319680
-0.464022,0.505096,0.131621,0.500612,0.167854,0.849243
0.024422,-0.047850,0.758174,-0.122063,-0.990342,-0.065747
-0.273192,0.357679,0.378914,0.841779,0.532000,-0.091565
0.906478,-0.066592,0.157077,-0.653733,0.753515,0.069633
-0.499905,0.345028,0.458827,0.354914,0.925274,-0.133807
-0.375331,0.412850,0.141578,-0.286064,0.817425,0.499985
0.906910,-0.237379,0.488624,0.140339,-0.893585,0.426394
-0.273071,0.399731,0.340257,0.821429,0.560823,0.103596
0.496872,-0.300399,0.791605,0.419930,0.889171,0.181751
0.452496,0.222092,0.789367,0.264101,-0.682126,0.681876
-0.450075,0.200422,0.047909,-0.548081,-0.100702,0.830341
0.233655,0.210554,0.619584,0.976942,-0.082606,-0.196879
-0.347380,-0.298524,-0.012165,0.639951,-0.579299,-0.504852
0.379114,-0.813810,0.331201,-0.507248,-0.852655,0.125217
0.249274,-0.050604,0.756522,0.808942,-0.587834,-0.007996
-0.117383,0.213190,0.384501,0.767230,0.639370,-0.050623
-0.610722,0.110929,0.096088,0.168010,-0.985640,-0.016917
0.360461,0.550486,0.346925,-0.398945,0.616668,0.678649
0.518006,0.036078,0.261470,-0.627535,0.686201,-0.367871
0.053549,0.366581,0.171615,0.623539,-0.268129,-0.734374
0.328417,0.033208,0.907291,-0.257450,0.966216,-0.012075
0.310506,0.167331,0.319712,0.852760,-0.438910,0.283123
-0.137652,-0.213833,0.789472,0.275209,-0.943188,-0.186164
-0.607995,0.100094,0.133634,-0.211824,0.816425,0.537197
0.014753,-0.496311,0.729564,0.799196,-0.565367,-0.204073
0.365416,0.234509,0.671217,-0.874781,0.439097,0.204821
-0.596219,0.603373,0.092769,0.253369,0.891081,0.376536
-0.214502,-0.304205,0.430412,0.701389,-0.690564,-0.176565
0.178869,0.789797,0.148622,0.524803,-0.837448,-0.152521
-0.590639,0.331732,-0.150244,0.792394,-0.591657,-0.148506
-0.659372,0.321776,0.071968,-0.000860,0.619079,0.785328
-0.360582,0.250674,-0.080439,-0.707010,-0.439760,0.553849
0.652060,0.285640,0.578884,-0.824572,0.557006,0.099117
0.764117,-0.155558,0.114470,-0.344904,0.935379,-0.078148
0.243384,0.147359,0.104183,0.904055,-0.264724,0.335568
0.937092,-0.069111,0.160997,0.727102,-0.684590,-0.051562
-0.589834,-0.635001,0.515131,-0.715202,0.698454,-0.025459
-0.305421,-0.220686,0.289915,-0.647552,0.704138,-0.291320
0.109330,0.410449,0.567470,0.546393,-0.388384,-0.742033
0.195785,-0.064484,0.928633,0.138180,0.948853,0.283872
-0.248649,0.182968,0.447864,0.493695,0.634691,0.594502
0.378123,0.083987,0.929053,0.864974,-0.412996,0.285052
0.104616,-0.370388,0.282181,0.901716,-0.180788,-0.392714
0.436071,-0.003983,0.898506,0.760021,-0.231285,-0.607351
0.206819,-0.495901,0.733709,0.843716,-0.412291,-0.343743
0.347074,-0.075964,0.950334,-0.379947,0.384358,0.841373
0.319989,0.105599,0.504783,0.858870,-0.438873,0.264068
0.667244,0.123872,0.310610,-0.593800,0.709350,-0.379769
0.355748,-0.427492,0.689269,0.994070,0.065456,-0.086832
0.154137,-0.061790,0.437231,0.072738,-0.590683,0.803619
0.200994,0.324177,0.237231,0.467685,-0.131824,0.874010
0.249334,-0.134239,0.238237,-0.177463,-0.088672,-0.980125
-0.584568,0.428195,0.464204,0.606748,0.794894,0.000696
0.038615,-0.076081,-0.087722,0.390333,0.918689,0.060419
0.633963,-0.206337,0.486206,0.023112,-0.821034,0.570411
-0.308705,-0.549198,0.581017,-0.546189,-0.422799,-0.723131
-0.504800,0.046562,0.600586,0.256748,0.949585,0.179912
0.039541,-0.272344,-0.727326,0.916186,-0.125082,-0.380733
0.146950,0.260044,0.561853,0.968436,-0.005609,-0.249201
0.226463,-0.120299,0.373943,0.949028,-0.291733,-0.119319
-0.199999,0.342919,0.442112,0.754516,0.570614,0.324199
0.011901,-0.055640,0.531456,-0.684641,-0.695103,-0.219314
0.464707,-0.580942,0.509784,0.864580,0.367440,-0.342767
0.683669,0.198313,0.333484,0.552818,0.443374,-0.705558
-0.214317,0.277440,-0.012931,-0.480605,0.183426,0.857539
-0.444745,-0.013178,-0.265135,0.806165,-0.553625,-0.208798
-0.722961,0.093769,0.495202,-0.055240,-0.363909,0.929795
0.118688,0.284878,0.455508,0.985451,0.003628,0.169921
0.165292,0.778143,0.133634,0.797079,-0.603138,-0.029828
-0.601795,0.417828,0.475377,-0.581092,-0.809968,-0.079268
0.145338,-0.109230,0.269235,0.305345,0.931069,0.199686
-0.036133,0.618719,0.332808,-0.084056,0.949949,0.300883
0.476479,0.367928,0.443103,0.837720,-0.539409,0.085231
0.031174,-0.037249,0.659383,-0.372656,-0.927659,-0.024009
0.702201,-0.145074,0.502636,0.053214,-0.995206,0.082053
0.286583,-0.265960,0.891177,0.872266,0.449886,0.191714
0.199999,0.161943,0.634272,0.950365,-0.098698,-0.295067
0.375085,0.170434,0.750620,0.637297,0.355335,-0.683805
0.428509,0.281188,0.641976,-0.670953,0.682354,-0.290199
-0.462656,-0.149526,0.080874,0.200281,-0.907755,-0.368602
0.303689,-0.195209,0.440490,0.596103,-0.295831,0.746422
-0.314780,-0.107473,-0.133529,-0.167844,-0.984676,0.047346
0.527985,-0.622174,0.435323,0.760463,0.643340,0.088372
0.254849,0.479442,0.637906,0.997726,0.059707,0.031280
-0.183329,0.057104,0.642337,0.020028,0.980367,0.196161
0.282369,0.068291,0.743711,0.762558,0.118084,-0.636052
-0.231793,-0.371149,0.669024,0.443081,-0.859297,-0.255515
-0.496932,0.381165,0.076293,-0.323598,-0.914475,-0.242940
0.832725,-0.183437,0.323707,0.754516,-0.470520,-0.457512
-0.643012,-0.180801,-0.142900,-0.699169,-0.278705,0.658397
-0.367398,0.230702,0.075377,-0.276769,-0.827226,-0.488975
0.678959,-0.407871,0.534895,0.573987,0.812371,0.102921
-0.706351,0.102319,0.115597,0.076082,-0.994389,0.073493
-0.244500,0.391004,0.443313,0.824021,0.522598,0.218817
0.411343,-0.248565,0.858587,0.886607,0.359841,0.290591
-0.361634,0.199309,0.658917,0.246922,-0.512419,0.822469
0.323768,-0.267893,0.594233,-0.718507,-0.317200,-0.618976
-0.305361,-0.115790,0.646347,-0.096466,0.947774,-0.304004
0.165046,-0.372321,0.498100,-0.037022,-0.991883,0.121648
-0.118439,0.035375,0.096794,0.782400,0.316999,-0.536062
-0.412580,0.457187,-0.120162,-0.245826,0.966669,-0.071560
0.211280,0.036313,0.643553,-0.691774,0.241394,0.680571
0.240411,-0.018332,0.948652,0.827728,-0.466020,0.312556
0.403286,-0.307016,0.855778,0.885509,0.460038,-0.065107
0.064023,0.398442,0.258542,0.924515,0.183057,-0.334308
-0.163991,0.033911,0.730360,0.680298,0.710064,-0.181669
0.298730,0.353931,0.572561,0.937926,-0.314177,0.146930
-0.263959,0.469428,0.429181,0.898484,0.437483,-0.036550
0.567337,0.461169,0.363190,0.685068,0.585311,0.433698
-0.424726,0.456426,-0.053045,0.807453,-0.134870,-0.574309
0.197026,0.372379,0.059428,0.284289,-0.600030,-0.747759
0.266440,0.303326,0.619794,0.773682,-0.633570,-0.002145
0.070530,-0.142498,0.765788,-0.143913,0.947363,-0.285993
0.017045,-0.012651,0.515987,-0.573632,-0.818481,0.032181
-0.245117,-0.378002,0.337388,0.765871,0.456293,-0.453032
0.722715,0.305259,0.329173,0.933819,0.213033,-0.287400
-0.068979,-0.215298,0.821416,-0.424168,0.902104,0.079304
-0.041213,-0.210964,0.829721,0.379894,-0.905340,-0.189841
-0.388533,-0.495080,0.598363,-0.408047,0.908402,0.091120
0.354386,-0.004217,0.859368,0.113848,-0.993072,-0.029082
-0.485278,0.354867,0.155455,0.294178,-0.076726,0.952666
0.194919,-0.285991,0.802718,0.978331,-0.166293,-0.123348
-0.066066,-0.006150,0.490200,0.000062,-0.741779,0.670645
-0.390394,-0.214771,0.360306,-0.166548,-0.983811,0.066168
-0.289492,0.162645,0.744882,0.911732,-0.034584,0.409326
-0.006942,-0.142966,0.767951,-0.060268,-0.877815,-0.475193
0.201115,-0.615322,0.509049,0.949826,0.194613,0.244861
-0.463402,0.063254,0.579019,0.495882,0.327471,0.804279
0.168890,0.388251,0.463768,-0.728587,0.486487,-0.482174
-0.293090,-0.237027,0.026688,-0.572684,0.781794,0.246641
0.548620,0.439147,0.512548,0.389501,-0.205747,0.897751
-0.084598,0.121061,0.157333,0.245518,0.243610,0.938283
0.315590,0.026063,0.909905,0.239806,-0.970816,-0.002950
0.243879,-0.070341,0.219944,0.183138,0.959670,0.213293
0.350232,-0.505681,0.673275,-0.186694,-0.162770,-0.968840
0.160957,-0.035317,0.868604,0.349158,0.891349,-0.289113
-0.621007,-0.457947,0.553683,0.894881,0.431235,-0.114999
0.453982,0.386259,0.819359,0.546159,0.500185,-0.671957
0.118749,-0.185253,0.329834,0.957885,-0.163658,-0.235950
0.024111,-0.131252,-0.379950,0.117892,-0.992947,0.012588
-0.310566,0.110695,0.520808,-0.587740,-0.799387,0.124668
0.330399,-0.233454,0.768521,0.462676,0.886125,0.026705
-0.550292,-0.289387,0.645581,-0.782582,0.461098,-0.418275
0.287449,-0.137343,0.938049,-0.771918,-0.341203,0.536398
0.307593,-0.066417,0.309049,-0.465117,0.812507,-0.351423
-0.007498,-0.150872,-0.619374,-0.131083,-0.991307,-0.011278
0.162504,0.481551,0.450522,-0.642258,-0.743156,0.187683
-0.226278,0.116317,0.627123,0.452083,0.837759,0.306236
0.435515,0.079595,0.517729,-0.508424,0.718516,0.474594
-0.023427,-0.150345,-0.767620,0.547951,-0.835242,0.046048
0.604461,-0.374488,0.790959,0.709547,0.546330,-0.445046
-0.338207,0.132482,0.641571,-0.311171,-0.924544,0.219981
0.240471,0.212955,0.727912,0.892715,-0.429657,0.135849
0.480696,-0.178517,0.495877,-0.029029,-0.874752,0.483700
0.348931,0.620944,0.220530,-0.175286,0.432969,0.884202
-0.112984,-0.101851,0.640189,-0.569636,0.805236,-0.164649
0.038550,-0.165632,-0.898911,-0.695300,-0.712846,-0.091698
0.545957,0.109992,0.314996,0.473480,-0.872372,0.121592
0.434460,-0.240073,0.579620,0.477834,0.701598,0.528616
0.580354,0.431592,0.360562,0.603227,0.541664,0.585421
0.029316,0.714303,0.241796,0.987759,-0.125166,-0.093088
