-0.393254,0.135267,0.072875,-0.286283,-0.711096,0.642172
-0.653118,0.699188,-0.984929,0.307452,-0.084092,-0.947841
-0.345088,-0.615224,-0.637391,-0.233511,0.188466,-0.953915
-0.517928,0.345528,0.086092,0.210573,0.925756,0.314062
0.039851,0.067276,-0.648575,0.721691,-0.547801,0.423173
-0.413476,-0.344133,-0.307706,-0.245154,0.720739,-0.648409
0.068458,0.195122,-0.865853,-0.131949,0.991216,-0.008960
-0.030670,0.182365,0.942735,0.921478,0.387001,-0.033287
-0.003524,0.166803,-0.019916,-0.112414,0.364960,0.924212
0.448475,-0.699889,-0.910140,-0.272311,0.075942,0.959208
0.257402,-0.350439,0.667115,-0.453016,-0.193075,0.870344
-0.423323,-0.622513,-0.368739,0.100196,0.708365,-0.698698
-0.174371,-0.260306,0.334589,0.759933,-0.528095,0.378968
-0.424789,0.459488,0.528662,0.473791,0.795980,0.376746
-0.155745,0.423743,0.709698,0.945239,0.325326,0.026194
-0.245424,0.282867,-0.952753,-0.177180,0.046971,0.983057
-0.468563,-0.229746,-0.049012,0.286295,-0.938363,-0.193674
0.528842,-0.280352,-0.915343,-0.167437,0.112992,0.979386
-0.401769,-0.103030,-0.189109,-0.264641,-0.902348,0.340197
0.394054,-0.307541,-0.062648,-0.290261,-0.777970,0.557235
0.097865,0.305437,0.909452,0.767656,-0.636699,-0.072924
0.193399,-0.570931,-0.920606,0.130146,0.162519,0.978085
0.832747,-0.211103,-0.903920,-0.140628,-0.011324,0.989998
-0.333511,0.508545,-0.368350,0.458030,0.888816,0.014614
-0.281352,0.240535,-0.953949,-0.320974,0.082804,0.943461
-0.164126,0.183341,0.734876,-0.557866,-0.647461,0.519210
-0.827424,0.241937,-0.348674,0.800896,0.592187,-0.088773
0.524449,-0.032943,-0.921504,0.013945,0.304575,0.952386
-0.190605,0.166247,0.697587,0.695360,-0.706438,-0.131987
0.558777,0.180543,-0.925182,-0.485905,0.056806,0.872163
0.046636,0.181946,0.092132,-0.633594,-0.746638,0.202707
-0.146166,-0.522850,-0.520409,0.968601,0.071978,-0.237974
-0.497304,0.348189,-0.966239,0.103326,-0.179131,-0.978384
-0.312355,0.151668,0.759068,0.182781,0.982156,0.044273
0.210299,-0.676481,-0.918065,-0.363994,0.173146,0.915166
-0.792693,-0.183349,-0.098980,-0.299587,-0.924945,-0.233932
-0.236511,-0.221755,0.433061,0.925718,0.134365,-0.353541
-0.532432,-0.748955,-0.421548,0.858737,0.417915,-0.296509
-0.050494,-0.032105,0.126671,-0.773702,0.260044,-0.577722
-0.143104,-0.640882,-0.634939,0.051789,-0.834407,0.548711
0.190476,0.422622,-0.612721,-0.614642,0.775292,-0.145385
-0.261126,0.546112,0.733292,0.887433,0.184612,0.422352
-0.068190,0.171714,0.143536,0.463623,0.385262,0.797889
-0.773003,0.418695,0.051225,-0.029231,0.979622,0.198714
-0.177165,-0.711525,-0.662331,0.004662,-0.769046,0.639176
0.204444,-0.135969,0.693071,-0.056819,-0.768232,0.637645
0.148030,0.374959,-0.045005,-0.123458,0.991621,0.038031
-0.126870,-0.038547,0.597500,0.874992,0.483749,-0.019397
0.408555,0.263942,0.513023,-0.188095,0.779782,0.597127
0.020957,-0.295487,-0.188003,0.834435,0.166396,0.525387
-0.138979,0.329264,0.314435,0.854117,0.520080,-0.000876
0.037589,0.218949,-0.761251,-0.604236,-0.792519,0.082541
-0.006721,0.268288,-0.393021,0.373920,0.713789,0.592190
-0.034662,0.081154,-0.401423,0.919763,0.323631,0.222032
-0.137647,-0.325345,-0.940193,-0.425460,0.055963,0.903245
-0.324995,0.369492,0.014144,-0.083986,-0.957251,0.276798
-0.076441,-0.376088,-0.430699,0.337500,0.596248,-0.728410
-0.002063,0.103304,-0.408690,0.782099,-0.437422,0.443827
-0.271107,-0.249654,-0.310487,0.046219,-0.790335,0.610929
0.228129,-0.010938,-0.922610,0.159921,-0.155688,0.974775
-0.089216,0.178721,0.460004,0.958031,-0.208389,0.196851
-0.592176,0.301373,-0.355671,0.533598,-0.596474,-0.599577
-0.742796,0.860382,-0.986394,0.156613,-0.140111,-0.977671
-0.160402,-0.593219,-0.517867,0.546087,0.561984,-0.621259
-0.376622,0.319733,-0.299034,0.099225,0.902467,0.419176
-0.124608,-0.769275,-0.527975,0.997201,0.056168,0.049346
-0.575409,-0.373427,-0.054035,0.957665,0.286350,0.029704
-0.755835,0.203249,-0.378069,0.781979,0.614901,-0.102009
0.322068,-0.381974,-0.243025,-0.644578,-0.002952,-0.764533
0.008982,-0.747552,-0.509704,-0.038721,-0.787069,0.615648
-0.193667,-0.068551,0.408242,0.366033,0.448491,-0.815399
-0.020823,0.193856,0.979995,0.805103,-0.593101,0.006328
-0.018561,0.243760,-0.918154,-0.678373,0.716862,0.160995
-0.328455,0.084798,0.334679,0.403290,0.885479,-0.230835
-0.392852,0.130776,0.427111,-0.129090,-0.307954,0.942603
0.076709,0.306694,0.786908,0.192195,0.848338,-0.493339
0.033598,0.278521,0.806076,0.775011,-0.619743,0.123598
-0.416806,0.234785,0.160940,0.224134,0.520080,0.824185
-0.446875,-0.548080,-0.350887,-0.491410,0.865714,0.095155
-0.467901,-0.596581,-0.369636,0.415703,0.345684,-0.841245
-0.307697,0.583397,0.522443,-0.073383,-0.581530,0.810208
-0.637947,0.530559,-0.978410,-0.108403,0.099924,0.989072
-0.124210,0.388417,0.706199,0.895792,0.438316,0.073725
-0.411349,-0.238438,-0.035645,-0.565724,0.761969,-0.315214
-0.209499,0.360526,0.209174,0.826145,0.481849,0.292072
-0.411214,0.549903,0.501151,-0.298957,0.934267,0.194347
-0.315413,0.003084,0.236237,0.570857,0.365361,0.735278
0.090812,0.380152,0.078915,-0.416816,0.804873,0.422427
-0.014436,-0.117472,-0.455279,0.994622,0.080792,0.064808
-0.470695,0.287077,0.674502,-0.067104,-0.932333,0.355321
-0.177701,0.449110,0.750337,-0.661085,-0.620732,0.421496
-0.225867,0.095313,0.447684,0.874796,0.467361,0.127691
0.484533,-0.370621,-0.921892,0.227554,-0.276168,-0.933783
-0.593240,-0.087330,-0.429533,0.025522,0.984839,0.171584
-0.162133,0.185446,0.411052,-0.271204,0.905930,0.325176
0.010578,0.234785,0.566580,0.963920,0.161026,-0.211966
-0.300644,0.055649,0.230436,0.677346,0.274885,0.682379
-0.118489,0.674377,0.124159,0.816481,0.004276,0.577356
-0.396844,0.220634,0.486050,-0.052933,0.984538,-0.166981
-0.082297,0.252307,0.546993,0.623247,0.703098,0.342369
-0.116759,0.245163,0.319817,0.972052,0.092971,0.215571
0.862284,0.018920,-0.912174,0.167166,0.016832,-0.985785
-0.230923,0.322394,0.248527,0.295131,0.659915,0.690948
-0.472290,-0.262967,-0.210161,0.222326,-0.258999,0.939942
0.005254,0.263386,0.850154,0.816217,-0.573677,0.068449
-0.369703,0.213619,0.475136,0.290260,0.878286,-0.379950
0.577939,-0.476171,-0.910948,0.252513,-0.160252,-0.954231
0.119021,0.212918,0.247780,0.202168,-0.962467,-0.181068
0.560909,-0.483186,-0.910499,0.208372,-0.242261,-0.947571
-0.685850,0.051158,-0.425017,0.905241,0.274228,-0.324559
-0.009778,-0.306840,0.099489,-0.503967,0.526634,-0.684598
-0.000065,0.245018,0.019437,-0.420759,-0.740746,0.523696
0.312355,0.129800,-0.916480,-0.227840,-0.395996,-0.889537
0.071519,0.231141,-0.672049,0.209534,0.973211,-0.094633
-0.881178,0.948830,-0.991567,0.155302,-0.222547,-0.962473
0.065132,-0.316097,-0.706020,-0.187076,0.788673,0.585660
0.017363,0.140871,-0.894022,0.878914,-0.468389,0.090115
0.033334,0.258338,0.527406,0.886836,-0.228228,0.401788
0.164528,-0.363751,-0.916241,0.256662,0.044094,-0.965495
0.224804,-0.868801,-0.909363,0.009665,0.028132,0.999557
0.125010,0.297865,-0.496905,-0.178079,0.950675,0.253978
-0.171979,0.182503,-0.082414,0.607541,0.508961,0.609798
-0.716719,0.295205,0.123112,-0.369322,-0.550214,0.748910
0.106116,0.290858,0.838163,-0.737886,0.655402,-0.161158
-0.077241,0.132743,0.054544,0.296699,0.807006,0.510598
-0.303174,0.116060,0.352681,-0.268988,-0.961476,-0.056643
-0.040115,0.167924,-0.914357,0.901307,0.360941,-0.239515
-0.249549,0.233245,0.529888,0.670267,0.046597,-0.740655
0.255141,-0.505473,-0.923029,-0.208344,-0.010375,0.978000
-0.363047,0.063358,0.166981,0.503200,0.847068,0.171069
-0.264720,0.225537,0.746270,-0.383797,0.274932,0.881540
-0.008182,0.071349,0.340391,0.885856,-0.415776,0.205886
-0.263656,0.037563,0.219641,-0.580169,-0.503127,-0.640521
-0.410419,0.379451,-0.389462,0.645715,0.695327,0.315550
-0.218814,0.004342,0.618193,-0.596574,0.188184,0.780183
-0.304635,0.565174,0.763285,-0.627472,-0.713135,0.312596
-0.599359,0.858141,-0.977901,-0.058532,0.113705,0.991789
-0.063005,-0.019203,0.410664,0.716482,-0.219684,0.662112
-0.011910,0.341036,0.709877,0.997080,0.068566,0.033631
-0.226530,0.255113,-0.168326,0.413203,0.870803,0.266393
0.123280,0.058730,-0.875123,0.870014,-0.450546,-0.200208
-0.674273,0.843562,-0.984271,-0.202122,0.019069,0.979175
-0.411747,0.537984,-0.965521,-0.365332,0.445306,0.817456
-0.162664,0.134848,-0.119315,-0.327073,-0.362875,0.872551
-0.205906,0.327305,-0.675249,-0.320900,-0.945785,0.050143
-0.472822,0.241937,-0.969289,-0.075009,0.250460,0.965217
-0.462711,0.486258,0.524476,0.506013,0.820530,0.265859
-0.068726,0.265765,0.129751,0.881490,0.440673,0.169656
-0.089082,0.169609,0.532670,0.863246,-0.301708,-0.404695
-0.194597,0.495369,0.127329,-0.488681,-0.396566,-0.777127
-0.048098,0.188389,0.906103,0.026262,0.994470,0.101688
0.014703,0.095176,0.789959,-0.670322,0.718349,0.186126
-0.422259,-0.448417,0.158159,-0.164139,0.977102,-0.135386
0.040517,0.229600,0.616160,-0.092766,0.884878,0.456491
-0.205776,0.282166,-0.946084,-0.412528,0.086046,0.906872
0.357728,-0.146902,0.705990,0.632981,0.754180,-0.174779
-0.180495,-0.707598,-0.659400,0.004662,-0.769046,0.639176
-0.090678,0.025509,0.796717,0.991831,-0.066659,0.108758
-0.811587,0.427669,-0.396459,-0.621799,-0.544359,-0.563063
-0.052491,0.190493,-0.299184,0.751955,-0.487961,-0.443236
-0.356660,0.254976,0.719716,0.586369,0.809640,-0.025569
-0.097597,0.181519,0.469185,0.811746,-0.562338,-0.157621
0.417472,-0.335159,-0.918065,0.039227,0.202416,0.978514
0.357330,0.224835,0.485332,0.158843,-0.984811,0.070119
-0.434636,0.282585,-0.966209,0.144600,-0.198919,-0.969289
-0.108508,0.096160,0.658952,-0.434513,-0.899661,0.042521
0.550664,-0.280771,-0.914297,-0.218588,0.192276,0.956687
-0.093471,0.213901,0.139230,0.795126,0.604051,-0.053834
-0.115825,0.058310,0.538172,0.918978,0.376234,0.118014
-0.442218,-0.055795,-0.210161,-0.250959,-0.853936,0.455866
0.190740,-0.332772,-0.207320,0.013058,0.123938,0.992204
0.048634,0.224416,0.531473,0.845867,0.519282,0.121882
-0.831545,0.861786,-0.987859,0.122860,0.430166,0.894350
-0.340564,0.636382,-0.032595,0.152825,0.441119,0.884341
-0.170514,0.538968,-0.958046,-0.043101,-0.065874,0.996897
-0.156943,0.063358,0.495739,0.933279,0.333096,-0.134305
0.544675,0.391360,-0.192309,0.147054,-0.857241,0.493470
0.117027,-0.226521,0.419814,0.531194,0.818571,-0.218573
-0.107578,0.104989,0.838880,0.783712,-0.618182,0.060390
-0.027742,0.186010,0.322688,-0.083764,0.604863,0.791912
-0.216285,-0.317072,-0.330313,-0.193709,0.753597,-0.628146
-0.620251,0.778104,-0.977961,-0.288176,-0.078654,0.954342
0.167719,0.457383,0.093329,0.779427,-0.564611,0.271491
-0.076575,0.320152,0.023833,-0.670644,-0.399118,0.625253
-0.340028,0.301510,0.756736,0.020214,-0.121136,0.992430
-0.087218,0.130639,-0.938369,0.469229,0.074688,-0.879912
-0.350809,0.259322,0.105768,-0.208624,0.811284,0.546164
-0.137249,0.289874,0.178224,0.964021,0.262909,0.039261
-0.646064,0.472526,-0.523190,0.822948,0.539965,-0.176620
-0.749184,0.478267,-0.353249,-0.658308,0.720455,0.218116
-0.739471,0.677594,-0.440597,0.632958,0.645544,0.427360
0.281218,-0.363614,-0.923597,-0.228812,0.226292,0.946804
-0.016433,0.184188,0.933345,-0.713279,-0.691513,-0.114203
-0.383940,-0.358566,-0.335038,-0.145700,-0.730431,0.667264
-0.035859,-0.594477,-0.450734,0.874477,0.467345,-0.129916
0.770742,-0.039531,-0.911576,0.216783,-0.247265,-0.944386
-0.434900,0.816228,-0.059747,0.720996,0.451778,0.525415
-0.133789,-0.762404,-0.508807,0.526672,0.800974,-0.284705
-0.036789,-0.029718,-0.898747,0.528004,-0.203284,0.824553
0.387265,0.561675,-0.100176,-0.183185,0.977839,-0.101365
-0.192335,0.132179,0.529440,-0.726278,0.637272,0.257692
-0.177035,0.069663,0.141294,0.195080,-0.604409,0.772421
-0.266981,0.067140,0.373733,-0.610428,-0.765699,0.202690
-0.002595,0.366130,0.384079,-0.642954,-0.753927,0.134923
0.286542,0.584800,0.084148,-0.570480,0.385631,-0.725149
-0.302240,-0.079485,-0.027720,-0.605978,0.652374,-0.455191
-0.033995,0.364307,0.395174,-0.576077,0.046493,0.816072
0.086288,0.315806,0.777967,0.336328,0.937600,-0.088258
-0.227062,0.142831,0.439042,-0.658669,0.057371,-0.750243
-0.474816,0.346786,-0.966119,0.082352,0.171069,0.981811
0.468035,-0.412671,-0.913190,0.316665,-0.379064,-0.869502
-0.500629,0.591388,-0.971532,-0.333371,-0.020626,0.942570
-0.456324,0.271377,-0.309112,-0.343392,0.938072,0.045860
0.412948,0.240954,-0.912772,-0.148565,-0.240950,0.959099
-0.056085,0.112698,0.643282,-0.798354,0.151101,0.582923
-0.466037,0.415332,0.495320,-0.471966,-0.863930,-0.175709
0.273503,-0.725821,-0.914357,-0.090239,0.209350,0.973668
-0.421330,-0.638914,-0.658503,-0.316886,0.946317,-0.063782
0.841262,-0.117608,-0.907957,0.298729,0.074375,-0.951435
-0.022021,0.159796,0.802219,0.991220,0.080949,-0.104546
-0.229859,-0.030984,0.161449,0.401207,0.672035,-0.622417
-0.308229,-0.622231,-0.651715,-0.494865,0.332414,-0.802876
0.026544,0.274320,0.242068,0.065606,0.849474,0.523536
0.238240,-0.437346,-0.921354,-0.290965,0.064903,0.954530
-0.041581,0.177600,0.687779,-0.584020,-0.713855,0.386436
-0.484931,-0.583123,-0.372178,0.032182,-0.610095,0.791674
-0.193533,-0.208443,0.337729,0.989645,-0.127087,-0.066721
-0.050230,0.111577,0.447684,0.551368,0.328282,0.766958
-0.039583,0.193719,0.974642,-0.345410,0.935183,0.078264
-0.129266,0.091951,0.156455,-0.373039,0.910956,0.176071
-0.477480,0.171987,0.430161,0.983002,-0.160180,0.089721
0.347483,-0.032105,-0.918513,0.080356,0.243737,0.966507
0.323131,-0.281892,-0.916330,0.578654,0.416857,0.700992
-0.057547,-0.055093,0.482462,0.197505,0.932700,-0.301767
-0.072583,0.172689,0.632906,0.903313,-0.422043,-0.076838
-0.643271,0.607087,0.236865,0.742374,0.490718,-0.456154
-0.578471,0.540226,0.509973,0.692843,0.706159,-0.145972
-0.338034,-0.104014,0.257259,-0.676016,0.464596,0.571973
-0.335638,0.153910,-0.000598,0.779717,0.114207,0.615628
-0.239970,-0.080186,-0.061272,0.911219,-0.402638,0.086957
-0.067926,0.031112,-0.459885,0.959494,-0.122948,0.253487
-0.020157,0.128534,0.995395,0.911796,-0.375516,0.166178
-0.332576,0.457529,0.152238,0.795631,0.105865,0.596459
-0.384471,0.460609,0.502407,-0.403239,-0.856460,-0.322297
-0.617721,0.377064,0.087826,-0.190151,0.849979,0.491302
0.022686,-0.216570,-0.316288,-0.489048,-0.236536,0.839573
0.026544,-0.382676,-0.927095,-0.068053,0.300826,0.951248
-0.112902,0.190630,0.212763,-0.654372,-0.721734,-0.225604
-0.033330,0.222876,0.765258,0.965601,-0.241128,-0.097322
-0.441287,-0.009535,-0.151102,0.658020,0.195269,-0.727242
-0.486661,-0.129945,0.018331,-0.579372,0.813422,-0.051700
0.031068,-0.114246,0.631530,0.843223,0.354770,-0.403873
0.067528,0.216844,-0.900422,0.316996,0.701389,0.638410
0.172243,0.740673,-0.025268,-0.354554,0.815478,-0.457479
-0.222806,-0.285537,0.651954,-0.805307,0.543470,0.236900
0.682923,-0.429072,-0.905386,0.366621,-0.187593,-0.911262
0.535096,-0.468882,-0.910768,-0.005734,0.028285,0.999583
0.595635,0.194976,-0.262313,0.088234,0.990345,0.106920
-0.116491,-0.661621,-0.657905,-0.023805,-0.744773,0.666893
0.018561,0.129235,-0.100595,0.405602,0.913216,0.039038
-0.646730,-0.169755,-0.372148,0.831829,0.347162,0.433058
-0.051960,0.069801,0.268802,-0.538921,-0.726157,-0.426920
-0.210430,0.238575,-0.950958,0.298385,-0.097141,-0.949489
-0.264188,0.210821,0.134715,0.237430,0.842657,0.483276
-0.304372,0.577092,-0.041596,0.410512,0.706116,0.576958
-0.338834,0.631899,-0.037230,0.175770,0.676181,0.715461
-0.724300,0.422904,-0.406268,-0.593703,0.800560,0.081366
0.094540,0.186849,0.837864,0.614415,0.157966,0.773008
-0.334973,-0.345955,0.316169,-0.466099,-0.152211,0.871541
-0.054888,0.336271,0.765796,0.698576,0.694203,-0.173416
-0.011244,0.205072,0.981699,0.216535,-0.974705,-0.055337
-0.471490,0.462713,0.234293,0.579651,0.804426,0.130013
-0.030004,0.180817,0.698424,-0.716380,-0.683515,0.140029
0.228661,-0.424589,-0.929099,0.123389,0.030099,-0.991902
-0.159338,-0.153353,0.343411,0.978545,-0.199315,-0.052191
-0.050762,0.137226,0.353787,-0.277961,-0.212851,-0.936714
0.557047,0.013317,-0.909333,-0.007719,0.132741,0.991121
-0.180360,0.101482,0.626656,-0.478949,-0.824727,-0.300720
-0.654047,0.814268,-0.979008,-0.261257,-0.073291,0.962483
0.021225,-0.072752,0.479322,0.344300,0.841133,0.417076
-0.115427,0.247687,-0.106755,0.612555,-0.688292,0.388626
-0.019759,0.317209,0.347956,0.526006,0.494623,-0.691857
-0.706738,0.623206,-0.984630,-0.503844,-0.131436,0.853736
-0.706474,0.028315,-0.469872,0.845986,-0.373073,0.380951
-0.172243,0.100078,0.702790,0.974603,-0.173251,0.141893
-0.283878,0.700445,0.125505,0.944876,0.262810,0.195293
-0.164524,0.051303,-0.257169,-0.525824,0.685341,0.503802
-0.083628,0.157974,0.820131,-0.815398,0.555968,0.161324
-0.057413,-0.255122,-0.935020,0.221779,-0.011680,-0.975027
0.085224,0.230020,-0.665740,-0.554588,-0.824904,0.109390
-0.659501,-0.042337,-0.186687,-0.339047,0.005900,0.940751
-0.608674,0.610450,-0.397805,0.942202,0.334733,0.014475
-0.350541,0.027895,0.134685,0.177273,0.957134,-0.229062
-0.233319,0.204233,0.676326,0.549600,0.827908,0.111836
-0.104516,0.393328,0.154780,0.791339,0.241482,-0.561667
0.175171,-0.671014,-0.922640,-0.058232,0.075446,0.995448
0.383806,0.135969,-0.925032,-0.060707,0.354445,0.933104
-0.136051,0.113819,0.916809,0.713272,-0.198645,-0.672148
-0.087884,-0.597848,-0.635238,0.182873,-0.823569,0.536927
-0.583661,0.191058,0.118627,-0.182712,-0.982682,-0.030873
0.194999,-0.510658,-0.923059,0.004586,0.108414,0.994095
-0.158007,0.704372,0.103286,0.798976,0.359708,0.481920
-0.155079,0.229318,0.429353,-0.386546,0.655391,-0.648880
-0.112902,0.106247,0.630633,0.923115,-0.118595,0.365779
-0.176235,-0.011357,-0.613708,-0.398900,0.746928,-0.531956
-0.169450,-0.058875,0.504082,0.960455,-0.265672,-0.083335
-0.109174,-0.315815,-0.936007,-0.508022,0.001919,0.861342
-0.077907,-0.049207,0.449867,0.850162,-0.519735,-0.084266
0.005124,0.284270,0.698095,-0.834437,-0.382770,0.396488
0.439160,-0.346657,-0.915583,0.109317,0.176345,0.978239
0.104118,0.425847,-0.949583,-0.134916,0.265383,0.954657
-0.258064,0.235205,0.707874,0.746642,0.329942,0.577637
-0.341096,0.282867,0.152388,-0.311929,-0.861388,-0.400887
-0.078305,0.114657,0.731438,-0.705781,0.707468,-0.036918
0.058347,0.200726,0.736700,0.630173,0.762489,-0.146607
-0.128734,0.114803,0.636255,-0.361073,0.928976,-0.081424
-0.213093,0.035322,-0.945994,-0.161521,0.236571,0.958095
-0.169450,-0.055093,0.640740,-0.727520,0.272028,-0.629854
0.029874,0.208152,-0.694836,0.246547,0.966991,-0.064359
-0.185018,-0.098829,0.194791,0.878338,-0.462892,-0.119389
-0.068856,-0.044998,0.796627,0.772440,0.629026,0.087540
-0.742001,0.067559,-0.422864,0.815217,-0.531299,0.230528
0.263522,0.035459,-0.915792,0.081801,-0.530414,0.843783
0.446875,-0.430621,-0.103376,-0.124090,-0.899652,0.418602
-0.747588,0.207313,-0.368260,-0.738222,-0.599317,0.309593
0.201516,-0.069253,0.063724,-0.134959,-0.856958,0.497402
0.005790,0.144653,0.779313,0.694562,-0.401558,-0.596939
-0.288535,-0.004906,-0.149966,-0.663382,0.735337,-0.138580
0.514870,-0.447159,-0.909811,-0.002746,-0.066895,0.997756
-0.290131,0.098119,0.363416,0.337039,0.924866,0.176146
-0.510347,-0.224698,-0.067701,0.822270,-0.501886,-0.268296
-0.198857,0.201008,0.454771,0.008805,-0.986046,0.166240
0.514070,-0.230310,-0.918513,0.188303,-0.126407,-0.973942
-0.051557,0.127978,0.501450,0.931391,0.251332,-0.263329
0.053690,-0.123494,-0.156574,0.813414,0.522572,-0.255492
-0.120885,0.215586,0.228372,0.969624,-0.239189,-0.051177
-0.029740,-0.101490,0.797614,0.522327,0.193390,0.830527
-0.837401,0.424864,0.060046,-0.243595,-0.968723,-0.047292
0.079235,-0.011220,0.778864,0.908874,-0.305142,-0.284318
-0.046502,-0.590558,-0.488592,0.783543,0.551181,-0.286810
-0.331513,0.631197,0.700637,0.878659,0.477276,0.012860
0.140043,-0.263951,0.659430,0.541199,0.692583,-0.476899
0.458452,0.201847,-0.922879,-0.079323,-0.001041,0.996848
-0.195263,0.537146,0.703807,0.691402,0.722457,-0.004435
-0.228662,0.104844,0.144643,-0.400703,-0.007157,0.916180
-0.410683,-0.013043,0.306570,-0.586540,0.733209,-0.344057
-0.001795,0.093491,0.522084,-0.722895,-0.687192,0.072043
0.041317,-0.531405,-0.922161,-0.085543,0.329515,0.940267
0.467235,-0.511077,-0.117072,0.093527,-0.964803,0.245781
-0.216021,0.163021,0.775904,-0.324076,0.945993,0.008516
-0.699153,0.697365,-0.464579,0.589372,-0.784515,-0.192813
0.109174,-0.521729,-0.923328,0.022593,0.082328,0.996349
-0.667086,-0.010236,-0.428097,0.868765,0.379255,-0.318454
0.178497,-0.735497,-0.373045,0.388398,-0.342605,0.855435
-0.130728,0.066156,0.815496,-0.532169,-0.531498,0.659019
-0.190740,0.021299,0.303011,-0.055377,-0.989773,0.131463
-0.061807,0.111996,-0.114919,-0.424713,0.814661,0.394902
-0.203778,-0.134711,0.357047,0.804938,0.227778,-0.547898
0.131528,0.169464,-0.735355,-0.475604,-0.521953,0.708072
0.873861,-0.094064,-0.905356,0.152967,0.126520,-0.980099
0.418268,-0.380297,-0.913968,-0.153670,0.063464,0.986082
-0.514468,0.449392,-0.390838,-0.405349,-0.913925,-0.020817
-0.499566,-0.147048,0.026764,-0.509360,0.840161,-0.186233
-0.745724,0.326886,0.116863,0.364530,0.924700,0.109758
0.101723,-0.017243,0.310816,0.329540,0.717838,-0.613280
0.302906,0.101062,-0.576388,0.281654,0.939835,-0.193344
-0.053690,-0.357728,-0.933555,-0.325743,-0.218148,0.919947
-0.588980,0.664983,0.522263,0.873349,0.126328,-0.470428
-0.074845,0.241236,0.526121,-0.739554,0.612184,0.279806
-0.631296,0.232544,-0.290302,0.444062,0.878010,0.178627
-0.494908,0.390940,-0.959840,-0.325965,-0.015071,0.945262
-0.082561,0.162457,0.090308,-0.419433,0.439112,-0.794516
-0.297185,0.071623,0.065040,-0.216072,0.814490,-0.538442
0.174241,-0.710122,-0.917018,-0.114195,0.237192,0.964728
0.300112,-0.289318,-0.918334,0.094859,-0.105553,0.989879
-0.152151,0.137646,-0.947250,-0.127702,0.250519,0.959652
-0.660301,0.267870,0.121587,0.501731,0.783043,-0.367573
-0.199121,0.047094,0.761221,0.098587,-0.329676,0.938932
-0.227062,0.603443,-0.945665,-0.215423,-0.103215,0.971051
-0.067658,-0.509811,0.072247,0.763674,0.530460,-0.367987
-0.181559,-0.404681,-0.452648,-0.459241,-0.701004,0.545611
-0.075109,0.001117,-0.166532,-0.651656,0.744451,-0.145387
-0.391654,0.026493,0.179630,-0.393281,-0.307828,-0.866356
-0.260992,-0.091959,0.324213,-0.622722,0.355609,-0.696964
-0.077241,0.093491,0.745313,0.774836,0.631330,-0.032424
-0.020823,-0.205636,0.386890,-0.626932,0.666979,-0.402611
-0.119155,0.048497,0.355492,-0.745446,0.344646,-0.570551
-0.134853,0.216844,0.533238,0.876901,-0.415176,0.242227
-0.139645,0.161755,0.906941,0.666669,-0.395154,-0.631986
0.379814,-0.433419,-0.088065,-0.267452,-0.790777,0.550584
0.115297,-0.665966,-0.918274,-0.009963,-0.005294,0.999936
-0.612268,0.192315,-0.319279,-0.269652,-0.947485,0.171930
0.701951,-0.321145,-0.906941,0.131165,0.061428,-0.989456
0.212029,-0.561401,-0.919560,0.172672,0.176124,0.969105
0.348681,-0.214748,-0.925062,-0.100411,-0.044357,0.993957
-0.523783,-0.671998,-0.398702,0.924556,0.332846,-0.185499
0.048102,-0.443095,-0.926916,-0.278747,-0.084276,0.956660
-0.040249,0.006027,-0.932538,0.059104,-0.218248,-0.974102
-0.229725,-0.070091,0.496815,0.891579,-0.209312,0.401590
-0.163062,0.114803,-0.272480,-0.498115,0.863769,-0.076059
0.025083,-0.048642,-0.578452,0.846159,-0.493549,0.201058
-0.044240,0.157837,-0.300170,0.924956,0.366217,-0.101694
-0.468964,0.345245,-0.962950,0.104918,-0.058639,0.992751
-0.616259,0.411688,-0.973147,-0.104101,0.191850,0.975888
-0.249017,0.194001,0.620436,-0.601718,-0.796820,0.054890
0.049966,0.228899,0.778506,0.695030,0.140114,-0.705196
-0.110769,0.063212,0.496008,0.131690,-0.089290,0.987261
0.257935,-0.883379,-0.912174,0.055049,-0.098011,0.993662
-0.346817,-0.345673,-0.326186,-0.568768,0.796411,-0.205507
0.385405,0.305017,-0.924075,-0.545306,-0.831261,-0.107914
-0.088550,0.061810,-0.943871,-0.348322,0.235470,0.907318
-0.165458,-0.221053,-0.937143,-0.467130,-0.210294,0.858816
-0.458054,-0.662741,0.117550,0.993120,-0.047443,0.107063
-0.029074,-0.876792,-0.543794,0.386789,0.877068,-0.284861
0.176235,-0.758905,-0.915433,0.216081,0.012113,-0.976300
-0.443817,0.553966,0.178404,-0.581023,0.702871,-0.410347
-0.430109,0.127276,0.175653,0.133462,-0.348272,0.927844
-0.504089,-0.141299,-0.081666,0.685774,-0.609088,-0.398404
-0.086820,0.198339,0.421668,-0.172819,-0.930138,0.324002
0.324330,0.349173,-0.011991,-0.199024,0.969308,0.144329
-0.787504,0.688947,-0.986902,-0.323798,-0.186622,0.927538
-0.339366,0.266886,-0.372297,0.973823,0.109893,-0.198977
-0.925487,0.962989,-0.997219,-0.203160,0.230823,0.951550
-0.193135,0.293938,-0.024850,0.862193,-0.499865,-0.082212
0.162266,0.163723,-0.907150,-0.603644,0.300969,0.738263
0.279358,-0.699188,-0.913788,-0.175808,0.016709,0.984283
-0.642471,0.519197,-0.975090,-0.181475,0.100405,0.978256
-0.076441,0.202685,0.267965,0.028216,-0.935705,-0.351654
-0.035462,0.226940,0.535899,0.486278,-0.741673,-0.462013
-0.383806,-0.292407,0.198260,0.796656,-0.417347,0.437219
-0.430640,0.119285,0.153464,0.980882,0.130461,-0.144394
-0.076441,0.007704,0.790138,0.617694,-0.149542,-0.772070
0.791097,-0.188397,-0.907927,-0.134566,-0.017698,0.990747
-0.069790,0.109335,0.638468,-0.463396,0.642888,0.609885
-0.721109,-0.260443,-0.041267,0.477264,0.878011,0.036292
0.007386,0.369355,0.853055,-0.729048,0.597158,0.334501
0.385405,-0.176342,-0.916988,0.488854,-0.084165,-0.868296
0.115959,-0.181946,0.496576,0.809677,0.479466,0.338430
-0.889161,0.281746,-0.419126,-0.201135,0.978466,-0.046351
-0.053690,0.135541,0.166203,-0.035214,0.922809,-0.383645
-0.118355,0.106247,0.385037,0.889225,-0.104864,-0.445289
0.056219,-0.299551,-0.925451,-0.539674,-0.168498,0.824839
-0.091478,0.093209,0.824407,0.744960,-0.666902,0.016633
-0.028542,0.373983,-0.951736,0.318415,-0.145755,-0.936679
-0.076307,0.307114,0.737747,0.815613,0.344671,-0.464734
0.528709,0.196516,-0.257379,-0.076812,-0.995581,0.054031
-0.132328,0.671288,0.045423,0.886237,-0.090367,0.454332
-0.378352,0.599798,-0.967286,-0.314945,0.177398,0.932384
0.253675,-0.482621,-0.154481,-0.333505,0.939500,-0.078193
0.012974,0.390239,-0.542209,-0.702532,-0.687590,0.183487
-0.118489,0.494668,0.491762,-0.474039,-0.735290,0.484391
-0.153617,0.222457,-0.424479,-0.144372,-0.758292,0.635727
-0.044773,0.247542,-0.190395,-0.159907,-0.907732,0.387882
-0.402168,-0.048223,-0.670554,0.741388,-0.078551,-0.666464
-0.187678,0.078493,-0.270686,0.442212,-0.824496,-0.353066
-0.136985,0.410285,-0.953799,-0.031360,0.349763,0.936313
-0.478812,0.650961,-0.979217,0.240212,0.030515,-0.970241
-0.522853,-0.621674,-0.375886,-0.825936,-0.111562,0.552615
-0.555054,-0.176060,-0.672677,0.872194,0.474418,-0.119185
-0.269507,0.033362,0.255256,0.203519,-0.907580,-0.367258
-0.078971,0.131477,0.846805,0.857250,-0.501316,-0.117490
-0.598961,0.529575,-0.399300,0.750515,0.659497,-0.042319
-0.665758,-0.028742,-0.422774,0.797884,0.539624,-0.268676
-0.156675,-0.101207,-0.934033,-0.525010,-0.053015,0.849444
-0.026812,0.118584,0.152687,-0.024868,-0.966972,0.253668
-0.418800,-0.358010,-0.685296,-0.152012,-0.912593,0.379561
-0.199388,0.409866,0.735086,0.994433,0.024854,0.102396
-0.270441,0.023549,0.257259,0.203519,-0.907580,-0.367258
-0.037455,0.221609,0.204659,0.704347,0.370148,0.605710
-0.206969,-0.205354,0.544930,-0.523891,-0.796321,0.302344
-0.476546,0.122228,0.418887,-0.335714,-0.941848,0.014766
-0.771273,-0.141436,0.145211,0.251826,0.901190,-0.352762
-0.019227,0.198484,0.776831,-0.690174,0.464672,-0.554743
0.295190,-0.248388,-0.044197,-0.497031,-0.780064,0.380080
-0.003127,-0.126438,-0.427380,0.983608,0.151170,-0.098304
0.169450,0.148161,-0.823689,0.949209,0.314138,-0.017857
-0.535092,-0.639196,-0.391226,0.970277,0.127087,-0.205941
-0.337766,-0.234092,0.151760,0.920568,0.111947,-0.374197
-0.294788,0.669184,-0.956012,-0.441174,0.149471,0.884886
-0.604549,-0.253154,-0.359499,-0.699520,-0.609438,-0.373171
-0.617989,0.470704,-0.433001,0.744601,0.464319,-0.479560
-0.448471,-0.323104,0.303161,-0.832048,0.442962,0.333887
0.407889,-0.057754,-0.923029,-0.012954,0.130217,0.991401
-0.322202,0.176616,0.463353,0.053921,-0.939763,0.337546
-0.330315,-0.679570,-0.634431,0.349052,-0.199424,0.915638
0.035328,0.097555,0.057385,0.398517,0.906121,-0.141874
-0.347479,0.111577,-0.955534,0.374301,-0.148045,-0.915413
-0.123808,0.220908,-0.951975,-0.015479,0.107657,0.994068
0.349879,-0.692600,-0.912682,-0.003159,0.059434,0.998227
0.305704,0.004624,-0.541760,0.587873,0.804971,0.080169
-0.503825,0.097135,-0.359170,-0.095445,0.948373,-0.302455
0.322336,-0.323386,-0.919739,-0.488745,0.292568,0.821908
-0.364380,-0.059858,-0.108789,0.495037,-0.846447,0.196125
0.162530,-0.295212,-0.924344,-0.043619,-0.161620,0.985889
-0.125806,-0.456553,-0.451960,0.380483,0.703140,-0.600689
-0.089480,0.245018,0.482462,0.991967,0.016599,0.125404
-0.045836,0.183769,0.778834,0.197672,0.098326,0.975324
-0.503025,-0.296051,-0.658294,-0.243692,-0.730832,0.637573
0.112369,0.517520,-0.042104,-0.352607,0.934099,0.055919
-0.071386,0.264790,0.394247,0.569050,-0.598627,-0.563762
-0.296518,0.519624,0.525104,0.170381,-0.412983,0.894659
-0.083759,0.284552,0.692563,0.995320,0.096306,-0.007969
-0.243828,-0.138073,-0.933226,0.164772,0.226991,0.959857
0.520855,-0.156159,-0.919919,-0.209974,-0.082526,0.974218
-0.092676,-0.756664,-0.513621,0.279113,0.857381,-0.432428
-0.115825,0.189372,0.216680,0.689643,0.621059,0.372395
-0.322600,0.237027,0.334470,0.253259,-0.506196,0.824394
-0.432638,0.258476,-0.961514,0.144694,-0.190382,-0.970988
-0.455792,0.269409,0.106247,-0.164564,-0.903729,-0.395213
-0.591644,-0.187978,-0.677013,0.894511,0.427551,0.130574
-0.486129,0.010793,-0.648306,0.779848,-0.561057,0.277582
-0.051960,0.230020,-0.940612,0.233109,0.503574,0.831910
-0.030670,0.072324,-0.666996,-0.668411,-0.518283,-0.533489
-0.333112,0.459068,0.230824,0.469538,0.747778,0.469428
-0.076441,0.217828,0.434616,0.063909,0.932852,0.354545
-0.218547,-0.016688,0.227356,-0.143758,0.951432,0.272233
-0.047566,0.542613,-0.955564,-0.244954,0.505029,0.827613
-0.619853,0.683908,0.517000,-0.619296,0.140052,0.772565
0.354532,-0.833338,-0.902276,0.271009,-0.399482,-0.875767
-0.055017,0.119987,0.500045,0.830848,0.473456,-0.292458
0.052890,0.133719,-0.022308,0.952583,-0.234185,0.194277
-0.198191,0.411268,-0.948596,-0.166737,0.214505,0.962386
0.053690,0.179696,0.465417,-0.004547,-0.650122,0.759816
-0.531368,-0.262547,-0.039861,0.096732,-0.283080,-0.954206
-0.498769,-0.672417,-0.649054,-0.301412,0.890985,-0.339554
-0.052224,0.149563,0.490536,0.831426,0.250424,0.496003
-0.224004,-0.251614,-0.342872,-0.193709,0.753597,-0.628146
-0.282948,0.034620,0.230884,-0.468927,-0.874422,-0.124474
-0.342557,0.151942,0.749469,0.275133,-0.944021,-0.182006
0.191803,0.061673,0.556831,0.590775,0.718402,0.367265
0.430645,0.015413,-0.922789,0.326201,0.164800,-0.930824
-0.295857,-0.017663,-0.206274,-0.715483,0.529537,-0.455713
0.016299,-0.186994,0.368260,-0.493047,0.794684,-0.354093
0.273503,-0.715306,-0.916928,-0.113187,0.077715,0.990530
-0.198454,0.149563,0.771389,-0.237694,0.935931,-0.259875
0.646462,0.178019,-0.920397,-0.094459,0.013199,0.995441
-0.252745,0.412672,0.163572,0.017912,0.996876,0.076923
-0.182756,0.557748,-0.944410,-0.160689,-0.170488,0.972169
-0.413078,-0.096442,-0.201250,0.219723,-0.962711,-0.157827
-0.275099,0.164142,0.517897,-0.442047,-0.819146,0.365505
0.140843,-0.507296,-0.335516,0.909801,0.360986,-0.204818
0.317276,0.220070,-0.932837,0.158935,0.598861,0.784924
-0.157073,-0.049763,0.273437,-0.709517,0.284624,0.644651
-0.770872,0.570504,-0.449299,0.725247,-0.183074,-0.663702
-0.415076,0.186010,-0.960079,-0.123278,0.154409,0.980286
-0.097995,0.003777,-0.928262,-0.385393,0.532321,0.753728
-0.030402,-0.045699,0.470680,0.104378,0.991155,-0.081962
-0.137781,-0.351140,-0.938608,-0.588930,-0.144814,0.795104
-0.220147,-0.220360,0.401603,0.922782,-0.305933,0.234262
-0.103054,0.155869,0.880207,-0.423084,0.869964,-0.253304
-0.487193,0.511488,0.521994,0.667887,0.725545,0.165865
0.619321,0.152370,-0.923567,-0.006162,-0.091868,0.995752
-0.418268,0.339214,-0.085673,0.534032,0.732538,-0.422135
-0.028010,0.203386,0.963249,0.208732,0.969804,0.126143
-0.403102,-0.189800,-0.025268,0.779755,-0.614936,0.117631
0.011244,0.198904,0.755929,-0.757986,0.572286,0.312964
-0.126736,-0.219377,0.501899,0.915395,0.402429,-0.010151
0.096533,-0.246429,0.620586,0.913715,0.396071,-0.090845
-0.013904,-0.491870,-0.924972,-0.057986,0.357423,0.932141
-0.305968,0.235350,-0.422475,-0.209272,0.336713,-0.918058
0.341230,-0.139759,-0.925062,0.068862,0.170922,-0.982875
-0.271107,0.138211,0.749140,-0.244809,-0.898807,-0.363614
-0.410950,-0.291140,0.304895,-0.571803,0.681790,0.456294
0.004990,0.174092,-0.812296,0.578898,-0.745215,0.330955
0.014435,0.030693,0.447923,-0.584652,-0.555520,-0.591253
-0.517798,-0.044998,0.167250,0.171956,0.619532,-0.765906
-0.342692,0.621384,-0.069795,0.223463,0.861607,0.455739
-0.408023,0.279787,0.753865,-0.525210,0.089724,0.846229
-0.049962,0.179696,0.918005,-0.538362,0.830763,0.141421
0.006586,-0.164570,0.649472,0.973154,0.229430,0.018255
-0.604951,0.441265,0.039323,0.330952,0.838488,0.432906
0.056483,0.071349,-0.556383,-0.251792,0.150669,-0.955981
-0.002993,0.148297,0.865883,-0.242222,0.958283,-0.151733
0.121416,0.255951,-0.922969,-0.435747,0.016664,0.899915
-0.033330,0.240954,-0.392482,0.795870,-0.604387,0.036159
0.310357,-0.112706,0.056607,-0.053167,-0.936680,0.346128
-0.169583,-0.242083,-0.939386,-0.443075,-0.163894,0.881376
-0.007650,0.101764,0.198080,0.831031,0.259660,0.491899
-0.006721,0.108771,0.299991,0.907571,0.419141,0.025205
-0.466037,0.416590,-0.970635,0.385445,-0.091226,-0.918210
-0.053421,-0.063358,0.460662,0.507836,-0.854938,-0.105756
-0.211627,-0.064060,0.360785,0.860292,-0.207568,0.465632
0.113299,-0.128825,0.730600,0.610701,0.684564,0.398016
-0.333243,0.123486,0.349989,-0.039596,0.997257,-0.062540
0.055687,-0.244324,0.500763,0.438430,0.469895,0.766145
-0.062871,0.386877,0.743429,0.997612,0.065359,-0.022321
0.468299,0.228343,-0.923537,0.033963,0.075824,0.996543
-0.086954,0.506586,-0.952244,0.280140,-0.468736,-0.837740
-0.039453,0.169891,0.872701,0.516942,0.842533,-0.151356
-0.082162,0.047094,0.746150,-0.053931,0.566342,0.822404
-0.493178,0.563779,0.496427,0.131231,0.750765,0.647403
-0.095469,0.215441,0.503125,0.932859,-0.264596,0.244464
0.312355,0.632746,0.020932,-0.662308,-0.401472,-0.632588
0.064332,0.275022,-0.954637,-0.142473,-0.001279,0.989798
-0.616259,-0.423605,-0.398493,0.776371,0.618460,-0.121470
-0.262722,0.009390,0.228642,-0.463781,-0.117480,-0.878126
0.186216,-0.014163,0.723274,0.504283,0.799527,-0.326276
-0.179828,0.031540,0.575760,-0.672444,0.462914,-0.577520
-0.484931,0.000415,-0.181753,0.206990,0.958899,0.194082
-0.017099,0.200306,0.434676,0.064786,-0.395582,0.916143
-0.685850,-0.135695,-0.542896,0.924539,-0.213407,-0.315731
-0.079637,0.240817,0.497115,0.983398,-0.137954,0.117885
-0.142304,0.184042,0.440178,-0.276107,0.951644,0.134684
-0.434100,0.831508,-0.071499,0.685238,0.492014,0.537003
0.013640,0.229044,0.793158,0.818076,-0.358209,0.449931
-0.264054,0.001681,-0.944170,0.337932,0.261202,0.904199
-0.076709,-0.287496,-0.093299,0.650506,-0.506885,0.565606
0.016299,-0.132752,-0.143925,0.949020,0.264861,0.170908
0.255007,-0.683633,-0.909273,0.174079,-0.027424,-0.984350
-0.390193,-0.099950,-0.142609,-0.833494,0.262046,0.486436
-0.841262,0.513456,0.025867,-0.301173,-0.814977,-0.495084
0.475486,-0.261992,-0.918872,-0.285060,0.051594,0.957120
0.838732,-0.132470,-0.913729,-0.063290,-0.035713,0.997356
-0.334575,0.046957,0.177357,0.002086,0.992401,0.123031
-0.445677,0.213764,-0.107592,0.970413,0.240860,0.016864
-0.106778,-0.806140,-0.528872,-0.558813,-0.790755,0.249870
-0.226400,0.199468,-0.011782,0.876147,0.479493,0.049527
-0.195661,-0.273345,0.641159,0.805814,-0.481467,-0.344750
0.745992,-0.360808,-0.906043,0.300481,-0.213459,-0.929595
-0.038787,0.039248,-0.935080,0.309551,-0.004160,-0.950874
-0.121148,0.104142,0.614725,-0.267588,-0.914458,0.303585
-0.013238,0.245582,0.260399,-0.260939,0.957845,0.120183
0.256602,0.041345,0.518615,0.386010,0.922488,0.003437
-0.904461,0.919253,-0.992105,-0.223534,0.105173,0.969005
0.122216,0.136670,0.377531,0.052584,0.995900,0.073602
-0.587518,0.747826,-0.980264,-0.150524,0.190833,0.970013
0.334709,0.565456,0.038366,0.892130,0.213939,0.397913
-0.002063,0.292544,-0.513322,0.958463,0.197281,-0.205980
-0.111967,-0.007995,0.526091,0.112233,0.963778,-0.241940
-0.084822,0.267733,0.728208,0.845510,0.357570,-0.396556
-0.293193,0.100780,0.368410,0.600427,0.742990,-0.295725
-0.226798,-0.190219,0.417751,0.900348,0.147815,0.409297
-0.000597,-0.260306,-0.446607,0.970673,-0.196882,-0.137955
0.016965,0.435378,-0.512784,-0.452252,-0.890052,-0.057236
-0.596963,0.238575,0.124458,-0.197679,-0.968620,0.150658
-0.220678,0.066583,-0.018002,-0.484967,0.433114,-0.759749
-0.474950,-0.124196,-0.195927,0.772861,0.078335,-0.629722
-0.588051,0.607935,-0.431207,0.846568,0.332095,0.415975
-0.353469,-0.437209,0.151102,0.819507,-0.528719,0.221053
0.136851,0.069244,-0.564636,-0.063949,0.980977,-0.183287
-0.139511,0.133719,0.359080,0.960534,-0.272400,0.056326
0.322998,-0.788062,-0.910290,-0.054096,0.160529,0.985548
0.796421,-0.030839,-0.908137,-0.209699,-0.073032,0.975035
0.271505,0.059012,-0.913370,-0.212014,0.000005,-0.977267
-0.663895,0.156853,-0.341557,-0.384317,-0.745064,0.545142
0.250483,-0.582704,-0.909482,0.221562,-0.306745,-0.925644
-0.286542,0.193856,0.341826,0.116988,0.486715,0.865692
-0.189676,0.035322,0.574205,0.609493,-0.516565,0.601398
0.183422,-0.686996,-0.918394,0.126744,-0.160608,-0.978847
0.044906,0.188671,0.566730,0.551283,-0.217170,0.805558
-0.475884,-0.179705,-0.087288,0.514888,-0.688979,-0.510096
0.883708,-0.136397,-0.902545,-0.220597,-0.103386,0.969870
-0.053288,0.262822,0.342783,0.727004,0.560204,-0.397035
-0.000597,0.181099,0.824527,0.885465,-0.452887,0.104140
-0.527909,0.827024,0.502706,-0.470512,0.369923,0.801109
0.069392,0.421219,0.116743,0.389807,0.660395,0.641816
-0.169583,0.709557,-0.055022,-0.250751,-0.119744,0.960617
-0.674139,0.045135,-0.448491,0.721393,-0.581501,0.376097
-0.006984,0.147040,0.169253,0.206812,-0.896879,0.390944
-0.068990,0.101482,0.746778,0.520212,0.824361,-0.223178
-0.165990,0.014438,0.804701,0.946345,-0.322736,-0.016514
-0.115163,-0.845111,-0.545199,0.976522,0.204108,0.068885
-0.819570,0.820856,-0.986663,-0.037675,-0.108768,0.993353
0.279488,0.232544,-0.930056,0.251868,0.455337,0.853950
-0.430909,0.235632,0.752759,0.488411,0.162368,-0.857375
0.465107,-0.099668,-0.914925,-0.126165,0.155556,0.979737
-0.298780,0.497894,-0.956012,0.271591,0.008700,-0.962374
-0.414411,-0.694285,-0.659968,-0.141139,0.936479,-0.321073
-0.183020,0.438039,-0.954547,0.013540,0.243932,0.969698
-0.291731,0.754414,-0.112227,0.205595,-0.079706,0.975386
0.562903,0.023968,-0.115427,0.380132,0.919592,0.099247
0.296388,-0.340625,-0.911486,0.328675,-0.029541,-0.943981
-0.148160,0.145774,0.658862,0.802181,-0.239639,0.546882
-0.120085,0.295205,-0.336264,-0.651739,0.752662,0.093470
-0.336573,-0.042756,0.342035,-0.346566,0.185284,-0.919545
0.004857,0.244179,-0.618761,0.607392,0.771148,-0.190804
-0.223070,0.548636,0.489100,0.941952,-0.335660,-0.007648
-0.080567,0.150967,-0.285757,0.774352,0.623877,0.105625
-0.211761,0.152926,0.771897,-0.320970,0.906956,-0.272779
0.031470,0.272498,0.018062,0.310319,0.553295,-0.773025
-0.002327,-0.238156,0.097844,-0.346380,0.486407,-0.802140
-0.154945,0.507142,-0.955922,-0.203826,0.114055,0.972341
-0.636351,0.662878,-0.384827,0.041713,0.823945,0.565133
-0.226664,0.646897,-0.054933,-0.668820,0.715402,-0.202187
-0.042112,0.185728,0.869920,-0.624272,-0.780552,0.031984
0.039453,0.176197,-0.284920,0.115124,-0.012828,0.993268
-0.448605,0.244881,-0.960139,-0.212856,0.305127,0.928219
0.026414,0.093354,0.805389,0.766338,0.603775,-0.219503
-0.088416,0.143258,0.749469,0.856470,0.352419,-0.377173
-0.433702,-0.027193,-0.144194,0.630969,0.068954,-0.772737
0.100260,0.412945,-0.944439,-0.175582,0.387155,0.905142
-0.389527,0.589284,-0.103346,-0.378689,0.527394,-0.760560
-0.055151,0.085927,-0.247391,-0.687689,0.611289,0.391675
0.035328,0.077509,-0.241171,0.990800,-0.093594,0.097749
-0.027742,0.069946,-0.212314,0.375561,0.919785,0.113799
-0.007516,0.098119,0.786041,-0.452748,0.889063,-0.067716
-0.269507,-0.042337,0.333154,0.622697,0.010656,0.782390
-0.153349,-0.126438,-0.931103,-0.480746,-0.288109,0.828177
-0.386733,-0.350575,-0.691965,-0.321298,-0.870654,0.372464
-0.027076,0.198904,0.476242,-0.359510,-0.318758,-0.877009
-0.185416,0.582559,-0.954666,-0.137023,-0.209492,0.968162
-0.075511,-0.059858,0.450076,0.850162,-0.519735,-0.084266
0.143770,0.298566,0.784217,0.404602,0.912159,-0.065296
-0.002063,0.146201,0.380999,0.112632,0.903204,0.414169
-0.284409,0.585365,0.735714,0.930954,0.142687,0.336104
-0.089882,0.123486,-0.940432,-0.421301,-0.037524,0.906144
-0.086288,0.260717,0.619240,-0.702634,0.677110,0.218697
-0.187946,-0.032241,0.413983,0.341208,0.752777,-0.562941
0.014435,-0.004350,0.225890,0.847011,0.529053,-0.051721
-0.432370,-0.745165,-0.627254,-0.753247,-0.007418,-0.657696
-0.422393,-0.630641,-0.635148,0.479112,-0.519094,-0.707808
-0.656175,0.834168,-0.989085,-0.283374,-0.015667,0.958882
-0.310759,-0.050328,-0.113244,-0.241077,0.838877,-0.488023
-0.647660,0.534203,-0.380760,0.810911,0.365721,0.456806
-0.261394,-0.335441,-0.648067,0.786138,-0.440225,-0.433807
-0.380212,0.445191,-0.957268,-0.243345,-0.050334,0.968633
0.526045,-0.016824,-0.914237,-0.033012,0.099996,0.994440
-0.072583,0.283150,-0.313866,0.539917,-0.704030,-0.461337
-0.060739,0.261145,0.470889,-0.174470,0.980420,-0.091303
-0.762356,-0.196524,-0.186597,-0.046868,-0.031852,0.998393
-0.536424,-0.180543,-0.617775,-0.313289,-0.941031,0.127709
-0.307299,0.562796,0.526270,0.012349,-0.734384,0.678622
-0.410151,-0.303195,-0.309620,-0.562696,0.778687,-0.277524
-0.749984,0.844683,-0.984630,-0.088334,0.168101,0.981804
-0.097865,-0.263814,0.104841,-0.806774,0.563663,-0.177200
0.155879,-0.054528,-0.892796,0.850505,0.441670,0.285603
-0.089082,-0.224844,-0.391436,0.983295,0.097666,-0.153600
-0.745192,0.334029,0.124817,0.498052,0.811968,-0.304389
0.054489,0.292261,-0.504351,-0.622944,0.781571,-0.032979
-0.145500,-0.034346,0.674890,-0.470597,0.880568,0.056018
-0.684782,-0.225263,-0.185162,0.267993,-0.231363,0.935228
-0.625306,0.217263,0.106217,-0.380067,-0.856042,-0.350344
-0.192603,0.129800,0.727371,-0.000869,-0.987362,0.158479
-0.196595,0.219232,0.133997,0.088533,-0.782043,-0.616904
-0.140709,0.177874,0.179361,0.909264,-0.412772,-0.053462
-0.164926,0.172133,0.707276,0.698347,-0.712530,0.067912
0.418536,-0.363195,-0.067342,-0.230126,-0.774337,0.589444
0.508750,-0.245865,-0.915314,-0.108142,0.225855,0.968140
-0.144834,-0.170310,-0.655184,0.898163,-0.426021,0.108671
-0.083628,-0.314694,-0.934541,-0.220180,0.011570,0.975391
-0.320472,0.044288,0.175563,-0.298683,-0.954079,-0.022852
-0.324995,0.080880,0.362699,0.426769,0.853150,-0.300004
-0.583129,0.212361,0.148530,0.467346,0.847144,-0.252853
-0.245424,-0.613684,-0.656828,-0.031352,-0.756773,0.652926
-0.402566,0.239833,-0.963189,-0.260327,0.160313,0.952118
-0.123678,0.047094,-0.126581,-0.226833,-0.381621,0.896054
0.437296,0.043030,-0.921982,-0.232541,0.206050,0.950509
-0.077639,0.107932,0.390509,0.040872,0.997041,-0.065100
-0.941186,0.439442,0.062528,-0.593967,-0.778483,0.202897
0.364513,-0.224005,-0.918154,0.381829,0.089669,-0.919873
-0.085090,0.156288,-0.528453,-0.460711,0.886744,-0.037826
-0.194597,0.100498,0.763314,0.374827,-0.464841,0.802140
0.020957,0.328006,0.785623,0.468858,0.540762,-0.698390
-0.180360,0.308662,0.126133,0.174986,-0.450426,0.875498
-0.126338,0.154329,0.908855,0.668508,-0.403899,-0.624470
-0.317544,0.067003,-0.192488,-0.541427,0.721034,-0.432397
-0.389661,-0.057891,-0.193654,-0.248110,-0.968697,0.008172
-0.642207,-0.206056,0.004635,0.077309,-0.981258,0.176508
-0.410950,0.053545,0.347956,-0.186570,0.582821,0.790893
-0.074979,0.287770,0.741156,0.912421,0.370487,-0.173861
0.320870,-0.263951,-0.906462,-0.325877,0.223851,0.918529
-0.538819,-0.171859,-0.685147,0.826972,0.533136,-0.178561
-0.016166,0.179422,0.634610,-0.158903,-0.946221,0.281807
-0.008848,0.162320,-0.905505,0.867349,-0.343463,-0.360192
0.349745,-0.252315,-0.920876,-0.038685,0.197022,0.979636
-0.655644,0.643534,-0.401094,0.883130,-0.244203,-0.400557
-0.175837,0.144798,-0.936964,0.296569,-0.261112,-0.918623
-0.270575,0.037007,-0.944798,-0.058634,0.110692,0.992124
-0.474950,-0.254001,-0.064472,-0.581000,0.661388,0.474347
-0.775529,0.415889,0.043928,0.062547,0.915353,0.397764
-0.226798,-0.359969,-0.590353,-0.364507,0.376926,-0.851505
-0.470695,0.023686,0.118597,0.735333,0.521540,-0.432761
-0.539083,-0.182092,-0.649143,-0.651561,-0.752892,0.092854
-0.677067,0.146056,-0.430011,0.987206,-0.158873,-0.013567
-0.466435,0.382394,-0.966478,0.599036,-0.337395,-0.726168
0.011910,0.138347,0.377441,0.217089,0.975944,0.020127
0.065664,-0.092241,-0.891002,-0.151348,-0.698269,0.699653
-0.070988,0.684181,0.098831,-0.586191,-0.667426,-0.459263
-0.685448,0.759316,-0.993451,0.329674,0.133917,-0.934549
-0.003524,-0.653493,-0.466613,0.984240,-0.051419,0.169200
-0.227728,0.103449,0.421877,0.983076,-0.156533,0.095175
0.059943,-0.483460,0.568882,-0.359695,0.509009,0.782003
-0.060475,0.525365,0.119584,0.427683,0.259755,0.865802
0.032400,0.261281,0.905505,0.846594,-0.528559,-0.062489
-0.011244,-0.803060,-0.496456,0.183098,0.829356,-0.527868
-0.128068,-0.109062,0.467390,-0.698578,0.710448,0.085164
-0.472688,-0.021307,-0.649682,0.814880,-0.386783,0.431705
-0.082028,-0.081444,0.564188,0.333294,0.412375,-0.847857
-0.359324,-0.266329,0.199635,-0.637998,0.603165,-0.478697
-0.666156,-0.042191,-0.477707,0.557809,0.789547,-0.255862
-0.216686,-0.177882,0.650579,-0.868041,0.432953,0.243017
-0.005121,0.312726,0.655573,0.896429,0.407667,0.173849
0.205642,-0.804463,-0.912652,-0.239769,0.015687,0.970703
0.726034,-0.138356,-0.916031,0.214346,0.025055,-0.976436
-0.150288,0.088725,0.213750,-0.435733,0.276372,-0.856595
-0.034129,0.002101,0.533148,0.878343,0.060673,0.474164
0.064600,0.209418,-0.399420,-0.776221,0.337808,-0.532322
-0.569022,0.036305,0.220328,-0.268751,0.871750,-0.409665
-0.609738,-0.674659,-0.439371,0.906851,0.322691,-0.271094
-0.084956,0.262265,0.684818,0.984605,0.129597,-0.117290
-0.603351,-0.150693,-0.676953,-0.638939,0.693532,0.332821
-0.115293,0.387715,0.144583,0.851294,0.414449,-0.321762
-0.011508,0.265910,0.613319,-0.086642,-0.996029,0.020496
0.010046,0.290020,0.779253,-0.539725,-0.416081,0.731829
-0.210430,0.161618,0.595108,0.895361,-0.442914,-0.046431
-0.295191,0.239978,0.642355,-0.312257,-0.946456,0.081952
-0.032798,0.357018,0.567627,0.962995,0.103779,-0.248737
-0.368505,-0.404963,0.164439,-0.758930,0.530515,-0.377596
0.016965,0.125591,0.815556,0.462814,-0.342642,0.817558
0.444081,0.294084,-0.286594,0.043885,0.988650,0.143687
0.484667,0.070083,-0.917796,0.054870,-0.245108,0.967942
0.018695,-0.067003,-0.927305,-0.202353,0.109378,0.973185
-0.095335,0.114520,0.266081,-0.258619,0.942247,-0.212805
-0.196193,0.136388,0.583565,-0.286197,0.251241,-0.924645
-0.285607,0.289874,-0.953859,0.252309,-0.162520,-0.953901
0.280154,0.037700,-0.920307,-0.003349,-0.077399,0.996995
-0.599891,-0.372024,-0.037648,-0.744268,0.060296,0.665153
-0.129266,-0.237317,-0.946652,-0.325379,-0.014999,0.945465
0.018163,0.263241,-0.759337,0.886678,0.450653,-0.103506
0.151619,-0.408607,-0.303071,0.935631,0.340105,-0.094461
-0.064730,0.073727,-0.648784,0.926787,0.280198,-0.250109
0.054355,0.181801,0.735534,0.414931,0.829437,0.373987
-0.346817,-0.007011,0.044945,0.406318,0.438540,-0.801616
-0.030138,0.191195,0.949882,0.839806,0.542285,-0.025539
0.055687,0.114375,-0.446039,0.918463,-0.384407,0.093046
0.000333,0.243195,0.437038,-0.075031,0.995060,-0.065005
-0.142970,-0.774459,-0.506414,0.495818,0.808081,-0.318071
-0.587916,-0.094902,-0.639574,0.975661,0.195155,0.100002
-0.136319,0.022429,0.431237,0.405623,0.721376,-0.561326
-0.026410,0.464809,-0.018630,0.909434,-0.320588,0.264862
-0.183288,-0.130929,0.389253,-0.043679,-0.737147,0.674319
-0.282814,0.067140,-0.490625,0.783642,-0.395706,0.478876
-0.213889,0.231423,0.736431,0.570150,0.655455,-0.495285
0.415076,0.277820,-0.917467,0.639455,0.763866,-0.087208
-0.248619,0.231987,0.640053,-0.449299,-0.877979,0.165177
0.132059,-0.014163,0.667205,0.033770,-0.581563,0.812800
-0.152549,0.334449,-0.947520,-0.363814,0.192350,0.911395
-0.456454,-0.226101,-0.276756,0.270912,-0.828364,0.490326
-0.685184,0.007567,-0.492091,0.457290,0.887595,-0.055335
-0.211627,0.053399,0.731049,-0.362523,0.729879,-0.579529
-0.005786,0.203806,0.930026,0.589282,-0.806293,-0.051378
0.429845,-0.059440,-0.903472,0.014408,-0.330865,0.943568
0.424123,-0.136397,-0.919410,-0.169570,0.125256,0.977526
