-0.328843,-0.349480,-0.938100,0.382028,0.255503,0.888129
-0.256660,-0.419712,-0.927823,0.035715,0.189779,0.981177
-0.191301,-0.482242,-0.915696,0.980883,-0.190051,-0.041827
-0.138121,-0.531478,-0.900595,-0.593606,-0.029347,0.804221
-0.514202,0.001763,-0.978282,0.544620,-0.767566,-0.337981
-0.447154,-0.062860,-0.967179,0.116824,0.990266,0.075661
-0.386542,-0.120555,-0.955415,-0.290082,0.799701,-0.525671
-0.330377,-0.173419,-0.941405,-0.511604,0.404112,0.758258
-0.261029,-0.240458,-0.930401,-0.569021,0.309229,0.761966
-0.179193,-0.321569,-0.922404,0.377966,0.499276,-0.779657
-0.138813,-0.356846,-0.905353,0.927753,-0.032476,-0.371780
-0.439339,0.100013,-0.972499,0.515819,-0.257448,-0.817099
-0.366927,0.029460,-0.962652,0.804582,-0.038129,-0.592616
-0.304860,-0.029556,-0.950062,-0.121806,0.398643,0.908981
-0.242181,-0.090114,-0.938926,-0.431241,0.305865,0.848809
-0.186087,-0.142979,-0.925907,-0.344029,-0.165653,0.924231
-0.109003,-0.218811,-0.916688,0.550694,0.005393,-0.834690
-0.049466,-0.275405,-0.904263,-0.486596,0.661976,0.570098
-0.346924,0.178375,-0.434344,0.063339,-0.364669,0.928981
-0.160724,0.034296,-0.291593,-0.756653,0.631723,0.168532
-0.166701,0.049463,-0.263869,0.684792,-0.719200,-0.117519
-0.175283,0.075181,-0.210371,-0.476561,0.852590,0.214427
-0.152142,0.058035,-0.189817,-0.554341,0.807735,0.200672
-0.151225,0.065615,-0.163713,-0.690038,-0.664083,-0.287821
-0.195515,0.171009,0.024044,-0.428621,-0.781464,0.453429
-0.146932,0.126174,0.039508,-0.042599,-0.972661,0.228291
-0.145169,0.132875,0.065349,-0.641848,-0.714228,0.279123
-0.151992,0.148699,0.092544,-0.606997,0.775751,-0.172522
-0.139271,0.151007,0.140590,0.976351,-0.137361,-0.166946
-0.170611,0.192555,0.171024,0.828412,0.403097,0.388905
-0.171298,0.201563,0.196534,0.680472,0.689953,-0.246827
-0.180418,0.219037,0.222771,-0.442883,-0.878501,0.179138
-0.158582,0.203871,0.244282,0.922769,0.355801,-0.147998
-0.163483,0.216951,0.270618,0.838374,-0.536226,-0.097930
-0.170073,0.232447,0.297219,0.974749,-0.144864,0.169939
-0.152605,0.221788,0.318764,0.319668,0.947441,0.012950
-0.160649,0.237940,0.344604,0.522450,0.849016,-0.078853
-0.104022,0.200685,0.409668,0.450547,0.890908,-0.057357
-0.297962,0.160243,-0.961099,0.043624,0.053169,0.997632
-0.225704,0.089904,-0.950954,-0.191687,0.014630,0.981347
-0.161187,0.027703,-0.940017,-0.231832,0.061121,0.970834
-0.114442,-0.014611,-0.923462,0.050889,0.832105,0.552279
-0.050308,-0.076484,-0.911103,-0.259714,-0.192779,-0.946248
0.039806,-0.166825,-0.904891,0.840548,0.062424,-0.538129
-0.124558,0.135954,-0.465074,0.258750,-0.834700,0.486132
-0.074216,0.169473,-0.188727,0.376623,-0.393938,0.838432
-0.200342,0.267723,-0.962586,-0.108827,0.044791,0.993051
-0.161416,0.233433,-0.944444,0.043306,-0.763258,0.644641
-0.089159,0.162879,-0.934201,-0.463614,0.666404,0.583924
-0.023027,0.099356,-0.922107,-0.248321,0.721171,0.646722
0.046854,0.030667,-0.912194,0.645444,-0.331578,-0.688083
0.050226,0.370702,-0.403447,-0.701150,0.094176,0.706767
0.733269,0.028910,0.114683,0.855523,-0.236916,0.460381
0.876175,-0.116268,0.115245,-0.139805,0.010717,0.990121
0.003177,0.500056,-0.949996,0.424008,0.396910,-0.814052
0.090531,0.412908,-0.943387,-0.241287,-0.180313,0.953555
0.146008,0.360150,-0.930037,0.387009,0.864509,0.320699
0.160259,0.565230,-0.942693,0.328432,0.060196,-0.942607
0.237422,0.488955,-0.933441,-0.531492,-0.182096,0.827259
0.268075,0.695684,-0.942131,0.432135,-0.129303,-0.892491
-0.561326,-0.493236,-0.472840,0.509170,-0.276654,0.814990
-0.629370,-0.316618,0.216129,0.164444,0.127154,0.978156
-0.987290,0.123316,0.486165,0.094221,-0.237798,0.966734
-0.814882,-0.070883,0.478730,-0.006966,-0.123581,0.992310
-0.659788,-0.182434,-0.383588,-0.633745,-0.734384,0.242999
-0.906525,0.217609,0.514913,-0.042513,0.996374,0.073693
-0.654961,-0.071211,0.464124,0.571609,0.189895,0.798250
-0.144173,-0.664790,0.307529,0.080409,0.467083,0.880550
-0.481328,-0.266725,0.457846,0.130182,0.157378,0.978920
-0.409608,-0.347830,0.451171,0.169111,-0.040984,0.984745
-0.543394,-0.384650,-0.215328,0.844311,0.414896,-0.339116
-0.368536,-0.581592,-0.224183,0.448467,0.698153,-0.558086
-0.481637,-0.394651,0.201887,0.450593,-0.251499,0.856571
-0.635346,-0.111103,-0.513286,0.082314,0.850280,0.519854
-0.531366,-0.201774,-0.312708,-0.014659,-0.995674,0.091748
-0.626610,0.005278,0.471857,-0.665714,0.711762,-0.224099
-0.437496,-0.208146,0.461117,-0.135900,0.138865,0.980942
-0.290605,-0.369597,0.483224,-0.215312,0.641580,0.736217
-0.736797,-0.179356,-0.985518,-0.161418,0.827142,0.538313
-0.699480,-0.220569,-0.980595,0.468151,-0.285450,-0.836273
-0.666915,-0.255953,-0.974283,-0.298896,-0.149950,0.942431
-0.637184,-0.288050,-0.965725,-0.193897,0.271206,0.942789
-0.568757,-0.362782,-0.952342,-0.197074,0.513281,0.835287
-0.538030,-0.396409,-0.945040,-0.561533,-0.821929,-0.095468
-0.496271,-0.442787,-0.942726,-0.334422,0.357815,-0.871854
-0.456040,-0.487079,-0.938629,-0.163325,0.238874,0.957217
-0.421254,-0.525213,-0.933144,0.158945,0.429708,0.888869
-0.382248,-0.568519,-0.928550,0.348768,-0.070373,-0.934563
-0.681549,-0.120447,-0.984065,0.211767,0.058060,-0.975594
-0.651898,-0.152652,-0.976398,-0.664118,0.206154,0.718643
-0.617107,-0.191007,-0.971276,0.339741,-0.395351,-0.853389
-0.583241,-0.227934,-0.964667,0.054859,-0.210696,-0.976011
-0.538414,-0.277934,-0.963941,-0.136758,0.063262,0.988582
-0.514202,-0.303874,-0.952739,0.452774,-0.403158,-0.795273
-0.482707,-0.337943,-0.944841,0.023882,0.029346,0.999284
-0.446771,-0.377177,-0.938827,-0.402617,-0.010478,0.915309
-0.406311,-0.422455,-0.935886,0.787988,0.109084,-0.605950
-0.366847,-0.465976,-0.932384,-0.121134,0.562176,0.818098
-0.332215,-0.504117,-0.925742,0.349533,0.587252,0.730043
-0.295432,-0.544666,-0.920884,-0.707101,0.024848,0.706676
-0.266084,-0.576099,-0.911665,-0.254645,0.586264,0.769058
-0.231985,-0.613576,-0.904296,-0.067895,0.597164,0.799241
-0.189309,-0.660832,-0.900959,0.323941,-0.165077,-0.931564
-0.149233,-0.705346,-0.897225,-0.184789,0.269136,0.945208
-0.637110,-0.054066,-0.982379,-0.153254,-0.450382,0.879585
-0.596879,-0.098580,-0.978876,0.332766,-0.195640,-0.922492
-0.567303,-0.130449,-0.970219,0.493372,-0.102580,-0.863749
-0.531978,-0.169240,-0.965064,-0.322648,-0.781795,-0.533568
-0.497805,-0.206938,-0.959480,-0.026056,-0.271553,0.962071
-0.463476,-0.244858,-0.953003,-0.310733,0.075019,0.947532
-0.443015,-0.266175,-0.940876,0.487127,-0.390610,-0.781109
-0.395582,-0.318933,-0.940281,-0.007009,0.414141,0.910186
-0.359187,-0.358932,-0.934399,-0.010895,0.512825,0.858424
-0.319036,-0.403552,-0.930368,0.370918,-0.170818,-0.912821
-0.286775,-0.439051,-0.923594,-0.147055,0.212464,0.966040
-0.254285,-0.474441,-0.916688,0.042313,0.993915,-0.101702
-0.222258,-0.509168,-0.908757,-0.527021,-0.153307,0.835910
-0.203101,-0.528842,-0.895440,-0.213926,0.206086,0.954864
-0.145632,-0.593794,-0.898778,0.315672,0.174168,-0.932747
-0.639406,0.021437,-0.388809,0.432098,0.831501,0.349137
-0.537114,-0.022962,0.187182,-0.221624,0.221755,-0.949583
-0.714348,0.213436,0.500473,-0.217260,0.927712,0.303558
-0.546612,-0.031977,-0.975671,-0.132044,0.455034,0.880630
-0.504927,-0.078248,-0.972697,-0.420242,-0.163557,0.892550
-0.476043,-0.109460,-0.963379,-0.090082,-0.019811,0.995737
-0.437421,-0.152317,-0.958885,0.611217,0.322484,-0.722785
-0.407765,-0.184521,-0.950954,-0.408456,0.500849,0.763095
-0.387921,-0.205288,-0.938464,0.113629,-0.259260,-0.959100
-0.348304,-0.249251,-0.934432,0.399686,0.043878,-0.915602
-0.304093,-0.298595,-0.933144,0.345422,0.480439,0.806140
-0.274517,-0.330799,-0.924222,0.174767,-0.984596,0.005251
-0.234286,-0.375305,-0.920091,-0.473127,0.116940,0.873198
-0.199958,-0.412782,-0.913251,-0.457796,0.625117,-0.632181
-0.172524,-0.442680,-0.904065,0.584602,-0.226598,-0.779034
-0.132756,-0.486750,-0.900397,-0.858001,0.340699,-0.384394
-0.093064,-0.530928,-0.895738,-0.035979,-0.155849,0.987125
-0.339955,-0.145508,0.079426,0.228859,-0.085372,0.969709
-0.342481,-0.140343,0.099417,0.250929,-0.398973,0.881961
-0.418952,-0.045165,0.183415,-0.480296,0.503478,-0.718210
-0.428839,-0.003952,0.457449,-0.071387,-0.571184,-0.817712
-0.675497,0.395320,0.518185,-0.468311,0.872428,0.139834
-0.384012,0.062650,0.455103,0.145316,-0.851593,0.503660
-0.503627,0.049463,-0.975638,-0.575797,-0.187678,0.795760
-0.467227,0.009457,-0.971078,0.116487,-0.316198,0.941514
-0.432670,-0.028462,-0.964734,0.774304,-0.571820,-0.271064
-0.396120,-0.069125,-0.960207,0.391494,0.373538,-0.840953
-0.362634,-0.105724,-0.953234,0.300597,-0.124707,-0.945563
-0.331907,-0.139129,-0.944973,-0.149311,0.035766,0.988143
-0.308462,-0.164297,-0.933342,-0.135545,0.568273,0.811599
-0.271528,-0.205074,-0.928716,0.015425,-0.164392,0.986274
-0.236966,-0.243315,-0.922966,-0.037243,0.325665,0.944752
-0.194823,-0.290028,-0.919694,-0.319501,0.016356,0.947445
-0.159344,-0.329042,-0.914242,0.706715,0.695822,0.128006
-0.136666,-0.352667,-0.901884,0.922592,0.112401,-0.369038
-0.082569,-0.413997,-0.903900,0.231627,-0.051278,0.971452
-0.309458,-0.117040,-0.486091,-0.409202,0.908512,0.084612
-0.288309,-0.131328,-0.393765,-0.630428,0.775053,-0.043055
-0.332519,-0.043629,-0.022813,-0.548262,0.093343,0.831081
-0.136128,-0.271012,-0.097162,-0.393015,-0.218273,-0.893250
-0.375355,0.017372,0.106753,-0.062629,0.607613,-0.791760
-0.356198,0.019787,0.338722,0.219283,-0.772685,-0.595712
-0.439185,0.206621,0.196831,0.807189,-0.571996,0.145830
-0.145632,-0.116161,0.257236,0.102814,0.197968,0.974801
-0.604619,0.422467,0.521654,0.408655,0.902593,0.135376
-0.302255,0.075945,0.437292,0.028285,0.997795,0.060049
0.148459,-0.441029,0.303431,-0.158934,0.446014,0.880801
-0.427918,0.082982,-0.972829,-0.704615,0.709189,0.023834
-0.395662,0.047705,-0.965295,-0.022877,-0.178063,0.983753
-0.363630,0.012315,-0.958720,0.997800,-0.053810,0.038722
-0.329914,-0.024612,-0.952739,-0.250482,0.535735,0.806379
-0.296737,-0.061431,-0.945733,-0.601218,0.551864,-0.577912
-0.260799,-0.100995,-0.940711,0.007851,0.270620,0.962654
-0.255510,-0.104838,-0.920587,0.846290,0.220833,-0.484795
-0.197044,-0.170890,-0.924982,0.289908,0.368342,0.883333
-0.159115,-0.212653,-0.919794,0.641899,-0.402970,-0.652366
-0.123257,-0.252109,-0.914441,0.052360,0.412997,0.909226
-0.106014,-0.270240,-0.900529,0.019732,0.302298,0.953009
-0.040730,-0.343765,-0.907369,-0.105858,0.048525,0.993196
-0.270069,-0.049344,-0.509948,-0.323711,0.917647,0.230512
-0.417807,0.123424,-0.427999,0.879243,0.056495,0.473012
-0.287387,-0.025819,-0.461902,-0.675507,0.643897,-0.359286
-0.380948,0.103535,-0.204192,0.432888,0.899224,-0.063269
-0.291372,0.001542,-0.219788,0.332461,-0.262104,0.905964
-0.303939,0.138590,-0.219161,0.377192,0.166092,0.911120
-0.265168,0.095512,-0.214601,-0.145008,-0.619992,0.771092
-0.208157,0.041440,-0.100698,0.857276,-0.348309,0.379154
0.153286,-0.369812,-0.180367,-0.427189,0.295356,-0.854561
-0.226392,0.076717,0.076319,0.858747,0.373397,-0.350897
0.371592,-0.584564,0.165604,0.962544,0.072516,0.261246
-0.299571,0.195520,0.518317,0.694332,0.120853,0.709435
-0.388076,0.168923,-0.972796,0.180803,-0.393686,0.901289
-0.360567,0.138919,-0.964007,-0.029354,-0.139679,0.989762
-0.322712,0.096827,-0.959215,-0.213282,-0.040701,0.976143
-0.290301,0.061107,-0.951880,0.095366,0.541032,0.835577
-0.256048,0.023416,-0.945205,-0.079635,0.029936,0.996375
-0.224021,-0.011867,-0.938430,0.165811,-0.404691,-0.899295
-0.213446,-0.021976,-0.921413,-0.008499,0.872774,0.488051
-0.197507,-0.038793,-0.906411,-0.712817,0.682481,-0.161591
-0.147161,-0.095387,-0.907865,0.070531,0.456065,0.887147
-0.087166,-0.162868,-0.912590,0.287744,0.061822,-0.955710
-0.046936,-0.207267,-0.908295,-0.311455,0.192437,0.930572
-0.008697,-0.249473,-0.903206,0.406523,-0.062094,-0.911528
-0.316889,0.113972,-0.681711,0.535033,0.841865,-0.070731
-0.228155,0.013301,-0.699027,0.383695,0.908437,-0.165892
-0.363555,0.190576,-0.393567,-0.256966,-0.347232,0.901886
-0.271065,0.235304,0.032767,-0.405687,0.571003,-0.713704
-0.144023,0.092541,0.023052,-0.683118,0.730270,-0.007478
-0.153367,0.104414,0.045688,0.480664,0.861475,-0.163774
-0.178042,0.134304,0.073973,-0.122560,0.992012,0.029859
-0.162946,0.118366,0.087422,0.932073,0.356236,-0.065847
-0.165476,0.122873,0.106621,-0.691858,0.708458,-0.139355
-0.171069,0.130789,0.126877,0.935693,-0.292984,-0.196566
-0.198195,0.164637,0.173634,0.453133,-0.823601,0.341104
-0.187621,0.153864,0.188504,-0.535333,-0.138440,0.833218
-0.206548,0.186947,0.341134,0.583089,0.515837,-0.627630
0.377341,-0.479828,0.159425,0.996037,-0.079378,0.040113
0.149151,-0.217268,0.255616,0.097239,0.419891,0.902351
-0.410450,0.428403,0.516169,-0.346628,0.286588,-0.893149
-0.250763,0.247170,0.480679,0.191695,0.580345,-0.791488
-0.314897,0.205628,-0.965031,-0.316556,0.484930,0.815252
-0.285854,0.173981,-0.956968,-0.206151,0.343700,0.916172
-0.251834,0.136283,-0.950458,0.161591,-0.513860,0.842518
-0.210762,0.090676,-0.947782,-0.054159,-0.079393,0.995371
-0.173445,0.049570,-0.942528,-0.581607,0.011711,0.813386
-0.150533,0.024952,-0.930533,0.716912,0.695909,0.041801
-0.119273,-0.009446,-0.922437,-0.204409,0.708995,0.674939
-0.071765,-0.062746,-0.922570,-0.026444,-0.531127,0.846879
-0.058735,-0.075827,-0.906907,0.939565,0.134249,0.314952
-0.001191,-0.140450,-0.910508,0.300011,0.150506,-0.941988
0.033979,-0.179027,-0.904461,-0.624820,0.516149,0.585824
-0.054905,-0.068247,-0.756721,0.211395,0.886196,-0.412273
-0.143256,0.043419,-0.591468,0.130760,0.958534,-0.253209
-0.148849,0.051441,-0.568800,-0.778779,0.607979,0.154480
-0.154134,0.059022,-0.545570,0.592879,-0.804391,-0.038072
-0.157048,0.064079,-0.524157,0.866576,-0.496401,-0.051308
-0.153676,0.061986,-0.504661,-0.743543,0.660428,0.104778
-0.158348,0.068694,-0.481861,-0.157882,-0.864883,0.476498
-0.182948,0.098913,-0.450866,-0.477929,0.878269,0.015086
-0.161187,0.075509,-0.440027,-0.433847,0.825408,0.361217
-0.167547,0.084297,-0.417590,0.991797,0.002216,-0.127807
-0.166781,0.085068,-0.397334,0.916674,0.382002,0.117402
-0.160037,0.078696,-0.380449,0.245641,-0.941541,0.230566
-0.160574,0.081003,-0.359730,0.047605,0.967356,0.248912
-0.144098,0.063858,-0.346017,0.518986,0.708193,0.478661
-0.171836,0.103092,-0.236343,-0.039189,0.318887,0.946982
-0.146015,0.075181,-0.226463,0.611521,0.639780,0.465536
-0.155593,0.087704,-0.202771,0.229401,-0.971976,-0.051361
-0.154363,0.087704,-0.183440,-0.709376,-0.691777,-0.135019
-0.131914,0.068144,-0.115336,0.760809,-0.143157,0.632990
-0.179576,0.124524,-0.077501,0.861983,0.120032,0.492521
-0.040959,-0.033292,-0.110611,0.264401,0.174886,0.948423
-0.257886,0.254978,-0.949699,-0.013690,0.527758,0.849285
-0.201721,0.191676,-0.953333,-0.509883,0.462911,0.725075
-0.173599,0.161008,-0.944709,-0.138704,-0.013430,0.990243
-0.137050,0.120566,-0.939884,-0.050388,0.623004,0.780594
-0.100191,0.079460,-0.934531,-0.230698,-0.037942,-0.972285
-0.062108,0.037261,-0.930401,0.290887,-0.791200,-0.537947
-0.038354,0.011436,-0.918836,-0.196257,0.329020,0.923704
-0.001804,-0.028898,-0.912921,0.236973,0.045311,-0.970459
0.035971,-0.070661,-0.907600,-0.033174,-0.328677,0.943859
-0.130535,0.147270,-0.456780,-0.212114,0.950181,-0.228393
-0.247541,0.298056,-0.170949,-0.193561,-0.147615,0.969920
-0.211070,0.287505,0.265662,0.595633,0.784844,-0.171003
-0.132069,0.199806,0.274980,0.992173,-0.014630,-0.124010
-0.179038,0.255743,0.326595,-0.042280,-0.960786,0.274047
-0.147395,0.221016,0.334063,0.608808,0.782486,-0.130650
-0.109231,0.183761,0.410858,0.183581,-0.980532,0.069675
0.625762,-0.655446,0.164051,-0.115753,-0.514602,-0.849580
-0.166551,0.250249,0.447371,0.367295,-0.806265,0.463715
-0.220952,0.313336,0.483356,0.070116,-0.811571,0.580031
-0.193981,0.283882,0.491650,0.471124,-0.729282,0.496176
-0.333595,0.517752,0.053982,0.958449,-0.087339,0.271564
-0.169998,0.344220,0.197161,-0.836142,0.515579,-0.187204
0.334276,-0.216168,0.243159,-0.300818,0.568314,-0.765851
-0.192985,0.390812,0.526875,-0.820330,0.508365,-0.261960
-0.130380,0.320917,0.523802,0.007065,0.548245,0.836288
0.120417,0.259372,-0.922999,-0.024467,-0.073353,0.997006
0.160568,0.214865,-0.919595,0.042156,-0.225498,0.973331
0.069229,0.342240,-0.398028,-0.651893,0.075790,0.754514
0.072904,0.355207,-0.046076,0.171064,0.456436,0.873157
-0.080039,0.552921,0.518251,0.997638,0.053428,0.043169
-0.060653,0.460379,-0.950425,-0.217123,0.215812,0.951989
-0.028088,0.424446,-0.943949,-0.194725,0.034151,0.980263
0.017048,0.374331,-0.942197,-0.046476,0.358597,0.932335
0.058962,0.327732,-0.938893,-0.096591,0.178507,0.979186
0.092295,0.290584,-0.931756,0.794145,0.422454,-0.436882
-0.157506,0.710630,-0.007513,-0.152965,-0.305677,0.939768
0.285543,0.209150,-0.156245,-0.637187,-0.659293,0.399155
-0.003567,0.498521,-0.943486,-0.236696,-0.393107,0.888505
0.040494,0.449500,-0.941272,0.396342,-0.166402,0.902897
0.084400,0.400599,-0.939785,-0.278710,0.115149,0.953447
0.121946,0.358722,-0.934531,-0.098266,0.502635,0.858896
0.148534,0.329597,-0.924255,0.735892,0.576810,-0.354616
0.199647,0.272559,-0.924916,-0.068813,0.140594,0.987673
0.151986,0.341906,-0.543620,-0.550020,0.834428,-0.034758
-0.047628,0.572152,-0.379590,0.147479,-0.215972,0.965197
-0.227772,0.787891,-0.036592,-0.001215,-0.401676,0.915781
-0.246086,0.809208,-0.011214,0.708185,0.043612,0.704678
0.065169,0.516873,-0.948641,0.718555,0.334260,-0.609876
0.083479,0.496763,-0.935688,-0.311264,-0.426681,0.849151
0.130528,0.444006,-0.934763,-0.218307,0.063618,0.973804
0.175201,0.394441,-0.933441,0.082422,0.314483,0.945678
0.207766,0.358393,-0.925808,-0.368610,0.227222,0.901386
0.329604,0.260579,0.060822,-0.456912,-0.404463,-0.792238
0.063097,0.646449,0.109694,0.969968,-0.227788,0.085295
0.417262,0.247834,0.038649,0.012400,0.472424,0.881284
0.464157,0.195741,0.041194,0.809742,0.037476,-0.585588
0.501703,0.154085,0.046547,-0.215647,0.898847,0.381538
0.614116,0.030775,0.121325,0.198168,0.237155,-0.951045
0.124401,0.541377,-0.941041,-0.137992,0.259447,0.955848
0.165240,0.495878,-0.938133,-0.342998,0.570340,0.746367
0.199264,0.458186,-0.931260,-0.258706,0.312628,0.913967
0.230374,0.424003,-0.923759,-0.318518,-0.087040,0.943912
0.470672,0.287176,0.014362,0.933957,0.091195,0.345556
0.568676,0.179032,0.074436,0.373481,0.719220,0.585863
0.692580,0.042205,0.127009,0.023880,-0.520464,0.853550
0.921765,-0.214740,0.105497,-0.180995,-0.202691,0.962371
0.161101,0.604900,-0.938926,-0.151979,0.301313,0.941336
0.207079,0.553686,-0.938265,-0.011572,-0.000913,0.999933
0.236272,0.521045,-0.930137,-0.407068,0.000746,0.913398
0.205625,0.654686,-0.940612,-0.340751,0.361511,0.867870
0.280024,0.571710,-0.930467,0.093603,0.303125,0.948343
0.425461,0.423346,-0.344530,-0.388698,0.129580,0.912207
0.430596,0.426096,0.005308,-0.800076,-0.232852,-0.552864
0.613653,0.222009,0.015783,-0.503305,-0.781198,-0.369343
0.606680,0.230360,0.056956,-0.008920,0.442861,0.896546
0.222171,0.741512,-0.945337,-0.623078,0.725564,-0.292113
0.265315,0.693156,-0.942660,0.218548,-0.086469,-0.971987
0.294508,0.660730,-0.933474,-0.252577,-0.505599,0.824970
0.431363,0.519731,-0.324307,-0.365212,0.212381,0.906374
0.682693,0.245306,0.030619,0.446436,-0.816211,-0.366736
0.675799,0.253435,0.052363,0.571036,0.765505,0.296513
0.767368,0.151228,0.039806,-0.225540,0.653432,0.722605
0.976480,-0.081320,0.120235,-0.180995,-0.202691,0.962371
0.287610,0.746349,-0.944676,-0.308947,-0.047917,0.949872
0.741851,0.254649,0.015386,-0.321607,0.520792,0.790787
0.741926,0.330482,0.007951,-0.180389,0.505909,0.843514
0.314432,0.792399,-0.942561,-0.267553,0.083230,0.959942
0.363394,0.797564,-0.938331,0.274422,-0.287470,-0.917635
-0.777027,-0.487736,0.591642,-0.281809,-0.562907,0.776994
-0.749672,-0.437293,0.590981,0.018025,-0.663197,0.748228
-0.589448,-0.561261,0.966361,0.885479,-0.077471,0.458177
-0.705303,-0.417404,0.582455,-0.008288,-0.671111,0.741311
-0.646608,-0.480814,0.598019,0.663336,0.564512,0.491235
-0.540102,-0.581706,0.719819,-0.016872,-0.529916,0.847882
-0.616803,-0.471805,0.879488,-0.124317,0.402653,0.906871
-0.632587,-0.313761,0.749526,-0.184867,-0.827695,0.529854
-0.545233,-0.413004,0.739613,0.591638,0.749771,0.296323
-0.793654,-0.072969,0.628155,0.420253,0.737931,0.528057
-0.773885,-0.093629,0.639027,-0.065819,-0.205783,0.976382
-0.620175,-0.265625,0.640547,-0.649867,0.343293,-0.678102
-0.597571,-0.289365,0.650162,0.935115,-0.188285,0.300182
-0.510675,-0.383335,0.675177,-0.333357,0.575511,0.746766
-0.325242,-0.587086,0.702868,-0.157957,0.490801,-0.856834
-0.372058,-0.529721,0.734953,0.386822,0.085659,0.918167
-0.943384,0.188047,0.662157,0.658538,0.031827,0.751874
-0.727373,-0.056703,0.642430,-0.039722,-0.545345,0.837270
-0.699560,-0.086814,0.650790,0.193556,0.142006,0.970758
-0.610597,-0.185836,0.656275,-0.235843,-0.148553,-0.960370
-0.346695,-0.473562,0.710468,0.642772,0.070757,0.762783
-0.390143,-0.420369,0.741397,-0.687960,0.283680,-0.668010
-0.676110,-0.076048,0.912697,0.869288,0.247484,-0.427890
-0.584542,-0.180127,0.901496,0.882945,0.346018,0.317301
-0.799631,0.109250,0.599440,-0.044777,0.890813,-0.452158
-0.514202,-0.204302,0.644248,-0.072275,0.530728,0.844455
-0.475889,-0.246394,0.649601,0.344742,-0.681864,-0.645147
-0.463626,-0.258374,0.662653,-0.772567,0.466554,0.430659
-0.474200,-0.236835,0.734292,0.755331,0.258104,-0.602377
-0.410908,-0.305410,0.749460,0.826583,-0.368219,0.425646
-0.622934,-0.045386,0.914482,0.876908,0.430452,-0.213877
-0.744692,0.155957,0.615532,-0.395234,0.759514,-0.516651
-0.680862,0.189362,0.610278,-0.498349,0.176380,-0.848846
-0.787906,0.417523,0.630105,-0.577651,0.277204,-0.767774
-0.618337,0.444670,0.595574,0.486562,0.756299,0.437342
-0.550676,0.368616,0.590650,-0.860471,0.501979,0.087216
-0.466002,0.275860,0.613814,0.344862,0.844044,0.410682
-0.497112,0.325860,0.776325,0.384236,-0.389727,0.836944
-0.424546,0.244098,0.770773,-0.429114,-0.447095,-0.784836
-0.441023,0.362130,0.617581,0.859986,-0.078962,0.504172
-0.185857,0.072538,0.568742,-0.167542,0.910385,-0.378324
-0.129155,0.008800,0.568246,-0.287126,0.956071,-0.059053
-0.219882,0.115951,0.631856,-0.198594,-0.979363,-0.037543
-0.169306,0.062101,0.667775,-0.453520,-0.857022,-0.244608
-0.249229,0.156393,0.726825,0.579190,0.000906,0.815192
-0.290530,0.300585,0.597953,0.082464,-0.258228,0.962558
-0.225859,0.227832,0.594582,0.825383,0.556572,0.094715
-0.114676,0.105178,0.610609,-0.343663,0.939010,0.012517
-0.118122,0.110236,0.629345,-0.302056,-0.880657,-0.364974
-0.436425,0.477639,0.780554,-0.175348,0.198237,-0.964342
0.044708,-0.070333,0.648609,-0.140815,0.308241,0.940829
0.043174,0.025610,0.591146,-0.316916,0.027192,0.948064
-0.409299,0.544785,0.783792,-0.478950,0.689898,-0.542814
-0.258424,0.374002,0.753458,0.243451,-0.027418,-0.969525
0.132366,-0.070111,0.650361,0.379067,0.020591,-0.925140
0.169608,-0.110888,0.656540,0.519584,-0.268979,-0.810976
-0.369686,0.485769,0.567387,0.089811,-0.214603,0.972563
-0.097048,0.179367,0.547594,0.709339,0.704614,-0.018892
-0.061878,0.140347,0.554070,0.884374,-0.443925,-0.144268
-0.065021,0.145184,0.572211,0.383639,-0.923408,0.011767
-0.045785,0.124524,0.583810,-0.697966,0.713551,-0.060732
-0.032377,0.110786,0.597358,0.017618,0.905528,0.423919
-0.455044,0.686777,0.579547,-0.120586,-0.971305,0.205003
0.049230,0.127381,0.640910,-0.100040,0.696476,0.710573
-0.311908,0.538962,0.770443,-0.386197,-0.804248,0.451705
-0.102183,0.302892,0.738721,0.090477,-0.526072,0.845614
0.271292,-0.118690,0.676730,-0.186385,0.268470,0.945084
0.315428,-0.167483,0.681125,-0.233938,0.118313,0.965026
-0.135899,0.529403,0.572873,0.313392,-0.510682,0.800618
-0.140267,0.622045,0.554996,0.277292,-0.847225,0.453122
-0.165172,0.650950,0.580572,0.606942,-0.673109,0.422548
-0.069848,0.543906,0.566594,-0.590957,0.772763,0.231532
0.198417,0.248163,0.656011,-0.687596,-0.197976,0.698582
-0.013220,0.572703,0.555491,-0.345853,0.303816,-0.887739
-0.013449,0.663151,0.574558,0.536294,-0.243321,0.808198
-0.291910,0.978461,0.680926,0.361222,0.518081,-0.775313
0.193516,0.431039,0.542868,-0.414402,0.670054,0.615872
-0.017817,0.752393,0.584702,-0.337344,0.524094,-0.782000
0.020112,0.807343,0.602315,-0.337344,0.524094,-0.782000
0.364774,0.809322,-0.945105,0.071755,0.019299,0.997236
0.062330,0.142548,-0.922602,0.247420,-0.188330,-0.950429
-0.314359,0.040776,-0.947154,0.857979,-0.511430,-0.048082
-0.200033,0.099685,0.006563,-0.526687,-0.698009,0.485165
-0.653048,-0.129020,-0.980165,-0.663941,0.026163,-0.747327
-0.521095,-0.222655,-0.959182,-0.192535,0.410090,0.891491
-0.402251,-0.306074,-0.937373,-0.262287,0.194011,-0.945286
-0.613356,-0.074505,-0.979504,-0.296244,0.000191,0.955112
-0.466769,-0.178698,-0.960570,0.327011,-0.606433,-0.724777
-0.337655,-0.269362,-0.938761,0.346670,-0.286379,-0.893201
-0.275817,0.483025,0.600662,-0.271951,0.357411,0.893476
-0.140038,0.049677,0.621678,0.828135,-0.560523,-0.002323
-0.130689,0.107821,0.560150,-0.455380,0.888493,0.056647
-0.534738,0.041440,0.472220,0.252189,0.683474,-0.685028
-0.272524,-0.636872,-0.911830,0.158706,-0.070822,0.984783
-0.451906,-0.342779,-0.941405,-0.172406,-0.315905,0.932995
-0.683542,-0.142315,-0.982677,-0.206251,0.133820,0.969305
-0.277197,-0.595330,-0.909914,-0.358554,-0.540242,-0.761300
-0.345086,-0.543351,-0.939752,0.020263,0.356992,0.933888
-0.760322,-0.174190,-0.989550,0.213686,-0.565000,-0.796940
-0.504394,-0.208260,-0.956539,0.052685,-0.216453,0.974870
-0.644233,-0.084506,-0.973986,-0.208607,0.343972,0.915514
-0.230839,-0.450481,-0.920124,-0.430889,0.854208,-0.290969
-0.351830,-0.345308,-0.941140,-0.115529,0.157913,0.980671
-0.117047,-0.548294,-0.899406,0.272491,0.307608,-0.911661
-0.142489,-0.410260,-0.908063,0.445349,0.786647,0.427611
-0.254977,-0.313761,-0.930698,0.229105,-0.115775,-0.966492
-0.403781,-0.180456,-0.944973,0.322012,-0.551059,-0.769833
-0.500639,-0.098687,-0.968038,-0.123708,0.658031,0.742760
-0.150533,0.085947,-0.368850,-0.205646,0.977759,0.041203
-0.170302,0.090126,-0.405992,0.962050,0.250466,-0.108290
-0.069310,0.233218,0.488808,0.603187,-0.558068,-0.569846
-0.175666,0.103199,-0.077567,0.991595,0.072576,-0.107108
-0.141876,0.054185,-0.121912,0.981957,0.135141,0.132280
-0.142947,0.084518,-0.570287,0.968669,-0.243436,-0.049197
-0.146090,0.057264,-0.647610,0.516199,0.820468,-0.245706
-0.145019,0.040011,-0.688287,0.527430,-0.837556,-0.142539
-0.141264,0.021324,-0.727940,0.778753,-0.626335,0.035330
-0.150842,0.014515,-0.767163,0.819409,-0.484388,0.306490
-0.150000,-0.002080,-0.808534,-0.782681,0.612579,0.110265
-0.145552,0.135404,-0.448718,0.270900,-0.945035,-0.183091
-0.113446,0.034296,-0.686271,0.672876,-0.727991,-0.131405
-0.163792,0.069023,-0.719051,0.411317,-0.908469,0.074177
-0.165017,0.054628,-0.759431,0.819547,-0.464953,0.334904
-0.139729,-0.003181,-0.843660,-0.416867,0.908235,-0.036481
-0.044485,-0.124512,-0.866692,0.668282,0.698295,-0.256482
-0.142180,-0.042529,-0.890186,-0.109483,0.611049,0.783985
-0.184174,-0.016261,-0.922735,-0.008281,0.913598,0.406533
-0.267773,0.051770,-0.949798,-0.175856,0.139229,0.974520
-0.382019,0.151449,-0.969426,-0.223662,-0.596607,0.770737
-0.127242,-0.030770,-0.884932,0.447064,0.597063,-0.666070
-0.182640,0.007586,-0.916787,0.827562,-0.536617,-0.164875
-0.236662,0.045941,-0.947121,0.150890,0.331230,0.931407
-0.353747,0.147605,-0.968468,-0.239767,-0.221179,-0.945300
-0.151683,0.004513,-0.920554,0.961476,0.258802,0.092652
-0.222716,0.058250,-0.949897,-0.134944,-0.011678,0.990784
-0.337425,0.156721,-0.971673,-0.181112,0.396890,0.899820
-0.142793,0.059571,-0.940215,0.507724,-0.011351,-0.861445
-0.271678,0.171344,-0.959744,-0.160082,0.441947,0.882642
-0.032989,-0.034614,-0.917811,0.491257,-0.642199,0.588427
-0.056743,-0.075391,-0.896894,0.674959,0.465947,0.572122
0.031224,-0.036150,-0.909814,0.415673,0.598208,-0.685101
-0.066784,0.046384,-0.933045,-0.456883,0.840264,0.291916
-0.213750,0.176724,-0.948145,0.577027,-0.043399,-0.815571
0.010609,0.086168,-0.920884,0.243549,-0.772630,-0.586283
-0.091534,0.172881,-0.943420,-0.272273,0.777880,0.566365
-0.224325,0.288383,-0.962189,-0.450573,0.217336,0.865881
0.012068,0.221124,-0.929839,0.463240,0.848255,-0.256655
-0.101262,0.318280,-0.950558,-0.506625,0.497251,0.704324
0.068232,0.101335,-0.917943,0.885930,-0.443647,-0.135297
-0.056822,0.209479,-0.938365,-0.444928,0.159154,0.881311
-0.174366,0.310808,-0.960108,-0.228807,0.330890,0.915510
0.039652,0.410594,-0.936712,0.736529,-0.191358,-0.648774
0.096354,0.504564,-0.937505,0.249952,0.249626,0.935527
0.129761,0.396199,-0.932317,0.022505,0.005851,-0.999730
-0.010077,0.519731,-0.950128,-0.602449,-0.079196,0.794218
0.202482,0.521595,-0.934664,-0.152547,0.007672,0.988267
0.295963,0.539734,-0.929971,0.458813,-0.200288,0.865665
0.170529,0.648092,-0.948740,-0.017233,-0.099591,0.994879
0.300331,0.598749,-0.932714,0.558987,-0.312640,-0.767978
0.258571,0.746349,-0.941999,-0.022171,0.286862,0.957715
-0.133369,0.647764,0.619894,0.101002,-0.264290,0.959140
-0.146548,0.586219,0.608362,-0.269411,-0.221485,0.937210
-0.161107,0.534126,0.601389,0.392368,-0.530652,-0.751303
-0.201492,0.472031,0.592666,0.919526,-0.340576,0.196163
0.285314,0.697328,-0.941537,0.483367,-0.353762,-0.800755
0.206621,0.632818,-0.942892,-0.486017,0.510028,0.709689
0.312439,0.645349,-0.935886,0.661777,0.011045,-0.749619
0.221942,0.594356,-0.939918,-0.126619,0.334841,0.933729
0.317879,0.605343,-0.930368,-0.308356,0.309599,0.899480
0.132749,0.528303,-0.940116,0.080362,-0.044755,0.995760
0.236426,0.539841,-0.931359,-0.292828,0.211595,0.932459
-0.269073,0.237283,-0.957134,-0.780255,0.413019,-0.469700
-0.054447,0.261572,-0.943982,0.028984,-0.151159,0.988084
0.051990,0.274102,-0.937638,0.546258,0.239702,0.802587
0.151677,0.285526,-0.927823,-0.159908,0.075621,0.984231
-0.181798,0.136940,0.309445,0.899992,-0.392360,0.189916
-0.155977,0.137490,0.334790,-0.675577,0.735077,0.057075
-0.178042,0.129139,0.403654,-0.512296,0.858593,-0.019263
-0.105018,0.136283,0.420539,0.250847,-0.911798,-0.325115
-0.172294,0.124524,0.465479,0.851004,-0.163968,0.498906
-0.223557,0.114415,0.506751,0.058771,0.565520,0.822638
-0.299954,0.201235,-0.971409,-0.320197,-0.197205,0.926598
-0.231143,0.208379,-0.955514,-0.495935,-0.042146,-0.867336
-0.111224,0.222224,-0.951615,-0.162957,-0.053311,0.985192
-0.041113,0.229481,-0.935820,0.220780,-0.353934,-0.908838
0.063406,0.241677,-0.927526,0.589212,-0.147080,-0.794479
0.167845,0.253328,-0.918935,-0.352278,0.395275,0.848326
-0.164479,0.109250,0.221911,0.015255,0.999805,0.012522
-0.165476,0.106057,0.253270,0.940618,0.291420,0.174105
-0.182336,0.100892,0.289189,0.937278,-0.302950,0.172426
-0.267389,0.085725,0.339648,-0.680868,0.430955,-0.592197
-0.153367,0.084411,0.503480,-0.204772,0.836357,0.508504
-0.233599,0.056492,0.705643,0.486766,0.105857,0.867095
0.064631,0.182990,-0.931723,-0.056892,0.101299,0.993228
0.158650,0.193762,-0.921941,0.191663,-0.414636,0.889574
-0.093447,0.119580,-0.449742,-0.479945,0.854411,0.199087
-0.174899,0.060121,0.091652,0.835776,0.468088,0.287005
-0.172757,0.057264,0.123638,0.937434,-0.209608,0.277996
-0.197428,0.051220,0.160516,0.059372,-0.688377,0.722919
-0.094214,0.027917,0.549609,-0.636113,0.745238,0.199951
-0.112300,0.022752,0.583876,-0.245782,0.967356,0.061747
-0.115288,0.019130,0.616061,0.124588,-0.967632,-0.219467
-0.346391,0.136061,-0.964304,-0.365415,0.010512,-0.930785
-0.240109,0.148592,-0.956935,-0.595478,0.618414,0.512806
-0.136437,0.160129,-0.948740,0.103498,0.957175,-0.270377
-0.048774,0.169366,-0.936349,-0.195552,0.682883,0.703868
-0.169306,0.018580,0.007290,0.928753,-0.343871,0.138461
-0.161416,0.016380,0.038385,0.870413,-0.070247,-0.487284
-0.181952,0.010336,0.074469,0.621521,0.504890,0.598997
-0.138350,0.013630,0.097468,-0.259840,0.928075,-0.266758
-0.334820,-0.031977,0.330858,0.615602,-0.728723,-0.299994
-0.393286,0.082432,-0.971937,-0.137406,0.410118,0.901622
-0.295741,0.093198,-0.962454,0.230093,0.874757,0.426448
-0.204710,0.103535,-0.952375,-0.371042,0.142572,0.917606
-0.123870,0.111886,-0.939554,-0.066557,0.542836,0.837197
-0.006018,0.125510,-0.934829,0.059254,0.525804,0.848540
0.085705,0.135954,-0.924651,0.336576,-0.382345,-0.860540
-0.170686,-0.018897,-0.294633,0.778605,-0.624916,-0.057054
-0.160958,-0.023297,-0.231222,-0.145715,0.660537,-0.736517
-0.149153,-0.028348,-0.167348,0.987801,0.115161,-0.104821
-0.170536,-0.034178,-0.129083,0.929498,0.366031,0.045338
-0.213367,0.020666,-0.078955,0.962491,0.145181,-0.229203
-0.188313,0.021324,-0.051660,0.299639,0.950602,-0.081068
-0.321028,0.025502,-0.965989,0.280628,0.155227,-0.947181
-0.266777,0.029896,-0.945040,-0.058233,0.347496,0.935871
-0.170611,0.040998,-0.936217,0.306457,-0.112871,-0.945169
-0.054830,0.054407,-0.931095,-0.274658,0.453944,0.847643
0.047467,0.066166,-0.922239,0.077736,0.648211,0.757482
-0.163638,0.003742,-0.529345,0.977867,-0.208937,0.011039
-0.194135,-0.003623,-0.487776,-0.371132,0.928471,-0.014252
-0.184248,-0.005052,-0.457507,0.821908,0.568773,0.031063
-0.194519,-0.009889,-0.421126,0.994813,-0.013504,-0.100824
-0.190226,-0.012746,-0.388412,0.879702,-0.470094,0.071665
-0.178734,-0.014061,-0.357417,0.979363,-0.188268,-0.073507
-0.167239,-0.015711,-0.327809,0.061354,0.796144,0.601989
-0.465773,-0.075276,-0.965791,-0.113109,0.728749,0.675375
-0.347078,-0.060989,-0.963247,0.754640,0.173843,-0.632690
-0.280873,-0.054838,-0.945535,-0.294261,0.136824,-0.945880
-0.174595,-0.042415,-0.937935,-0.463586,0.072419,0.883087
-0.203251,-0.050109,-0.895407,0.793703,-0.505392,-0.338547
-0.108698,-0.039229,-0.886221,0.537344,0.695979,-0.476313
-0.197657,-0.055388,-0.829881,0.789772,-0.599848,-0.128230
-0.143789,-0.053409,-0.775325,0.767097,-0.576587,0.281265
-0.201258,-0.065168,-0.726123,0.624818,-0.743243,0.239151
-0.226392,-0.100337,-0.939125,-0.268164,0.491420,0.828610
-0.130993,-0.150230,-0.922404,0.676767,0.720654,0.150477
-0.624693,-0.278484,-0.962553,0.701894,-0.518514,-0.488352
-0.523471,-0.266504,-0.955779,-0.425819,0.104033,0.898808
-0.324859,-0.243979,-0.937869,0.199901,0.097378,0.974965
-0.576802,-0.349594,-0.956506,-0.635987,0.075774,0.767971
-0.477572,-0.338164,-0.947716,0.644854,0.635078,0.425252
-0.380261,-0.326734,-0.939554,0.001546,0.088318,0.996091
-0.106168,-0.296401,-0.908427,0.865376,-0.241695,-0.438984
-0.463397,-0.393001,-0.938232,0.556823,-0.160208,0.815034
-0.354973,-0.380035,-0.932945,0.094091,0.216943,0.971639
-0.153217,-0.357067,-0.915498,0.772153,-0.554016,-0.311200
-0.044943,-0.344758,-0.908361,-0.079968,0.058907,0.995055
0.317266,-0.562690,0.291998,-0.509703,-0.714531,-0.479216
-0.293673,-0.599731,-0.910475,-0.519821,0.228682,0.823099
-0.181339,-0.586207,-0.904527,0.291079,-0.026903,0.956321
0.363090,0.803493,-0.937968,-0.012514,0.339547,0.940506
0.303016,0.771074,-0.939488,-0.203618,-0.158861,0.966076
0.374123,0.798878,-0.939587,-0.349970,0.376979,0.857559
0.291445,0.790856,-0.941438,-0.296901,-0.015466,0.954783
0.325310,0.823389,-0.941140,0.290094,-0.167369,-0.942249
0.373664,0.844928,-0.937109,-0.562934,0.148682,0.813018
0.331058,0.810966,-0.939125,-0.195045,0.292949,0.936023
0.343934,0.692606,-0.936316,0.326957,0.324185,0.887695
0.259722,0.685462,-0.936316,-0.095195,0.057726,0.993783
0.189531,0.678318,-0.942825,0.005832,-0.227350,0.973796
0.329220,0.637541,-0.926766,-0.201615,0.364930,0.908943
0.263627,0.630618,-0.933672,0.056972,0.267686,0.961820
0.183629,0.623588,-0.936448,-0.026187,0.201020,0.979237
0.121029,0.616659,-0.944345,-0.519964,0.237097,0.820624
0.288456,0.562259,-0.930037,0.007741,0.178631,0.983886
0.214207,0.555115,-0.934994,0.139977,0.189430,-0.971866
0.140569,0.548306,-0.938992,0.118442,-0.435157,-0.892530
0.067311,0.541491,-0.942892,0.488903,-0.729037,-0.479040
0.250906,0.482583,-0.923759,0.346752,0.480472,0.805550
0.181946,0.475439,-0.930731,-0.354965,-0.190655,0.915233
0.108846,0.468295,-0.935853,0.264894,-0.370785,-0.890140
0.028619,0.461265,-0.938331,0.022260,0.194214,0.980707
-0.034598,0.454450,-0.945733,0.147518,0.084969,0.985403
0.241482,0.409936,-0.922305,0.358470,-0.835137,0.417187
0.178499,0.402685,-0.931392,-0.157579,0.392312,0.906234
0.105549,0.395870,-0.935291,0.509248,0.257329,-0.821248
0.041948,0.388619,-0.944114,-0.534987,-0.052960,0.843199
-0.051075,0.381582,-0.941372,-0.113905,0.930255,0.348786
-0.111224,0.374552,-0.951285,0.162990,0.047149,0.985500
-0.141492,0.510279,-0.343935,0.639075,0.196528,-0.743612
-0.350759,0.399170,-0.447066,0.218777,0.768475,0.601317
0.173747,0.332454,-0.925081,0.146421,0.318385,0.936585
0.105395,0.325531,-0.930798,-0.312690,0.067181,0.947476
0.033521,0.318387,-0.936250,-0.036945,0.144444,0.988823
-0.041571,0.311465,-0.939191,-0.333375,0.283456,0.899174
-0.100420,0.304214,-0.949533,-0.583695,0.454776,0.672666
-0.173061,0.297177,-0.954490,0.037101,-0.050262,0.998047
-0.238575,0.290033,-0.962156,-0.552234,0.672013,0.493393
-0.094673,0.658972,0.592005,0.320788,-0.927705,0.190940
-0.259036,0.650735,0.615103,-0.309371,0.934024,-0.178575
-0.324779,0.643806,0.608989,0.306410,0.852932,0.422634
-0.653123,0.609629,0.576871,0.394348,0.661697,0.637688
-0.275433,0.215301,-0.958686,-0.394361,0.000091,0.918956
-0.331907,0.208050,-0.969756,0.538248,-0.323857,-0.778078
-0.139655,0.587212,0.594681,-0.547811,0.265701,-0.793288
-0.207544,0.580175,0.589064,-0.698229,0.206651,-0.685398
-0.156739,0.574789,0.546569,-0.643819,-0.393632,-0.656163
-0.683621,0.544234,0.602876,-0.557431,-0.455074,-0.694390
-0.100346,0.536326,0.361985,0.574632,0.521069,-0.631098
0.125318,0.257722,-0.918769,0.466066,0.206625,-0.860284
0.067236,0.250470,-0.929443,-0.440961,-0.007839,0.897492
-0.004792,0.243548,-0.933540,-0.656505,0.211863,0.723958
-0.065405,0.236626,-0.942264,-0.631467,0.061457,0.772963
-0.144173,0.229368,-0.944907,0.228594,0.085844,-0.969730
-0.217047,0.222552,-0.948377,0.684654,-0.449200,-0.573993
-0.177888,0.267173,-0.417788,-0.342245,0.792141,0.505353
-0.131302,0.503464,0.576144,-0.310442,0.599612,-0.737626
-0.240801,0.496099,0.582290,0.025014,-0.386292,0.922037
-0.646533,0.467195,0.601984,-0.432576,0.588381,-0.683144
-0.658029,0.447742,0.523934,0.201111,-0.978779,-0.039310
-0.330911,0.437854,0.363340,-0.214461,0.254014,-0.943124
-0.202105,0.224753,-0.180466,0.131352,0.277167,-0.951801
-0.086320,0.053857,-0.935622,-0.142485,0.007962,0.989765
-0.176663,0.047041,-0.932417,0.650871,0.031682,-0.758527
-0.221336,0.039676,-0.948079,0.207117,0.726378,0.655345
-0.298345,0.032646,-0.951021,0.442397,0.278375,-0.852521
-0.360337,0.025395,-0.959876,0.520572,0.250649,0.816199
-0.432057,0.018687,-0.963478,0.056317,0.160320,0.985457
-0.494966,0.012093,-0.970450,-0.269328,-0.062755,-0.961002
-0.557799,0.005063,-0.978645,-0.318568,-0.399817,0.859454
-0.498950,0.431039,0.786172,-0.343349,0.193253,-0.919111
-0.293902,0.400706,0.588304,-0.696963,0.096584,-0.710573
-0.596421,0.372352,0.574690,0.802561,0.346818,-0.485400
0.737941,0.346856,0.005076,-0.180389,0.505909,0.843514
-0.182948,0.026160,-0.602141,0.825672,0.499099,-0.262995
-0.176434,0.018801,-0.636243,0.160633,0.664025,0.730252
-0.180727,0.010664,-0.666577,-0.236473,-0.956726,0.169575
-0.198504,0.002970,-0.691823,0.147083,-0.987677,-0.053493
-0.202025,-0.004609,-0.721397,0.725676,-0.596280,0.343286
-0.170840,-0.012632,-0.764520,0.837769,-0.431139,0.335056
-0.158119,-0.028241,-0.833119,0.734956,-0.667132,-0.121550
-0.097586,-0.036921,-0.888897,-0.144347,-0.968064,0.204980
-0.154672,-0.044286,-0.899868,-0.171711,-0.975092,0.140394
-0.207928,-0.051537,-0.911433,0.397267,0.902758,-0.164947
-0.223099,-0.059124,-0.937076,0.778911,0.088645,-0.620838
-0.293748,-0.066046,-0.941272,0.200626,0.208535,0.957216
-0.343935,-0.073412,-0.954556,-0.721691,0.302043,0.622841
-0.408762,-0.080220,-0.960868,0.099877,-0.991351,-0.085131
-0.478185,-0.087478,-0.966848,-0.373774,0.154507,0.914560
-0.546996,-0.094293,-0.972730,-0.088827,-0.039327,0.995270
-0.613047,-0.100995,-0.979504,0.338013,0.740829,0.580448
-0.682929,-0.108031,-0.983371,-0.335795,0.175048,0.925527
-0.254514,0.349934,0.747147,0.399615,0.207942,-0.892787
-0.207544,0.303885,0.543166,0.178666,-0.259157,0.949166
-0.501789,0.295970,0.608758,0.505707,0.487141,-0.712007
-0.276584,0.290255,0.510948,-0.411306,-0.813707,-0.410742
-0.411750,0.282675,0.525884,-0.360634,-0.820316,0.443875
-0.168081,0.161343,0.261003,-0.737347,-0.013810,-0.675373
-0.170152,0.154414,0.234072,0.403373,0.552878,-0.729120
-0.205860,-0.028791,-0.491609,-0.220199,0.965710,-0.137536
0.054515,-0.109346,-0.904627,0.349543,-0.379469,-0.856635
-0.023027,-0.116268,-0.906510,-0.077851,0.032242,0.996443
-0.104559,-0.123526,-0.908195,0.915736,0.226183,0.332067
-0.156126,-0.130778,-0.919959,-0.254747,0.042965,0.966053
-0.231223,-0.137921,-0.923759,0.162360,0.740039,0.652673
-0.292906,-0.145286,-0.932780,0.279631,-0.768274,-0.575813
-0.352139,-0.152652,-0.942495,0.339482,-0.429629,-0.836762
-0.398725,-0.160010,-0.956010,-0.613457,0.688145,0.387462
-0.465847,-0.166825,-0.961363,-0.015012,0.256859,0.966332
-0.536267,-0.173641,-0.966518,-0.005848,0.853602,-0.520892
-0.606153,-0.180456,-0.970582,0.429020,-0.345892,-0.834446
-0.673889,-0.187157,-0.976696,0.372206,-0.613025,-0.696895
-0.725077,-0.195072,-0.989153,-0.596921,0.774892,0.207914
-0.129768,0.237283,0.555557,0.824713,0.546232,0.146558
-0.148695,0.230796,0.534607,0.968559,0.180383,-0.171332
-0.146857,0.224317,0.506256,0.720396,-0.319456,0.615612
-0.217506,0.216623,0.500671,0.212375,-0.133926,-0.967967
-0.171453,0.209807,0.457978,0.514309,0.774544,0.368195
-0.155897,0.203099,0.425959,-0.457357,-0.852199,0.254130
-0.135670,0.196398,0.392254,-0.518314,0.846377,0.122459
-0.156435,0.189254,0.370544,0.317348,0.945427,0.073878
-0.673889,0.174088,0.482497,0.918695,0.166250,0.358273
-0.785301,0.167273,0.490857,0.029727,0.964253,0.263311
-0.158044,0.168816,0.286480,0.972959,-0.166130,0.160473
-0.176742,-0.090664,-0.358573,0.978715,0.205105,-0.006940
-0.040884,-0.219140,-0.911202,-0.113573,0.279110,0.953519
-0.137279,-0.225841,-0.905750,0.088298,-0.042614,0.995182
-0.188696,-0.233099,-0.917514,-0.753265,0.020310,0.657403
-0.265551,-0.240350,-0.920620,0.285555,0.054459,-0.956814
-0.302789,-0.247823,-0.937836,-0.042471,0.178100,-0.983095
-0.384320,-0.254860,-0.938794,-0.372705,0.113234,-0.921015
-0.447767,-0.262218,-0.947022,0.448664,-0.397708,-0.800331
-0.506845,-0.269691,-0.956836,-0.334888,0.224762,0.915058
-0.559258,-0.276398,-0.967675,-0.297396,0.252113,0.920866
-0.636114,-0.282771,-0.968897,0.282046,-0.124696,-0.951263
-0.077817,0.136061,0.504768,0.359349,-0.846396,-0.393041
0.052831,-0.035056,0.073709,-0.314900,-0.492565,0.811306
-0.455890,-0.048573,0.187975,-0.397881,0.674111,-0.622306
-0.562780,-0.055388,0.195047,-0.221624,0.221755,-0.949583
-0.321258,-0.184192,-0.389536,-0.445190,0.886991,-0.122689
-0.040192,-0.290907,-0.901355,0.147041,-0.073794,0.986374
-0.108619,-0.298380,-0.908063,0.542577,-0.468243,-0.697394
-0.169385,-0.305853,-0.917448,-0.632838,0.192290,0.750027
-0.240109,-0.312882,-0.921776,-0.692771,0.153275,0.704680
-0.300492,-0.319919,-0.929839,0.878972,0.446226,0.168196
-0.448683,-0.333985,-0.936514,0.151889,0.063302,0.986368
-0.510984,-0.341458,-0.945040,0.648301,0.016155,-0.761213
-0.572588,-0.348380,-0.953631,0.238877,0.537985,0.808399
-0.640173,-0.355310,-0.959678,0.017400,0.436491,0.899541
-0.621325,0.009015,0.465644,-0.520613,0.508435,-0.685898
-0.614352,-0.065389,0.463596,0.301785,0.046556,0.952239
-0.042413,-0.368383,-0.900430,0.527000,-0.553397,-0.644998
-0.128617,-0.375198,-0.898910,0.215633,0.004112,0.976466
-0.175512,-0.383114,-0.913714,-0.300988,0.781143,0.547013
-0.241872,-0.390472,-0.921016,0.057364,-0.276565,0.959282
-0.306928,-0.397951,-0.928583,-0.245519,0.965568,-0.086013
-0.388534,-0.404760,-0.928484,-0.164683,-0.217689,0.962024
-0.522321,-0.418719,-0.940413,0.304348,0.511097,-0.803836
-0.090000,-0.421469,-0.900628,0.427277,-0.055551,0.902413
-0.164176,-0.428835,-0.905023,0.497868,-0.312711,-0.808912
-0.217735,-0.436085,-0.915828,-0.012906,0.459275,0.888200
-0.284324,-0.443666,-0.922900,-0.260883,0.243266,0.934217
-0.364397,-0.450702,-0.924387,-0.062213,0.242376,0.968186
-0.196970,-0.460375,-0.911037,-0.056570,0.827769,0.558209
-0.275971,-0.467733,-0.913317,0.713093,0.475756,-0.514933
-0.336967,-0.474991,-0.921248,-0.021926,0.265945,0.963739
-0.558337,-0.100008,0.632748,0.195841,-0.024891,0.980320
0.948816,-0.099673,0.128100,-0.180995,-0.202691,0.962371
0.280333,-0.161003,0.110619,0.538079,0.842000,-0.038826
-0.587226,-0.234085,0.113362,0.987907,0.097221,0.120781
-0.119039,-0.249801,-0.105819,-0.390307,0.129375,-0.911550
-0.065788,-0.446087,-0.898315,-0.165941,0.031632,0.985628
-0.159195,-0.452902,-0.893887,-0.394240,0.406812,0.824062
1.000000,-0.125391,0.117657,-0.180995,-0.202691,0.962371
0.479792,-0.171769,0.109033,-0.067539,0.252805,0.965157
-0.293594,-0.245737,0.077311,0.107880,0.163322,0.980657
-0.100958,-0.274641,-0.106447,-0.072035,-0.989429,0.125861
-0.153751,-0.474441,-0.890616,-0.191329,0.222823,0.955899
-0.190071,-0.482242,-0.909550,-0.175724,-0.257808,0.950082
-0.038050,-0.084178,0.639621,0.296969,0.513371,0.805146
-0.137583,-0.469383,-0.893590,0.301765,0.362185,0.881907
-0.183407,-0.477077,-0.909187,0.234656,-0.020499,-0.971862
-0.262712,-0.484443,-0.911301,-0.063722,-0.309032,0.948915
-0.629599,-0.143415,0.634962,0.016826,0.312676,0.949711
0.504846,-0.174519,0.102622,0.089857,0.553958,0.827681
-0.077125,-0.276177,-0.113254,-0.179637,-0.983560,0.018425
-0.060653,-0.459603,-0.895011,-0.382475,0.253478,0.888517
-0.139809,-0.466747,-0.896101,-0.327111,-0.365964,-0.871246
-0.189229,-0.474220,-0.909947,-0.487370,0.827381,0.279126
-0.289838,-0.103852,0.717605,0.515506,-0.599352,-0.612398
-0.650210,-0.152652,0.641604,0.003426,0.335422,0.942062
-0.075441,-0.278813,-0.114808,-0.179637,-0.983560,0.018425
-0.156590,-0.483893,-0.891376,0.415336,0.033275,-0.909059
-0.201567,-0.490594,-0.905552,-0.689428,0.628486,-0.360130
-0.682241,-0.178363,0.652145,0.008108,0.224159,0.974519
-0.373900,-0.193422,0.471064,-0.168882,0.289094,0.942286
0.405691,-0.209467,0.104704,-0.122961,0.667016,0.734827
-0.144710,-0.221998,0.257302,0.235686,0.505589,0.829959
-0.537955,-0.444765,-0.465768,0.526996,-0.294941,0.797047
-0.077892,-0.500045,-0.891574,0.380891,-0.232844,-0.894822
-0.391448,-0.229027,0.446149,-0.379608,0.257413,-0.888615
-0.006247,-0.236507,0.263679,-0.376968,-0.342907,-0.860413
0.353970,-0.237821,0.117757,0.336487,-0.661248,-0.670468
-0.330756,-0.545987,-0.918175,0.134827,-0.170182,0.976145
-0.399184,-0.553238,-0.924354,-0.483036,0.067774,0.872974
-0.321641,-0.241557,0.483092,-0.410356,0.449326,0.793545
-0.011382,-0.260682,0.271874,-0.369204,-0.318522,-0.873059
-0.169690,-0.269362,0.294873,-0.510011,-0.716976,-0.475221
0.226923,-0.339150,-0.188033,-0.502097,0.036869,-0.864025
0.059575,-0.347830,-0.159318,-0.544528,0.071199,-0.835715
-0.168618,-0.557853,-0.904164,-0.218667,0.077456,0.972721
-0.220724,-0.564447,-0.915663,-0.368551,0.339294,0.865476
-0.306852,-0.571920,-0.913647,-0.277254,0.322587,0.905024
-0.380261,-0.220897,0.759538,-0.618228,0.559785,0.551755
0.018578,-0.290686,0.273328,-0.220377,-0.474319,-0.852324
-0.195052,-0.626434,-0.895705,-0.633839,-0.029540,0.772901
-0.342790,-0.287500,0.744966,-0.389293,0.599965,-0.698922
-0.186624,-0.698966,-0.901421,-0.122555,0.300332,0.945929
-0.391523,-0.363218,0.732376,0.843740,-0.034449,0.535646
0.322322,-0.422677,0.170197,-0.038861,0.081402,0.995923
0.070837,-0.524334,0.258921,-0.719073,0.355371,-0.597199
-0.425542,-0.557968,0.726263,-0.054275,0.707988,0.704136
-0.517573,-0.565876,0.727254,-0.092276,0.823560,-0.559673
0.429216,-0.779857,0.161738,-0.720041,-0.415612,-0.555705
-0.578415,-0.752052,0.952218,0.761930,0.276067,0.585875
0.426153,-0.943173,0.197459,-0.678491,-0.392444,-0.620997
-0.182719,-0.719191,-0.898150,0.099883,0.437371,0.893717
-0.257886,-0.618191,-0.908592,-0.183475,-0.204133,0.961596
-0.203330,-0.614562,-0.906774,-0.180314,-0.237988,0.954384
-0.157661,-0.611818,-0.900099,-0.220980,-0.124587,0.967288
-0.361946,-0.520819,-0.924717,0.278754,-0.085548,-0.956545
-0.312521,-0.518069,-0.919133,0.272416,-0.036678,-0.961480
-0.264630,-0.515325,-0.912425,0.134855,-0.215223,-0.967209
-0.209461,-0.511589,-0.911103,0.556826,-0.708396,0.433727
-0.161033,-0.508732,-0.906642,-0.227767,0.086847,0.969835
-0.123487,-0.507081,-0.893854,0.201847,0.194255,-0.959960
-0.279647,-0.593901,0.094130,0.161283,0.002125,0.986906
-0.444932,-0.500266,0.178491,-0.653168,0.573981,-0.493880
-0.149846,-0.472898,0.086695,0.042265,0.132044,0.990342
-0.368919,-0.522469,0.499316,-0.586068,0.464516,0.663890
