-0.213840,-0.008001,0.177168,-0.097215,-0.517520,0.850131
0.270183,-0.143111,0.479683,0.781554,-0.152239,0.604977
0.596470,-0.206043,0.137740,0.286466,-0.192001,0.938655
0.425399,-0.197299,0.514853,0.611588,-0.594118,-0.522479
-0.249941,-0.106624,0.735421,-0.577220,-0.815893,-0.033690
-0.147004,-0.198094,0.744804,0.649546,0.064973,0.757541
-0.239695,-0.140229,0.171310,-0.590143,0.443770,0.674388
0.183998,-0.012078,0.588882,0.303479,0.039271,0.952029
0.442068,0.350200,0.213233,-0.348777,0.100899,0.931759
-0.321735,-0.535718,0.495600,0.250164,-0.641185,0.725465
0.204406,0.209920,0.564667,0.906769,0.176430,-0.382939
-0.008457,-0.723020,0.562579,-0.715562,0.496341,0.491545
-0.407350,-0.045683,0.673676,-0.523733,-0.823687,-0.217354
0.205952,0.063177,0.174564,0.923649,0.188235,0.333827
-0.599725,-0.025701,0.183947,0.356962,-0.835357,0.418039
0.013251,0.258537,-0.751664,0.936014,-0.218208,0.276158
-0.542241,0.033256,0.565046,-0.664693,0.419314,-0.618352
0.487600,-0.297409,0.530635,0.041967,-0.532093,0.845645
-0.157249,-0.141624,0.661121,-0.859910,0.492447,-0.134354
0.428977,0.189240,0.160464,0.205254,-0.938654,0.277127
0.247174,-0.049858,0.784042,-0.551197,0.829399,-0.090991
0.585575,-0.091812,0.278612,-0.131644,-0.865418,0.483447
-0.802505,0.246207,0.278693,0.411810,-0.785034,-0.462746
0.126431,-0.537605,0.706813,-0.101724,-0.057846,0.993129
-0.306772,-0.061690,0.733659,-0.049201,-0.969589,0.239743
-0.148306,0.310734,0.080767,-0.444200,-0.387535,-0.807777
-0.047647,-0.376645,-0.552979,0.955031,0.286643,-0.075845
-0.026588,-0.417907,-0.758091,0.585375,0.809420,0.046636
0.675746,0.425462,0.118894,-0.421504,0.079066,0.903373
-0.240589,-0.012679,0.495980,-0.392815,-0.908580,-0.142051
-0.170991,0.374958,0.113850,0.733615,-0.029826,0.678910
0.011708,-0.011781,0.731625,-0.289622,0.949138,0.123518
-0.302301,-0.654123,0.172368,-0.484830,0.225536,0.845029
0.598098,-0.402495,0.105118,-0.696692,-0.663830,-0.271937
-0.255712,0.613558,0.357142,-0.340767,0.749798,0.567168
0.312869,0.158227,0.594848,0.425538,0.320194,-0.846400
0.379706,-0.337573,-0.337157,-0.023384,0.928853,0.369709
0.459142,0.017546,0.495492,0.477652,-0.600847,0.640961
-0.337101,-0.590992,0.410318,-0.584973,-0.589643,-0.556891
-0.236117,-0.047971,0.713457,0.596440,0.169351,0.784589
-0.028945,0.416311,0.120765,0.843033,-0.380992,-0.379658
-0.056429,0.320971,0.481147,0.936966,-0.155089,0.313118
-0.071306,-0.855745,0.629991,0.896781,-0.265237,-0.354166
-0.128304,-0.210818,-0.980611,0.419160,-0.206032,-0.884226
0.003088,-0.341450,0.583296,-0.733793,0.155111,0.661429
0.092202,-0.245515,0.780544,-0.391873,0.915531,0.090761
-0.022524,-0.228513,0.953874,0.747027,-0.647274,-0.151611
-0.232621,-0.193221,0.761915,0.944140,0.197260,0.263984
0.814373,0.127407,0.116046,0.505704,0.478797,-0.717646
0.294331,0.155241,0.709010,0.225525,-0.870166,0.438121
-0.404099,-0.031866,0.670016,-0.417538,-0.875696,-0.242525
-0.478414,0.073820,0.557806,-0.227686,-0.973078,0.035760
0.171477,-0.261717,0.757549,0.771448,0.231026,-0.592870
0.336856,0.359448,0.188828,0.884053,0.417408,-0.210287
0.204732,-0.529456,0.741821,0.662437,0.679287,0.315827
-0.244655,-0.089130,0.159108,-0.056451,-0.016344,0.998272
-0.086105,-0.765574,0.185953,0.721558,-0.375187,0.581884
0.287178,0.161109,0.603227,-0.541275,-0.003342,-0.840839
0.175134,0.025798,0.366823,0.710320,-0.439874,0.549505
0.148793,-0.052546,0.548315,0.243799,0.374805,0.894473
-0.014229,0.475268,0.422846,-0.377099,-0.387494,0.841216
0.000813,-0.176619,0.895302,-0.377620,0.924872,0.044878
-0.218555,-0.475966,0.432554,0.786279,0.605282,0.124089
0.383445,-0.018541,0.332411,-0.200605,0.979577,-0.013657
-0.644362,-0.414722,0.206345,-0.382174,-0.597631,0.704826
-0.066753,-0.495451,0.718311,0.687222,0.726435,0.004117
0.054230,-0.365413,0.779161,0.896255,0.411933,-0.164431
-0.313197,-0.098772,0.629611,0.649699,-0.014891,0.760046
0.353930,0.327233,0.175975,0.383916,0.203484,-0.900668
0.259127,-0.495948,-0.134459,0.283941,0.421558,0.861201
0.083663,0.454291,0.415334,-0.157849,-0.383007,0.910159
0.586796,-0.289260,0.132832,-0.311421,0.385616,-0.868514
-0.245467,-0.201273,-0.533889,-0.105195,-0.976770,0.186691
0.096512,-0.203955,0.764274,-0.667169,0.717661,0.199621
-0.372552,-0.424564,0.501078,-0.652914,0.561325,-0.508544
-0.048865,0.114082,0.670395,0.795400,0.111312,-0.595775
-0.313929,0.009693,0.538364,-0.083669,0.994372,-0.064984
-0.331084,-0.400607,0.512630,-0.263008,-0.876002,0.404285
-0.366617,-0.388380,0.570144,-0.589762,0.743490,-0.315282
0.162532,0.217080,0.211226,-0.245836,-0.949502,-0.194960
0.020083,-0.831388,0.557806,-0.261091,0.964458,0.040648
0.191640,0.668237,0.435320,-0.479379,0.744889,-0.464043
-0.186114,0.009196,0.529578,-0.109897,-0.893589,0.435227
-0.479226,0.466124,0.337862,0.072056,0.976148,0.204799
0.739654,-0.120648,0.154905,-0.629682,0.378458,0.678432
-0.114970,-0.153748,0.750498,0.720959,-0.385634,0.575764
0.248474,0.057018,0.700115,-0.301298,-0.953527,0.002259
0.048866,0.396232,0.396732,-0.047611,-0.560916,0.826502
0.089194,0.722722,0.472009,0.330998,0.665570,-0.668922
0.026993,0.492471,0.422819,-0.528567,-0.009276,-0.848841
0.025043,0.470499,0.422087,-0.238850,0.580381,-0.778530
-0.201888,-0.408563,0.420893,0.898222,0.352723,0.262267
0.528822,0.066065,0.129523,-0.550572,0.288212,-0.783457
-0.016343,-0.108414,0.735069,0.933784,-0.075271,-0.349831
-0.209366,-0.181589,-0.243061,0.159225,0.866258,0.473545
0.107162,-0.142019,0.777913,0.302635,0.699175,0.647739
0.036018,0.371972,0.501159,-0.766688,-0.574546,0.286509
0.311569,-0.308046,0.485025,-0.574365,0.177606,-0.799100
0.217577,0.048863,0.564369,0.456219,0.378574,-0.805324
-0.348729,-0.179003,0.168707,0.496695,0.462172,-0.734637
-0.030653,-0.382913,-0.485676,0.925925,-0.377232,0.018947
0.113343,0.581349,0.433015,-0.241835,-0.493894,0.835215
-0.083584,0.109112,0.594549,0.364317,0.781832,-0.505976
0.241564,-0.580852,-0.959677,-0.199139,0.043122,0.979022
-0.073991,-0.115374,0.329293,0.130886,0.936469,0.325414
0.569394,-0.054433,0.114040,-0.211636,0.343100,0.915146
-0.136029,-0.428344,0.798739,-0.487041,-0.329000,0.809043
-0.180665,0.018444,0.467345,0.623348,0.755049,0.203319
-0.019596,0.091612,0.641678,0.821238,0.570543,0.006981
-0.578421,-0.068450,0.428432,0.080437,-0.070659,0.994252
0.052280,0.388077,0.137089,0.315609,0.286232,-0.904689
-0.020410,-0.570215,0.622155,-0.694869,0.604805,0.389060
0.025043,-0.433017,-0.958240,0.269757,0.319419,-0.908407
0.230912,0.083165,0.484835,0.878345,-0.260937,-0.400527
0.265712,-0.309642,0.502298,-0.240562,-0.899747,-0.364121
0.119196,-0.469303,0.778944,0.019988,-0.966549,0.255702
-0.058217,-0.093706,0.894705,-0.359308,0.672710,-0.646806
0.320514,-0.226225,0.729130,-0.686552,-0.318172,0.653769
-0.210262,-0.111995,-0.988828,0.171799,-0.101965,-0.979841
0.151882,-0.166777,0.841936,-0.418299,-0.788523,0.450841
-0.008864,-0.172341,0.887140,0.863916,-0.188624,-0.466980
-0.482154,-0.687928,0.095627,0.819419,0.534097,0.208072
-0.462559,-0.300594,0.190645,-0.164056,0.647698,0.744025
0.345719,-0.168761,0.750634,0.281598,0.730464,-0.622194
0.804456,-0.137444,0.153793,0.054087,0.213826,0.975373
0.524515,0.229210,0.208542,-0.269478,0.840686,-0.469711
0.148386,0.205545,0.740682,-0.132705,-0.360565,0.923246
-0.353932,-0.284981,0.567216,-0.086684,-0.817601,-0.569222
0.421417,-0.244320,0.495926,-0.691814,0.591128,0.414682
-0.061468,-0.086048,0.751095,0.025897,-0.651665,0.758065
-0.561347,0.565937,0.232622,0.917989,-0.194894,-0.345417
0.265712,0.634833,0.083750,0.819304,-0.536022,-0.203520
0.097487,-0.726599,0.563392,0.991283,0.121090,0.051920
-0.416784,0.398520,0.479330,0.927747,-0.321841,0.188956
0.286607,-0.313914,0.467914,-0.337338,0.487273,0.805461
0.036913,0.522495,0.434018,-0.293998,-0.614713,0.731910
0.662411,-0.468509,0.125239,0.318654,0.838538,0.441943
-0.057404,0.044985,0.210142,-0.647120,0.700470,0.300961
0.265387,-0.098274,0.259820,-0.016879,0.850867,0.525110
0.246524,-0.067656,0.900156,-0.765428,-0.196901,0.612658
0.320350,-0.395140,0.160111,0.940442,-0.132628,0.313016
-0.043826,-0.736345,0.658410,0.014643,0.825340,0.564446
-0.079438,-0.088335,0.202495,0.978418,-0.205577,-0.020895
-0.003579,-0.228215,0.952925,-0.492985,0.842192,0.218353
0.295227,0.145101,0.588340,0.441217,0.363622,-0.820431
-0.375477,-0.573595,0.128547,0.335413,0.671618,-0.660626
-0.511098,0.009590,0.553468,0.575541,-0.641223,0.507529
-0.098546,0.350103,0.520846,0.504075,0.048580,-0.862293
-0.375234,-0.161503,0.634140,0.087049,-0.426920,0.900090
-0.009189,0.049263,0.873148,0.936084,0.162757,-0.311862
0.031789,-0.234678,0.937415,-0.418030,-0.907694,0.036640
-0.023092,-0.350498,0.756383,0.736270,0.611040,0.290751
0.129441,0.547447,0.133076,-0.036458,-0.576389,-0.816362
-0.068706,-0.206043,0.676578,0.940829,-0.247190,-0.231815
0.012276,0.101952,0.456688,0.702142,0.176903,-0.689712
-0.053989,-0.015659,0.185113,0.922682,-0.373305,0.096440
0.198307,-0.218276,0.721104,0.783927,0.180164,0.594137
0.110333,0.010088,0.278232,0.030026,0.950324,0.309810
0.277176,0.270564,0.577656,-0.349778,0.703909,0.618198
-0.465323,0.291049,0.460484,-0.172024,0.767650,-0.617351
-0.289374,-0.599044,-0.066911,-0.452269,0.341346,-0.823976
0.137897,-0.366408,0.860864,-0.205140,0.812656,0.545443
-0.045615,-0.241437,0.709877,-0.564618,-0.651729,0.506414
-0.234492,0.502508,0.101919,-0.482750,0.143794,-0.863873
-0.743964,0.378138,0.189126,-0.497951,0.762790,0.412548
-0.094968,-0.589402,0.722758,-0.130806,0.798250,0.587951
0.170745,0.344733,0.392502,0.539246,-0.692260,0.479573
0.157249,0.255254,0.728317,0.869201,0.111928,0.481625
-0.043987,0.014864,0.165697,0.832915,-0.339682,0.436886
-0.360843,-0.089725,0.489228,0.591405,0.170347,0.788177
-0.357347,-0.072425,0.648132,0.711967,-0.217799,0.667582
-0.545655,0.779288,0.171717,0.998532,-0.015033,0.052042
0.082120,-0.085150,-0.723110,0.249223,-0.245437,0.936829
0.013658,-0.803949,0.585276,0.410871,-0.881719,-0.231855
-0.008294,-0.107322,0.631022,-0.096831,-0.678817,0.727895
-0.293927,-0.109707,0.610115,-0.546129,-0.595800,-0.588868
-0.766812,0.385795,0.176788,-0.800250,0.515215,0.306845
-0.313522,-0.291547,0.459671,0.676634,0.298400,0.673145
-0.169852,-0.011581,0.398793,-0.355041,-0.934843,-0.003889
-0.014554,-0.130987,-0.096170,-0.528442,-0.729955,-0.433492
-0.194245,-0.132177,0.636391,-0.011392,0.996868,0.078256
0.507602,0.234677,0.221422,0.298546,-0.785376,0.542268
0.100251,-0.276431,0.742255,0.506122,-0.700474,0.503166
-0.029760,-0.416815,0.704671,-0.508326,0.434238,-0.743668
0.185787,-0.296019,0.815443,0.404498,-0.304168,0.862475
-0.140825,-0.155041,0.695424,0.351819,-0.324879,0.877882
-0.382145,-0.688620,0.433855,-0.286211,-0.442235,-0.850006
0.383609,0.149574,0.620446,-0.274716,0.934107,-0.227981
-0.129280,0.605112,0.221775,0.118175,-0.990641,0.068294
-0.143589,-0.347318,0.773927,-0.900989,0.196647,-0.386715
-0.044965,0.174131,0.201519,0.878155,-0.226741,-0.421227
-0.439386,0.591786,0.219931,-0.272792,0.955325,0.113753
0.088869,-0.032261,-0.713918,0.437791,-0.319070,0.840555
-0.150745,-0.036338,0.471656,0.920939,0.378682,0.092040
0.878364,-0.134859,0.147637,0.595186,-0.802869,-0.033976
0.698186,-0.425759,0.072741,0.471957,0.814456,0.337516
-0.345883,0.168864,0.418887,-0.314751,-0.742909,0.590778
-0.345640,0.208233,0.163962,0.474101,0.879269,0.045988
0.200910,-0.303574,0.547339,0.666342,-0.727217,-0.164756
-0.314010,0.081872,0.558457,-0.568782,0.658838,-0.492362
-0.225629,-0.207238,0.524344,0.937413,-0.211430,0.276683
-0.338809,-0.063280,0.411565,-0.806108,0.334024,0.488486
0.378242,0.165878,0.618358,0.506541,0.602506,-0.616767
-0.121881,-0.032558,0.376883,0.747054,0.598641,0.289030
0.154971,0.093202,0.507938,-0.612984,0.634100,0.471348
-0.025774,0.156534,0.613775,-0.696721,0.100156,-0.710315
-0.122938,-0.466525,0.617219,-0.485022,0.049678,-0.873090
0.040571,0.241037,0.735259,0.043511,-0.928877,0.367824
0.281161,-0.265994,0.497797,0.101463,0.648454,0.754462
0.203756,-0.683947,-0.950702,0.281053,0.365928,0.887190
-0.150014,-0.219666,0.458559,-0.503454,0.157787,0.849493
0.093827,0.256650,0.740818,-0.468453,0.861344,-0.196564
-0.099278,-0.490384,0.785262,-0.639701,0.723381,0.259813
-0.388569,-0.032061,0.486814,-0.422814,0.052715,-0.904682
-0.373691,-0.336183,0.539177,0.697167,0.519183,-0.494375
-0.381983,0.178008,0.457447,0.731546,0.675977,0.088855
0.407186,-0.064973,-0.211877,0.188474,-0.447836,0.874025
-0.039680,-0.117067,0.778863,-0.324592,0.928782,0.178894
0.061875,0.651835,0.457637,0.094424,-0.707054,0.700828
0.173752,0.038128,0.721185,0.881628,0.154298,0.446009
-0.351654,-0.077498,0.370592,0.922378,-0.380378,-0.067315
-0.334094,-0.082564,0.612772,0.856977,0.494563,0.144905
-0.565332,-0.282797,0.284306,-0.484814,0.555513,-0.675545
0.242214,0.274441,0.151352,0.714714,0.146984,-0.683798
0.424181,0.186758,0.549129,-0.673795,-0.345326,0.653262
0.009024,0.080380,-0.463413,0.062658,0.718936,0.692246
-0.512319,-0.362531,0.179581,-0.026595,0.381572,0.923957
-0.341898,-0.011283,0.659033,0.105116,-0.846565,0.521803
-0.048461,-0.207335,0.875398,0.831079,-0.525976,0.180714
-0.505245,-0.164586,-0.434994,-0.128439,-0.015297,-0.991599
0.165785,-0.073220,0.524154,0.197518,0.737940,0.645315
0.008048,0.274441,0.131205,0.477599,-0.203476,-0.854691
-0.124076,0.197893,0.101512,-0.057551,-0.199130,0.978282
0.016586,0.232390,0.213830,0.354609,-0.757293,-0.548416
0.029757,-0.439880,-0.955067,0.269757,0.319419,-0.908407
-0.174323,-0.500123,0.608894,-0.532444,-0.240074,-0.811707
-0.329295,0.617339,0.160437,0.806523,-0.187538,0.560669
0.812016,-0.185666,0.163718,0.114197,-0.029166,-0.993030
-0.267503,0.012673,0.476537,-0.043849,0.315741,0.947832
0.729084,-0.132177,0.155339,-0.578315,0.474830,0.663391
0.225790,0.098572,0.626086,-0.683082,-0.013581,0.730215
-0.049922,-0.170357,0.596177,-0.535871,0.603641,0.590305
-0.647696,-0.339363,-0.027103,0.254495,-0.157863,0.954102
-0.016993,0.256249,0.511979,-0.127131,0.612458,-0.780213
0.131798,-0.403987,0.625246,0.456956,-0.839461,0.294104
-0.192617,-0.096782,0.711559,0.537858,0.114741,0.835191
-0.162534,-0.202469,0.755596,0.715246,-0.042579,0.697575
-0.350597,0.228215,0.171853,0.815041,0.383431,0.434382
-0.391090,-0.223245,0.256864,0.165568,0.546417,0.820984
-0.432801,0.065762,0.506610,-0.234582,0.971046,-0.045186
-0.026670,-0.388478,0.801885,0.313920,-0.302982,0.899809
-0.187496,-0.195703,0.686096,0.731510,-0.550094,0.402852
-0.519718,-0.356863,0.616189,-0.715132,0.256143,-0.650366
0.159199,-0.031666,0.748437,0.625319,-0.703632,-0.337459
0.041385,-0.439279,0.603688,-0.763629,-0.106636,-0.636788
-0.107571,0.094597,0.785099,0.769653,-0.532169,0.352747
0.069275,0.057018,0.421192,0.938042,-0.248043,0.241977
0.302138,-0.169161,0.754864,-0.161307,0.986533,0.027071
-0.201562,-0.270867,0.541373,-0.056414,-0.271339,0.960829
-0.170095,-0.128202,0.701552,-0.319480,0.393216,-0.862157
0.020489,0.337275,0.484754,0.363628,-0.635998,0.680648
0.263680,-0.212408,0.759121,-0.650129,-0.539576,-0.534968
-0.378812,-0.430729,0.197505,0.149728,-0.162449,0.975291
-0.327588,-0.096982,0.635848,0.790481,-0.334101,0.513339
-0.646639,0.517920,0.182537,0.920692,0.110815,-0.374228
0.172616,-0.184968,0.758443,0.943562,0.142934,-0.298766
-0.015125,-0.092310,0.650600,0.930949,-0.013113,0.364913
0.042523,-0.083960,0.625490,0.922331,-0.149857,0.356157
-0.433694,-0.565445,0.422412,0.004008,0.768958,0.639287
0.208796,0.603418,0.413491,0.902103,0.378695,0.206883
-0.238638,-0.200976,0.548831,-0.319760,-0.084163,0.943753
0.565737,-0.369685,0.541726,0.587720,0.633859,-0.502800
-0.401497,-0.090520,0.651902,-0.567701,0.595034,-0.568903
-0.062850,0.322263,0.071629,-0.091221,-0.464622,0.880798
0.067565,-0.144701,0.643821,0.863310,0.499731,0.070459
0.028375,-0.148087,0.753020,0.007282,0.976312,0.216245
0.188226,-0.444849,0.774144,0.766470,-0.574764,0.286653
-0.715263,-0.279017,0.179635,0.267374,0.737926,0.619658
0.444751,-0.174829,0.146010,-0.653035,0.749483,-0.108723
0.340191,0.283889,0.621097,0.670898,0.362077,-0.647144
-0.007807,-0.243525,0.573263,0.669113,-0.147885,-0.728298
0.311487,-0.307652,0.722893,-0.480216,-0.374659,0.793110
0.756485,-0.096588,0.156667,-0.709914,0.373791,0.596910
0.511505,0.005816,0.339082,0.265834,-0.726876,0.633233
0.254574,-0.604814,-0.957888,-0.197803,0.062988,0.978216
0.386859,0.212408,0.532561,0.882443,-0.238743,-0.405334
-0.155867,-0.452404,0.704101,-0.517422,-0.597780,-0.612318
-0.351900,0.073420,0.187635,0.099836,-0.334731,0.937010
0.036342,-0.527963,0.599024,0.511768,0.398402,0.761163
0.144972,-0.654718,0.662721,-0.497209,0.690704,-0.525083
0.072607,-0.644578,0.530174,-0.486528,0.436124,-0.757025
0.009024,0.181091,0.498176,0.010930,-0.220806,0.975257
-0.194082,-0.242633,0.650898,-0.295684,-0.687553,0.663206
-0.000488,-0.061988,0.833449,-0.704527,0.699289,0.120979
-0.179283,-0.415917,0.152898,0.641258,0.129794,-0.756268
0.255631,-0.020926,0.584326,-0.611784,0.451351,-0.649617
0.385723,-0.212208,0.461108,0.945192,0.203761,-0.255134
0.291892,0.221055,0.584272,-0.462688,0.219034,0.859037
-0.298723,0.572205,0.139909,0.436234,0.305173,-0.846504
-0.172536,-0.103445,0.827564,-0.728387,0.521424,0.444488
-0.250998,-0.450814,0.516372,-0.107586,0.963057,-0.246873
-0.294416,-0.113390,0.618819,0.647340,0.310268,0.696193
-0.415563,0.138439,0.581859,-0.073984,-0.711674,0.698603
0.471827,0.033353,0.355190,-0.143470,0.239651,-0.960200
-0.294822,-0.566835,0.646153,-0.351014,-0.145990,-0.924919
-0.662088,-0.359448,0.205749,-0.336553,0.742579,0.579058
0.582974,-0.044488,0.286340,-0.075397,-0.881768,0.465619
-0.249127,-0.269472,0.574348,-0.155678,-0.724943,0.670985
-0.577689,-0.231595,0.149942,0.226058,0.655096,0.720934
0.404015,0.193415,0.621937,-0.518442,-0.613959,0.595208
0.282299,0.050950,0.604718,0.854603,-0.508603,-0.104768
-0.547769,-0.015264,0.549129,0.472759,-0.657055,0.587177
0.173020,0.322560,0.370077,0.889093,-0.422292,0.176589
0.113586,-0.168069,0.856091,0.523628,-0.603214,-0.601620
0.460931,0.354078,0.246451,0.694973,0.551632,0.461210
0.344987,0.336481,0.205911,0.814810,0.110022,-0.569192
0.345230,0.218373,0.624758,-0.218956,0.000225,0.975735
-0.053826,0.054032,0.154769,-0.406634,-0.566200,-0.716984
-0.193838,-0.191631,0.377913,0.120238,0.409521,-0.904343
0.063012,0.547150,0.437489,-0.525688,0.285833,-0.801219
0.353769,0.254162,0.251956,0.961511,-0.113616,-0.250177
0.001870,-0.332009,0.748383,0.364718,-0.248572,0.897325
0.188308,-0.065962,0.675385,0.771598,0.629365,0.092388
0.264166,0.114877,0.224947,-0.301123,0.468004,0.830842
-0.111717,-0.185763,0.817124,-0.562637,-0.817840,0.120736
0.096430,0.019536,0.706705,0.275987,-0.387945,-0.879392
0.108382,0.517920,0.131449,0.017789,0.652833,0.757293
-0.217336,-0.239847,0.605369,0.035264,-0.662155,0.748537
-0.444428,-0.288762,0.161684,-0.122371,0.643017,0.756013
0.309294,0.763584,0.077296,0.829282,0.544499,-0.125743
0.392145,-0.057710,0.448580,0.407420,-0.804474,-0.432239
0.179526,-0.114185,0.821924,-0.680845,0.528774,-0.506801
-0.160663,0.471591,0.089391,0.825101,0.115844,0.552981
-0.636312,0.176916,0.205749,0.414414,0.884689,-0.213510
-0.211237,-0.063377,0.564233,0.302051,0.837619,0.455148
-0.030735,-0.109513,0.867670,0.169812,0.919687,0.354033
-0.109196,-0.259532,0.667900,-0.667489,0.190081,0.719950
-0.197171,0.100562,0.358200,-0.691673,-0.212937,-0.690106
-0.033906,0.045580,0.583215,0.897659,0.440410,0.015710
0.140173,0.532235,0.431388,-0.244350,-0.373129,0.895024
-0.133833,0.097480,0.587689,0.470254,0.789681,-0.394037
-0.284495,-0.216188,0.580232,-0.272735,-0.533060,0.800914
-0.372959,0.145799,0.192678,-0.182859,-0.325436,0.927714
-0.461095,0.295121,0.452430,0.021559,-0.075253,0.996931
-0.284252,-0.078390,0.731598,-0.308269,-0.920129,0.241521
-0.492642,0.411044,0.202766,-0.516732,-0.767928,-0.378517
0.274819,0.126114,0.512358,0.164537,-0.910190,0.380107
0.683877,0.188548,0.128601,-0.135054,0.166432,-0.976760
-0.093993,-0.038329,0.229476,0.838247,0.025755,0.544682
-0.266933,-0.010191,0.588475,-0.601366,-0.723897,-0.338131
-0.526629,0.138736,0.201329,0.003430,0.137997,0.990427
-0.065696,-0.541980,0.766443,-0.491190,0.615437,-0.616417
-0.221319,-0.404880,-0.114338,0.182467,-0.291057,0.939144
-0.366292,0.226225,0.198753,0.364496,-0.089563,0.926888
0.281893,-0.636726,0.751827,-0.381863,0.357566,0.852248
-0.018296,-0.234975,0.910216,0.757469,0.471637,-0.451441
-0.082284,-0.261122,0.872822,0.921066,0.343674,-0.183101
-0.168226,-0.159119,0.510243,0.683321,-0.138319,-0.716897
-0.072527,-0.127207,0.553603,0.423652,0.771985,0.473876
-0.458494,-0.299897,0.276442,-0.371399,0.913974,-0.163443
0.323278,-0.729682,-0.931178,0.462353,-0.009166,-0.886648
-0.277910,-0.214592,0.308874,-0.274432,-0.855428,-0.439239
0.022279,-0.060793,0.579690,0.119916,0.783227,0.610062
0.553052,0.494953,0.206671,0.108688,0.432478,0.895070
-0.236767,-0.103348,0.711694,0.593976,-0.078797,0.800615
-0.214083,-0.309539,-0.990319,0.206697,-0.132540,-0.969386
-0.323685,-0.624499,0.404190,0.597202,-0.555566,-0.578530
-0.032442,0.441269,0.495465,0.242731,-0.657459,0.713323
0.610862,-0.329521,0.574022,0.005525,-0.869991,0.493038
-0.696806,-0.383805,0.186659,-0.298517,0.202274,0.932723
0.002113,0.358155,0.138933,0.466132,0.154311,-0.871154
0.040246,0.246905,0.409830,0.746821,0.646645,0.155270
-0.582163,0.777007,0.160437,0.997992,-0.040438,0.048748
0.128627,-0.405480,0.773331,0.790115,-0.476382,-0.385719
-0.024717,-0.063377,0.754213,0.136375,-0.758808,0.636877
0.174891,-0.268282,0.769263,0.831048,0.555398,0.029861
-0.139686,-0.717054,0.628418,0.787074,0.612165,-0.075955
-0.136597,0.441961,0.376151,-0.111321,0.447269,0.887445
0.157654,0.260527,0.736940,0.454649,0.146561,0.878529
-0.244249,0.525772,0.103546,-0.479556,0.145678,-0.865335
-0.105539,-0.123530,0.847766,0.882574,0.215419,0.417921
-0.054801,0.122832,0.623564,-0.429146,-0.574016,0.697380
-0.176357,-0.331711,-0.982022,-0.234596,0.075471,0.969159
-0.147900,-0.263610,0.728561,0.893897,0.075223,0.441916
0.116350,0.046575,0.235930,0.273372,-0.190801,-0.942795
0.088381,-0.674900,0.601546,0.667260,0.538433,-0.514640
0.390519,0.223937,0.621802,-0.545820,-0.429546,0.719424
0.082202,0.258634,0.092970,-0.503866,-0.428670,0.749908
-0.388407,-0.296219,0.199783,0.271054,0.959031,0.082400
-0.269047,-0.292342,-0.995770,0.237135,-0.185318,-0.953637
-0.313197,0.626186,0.340004,-0.436650,0.834684,0.335618
-0.057240,0.179598,0.612745,-0.422980,0.350943,-0.835420
0.024472,0.545257,0.439577,0.145199,0.319039,-0.936553
0.280997,0.136151,0.576869,0.711650,0.610573,-0.347499
0.076021,-0.073123,0.243495,-0.565704,0.169962,0.806903
0.041953,-0.273155,0.874585,-0.424197,0.684789,0.592554
0.887307,0.473678,0.181181,-0.019459,0.507621,0.861361
0.563134,0.183081,0.142133,-0.326328,0.711594,-0.622209
-0.192210,0.437889,0.096577,0.837716,0.151610,0.524638
-0.529882,0.135757,0.469866,-0.516047,0.244468,0.820933
-0.227093,0.115174,0.148885,0.775146,0.570394,0.271661
0.003252,-0.002637,0.825422,-0.550056,0.406073,0.729756
-0.009676,0.525275,0.120900,-0.669248,-0.368206,0.645393
0.417350,-0.508078,-0.129605,-0.515603,-0.429180,-0.741591
-0.399789,-0.370383,0.563284,0.151900,-0.794567,0.587868
0.011301,0.198093,0.504440,0.247529,-0.434778,0.865851
-0.221808,-0.129392,-0.474720,-0.162469,0.885170,-0.435980
-0.506059,-0.312919,0.175595,0.011841,0.891047,0.453756
-0.335151,-0.108712,0.633381,-0.759654,-0.052181,-0.648231
-0.852672,0.056120,0.328371,-0.114489,0.855102,0.505661
-0.502074,-0.418004,-0.046139,-0.331624,0.262099,-0.906272
0.105536,-0.066266,0.259196,-0.605347,0.283744,0.743670
-0.314904,-0.367701,0.200190,0.925330,-0.225741,0.304641
0.593788,-0.253865,0.569222,-0.652786,0.165744,0.739189
0.275061,-0.159913,0.728615,0.564534,0.689164,-0.454262
-0.245874,-0.208330,0.167080,0.612047,-0.460058,-0.643230
-0.125215,0.439679,0.090638,-0.548849,-0.136156,-0.824758
0.289292,0.002733,0.245800,0.054069,-0.502216,-0.863050
-0.001219,0.644081,0.454220,0.383450,0.406064,-0.829505
-0.136272,-0.084458,0.864335,0.842216,0.534573,0.070027
0.157085,-0.235673,0.774280,0.279064,-0.838271,0.468428
-0.076430,-0.164786,0.773412,-0.227910,0.568636,0.790386
-0.144565,-0.062686,0.836160,0.744266,-0.636304,-0.202943
-0.544760,0.464133,0.298814,-0.346040,0.847676,0.402121
0.261077,0.037430,0.206020,-0.420784,0.906059,0.044701
0.338727,0.108214,0.659061,-0.835917,0.058506,0.545729
0.000163,0.346820,0.401532,0.750558,0.152709,-0.642917
0.604602,-0.397028,-0.251712,-0.635965,-0.733515,0.239801
0.189772,0.337773,0.128385,0.788252,-0.049420,-0.613365
-0.465973,0.393350,0.460972,0.756572,-0.653006,0.034395
-0.445160,-0.679676,0.414494,0.061059,-0.004120,-0.998126
-0.736321,-0.032558,0.433313,0.249262,0.314661,-0.915891
-0.201238,-0.117565,0.594604,-0.545338,-0.592809,-0.592608
-0.411091,-0.322367,0.220636,0.499601,-0.855025,-0.139040
0.017400,-0.067158,0.813274,0.290716,0.675424,-0.677707
-0.405806,-0.325346,0.236174,-0.017342,0.863229,-0.504514
0.603463,-0.209125,0.493106,0.786492,0.609512,0.099626
-0.312628,0.275139,-0.022087,0.933971,0.326266,-0.145771
-0.198391,0.096388,0.413219,0.919581,0.370198,-0.131625
0.799657,0.017946,0.144465,-0.086387,-0.915167,0.393709
0.014879,0.124719,0.491533,0.429498,-0.601205,0.673858
0.134808,0.108517,0.757657,0.868729,0.226209,-0.440612
0.093991,0.050750,0.752505,-0.810906,0.224594,0.540360
0.327100,0.171643,0.599675,0.267340,0.215226,-0.939259
-0.071063,-0.296717,0.895709,-0.193584,0.941802,-0.274836
-0.465162,-0.178111,0.438953,0.748416,0.639364,-0.176315
-0.279210,-0.469103,0.551732,-0.565940,0.738568,-0.366373
-0.109928,-0.678383,0.623104,0.354884,0.121647,0.926962
0.725506,0.358550,0.257461,0.960318,0.268737,-0.074633
0.019594,-0.653626,0.579093,0.994579,-0.096673,-0.038296
0.458899,0.203858,0.572612,-0.766667,0.489764,0.415154
-0.270186,0.164288,0.161738,0.843264,0.491326,0.217954
-0.103993,0.023116,0.778347,0.853591,0.345608,0.389793
-0.265144,-0.311729,0.551542,0.802831,-0.016525,0.595978
-0.560129,-0.124221,0.438736,0.166471,-0.316894,0.933737
0.144808,-0.565245,0.754349,-0.380441,-0.042819,0.923813
0.223351,0.105332,0.633272,0.380859,-0.169808,-0.908907
-0.442557,0.049160,0.193682,0.293930,-0.390643,0.872355
-0.162209,-0.434012,0.322893,0.405451,-0.913761,0.025509
0.180908,-0.192723,0.684957,0.576328,0.437530,-0.690227
-0.497439,-0.708905,0.451020,0.021276,0.378808,0.925231
0.062932,-0.100362,0.931666,-0.139126,0.873440,0.466633
-0.398489,-0.051648,0.666897,-0.822453,0.490748,-0.287640
-0.432637,-0.311232,0.599268,-0.275776,0.922213,0.271056
0.240182,0.058207,0.569494,0.438025,0.898641,-0.024056
0.749328,-0.067953,0.195417,0.912208,0.210629,-0.351443
0.632896,-0.468114,0.131557,-0.414132,-0.703766,-0.577241
0.096998,-0.668438,0.579202,0.653101,0.747060,0.123938
-0.042037,-0.596064,0.515016,0.318777,0.566145,0.760172
-0.441743,-0.062983,0.519653,-0.186999,0.930299,-0.315555
0.160745,-0.490978,0.715382,-0.032637,-0.057003,0.997840
-0.108953,0.005816,0.231835,-0.554619,0.821507,0.132375
-0.145704,-0.401305,-0.982103,0.320606,-0.153111,-0.934756
0.216927,0.058905,0.562335,-0.172734,-0.304310,0.936781
0.570779,0.154349,0.122500,0.398084,-0.460922,0.793146
-0.026995,0.385989,0.504169,-0.677409,-0.733860,0.050663
-0.378487,0.150168,0.179717,0.242963,0.589484,-0.770375
0.209448,-0.005222,0.475371,-0.501296,0.552603,0.665832
-0.707620,-0.316202,0.206752,0.214576,-0.472731,-0.854683
-0.241566,0.352688,0.129876,0.285342,0.108379,0.952278
-0.523132,0.408756,0.220121,0.627192,0.020050,0.778606
0.313926,0.027188,0.609355,-0.694546,0.714541,0.083882
0.017561,-0.447331,-0.976978,-0.268489,-0.219692,0.937896
-0.370763,-0.441172,0.514121,-0.457690,0.352970,-0.816046
0.672818,0.213900,0.137930,0.439254,-0.122926,0.889913
-0.027646,0.336280,0.514311,0.754030,-0.542920,0.369697
-0.286691,-0.362925,0.531123,0.326307,-0.419881,0.846891
-0.335801,0.195205,0.426995,0.903176,0.422907,-0.073636
0.081549,0.021720,0.554688,-0.320700,-0.767024,-0.555721
-0.086512,-0.867080,0.715816,0.998111,-0.017783,0.058807
-0.539313,0.117067,0.194495,-0.517381,-0.245756,0.819707
-0.029027,-0.082965,0.892184,0.737655,0.480541,0.474284
0.005041,-0.588807,0.568355,0.841904,-0.132877,-0.523012
0.521344,0.055725,0.331137,-0.194671,0.391094,-0.899527
0.183511,-0.028183,0.774985,0.825410,0.005834,-0.564504
-0.361168,-0.568922,0.432933,0.150409,0.769857,0.620239
0.035124,-0.444946,0.550078,0.181733,0.349536,0.919129
-0.157656,-0.105635,0.556830,-0.722028,-0.666213,-0.186645
-0.069518,0.166279,0.611226,0.320913,0.577249,-0.750865
-0.085780,-0.703238,0.645882,-0.093999,0.733869,0.672756
0.351736,0.798481,0.085052,-0.615334,-0.369254,0.696431
-0.445403,0.376548,0.165616,0.167385,0.975197,-0.144822
0.162532,0.454388,0.432933,0.314614,0.255774,-0.914110
-0.337427,-0.469006,0.184733,0.498296,0.746180,-0.441493
-0.088301,-0.275139,-0.703478,-0.636337,-0.771382,-0.006716
0.412796,0.241237,0.527218,0.380919,0.466842,-0.798097
-0.290594,0.548837,0.135598,-0.062199,-0.807589,0.586456
0.756892,-0.160514,0.160708,-0.292001,-0.066015,0.954137
0.144644,-0.719142,0.577222,0.965520,0.034772,0.257997
-0.261241,-0.462046,0.660904,-0.707165,-0.289899,0.644884
-0.269047,-0.080580,0.605857,0.143188,0.666673,0.731467
-0.089033,-0.129792,0.834804,-0.286397,0.047312,0.956942
-0.377348,-0.091515,0.174429,-0.232946,0.107706,-0.966507
-0.350272,0.069943,0.414874,0.349656,0.393465,-0.850251
-0.139850,0.217280,0.092834,0.123583,-0.068233,-0.989986
-0.604115,-0.070938,0.436920,0.100113,0.039598,0.994188
-0.133590,-0.392853,-0.367148,0.953064,-0.147362,0.264489
0.094398,-0.201971,0.918297,-0.377058,-0.822314,-0.426178
-0.023742,-0.578667,0.595715,0.120595,-0.560658,-0.819219
-0.096186,0.164986,0.475832,0.730140,-0.348265,-0.587883
-0.152452,-0.280607,0.563121,0.980045,-0.129082,-0.151159
-0.066917,-0.192026,0.624405,-0.659333,0.727231,-0.190828
-0.155624,0.055028,0.411836,-0.547393,-0.835077,-0.054837
0.133262,-0.248397,0.849312,0.989516,0.142985,0.020330
-0.041387,0.176018,0.643414,0.987402,0.138839,-0.075895
-0.153835,0.046775,0.548641,-0.044732,-0.315621,0.947830
0.084559,0.390067,0.134486,-0.167522,-0.444725,0.879861
0.345556,-0.081672,0.469948,0.908347,0.256713,0.330158
-0.025124,-0.081672,0.830574,0.817529,-0.546715,0.180967
-0.682333,0.528461,0.150729,0.629650,-0.255098,-0.733802
-0.022685,-0.341056,0.799959,0.040399,0.729845,0.682418
0.016180,-0.206941,0.797220,-0.093658,0.918598,0.383934
-0.567771,-0.338070,0.239102,0.191255,0.935991,-0.295537
-0.257340,0.271061,0.384177,0.983027,0.176559,-0.049849
0.159768,0.471190,0.141048,-0.294302,-0.373375,-0.879760
0.074232,-0.660385,0.540750,0.803767,0.185939,-0.565142
-0.638915,0.128894,0.274870,0.990823,-0.099694,0.091279
-0.142289,0.690410,0.102135,-0.008884,-0.606960,0.794683
0.242621,0.747777,0.185384,-0.576817,0.666256,-0.472636
0.331164,-0.099864,0.331733,-0.504654,0.805860,-0.309701
0.047484,-0.226528,0.770700,-0.588522,-0.138968,-0.796448
0.056265,-0.613662,0.547393,0.848747,0.421493,0.319331
0.164160,-0.261917,0.533211,0.480952,0.872779,0.083313
0.114968,0.420686,0.144383,-0.025393,0.183857,-0.982625
0.258070,0.124622,0.657352,-0.523663,-0.570992,-0.632254
-0.544434,0.296711,0.146580,0.429388,0.410512,0.804429
0.046913,0.066957,0.561169,0.447203,0.801135,0.397734
0.758760,0.419995,0.162416,0.232076,-0.606023,0.760840
0.055369,0.360741,0.401017,-0.013036,-0.351593,0.936062
-0.555819,-0.266692,0.166321,-0.083953,0.810801,0.579269
-0.013090,-0.360243,0.669039,-0.280571,0.956343,0.081777
0.138304,-0.141922,0.751773,0.486909,0.680874,0.547110
-0.423531,-0.484917,0.571283,-0.559994,0.339500,-0.755743
-0.361250,-0.990358,-0.203118,-0.505137,0.798720,-0.326930
0.347263,-0.210618,0.473744,-0.053381,0.676621,0.734394
0.598259,-0.270267,0.569982,0.763545,0.043603,-0.644281
0.240750,-0.228913,0.711857,0.484290,0.656667,0.578145
-0.204081,-0.332804,0.472307,0.942691,-0.004615,-0.333636
-0.023254,-0.356463,0.717036,0.666049,0.700975,-0.254976
0.516870,-0.376147,0.528222,0.000051,0.484708,0.874676
0.035774,0.222450,0.129876,-0.154862,-0.057247,0.986276
-0.549884,-0.809015,0.079357,0.136386,0.242619,0.960487
-0.277014,-0.041903,0.476836,0.807476,0.585244,-0.073969
0.217252,0.632151,0.129117,-0.028841,-0.953223,0.300889
0.443451,-0.309539,0.520710,0.698622,0.467020,-0.542051
-0.138222,-0.141424,-0.993926,-0.245360,0.118115,0.962210
-0.280510,0.157826,0.372680,0.637038,0.572568,-0.516090
-0.292870,-0.014269,0.604718,0.834992,0.420303,0.355154
0.388566,0.139337,0.270477,0.755544,-0.649582,0.084833
0.139034,-0.055131,0.735069,0.734146,0.458557,0.500755
0.020001,0.028183,0.533184,-0.441198,-0.643879,-0.625112
-0.051793,0.652734,0.442044,-0.401783,-0.264700,0.876644
0.158874,0.135653,0.673622,-0.112638,-0.607219,0.786510
-0.131801,-0.275242,0.387025,0.168778,-0.450176,0.876844
0.002113,-0.133269,0.551244,-0.247368,0.535278,0.807643
-0.167494,0.035440,0.137713,0.801451,0.464093,0.377217
-0.029191,-0.223142,0.803512,0.883846,0.107067,-0.455360
-0.161316,0.426554,0.105037,0.864720,0.222048,0.450505
-0.159363,-0.153451,0.776639,0.333101,-0.125483,0.934504
-0.113099,0.024111,0.217490,0.789029,-0.149785,-0.595817
0.041873,0.025204,0.686448,0.554364,0.757646,-0.344461
0.589803,-0.517720,-0.485621,-0.399682,0.540420,0.740405
-0.188228,-0.116667,0.701254,0.480358,0.124239,0.868228
-0.444428,-0.213002,0.405220,-0.252240,-0.900831,-0.353381
-0.419955,-0.115077,0.656620,0.811754,-0.380455,0.443068
-0.209937,-0.007704,-0.079683,-0.091375,-0.417011,0.904297
-0.452152,0.588607,0.189424,0.484530,-0.859021,0.165267
-0.304172,-0.421184,0.174320,0.152061,-0.287846,0.945527
-0.201724,0.014069,0.475670,-0.393843,-0.899587,-0.188758
0.132124,0.233482,0.460782,0.749631,-0.631010,0.199700
0.084884,-0.290352,0.752912,0.053232,-0.549221,0.833980
-0.039355,0.275734,0.120222,-0.629772,0.235665,0.740168
-0.056672,-0.790326,0.563745,-0.180634,0.941573,0.284272
0.184241,0.102850,0.741848,-0.753434,-0.338859,-0.563482
-0.440686,0.149677,0.165670,-0.865584,0.333444,0.373603
0.051712,0.576974,0.445054,0.398475,-0.531687,0.747346
-0.346858,0.137941,0.431984,-0.365072,-0.839481,0.402486
-0.230264,-0.098378,-0.291302,-0.026787,0.991706,0.125703
0.630213,-0.290152,0.595119,-0.737791,0.345138,0.580124
0.442800,-0.103050,0.149536,0.374709,-0.010284,0.927086
0.106836,-0.011878,0.294475,0.216891,0.945193,0.244068
0.303358,-0.065665,0.805654,-0.693529,-0.289695,0.659617
-0.039355,0.341948,0.530906,0.881161,-0.210681,0.423283
0.163021,-0.195806,0.785615,-0.602092,0.642002,-0.474678
0.191804,-0.094895,0.546742,-0.730613,0.621999,-0.281640
0.019351,0.448624,0.131937,-0.291085,0.095264,0.951942
-0.116513,-0.088135,-0.489445,-0.568272,0.318994,-0.758492
-0.422230,0.266389,0.204230,0.082958,-0.238384,0.967621
-0.107246,-0.053038,0.540831,-0.307634,-0.898341,0.313600
-0.238638,-0.476063,0.232432,-0.665896,-0.104635,0.738671
0.125863,-0.352094,0.806901,-0.434869,0.895745,-0.092356
-0.276935,-0.215788,0.219389,0.886077,-0.425076,0.184872
-0.006911,0.035543,0.863141,0.986691,-0.140447,-0.081952
-0.455728,0.072327,0.190563,0.060940,0.192101,0.979481
-0.117002,-0.171746,0.904495,0.968888,-0.009934,-0.247299
0.165703,0.103742,0.770510,0.504668,0.492968,-0.708726
0.302870,0.031065,0.553386,0.806503,-0.502215,0.311981
0.031303,0.219368,0.488550,0.586597,-0.307605,0.749188
-0.046426,0.139731,0.159216,0.923480,0.181558,-0.337966
0.566712,0.115077,0.123775,0.475710,-0.483882,0.734546
-0.154974,0.118159,0.789953,-0.003596,-0.901724,0.432296
0.058784,0.151163,0.474395,-0.652142,0.075144,0.754363
-0.396700,0.012673,0.175758,0.349117,-0.502635,0.790870
0.102690,-0.382415,0.769995,-0.082698,0.753808,0.651870
0.018457,-0.206540,0.936303,-0.222465,0.973462,0.053675
0.221969,0.098372,0.156152,-0.702607,-0.214838,-0.678372
-0.078055,-0.711788,0.228744,-0.791906,0.603855,-0.090798
-0.414670,-0.028086,0.670233,-0.417538,-0.875696,-0.242525
-0.453696,-0.639608,0.430249,0.037239,0.687543,0.725188
-0.065292,-0.890539,0.727395,0.989002,-0.052861,-0.138134
-0.090576,-0.354278,0.741414,-0.418737,0.450250,-0.788628
-0.698189,-0.315801,0.190536,-0.208404,0.541080,0.814739
0.093747,0.498630,0.415009,-0.215753,-0.058705,0.974682
-0.472315,-0.367701,-0.038330,0.289865,-0.407163,0.866139
0.970892,0.538303,0.168490,0.172192,0.441952,0.880357
0.047402,-0.209526,0.799580,0.724928,0.374597,0.578063
-0.333687,-0.234277,0.181669,-0.612728,-0.049027,-0.788772
0.289046,-0.064172,0.337780,-0.456735,-0.185423,0.870064
0.068217,0.041903,0.726418,0.861779,-0.412806,-0.294834
0.228879,0.094597,0.758823,0.311855,-0.908928,0.276760
-0.149607,-0.058208,0.350390,0.626800,0.210385,0.750240
0.252703,0.213203,0.587092,0.581441,-0.051920,-0.811930
0.450768,0.207038,0.550268,0.930037,0.133310,-0.342433
-0.101228,-0.596562,0.608027,0.403184,0.755380,0.516568
0.231401,-0.057516,0.527815,0.387489,-0.888455,0.245967
-0.823157,0.201771,0.180286,0.339212,0.848313,0.406571
0.307180,-0.282202,0.706732,0.631764,0.774737,0.025625
-0.417677,0.523788,0.121741,-0.185537,-0.715657,0.673358
-0.106432,-0.165084,0.841557,-0.214878,-0.970712,-0.107452
0.142530,0.236565,0.498122,-0.662382,-0.177356,0.727870
0.502074,0.157128,0.170551,-0.639829,0.763256,-0.089766
0.652816,0.383107,0.283547,0.802254,-0.463994,0.375630
0.303684,0.574292,0.099885,-0.207309,0.911961,0.354048
-0.068788,-0.422477,-0.968517,-0.293614,0.190873,0.936674
-0.306286,-0.252973,0.186604,-0.546687,0.819451,0.172144
0.820798,0.138238,0.120683,-0.708994,-0.407936,0.575253
0.055044,-0.146194,0.756925,-0.297116,-0.319667,-0.899742
0.089844,0.136946,0.484781,-0.660666,-0.267197,0.701517
-0.427108,0.054627,0.568382,-0.280862,-0.218211,0.934612
0.548742,-0.250187,0.550186,0.888733,-0.305218,-0.342046
-0.439468,0.172741,0.412297,0.952264,0.216465,-0.215257
0.059436,-0.406967,0.737835,0.172657,-0.971370,-0.163184
0.320189,-0.023911,0.575242,0.807469,0.484655,0.336309
-1.000000,0.210818,0.183594,-0.415684,0.851866,0.318638
-0.062446,-0.224241,0.891722,0.891520,-0.447369,0.071083
0.344498,0.085253,0.591485,-0.076299,0.434787,-0.897295
-0.386537,-0.279217,0.187092,-0.497944,0.589126,0.636382
-0.218311,-0.126412,0.541319,0.413253,0.297033,-0.860810
-0.214490,0.063280,-0.055657,0.889362,0.431414,-0.151385
-0.466869,0.140824,0.179744,0.972451,-0.233082,-0.003309
-0.018050,0.463338,0.541455,0.642990,0.278154,-0.713578
-0.471258,-0.672515,0.451590,-0.072256,0.675715,0.733613
-0.570047,-0.253367,0.153413,0.156038,0.654486,0.739797
-0.069192,-0.491871,0.795539,-0.178062,0.916036,0.359406
0.054394,-0.234380,0.865094,-0.451912,0.889338,0.069662
-0.206766,0.028880,0.483588,0.525736,0.657023,0.540298
-0.649404,0.352986,0.143678,-0.155258,-0.682152,0.714538
0.038702,-0.192426,0.869080,0.027571,-0.999597,0.006761
-0.190342,0.209125,0.101295,-0.539693,0.265566,-0.798878
-0.537117,0.534225,0.324846,0.564229,-0.639892,-0.521713
-0.063257,-0.570913,0.801180,-0.633691,0.694040,0.341677
-0.506952,-0.239447,0.294258,0.151991,0.183183,0.971258
-0.157817,-0.371578,0.025151,0.933841,0.160322,0.319747
-0.391658,-0.309539,0.628961,-0.416227,0.824000,0.384421
-0.017075,0.131879,0.493106,0.862636,0.104936,-0.494821
0.287585,0.295321,0.175107,0.708822,0.328557,-0.624196
-0.326042,-0.002734,0.480225,0.496713,-0.764517,0.410840
-0.453371,0.346917,0.217246,0.892363,-0.038578,0.449666
0.195868,-0.059603,0.338160,-0.108928,-0.024834,0.993739
0.885599,-0.625294,0.100346,-0.760348,-0.599983,-0.248782
0.386452,0.205842,0.291601,-0.783083,-0.144979,-0.604783
-0.049029,0.233882,0.504657,0.320398,0.638931,-0.699366
-0.002197,-0.128997,0.893295,0.779005,0.363244,-0.511083
0.066833,-0.596762,0.598129,0.977828,0.209214,0.009101
0.086673,-0.304866,0.833720,0.193983,0.775835,0.600376
-0.371088,0.225927,0.447495,0.831037,-0.157733,0.533384
-0.480203,-0.020531,0.171446,-0.278785,-0.513001,0.811855
-0.100985,-0.008401,0.443373,0.724833,-0.336035,0.601412
-0.162373,-0.161704,0.454681,0.956330,-0.129049,-0.262260
0.005527,-0.355965,0.668009,-0.719503,0.692884,-0.047196
-0.264493,-0.139234,0.612691,0.045993,-0.810711,0.583638
0.126677,-0.618037,0.534730,0.763635,0.638296,0.097158
0.146758,-0.166479,0.752993,0.860003,0.375345,0.345703
0.090252,0.403587,0.523395,-0.280173,-0.214030,0.935785
-0.429872,-0.260230,0.169494,-0.085122,0.719379,0.689383
-0.187821,0.503108,0.107179,0.641282,0.414401,0.645778
0.336206,0.034645,0.530798,0.888858,-0.122638,0.441465
0.170177,-0.041108,0.690896,0.465414,0.557700,-0.687284
-0.781039,-0.299399,0.196041,0.788276,0.594156,-0.160000
0.278558,-0.274247,0.693390,-0.749864,0.348740,0.562214
0.075535,-0.716660,0.526514,0.358631,0.931380,0.062574
-0.277339,0.644979,0.253881,-0.195897,0.977805,0.074305
0.320432,-0.057413,0.338784,-0.509706,0.854493,0.100211
0.400519,-0.267087,0.497282,-0.286869,0.862847,0.416175
-0.405074,0.328331,0.445787,0.784225,0.357605,0.507060
-0.678266,0.279016,0.136655,-0.137433,0.958206,0.250905
-0.266771,-0.103645,0.163148,-0.012589,0.107704,0.994103
-0.021221,0.117461,0.158077,0.993346,0.093408,0.067372
-0.107082,-0.004129,0.431116,0.555028,0.831551,0.021595
-0.306286,0.668437,0.339055,0.072976,-0.979863,-0.185858
0.176437,-0.156831,0.546499,-0.635867,-0.066212,-0.768953
0.234001,0.028583,0.800176,0.646120,0.508161,-0.569474
-0.133019,-0.356663,0.751095,0.611156,0.237598,0.755007
-0.427190,-0.257839,0.161684,-0.128680,0.828733,0.544649
0.179851,0.038626,0.744071,0.234024,0.772179,-0.590739
0.024229,0.366602,0.394970,0.361762,0.403835,-0.840265
0.194811,0.429734,0.394373,-0.697530,0.465768,-0.544530
-0.025856,-0.293137,0.801722,0.989392,0.041903,0.139097
-0.446378,0.323459,0.472768,-0.517625,0.846665,-0.123382
-0.198471,0.013170,0.398251,0.917709,-0.161065,-0.363138
0.185218,-0.410152,0.874937,0.224376,0.778607,0.586026
0.154564,0.199580,0.730920,0.217696,-0.581907,0.783577
0.491910,-0.368793,0.518026,0.612022,0.790719,0.013858
-0.023092,0.465826,0.389248,0.670133,0.216326,-0.710017
-0.345965,-0.120945,0.484320,0.202196,-0.385564,0.900254
0.242132,-0.350801,0.698922,-0.699362,0.542131,0.465818
0.239207,-0.215290,0.538391,0.032442,-0.170198,0.984876
-0.365966,-0.354575,-0.052864,-0.427749,0.540287,-0.724652
-0.058461,-0.232887,0.740248,0.799708,0.404833,0.443371
-0.318725,-0.439085,0.607593,0.289920,0.938548,0.187279
0.215220,-0.040119,0.536682,-0.508785,0.765905,-0.393100
0.225709,0.372967,0.155176,-0.771554,0.295649,0.563290
0.339945,0.254660,0.233733,0.928361,-0.333874,-0.163323
-0.076917,-0.328331,0.602522,0.242157,-0.381935,0.891900
0.637774,0.195011,0.143977,0.134229,-0.462847,0.876217
0.904626,0.036836,0.133157,-0.814110,0.562504,-0.144268
-0.128711,-0.250685,0.552519,-0.515799,0.834474,-0.193918
-0.030084,-0.663171,0.599485,0.135659,-0.388421,0.911442
-0.554518,0.398320,0.227008,-0.643180,0.075371,-0.761997
-0.241646,-0.286274,-0.992868,0.259715,-0.202772,-0.944157
0.223595,0.167571,0.671615,0.238167,0.835083,0.495896
-0.515651,-0.249392,0.148912,0.085163,0.743566,0.663217
0.120903,-0.703535,0.689784,0.170101,-0.858402,0.483954
-0.473698,-0.449225,0.567704,0.662443,0.342578,-0.666190
0.219366,0.306656,0.162145,0.705773,0.208427,-0.677084
-0.536549,-0.332306,0.273297,-0.140750,0.861776,-0.487372
0.020408,-0.335789,0.808203,0.300822,0.923150,0.239375
0.661111,0.423077,0.289648,0.888077,-0.441440,-0.128257
-0.143264,0.110107,0.799905,-0.286361,0.776748,-0.560945
-0.052525,0.563752,0.118541,-0.558829,-0.537355,0.631633
0.499389,-0.163099,0.251685,-0.285813,0.894081,-0.344861
0.265144,-0.318386,0.698814,0.717180,-0.498505,-0.486976
-0.344826,-0.571805,0.487953,0.701588,-0.170571,0.691867
0.062768,-0.171649,0.884293,0.451446,0.605439,-0.655470
0.200260,-0.566040,0.738052,0.626995,0.743921,-0.231210
-0.047404,-0.269872,-0.926866,-0.879798,0.168076,0.444641
0.044313,-0.352391,0.714786,0.631352,0.674500,0.382681
0.271566,0.403490,0.166212,-0.451353,0.508900,0.733008
-0.347590,-0.052940,0.762240,0.263563,0.930925,0.252811
-0.108057,-0.453496,0.527164,0.749948,0.657562,-0.072050
-0.129848,0.115077,0.128818,-0.075972,0.857943,0.508097
0.196682,-0.120842,0.550891,0.744980,0.121658,0.655900
-0.197985,0.067055,0.055169,0.869674,0.411423,-0.272761
-0.110171,-0.225430,0.743394,-0.047523,0.317042,0.947220
0.560370,0.251182,0.165372,0.872682,-0.294108,0.389777
0.393365,0.133966,0.527083,0.809147,0.237091,-0.537652
-0.394586,0.153451,0.413084,0.134860,0.528263,-0.838302
-0.420441,0.429637,0.351393,0.776127,0.310157,-0.549026
-0.173429,0.387282,0.109213,0.751066,0.052056,0.658172
0.217091,-0.565045,0.738811,0.967933,-0.114358,-0.223668
-0.176437,-0.220460,0.755840,0.741145,0.326846,0.586409
-0.092772,0.238652,0.632621,0.161578,-0.827862,0.537156
0.176437,0.126806,0.768938,0.538961,0.744760,-0.393514
-0.019353,-0.286771,0.798929,0.869401,-0.224960,0.439926
0.195950,-0.110004,0.679289,0.966367,-0.139238,-0.216210
0.053662,0.231892,0.479222,-0.100884,-0.848415,0.519629
-0.176437,0.103347,0.126188,0.489517,0.800863,0.344953
-0.226036,0.503303,0.117023,-0.363436,-0.524247,-0.770117
-0.468087,0.286771,0.486625,-0.206757,-0.927908,0.310223
0.700300,-0.288665,0.149997,-0.037570,-0.643974,0.764125
0.003820,-0.410650,0.672375,0.974377,-0.224463,-0.014330
-0.347997,-0.777699,0.615185,-0.300321,0.644348,-0.703295
-0.236606,-0.356766,-0.981533,-0.151679,0.189073,0.970178
-0.182372,0.200775,0.626683,-0.180843,0.660220,-0.728975
0.099276,0.233585,0.744831,-0.318742,0.581379,-0.748600
0.257827,-0.020829,0.814928,0.720719,0.377895,-0.581170
-0.009758,0.676987,0.450614,-0.285144,-0.099740,0.953281
0.153264,0.174725,0.490367,-0.264267,-0.190955,0.945356
0.211074,0.021423,0.483913,0.148475,0.212762,-0.965757
-0.421987,0.595069,0.294719,-0.524124,0.837125,0.156572
-0.048461,0.595366,0.442234,0.340252,0.515072,-0.786721
-0.288887,0.095289,0.190401,0.313381,-0.187334,0.930966
0.585168,-0.215885,0.127435,0.494033,0.047420,0.868149
0.107650,0.248397,0.391309,-0.049546,-0.146158,-0.988020
0.090738,0.035738,0.357738,-0.640296,0.358614,-0.679277
-0.431011,-0.571805,0.455196,-0.820915,0.127747,-0.556579
-0.693147,0.214198,0.185194,0.270624,0.916118,0.295789
0.012601,-0.211213,0.794726,-0.372948,-0.699597,0.609487
0.918450,0.287669,0.156478,0.101638,0.975304,-0.196092
0.286446,0.204155,0.596502,0.317065,-0.143402,-0.937500
0.053501,0.471294,0.421273,-0.363712,0.508766,-0.780302
0.105943,-0.777401,0.600841,0.743161,-0.536383,-0.400006
0.023336,0.536513,0.119192,0.292699,0.771622,0.564736
-0.456135,0.303076,0.469324,0.185969,-0.790768,0.583182
-0.532321,0.296019,0.159813,-0.153351,0.969396,0.191718
-0.043176,0.288161,0.080605,0.831908,0.182001,0.524218
-0.182618,-0.355370,0.201708,0.865108,0.407611,-0.292303
0.129278,-0.271960,0.691546,-0.335886,0.194165,-0.921673
0.096348,0.625488,0.441339,0.266281,-0.430589,0.862373
0.107568,0.153748,0.105796,-0.372064,-0.197487,-0.906955
0.128870,0.401797,0.530364,0.173546,0.485081,-0.857075
-0.008212,-0.310934,0.785750,-0.659378,-0.111707,-0.743466
-0.430929,-0.149677,0.315572,0.056531,-0.917527,0.393635
0.045856,-0.056818,0.761806,0.263885,0.767116,0.584721
0.448247,0.106527,0.140533,0.590605,-0.286562,0.754366
0.600048,-0.160909,0.115992,0.833503,0.280480,0.476029
-0.430443,-0.067358,-0.454139,-0.202141,-0.256235,-0.945242
0.024961,-0.619827,0.028324,-0.103223,0.901521,0.420244
0.276119,0.796588,0.038980,0.594189,0.426472,-0.681953
-0.047076,-0.072825,0.902190,-0.411485,-0.405883,-0.816051
0.122692,0.211213,0.210386,0.065224,0.946861,0.314960
-0.082691,-0.069446,0.741957,0.957695,-0.074713,0.277917
0.876332,-0.118457,0.141970,-0.068359,0.988059,0.138081
0.296853,0.223439,0.600108,0.799848,-0.011139,-0.600099
-0.626719,0.526470,0.162525,0.948376,-0.102960,-0.299971
0.498496,-0.372767,0.536031,0.429517,0.610660,-0.665289
-0.395643,-0.493861,0.388109,0.369258,0.754260,0.542900
-0.395886,-0.648753,0.432445,-0.040684,0.588722,0.807311
0.595495,-0.021229,0.111464,0.140496,-0.175516,-0.974400
-0.762340,0.296911,0.164179,0.941971,0.182000,0.282074
-0.059925,-0.787941,0.618467,-0.702598,0.549796,-0.451753
0.163021,0.140824,0.713240,-0.524748,0.382857,0.760303
0.332303,0.067849,0.528629,0.961371,-0.246119,0.123250
-0.132776,-0.045386,0.875507,-0.730498,-0.553152,-0.400494
0.128466,-0.261225,0.874124,0.265389,0.847722,0.459279
0.114886,-0.234477,0.730513,-0.513173,0.658616,0.550344
-0.030978,-0.336881,0.322541,-0.699690,0.714419,0.006247
0.597691,0.384199,0.206237,-0.395160,-0.401710,-0.826122
-0.282299,-0.123724,0.750580,0.596675,0.661432,0.454408
0.026018,-0.071533,0.500183,-0.416476,0.900492,0.125150
