-0.062152,-0.457064,0.525394,0.470503,0.733476,0.490551
0.440950,0.143327,0.785692,0.286264,-0.266359,0.920384
0.452141,0.139863,0.775485,0.020443,-0.879632,0.475215
-0.397778,0.336382,0.386622,-0.421005,0.726505,-0.543089
-0.322642,0.665660,0.406036,0.779593,-0.386387,0.492889
-0.571540,-0.605897,-0.463401,0.860061,0.223047,-0.458852
0.525880,-0.713702,0.475873,-0.127764,-0.773220,0.621134
0.688951,0.023533,-0.368475,0.001613,0.394810,0.918761
-0.045563,-0.689015,-0.914428,0.051711,0.172317,0.983683
-0.232413,-0.604209,0.627360,-0.752407,-0.647669,-0.120034
0.002201,0.579612,0.081699,-0.669545,-0.268070,0.692710
0.492105,-0.752509,0.452293,0.974575,-0.054305,0.217381
-0.138689,0.362312,0.485202,-0.269744,0.036816,0.962228
-0.070439,0.311695,0.752564,-0.622864,0.428483,-0.654555
-0.473822,-0.398277,0.271478,0.250321,-0.499219,0.829530
-0.116807,0.159311,0.534772,-0.456285,-0.784673,-0.419634
-0.264090,0.012255,0.394344,0.629823,0.405046,-0.662768
-0.022980,-0.351034,0.725160,-0.429747,0.781953,0.451515
-0.053656,-0.018115,0.690839,-0.746870,-0.259657,0.612180
-0.347019,-0.750821,0.401798,0.796771,0.441849,0.412221
-0.766685,0.306101,0.301927,0.472004,-0.524739,0.708422
-0.405474,0.523488,-0.002314,0.890945,0.053971,-0.450892
-0.775479,0.435041,0.246462,0.829714,0.481465,0.282428
-0.208830,0.852234,0.097459,0.293417,-0.803620,0.517785
-0.089028,0.306279,0.431369,-0.569292,0.184370,-0.801196
-0.859414,0.006838,-0.437386,0.041296,-0.984316,0.171513
0.096322,-0.570376,0.361435,-0.226861,0.081985,0.970470
-0.290667,0.582985,0.392200,0.671316,0.028375,0.740628
0.354916,-0.610958,-0.271600,0.295088,-0.861036,0.414173
-0.679657,-0.036941,-0.500889,0.323078,0.682410,-0.655696
0.184252,-0.772844,0.396390,-0.200527,0.978377,-0.050659
-0.789567,-0.314536,0.372007,0.247131,-0.491173,0.835269
-0.356911,0.613179,0.421796,0.760486,-0.443515,0.474294
-0.048058,-0.012699,0.666918,0.753821,0.615336,-0.230469
0.018088,-0.862357,0.351448,0.627015,-0.647737,-0.432769
-0.839228,0.422343,-0.074586,-0.761175,-0.066799,-0.645098
0.217026,-0.208863,0.525394,0.853937,-0.097653,-0.511131
0.305560,0.018649,0.677929,0.792003,-0.399214,0.461908
-0.409073,0.457153,0.646920,-0.085795,-0.949647,0.301345
0.042770,-0.730752,0.436582,0.205114,-0.822863,-0.529929
-0.912771,0.139597,0.153022,-0.663698,-0.276815,-0.694894
-0.365205,0.205754,0.213651,-0.354478,-0.822148,-0.445441
-0.843521,0.207708,0.446179,-0.693695,0.383239,-0.609849
-0.224418,0.378919,0.781478,0.871120,0.489908,-0.033776
-0.745705,-0.041914,-0.480793,0.056947,-0.974068,0.218971
-0.794964,0.218098,-0.310136,0.044683,-0.661148,0.748924
-0.413469,0.443123,-0.572065,-0.606058,-0.657773,0.447246
-0.182953,0.661842,-0.312669,0.633299,0.479211,0.607692
0.663770,-0.271290,0.557280,0.883616,-0.027007,-0.467434
0.533972,0.249889,0.217231,0.320013,0.621381,-0.715176
-0.469022,-0.814492,0.248898,0.761290,0.628550,-0.159256
-0.118106,-0.188793,0.578861,-0.465027,0.342513,0.816355
-0.773582,-0.474203,0.073417,0.909417,0.370004,-0.189887
0.372901,-0.350502,0.185955,0.346073,0.161194,0.924256
-0.416964,-0.213214,0.634887,0.680071,-0.733143,0.002122
-0.073038,0.923541,0.123621,0.208631,0.968440,0.136368
0.036275,-0.182665,0.714223,-0.512552,-0.337057,0.789736
0.643284,-0.598170,0.404258,0.960923,0.209433,0.181009
-0.033470,0.343220,0.718583,0.865870,-0.224071,0.447283
-0.659373,-0.192522,0.266412,0.554551,0.420612,0.718024
-0.663569,-0.175117,-0.902638,0.556331,0.271280,0.785432
-0.470620,0.598970,0.128834,0.346591,0.649558,0.676719
0.104219,-0.165171,0.578935,0.544900,0.817239,-0.187630
-0.286069,-0.594796,0.521448,0.331872,0.930835,-0.152992
0.021083,0.718942,0.619516,0.237743,-0.947252,0.214922
0.273481,-0.309564,0.582710,0.913849,-0.065232,-0.400780
-0.460429,-0.488500,-0.314959,0.808404,-0.060142,-0.585548
-0.751200,-0.310274,0.373736,0.377318,-0.898897,0.222745
0.216227,-0.686351,0.355053,-0.034886,-0.965573,0.257784
-0.586830,-0.075926,0.353421,0.206161,-0.703183,0.680465
0.295363,0.031081,0.423769,0.264772,0.956667,-0.121176
-0.656872,-0.105319,0.597472,-0.724050,0.394894,-0.565518
-0.155973,0.860937,0.279419,0.575412,-0.330306,-0.748197
-0.612407,0.702779,-0.501279,-0.643934,0.762179,0.066573
-0.740607,-0.340378,0.359243,-0.559553,0.556306,-0.614349
0.125400,0.492319,-0.974448,0.060246,0.471043,0.880051
-0.060450,-0.069443,-0.392736,-0.298812,0.920434,0.252019
0.040970,-0.022467,0.952403,0.523809,-0.697747,-0.488645
-0.682852,-0.001599,0.594987,-0.603729,0.149943,-0.782961
0.870508,0.196786,-0.965971,-0.017591,0.166139,0.985945
0.123802,-0.087825,0.702312,0.273749,-0.442550,-0.853939
0.371907,0.310452,0.414148,-0.108265,-0.767545,0.631786
0.170164,-0.853033,-0.147078,0.546207,0.301313,-0.781581
0.201938,-0.018381,0.598933,0.179524,-0.928567,-0.324861
-0.289265,0.233638,0.586242,0.840429,0.285217,0.460793
-0.413567,0.056123,0.745573,-0.351661,0.933628,-0.068360
-0.234011,0.792026,0.349548,0.987013,-0.061376,-0.148455
-0.027474,0.404583,-0.957275,-0.112953,0.120554,0.986260
-0.103616,0.291537,0.711909,-0.208305,0.468550,0.858528
-0.063048,0.575615,0.064234,0.909802,-0.213284,-0.356047
-0.431351,-0.184885,0.445424,0.335200,0.740285,0.582768
-0.134591,0.066957,0.816920,-0.660699,0.688480,0.299119
-0.344226,-0.297753,-0.282610,0.798357,-0.127922,-0.588440
0.747705,0.126543,0.201203,-0.229548,-0.732064,0.641397
-0.515384,-0.481129,-0.337052,0.504026,-0.531227,-0.680996
0.405175,0.113134,0.365357,0.000067,0.956524,0.291653
-0.291168,0.154693,-0.664288,-0.464193,0.874999,0.137483
0.292369,-0.209661,0.464400,0.995101,0.075332,-0.064023
0.777979,0.131782,-0.947970,0.002946,0.121956,0.992531
0.355118,-0.189149,0.600102,0.865725,-0.371294,-0.335651
0.391691,-0.336204,0.668648,0.972750,-0.005599,-0.231788
0.067048,0.310719,-0.692105,0.698994,0.256020,-0.667729
-0.442048,-0.747802,-0.171997,0.284051,0.920309,-0.268972
-0.092126,-0.170855,-0.607799,-0.076068,0.503091,0.860879
0.352117,0.196519,0.550337,-0.448259,0.810341,0.377376
-0.109611,-0.147766,0.844007,-0.095225,0.729371,0.677459
0.152478,-0.739189,0.412735,0.302522,0.953014,-0.015611
-0.426557,-0.743540,0.214406,-0.008289,0.390970,0.920366
0.033573,0.084806,0.723918,0.664714,0.172597,-0.726887
-0.489709,0.014919,-0.324727,0.450906,0.718526,-0.529532
-0.867806,-0.330166,-0.636397,-0.079003,0.546633,0.833637
0.136695,-0.046887,0.899618,0.706912,0.616139,-0.347345
-0.195443,0.359737,0.820768,0.879073,0.468828,0.086202
-0.534869,-0.494183,0.149806,0.501792,0.086302,-0.860672
0.085631,0.608561,0.552067,0.864487,0.245748,0.438486
-0.037769,-0.939437,0.319684,0.967026,-0.225872,0.117651
-0.564649,-0.638309,0.429494,0.680628,0.555048,0.478192
-0.347720,0.120327,0.315957,0.809195,0.567090,0.153665
-0.253295,0.381050,0.752393,0.844801,0.516863,-0.138436
1.000000,-0.021668,0.325043,0.998803,-0.037749,-0.031122
-0.030072,-0.162152,0.871970,0.975525,0.174830,-0.133363
-0.567545,-0.145014,0.468589,0.908417,0.144368,0.392347
0.352117,-0.729243,0.306092,-0.023371,-0.453034,0.891187
-0.218526,-0.083030,0.403600,0.664394,-0.130101,-0.735972
-0.807350,-0.021845,0.281953,0.715487,-0.266709,0.645712
0.498905,0.072107,0.197452,-0.401566,-0.783025,0.474991
-0.489605,0.381139,-0.419433,0.939612,0.254078,-0.229289
-0.161071,0.598793,0.361362,0.754384,0.278642,-0.594360
0.613413,-0.501998,0.138748,-0.183289,0.603345,0.776132
0.344524,0.444809,0.236938,-0.086117,0.811683,0.577715
0.309152,-0.069621,0.653692,-0.407196,0.550516,0.728783
-0.472322,0.485837,0.102356,-0.141279,0.319407,0.937027
0.876203,-0.214545,0.213772,-0.529297,0.627056,-0.571529
-0.018583,0.160288,0.473071,-0.079556,-0.378501,0.922176
0.619506,0.052659,0.397048,0.061903,0.954726,0.290976
0.120607,0.896191,0.133389,0.834395,-0.080431,-0.545267
0.328540,-0.287097,0.683775,-0.589805,-0.664065,0.459507
-0.311049,0.323861,0.514335,0.984401,-0.016028,0.175211
-0.470120,0.681822,0.477285,0.087298,-0.995939,0.022028
-0.193241,0.467543,-0.968114,0.011652,0.059008,0.998190
0.546962,-0.456887,-0.082089,0.754308,-0.647396,0.109076
-0.553756,0.256639,-0.284218,0.888633,0.059194,0.454783
-0.550658,0.070864,0.401944,-0.314564,0.650454,-0.691346
-0.241604,0.109049,0.543298,0.979280,-0.142069,-0.144313
0.272585,0.043158,0.842813,0.938856,0.081640,-0.334491
0.275884,-0.025752,0.870606,-0.114229,-0.900913,0.418697
-0.758591,-0.016251,0.290624,-0.661675,0.196882,-0.723481
0.432558,-0.174407,0.511120,0.317962,0.876447,0.361581
-0.184350,-0.352100,-0.723211,-0.497423,-0.060618,0.865388
-0.626995,0.141906,0.536964,0.838462,0.133390,0.528383
-0.024980,-0.094574,0.837698,-0.421640,0.850298,0.314980
0.229919,-0.764585,0.108299,-0.587839,0.578498,0.565496
-0.522080,0.573928,0.404769,0.744655,0.492180,0.450830
0.104915,-0.834207,0.320245,0.234367,0.686111,0.688711
0.394887,-0.339046,0.626946,0.925399,-0.188605,-0.328733
-0.424758,-0.264808,0.619833,0.848108,-0.511633,0.137641
0.178062,0.604387,-0.967846,0.000353,0.322775,0.946476
0.040068,0.368174,0.374857,0.113130,-0.446567,0.887570
0.434455,0.142083,0.737559,0.327107,0.926216,-0.187418
-0.237310,-0.322440,-0.261028,-0.589845,-0.252310,0.767087
-0.052454,-0.376698,0.074733,0.530229,-0.153789,0.833790
-0.553653,0.409467,-0.429323,0.612788,0.108088,-0.782821
-0.494703,0.229109,0.267751,-0.627196,-0.756905,-0.183630
0.787474,-0.306633,0.205905,-0.822889,0.560189,-0.095088
0.133895,0.443833,0.400555,0.875439,-0.155901,-0.457494
-0.136591,0.116775,-0.934913,-0.133883,0.357849,0.924132
-0.463527,0.452180,0.670645,-0.872993,0.299376,0.385041
-0.168566,0.319688,0.774097,-0.261906,-0.907265,0.329051
0.217026,-0.302104,0.133632,0.393831,0.882765,-0.256169
0.088131,-0.225823,0.476555,0.953805,0.235916,-0.186007
-0.598118,-0.284965,0.506540,0.811092,0.244576,0.531331
-0.834330,-0.303969,0.399484,0.733814,0.441161,0.516618
-0.550158,-0.096528,-0.367963,-0.611296,-0.585384,0.532581
-0.713828,-0.333452,0.373517,-0.224006,0.923525,0.311324
0.053460,0.268626,-0.328526,0.870277,0.484368,0.089477
0.296863,-0.562739,-0.266874,-0.399112,-0.814787,0.420513
-0.339030,0.334429,0.604122,0.756083,0.304987,0.579069
0.044264,-0.794956,0.467688,-0.476755,0.803842,0.355730
-0.688848,-0.302815,0.491389,0.581747,-0.634665,-0.508695
-0.324442,-0.550395,0.385063,-0.670738,0.517678,-0.531150
-0.155674,0.353255,-0.963632,-0.094500,0.207291,0.973704
-0.340725,0.402362,0.456775,-0.661927,-0.483755,0.572568
0.470028,-0.453512,-0.045234,0.649481,-0.746077,0.146780
-0.278873,0.634136,0.039948,-0.578410,0.378570,-0.722583
0.221624,0.446497,0.472950,0.618160,0.691117,0.374482
0.319148,0.109760,0.891847,0.731379,-0.176727,-0.658675
0.340926,-0.651807,-0.439359,-0.187444,-0.666555,0.721505
0.254996,0.550839,0.268068,-0.746655,-0.302716,0.592342
0.637991,-0.277862,-0.112367,0.803512,-0.522472,0.285292
-0.351520,0.141107,0.268458,-0.578156,-0.762805,0.289593
0.488611,-0.002486,0.381239,-0.353271,0.673259,0.649555
0.267590,0.766540,0.285144,-0.644913,0.458148,-0.611708
0.056156,0.908357,0.472170,-0.229358,-0.574532,0.785689
0.616908,-0.143060,0.366015,-0.356325,0.912443,0.201197
0.485013,0.008792,0.636860,-0.157653,0.977093,-0.142950
-0.595020,-0.284788,0.385453,0.787294,0.004699,-0.616560
-0.321538,-0.548885,0.244903,0.378080,0.060690,0.923781
0.084734,0.682888,-0.140038,0.666782,0.257806,-0.699241
-0.117801,-0.431312,0.364651,0.458343,-0.234891,0.857175
0.101420,-0.166060,0.659562,0.633035,0.346443,-0.692275
-0.066146,-0.465145,-0.565391,0.052344,0.967277,0.248266
0.234517,0.050262,0.710277,-0.437163,0.571257,-0.694661
-0.174860,-0.518249,0.592137,0.060558,0.894498,0.442952
0.094626,0.708552,0.616082,0.237743,-0.947252,0.214922
0.481317,-0.317290,0.509975,-0.429293,-0.042140,0.902182
-0.637387,0.037830,0.024091,-0.518291,-0.854930,0.021645
-0.055455,0.369239,0.741042,0.918619,-0.372452,0.131982
-0.258594,-0.553148,-0.924147,0.069236,0.237304,0.968965
-0.280775,0.019892,0.725063,0.394684,-0.606608,-0.690109
0.123802,0.433532,0.394831,0.499054,0.829605,0.250401
0.194345,0.656336,0.261905,-0.822096,0.471489,-0.319150
-0.173159,0.106740,-0.685163,-0.472991,0.594396,0.650363
-0.021882,-0.859426,0.288919,-0.479251,-0.287947,-0.829099
-0.460630,-0.355741,0.696977,-0.730614,-0.475356,-0.490143
-0.768386,-0.472338,0.225124,0.752529,0.537639,0.380320
0.410975,-0.606074,0.433927,0.715114,0.681707,0.154556
-0.117204,-0.795134,-0.913112,-0.032212,0.084935,0.995866
-0.496503,0.423586,0.399922,0.539888,-0.403808,0.738553
0.103122,0.190037,0.724965,-0.741471,0.466142,-0.482631
0.240207,0.760235,0.202129,0.827758,-0.546835,0.125649
-0.503296,-0.160376,-0.800185,-0.126873,-0.974159,0.186863
-0.130291,-0.420300,0.768226,-0.165879,-0.964281,-0.206508
0.394289,-0.441879,-0.934986,-0.020293,0.250071,0.968015
0.075940,-0.661842,-0.152047,0.764105,0.067136,-0.641588
-0.498302,0.013143,0.498721,0.878522,0.411964,-0.241836
0.714730,-0.119527,0.373590,0.102482,0.972157,-0.210731
0.629196,-0.340378,-0.409227,0.586518,-0.601225,0.542701
-0.330534,0.469053,0.472462,0.756131,0.595740,-0.270851
0.049362,0.724536,0.411151,-0.709147,0.520552,-0.475538
-0.438248,-0.537164,-0.304996,-0.643267,-0.285233,0.710527
-0.066945,0.316757,-0.957080,-0.116633,0.437105,0.891816
0.090632,0.231330,0.731493,0.369378,-0.267695,0.889887
-0.761592,-0.207797,-0.131830,0.215912,-0.085089,-0.972698
-0.309854,0.627564,0.090883,-0.151354,0.403657,0.902304
-0.342225,0.405915,-0.968796,0.018459,0.146474,0.989042
-0.648182,0.227955,0.314398,-0.058110,0.920240,0.387017
-0.269084,-0.702158,0.377658,0.807525,0.245582,0.536277
0.181959,0.776130,-0.984605,0.027753,0.242022,0.969874
0.374200,-0.454223,-0.685212,0.319110,-0.937503,0.138768
-0.329034,0.524288,-0.291745,0.403625,-0.699019,-0.590304
-0.769185,0.210372,-0.013982,0.756667,0.569512,0.321109
-0.471224,0.669923,-0.133924,-0.375608,0.645259,0.665252
-0.152777,-0.443921,-0.021314,0.323853,0.937195,0.129555
-0.907771,0.281503,0.463766,-0.704256,-0.611587,-0.360534
0.035171,0.168103,0.735610,0.965206,-0.197467,-0.171418
0.252197,0.141107,0.721579,0.677538,0.659883,-0.324804
-0.625501,0.119883,0.487662,0.046296,0.960131,-0.275692
-0.412469,-0.401119,0.253770,-0.401783,0.650324,-0.644708
-0.506596,0.052127,-0.950308,-0.051379,0.231899,0.971382
-0.362406,-0.374833,0.656834,-0.768047,-0.497655,-0.403042
-0.677956,-0.241097,0.090615,0.908843,0.400912,0.115208
-0.664667,-0.120859,-0.935303,-0.173897,-0.121007,-0.977301
0.233315,0.820798,0.280272,-0.644913,0.458148,-0.611708
-0.947741,0.244739,0.502326,0.798793,-0.511463,0.316756
-0.479115,0.199272,0.516186,-0.129074,-0.536986,0.833658
-0.410768,0.031702,0.721579,0.730611,-0.449841,0.513664
0.340030,-0.473492,0.579300,-0.183465,0.138438,-0.973229
0.514292,-0.112245,0.545904,0.357852,0.451214,-0.817525
0.426160,0.043691,0.722140,-0.013260,-0.981294,0.192060
-0.200639,-0.203623,0.632451,-0.635416,0.771609,0.029431
0.101323,-0.067933,0.862495,-0.801965,-0.128972,0.583282
0.274280,0.037652,0.885757,-0.002140,-0.690267,0.723552
-0.271383,0.833052,0.275619,0.801345,-0.358745,-0.478695
0.111514,-0.737945,0.296787,-0.230051,0.340714,-0.911587
0.925663,0.078324,-0.954425,0.043118,0.136180,0.989745
-0.170664,0.255395,-0.935133,-0.135878,0.259307,0.956189
-0.826738,0.292869,-0.077729,0.539538,0.381192,0.750727
-0.045661,0.575971,0.570506,-0.327673,0.789603,-0.518804
0.265388,-0.721250,-0.312109,0.288299,-0.547197,0.785786
-0.453733,-0.226800,0.399557,0.399947,-0.640251,-0.655836
-0.216325,0.484504,0.426010,-0.373001,-0.916650,-0.143606
0.172866,0.140130,-0.076925,0.991837,-0.110753,-0.063184
0.011392,-0.094130,0.665213,-0.000023,0.875569,0.483094
0.788469,-0.431045,-0.012764,-0.707377,-0.179837,0.683576
-0.045960,-0.032057,0.741213,0.288807,0.910179,0.296924
-0.249898,-0.494894,0.126592,0.849940,-0.337629,0.404486
-0.348720,0.405204,0.588581,0.753395,0.337241,0.564504
-0.404474,0.415238,0.600809,-0.375535,0.907339,-0.188970
-0.744302,-0.388687,-0.611332,-0.045752,0.705047,0.707683
-0.301755,-0.778794,0.408862,0.366063,0.836860,0.407016
0.039373,-0.316136,0.339269,-0.406626,0.299685,0.863044
-0.569546,0.305924,0.128907,0.622374,-0.123231,-0.772958
-0.048759,0.262321,0.852459,0.797986,0.438370,-0.413582
0.264992,-0.461326,0.406767,0.426119,0.295295,0.855116
-0.634289,-0.296865,0.353007,0.792155,0.593707,0.141431
0.173762,-0.093242,0.666139,0.132356,0.022311,0.990951
0.108812,0.009236,0.887316,-0.581193,-0.033412,-0.813079
0.374700,0.064826,0.338562,-0.185566,0.979129,0.082891
-0.708729,0.127609,0.412662,0.857150,0.091948,0.506793
-0.269785,-0.632004,-0.083112,-0.433582,0.393302,0.810753
-0.033372,-0.952580,-0.907144,0.053947,0.150888,0.987078
-0.896281,0.348282,-0.086644,0.623540,0.272612,0.732722
-0.120101,0.317556,0.347161,-0.088352,-0.876541,0.473149
-0.349818,-0.640796,-0.455484,0.727945,0.322510,-0.605048
0.400882,0.250600,0.609115,-0.655804,0.011479,0.754844
0.517286,-0.306101,-0.125472,0.750983,-0.617724,0.233327
0.067945,-0.032235,0.891116,0.918899,0.031860,0.393203
-0.320044,0.270136,0.594573,-0.359510,-0.844358,-0.397256
0.348824,-0.643637,-0.924926,-0.347142,0.104239,-0.932001
0.543669,-0.721695,0.524834,-0.470661,0.710330,0.523364
-0.392484,-0.186306,0.454632,-0.164118,0.703266,0.691724
0.149685,0.004796,0.813071,0.991648,-0.103526,-0.076920
-0.351215,0.452092,-0.284047,-0.458345,0.687191,0.563638
-0.355612,0.725957,-0.086279,0.936468,-0.347627,-0.046726
-0.053455,-0.533168,0.261857,-0.716584,-0.141629,0.682971
-0.330632,0.244650,0.600054,0.077520,-0.057710,0.995319
0.298662,0.488323,-0.107398,0.560541,0.033687,-0.827441
0.037671,-0.266317,-0.882907,-0.345918,0.892808,-0.288505
-0.352215,-0.523666,0.394929,0.796698,-0.182396,0.576198
-0.313446,-0.819111,0.221567,0.222462,-0.792823,-0.567399
-0.310250,0.571797,0.039851,-0.200552,-0.691350,0.694128
0.875502,-0.241453,0.188074,-0.686465,0.716437,-0.124435
0.348323,0.274576,0.199791,0.272096,-0.015914,0.962138
-0.357710,0.616820,0.525711,0.598748,-0.721677,0.347395
-0.006093,0.155581,0.601296,-0.512924,-0.838816,0.182475
0.064548,0.007726,0.967189,0.912177,-0.012534,0.409604
-0.051155,-0.051150,0.901542,0.191636,0.195577,0.961782
-0.653573,0.540894,0.162790,0.566395,0.823808,-0.023172
0.627398,0.077968,0.754464,-0.579023,-0.801573,0.149042
-0.443444,0.613001,0.443451,0.508202,-0.483420,0.712767
0.091229,0.519936,0.563832,-0.693620,0.056698,-0.718107
-0.649280,-0.301838,-0.929506,0.007745,0.174175,0.984684
0.106817,0.531659,0.476774,0.210233,0.221803,0.952158
-0.551457,0.136134,-0.954230,0.155458,0.170923,0.972943
-0.522678,-0.191190,0.382944,0.084794,-0.988429,0.125771
0.354117,-0.526685,-0.286556,-0.117805,-0.982501,0.144268
0.412371,0.461771,0.523129,0.769629,-0.582598,-0.261248
0.025181,0.766273,0.567656,0.878880,-0.344014,-0.330492
-0.036867,0.535032,0.469393,0.761861,0.278382,0.584868
-0.694245,0.058787,0.367281,-0.438215,-0.753065,-0.490775
0.006397,0.437439,0.461672,0.663581,-0.725296,0.183322
-0.798458,-0.314625,0.382993,0.206576,0.961127,0.183198
-0.311250,-0.350058,0.600395,0.567671,-0.786814,-0.242225
0.163071,-0.061451,0.881446,0.881908,-0.354142,-0.311162
0.780778,-0.302282,-0.012325,-0.683267,-0.053221,0.728226
-0.383190,-0.257615,0.662850,0.045594,0.928970,0.367336
-0.511292,0.456887,0.251845,-0.590513,-0.730830,-0.342318
0.477322,-0.113933,0.479088,0.483919,0.855070,0.186220
0.250300,0.057366,-0.632280,0.092011,0.687699,0.720142
0.551360,-0.238345,0.351473,0.657975,-0.116503,-0.743974
-0.495704,-0.446230,0.456727,0.119460,-0.943943,0.307734
-0.082734,-0.772667,0.400458,-0.501746,0.862969,0.059452
-0.050155,0.442235,0.726890,0.930809,-0.305956,0.199963
-0.316544,0.419501,0.748423,-0.617430,-0.745883,0.249876
-0.786767,0.473404,-0.302974,0.884570,0.048336,-0.463896
0.394088,-0.451648,0.479307,0.831222,0.539270,0.135120
0.415866,-0.300240,0.614839,0.981575,0.182150,-0.057717
0.489812,0.051861,0.695175,-0.245710,-0.803283,0.542553
0.100024,-0.044934,0.659806,-0.330150,0.164559,0.929474
0.415171,0.062961,-0.809929,-0.531244,0.835765,-0.138840
0.197346,0.598260,0.256376,0.405170,0.464282,-0.787578
-0.371005,-0.408401,-0.462597,-0.620575,0.645820,0.444751
-0.450836,-0.743895,-0.124619,0.240979,-0.953520,0.180910
-0.686652,0.332830,-0.101941,-0.013596,0.493804,0.869467
0.369004,-0.293402,0.613134,0.932709,0.219163,-0.286395
0.148185,0.363734,0.427009,0.696422,0.406641,0.591303
0.185551,-0.505550,0.564246,-0.753068,0.606334,0.255436
0.603820,-0.210106,0.385185,0.862865,0.482060,-0.151929
-0.113307,-0.208152,0.681266,0.793273,-0.486133,-0.366596
-0.719023,-0.553680,0.096777,-0.554476,0.455231,0.696650
-0.427557,-0.355031,-0.305629,0.837037,-0.153085,-0.525294
-0.627495,0.277240,0.286313,0.230806,-0.633768,0.738286
0.045465,-0.801172,0.441478,0.257908,-0.490082,-0.832648
-0.485812,0.706243,0.476238,-0.400577,0.892003,0.209448
0.466631,-0.049107,-0.934231,-0.305835,-0.185547,-0.933829
0.530575,-0.002486,-0.958249,0.063625,0.200353,0.977656
0.030475,0.168369,0.884637,0.854943,0.456379,-0.246558
-0.141287,0.489388,-0.966263,0.009178,0.170886,0.985248
0.268584,0.145280,0.591504,0.784633,-0.619896,-0.008940
-0.294662,0.862624,0.058169,0.798851,-0.422291,-0.428378
0.192150,0.243052,0.562785,-0.190956,-0.402274,0.895383
0.914771,0.151319,0.267532,-0.703455,-0.686726,0.183193
-0.906776,0.166859,0.453049,0.297247,-0.508292,0.808259
0.094224,0.010834,0.920858,0.670443,0.678102,0.301138
-0.272579,-0.661220,0.338002,0.982889,-0.184105,0.005881
-0.840624,0.186751,0.294229,-0.553983,0.253107,-0.793120
0.350623,-0.088180,0.687502,-0.627478,0.696501,0.348077
0.477420,0.404849,0.536599,0.923813,-0.161577,-0.347077
-0.631795,-0.095906,0.130977,-0.307542,-0.118351,-0.944146
0.351422,-0.773111,-0.323655,-0.256627,0.353705,-0.899464
0.312055,0.355741,-0.970209,-0.215039,0.169884,0.961716
-0.862207,-0.375899,-0.181570,-0.590206,-0.618192,0.519130
-0.902477,-0.048219,-0.462427,0.906971,-0.206419,0.367144
-0.762586,0.484771,-0.096972,0.221698,-0.868787,-0.442786
0.377902,0.515052,0.510048,-0.129152,0.942604,0.307923
0.241311,-0.498535,0.582954,-0.415191,0.533251,0.737061
-0.673461,-0.273510,0.457287,-0.078142,-0.773210,0.629317
0.079739,-0.437084,-0.040070,0.748425,0.617510,-0.241952
-0.093925,0.133292,0.747083,0.616120,-0.327720,-0.716237
0.628196,-0.603232,0.479234,0.533133,0.829476,0.166551
-0.308054,-0.540182,0.516893,0.985100,0.073005,-0.155717
-0.450939,0.371814,-0.000097,0.922635,-0.228866,-0.310428
-0.341128,-0.674629,0.204297,-0.383337,-0.397099,-0.833886
-0.098518,-0.550128,0.250457,-0.706264,-0.668398,0.233313
0.028578,0.278661,0.715124,-0.211243,0.587508,0.781160
0.419763,-0.669834,-0.320050,0.061875,-0.132202,0.989290
-0.410170,-0.410443,0.468029,0.633103,0.208787,-0.745378
-0.089424,0.046000,0.715855,-0.188126,-0.767339,-0.613025
-0.709333,-0.159844,0.257131,-0.685994,-0.225105,-0.691911
-0.343823,0.819377,-0.115241,0.932193,0.045331,-0.359111
-0.025779,-0.685640,-0.768105,-0.698962,0.710816,-0.078689
-0.535668,0.413108,0.145568,-0.546898,0.124478,-0.827894
0.480420,-0.690081,0.063601,0.987559,-0.155723,0.021855
-0.123796,-0.282301,0.704650,-0.071807,0.800970,0.594383
-0.391386,0.492674,-0.970769,-0.072003,0.026930,0.997041
0.771484,-0.071396,0.226756,-0.319003,-0.122901,0.939751
0.687249,0.222183,-0.261150,0.737565,0.637499,-0.222693
0.399381,0.366486,0.315860,-0.626553,0.168948,0.760847
0.073141,-0.122191,0.685187,-0.175659,0.956274,-0.233845
-0.330534,-0.677737,-0.436217,0.626018,-0.187989,-0.756810
0.609614,-0.199449,0.200034,0.547589,0.155825,-0.822110
-0.878698,-0.230797,-0.647967,0.374773,-0.463723,-0.802812
0.186850,0.238256,-0.962439,-0.000887,0.047271,0.998882
-0.521879,0.719120,0.468200,-0.448010,0.839736,0.306807
-0.106714,-0.034100,0.526320,0.884477,0.411557,-0.219820
0.695147,0.003019,0.408423,-0.639219,0.679918,0.359320
0.171164,-0.087115,-0.195382,-0.309783,0.530301,0.789186
0.004000,-0.030637,0.921492,0.978725,-0.085958,-0.186305
-0.538370,-0.491697,0.255572,0.268855,-0.673894,0.688175
0.190851,0.085428,-0.337028,-0.294788,-0.274654,0.915241
-0.376597,-0.847438,-0.437020,0.894025,-0.121169,-0.431320
-0.185252,0.310363,0.776484,-0.566891,-0.748685,0.343664
-0.176757,-0.222005,0.665433,0.202920,0.840088,0.503067
-0.778778,0.156025,0.448079,0.673518,0.681081,0.287231
-0.138689,-0.460172,0.275692,-0.212259,-0.108514,0.971170
0.316751,0.837404,0.276642,0.782226,-0.439345,0.441698
0.067945,-0.151496,0.666577,0.378831,0.910473,-0.165912
-0.419062,0.826126,0.516113,0.365886,-0.740850,0.563266
0.308457,-0.556878,0.629114,-0.651732,0.670626,0.354269
-0.081734,-0.174230,0.581785,-0.569128,0.730094,0.378228
0.406974,-0.419768,0.085889,0.181221,0.976882,-0.113401
-0.336828,0.668680,0.568753,0.930975,0.334179,-0.147006
0.401278,-0.720806,-0.319903,0.263498,-0.371775,0.890141
-0.489410,-0.309475,-0.930797,0.061857,0.217463,0.974107
0.133194,0.704112,0.404112,0.826461,-0.359638,0.433154
-0.644583,-0.366575,0.025016,0.982905,0.016649,0.183357
-0.946039,0.135245,0.315300,0.860187,-0.024691,0.509380
0.011892,0.541427,0.737851,0.616101,-0.689344,0.381083
-0.302456,-0.557499,0.240665,0.156855,-0.016895,0.987477
0.484714,0.420833,0.643826,0.977271,-0.209511,0.032356
-0.297059,0.112601,-0.215331,0.400342,0.119931,-0.908484
0.199645,0.628897,0.244708,0.603020,0.138052,-0.785690
0.314952,0.047154,0.662997,-0.422253,-0.755865,0.500370
-0.677858,0.624456,0.147614,0.472919,0.851118,0.227916
0.520183,0.362223,0.490074,-0.074836,-0.940081,0.332636
0.462929,0.076814,0.727279,0.064439,0.946730,-0.315514
-0.797263,-0.239943,-0.133486,0.266072,0.092669,-0.959488
-0.000799,0.031347,0.715344,0.348450,0.593930,-0.725141
-0.214130,0.020336,0.686746,-0.602965,0.561747,-0.566457
0.479219,0.413995,0.647919,0.977271,-0.209511,0.032356
0.026681,-0.823195,0.326261,0.437394,-0.119141,-0.891343
0.068347,0.039340,0.945631,-0.098611,-0.686984,0.719950
0.594824,-0.684842,0.385282,-0.612421,0.775232,0.154776
-0.675656,-0.261522,0.256327,0.462612,0.392111,0.795134
-0.453239,-0.377941,0.695369,-0.730614,-0.475356,-0.490143
-0.978417,0.063405,-0.044187,0.993781,0.097798,-0.053245
-0.239207,0.347305,0.679220,-0.194060,0.928781,-0.315763
0.840831,0.071841,0.320439,-0.345733,-0.833800,-0.430402
-0.662166,0.270314,-0.950162,0.038064,0.234804,0.971297
0.470528,-0.097060,-0.947044,0.111984,0.113199,0.987241
-0.454135,0.314981,0.621538,0.109020,-0.734163,0.670164
-0.612310,-0.240298,0.485543,-0.596379,-0.348038,-0.723327
-0.076038,0.032679,0.729399,-0.330762,-0.594534,-0.732888
-0.343323,0.369417,0.574891,0.903526,0.297005,0.308914
-0.426856,-0.319421,0.680486,-0.442049,-0.744430,-0.500416
-0.282971,-0.005328,0.410737,0.809170,0.544530,-0.220752
0.173463,0.422698,0.740677,-0.241050,-0.574265,0.782378
-0.005391,0.160821,-0.210167,-0.360910,0.299935,-0.883053
-0.023876,0.115709,0.757996,-0.590326,-0.197873,-0.782535
0.085936,0.050973,0.939980,0.162467,0.899046,-0.406597
-0.090827,-0.274132,0.498867,0.000865,0.520195,0.854047
-0.477414,-0.098481,0.429274,0.879446,-0.462541,0.112384
-0.062749,0.776308,0.418630,0.796573,0.591950,-0.122745
-0.596319,-0.628896,0.426181,0.816901,0.369076,0.443233
0.087833,0.053281,0.955058,-0.747827,-0.627690,-0.216242
-0.047661,-0.601013,0.366916,0.028361,0.588352,0.808108
0.407773,-0.058787,0.497674,0.474121,0.789574,0.389592
0.379695,0.477312,-0.970989,-0.079193,-0.179927,-0.980487
0.277482,-0.832075,-0.319051,-0.293036,0.574127,-0.764531
0.043367,0.529438,0.512094,0.062676,0.886340,0.458774
-0.199737,-0.544179,0.601832,-0.329584,0.885337,0.327952
-0.075636,0.520202,0.374467,0.784750,0.043292,-0.618298
-0.412366,0.401386,0.129394,-0.520086,-0.472176,-0.711731
0.156174,0.472694,0.770906,0.294672,0.903999,-0.309763
-0.722719,0.024332,0.627335,0.662817,-0.691281,0.287758
0.154180,0.331143,0.460502,0.287614,0.861939,-0.417540
-0.873398,-0.374656,-0.175432,-0.590206,-0.618192,0.519130
-0.132395,-0.771157,0.382091,-0.128233,0.902944,0.410181
0.248105,-0.129029,0.494215,-0.519335,0.750819,0.408119
0.201243,0.741320,0.118993,0.078488,-0.283298,0.955815
-0.212727,0.029216,0.678732,0.304902,0.328081,-0.894090
-0.215026,-0.487524,-0.078947,0.557164,0.073972,-0.827101
0.589031,-0.077790,0.405086,-0.414010,-0.460067,0.785451
-0.553854,-0.550307,0.106667,-0.029999,0.897626,0.439736
-0.387489,0.717965,0.555185,-0.948767,0.257516,0.183103
-0.283471,-0.658378,0.397779,0.849765,0.372094,0.373424
0.490312,-0.442678,-0.637176,0.261513,-0.876772,-0.403586
-0.003293,-0.728532,0.395440,0.601915,-0.797960,-0.030946
-0.211629,0.074328,0.480574,-0.283068,0.932859,0.222815
-0.267285,-0.403783,-0.917740,0.018508,0.103508,0.994456
-0.854816,-0.295001,-0.132828,0.463908,0.200637,-0.862864
0.019784,0.652784,0.521838,0.949608,0.262192,-0.171755
0.571942,0.070421,0.382189,-0.759084,0.288503,0.583573
0.312055,0.185153,-0.937300,-0.071999,0.234897,0.969350
-0.959030,-0.163041,-0.230263,0.832155,0.533216,0.152310
0.290271,-0.595329,0.444279,-0.656411,0.569876,0.494333
-0.365004,-0.377231,-0.459820,0.928797,-0.210229,-0.305187
-0.290667,-0.755794,0.128419,0.418194,-0.445034,-0.791870
-0.020479,-0.192789,0.491755,0.174172,0.085166,0.981026
0.074141,0.290561,0.707232,0.419672,0.896531,-0.141800
0.325844,-0.793358,0.445936,0.189888,0.659516,-0.727311
0.277482,-0.733239,-0.309868,-0.388665,0.566842,-0.726381
0.037671,0.782524,0.563345,0.968188,-0.237442,-0.078955
-0.403974,0.139597,0.564295,-0.221104,-0.765361,0.604430
-0.613206,0.038185,0.085256,0.927174,0.008307,-0.374539
0.337230,-0.651985,0.356515,0.531093,0.624854,-0.572274
0.907978,0.149898,-0.960758,0.050966,0.118991,0.991586
-0.076136,0.422965,0.289747,0.403305,0.909356,-0.102065
-0.657970,0.176094,-0.030107,0.119026,0.844132,0.522756
-0.680852,-0.587248,-0.511290,0.866549,-0.309600,-0.391460
0.154478,0.359293,0.505883,0.125222,0.067892,0.989803
0.006294,0.284256,0.874284,0.845503,0.517917,-0.129950
0.651981,-0.156380,0.548194,-0.259817,0.558661,0.787650
0.410975,0.324661,0.590286,0.665859,-0.098746,-0.739514
-0.019583,0.120416,0.843617,0.921015,-0.250836,0.298013
0.636094,-0.204511,0.565635,0.791289,0.058051,-0.608681
-0.219222,-0.173785,0.606679,0.223904,-0.974111,0.031210
0.513493,0.340556,0.483594,0.193618,-0.981050,0.007289
0.145483,0.015274,0.591723,-0.013012,0.518684,0.854867
-0.635393,-0.229731,0.048644,0.152077,-0.607609,-0.779541
0.358417,-0.284788,0.331912,-0.213015,0.083022,0.973515
-0.310250,-0.610425,-0.311183,-0.273659,0.821462,-0.500312
-0.153576,0.090933,0.703018,-0.286953,-0.941641,0.175985
-0.094322,0.453512,0.274450,0.915037,0.103959,0.389743
-0.500698,0.090135,-0.130441,0.998499,-0.051777,0.017832
-0.737106,0.387888,0.304022,0.683191,0.182630,0.707033
0.117710,0.081432,0.563662,-0.312023,-0.854939,0.414393
-0.325637,-0.226445,0.732517,-0.759648,-0.533115,-0.372456
0.168066,-0.752864,0.414342,0.374586,0.927138,0.009983
0.050661,-0.820886,0.319124,-0.246786,0.345789,0.905277
-0.130694,0.124145,0.761552,-0.358535,0.730889,0.580735
-0.467924,-0.646301,0.426473,-0.117726,0.927525,0.354738
-0.454337,0.119706,-0.247850,0.738508,0.403343,-0.540297
0.300962,-0.676938,-0.923513,-0.323500,0.124176,-0.938045
-0.010094,-0.103720,0.721701,-0.146958,0.530049,0.835136
0.115911,0.254773,-0.180036,0.949550,0.280754,0.139757
-0.063646,-0.339135,0.619662,0.202673,-0.926820,0.316115
-0.163865,-0.675606,-0.916547,0.032106,0.122264,0.991978
-0.584829,0.366753,0.127786,-0.684543,0.297019,0.665718
-0.594526,-0.499867,-0.502424,-0.638316,0.699130,0.322135
-0.106214,-0.201581,0.622439,0.088963,-0.993733,0.067677
-0.394283,0.494272,-0.966555,-0.060064,0.083516,0.994695
-0.602119,0.667703,0.456118,-0.008987,-0.087290,0.996142
-0.135792,0.697363,-0.983071,0.068012,0.298235,0.952066
-0.269383,0.413729,0.741602,-0.033942,-0.905304,0.423406
-0.743503,0.023622,0.087570,0.895256,0.211899,-0.391938
-0.894884,-0.144836,-0.174165,0.590078,0.523491,0.614626
-0.280275,-0.385312,0.764719,0.823710,0.566287,0.028666
0.601021,-0.386644,0.155628,0.143786,-0.294810,0.944676
-0.002299,0.802149,0.356442,-0.036662,-0.175562,0.983786
-0.738710,-0.230264,-0.557280,-0.290546,-0.755754,0.586872
-0.657275,0.135423,0.400653,-0.324578,-0.754365,0.570598
0.348025,-0.261789,0.625825,0.797224,0.563447,0.216705
-0.442542,-0.601101,0.246852,0.620348,0.773001,0.132803
0.020687,0.645502,0.328527,-0.553924,0.733789,-0.393347
0.187155,-0.644969,0.369230,-0.001164,-0.068091,0.997678
-0.580334,-0.407335,0.275498,0.304698,-0.432356,0.848662
0.119009,0.454578,0.508051,-0.041094,0.718508,-0.694303
0.068847,0.161886,0.564198,-0.052680,-0.043544,0.997662
0.127498,0.687328,0.482937,0.986677,0.146693,0.070352
0.172561,-0.131427,0.480818,0.246796,-0.581850,0.774947
0.006696,-0.708640,-0.915183,0.088086,-0.180666,-0.979592
0.716529,-0.251398,0.594987,0.774725,-0.499462,-0.387735
0.068744,-0.021934,0.956057,0.794617,-0.569008,0.211694
-0.044362,0.458396,0.521009,-0.544977,-0.611564,0.573577
0.349921,-0.350591,0.610796,0.550161,-0.592112,-0.588835
-0.187649,0.352189,0.792147,-0.623562,0.729417,-0.281283
-0.092224,0.057366,0.687234,0.778265,0.624660,-0.064062
-0.187649,0.466744,0.462963,-0.823566,-0.548961,0.142758
-0.520184,0.491608,0.645531,0.953780,0.292347,-0.069550
-0.222021,0.147323,0.612257,0.894657,0.338838,-0.291166
-0.610511,-0.433266,0.446155,-0.487032,-0.716096,-0.500007
-0.899281,0.046621,-0.154775,0.966819,0.208685,-0.147349
-0.545462,0.589824,-0.541666,0.928342,-0.074897,0.364104
-0.014789,0.955244,0.382408,-0.604987,0.716861,-0.346557
-0.994402,0.225735,0.295009,-0.512738,-0.065068,-0.856076
0.260991,-0.277329,0.384674,0.568116,0.537193,-0.623433
-0.046758,0.328479,0.360583,0.194791,0.703783,-0.683188
-0.389685,-0.119350,-0.108202,-0.605133,-0.226157,-0.763326
-0.189650,0.439393,0.405866,0.135949,0.824790,-0.548853
-0.147081,0.242963,0.470757,0.566512,0.081370,-0.820026
0.190448,0.458663,0.776460,0.485921,0.802056,-0.347257
0.033774,-0.118640,0.848391,0.906241,0.393007,0.155799
-0.950241,0.285232,-0.042116,0.776936,0.481742,0.405333
-0.305554,0.014830,0.793389,0.001565,0.999932,0.011584
-0.215624,0.107451,0.725964,0.672477,-0.618795,-0.406040
-0.810253,0.427138,0.310428,0.840001,0.367513,0.399165
-0.723720,-0.115797,-0.929530,0.441509,0.193304,0.876187
-0.014484,0.360359,-0.329574,0.963143,0.003011,0.268975
-0.072641,-0.023710,0.684578,-0.292382,-0.050464,-0.954969
-0.128297,-0.231152,-0.642608,-0.118315,-0.728984,0.674228
-0.542565,-0.112424,0.252844,0.326255,0.081227,0.941785
0.157076,0.547287,0.164202,-0.229155,-0.787911,0.571562
0.053857,0.178226,-0.650866,0.380755,-0.599209,-0.704254
-0.077538,0.671788,0.420603,0.642353,0.728129,-0.239188
0.056754,0.718409,0.408959,-0.645710,0.538058,-0.541804
0.141190,0.101767,0.463352,-0.638216,-0.571797,-0.515489
-0.269285,-0.336648,0.738679,0.763202,0.401877,0.505982
0.744107,0.130983,0.418289,-0.315170,0.687396,0.654335
0.042770,0.902407,0.033566,-0.377930,0.877261,-0.295942
0.320947,-0.013675,-0.205953,0.460818,0.551675,0.695199
0.102518,-0.198828,0.630648,-0.544790,-0.311510,-0.778566
-0.528374,0.124057,-0.697829,0.401744,-0.659984,-0.634841
0.395283,0.219608,0.576937,0.831603,0.433935,-0.346609
-0.432253,0.425806,0.401944,0.377941,-0.897950,0.225491
0.945643,-0.121126,0.367379,-0.544697,0.763960,-0.345933
0.119509,-0.176805,0.565489,0.948084,-0.311664,-0.063268
0.024181,-0.099547,0.907826,-0.489350,0.502098,-0.713045
0.430954,-0.328745,0.648649,0.945186,0.176056,-0.275005
0.752298,-0.408845,-0.418021,-0.543049,0.837460,-0.061315
-0.318142,0.615043,0.404818,0.883648,-0.030183,0.467178
0.197943,-0.792203,0.317468,-0.189801,-0.031191,0.981327
0.741808,0.187639,-0.961513,0.001571,0.196439,0.980515
0.740911,0.007193,-0.175821,-0.726863,0.170430,-0.665300
-0.340926,-0.856762,-0.446983,0.896556,-0.088914,-0.433915
-0.627696,0.660332,0.453877,0.911980,-0.410236,0.000050
0.362814,-0.155936,0.709692,-0.406038,0.768768,0.494093
0.135792,0.702691,0.387645,-0.661783,-0.631397,0.404203
-0.265389,-0.727732,-0.434950,-0.421725,0.174147,0.889843
-0.579035,-0.062694,0.542884,0.787923,-0.503031,0.355158
-0.931256,0.269426,0.488247,0.947542,-0.087975,0.307287
-0.605314,0.568777,-0.447592,0.767548,-0.496164,-0.405821
-0.487306,0.119883,0.503861,0.778696,0.494353,0.386325
-0.252100,0.044402,0.885709,0.295673,-0.945211,-0.138397
-0.033171,-0.145369,0.549217,0.287453,0.828706,0.480226
-0.497204,-0.375721,0.418045,-0.682682,-0.703923,-0.196054
-0.270084,-0.142971,0.690595,-0.693658,-0.186989,-0.695611
-0.035568,-0.586538,0.233990,0.826341,0.497257,-0.264378
0.832836,-0.198917,0.190193,-0.085353,-0.733539,0.674267
-0.534772,0.205844,0.520474,0.130534,-0.756136,0.641264
0.430058,0.326881,0.329769,-0.568385,0.190903,0.800309
0.018186,-0.593553,0.311768,0.945309,0.212060,0.247832
-0.224320,0.005240,0.500670,0.255240,0.926645,0.276012
0.939452,0.157712,0.303315,0.288370,0.942286,0.170119
-0.495905,0.021934,-0.271576,0.877744,0.450984,-0.161798
-0.243403,0.207975,0.577692,0.874339,0.470321,0.119704
0.796165,-0.176094,0.185346,0.201584,-0.741859,0.639538
-0.470522,-0.353965,-0.921687,0.127315,-0.306485,-0.943323
-0.642882,0.313116,0.124230,-0.664737,0.467174,0.582987
0.558452,-0.645769,0.383894,-0.209549,-0.877480,0.431414
0.406676,-0.157179,0.729423,-0.757188,0.009888,0.653123
0.165767,-0.567623,-0.314545,0.516786,0.105344,-0.849609
-0.686048,-0.085517,0.384625,0.363707,-0.475284,0.801138
0.077940,0.155581,0.710131,0.806896,-0.277819,0.521283
-0.589525,0.715479,0.433805,-0.591859,0.768252,-0.243909
-0.298260,0.816536,0.073442,0.730692,-0.357591,-0.581566
-0.914564,0.302283,0.442087,0.790477,0.589026,0.167913
0.015789,0.169967,-0.956276,-0.136903,-0.180227,-0.974051
-0.362906,-0.666371,0.361849,-0.423027,0.172080,-0.889627
0.422666,0.072019,0.176163,-0.141643,-0.613399,0.776968
-0.264687,0.759346,0.289528,0.959632,-0.179850,-0.216243
-0.668362,0.155493,0.356490,0.364934,0.282980,0.886987
-0.190845,-0.501376,0.189121,-0.671939,0.719777,-0.174409
-0.366608,-0.490720,0.149197,-0.328906,0.719778,0.611344
-0.284770,-0.333807,0.544613,0.985995,-0.094151,0.137655
-0.013289,0.428825,0.455655,-0.428039,0.903290,0.029149
0.512792,-0.939881,0.354883,-0.402596,-0.915135,0.021095
0.608217,-0.759612,-0.438725,-0.687482,-0.526015,-0.500676
-0.578938,0.393394,0.142255,-0.005613,0.107879,0.994148
0.126400,-0.092088,0.560982,0.892414,-0.388520,-0.229454
-0.126199,0.007992,-0.800063,0.699949,-0.431125,0.569388
-0.182849,0.811030,0.377634,0.896152,0.186311,-0.402740
-0.183252,-0.763254,0.421163,0.064452,0.896328,-0.438683
0.433357,-0.535477,-0.929311,0.107837,0.193973,0.975062
0.287874,-0.734304,0.387962,0.030397,0.163186,0.986127
0.024980,0.619483,0.584976,0.207017,-0.879260,0.429005
0.055760,-0.358849,0.755633,0.314505,-0.900748,0.299566
0.131297,-0.127786,0.587265,0.917599,0.351591,-0.185461
0.830635,-0.082231,-0.954912,0.038086,-0.206441,-0.977718
-0.407871,0.492142,0.105206,-0.631624,-0.438506,-0.639346
-0.020980,0.079833,0.715051,-0.596331,0.198488,0.777812
-0.559953,0.219608,0.216233,-0.764084,0.456124,-0.456208
0.588629,-0.007370,0.401457,-0.874513,0.363280,0.321334
-0.516384,-0.487612,0.245877,0.382830,-0.650037,0.656425
-0.006391,0.916260,-0.520084,-0.766803,0.505075,-0.396121
0.115911,0.544179,-0.979368,0.002451,0.184061,0.982912
-0.149777,-0.425717,0.478893,-0.332934,-0.695698,-0.636521
-0.467223,0.358050,0.224101,-0.718803,-0.642653,-0.265177
0.001104,0.287186,0.704942,0.220261,0.211815,0.952165
0.010892,0.016429,0.936594,-0.580076,0.136656,-0.803018
-0.692744,-0.244116,0.050739,0.797812,-0.026010,-0.602345
-0.767484,-0.237812,0.270114,-0.422869,-0.195869,-0.884770
-0.264090,-0.727022,0.379802,0.579553,0.723226,0.375582
0.416970,-0.307166,0.648844,0.049299,0.989566,0.135386
0.019089,0.650475,0.433488,0.906302,-0.401920,0.130680
0.288069,-0.534677,0.411785,0.896552,-0.240581,-0.371907
-0.579932,-0.356274,-0.353957,0.895235,-0.048253,-0.442974
-0.214526,-0.405204,0.521156,0.664942,-0.619262,-0.417573
-0.486111,0.474736,-0.586145,0.802917,0.562406,-0.197547
-0.024779,0.731374,0.396609,0.283260,0.867032,-0.409902
0.019686,0.213214,0.863761,0.835476,0.466234,-0.290872
-0.509194,-0.613445,0.139478,-0.253499,-0.200595,0.946309
-0.698837,0.075748,-0.327528,-0.375274,-0.654894,0.655960
-0.311848,-0.719386,-0.881056,0.819009,0.384076,-0.426273
-0.517683,0.394903,0.422308,-0.798574,-0.538277,0.269328
0.393484,0.282035,0.519840,0.878441,-0.467640,-0.098251
0.297662,0.416127,0.253502,0.851099,-0.105353,0.514326
-0.075636,0.452358,0.197598,0.919390,0.143047,-0.366415
-0.305652,-0.471272,0.231822,0.423861,-0.260888,0.867340
-0.445445,-0.584584,0.404307,-0.436248,-0.286033,-0.853155
0.291369,-0.537963,0.588654,-0.390727,-0.875199,-0.285235
0.434254,-0.477755,0.652912,0.902898,-0.345569,-0.255650
0.186954,0.390996,0.487930,-0.452435,0.795913,-0.402274
-0.812747,0.315781,-0.098336,0.503061,0.203673,0.839909
-0.760391,0.357162,0.385015,-0.580201,-0.772147,-0.259144
0.091827,0.320931,0.739191,-0.663715,0.398128,-0.633227
0.015789,-0.771690,0.307627,-0.273473,-0.545000,-0.792582
0.477822,-0.584495,-0.311987,0.603418,-0.247944,0.757899
0.433253,-0.016961,0.679853,-0.637767,0.513503,0.574080
0.349122,0.375633,0.527903,0.521412,-0.247043,-0.816762
0.171164,-0.332830,0.530875,0.964197,0.199833,-0.174330
-0.716023,0.239855,0.084866,-0.530491,-0.666177,-0.524201
0.060053,-0.865287,0.331498,0.256068,-0.360200,-0.897043
0.147983,-0.537874,-0.183665,-0.496216,-0.364670,-0.787900
-0.348921,0.307699,0.145397,0.026037,0.882548,0.469501
0.445048,0.256283,0.600297,-0.472895,0.280614,0.835240
0.540467,-0.052304,0.584683,0.493599,0.865168,-0.088570
-0.168463,0.320043,-0.957567,-0.169948,0.362442,0.916381
-0.708930,0.022378,0.395245,0.539744,0.790059,0.290661
0.293967,-0.171655,-0.028792,0.620596,0.775101,0.118655
-0.180355,0.143771,0.559521,0.647665,-0.024169,-0.761542
0.129699,0.233461,0.708206,0.990117,0.084831,-0.111676
-0.813546,0.119261,0.352155,-0.254857,-0.394482,0.882854
-0.884193,-0.297309,0.016832,-0.682405,-0.638301,-0.356223
-0.134091,0.265164,0.665408,0.731468,0.250851,0.634058
0.142287,-0.233816,0.645678,-0.343519,0.936736,0.067235
-0.374402,-0.419234,0.180084,0.829832,0.179722,-0.528279
0.795567,-0.015807,-0.955618,0.058289,0.140139,0.988415
0.274280,0.207353,-0.959759,-0.213438,0.114355,0.970241
-0.708833,-0.211260,-0.647456,-0.499342,-0.158305,0.851820
0.185051,0.244206,0.564149,-0.190956,-0.402274,0.895383
0.298961,-0.061184,0.841254,0.875401,-0.369164,-0.312074
-0.636790,0.582719,-0.102477,-0.637966,0.143744,0.756530
-0.598021,0.426073,-0.107617,-0.634919,-0.078912,0.768538
-0.372602,0.375100,-0.083234,0.366259,0.526765,0.767055
-0.366907,-0.675961,-0.478893,0.207225,0.388263,-0.897948
0.332534,0.285854,-0.953767,-0.178675,0.257907,0.949505
0.310152,-0.497735,-0.138090,-0.083988,-0.266256,0.960236
0.042068,0.436640,0.485811,-0.604145,-0.588858,-0.536894
-0.061346,-0.615487,0.374565,0.105222,0.715855,0.690275
0.436455,-0.151230,0.725720,-0.768592,-0.009260,0.639672
-0.316544,-0.283456,-0.919592,-0.393701,0.132812,0.909593
-0.565045,-0.585383,-0.336419,0.401820,0.521665,0.752600
0.880198,-0.309031,-0.377877,-0.797242,0.077909,0.598611
-0.441743,-0.175028,0.427399,0.471291,0.881977,-0.001407
-0.120601,-0.869549,0.324897,-0.085508,0.557802,0.825558
0.641491,0.049907,0.600833,0.394491,0.824884,0.404900
0.122107,0.072907,0.916693,-0.651182,0.476858,0.590397
0.242805,0.103721,0.730617,-0.262609,0.426942,0.865308
-0.040464,-0.326525,0.741968,0.247916,-0.893278,-0.374957
0.515688,-0.340023,0.677782,-0.728162,0.165582,0.665103
0.073141,0.463014,0.492656,-0.628462,0.509678,0.587591
0.208933,0.086582,0.833045,0.713196,0.390765,-0.581941
0.556556,-0.148654,0.555112,-0.055833,0.931092,0.360486
0.060651,-0.452269,0.281441,-0.198586,-0.018003,0.979918
0.014990,-0.439215,0.072638,0.393272,-0.461135,0.795419
-0.464729,0.203801,0.313814,0.673077,0.516778,-0.529064
-0.066243,0.072107,0.542518,0.506630,0.220835,0.833401
0.148081,-0.111890,0.892529,-0.732503,0.576536,-0.362003
0.433656,0.165527,0.775364,-0.703976,0.664394,-0.250995
0.515688,-0.093774,-0.943585,0.221168,0.214171,0.951428
-0.633691,0.086849,-0.927776,-0.133892,-0.216694,-0.967014
-0.246702,-0.445875,-0.920736,0.063222,0.113639,0.991509
-0.921364,-0.073883,0.162497,0.770496,0.136274,0.622708
-0.209934,-0.611136,-0.308845,-0.150987,0.816548,-0.557183
0.745503,0.112424,0.386476,0.808651,-0.553878,0.198247
-0.690147,-0.246603,0.351594,-0.467182,-0.874966,0.127186
-0.305652,-0.217032,0.737096,-0.664757,-0.657735,-0.354236
0.114807,-0.161087,0.498210,-0.559953,-0.646249,0.518473
0.058553,0.452625,0.749982,-0.026791,-0.326954,0.944660
-0.474919,0.460794,0.656079,0.357659,0.885535,-0.296491
0.585231,-0.614511,0.446667,0.921146,-0.372025,0.114405
-0.306152,0.475091,0.511217,0.495890,-0.503838,0.707276
-0.187850,-0.167658,0.412516,0.560275,0.288715,0.776360
-0.515786,-0.701003,-0.472901,-0.031108,-0.350333,0.936109
0.200743,0.101856,0.681095,0.016797,-0.947027,0.320715
-0.133591,-0.495781,-0.918934,-0.019048,0.178133,0.983822
-0.088229,0.010035,0.915085,-0.247895,0.394003,-0.885048
-0.997103,0.034189,0.308504,0.931240,-0.058828,0.359627
-0.202835,-0.299085,0.597472,-0.443429,-0.200158,-0.873675
0.862109,0.076636,0.227706,-0.591073,-0.227899,0.773753
-0.282769,-0.153450,-0.196697,-0.661226,-0.745312,0.085388
-0.834129,0.140840,0.295594,-0.543744,0.017019,-0.839078
0.043270,-0.167569,0.848562,0.623265,-0.395882,-0.674402
0.082136,0.508747,-0.977468,0.177776,0.370507,0.911658
-0.008490,0.777019,0.540302,0.994874,-0.041641,-0.092149
-0.433650,0.363201,0.618664,-0.025846,-0.560441,0.827791
0.701837,0.082319,0.199791,0.037624,-0.698684,0.714441
-0.734111,-0.232395,-0.654227,-0.146723,0.438873,0.886489
0.043270,-0.307699,0.455460,0.962215,-0.117306,-0.245726
0.653780,-0.136222,0.386208,0.005005,-0.203381,0.979087
0.374005,0.035699,-0.957664,0.124085,0.126252,0.984207
0.127998,-0.674718,-0.131123,-0.316089,-0.435822,0.842702
-0.414866,-0.017849,0.456020,-0.015758,0.917544,0.397322
-0.020784,-0.339757,0.717463,0.083222,0.942232,0.324458
0.519086,-0.705532,0.315154,0.967166,0.074467,0.242990
-0.029475,-0.716721,0.374662,0.724923,-0.364527,-0.584472
-0.062847,-0.296066,0.713809,0.208724,0.879730,0.427212
-0.027279,-0.768493,0.428373,-0.544247,0.500019,0.673629
-0.481213,-0.367019,0.399313,-0.725618,-0.685727,-0.057077
-0.439749,0.038097,0.522130,-0.633732,-0.450128,-0.629101
-0.060054,-0.710505,-0.909288,0.057096,0.054174,0.996898
-0.220820,-0.508392,-0.309454,-0.197501,0.838372,-0.508060
0.499101,-0.357517,-0.031618,-0.324755,0.944919,0.040776
-0.393985,-0.320931,0.656712,0.910446,0.404420,0.086789
0.405877,0.554569,0.549680,0.153263,0.932010,-0.328434
0.342128,-0.558920,0.576572,0.352827,0.281007,0.892496
-0.304755,-0.255573,0.745110,0.829527,0.435752,0.349292
-0.162169,-0.422520,-0.036611,-0.660945,-0.749822,-0.030311
0.049960,0.181778,0.724892,0.401590,-0.331095,0.853875
0.346823,-0.133114,0.695954,-0.367679,0.815039,0.447799
-0.190345,-0.396324,0.563126,0.978691,-0.072793,-0.192004
-0.046264,-0.639286,-0.919811,-0.040591,0.235020,0.971143
0.190448,-0.127786,0.648381,0.920228,-0.385329,-0.068568
-0.093321,-0.285765,0.507490,-0.027775,-0.499950,-0.865609
0.180160,-0.329366,0.511022,0.933365,-0.182119,-0.309292
0.196242,-0.227688,0.412930,0.236409,-0.199722,0.950906
-0.315044,0.100968,0.504713,-0.097782,0.384790,0.917810
-0.887486,0.156559,0.455655,-0.278378,0.473689,-0.835538
0.026181,0.160821,0.598178,0.515154,0.804860,-0.294649
0.052759,0.003108,0.855455,0.990209,-0.061364,-0.125380
-0.292363,0.492852,0.514871,0.762841,-0.223708,0.606654
-0.647981,0.482017,-0.452025,-0.538260,-0.039144,0.841869
0.338730,-0.183376,0.717999,-0.360213,0.766011,0.532422
-0.381793,0.289406,0.350864,-0.110152,-0.608713,0.785707
0.086930,0.564160,0.540204,0.903994,-0.232079,0.359074
0.104817,0.121126,0.710764,0.781102,0.378073,0.496931
0.043367,0.370571,0.650452,-0.090074,-0.182190,0.979129
0.299864,-0.540094,0.598763,0.150390,-0.976593,-0.153784
-0.196144,0.288962,0.155531,0.046088,0.981952,0.183429
-0.087229,-0.140751,0.856210,-0.577902,0.704284,0.412327
0.861311,-0.074239,0.221226,0.151210,-0.307635,0.939413
-0.284068,0.330611,0.438190,-0.203550,-0.573507,0.793509
-0.693342,0.009858,0.260614,-0.149084,0.757864,-0.635151
-0.038470,0.001244,0.953986,0.840485,0.403676,0.361429
-0.052558,-0.752864,0.292549,-0.643214,0.758851,-0.102079
0.349921,-0.607495,-0.247850,-0.197431,-0.782260,0.590839
-0.256192,0.192612,0.544978,0.893742,0.407048,-0.188514
