-0.087912,-0.039250,-0.594246,0.303213,-0.912865,0.273385
0.461082,0.634265,0.454593,0.342465,-0.935045,0.091700
-0.084524,0.068541,0.954462,0.096207,-0.685962,0.721249
-0.472121,0.643012,-0.979766,-0.042052,0.112389,0.992774
0.213080,0.395816,0.577910,-0.637721,0.585791,-0.500160
0.130443,-0.383489,0.320418,0.651060,0.452070,0.609717
-0.544879,-0.546600,0.281074,-0.533367,-0.051493,-0.844315
-0.821746,0.291290,0.544617,0.121584,-0.638915,0.759608
-0.184983,0.615825,0.646935,0.086877,-0.554965,0.827325
0.687283,-0.281598,0.235512,0.454432,0.265157,-0.850402
-0.462146,-0.245984,0.666810,-0.501951,0.463822,-0.730010
-0.088882,-0.141669,0.377867,0.954006,0.133776,0.268283
-0.346379,-0.117855,0.769463,0.426194,-0.835704,-0.346350
-0.386196,0.343764,0.662051,-0.201203,-0.901138,0.384014
-0.306367,0.372952,0.707661,0.619061,-0.392236,0.680378
0.016810,-0.352933,0.816125,0.997236,-0.068465,0.028860
-0.235939,-0.482325,0.288010,-0.330971,-0.353952,-0.874744
-0.658316,-0.308572,0.216211,-0.703444,-0.643339,-0.302128
-0.350837,-0.013119,-0.480376,-0.044644,-0.998198,0.040100
0.013032,0.021442,0.628710,-0.639058,-0.044900,-0.767847
-0.028725,0.050735,0.548659,0.974216,-0.144635,0.173156
-0.124920,0.148833,0.739757,-0.437006,0.876723,-0.200953
-0.378734,0.384015,0.683433,0.448678,0.733283,-0.510866
-0.896342,0.278436,0.195044,0.744698,0.623272,-0.238657
-0.314799,-0.324483,0.662338,-0.410356,-0.660115,-0.629172
-0.494596,0.606763,0.594413,-0.795074,0.288969,0.533248
0.195448,0.644802,0.611083,-0.021963,-0.141649,0.989673
-0.571616,-0.385597,0.609050,0.972508,-0.203594,-0.113037
-0.226254,-0.243560,0.540001,0.959489,0.280974,-0.020865
0.731847,-0.110900,-0.064457,0.198801,0.719217,0.665736
0.817099,0.860596,0.313363,0.381893,0.796103,0.469443
0.523373,0.117011,0.602114,0.998884,-0.046386,0.008859
-0.726231,0.281597,0.663103,0.669132,-0.704869,0.235417
-0.417002,-0.105212,-0.955897,0.266439,-0.073581,-0.961039
-0.204264,0.304567,0.669178,0.917928,0.322273,-0.231403
-0.490433,0.515515,-0.975126,-0.119627,0.133368,0.983820
-0.369433,-0.115537,0.804477,-0.100253,0.984299,0.145276
-0.301329,0.917706,0.425869,0.384485,0.194392,0.902432
-0.448097,0.783150,0.429672,-0.210182,0.675604,-0.706671
0.125600,-0.403509,0.321399,0.551929,0.767248,0.326659
0.038409,-0.445762,-0.320896,0.948724,0.282429,-0.141975
0.453815,0.219008,0.148239,0.310416,-0.935318,-0.169768
-0.302689,0.000684,0.708043,-0.334528,0.882884,0.329556
0.424848,-0.398662,-0.069790,0.444252,0.094825,0.890869
-0.308791,0.086560,0.304705,0.990187,0.139730,-0.002142
0.832407,0.594330,0.393915,0.775022,0.090938,0.625357
-0.354421,0.059058,0.405539,-0.040005,0.297753,0.953804
0.731558,-0.450714,0.072086,0.301234,0.872313,0.385133
-0.050135,-0.404247,-0.251369,0.653881,-0.511373,-0.557617
-0.088592,-0.536800,0.224271,0.472662,0.697482,-0.538619
0.029594,-0.135557,0.616536,0.918487,0.392711,0.046479
-0.059436,0.156314,-0.287891,0.871265,0.478413,-0.109627
-0.423589,0.821400,0.423573,-0.027397,0.063899,0.997580
-0.228868,-0.369580,0.419698,-0.719606,-0.204488,-0.663590
-0.190795,0.163689,0.717395,0.117506,-0.761674,0.637216
0.206198,-0.100469,0.176891,0.700239,0.356576,0.618481
-0.690387,-0.151468,0.464973,-0.533044,-0.117288,-0.837918
0.059725,0.713081,0.300519,0.901216,-0.273300,0.336330
-0.349673,0.740686,0.624668,-0.532443,0.094530,-0.841171
0.391038,0.567357,0.419746,-0.232004,0.619153,-0.750216
-0.867281,0.598967,0.074454,0.380081,0.289291,0.878550
-0.440056,-0.350719,0.712157,0.808388,0.213597,0.548530
-0.245045,-0.147569,0.261654,0.339647,-0.640178,0.689066
-0.416227,-0.365156,0.688001,0.497627,0.293877,0.816091
0.363331,0.284442,0.763196,-0.166902,0.943617,0.285884
0.296877,-0.584848,0.367678,0.056373,0.963773,0.260700
-0.037635,-0.287078,0.778766,0.337060,0.589847,0.733806
0.288445,0.323639,0.763364,-0.236827,0.029339,-0.971109
-0.149819,0.764078,0.293248,-0.405137,-0.594233,0.694803
-0.255316,-0.029240,0.755160,0.299216,0.009476,-0.954138
0.195348,0.736473,0.610103,-0.712146,0.664050,-0.227785
-0.635841,-0.461356,0.485303,0.102416,-0.312010,0.944543
0.132577,0.020810,0.299467,-0.643095,0.152202,0.750509
0.510294,-0.192562,0.198871,-0.677119,0.316429,0.664366
-0.360523,-0.757020,0.485207,0.174095,0.253749,0.951474
-0.263842,-0.316896,-0.940566,0.174469,-0.073469,-0.981918
0.294358,-0.112903,0.727655,0.742965,0.117098,-0.659008
0.493047,0.584110,-0.371936,0.253831,-0.070117,0.964704
-0.612693,-0.400876,0.606443,0.584891,-0.094339,0.805607
0.430660,0.186659,0.493793,-0.486657,0.409839,-0.771490
0.381838,0.800009,0.635168,0.201018,0.967322,0.154530
0.204454,-0.483695,0.227667,0.877935,0.457900,0.139847
-0.200776,0.412886,0.373897,0.936262,0.193037,0.293513
-0.426202,-0.031242,0.401402,-0.256706,0.011081,0.966426
0.054883,0.003845,0.140705,-0.724078,0.678235,0.125332
-0.456819,0.947420,0.277989,0.551150,-0.818425,-0.162522
-0.526762,-0.184975,0.417546,-0.216939,0.558934,-0.800332
-0.350252,0.617827,0.562484,0.845882,-0.473098,-0.246295
0.464760,0.670300,0.631485,-0.316343,-0.853256,0.414586
0.477159,0.189610,0.425725,0.656417,0.751158,-0.069847
-0.073579,-0.515938,0.269283,0.355279,-0.489480,0.796358
-0.389004,-0.045783,0.718591,-0.228979,0.827191,0.513150
-0.563770,0.310151,0.672861,-0.504211,0.830247,-0.237616
-0.007894,-0.018177,0.576212,-0.159123,-0.590441,0.791239
-0.829498,0.103840,0.434001,0.846186,0.500596,-0.182683
0.042773,0.375374,0.615364,-0.528719,-0.216543,0.820711
0.542259,-0.488226,0.238502,0.674943,0.384071,-0.630033
0.141388,0.788419,-0.046949,-0.702724,0.683985,-0.195814
-0.504967,-0.280122,0.692306,0.127273,0.844202,0.520696
-0.586534,-0.011117,0.289661,0.047689,0.807933,0.587342
0.127344,-0.409199,0.535362,-0.694030,0.366371,0.619754
0.704241,0.351455,0.427567,0.781302,-0.360222,-0.509714
-0.163478,-0.042411,-0.402669,0.870292,0.403492,-0.282465
0.356064,0.111638,0.515869,0.305755,-0.545593,-0.780283
0.030664,0.129023,-0.458420,-0.033284,0.996727,-0.073673
0.583146,0.201096,0.535481,-0.154795,-0.729854,0.665846
0.654638,-0.454930,0.253163,-0.173961,0.407139,0.896647
-0.140228,0.056004,0.780680,0.865769,-0.492898,0.086573
-0.492272,0.863336,-0.055918,0.283032,0.654414,-0.701167
0.048290,0.085296,0.948459,0.984594,-0.039766,-0.170275
-0.574519,0.852062,0.146732,0.462388,-0.705988,0.536451
-0.208332,0.286549,0.565688,0.599544,-0.771876,-0.211553
-0.284956,0.442178,0.715458,0.766938,0.138019,0.626703
-0.216078,0.378325,0.747052,0.960056,0.275188,-0.050628
0.381064,0.240503,0.587620,0.268820,-0.595043,-0.757404
-0.198937,0.300141,0.538566,-0.649113,0.687388,-0.325807
-0.268395,-0.659028,0.562268,0.816895,0.260080,0.514821
0.181494,-0.380856,0.627251,0.845951,0.390549,-0.363096
-0.230517,0.274958,0.875918,0.295433,-0.309973,0.903679
0.228578,0.027343,0.495731,-0.652604,0.616827,0.440037
-0.179850,0.377272,0.911602,0.995129,0.079464,0.058342
-0.740859,0.007955,0.227715,0.965915,0.254264,-0.048554
-0.017000,-0.414152,0.543182,-0.275007,-0.597192,0.753481
-0.689417,-0.159898,0.471096,0.503377,0.562066,0.656272
0.187602,0.750592,0.582287,0.924357,-0.344333,0.164311
0.188566,0.644169,0.606682,0.318705,0.057913,0.946083
-0.701426,-0.126600,0.360336,-0.465266,0.694267,-0.549108
0.416132,0.827406,-0.167779,0.103425,0.986713,-0.125303
0.178011,0.143247,0.170505,-0.318783,0.218923,-0.922199
0.220731,-0.068226,0.183062,0.347123,0.714171,0.607837
-0.436088,0.705179,0.624142,-0.015664,-0.791309,0.611216
-0.172294,-0.342923,0.507450,0.773230,0.263226,0.576912
-0.461951,0.278436,0.508192,-0.376271,0.518566,-0.767795
-0.476195,0.738474,-0.197293,0.733507,0.598842,-0.321492
-0.551075,-0.899373,-0.618617,-0.440682,-0.809974,-0.386964
-0.510294,0.773035,0.121882,0.591944,-0.256904,0.763939
0.237104,0.356935,0.747291,0.104244,-0.715465,0.690828
-0.662774,0.243981,0.140633,0.354096,0.825864,0.438822
0.168805,0.737736,0.248475,0.932548,-0.146638,0.329926
0.154277,0.381696,0.494128,0.924284,0.355432,0.139168
0.113006,0.188872,0.286551,-0.045482,0.905163,0.422624
-0.279440,0.227542,0.636220,0.406381,0.830435,0.381093
-0.298911,0.519203,0.730167,0.943963,0.329291,-0.022412
-0.733882,-0.226174,0.334960,0.963731,-0.242330,-0.111795
0.532668,-0.069806,-0.316376,0.064330,-0.997115,0.040290
0.584500,0.703492,0.506661,0.270446,-0.956614,0.108391
0.262192,0.052315,0.360790,0.339414,0.912710,-0.227505
-0.052169,-0.179074,0.379183,0.996623,0.020787,0.079445
0.300555,-0.298983,0.183181,0.149687,-0.694915,-0.703340
-0.405277,-0.385702,0.668580,-0.750447,0.645037,0.144072
0.115525,-0.054740,0.486236,0.659501,-0.484714,0.574553
-0.103610,0.212159,0.424649,0.110030,-0.977911,0.177718
-0.352966,0.438911,0.690632,0.637843,-0.648764,0.415045
-0.109807,0.317843,0.713831,-0.101472,-0.815309,0.570065
0.336398,0.634054,0.534453,0.797542,-0.534265,0.280156
0.879195,0.147674,0.454019,0.547695,0.655181,-0.520354
0.107773,0.693166,0.000718,0.875908,-0.458692,-0.149625
-0.088882,0.163374,0.977183,0.785906,-0.616386,0.049197
0.531509,-0.345662,0.231996,-0.609765,0.787768,0.087222
0.021943,0.047574,0.601827,0.903464,0.325864,0.278507
-0.160569,0.261787,0.695846,0.042431,-0.960352,0.275541
0.261613,0.566408,0.493889,-0.037554,-0.897318,0.439784
-0.541875,0.465043,0.661883,0.254183,0.480451,0.839379
0.079101,0.202466,-0.230370,0.912507,-0.405774,0.051749
0.581786,-0.475055,0.226687,-0.607622,0.370649,0.702434
0.053913,0.291713,-0.164239,0.980077,-0.065671,-0.187448
-0.339018,0.379167,0.726531,0.600518,-0.513426,0.613002
-0.018744,-0.417208,0.701586,0.285257,0.899157,0.331880
0.297651,0.878087,0.346249,-0.090354,-0.988207,-0.123623
-0.476384,-0.101417,0.723231,0.725371,-0.680607,0.103011
0.070960,0.274958,0.656478,0.966941,-0.236228,-0.096025
0.041413,0.142826,-0.566693,0.297501,-0.952671,0.062533
0.377185,0.438807,0.554519,-0.242216,0.945957,-0.215630
-0.318772,-0.281281,0.763746,0.833186,0.308292,0.459083
0.540710,0.616669,0.321136,0.787340,0.487630,-0.377243
-0.563959,-0.276119,0.544617,-0.346420,0.269807,0.898441
-0.241751,0.196353,0.342709,-0.608112,-0.242335,0.755959
-0.162313,0.032295,0.882830,-0.379525,0.900419,0.212617
0.100411,0.257677,0.394346,0.913776,0.161739,0.372632
-0.702012,0.328801,0.666356,0.619742,-0.776267,0.115454
-0.550206,0.821821,-0.090933,0.187789,0.654303,-0.732546
-0.582076,-0.755125,-0.928823,0.103712,0.069601,0.992169
0.918137,0.145672,0.344263,0.100607,-0.737416,0.667904
-0.220927,-0.163163,0.495205,-0.160516,-0.106442,0.981277
-0.134416,-0.148833,-0.899691,-0.515767,0.810638,-0.277219
-0.272268,-0.448817,0.606204,0.786498,0.418599,0.454087
-0.488979,0.278542,-0.191935,0.477060,-0.551710,-0.684127
0.204749,0.605183,0.606395,0.250587,-0.299102,0.920730
0.026205,0.295716,0.625027,0.937351,-0.265088,-0.226058
-0.220536,-0.578315,0.548899,-0.356613,-0.460572,-0.812835
0.177816,-0.480745,0.552773,-0.699223,0.347178,0.624944
-0.443059,-0.235974,0.612064,-0.219148,0.620386,0.753058
0.727295,-0.241874,0.245797,-0.281979,0.545476,0.789268
0.796853,0.165375,0.307216,-0.116375,0.532283,0.838529
-0.304144,-0.467257,0.222262,0.403152,-0.112541,0.908187
-0.058076,0.039038,-0.942814,0.329732,0.353721,0.875305
-0.157376,-0.888205,0.265672,-0.233580,0.946009,0.224737
0.395207,0.367366,0.316017,0.053881,-0.996542,0.063246
0.555533,0.899373,0.175815,-0.386628,0.922188,0.009442
0.383772,-0.103104,-0.614599,-0.079032,-0.951192,0.298309
0.003536,-0.267900,0.679462,-0.739103,0.201745,0.642671
-0.455459,-0.249566,0.575016,0.764701,-0.439253,-0.471475
0.095859,0.082133,0.174308,0.820769,-0.562226,0.101197
0.569097,0.117222,0.639258,-0.220465,0.841405,0.493389
0.687673,-0.472104,0.251489,-0.194182,0.740501,0.643391
-0.164252,-0.625416,0.554734,-0.779978,-0.108433,-0.616342
-0.107288,0.216269,0.612040,0.440654,-0.117977,0.889891
-0.153497,0.115325,-0.311019,0.981815,-0.124171,0.143597
0.046842,0.235340,0.210782,0.959414,0.080272,0.270334
-0.077062,0.748695,0.312932,-0.405586,0.177304,0.896696
0.103510,-0.153576,0.327378,0.488647,-0.280096,0.826299
0.648436,0.877772,-0.105522,0.972258,0.114096,0.204196
0.050519,-0.001845,0.075219,-0.249019,-0.956244,-0.153580
-0.601742,-0.342606,0.616584,0.053345,0.401996,0.914086
0.307727,-0.526369,0.679534,0.956831,0.146032,0.251294
-0.412254,0.726358,-0.974576,-0.057500,0.149404,0.987103
0.140033,0.348928,0.578962,0.627689,-0.619058,0.471990
-0.369628,0.174648,0.477745,-0.359540,-0.691353,-0.626707
0.628870,0.582213,0.356772,0.224313,-0.776932,0.588270
0.794719,0.110373,0.339265,-0.605115,-0.679142,0.415453
0.410220,0.569886,0.427519,-0.268872,0.657411,-0.703931
-0.449552,0.756493,0.643993,-0.647874,0.678711,-0.345849
-0.102931,0.192981,0.898065,-0.061801,-0.991199,-0.117069
-0.380094,-0.108267,0.767047,-0.441320,0.778713,0.445917
0.392298,0.578209,0.601875,0.158350,0.000552,0.987383
0.011867,-0.424793,0.700079,0.300961,0.884640,0.356138
-0.155531,0.039670,-0.386429,0.891250,0.257984,-0.372985
-0.487719,-0.770929,0.294683,-0.027922,0.567401,0.822968
-0.162124,0.304567,0.760398,0.274356,0.469912,0.838994
-0.051879,0.259785,0.736959,0.161398,-0.944516,0.286076
-0.007509,0.074337,0.932458,-0.031552,0.578751,0.814894
-0.406536,0.757863,0.639784,0.888207,-0.169905,0.426872
0.713536,0.169379,0.310827,0.668613,0.491669,-0.557870
0.482102,0.874084,0.429265,-0.171226,-0.914690,-0.366092
-0.766822,-0.558612,0.265433,0.525797,0.392843,0.754461
-0.158050,0.105000,0.789051,0.938086,0.298430,-0.175882
-0.254056,0.481585,0.790892,0.074018,-0.596078,0.799508
0.117074,0.246087,0.581737,0.143787,-0.281207,0.948814
0.578978,0.302565,-0.153118,-0.829999,0.352828,0.431988
-0.711502,-0.198673,0.200832,0.932636,0.204795,0.297066
0.085009,-0.333228,0.550477,-0.608906,-0.775760,0.165622
-0.565124,0.147146,0.520150,0.068835,-0.685846,0.724484
0.758195,0.220589,0.305566,0.298361,0.946503,0.122936
0.037056,-0.036194,0.491067,0.280948,0.440096,-0.852868
-0.123566,-0.637955,0.532372,-0.928002,0.372146,-0.017893
-0.116684,-0.096572,0.393294,-0.572677,-0.030299,-0.819221
-0.607844,0.369895,0.261199,-0.875928,0.473727,-0.091286
0.008183,0.578526,0.306379,0.376777,-0.300079,0.876352
-0.443934,-0.259049,0.118007,0.661260,0.199230,0.723217
0.739115,0.248722,0.288608,0.454451,-0.764316,-0.457488
0.649405,0.823928,-0.148382,0.972553,-0.230454,-0.032112
-0.615401,0.941625,0.174189,0.984046,-0.048947,-0.171049
0.166966,0.268004,0.767286,-0.740905,0.614954,0.269983
-0.428916,-0.034088,0.396020,0.877524,0.281633,-0.388116
-0.470962,-0.806754,0.303006,-0.003709,0.502451,0.864598
-0.025431,0.005425,-0.951616,-0.290511,-0.314925,-0.903563
0.573845,0.102364,0.421946,0.074459,-0.580483,0.810860
0.781640,0.186238,0.329626,0.045848,0.987097,0.153421
0.583436,0.770823,0.496759,-0.703827,-0.642823,-0.302334
-0.361102,0.215424,-0.175169,0.306758,0.811286,0.497710
0.923080,0.131657,0.347205,0.082793,-0.639462,0.764352
-0.635942,0.807490,0.159025,0.936692,-0.260269,0.234241
-0.247274,0.209736,0.323312,-0.442756,0.875321,-0.194372
-0.380963,0.641641,-0.977494,0.100315,0.017441,0.994803
-0.256670,-0.363258,0.665495,-0.306599,0.816122,0.489839
-0.913004,0.427744,0.178183,0.624536,-0.366387,-0.689721
0.009833,0.231547,0.724379,-0.149655,0.622582,0.768111
0.448002,0.411937,0.334290,-0.638073,-0.057823,0.767802
0.083944,0.087929,-0.465882,0.267374,0.953764,-0.137277
0.205524,0.706442,0.595370,0.909230,-0.271024,0.315984
0.062339,-0.105948,-0.720408,-0.238273,0.067174,0.968872
0.039770,0.233443,0.688551,-0.177986,0.573267,0.799804
0.308696,0.926451,0.532874,0.584611,0.569738,-0.577606
-0.617730,0.270848,0.522327,0.312020,0.497997,-0.809100
0.075223,0.028713,-0.433283,0.584647,-0.755494,-0.295663
-0.965995,0.431641,0.189998,0.854271,-0.348835,-0.385403
0.617919,-0.294242,0.212217,0.258657,0.434044,-0.862962
-0.612302,-0.405511,0.608261,0.161545,-0.796922,0.582081
-0.212980,0.573572,0.605678,-0.644680,-0.190716,0.740281
0.556597,0.777566,0.520796,0.233974,-0.111738,0.965801
-0.048000,0.440702,0.494989,0.922358,0.119068,0.367530
-0.314994,0.621515,0.292411,0.914371,0.202777,0.350439
-0.566774,0.477055,0.663821,0.359465,0.663732,0.655931
0.343665,0.622464,0.595991,0.752312,-0.167586,-0.637135
0.198641,-0.344818,0.657315,-0.674238,-0.323971,0.663661
0.173943,-0.368527,0.645022,0.834521,0.462595,-0.299300
-0.758390,0.292660,0.132429,-0.638218,-0.658326,-0.399106
0.337853,-0.475897,0.681041,0.898540,0.026801,0.438073
-0.434829,-0.057480,0.734257,-0.035659,0.933339,0.357221
-0.575583,0.030082,0.601445,-0.370175,0.235648,-0.898577
0.526377,0.530794,-0.990505,0.078611,0.237983,0.968083
0.107874,0.388652,0.554352,-0.687204,0.702802,0.183904
-0.132092,-0.516886,-0.928536,0.099476,0.203029,0.974107
-0.462146,0.028396,0.157088,-0.534647,0.647887,0.542581
-0.017679,-0.092777,0.332353,0.744231,0.357366,0.564277
0.826110,0.108475,-0.237258,0.192293,-0.788422,0.584307
-0.294068,0.024814,0.734711,-0.725042,0.669475,0.161608
0.305693,0.053369,0.532181,0.087999,-0.816250,0.570957
0.348608,0.020598,0.366817,0.324030,0.866654,-0.379360
-0.670620,-0.121121,0.324651,-0.340896,0.671353,0.658085
0.444419,-0.551235,0.223697,0.799205,0.128826,-0.587090
-0.010998,-0.383279,0.806295,-0.054601,0.981940,0.181143
0.350157,0.463779,0.399393,0.383695,-0.923100,0.025791
0.309371,-0.207524,0.199182,-0.351148,-0.506239,-0.787666
-0.247759,-0.699280,0.476884,0.838524,0.519789,0.163391
0.424073,0.044307,0.407213,-0.276822,0.825027,-0.492646
-0.203295,0.361993,0.877975,-0.229988,-0.678015,0.698141
0.401504,0.830672,0.587429,0.926373,0.319344,-0.199632
0.403343,0.528792,0.599627,-0.085275,-0.530970,0.843089
0.131897,-0.219114,0.632298,-0.094165,0.778610,0.620402
0.584985,-0.416049,0.046973,0.291519,0.897462,0.331026
-0.102445,0.312997,0.488077,0.186912,-0.845429,0.500314
0.141683,0.095621,0.875655,0.556157,0.753323,-0.350990
-0.320511,-0.983247,0.218675,0.467990,0.841366,0.270348
-0.060500,0.138191,-0.322140,0.931012,-0.342036,-0.127391
0.635362,0.154838,0.416015,-0.140964,-0.379988,0.914187
-0.065828,-0.438175,-0.932625,0.119434,0.134248,0.983724
-0.261223,-0.478216,0.445864,-0.485955,0.484116,0.727653
-0.184498,-0.823614,0.472818,0.535894,0.653036,0.535128
-0.344055,-0.663770,0.476621,0.649954,0.531377,0.543322
0.097023,-0.589801,-0.347205,0.828579,-0.179906,0.530180
0.044612,0.048943,0.702686,0.019101,0.300051,0.953732
0.173458,-0.593067,0.146875,0.628913,-0.771059,0.099678
0.242627,-0.551973,0.342781,0.423851,-0.713859,-0.557454
0.427367,0.423634,-0.981990,0.042179,0.280969,0.958790
-0.321581,0.525104,0.758461,0.669825,0.687361,-0.280836
0.250568,-0.432485,0.211332,-0.503916,0.726395,-0.467353
0.389099,0.031136,-0.557652,0.251942,0.884837,-0.391904
-0.017194,-0.343555,0.725814,0.743052,0.589042,0.317652
0.030368,-0.355988,0.691182,0.463114,-0.124582,-0.877499
-0.708498,-0.450082,0.492358,0.016769,-0.423515,0.905734
-0.100701,-0.184870,-0.921193,0.178981,-0.781176,0.598105
0.456718,0.129445,0.611346,-0.230221,0.740204,0.631740
-0.078907,0.254622,0.841334,-0.115337,0.986987,-0.112045
0.087137,0.022812,0.561144,0.905821,-0.245054,-0.345595
0.418261,-0.154312,0.195427,-0.282515,0.247246,0.926852
-0.076873,-0.010485,-0.310301,0.970601,0.041363,-0.237115
-0.032597,-0.231969,-0.253976,0.998036,0.038290,0.049572
-0.282538,-0.707603,0.318696,0.082008,0.447747,0.890391
0.016130,0.074758,0.364378,-0.269491,0.960738,0.066015
-0.466989,0.834781,0.293463,0.659892,0.660349,-0.358444
-0.058561,0.116590,0.830140,-0.126483,0.949619,0.286750
-0.370598,0.673989,0.423716,-0.320838,-0.601843,0.731333
-0.693196,0.489804,0.199780,-0.057674,0.960778,0.271255
-0.596220,-0.417840,0.618569,-0.608761,0.790053,-0.072295
-0.384061,0.819187,0.438545,0.400781,-0.469099,0.786970
0.035891,0.154523,0.695774,0.812383,-0.323792,-0.484967
-0.188761,-0.822138,0.467174,0.868034,0.385067,0.313433
0.104285,-0.294452,0.587955,0.960841,-0.069357,-0.268280
-0.395786,-0.389496,0.682691,-0.209152,0.831422,0.514774
0.126085,0.032822,0.474612,0.810635,-0.236916,0.535483
0.818163,-0.266320,0.247734,-0.120080,0.551146,0.825723
0.313923,0.651124,0.029968,-0.417838,-0.904427,0.086157
-0.009739,0.017965,0.027289,-0.568325,-0.736298,0.367249
-0.781060,0.482955,0.555835,0.274035,-0.477756,0.834658
-0.076772,0.742056,0.212097,-0.028684,0.144138,0.989142
-0.089952,0.464411,0.603788,-0.262470,-0.671591,-0.692875
0.535187,-0.112903,-0.078616,0.148675,0.881468,0.448229
-0.306952,-0.673253,0.590491,-0.910343,0.113441,-0.398003
0.257255,0.194562,0.579752,-0.175573,0.922759,0.343060
-0.014480,-0.462832,-0.236828,0.892470,-0.449428,-0.038886
-0.334559,0.865444,0.289350,0.924769,0.307790,0.223759
-0.347928,0.664400,0.413671,0.621123,0.563942,-0.544220
-0.732427,-0.375691,0.493530,0.262530,0.178827,0.948208
-0.618795,-0.566304,0.230992,-0.642936,0.746714,-0.170444
0.774857,-0.095412,-0.602999,-0.522161,-0.506153,0.686409
0.097023,0.155576,0.383703,0.802364,-0.231534,0.550095
-0.168805,-0.582531,0.208701,-0.703672,-0.603295,0.375342
-0.250278,-0.227017,-0.657315,0.325879,-0.311275,-0.892699
-0.037635,0.125652,0.274497,0.375741,0.655937,0.654649
0.362172,0.497286,0.594293,-0.004492,0.830737,-0.556647
-0.327878,0.375585,0.375308,-0.701652,-0.414492,0.579552
-0.092855,0.262735,0.757432,0.519803,0.297718,0.800730
0.576264,0.902638,0.176915,-0.386628,0.922188,0.009442
-0.437732,0.776934,0.652269,0.877511,-0.077432,0.473263
-0.125310,0.392761,0.632943,-0.457613,-0.336138,0.823165
0.786488,0.698646,0.423357,0.553380,0.500341,-0.665905
0.639525,0.139033,0.637033,-0.123524,0.905612,0.405720
0.187117,-0.492756,0.251752,-0.562976,0.820266,0.101107
0.310441,-0.228493,0.208103,0.174631,0.701140,0.691308
-0.164643,-0.420579,0.487623,0.889624,-0.439734,-0.123302
-0.324289,0.551024,0.572648,-0.390911,0.542187,0.743789
-0.184983,0.573678,0.645428,-0.089850,0.519621,-0.849659
-0.178012,0.019966,-0.428213,-0.709123,0.542311,0.450604
-0.379024,-0.776303,0.498697,0.728529,0.093361,0.678623
-0.337953,0.444497,0.722441,0.438913,0.570716,0.694002
0.241172,-0.400770,0.660424,0.235135,0.909945,0.341630
-0.415837,0.531004,-0.972376,-0.011327,0.171683,0.985087
0.051779,-0.634792,0.188037,0.821280,-0.529972,0.211256
-0.696099,0.302355,-0.665830,-0.497296,-0.864675,0.070950
-0.433374,0.195510,0.424673,0.028762,-0.836140,0.547762
-0.101381,-0.079291,-0.872785,-0.460819,0.874434,-0.151694
-0.457978,0.575363,0.770922,-0.011742,0.934492,0.355792
-0.251632,-0.373058,0.571189,0.972853,-0.208856,0.099682
-0.619569,-0.315421,0.242879,0.566292,0.811863,0.142100
-0.221116,-0.528266,0.398197,0.891636,-0.295137,0.343335
0.535187,-0.354407,0.247447,-0.739099,0.336567,0.583485
0.001307,-0.333123,0.281648,-0.487939,0.691111,0.533180
0.399854,0.550391,0.582909,0.027886,0.793932,0.607367
0.312764,-0.124177,0.756715,0.640667,0.728209,-0.243429
-0.656187,-0.681155,-0.557246,-0.701104,0.387765,0.598408
0.059625,0.217321,-0.037000,-0.928718,0.118170,0.351452
-0.284283,0.264527,0.890436,-0.741178,0.461530,-0.487489
-0.068346,0.214899,-0.017460,-0.564250,0.787524,-0.247847
0.040929,0.115010,0.703762,-0.208586,-0.511053,0.833856
-0.758101,0.271271,0.538160,-0.205903,0.950086,-0.234392
-0.680891,0.319529,0.623616,0.078094,0.875011,0.477763
0.245920,0.103840,0.576810,-0.341763,-0.730215,0.591594
0.070575,-0.502345,0.731841,0.985456,0.147335,-0.084664
-0.299881,0.545228,0.593839,-0.310846,-0.619707,0.720651
-0.561345,-0.601286,0.277152,-0.596513,0.124887,-0.792828
-0.228773,0.003845,-0.582885,-0.597968,-0.134505,0.790153
-0.148364,-0.615721,-0.925833,-0.130008,0.153012,0.979635
0.030469,-0.403826,0.712612,0.307432,0.652652,0.692481
-0.903704,0.542068,0.165339,0.332016,-0.897202,-0.291195
0.001502,0.585796,-0.218124,0.748811,-0.461754,0.475463
0.160090,-0.559665,0.559279,-0.587207,0.208625,0.782089
-0.032988,-0.141458,-0.509866,0.973274,-0.155523,-0.168966
-0.183824,-0.803910,0.080338,-0.482090,0.552988,-0.679554
-0.193024,0.346293,0.928679,0.808426,0.355481,0.469127
0.512228,-0.438702,0.247997,0.760894,0.154492,-0.630216
-0.070670,0.049048,0.861209,0.029197,0.989442,0.141957
-0.518815,0.366945,0.675109,0.083554,-0.666626,0.740694
-0.273917,0.530162,-0.975222,-0.016673,0.040136,0.999055
-0.074644,0.119856,0.976179,0.949133,-0.301970,0.089224
0.311795,0.450081,0.701562,0.291950,-0.305973,0.906171
0.220442,0.241451,0.761068,-0.034111,0.994172,-0.102263
0.090726,0.553447,0.335988,0.780912,0.179538,-0.598284
0.910876,0.478320,0.389467,-0.211059,-0.975137,-0.067544
-0.436863,0.479268,0.729760,0.246488,-0.274577,0.929436
0.207073,0.356830,0.685561,0.317493,-0.679160,0.661770
-0.171519,0.549127,0.628878,0.429552,-0.099464,0.897548
0.776702,0.675991,0.322475,-0.049294,0.437457,0.897887
-0.332330,-0.270008,0.251202,-0.333391,0.493808,-0.803122
0.040349,-0.273379,0.571476,0.726008,0.485197,-0.487337
0.614916,-0.179918,0.203320,0.060937,0.471889,0.879550
0.277016,-0.372426,0.503432,0.861711,-0.044578,-0.505438
0.088107,-0.312365,0.581856,0.919487,0.301426,0.252361
0.160574,-0.409621,0.572624,0.840020,0.494938,0.222267
-0.564734,0.417417,0.685131,0.638325,-0.396352,0.659883
-0.398400,0.327853,0.814857,-0.786245,-0.615339,-0.056356
-0.444319,-0.278121,-0.932888,-0.039932,0.245162,0.968659
-0.292419,-0.712451,0.318840,0.070561,0.404851,0.911656
-0.090141,0.174964,-0.380594,0.871180,-0.472338,-0.133950
0.483267,0.667878,0.617708,0.912553,-0.162470,-0.375299
-0.352771,-0.406670,0.243931,-0.284713,0.550175,-0.785014
0.034147,0.101838,0.948746,0.998261,0.021812,-0.054772
0.097408,-0.190981,0.489130,-0.669209,-0.463839,-0.580528
-0.724197,-0.129761,0.279902,-0.762210,-0.537691,0.360450
-0.200776,-0.078026,0.612638,-0.419329,0.827986,-0.372294
-0.438991,0.741846,0.268063,0.749731,0.132396,0.648363
0.052553,-0.534061,0.508263,-0.931934,-0.169935,0.320344
-0.141778,0.441757,0.353591,-0.489155,-0.760205,-0.427570
0.050424,0.521205,0.583052,0.775709,-0.144311,0.614370
-0.024657,0.047574,-0.270455,0.998574,0.042716,0.032006
-0.329427,-0.095306,0.549664,0.437115,-0.426824,-0.791677
0.094404,-0.562300,0.477506,-0.100344,-0.908735,0.405133
-0.513392,-0.108899,0.327856,-0.517820,0.644414,-0.562666
-0.547687,0.129866,0.611394,0.160585,-0.106435,0.981266
-0.453330,0.419314,0.650929,0.736311,-0.156026,0.658409
0.765562,0.302565,0.266341,-0.347486,0.918883,0.186835
0.267135,0.638902,0.589510,-0.356428,-0.255987,-0.898571
0.011962,-0.175070,0.483294,0.202773,0.248292,0.947224
-0.206488,0.414887,0.763125,0.930813,0.365132,0.016288
-0.567643,-0.347979,0.569156,-0.258120,-0.815669,-0.517743
-0.272752,-0.023129,0.854081,0.837741,-0.102421,0.536377
-0.686898,-0.496234,-0.065485,0.994241,-0.100883,0.036169
0.698328,0.526474,0.345196,-0.619193,-0.400991,-0.675134
0.020393,0.141245,-0.518739,0.956509,-0.289359,-0.036900
0.505836,0.696642,0.635263,-0.402401,0.204355,0.892363
0.006344,-0.363258,0.684174,0.955403,0.291766,0.045590
0.533739,0.719298,0.491282,0.112897,0.991635,0.062557
-0.189535,0.081923,0.867260,0.058958,0.916383,0.395937
0.198742,0.437226,-0.244529,-0.589853,0.804609,0.068398
0.049845,-0.382962,0.693263,0.367857,-0.052099,-0.928422
-0.127729,0.131552,0.812753,0.837740,-0.524075,-0.153418
0.005375,0.481375,-0.189496,0.974713,0.096492,-0.201553
-0.289220,0.256203,0.758006,0.674227,-0.134476,0.726178
0.130638,0.100890,-0.649566,-0.587079,-0.729915,0.350090
-0.397531,-0.348613,0.682069,-0.288735,0.564276,0.773450
-0.283603,0.195510,0.691923,0.989964,0.001660,-0.141307
-0.047805,0.273062,0.681830,0.303292,0.943824,0.131188
0.221896,0.839944,0.627514,0.997242,0.064006,0.037560
-0.425138,-0.084243,0.725862,0.017783,0.889000,0.457563
0.206972,0.200568,0.328502,0.837480,-0.531734,-0.126043
-0.218792,0.438279,0.608165,0.749453,0.453414,-0.482427
0.120078,0.428480,0.360121,-0.674041,0.491126,0.551782
0.234585,-0.191086,0.202483,0.142253,0.879418,0.454300
-0.195543,0.021232,-0.521035,-0.319313,-0.071661,-0.944936
0.196122,-0.484433,0.544354,0.004993,-0.488504,0.872547
0.656282,0.502450,0.395135,-0.744135,0.080682,0.663139
-0.276626,0.211000,0.880247,0.820167,0.040738,0.570672
-0.713825,0.082661,0.242616,0.834722,-0.093309,-0.542708
-0.572680,0.942258,-0.036258,-0.316393,0.946836,-0.058285
-0.317802,0.339128,0.641984,0.455682,0.675127,-0.580136
0.329622,0.367155,-0.983401,-0.097565,0.130567,0.986627
0.475420,-0.139350,-0.076320,0.201612,0.972191,-0.119153
-0.092175,0.117222,0.972639,-0.786539,0.585082,-0.197573
-0.358394,0.550076,0.720121,0.333740,-0.765017,0.550788
0.162124,0.094989,0.177872,0.904212,0.383137,0.188698
-0.452266,-0.252200,-0.944943,-0.039452,0.290497,0.956062
0.286512,0.862389,0.559948,0.426693,0.735729,0.525961
0.811482,0.193930,0.603454,0.663074,-0.314346,-0.679352
0.606200,-0.051262,-0.260290,0.149973,-0.895532,0.418964
-0.356259,-0.354407,0.642965,-0.478316,0.869893,0.120418
-0.141388,0.314367,0.887255,0.886896,-0.148151,0.437569
-0.587214,-0.274011,0.343666,0.078676,0.981672,0.173578
0.289125,0.639744,0.437803,0.773158,0.174378,-0.609769
0.587019,-0.305411,0.211165,-0.022951,-0.168108,0.985501
0.089272,0.398766,0.415752,-0.305709,-0.013993,0.952022
0.089272,-0.202572,0.207481,-0.392413,-0.835720,-0.384166
-0.056816,0.123016,0.934013,0.543538,-0.139840,0.827654
0.042188,-0.128708,0.310803,0.808182,0.499241,0.312411
-0.693870,-0.406987,0.504724,0.186148,-0.220484,0.957463
0.543134,-0.305516,0.210734,0.135038,0.472506,0.870921
0.351707,0.281807,0.586568,-0.295344,0.497296,0.815763
-0.063598,0.150203,-0.330487,0.930085,-0.349753,0.112319
-0.017875,0.206680,0.578054,0.853026,0.479816,-0.205240
-0.277306,0.577156,0.378345,0.834412,0.073114,0.546270
-0.331845,-0.005216,0.882591,0.913201,-0.275730,0.300062
-0.171034,0.147674,0.340245,-0.004172,-0.414784,0.909910
-0.286121,0.018281,0.887805,-0.345775,0.936632,-0.056214
0.521919,-0.405722,0.250221,0.829750,0.143696,-0.539320
-0.410510,-0.444497,-0.932219,0.108197,-0.157811,-0.981524
-0.468443,-0.309204,0.601756,-0.711090,0.624179,-0.323653
-0.195448,0.191296,0.798235,0.536275,-0.559695,-0.631784
-0.182269,0.216058,0.877903,0.586533,0.370111,-0.720415
-0.114555,0.140193,0.860802,-0.708258,-0.646937,-0.282566
-0.219082,0.206680,0.865323,0.392617,-0.679368,0.619928
-0.040059,-0.145882,0.499916,0.025706,0.677582,0.734998
0.392688,0.065697,0.523355,-0.185312,0.981997,0.036622
-0.757326,0.260206,0.529071,0.251696,-0.821519,0.511620
0.681470,0.860385,-0.113726,0.902123,0.402070,0.156569
0.196607,0.242715,0.064026,-0.661609,0.538770,0.521536
0.131992,0.565565,-0.068977,0.861526,-0.464045,0.206000
0.012352,-0.419103,0.691756,-0.523423,-0.524966,-0.671147
-0.291934,-0.641537,0.461649,-0.630036,-0.327814,-0.703983
-0.224604,0.099731,0.680730,0.855902,-0.005730,-0.517107
-0.213660,-0.072969,0.081868,0.254624,-0.663040,0.703949
-0.432695,0.726252,0.619598,0.019774,-0.626998,0.778770
-0.801790,0.163374,0.070316,0.955466,0.294722,0.014963
-0.226739,-0.388337,0.587620,0.777210,-0.605854,0.169957
-0.364691,0.686001,0.547727,-0.694475,0.678500,-0.239464
-0.096633,0.232705,0.790079,0.333431,-0.935931,-0.113388
0.805569,0.314577,0.444787,-0.621470,0.330052,0.710522
-0.675948,0.412465,0.724738,-0.695665,0.686745,-0.210786
-0.649500,0.418893,0.733348,0.137507,0.408878,0.902170
0.720708,0.215952,0.451699,-0.013960,-0.941193,0.337581
-0.069121,-0.042307,-0.564947,0.655689,-0.698545,-0.286543
-0.214145,0.215741,0.833297,0.738613,-0.367304,0.565277
-0.446548,-0.160213,0.783645,0.384507,0.899618,0.206981
-0.519010,-0.398030,0.593408,0.607480,-0.731007,-0.310799
-0.301525,0.210473,0.574705,-0.349941,-0.391365,0.851102
-0.566094,-0.300564,0.614073,0.875536,0.140556,0.462255
0.121822,-0.045362,0.685968,0.670441,0.735241,-0.099651
-0.300366,0.675675,0.421444,-0.062432,-0.408360,0.910684
-0.241367,0.399398,0.582478,-0.039459,-0.925620,0.376391
-0.300555,-0.441021,0.527636,0.625100,-0.379214,-0.682237
-0.125795,0.047889,0.925091,0.995080,-0.020001,-0.097033
-0.542649,-0.207418,-0.951424,-0.118803,0.307058,0.944246
0.028435,0.114482,0.843414,0.805798,0.117073,-0.580503
-0.306757,0.518992,0.776064,0.233281,0.955878,-0.178543
-0.733976,-0.570307,0.273110,0.267126,0.336549,0.902983
0.509709,0.390021,0.310038,-0.351789,0.932021,-0.087071
-0.394042,-0.111217,0.396403,0.586105,-0.064256,0.807683
0.207363,-0.256205,0.218770,0.451774,0.737855,0.501469
0.762074,0.719719,0.321925,-0.035837,0.493208,0.869173
0.227709,-0.339235,0.674846,0.640636,0.696342,0.323564
0.500798,-0.176755,0.219751,0.906949,-0.076160,-0.414299
-0.519010,-0.310153,0.615819,-0.177244,0.952417,0.247964
-0.295517,0.536273,0.787353,0.322780,-0.929926,-0.176212
-0.528796,0.231547,0.599699,0.167489,0.261088,-0.950674
0.506126,0.803698,-0.614599,0.843097,-0.536971,0.029145
-0.296292,0.548179,-0.185812,-0.442682,-0.852004,0.279504
-0.373696,-0.178338,0.682189,0.462809,-0.745121,0.480211
0.709468,0.243664,0.421133,0.760590,-0.177031,-0.624630
0.233811,-0.303620,0.286001,0.827907,0.477963,0.293464
-0.549816,0.445022,0.677095,0.854720,0.427222,0.294847
0.233521,0.180969,0.394776,-0.196750,-0.737673,0.645854
0.129573,-0.135662,0.467843,-0.671210,-0.025659,0.740823
0.001697,-0.179391,0.543828,0.945437,0.295788,0.136596
-0.196998,-0.456404,-0.920810,-0.011115,0.142564,0.989723
-0.495761,0.276749,0.605917,-0.015926,-0.812028,0.583402
-0.198836,0.060745,0.749564,0.178101,-0.243712,0.953354
0.353545,0.864916,-0.045323,-0.399179,0.867783,0.295990
-0.155241,0.248301,0.707326,0.833690,-0.219227,-0.506853
0.056526,-0.664612,-0.356533,-0.722127,-0.088007,-0.686140
-0.583726,0.178968,0.471335,-0.287955,-0.942871,0.167557
-0.345409,-0.523102,0.462055,0.014454,0.777474,0.628749
-0.284087,0.506558,0.602593,0.590886,0.171910,-0.788226
-0.185178,0.527633,0.569611,-0.769459,0.562958,-0.301680
-0.393362,0.284336,0.638684,0.013383,-0.708513,0.705571
0.242916,0.819608,0.322379,-0.047611,0.996066,-0.074738
0.302204,0.106159,0.490876,-0.115291,0.977833,-0.174789
0.898666,0.223118,0.487551,0.183295,0.982997,-0.010943
-0.069801,-0.196250,0.666762,-0.413850,0.661681,-0.625225
0.317217,0.754491,0.662912,-0.079590,0.474352,0.876730
-0.705305,0.311521,0.671259,0.615693,-0.771759,0.159091
-0.345799,0.744481,0.619048,-0.489004,-0.106428,-0.865764
-0.398205,-0.789474,0.500538,0.820650,0.062146,0.568041
0.548657,0.911068,0.259262,-0.412607,0.899376,0.144495
0.716829,0.223644,0.448590,0.218134,-0.966320,0.136537
-0.089272,0.240820,0.751788,0.555357,0.355544,0.751776
0.062918,0.293083,0.858865,-0.534672,0.804131,-0.259805
0.083264,0.355460,0.642056,0.804326,-0.529492,-0.269625
-0.291839,0.408355,0.677453,-0.659446,-0.322269,-0.679171
0.286896,0.497707,-0.982588,0.015769,0.139626,0.990079
0.355100,0.473579,-0.266939,-0.472971,0.870589,-0.135549
0.631389,0.808439,0.320801,0.979830,0.186243,-0.072429
0.058951,0.753015,0.303198,0.398415,-0.800464,0.447797
0.158056,-0.243666,0.247806,0.862557,0.497900,0.089952
-0.276436,-0.509827,0.583722,0.934415,-0.353091,-0.046864
0.085689,-0.052000,0.497620,0.058357,-0.899395,0.433224
0.315668,0.636162,0.576858,0.212958,0.435338,0.874717
-0.077647,0.263263,0.745545,-0.714456,-0.478552,-0.510431
0.437052,0.142300,0.601469,-0.089032,0.802826,0.589528
-0.521044,-0.353459,0.627347,0.967165,-0.243361,-0.073258
-0.151173,0.093198,0.762766,-0.840994,0.214834,0.496563
0.089561,0.558610,0.490613,-0.728565,-0.079098,0.680395
-0.074354,-0.056742,-0.266007,0.997556,-0.069367,0.008335
0.052364,0.107950,0.687570,0.974949,0.083302,-0.206241
0.563864,0.088983,0.643252,-0.750464,0.322387,0.576949
0.179850,0.735313,0.062878,0.050064,-0.947749,0.315064
-0.658611,-0.356094,0.612901,0.734957,-0.167909,0.656997
0.288930,0.237025,0.493506,0.786230,-0.432113,-0.441725
-0.177426,0.229123,0.873550,-0.914324,0.262917,0.308037
0.244270,0.296348,0.547535,0.864786,0.345000,0.364857
-0.803050,0.307834,0.161441,0.763986,0.368238,0.529836
-0.443639,-0.907592,0.304537,0.495138,0.755128,0.429674
-0.382902,0.478635,0.681041,-0.008114,-0.984235,0.176680
-0.374376,0.593699,-0.983138,-0.133066,-0.093389,-0.986698
-0.617050,-0.716558,0.296549,0.352770,0.025166,0.935372
-0.553209,0.276855,0.104542,-0.495651,-0.723090,-0.481114
0.416807,0.520467,0.297697,0.870381,-0.346807,-0.349516
0.098377,0.309625,0.726125,-0.190026,0.782145,0.593413
-0.255410,0.453769,0.750520,0.622050,0.722005,-0.302922
-0.360717,0.544175,0.257683,0.499976,-0.085297,-0.861829
0.072609,0.187608,0.764225,-0.360137,0.931231,0.055762
0.085493,-0.413309,0.703619,0.945443,-0.280322,0.166002
-0.130443,-0.280122,0.432685,-0.687290,0.725028,-0.044346
-0.415257,-0.819293,0.496974,0.780509,0.220469,0.584977
0.013517,-0.340498,0.686661,-0.486324,0.234354,0.841764
0.740859,0.501922,-0.275406,0.876752,0.343473,0.336648
-0.490918,0.880301,0.445887,-0.444581,-0.462476,0.767114
0.464180,0.091828,0.473057,0.070374,-0.981298,-0.179172
-0.300170,0.670617,0.395542,-0.078208,0.978403,0.191338
-0.365075,0.610135,0.594413,0.369792,0.697979,-0.613253
0.079101,-0.283283,0.575710,0.742263,0.410724,-0.529482
-0.271203,-0.394552,0.530985,-0.268673,0.572692,0.774492
-0.146526,-0.158422,-0.920260,-0.046122,-0.739640,0.671420
-0.286216,0.403403,-0.971300,0.100528,0.156874,0.982489
0.408475,0.102575,0.236301,-0.424373,0.899761,0.101677
0.428916,-0.434803,-0.292315,0.860858,-0.299277,-0.411529
0.203975,0.743111,0.249671,-0.095559,-0.340263,0.935462
-0.334364,0.446077,0.571333,0.693834,0.486481,-0.530971
0.407317,-0.458195,0.220779,-0.163560,0.050557,0.985237
-0.619953,0.309940,0.634450,0.740755,-0.640000,0.204161
-0.008479,0.139138,0.757121,-0.208708,0.119005,-0.970710
-0.264422,0.014383,0.883595,-0.250906,-0.473517,0.844292
0.424269,-0.355462,-0.053718,0.043431,-0.348616,0.936259
0.805569,0.156314,0.332544,0.135709,0.972933,0.187043
-0.101381,0.549759,0.267346,-0.048868,-0.944010,0.326277
0.356649,0.306148,0.763866,0.735538,0.677329,-0.014478
-0.586534,0.200885,-0.224797,0.182643,0.982628,0.032930
-0.626540,0.327221,0.672215,-0.007087,-0.998164,-0.060149
-0.361392,0.485380,0.235991,0.988364,0.150978,-0.018474
0.264711,0.180548,0.587046,-0.436129,0.878065,0.196960
0.495861,-0.334176,0.215326,0.077363,0.546749,0.833715
0.655218,0.368421,-0.388128,0.041414,-0.951202,0.305776
-0.277110,0.120594,0.855373,0.963846,-0.185487,0.191301
0.507675,0.524049,-0.114707,0.975015,-0.221444,0.017542
0.330296,0.207418,0.574275,-0.746823,0.494762,0.444371
-0.317217,0.898529,-0.983449,-0.029413,0.053008,0.998161
0.061759,-0.270429,0.622731,0.819790,0.455629,-0.346909
-0.308502,-0.207524,0.556720,-0.440744,-0.572831,-0.691093
0.791526,0.204993,0.466313,0.400481,0.772005,-0.493581
0.789781,0.690216,0.437660,-0.421795,-0.325907,0.846093
0.413903,0.658710,0.583602,-0.102138,-0.669150,0.736075
-0.106129,0.309940,0.894454,0.915579,0.351630,-0.195119
0.477744,0.374111,0.324627,0.271497,-0.845278,0.460212
-0.061080,-0.030820,0.734209,-0.792170,-0.598506,0.119404
0.646502,0.263473,0.305470,-0.111538,0.752741,0.648799
0.165417,0.380854,0.521035,0.944205,0.178267,-0.276943
-0.030368,0.170328,0.402526,0.768140,0.244811,0.591633
-0.008864,-0.151573,0.678984,0.698314,-0.296275,0.651597
0.436762,0.604445,0.452393,-0.333118,0.852978,-0.401822
-0.129958,-0.133660,0.232403,-0.403385,0.905493,0.131769
0.199516,-0.298879,0.657961,-0.676266,0.136153,0.723966
0.219277,0.884621,0.267394,-0.225973,-0.812931,0.536731
0.110392,-0.095938,0.467939,-0.645040,0.104485,0.756972
0.283313,0.765871,0.623568,0.949395,-0.006323,0.314021
-0.563185,0.670511,-0.247447,0.535980,0.773300,-0.338722
-0.735236,-0.389917,0.506517,0.058311,-0.130846,0.989686
0.719933,0.285285,0.270838,0.392023,-0.899903,-0.191029
-0.338917,-0.228386,-0.943962,-0.046612,0.178847,0.982772
-0.749769,-0.083401,0.300854,0.999045,0.042992,0.007856
-0.009638,0.001316,0.810241,0.970406,-0.099690,-0.219942
-0.257740,-0.602024,0.466504,0.334376,0.427142,0.840085
0.603971,0.151466,0.442132,0.064418,-0.937056,0.343186
0.751514,0.566829,0.409246,0.757545,0.165792,-0.631378
0.193798,-0.312786,0.509005,0.582581,0.791539,0.184568
-0.260448,0.429218,0.603191,0.472080,0.579363,-0.664439
-0.085979,0.397081,0.352826,0.289379,0.939604,0.182767
-0.376605,0.237342,0.564062,0.012707,-0.809801,0.586567
-0.244661,0.655759,-0.339815,0.286368,-0.095916,0.953307
-0.290674,-0.641852,0.315730,0.689810,-0.458774,-0.560080
0.054398,-0.108794,0.553419,0.950547,0.192004,-0.244120
-0.650570,-0.196144,0.355074,0.135493,-0.575388,0.806579
-0.172199,-0.659449,0.233001,-0.072861,0.985012,0.156345
-0.402858,-0.090460,0.625529,0.330876,-0.878455,0.344728
0.693970,0.497286,0.388391,0.639927,0.724799,-0.255264
0.107578,-0.406353,0.312908,-0.327164,-0.876073,0.354204
-0.222375,-0.656816,0.197101,0.672331,0.740066,-0.016525
0.224799,0.136294,0.273397,0.013895,-0.955942,0.293227
-0.299201,0.473894,0.701897,0.707095,0.655933,-0.264137
0.024266,0.118064,0.608428,0.894182,-0.191111,-0.404864
-0.264037,0.504030,-0.235417,0.440423,0.880090,-0.177392
-0.268004,-0.825090,0.272082,0.507584,0.773555,-0.379436
-0.146136,-0.358306,0.752529,-0.421847,0.904913,0.056366
0.259673,0.779463,0.530985,0.573002,0.018850,-0.819337
-0.287671,0.472524,0.216331,-0.346435,-0.141625,0.927322
0.149045,0.384436,0.492574,0.924284,0.355432,0.139168
-0.317318,-0.021442,0.716486,0.370003,-0.865188,-0.338449
-0.409640,-0.708552,0.444668,-0.369718,0.129190,0.920119
0.426787,0.190242,0.518763,-0.486379,0.298807,0.821067
-0.042383,0.229650,0.877377,-0.293528,-0.523774,-0.799688
-0.593896,0.794847,0.142068,0.773539,-0.441185,0.454965
-0.481327,0.202676,0.499916,-0.056149,0.623923,-0.779466
-0.051489,0.145672,0.931693,0.036897,-0.107901,0.993477
-0.025916,0.150939,-0.268709,0.916018,0.244141,-0.318287
0.180625,-0.046100,0.463323,-0.282295,0.073965,0.956472
-0.180046,0.277487,0.898902,0.995755,-0.081584,0.042615
-0.720802,-0.176230,0.263567,0.889060,-0.265642,0.372836
0.179365,0.690110,0.192581,-0.607965,0.793950,0.004622
0.005375,0.737632,-0.445218,0.634319,0.680711,0.366433
0.084039,-0.204257,0.585659,0.969131,0.228108,-0.093549
0.082005,0.057689,0.320275,-0.304956,0.951749,-0.034293
0.799467,0.653232,0.427208,0.678130,0.325838,-0.658763
0.058365,0.515515,0.653919,0.238849,-0.964714,-0.110802
0.624897,-0.220063,0.237569,-0.102321,0.485201,0.868396
0.755871,0.161160,0.323360,-0.556207,-0.698964,0.449536
-0.098088,0.774932,0.168329,0.471350,0.869150,0.149689
0.066023,0.056425,0.925020,-0.633592,-0.653078,-0.414790
-0.414773,-0.424055,0.247806,0.288475,-0.214919,0.933055
0.156985,0.093724,0.895291,0.361207,-0.860912,-0.358273
0.049165,0.243664,0.840879,-0.595533,0.778607,-0.197764
-0.088302,0.164848,0.948530,0.539472,-0.824294,-0.171780
-0.256286,0.680944,0.377437,-0.660774,-0.008535,-0.750536
-0.133056,0.096674,0.950491,0.334107,-0.926287,0.174257
0.064473,0.549970,0.239076,-0.215613,0.840263,0.497462
-0.075802,0.244612,-0.307383,0.919950,-0.390871,0.030213
-0.808478,0.505400,0.579823,0.498321,0.674293,-0.544982
0.240977,-0.352299,0.510942,-0.092242,0.904042,0.417372
-0.412644,0.184026,0.526345,-0.583478,0.608665,0.537661
-0.398016,0.662609,-0.190189,0.758583,0.600877,-0.251987
0.445383,-0.552922,0.229102,0.734658,0.168883,-0.657082
-0.026105,0.222063,0.689675,0.543892,0.716326,0.437102
-0.317412,-0.135030,-0.671139,-0.553337,0.292059,0.780077
0.118333,0.513934,0.416517,-0.096715,0.332186,0.938242
0.487914,0.238395,0.518428,0.489476,0.606495,-0.626560
0.262777,0.259891,0.754945,0.053675,-0.891509,0.449812
0.528411,-0.284442,0.050059,0.018411,0.731480,0.681614
0.494696,-0.374638,0.235082,-0.475773,0.479532,0.737353
0.152432,0.355565,0.403889,-0.042751,-0.384812,0.922005
-0.158440,0.315947,0.385473,0.411917,0.380426,-0.828010
-0.097893,-0.129761,0.760302,0.595945,0.072415,-0.799753
-0.132282,0.340919,0.502428,0.366235,-0.905851,0.212852
0.800147,0.277172,0.467772,-0.647360,0.683698,0.336872
-0.117074,0.613402,0.638660,0.429188,-0.244886,0.869384
0.207073,-0.423108,0.193777,0.199894,-0.860713,0.468205
0.445194,0.608976,0.452225,0.943633,-0.275299,0.183759
-0.522498,0.266213,0.611585,-0.054644,-0.738286,0.672271
-0.770890,0.153468,0.540862,0.603179,0.787403,-0.127167
0.733107,0.239344,0.579441,0.335134,0.937635,0.092339
0.014871,0.069489,0.937217,-0.472467,-0.615140,-0.631172
0.796368,0.514251,-0.322547,0.984186,-0.156530,0.082927
0.037736,-0.029030,0.658678,-0.537727,-0.082111,0.839111
-0.586144,-0.686951,-0.551984,-0.403750,0.479085,0.779400
0.479973,0.874400,-0.492358,0.790726,-0.610992,-0.037952
-0.476869,0.866709,-0.472268,-0.605904,-0.790133,-0.092578
-0.678756,0.382330,0.698070,-0.498649,0.818937,-0.284063
-0.379609,0.226279,0.430724,-0.070874,-0.987317,0.142065
-0.274692,0.687581,0.595130,0.271327,0.646662,0.712888
-0.590602,-0.285708,0.606156,0.347777,0.666291,0.659626
0.648630,0.482534,0.363182,0.597455,0.704951,-0.382219
0.652025,-0.234815,0.232905,-0.391242,0.219920,0.893624
0.511453,0.244506,0.599316,-0.727151,-0.646847,0.229872
-0.137999,0.182445,-0.962355,-0.012034,0.400964,0.916015
-0.249598,-0.273485,-0.673387,-0.328924,0.366209,0.870459
0.054398,-0.007746,0.628782,-0.658289,-0.119197,-0.743268
0.263452,-0.536590,0.333788,-0.280549,0.734187,0.618274
-0.059436,-0.298668,0.367152,0.899966,-0.381979,-0.210125
0.806828,0.274854,0.477195,-0.539349,0.706108,0.458818
0.168710,-0.358200,0.613666,0.826867,-0.052195,-0.559971
-0.290580,0.689795,-0.474158,0.738999,0.618217,-0.267745
-0.038605,-0.063063,0.382483,0.896162,-0.423407,0.132739
-0.668781,0.420367,0.723015,-0.695665,0.686745,-0.210786
-0.133831,0.061481,0.940255,0.741580,-0.275143,0.611846
-0.580621,0.085611,0.608691,-0.562049,0.255487,-0.786656
0.263357,0.245455,0.781684,-0.504320,0.151731,0.850082
0.385906,0.813076,0.460716,-0.516186,0.184933,0.836272
0.795298,-0.108373,-0.076487,-0.095163,0.544472,0.833363
0.152533,0.330488,0.683767,0.885859,-0.447296,-0.123209
-0.027465,0.324481,0.303987,-0.292328,-0.461034,0.837849
-0.409155,-0.013329,0.716175,-0.170366,0.952561,0.252196
0.478809,0.088772,0.510942,-0.058047,0.651619,0.756322
0.267620,-0.344714,0.647653,0.887233,-0.427359,-0.173732
0.727005,0.262208,0.457081,-0.543423,0.606365,0.580528
0.117848,0.083188,0.528736,0.089405,-0.716624,0.691706
-0.286121,-0.371160,0.510870,-0.597617,0.516770,0.613028
-0.015740,0.086981,-0.262347,0.976464,0.027488,0.213923
0.355100,0.685896,-0.222908,0.254104,-0.698608,0.668863
-0.270524,0.573151,0.416996,-0.074450,-0.362804,0.928887
-0.546623,0.130182,0.311258,-0.337090,0.927643,-0.160774
-0.994767,0.453663,0.495252,0.894979,0.221210,-0.387399
0.459627,0.176439,0.412188,-0.246298,-0.672598,0.697817
0.115909,-0.293189,0.669321,0.306979,0.802834,0.511098
0.273042,0.463462,0.393007,0.444976,-0.877689,-0.177925
0.068831,-0.306043,0.556433,0.821998,0.535714,-0.193208
-0.225089,-0.454930,0.534429,0.423458,0.160601,0.891566
-0.008958,-0.696329,0.209706,0.666583,-0.406364,0.624929
0.617435,0.069068,0.651766,-0.674961,0.721379,0.155050
-0.309956,-0.808019,0.319103,-0.320647,-0.032812,-0.946630
0.158150,-0.361046,0.502523,0.539282,-0.789794,-0.292234
-0.151463,0.134186,-0.417570,0.964491,-0.236217,-0.118146
-0.448677,-0.958381,0.337615,0.540064,0.681071,0.494442
0.155631,0.469890,0.360192,-0.595241,0.551408,0.584498
0.172099,0.549548,0.575375,0.988551,-0.128721,-0.078721
-0.281184,0.540487,0.247566,0.803892,0.528035,-0.273744
-0.964541,0.468414,0.165052,0.875380,-0.440170,-0.199900
0.785613,0.834781,0.442730,-0.703793,-0.593782,-0.389997
-0.501478,0.608450,0.106049,-0.437694,-0.686230,0.580959
0.150014,0.182339,0.406592,0.768917,0.406458,0.493516
0.203584,0.876823,-0.058406,0.730143,-0.680230,0.064644
-0.471447,0.416258,-0.974983,-0.176314,0.113601,0.977757
-0.570357,-0.289184,0.180287,0.806194,0.591626,0.005501
-0.024266,-0.115748,0.350960,0.845016,0.363450,0.392241
0.304238,-0.560086,0.372366,0.258705,0.933734,0.247413
0.779996,-0.463781,0.264667,-0.184055,-0.218680,0.958281
-0.127634,0.194247,0.717802,0.781350,-0.430771,-0.451585
-0.035601,-0.056214,-0.191026,0.892762,-0.395893,0.215045
0.624607,0.754595,0.329602,0.937312,-0.104034,-0.332601
0.243596,0.040829,0.503432,0.155512,0.915633,0.370718
0.342506,-0.223435,0.191050,0.555105,0.002979,0.831775
-0.829593,0.102681,0.211882,0.993407,0.091223,-0.069431
0.161154,-0.548812,0.505058,-0.787584,0.460864,0.409044
-0.214919,0.419524,0.762383,0.812466,0.568774,-0.128045
0.241751,-0.593067,0.636029,0.905781,0.293717,-0.305437
-0.099927,-0.258628,0.383870,-0.340449,0.857446,0.385850
-0.676628,0.401295,0.244696,0.902020,-0.330813,-0.277348
-0.407411,0.334281,0.786779,0.804322,0.592023,0.050749
0.057691,-0.371371,-0.267561,0.994922,0.098908,0.018656
