-0.015921,-0.175433,0.968889,-0.760995,0.348567,0.547163
0.079618,0.160167,0.788088,0.891307,-0.280869,0.355927
0.240967,-0.414986,0.573347,0.763105,0.448396,-0.465416
-0.230788,0.149251,0.577550,0.745838,0.656475,0.112991
0.386322,-0.117659,0.674334,0.626824,0.779061,0.012497
0.497193,-0.682598,0.550098,0.145675,0.187650,0.971373
-0.403896,-0.220292,0.875686,0.420098,0.752220,0.507624
-0.434553,0.185416,0.462033,-0.676410,-0.466733,0.569763
0.280475,-0.186707,0.657235,0.045579,0.243284,0.968884
-0.213480,0.021139,0.666005,0.365575,0.758453,0.539540
0.047772,0.152304,0.716421,0.954233,-0.027461,0.297799
-0.866534,-0.219353,0.539408,-0.653118,0.603006,-0.458061
0.003767,-0.299316,0.457933,0.522818,0.466432,0.713514
0.305978,0.698917,0.476849,-0.668723,0.467639,0.578034
-0.143177,-0.361433,0.846314,0.504529,-0.459964,0.730674
0.413413,-0.260922,0.737516,0.361478,-0.608407,0.706523
0.029403,-0.112140,0.903164,-0.508222,-0.535518,-0.674485
0.568681,-0.118010,0.666057,-0.644754,0.738182,-0.198442
-0.159167,-0.232268,0.913855,-0.882693,0.091650,0.460928
0.422794,-0.751288,0.573217,-0.070444,0.850855,0.520657
-0.673471,-0.445861,0.252066,0.621754,0.766436,0.161239
-0.447901,-0.062938,0.657468,-0.391609,-0.826019,-0.405383
-0.074992,0.031467,0.761465,0.325650,0.352241,0.877427
-0.328444,-0.744479,0.566678,0.261719,-0.754724,0.601577
-0.039182,-0.096287,0.779266,-0.119557,0.381143,0.916753
-0.534060,-0.328436,-0.089921,0.701706,0.668219,-0.247168
-0.340337,-0.218177,0.341974,0.015470,-0.296073,0.955040
0.493890,0.397483,0.341014,0.837032,-0.486980,0.249456
-0.459004,-0.290042,0.387979,0.224758,0.946991,0.229547
-0.183085,0.114727,-0.951971,-0.232901,0.208596,0.949866
-0.850411,-0.199271,0.535723,0.310381,0.308312,0.899226
0.428347,-0.748234,0.518987,-0.043515,-0.920447,0.388438
-0.732538,0.057304,0.642523,0.358538,-0.321662,0.876347
-0.097721,-0.451853,-0.267531,-0.507838,0.629541,-0.588029
-0.537097,0.143260,-0.964063,-0.267042,0.348245,0.898562
0.063233,0.219940,0.681158,0.961099,0.202530,0.187805
-0.302014,0.438587,0.535490,-0.514798,-0.389541,0.763702
-0.543307,0.383393,0.677811,-0.534050,0.105112,-0.838894
-0.496927,0.447746,0.542210,-0.742058,0.500942,0.445430
0.441163,0.776186,0.277391,0.226831,-0.552971,0.801730
0.397819,-0.162633,0.743873,0.908105,0.291221,0.300891
-0.065475,-0.082196,0.835857,0.620559,0.462634,-0.633148
0.503270,0.389270,0.418363,0.330624,0.552540,-0.765106
0.427157,-0.370829,0.209668,0.886558,0.301895,0.350534
-0.360291,0.133046,0.654562,-0.239968,0.316386,0.917777
0.491773,-0.274303,0.668937,-0.270992,-0.212424,0.938850
-0.508291,-0.789216,0.327158,-0.224966,0.422634,0.877935
-0.092962,-0.124238,0.659077,0.837488,0.182202,-0.515185
-0.406276,0.490132,0.510165,0.806499,0.086059,0.584939
-0.682456,0.235672,0.375264,0.848070,-0.511890,-0.136913
-0.621933,0.166273,-0.688527,-0.420969,-0.732638,0.534815
0.005485,-0.129284,0.762374,-0.099440,-0.524360,0.845671
0.328972,0.327145,-0.940477,-0.141185,0.246938,0.958691
-0.081465,-0.030650,0.694859,0.481134,-0.819685,-0.310848
-0.682722,0.559654,0.310448,0.786499,-0.552036,-0.276904
-0.059003,-0.138680,0.953425,0.950526,-0.095726,0.295527
0.171326,-0.439877,0.761699,0.765072,0.277361,-0.581150
-0.172511,-0.283111,0.881369,-0.349845,-0.925821,-0.143054
0.076843,0.117658,0.539953,0.033080,0.067185,0.997192
-0.620877,-0.334664,0.574099,-0.475732,0.503568,-0.721179
-0.131418,-0.144901,0.739281,-0.391291,-0.886147,0.248261
0.039444,0.572096,0.557467,0.653248,0.183036,-0.734687
-0.018434,-0.138795,0.956227,0.715765,0.362706,-0.596762
-0.354742,0.580667,0.547711,0.514881,-0.698657,0.496766
-0.294352,-0.016323,0.723634,0.231700,-0.564807,0.792028
-0.191937,0.160288,-0.956772,-0.235683,0.216301,0.947453
-0.534060,-0.598399,0.372099,0.862317,-0.502819,0.059857
0.019095,0.226749,0.812530,0.744307,0.623481,-0.239328
-0.573835,0.321512,0.658740,0.398710,-0.660764,0.635941
0.290650,-0.661340,0.419168,0.583052,0.737802,-0.340145
-0.548199,-0.603215,0.352249,0.872320,-0.483667,-0.071584
0.552563,-0.269257,0.747428,0.253668,-0.524349,0.812841
0.428476,-0.331375,0.645247,0.886117,0.406064,0.223401
0.312983,-0.003874,0.583285,-0.421218,0.544654,-0.725208
-0.068383,-0.172028,0.741668,0.774710,0.235091,-0.586989
-0.175948,-0.143611,0.510606,-0.477376,0.791079,-0.382500
0.744697,-0.003523,0.366183,-0.057264,0.651923,0.756120
0.036669,-0.222642,0.803760,-0.226959,-0.341300,0.912142
-0.711000,-0.502467,0.561437,0.647050,-0.014727,0.762305
-0.230260,0.276539,0.509049,-0.432218,-0.124477,0.893137
0.266732,-0.271135,0.685933,0.124508,0.975884,0.179299
-0.639512,0.604039,0.298875,-0.631155,0.737947,0.238908
-0.194183,0.006461,0.834689,0.161197,-0.986483,-0.029429
-0.426758,0.011858,0.825686,0.752442,-0.528944,0.392491
-0.055038,-0.162869,0.836739,-0.102251,0.944593,-0.311912
-0.423983,0.729449,0.266259,-0.035481,-0.999143,-0.021326
0.203700,-0.484965,0.442806,-0.399326,0.586551,-0.704626
-0.770728,-0.200683,0.572620,0.732756,0.420464,-0.535050
-0.300824,0.009980,0.680743,0.762459,0.263333,0.591026
-0.189296,-0.678484,0.376406,0.902675,-0.381171,-0.199715
0.553619,0.378462,0.626902,-0.508886,0.691789,0.512311
-0.549917,0.253754,0.650125,0.423461,-0.281076,0.861207
0.012356,0.095935,0.753266,-0.112874,-0.884604,0.452476
0.333598,0.723930,0.476200,0.660688,-0.158412,-0.733755
-0.302409,-0.691048,0.549397,0.082129,-0.109513,0.990587
-0.411034,-0.426725,0.709934,0.410486,-0.885368,0.218232
-0.581497,-0.136802,-0.960949,-0.223082,0.154905,0.962413
-0.445917,0.463951,0.632196,0.885356,0.392504,0.249171
-0.116090,0.152770,0.489148,-0.102454,0.607208,0.787910
-0.970928,-0.174967,0.450097,0.170157,-0.961533,-0.215639
0.599338,0.108736,0.488136,0.266833,0.147392,-0.952405
-0.552296,-0.481446,0.714163,-0.152895,0.930109,0.333946
-0.127188,-0.170387,0.845509,-0.038738,0.187918,0.981421
0.022268,0.533228,0.519117,-0.448606,-0.856105,-0.256586
-0.007465,0.025949,0.758508,-0.608297,-0.344988,-0.714813
-0.423189,0.170853,0.694651,-0.516070,0.680981,0.519554
-0.349588,0.253640,0.608661,0.873990,0.095244,0.476519
-0.033367,0.155121,0.793251,0.575787,0.609197,-0.545297
-0.101157,-0.789689,0.295943,-0.241768,-0.933610,-0.264423
-0.019228,-0.130932,0.941774,0.736662,-0.660763,0.143947
0.112521,-0.103454,0.753085,0.787670,0.616097,0.000874
0.142254,-0.168502,0.609725,0.874705,-0.370545,-0.312390
0.318003,-0.104271,0.635984,-0.020943,-0.999271,0.031925
-0.175290,-0.175555,0.854357,-0.000755,0.855983,0.517003
-0.363198,0.311650,0.567042,0.803115,-0.574302,-0.158690
-0.717738,-0.213361,-0.074923,0.893008,0.410025,-0.185518
-0.029136,-0.270196,0.792213,0.930557,0.041523,-0.363786
0.114106,-0.195278,0.833807,0.750668,-0.197301,-0.630531
0.009977,-0.147488,0.765591,0.242090,0.636351,-0.732427
-0.195111,-0.095348,0.773531,0.219328,0.650258,-0.727365
-0.507497,-0.472752,0.369063,-0.523112,0.491679,0.696136
-0.482922,-0.219818,0.577654,0.768266,-0.029828,-0.639436
-0.358835,-0.376936,0.587670,0.925893,0.247237,-0.285651
-0.425568,-0.862378,0.357101,-0.189977,0.639865,0.744635
-0.356460,0.498826,0.545116,0.544532,0.713612,0.440730
0.127716,0.717473,0.369712,-0.221797,0.048302,0.973896
0.018962,-0.060236,0.709130,0.143852,0.771289,0.620017
0.065213,-0.273722,0.856485,-0.523795,0.539614,-0.659132
-0.627882,-0.302491,0.411824,0.756754,-0.646469,-0.096961
-0.302409,-0.021254,0.643586,0.170513,0.638398,-0.750582
-0.460455,-0.576210,0.641044,0.549153,0.524853,0.650354
0.369542,-0.155709,0.429391,-0.102705,0.984373,-0.143047
-0.212685,0.691872,-0.981266,-0.053297,0.144211,0.988111
0.036536,0.337244,0.570545,-0.381926,-0.690715,0.614040
-0.051074,-0.370829,-0.755757,-0.821865,-0.563623,0.082863
-0.072480,-0.873766,0.415457,0.412358,0.265809,0.871382
0.449357,-0.505635,0.510917,0.227275,-0.866100,-0.445215
-0.299635,-0.091119,0.780225,0.298630,0.922241,0.245542
0.479091,-0.181539,0.673789,-0.536527,-0.115307,-0.835968
-0.661313,-0.476042,-0.948365,-0.269954,0.203816,0.941055
-0.014074,0.302018,0.554354,-0.632694,0.225438,0.740862
0.411829,-0.224169,0.748154,0.273589,-0.734697,0.620781
-0.174229,-0.516787,0.752358,-0.609108,0.728194,0.314199
-0.219557,-0.706077,0.491924,-0.213576,0.974246,0.072325
0.055434,-0.229566,0.807393,0.503408,0.729888,-0.462433
-0.107367,0.109209,0.344257,-0.422941,0.734601,-0.530549
-0.109746,-0.050138,0.755835,0.985990,-0.096627,-0.135970
0.545163,-0.673316,0.537747,0.994821,-0.017854,0.100057
-0.537625,-0.228161,0.665071,-0.285798,0.465585,-0.837586
0.515429,-0.719000,0.525318,0.948862,0.058109,-0.310297
-0.660784,-0.160289,-0.962740,0.194780,-0.131019,-0.972057
-0.384999,-0.615428,0.547399,0.907539,0.351304,-0.230126
-0.639379,-0.964888,0.366857,-0.062190,0.890267,0.451172
-0.055962,0.120482,0.503237,-0.395834,0.787390,0.472581
0.084377,0.186470,0.536346,-0.608024,0.730377,-0.311218
-0.480014,0.530763,-0.979865,-0.175157,0.194499,0.965137
-0.025700,0.650303,0.556663,0.455968,0.141133,-0.878735
-0.603830,-0.098523,0.579315,-0.303213,0.912112,-0.275889
0.041295,-0.217941,0.628122,-0.111184,0.993779,0.006412
0.290521,-0.125292,0.769198,0.526360,0.828130,-0.192731
0.118469,0.171913,0.530118,-0.536881,0.829376,0.154579
-0.233434,-0.508101,0.604484,0.663983,0.747748,-0.000415
-0.527850,-0.358380,0.634116,-0.127841,0.638622,0.758827
0.183879,0.341946,-0.934275,0.185885,-0.176483,-0.966592
0.424382,-0.537457,0.500876,-0.216065,0.239964,0.946432
-0.868518,-0.285813,0.532532,0.293214,-0.457855,-0.839282
0.664752,-0.163105,0.385202,-0.115433,0.842009,-0.526969
-0.141988,-0.000942,0.655159,0.458788,-0.495737,-0.737400
0.131152,-0.274891,0.858872,-0.229065,0.953672,-0.195038
0.594583,-0.087364,0.086132,0.570347,-0.748478,0.338356
-0.032705,0.265853,0.826568,0.265689,0.880942,-0.391601
-0.103931,0.143610,0.519480,0.714477,0.053671,-0.697598
0.065741,-0.680484,0.631988,0.194324,0.825812,-0.529408
0.691707,-0.119071,0.651423,-0.269979,0.461233,0.845207
0.495738,-0.132573,0.582818,0.754454,-0.652669,0.069444
-0.475784,0.115193,-0.962298,0.182383,-0.301138,-0.935977
-0.553087,-0.135153,0.370490,0.817492,-0.157031,-0.554119
-0.560358,-0.417329,0.501810,0.285485,0.904295,0.317408
-0.307962,-0.778888,0.559050,0.628542,0.775656,-0.057390
0.427157,-0.118949,0.669690,0.293449,0.915494,0.275241
-0.094152,-0.686468,0.524981,0.481386,-0.871566,-0.092956
0.432311,-0.121887,0.825400,0.054885,0.916977,0.395146
0.427948,-0.249885,0.748051,-0.109558,-0.786229,0.608146
-0.858077,-0.211247,0.533180,0.371872,-0.250397,-0.893875
-0.335579,-0.397484,0.681963,0.108972,0.360211,0.926484
0.272285,0.236145,0.569533,-0.551669,-0.756126,-0.352043
-0.609117,-0.427779,0.551940,-0.607559,0.677917,-0.413885
-0.140536,-0.122826,0.919382,0.908014,-0.401507,0.119595
0.167361,-0.036871,0.697765,0.505872,0.051649,0.861061
0.211234,0.686238,0.491016,-0.589418,-0.592978,-0.548602
-0.131813,-0.490720,0.468441,-0.143052,-0.202608,0.968755
-0.534851,-0.116483,0.686556,0.454627,-0.885173,0.098913
0.155469,-0.192698,0.880668,-0.818276,-0.433730,-0.377229
0.377337,-0.316345,0.396982,0.257561,0.854179,0.451709
0.601056,0.491781,0.307957,-0.534952,0.181180,0.825227
-0.137891,-0.637388,0.632507,0.778914,0.062656,0.623993
-0.174100,-0.003286,0.758144,0.080532,0.973742,0.212935
0.151767,-0.086310,0.383801,0.764232,0.557752,0.323824
-0.236208,-0.314231,0.455027,0.514586,-0.624192,-0.587866
0.196696,0.026536,0.586606,-0.227679,0.663190,0.712980
-0.755005,-0.139970,0.547581,0.886583,-0.461901,-0.024837
-0.199337,-0.295446,0.738969,0.970100,-0.196093,-0.143018
0.105915,-0.328085,0.889802,0.415659,-0.789360,-0.451817
0.390552,-0.565287,0.596466,0.952754,0.276643,-0.125414
-0.026362,0.258693,0.810870,-0.299777,-0.854761,0.423696
-0.358178,-0.286874,0.654744,-0.355964,0.210749,0.910426
0.550050,-0.043565,0.614110,0.847016,-0.085212,-0.524693
-0.102476,-0.504811,0.578718,0.487152,0.870809,0.066144
0.273604,-0.033933,0.553004,0.065151,-0.725720,0.684898
0.161812,0.517023,0.603160,0.555517,0.527506,-0.642758
0.099306,0.178837,0.509335,-0.567332,-0.654240,0.500104
-0.539081,0.676370,0.348046,-0.503467,0.857889,0.102700
-0.368086,0.075738,-0.957965,-0.217914,0.130897,0.967150
-0.001254,-0.071395,0.885001,0.979132,-0.089377,-0.182515
0.672681,0.228863,-0.103050,0.770893,-0.315351,-0.553424
-0.079747,-0.125994,0.100092,0.157479,-0.980382,-0.118541
0.369937,-0.097462,0.826775,0.605511,0.791604,-0.081975
0.383414,-0.090538,0.815825,0.821735,0.498771,-0.275644
-0.500759,0.389034,0.534815,0.172699,-0.893292,0.414976
0.078561,-0.099813,0.814969,-0.141065,0.902286,-0.407408
-0.512651,-0.101454,-0.959081,-0.191815,0.125402,0.973386
-0.682456,-0.393377,0.355233,-0.094315,0.347541,0.932909
0.393855,0.130108,0.584141,0.382734,0.679663,0.625758
-0.853584,-0.058595,0.603394,0.632420,0.381251,0.674309
0.227884,-0.464891,0.397423,0.846728,-0.454919,0.275865
0.169870,-0.661813,0.494181,0.006191,0.999382,0.034614
0.083715,0.630579,0.396385,0.809374,0.563210,0.166455
-0.126926,-0.173204,0.734584,0.794341,0.386197,-0.468907
0.214669,-0.621885,0.485515,0.725588,0.144506,-0.672785
-0.386588,-0.160876,0.631910,-0.675513,0.723051,0.144498
-0.327650,-0.511154,0.585516,0.123143,0.431752,0.893547
0.510408,-0.248473,0.661309,0.943052,0.169098,0.286458
0.202377,0.140794,0.608635,-0.489395,0.049513,-0.870656
-0.807200,-0.478981,0.580690,-0.043450,-0.680208,0.731730
0.683250,0.060243,0.472853,-0.695697,-0.336297,0.634752
-0.058474,-0.332664,-0.516522,-0.299174,0.951515,-0.071510
0.551768,0.833960,0.274900,0.526309,-0.498972,0.688495
-0.410635,-0.303781,0.608895,-0.506000,0.242689,0.827687
0.092434,0.327268,0.579678,-0.542266,-0.215964,0.811977
0.301485,-0.728274,0.536865,0.624767,0.780270,-0.029068
0.037331,-0.147839,0.430325,-0.481100,0.618835,-0.620956
-0.072347,-0.385744,0.833132,0.041008,-0.992550,-0.114726
-0.443143,-0.654998,0.489563,0.984646,-0.112121,0.133799
-0.487281,-0.528771,0.621090,0.357905,-0.808760,-0.466703
-0.943441,-0.261388,0.546362,0.856060,0.403957,0.322460
0.161151,-0.276890,0.891748,-0.313698,0.159292,0.936066
0.176347,0.005637,0.857808,-0.242209,-0.886331,0.394654
0.388967,-0.085722,0.792602,-0.069471,0.908797,0.411415
-0.197091,-0.049550,0.738087,-0.178186,0.486757,-0.855171
-0.057285,-0.101339,0.765254,0.605987,0.185831,-0.773464
-0.151767,-0.232268,0.663047,-0.743721,0.661687,0.095131
-0.483845,0.119773,0.685232,-0.268093,-0.867055,-0.419930
0.392798,0.820457,0.218412,0.035642,0.662251,0.748434
0.019889,0.212658,0.814917,0.877621,0.268519,-0.397087
-0.030987,-0.181188,0.073807,-0.037721,0.989172,0.141830
-0.286553,0.780414,0.237717,0.097937,-0.975548,-0.196758
-0.384870,-0.263738,0.442754,-0.479805,-0.849779,-0.218316
0.198151,-0.525359,0.495453,-0.471757,0.335492,0.815408
-0.377337,-0.045680,0.824336,0.344862,0.832709,0.433204
-0.131547,-0.194103,0.604354,0.224433,0.759799,-0.610192
-0.450015,0.121300,0.701086,-0.120886,0.871127,-0.475946
-0.448958,-0.030063,0.822650,0.888406,-0.221538,0.402065
-0.087413,-0.791681,0.383230,-0.433798,0.080844,0.897376
-0.772846,-0.076799,-0.966969,-0.133767,0.268308,0.954000
0.615327,0.479568,0.258553,0.850685,0.104306,-0.515224
0.072218,-0.250702,0.751216,0.236631,0.312741,-0.919891
-0.399271,-0.026658,0.651604,-0.674540,0.738220,0.005215
-0.425173,0.557188,0.282762,0.098083,-0.873651,-0.476564
-0.358835,0.400307,-0.975454,-0.285792,0.186183,0.940032
-0.086223,-0.017613,0.826568,-0.506265,0.776131,0.375921
0.005218,-0.412513,-0.529184,0.136990,0.983854,0.115177
0.624184,0.377638,0.641251,0.262210,-0.960121,-0.097023
-0.210044,0.429664,0.545298,0.579351,0.813392,0.052407
0.114900,-0.198919,0.884612,-0.174354,-0.536459,0.825720
-0.108290,-0.045092,0.761595,0.649707,0.323828,-0.687762
0.216254,-0.339946,0.637619,0.717274,0.635116,-0.286611
-0.364916,-0.393255,0.472074,0.103147,-0.964510,0.243065
-0.091378,0.483087,0.309462,-0.807893,0.298083,0.508384
-0.384999,0.553776,0.282632,-0.444764,0.888580,0.112299
0.241624,-0.474867,0.593508,0.444603,0.425990,-0.787948
-0.774164,-0.214185,0.520025,-0.191660,0.780755,0.594716
0.066270,-0.147015,0.742524,-0.432905,0.573413,0.695551
-0.061644,-0.103568,0.930305,0.642624,0.344142,0.684545
-0.141855,-0.470287,0.801840,0.794778,-0.346051,-0.498576
-0.595374,-0.122941,0.464809,-0.062415,0.995237,0.074879
0.061515,0.566577,0.601370,0.915690,-0.344569,-0.206842
-0.523358,-0.525008,0.737308,-0.357646,0.928337,0.101389
0.081469,-0.152656,-0.452873,0.948434,-0.313261,-0.048373
0.062439,-0.179310,0.763515,-0.185767,0.278379,0.942335
0.559563,-0.327619,0.321709,0.367773,-0.826017,0.427128
-0.060059,-0.244366,0.694366,0.616363,0.768382,-0.172293
-0.501024,0.004461,0.696078,0.858964,0.233196,-0.455852
-0.295937,-0.435061,0.601344,0.279188,0.658016,-0.699335
-0.111593,0.348403,0.271345,0.908744,0.056693,0.413485
-0.028213,0.168975,0.663177,-0.320627,-0.919071,-0.229142
-0.307301,-0.924373,0.447658,-0.447665,0.869305,0.209537
-0.091772,-0.418741,0.787776,0.809398,-0.340081,-0.478769
0.496794,-0.601101,0.540679,0.069449,0.852110,0.518734
0.526926,0.261273,0.292752,0.201773,0.128606,0.970952
-0.569343,-0.434122,0.636788,-0.337875,-0.061452,-0.939183
-0.307301,0.446334,-0.966139,-0.207362,0.157259,0.965541
0.253121,-0.460074,0.804953,0.124431,0.841019,0.526502
-0.247173,-0.764324,0.569040,0.081971,0.692854,0.716403
-0.119126,-0.432244,0.708948,-0.149791,0.807671,0.570290
-0.793457,-0.149602,0.479729,-0.055655,0.951102,0.303822
0.134060,-0.590537,0.613462,-0.099620,0.696065,0.711034
0.180444,-0.399598,0.471944,-0.132133,0.819691,-0.557358
-0.037331,-0.422733,-0.822364,0.958483,-0.263577,0.108801
-0.462835,0.243656,0.501291,-0.073801,-0.758325,0.647686
-0.677701,0.170738,0.400485,0.989653,0.084149,-0.116213
-0.401255,0.014323,0.822442,0.936093,-0.262970,0.233614
-0.353153,0.564935,0.286706,-0.511981,0.569399,0.643164
0.138685,-0.136329,0.341636,0.859064,-0.255518,0.443532
0.048961,-0.136802,0.988609,-0.737184,-0.589179,-0.330799
0.027156,0.502467,0.514628,-0.392171,-0.189316,-0.900201
0.200793,0.776652,0.305180,-0.623569,0.759732,-0.184306
-0.437727,-0.681186,0.616420,0.928334,0.065004,0.366020
-0.304655,0.769018,-0.981837,-0.128823,0.128550,0.983300
-0.689328,-0.350869,0.574411,0.209022,0.314602,0.925924
-0.129567,-0.184943,0.613773,0.057547,0.984044,0.168360
-0.705318,0.145488,0.359047,0.889559,-0.437059,0.132905
0.168813,0.806245,0.262679,0.907168,-0.393783,0.148263
-0.304127,0.118246,-0.956331,-0.257676,0.223045,0.940135
-0.605948,0.592880,0.340132,0.585238,-0.636102,-0.502863
0.401388,-0.110026,0.650255,-0.502922,0.672301,0.543213
-0.157844,-0.514558,0.630613,0.999268,0.033279,0.018870
-0.304655,0.391499,0.533388,0.846906,0.154461,-0.508814
-0.048562,0.333725,0.550980,0.727020,-0.243710,-0.641909
0.428476,-0.104980,0.827113,0.516427,0.840822,0.162238
0.245326,0.579729,0.225833,0.738910,-0.530762,0.415096
-0.577404,0.292622,0.391352,0.912333,-0.275780,-0.302645
0.046315,-0.239550,0.772908,-0.229179,0.826875,0.513570
0.485958,-0.018903,-0.315196,-0.307009,0.653189,0.692163
-0.048828,0.021254,0.883860,0.211751,0.966631,0.144176
0.136176,0.325268,0.557908,-0.310433,0.781688,-0.540920
0.468254,0.499063,0.419609,-0.910016,0.175104,0.375778
-0.034157,-0.114842,0.961909,-0.393605,-0.867386,0.304495
-0.113839,-0.036986,0.793666,-0.600293,0.782252,-0.166525
-0.432968,-0.735434,0.606793,-0.721155,-0.572524,-0.390068
0.568286,0.358151,0.638241,-0.517736,0.175770,0.837290
0.109351,0.423435,0.595065,0.868998,-0.199201,0.452947
-0.425040,0.551196,0.552615,-0.243356,0.746738,-0.619000
0.166833,-0.383630,0.785467,-0.777303,-0.604121,-0.175608
-0.044465,-0.043917,0.764579,0.497586,-0.162044,-0.852144
0.074464,0.529587,0.590317,0.960615,-0.245604,0.129991
0.462306,-0.204553,0.432790,-0.595681,-0.793961,-0.121612
-0.077900,-0.176493,0.913310,0.705042,-0.666412,0.242510
-0.154146,-0.149015,0.868083,-0.399799,0.731289,0.552610
-0.101024,0.087363,0.216337,0.951354,-0.241694,-0.191074
-0.097588,-0.431305,0.739151,-0.258658,0.554531,0.790943
-0.319061,0.060823,0.677733,0.925205,-0.007891,0.379385
-0.010638,-0.309300,0.854591,-0.180939,-0.513469,0.838815
0.453716,-0.031704,0.669430,-0.036480,0.987722,-0.151902
0.016849,-0.101927,0.798493,-0.053480,-0.892011,0.448839
0.295542,0.715595,0.457933,-0.266762,0.801054,0.535864
-0.539609,-0.326092,0.564629,-0.199428,0.955275,-0.218352
-0.042880,-0.171677,0.897196,-0.442863,0.860886,-0.250495
-0.483978,0.046504,0.657624,0.522235,-0.440805,-0.730042
0.573173,0.252815,0.264028,0.130331,0.440204,0.888389
-0.040900,0.190698,0.798000,0.199018,0.918866,-0.340701
-0.255763,-0.337481,0.475681,-0.678677,0.632960,0.372505
-0.443542,-0.736731,0.581027,0.853722,-0.136544,0.502508
-0.415394,-0.191172,0.567561,-0.067554,0.991018,-0.115409
-0.774430,-0.322215,0.484840,0.477337,0.797913,0.368082
-0.341393,-0.435885,0.707132,-0.048176,0.996905,-0.062124
-0.441824,0.054136,0.449915,-0.585670,-0.633817,0.505239
-0.438388,0.455143,-0.980332,-0.198851,0.173468,0.964556
0.399142,-0.166510,0.768342,0.997448,-0.061141,0.036878
0.470501,-0.097698,0.681833,0.490842,0.473259,-0.731505
-0.429799,0.514207,-0.978827,-0.234136,0.128071,0.963731
-0.444599,0.269494,-0.964504,0.180511,-0.184749,-0.966066
0.740071,0.248358,0.507570,-0.581572,-0.233031,0.779404
-0.429532,-0.316696,0.586943,0.936581,0.340770,0.081799
-0.224844,-0.860851,-0.325964,0.843914,-0.536117,0.019709
0.141859,0.060594,0.588241,-0.213601,0.926753,0.309036
-0.461645,-0.675667,0.600151,0.943970,0.056249,0.325203
-0.193260,-0.674026,0.631988,0.760310,-0.648339,-0.039821
0.288803,0.234970,0.631625,0.282506,-0.282906,0.916599
-0.553353,0.639617,-0.994759,0.212984,-0.150565,-0.965385
-0.105911,-0.388324,0.500850,-0.197753,0.723103,0.661828
-0.490451,-0.868599,0.505832,0.908353,-0.390868,0.148716
-0.003239,-0.384920,-0.625812,-0.126791,0.979774,0.154814
0.125075,-0.113316,0.830719,0.454523,-0.023741,-0.890418
0.254311,-0.170029,0.787672,-0.101295,0.270098,0.957490
-0.627486,0.650425,0.236135,0.011765,-0.965528,0.260034
-0.307829,0.782056,-0.361331,-0.694698,0.665544,-0.272848
0.715492,-0.138443,0.717303,0.325192,0.509715,0.796518
0.366106,-0.352396,0.550565,0.935360,-0.079101,-0.344739
-0.094813,-0.112843,0.665434,0.891647,0.223454,0.393745
0.295275,-0.589010,0.514446,0.807639,-0.527656,-0.263246
0.776015,-0.025719,0.363718,0.079986,0.381894,0.920738
-0.280608,-0.821862,0.579912,-0.118477,0.361611,0.924771
0.002843,-0.155121,0.966087,-0.587846,0.797483,0.135860
-0.661841,0.620359,0.318206,-0.675609,0.699445,0.233084
-0.529302,-0.025598,0.662580,-0.572125,-0.556430,-0.602544
-0.549522,-0.303896,0.422592,-0.429515,0.716194,-0.550076
0.211366,-0.293095,0.639435,-0.654664,0.752924,0.067232
0.808127,-0.180012,0.396541,0.439046,-0.253305,-0.862018
0.019228,-0.329733,0.863646,0.482824,0.867039,-0.122979
-0.259860,-0.204789,0.862038,-0.523595,-0.695525,-0.492029
-0.468779,0.175432,0.627240,0.125863,-0.863065,0.489161
-0.311398,-0.117193,0.661205,0.990149,-0.019129,-0.138705
0.064818,0.368600,0.577109,-0.744108,-0.267968,0.611961
-0.040105,0.454318,-0.938557,0.993630,0.112532,0.006050
0.378660,-0.702085,0.485671,-0.200202,0.972039,0.122713
-0.494153,-0.959721,0.381206,-0.575238,0.785927,0.226762
-0.660123,-0.339832,0.623036,-0.778306,-0.294016,-0.554792
0.229864,-0.263738,0.873429,0.564483,0.789310,-0.241553
-0.521640,-0.866957,0.364418,-0.335934,0.603418,0.723211
-0.162736,-0.053191,0.708455,0.294471,-0.002715,0.955657
0.088470,0.634220,0.254090,-0.065894,0.475085,0.877469
-0.158506,-0.160991,0.680354,0.877779,0.125749,-0.462267
-0.484769,-0.492247,0.534504,0.625707,0.737438,0.254314
-0.579384,-0.381279,0.518131,-0.180981,-0.980899,0.071290
-0.107500,-0.036283,0.572257,0.762704,-0.459037,0.455596
0.589958,-0.357090,0.343038,0.128791,-0.990691,0.044084
0.263824,-0.289217,0.647738,-0.158596,0.599740,0.784320
-0.727123,-0.791681,0.167867,0.981203,-0.144097,-0.128361
0.148198,-0.265502,0.794367,0.586120,0.245430,0.772158
0.014469,0.017262,0.879241,-0.401854,-0.908547,-0.114262
-0.248496,-0.607680,0.567197,0.340565,-0.182435,0.922352
0.247839,-0.108736,0.766396,0.634891,0.686669,0.354117
0.102213,-0.122826,0.833054,0.967997,0.076836,0.238908
0.015792,-0.583957,0.615875,-0.120583,-0.980380,-0.155930
-0.037331,-0.420032,0.620961,-0.674001,0.721654,0.157921
0.156131,-0.338656,0.634090,-0.570900,0.744249,-0.346649
-0.145819,-0.012209,0.740682,-0.127152,-0.239043,0.962648
0.230393,0.753287,0.229596,0.267857,0.666225,0.695986
-0.640169,0.531824,0.344231,0.413628,0.429114,-0.802978
-0.740338,0.667447,0.220696,0.163448,-0.983792,0.073742
-0.311660,-0.648891,0.596570,0.227788,0.888850,-0.397566
0.117013,0.391965,0.251028,0.896235,0.297932,0.328634
0.106177,0.330084,0.573658,-0.683020,-0.236506,0.691049
0.423322,0.191874,0.599813,0.753567,-0.418473,-0.506969
-0.011957,0.015262,0.862946,0.797966,-0.532214,0.282842
-0.120977,0.555425,0.519532,-0.239660,0.963150,-0.122086
-0.283778,-0.241313,0.540420,0.858794,0.180746,-0.479379
0.335316,0.268555,-0.018332,-0.031947,0.202843,0.978690
0.451998,-0.132573,0.627914,0.266489,-0.960697,0.077743
-0.158111,0.128581,0.496101,0.747461,-0.556882,-0.362194
0.499701,-0.075738,0.142776,0.861122,-0.502062,-0.080013
-0.323553,-0.796497,0.449500,0.854174,-0.416344,0.311519
-0.310604,0.406413,0.539823,-0.755072,-0.166618,0.634118
-0.539876,0.068105,-0.961027,-0.274467,0.173083,0.945891
0.109085,0.354746,-0.950440,-0.146252,0.019060,0.989064
0.103140,-0.259510,0.705316,-0.424375,0.701407,-0.572656
-0.389758,-0.198095,0.774751,0.336459,0.871702,-0.356273
-0.108819,-0.453265,0.773609,0.888862,-0.452988,0.068748
-0.073008,-0.136565,0.929371,-0.701474,-0.237982,0.671788
-0.343640,-0.609322,0.549916,-0.358079,0.918572,0.167344
0.447111,-0.123414,0.686426,-0.171747,0.154163,0.973004
0.604891,0.490369,0.428872,-0.638555,-0.617304,0.459547
0.194187,-0.274303,0.514368,-0.331082,0.678757,0.655494
-0.134854,-0.026658,0.618547,0.929480,0.362959,0.065780
-0.214270,0.424847,0.518261,0.177474,-0.306947,0.935033
-0.721041,0.602162,0.296618,-0.643598,0.701855,0.305255
-0.178855,-0.250350,0.592055,-0.525381,0.537992,-0.659196
0.150049,-0.103454,0.728461,0.692164,0.442174,-0.570431
0.048433,0.076211,0.704174,0.589667,0.273643,-0.759876
0.348132,-0.548967,0.622751,-0.313217,-0.277593,-0.908205
0.265542,-0.349694,0.650982,-0.248459,0.797551,0.549709
0.225106,-0.704673,0.492651,0.545098,0.827007,-0.137576
-0.430061,-0.136329,0.464342,0.057360,0.943866,0.325310
0.095740,-0.122124,0.675061,0.796256,0.139925,-0.588556
0.015925,-0.308949,0.693458,-0.057769,0.905864,0.419611
-0.011429,-0.540396,0.254583,0.376769,0.294888,0.878115
-0.281927,0.050725,0.666161,-0.550489,-0.780939,-0.295121
0.049223,-0.871300,0.385669,-0.436974,0.798143,0.414755
0.503009,-0.362494,0.633389,-0.890892,0.451894,0.045859
0.003105,0.270432,0.656093,0.285837,-0.303256,0.909029
-0.360025,-0.394553,0.605651,0.009891,-0.149945,0.988645
0.135777,-0.048031,0.754979,-0.014553,-0.859832,0.510370
0.423588,-0.203736,0.499501,0.974456,-0.220790,0.041078
-0.635148,0.308827,-0.979813,-0.214092,0.133660,0.967626
0.449224,-0.576446,0.491509,0.133461,-0.063377,0.989026
-0.091378,-0.089592,0.771533,-0.358281,-0.841105,0.405189
-0.251670,-0.089829,0.721429,-0.376733,-0.744770,-0.550809
-1.000000,-0.145840,0.457803,0.183388,-0.962225,-0.201226
0.567362,0.081142,-0.328066,0.511963,-0.539142,-0.668746
-0.250742,0.793795,0.256970,-0.119272,0.940643,0.317751
0.237660,-0.326207,0.679965,0.962716,0.246192,0.112107
-0.145690,-0.034642,0.790112,0.444908,0.661029,0.604233
0.592599,0.073746,0.488992,-0.045296,0.220441,0.974348
-0.243342,0.008575,0.614526,0.290152,0.573281,0.766264
-0.663164,-0.371654,0.411695,0.908520,-0.413526,0.059892
-0.082921,-0.276775,0.825582,0.968669,0.149886,0.198025
0.215726,0.593819,0.371632,0.035506,0.752093,0.658100
-0.455963,-0.644082,0.484244,-0.558574,0.232373,0.796240
-0.676379,-0.451502,0.245008,0.419642,0.867461,0.267232
-0.389625,-0.371532,0.577161,0.997119,0.073194,0.019914
0.603701,0.346174,0.599657,0.566549,-0.052917,-0.822327
-0.101552,-0.370593,0.747869,0.723650,0.613864,-0.315439
0.081731,-0.477103,0.468390,-0.669678,0.725706,-0.157740
-0.465742,-0.182242,0.636062,0.128582,0.960457,-0.246961
-0.502476,0.059419,-0.960819,-0.118186,0.057606,0.991319
-0.171983,-0.288515,0.868784,0.825989,0.535633,0.175609
0.142915,-0.061182,0.748518,0.059507,0.463659,0.884013
0.141988,0.325390,0.545038,-0.024133,-0.998666,-0.045641
-0.810503,0.034642,0.469324,-0.749805,0.480473,0.454904
-0.330558,0.198804,0.600514,0.343616,0.632067,0.694565
-0.528507,0.248358,0.473268,0.424210,0.905223,-0.024832
-0.037198,0.313765,0.530975,-0.760619,0.617889,0.199176
0.266603,-0.111316,0.774543,-0.176568,-0.966969,-0.183835
-0.873800,-0.239428,0.553601,0.143100,-0.816897,0.558751
-0.217839,-0.331023,0.847533,0.797924,0.564947,-0.210125
0.394121,0.853805,0.444077,0.465017,-0.843255,-0.269594
0.746548,0.538869,0.281309,-0.803885,-0.128034,-0.580841
0.129305,-0.329963,0.773479,-0.626462,0.552263,0.550046
0.096531,-0.236374,0.697791,-0.614418,0.763383,0.199340
0.718400,0.259746,-0.015607,0.506703,-0.119492,0.853800
0.344168,0.317406,0.391819,0.278078,0.297568,-0.913305
0.336506,-0.203499,0.660219,0.030787,-0.274150,-0.961194
-0.026100,-0.548258,0.718497,0.040896,0.953424,0.298847
-0.133926,0.429305,0.308917,0.612983,-0.731664,0.298194
0.073274,0.222520,0.527031,0.246534,-0.168354,0.954399
0.491511,-0.095699,-0.081540,-0.603769,0.775960,0.182619
-0.170927,-0.341473,0.850050,0.866941,0.474747,0.151749
-0.661974,-0.838067,0.326120,-0.497230,0.782180,0.375441
0.567891,0.459249,0.300121,-0.580299,-0.070613,0.811337
-0.475784,-0.082433,0.571167,0.461032,0.327217,-0.824850
-0.533399,-0.515970,0.685154,0.171579,0.947500,-0.269825
-0.107234,-0.899009,0.580560,0.345671,-0.033166,-0.937769
0.203434,-0.514680,0.605262,-0.592040,-0.044250,0.804693
-0.367029,-0.351220,0.460995,0.451185,0.841061,0.298409
-0.185465,-0.106270,0.776852,0.054736,-0.979706,0.192823
0.501686,0.480156,-0.136937,0.390413,0.636546,0.665122
-0.336506,-0.014560,0.784896,-0.105826,0.098348,0.989509
0.537230,0.403712,0.419712,-0.015243,-0.728395,0.684988
-0.585594,0.236145,0.321268,0.155482,0.192580,-0.968885
-0.342450,-0.755989,0.458997,-0.588486,-0.717254,0.373136
-0.540799,0.429076,0.436085,-0.599229,0.265545,-0.755255
0.048961,-0.694574,0.244464,0.789710,-0.488745,0.370791
-0.645722,-0.077968,0.706924,0.334730,0.827860,0.450116
-0.211629,-0.088539,0.812426,-0.121978,-0.976951,-0.175178
0.383285,0.124704,0.630561,-0.655598,0.622758,-0.427040
-0.370332,-0.133161,0.672751,0.262649,-0.116148,0.957875
0.744564,0.627167,0.285201,-0.528716,-0.819704,-0.220329
-0.667789,0.432831,0.466573,0.649469,0.656497,-0.383670
-0.376414,-0.488843,0.507259,0.930225,-0.344547,0.126370
-0.010638,0.527832,-0.961131,0.597950,-0.331195,-0.729907
-0.580969,-0.453029,0.689332,-0.210425,0.977590,-0.006219
-0.072218,-0.118949,0.446023,-0.227333,0.742807,-0.629729
-0.140932,-0.643021,0.622258,0.292930,0.390915,0.872569
0.463891,-0.072807,0.677552,0.303627,0.771730,0.558787
-0.654707,-0.577263,0.550928,-0.205713,0.944806,-0.254997
0.063890,0.492720,0.518961,-0.296768,-0.730919,0.614561
-0.703733,-0.025598,0.322098,-0.626188,0.143731,-0.766309
-0.350511,-0.357090,0.584971,-0.232145,-0.836183,0.496897
-0.553087,0.044977,0.593742,0.437193,-0.507319,0.742624
-0.331352,0.406879,-0.970602,0.295985,-0.072750,-0.952418
0.273208,-0.566699,0.644573,-0.624933,0.338040,0.703696
-0.428871,-0.888681,0.447113,-0.349208,0.697244,0.626023
-0.332010,0.135512,0.482479,-0.439778,-0.644054,0.625931
-0.392665,0.113552,0.653291,0.136439,0.257439,0.956614
-0.432573,-0.171555,-0.233488,0.532850,0.615881,0.580312
0.134459,-0.462654,0.542080,0.265918,0.831056,-0.488502
-0.374696,-0.073624,0.798882,-0.222089,-0.879347,0.421218
0.391609,-0.696101,-0.258812,-0.052357,-0.998610,0.006125
0.224977,-0.455494,0.640862,0.429072,0.542424,0.722270
-0.030721,0.184477,0.532635,-0.308874,-0.348335,0.885019
0.237398,-0.067991,0.842551,-0.816956,0.286983,-0.500224
0.363727,-0.688934,0.495401,0.809972,-0.586418,-0.007749
-0.849487,-0.416742,0.574644,0.492786,0.716664,0.493512
-0.627486,-0.396430,0.527290,0.121299,0.865968,0.485166
-0.554409,-0.369539,0.490730,-0.226068,-0.859631,-0.458180
0.134060,-0.419795,-0.483361,0.847134,0.524109,0.087596
-0.036008,0.091477,0.604095,-0.619880,0.725840,0.298168
-0.102080,0.133046,0.541146,0.394327,0.064016,0.916738
-0.246778,-0.365662,0.468312,0.835478,-0.391197,-0.385929
-0.570661,-0.364020,0.622621,-0.390156,0.778025,-0.492397
0.414603,-0.251411,0.160887,0.989965,-0.131511,0.051721
0.034556,-0.182600,0.933756,0.677729,0.400104,-0.616927
-0.092301,-0.309300,0.730251,-0.251370,-0.093909,-0.963324
-0.048562,0.259861,-0.203882,0.933274,0.111075,-0.341559
-0.114767,0.711481,-0.979060,0.155946,-0.109414,-0.981687
-0.029798,0.417802,0.472671,0.014705,0.893034,-0.449750
0.540799,0.026772,0.555080,0.346655,-0.047961,0.936766
0.302014,-0.368249,0.646026,-0.445999,-0.825149,-0.346719
-0.291045,-0.815168,0.419349,0.918596,-0.219939,-0.328342
0.271490,0.139740,0.543507,-0.540112,-0.448901,0.711876
0.277834,-0.622000,0.354844,0.383477,0.183818,0.905073
0.414999,-0.207018,0.588137,-0.500567,0.450365,-0.739326
-0.273604,-0.780529,0.368233,0.316353,-0.311825,-0.895927
-0.147408,-0.244481,0.119008,0.118386,0.990842,-0.064939
0.043541,-0.880460,0.405805,0.493093,0.383567,0.780856
0.578856,0.736258,0.259695,0.852423,-0.371773,0.367640
0.085300,0.734380,0.356271,0.750567,-0.055260,-0.658479
0.004428,0.559417,-0.956408,0.943962,0.021505,-0.329353
-0.523886,-0.472875,0.720650,-0.282263,0.893108,0.350264
0.425968,0.364257,0.345088,-0.894798,0.301720,-0.329092
-0.258670,0.516909,0.528536,0.689651,-0.131267,0.712145
-0.314701,-0.611787,0.570752,-0.653364,0.264598,-0.709298
-0.426625,-0.116720,0.497555,-0.471411,0.822414,-0.318444
-0.013147,-0.127292,0.949688,-0.699378,0.489024,-0.521273
-0.588502,-0.121536,0.684895,0.904206,-0.024533,0.426391
-0.060721,0.040397,0.883081,0.433229,0.899829,-0.051188
-0.287214,0.210193,0.640525,-0.071059,0.376150,0.923830
0.373639,-0.682598,0.530637,0.682171,-0.658132,0.318600
0.020418,-0.249175,0.729732,0.391972,0.888697,-0.237857
-0.382096,-0.439877,0.606118,-0.111568,-0.267668,0.957030
0.634753,-0.263036,-0.328793,0.982388,-0.083929,-0.166944
-0.783677,-0.351808,0.562553,0.437447,0.896509,0.070088
-0.643210,-0.402185,0.624852,0.184518,0.831810,0.523494
-0.203301,-0.058946,0.620286,-0.365446,0.700056,0.613490
-0.563262,-0.311529,0.626643,0.491383,0.229386,0.840193
-0.552425,-0.465707,0.511073,0.878813,0.152616,0.452103
0.247968,-0.224635,0.914036,-0.178307,-0.970679,0.161211
-0.443143,-0.618718,0.607909,-0.759381,0.414564,-0.501474
-0.411825,-0.449624,0.711802,0.410486,-0.885368,0.218232
-0.779318,-0.097347,-0.967903,-0.119850,0.251465,0.960417
0.580311,-0.135276,0.704070,0.030113,-0.993426,0.110445
-0.093757,0.542510,-0.915930,-0.800888,-0.478098,0.360557
-0.064552,0.013621,0.674594,0.932057,-0.072808,-0.354922
-0.304393,-0.351571,0.389224,-0.074535,0.944029,0.321330
0.429666,-0.542151,0.646571,0.919200,-0.366117,0.145012
-0.765708,0.137855,-0.132474,0.981064,-0.140140,-0.133695
0.043941,-0.289927,0.852671,-0.346689,0.881088,0.321700
0.396630,-0.186004,0.704122,-0.798155,0.572485,-0.187642
-0.009182,0.471813,0.542703,0.825253,-0.270908,-0.495547
-0.682194,0.136214,0.364315,0.994038,-0.097778,0.048256
0.342188,-0.350869,0.527705,-0.757289,-0.282818,-0.588666
0.426891,-0.642434,0.501991,-0.569282,0.754829,0.325810
0.284439,-0.432595,0.601733,0.296465,0.363429,0.883192
-0.628676,0.059885,-0.971847,-0.370653,0.197609,0.907506
-0.248101,-0.158404,-0.942501,0.257954,-0.224292,-0.939762
-0.433101,-0.537457,0.590083,-0.200235,-0.971512,-0.126770
0.154675,-0.255633,-0.304013,-0.053951,0.518465,0.853395
0.243213,-0.205491,0.660764,-0.309184,0.833372,0.458145
-0.248496,0.165570,0.681599,0.186027,-0.796002,0.575999
0.050546,-0.149717,0.812452,0.968748,0.102614,0.225826
0.458475,0.332313,-0.031280,-0.734291,0.357991,-0.576766
-0.372183,-0.218414,0.594831,0.004707,-0.532726,0.846274
0.592732,-0.022895,0.473086,0.067370,-0.687608,0.722950
0.608327,0.405353,0.273343,0.984790,0.081438,-0.153480
0.089792,0.407352,0.603316,0.947930,-0.269107,0.170327
-0.766502,-0.336779,0.242258,0.968357,-0.201901,0.146698
-0.510538,-0.241076,0.639720,-0.763695,0.402570,0.504686
0.155998,0.338419,0.557597,-0.321923,0.775525,-0.543072
-0.827682,-0.103805,0.579367,0.874640,0.458108,-0.158561
-0.477368,-0.071861,0.710142,-0.399638,0.856023,0.327894
-0.714436,-0.622473,0.418207,-0.453074,-0.442134,-0.774107
-0.169080,-0.493308,0.595065,0.037147,-0.829499,0.557272
0.459532,-0.303308,0.377107,-0.389149,0.920050,-0.045518
-0.219819,-0.105919,0.659025,0.534046,-0.767379,-0.354858
-0.548860,-0.925434,0.539641,0.112260,0.956930,0.267735
-0.076444,-0.150656,0.817227,-0.406962,0.016084,0.913304
0.167361,0.209842,0.596233,0.283651,0.599554,0.748383
0.085300,-0.346991,-0.472982,0.984545,0.175081,-0.004188
0.402312,-0.075975,0.660504,0.411111,-0.376735,0.830096
0.269772,0.116369,0.810506,-0.351013,-0.768127,0.535510
0.526394,-0.054717,0.536216,-0.586177,0.629083,-0.510540
0.331747,0.562936,0.482349,0.235085,0.831633,0.503111
-0.118203,-0.573744,0.765228,-0.642666,0.717448,0.268791
0.147408,0.796497,-0.452302,0.225919,-0.195101,0.954409
-0.532871,0.058716,0.619663,-0.191105,0.120311,0.974168
-0.134854,-0.127994,0.698128,-0.206531,0.687360,-0.696334
-0.437594,-0.476164,0.524047,-0.518845,0.834607,-0.185015
-0.685630,-0.904764,0.393220,0.848498,0.525421,-0.063115
-0.274926,0.119536,0.636685,0.821619,-0.568718,0.038758
-0.164321,-0.067991,0.811726,0.296732,0.059620,-0.953098
0.117013,-0.095469,0.763204,0.413894,-0.757862,0.504318
-0.015526,0.074097,0.648309,-0.706585,0.507538,0.493095
-0.106310,-0.115430,0.926024,0.968024,-0.086977,-0.235298
0.504327,0.461134,0.362991,0.994628,0.086470,-0.056899
-0.324347,-0.341710,0.604614,-0.142988,0.268696,0.952553
-0.150844,-0.418741,-0.570155,-0.657783,0.753192,-0.004830
-0.026362,-0.164510,0.893149,0.393390,-0.913579,0.103046
-0.250347,-0.819984,0.442442,-0.775767,0.251638,-0.578674
-0.171983,0.104041,0.727630,-0.145433,0.179692,0.972913
-0.205680,-0.269723,0.846807,0.974526,0.147901,-0.168595
-0.351701,-0.935296,0.573399,-0.547829,0.271572,0.791285
-0.726066,-0.373997,0.572672,0.240651,-0.929289,0.280195
-0.387778,-0.475928,0.616316,-0.647890,0.720134,-0.248286
-0.589692,0.128345,0.624152,0.459782,-0.613519,0.642025
-0.217311,-0.316231,0.694002,0.032368,-0.349757,0.936281
-0.312983,0.012567,0.811311,-0.273252,0.519829,-0.809389
-0.576343,-0.289217,0.644443,0.957363,0.030590,0.287262
0.211234,-0.302133,0.742810,0.844626,-0.431798,0.316477
0.050151,-0.102866,0.659311,0.473600,-0.050473,-0.879293
-0.159695,0.052488,-0.289378,0.964833,0.250320,0.080229
0.032310,0.366959,0.573113,0.503565,0.168633,-0.847340
-0.710867,0.729213,0.268750,-0.587762,0.765573,0.261601
-0.007993,-0.971461,0.120902,0.197304,-0.971289,0.132922
0.585728,0.452090,0.281387,0.982284,0.062891,-0.176527
-0.626030,-0.872354,0.354195,-0.560880,0.616948,0.552077
-0.756856,-0.022308,-0.973326,-0.251963,0.244788,0.936266
0.548727,-0.372241,0.701475,0.686724,-0.726663,0.019284
-0.356460,-0.077387,0.761803,0.528443,0.785672,0.321664
-0.420019,-0.001172,0.837907,0.926145,-0.221119,0.305552
-0.260917,-0.067754,0.836713,0.922482,-0.036545,-0.384307
0.667394,0.636449,0.298019,0.820898,-0.328059,-0.467443
0.073141,0.146313,0.703577,0.152682,-0.008332,0.988240
0.424117,0.060472,-0.080372,0.604161,-0.781455,0.155944
-0.141326,-0.042505,0.679186,0.776631,-0.589591,0.221868
0.673604,0.069395,0.503548,-0.725900,0.669377,0.158122
0.839841,0.418039,-0.364237,-0.588918,0.687158,0.425427
-0.196563,-0.215010,0.853138,0.191872,0.641382,0.742842
-0.383943,-0.378699,0.509049,0.486774,-0.858578,0.160916
0.499968,-0.025719,-0.052946,-0.436380,0.844943,0.309264
0.259993,0.112025,0.510450,0.776784,0.561929,-0.284329
-0.111331,-0.082547,0.774517,0.544944,-0.345701,0.763889
0.045654,0.079967,0.736919,0.876291,0.388568,0.284833
0.188505,0.681186,0.365742,0.297897,0.257717,0.919152
0.293029,-0.297911,0.713541,0.646904,0.755504,0.103580
0.101157,-0.152183,0.942086,0.967599,0.015706,-0.252003
0.110670,0.523252,0.577914,0.995848,0.074466,0.052364
-0.006803,0.105094,0.777008,0.856178,0.511679,-0.071713
-0.233563,0.488377,0.581832,-0.285846,0.739119,0.609914
-0.002182,-0.409818,0.702331,0.193090,-0.787218,-0.585665
-0.208060,0.121887,-0.950674,-0.226766,0.235867,0.944957
-0.103270,-0.848165,0.553497,0.881719,0.398141,0.253090
0.232244,-0.577615,0.643145,-0.454536,0.200033,0.867977
-0.917144,-0.166037,-0.261096,0.904530,0.303703,-0.299314
0.228013,-0.210545,0.754589,0.954503,-0.153286,-0.255787
-0.419096,-0.763149,0.487098,0.917951,-0.362800,0.160440
-0.070500,-0.289690,0.614759,0.949308,0.051908,-0.310033
-0.462702,-0.459837,0.625475,-0.946943,0.313735,-0.069788
0.050546,-0.309185,0.525604,0.435595,-0.781501,-0.446669
-0.090716,0.390323,0.540653,0.894955,-0.078058,-0.439275
0.745624,0.339831,-0.357023,0.611197,-0.670370,-0.420764
-0.712056,-0.132688,0.512474,-0.215723,-0.461848,0.860326
0.564322,0.231214,0.293608,0.166500,0.179997,0.969473
-0.730030,-0.379287,0.581546,-0.480106,0.820999,-0.308964
0.045787,0.218177,0.794523,-0.120619,-0.970875,0.207009
-0.266998,-0.422031,0.676929,-0.510540,-0.104596,-0.853469
-0.352891,-0.078791,0.615667,0.748629,0.646976,0.144831
-0.158772,-0.093233,0.701320,0.182010,-0.357298,0.916084
0.084905,0.435770,0.557234,0.815509,-0.076476,-0.573670
0.556261,0.123414,0.478276,-0.220382,-0.102169,0.970048
-0.278096,-0.772660,0.664474,0.542381,-0.730113,-0.415641
-0.134983,-0.239901,0.724153,0.619823,0.769627,0.153276
-0.472348,-0.739899,0.614058,0.708353,0.411953,0.573176
0.560224,-0.080433,0.621609,0.742282,0.134648,-0.656420
-0.486091,0.136802,0.696649,-0.250978,0.964071,-0.087048
-0.762800,-0.009156,0.345036,0.501779,-0.844729,0.186147
0.788835,-0.110965,0.653135,0.201826,-0.348453,-0.915340
-0.524543,0.647250,0.353858,0.396180,-0.050924,-0.916760
-0.559958,-0.341007,0.432634,-0.760145,0.462347,0.456525
0.373111,-0.558944,0.599320,0.897157,0.423671,-0.124945
-0.111726,0.018552,0.883444,0.529626,0.786198,-0.318416
0.169212,0.663928,0.361590,0.445400,0.291154,-0.846669
-0.018168,-0.755867,0.547659,0.907698,-0.374550,-0.189199
-0.211891,-0.311177,0.640447,0.932114,-0.301001,-0.201400
0.718666,-0.108033,0.094695,-0.340788,0.918352,-0.201231
-0.300691,-0.055076,0.711335,0.732396,-0.491495,0.471199
0.104592,0.414276,0.463875,-0.542156,0.835900,-0.085669
0.255500,0.819045,0.448410,0.825008,-0.443680,-0.350014
-0.169209,-0.238259,0.623322,0.914829,0.163886,0.369092
0.101552,0.008575,0.744626,0.547237,0.710009,0.443192
-0.478425,-0.499766,0.596284,0.969158,0.242531,0.043725
0.164454,-0.190699,0.836350,0.340719,-0.184041,-0.921976
-0.222465,-0.000233,-0.950077,0.243943,-0.210322,-0.946708
-0.680871,0.342411,-0.983913,-0.197037,0.142669,0.969960
-0.047110,0.077501,0.757677,-0.195097,0.395348,-0.897573
0.205152,0.405590,0.249523,0.700811,0.151999,0.696965
-0.520184,-0.014445,0.661075,-0.646520,-0.670158,-0.364555
0.382757,0.725106,0.439666,0.877257,-0.436127,-0.200532
-0.145819,-0.187294,0.853813,0.365430,-0.835306,-0.410761
0.358573,0.750700,0.473346,-0.305369,0.742795,0.595824
-0.087546,-0.258334,0.827113,0.994020,0.108656,0.010833
-0.785395,-0.335840,0.522049,0.665924,0.737919,-0.109635
-0.199208,-0.834899,0.575474,0.211338,0.152833,0.965390
-0.546876,0.039924,0.698595,-0.232890,-0.063220,0.970446
-0.226163,0.756691,-0.981396,-0.023999,0.099804,0.994718
0.542255,0.127642,0.477290,-0.556444,0.117973,0.822467
-0.114372,-0.731915,0.435411,0.898727,-0.264742,0.349573
-0.217045,0.003637,0.742576,-0.354685,0.896048,0.267015
0.092434,-0.218063,0.660556,0.059610,-0.846051,0.529758
-0.419753,0.580202,0.550098,-0.014210,0.964731,-0.262853
-0.385398,-0.268082,0.610426,0.376930,0.079591,0.922816
-0.467855,0.403239,0.526252,-0.043810,-0.199707,-0.978876
-0.176742,-0.896665,0.372773,-0.291955,-0.193432,0.936668
-0.317742,-0.127055,0.760843,0.483276,-0.042679,-0.874427
0.048166,-0.193988,-0.097575,0.893962,-0.129902,-0.428903
0.687348,0.128932,0.485878,0.285700,-0.654223,0.700262
-0.157582,-0.207376,0.704278,-0.446531,-0.415833,0.792271
-0.559696,-0.265853,0.261200,-0.501943,0.603222,-0.619820
-0.442352,-0.190111,0.588656,0.061130,0.760903,0.645980
-0.445917,-0.803665,0.434476,0.902790,-0.205821,-0.377636
-0.342845,0.059068,0.680588,0.864220,0.333884,0.376359
0.004033,0.335603,0.738035,0.977550,-0.144077,-0.153745
-0.395045,-0.294736,0.649632,-0.479795,0.595257,0.644567
-0.271357,0.059297,0.584426,0.614067,0.766655,0.187514
-0.078690,-0.150893,0.701086,-0.873922,0.362577,0.323726
0.398876,0.136565,0.619611,0.784088,-0.610560,-0.111456
0.192731,-0.115544,0.784351,0.697065,0.292512,-0.654627
-0.397291,0.318223,0.510684,0.089704,-0.828856,0.552224
-0.536439,0.550845,0.250535,0.273479,0.736113,0.619150
0.409450,-0.122712,0.814139,0.911991,0.330301,-0.243257
-0.808785,-0.457372,0.576824,-0.346264,0.752081,0.560781
0.245326,-0.353571,0.758793,0.292216,-0.751692,-0.591243
0.283250,-0.310354,0.689721,0.369414,0.894300,0.252510
0.106577,-0.202209,0.871794,0.011117,0.999839,-0.014070
0.208721,0.840532,-0.354325,0.432195,0.845789,0.312807
0.062172,-0.398781,-0.863828,0.921798,-0.300288,0.245184
0.368614,-0.457609,0.567561,0.771709,0.465661,-0.433157
-0.211762,0.526893,0.690370,0.788186,0.407500,-0.461201
-0.380773,-0.077853,0.802774,0.371968,-0.352895,0.858549
-0.109085,0.104980,0.773116,-0.382309,0.770176,-0.510558
0.488471,-0.142321,0.553082,-0.668236,0.628452,0.398132
-0.122695,-0.303079,0.740189,-0.586598,-0.257066,-0.767997
0.568548,0.378347,0.615771,0.425783,-0.865504,0.263841
-0.394912,-0.292393,0.606144,0.471372,-0.606589,-0.640202
0.085961,0.011392,0.831083,0.076008,-0.503970,0.860370
-0.812092,-0.141618,-0.321605,-0.559060,-0.740557,0.372864
-0.354476,0.009041,-0.953917,0.313393,-0.191759,-0.930061
0.219029,-0.009980,0.606819,-0.486720,0.664500,0.567048
0.676117,0.420504,0.643457,-0.769236,0.127047,-0.626206
-0.090321,-0.477103,0.605859,0.805913,0.522612,-0.278175
0.019228,-0.294858,0.735804,0.656925,0.294222,-0.694178
-0.224578,-0.299079,0.583129,0.160052,-0.963009,-0.216786
0.172516,0.363906,0.514368,-0.032865,0.339564,0.940008
0.290650,-0.285928,0.757003,0.618044,0.685701,-0.384494
-0.202511,-0.095111,0.816215,0.235145,0.319522,0.917939
0.135644,-0.503285,-0.685881,0.420438,0.901769,-0.100225
0.322496,-0.308239,0.865100,0.998312,-0.057661,-0.006954
-0.409183,-0.078089,0.818498,0.865509,-0.487851,0.113557
-0.450414,-0.098752,0.600488,-0.044787,-0.010211,0.998944
0.274132,-0.273486,0.708715,-0.376013,-0.798056,0.470872
0.526794,-0.686705,0.495634,0.916862,-0.398338,0.026281
-0.765574,-0.194691,0.570441,-0.512410,-0.616795,0.597495
-0.337034,-0.112843,0.751865,0.828405,0.261591,0.495294
-0.155598,-0.045092,0.744470,-0.564189,0.793735,0.227322
0.049490,0.155823,0.626954,0.809545,-0.301383,-0.503790
-0.601584,-0.994123,0.392286,0.224534,-0.973965,-0.031250
-0.178327,-0.228627,0.683130,0.887388,-0.432439,0.159807
-0.696994,0.117193,0.434969,-0.497648,0.830277,-0.250970
0.080279,0.802725,0.359904,-0.476095,0.707643,0.522087
0.008259,0.280882,0.557078,0.373530,0.542663,-0.752325
0.492568,0.481797,-0.130217,0.390413,0.636546,0.665122
-0.059664,-0.631160,0.411850,-0.098155,0.781148,0.616582
-0.055434,-0.121651,0.939257,-0.738460,0.574565,0.352919
-0.692630,-0.451029,0.283359,0.672500,0.628599,-0.390649
-0.196696,0.128818,-0.952905,-0.239518,0.251212,0.937829
-0.406409,-0.171914,0.586917,0.803472,0.137413,-0.579267
-0.209383,-0.256457,0.689851,0.398081,-0.851894,0.340306
-0.055700,-0.172616,0.941930,0.428345,0.757239,-0.493062
-0.088865,-0.250587,0.870081,-0.236500,-0.889318,-0.391384
-0.051603,0.299904,0.452588,-0.481875,0.084571,0.872149
-0.307563,0.203735,0.597556,-0.014631,0.597169,0.801982
-0.720117,-0.593705,0.392312,0.818565,0.546558,-0.176709
0.044731,-0.362960,-0.012078,-0.591057,-0.013633,0.806514
-0.222465,0.732968,0.240857,0.177537,-0.963652,-0.199638
0.438784,-0.578324,0.565355,0.007182,-0.840649,0.541533
-0.031782,0.070571,0.893901,-0.384663,-0.728100,0.567367
0.666338,-0.275951,0.365820,-0.752560,0.599703,0.272047
0.723820,0.644899,0.238003,0.570629,0.657191,0.492426
-0.260388,-0.087600,0.735025,-0.579973,0.716422,0.387777
