-0.249991,0.199707,0.513905,0.557671,0.809988,0.181449
-0.266414,0.628791,0.498715,0.306407,0.947809,-0.088159
0.032888,-0.105699,0.389412,0.790376,0.358746,0.496595
0.012638,-0.293845,-0.961813,-0.608831,-0.402749,0.683460
-0.205461,0.037077,0.541744,-0.137648,-0.913165,-0.383643
0.005891,0.101197,0.472443,-0.375363,0.907620,0.187959
-0.088981,0.162030,-0.182954,0.936763,-0.349895,-0.006959
-0.080136,-0.503771,-0.176963,-0.086989,0.984418,0.152823
0.346645,0.024386,-0.946702,0.569886,0.684690,0.454345
-0.109967,-0.056147,0.485216,0.956899,-0.115173,0.266608
-0.634670,0.663582,0.560466,-0.541699,0.093604,-0.835345
-0.470511,-0.231160,0.744859,-0.698309,0.663100,-0.269560
-0.261345,0.179260,0.423203,-0.355630,-0.923037,0.146733
0.175346,0.192363,0.138348,-0.388057,-0.916133,-0.100559
0.077788,0.167767,0.356139,0.947873,-0.143652,0.284431
-0.325958,-0.291237,0.714402,0.877464,-0.466495,0.111535
-0.304726,-0.131808,0.898442,-0.143179,0.920282,0.364116
-0.253990,0.026905,0.628075,0.758773,-0.627273,0.175475
-0.183556,0.066956,0.308825,-0.690990,-0.692361,0.207771
-0.505024,0.450552,0.454676,-0.190065,-0.977942,-0.086631
-0.020296,-0.074215,-0.890084,0.448312,-0.104321,0.887769
-0.188250,0.509607,-0.374173,0.891183,0.196122,-0.409059
-0.060361,-0.124035,-0.911225,-0.389649,-0.037943,-0.920181
0.145980,0.263919,-0.334187,0.648309,-0.718800,0.251043
-0.068627,0.148382,0.790700,-0.245697,0.689426,0.681414
-0.262488,0.150675,-0.114947,-0.056044,-0.995706,0.073684
-0.066663,-0.033028,0.412232,-0.359864,-0.306498,0.881225
0.114523,-0.331544,-0.936958,0.642175,-0.764199,0.060089
-0.586107,-0.697247,0.629545,-0.307708,0.817304,-0.487165
-0.027024,-0.261652,-0.278590,0.984528,0.154141,-0.083342
-0.173225,0.089645,-0.210040,0.745476,-0.376398,0.550081
-0.172999,0.123048,-0.044419,0.153137,0.981357,0.116136
0.274081,-0.028407,-0.977410,-0.793842,0.248237,0.555152
-0.112830,0.049699,-0.642976,0.271502,0.956518,0.106589
-0.106286,0.124563,-0.293185,-0.571111,0.494407,0.655282
-0.001270,-0.025322,-0.829841,-0.100702,0.952790,0.286444
0.219008,0.135447,-0.964440,0.760637,0.154568,-0.630507
-0.349534,-0.039667,0.584200,0.931919,-0.347365,-0.104231
-0.237138,0.165939,0.285754,0.570642,-0.739736,-0.356593
-0.646843,0.629709,0.479210,-0.727759,0.670748,-0.143055
-0.207882,0.089786,0.274869,0.386867,0.809582,-0.441487
-0.135328,-0.019910,0.707626,-0.889282,0.352856,0.290981
-0.312977,-0.175102,0.705497,0.923983,0.038956,0.380443
-0.384776,-0.690682,-0.055036,-0.564538,-0.722273,-0.399524
-0.462258,-0.197179,0.763376,0.443031,-0.859419,-0.255192
0.155912,0.173457,0.471064,0.715058,-0.694999,0.075297
-0.434022,0.712613,0.017510,0.732069,0.522943,0.436584
-0.280789,0.822511,0.523498,0.967255,-0.223463,-0.120346
-0.136399,-0.003473,-0.247378,-0.625399,0.734837,0.262471
0.203270,-0.039664,0.222361,0.986918,0.103350,-0.123742
-0.185787,-0.081850,-0.526338,0.943602,-0.060937,0.325426
-0.210299,-0.133002,0.099264,-0.165784,0.980116,-0.109034
-0.073557,-0.022257,0.478565,0.945062,-0.306124,-0.114657
-0.969080,-0.047288,0.439103,0.722326,-0.539832,-0.432234
-0.497165,0.228112,-0.492648,-0.015450,0.905560,0.423937
0.228822,-0.168232,-0.940248,-0.305423,0.129839,0.943323
-0.157188,0.009867,0.303720,0.905595,0.287906,0.311461
-0.227619,0.229273,-0.014514,0.852379,0.464365,-0.240448
-0.286234,0.325828,0.506665,0.595738,0.748203,-0.292042
0.084217,-0.028182,0.023120,0.916903,-0.151975,-0.369043
0.069816,-0.131606,-0.950644,0.439376,-0.897066,-0.047121
0.312423,-0.147299,-0.975794,-0.372986,0.027665,0.927425
0.348784,0.105536,-0.967276,-0.473896,0.348634,-0.808627
-0.679452,0.235634,0.760174,0.951149,0.305922,0.041569
-0.526109,0.168582,0.087226,0.975487,-0.215201,0.045970
-0.067024,-0.206218,0.457141,0.721652,-0.036900,0.691272
0.188603,-0.236473,0.504889,-0.323172,0.542620,0.775321
-0.215413,-0.049425,0.314790,0.674040,-0.486042,-0.556266
-0.017154,-0.305583,-0.483566,0.986557,-0.162706,-0.015222
-0.004015,-0.481219,-0.142336,0.546691,-0.833526,-0.079770
-0.121532,0.114537,-0.644593,0.523849,0.845003,-0.107485
-0.146245,-0.456512,0.472146,0.293836,0.774010,0.560865
-0.482091,0.441528,0.463744,-0.249886,-0.954948,-0.160096
-0.207749,0.117131,0.407625,0.858261,0.428088,-0.283070
-0.367845,-0.111838,0.813520,0.913269,-0.398943,0.082360
-0.099062,-0.224815,0.371898,0.807281,0.464456,-0.364114
-0.825309,-0.296005,0.061074,-0.460501,0.883775,-0.082945
-0.362838,-0.642860,0.799364,-0.477940,0.815595,-0.326157
0.263405,0.041990,-0.956188,0.123985,0.644864,0.754174
-0.259571,-0.062110,0.339821,0.282933,-0.607747,0.742019
-0.416895,0.151028,-0.430252,0.189311,0.617222,0.763675
-0.089664,0.062454,-0.172611,0.767883,-0.639201,0.042155
-0.588474,0.165780,0.092583,0.998346,0.010301,0.056561
-0.255865,0.668281,0.520333,0.080947,-0.709771,0.699766
-0.003645,-0.250408,-0.949901,-0.262100,-0.948052,0.180279
-0.081860,0.521051,0.370706,0.340370,-0.690367,0.638391
-0.202119,-0.074014,0.063625,0.632353,0.526124,0.568614
-0.167374,-0.047959,-0.039425,0.672139,0.732235,0.109823
-0.260895,-0.055214,-0.058200,-0.640346,-0.133313,-0.756429
-0.040488,-0.181510,0.402177,0.409605,0.350420,0.842276
-0.241805,0.052261,0.679260,0.624621,0.744389,0.236080
0.305693,-0.093252,-0.942117,-0.039804,0.859085,0.510282
-0.379925,-0.296454,0.408958,-0.278521,0.338498,0.898802
-0.412435,-0.509165,0.486504,0.711638,0.508225,-0.485055
0.045492,-0.273292,0.352856,-0.198416,0.964506,-0.174237
0.304489,-0.145982,-0.946641,0.353086,0.467008,-0.810700
-0.128371,0.282786,-0.505896,0.908320,0.200648,-0.367009
-0.669552,0.257950,0.183347,0.874076,-0.058766,-0.482221
0.177846,-0.257813,-0.951666,0.326028,-0.663287,0.673614
-0.141920,0.273606,0.119427,0.975964,0.202763,-0.079882
-0.203178,-0.510761,0.498164,-0.478500,0.872138,-0.102042
0.006814,-0.134865,0.431041,0.979497,0.142847,-0.142058
-0.308845,-0.093861,0.783926,0.923170,-0.376401,0.077968
0.118881,-0.243628,-0.947045,-0.139435,0.755341,0.640327
-0.064171,0.510657,0.378313,0.967087,0.200646,0.156476
-0.335629,-0.436153,0.547080,0.458908,0.705031,0.540679
-0.159234,-0.133200,0.075286,0.140005,0.902267,0.407814
-0.646712,-0.220857,0.752898,0.509014,0.859011,-0.054817
0.094178,0.408871,-0.152272,0.845890,0.498004,-0.190949
-0.104064,0.387441,0.400298,0.114282,0.055807,0.991880
0.355297,0.017971,-0.954325,0.543273,-0.508173,-0.668293
-0.367835,-0.165901,0.241385,0.487982,0.182829,0.853491
0.280660,-0.213800,-0.941158,-0.592183,0.564182,-0.575342
-0.143807,0.342161,-0.135326,0.875707,-0.243256,0.417090
0.089347,-0.210421,-0.959200,-0.578665,0.673253,-0.460302
0.303880,0.081218,-0.950129,0.438631,-0.223345,-0.870471
0.156058,-0.036450,-0.962424,0.783809,-0.077543,0.616142
0.043306,0.372303,0.367887,0.957286,0.288792,-0.014211
-0.107323,0.199686,0.497549,-0.617329,0.757426,0.212629
-0.140427,0.445961,0.673636,0.514652,0.844318,-0.149201
-0.093737,0.271465,-0.438639,-0.183458,-0.773625,0.606504
-0.142023,0.252630,0.546558,0.496948,-0.633790,0.592750
-0.226464,0.384707,0.675780,0.737556,-0.238540,-0.631752
0.007490,-0.419141,-0.149794,0.079301,0.965094,0.249611
0.129772,0.248379,0.438190,0.567321,0.548481,-0.614260
-0.268677,0.780433,-0.186239,0.778048,0.337165,0.530058
-0.502211,0.597513,0.365417,0.740384,-0.363652,0.565322
-0.130246,0.042142,-0.228566,-0.190389,-0.801519,-0.566850
0.316920,0.115261,0.188811,-0.030742,0.693434,0.719864
-0.166471,0.555601,-0.278067,0.238937,-0.509879,0.826397
-0.269375,0.061491,0.051422,0.956311,0.283479,0.071476
-0.340033,0.131954,0.399094,0.069426,-0.057933,0.995903
0.153839,0.072795,0.307486,0.051819,-0.983926,-0.170893
-0.123396,0.061070,-0.195973,-0.680506,0.501496,-0.534241
0.071873,-0.232505,-0.985249,0.895657,0.329992,-0.298169
0.907560,-0.495972,-0.271444,-0.520885,0.248906,0.816532
0.114699,-0.374899,0.480166,0.560497,-0.016954,0.827983
0.236133,0.072889,-0.953741,-0.469059,0.232787,-0.851935
0.016071,0.301775,-0.405833,0.729018,0.400727,-0.554933
-0.019934,-0.041517,-0.765744,-0.537418,-0.840436,-0.069637
-0.258419,0.061050,0.326990,-0.295466,0.784765,0.544834
-0.087236,0.680133,0.567411,0.393531,0.777733,-0.490167
-0.172126,0.162608,0.052370,0.005779,-0.576295,0.817222
0.049029,-0.263371,-0.947119,-0.031908,-0.631514,0.774708
-0.016086,0.038534,-0.562212,0.783581,0.014894,-0.621111
-0.089161,-0.280134,-0.263474,0.870984,0.397552,0.288686
-0.319515,-0.499935,0.557527,-0.567617,-0.695099,-0.441191
-0.025001,-0.260876,-0.290107,0.981494,0.139680,-0.130993
-0.068784,0.032279,0.943255,0.644518,0.725903,-0.240127
0.331874,0.036422,-0.582804,0.478903,0.665951,-0.571980
-0.047523,0.087996,-0.322288,0.951089,0.158950,0.264886
-0.844398,-0.089291,0.147796,0.551248,-0.416462,0.722970
-0.194927,0.066471,-0.699293,-0.506130,-0.153292,-0.848725
-0.011132,-0.092534,0.065359,0.145353,-0.989222,0.017649
-0.374542,-0.722527,0.574489,0.808072,-0.183808,0.559673
-0.296031,0.026867,0.596839,0.023591,-0.113528,0.993255
0.059651,-0.280182,0.330268,-0.072093,-0.957533,-0.279165
-0.026801,-0.020961,-0.832398,0.789411,-0.613523,-0.020504
-0.315488,0.227641,0.539624,0.664389,0.582442,-0.468347
-0.167097,-0.032231,-0.088234,0.933654,0.074062,0.350435
0.026357,-0.592927,0.606033,0.638347,0.035440,0.768932
0.101042,-0.382555,-0.967020,0.538551,0.515761,0.666298
0.033729,0.560360,0.772639,-0.239424,0.886267,-0.396493
-0.205759,0.138675,-0.066347,-0.391248,0.910966,-0.130638
-0.025060,-0.675685,-0.049238,0.829806,0.536639,-0.153101
0.265809,0.005292,-0.954826,0.189533,-0.605017,0.773325
-0.461234,0.547282,0.827887,0.939107,-0.002383,0.343617
-0.291726,0.080656,0.316954,0.851534,0.520611,-0.062078
-0.042490,-0.327694,0.342568,0.157851,-0.875988,0.455771
-0.150201,0.566076,0.402808,0.103591,-0.905828,0.410785
-0.116562,-0.053349,-0.043933,0.949245,-0.130192,-0.286329
0.116512,-0.306614,-0.478928,0.181779,-0.979164,0.090523
0.266053,0.028696,-0.964166,0.750459,0.618721,-0.232371
-0.395242,-0.682817,-0.048433,-0.564538,-0.722273,-0.399524
-0.111233,0.050484,-0.625320,-0.376559,0.926386,-0.003577
-0.308165,0.328633,0.760037,0.995935,0.050981,0.074257
-0.301234,0.678414,0.530673,0.282300,-0.632425,0.721350
-0.331735,-0.100456,0.923626,0.828905,0.549075,0.106921
-0.197451,0.140359,0.271423,0.953771,-0.221647,-0.202959
-0.190389,0.052442,0.409463,0.911308,0.201339,-0.359139
-0.288867,0.210597,0.511509,0.365486,0.864043,-0.346194
0.229998,-0.062143,-0.989050,0.339869,0.063381,0.938335
-0.417018,0.673988,0.508910,0.301330,0.934469,0.189652
0.336325,-0.011042,-0.561923,0.386658,0.850667,-0.356176
-0.337428,-0.003344,0.859066,0.893201,-0.440918,-0.088229
-0.181863,0.658083,0.484368,-0.346448,0.903607,-0.251928
-0.354049,-0.450161,0.904291,-0.393673,0.724098,-0.566307
-0.258893,0.204810,0.562783,0.836795,0.365827,-0.407364
0.163832,-0.114196,-0.969907,0.595502,-0.189754,0.780622
0.024983,0.181623,0.399292,0.985691,0.077813,0.149530
-0.015021,0.314711,0.638626,0.705945,-0.352622,0.614247
0.207870,-0.368980,-0.958767,0.665026,-0.621057,0.414763
-0.291830,0.133081,0.061927,0.445562,-0.892946,0.064202
-0.761866,0.755824,0.560361,-0.683664,0.239133,-0.689506
-0.550029,0.309512,-0.446830,-0.226228,0.636732,-0.737152
-0.175614,0.176868,0.751219,0.961083,0.272272,-0.046776
-0.279615,0.061897,0.273505,-0.058186,-0.490652,0.869411
-0.275684,0.062655,0.281656,0.656877,0.715345,-0.238316
0.024531,-0.342758,0.546763,-0.227030,0.688778,0.688507
-0.508881,0.221550,0.078576,0.995146,-0.022121,0.095892
-0.213457,0.142777,0.659607,0.896255,0.157574,-0.414605
-0.377587,-0.133145,0.827789,0.981638,0.014182,-0.190226
0.251865,0.136932,0.598194,0.304513,0.876830,-0.372076
0.123099,0.384176,-0.247930,-0.704481,-0.581003,-0.407605
-0.201023,0.233239,0.558809,0.367447,-0.686980,0.626930
-0.204216,0.591585,-0.384307,0.447782,0.882131,0.146070
0.231514,0.191460,0.507764,0.642633,0.631767,0.433467
0.167245,0.150573,0.391571,0.740267,0.599671,0.303972
0.261935,-0.235428,0.712749,0.307140,-0.843808,0.440059
-0.688222,0.240032,-0.463701,-0.594142,0.110118,-0.796787
-0.044802,0.042367,-0.908587,-0.264673,0.964329,0.004183
-0.334550,0.110606,0.396630,0.205203,-0.584468,0.785041
0.215346,0.115920,-0.973674,0.909340,0.185374,0.372476
-0.681166,-0.227179,0.766783,0.598259,0.800718,0.030628
-0.180585,-0.163398,0.121221,0.980192,-0.156817,-0.120965
0.294147,0.058206,-0.962758,-0.283485,-0.019383,0.958781
-0.466651,0.140732,-0.236484,0.209141,0.941293,0.265006
-0.181117,-0.543309,0.791129,-0.178663,0.628598,0.756931
-0.344043,-0.609206,-0.063995,0.772022,-0.634896,0.029836
-0.174817,-0.446923,0.470985,-0.158081,0.984840,0.071414
-0.254846,0.214193,0.671467,0.969698,0.221101,0.103924
-0.090049,0.064289,0.176214,-0.032407,0.955574,0.292966
0.267613,0.576923,0.325054,-0.059145,0.532063,0.844637
-0.150131,-0.096977,-0.109204,-0.402419,-0.539048,-0.739923
-0.369151,-0.144953,0.914500,0.822500,-0.545619,-0.160603
0.243103,0.178675,0.284408,-0.397605,0.880599,0.257790
-0.242193,0.083525,0.266877,-0.235639,-0.338941,-0.910820
0.206827,-0.491044,0.461475,0.873556,0.344874,-0.343455
-0.298533,0.087635,0.638950,0.898331,-0.112596,0.424646
0.121834,0.155047,0.375178,0.895063,0.423156,0.140718
-0.110766,0.563143,-0.381417,0.790915,0.561763,-0.242643
-0.701091,0.472820,0.117486,0.962850,0.185023,0.196691
-0.171954,0.086594,-0.409755,0.964487,0.171283,0.201067
-0.380431,-0.697637,0.777630,-0.124297,-0.958033,0.258309
-0.425241,-0.613515,-0.024826,-0.702281,0.248092,-0.667272
-0.263674,0.068410,0.355367,0.553427,0.819810,-0.147073
-0.578539,-0.294323,0.835570,0.839609,0.074252,-0.538093
-0.100056,0.071837,-0.615300,-0.536434,0.706507,-0.461612
-0.182434,0.120295,0.130571,0.015797,0.954134,0.298962
0.097193,0.093537,0.248466,-0.796950,0.575100,-0.184746
-0.308029,-0.105822,0.918446,0.916381,0.383883,0.113490
0.323717,0.114662,-0.959797,-0.191909,-0.131676,-0.972539
-0.218161,-0.036707,0.710412,0.677647,0.712605,-0.181628
0.248180,0.522766,0.668678,-0.461014,0.805791,0.371709
0.308760,0.100680,-0.961304,-0.028943,0.165881,0.985721
0.248377,0.377233,-0.106751,0.862344,0.493534,0.113081
-0.161244,0.588928,-0.291371,-0.391417,-0.915281,-0.095154
-0.158827,0.340249,0.281898,-0.291818,-0.833092,0.469893
-0.405130,-0.447221,0.434028,0.471296,-0.436000,0.766671
-0.261582,0.037528,0.720337,-0.229692,0.775228,-0.588441
0.261331,-0.020829,-0.960453,0.270604,-0.886156,0.376167
0.190689,0.070648,-0.942188,-0.364863,-0.417582,-0.832166
-0.228587,0.150242,0.454599,-0.792324,0.426330,-0.436425
0.267886,-0.063210,-0.965582,0.748073,0.642215,-0.167175
-0.671070,-0.114932,0.306603,0.947081,-0.311184,-0.078755
-0.272330,0.169470,0.232921,0.973284,0.223357,-0.053193
0.323166,0.089883,-0.961689,-0.083789,-0.238907,0.967421
0.005433,-0.323198,-0.447468,-0.005189,-0.851433,0.524437
-0.204746,0.007750,-0.023856,0.996618,-0.010974,0.081443
0.116318,-0.057856,-0.013279,0.929269,0.243111,-0.278131
-0.470419,-0.138169,0.368622,0.766330,0.325515,-0.553876
-0.178791,0.082101,0.027752,0.295853,0.717197,-0.630951
0.132194,-0.537994,0.607647,0.219546,-0.488846,0.844292
0.211624,0.262112,0.179722,0.328153,0.862935,0.384265
0.030776,-0.090104,-0.898244,0.287741,0.090340,0.953438
0.155756,0.228724,0.383456,-0.006062,-0.357406,0.933929
0.029301,-0.322325,-0.965693,-0.330357,0.145661,0.932549
0.183657,0.365949,-0.132169,-0.640639,0.693358,0.329902
-0.270943,0.070937,-0.165195,-0.824997,0.554116,0.111063
-0.388179,-0.345895,0.663870,0.761889,-0.425277,0.488533
0.187381,-0.173866,0.731471,-0.303657,-0.630104,0.714676
-0.724012,0.266196,0.619154,0.847521,0.477445,-0.231848
0.120378,0.121820,0.359347,-0.474508,-0.879553,-0.035052
-0.456946,0.723791,0.701501,0.874417,-0.021880,0.484681
-0.296657,-0.265951,0.666630,-0.661276,0.065382,-0.747288
-0.296332,0.032653,0.852206,-0.369555,0.816728,-0.443154
-0.092588,0.158564,-0.284009,0.984024,0.125624,0.126160
-0.093733,-0.154511,0.387916,-0.117280,-0.585968,0.801802
-0.249300,0.152477,0.600707,-0.159740,-0.088042,0.983225
-0.135149,0.389579,0.305927,-0.341835,-0.917499,0.203333
0.161035,0.356827,-0.148752,-0.381624,0.882737,-0.274115
0.223334,0.122072,-0.987770,-0.516044,0.266527,0.814040
-0.188756,0.158970,0.520054,0.052869,0.531835,-0.845196
-0.060241,-0.341091,0.552775,-0.033435,0.811748,0.583051
0.335208,0.219910,-0.130268,0.379524,0.903199,-0.200480
-0.157909,0.218699,0.825963,-0.145705,-0.389791,0.909303
-0.209152,0.070374,0.456151,0.976912,-0.186001,0.105106
-0.195625,0.389309,0.318519,-0.367267,-0.870531,0.327552
-0.186981,0.040198,0.132206,0.016827,-0.803974,0.594426
-0.183196,0.025317,-0.075865,0.836744,0.215711,0.503318
0.012266,0.338421,0.399862,0.042389,-0.962590,0.267627
-0.117759,0.098294,-0.606359,-0.638364,0.230172,-0.734515
0.184816,-0.312562,-0.966002,-0.512740,-0.453106,0.729241
-0.194188,0.380029,0.304378,-0.284615,-0.918156,0.275652
0.072220,-0.321247,0.546492,0.511416,-0.770510,-0.380483
-0.585433,0.264176,-0.482539,0.640687,0.766623,-0.042522
-0.089673,0.443748,0.460398,0.704925,0.572727,-0.418406
-0.052242,0.063088,-0.495432,0.972711,0.138351,0.186256
-0.169353,0.241686,0.315399,-0.723074,0.529901,-0.443136
-0.859541,0.724025,0.693655,0.904753,-0.411459,-0.110103
-0.262585,0.194199,0.441580,-0.573718,0.508523,0.642069
-0.196687,0.131672,0.515019,-0.420063,0.694943,-0.583610
-0.109956,0.123702,0.773180,0.961421,-0.223563,0.160280
0.225806,-0.067840,0.300647,0.250790,0.955989,0.152282
-0.130480,-0.106522,0.338521,0.260855,-0.571073,-0.778351
0.089746,-0.508081,0.857201,-0.066437,-0.979660,0.189346
-0.074829,0.059972,-0.387496,-0.097590,0.986049,-0.134847
0.310617,-0.220922,-0.948253,0.963175,-0.185395,-0.194736
-0.131119,0.143187,0.049889,-0.344149,-0.500412,0.794449
-0.504185,-0.718964,-0.028008,0.184365,0.946042,0.266485
-0.210756,0.102667,0.267122,0.939716,0.269353,-0.210672
-0.739628,-0.359036,0.656817,0.232154,0.760538,0.606372
-0.005341,0.102439,-0.681436,0.578819,-0.778883,0.241476
-0.280739,0.159656,0.472552,0.849964,0.482785,0.210901
-0.284726,0.016896,0.584317,0.553067,-0.826338,0.106223
-0.389221,-0.155905,0.718653,0.202502,-0.258800,0.944466
0.022739,-0.098843,-0.036454,0.295203,0.945002,-0.140803
-0.538244,0.298464,-0.456762,0.349442,0.645217,-0.679401
0.167225,-0.168251,0.331456,0.812604,0.542681,-0.212537
0.173326,-0.035648,0.113866,0.053565,0.992800,-0.107143
-0.012175,-0.083501,-0.572062,0.411665,0.889391,-0.198784
-0.060322,0.151964,-0.204840,0.942635,-0.102543,-0.317687
-0.196149,-0.384254,-0.142089,0.738948,0.571863,0.356270
-0.305002,-0.186561,0.713854,-0.449705,0.360071,-0.817383
-0.382371,0.120097,0.756735,0.821862,0.064530,-0.566021
-0.391991,-0.318973,-0.021365,0.827204,0.101593,0.552641
-0.279302,0.039553,0.644887,0.671930,-0.612299,0.416654
-0.220638,0.022757,0.014259,0.608518,0.682738,-0.404443
0.312703,0.175328,-0.964469,-0.250085,0.961403,0.114725
-0.051044,-0.240575,-0.955578,0.606652,0.569099,-0.555068
-0.232984,0.622912,-0.232197,-0.158119,0.803687,-0.573659
0.005022,-0.065191,-0.720973,0.785851,0.569587,0.240849
-0.168818,0.483048,-0.421885,0.515348,0.854273,-0.068077
-0.521041,-0.535537,0.659471,0.672532,-0.120387,-0.730210
-0.187266,0.119960,0.299276,0.770090,0.634392,-0.067146
-0.868109,-0.019110,0.690567,-0.852946,0.104247,0.511483
-0.173736,-0.053828,-0.335003,0.405222,0.890345,-0.207557
-0.236157,0.065729,0.768199,-0.622789,0.453106,-0.637832
-0.304766,0.117001,0.311542,0.868684,-0.172990,0.464179
-0.460719,0.006644,0.885811,0.511271,0.422669,0.748300
0.231900,-0.235525,0.710013,0.307140,-0.843808,0.440059
-0.182445,0.372295,0.122493,0.380773,0.697988,0.606485
-0.283408,-0.019629,0.785602,-0.360634,0.837115,0.411317
0.217981,0.552496,0.652376,0.070303,0.994203,0.081356
-0.167314,0.088922,0.038624,0.108711,-0.528238,0.842108
-0.598693,-0.084657,0.391538,-0.173838,0.973675,-0.147435
-0.155933,0.656310,-0.299782,0.177968,0.862765,0.473248
-0.450760,-0.266768,0.770199,0.043031,0.099416,0.994115
0.297682,-0.289933,-0.950533,-0.312591,-0.156240,0.936950
-0.861105,-0.132101,0.146089,0.453690,-0.299935,0.839169
0.272986,-0.353462,-0.952308,-0.097743,-0.951097,0.293020
-0.147950,0.121658,0.510453,-0.478508,0.651815,-0.588360
-0.423137,0.389273,0.539963,0.514366,0.178097,-0.838874
-0.116716,0.062288,0.099587,0.900723,-0.193851,-0.388742
-0.214066,0.105574,0.466391,0.848257,0.415792,0.327988
-0.044639,-0.171967,-0.948096,0.077930,0.708314,0.701583
0.292441,-0.015392,-0.607139,0.448081,0.878339,-0.166564
-0.131813,0.059252,0.415495,0.833287,-0.494636,0.246916
-0.051822,0.351405,0.437904,-0.001437,-0.942225,0.334979
-0.714602,-0.460254,0.822907,0.465905,0.385390,-0.796497
0.389137,-0.011298,-0.941001,0.833181,-0.190820,0.519034
-0.172834,-0.027906,0.327821,0.562052,-0.036898,-0.826278
-0.172403,-0.129260,0.131939,-0.805553,-0.353226,-0.475727
-0.082537,0.150632,-0.165833,0.929096,-0.368945,-0.025682
0.539377,0.082241,-0.491224,-0.291383,-0.908210,0.300416
0.246997,0.168850,-0.974151,-0.302298,0.942231,-0.144276
0.145009,0.487615,0.539731,-0.478079,-0.428546,0.766674
0.198797,0.354937,-0.141982,0.897165,-0.427794,-0.109945
0.212541,-0.021587,0.119308,0.267211,0.945593,-0.185611
-0.241911,0.111784,0.328550,0.381024,0.915545,-0.128836
0.307135,-0.011388,-0.607315,-0.088075,0.969191,-0.230024
-0.415652,-0.333219,0.490274,0.824029,0.459027,-0.332069
-0.187604,0.042598,-0.230745,0.760712,-0.482842,-0.433799
-0.238909,0.001528,0.701441,0.982629,0.103610,-0.153962
-0.150463,-0.068560,0.238298,-0.032864,0.690484,0.722601
-0.389811,0.545559,0.143444,0.616600,0.693882,-0.371931
-0.223347,-0.468891,0.531028,0.317680,0.925709,0.205285
-0.085740,0.110280,0.442979,0.755694,0.565060,-0.331109
0.249026,-0.130077,-0.964145,-0.112951,-0.951045,-0.287673
0.206343,0.048102,-0.980304,0.373233,0.060411,-0.925769
-0.811728,-0.423487,0.777441,-0.554359,-0.367358,0.746816
-0.146986,0.619651,-0.295015,-0.152713,0.760635,0.630962
0.289705,0.573231,0.329259,-0.059145,0.532063,0.844637
-0.774208,0.648844,0.629872,0.883727,-0.159559,0.439964
-0.170575,0.111097,-0.044358,-0.103623,0.992571,0.063760
-0.422022,-0.383661,0.450067,-0.726591,-0.685140,0.051470
-0.312914,0.653386,0.520295,0.027346,-0.760185,0.649130
-0.126317,0.073865,-0.223255,0.962234,-0.159705,0.220455
-0.280661,0.109532,0.394306,0.252395,0.932671,-0.257723
-0.209312,0.675926,0.523414,0.274380,0.590789,-0.758738
0.184266,-0.132999,0.247842,-0.680615,0.688571,0.250268
-0.182094,0.176176,0.640688,0.904313,-0.424040,0.049079
0.172214,0.230904,0.003481,0.202870,-0.601423,0.772744
-0.345285,0.727455,0.597171,-0.769565,0.318471,-0.553486
0.357804,-0.124889,-0.960500,0.917916,0.054027,0.393080
-0.722011,0.009159,0.334130,0.883841,0.463161,-0.065628
0.153890,0.142459,-0.090532,-0.644867,0.700209,-0.306357
-0.779726,-0.261828,0.313751,-0.871627,0.331525,-0.361050
0.198609,0.539406,0.679194,0.404348,-0.730489,-0.550353
-0.382960,0.196827,0.478998,-0.192913,-0.970262,-0.146209
-0.120142,-0.193874,0.468504,0.557940,0.010191,0.829818
-0.594310,-0.109731,0.396364,-0.200347,0.914166,0.352366
-0.119316,0.070378,-0.516436,-0.646017,-0.704734,0.293278
-0.504851,0.607088,0.346156,0.813882,-0.567962,-0.122538
-0.509598,-0.500990,0.833793,-0.244573,0.129443,0.960952
-0.093073,0.118288,-0.251449,0.837605,0.264920,0.477739
-0.087056,0.202408,0.760233,0.985337,-0.011982,-0.170200
-0.247384,-0.577769,-0.084023,-0.444157,0.679513,-0.583940
0.001301,-0.199699,-0.966127,-0.096267,0.872929,0.478255
-0.199866,0.033397,-0.112090,0.526809,0.844525,-0.096176
-0.260943,0.223005,0.258007,0.975137,-0.100413,-0.197548
-0.046239,0.058362,-0.569972,-0.439419,0.312762,0.842075
-0.648644,-0.477157,0.055599,-0.487953,0.864385,0.121411
-0.075035,-0.102374,-0.416549,0.914768,0.401777,0.042132
-0.104860,0.115270,-0.322076,0.151414,-0.293395,0.943924
-0.301580,0.147043,0.383287,0.857666,0.411424,0.308445
-0.348092,-0.181632,0.237924,0.825895,0.494828,0.270263
-0.293499,0.236935,0.230108,0.995880,0.080406,-0.041938
-0.725566,-0.105000,0.733215,-0.691191,-0.637444,-0.340470
-0.375176,0.275919,0.756709,0.713220,-0.210838,-0.668480
-0.059534,0.008948,-0.594333,-0.465700,-0.708966,-0.529613
0.295928,0.006417,-0.952088,0.379836,-0.211503,0.900551
-0.030566,0.108619,-0.663171,0.467302,-0.882558,-0.052157
0.067246,-0.027988,0.034196,-0.722441,0.330221,0.607480
0.116200,0.011095,0.237260,0.721133,0.569784,-0.394097
-0.426840,-0.521921,0.872590,0.632783,0.497102,-0.593696
-0.035431,0.352327,0.668833,-0.236660,-0.669193,0.704395
-0.523829,-0.290260,0.578855,0.779223,0.590041,-0.211335
-0.213405,0.014740,0.013578,0.852682,0.169497,-0.494170
-0.301678,0.233787,0.333739,0.714611,0.343929,0.609134
0.019380,-0.190260,-0.960254,0.115900,0.985189,-0.126372
-0.404442,-0.201472,0.334942,0.761596,-0.232099,0.605063
-0.421352,-0.523842,0.861814,0.980563,0.186638,0.060523
-0.034542,-0.004951,0.202850,-0.446423,-0.841280,0.304883
-0.288796,-0.384948,0.880240,0.902202,-0.381822,0.200608
-0.192408,0.008924,-0.054895,0.210923,0.534480,-0.818439
-0.510576,-0.016024,0.443502,0.238688,0.908794,-0.342231
-0.108754,-0.508055,0.449468,-0.110484,0.987160,0.115363
-0.177058,0.145443,0.551485,0.654915,0.238913,-0.716943
-0.722644,0.524043,0.155288,0.959894,0.272714,0.065038
0.114544,0.291860,-0.314791,0.774703,-0.632259,0.009094
0.046115,0.342627,0.444299,0.307947,0.947087,-0.090525
0.338356,0.051095,-0.969759,-0.476722,0.709191,0.519407
-0.126151,0.029627,-0.556767,0.145189,-0.983581,0.107183
-0.130522,0.523032,-0.371749,0.889912,0.309841,-0.334746
-0.330174,-0.045239,0.809317,0.889279,-0.416205,0.189620
-0.193103,0.202318,0.613101,0.381185,0.918999,0.100696
0.198615,-0.138578,-0.948486,0.980126,-0.128483,0.151149
-0.102516,0.138370,0.042495,0.337562,0.905457,-0.257293
-0.433766,0.463506,0.083192,-0.166926,-0.788678,0.591712
0.243535,0.181773,0.204113,-0.087911,-0.707731,-0.700991
-0.238277,-0.456395,0.489371,0.188789,0.853580,0.485551
-0.018909,-0.725817,0.016912,0.862806,0.450733,-0.228923
-0.250376,0.083235,0.733179,-0.632377,0.751141,-0.189437
-0.276373,0.141555,0.276794,0.088098,0.607691,-0.789272
0.064496,0.148354,0.392111,-0.018317,-0.994642,0.101746
-0.297402,-0.651405,-0.037233,0.361104,-0.860214,0.360051
-0.307770,0.480140,0.209546,-0.680697,-0.676514,0.281034
-0.740410,0.672804,0.607103,0.809575,-0.103010,0.577908
-0.319874,0.319522,0.745300,0.943908,0.028821,0.328947
-0.247374,0.081901,0.018913,0.845218,0.137646,-0.516392
0.108999,0.169357,0.537004,0.664418,-0.688947,0.289656
-0.127396,0.068507,-0.683125,0.399338,0.792744,-0.460529
0.089587,-0.222653,-0.949328,0.481703,0.183661,0.856872
-0.557915,0.258352,-0.463826,0.174692,-0.884072,0.433474
-0.495274,0.437369,0.481923,0.197697,0.942219,0.270441
0.112326,-0.144902,-0.960700,0.119449,-0.359053,0.925642
-0.200930,-0.103975,0.129571,0.878163,0.254079,0.405308
-0.109837,0.068111,-0.685022,0.231931,0.944683,-0.231909
0.053507,-0.315252,-0.955255,0.143649,-0.986250,-0.081710
-0.496945,-0.298708,0.920742,-0.714406,0.613880,-0.335821
-0.255783,0.206948,0.548662,-0.589824,-0.800586,-0.105687
-0.185451,0.645330,-0.318875,-0.580922,-0.044259,0.812755
-0.181635,0.404600,0.364130,0.681021,0.488257,-0.545724
0.095391,-0.016717,0.085655,-0.276167,0.961085,-0.006887
0.099573,-0.246639,-0.964141,-0.041560,-0.055148,0.997613
-0.398899,-0.394236,0.689663,0.813610,-0.577912,-0.063694
-0.457287,0.132130,0.374043,0.110363,0.736844,0.666994
0.355457,0.167696,0.198170,-0.030742,0.693434,0.719864
0.087463,-0.197450,-0.948863,-0.163295,0.319993,-0.933241
0.207519,-0.086606,0.284489,0.136979,-0.989982,-0.034252
-0.047702,-0.127239,0.286198,-0.465420,-0.882978,-0.061102
-0.145943,-0.014279,-0.393822,0.992696,0.094238,-0.075322
-0.180421,-0.027281,0.284203,-0.794292,-0.592155,-0.135839
-0.151598,0.428649,-0.504140,0.905918,-0.420392,-0.050820
-0.245672,-0.003879,0.156310,0.800891,0.324987,-0.502949
-0.218188,0.035527,0.293059,0.874906,0.451333,0.175608
-0.446700,-0.152455,0.373590,0.781687,0.150849,-0.605152
-0.190816,0.620405,-0.211387,-0.330284,0.914732,-0.232760
0.184209,0.422728,0.519765,0.042304,-0.998235,0.041674
-0.465459,-0.135758,0.385206,0.618032,0.648994,-0.443669
0.119387,-0.298246,-0.963750,-0.030260,-0.465142,0.884719
0.028613,0.165565,-0.059590,-0.095659,0.983545,0.153260
-0.694177,0.737829,0.561899,0.697993,-0.173323,0.694812
-0.235170,0.090407,-0.081237,0.998116,-0.014696,0.059565
0.216999,-0.093918,0.253695,0.980150,-0.123096,-0.155417
-0.234898,0.189460,0.424217,-0.210725,-0.977196,0.026125
-0.519218,0.216853,-0.487805,0.107352,0.924852,0.364861
-0.000176,0.311180,-0.397085,0.720782,0.506628,-0.473077
-0.316403,0.603776,0.179545,-0.621396,0.507105,0.597254
-0.537698,0.195846,-0.255381,0.216116,0.908141,0.358573
-0.259898,-0.108556,0.138893,0.626617,0.743924,0.232223
0.046081,-0.062029,-0.562327,0.926644,-0.081161,0.367075
-0.290470,0.058141,0.672866,0.571550,0.560973,0.598865
-0.275929,0.163732,-0.405211,0.092841,0.995297,-0.027631
-0.192648,-0.499932,0.527740,0.246307,-0.966126,0.077027
-0.480317,0.460570,0.512638,-0.701892,-0.657029,0.275065
0.460454,0.093726,-0.491694,-0.389370,-0.841905,0.373613
-0.261907,0.026324,0.051066,-0.657184,0.751363,-0.059687
-0.495700,-0.390706,0.065365,0.543520,-0.819234,0.182871
0.113963,-0.343326,-0.929165,-0.522811,0.843133,0.125678
-0.571338,0.444486,0.576339,0.033955,0.328809,0.943786
-0.194224,-0.018101,0.328474,-0.506693,0.009778,0.862071
-0.613396,-0.457337,0.813683,-0.642841,0.621276,-0.448076
0.094068,0.077611,0.228670,-0.742537,0.304488,-0.596595
-0.191415,0.509383,0.275491,0.963082,0.135822,0.232434
-0.156098,0.176329,0.446790,0.294949,0.509119,-0.808581
-0.256033,0.182884,0.515209,0.429884,0.758265,-0.490137
-0.718060,-0.372250,0.645376,0.164480,0.870265,0.464312
0.006174,0.028529,-0.016202,-0.364964,-0.668395,0.648113
0.095559,0.218243,0.344486,0.051930,0.985932,0.158875
-0.058925,-0.004060,-0.808127,0.832128,0.546077,0.096768
-0.394120,-0.336740,0.013536,0.861465,-0.466392,0.200890
0.224539,-0.311377,-0.938524,0.342665,-0.535482,-0.771907
-0.120331,0.166613,-0.613845,0.373388,-0.240799,0.895878
-0.277259,0.090376,0.608634,-0.392389,0.070708,0.917077
-0.229716,0.232122,0.580561,-0.683365,-0.641792,0.348016
0.233464,-0.131690,0.303285,-0.610318,0.186667,-0.769849
0.440262,-0.056703,0.261028,0.105284,-0.980541,0.165693
0.196512,-0.142486,0.327321,0.654547,0.441762,0.613526
-0.043132,-0.171922,0.512733,-0.670783,-0.740926,-0.032843
-0.543425,0.422066,0.599978,-0.585881,0.810038,0.024131
0.387973,0.027707,-0.963819,0.934967,0.257205,0.244299
-0.351928,-0.127228,0.666925,-0.349784,-0.117165,0.929475
-0.132715,-0.249653,0.463635,0.713825,-0.218302,0.665431
-0.177916,-0.044357,0.162453,0.228646,0.971754,0.058432
-0.346453,0.214296,0.521738,0.016886,-0.995281,0.095552
-0.257348,0.124989,-0.006207,0.970085,-0.058218,-0.235683
-0.254333,0.186664,0.358399,-0.359867,0.573210,0.736157
-0.251310,-0.011021,0.293636,0.968408,0.226727,0.103833
-0.279213,0.090710,0.263695,0.545076,-0.526342,0.652576
-0.379163,0.392208,0.785149,0.693235,0.718668,-0.054247
-0.242917,0.026456,-0.154182,-0.683107,-0.341787,0.645405
-0.135171,0.100425,0.138020,0.491488,0.047097,-0.869610
-0.352831,0.570114,0.729619,0.570444,0.820658,-0.033398
0.374800,0.067932,-0.974471,0.611046,0.279288,0.740690
-0.113444,0.193035,-0.176023,0.828483,-0.552794,-0.089633
-0.524999,0.679700,0.538880,-0.309510,0.947233,-0.083392
-0.215471,-0.367935,-0.129819,0.638714,0.705687,0.306676
-0.136751,0.182444,0.724295,0.826776,0.560598,0.046608
0.316300,-0.151802,0.030403,0.458163,0.825626,0.329284
-0.203945,0.092388,-0.261010,0.944763,0.011442,0.327554
-0.282334,-0.259310,0.235638,-0.626151,-0.770998,-0.116175
-0.460846,0.719327,0.645221,-0.792059,0.606369,-0.070421
0.240865,-0.196694,-0.933078,-0.057073,-0.315333,0.947263
-0.244915,0.452527,0.332669,0.874136,0.376291,-0.307070
0.215597,0.264904,0.011645,0.202870,-0.601423,0.772744
0.097198,0.006923,-0.812586,0.559080,0.752722,0.347619
-0.038377,0.257680,-0.421920,0.829551,0.260123,-0.494147
-0.071348,0.028771,0.948795,-0.685897,0.703208,0.187202
0.066956,-0.310325,-0.946832,-0.140536,-0.486409,0.862355
-0.057304,0.013168,-0.364113,0.795597,-0.253088,0.550428
-0.232155,-0.572523,0.840143,-0.489877,0.449480,-0.746986
0.022081,0.364596,0.347874,0.718234,-0.025307,-0.695342
-0.469533,0.397910,0.568493,-0.556339,-0.441477,-0.703978
-0.365888,-0.300562,0.693886,0.863837,0.501936,0.042970
-0.195429,0.140638,-0.041560,0.069993,0.970666,0.230017
-0.130344,0.095059,-0.044987,0.831893,-0.155266,0.532773
-0.185386,0.089650,0.006505,0.817199,0.212278,0.535840
0.217268,0.005072,-0.220766,-0.427270,-0.898761,-0.098334
-0.585762,-0.444532,0.577720,0.849658,-0.206122,0.485381
-0.326499,0.014169,0.859578,-0.527671,0.839123,0.132047
-0.576574,-0.387533,0.868992,0.751472,0.427828,-0.502248
-0.155273,0.513483,0.381753,0.330377,0.917279,-0.222372
0.536643,-0.445545,-0.348879,-0.331853,0.693148,0.639859
-0.357029,-0.260475,0.901416,-0.173816,0.087937,0.980844
0.027521,-0.525034,0.832679,-0.066437,-0.979660,0.189346
-0.644385,0.463028,0.694323,0.165577,0.942437,-0.290512
-0.142164,0.061359,-0.522012,-0.613966,-0.771612,0.166315
0.039649,-0.564063,0.734668,-0.002545,0.973146,0.230175
-0.357430,0.008206,0.854211,0.814755,-0.274150,-0.510897
-0.445241,-0.309486,0.774538,-0.611286,0.469434,0.637151
-0.793996,-0.044866,0.731142,0.416841,0.907927,0.043729
-0.619826,0.284463,-0.463389,0.278292,-0.131979,0.951386
-0.178162,0.099907,-0.063683,0.912680,0.268236,-0.308326
0.194052,-0.107944,0.204610,-0.589154,0.459271,0.664806
-0.367135,-0.096115,0.755280,0.971176,-0.238114,-0.010927
-0.738804,-0.063841,0.713201,0.551945,0.809441,-0.200403
-0.008725,-0.291245,-0.969922,0.349149,-0.278913,-0.894596
-0.173996,0.032580,-0.182524,-0.541741,-0.622097,-0.565253
-0.126203,0.126819,-0.091471,0.921591,-0.365582,0.130460
-0.147736,0.145377,0.092508,0.195114,0.937477,0.288215
-0.223024,0.485100,0.714114,-0.295643,-0.879744,0.372352
-0.816509,-0.480147,0.689792,0.159826,0.840118,0.518323
-0.189165,-0.172212,0.581603,-0.652937,-0.159741,-0.740376
-0.141245,0.409395,0.657866,0.632083,0.460266,-0.623400
-0.085675,0.048217,0.849580,0.678034,-0.710031,0.190068
-0.134234,0.499837,-0.289778,0.254113,-0.832967,0.491520
-0.520944,0.211385,-0.475074,0.477276,0.872162,-0.107428
-0.493262,-0.462612,0.827679,-0.429176,0.172028,0.886687
-0.014457,0.020950,0.002088,0.496199,0.779633,0.382046
-0.169848,-0.046960,0.263991,-0.552467,0.190673,-0.811433
0.054401,0.192260,-0.486014,-0.706006,-0.676438,0.209731
-0.011583,0.091313,0.855224,0.958345,0.085854,0.272403
-0.108612,0.002555,-0.342384,-0.066548,0.531816,0.844241
-0.226780,0.055400,0.127375,0.518964,0.734192,0.437765
-0.346818,-0.226528,0.715180,0.999248,0.035876,-0.014693
-0.192815,0.050011,-0.110775,0.006806,-0.966392,0.256984
0.039020,0.341151,0.375086,0.477288,0.878572,-0.017548
0.176362,0.003436,-0.950615,0.041938,-0.647026,0.761314
0.272391,-0.146170,-0.959643,0.010088,0.927519,0.373640
-0.209567,-0.004448,0.166203,0.986488,0.163753,0.005100
-0.189559,0.138909,-0.130302,-0.182204,-0.869276,0.459522
0.210194,-0.071539,-0.952936,0.283670,0.521579,0.804665
0.155023,0.214206,-0.387985,-0.311398,-0.835095,0.453483
0.141446,0.267390,0.387903,0.122745,-0.826545,0.549324
-0.017401,-0.557358,0.680900,0.989603,-0.090939,0.111426
-0.142556,-0.119953,-0.160656,0.974555,-0.194926,0.110663
-0.575649,-0.331063,0.886028,0.841184,-0.498278,0.210068
-0.707426,0.597058,0.230486,0.911621,-0.398438,0.100965
-0.736756,-0.318811,0.619377,0.548146,0.706373,0.447853
-0.355229,-0.109236,0.232231,0.714853,0.227588,0.661203
-0.456670,0.206141,-0.461165,0.140177,0.603254,0.785133
0.211905,0.220976,-0.025538,0.962485,0.253337,-0.097170
0.322300,-0.136586,-0.951014,0.879467,0.202620,0.430678
-0.783512,-0.308731,0.309424,-0.631205,-0.032714,-0.774926
-0.744584,-0.256280,0.037557,-0.278452,0.844800,-0.456922
-0.825122,-0.089017,0.671479,0.670501,0.506920,-0.541720
-0.299748,0.188774,0.429858,-0.174935,0.956391,0.233910
-0.454933,-0.455386,0.002781,0.423265,-0.442448,0.790624
-0.458601,-0.362166,0.749112,0.890451,0.288914,-0.351605
-0.802929,-0.486500,0.821580,0.236463,-0.290741,-0.927122
-0.723614,0.519457,0.167550,0.954742,0.287125,0.077627
-0.718957,-0.074791,0.483023,-0.661503,-0.619889,-0.422079
0.495659,0.037973,-0.507638,-0.386600,-0.849227,0.359659
-0.323300,-0.673965,-0.061734,0.174937,-0.984531,-0.009781
-0.640640,0.099394,0.648346,0.868654,0.495418,0.000474
0.155301,-0.327846,-0.938012,0.242507,0.585035,0.773902
-0.415871,0.726042,0.491623,-0.045565,0.674221,0.737123
0.061077,0.360365,0.036590,0.510141,-0.255692,0.821205
-0.198181,0.076450,0.311270,0.243227,0.953742,-0.176682
0.311596,-0.119203,-0.942936,0.753571,-0.061072,0.654524
0.041762,0.210555,0.381782,0.788936,-0.333560,0.516059
0.281843,-0.102483,-0.944813,0.974146,0.169144,0.149763
0.291142,0.299901,0.378843,-0.614435,0.413245,-0.672085
-0.595453,0.323559,0.585361,0.486189,-0.141266,-0.862359
-0.652627,-0.226313,0.259297,-0.512131,0.665328,-0.543194
0.267208,0.023400,-0.973162,0.613510,0.294278,-0.732807
0.235996,0.213925,0.146124,-0.319285,-0.633641,-0.704667
0.371421,0.082640,-0.951427,0.228598,0.467012,-0.854191
-0.177846,0.062176,0.422967,-0.244400,0.951979,-0.184402
-0.193455,-0.052111,0.101627,0.627429,0.778508,0.016094
-0.185383,0.101300,-0.301058,0.978935,-0.013947,0.203693
0.267319,0.059774,-0.941827,-0.298178,0.364827,0.882038
-0.507520,-0.280096,0.500834,-0.362677,-0.847948,0.386587
-0.334225,-0.047461,0.866891,0.927971,0.182326,-0.325002
-0.064558,-0.021028,-0.578140,0.513115,0.823402,0.242327
-0.748281,0.560453,0.590690,0.297219,-0.535074,0.790795
-0.250831,0.004023,-0.015103,0.393822,0.725827,-0.563985
0.041843,0.234421,-0.465908,-0.747980,0.632244,0.201975
0.210810,0.549318,0.694529,0.404348,-0.730489,-0.550353
-0.263186,0.601430,-0.377936,0.447782,0.882131,0.146070
-0.851713,-0.132100,0.681359,0.750015,0.347332,-0.562884
-0.268880,0.094943,-0.107555,0.844038,0.535617,-0.026706
-0.495760,-0.636186,0.793942,0.281989,0.086920,0.955472
-0.206747,0.056421,0.769997,-0.264760,-0.368118,0.891286
-0.158322,0.547392,0.392669,0.177405,-0.708247,0.683310
-0.487903,0.468482,0.333092,-0.641834,0.100121,-0.760280
-0.043722,-0.027045,-0.240136,0.828456,0.140296,-0.542198
0.147701,-0.198255,-0.951681,0.405918,0.077098,-0.910652
-0.903549,-0.841544,0.638923,-0.313666,0.569602,-0.759715
-0.283749,-0.083917,0.148568,0.860320,0.360257,0.360645
-0.201885,0.033942,0.563556,-0.752195,-0.658140,0.032472
-0.532752,0.707968,0.655253,-0.792059,0.606369,-0.070421
-0.312006,0.031565,0.853330,-0.088645,0.579744,0.809962
0.191071,0.184875,0.424362,0.941471,0.297903,-0.157753
-0.227568,0.141075,0.417200,0.892259,0.377407,0.247866
-0.179172,-0.192926,0.600784,-0.821888,0.515575,0.242246
-0.114757,0.374751,-0.493897,-0.169734,-0.822407,0.542988
0.158726,0.288216,0.318061,0.635000,0.663806,0.395140
-0.517567,-0.430777,0.803857,0.145936,0.750726,0.644293
-0.588971,0.816113,0.049461,-0.047121,-0.871742,0.487694
0.029271,-0.019952,-0.084013,-0.427678,0.847771,0.313650
-0.415593,0.829524,-0.180973,0.972166,0.233968,0.012318
0.060365,-0.248273,-0.960948,0.711796,0.247555,0.657315
0.194916,-0.223762,-0.961363,-0.769421,0.638532,-0.016363
0.306406,-0.357433,-0.963717,-0.796133,-0.336347,0.503034
-0.522610,0.321071,0.605692,0.832389,-0.418432,0.363379
0.222503,0.008441,-0.953339,-0.674202,-0.695058,-0.249693
0.245627,-0.081680,-0.948673,0.237979,-0.477453,0.845816
-0.851381,-0.226651,0.844773,-0.758818,0.235992,0.607045
-0.620079,-0.387300,0.631914,-0.257764,0.965788,0.028478
-0.184897,0.598279,-0.359773,0.318583,0.888048,0.331475
-0.265181,0.148746,0.623681,0.842522,-0.013319,-0.538498
-0.041953,0.330706,0.379188,0.354476,0.871481,0.338921
0.093423,-0.278123,-0.949217,0.764508,0.440200,-0.470905
-0.723792,0.093571,0.205058,-0.636689,0.502653,0.584779
-0.133472,0.005653,-0.264065,0.980576,0.145200,0.131866
0.187593,0.201617,0.440628,0.890809,0.364079,-0.271855
-0.358338,-0.406313,0.511121,-0.625234,0.729427,-0.277521
-0.270098,-0.323480,0.895488,0.961588,-0.194761,0.193434
0.153946,-0.172023,0.305800,0.804108,-0.532321,0.264659
0.180083,-0.321169,-0.970502,0.512581,0.315985,-0.798382
0.196756,0.165031,-0.953813,-0.749996,-0.145502,0.645241
0.126598,-0.176083,-0.901158,-0.259912,-0.922548,0.285220
-0.520679,-0.494626,0.837245,0.461784,-0.049625,-0.885603
-0.124182,0.017588,-0.195012,-0.205333,0.101823,-0.973381
-0.321911,0.666453,0.519505,0.133809,-0.857103,0.497463
-0.364909,0.193202,-0.010519,-0.059484,-0.967389,0.246210
-0.451695,-0.227265,0.873528,-0.371582,-0.731290,0.571964
0.134900,-0.359646,0.485027,0.433192,-0.784054,0.444527
-0.330938,0.167801,0.761012,0.756826,0.060651,-0.650797
-0.302751,-0.028327,0.361406,0.363626,0.911009,0.194519
0.849563,-0.098283,-0.282280,0.771941,0.201454,0.602929
-0.182674,0.116089,0.757338,0.429239,0.732648,0.528186
-0.137676,-0.255341,-0.997502,0.385613,-0.253810,-0.887064
0.351725,0.127666,-0.961348,0.481689,-0.007353,-0.876311
-0.418051,-0.505640,0.586817,0.038883,0.710853,0.702265
-0.254512,0.046283,0.619238,0.892375,0.433345,0.126011
-0.388374,-0.045855,0.338049,-0.260441,-0.616483,0.743047
0.110832,-0.222931,-0.958170,0.478268,0.862509,-0.165341
0.430588,0.115791,-0.941178,-0.185493,-0.175579,0.966832
-0.432552,0.000541,0.544701,0.540373,0.039418,-0.840502
-0.387622,-0.380533,0.506772,0.993298,0.002629,0.115555
-0.192177,0.111765,-0.145363,-0.239242,-0.908519,0.342574
0.260600,-0.009162,0.426113,0.244835,0.543805,-0.802703
-0.002817,-0.191995,-0.970013,0.024135,0.999618,0.013477
-0.363069,-0.042893,0.852236,0.980632,-0.137035,-0.139939
0.162405,0.299893,0.391082,-0.062053,-0.992308,0.107121
-0.178964,-0.002544,-0.052404,-0.615243,0.268518,0.741198
0.321343,-0.101818,-0.936305,-0.474159,-0.156856,-0.866354
-0.564902,-0.279967,0.399554,0.331262,0.295271,0.896148
-0.793037,0.336039,0.825025,0.614970,-0.488092,0.619337
-0.212616,0.086916,0.299703,-0.021033,0.634987,0.772236
-0.137990,0.357140,-0.514362,-0.507122,-0.626932,0.591426
0.132957,0.247991,-0.261216,-0.687180,-0.713762,0.135377
-0.044830,0.370473,0.393955,0.423115,0.898377,-0.117864
-0.064055,0.006340,-0.669602,0.936405,0.024104,0.350092
-0.101955,0.015261,-0.235137,0.903941,0.418764,-0.086768
-0.094611,0.072908,-0.432731,0.380899,0.898842,0.216792
-0.256042,0.044439,0.719175,-0.371362,0.812215,-0.449885
-0.251566,0.199916,0.467336,0.329833,-0.636723,0.696990
-0.224483,-0.625579,0.798667,-0.666433,0.466268,-0.581773
-0.070846,0.091556,0.550557,-0.211626,0.179531,0.960720
-0.250801,0.108195,-0.110439,0.848038,0.529344,0.025030
-0.078993,0.076383,-0.019741,0.433346,0.880948,0.190109
0.025249,-0.173712,-0.952364,-0.530973,-0.554199,0.641039
-0.234039,0.177180,0.206124,0.977926,0.031323,0.206591
0.076836,-0.210945,0.569191,0.980265,-0.197076,0.015571
-0.064074,-0.004402,-0.702304,0.935938,-0.268690,0.227651
0.102698,0.326324,-0.238699,0.834857,0.457369,-0.306313
-0.230139,0.274735,0.459705,-0.521728,-0.710439,0.472309
-0.199261,0.043633,-0.061373,0.717732,-0.209389,-0.664091
-0.001811,0.187760,0.482167,0.193324,-0.665156,0.721244
-0.207154,-0.055841,0.004673,0.869939,0.441047,0.220641
0.161346,0.060051,0.513445,0.955422,0.220709,-0.196101
-0.160423,-0.003780,-0.368977,0.952088,-0.295678,-0.078123
-0.833479,-0.097034,0.676988,-0.789277,-0.028098,0.613394
-0.677009,0.651820,0.565999,-0.632808,-0.107056,-0.766872
-0.116427,0.096487,0.820360,-0.540385,-0.831377,0.129601
-0.325856,0.668977,0.491440,-0.681974,0.679088,0.271572
-0.652811,0.370684,0.688905,-0.148529,-0.903247,0.402597
0.174453,-0.309805,-0.944940,-0.062548,-0.306186,0.949915
-0.413482,0.479091,0.798982,-0.357263,-0.817503,0.451722
-0.503904,-0.337369,0.226540,0.659072,0.602580,-0.450024
-0.145772,-0.064485,-0.168187,0.860850,0.450973,0.235713
0.038655,-0.466685,0.622576,0.021121,-0.432458,0.901407
-0.205709,0.100019,0.778178,0.372507,0.178546,-0.910692
-0.361090,-0.436260,0.558192,0.911862,0.338916,0.231612
-0.246427,-0.051410,0.320051,0.961397,0.051981,0.270212
0.119651,0.426907,0.513589,-0.411168,-0.900737,-0.140050
-0.264748,-0.269756,0.933964,0.924179,0.044307,-0.379380
0.070431,0.232307,0.426199,-0.741583,0.657202,0.134687
-0.086584,0.058247,-0.657142,0.153718,0.986478,0.056848
-0.740641,0.697416,0.621052,0.838299,0.237179,0.490919
0.229277,0.034911,-0.600543,0.612730,0.579962,-0.536848
-0.143854,-0.101279,-0.176504,0.986993,0.156335,-0.037483
-0.664656,0.424054,0.676743,-0.676025,-0.736404,0.026458
-0.394445,0.085352,0.853114,0.590280,0.802031,0.091195
0.124641,0.358094,-0.376160,0.934467,0.152321,-0.321824
-0.202636,0.057241,-0.126575,0.982345,0.183600,0.035913
-0.539510,-0.832579,0.028100,-0.162910,0.776714,0.608420
-0.598049,0.701053,0.519708,0.770660,-0.096217,0.629941
-0.235833,-0.090683,0.335209,-0.365675,0.908870,0.200591
-0.511492,0.777016,0.713824,0.928844,0.035826,0.368735
-0.568187,-0.452446,0.895329,0.026248,0.787330,0.615972
-0.820864,-0.294156,0.635499,0.461310,0.728788,0.506024
0.078313,-0.319726,-0.962857,0.690229,0.463197,0.555907
-0.642877,-0.184397,0.263320,0.595539,-0.003043,0.803320
-0.155654,0.183100,0.590317,0.808574,0.534241,0.246566
0.240365,0.178884,-0.989787,0.301399,0.404538,0.863428
0.019800,0.315073,0.349496,0.858296,-0.207367,-0.469390
-0.092885,-0.475800,-0.179942,-0.411435,-0.683775,-0.602638
-0.437344,0.397883,0.409065,0.779962,0.623689,0.051680
-0.478240,-0.434338,0.013017,-0.709973,0.499362,-0.496565
0.087070,-0.022959,-0.902767,0.399655,0.206782,0.893038
0.075502,-0.038494,-0.900757,-0.174773,-0.052124,0.983228
-0.183699,0.140246,0.290494,0.817658,0.268810,0.509094
-0.215024,-0.628666,0.723373,0.022403,0.966433,-0.255938
-0.012717,-0.700961,-0.061796,0.804371,0.578684,-0.134583
-0.216056,0.595187,-0.254187,-0.045686,-0.863005,0.503126
-0.090468,0.323544,-0.121270,0.038921,0.051906,0.997893
0.108425,0.065849,0.320143,-0.258553,-0.852497,0.454311
-0.026561,0.183303,-0.448809,-0.728936,-0.682835,-0.048864
0.029685,-0.009404,-0.891439,0.186037,-0.223888,0.956695
-0.413116,-0.338628,0.705059,0.523083,0.830425,0.191778
-0.485570,0.535099,0.845896,0.396289,-0.732741,0.553214
-0.260617,-0.234215,0.241129,0.720400,0.680982,0.131482
-0.153487,0.377093,0.321831,0.323852,0.930292,-0.172272
-0.206611,-0.099594,0.136817,0.732267,0.469569,0.493244
-0.196004,0.111390,0.093456,-0.405899,0.899425,0.162113
-0.600605,-0.230150,0.251661,-0.297960,0.014592,-0.954467
-0.525116,0.754852,0.530392,-0.493405,-0.606316,0.623644
-0.730976,-0.460571,0.808365,0.712795,0.432244,-0.552348
0.248936,0.215268,0.354325,-0.663125,0.718062,-0.211310
0.005218,-0.256369,-0.961590,-0.725865,0.687392,-0.024754
-0.133394,0.160497,0.502392,0.781248,-0.620931,-0.064002
-0.278963,-0.097905,0.728100,-0.159876,0.243707,0.956581
-0.113110,0.284119,0.303307,0.241922,0.962945,-0.119206
0.284467,0.125309,-0.988481,-0.140242,0.449882,0.882008
-0.550632,-0.363992,0.633220,-0.606155,0.581366,-0.542761
-0.654306,0.390033,0.669771,0.768619,0.635985,0.068898
-0.035386,-0.135857,0.386538,0.389264,-0.481904,0.785011
-0.727837,-0.258249,0.609390,0.523827,0.397685,0.753294
-0.160737,0.092894,0.331882,-0.282605,0.770472,0.571408
-0.539689,-0.401822,0.812152,0.491823,-0.865297,-0.096810
-0.078479,0.022029,-0.461942,-0.690906,-0.666395,0.280297
0.180856,0.160130,0.195514,0.365132,0.741214,0.563277
0.155081,0.241077,-0.271286,0.721251,0.690016,-0.060629
0.073771,0.179376,0.399457,0.092287,0.088618,0.991781
-0.164925,-0.089199,-0.206359,0.697096,0.542239,0.469078
-0.305248,-0.107992,0.726358,0.440384,-0.277812,0.853746
0.043775,-0.670852,0.010921,0.888546,0.430491,-0.158629
-0.027631,-0.104890,0.052256,-0.306886,0.939611,-0.151500
0.125559,0.346297,-0.311537,0.989470,0.080213,-0.120476
0.578432,0.038980,-0.247822,-0.234401,0.663669,-0.710352
-0.284391,0.016096,0.260764,-0.134021,-0.828691,0.543424
-0.172875,-0.038483,0.263341,-0.526716,0.127902,-0.840363
-0.126052,0.151012,0.664049,0.354425,0.344556,-0.869290
0.287539,0.095380,-0.974571,0.752996,-0.125904,0.645867
-0.015364,0.225363,-0.465450,0.943027,0.289098,0.164687
-0.013372,0.046088,0.819338,-0.098709,0.958475,0.267548
0.156068,0.172654,0.321071,-0.114114,-0.987355,0.110039
-0.516229,-0.413693,0.627345,-0.415955,0.486810,0.768113
-0.544418,-0.059401,0.395585,0.186514,-0.981961,-0.031073
0.064595,-0.396449,0.456987,-0.209801,0.976914,-0.040289
