-0.148775,0.734441,0.636781,0.145897,0.699281,0.699800
0.106218,-0.231775,0.616761,0.266704,0.901265,-0.341453
0.212931,0.138235,0.812692,-0.605991,0.690113,0.395625
0.043376,-0.289591,0.581590,0.378173,-0.897905,-0.225282
-0.435100,-0.382487,0.432038,0.775551,0.090318,0.624791
-0.021606,0.320389,-0.107336,-0.524864,0.850757,0.027025
-0.216726,-0.203196,0.099067,-0.034386,0.416309,0.908573
-0.003632,0.442381,0.684030,0.520853,-0.852605,0.042144
-0.192646,0.402755,-0.587166,0.843142,0.282825,0.457298
-0.980702,0.193196,-0.148600,0.990298,-0.074553,-0.117269
-0.495959,0.629078,0.700351,0.737925,0.378185,-0.558966
0.243771,-0.219825,0.443272,0.605629,0.595084,0.528288
-0.613062,-0.264516,-0.971003,0.192937,0.030734,-0.980730
-0.028864,-0.209952,-0.961320,-0.041207,-0.209196,0.977005
-0.031668,-0.001685,0.914534,0.931216,0.211039,-0.297152
0.354606,0.255167,-0.955308,-0.170527,0.442571,0.880370
0.116440,0.184228,-0.615673,-0.479273,0.776235,-0.409581
-0.047835,0.640124,0.669613,-0.515567,-0.854237,0.066862
0.682991,-0.023127,-0.951854,-0.086718,0.055951,0.994660
0.266532,0.223075,0.762479,0.981105,0.133926,-0.139634
0.233875,-0.128228,0.693387,0.121984,-0.594562,0.794742
0.236019,-0.305965,0.704948,0.852948,-0.207949,0.478788
-0.002146,-0.062752,0.679324,0.320357,-0.136889,-0.937354
0.028200,0.060547,0.802329,0.794687,-0.180606,0.579530
-0.405247,0.273096,0.618040,0.595540,-0.436139,0.674622
0.110506,0.195400,0.760438,0.484274,0.796445,0.362152
-0.255816,-0.852927,0.423660,-0.425079,-0.721808,0.546170
0.247234,-0.205924,0.704649,0.939914,0.331136,0.083131
-0.293586,-0.199294,0.526752,-0.596275,-0.802740,-0.008067
-0.601354,0.247372,0.679678,0.934282,-0.198019,0.296490
-0.624281,0.475899,0.655034,0.362508,-0.906687,0.215653
0.207983,0.460048,-0.959797,0.202533,-0.078376,-0.976134
-0.218870,0.231521,0.792318,0.072698,-0.501340,0.862191
0.676564,0.217620,-0.220793,0.046769,-0.917861,0.394137
0.251195,0.259061,0.523108,-0.161022,0.975536,-0.149671
0.468910,-0.130829,0.324239,0.874795,0.335457,-0.349575
0.256309,-0.028194,0.367843,-0.784038,0.465182,0.410962
0.031829,-0.071847,0.848924,-0.724038,-0.403611,0.559346
0.263235,-0.103677,-0.954547,-0.014438,-0.335713,0.941854
-0.508331,-0.345717,0.269374,0.380809,0.650888,-0.656757
0.876792,0.386642,-0.196964,0.048301,0.992481,-0.112461
-0.368795,0.732363,0.514430,-0.652943,-0.737490,-0.172549
0.032987,0.337271,0.739358,-0.031745,-0.790004,0.612279
-0.018143,0.110172,0.932813,-0.097346,0.597573,0.795883
0.431300,0.097444,0.503278,-0.328788,-0.348501,0.877750
-0.049315,-0.319993,0.564725,0.816945,0.360791,-0.449923
-0.803728,-0.262050,0.161059,0.713777,-0.399759,0.575079
-0.006928,0.249576,0.454968,0.076904,-0.994768,0.067255
0.063499,-0.021700,0.867421,0.884726,0.442139,0.147556
0.654130,0.837733,-0.965563,-0.030843,-0.020582,0.999312
0.492164,0.288424,0.639175,0.326568,0.475883,-0.816633
0.009234,0.458232,0.527704,0.894153,0.089844,0.438655
-0.008746,-0.224630,0.571526,-0.019342,-0.999403,-0.028640
0.289459,-0.134469,0.513669,0.931455,0.361542,-0.040967
0.018636,-0.443419,0.536572,0.846773,0.525722,-0.081192
0.103414,-0.291025,0.597394,0.808346,0.585734,0.059099
-0.226129,0.120956,-0.410521,-0.151851,0.909293,0.387464
0.088404,-0.348833,0.562685,0.772999,-0.162671,0.613197
-0.014680,0.073409,0.844327,0.785716,0.512782,0.345984
0.410683,-0.081332,-0.964421,-0.112716,0.087256,0.989789
0.174828,0.388982,-0.374208,0.843675,-0.490899,-0.217327
-0.329213,0.238665,0.800968,-0.062833,-0.939895,0.335634
0.246906,-0.395087,0.710687,-0.583308,-0.798445,-0.149124
-0.248557,-0.398854,0.440824,-0.395440,0.893347,0.213445
-0.210625,-0.157076,-0.966814,0.268205,0.237426,-0.933646
0.421737,-0.127713,0.291598,0.912684,-0.226553,-0.340120
-0.663532,-0.559439,0.477165,0.394888,0.715333,0.576508
0.233709,-0.239966,0.768980,-0.188641,-0.843445,0.503007
0.036283,0.453426,0.620542,0.630324,-0.718991,0.292821
0.000657,0.469793,0.633953,-0.010203,-0.968875,0.247340
0.554674,-0.280892,-0.375350,0.193978,0.843818,-0.500343
0.009400,0.213718,0.601202,0.950355,-0.272787,-0.149708
-0.567545,-0.108610,0.457117,0.485197,0.847015,-0.217140
-0.638793,-0.403144,-0.971439,-0.172021,0.058707,0.983342
0.585846,0.449660,-0.959851,-0.264808,0.085876,0.960470
0.058878,-0.222941,0.466719,-0.724325,0.636410,-0.265210
0.629884,0.227231,-0.221636,-0.034429,-0.932461,0.359625
-0.073068,0.120830,0.802600,0.648887,0.757226,-0.074529
0.152565,0.108483,-0.958110,-0.150045,-0.032338,0.988150
-0.409204,-0.315711,-0.612708,0.568620,-0.817814,-0.088610
-0.132608,0.370014,0.692463,0.241303,-0.706755,0.665034
-0.613394,0.247761,-0.980687,0.172796,-0.075575,-0.982054
-0.040577,0.125896,0.906128,0.963327,0.204007,0.174305
0.358734,-0.289591,-0.362294,0.788530,-0.484485,0.378808
0.516576,-0.494741,-0.447760,0.535864,0.637091,-0.554044
-0.071583,0.675070,0.667165,-0.279451,-0.960113,-0.009495
-0.166749,0.217620,0.796099,-0.336349,-0.259483,0.905283
-0.264719,0.585686,0.657427,-0.779100,0.626752,-0.013614
-0.121726,0.185267,0.707804,0.709894,-0.536365,0.456468
-0.708067,-0.059889,-0.378859,0.894232,-0.397045,0.206648
0.284179,-0.153048,0.757202,0.171099,0.871090,0.460355
-0.158671,0.370275,0.668362,-0.615661,-0.784291,-0.076484
0.468251,0.681954,-0.970650,-0.132142,-0.026219,0.990884
-0.047996,0.368848,0.828333,-0.282058,0.705633,-0.650020
-0.105890,0.111861,-0.096864,-0.358325,-0.933517,-0.012243
-0.432791,-0.167726,0.430813,0.445978,0.379136,0.810777
0.152565,0.431596,-0.959797,-0.213038,0.046452,0.975939
-0.490352,-0.647396,0.462421,0.796881,-0.099851,0.595828
-0.032327,-0.131479,0.742703,0.239465,-0.628112,-0.740359
-0.028205,0.120044,-0.149607,0.898658,0.159738,0.408530
0.058551,-0.550606,-0.429454,-0.179857,0.662686,-0.726979
-0.367643,-0.039883,0.782798,0.861294,0.203805,0.465441
0.549560,0.556973,-0.959225,-0.134120,-0.194275,0.971735
0.256309,-0.152786,0.505263,-0.311655,-0.827219,-0.467525
-0.162134,0.734575,-0.979572,-0.003108,0.019026,0.999814
0.475504,0.103677,0.292930,0.738199,-0.232921,-0.633095
0.409863,-0.606597,0.575198,-0.633896,0.736243,-0.236903
0.363843,0.366636,0.735495,-0.134385,-0.729192,0.670984
-0.265711,0.540733,-0.975383,0.164364,-0.136502,-0.976909
-0.840180,-0.392487,-0.461415,0.773019,0.423492,-0.472330
0.042716,0.026243,0.148274,0.450559,-0.881102,0.143722
-0.015506,0.194624,0.918559,-0.836330,0.468576,-0.284585
-0.085274,0.143564,-0.574219,0.544361,0.829718,0.123451
0.564404,0.264263,0.638822,-0.425144,-0.294847,0.855756
0.371267,-0.271796,-0.949106,0.264007,-0.139663,-0.954356
0.048655,-0.112773,-0.703914,-0.330392,-0.923098,0.196804
0.449279,-0.061975,-0.293692,0.515252,-0.775428,0.365002
-0.189017,0.167726,0.742758,0.227674,0.923868,0.307623
0.076858,0.130052,0.909420,-0.523502,0.851991,0.007592
-0.062019,-0.148496,0.416941,0.188378,0.885869,0.423970
-0.062346,-0.065218,0.929712,0.940360,0.336595,0.049255
-0.160649,0.133303,0.684384,-0.245253,0.712251,0.657684
-0.091213,0.257506,0.657019,-0.438130,-0.868787,-0.230762
-0.087251,0.577106,0.405245,0.330940,0.691761,-0.641829
0.472207,0.392098,-0.136632,0.692168,-0.602679,0.397091
0.188851,0.058208,-0.003482,-0.008567,-0.996625,0.081643
-0.804059,-0.333117,-0.977396,-0.242955,0.182626,0.952691
-0.428174,-0.578931,0.452194,0.597887,0.124624,0.791834
0.513934,-0.155252,0.500122,-0.235431,0.786644,0.570756
0.010391,0.027544,0.925632,-0.295011,0.714929,-0.633913
-0.179947,0.699367,-0.976362,-0.031316,0.174077,0.984234
0.034139,0.018710,0.821451,-0.274444,0.287942,0.917480
0.776180,0.232686,-0.224791,0.180720,-0.940801,0.286764
-0.085440,-0.046639,0.953948,0.716779,0.641991,-0.272168
-0.086759,0.771861,0.806000,0.740500,0.362536,-0.565886
-0.094016,0.214242,0.666812,-0.307472,-0.537509,-0.785203
-0.094837,-0.125635,0.493594,0.855171,0.315681,-0.411131
-0.024082,-0.232686,0.600359,-0.331136,0.936418,-0.116058
-0.585685,0.288298,0.578489,0.359107,0.828148,-0.430365
0.866731,0.161881,-0.946876,0.291462,-0.029297,-0.956134
-0.555007,0.096144,0.731904,-0.185698,-0.706096,-0.683334
0.591453,-0.040795,0.597965,0.176932,-0.502997,0.845984
-0.111004,0.241520,0.715502,-0.463616,0.636533,-0.616349
0.300839,0.230347,0.377418,-0.787083,-0.444815,-0.427364
-0.791028,-0.300510,-0.973016,0.231682,-0.155329,-0.960311
-0.400133,0.000908,0.806300,0.514742,-0.855211,0.060459
-0.407885,0.015205,0.508500,0.527292,0.265804,-0.807038
-0.102594,0.138885,0.633055,-0.367767,0.416546,0.831407
0.926437,0.320778,-0.942741,-0.155576,0.076904,0.984826
-0.022270,0.100688,0.935723,0.818121,-0.025439,0.574483
-0.038267,0.750681,0.435356,0.645703,-0.720123,0.253950
0.350157,0.675070,-0.969480,0.311460,-0.333722,-0.889731
0.180768,0.323117,0.774474,0.944683,-0.167943,0.281727
-0.191161,-0.408862,-0.965346,-0.122813,-0.080058,0.989195
-0.055420,-0.032477,0.532682,-0.154180,0.931214,-0.330255
-0.040411,0.367674,0.818867,0.847855,-0.438332,0.298341
-0.049315,-0.181761,0.630172,0.330173,-0.041625,-0.943002
-0.158832,-0.462911,-0.965590,-0.142039,0.016026,0.989731
0.502720,0.200991,0.654163,0.278995,-0.637573,0.718097
0.066962,0.087175,0.751897,-0.626209,0.640651,-0.444329
-0.891802,-0.358714,-0.569377,0.147388,0.988601,-0.030749
-0.185554,-0.941280,0.548976,0.085704,0.981634,0.170440
-0.143827,-0.011169,0.500313,0.333781,0.938525,0.088095
0.369450,0.239831,0.515518,0.496570,0.867305,0.034655
-0.232561,0.205535,0.625303,0.206719,-0.784332,0.584885
0.271812,-0.351696,0.619726,0.235020,0.079174,0.968761
0.311726,0.902559,0.100373,-0.124327,0.921403,0.368184
0.720269,0.449398,-0.219841,-0.223432,-0.423506,0.877907
0.278737,0.273223,0.358975,-0.689146,0.313087,0.653494
0.159325,-0.103289,0.883388,0.786090,0.578626,0.217381
0.236185,-0.230997,0.702799,0.498420,0.058417,0.864965
-0.126507,0.316877,0.669613,0.709065,0.704735,-0.023995
-0.234705,0.131479,0.931888,-0.543004,0.786095,-0.295299
0.348506,0.341823,0.664255,0.323751,0.673964,-0.664046
0.383307,-0.267506,-0.361396,-0.556501,0.230054,-0.798362
-0.565562,0.175656,0.702717,0.604434,0.671165,-0.429181
-0.570348,0.137720,0.726845,-0.114377,0.891751,0.437834
-0.007095,-0.396261,0.497919,0.903763,0.254415,0.344217
0.055088,0.524755,0.373637,0.850377,0.456079,-0.262393
-0.285669,0.251004,0.587438,-0.758339,0.031483,-0.651099
-0.247239,0.448875,-0.970405,0.107168,0.015084,0.994127
-0.606795,0.437963,-0.979545,-0.206874,0.056877,0.976713
-0.451429,-0.047812,0.400811,0.712618,0.701368,-0.016068
-0.031008,0.206962,0.831488,0.723916,0.139157,0.675708
0.340754,-0.471744,-0.429345,0.079417,-0.900135,0.428311
0.144808,0.178383,0.824661,0.075859,-0.979988,0.184035
-0.197428,-0.112773,0.585317,0.895545,0.242822,0.372875
-0.439882,-0.306227,0.421864,0.743109,-0.013371,-0.669037
-0.566553,-0.135246,-0.978429,-0.130688,0.048335,0.990245
0.647038,0.129529,-0.271605,-0.518170,0.735862,0.435897
0.323434,0.366897,-0.955363,-0.205403,0.055390,0.977109
-0.440874,-0.021954,0.864184,-0.358998,0.900139,0.246720
-0.017816,0.373265,0.795120,-0.532865,0.807195,-0.253952
-0.048328,0.725218,-0.977423,0.227819,-0.068737,-0.971274
-0.446647,0.139924,-0.970269,0.097804,-0.210531,-0.972682
0.049974,0.126023,0.660773,0.739202,0.257775,0.622200
0.339763,-0.109395,-0.371896,0.535490,0.174641,-0.826288
-0.202210,0.081458,0.106439,-0.484147,0.368357,-0.793672
0.676065,0.353512,-0.192612,-0.426814,-0.644534,-0.634354
0.094012,0.582435,0.693143,-0.646495,0.744012,-0.168791
-0.248230,-0.249450,0.585752,0.875909,0.069753,-0.477407
-0.527791,0.775239,-0.986699,-0.114220,0.165342,0.979600
0.783438,0.505137,-0.096782,0.871916,0.447546,-0.198659
0.252182,0.059763,0.415146,0.998446,-0.041120,0.037609
0.401946,0.677410,-0.965019,-0.128940,0.187457,0.973773
0.415138,-0.269322,-0.365911,-0.498514,0.435493,-0.749553
-0.688603,0.277775,0.416370,0.989673,-0.110923,0.090791
0.189671,0.248023,-0.955227,-0.053814,0.340250,0.938794
-0.309421,-0.169027,0.583984,0.213494,0.868247,-0.447848
0.525974,0.424451,0.618883,0.635574,0.650202,-0.416273
0.947220,0.374692,-0.170742,0.809621,0.557130,0.184719
-0.136403,0.139797,-0.427141,-0.635068,-0.755167,-0.162518
0.234041,-0.367548,0.696924,-0.262324,-0.727606,0.633857
-0.181925,0.220863,0.180236,0.107572,0.992287,-0.061608
-0.037275,0.072624,0.819329,0.332839,0.832353,-0.443178
0.015999,0.272184,0.857356,0.598398,0.539147,0.592654
-0.236351,0.055084,0.838778,-0.465209,0.554517,0.689993
-0.167575,-0.329612,0.316976,0.454664,0.758902,0.466206
-0.134425,-0.071847,0.792618,0.167810,0.547611,0.819733
0.746165,0.351434,-0.197236,0.448370,0.713190,0.538818
-0.320143,-0.184355,0.473547,0.210865,-0.920047,-0.330226
-0.095169,0.538655,-0.003373,0.367822,0.626856,-0.686846
-0.911925,-0.420946,-0.517558,0.988754,-0.128354,-0.076757
-0.285009,0.484606,0.692979,0.830343,-0.340338,0.441249
-0.182916,0.082108,0.517586,0.815601,0.536286,-0.217237
0.011871,0.401193,0.679569,0.443978,-0.323473,0.835613
0.223652,-0.033261,-0.166853,0.415006,0.852702,-0.317285
0.358894,0.561652,-0.045617,0.919367,-0.388510,-0.061846
0.417781,-0.366897,0.585154,0.662845,0.332149,-0.671054
0.247893,0.339611,-0.959443,-0.178593,0.123756,0.976109
-0.671782,-0.323109,0.300166,-0.550108,-0.482179,-0.681825
-0.168894,-0.263866,0.618774,-0.064694,-0.792173,0.606858
-0.035131,-0.071586,0.615592,0.735674,-0.467240,-0.490378
0.442353,0.230609,0.551614,-0.486791,-0.511839,0.707852
-0.063831,0.164348,-0.515056,0.922957,-0.381375,-0.051995
-0.292267,0.007149,0.778201,-0.156940,0.966927,-0.201050
0.126009,0.690660,0.723037,0.918434,0.148284,0.366731
0.220350,0.250227,0.523896,0.184651,-0.982443,0.026657
-0.347519,0.358714,0.643174,0.685582,0.671416,-0.281386
0.491832,-0.487200,-0.429943,0.011735,-0.950190,0.311449
0.224312,0.086272,0.701575,0.928283,-0.352379,0.118828
0.237997,0.426140,0.509507,0.103138,-0.879796,0.464028
-0.009072,0.065480,0.898566,0.834296,0.491147,-0.250450
-0.038598,0.052229,0.926638,0.676633,0.734024,0.058111
-0.051957,0.811613,0.806327,0.817200,0.456604,-0.351707
0.663532,-0.320516,0.591818,0.812922,-0.148705,0.563066
0.373739,-0.521242,-0.476539,0.931223,-0.323198,0.168425
0.157015,-0.213330,0.563501,0.769810,-0.624862,-0.130155
-0.217718,-0.087303,0.523434,0.751112,-0.658750,-0.043359
0.307438,0.148242,0.606289,-0.374932,-0.133781,0.917349
0.257295,0.103804,-0.527677,0.681056,0.566730,-0.463659
-0.749628,0.167337,0.488943,0.734875,-0.660757,0.152837
-0.444337,0.140059,0.842477,-0.698074,0.714461,0.047302
0.189012,-0.204235,-0.955091,0.062765,0.065193,0.995897
0.203856,-0.214496,-0.962190,0.170825,0.055101,-0.983760
0.175986,0.338572,0.733101,0.675036,-0.714147,0.185259
-0.476168,0.775501,0.374099,0.380951,0.924334,0.021987
-0.061687,-0.078342,0.593151,-0.594948,0.716664,-0.363910
0.386276,0.348056,0.557109,0.925203,-0.325974,-0.194270
0.260265,-0.430819,-0.957729,0.156270,-0.126554,-0.979573
0.194951,-0.129013,-0.541659,0.524389,0.836488,0.159070
0.530761,0.337018,0.602916,0.227504,0.561092,0.795876
-0.383971,-0.322982,-0.968229,-0.095808,-0.052945,0.993991
0.237338,0.245683,-0.255447,-0.399814,0.892595,0.208379
-0.167081,0.444196,0.613334,0.849159,0.272964,-0.452129
-0.518394,0.275690,-0.975410,-0.088890,0.073416,0.993332
-0.151412,0.138108,0.638033,0.033013,0.976711,-0.212005
0.098627,0.626612,-0.972472,-0.186390,0.014384,0.982371
0.125018,0.423285,0.482469,0.088633,-0.694073,0.714428
-0.210625,-0.406649,0.667029,0.423779,0.857186,0.292649
0.068940,0.106143,0.782227,0.500256,-0.793697,0.346104
0.580571,0.420423,0.649729,0.750390,-0.660925,0.009585
0.163614,0.544373,0.833474,-0.678243,0.611316,-0.407773
-0.065643,-0.704950,0.359791,0.001241,0.314543,0.949242
0.026554,0.767571,0.542366,-0.296635,-0.181730,-0.937540
0.249051,0.659346,-0.971221,-0.087904,0.231443,0.968869
-0.089068,0.321682,0.659957,-0.190370,-0.950276,0.246446
-0.170710,0.485518,-0.974023,-0.146908,0.084345,0.985548
-0.000989,0.072109,0.902755,0.916935,-0.280669,-0.283645
0.654130,-0.185267,0.192775,0.820116,-0.512898,-0.253664
0.060696,0.117190,0.660392,-0.798321,-0.038704,-0.600987
-0.308098,0.408338,0.704948,-0.280952,0.490137,-0.825125
0.596074,-0.262827,-0.383375,0.101881,-0.899339,0.425218
0.286821,0.301025,0.683078,-0.836488,-0.294471,-0.462142
-0.307604,0.610499,-0.980959,-0.087100,0.107598,0.990372
0.155369,-0.460183,0.484346,0.481313,0.817988,-0.315014
0.526472,0.152398,-0.954547,0.049873,0.250517,0.966827
0.485399,-0.285308,0.521693,-0.002479,0.835139,0.550033
-0.278909,0.639601,-0.153388,0.801856,0.568329,0.184467
-0.277424,-0.199691,0.621930,-0.620764,-0.141291,0.771160
0.179615,-0.228008,0.673068,-0.169101,0.871064,0.461143
-0.317999,0.224241,-0.971058,-0.302182,0.149989,0.941376
0.066796,-0.448875,-0.959443,0.063648,0.271198,0.960417
-0.132608,0.152009,0.900199,-0.006571,0.999914,0.011373
-0.022270,0.657141,0.646792,0.846879,0.519673,-0.112853
0.058878,-0.527609,0.308571,0.460630,0.389024,0.797797
0.422890,0.788363,-0.966107,0.226064,-0.026044,-0.973764
-0.011051,0.075098,0.258113,0.951710,-0.171491,-0.254634
-0.130137,-0.238277,0.609036,0.921655,0.387667,-0.016294
-0.089728,0.419384,0.582488,0.005499,-0.989111,0.147071
-0.037275,0.688845,0.445448,-0.382166,0.739355,-0.554349
-0.145473,0.498507,-0.977151,-0.216336,0.057906,0.974600
0.062014,0.464338,0.607567,0.960783,-0.060782,-0.270558
-0.050306,0.465250,0.465250,-0.197704,-0.694139,0.692159
-0.931390,-0.309470,-0.588989,0.112193,0.984463,-0.135072
-0.395679,0.001042,0.410902,-0.517068,-0.627717,-0.581904
0.012204,0.745748,-0.974812,-0.204491,0.026132,0.978520
0.428497,0.451999,0.286593,0.769273,0.591262,-0.242132
0.222168,-0.040668,0.608683,0.083067,0.097192,0.991793
-0.008081,-0.063529,0.115170,-0.199997,0.926879,0.317642
-0.139699,0.196963,0.842532,0.486906,-0.424255,0.763499
-0.532411,0.122130,0.698012,0.829497,0.452507,-0.327373
-0.098965,0.675983,0.432772,-0.090768,0.973611,-0.209386
0.920664,0.287512,-0.182575,0.769902,-0.594267,-0.232591
0.508493,0.049366,0.605038,0.836435,-0.493311,0.238789
-0.783443,-0.102639,0.040775,-0.279266,-0.943442,-0.178683
-0.435926,0.259195,0.673177,0.566626,0.692830,0.446006
0.003627,0.035212,-0.402143,-0.536669,-0.672389,0.509783
-0.572986,0.392494,0.626690,-0.194490,-0.199806,0.960339
-0.356262,-0.369102,0.266926,0.514763,0.019269,-0.857116
0.137390,0.439525,0.787422,-0.661762,-0.569396,0.487708
-0.443179,0.041706,0.821669,0.567852,-0.577481,0.586566
0.006763,0.217881,0.912657,-0.301619,0.949131,-0.090419
0.744515,0.092243,-0.950793,-0.278583,-0.039478,0.959601
-0.051625,0.411716,0.621902,0.126361,-0.575226,0.808175
0.608280,0.159677,0.694448,-0.161019,0.901269,-0.402228
0.359554,-0.640251,-0.505182,0.868664,-0.443246,-0.221259
0.495627,0.854489,-0.051710,-0.171145,-0.143948,0.974673
0.097309,0.127324,0.938797,0.829214,-0.342180,-0.441947
-0.829131,0.121083,0.527297,-0.750019,0.642682,-0.156308
-0.015837,0.481355,0.006338,-0.773906,0.240415,-0.585892
-0.117764,0.152271,0.136523,-0.584626,-0.807717,-0.076194
0.226123,0.581524,0.688110,0.795249,0.413557,-0.443340
-0.063172,-0.214757,0.626636,-0.502846,0.048941,0.862989
0.506016,0.786928,-0.053287,-0.126339,0.278784,-0.952007
0.597227,0.372741,0.434241,-0.214861,-0.645494,0.732920
0.116938,0.094320,0.706716,-0.221476,0.733006,0.643157
-0.234866,0.182539,0.722194,0.083827,-0.978406,-0.188932
-0.042721,0.000781,0.048065,0.654769,0.755438,0.024319
0.305128,0.163444,0.858145,0.960291,-0.190877,-0.203488
-0.032327,0.015070,0.608628,0.499075,-0.856884,0.129127
0.007422,0.100038,0.883742,-0.201387,-0.810717,0.549710
-0.340427,0.551771,-0.978266,0.168100,-0.144497,-0.975122
-0.692891,0.245683,0.509316,0.878837,-0.312353,0.360668
0.772550,0.499673,-0.141011,-0.309825,-0.700296,0.643113
0.083290,-0.108745,0.784702,0.045518,0.962633,0.266956
-0.324265,0.212291,0.557844,-0.726544,-0.584404,-0.361394
-0.102755,0.388077,0.775835,-0.433652,0.675904,0.595902
-0.133106,0.192935,0.776732,0.829884,-0.551229,0.086248
0.471875,0.660647,-0.968419,-0.068467,0.170644,0.982951
0.665510,-0.305442,-0.393004,-0.015008,-0.910652,0.412902
-0.155369,-0.152786,0.778201,-0.511805,0.618514,-0.596235
0.244103,0.070935,-0.282431,0.267519,0.462874,0.845093
0.086426,0.268933,0.353616,-0.201793,-0.232373,0.951463
-0.258619,-0.296481,0.350053,0.733394,-0.503708,0.456520
0.114135,0.308954,0.727715,-0.098479,0.983126,0.154161
0.179942,-0.183451,0.814079,0.908603,0.331414,0.254176
0.244929,-0.680788,0.466338,0.739896,-0.671819,-0.034822
0.180768,0.023000,0.663955,0.132167,0.988132,-0.078277
-0.011876,0.372876,0.828795,0.228562,0.318439,0.919976
-0.259772,0.144730,0.848027,-0.392033,0.439658,-0.808091
-0.111830,0.202157,0.669477,-0.111250,0.328033,0.938093
-0.143988,0.163309,0.781574,-0.619498,0.434592,-0.653721
0.784595,0.076526,-0.268232,0.566224,-0.570180,0.595218
-0.293093,0.213980,0.676006,-0.065663,0.820135,0.568390
0.649841,0.881641,-0.041292,-0.096643,-0.870308,0.482933
-0.072242,-0.117840,0.802546,0.394025,-0.860895,-0.321875
-0.036781,0.588542,0.620515,0.071713,-0.891311,0.447686
-0.815933,0.119656,0.519925,-0.711711,0.662909,-0.232420
0.782285,0.025466,-0.380301,0.189035,0.696281,0.692430
-0.003300,0.444331,0.501754,0.816019,0.483102,0.317373
0.192642,0.439780,0.503223,0.402453,0.892265,-0.204682
-0.013195,-0.061578,0.574273,0.769347,-0.014036,0.638677
0.475011,-0.044823,-0.295868,-0.550026,0.785237,-0.284384
-0.630055,0.148758,0.726709,-0.567377,-0.809547,0.150722
0.408378,0.641290,-0.964094,0.012516,0.171657,0.985077
-0.137062,0.151486,-0.536327,0.186360,-0.974448,0.125383
-0.236849,0.042222,0.484781,0.834422,-0.032976,-0.550139
0.022759,-0.139663,0.777739,0.790032,-0.119510,0.601305
0.051127,0.366120,0.754073,-0.392575,0.908970,-0.140210
-0.138215,0.115889,-0.614531,0.998110,-0.061161,-0.005993
-0.023091,-0.006752,0.602562,0.733317,0.245287,0.634098
-0.139866,-0.500585,0.527596,-0.624217,0.242573,0.742638
0.163281,-0.207874,0.636863,0.555633,0.826346,-0.091781
0.532246,0.343901,0.427849,-0.423331,-0.180809,0.887749
-0.269834,-0.486422,0.686859,-0.281062,0.813993,0.508349
-0.945075,-0.021827,-0.983897,-0.337138,-0.100734,0.936051
0.049149,0.378982,0.717678,-0.515428,-0.094252,0.851734
0.526799,0.009615,0.468433,-0.307778,-0.624787,0.717575
0.098134,0.102377,0.867067,-0.009032,0.747618,0.664067
0.329041,-0.191246,0.507820,-0.202397,-0.888998,-0.410753
-0.111004,-0.266205,-0.968011,0.060848,-0.118990,0.991029
-0.199572,0.120306,0.748361,0.943526,0.312395,-0.110308
-0.046843,-0.364035,0.638577,-0.178897,-0.982588,-0.050174
0.235032,-0.186432,0.662160,0.615710,-0.162846,-0.770962
-0.018802,0.173832,0.782716,0.962615,-0.012532,0.270582
-0.324758,-0.412755,0.656693,-0.290900,0.811518,0.506770
0.223154,0.172666,0.868428,-0.747207,0.646319,-0.154765
0.393037,0.886057,-0.969127,-0.139249,0.115994,0.983440
0.448293,-0.098475,0.101570,0.331383,0.938627,0.095727
-0.333501,-0.444847,0.393738,-0.049575,-0.852777,0.519917
-0.168234,-0.006887,0.496695,0.684433,0.729020,-0.008978
0.431965,0.151748,0.499633,0.306974,0.697570,-0.647428
0.534384,0.468366,-0.183010,0.768498,0.620927,0.154468
0.687119,0.115374,-0.955825,-0.177897,-0.013555,0.983956
0.836711,0.385865,-0.945652,-0.154583,-0.023917,0.987690
-0.866403,0.843966,-0.645948,0.811899,0.548251,0.200601
0.553190,0.022215,0.507276,0.883505,0.351315,-0.309833
-0.278245,0.106405,0.149226,-0.647000,0.589769,0.483284
-0.230744,0.337018,0.629274,0.578990,-0.726363,-0.370361
0.378852,0.041572,0.469521,0.479856,0.695518,0.534783
0.363515,0.471094,0.775698,0.334974,0.714784,-0.613903
-0.631041,0.182023,0.739113,-0.610400,-0.788077,-0.079667
0.409037,0.104589,0.657645,-0.479573,-0.260591,-0.837915
0.377206,-0.315061,-0.427141,0.705370,0.679907,-0.200450
-0.522843,0.060547,0.497620,0.021764,-0.209577,0.977550
0.164605,0.053656,0.714332,0.690134,0.000963,0.723681
-0.138713,0.521892,0.726002,-0.830897,0.532128,-0.162635
-0.050472,0.071847,0.673095,-0.760893,-0.204318,-0.615870
0.004286,0.339222,0.654517,0.110067,0.596628,0.794934
-0.033978,0.083536,0.835813,0.679215,-0.477932,-0.557000
-0.643247,0.331951,0.433724,-0.821557,-0.186790,0.538659
-0.245588,0.601276,0.541224,0.808398,-0.242266,-0.536470
0.136398,0.000781,0.742513,-0.520196,0.700069,0.489183
-0.658584,-0.238927,0.395153,0.019744,0.093204,0.995451
-0.069605,0.348968,0.794984,-0.505194,0.821799,-0.263486
0.703115,0.434712,-0.953078,0.265057,-0.069541,-0.961722
-0.396177,0.315838,-0.979898,-0.061531,-0.031747,0.997600
0.421078,-0.415094,0.568234,0.943222,0.040111,-0.329733
-0.558801,0.080681,0.483992,0.336928,-0.420664,0.842331
0.803728,0.519426,-0.129532,-0.502824,-0.771249,0.390311
-0.092859,0.176956,-0.420749,0.382831,0.921009,-0.071994
-0.254990,-0.409774,0.362783,0.979573,-0.201017,-0.005397
0.496121,0.046385,0.652368,0.543014,-0.737487,-0.401557
0.054922,0.170200,0.734080,0.261763,-0.190670,0.946111
0.655121,0.316750,-0.954003,0.235437,-0.144197,-0.961133
-0.015837,0.008449,-0.625439,0.859739,0.500887,0.099807
-0.231242,0.179160,0.602698,0.282920,-0.939320,-0.193993
-0.174007,0.543849,0.744716,0.075171,-0.961391,0.264719
0.064324,-0.214496,0.469412,-0.566467,0.804389,-0.179090
-0.281053,0.286862,-0.521258,0.053303,-0.997661,0.042784
0.352960,0.740808,-0.972690,-0.047840,0.032706,0.998319
-0.354778,-0.535793,0.443000,0.709213,-0.446798,0.545333
0.391552,0.200468,0.534423,0.522836,0.844822,0.113657
0.491832,0.143175,0.028262,0.173878,0.950252,0.258432
-0.609931,0.207486,-0.531839,0.695650,-0.414230,0.586928
0.941281,0.238792,-0.160759,-0.647395,0.411825,-0.641311
-0.165103,0.172143,0.801485,-0.034977,0.802338,0.595845
0.554015,0.191372,0.482523,0.194183,0.974250,-0.114586
0.394194,-0.077303,0.713815,0.042388,0.410181,0.911019
0.538014,0.077042,0.562631,0.694858,0.489060,0.527250
-0.031834,0.277513,0.829203,0.912383,0.014163,-0.409092
0.287149,0.062102,-0.949433,0.241425,0.091469,0.966099
-0.272637,-0.363908,0.638250,0.374861,0.917711,0.131474
0.169387,0.099261,0.695917,-0.556354,-0.615056,-0.558727
0.409037,0.045600,0.391644,0.938270,0.071759,-0.338378
-0.531259,0.375604,0.626527,0.892265,0.202908,-0.403351
-0.105231,0.112250,0.637598,0.437454,-0.090394,-0.894686
0.050961,-0.450953,0.541278,0.143758,0.837829,-0.526666
-0.058883,0.114977,0.849849,0.931813,-0.179289,0.315563
0.191488,0.347802,0.764709,-0.311991,0.901933,0.298629
0.606956,0.087437,-0.953894,-0.014409,0.018854,-0.999718
-0.204852,0.096144,-0.700296,-0.452152,0.851631,-0.265110
-0.262414,0.496818,0.508773,0.664251,0.440860,-0.603666
0.026881,0.061586,0.907216,0.443476,0.139133,0.885421
-0.138215,-0.295046,-0.963850,0.001584,-0.135807,0.990734
-0.176977,0.229443,0.587030,-0.413655,-0.730657,-0.543167
0.050961,0.083536,0.165411,0.631606,-0.706716,0.318789
0.011378,0.284269,0.758371,-0.533483,-0.234794,-0.812569
-0.641435,-0.551771,0.466828,-0.465119,-0.730406,-0.500171
-0.187039,0.048851,0.757528,0.921782,-0.104979,-0.373226
-0.637806,0.843316,0.371134,0.317301,0.947271,-0.044690
0.217053,0.329477,-0.103746,-0.585399,0.729011,-0.354753
0.524655,0.215146,-0.265158,0.781624,0.623739,0.003664
0.380337,0.058858,0.724098,-0.595887,-0.142840,-0.790263
0.017152,-0.275951,0.509208,0.976856,-0.045788,-0.208940
-0.048655,0.305703,0.552866,0.887255,0.002746,0.461270
-0.171863,-0.047027,0.510785,0.348066,0.865398,0.360466
0.000330,-0.049367,0.812175,0.800582,-0.470342,-0.371276
0.015999,0.130702,-0.219596,0.374644,0.922745,-0.090464
-0.865578,-0.126285,0.392922,0.859014,0.347953,0.375532
-0.278577,-0.420035,0.361178,0.868463,-0.395044,0.299520
0.244929,0.598937,0.549275,0.359918,0.455740,-0.814101
-0.053276,0.035600,0.176482,-0.761755,-0.319793,0.563437
-0.356589,-0.013381,0.134837,-0.330589,0.941582,0.064296
-0.181593,0.184616,0.717107,0.483929,-0.047522,0.873816
-0.368136,0.741982,0.517395,-0.259140,-0.937200,0.233458
-0.943264,0.170454,0.544352,0.674646,-0.568300,0.471051
-0.186380,-0.274785,0.587629,0.900564,-0.160626,-0.403960
0.119410,-0.060936,0.643446,-0.583523,-0.129447,0.801713
-0.061194,0.026894,0.749150,-0.238521,0.136989,-0.961427
-0.100449,0.096533,0.871746,-0.339265,-0.937214,-0.080808
0.075866,-0.538521,0.541196,0.036151,-0.669450,0.741977
0.675899,0.016759,-0.428257,0.029948,0.539142,0.841682
0.127494,0.140701,0.815983,-0.238880,0.951916,-0.191813
-0.046511,-0.110561,0.624786,-0.642362,0.628274,0.438912
-0.769918,0.082370,0.509534,0.632641,-0.266514,0.727142
-0.127166,0.539694,0.627941,0.842455,-0.128758,0.523155
0.704273,0.284008,0.617142,0.674937,0.660448,-0.329041
0.167077,0.831755,-0.972064,0.000418,0.397385,0.917652
-0.112816,0.295831,0.621821,0.983703,-0.119563,-0.134290
0.032654,0.295308,0.116802,0.689659,-0.722637,0.046547
0.686620,0.135634,0.606561,-0.098394,0.895428,-0.434198
-0.061028,0.691049,0.408563,0.329138,-0.783853,0.526539
0.249710,-0.147196,0.732421,0.275175,-0.937124,-0.214656
0.095330,-0.050540,0.775318,-0.584927,-0.723868,-0.365890
0.403757,-0.070158,0.103310,0.437115,0.877633,0.196701
0.410850,0.866701,-0.969698,0.130932,-0.104105,-0.985910
0.074548,-0.125246,-0.626309,0.049999,0.474972,0.878579
0.523668,0.150970,0.604412,0.971836,-0.134619,0.193423
0.513768,0.052356,0.675870,-0.591379,0.737328,-0.326524
-0.676397,-0.319604,-0.975682,-0.125741,0.091382,0.987845
0.015833,0.031961,0.789843,0.904587,0.279468,0.321900
0.053770,-0.454204,-0.958654,0.063648,0.271198,0.960417
-0.565894,-0.521765,0.449990,0.086908,0.421267,0.902763
0.065150,-0.033911,0.750565,-0.139001,0.968979,0.204350
-0.629723,0.237238,0.505835,0.303758,-0.448840,0.840401
-0.175160,-0.360007,-0.963931,-0.050795,-0.023839,0.998425
0.380010,0.529687,0.543454,-0.338649,-0.703515,0.624807
-0.068452,0.049366,-0.123467,0.551124,0.827901,0.104132
0.399142,-0.615431,0.576667,-0.707305,0.680860,-0.190130
-0.302490,0.135896,0.589778,0.749242,-0.466119,0.470499
0.691734,-0.239443,-0.353589,0.391355,0.873949,-0.288190
-0.936005,0.088864,-0.982537,-0.370087,0.009480,0.928949
0.132442,0.000131,0.593804,0.671012,0.692418,-0.265142
0.666663,0.303102,0.723418,0.163704,-0.978916,0.122163
0.147779,0.299859,0.481517,0.861954,-0.229963,-0.451832
0.459835,0.164737,0.024971,0.238396,0.957530,0.162186
0.741711,0.491489,-0.151892,-0.417507,-0.817652,0.396401
0.275441,-0.286347,-0.205669,0.924616,0.380144,0.023986
0.020121,0.363257,0.762805,0.796740,-0.571022,0.197836
0.493151,-0.319604,0.603705,-0.658829,0.372068,-0.653843
0.029357,0.333894,0.822539,0.981673,0.006206,-0.190472
0.152399,-0.105105,0.347306,0.845479,-0.510879,0.155459
0.427510,0.249450,-0.952207,0.107431,0.251827,0.961791
0.173016,-0.036251,0.684139,0.848779,0.115705,-0.515932
0.063665,-0.116666,0.478688,-0.592533,0.391960,0.703755
0.406068,0.010654,-0.347986,0.386260,0.917773,0.092170
0.207817,0.041706,0.115225,0.539576,0.841854,0.011829
0.308098,-0.025078,0.672524,0.640877,0.645846,0.414922
-0.366324,0.724441,0.498164,0.795482,0.598376,0.095680
0.013689,0.145380,-0.161303,0.976138,-0.212955,-0.042477
-0.225137,-0.109783,0.613470,-0.384914,0.834162,0.394986
0.923633,0.370275,-0.943938,-0.103854,0.097545,0.989798
0.949032,0.317653,-0.942850,-0.181448,0.063773,0.981331
-0.410361,-0.123295,0.444387,0.455746,0.890101,-0.004059
-0.148936,0.146553,0.740473,0.808548,0.436994,0.394064
0.407387,0.301548,-0.960966,0.113633,-0.050163,-0.992256
-0.334654,-0.014944,0.502843,0.145126,0.893545,0.424871
0.181095,0.780433,-0.976253,-0.162343,-0.292041,0.942527
0.144975,-0.219563,0.653130,0.984856,0.072106,0.157669
0.025235,-0.153437,0.550907,0.998499,-0.015115,-0.052644
-0.215075,-0.407037,0.465876,-0.623164,0.679176,-0.387798
0.595576,0.899181,-0.965998,0.379477,-0.149619,-0.913023
0.393862,-0.391709,-0.423170,0.510844,0.645738,-0.567504
-0.662545,0.089253,0.370399,-0.610916,0.370244,0.699787
0.600690,0.350657,-0.955281,-0.084249,0.028057,0.996050
-0.339934,0.201507,0.771727,-0.576370,-0.097630,-0.811336
0.548242,0.038717,0.502788,0.570120,0.819365,-0.060041
0.024903,0.357025,0.794984,-0.659447,0.744409,-0.104814
-0.019794,0.212941,0.803770,0.033422,0.879664,0.474420
-0.309089,0.033261,-0.957321,0.409530,-0.127513,-0.903341
0.034139,0.098872,0.759350,0.889213,-0.450226,0.081218
0.107536,-0.138624,0.415499,-0.309253,0.844941,0.436391
-0.178955,0.064314,0.797133,0.909013,-0.033639,0.415408
0.515912,0.313371,-0.958192,-0.111587,0.051700,0.992409
-0.010890,0.274262,0.819220,0.965338,-0.106169,-0.238432
0.047005,0.038328,0.846449,-0.085800,0.283492,0.955128
0.408212,-0.601142,0.536218,0.777213,-0.626910,-0.054072
0.042716,0.073275,0.453962,-0.270186,-0.091237,-0.958475
-0.646383,-0.063664,0.398607,0.020326,0.860741,0.508638
-0.027052,0.072497,0.913092,0.599817,0.356421,0.716369
-0.021606,-0.993632,0.584637,0.632458,-0.764668,-0.123607
0.163946,0.000908,-0.261051,-0.126592,0.991883,0.011927
-0.308430,0.204623,-0.974676,0.261303,-0.153499,-0.952974
-0.022598,0.063275,-0.158529,0.954577,-0.296392,0.030572
-0.016658,0.155387,0.901450,0.978713,-0.127248,-0.161025
0.285004,-0.464203,-0.950875,0.401970,-0.156016,-0.902263
0.188025,-0.133295,0.703615,-0.556078,0.828044,0.071559
0.164932,0.038844,0.677039,-0.169909,0.973864,-0.150732
0.039419,0.199302,0.773495,0.831004,-0.361666,0.422647
0.644234,-0.361957,0.572396,0.867168,-0.484711,0.114348
-0.156688,0.160192,0.795991,-0.423856,0.811650,0.401958
0.162129,-0.131217,0.699889,-0.582906,-0.776170,-0.240374
-0.138381,-0.013770,0.778609,-0.145669,0.548458,0.823392
-0.482601,0.756533,-0.086391,0.701875,0.626349,0.339201
-0.578100,0.193585,0.699072,-0.731411,-0.544357,0.410746
-0.158011,-0.378982,0.646248,0.987968,0.052351,-0.145526
-0.076037,0.160970,-0.085412,0.841448,-0.520587,0.144759
-0.544784,0.791741,0.030085,-0.177733,-0.746563,0.641136
-0.605969,0.085486,-0.978565,-0.139965,0.047835,0.989000
0.095663,-0.195916,0.424340,-0.211811,0.952223,0.220016
0.117432,-0.197740,0.425536,-0.049972,0.981361,0.185561
0.589309,-0.139797,-0.331529,-0.816515,-0.511801,0.267140
-0.391557,-0.269584,-0.968039,-0.149930,0.015109,0.988581
0.712351,0.281280,-0.951745,-0.227747,0.049750,0.972449
0.694870,0.163698,-0.244267,-0.297386,-0.675942,0.674288
-0.332842,0.065606,0.648152,0.685187,0.671349,0.282507
-0.829624,0.020010,-0.373718,-0.220937,0.925457,-0.307760
0.583702,-0.369625,-0.361913,0.237153,0.727101,-0.644269
0.182745,-0.740158,0.541822,-0.534091,0.835029,-0.132186
-0.116611,-0.049240,0.747355,-0.540060,-0.829030,-0.145065
-0.080492,0.025982,0.798221,-0.210917,0.129985,0.968823
0.530262,0.052356,0.593232,0.299600,-0.206512,-0.931446
0.331024,0.152271,-0.957947,-0.132577,-0.255508,0.957674
-0.173348,0.288163,0.421783,0.883679,0.320390,-0.341264
-0.445822,0.366120,0.609363,0.084955,0.996383,-0.002078
0.083457,0.202545,0.696488,-0.507065,0.299467,-0.808211
-0.033978,0.165260,0.817561,-0.278944,0.857613,0.432076
-0.000828,0.191507,-0.185485,0.864220,0.309630,-0.396550
0.355266,-0.270234,-0.423768,0.711895,0.672555,-0.202177
0.379678,0.765755,-0.971330,0.143352,-0.044630,-0.988665
-0.279568,0.282445,-0.969480,-0.309217,0.108216,0.944814
0.065311,0.188256,-0.105813,0.789711,-0.242286,0.563608
-0.113475,0.168115,-0.972336,0.193923,-0.435275,-0.879164
0.629058,0.227231,-0.239888,0.723490,-0.616550,0.310528
0.335973,-0.535016,0.591492,-0.824054,0.244098,-0.511226
0.423881,0.029756,0.636781,-0.457036,0.888379,0.043594
0.101597,0.159416,0.947474,-0.584045,0.702135,0.407306
0.306280,0.351696,0.355357,-0.630263,0.564980,0.532509
0.300014,0.301810,0.226641,-0.583599,-0.629029,0.513551
0.747978,-0.270234,0.563800,0.831742,-0.391779,0.393336
-0.336798,0.027806,0.808231,0.872236,-0.353133,-0.338381
0.175326,-0.170192,0.703289,0.758598,0.618649,0.204455
-0.497278,-0.472133,0.438375,0.800939,-0.484066,-0.352387
-0.145473,0.194489,-0.590757,0.963160,-0.268342,-0.017765
-0.066142,-0.662598,0.346816,0.210651,0.624515,0.752068
-0.827148,0.068469,0.521149,0.551625,0.689917,0.468748
0.019462,0.133945,0.889481,0.849082,0.473827,0.233553
0.570836,-0.343124,-0.373229,0.218814,0.975767,0.000554
-0.311565,0.007799,0.559339,0.751614,0.338497,0.566124
0.715814,-0.227754,-0.373147,0.285410,-0.740533,0.608401
0.412335,0.326495,-0.580285,-0.802428,0.569994,0.176681
-0.055587,0.356636,0.814705,0.781578,0.425070,0.456565
0.140359,0.011042,0.089329,-0.042317,0.999104,0.000385
0.353454,-0.148885,0.157686,0.620924,0.689415,-0.373042
0.111331,0.039629,0.708049,0.570791,0.051003,-0.819510
-0.015998,-0.474599,-0.959443,-0.109057,0.261551,0.959009
-0.051459,0.055084,0.634225,0.618544,0.596349,-0.511636
0.171038,0.120441,0.954683,-0.625710,0.706864,0.329896
-0.303316,0.501885,0.719365,0.799365,-0.319627,0.508778
0.117925,-0.261273,0.711993,0.261718,-0.062823,0.963098
-0.179449,-0.025205,-0.952425,-0.300324,-0.035247,0.953186
-0.093357,0.175132,0.792264,-0.309130,0.939482,-0.147689
-0.551211,0.759911,-0.987623,-0.114220,0.165342,0.979600
-0.612075,0.416783,-0.988657,0.195555,-0.070981,-0.978121
0.454726,-0.350007,0.407420,0.747675,-0.441874,0.495711
0.071085,0.022215,-0.348802,0.314699,0.890929,0.327429
0.389574,-0.074314,0.091614,0.380932,0.907919,0.174853
-0.919350,0.858129,-0.995593,0.018438,0.405766,0.913791
0.064984,0.022350,0.337731,0.387763,-0.074272,-0.918762
0.526633,0.301937,0.665860,0.855697,-0.020137,0.517086
-0.623622,-0.360268,-0.974948,-0.214230,0.032095,0.976256
0.088072,-0.518252,0.319560,-0.651381,-0.207460,-0.729838
0.470722,0.150447,0.497919,0.276935,-0.260736,0.924837
-0.119415,-0.315838,0.632837,-0.305172,0.936451,0.173003
0.093186,-0.225415,0.647608,-0.484260,0.758119,-0.436748
-0.348672,0.744059,0.517640,-0.259140,-0.937200,0.233458
-0.217718,-0.557488,-0.429617,0.191291,0.980640,-0.041871
-0.539172,0.174744,0.702201,0.744809,0.575001,-0.338575
-0.313212,0.199167,0.725294,0.253084,-0.966280,0.047456
-0.148609,0.571786,-0.972282,0.233651,-0.130783,-0.963485
-0.029524,-0.070936,0.820145,-0.385077,0.853815,-0.350309
0.138709,-0.172928,0.789272,0.430057,0.692688,-0.578994
-0.338942,0.043657,0.671246,-0.387442,-0.900565,-0.197159
-0.742536,0.129663,0.642439,0.854672,-0.431600,0.288543
-0.216394,0.132002,0.794630,0.927496,-0.045600,0.371042
0.108196,0.335718,0.756059,0.070240,-0.996614,0.042753
0.617018,0.480189,-0.958518,-0.198353,0.273824,0.941104
0.366319,-0.601665,-0.489623,0.902178,-0.273296,-0.333744
-0.394526,0.764066,0.595708,0.915444,-0.397019,-0.065862
-0.227775,0.615304,0.410957,0.405738,0.818888,-0.405955
-0.172855,0.160716,-0.916927,-0.661764,0.423524,0.618625
0.132109,-0.008703,0.643636,-0.574899,-0.247268,0.779968
-0.261095,0.076526,0.553790,0.928427,0.240833,0.282882
-0.146133,-0.069508,0.574382,-0.565322,-0.653682,-0.503101
0.751113,0.603481,-0.529853,-0.524905,0.728387,0.440373
0.120895,-0.341950,0.590594,0.808860,0.571115,0.139905
-0.601022,0.126673,0.223758,-0.223275,0.953396,-0.202941
0.328548,0.282445,0.695944,0.978856,-0.194384,0.063683
-0.041563,0.025466,0.850284,-0.024899,-0.443090,0.896131
0.092527,-0.334932,0.449066,-0.700594,-0.322156,-0.636698
0.023252,0.085748,0.823736,0.771020,-0.151147,0.618613
0.000823,0.037805,0.594184,0.972751,-0.169013,0.158716
0.512122,0.859556,-0.964611,-0.046077,0.115018,0.992294
-0.204354,0.164094,0.257242,0.021119,0.706657,0.707241
0.005771,-0.073925,0.450807,-0.172167,-0.658899,0.732264
0.289952,-0.159670,0.734244,-0.704715,-0.596116,0.384737
0.532407,-0.137712,0.095340,0.430476,0.899602,0.073528
-0.336139,-0.094844,0.673694,0.085105,-0.632662,0.769738
-0.025074,0.481744,0.370536,0.968445,0.029873,-0.247429
-0.144320,0.167599,-0.601855,0.905248,0.415350,0.089495
0.080487,0.275690,0.589234,0.177740,-0.524896,0.832402
0.179615,0.327661,-0.214264,0.998612,-0.041695,0.032186
0.684149,0.306742,-0.176373,0.254619,0.822245,-0.509001
-0.601354,-0.064568,0.393249,-0.077459,0.974299,0.211523
-0.617023,0.356890,0.275440,0.235197,-0.775281,0.586192
-0.408710,-0.012470,-0.678236,0.723424,-0.690284,0.012825
-0.288804,-0.374304,0.414928,-0.255702,0.145038,0.955814
0.435755,0.199302,0.549901,0.171551,0.670360,-0.721933
-0.149762,0.144214,0.914099,0.993006,0.020867,-0.116209
-0.502559,-0.132906,0.249871,-0.251313,0.366368,0.895889
0.420418,-0.597899,-0.477491,-0.891811,0.452145,-0.015415
0.391718,-0.218270,-0.953867,-0.129581,0.141026,0.981489
-0.409702,0.778744,0.634034,0.495783,-0.727806,-0.473812
-0.015173,-0.169550,0.610097,0.765400,0.538084,-0.353029
-0.132447,0.251789,0.933439,0.892077,0.451518,0.018155
0.649182,-0.269322,-0.362294,0.337265,0.462301,-0.820080
-0.495300,0.004936,0.146370,-0.638988,0.443704,-0.628348
0.301665,0.134730,0.666458,-0.460978,-0.815730,-0.349405
0.375389,-0.615693,-0.475777,-0.517300,0.825260,-0.226596
-0.167408,0.526309,-0.971711,0.238221,-0.058721,-0.969434
0.221669,0.186044,0.857112,0.846917,-0.295129,-0.442301
0.517070,-0.230997,-0.949841,0.317454,-0.240870,-0.917172
0.104899,0.457843,0.391535,0.647464,0.720004,-0.249770
-0.184397,0.349357,0.668553,0.747790,0.480871,-0.457791
-0.170379,0.191507,0.360906,-0.023641,-0.966696,0.254833
-0.199572,0.282969,-0.429726,0.775851,0.588008,-0.228694
0.089391,-0.009226,-0.339662,0.104847,0.968604,0.225417
0.041231,-0.174871,0.535348,-0.065537,-0.964277,0.256659
0.528284,0.632194,-0.963686,0.311233,-0.294840,-0.903440
0.015833,0.054307,0.875935,0.861193,0.309676,-0.403048
0.084775,0.273096,-0.329489,-0.656232,0.743109,0.130955
-0.389745,0.661431,0.557599,0.965832,0.189765,-0.176516
-0.067294,0.066257,0.807061,0.668418,0.722334,0.177344
0.034798,-0.230870,0.602100,0.406689,0.792918,-0.453746
0.683983,0.302976,0.700351,0.426373,0.879494,0.211414
0.754244,0.339484,0.637380,0.944411,0.319817,0.076195
-0.097973,0.137458,0.822131,0.155715,-0.919684,-0.360465
-0.483920,0.119267,-0.537579,-0.216124,0.654245,-0.724743
-0.188192,0.138370,0.063352,0.784875,0.606002,-0.129360
0.521026,0.276340,0.683595,0.729704,0.544025,-0.414209
0.007583,0.455115,0.580121,-0.836431,-0.153999,0.525992
0.827807,0.377031,-0.946142,-0.137074,-0.043828,0.989591
-0.262741,0.110045,0.673068,-0.496309,0.855698,-0.146486
0.026388,-0.539694,0.375677,0.696705,0.449484,-0.559077
-0.235531,0.254128,0.372222,0.974750,0.221442,-0.028747
-0.095003,-0.331166,0.649240,-0.156966,0.897857,0.411357
-0.271319,-0.125246,0.554742,0.497851,-0.463339,0.733117
0.260431,0.373915,0.472350,0.032234,-0.646219,0.762471
0.548574,-0.395738,0.588554,-0.443597,0.896036,0.018451
0.017317,0.032873,0.193102,0.932467,-0.361254,0.000089
0.007583,0.254517,0.792291,0.999732,0.021053,0.009585
0.998017,0.289463,-0.940212,-0.097441,0.200854,0.974763
-0.689761,0.310643,0.579713,-0.897360,-0.266922,0.351423
-0.874654,0.089650,0.245219,-0.555962,-0.797971,-0.232698
0.476661,0.967654,-0.976335,-0.144202,-0.031421,0.989049
-0.876133,0.207613,0.275358,-0.072610,-0.772620,0.630703
-0.074718,-0.197740,-0.368740,0.697258,0.227535,0.679749
0.804548,0.429257,-0.145527,0.273481,0.640249,-0.717836
0.415964,0.249188,0.630906,0.977190,-0.131253,0.166951
0.602175,0.401193,0.635313,-0.631163,0.348401,0.693000
0.500907,0.330000,0.518701,0.873874,0.381345,-0.301529
0.398150,0.517475,0.166880,-0.325678,0.943200,-0.065624
-0.596734,0.334544,0.611920,-0.729408,0.652246,0.206250
-0.042721,0.314672,0.120910,-0.624337,0.761761,-0.172986
0.404583,-0.374304,-0.410766,-0.561199,-0.782574,0.269508
0.081313,0.459398,0.655768,0.999073,-0.042028,0.009302
-0.461325,-0.127189,0.431521,-0.640256,-0.287316,-0.712406
0.340422,0.106667,0.460436,0.334031,-0.741957,0.581311
-0.078675,-0.103416,0.761390,-0.114055,-0.861693,-0.494445
-0.153884,0.224765,-0.967005,0.342065,0.051172,-0.938282
-0.817091,-0.447574,-0.678671,-0.212429,-0.959253,0.186300
-0.745340,-0.368848,-0.974186,-0.102106,0.174878,0.979281
-0.166749,0.324671,0.670892,-0.480150,-0.868641,-0.122147
0.098959,0.067946,-0.239072,0.768577,0.636190,-0.067469
0.055415,-0.143691,0.817833,-0.334972,-0.285864,0.897817
-0.072574,0.181373,0.899355,-0.196955,0.972182,-0.126771
-0.312884,0.107579,0.850339,0.928902,-0.013666,0.370072
-0.326570,-0.523581,0.449447,-0.562542,0.208540,-0.800036
-0.052285,-0.096660,-0.274842,-0.604897,-0.748265,0.272394
0.005444,0.434585,0.534886,0.103593,0.682644,0.723371
-0.412999,0.121995,-0.975791,-0.085804,0.216251,0.972560
0.339269,-0.157330,0.750265,0.875741,0.460788,-0.144055
0.736929,0.184101,0.657074,0.424482,0.183589,-0.886628
0.027047,0.692088,-0.968147,-0.065180,0.152628,0.986132
0.285830,0.193061,0.397138,0.904027,0.214987,0.369479
0.244929,-0.608937,0.405544,0.789246,-0.580813,-0.199365
-0.454066,0.607121,0.602916,0.779300,-0.099335,0.618728
-0.016658,0.066518,0.858744,0.870153,0.403190,-0.283323
-0.239980,0.438875,0.491200,-0.449622,-0.889964,-0.076182
0.190829,0.356375,0.757854,-0.224415,0.974412,-0.012603
-0.020287,0.353908,0.838669,-0.229542,0.822039,0.521116
0.159657,-0.075226,0.288442,-0.219507,-0.670519,0.708675
-0.614879,0.317265,-0.499905,-0.278562,-0.953775,-0.112769
-0.204354,0.223464,-0.584392,0.925451,0.364785,-0.102333
0.216394,0.363519,-0.091478,0.893050,-0.419549,0.162605
-0.087418,-0.123557,0.581345,-0.518407,0.663032,-0.540040
0.056241,0.311421,0.718766,-0.512013,0.780023,0.359733
0.793333,0.569185,-0.089655,0.852264,0.522559,0.024023
0.234867,-0.369364,0.440416,0.737746,0.217342,0.639135
0.009068,-0.113812,0.777575,-0.277354,0.723618,-0.632022
0.014680,-0.112638,0.742486,-0.498682,0.764212,-0.409018
0.169553,0.154610,0.432119,0.998381,-0.031904,0.047083
0.199733,0.146942,0.751272,0.755452,0.594231,-0.276010
-0.634011,-0.350269,0.268368,-0.250222,-0.770023,0.586902
0.358402,0.247372,0.605174,-0.257999,0.930428,-0.260270
0.234207,0.424063,0.387183,-0.337779,-0.075603,0.938184
0.914397,0.367809,-0.944428,-0.103854,0.097545,0.989798
0.300180,0.118879,0.535674,0.631850,-0.542430,-0.553656
-0.379350,0.074964,0.823872,0.841709,-0.423809,0.334532
0.096815,0.242955,0.205941,-0.615790,0.373184,0.693929
-0.283856,0.113288,0.571852,0.919709,0.384271,0.080442
-0.178130,0.039756,0.365231,0.743415,-0.407128,-0.530642
-0.446149,0.005848,-0.972799,-0.210631,0.018542,0.977390
0.017317,0.012993,-0.215407,-0.209498,-0.962669,0.171406
-0.104572,0.163309,-0.964693,-0.202233,0.461376,0.863848
-0.002146,0.023254,-0.603324,0.991764,0.126636,-0.019172
-0.404754,0.326099,0.618720,-0.508616,0.434613,-0.743250
0.579414,0.281018,0.619753,-0.342775,0.929957,0.132983
0.459015,0.281795,0.670049,0.215080,-0.766569,0.605072
-0.055254,0.522669,0.665234,0.321683,0.616581,-0.718573
0.474678,-0.329089,0.409814,0.872802,-0.368103,0.320493
-0.186214,0.692738,0.341838,-0.633428,0.415408,0.652844
0.969155,0.334679,-0.943367,-0.220242,0.034277,0.974843
-0.859311,-0.285824,-0.600305,-0.040857,-0.987500,0.152229
0.164766,-0.832532,-0.551206,0.878244,-0.415791,-0.236233
0.792674,0.108221,-0.946142,-0.165087,-0.005248,0.986265
0.023091,-0.107444,0.792672,0.356741,0.904487,0.233749
0.646212,0.134080,-0.259038,0.329521,0.695833,-0.638148
-0.096654,0.100823,0.925414,0.992521,0.103408,-0.064869
0.642422,0.773423,-0.963958,-0.147641,0.184518,0.971676
0.535542,0.224114,0.559013,0.721922,0.584119,-0.370991
0.679035,-0.344417,-0.381334,-0.502560,0.839966,-0.204673
-0.665842,-0.286997,-0.631994,-0.277215,0.901332,-0.332794
-0.005937,-0.177860,0.803063,0.903582,0.135930,0.406278
0.392709,-0.522669,0.565596,0.858273,-0.353808,-0.371734
-0.200725,0.235160,0.071594,-0.171302,-0.953316,-0.248685
-0.281053,-0.310382,0.474091,-0.572089,-0.690959,0.441917
-0.297875,0.605043,0.466393,-0.640326,-0.424192,0.640346
0.253666,0.026632,0.375731,0.305355,0.314821,-0.898691
0.289952,-0.340785,0.642195,0.039234,-0.976128,0.213624
-0.061521,0.379109,0.829040,0.462915,0.832084,-0.305527
0.336632,0.437186,0.757256,0.355459,0.814982,-0.457660
-0.035629,0.635311,-0.964448,0.243725,-0.145635,-0.958848
-0.170544,0.072759,0.084542,0.567847,0.240624,0.787179
-0.390897,0.173578,0.650110,0.368620,0.769942,-0.520872
0.125843,0.390671,0.784457,0.396438,0.813080,-0.426307
-0.536866,0.464600,0.652096,0.430240,-0.655463,0.620694
0.070425,0.510592,-0.971139,-0.184645,0.083821,0.979224
-0.096322,0.199429,0.088377,-0.078655,0.951354,0.297890
0.507008,0.092243,0.185349,0.025302,-0.641778,0.766473
0.366978,0.202157,-0.276501,0.549590,0.783170,-0.290853
0.921157,0.355462,-0.207546,0.027037,-0.929659,0.367427
-0.061028,0.130052,0.815847,0.391733,0.187853,-0.900698
-0.044865,0.111472,0.935370,0.833745,-0.503129,-0.227442
0.599371,-0.068731,0.180072,-0.432170,0.003274,0.901786
0.570011,-0.318827,0.598265,0.724626,-0.419432,0.546803
0.227276,0.796023,-0.972690,-0.033366,-0.159918,0.986566
0.467259,0.167726,0.603133,-0.077861,0.890963,-0.447350
