-0.470884,-0.169099,0.660483,0.409128,-0.912473,-0.002714
0.637069,-0.323899,0.278971,0.410894,0.911616,-0.011081
-0.195803,-0.402100,0.776970,0.040843,0.722541,0.690120
-0.087687,0.085440,0.781288,-0.541883,0.630885,0.555290
-0.039917,0.059274,-0.199758,0.641856,0.660149,0.390160
-0.110821,0.063665,0.738012,0.958041,-0.286632,-0.000731
-0.289517,-0.398362,0.688029,-0.531483,-0.711955,-0.458963
-0.130436,0.281120,0.722440,0.391622,-0.535064,-0.748557
0.571248,-0.282544,0.409591,0.600695,0.795026,-0.084254
-0.016194,-0.626201,0.553624,0.855788,-0.300130,0.421365
-0.095375,0.303786,0.488558,-0.350686,0.542171,-0.763591
-0.003420,0.112021,0.673090,0.775124,-0.307053,-0.552179
-0.159893,-0.350659,0.672745,0.969277,-0.072040,-0.235188
0.542116,0.011807,0.630087,0.590878,0.083880,-0.802389
-0.265533,-0.315177,0.785274,-0.417554,-0.232706,-0.878349
-0.302225,0.308058,-0.657504,0.694612,-0.709434,0.119236
-0.107302,-0.137475,0.161764,0.831443,0.404357,-0.381049
0.074783,-0.025929,0.880749,0.618024,0.543165,0.568347
-0.033008,-0.630058,-0.339920,0.801831,0.402780,0.441403
-0.008829,-0.198469,-0.373870,0.760035,0.642070,0.100466
-0.070481,-0.208793,-0.073082,0.899728,0.390232,-0.195468
0.332205,-0.184526,0.033202,-0.314182,-0.948811,0.032358
0.412820,-0.415628,0.372704,0.899534,0.398168,0.179726
-0.441559,-0.043669,0.731089,0.267486,0.639554,0.720709
-0.239466,-0.458111,-0.165463,-0.594194,0.616981,0.516012
-0.340154,-0.331138,-0.099649,0.913182,-0.381137,0.144336
-0.661897,-0.091788,0.356068,-0.323043,-0.592834,0.737693
-0.318844,0.225407,-0.446650,0.707907,-0.676992,-0.201371
0.655187,-0.287409,0.282166,0.410894,0.911616,-0.011081
0.292516,-0.340156,0.368862,-0.573938,-0.818296,0.031408
-0.080256,-0.665954,-0.294629,0.922086,0.328113,0.205182
0.233669,-0.534354,0.495380,-0.086270,0.877320,0.472087
-0.325425,0.388929,-0.994099,0.092968,0.870863,0.482654
-0.324904,0.101816,0.336970,0.894963,0.301765,-0.328601
0.209880,0.057613,0.494574,0.370295,0.924697,-0.088419
0.188570,-0.405186,-0.385197,-0.005529,-0.959084,0.283068
-0.611717,-0.602349,0.007225,-0.513507,0.781830,-0.353628
-0.932483,-0.201792,0.487882,0.672937,0.284055,0.682986
0.521653,-0.293224,0.282554,-0.215338,-0.555085,-0.803436
-0.628988,-0.543373,0.496719,-0.336342,-0.890359,-0.306813
-0.055752,0.131186,0.618185,0.742654,-0.342160,-0.575666
0.597511,-0.007298,0.482514,0.276480,0.944256,-0.178715
0.332269,0.174321,0.404467,-0.341906,0.817321,-0.463774
0.022908,-0.684229,0.333156,-0.873586,0.230110,-0.428831
-0.242660,-0.002789,-0.147732,-0.091319,0.318400,0.943548
0.201473,-0.035659,0.631311,0.917455,-0.396078,0.037400
-0.059596,0.034294,0.676213,0.773792,-0.274890,0.570685
-0.195085,0.171888,-0.992185,-0.472668,0.530711,-0.703513
-0.233209,0.070666,0.906194,0.956076,0.293041,0.006703
-0.467692,-0.202859,0.001123,0.977160,0.125130,-0.171756
0.234124,-0.410229,0.725059,0.351199,-0.091152,0.931853
0.104697,0.344785,0.431466,-0.333713,0.922714,0.192962
-0.233993,0.071734,-0.195282,0.993088,0.107826,-0.046364
-0.438820,0.232170,0.341057,0.626912,0.613693,-0.479962
0.222589,0.011273,0.905302,0.944549,-0.093359,-0.314819
-0.357294,0.474961,0.371179,0.324383,0.278238,0.904079
-0.297142,-0.570132,0.691181,-0.209224,0.846589,0.489400
-0.395678,0.411060,0.607276,0.945327,0.064498,-0.319682
-0.797973,-0.232289,0.100224,0.309038,0.854358,-0.417813
-0.733063,-0.085321,0.545982,0.530049,0.822963,-0.204401
-0.110104,-0.769313,0.182733,0.985436,-0.041519,0.164903
0.006942,-0.693426,0.454435,-0.731538,0.451535,0.510851
-0.029097,0.251157,-0.400740,-0.216992,-0.483917,0.847784
-0.507771,-0.435564,0.625597,-0.193721,0.842602,0.502488
-0.770797,0.664709,0.355996,-0.577772,-0.803058,0.145866
0.033009,-0.159190,0.881152,-0.100345,-0.993886,-0.046060
-0.293297,0.135992,-0.491869,0.412337,0.211436,0.886156
-0.515525,-0.406254,0.357219,-0.734463,0.632869,0.245032
0.031641,-0.080159,0.913462,-0.305890,0.623532,-0.719471
0.256608,-0.412127,0.711473,0.834098,0.547760,0.065109
-0.118838,0.651418,0.559467,-0.522527,0.756388,0.393500
0.026687,-0.515486,0.611796,-0.255817,0.191179,-0.947633
-0.530386,0.653969,0.366919,0.931296,-0.286124,-0.225434
0.225783,-0.464874,0.709199,0.938919,0.267223,-0.216848
0.002054,0.090246,0.826766,0.754202,-0.097901,0.649303
-0.196519,0.070132,0.393429,-0.642851,0.537762,-0.545486
0.428265,-0.187967,0.410871,0.518128,0.829295,-0.209315
-0.491218,-0.365610,0.344281,-0.508709,0.821653,-0.257102
-0.102869,0.183399,0.634491,-0.149781,0.154175,0.976625
0.363682,-0.231399,-0.252000,0.885025,-0.228969,0.405344
-0.219850,0.275365,0.836322,-0.619639,-0.586780,0.521284
-0.815373,0.302124,0.523991,0.825681,0.097709,0.555611
-0.045977,0.020826,0.968899,0.809583,-0.521535,-0.269400
-0.119685,0.236146,0.006203,-0.311939,0.950088,0.005220
-0.298315,0.308295,0.092467,0.393494,0.894007,0.214275
0.742385,-0.399727,0.422025,-0.612324,-0.607674,-0.505758
0.016978,-0.465527,0.579817,0.991374,-0.128838,-0.024052
-0.302225,-0.212590,0.471749,0.742079,-0.333254,0.581602
0.277918,-0.202385,-0.119596,-0.218145,-0.868997,0.444137
0.410865,0.274475,0.452003,-0.215830,0.955926,-0.199057
0.301183,-0.531268,0.710394,-0.501390,-0.849086,-0.166317
-0.648278,-0.557375,0.494315,0.723743,0.235259,0.648729
-0.527192,0.532099,0.141932,-0.772869,-0.343606,0.533487
0.018998,-0.570606,0.545406,0.925427,-0.056608,0.374674
-0.246439,0.299751,-0.216625,-0.680513,0.721880,0.125665
-0.343673,0.053400,0.624820,0.324680,0.817717,-0.475311
-0.173188,-0.473003,0.665131,0.954234,-0.228296,0.193181
-0.179900,-0.400439,0.527344,0.832751,-0.506774,-0.222948
0.562710,0.176872,0.238515,0.805061,0.326543,0.495223
-0.097462,-0.275127,0.588236,0.982118,-0.168377,-0.084220
-0.723354,-0.136525,0.363566,-0.560792,0.419213,-0.713984
-0.089576,0.422689,0.594497,0.879345,-0.420775,-0.222935
-0.148423,0.195562,-0.040182,0.966234,0.252004,-0.053720
-0.416273,0.566038,0.185971,0.212027,-0.030217,0.976797
0.235492,0.213481,0.226455,-0.131557,0.530724,0.837272
0.118251,-0.444464,-0.387974,-0.192646,-0.145225,0.970462
0.274855,-0.247478,-0.148883,-0.241986,0.959613,0.143477
-0.303268,-0.237629,0.853693,-0.748054,-0.015270,-0.663462
0.456614,-0.653732,0.444678,0.898950,0.189204,0.395083
-0.392355,-0.182686,0.748518,0.009956,-0.935409,0.353428
-0.165173,0.063665,0.264550,-0.694289,0.679050,0.238440
-0.205839,0.082651,-0.241941,0.980184,-0.184553,-0.071973
-0.207989,0.099146,0.584394,0.641279,-0.338789,-0.688465
-0.186287,0.449152,0.645530,-0.044540,0.161190,0.985918
-0.095767,0.646671,0.260247,0.197770,0.730797,0.653317
-0.721463,-0.608164,0.431812,-0.314404,0.924356,-0.216140
0.477793,0.094577,0.699053,0.925274,-0.286817,0.248201
-0.085992,0.080456,0.759873,0.537814,-0.693187,-0.479841
0.150185,-0.534116,-0.200104,-0.687282,-0.694676,0.212293
0.332205,-0.049246,0.466697,0.164165,0.985587,-0.040833
-0.517546,-0.157351,0.543981,0.195834,-0.980446,0.019339
0.197889,-0.120209,0.752792,0.247680,0.914315,-0.320442
-0.517872,-0.284977,0.126576,-0.400226,0.565866,0.720843
0.096354,-0.538151,0.461934,0.947476,-0.317911,0.034948
-0.696634,0.237095,0.493049,-0.582855,-0.809656,0.068822
-0.309719,0.098612,0.201140,0.322166,0.822615,-0.468523
0.270293,-0.482675,0.672903,0.824575,0.563494,-0.050501
-0.623513,-0.632669,-0.002116,-0.515425,0.828978,-0.217101
-0.064029,-0.480242,-0.457300,-0.278247,-0.836262,0.472488
-0.320863,-0.135279,-0.256894,0.479138,-0.629633,-0.611547
-0.612890,-0.541236,0.019400,-0.508290,0.789761,-0.343393
0.163415,-0.099976,0.398451,0.465008,0.880320,-0.093832
-0.113102,0.011807,0.796442,0.405749,-0.100880,-0.908400
-0.075107,0.167794,0.103362,0.726475,-0.415112,-0.547647
-0.071718,-0.190459,0.858673,0.932540,0.025711,-0.360151
-0.507250,-0.094221,0.004490,0.712669,0.384969,-0.586431
-0.558864,0.420019,0.579673,-0.129443,-0.141526,-0.981435
-0.243181,-0.351786,0.585243,0.888935,-0.457934,0.009532
-0.622013,-0.077430,0.362314,0.026443,0.872774,-0.487409
-0.254716,0.518927,0.321786,-0.256911,-0.931743,0.256614
-0.711427,-0.161742,0.606816,-0.226645,0.958913,-0.170639
-0.132328,-0.460662,0.381958,0.981695,-0.122718,0.145657
-0.572941,-0.080159,0.372114,0.042832,0.943363,-0.328987
0.070873,-0.481488,-0.277445,0.197400,0.926789,0.319524
0.108346,0.443752,0.683193,0.919258,0.078722,0.385705
-0.490826,0.591076,0.187108,0.156276,0.222362,0.962358
-0.150899,0.547763,0.643529,-0.116157,-0.332743,0.935836
0.445339,-0.447134,0.436892,0.855741,0.515103,0.048743
0.569683,0.293462,0.403488,-0.132573,0.987882,-0.080709
-0.001465,-0.632194,-0.506419,-0.311037,0.574676,-0.756970
-0.369677,-0.719710,0.339589,-0.768837,0.614764,0.175937
-0.367069,-0.410288,0.714956,0.045118,0.785945,0.616649
0.363877,-0.394328,0.354974,-0.634740,-0.758407,-0.148066
0.577503,-0.056070,0.459991,0.226844,0.940445,-0.253189
0.334094,-0.212116,-0.242459,0.190335,-0.466512,0.863794
-0.089966,-0.351904,0.848713,0.564423,-0.337084,0.753526
-0.341718,0.171117,-0.431236,0.959786,0.014114,-0.280378
-0.330182,-0.139907,0.760923,-0.186425,0.881184,0.434467
-0.133760,0.191053,0.433093,0.869979,0.485104,-0.088377
0.105152,0.660318,0.577082,0.598111,0.384674,0.703057
-0.717358,-0.618310,0.368934,-0.766380,0.333496,-0.549037
-0.205578,-0.451050,0.661188,0.971683,-0.193946,0.134973
0.384666,-0.111783,-0.453601,-0.148271,-0.781193,0.606427
-0.105737,-0.577726,-0.298285,0.962718,0.030883,-0.268738
-0.110560,0.172897,0.595590,-0.651965,0.270658,0.708298
-0.082732,-0.023377,0.890306,-0.656570,0.744338,-0.121970
-0.549089,-0.009019,-0.577932,-0.313117,0.246699,-0.917113
-0.251067,0.017978,0.173982,-0.256489,-0.170951,0.951309
-0.089250,0.320043,0.720914,-0.055466,0.672171,0.738316
-0.131154,0.875994,0.274092,-0.813899,-0.000953,0.581006
0.002769,0.520233,0.602254,-0.173515,0.862239,0.475854
0.077911,0.150647,0.138463,-0.421221,-0.285675,-0.860792
-0.297729,-0.242969,-0.243250,-0.394123,-0.555501,0.732179
0.690248,-0.052213,0.492056,0.249001,0.890016,-0.381929
-0.247222,-0.170879,-0.154626,0.984206,-0.176994,0.003413
-0.647951,0.604248,0.343489,0.677666,0.709009,-0.195130
-0.255237,-0.675032,-0.472728,-0.268271,-0.615931,0.740716
0.174232,-0.196511,0.518364,-0.621429,-0.032585,-0.782793
-0.040501,-0.370832,0.626590,-0.538903,0.047300,-0.841039
0.440256,0.282841,0.423695,-0.446636,0.829851,-0.334462
0.125876,0.057019,0.481463,-0.354069,-0.933144,0.062273
-0.480204,0.283434,0.349850,-0.354613,-0.625571,0.694918
-0.236534,-0.200783,0.862788,-0.631290,-0.773952,0.049712
-0.303854,0.283019,-0.560302,0.900539,-0.432293,0.046387
0.164978,-0.086211,0.799105,0.039781,0.999166,0.009234
-0.315195,-0.508484,0.686215,0.206126,0.966926,0.150220
0.132262,-0.993651,0.052242,0.968814,-0.110493,-0.221789
0.403501,-0.073454,-0.467820,0.150495,0.815013,-0.559558
-0.054449,0.297674,0.726095,0.245770,0.850187,0.465596
-0.587734,-0.478521,0.360025,-0.881255,0.438160,-0.177213
0.364203,-0.104604,0.779532,-0.653210,0.215078,-0.725988
-0.382383,-0.052094,0.720871,-0.307286,-0.597916,-0.740319
-0.364722,-0.412602,-0.445800,0.449485,0.454002,-0.769315
-0.191762,0.295182,0.652855,-0.297063,0.434966,0.850035
0.029489,-0.173846,0.495553,-0.693034,0.379924,0.612667
0.072241,-0.637118,0.255224,0.997645,-0.065757,-0.019486
-0.224802,0.234010,0.394407,0.593078,-0.360459,-0.719950
-0.065724,-0.504272,-0.140550,0.989919,-0.141135,-0.011924
-0.169539,0.451703,0.381066,0.944803,0.105575,-0.310164
-0.701781,0.182805,0.508088,0.507938,0.861102,0.022416
-0.197172,0.069005,0.736357,0.562479,0.243485,-0.790147
0.063313,-0.174083,0.171622,-0.473130,0.793524,-0.382711
0.006419,-0.366145,0.011168,-0.683402,0.265424,0.680083
-0.085340,-0.515367,0.617739,-0.448216,-0.288705,-0.846021
-0.277069,-0.274831,0.783331,-0.462741,0.874485,0.145417
0.535795,-0.244393,0.408554,0.469542,0.815817,0.337598
-0.043369,-0.396108,-0.335444,0.931694,-0.291569,0.216640
0.099677,-0.877299,-0.109205,0.960263,0.156080,-0.231374
-0.693766,-0.236264,0.177437,-0.000946,0.999626,0.027314
-0.483006,-0.173252,-0.014363,0.877717,0.465581,0.113348
0.150641,0.007654,0.095101,-0.672840,0.120222,-0.729954
-0.851542,0.030912,0.547421,0.131785,-0.658279,0.741149
0.150185,-0.402575,0.471432,-0.569831,-0.192196,0.798970
0.169475,0.209565,0.422572,0.096076,-0.486792,0.868218
-0.142558,0.286698,-0.240760,-0.239537,0.963159,-0.122261
-0.261624,-0.152308,0.746330,-0.477509,0.861117,-0.174537
-0.853694,-0.231874,0.094410,0.309038,0.854358,-0.417813
-0.440190,-0.075946,0.011585,-0.679158,0.370813,0.633437
-0.201668,0.527471,0.374978,-0.330263,0.834754,0.440581
0.310634,-0.120921,-0.467316,-0.035183,0.667916,-0.743405
0.082342,-0.543076,0.460955,0.946734,-0.286550,0.146915
-0.503600,-0.383054,0.711617,0.294472,0.846232,0.444047
-0.128742,0.710870,0.258822,-0.610943,-0.071953,0.788398
-0.082343,-0.446718,0.624575,-0.463579,0.384453,-0.798304
-0.113428,-0.084728,0.748460,0.929180,-0.033002,-0.368151
-0.355860,0.137712,0.519213,0.143446,0.989194,-0.030317
0.313371,-0.222440,-0.001986,0.984445,0.027344,0.173554
-0.196454,0.035896,0.680329,-0.462705,-0.466602,-0.753781
-0.841962,-0.230568,0.474210,-0.266757,0.756561,-0.597039
0.139171,-0.212234,0.705026,-0.490397,0.839260,0.234848
-0.208510,-0.215557,0.845504,0.798829,0.215417,0.561666
-0.030400,-0.895574,0.133182,0.928031,-0.245830,0.279868
-0.107431,0.060757,-0.555596,0.972991,-0.002042,-0.230835
-0.193977,-0.562121,0.678444,0.961597,-0.253734,0.104646
-0.613738,-0.284146,0.494258,-0.302922,-0.942532,0.140966
-0.252304,-0.255191,0.701183,0.470188,-0.867490,-0.162431
-0.231580,-0.084312,0.122431,0.085160,-0.422097,0.902542
-0.051321,0.025039,0.967330,-0.931319,0.171322,0.321394
0.028708,-0.714667,-0.100872,0.946406,0.283201,-0.155284
-0.042980,0.252106,0.087243,-0.489860,0.855282,0.168910
0.214703,0.462620,0.081098,0.648147,-0.450351,-0.614076
-0.551696,-0.127388,0.541420,-0.229225,0.942523,-0.243117
0.281633,-0.026403,0.061194,0.408447,0.796326,-0.446134
0.240249,-0.496025,0.713027,0.858298,0.498511,0.121704
-0.633353,0.037202,0.132721,-0.767796,-0.053711,0.638439
-0.316432,-0.248428,-0.221173,-0.604585,-0.391770,0.693536
0.027339,0.274831,0.819743,0.939945,0.102319,-0.325629
-0.248981,0.357067,-0.359320,-0.167380,0.985879,-0.005108
-0.080451,-0.127685,0.400740,0.385247,-0.921341,0.052113
-0.039199,1.000000,0.283590,0.683219,0.149831,-0.714677
0.083842,0.195740,0.348857,-0.133919,0.816982,-0.560898
0.302030,-0.145069,0.007124,0.846825,0.483444,-0.221741
-0.139430,0.194197,0.583271,0.686630,-0.476164,-0.549370
-0.708885,0.202682,0.534037,0.382112,0.270985,0.883492
-0.424158,0.330901,0.596670,-0.592427,-0.136134,0.794039
0.004203,-0.664708,-0.489681,-0.466038,0.658362,-0.591074
-0.591970,-0.482200,0.351390,0.829129,-0.558955,0.010667
-0.025579,-0.212412,0.603664,0.902339,0.091002,-0.421311
0.009874,-0.588584,0.587660,0.673657,-0.588379,-0.447210
-0.320668,0.110656,-0.628749,0.963175,0.253935,0.088381
-0.518524,0.469622,0.118560,0.543655,0.674467,-0.499533
0.297729,-0.320161,0.695527,0.999342,-0.012776,-0.033952
0.444624,-0.460425,0.417837,0.840423,0.529883,-0.113636
0.340546,-0.232882,0.156986,0.509566,0.854785,-0.098412
0.638308,-0.156165,0.096180,0.885985,0.409841,-0.216935
0.006029,0.106384,0.823945,-0.628374,0.442422,-0.639850
-0.688748,-0.650528,0.365969,-0.662890,0.711534,-0.233015
-0.153181,0.153020,0.826579,0.835075,0.550082,0.007682
-0.834534,-0.687908,0.063453,-0.470926,0.800524,-0.370662
-0.148749,-0.101281,0.853218,0.261165,-0.961280,0.087944
0.232298,-0.079684,0.801523,0.181207,0.982902,-0.032669
0.127049,0.706361,0.547622,-0.589770,-0.568543,-0.573524
0.187657,-0.267711,0.359219,0.872844,0.453557,0.180082
-0.124571,-0.712115,-0.135887,0.293972,0.074593,0.952899
-0.140016,0.175270,0.148653,0.615788,0.737368,0.277657
-0.719378,-0.608817,0.379785,-0.811417,0.118300,-0.572370
-0.924468,-0.235612,0.476441,0.188820,-0.373276,0.908302
-0.661702,-0.226949,0.506188,-0.130850,-0.984375,0.117827
-0.350645,0.276908,-0.517299,0.817340,-0.537860,-0.206546
-0.364854,-0.399134,0.442015,0.676814,-0.724731,0.129179
-0.650493,-0.578854,0.498992,0.729757,-0.255210,0.634289
0.341393,-0.523436,0.498662,0.923502,-0.000729,0.383592
-0.066832,-0.014892,0.893026,0.936408,-0.137431,0.322881
-0.806575,0.276077,0.510981,0.862961,0.468726,0.188663
-0.761347,0.459772,0.344237,0.893297,0.364946,0.262364
0.049237,-0.667497,0.021660,0.889479,0.419596,-0.181018
0.239142,-0.384478,0.526394,-0.410674,-0.040516,-0.910882
0.190199,0.001246,0.887398,0.837448,0.069565,-0.542071
-0.147513,-0.019046,0.193224,-0.371114,0.808357,0.456983
-0.346214,0.315949,0.609363,0.910096,0.206893,-0.359056
-0.006680,-0.377655,0.179739,0.869602,-0.469391,-0.153179
0.752486,0.178415,0.340870,-0.437990,0.603076,0.666682
-0.195411,0.283553,-0.303725,-0.626220,0.710808,0.320313
-0.002835,0.014833,0.970022,0.950073,0.240464,-0.198841
-0.031574,0.009968,0.962696,0.070081,-0.948461,0.309049
0.127505,-0.088584,0.949643,0.863022,-0.397238,0.312081
-0.600508,0.195028,0.502058,0.174036,-0.984457,-0.023583
0.156963,0.000712,0.629929,0.848728,-0.528616,-0.015033
-0.215222,-0.261006,0.735651,-0.714452,-0.299000,0.632580
-0.545960,0.090127,0.618229,-0.258426,-0.195575,0.946027
-0.195280,-0.142755,0.802631,-0.703309,0.424409,-0.570292
-0.320668,-0.249377,-0.440375,0.709567,0.159686,-0.686305
0.129199,-0.759404,0.033921,0.970921,0.229871,-0.066873
0.640133,-0.222796,0.098569,0.885985,0.409841,-0.216935
0.456680,-0.595289,0.389946,0.841662,0.539927,0.009192
0.298576,-0.283197,0.430804,0.709127,0.568878,0.416553
-0.741665,0.664115,0.356946,-0.515256,-0.816735,0.259721
0.133893,0.243325,0.661332,-0.199003,0.979869,0.015966
-0.039720,-0.052628,0.667362,-0.068669,-0.721704,0.688788
0.527257,-0.011807,0.463474,0.080233,-0.979289,0.185892
-0.334614,0.051857,0.172543,0.284380,-0.669456,0.686263
-0.538466,-0.140975,0.755008,-0.231608,-0.066905,-0.970506
0.240576,-0.361101,0.684517,-0.619353,-0.229459,0.750833
0.279678,0.168031,0.401675,-0.109050,-0.979268,0.170711
0.532472,0.174914,0.396868,-0.357444,0.650217,-0.670412
-0.078367,0.183636,0.028021,0.651052,0.752954,0.095876
0.059143,-0.643230,0.023012,0.919270,0.327456,-0.218439
-0.292775,0.231103,0.661821,-0.739221,-0.667508,0.089363
-0.141256,0.229857,-0.085459,0.657857,-0.750329,-0.065042
0.130307,-0.277797,0.759383,0.749617,0.249662,0.612979
-0.064745,0.509315,0.599447,-0.468043,0.753667,0.461434
0.277984,-0.408033,0.494445,-0.413246,0.094406,0.905713
-0.739907,-0.609351,0.054991,0.665254,-0.745716,0.036674
-0.182573,0.389937,0.450766,0.997627,-0.063613,0.026325
0.114146,0.185238,0.779446,0.054378,-0.540824,0.839376
-0.004203,-0.104426,0.974138,-0.052768,-0.775969,0.628560
0.261560,-0.470156,0.693570,0.865438,0.345277,0.363045
-0.981166,-0.169633,0.503713,-0.292247,-0.938976,0.181428
0.094985,-0.224517,0.766896,0.723171,0.258907,0.640306
-0.543029,-0.411000,0.339517,0.810277,-0.584894,-0.036757
-0.233666,0.070191,0.721116,0.884965,0.363226,0.291384
-0.628596,-0.100866,0.591589,0.048007,-0.422380,0.905147
-0.562187,-0.266405,0.500000,0.091854,-0.821009,0.563477
-0.213072,0.312211,0.448189,0.978775,-0.103332,-0.176981
0.054712,-0.618547,0.465560,0.987164,0.146780,-0.062953
-0.068590,-0.687255,-0.124201,-0.206509,0.111957,0.972018
-0.611065,-0.411178,0.633023,-0.368050,-0.639186,-0.675263
-0.362312,0.162395,0.225966,0.656469,0.733861,-0.174630
-0.319886,-0.099442,0.195066,-0.762730,0.355350,0.540341
0.005637,-0.789545,0.143702,0.820729,-0.216047,0.528893
-0.064093,-0.737214,0.577428,0.945994,0.134761,0.294849
-0.499364,0.240892,0.538512,-0.679718,-0.706842,0.195850
-0.209228,-0.331494,0.636593,0.951156,0.216179,0.220382
0.062335,-0.360389,0.410181,0.910264,0.385736,-0.150422
-0.314998,-0.448677,-0.137802,0.930384,-0.210335,-0.300241
-0.128547,0.334579,0.595662,0.997697,-0.064721,-0.020292
0.244746,-0.633024,0.506577,0.053329,0.549951,0.833493
-0.137346,-0.066690,0.765414,0.951020,-0.201677,0.234280
-0.307309,0.028124,-0.009700,-0.436582,0.708270,-0.554752
-0.270488,-0.127625,0.631800,0.278911,-0.681506,-0.676578
0.224804,0.359321,0.607564,-0.294862,0.931015,-0.215100
-0.260581,0.054705,0.617898,0.167889,-0.933347,0.317295
0.144060,-0.064435,0.798083,0.243833,0.961477,-0.126913
0.092641,0.388632,0.449988,0.593971,-0.649807,-0.474289
0.109194,0.760947,0.541866,-0.768365,-0.573563,-0.283973
-0.309459,-0.196393,0.757944,0.018747,-0.984604,0.173793
-0.214572,0.415391,0.359378,-0.493549,0.299440,0.816544
0.389618,-0.154088,0.090798,-0.613937,-0.707178,-0.350685
-0.022972,-0.139195,0.892565,0.706608,-0.657746,0.260914
0.294992,-0.667616,0.525042,0.025758,0.880602,0.473155
0.365051,-0.159013,0.650711,0.686233,0.182790,0.704040
-0.316302,-0.311143,0.458077,0.961748,-0.232764,-0.144438
0.083255,-0.074225,0.928991,0.770684,0.161619,-0.616381
-0.674606,0.572861,0.343432,-0.684987,-0.704138,0.187037
-0.495259,0.337427,0.356931,0.443054,0.796847,-0.410777
0.650038,-0.528599,0.335977,-0.283372,0.314238,0.906066
0.092249,-0.020588,0.675436,-0.112077,-0.972496,0.204183
-0.385838,-0.285452,0.028265,0.935751,0.201293,-0.289571
-0.141906,0.746826,0.254145,0.758514,-0.036417,-0.650639
-0.310827,0.033345,0.600872,-0.019512,-0.926506,0.375775
-0.178727,0.277857,-0.192994,0.805140,-0.591164,0.047689
-0.584931,-0.126676,0.517428,0.044790,0.955008,0.293178
-0.094138,0.415747,0.702708,0.925213,0.084727,0.369867
0.108997,0.035600,0.895616,0.130775,0.463395,0.876449
0.134543,-0.730746,0.026697,0.890390,0.443144,0.104066
0.308482,-0.400735,-0.353132,-0.009080,-0.870695,0.491740
-0.422007,0.170167,0.641486,0.343197,0.827556,-0.444259
0.314218,-0.293699,0.528222,-0.649286,-0.550744,-0.524508
0.064552,-0.324730,0.466122,0.801635,0.446754,-0.397231
0.096354,0.288656,0.628994,-0.497362,0.628017,0.598520
0.516766,-0.478996,0.322779,0.643861,0.715544,0.270998
-0.335397,0.165124,0.018479,-0.600323,0.441969,0.666540
-0.599400,0.804972,0.129756,0.978389,0.206771,0.001161
-0.028642,-0.187433,0.905287,-0.599653,0.391243,0.698101
-0.249046,-0.644654,0.344569,0.762289,-0.509627,-0.398994
-0.239987,-0.071556,0.714236,0.120565,0.917240,0.379652
-0.509986,-0.152783,0.530295,0.281397,0.956883,-0.072043
-0.297532,-0.303548,0.576593,0.932268,-0.346186,0.105035
-0.582000,-0.077667,0.340208,0.080823,0.980816,-0.177391
-0.060314,-0.349650,0.830364,-0.847905,-0.031481,-0.529213
0.247288,0.052273,0.834955,0.042129,0.580624,0.813081
-0.171168,0.169218,0.033504,0.807916,-0.585141,-0.069864
-0.053341,-0.065385,0.718856,0.135600,-0.971609,-0.193878
0.572943,-0.229975,0.047838,0.685347,0.618364,-0.384610
-0.188244,-0.194494,0.632160,0.251927,-0.055163,0.966173
-0.817784,-0.183398,0.369869,0.711641,-0.617799,0.334502
-0.538988,-0.583838,0.400697,-0.640207,0.764401,0.076329
0.065008,0.474724,0.683625,0.845367,0.117736,0.521050
-0.210204,0.276077,0.183870,0.841206,0.461980,-0.280977
0.056730,-0.295301,0.218568,0.989161,-0.105830,0.101790
-0.095507,-0.141687,0.737378,0.926205,0.227308,-0.300791
0.564536,-0.295063,-0.085358,-0.312798,-0.091108,0.945440
-0.230212,-0.058859,0.642738,0.167880,-0.482538,0.859636
-0.066374,0.088228,0.886290,0.940758,0.336647,-0.040543
-0.345238,0.305032,-0.349016,0.865533,-0.495707,-0.071606
-0.621558,0.133381,0.500000,-0.254388,0.965539,-0.054958
0.228714,-0.096119,0.792211,0.149598,0.983804,-0.098743
-0.201471,0.325620,-0.319584,-0.085205,0.991009,0.103158
-0.092181,-0.142815,-0.075946,0.975743,-0.216181,-0.034521
0.115254,-0.802776,-0.075888,0.935636,0.308089,-0.172240
-0.476228,-0.464222,0.603261,-0.048004,0.998847,-0.000210
0.526997,-0.010205,0.200046,0.895560,0.265445,0.357086
-0.137085,-0.170405,0.773617,0.585020,-0.726994,0.359487
-0.802404,-0.043432,0.142983,0.343061,0.768098,0.540679
-0.107823,0.300878,0.652942,-0.154762,0.707964,0.689084
-0.624686,0.703631,0.013039,-0.070938,-0.202065,0.976800
0.202060,-0.031565,0.457918,0.207083,0.653521,-0.728029
-0.645541,0.442388,0.232672,0.797274,0.568744,-0.202201
-0.627357,-0.564020,0.356370,-0.065190,0.571903,0.817727
0.449705,-0.366797,0.315339,0.432862,0.556382,0.709275
-0.787090,-0.618666,0.380577,-0.472355,0.817168,0.330328
-0.700544,-0.611012,0.036167,0.723966,-0.685831,0.074216
-0.379060,0.173253,0.694793,0.813522,0.414121,-0.408271
0.161263,-0.258573,0.874806,0.789257,0.269764,0.551635
-0.373129,0.468376,0.612990,-0.228801,-0.058239,0.971729
0.222589,0.225881,0.572477,-0.561207,-0.027226,0.827228
-0.086839,0.384123,0.519861,0.081576,0.147197,0.985737
-0.534425,-0.431055,0.612055,-0.249607,-0.865301,-0.434683
0.239597,0.147384,-0.393400,0.000210,0.632778,0.774334
-0.505295,-0.287113,0.066735,-0.654401,-0.013881,-0.756021
0.136695,0.360923,0.099490,0.685634,-0.306190,-0.660419
0.003553,-0.587101,0.547205,0.863333,-0.145924,0.483075
-0.084035,0.079981,0.730370,0.999330,-0.026402,0.025366
-0.407735,-0.410763,0.415175,0.765047,-0.542948,-0.346281
-0.592362,-0.108817,0.541995,-0.073194,0.376394,0.923564
-0.161719,-0.343538,0.522019,0.851622,-0.523912,0.016022
-0.413405,0.233891,0.116890,0.584802,0.807897,-0.072867
-0.006614,-0.494007,0.217964,0.992860,-0.061171,-0.102410
-0.583368,0.476860,0.336092,0.487207,0.044930,-0.872130
-0.072892,0.141688,0.045018,0.530906,0.841644,-0.098863
-0.522564,0.096891,0.184834,-0.333331,-0.605573,0.722614
-0.133760,0.377418,0.592741,0.985934,-0.158632,-0.052623
0.334094,0.015367,-0.272178,0.902110,0.370903,0.220518
0.601747,0.117480,0.357766,-0.013366,-0.913155,0.407394
-0.093747,-0.525097,0.068778,0.631414,0.656134,-0.413286
-0.245070,-0.008781,0.711631,-0.684824,0.686726,-0.243771
-0.416860,0.332325,-0.994747,0.293128,-0.513735,-0.806320
0.118838,-0.043550,0.877065,0.250180,0.964534,0.084171
0.205449,-0.419722,0.531748,0.924583,0.368627,0.096229
-0.543679,0.378486,0.080810,0.719205,0.685999,-0.110227
0.447881,0.265812,0.125194,0.533987,0.634531,-0.558774
-0.552283,-0.437344,0.279503,0.533128,-0.661721,-0.527162
0.086253,-0.400320,-0.202248,0.080756,0.586286,-0.806069
-0.014565,-0.223152,0.557351,-0.293904,0.942761,0.157549
-0.162695,-0.367331,0.544197,0.958175,-0.277852,-0.068544
0.687316,-0.421265,0.427221,0.526015,0.545848,0.652195
-0.736844,-0.131601,0.352714,-0.663647,0.640678,-0.386142
0.077064,0.069598,0.483291,-0.185762,0.940800,0.283527
0.488352,-0.614750,0.380879,0.863132,0.442610,0.243102
0.835773,-0.250741,0.020897,-0.388156,0.821095,-0.418495
-0.702434,0.561766,0.199672,0.927935,0.365339,-0.073921
-0.389682,0.248962,0.632059,-0.776661,0.629280,0.028353
-0.100785,-0.007535,0.745539,0.234301,-0.041410,-0.971282
-0.260190,0.203097,0.675134,0.829621,0.515015,-0.215611
-0.309003,-0.245995,0.484327,0.361524,-0.268067,0.892995
-0.350711,0.658894,0.193627,-0.493730,0.261550,0.829350
-0.064616,-0.489557,0.048184,0.902896,0.400842,0.155257
0.586823,-0.261777,0.282669,-0.553190,-0.571452,0.606155
-0.397765,0.304913,0.699010,0.862719,0.443810,-0.242382
-0.380104,-0.286223,-0.445455,-0.250329,-0.040781,0.967302
-0.021799,-0.663996,0.336797,0.005873,-0.061376,0.998097
0.096485,-0.125193,0.868718,0.538474,0.609353,0.582009
-0.072239,0.144773,0.910267,-0.728156,0.606796,0.318729
-0.588257,-0.630889,0.014622,-0.529405,0.762278,-0.372374
0.322885,-0.467960,0.480974,0.884649,0.267493,0.381894
-0.110494,-0.310609,0.390133,0.888237,-0.330229,-0.319349
0.212356,-0.036311,0.886276,0.988235,-0.135086,-0.071724
0.208707,-0.193307,0.150740,0.527054,0.820581,-0.221046
-0.299423,0.134330,0.738573,0.972159,0.025282,-0.232953
-0.465998,0.038686,0.616185,0.043446,-0.587336,0.808177
-0.375476,-0.353684,0.700981,-0.004701,0.679736,0.733442
0.013262,-0.473478,-0.080062,0.933219,0.294394,-0.205997
-0.529081,0.674499,0.362673,0.733945,-0.542240,-0.409023
0.084494,0.153969,0.700060,-0.707349,0.424034,0.565555
-0.371435,0.222025,0.366055,0.718862,0.652665,-0.239304
0.590733,0.253649,0.417751,-0.212358,0.920350,-0.328421
-0.635569,0.133262,0.493855,-0.084804,0.987116,0.135682
-0.462608,-0.432479,0.275272,0.603551,-0.715421,-0.351993
-0.746619,0.671473,0.364947,-0.315847,-0.778780,0.541979
-0.183029,0.283968,0.355751,0.966699,-0.190872,-0.170475
-0.110691,0.157707,0.789261,0.967946,0.003210,-0.251138
-0.633222,-0.236739,0.118948,0.310459,0.535447,-0.785437
0.142429,0.241604,0.650668,-0.533550,0.845743,-0.006529
-0.019517,-0.047881,0.988515,0.718581,0.689909,-0.087560
-0.020170,-0.045864,0.982456,0.774529,0.594831,0.215129
-0.413536,0.630236,0.184704,-0.567116,0.505323,0.650406
0.121576,-0.788002,0.003123,0.941886,0.244166,-0.230725
-0.141516,-0.224338,0.894307,0.699703,0.713781,0.030527
-0.235948,-0.467129,0.340899,0.866168,-0.471315,-0.166180
-0.100654,-0.135873,-0.099793,-0.538963,-0.817079,-0.204698
0.502495,-0.058384,-0.272624,0.559157,0.526372,-0.640528
-0.661247,-0.183221,0.182200,-0.148594,0.985526,-0.081602
-0.106258,-0.743799,-0.121798,-0.082201,0.293160,0.952523
0.092183,0.232348,0.433913,0.757834,-0.106707,0.643663
-0.521066,0.603774,0.373841,0.845288,-0.040748,-0.532755
0.285348,0.029430,0.530885,-0.031799,0.990093,0.136763
-0.281239,0.017681,0.409404,-0.736902,0.593956,0.322788
-0.730848,0.696393,0.335602,-0.565981,-0.824062,-0.024245
-0.701717,0.401922,0.344784,-0.603300,-0.780227,-0.165152
0.514941,0.066334,0.336063,0.241361,-0.910228,0.336495
0.448468,-0.400973,0.526740,0.916920,0.381215,-0.118034
0.222849,-0.170286,0.836855,-0.024840,0.898790,0.437674
0.123465,-0.518037,0.469475,-0.725264,0.089756,0.682595
0.215095,-0.453008,0.556819,0.923719,0.212936,-0.318436
0.461177,-0.525572,0.443239,0.933121,0.029548,0.358346
-0.708625,-0.191587,0.341445,-0.487724,0.872761,0.020337
0.130570,-0.278984,0.889154,-0.739092,-0.653790,-0.162178
-0.671869,-0.199240,0.534454,-0.580203,-0.473942,0.662377
0.018867,-0.566690,0.606399,0.586082,0.107152,-0.803135
0.010331,-0.485048,0.529906,0.941871,0.247527,0.227179
-0.056012,-0.968257,0.132289,0.959826,-0.187192,0.209028
-0.105803,0.294767,0.654064,0.000408,0.380125,0.924935
0.229235,-0.272754,0.682632,0.819447,0.023126,-0.572688
-0.342044,-0.171354,0.750561,-0.142667,0.899118,0.413802
0.391118,-0.214252,0.363825,0.420716,-0.906288,0.040485
0.036725,-0.705470,0.326622,0.947859,-0.315033,-0.048139
0.123074,0.147087,0.562604,-0.526846,-0.087432,0.845452
-0.057446,-0.091254,0.963618,0.052955,0.777050,0.627207
0.319691,-0.148155,0.019472,0.807120,0.589919,0.023513
0.110236,0.048001,0.557538,0.585966,0.261061,-0.767132
-0.043956,-0.025869,0.983018,-0.192263,0.760236,0.620545
0.410473,-0.223745,0.007887,-0.005451,-0.818554,0.574403
-0.756002,-0.125015,0.528683,-0.900192,0.311659,0.304176
-0.217048,0.519758,0.437554,0.913788,0.340745,0.221096
-0.123334,-0.160080,0.339272,0.163227,0.116867,0.979642
0.040374,0.029251,0.954277,0.397676,0.727468,-0.559146
-0.299552,-0.190874,0.638866,-0.605516,-0.787336,-0.115985
0.080909,-0.264625,0.759599,0.831615,0.185714,0.523380
-0.199192,-0.100866,0.853664,-0.444892,0.638638,-0.627863
-0.340023,-0.079328,0.412829,0.895080,-0.370810,0.247653
-0.060314,-0.653020,0.605679,0.631045,-0.318516,-0.707340
0.033986,-0.297022,0.809078,-0.464303,0.599576,0.651867
0.035030,-0.625846,-0.090237,0.923127,0.203264,-0.326375
0.199910,-0.564139,0.502216,0.791704,0.394873,0.466133
-0.198214,-0.084193,0.731737,0.253672,-0.877266,-0.407498
-0.431326,0.402634,0.138017,0.740711,0.534016,-0.407645
-0.036005,-0.914916,0.128217,0.957879,-0.274293,0.085033
-0.128612,0.295123,0.705832,0.558169,-0.829673,0.009479
0.724006,-0.293343,0.036325,0.257397,0.964400,0.060652
-0.301573,0.294055,-0.685554,0.967141,-0.246122,-0.063734
-0.164976,-0.125370,0.849073,-0.736984,0.080644,-0.671082
-0.240184,-0.344488,0.667866,0.781585,0.569713,-0.254072
0.519308,0.282248,0.402280,-0.071600,0.997250,0.019144
-0.215419,-0.378960,0.626806,0.793172,0.112440,-0.598527
-0.230212,0.240477,-0.195930,0.840594,-0.528968,-0.116596
0.185768,-0.665302,0.527978,-0.393250,-0.740637,-0.544804
-0.718139,0.618192,0.354744,0.655632,0.718516,0.232124
0.059403,0.271212,0.639399,-0.082806,0.943663,-0.320379
-0.535207,0.432123,0.087833,0.673822,0.638502,-0.371860
0.307506,0.002374,0.229650,-0.099672,0.371716,0.922980
-0.452050,0.120150,0.506951,0.264955,0.909976,-0.318969
-0.464106,-0.156639,0.752029,-0.100824,-0.283098,-0.953777
-0.539182,-0.220660,0.392450,-0.279263,0.946096,-0.164054
-0.319560,-0.335825,-0.246013,-0.443023,-0.621319,0.646292
0.036267,-0.331375,0.578953,0.730502,-0.505979,-0.458641
0.718402,-0.313397,-0.076521,0.133576,0.231450,0.963633
-0.372282,0.239943,-0.537102,0.868075,-0.496260,0.013094
-0.116751,-0.000534,0.722555,0.581382,0.697474,-0.418958
0.633680,-0.194197,-0.072765,-0.059361,0.243352,0.968120
0.264688,-0.541177,-0.173148,-0.022445,-0.998590,-0.048109
-0.260842,0.279993,0.641500,0.982325,-0.122925,-0.141164
-0.705236,-0.593212,0.039304,0.741698,-0.666390,0.076215
-0.782788,0.011689,0.540628,0.886790,0.077578,0.455614
0.418685,-0.489973,0.364933,0.688951,0.550068,0.471987
-0.049431,0.050137,0.837488,-0.051387,-0.527634,0.847916
-0.043566,-0.503678,0.610572,0.145960,0.243179,0.958937
0.059272,-0.620980,0.327658,0.948646,-0.144950,0.281177
-0.695266,-0.245817,0.467518,0.149542,0.943762,-0.294875
-0.506858,0.244630,0.584710,0.828512,0.550182,0.104251
-0.515786,0.265160,0.216726,0.707694,0.384203,0.592922
-0.390726,-0.063902,0.574765,-0.661806,0.507431,-0.551838
-0.524585,0.319331,0.351304,0.326882,0.881273,-0.341330
-0.643715,-0.203928,0.534468,-0.198056,-0.608298,0.768601
-0.173775,0.012164,0.650092,0.619904,0.784478,-0.017702
-0.397244,0.220838,0.219187,-0.391694,-0.720224,0.572585
-0.568510,-0.590186,0.428415,0.581165,-0.804630,-0.121728
0.103458,-0.202088,0.873036,0.936018,0.351343,-0.020703
-0.807422,-0.145841,0.530597,-0.817807,0.564298,-0.112958
-0.381407,0.055595,0.482068,-0.490319,-0.812694,0.314826
-0.426177,-0.070072,0.008678,-0.679158,0.370813,0.633437
0.105805,-0.003145,0.224742,-0.252553,-0.360665,0.897852
0.318063,-0.486947,0.681207,0.845961,0.518274,0.125468
-0.320407,-0.313219,0.790369,-0.616833,0.511985,-0.597819
-0.304896,-0.260531,-0.097605,0.930397,-0.355423,0.089642
-0.686336,-0.659665,0.246546,0.714758,-0.696359,-0.064851
0.218679,0.177050,0.829745,0.312137,0.108258,-0.943849
0.122487,-0.255963,0.530424,0.824064,-0.116443,-0.554400
-0.011958,-0.430817,0.144710,0.764602,-0.638694,-0.086334
-0.375021,0.420197,0.599735,0.980183,-0.154461,0.124027
-0.068200,-0.478165,-0.260708,-0.110716,-0.752290,0.649462
-0.523608,-0.077074,0.368113,0.092706,-0.954396,0.283786
0.074457,-0.280111,0.320592,0.562853,0.303207,-0.768935
0.422661,-0.631897,0.373424,0.760129,0.564928,0.321030
0.039135,-0.314643,0.585789,0.985607,-0.140512,0.093998
-0.293166,-0.586567,-0.146940,0.885160,-0.190979,-0.424286
0.389032,-0.386140,0.406252,0.815282,0.508832,-0.276413
-0.973346,-0.212531,0.502447,-0.292247,-0.938976,0.181428
0.040243,-0.171235,0.677034,0.295767,0.892946,0.339365
-0.227410,-0.064851,0.229405,0.766020,-0.642742,0.009820
0.481119,-0.647443,0.384736,0.929113,-0.125248,-0.347939
-0.509660,0.213184,0.316461,-0.630946,-0.700921,0.332591
0.177556,-0.669752,-0.261513,0.964155,-0.035856,-0.262907
0.045782,-0.667853,0.331299,0.858296,-0.145806,0.492004
0.255042,-0.204640,0.150193,0.419303,0.860441,-0.289528
-0.124703,0.383292,0.708566,0.044546,0.530338,0.846615
-0.331227,-0.317907,0.697455,-0.114549,0.539447,0.834192
0.244746,-0.448795,0.662124,0.939397,0.314602,-0.136232
-0.560493,-0.536846,0.142925,0.949726,-0.285110,-0.129356
-0.307112,0.573395,0.435841,-0.410891,-0.747728,0.521605
0.250482,-0.302302,0.697714,0.930559,0.004710,-0.366112
0.191698,0.753056,0.251641,-0.383558,0.890673,0.244100
0.033270,0.009375,-0.049896,0.633849,0.634010,0.443020
0.142494,0.111962,0.895803,0.334309,0.605108,-0.722552
-0.154288,-0.118725,0.804372,0.227487,0.242322,0.943149
-0.035681,0.215795,0.801738,-0.230792,0.718702,0.655899
0.272640,-0.091788,0.802012,-0.321324,-0.946810,0.017345
-0.220697,-0.033167,0.212178,0.889530,-0.451585,-0.069329
-0.066311,-0.037854,0.960379,0.936389,-0.250925,0.245383
0.215029,-0.032692,-0.107953,0.213023,-0.117676,0.969935
0.155919,-0.539397,-0.239091,-0.553006,-0.648893,0.522610
0.330184,-0.189984,0.404251,0.322338,0.443222,0.836452
-0.215288,0.078616,0.223893,0.116401,0.588537,0.800047
-0.428069,-0.080337,0.337718,-0.160132,0.904463,0.395354
-0.121182,-0.070013,0.832048,-0.712922,0.260648,-0.651004
0.073936,-0.195977,0.694419,-0.613867,0.429797,0.662150
-0.181661,0.034532,0.707515,0.785426,0.201604,0.585202
0.012807,0.677347,0.392162,0.875146,-0.483693,-0.012654
-0.305483,-0.358372,-0.243437,-0.393378,-0.612361,0.685761
-0.122095,0.206183,0.076348,-0.669590,0.735711,-0.101874
-0.399849,-0.114335,0.557668,-0.611795,0.790512,-0.028250
-0.105737,-0.317729,-0.112299,-0.483530,0.173859,0.857888
-0.624294,-0.088347,0.142450,0.362452,-0.908388,-0.208469
0.861774,-0.115343,0.049983,0.759428,-0.213490,0.614566
-0.073739,0.004806,0.892565,0.705150,-0.145031,-0.694068
-0.277200,-0.225109,-0.217878,0.454448,0.271928,-0.848253
0.745511,-0.192832,-0.074219,0.203516,0.587249,0.783403
0.004008,-0.310074,0.464208,0.929291,0.367189,-0.039880
-0.175664,0.128812,0.367250,-0.483834,-0.721706,0.495020
-0.558474,-0.068827,0.570433,0.308760,-0.123584,-0.943077
0.213464,-0.706242,-0.251929,-0.060852,-0.066282,0.995944
-0.694092,0.573514,0.229664,0.968651,0.227254,0.100350
-0.636808,0.773288,0.018234,-0.099665,-0.066457,0.992799
-0.165237,0.302302,0.699614,0.731340,0.054705,0.679815
0.233277,-0.465587,0.704824,0.896872,0.401429,0.185674
-0.360226,0.109588,0.681150,0.800665,0.599022,-0.010352
-0.149597,0.433725,0.313223,-0.640554,-0.529516,-0.556150
-0.390790,-0.485048,0.474829,0.832180,-0.330768,0.445050
0.159439,0.669930,0.511888,0.643314,-0.731442,0.226139
-0.092639,-0.482793,-0.143760,0.956039,0.290381,0.040843
-0.348887,0.013409,0.376216,0.900444,-0.072883,-0.428822
0.097462,0.124778,0.770091,-0.387416,0.921067,-0.039304
-0.104824,0.283612,0.730441,-0.369286,0.645570,0.668481
-0.427482,-0.120031,-0.133383,-0.390390,0.230398,0.891355
-0.395810,0.366263,-0.983248,-0.192474,0.794147,0.576440
-0.271074,-0.105316,0.839431,-0.441272,0.882250,-0.164057
-0.866074,-0.682627,0.059366,-0.507796,0.723210,-0.468092
0.447621,-0.026581,0.480110,0.073132,-0.933465,0.351132
-0.174101,0.273348,-0.180502,0.899043,-0.435853,0.041870
0.345303,-0.162988,0.015385,0.592575,0.701029,-0.396753
0.087360,-0.537558,-0.122920,0.094816,0.847087,0.522927
-0.825019,-0.179067,0.524423,-0.135152,-0.702531,0.698701
0.024929,-0.416459,0.306085,0.965478,0.126253,-0.227842
0.013654,0.484158,0.290945,-0.193730,-0.615928,-0.763610
-0.308612,0.173668,-0.560518,0.960452,0.009844,0.278272
-0.241226,-0.211522,0.675206,0.735101,-0.415483,-0.535723
-0.532731,0.692121,0.026121,-0.320776,0.312748,0.894031
0.030076,-0.182330,0.858903,-0.025125,0.708107,0.705658
-0.177425,0.328943,0.379857,0.994508,-0.061973,-0.084344
-0.197693,0.020530,0.885398,-0.484790,-0.423046,-0.765513
-0.115904,-0.112258,0.080925,0.986506,-0.103072,-0.127206
-0.538727,0.783138,0.057855,-0.054226,-0.616047,0.785841
-0.569617,0.479649,0.341647,0.804829,0.145453,-0.575408
-0.647299,-0.131719,0.593158,-0.121474,-0.049091,0.991380
0.307896,0.419366,0.123007,-0.279031,0.043588,0.959292
0.323472,-0.573632,0.500576,0.950533,-0.195476,0.241405
0.217245,0.121277,-0.232802,-0.240402,0.503020,0.830167
-0.518067,0.050315,0.612817,0.242444,0.924203,-0.295075
-0.631072,0.510502,0.074334,0.835519,-0.549370,-0.010002
0.065529,-0.475733,0.447671,0.920342,0.383165,0.078450
-0.155072,0.317551,0.378648,0.994403,0.027414,-0.102036
-0.433999,-0.214014,-0.591949,-0.378685,-0.006013,0.925506
-0.838965,0.320043,0.527790,0.659993,0.124131,0.740946
-0.042459,0.029192,0.767587,0.836038,-0.325132,0.441962
0.061619,-0.617064,-0.397228,0.990589,-0.039107,0.131163
-0.386880,-0.175804,0.120589,-0.378992,0.647724,-0.660923
-0.089771,-0.395692,0.843863,0.757530,0.195226,0.622925
-0.136041,-0.260057,0.921493,0.658736,0.610064,0.440328
0.182052,-0.056900,-0.186417,0.533861,0.068959,0.842756
0.185702,0.372790,0.463877,0.252771,-0.941258,0.223920
-0.289385,0.247360,-0.341186,0.944107,0.122763,-0.305927
0.069505,-0.017859,0.839517,-0.083045,0.933153,0.349755
0.509857,-0.299869,0.157317,-0.273591,-0.923681,0.268256
-0.108865,-0.123353,0.742545,-0.086737,0.620163,0.779663
-0.129915,-0.439302,0.374115,0.959074,-0.244981,0.141988
0.096875,-0.329180,0.511312,-0.322486,-0.511154,0.796696
0.373197,-0.328171,0.658583,0.431954,-0.484405,-0.760768
-0.065788,0.133974,0.795507,0.987505,-0.038849,0.152725
-0.368177,0.240299,0.663879,0.430695,0.822051,-0.372470
-0.467234,-0.013884,0.613681,0.137085,-0.577805,0.804580
-0.270683,-0.090602,0.339013,-0.372724,-0.006929,0.927917
-0.092899,-0.286875,0.739753,0.397538,-0.676648,-0.619767
-0.410471,0.845259,0.060820,0.033232,0.548207,-0.835682
-0.792368,-0.259523,0.093115,0.269492,0.889497,-0.369011
-0.020625,-0.346683,0.811813,0.483432,-0.796122,-0.363983
-0.113428,-0.212175,0.755239,0.247062,-0.885835,0.392756
-0.554825,0.419010,0.582177,-0.129443,-0.141526,-0.981435
0.157940,0.136882,-0.243812,-0.378760,0.300813,0.875244
-0.081951,0.086152,0.889068,0.826772,0.465100,-0.316433
0.129917,-0.149163,0.862731,0.438537,0.813455,0.382069
0.011502,-0.750563,0.223721,0.995222,0.000153,-0.097637
0.003422,-0.065563,0.966395,0.614510,-0.680283,-0.399491
0.518656,0.006468,0.213474,0.808251,0.125117,0.575393
-0.335266,-0.088940,0.175767,-0.682865,0.347217,0.642757
-0.305354,-0.472173,-0.130922,0.915302,-0.182095,-0.359254
0.124052,-0.285452,0.759455,0.686654,0.309514,0.657805
-0.260973,0.262193,-0.436446,0.763168,-0.637943,0.102975
0.364724,-0.130354,0.820620,-0.434436,-0.872464,-0.223766
-0.038417,0.032633,-0.002044,0.793074,0.606097,0.060664
0.055819,0.532989,0.417851,-0.548160,-0.741509,-0.386891
-0.433934,-0.183161,0.739825,0.164381,0.499938,0.850318
-0.192349,-0.163166,0.786915,0.853766,-0.484297,0.191156
-0.358597,0.117539,0.554775,0.488552,0.833416,-0.258331
-0.349798,0.481963,0.598569,-0.513089,0.437727,-0.738333
0.167325,-0.783138,0.017515,0.972081,0.190540,-0.136939
0.001793,-0.548416,0.542600,0.962105,0.002074,0.272673
0.030142,0.196096,0.845533,-0.869269,0.481029,0.113936
-0.348496,-0.793461,0.405158,-0.649836,0.684784,-0.329825
-0.199648,-0.401507,0.735781,-0.423428,0.887437,0.182110
-0.571702,0.520885,0.109450,0.821986,0.054613,-0.566883
0.776533,-0.317135,0.025502,-0.047632,0.963137,0.264762
0.392160,-0.127091,-0.271645,0.964494,-0.045334,0.260185
-0.156961,0.134152,0.915275,-0.337681,0.848171,0.408139
-0.350059,-0.224517,0.196851,0.911231,-0.261434,-0.318293
-0.438691,0.455619,0.604269,0.969688,0.116463,0.214806
-0.051973,-0.026166,0.983824,-0.476059,0.698390,0.534433
0.161721,-0.101341,0.939367,-0.332551,0.890240,-0.311261
-0.189936,0.297912,0.567382,0.842746,-0.019418,-0.537961
-0.110494,-0.093034,-0.107737,0.240508,0.737757,-0.630770
-0.054970,-0.218405,-0.112673,0.999555,0.005704,-0.029286
0.100787,-0.080574,0.942289,-0.620521,0.389010,-0.680901
-0.418357,0.113445,0.193642,0.427952,0.690344,-0.583337
-0.446577,-0.272339,0.116674,0.723610,-0.579741,-0.374553
-0.320473,0.334105,-0.567325,0.893581,-0.448685,0.013926
-0.735345,-0.233594,0.189914,-0.089989,0.953905,0.286301
-0.189612,0.214905,0.388507,0.646649,-0.385448,-0.658236
0.568380,0.174083,-0.162354,-0.305619,0.951945,-0.019931
0.050800,0.088941,-0.193685,0.647069,0.697136,0.308711
0.070744,-0.296665,0.620848,-0.454773,0.592466,0.664955
-0.232427,0.002848,0.333660,0.064816,0.243562,-0.967717
-0.268596,-0.529489,0.549177,-0.269732,0.117045,-0.955795
0.186420,-0.168031,0.694117,0.230145,0.836156,0.497872
-0.749422,-0.094992,0.629598,0.949505,0.135840,0.282820
0.369613,-0.183754,0.786095,-0.066099,0.732409,0.677649
-0.125940,0.480479,0.638679,0.082008,-0.289905,0.953535
-0.238814,-0.108164,0.837272,-0.103288,-0.965464,0.239187
-0.094267,0.146316,0.890119,0.072972,-0.890938,0.448223
-0.143732,-0.254420,0.557682,0.686850,-0.298104,0.662851
-0.455636,0.370951,0.375324,0.768483,0.247475,-0.590077
0.033726,0.003441,-0.049695,0.221965,0.635243,0.739728
-0.021538,0.018156,0.869841,0.399072,0.842217,-0.362507
-0.288148,0.154266,-0.989134,-0.371400,0.718627,-0.587909
0.279678,-0.414916,-0.357737,-0.009080,-0.870695,0.491740
-0.133565,0.799691,0.243624,0.945355,0.035916,-0.324059
-0.673824,0.425062,0.325341,-0.642016,-0.259142,-0.721568
-0.316563,-0.165065,0.885139,0.164748,0.958566,0.232400
0.076151,0.323247,0.452939,0.696898,-0.471284,-0.540578
0.369873,0.019520,-0.286008,-0.244347,-0.850067,0.466563
0.318194,0.089771,0.356255,0.053500,-0.964233,0.259601
-0.047279,0.025395,0.894335,0.956376,-0.043379,0.288901
0.651603,-0.218761,-0.076780,-0.091557,0.226555,0.969686
-0.239337,-0.589652,0.697571,0.124352,0.859299,0.496127
0.479358,-0.681322,0.440533,0.972806,0.038833,0.228344
-0.241226,-0.338317,-0.447916,0.006858,-0.382118,0.924088
-0.332985,0.514596,0.191713,0.197044,-0.039402,0.979602
-0.181269,-0.157233,0.767472,0.245313,0.864610,0.438487
0.376846,-0.290851,0.142508,0.488373,0.869953,-0.068366
-0.145947,0.866026,0.263240,0.984773,0.059056,-0.163507
-0.218156,0.428088,0.565382,-0.739088,0.506073,0.444567
0.266643,0.236086,0.579054,0.215409,0.384130,-0.897799
-0.180292,0.542957,0.554746,-0.780045,0.569932,0.258278
-0.448661,-0.528361,0.482111,-0.538541,0.812710,0.222433
-0.334745,-0.293580,0.345504,0.982806,0.105577,0.151482
-0.194630,-0.277145,0.564821,-0.571333,0.552033,-0.607320
0.156050,0.676457,0.521473,0.854921,0.516992,0.042767
0.651667,0.030972,0.153748,0.976337,-0.066114,-0.205902
-0.549805,-0.111071,0.350196,-0.095055,0.987280,-0.127450
-0.379973,0.043492,-0.278352,0.354808,0.443961,0.822806
-0.400110,0.494719,0.615062,-0.278230,-0.053953,0.958998
0.388381,-0.019876,-0.296011,0.298971,0.930805,-0.210284
-0.425201,-0.327578,0.019544,0.990139,0.047910,-0.131638
-0.048779,-0.032870,0.918888,-0.692285,-0.411430,0.592847
-0.238424,-0.140322,0.832738,0.447397,0.887198,-0.112766
-0.057838,-0.156758,0.864645,0.631606,0.662574,0.402579
-0.711622,0.398362,0.222915,0.777682,0.628227,-0.023269
-0.148228,-0.116649,0.936302,-0.243522,0.428720,-0.869998
-0.119685,-0.409814,-0.446060,-0.605265,-0.701001,0.377162
0.017825,-0.691765,0.474123,-0.642011,0.715300,0.275983
-0.141645,-0.043728,0.524250,0.481482,0.820923,-0.307019
0.285543,-0.079388,0.804933,-0.403006,-0.914492,0.035913
-0.247678,0.021122,0.700161,0.615984,-0.480087,-0.624564
-0.004854,-0.625667,0.041707,0.844246,0.384183,0.373700
-0.551175,0.240655,0.543852,0.459176,0.829450,-0.318071
-0.227410,0.148392,-0.205227,0.984462,0.081741,-0.155413
-0.334810,-0.390234,-0.507584,0.525020,-0.835894,-0.160108
-0.114601,-0.104723,0.076536,0.964700,-0.104382,-0.241783
-0.302876,0.309185,0.543118,0.989660,0.054535,-0.132659
-0.066700,0.056485,0.875626,0.827713,0.550486,-0.108885
-0.411905,-0.132431,0.480528,-0.049214,0.693642,0.718636
-0.514483,0.244334,0.569296,0.757786,0.630632,-0.167523
-0.609046,0.098078,0.622100,-0.134609,0.056465,0.989289
-0.140669,-0.061232,0.505685,-0.495656,0.425925,0.756910
-0.320799,0.318678,-0.954910,-0.505951,0.734718,0.451887
0.277202,0.145010,-0.233608,0.270630,-0.261749,-0.926416
0.258368,-0.489854,0.694131,0.889468,0.369686,0.268662
0.291669,-0.495312,0.623122,0.949839,0.183672,0.253122
-0.041480,-0.221668,0.002806,0.726387,0.204625,0.656118
-0.383817,0.101044,0.635211,-0.589165,-0.688880,0.422290
0.247743,-0.126854,0.405388,0.492648,0.486749,0.721369
0.042198,-0.600807,0.014680,0.977801,0.209521,0.002521
0.355405,-0.302302,0.519112,0.795280,0.603873,-0.053549
-0.217243,0.481607,0.557697,0.952996,-0.254370,-0.164603
-0.029424,0.090780,0.610802,0.443437,-0.016010,-0.896163
-0.544721,0.353329,0.584581,0.807247,0.054379,0.587704
0.174753,-0.467366,0.490357,0.942603,0.138197,-0.303977
0.345043,-0.321051,0.526726,0.884079,0.443859,-0.146264
0.198932,-0.826510,-0.260607,-0.570088,0.148391,0.808071
-0.064811,0.061173,0.931466,0.942082,0.330763,0.055472
-0.027729,-0.881630,0.285217,-0.791679,0.560999,0.241921
0.031902,-0.634389,0.234486,0.927101,-0.105591,-0.359632
-0.105282,0.471342,0.698621,-0.715624,-0.118087,-0.688432
-0.056078,0.031565,0.926702,0.993846,0.108817,0.020730
0.037114,-0.152011,0.912296,0.970375,-0.232147,0.066936
-0.031053,0.262964,0.732384,0.277010,-0.874309,-0.398558
-0.521717,0.647561,0.033691,-0.466707,0.480357,0.742591
0.169280,-0.798742,-0.269530,-0.671990,0.064708,0.737728
0.463195,0.070132,0.337459,0.055763,-0.947569,0.314650
0.030534,-0.252818,0.325686,-0.087647,-0.406053,0.909637
