0.166698,-0.147634,-0.927500,0.938955,0.343636,-0.016685
0.265689,-0.508452,-0.254627,0.922897,0.384578,0.018973
0.057002,0.102173,0.954288,0.833124,-0.517347,-0.195593
-0.277179,0.436617,0.255210,0.220281,-0.339944,0.914283
-0.654848,-0.370423,0.395098,0.165600,-0.976399,0.138643
0.572315,0.679897,0.295587,0.568814,0.543465,-0.617330
-0.345085,0.157105,0.581476,0.113676,-0.420423,0.900179
0.793536,0.183739,0.517395,-0.774221,0.190867,0.603450
0.160823,0.056979,0.762852,0.263795,0.931361,-0.250958
0.038590,0.546605,0.725615,0.637634,0.759307,-0.129911
0.136533,-0.059668,0.678653,-0.082024,-0.792580,0.604226
-0.349265,0.390141,0.577586,0.768421,-0.639451,-0.025142
0.247146,0.546347,0.550520,-0.191990,0.155183,-0.969050
-0.442506,0.336615,0.575168,0.749845,-0.288079,0.595602
0.801109,0.400253,0.588868,0.249416,0.723727,0.643436
0.214498,0.207043,0.528511,-0.566961,0.687452,0.453833
0.581326,0.432646,0.663174,0.935414,-0.104558,-0.337741
0.589030,0.616768,0.298560,-0.697624,-0.625496,0.349394
0.631079,0.485655,0.614544,0.338775,-0.624533,0.703697
0.311134,0.044553,0.757322,0.402648,0.830650,0.384571
-0.472412,-0.345329,0.429917,0.022294,0.276436,0.960774
0.462225,0.316132,0.571333,0.610038,0.408194,-0.679140
0.430625,0.408576,0.640277,0.501121,-0.424877,-0.753895
0.346392,-0.020999,0.636831,-0.664659,-0.326925,0.671825
0.113550,0.222024,0.744873,0.956248,-0.292449,0.007956
-0.879201,-0.010504,0.197688,0.984806,-0.060682,0.162712
0.242443,0.207934,0.858778,0.054664,-0.051253,0.997188
0.213713,-0.128424,0.728644,0.912678,-0.002394,0.408671
0.385962,0.029962,0.611404,-0.621322,-0.783322,0.019145
0.575842,0.382326,0.286778,0.806301,-0.561017,-0.187452
0.009728,0.109988,0.515228,0.710004,0.703997,0.016810
0.784004,0.476051,0.600595,-0.389442,0.346519,-0.853381
0.503625,0.319462,0.568388,0.117063,0.550678,0.826468
0.226900,-0.009730,0.916968,0.869635,0.473939,0.138262
0.020437,0.611266,0.667398,-0.480586,-0.682268,0.550951
0.144368,-0.319079,0.353693,0.707341,0.699719,0.100306
-0.673914,-0.203714,0.527816,-0.691301,0.032266,-0.721846
0.084688,0.841738,0.322820,-0.463440,0.030655,0.885598
0.398759,0.176307,0.755294,0.234145,-0.386814,0.891937
0.567481,0.354668,0.285500,-0.679152,0.646356,0.347818
-0.109369,-0.322791,0.502806,0.979288,0.045131,0.197380
0.422659,-0.064919,0.691575,-0.512519,-0.837255,0.190600
0.158603,0.127142,0.619741,0.816127,0.413916,-0.403250
0.639177,-0.277597,0.663397,-0.480899,0.127760,0.867418
0.087171,0.571058,0.718112,0.793591,-0.572841,-0.205100
0.452955,0.480154,0.603012,-0.438462,-0.658399,-0.611769
-0.780867,-0.390399,0.297143,-0.756525,0.312251,0.574604
0.676918,0.703201,0.308036,0.950649,-0.058062,-0.304787
-0.167483,0.124454,0.360446,0.768824,0.045349,-0.637850
-0.004244,-0.492705,0.033569,-0.739983,0.534909,-0.407796
-0.088474,0.420994,0.422803,0.781531,0.621903,0.049456
0.507152,-0.200518,0.704246,0.616313,0.768467,-0.172095
0.568003,0.294751,0.337353,0.012253,0.828792,0.559423
-0.058309,-0.266069,0.570833,-0.432397,-0.304719,-0.848634
0.256025,0.001790,0.831601,-0.048723,0.857408,0.512325
-0.114984,0.559155,0.379925,0.889190,-0.376785,0.259566
0.800587,-0.408193,0.582226,-0.200393,0.933491,-0.297384
0.068364,0.145961,0.662313,0.830344,0.157050,-0.534663
0.246229,-0.221641,0.677819,-0.516298,-0.798819,0.308747
0.063271,-0.013450,0.657672,0.951203,0.233192,0.202077
0.339469,0.157746,0.335214,0.063092,-0.209820,0.975702
0.153120,-0.193086,0.683627,-0.467218,0.883820,0.023850
-0.337512,-0.120875,0.499861,-0.734312,0.649120,-0.198568
0.123995,0.097695,0.839632,-0.308571,0.276544,0.910114
0.772900,0.061973,0.371200,0.759537,-0.645553,-0.079778
-0.323409,-0.450191,0.611571,-0.282038,0.917344,-0.280954
0.012343,-0.370040,0.423359,0.432728,-0.364491,0.824556
0.428011,0.645581,0.510476,-0.098912,-0.330959,0.938447
-0.104407,-0.274908,0.260629,0.733473,-0.297422,-0.611193
0.085079,-0.131245,-0.326155,-0.260955,0.793264,0.550122
-0.294156,-0.167992,0.420886,-0.412239,0.291279,0.863259
-0.163303,-0.040076,0.512783,0.808686,0.517166,0.280297
0.515640,0.050063,0.538126,0.961066,-0.264108,-0.081234
0.051259,0.608578,0.293058,-0.049940,-0.070908,0.996232
0.469279,-0.435085,0.565720,0.696968,0.672245,-0.249646
-0.277442,0.481435,0.589118,-0.104548,0.984840,0.138421
0.172839,0.500770,0.523315,0.985317,-0.162818,-0.051388
0.936012,-0.281817,0.507336,0.596038,0.663074,-0.452849
-0.795625,-0.076314,0.287973,-0.609536,0.719997,0.331768
0.745872,-0.156855,0.443839,-0.222351,-0.923500,-0.312584
-0.316096,0.391672,0.596537,0.670484,0.141473,0.728310
0.140192,-0.142639,0.658756,0.929944,0.118207,-0.348182
-0.085995,-0.142764,0.699855,0.884019,0.396646,-0.247352
-0.087952,-0.367227,0.658395,-0.589094,0.584540,0.557925
0.053606,-0.164279,-0.483994,-0.531867,0.846806,-0.006140
0.586551,0.511007,0.557634,0.472586,0.812104,-0.342270
-0.104407,0.319720,0.817596,-0.561718,-0.691739,0.453839
-0.811295,0.162357,0.281609,0.029116,0.221635,0.974695
0.094221,0.656460,0.290557,0.595211,0.134153,-0.792292
-0.336859,-0.111528,0.512060,-0.532416,0.442380,-0.721688
0.142670,-0.275033,0.694214,0.148288,0.883576,0.444189
0.585503,-0.154932,0.639443,-0.062687,-0.973348,0.220601
0.254718,-0.259411,0.706941,0.902258,0.134444,0.409701
0.262943,0.170164,0.859529,-0.722909,0.350749,-0.595296
0.005811,0.685399,0.693325,0.930053,0.165589,0.327995
-0.013777,0.121249,0.769021,0.833227,-0.189359,0.519496
0.249624,0.469143,0.534652,0.812485,0.456379,-0.362750
0.499966,-0.428168,0.576307,0.730507,-0.530042,-0.430598
-0.067189,0.128932,0.887706,0.936964,0.171676,0.304344
-0.775384,-0.091936,0.162119,0.754222,0.519099,0.402100
0.328765,-0.401793,0.611543,0.838191,0.068567,0.541050
-0.056743,0.766065,0.364086,-0.259634,0.636343,0.726401
0.377083,0.154925,0.589868,-0.187281,-0.908383,-0.373854
0.521646,-0.052884,0.763658,-0.108067,0.688768,0.716882
-0.582370,-0.141233,0.495220,0.228797,0.916571,0.327948
0.193340,-0.085660,-0.701189,0.816886,0.574120,0.055529
0.631995,0.463250,0.566859,0.194766,-0.973540,-0.119525
-0.096181,0.187068,0.247124,0.434743,0.243827,-0.866918
-0.279008,-0.481819,0.598927,-0.306739,0.951440,-0.025967
-0.306694,-0.398721,0.526260,0.224180,0.647707,0.728161
0.230949,-0.371830,0.603985,-0.514628,-0.163016,-0.841774
0.249887,-0.115240,-0.574334,0.988103,0.138559,0.066738
0.137967,0.103971,0.882760,0.942449,0.071251,-0.326671
0.531964,-0.205254,0.795198,0.461889,0.725731,0.509876
-0.420308,-0.323815,0.456844,-0.263708,0.951408,-0.158999
0.523081,-0.309865,0.614683,0.377070,-0.664935,0.644733
0.056348,-0.052501,-0.976685,-0.427078,0.082179,0.900473
-0.665425,-0.356466,0.424359,-0.232376,0.966409,-0.109796
0.192164,0.305121,0.372339,0.883646,-0.317392,-0.344140
0.593079,-0.587579,0.569471,0.498205,-0.677413,0.541206
-0.039634,0.341609,0.791808,-0.307862,0.942706,-0.128554
-0.717011,-0.028939,0.285556,0.284005,0.725221,0.627213
0.260074,0.163763,0.442783,-0.324002,0.943316,-0.071958
0.183807,-0.358904,0.708053,-0.578360,0.751394,0.317660
0.579107,-0.044686,0.395181,0.323137,0.225375,-0.919124
-0.116814,-0.269782,0.569999,0.789697,0.209560,-0.576596
0.324194,0.660180,0.566998,-0.589939,-0.670628,0.449700
-0.069277,-0.230348,0.586700,-0.305600,0.915818,-0.260548
0.309173,-0.181183,0.703968,-0.192714,0.969377,-0.152215
-0.025661,0.066193,0.760462,-0.621545,0.109546,-0.775681
-0.116682,0.728420,0.511115,-0.777789,-0.014368,0.628361
0.453477,-0.028173,0.765131,0.398297,0.882200,0.251162
0.096181,0.532780,0.733980,0.364020,0.760897,-0.537145
0.599479,0.292312,0.561190,0.783280,0.518230,0.343380
-0.034931,-0.158645,0.616656,0.560099,-0.825560,0.068846
0.768592,0.188349,0.567943,0.243926,0.860634,0.447001
0.234345,-0.033167,0.461207,0.445892,-0.894905,-0.018028
-0.152857,-0.163896,0.542933,0.961978,-0.232762,0.142902
-0.350963,-0.224072,0.496860,0.605572,0.610527,0.510431
0.836893,0.341484,0.590174,0.951468,-0.306640,-0.026092
0.608618,-0.250198,0.785166,0.445827,0.849442,0.282289
0.086386,-0.464024,0.336603,0.057119,0.681569,0.729521
-0.360759,0.466704,0.445201,0.887070,0.432147,0.162345
0.276525,0.010628,0.753904,0.000405,-0.452277,0.891878
0.755796,0.377722,0.581976,-0.152254,-0.350159,0.924234
0.018480,0.271704,0.604235,0.290411,0.929289,-0.228218
0.717792,0.358896,0.528594,-0.358134,-0.215339,0.908498
0.180152,-0.107816,0.722948,0.910896,-0.148553,-0.384968
0.612013,0.036746,0.400545,0.488530,0.767303,-0.415433
0.041463,-0.256856,0.716140,0.900858,-0.244978,0.358386
0.018086,0.572597,0.674234,-0.442177,-0.761632,0.473704
0.309827,-0.050321,-0.975907,-0.032735,0.368618,0.929004
0.232910,-0.228808,0.595176,0.820342,0.344376,-0.456557
0.267646,0.148907,0.863169,0.437518,0.334612,0.834633
0.099836,0.263506,-0.245262,0.916225,0.054406,-0.396953
0.128829,0.270672,0.495720,-0.425020,-0.866194,0.262805
0.587854,0.980923,0.381815,0.333468,-0.912122,0.238395
0.200131,-0.147759,0.644389,0.039581,0.874245,-0.483869
-0.347305,-0.411139,0.113739,-0.425785,0.481891,0.765825
0.638392,0.283482,0.561913,0.744052,0.551828,0.376659
0.290761,0.505763,0.336575,-0.261686,0.615999,0.743011
0.110935,0.509218,0.684016,0.860952,0.412988,0.296990
0.073326,-0.145844,-0.979798,0.250686,0.110972,-0.961687
0.437285,0.211904,0.774218,-0.682708,-0.125733,0.719793
0.537185,0.775545,0.523648,0.377274,-0.721848,0.580172
-0.213190,0.089755,0.791947,-0.433786,-0.606019,-0.666762
0.047469,-0.478622,0.401517,0.646476,-0.524569,0.553982
-0.239438,-0.050579,-0.977936,-0.223071,0.220315,0.949579
0.285536,-0.367352,0.618879,0.251478,0.232187,0.939600
0.578190,-0.181433,0.644445,0.253782,0.935354,-0.246390
0.126478,0.378355,0.655310,0.449332,0.788106,0.420701
0.209663,-0.144562,0.617768,0.700108,0.658752,-0.275488
0.099182,-0.151986,-0.542517,0.935899,-0.303195,0.179349
0.482076,0.424839,0.595871,-0.223514,0.431063,-0.874201
0.082731,0.061973,0.834296,0.943488,-0.111972,-0.311919
0.056611,-0.694371,0.339715,0.904705,-0.347440,0.246565
0.179498,0.467603,0.631412,-0.671536,0.586904,-0.452309
-0.338294,-0.009987,0.565025,0.770675,-0.082445,0.631872
-0.465884,0.431240,0.614600,0.913356,-0.203393,-0.352722
-0.285405,-0.460694,0.599455,0.983032,-0.110392,-0.146497
0.539668,0.016130,0.527177,0.922420,-0.385124,-0.028659
0.240745,0.422151,0.509337,0.645206,-0.676828,-0.354421
-0.061442,-0.367094,0.738204,0.484671,0.105059,0.868364
0.153120,0.049422,-0.003224,0.111541,0.376515,0.919671
-0.217499,-0.129706,-0.127911,-0.312874,0.883400,-0.348877
0.105061,-0.164662,-0.977047,0.338971,-0.071574,-0.938070
-0.547371,-0.329707,0.542433,0.545221,-0.694652,0.469248
0.103754,0.154159,0.753293,0.840841,-0.340465,-0.420797
-0.457263,0.389117,0.579253,-0.442152,-0.814477,0.375672
0.556251,0.869778,0.284583,0.577221,0.815723,0.037567
0.867057,-0.414852,0.561746,0.959978,-0.279611,0.016101
0.587201,-0.087841,0.788612,0.571100,-0.487768,-0.660248
0.449169,0.164021,0.543017,-0.209118,-0.626096,0.751181
0.453736,0.911909,0.348858,0.440178,-0.815332,0.376135
0.027881,0.613696,0.695576,0.352113,0.932083,-0.085077
0.613711,0.385147,0.655255,0.867193,0.497085,0.029728
0.251844,0.254800,0.688184,0.809762,0.586288,-0.023490
0.539799,0.202690,0.797755,0.802705,-0.540358,0.252343
-0.016388,0.088474,0.586033,-0.040787,-0.456046,0.889021
0.518251,0.336490,0.783082,0.996579,-0.076776,-0.030580
-0.161477,-0.225612,0.560440,-0.014730,0.126209,0.991894
0.096181,0.189623,0.341744,-0.234693,-0.872545,-0.428468
0.210708,-0.024328,-0.156422,-0.127456,-0.674582,0.727114
-0.033365,0.213951,-0.987995,0.377826,0.018631,-0.925689
0.075418,0.219336,0.469127,-0.167656,-0.865568,0.471893
-0.156121,0.335850,0.571444,-0.038964,-0.184101,0.982135
0.499053,-0.065302,0.742233,-0.551611,-0.130055,0.823900
-0.241658,0.155315,-0.999250,0.088612,-0.064146,0.993999
0.621546,0.333544,0.621658,0.735413,0.330878,0.591344
0.547893,1.000000,0.377174,0.333468,-0.912122,0.238395
-0.267383,-0.377980,0.599011,-0.295771,0.791669,0.534584
0.054523,0.006783,0.202023,0.921673,0.101790,0.374377
0.202741,-0.340718,0.754932,0.832349,-0.548801,0.077543
0.577146,-0.182332,0.659034,0.191592,0.909422,0.369112
0.792620,-0.455318,0.603235,-0.549847,0.781043,-0.296041
0.499707,0.382583,0.665759,-0.620155,0.758202,0.201340
0.150505,-0.246735,0.730089,0.925834,-0.353625,-0.133344
0.264119,0.069905,0.753876,-0.432559,-0.097955,0.896269
0.172967,0.081557,0.744400,0.044839,-0.993280,0.106693
0.541756,0.440078,0.655533,0.488004,-0.720655,-0.492451
0.028013,0.230980,0.775357,0.396553,-0.560319,0.727179
0.458180,-0.108840,0.758656,0.610256,-0.792042,0.016034
-0.005289,-0.255832,0.670011,0.903854,-0.360290,0.230736
0.266861,0.013317,-0.072528,0.936254,0.348940,-0.040861
0.338425,0.044686,0.823125,0.760538,0.396999,-0.513784
-0.052563,0.613055,0.702579,-0.302562,-0.930371,0.207041
0.349528,0.789886,0.179764,0.972200,-0.231791,-0.033169
-0.103232,-0.056980,0.110293,-0.110130,0.971802,-0.208500
-0.122819,-0.328300,0.578280,0.954324,-0.230569,-0.190011
0.220894,0.245196,0.870505,0.333378,0.749279,-0.572224
-0.019783,-0.277339,0.712777,0.880295,0.399225,0.256321
0.071106,0.146602,0.434697,0.287425,0.957506,0.023855
0.321579,-0.186818,0.345468,0.851707,-0.407486,-0.329470
-0.077244,-0.233802,0.355583,-0.430298,0.832582,-0.348785
0.967615,0.153901,0.140721,-0.186805,0.963867,-0.189905
0.554947,-0.172220,0.553326,-0.003542,0.304612,0.952470
-0.032321,0.323432,0.814122,0.833426,0.547600,0.074399
0.525823,0.041482,0.703940,0.043427,0.560015,0.827344
0.425791,-0.024711,0.751903,0.246685,0.840033,0.483209
0.645577,0.474136,0.566359,-0.658312,0.723423,0.208051
-0.589293,0.050571,0.191408,-0.084369,0.887069,0.453861
0.538623,0.277206,0.667454,0.072753,0.385135,-0.919988
-0.233432,0.308958,0.536820,0.911653,0.165563,0.376136
0.424225,0.289116,0.521953,-0.595977,-0.786039,0.164178
0.372902,0.500254,0.493497,-0.380624,0.055964,-0.923035
0.512767,0.279386,0.767354,0.034319,-0.951307,0.306327
-0.747438,-0.315883,0.278330,0.175663,-0.672593,0.718861
0.075546,0.195391,0.716028,-0.387857,-0.918757,-0.073841
0.794318,0.231496,0.617573,-0.660624,-0.208775,-0.721103
0.228861,0.037254,0.966126,0.714835,-0.310914,-0.626373
-0.180802,0.092960,0.792336,0.873765,0.428851,0.229395
0.134835,0.333161,0.690268,-0.639442,-0.407861,0.651739
0.180280,0.376949,0.718279,-0.260802,0.115200,0.958494
-0.908326,0.066709,0.255266,0.425270,0.429762,-0.796524
0.324194,0.077720,0.844884,0.289498,0.464285,0.837036
0.290239,0.046991,0.769021,-0.379248,-0.924902,-0.026978
-0.770944,-0.440461,0.323681,-0.180893,0.907316,0.379547
0.336468,-0.119976,0.614850,-0.090055,-0.775544,0.624837
-0.369375,0.213185,0.576141,0.964637,-0.211150,0.157771
0.398890,-0.200518,0.751931,-0.315058,0.887879,0.335276
0.301079,0.237513,0.366281,-0.476232,0.299993,-0.826563
0.151813,0.735853,0.325349,0.735130,0.153034,-0.660427
-0.250932,0.070163,0.816290,0.214281,-0.380621,0.899562
0.177928,0.288475,0.588757,-0.336802,-0.873557,0.351373
-0.292590,0.093209,-0.993775,0.033600,0.133765,0.990443
0.134704,0.346861,0.531985,0.890142,0.363220,0.275169
-0.296766,-0.317672,0.106097,-0.650087,0.747387,-0.137110
-0.291020,-0.704867,0.239204,0.665471,-0.337433,-0.665799
0.399675,0.329832,0.587867,0.771432,-0.126979,0.623514
0.085864,-0.347377,0.402129,0.874047,-0.273927,0.401256
0.131439,-0.219461,0.333908,0.234852,0.365722,0.900606
0.432714,0.888730,0.146640,0.931695,-0.355182,-0.076091
0.503756,0.356973,0.587312,0.298360,-0.522686,0.798612
0.224553,-0.574520,-0.966265,-0.047076,0.059509,0.997117
0.350178,0.246477,0.771717,-0.586141,-0.004908,0.810194
0.132747,-0.322150,0.506224,-0.198622,0.807839,0.554928
-0.056871,0.311006,0.809981,-0.306310,0.863871,-0.399876
0.228339,-0.009987,0.689990,0.516508,0.383817,0.765444
-0.022525,0.319970,0.539098,0.548142,-0.089663,0.831566
0.286058,0.089239,0.903601,0.162082,0.966589,0.198584
0.403984,0.904735,0.283471,-0.392965,0.844211,0.364536
0.470192,-0.409350,0.580503,0.843711,-0.442311,-0.304158
0.312963,-0.139951,0.316790,-0.430794,0.706559,0.561419
0.202482,0.037254,0.879592,-0.284157,-0.849207,0.445087
0.500229,0.032135,0.705608,-0.336003,0.700129,0.630017
-0.456088,-0.371963,0.523231,0.688807,0.277014,0.669931
0.418869,-0.188482,0.750958,0.319038,-0.743149,-0.588171
0.632908,0.559281,0.569305,0.553751,-0.820528,-0.141752
-0.503362,-0.262874,0.472489,0.159533,-0.668477,0.726421
-0.124386,0.186935,0.296226,-0.706383,-0.705600,-0.056133
0.564349,-0.553904,0.590368,0.855691,0.265037,0.444464
-0.426445,0.290648,0.609932,-0.784504,0.326927,-0.526946
0.236959,0.045835,0.985300,0.890992,-0.277347,0.359462
-0.483642,-0.288093,0.440866,-0.893924,0.447585,-0.023827
0.335552,0.197696,0.755711,-0.456587,0.093049,0.884799
-0.024745,0.211263,-0.988079,0.377826,0.018631,-0.925689
0.245970,0.034183,0.886372,0.818318,0.472291,-0.327563
0.537185,-0.127916,0.649864,0.179281,0.899774,-0.397826
-0.429841,0.100251,0.189268,-0.066424,-0.969394,0.236353
-0.543844,-0.372346,0.430417,-0.030349,-0.991393,0.127354
-0.328502,0.558132,0.427833,0.927671,-0.222552,0.299829
0.311134,-0.353910,0.522008,0.623607,0.691747,0.364144
0.392363,0.278487,0.616962,0.767447,0.633022,-0.101529
0.415868,0.511781,0.557772,-0.374342,-0.233173,0.897495
-0.069672,0.085269,0.371061,-0.483964,-0.314667,0.816556
0.617892,0.569651,0.552659,-0.480648,0.848835,-0.220128
0.477636,-0.079901,0.706191,-0.162761,0.606172,-0.778501
-0.096572,-0.129323,0.762602,-0.436294,0.379893,-0.815677
0.503361,-0.352371,0.579336,0.316363,0.287594,0.903993
0.262294,0.327269,0.747457,0.278825,0.820572,0.498918
0.293244,0.231621,0.733063,0.883855,-0.464742,0.053054
0.232388,0.207934,0.417607,-0.666361,0.702504,0.249901
0.260202,-0.440594,0.382677,0.103535,0.717775,0.688534
0.200131,-0.069397,0.727116,0.987043,0.136154,-0.084900
0.231471,0.050962,0.834574,-0.162012,-0.519633,0.838888
0.560431,0.449808,0.599622,-0.030097,-0.932689,0.359424
0.388441,0.319845,0.641444,-0.559123,0.733305,0.386840
0.110023,-0.536625,0.367782,0.312313,-0.853137,0.417872
0.022919,0.391422,0.635441,0.928499,-0.358755,0.095836
-0.223899,0.352753,0.569471,-0.649448,-0.507508,-0.566262
0.538623,0.218179,0.779497,0.886546,0.077165,-0.456160
0.188509,0.398463,0.518730,0.977821,-0.190615,-0.086788
-0.086517,-0.253136,0.573584,-0.481295,0.837173,-0.259802
0.176362,0.451340,0.681515,0.936107,0.329540,-0.122911
0.642835,-0.503974,0.580920,-0.101872,0.038817,0.994040
0.102056,0.235466,0.461735,0.276938,-0.901457,0.332686
0.250278,0.182332,0.932974,0.896892,-0.339512,-0.283402
-0.004376,0.139818,-0.983799,-0.500563,0.124592,0.856688
0.016914,0.161583,0.623159,0.842586,-0.146259,-0.518322
0.359320,0.059535,0.857417,0.871760,0.489602,0.017998
0.470586,-0.193859,0.588368,-0.100275,-0.520938,0.847684
0.320276,0.150064,0.864753,0.606249,0.350819,-0.713715
0.338298,0.044045,0.757600,0.638857,0.756091,0.142087
0.091088,0.591674,0.690296,-0.739399,-0.568453,0.360763
-0.033106,0.059027,0.434113,-0.600854,0.741302,0.299075
-0.242702,-0.035723,0.545656,0.951809,-0.041915,0.303815
-0.217108,0.736103,0.336353,-0.616139,-0.068256,0.784675
0.118774,0.651474,0.659562,-0.340657,-0.676812,0.652593
-0.098792,-0.260568,0.337854,-0.329413,0.944177,-0.004091
-0.558471,-0.321517,0.550381,-0.694933,-0.680805,-0.231458
0.401501,0.242890,0.721725,-0.123616,-0.922762,0.365005
0.061314,0.289374,0.776469,-0.242649,-0.968386,0.057885
-0.297552,0.744809,0.490163,0.024778,-0.840660,0.540995
0.099182,0.241992,0.753182,0.812859,-0.543623,0.209127
0.696901,0.559922,0.614267,-0.435254,0.242775,-0.866957
0.371858,0.719457,0.496415,0.878921,-0.063923,0.472665
0.494482,-0.551216,0.530484,0.515691,0.856047,-0.035302
-0.212405,0.786424,0.361502,-0.313799,0.818571,0.481115
0.405681,-0.630350,-0.957900,-0.271640,0.213453,0.938429
-0.100099,0.551856,0.294087,0.517231,0.554012,-0.652336
0.174796,0.057745,0.579114,-0.343392,0.247593,-0.905969
0.353051,-0.215749,0.756072,-0.623207,0.671667,-0.400594
0.588771,-0.062356,0.080114,-0.029875,-0.919053,0.393000
0.293766,-0.118054,0.868532,0.848244,0.520522,0.097667
0.538623,0.262357,0.655949,0.453222,0.862599,0.224752
-0.174011,-0.411913,0.598038,0.335146,0.205661,-0.919446
0.276266,0.000891,0.529206,0.867432,-0.497452,0.010103
-0.137840,-0.317289,0.271411,0.656574,-0.733942,0.173895
-0.463664,-0.322025,0.473017,-0.065026,-0.721292,0.689572
-0.015997,-0.339179,-0.170900,-0.060482,-0.688965,0.722266
-0.198301,0.503841,0.383121,-0.531212,0.835029,0.143315
0.483120,-0.118186,0.459818,0.110045,0.794706,0.596936
0.406857,0.940590,0.293447,-0.147388,0.802044,0.578793
0.281228,-0.440844,0.378842,0.190458,0.767127,0.612570
0.135489,0.035465,0.763853,-0.174101,0.923252,-0.342483
0.243487,-0.458772,0.382093,0.228795,0.708304,0.667801
0.551679,-0.090912,0.386067,0.561887,0.239790,-0.791697
0.238784,0.042123,0.910882,-0.129905,-0.399798,0.907351
-0.114204,-0.032526,-0.989079,-0.085109,0.246160,0.965485
0.330984,0.691932,0.572334,0.696646,0.682954,-0.219679
0.194906,0.247501,0.663758,0.482879,0.820790,0.305176
-0.108978,-0.171836,-0.978492,-0.050205,0.132414,0.989922
0.403461,-0.471964,0.534763,-0.727497,-0.682276,0.072444
-0.095006,-0.390781,0.663675,0.957357,-0.244579,-0.153780
0.086127,0.109215,0.744595,-0.646092,-0.140526,-0.750212
0.433626,0.384631,0.215000,0.942981,0.209127,-0.258945
-0.002937,-0.403074,0.655421,0.561539,0.827083,0.024645
0.326804,0.140842,0.686934,0.196131,-0.169508,0.965816
0.056089,-0.530092,0.297699,0.978518,0.079640,-0.190156
-0.255108,-0.431372,0.572778,-0.489500,0.822762,0.288882
0.634996,0.300385,0.313455,-0.816190,0.182586,0.548175
-0.378386,-0.111145,0.397349,0.220350,0.886951,0.405911
0.302645,0.088474,0.901489,0.982603,-0.018737,-0.184770
-0.004376,0.420744,0.606486,0.990306,0.134847,0.033334
0.088737,0.835213,0.361224,0.170615,0.896692,0.408452
-0.186812,0.403324,0.461096,0.711249,0.688580,-0.141357
0.523212,0.253136,0.736175,0.211620,-0.975416,0.061485
0.534834,-0.175806,0.775691,0.316230,0.947862,0.039445
0.726543,-0.539564,0.517673,0.141479,0.742155,0.655126
-0.206531,0.112676,-0.996165,0.037112,0.000815,0.999311
-0.473456,0.509475,0.588896,0.718627,-0.346612,-0.602856
0.505976,-0.291680,-0.961985,-0.174379,0.038150,0.983939
0.107281,-0.129963,0.739343,-0.215071,0.344432,0.913844
0.120994,0.165170,0.438004,0.307290,-0.951137,0.030193
0.287497,-0.160692,0.719419,0.339176,-0.849484,0.404150
0.246097,0.587961,0.482632,-0.088002,0.726041,0.681998
0.349133,0.028681,0.649252,0.937629,-0.341579,0.064622
0.228992,-0.240210,0.553827,0.299065,0.902568,0.309727
0.699120,0.542126,0.608792,0.635111,-0.503138,0.586077
0.648451,-0.015497,0.753265,-0.099253,0.994597,0.030435
0.759450,-0.535726,0.518368,-0.388409,-0.478309,-0.787628
-0.263597,0.736236,0.490246,0.024778,-0.840660,0.540995
0.128435,0.712415,0.322431,-0.575049,-0.366416,0.731477
-0.535878,0.240843,0.582449,0.228649,-0.129922,-0.964800
0.161868,0.199869,0.382565,0.159144,0.835218,0.526387
0.098138,0.093983,0.783833,-0.240342,0.939172,0.245340
0.166048,-0.234575,0.490024,0.330313,-0.894485,-0.301315
0.225597,-0.017545,0.969877,0.812656,0.507420,-0.286557
0.515377,-0.134574,0.650864,-0.066034,-0.985782,0.154508
-0.549460,-0.540337,0.316456,0.728684,0.420751,0.540360
0.228470,0.173493,0.680181,-0.611641,0.385727,0.690732
-0.513548,-0.182207,0.407797,0.900212,0.162962,-0.403809
-0.001108,0.071187,0.812816,-0.519158,0.806172,0.283834
-0.178845,0.069780,0.794253,0.746345,0.267455,0.609456
0.145544,0.109598,0.902962,0.767079,-0.426659,-0.479116
0.353051,-0.256215,0.540238,0.706937,-0.133707,-0.694523
-0.274828,-0.456982,0.616490,0.172229,0.818423,0.548199
0.123868,0.109988,0.769188,-0.525026,0.572651,0.629618
-0.167351,-0.632781,0.071972,0.869446,0.321771,0.374869
0.097357,0.330598,0.664731,0.985059,-0.141428,-0.098267
-0.526740,-0.179386,0.398155,0.882732,0.179077,-0.434415
0.581717,0.276307,0.572111,0.517529,0.660483,0.543990
0.612930,-0.242382,-0.955038,0.158334,-0.039092,-0.986611
0.006596,-0.061332,0.554438,-0.011652,0.568808,0.822388
0.100231,0.528169,0.661591,0.121042,0.094663,0.988123
0.370945,-0.374394,0.578864,0.661733,0.687535,0.299008
0.373034,0.916770,0.393598,0.847406,-0.519090,0.111574
-0.055695,0.055564,0.227311,0.677066,0.615473,0.403454
-0.195823,-0.309091,0.463208,-0.056149,0.157254,0.985961
0.677050,-0.561078,0.581726,-0.348115,0.860564,-0.371814
0.573097,-0.162232,0.588923,0.958075,-0.285632,0.022518
-0.019656,0.184121,0.846774,0.985790,0.157757,0.057714
0.046688,0.646730,0.681265,-0.450285,0.886059,0.110193
-0.206400,0.185020,0.580753,0.438821,0.246727,0.864038
0.475680,0.240202,0.629356,0.044256,-0.868608,0.493519
-0.046035,0.724326,0.693825,0.829446,0.222812,0.512224
0.412994,0.049164,0.748958,0.211515,0.158960,0.964362
-0.581980,-0.371705,0.398488,-0.034593,0.974100,-0.223456
0.327195,-0.413062,0.369838,-0.393509,0.644829,0.655245
-0.553640,-0.330731,0.101011,0.412758,0.145817,0.899093
0.594645,0.485530,0.655783,0.932831,0.127899,-0.336851
-0.498791,0.449550,0.601706,0.792321,-0.427850,-0.434939
0.947242,-0.235724,0.501501,-0.493022,0.807494,-0.323855
-0.490824,-0.384256,0.539043,0.861095,0.434193,0.264561
-0.271563,0.134184,0.819124,0.198455,0.783560,0.588769
-0.996736,-0.232137,0.279108,-0.383697,0.095126,0.918547
-0.402808,-0.365047,0.526899,-0.144378,-0.049400,0.988289
-0.030360,-0.165428,0.571611,0.363299,-0.112866,-0.924811
-0.093568,0.466579,-0.096621,0.943608,0.255500,-0.210533
-0.112111,-0.489501,0.292002,0.138538,-0.985774,-0.095172
0.103495,-0.566455,0.310537,0.997153,0.034803,-0.066886
0.214103,0.039559,0.701912,0.838358,0.530478,-0.125493
-0.517729,-0.275416,0.485161,0.904671,0.410062,0.115838
-0.059617,0.273369,0.442450,0.859368,0.510657,-0.026751
0.709566,-0.251729,0.787862,-0.430686,-0.890351,-0.147598
0.436631,0.306012,0.782443,0.531111,0.512798,-0.674507
0.774598,0.178104,0.507670,0.951007,-0.167996,-0.259546
0.411556,-0.421385,0.595093,-0.071198,-0.986390,0.148205
0.104276,0.449425,-0.241122,-0.674782,-0.572654,0.465550
0.708000,-0.382459,0.516840,0.333189,-0.385471,0.860463
-0.104539,0.299104,0.614961,-0.038313,-0.969830,0.240754
0.225728,0.458514,0.534374,0.763401,0.482938,-0.428940
0.214757,-0.317547,-0.960068,-0.173013,-0.264680,0.948689
-0.157296,0.664017,0.519174,-0.813267,0.419550,0.403206
0.056089,0.117920,0.528539,0.706845,-0.515392,-0.484500
0.458571,-0.054549,0.636581,0.511625,0.042048,-0.858179
0.126215,0.652748,0.671178,-0.152030,-0.563871,0.811749
-0.105583,0.186044,0.318596,0.576398,0.803621,0.148188
0.343650,0.129448,0.783221,0.472037,-0.880529,-0.043004
-0.460659,-0.116522,0.473017,0.088339,0.205763,0.974606
-0.467450,-0.327918,0.433780,-0.388222,0.757718,0.524544
0.633299,-0.599106,0.554827,0.349880,0.890183,0.291820
-0.126346,0.202690,0.753460,-0.729614,-0.663637,0.165075
0.396539,0.131753,0.510977,-0.461111,-0.694125,0.552781
0.441856,0.306403,0.639776,-0.481984,0.019772,0.875957
-0.027359,-0.076189,0.408798,-0.321002,-0.263846,0.909584
-0.124780,0.451855,0.576419,0.464583,-0.650248,0.601116
-0.023701,-0.204612,0.718029,0.796691,0.530131,0.290250
0.335946,0.345321,0.547796,0.386532,0.250852,-0.887506
0.800196,-0.158004,0.456705,0.356110,0.880798,0.312058
0.177669,0.520870,0.348552,-0.681407,0.570031,0.459075
0.584068,0.454544,0.552937,0.472431,0.806948,-0.354464
0.194906,0.465297,0.358639,-0.456780,0.085121,0.885498
0.758147,0.536109,0.576669,-0.233733,0.967524,0.096260
0.298205,-0.071320,0.905519,0.957730,0.287508,-0.009632
0.512894,0.876820,0.304368,0.059258,0.714023,0.697610
0.113028,0.094108,0.946146,0.506297,0.246973,-0.826237
0.408423,-0.169914,0.333241,-0.557298,0.029757,0.829779
-0.002678,0.061582,-0.984716,0.407596,-0.029288,-0.912693
0.182631,0.750443,0.341244,0.816829,-0.392528,-0.422744
-0.241267,0.093467,0.569138,-0.656331,0.586979,-0.474010
0.036501,0.116647,0.573084,0.614641,0.739893,-0.273449
-0.245053,0.038286,0.549630,-0.650924,0.315076,0.690670
0.315183,-0.018443,0.673373,0.927351,0.161059,0.337757
-0.043161,0.298330,0.600178,-0.445111,-0.894779,-0.035311
0.594645,0.359662,0.662647,-0.221920,-0.797776,0.560629
0.603265,0.278105,0.756322,-0.423695,0.810515,-0.404411
0.056874,0.862995,0.306230,-0.154543,-0.002444,0.987983
0.147505,0.281176,0.752987,0.935347,-0.248983,-0.251266
-0.205878,-0.262483,0.561579,0.249789,0.937276,-0.243145
0.499185,0.796927,0.528511,-0.696507,0.572707,0.432301
-0.005942,-0.200384,0.599066,-0.560339,0.754614,0.341435
0.161999,-0.231754,0.515200,-0.123538,-0.485571,0.865424
0.204961,-0.124845,-0.594981,0.856862,0.513929,0.040802
-0.267515,-0.038802,0.538348,0.299283,0.820763,0.486598
0.043293,-0.136622,0.001139,0.068780,0.939080,0.336747
0.299118,-0.078877,0.457845,0.265225,-0.432454,0.861765
-0.256152,0.605249,0.431751,0.452122,0.891092,0.039241
0.550635,0.938925,0.508448,-0.519598,0.341004,0.783412
-0.328761,-0.529709,0.643361,-0.553290,0.663547,0.503563
-0.047601,0.146734,0.704496,0.605431,-0.097443,0.789911
0.158341,-0.100642,-0.287890,0.944332,0.280412,-0.172067
-0.218933,0.236232,0.552520,0.252258,-0.333764,0.908277
-0.024876,0.325479,0.811260,-0.714240,0.698385,-0.046045
-0.495136,0.444431,0.278053,0.191082,-0.956714,0.219512
0.293766,0.088732,0.922831,-0.505755,-0.848900,-0.153564
0.185505,0.276307,-0.074390,0.567833,0.658197,-0.494311
0.330590,-0.383232,0.529150,0.889513,0.456735,0.012600
-0.431016,-0.093475,0.231951,0.483015,0.709190,-0.513561
0.112111,0.282200,0.741399,0.980538,0.079888,0.179344
0.012343,-0.337647,0.661980,0.068027,0.894706,0.441444
-0.509631,-0.434186,0.523509,0.644532,0.457460,0.612625
-0.226510,0.169140,0.545851,-0.691552,0.226106,-0.686026
-0.562783,-0.155191,0.451231,-0.413360,0.908405,0.062722
0.198042,0.092826,0.782888,0.585706,0.810007,0.028926
0.266211,-0.180925,0.672039,0.296603,0.588836,0.751864
-0.555860,-0.173751,0.505224,0.545054,0.657392,0.520338
0.136665,0.183223,0.733202,0.616851,-0.503643,0.604846
0.357886,0.019459,0.752209,0.716750,0.695679,-0.047967
0.089127,-0.449168,0.627661,0.667567,0.230410,0.708002
-0.432319,0.094874,0.561107,0.349669,0.703507,-0.618716
0.288541,0.240327,0.624993,0.017768,0.331110,0.943425
0.129220,-0.064537,0.662758,0.549536,0.761632,0.343404
0.052303,-0.527529,0.313955,0.812517,0.520379,0.262719
-0.485471,-0.058136,0.512060,0.353084,-0.771146,0.529779
-0.171791,-0.279903,0.561691,-0.245518,0.149622,0.957776
0.189291,-0.349300,0.311649,0.710748,-0.494642,-0.500167
0.855958,-0.319720,0.536264,0.833901,0.446836,-0.323955
0.434021,0.064145,0.681265,-0.531820,0.308904,-0.788508
-0.140973,-0.455959,0.635441,-0.600707,0.670386,0.435584
0.248580,-0.009987,0.934336,-0.269009,-0.609293,0.745920
-0.113287,-0.311530,0.577725,0.530310,-0.404549,-0.745058
0.044336,0.117155,0.867309,0.774568,-0.297692,0.558054
-0.268168,-0.429450,-0.256044,0.796711,-0.596512,0.097081
0.295069,-0.105128,0.865142,0.636433,0.647826,0.418659
0.268168,-0.487328,0.652698,-0.446924,0.610441,-0.653927
0.685666,-0.021773,0.762102,-0.003985,0.947579,0.319496
-0.070974,0.123688,0.584533,-0.524286,-0.821499,0.224197
0.585766,0.278746,0.360974,-0.204281,-0.829779,0.519361
0.111720,0.156589,0.421942,0.192286,-0.915105,0.354415
-0.248190,-0.464665,0.225115,0.394090,0.083124,-0.915305
0.000590,0.088857,0.749236,0.877985,0.111036,0.465633
-0.087952,-0.545589,0.700661,-0.386947,-0.649391,-0.654648
0.099314,0.579131,0.741510,0.955843,0.277321,-0.097251
0.336991,0.521511,0.554410,-0.057336,-0.654168,0.754173
0.278617,0.180151,0.910882,-0.768990,-0.638451,-0.032166
0.174142,0.417024,-0.146529,-0.696449,-0.580104,-0.422419
0.686582,-0.246095,0.686517,0.485301,0.382794,-0.786099
0.005551,-0.120359,-0.187795,0.732659,-0.554050,-0.395271
-0.098402,-0.477598,0.571917,-0.553409,0.677706,0.484204
-0.590596,-0.337905,0.120186,-0.230609,-0.754718,0.614182
0.773554,-0.342899,0.516117,-0.198158,-0.166426,0.965938
-0.291542,-0.358130,0.553354,0.146316,0.345998,0.926756
0.571271,-0.147375,0.731145,-0.199799,0.927407,-0.316223
0.631864,0.239436,0.570944,-0.605585,-0.715425,0.348474
0.320926,-0.304098,0.611988,0.949078,0.273390,0.156554
0.762455,0.134184,0.585978,0.675733,0.211887,-0.706037
0.085605,0.484765,0.611515,0.680367,0.614771,-0.398945
0.507411,-0.276823,0.454010,-0.787226,0.576946,-0.217737
0.028144,0.206402,0.416328,0.376254,0.903720,-0.204261
-0.311134,-0.717284,0.197438,0.934352,0.063895,-0.350577
0.254718,0.025219,-0.177291,0.977340,-0.207016,-0.044160
0.417566,-0.483999,-0.969127,-0.125431,0.082389,0.988675
0.000980,0.273877,0.814372,0.833900,-0.042014,-0.550314
0.262294,0.065302,0.978686,-0.748476,0.575037,-0.330327
-0.300293,0.684633,0.326238,0.425276,0.589740,-0.686547
0.428274,0.295774,0.643750,0.689919,0.623052,-0.368535
0.348353,0.112676,0.672928,-0.761505,0.114972,-0.637881
0.033496,0.067991,0.757239,-0.001368,0.005636,0.999983
0.108457,0.207684,0.359612,0.112691,0.990625,-0.077216
0.514465,0.076954,0.717112,0.238930,0.877698,-0.415402
0.259548,0.513571,0.549241,-0.185865,-0.238815,0.953111
-0.504800,-0.250706,0.516034,0.241269,0.752213,0.613160
0.298596,0.180026,0.852137,-0.697925,-0.174743,0.694526
0.294420,-0.525356,0.620880,-0.063632,-0.017621,0.997818
0.913550,0.561070,0.574918,-0.641987,0.606031,0.469659
-0.339601,0.385014,0.339938,0.838386,0.526443,0.141304
0.062095,-0.316132,0.634330,-0.549803,0.832898,0.063227
-0.102709,-0.471706,0.278080,0.213154,-0.909020,-0.358116
0.593338,0.150571,0.687434,-0.553307,0.079064,0.829217
-0.078941,-0.434960,0.241094,-0.223538,0.934283,0.277753
0.651193,0.583093,0.515145,-0.654743,0.197316,0.729643
-0.186812,0.484889,0.472850,-0.148888,0.349136,0.925168
0.603265,0.328042,0.362724,-0.631687,0.702448,-0.327930
0.235389,0.048266,0.860001,0.765383,-0.339331,0.546849
-0.246620,0.237513,0.249291,-0.329424,-0.615001,0.716417
0.539536,0.518182,0.587173,0.770344,0.598950,0.218699
0.342474,0.283864,0.620741,0.785000,0.535929,0.310732
0.249887,0.183864,0.736759,0.079742,0.979190,0.186621
0.028144,0.636493,0.685183,0.392050,0.807861,0.440066
0.283579,0.031112,0.658089,0.465757,-0.884774,-0.015668
0.307216,0.245578,0.387011,0.917187,-0.381368,0.115442
0.033760,0.246352,0.610710,0.628397,0.675433,-0.385886
0.106105,0.060308,0.757600,-0.597819,0.529227,0.602106
0.022266,0.631108,0.685433,0.531942,0.837972,0.121824
0.700818,0.403707,0.680737,0.898872,0.231888,-0.371829
-0.165132,-0.317930,-0.244095,-0.742399,0.669090,0.034080
0.268431,-0.091678,0.473267,0.948870,0.204412,0.240545
0.033628,0.065427,0.580003,0.264893,-0.129230,0.955579
0.052431,0.075922,0.662174,0.930022,-0.137381,0.340859
0.546849,0.849553,0.540043,0.427736,0.469820,-0.772212
-0.443291,-0.308583,0.501556,0.111854,-0.439199,0.891400
0.479466,0.493595,0.618185,0.008937,0.958785,0.283993
0.110286,0.393978,0.645001,0.950405,0.096937,-0.295522
-0.196735,-0.395009,0.605597,0.127132,0.434107,0.891845
-0.541234,-0.329965,0.535653,0.773305,0.162173,0.612943
0.416649,0.035081,0.637276,0.488264,0.776881,-0.397561
0.123605,-0.322541,0.668093,-0.668495,0.743707,-0.003893
-0.200653,0.419713,0.253348,0.172814,-0.125769,0.976892
0.102578,0.120484,0.760685,-0.234038,-0.400545,0.885884
-0.060788,0.326628,0.244428,0.309433,0.083624,-0.947237
0.313875,0.029830,0.669427,0.737534,-0.470531,0.484401
0.393012,0.212162,0.759351,-0.399647,0.228675,0.887688
0.588117,0.347119,0.663369,-0.357885,-0.153275,-0.921100
0.499053,-0.066459,0.748763,-0.754245,-0.229749,0.615086
0.235130,0.306910,0.469210,0.869472,-0.259463,-0.420354
0.304080,-0.426637,0.622520,0.344539,0.133259,0.929266
0.312046,0.368118,0.604402,-0.936481,0.280813,0.210113
0.329287,0.761588,0.321653,-0.218139,-0.131858,0.966969
0.021353,-0.163764,0.637554,-0.551168,0.770261,-0.320798
0.009206,-0.299619,0.694770,0.956147,0.174857,-0.234962
-0.020046,-0.010504,0.540821,0.137516,0.252137,0.957871
0.138753,0.207684,0.525482,-0.119656,0.778266,0.616428
-0.156252,-0.388476,0.708553,0.954959,-0.169671,0.243443
0.728500,0.547120,0.586839,0.197690,0.935377,-0.293237
0.601436,0.465938,0.567220,0.277410,0.960745,-0.003564
0.565261,-0.477848,0.592425,0.959705,0.193415,0.203855
-0.578321,-0.369533,0.409659,-0.037613,0.905590,-0.422484
0.448516,0.016255,0.753682,0.881027,-0.228736,-0.414090
0.347567,0.026758,0.626883,0.497340,-0.844419,0.199021
-0.822267,-0.264280,0.297449,0.918091,-0.319443,-0.234658
-0.084688,-0.401543,0.243289,0.620560,0.783109,0.040563
0.201306,0.475418,0.627466,-0.709004,0.319220,-0.628818
0.041463,-0.117929,0.341216,-0.665691,0.673350,-0.321644
-0.152466,-0.270805,0.738759,-0.762679,0.629526,0.148384
-0.184066,0.601794,0.405991,-0.260340,-0.778040,-0.571731
-0.189944,-0.122023,0.190435,0.590654,-0.084778,0.802459
0.587595,0.336874,0.558550,0.370154,0.734243,0.569099
-0.227422,-0.434444,0.578058,-0.062847,0.917068,0.393746
-0.204834,0.081174,0.818541,0.914680,0.191204,0.356091
-0.110413,0.385405,0.467293,0.754737,0.496724,-0.428530
-0.132615,-0.008839,0.391458,0.043906,0.493567,0.868599
-0.370683,0.106143,0.570778,0.510057,0.694170,-0.507908
0.499317,0.036230,0.728505,-0.096924,0.995270,0.006642
0.657199,-0.320103,0.690824,-0.137378,0.289187,0.947364
-0.177670,0.450699,0.478853,0.007472,0.163529,0.986510
-0.253542,0.058644,0.814956,-0.125665,-0.711223,0.691643
0.532614,0.063247,0.571528,0.922292,-0.157311,0.353031
0.964220,-0.321001,0.500500,0.603128,0.610952,-0.512810
0.073720,0.575160,0.735869,-0.514956,-0.708145,0.483064
-0.320145,-0.438031,0.419497,0.769565,0.609396,0.190806
0.321320,-0.161974,0.700050,-0.479608,0.030888,0.876939
0.529613,-0.179518,0.805007,0.249698,0.567268,0.784767
-0.470192,-0.381951,0.117518,0.336496,0.679925,-0.651515
-0.115375,0.067857,-0.371422,-0.570886,0.820172,0.037498
-0.570618,-0.555319,0.297727,0.459282,0.649985,0.605458
-0.338816,0.083863,0.578975,0.447078,0.638671,-0.626276
-0.213713,-0.095781,0.473351,0.023429,0.672003,0.740178
0.380083,-0.625482,0.143973,0.785731,-0.616793,0.046828
-0.352529,0.019717,0.451842,-0.079169,-0.935466,-0.344434
-0.141758,0.207293,0.735897,-0.647273,0.753697,-0.113924
0.128829,0.601153,0.713222,0.992538,0.121149,-0.013851
-0.080507,0.289757,0.397127,-0.386147,0.440036,-0.810715
0.321189,0.541353,0.563302,-0.649549,0.400446,0.646319
-0.039502,0.108965,0.669260,0.839466,0.277000,0.467514
0.344563,0.824069,0.381954,-0.931560,0.363107,-0.018683
0.008552,0.185145,0.693297,-0.142660,0.731998,0.666203
-0.161346,-0.537649,0.231312,0.449788,-0.312804,-0.836567
-0.125825,-0.364922,0.495832,0.414024,0.903750,-0.108722
0.163829,0.104479,0.925721,0.153289,0.877911,0.453624
0.254586,0.192569,0.721169,-0.204358,0.951532,-0.229837
-0.168264,-0.306145,0.755711,0.659372,0.437095,0.611700
0.147110,-0.404614,0.779081,0.694897,0.492701,0.523798
0.457526,-0.026509,0.626077,0.733694,0.344334,-0.585771
0.386616,-0.375675,0.554382,0.944520,0.314046,0.096210
-0.319360,-0.279769,0.480214,0.277706,0.955044,0.103782
0.094875,-0.063513,0.743067,-0.242490,-0.027393,-0.969767
0.761411,-0.007557,0.765131,0.189564,-0.875356,-0.444767
-0.468885,-0.161333,0.428055,0.703342,0.505595,-0.499684
0.398237,0.179253,0.753682,0.042976,0.566038,0.823258
0.338298,0.618823,0.541461,0.936550,-0.232029,-0.262747
0.663336,0.159278,0.556077,0.170194,-0.814416,0.554762
-0.019656,0.747888,0.311482,-0.474948,0.209651,-0.854676
0.266992,0.013441,0.617573,0.092093,0.981857,0.165755
0.362325,0.056846,0.841660,0.004006,0.734491,0.678606
-0.148939,0.593471,0.358445,0.498741,-0.490891,-0.714342
-0.221417,-0.446612,0.584338,-0.140973,0.935982,0.322590
-0.005157,-0.488992,0.297532,0.707749,0.705350,0.039662
0.157296,0.255824,0.677374,0.894434,0.359649,0.265782
-0.072019,0.256332,-0.495443,0.832153,0.554178,-0.020221
0.151549,0.273751,0.525260,-0.729089,-0.621914,0.285749
-0.082990,0.384373,0.818179,-0.166941,0.912357,-0.373812
0.201828,0.156081,0.895737,-0.584846,0.696754,-0.415317
0.131962,-0.095648,0.603040,0.057351,0.710747,0.701106
-0.086776,0.187068,0.605319,0.942448,0.200837,-0.267312
0.289717,-0.149423,0.875618,0.820159,0.570643,0.041296
0.533662,-0.119468,0.748069,-0.168764,-0.965946,-0.196131
0.240223,-0.135981,0.554299,0.731485,0.087731,0.676190
-0.139275,0.238795,0.553215,-0.706350,0.420543,0.569397
0.393406,0.264788,0.616351,0.817092,0.563535,0.121612
0.195301,-0.015880,0.546685,-0.160478,0.940353,-0.299971
-0.020178,-0.192702,0.557606,0.915013,-0.170708,-0.365528
0.643880,0.361460,0.699966,-0.341455,0.930846,-0.130134
0.575842,0.323432,0.320513,-0.192423,0.933846,0.301504
0.141494,-0.327019,0.739482,0.934311,-0.146742,0.324854
0.167483,-0.033292,0.687323,-0.147394,-0.385839,0.910716
0.211493,0.697309,0.326015,0.874649,0.007403,-0.484700
0.154555,0.094491,0.763713,0.774104,0.631033,0.050594
0.256547,0.379129,0.356055,0.616852,0.223497,0.754681
-0.493960,0.112036,0.216390,0.549551,0.076363,-0.831963
0.103100,0.208449,0.534180,0.407445,-0.023619,0.912924
0.059353,-0.575677,0.290613,0.836823,0.167483,-0.521226
0.290498,-0.183997,0.689101,-0.857719,0.425576,0.288449
0.225075,-0.177854,0.599372,-0.627545,-0.777402,0.042819
0.466274,-0.076446,0.670288,0.598638,-0.787773,-0.145073
0.103885,-0.095007,-0.451703,-0.538353,0.832780,-0.129046
0.469411,0.361326,0.770327,-0.581378,0.813465,-0.016562
0.028144,0.575286,0.731507,-0.649566,-0.604892,0.460620
0.088215,-0.039692,-0.234702,-0.126343,0.988656,-0.081216
-0.507674,-0.354035,0.542600,0.705686,0.625825,0.332190
0.484427,0.528810,0.511421,0.538040,0.325317,0.777612
0.335424,-0.535726,-0.043767,-0.780822,0.622899,0.048104
-0.504406,-0.137521,0.419886,0.764042,-0.596187,-0.246579
0.399412,-0.164787,0.856194,0.380393,-0.611401,-0.693895
0.142934,-0.056980,0.591091,-0.655425,-0.753313,0.054202
0.294941,0.166452,0.751098,0.798618,-0.271980,0.536877
-0.682924,-0.255832,0.300144,-0.069076,0.673593,0.735867
-0.007640,0.110238,0.742066,0.984106,0.078845,0.159120
-0.357886,-0.410499,0.525621,-0.584450,0.810312,-0.042568
-0.529350,-0.284380,0.528511,-0.471018,-0.702167,-0.533951
-0.230949,-0.756086,0.250931,0.230465,0.147258,0.961874
0.015606,-0.330731,-0.313094,0.451169,-0.671326,-0.588021
0.007117,-0.157746,0.566081,-0.676223,0.574037,0.461740
0.323409,0.262990,0.752709,-0.213411,0.163862,0.963123
0.026969,-0.279386,0.656255,-0.444258,-0.266412,-0.855371
0.335161,0.132136,0.647780,0.804189,0.142582,-0.577019
0.802416,0.527528,0.585561,0.663045,0.461671,0.589264
0.657589,-0.190530,0.559301,-0.030520,0.996958,-0.071715
0.178582,-0.135215,0.640582,-0.283231,0.427964,0.858270
0.190207,-0.188225,0.737453,0.946139,0.050796,0.319752
0.464317,-0.525223,0.516784,0.850319,0.495127,0.178342
-0.728369,-0.239053,-0.058967,-0.460710,0.847274,-0.264336
-0.659418,-0.185278,0.283027,-0.119392,0.208517,0.970704
0.106890,0.133417,0.758323,0.490853,0.122060,-0.862649
0.456873,0.607171,0.508920,0.101549,-0.053961,0.993366
0.163175,0.459796,0.652170,0.953860,-0.140306,0.265453
0.080902,-0.114474,-0.185906,0.960325,0.109199,-0.256614
0.476329,0.329707,0.652920,-0.318267,0.576022,0.752931
-0.088083,-0.162615,0.545295,0.593900,-0.129078,-0.794117
-0.318575,0.159793,0.023509,-0.047869,0.987810,0.148122
0.034804,-0.487195,0.343050,-0.201714,0.304866,0.930789
0.156775,0.110879,0.759406,-0.466041,-0.883090,0.054386
0.160823,-0.334193,0.543211,-0.283937,0.952644,0.108855
0.389748,-0.455185,0.617323,-0.728160,-0.167960,-0.664510
-0.239828,0.256848,-0.400183,0.913171,-0.175290,0.367957
0.102841,0.334951,0.625188,-0.560993,0.057402,0.825828
-0.180412,0.499871,-0.087701,0.943608,0.255500,-0.210533
-0.619327,0.052493,0.584422,-0.115190,-0.274741,0.954593
0.628468,-0.021132,0.364003,0.841577,-0.252064,-0.477716
-0.132747,-0.353528,0.236036,0.842247,0.430763,-0.324135
0.313354,0.098844,0.833574,0.262169,-0.965003,0.005956
0.117989,-0.105377,0.333630,0.143959,-0.882644,0.447455
0.356056,-0.099235,0.765992,0.912442,0.024487,0.408473
-0.105320,0.222149,0.571583,0.930563,0.037395,-0.364217
0.179236,0.074133,0.838854,0.104742,-0.470762,0.876021
0.037936,0.651724,0.701578,-0.162122,-0.959856,0.228893
0.543585,-0.166069,0.505085,0.957087,0.113305,-0.266733
0.173620,-0.009730,0.641861,-0.717889,-0.177189,0.673230
0.092133,0.100509,0.747569,0.899840,0.416123,-0.130883
-0.448384,0.225736,0.614517,0.764945,0.343422,0.544904
0.106368,-0.283357,0.653504,-0.626452,0.117303,0.770583
0.464971,0.081940,0.747735,-0.361535,0.091886,-0.927820
0.187724,-0.003462,0.738676,-0.703358,-0.228064,-0.673257
0.257850,-0.030862,0.926694,-0.641333,-0.766079,-0.042598
0.222724,-0.172344,0.697132,0.563252,0.416728,0.713502
0.779954,-0.086559,0.403407,0.933647,-0.125996,-0.335303
0.462747,-0.078111,0.620714,0.820857,0.150396,-0.550977
0.192427,0.191421,0.732702,-0.383960,0.864668,-0.323920
-0.114331,0.152369,0.712249,-0.185175,-0.978879,0.086638
-0.034804,0.716127,0.699939,0.626278,0.549276,0.553238
0.068627,0.113443,0.862585,0.818735,0.139881,0.556872
0.510415,0.724451,0.588534,0.939529,0.008969,-0.342351
0.133528,-0.104096,0.678208,0.547267,0.698142,-0.461624
0.036238,0.571956,0.670844,0.513425,0.805503,-0.295905
0.256547,0.046991,0.684711,-0.245759,-0.384205,-0.889938
0.532223,0.334443,0.800756,-0.827556,-0.326106,0.456953
0.181324,0.115365,0.801784,0.767635,0.544760,-0.337599
0.097616,0.048398,0.763880,-0.171369,0.719653,0.672854
-0.298855,0.440711,0.420108,0.894781,0.435839,0.097015
0.714791,0.557741,0.560051,-0.204049,0.949507,0.238327
0.534706,0.214084,0.725226,-0.351273,0.873158,0.337939
-0.269475,0.132136,-1.000000,0.046919,0.011638,0.998831
0.309045,-0.017928,0.740260,0.694550,-0.248409,0.675199
0.024354,0.107042,0.580114,0.320696,0.627365,0.709625
0.168658,-0.305379,-0.290224,0.891404,0.029766,-0.452230
0.137708,0.101407,0.756238,-0.038609,-0.720193,0.692699
-0.020959,-0.705124,-0.072806,-0.737377,-0.253608,-0.626066
0.229252,-0.281950,0.703412,-0.756870,-0.239003,-0.608297
-0.178060,-0.350065,0.632051,-0.739077,0.641476,0.205606
-0.140841,0.040716,0.787556,-0.562178,-0.765531,-0.312919
0.087298,0.028040,0.553854,0.946857,0.176124,-0.269151
0.167224,0.092960,0.840966,0.021896,-0.497821,0.867003
0.143714,-0.159801,-0.757572,0.926366,-0.347107,0.146160
-0.541234,-0.337772,0.444590,0.975758,-0.184807,-0.117227
0.438461,0.320227,0.554216,0.754164,0.491176,-0.435870
-0.451911,-0.410499,0.434224,0.523391,0.744726,0.414059
0.191251,0.270422,0.843133,-0.035832,-0.774565,0.631478
-0.805548,-0.425863,0.321708,-0.280817,0.552225,0.784978
-0.039766,0.757485,0.312816,-0.119090,-0.228092,-0.966329
-0.026706,-0.307559,0.426916,-0.127385,-0.405900,0.904996
0.940973,-0.293469,0.506419,0.633154,0.689207,-0.352292
0.137967,0.157871,0.912577,-0.583151,-0.762364,-0.280600
0.121907,-0.185021,0.554938,0.560634,0.402379,-0.723727
0.488867,-0.526122,-0.961791,-0.170246,0.166285,0.971270
0.306172,0.181433,0.756461,-0.581082,0.130282,0.803349
-0.370419,0.369908,0.601400,-0.582074,0.801553,-0.136755
0.093177,-0.482975,0.341744,-0.016570,0.550264,0.834827
0.897617,-0.241742,0.518952,0.192425,0.491104,-0.849582
-0.208097,-0.556600,0.224643,-0.601708,0.239599,0.761932
0.340254,-0.434319,0.494053,0.491506,0.781989,-0.383294
-0.491218,0.459155,0.266020,0.029191,-0.836432,0.547293
0.462620,0.715362,0.516340,-0.448189,0.125925,-0.885025
0.002156,0.041099,0.713027,-0.683464,0.334921,0.648618
0.039112,-0.472730,0.335408,-0.263154,0.823833,0.502044
-0.238526,-0.237264,0.497138,0.189281,-0.695085,-0.693563
-0.178582,0.183223,0.714000,0.918871,-0.351118,0.179977
0.108716,0.090779,0.823542,0.791074,0.192108,0.580772
0.175709,0.458772,0.647807,0.968147,-0.210163,0.136096
0.223899,0.227784,0.853471,-0.498196,0.341765,-0.796867
-0.078551,-0.311396,0.661007,0.863292,0.348120,0.365431
-0.183153,-0.302183,0.569332,0.889740,0.375868,-0.259009
0.350573,-0.345204,0.562802,-0.558819,-0.722607,-0.406890
0.194252,0.094749,0.729561,0.958978,-0.220802,-0.177785
0.330853,0.258129,0.471989,-0.525787,0.460523,0.715169
0.203658,0.142764,0.840660,0.974631,0.056879,-0.216472
0.375776,0.159668,0.750903,0.752235,0.609866,-0.249413
0.059744,0.632906,0.741510,0.432648,0.900255,0.048550
-0.668952,-0.003204,0.186045,-0.691283,0.666141,0.279971
-0.650277,-0.198462,0.300256,0.288332,0.926981,0.239940
0.438851,0.064403,0.805841,0.926473,0.369026,0.073942
0.442769,-0.030220,0.751765,0.387588,0.914954,-0.112400
0.403199,-0.370040,0.547046,0.934575,0.319786,-0.155905
0.134576,0.174134,0.573862,0.396047,-0.116734,0.910780
0.045771,0.130471,-0.136498,0.750768,0.660405,-0.014610
0.381654,0.835721,0.506697,0.478446,0.283566,-0.831071
0.822920,-0.298854,0.522064,0.857879,0.262701,0.441624
0.626381,-0.519979,0.582171,-0.225621,-0.242807,0.943472
