-0.384475,-0.824191,0.510868,0.934121,-0.350893,-0.065515
-0.326229,-0.194480,0.406449,0.097856,0.991398,-0.086919
0.089970,-0.062769,0.865273,0.875792,-0.434697,0.209826
-0.932791,0.032180,0.370345,-0.480985,0.871291,-0.097492
-0.331244,0.374246,0.672961,0.853297,0.521364,-0.008026
0.453132,-0.683312,0.168719,-0.582593,0.271828,0.765960
-0.870013,-0.814831,0.189647,-0.146427,0.509950,0.847650
0.014173,-0.178559,0.539318,0.821156,0.522669,-0.229174
-0.082259,-0.404256,0.616725,-0.462636,0.561984,-0.685669
-0.006268,-0.168910,0.638206,0.944430,0.143170,0.295896
0.357953,-0.633329,0.500802,0.807492,-0.577641,0.119529
0.106461,0.024268,0.487020,-0.107181,0.302805,0.947007
0.158627,-0.150674,0.130070,-0.378113,-0.050884,-0.924360
-0.382450,-0.566556,0.748133,-0.621197,0.169374,-0.765132
-0.054296,-0.161094,-0.086710,0.533119,0.778289,-0.331738
-0.355646,-0.416221,0.694154,0.825362,0.522725,-0.213394
0.049564,-0.168331,0.247940,0.995764,-0.073744,-0.054924
0.046091,-0.137743,0.864786,0.809639,0.340516,-0.478052
-0.149857,-0.525354,-0.687230,0.022531,0.233767,0.972032
-0.004049,0.113813,0.868813,0.907016,0.354359,-0.227489
0.125455,-0.250447,0.913943,0.867975,0.356343,-0.345890
-0.327583,-0.488397,-0.856181,0.943467,0.311547,0.113174
-0.066733,0.322623,0.291190,-0.542890,-0.184624,-0.819258
-0.365193,0.449317,0.020143,0.801592,0.474249,-0.364058
0.644259,-0.872823,-0.256678,0.994598,0.060341,0.084459
0.119957,-0.003426,0.537105,0.826538,-0.562505,-0.020553
0.801733,-0.453756,0.371672,0.682380,0.646399,-0.341359
0.151688,0.163506,0.707383,0.884620,-0.386310,-0.261174
0.068369,-0.040382,0.151972,-0.505719,0.757924,0.412068
-0.184477,-0.455493,0.713135,0.077308,0.511657,0.855705
-0.622859,0.277175,0.667231,0.724008,0.687426,0.057081
-0.250821,-0.292711,0.696433,0.228774,0.709191,0.666866
-0.103377,-0.113717,0.862685,0.300716,0.924858,-0.232824
0.078593,-0.325132,0.538565,0.885173,-0.462063,0.054465
-0.322280,-0.091234,-0.961529,0.102471,0.108592,0.988791
-0.010706,-0.056689,0.274686,-0.667850,0.353114,-0.655200
0.065862,-0.014619,0.648050,0.817938,0.036917,0.574120
0.182835,0.786366,0.355235,-0.814847,-0.213889,0.538773
-0.758055,-0.562986,0.027355,-0.546613,0.235194,0.803678
0.214176,-0.714383,0.528500,0.025017,0.712582,0.701143
-0.728161,-0.720462,0.049610,-0.171788,0.225411,0.958999
-0.347159,-0.457037,0.571617,0.470316,0.603661,0.643736
0.302604,-0.604478,0.518699,0.078710,0.594321,0.800367
-0.253617,0.067785,0.312383,-0.329402,0.348410,-0.877556
0.176566,0.060259,0.656081,-0.102944,-0.948476,0.299660
-0.005497,0.310850,0.303357,0.325943,0.530234,0.782696
-0.422473,0.158778,0.325568,-0.641330,-0.664390,0.383773
-0.327777,-0.199402,0.434611,0.058408,0.971238,0.230837
-0.097203,-0.147972,0.706255,0.738581,-0.128976,0.661712
-0.178014,-0.384185,-0.509872,0.656628,0.414276,-0.630250
0.051012,-0.218122,0.440739,0.927647,-0.339547,0.155496
-0.234812,0.239060,0.495692,0.866926,-0.016097,-0.498177
-0.530088,-0.664592,0.686168,0.329826,0.727137,0.602069
-0.441278,0.172866,0.761960,0.025178,-0.631722,0.774786
0.537416,0.692575,0.299353,0.878083,0.168715,-0.447778
0.387947,-0.536450,-0.072706,0.817939,0.217497,-0.532607
-0.522083,-0.091137,-0.966329,0.039110,-0.050972,-0.997934
-0.550241,0.433299,0.447951,0.330535,0.584931,-0.740677
0.651399,-0.165919,0.413108,0.825749,0.344035,0.446965
0.064514,0.265788,0.128234,0.975135,-0.121285,0.185475
-0.342433,0.078786,-0.007997,-0.751810,-0.572046,0.327941
0.513790,0.525161,0.269310,0.673346,0.089570,-0.733882
-0.586791,-0.546100,0.121642,-0.493173,0.728855,0.474921
0.437894,-0.402422,0.523323,0.510056,0.729300,0.456032
-0.170975,-0.118734,0.740545,0.758015,0.652087,-0.013964
-0.148603,0.129348,0.444964,0.362370,0.355294,0.861657
0.587268,-0.270613,0.216813,-0.132453,0.572815,0.808913
0.685536,-0.224587,0.403529,0.989566,0.126933,-0.068170
-0.534043,-0.407247,0.725236,0.742138,0.348662,0.572421
0.074637,-0.452502,0.778331,0.921017,-0.030794,0.388302
-0.657473,-0.726444,-0.947569,-0.169861,0.071053,0.982903
-0.248508,-0.037970,0.716299,0.894143,0.431780,-0.118636
0.104337,-0.062479,0.280460,0.983712,0.105503,0.145532
-0.786600,-0.239350,0.539185,-0.701782,0.241007,0.670386
-0.587079,0.356588,-0.983895,0.056772,0.183950,0.981295
-0.645231,-0.348386,0.348089,0.989604,-0.108881,-0.093963
-0.123336,0.251411,0.392821,0.243871,0.836213,0.491197
-0.482837,0.438896,-0.990775,-0.028219,0.267606,0.963115
-0.435969,-0.634776,0.677783,0.157816,0.425701,0.890996
0.045803,-0.310368,0.615420,-0.746742,-0.664819,0.019799
0.224494,-0.394124,0.541198,-0.186864,0.337978,0.922417
-0.323145,-0.665365,0.525668,0.890834,-0.379050,-0.250473
-0.278496,0.428185,0.315856,0.912031,0.016199,-0.409800
0.133748,0.053601,0.852331,0.270924,0.864959,-0.422429
0.417547,-0.012496,-0.134517,0.327908,-0.026943,-0.944325
-0.309160,0.970088,0.053858,0.297640,0.211073,-0.931053
0.473962,-0.385536,0.306587,0.233179,0.961733,-0.143863
-0.117844,0.324456,0.118987,-0.492238,0.083642,-0.866433
-0.274735,0.384185,-0.987147,0.020728,0.276946,0.960662
-0.591900,-0.705409,0.203053,0.393270,-0.693852,-0.603247
-0.577627,-0.477976,-0.027731,0.279122,-0.746980,0.603417
-0.245229,-0.571478,0.546330,-0.445566,0.848103,-0.286691
-0.078981,-0.141603,0.784724,-0.747219,0.647216,0.150918
0.708002,-0.532977,0.218008,0.347393,0.416831,-0.839982
-0.900966,-0.790322,0.184824,-0.115713,0.478179,0.870606
0.044938,0.494090,0.049831,-0.533745,-0.804945,0.259191
-0.448123,0.397115,0.198451,-0.538530,-0.576164,0.614834
-0.134236,0.023979,0.509408,0.801748,0.592159,0.080916
-0.315241,-0.388141,-0.723998,-0.315369,0.946087,0.073900
0.737413,-0.620688,-0.022709,0.555443,-0.412754,0.721885
0.545609,-0.442177,0.510890,0.294238,0.863496,0.409632
-0.392868,0.332658,0.023749,0.827913,0.197335,-0.524994
-0.501736,-0.469099,0.112992,0.785909,-0.407708,-0.464889
-0.263452,-0.510783,-0.863238,0.901582,0.430851,-0.038962
-0.817748,-0.885078,0.426669,0.382306,0.924020,0.005362
-0.253040,-0.067207,0.846048,0.711328,0.701396,0.045334
0.140116,0.114199,0.066003,0.783197,0.510463,0.355007
0.389972,-0.022435,0.060251,0.199197,0.123869,-0.972099
0.230856,-0.029479,0.429124,-0.039593,-0.603323,0.796513
0.424298,-0.105515,0.412068,-0.553741,0.820860,-0.139859
0.160557,0.532494,0.167568,-0.421256,-0.906796,-0.016263
-0.010512,-0.195253,0.718710,0.580140,0.284092,0.763367
-0.508199,0.895402,0.164891,0.914775,-0.403308,-0.023007
-0.776089,-0.603706,0.363995,-0.314585,-0.081452,-0.945728
0.052071,-0.278719,0.707229,0.133801,-0.063548,0.988969
0.320444,0.012978,0.056181,-0.361659,0.209801,0.908398
0.048404,0.846287,0.328267,0.581825,0.652901,-0.484974
-0.609645,0.386211,-0.980753,-0.001001,0.218773,0.975775
-0.265865,-0.298114,-0.473281,-0.423435,0.905719,-0.019388
-0.216684,-0.257490,0.811050,0.741565,-0.623507,0.247628
0.340308,0.046943,0.546109,-0.100282,0.157947,0.982342
-0.182452,0.426352,-0.325015,-0.402236,0.886756,0.227750
-0.556509,-0.144691,0.628472,0.228299,-0.889606,0.395577
0.121694,-0.635066,0.611570,-0.724223,0.167376,0.668944
-0.429606,-0.539924,0.374835,0.760760,-0.460464,-0.457402
-0.206654,-0.279104,0.920757,-0.540521,0.713368,0.446031
0.740403,0.395185,0.206637,0.671154,-0.109374,0.733205
0.336447,-0.413905,0.532880,0.135508,-0.935825,0.325376
-0.646967,-0.515897,-0.953299,-0.082496,0.054473,0.995102
0.468370,0.352150,0.250705,0.853187,0.453395,0.257885
-0.214659,0.033338,0.621901,-0.017482,0.452400,0.891644
-0.243011,0.123462,0.320856,0.508382,-0.023646,0.860807
-0.382356,-0.190332,0.510093,-0.073327,-0.995686,0.056856
0.286595,-0.717856,-0.015718,0.848458,0.404109,0.341782
-0.146773,-0.110725,0.529650,0.357555,0.846739,0.393938
0.044743,-0.686496,0.633007,-0.383955,0.920407,-0.073684
-0.140116,0.154147,0.437752,0.476126,0.565804,0.673179
0.051977,0.268683,0.145092,-0.843802,0.209331,-0.494145
0.180227,-0.668934,0.162635,-0.072011,-0.979448,0.188402
0.448311,-0.291456,0.204535,0.260028,0.732127,0.629583
-0.427005,0.114392,-0.972280,0.060496,0.282675,0.957306
-0.031053,-0.347711,0.618251,0.062101,0.941718,-0.330621
-0.789879,-0.013075,-0.969603,0.198309,0.234635,0.951641
0.022177,-0.339895,0.862132,-0.075328,0.995551,-0.056595
-0.809838,-0.148647,-0.174603,0.954817,0.169747,0.243949
-0.085055,-0.088821,0.721055,-0.438966,-0.232849,-0.867808
0.197490,0.551986,0.150954,0.758296,-0.509345,-0.406885
-0.105979,-0.053312,0.823926,0.271781,-0.584080,0.764844
-0.044938,-0.117673,0.584691,0.269587,-0.926323,-0.263152
-0.539152,-0.098277,0.254134,-0.458571,0.643810,-0.612552
-0.512637,0.185990,0.647896,0.011109,-0.182057,0.983225
-0.246866,-0.044531,0.837221,0.631425,0.748136,0.203948
0.264223,-0.441308,0.464853,0.034474,0.670757,0.740875
0.545420,-0.336904,0.322825,0.088392,-0.892657,0.441984
-0.293734,-0.264631,-0.960179,-0.128615,0.127976,0.983402
-0.662299,-0.119024,-0.968011,0.196149,-0.214107,-0.956914
0.572512,-0.498914,0.530623,0.052212,0.716323,0.695812
-0.752175,-0.628408,-0.051756,-0.571289,0.729336,-0.376428
-0.763552,-0.899551,-0.145445,-0.553816,0.811691,-0.185594
-0.611093,0.190621,-0.098700,0.675272,0.685122,-0.273159
0.081100,0.736479,0.420828,0.860097,0.078008,-0.504130
0.122370,-0.489941,0.472684,0.480450,0.837338,-0.260829
-0.057574,0.137164,0.435938,0.587444,0.602043,0.540790
-0.219962,0.020890,0.860826,0.623508,0.728169,0.284617
-0.663453,0.364404,-0.076732,-0.616665,0.237139,0.750659
-0.066350,-0.426642,0.780565,0.973710,0.054296,0.221225
0.522272,0.268973,0.432730,0.022605,0.505381,0.862600
-0.228643,-0.257297,0.709817,-0.111469,0.918579,0.379193
-0.820255,-0.827665,0.185819,-0.138882,0.576385,0.805290
-0.510029,-0.754041,0.211260,-0.210572,-0.220167,0.952463
0.517934,0.141313,0.434434,-0.483742,0.084742,-0.871099
-0.705595,0.328605,-0.985333,-0.024121,0.261586,0.964879
0.254482,0.124909,0.545910,-0.166972,0.128943,0.977494
0.791609,-0.414290,0.340324,-0.151857,-0.931345,0.330962
0.457375,-0.253921,0.413771,0.005746,0.998041,0.062304
-0.389301,-0.636802,0.396737,-0.538832,0.824154,0.174440
-0.083413,-0.533363,0.534318,-0.442218,-0.034371,0.896249
0.283893,0.354851,0.730015,0.982051,-0.096435,-0.162097
-0.048122,-0.646838,0.771274,-0.538582,-0.791193,-0.289728
-0.322857,-0.721137,-0.782556,-0.014036,0.619951,0.784515
-0.054773,0.131085,0.483834,0.244226,0.777194,-0.579934
0.442814,-0.251411,0.743665,-0.450504,-0.892112,0.034383
-0.016974,0.142471,0.877573,0.907016,0.354359,-0.227489
-0.378689,-0.651469,0.410741,0.320787,0.646728,0.691981
-0.258920,-0.215806,0.424169,0.586373,0.809976,0.010302
0.406558,0.384185,0.129982,0.829274,0.512215,0.223472
0.396428,-0.248323,0.409015,-0.348977,-0.357437,0.866287
0.717355,0.286148,0.431912,0.004214,0.524225,0.851569
-0.184477,0.951754,0.362690,0.926825,-0.182628,0.328088
-0.619963,-0.396922,0.032598,-0.188697,0.666303,0.721411
-0.139151,0.382351,0.770433,-0.497322,0.467143,0.731059
0.472225,-0.284894,0.776760,0.912562,-0.033339,-0.407577
-0.567021,0.715540,0.222742,0.951616,-0.299017,-0.070827
-0.455545,-0.574179,-0.110912,-0.573453,0.806275,-0.145162
0.176566,-0.309307,0.814413,0.780738,-0.179467,0.598532
-0.382932,0.162445,-0.976152,0.036205,0.168183,0.985091
0.457281,-0.091523,0.012068,-0.556145,0.624519,-0.548342
-0.043972,-0.311333,0.775588,0.765649,-0.641470,0.047942
0.067980,-0.498143,0.392268,0.864103,-0.258364,-0.431943
-0.591712,-0.178946,0.427200,-0.361551,0.928906,0.080093
0.036833,-0.062383,0.551728,-0.231431,0.481155,0.845535
0.855735,-0.367009,0.460627,-0.290198,0.839276,0.459784
-0.102318,0.121146,0.486533,0.501763,0.234294,-0.832670
0.065573,0.368264,-0.014634,0.202987,0.588313,0.782741
-0.102895,0.425387,0.397600,-0.225344,0.660741,-0.715990
0.178591,0.695856,0.211128,-0.256466,0.395893,0.881756
-0.375316,-0.567425,0.401095,-0.568310,0.629610,0.529731
0.307424,-0.273508,0.041513,-0.737799,0.420583,0.527980
-0.013119,-0.120664,0.567635,0.823239,0.177509,0.539230
0.411278,-0.542240,0.523256,-0.056113,-0.496964,0.865955
-0.586791,0.165532,0.655705,0.549648,0.162365,0.819466
0.075696,-0.032566,0.546839,-0.693350,0.713610,-0.100130
0.290450,0.451247,0.106178,0.103162,0.988316,-0.112204
-0.096626,0.669127,0.373751,-0.350352,0.562382,0.748986
-0.251786,0.512809,0.066512,0.236348,-0.087814,0.967692
-0.366347,0.204322,-0.054035,0.633547,0.290239,0.717203
-0.117844,-0.132533,0.553764,0.473252,-0.835777,-0.278405
0.349278,-0.542433,-0.082750,0.793413,0.266952,-0.547022
0.300479,-0.453370,0.533234,-0.273247,-0.943786,0.186022
0.430854,0.265788,0.555246,-0.605375,0.745319,0.279322
-0.454874,-0.202876,-0.260970,0.633868,0.771402,-0.056131
-0.030571,-0.272157,0.843460,0.163865,0.942609,0.290924
0.161523,0.586144,0.196505,0.727716,-0.668162,-0.154885
0.332109,-0.443625,-0.304397,-0.318305,-0.947980,-0.003894
-0.290650,0.169875,-0.976041,-0.041948,0.189140,0.981054
0.149757,0.039321,0.424213,-0.163939,-0.638509,0.751951
-0.035974,-0.096830,-0.234600,0.725084,-0.401502,-0.559508
0.016298,-0.167270,0.619534,-0.782286,0.504778,0.365003
0.083990,-0.065663,0.635994,-0.685267,0.676963,-0.268570
-0.770974,-0.059585,-0.963829,0.188755,0.222456,0.956496
-0.469818,-0.185507,0.407068,0.684367,0.562416,-0.464036
-0.360561,0.446422,0.045429,0.876709,0.189556,-0.442098
-0.546480,-0.636995,-0.253714,0.582282,0.152216,-0.798610
0.665378,-0.868385,0.294818,0.219679,-0.702906,0.676509
0.441366,-0.661987,0.243316,-0.188311,0.426200,0.884812
0.257855,-0.606504,0.704131,-0.010065,-0.845654,0.533637
0.470683,0.045110,0.071843,0.493407,-0.273876,-0.825555
0.039729,-0.587109,0.760345,-0.468228,0.586313,0.661059
-0.577245,-0.365273,0.644710,-0.770804,0.466612,-0.433744
0.302504,0.347421,0.721210,0.873052,-0.272209,-0.404578
-0.683129,0.498143,-0.992368,-0.072038,0.273849,0.959071
0.788425,-0.216964,0.334661,-0.540896,-0.826625,-0.155318
-0.198844,-0.307280,-0.485073,-0.209004,-0.926013,0.314353
0.121405,-0.398080,0.055650,-0.337243,0.930419,0.143484
-0.042142,0.358035,0.298180,0.437126,0.722543,0.535586
0.331432,0.655618,0.139384,-0.572164,-0.518331,-0.635580
0.389584,0.281903,0.499076,0.738112,-0.036526,-0.673689
0.297683,0.776234,0.449190,-0.454996,0.878663,-0.144669
-0.383609,-0.727602,0.670416,0.542676,0.295178,0.786367
-0.190839,-0.309114,-0.708954,-0.518456,0.836369,-0.178016
-0.152653,-0.242341,-0.043150,0.902904,-0.309122,-0.298677
-0.551018,-0.075892,0.167856,-0.569720,-0.815463,-0.102175
-0.739250,-0.175279,0.441646,-0.367399,-0.675966,-0.638818
-0.766442,-0.068076,0.359881,0.068374,-0.994753,-0.076099
0.299420,0.166016,0.687761,0.410811,0.716189,-0.564187
-0.171364,0.855551,0.248891,-0.013834,0.981690,0.189983
-0.264223,0.622135,0.564117,-0.175233,-0.721517,0.669856
-0.532501,-0.029093,0.171926,0.650003,0.649385,0.394709
0.451972,0.149805,0.435142,0.337963,-0.138577,0.930901
-0.144937,0.180296,0.442774,0.961751,0.256323,0.096610
-0.863939,-0.869735,-0.134008,0.075952,-0.839928,0.537357
-0.577150,-0.756454,-0.946043,-0.085303,0.080694,0.993082
-0.720733,-0.005741,-0.082130,0.480301,0.754206,0.447754
-0.055161,-0.373764,0.496466,0.739689,0.329115,0.586978
-0.437417,-0.155208,-0.338576,-0.297343,-0.843967,0.446438
-0.009647,-0.118155,0.719308,0.499545,0.266414,0.824305
0.091418,0.093453,0.671899,-0.229235,0.930363,0.286141
-0.521701,-0.064892,0.337116,0.398433,0.869935,0.290629
0.528928,-0.481546,0.522305,-0.238854,0.477622,0.845474
0.064802,-0.064988,0.470251,0.094109,-0.416039,0.904464
0.323622,-0.612390,0.701897,0.525876,0.761663,-0.378581
0.665766,-0.364597,0.301698,-0.490756,-0.361303,-0.792855
-0.311479,0.861534,0.047818,-0.574246,0.190269,0.796266
-0.385728,-0.717084,0.677474,0.542676,0.295178,0.786367
-0.235683,0.434264,0.533875,0.391549,0.277662,-0.877265
-0.161046,0.365659,-0.990222,0.036630,-0.172142,-0.984391
-0.281968,0.362184,0.049610,0.298561,0.523870,-0.797760
-0.099040,0.457230,0.448172,0.495806,-0.388216,-0.776830
0.122759,-0.016355,0.122991,0.147907,0.717135,0.681059
-0.112441,-0.023400,0.546640,0.400991,-0.165783,-0.900957
-0.766636,-0.140638,0.546906,0.964859,0.009008,0.262613
-0.073484,0.260964,0.735037,-0.281436,0.712125,-0.643173
-0.003278,-0.353211,0.718887,0.245456,-0.929663,0.274733
0.092859,-0.125875,0.498435,0.993120,0.104239,0.053351
0.153712,0.072996,0.647542,0.334347,0.696742,-0.634636
-0.848413,-0.079752,0.294729,0.339022,0.465727,-0.817412
-0.012343,0.212621,0.423085,-0.513950,0.062418,-0.855546
0.308678,-0.383606,0.503855,-0.257097,0.700173,-0.666077
0.826229,-0.315000,0.379769,0.521893,0.713316,-0.467770
-0.271074,0.015294,-0.959870,-0.021607,0.098299,0.994922
0.033266,0.100208,0.288579,0.749992,0.364802,0.551753
-0.558057,-0.478072,0.317272,0.782699,0.196377,0.590609
0.091223,-0.081681,0.647210,0.785436,-0.610239,-0.103440
0.033554,0.850919,0.306344,0.781564,0.611093,-0.125394
-0.118033,-0.121436,0.842265,-0.117587,0.968114,-0.221200
-0.902991,-0.066628,0.377888,0.799324,0.599200,-0.045171
0.632111,-0.478265,0.520934,-0.013922,0.871773,0.489712
-0.223435,-0.130700,0.821736,0.922632,-0.209137,0.324057
-0.526427,0.392387,-0.986129,0.023508,0.252965,0.967190
-0.195083,0.023303,0.634091,-0.201643,0.574907,0.792983
0.038569,0.405220,0.402644,-0.155280,0.162046,0.974489
0.405398,0.630723,0.124119,0.601985,0.601718,0.524928
-0.204824,0.185121,0.477197,0.587697,0.609385,-0.532224
0.349278,0.178656,0.026094,-0.431112,0.593409,0.679712
0.454003,-0.862112,0.269487,0.503088,0.846209,-0.175594
0.464126,-0.137165,-0.068835,0.069916,0.763350,0.642191
-0.240409,0.178559,0.451314,0.234735,0.590314,0.772288
0.174253,-0.290780,0.020342,0.096282,-0.619752,0.778869
-0.465480,0.480580,0.301278,0.850082,-0.326577,-0.413168
-0.472519,-0.732813,0.689884,-0.415397,-0.781914,-0.464817
-0.116973,0.050514,0.927460,0.988214,0.138194,0.065842
-0.563260,0.408405,-0.990023,0.023702,0.252213,0.967381
-0.289491,0.017031,0.850207,0.869820,0.487756,0.074213
-0.450630,-0.206253,0.401007,0.793615,0.423930,-0.436415
-0.427870,0.162252,0.758398,0.053498,-0.732769,0.678371
-0.302510,-0.363826,-0.858371,0.943467,0.311547,0.113174
0.027869,0.154340,0.485825,-0.495401,0.594513,-0.633350
0.285724,-0.601872,0.430673,0.238914,-0.780784,0.577318
-0.208196,-0.197955,-0.215552,0.948056,0.277802,0.154971
-0.203476,0.215709,-0.979868,0.011092,0.109663,0.993907
-0.794022,-0.126068,0.428350,-0.514945,-0.329331,-0.791437
-0.646578,-0.503546,-0.955489,-0.089521,0.048237,0.994816
0.542142,-0.068944,0.327537,0.665838,0.645118,0.374810
-0.337612,-0.645969,0.672761,0.205854,-0.308595,-0.928651
0.082642,0.515029,-0.032222,0.757287,-0.562300,-0.332166
0.003278,-0.396054,-0.084652,0.352002,-0.712316,0.607207
-0.145713,-0.328702,0.681876,0.827827,0.507437,-0.239185
0.051877,-0.201718,0.548786,-0.628615,-0.316639,-0.710340
0.284181,0.122786,0.658138,0.161455,-0.710956,0.684451
-0.305982,0.805471,0.058061,-0.195446,0.514714,0.834788
0.071359,-0.206542,0.880361,-0.279399,-0.872135,0.401642
0.346288,0.064987,0.436867,-0.413172,0.716383,-0.562214
-0.019864,-0.061032,0.457132,-0.363355,-0.787941,-0.497113
0.690257,-0.219472,0.252785,0.621998,-0.782963,-0.009320
-0.168085,-0.251315,0.626414,0.408169,0.912015,0.040335
-0.460177,-0.771699,0.466445,0.922549,-0.385217,-0.022622
-0.236836,-0.085059,-0.961418,0.004782,0.109434,0.993983
0.861520,-0.373378,0.373663,0.974185,0.029315,-0.223839
0.477046,-0.070970,0.402046,-0.588711,0.386557,0.709924
-0.224688,-0.708014,0.528079,-0.319962,-0.154009,0.934829
0.252457,-0.565977,0.507859,-0.011828,0.272349,0.962126
0.000188,-0.110725,0.492329,0.228533,0.973500,0.008367
-0.497975,0.302649,0.791715,0.734179,-0.284933,0.616275
0.602023,-0.461186,0.504032,0.023806,0.881420,0.471732
0.609640,0.275921,0.489121,-0.112676,-0.934502,0.337654
-0.495662,-0.274666,0.466401,0.563291,-0.749773,0.347194
0.219573,-0.284702,0.200996,-0.160077,-0.986224,-0.041673
0.581582,0.144207,0.059610,0.017691,0.882136,0.470663
0.286883,0.165629,0.547790,0.546817,-0.322149,-0.772795
-0.038669,-0.547354,0.734307,0.903515,-0.231394,-0.360718
0.146673,-0.509915,0.209159,-0.387913,0.370277,0.844049
0.248308,-0.397212,0.105713,0.528956,0.776119,-0.343285
0.143489,0.008057,0.701078,0.842440,0.225423,0.489366
0.819384,-0.380808,0.445274,-0.290198,0.839276,0.459784
0.185054,-0.437353,-0.127062,0.725621,0.614058,-0.310495
-0.737131,-0.616732,0.097041,0.607026,-0.788529,0.098694
0.433267,-0.822358,0.020585,-0.345591,-0.935325,-0.075720
-0.386211,0.062672,0.518478,0.726004,0.457521,0.513413
-0.842433,-0.100497,0.445849,0.482546,0.753816,0.445993
0.269526,-0.746225,0.049212,0.725124,0.646617,-0.236815
-0.165290,-0.081006,-0.159294,-0.515713,0.066317,0.854191
-0.476569,-0.429054,0.096377,0.231307,-0.684112,0.691728
0.664895,-0.316351,0.232941,-0.232927,0.671977,0.702988
0.587174,0.299754,-0.124849,0.279699,0.702898,0.653990
0.281486,0.473826,0.186881,-0.605900,-0.733580,-0.307807
0.242910,-0.707049,0.685770,-0.446345,-0.884538,0.135530
0.560941,-0.271675,0.351961,0.001015,0.997449,0.071372
0.299131,-0.489652,0.476356,-0.330268,0.888535,0.318479
-0.026716,-0.337965,0.809701,0.561087,-0.021260,-0.827484
-0.004149,-0.190717,0.554494,0.747125,0.274404,0.605398
0.462584,-0.771699,0.530137,0.530501,0.795891,-0.291764
0.020535,-0.673566,0.417311,-0.009135,0.509279,0.860553
0.071359,-0.185604,0.162546,0.873543,-0.486747,0.000118
-0.245806,-0.631785,0.549162,-0.682470,0.717480,-0.139486
0.176466,0.245236,0.228184,0.998781,-0.022944,0.043698
-0.522083,-0.082260,-0.966219,-0.009695,0.090302,0.995867
0.362197,-0.167559,0.367203,-0.290666,0.538114,0.791168
-0.100293,-0.418730,0.336010,0.384323,0.648871,-0.656706
0.103566,0.557293,0.191925,0.894043,-0.258805,-0.365658
-0.481101,0.571091,0.371429,-0.562873,0.259029,0.784906
-0.531147,0.493221,0.362779,0.687065,0.490191,-0.536334
-0.061141,-0.535486,-0.733400,0.566622,0.808418,0.159370
-0.533755,0.014232,0.327958,0.878910,0.353162,0.320615
-0.212728,0.026101,0.760102,-0.676218,-0.728326,0.110775
-0.503278,-0.844165,0.452420,-0.639206,0.743298,0.197292
0.044167,-0.190621,0.520911,0.927047,0.265503,0.264749
-0.296147,-0.405027,-0.717140,-0.171999,0.084414,-0.981474
0.417064,-0.112269,0.425474,-0.511873,0.613048,-0.601795
0.231533,0.194770,0.692672,0.121972,-0.899523,0.419502
-0.251015,0.068076,0.573099,0.928088,0.338303,-0.155573
-0.119098,-0.030347,0.717781,0.571212,0.093613,0.815447
0.451878,0.341439,-0.000431,-0.679827,-0.721117,-0.133514
0.378495,-0.020698,0.067773,0.280225,0.014712,-0.959822
-0.683318,0.008153,0.407046,0.804636,-0.059576,0.590773
-0.908200,0.032952,0.376141,0.282217,-0.826904,-0.486398
-0.279461,0.574468,0.341408,-0.082336,-0.356066,0.930826
0.118321,0.023303,0.526619,-0.728794,0.540871,0.419902
0.023143,-0.074734,0.529407,0.207529,0.887502,-0.411426
-0.440984,-0.603319,-0.114806,-0.573453,0.806275,-0.145162
-0.220250,0.159454,0.642144,0.802777,-0.179127,0.568737
0.279167,0.036811,0.432067,0.353054,-0.588366,0.727446
-0.054484,-0.399720,0.694088,-0.247735,-0.962241,0.112783
0.288231,0.835287,0.435053,-0.398391,-0.767571,0.502116
0.145613,-0.236648,0.443416,-0.528759,0.565297,-0.633130
-0.131923,0.061031,0.627698,0.315949,0.834413,0.451588
-0.579946,-0.094997,-0.962546,-0.032995,0.181705,0.982799
0.522854,-0.260482,0.337448,0.118990,0.982484,-0.143412
-0.339831,0.115646,0.328444,-0.535284,-0.742481,0.402731
0.596144,-0.414098,0.088878,0.293006,0.805277,0.515438
-0.227484,-0.303903,-0.153078,0.553400,0.768106,-0.322121
0.090835,0.040189,0.466401,0.568164,-0.261194,0.780364
0.341562,0.003715,0.636480,-0.807802,0.553888,-0.201653
-0.637126,-0.561345,0.131840,-0.538808,0.749084,0.385435
-0.106079,-0.159840,0.772225,0.654661,0.750197,-0.092860
-0.338189,-0.292614,0.609269,-0.352345,0.933005,0.073176
-0.625461,-0.894341,0.072773,0.399229,0.913482,0.078529
-0.362874,-0.680900,-0.932061,-0.225681,-0.147076,0.963035
0.758631,0.212139,0.228428,0.681484,0.618985,0.390431
-0.527004,-0.862788,0.444522,-0.170225,0.882853,0.437716
0.175507,0.784436,0.119650,-0.147712,0.598468,0.787412
-0.276088,-0.141989,-0.341851,-0.337486,-0.000465,0.941331
-0.732116,0.389878,0.049544,-0.519209,0.333407,-0.786932
-0.449277,-0.199981,0.370610,0.927277,-0.326920,-0.182432
0.079552,0.041733,0.730280,0.122044,-0.342509,0.931554
0.450336,0.266946,0.534716,-0.440830,0.814910,0.376284
0.608869,0.335553,0.246126,0.881524,0.141257,0.450512
-0.721799,-0.155112,0.531088,0.208070,0.943925,0.256345
-0.452555,0.272060,0.779238,0.854864,-0.247773,0.455869
-0.429700,-0.712260,0.676235,0.628342,0.310777,0.713164
-0.264517,-0.242823,0.689707,-0.154172,0.944489,0.290122
-0.670975,0.168813,-0.980333,0.012040,0.085175,0.996293
-0.116491,-0.043663,-0.967259,0.125805,0.069274,0.989633
-0.129898,0.272446,0.748509,-0.162860,-0.669666,0.724586
-0.141182,0.122593,0.410187,-0.245004,-0.692344,0.678699
-0.473867,-0.762146,0.439810,-0.590269,-0.327459,-0.737803
-0.621988,0.050224,0.143631,0.910298,0.400260,0.105591
-0.233946,-0.331501,0.766562,-0.311924,0.659568,-0.683866
-0.138380,0.245043,0.531818,0.827862,0.556182,-0.072838
0.732687,0.020987,0.069211,0.233404,0.897219,-0.374862
0.153806,0.624934,0.438527,0.766485,-0.272692,-0.581498
-0.215430,-0.444975,-0.582457,0.997101,0.018123,-0.073899
-0.247449,-0.032470,0.721498,0.541552,0.068033,0.837910
-0.418806,0.644135,0.265926,0.964961,0.224969,0.135052
-0.142623,-0.680610,-0.739307,0.859064,-0.487147,0.157155
-0.694506,-0.646162,0.049367,-0.144621,0.166042,0.975456
0.430760,0.658127,-0.079476,0.309257,0.913381,-0.264755
-0.775029,-0.092488,0.565378,0.876302,0.366362,0.312848
0.301062,0.753172,0.451601,-0.415414,0.799452,-0.433944
0.071453,-0.313553,0.381317,-0.576634,0.815314,0.052509
-0.006751,0.107541,0.854654,0.987879,-0.140929,-0.065067
0.071165,0.038742,0.311277,-0.767057,-0.386644,-0.511986
0.439442,-0.368746,0.487462,0.494544,0.858130,-0.137980
-0.046097,0.239349,0.311543,0.042786,-0.371345,0.927509
-0.535974,-0.744102,0.701764,-0.304728,0.943086,0.133150
0.316100,-0.664496,0.406736,0.184331,-0.797106,0.575017
-0.258249,0.385826,0.106134,0.445003,-0.882107,-0.154468
-0.558534,0.585565,0.373818,-0.454256,-0.057005,0.889046
-0.101835,-0.491485,0.828948,0.961312,-0.164650,-0.220838
0.183988,0.048391,0.015519,0.580502,-0.593131,-0.557865
0.190162,0.357553,0.156330,-0.361221,0.913841,-0.185511
0.246189,-0.602161,0.516111,-0.143995,0.473107,0.869158
0.091606,0.551310,0.176727,-0.460438,0.602673,0.651754
0.583895,-0.194095,0.391317,-0.525213,0.837007,0.153528
-0.537321,0.655908,0.093501,-0.704680,-0.176896,-0.687120
0.037127,-0.381483,0.591284,0.987052,-0.141554,0.075435
-0.148315,-0.251219,0.911642,-0.386626,0.687145,0.615103
-0.011866,0.207893,0.384857,-0.673154,0.216495,0.707102
-0.161717,0.072032,0.619247,0.235293,0.770943,0.591849
0.040500,-0.270517,0.772623,0.815416,0.488585,0.310455
0.483025,-0.125971,0.395675,-0.030992,-0.888197,0.458416
0.166437,0.047715,0.547680,-0.641387,0.727355,0.244085
-0.349084,0.118927,0.312715,0.412196,0.789293,-0.455094
-0.272328,-0.376273,0.364128,0.925774,-0.283001,-0.250706
0.091512,-0.121918,-0.208893,0.728975,0.593127,0.341754
-0.026615,-0.333334,0.627410,0.224468,-0.788368,0.572792
0.482254,-0.211464,0.773420,0.890253,-0.238215,-0.388204
0.190162,-0.359966,0.079586,-0.352862,0.932626,0.075486
-0.155160,-0.389107,-0.943830,0.266318,-0.409798,-0.872434
0.601252,0.211849,0.036469,-0.081249,-0.940614,-0.329610
-0.194989,0.030829,0.056955,0.936276,-0.134516,-0.324487
-0.243011,0.704829,0.357425,0.296901,-0.501625,0.812540
-0.449859,0.456844,0.255285,0.264174,-0.488673,0.831511
0.529505,0.294157,0.484210,-0.070515,-0.905684,0.418048
-0.082159,-0.159358,0.882130,0.933154,-0.359468,0.002473
0.165960,0.655618,0.171749,-0.475413,-0.419859,-0.773111
-0.148221,0.108313,0.458570,0.945822,0.126908,-0.298857
-0.223629,-0.051383,0.565599,0.849220,0.510421,-0.135259
-0.563937,-0.160033,0.407643,-0.066835,0.369723,0.926735
0.486498,-0.040189,-0.096510,-0.689710,0.120367,0.714011
0.752846,0.099628,0.164029,-0.805962,0.476918,-0.350675
-0.243399,-0.290973,-0.958785,-0.193599,0.171178,0.966032
-0.149474,-0.575916,0.528986,-0.385985,0.466278,0.795990
-0.331632,-0.197955,0.261081,0.151925,-0.416788,-0.896218
-0.293057,0.702417,0.351784,0.842002,0.074884,-0.534253
0.118321,0.017031,0.541685,0.832056,-0.544535,-0.105665
-0.503667,0.007864,-0.970444,-0.071924,0.128508,0.989097
0.198261,0.685434,0.204181,-0.385773,-0.011022,-0.922528
-0.166249,0.258841,0.730103,0.081398,-0.830629,0.550845
-0.121217,-0.028804,0.896245,0.630818,0.652257,-0.420272
-0.335293,0.602258,0.033040,0.831914,-0.008834,-0.554834
-0.643394,-0.102813,0.298424,-0.290152,-0.902934,0.317053
0.547056,-0.278911,0.232764,-0.147604,0.858037,0.491921
-0.057957,0.472765,0.571285,-0.854436,0.490937,0.170059
-0.017357,-0.176533,0.820320,-0.676967,-0.639410,0.364515
-0.334911,-0.169490,-0.966130,-0.008792,0.023226,0.999692
-0.267407,0.419115,0.307804,0.191492,-0.834571,0.516549
-0.280332,-0.280166,0.710348,-0.052467,0.853705,0.518107
0.251204,0.500747,0.175687,0.518141,0.741638,0.426032
-0.655160,-0.041733,0.169338,0.312507,-0.077323,0.946763
-0.148992,-0.267430,0.891577,-0.439615,0.897902,-0.022611
0.141946,-0.337290,0.095050,-0.183709,0.949197,-0.255493
-0.243688,-0.234236,-0.241568,0.287511,0.905051,-0.313400
0.154195,-0.307377,0.084918,-0.309717,0.905459,-0.290206
0.614366,0.338254,-0.111531,-0.608019,-0.537319,-0.584466
0.505497,-0.353211,0.168807,0.981829,0.173350,-0.077213
-0.275217,0.428572,0.506089,0.859114,0.504798,0.084272
-0.011866,-0.503257,0.606504,0.845300,0.269843,0.461142
0.776371,-0.281035,0.442708,0.384059,-0.580067,-0.718345
-0.270303,-0.512038,-0.616105,0.679490,0.688794,-0.252698
-0.270491,0.089593,0.826293,0.960805,0.214693,-0.175385
0.811668,-0.122883,0.072219,-0.308934,-0.297617,0.903318
0.251780,-0.014137,0.437487,0.247075,-0.687856,0.682501
-0.232887,-0.031119,0.796317,0.736091,0.626468,-0.256335
0.408965,-0.809042,0.543056,-0.545915,0.200998,0.813373
-0.241469,-0.605346,-0.941906,0.067219,-0.240596,0.968295
-0.389778,0.359290,0.439500,-0.697632,-0.211359,-0.684570
-0.476957,-0.085637,0.340700,-0.417519,-0.795575,-0.439020
-0.083707,-0.613258,0.646546,0.962400,0.182402,0.201286
-0.162394,0.318956,0.513500,0.714830,0.352675,-0.603853
-0.135390,0.260674,0.415386,0.309200,-0.646764,0.697203
0.441754,-0.123655,0.421116,-0.360736,0.857923,-0.365838
-0.707720,-0.332754,-0.957325,0.046919,0.208305,0.976938
0.075985,0.178366,-0.037133,-0.739837,-0.054018,0.670614
0.839537,-0.576012,0.206482,0.927625,-0.254851,-0.273064
-0.470589,-0.786655,0.239179,0.929200,0.349230,-0.120934
-0.150822,0.001495,0.868259,0.803976,0.305223,-0.510354
0.249950,-0.522845,0.500890,-0.480225,0.040028,0.876231
-0.085732,0.313456,0.393463,0.927282,-0.170084,-0.333495
0.075120,-0.068558,0.261302,0.983929,-0.135135,0.116713
0.297201,0.360737,-0.066224,-0.480303,-0.874315,0.069875
0.028057,0.038549,0.873348,0.467708,0.214418,0.857482
0.147926,-0.499880,0.476578,0.961990,0.269413,-0.044625
-0.522566,-0.361606,0.301322,0.353953,-0.757915,-0.547980
-0.704341,-0.526512,-0.952923,-0.096990,0.036558,0.994614
0.029988,0.248805,0.079940,0.715327,0.681091,-0.156276
-0.472037,-0.394220,0.722272,0.391419,-0.080366,0.916697
-0.086791,-0.281903,0.129473,-0.764908,0.588079,-0.262829
-0.418806,-0.810296,0.428660,0.631258,0.386308,0.672518
-0.252557,0.602258,0.559206,-0.132631,-0.788470,0.600603
-0.301162,0.042311,0.817068,0.841214,0.220792,-0.493568
0.011471,-0.082646,0.820364,-0.693337,0.720283,0.021841
-0.552460,-0.196507,-0.963829,-0.095731,0.069945,0.992947
-0.754870,-0.219279,-0.961683,0.107378,0.288593,0.951412
-0.534620,-0.392387,0.712007,-0.471484,0.318445,-0.822372
0.604337,0.314035,-0.121288,0.279699,0.702898,0.653990
-0.768567,-0.747286,0.177258,-0.060898,0.618094,0.783742
-0.125266,0.146427,0.137680,-0.376123,0.606011,0.700915
-0.616879,-0.151831,0.404967,-0.591501,0.556304,0.583655
0.307518,-0.478265,0.210752,-0.479410,0.874620,-0.072145
0.423815,0.254016,0.559869,-0.691472,0.688973,0.217214
-0.116008,0.456457,0.562502,0.892008,0.053415,-0.448853
0.068080,0.520432,0.441978,-0.392603,0.635230,-0.665090
-0.523531,0.603609,0.270062,0.111117,0.105771,0.988163
0.458917,-0.830367,-0.617189,0.813082,0.475304,-0.336131
0.325747,-0.114778,0.434699,0.042143,-0.111023,0.992924
-0.345617,-0.008250,-0.270859,0.409107,0.381767,0.828786
0.341079,0.056303,0.425740,-0.355153,0.617951,-0.701430
-0.078593,-0.378589,0.703490,0.612285,0.627441,-0.481067
-0.208491,0.039128,0.331519,-0.471332,-0.881295,-0.034134
0.058434,-0.024654,0.266656,0.918967,-0.010557,0.394194
0.100676,-0.202682,0.889011,0.883029,0.386334,-0.266469
-0.048122,0.096734,0.727493,0.437400,-0.379099,0.815454
-0.533366,0.668258,0.374658,0.511054,0.400373,0.760608
0.016003,0.124137,0.837354,0.314474,-0.592556,0.741608
-0.246578,0.144111,0.618450,-0.830027,0.429241,0.356099
0.265571,-0.264728,0.854256,0.860314,-0.283663,-0.423550
-0.327194,0.351763,0.685770,0.985011,0.172011,0.012853
-0.270591,-0.215323,0.450539,-0.453627,-0.807139,-0.377823
-0.832015,-0.862402,-0.116686,0.075952,-0.839928,0.537357
-0.693735,-0.084286,0.292738,-0.197799,-0.898190,0.392594
0.162971,-0.407440,0.682031,0.807860,0.509074,0.296994
0.764900,-0.494476,-0.044522,0.433094,0.688343,0.581905
0.246477,0.657741,-0.087108,0.965664,-0.133924,0.222616
-0.150917,-0.493125,-0.630087,0.279749,0.074132,0.957207
-0.534237,0.797655,0.382070,0.902712,0.010788,-0.430109
-0.298654,-0.083804,-0.966528,-0.102445,-0.044021,-0.993764
0.050046,-0.340860,-0.735369,0.265295,0.304629,0.914779
-0.461625,0.196121,-0.044655,0.344936,0.675641,0.651559
0.482060,-0.705699,0.180399,0.035981,0.317190,0.947679
-0.333268,-0.584600,0.203982,-0.128140,0.522834,0.842749
-0.535297,0.316544,0.784702,-0.672058,0.406866,-0.618707
-0.653524,0.427799,-0.993142,0.000471,0.221812,0.975089
0.235194,-0.325807,0.860185,0.775220,0.061541,-0.628686
-0.023625,-0.463213,0.695902,0.256052,0.869231,0.422936
0.218320,0.208665,0.703335,0.490904,-0.737553,0.463712
-0.222858,0.813191,0.365079,0.480776,0.051991,-0.875301
0.035097,0.041154,0.438969,-0.093879,0.784144,0.613437
-0.329607,-0.257394,0.491510,0.130416,0.990732,0.037982
0.500382,-0.900324,-0.178010,0.222694,-0.961799,0.159219
0.074060,0.128480,0.271854,0.872702,-0.062546,0.484230
0.865958,0.157523,0.193053,0.804774,-0.557205,-0.204601
-0.293346,0.622617,0.558498,-0.355814,-0.806257,0.472594
0.014561,0.064216,-0.367358,-0.717514,0.560906,-0.412987
0.566727,-0.802866,0.251369,-0.099617,0.746509,0.657876
-0.298749,-0.422686,0.109916,0.291088,0.867254,0.403904
-0.324787,-0.369325,-0.640706,-0.043010,-0.998704,0.027217
-0.704730,-0.076760,0.422665,0.212610,0.343566,0.914746
-0.313116,-0.524486,-0.706786,0.527867,0.784661,-0.325060
-0.552365,-0.981571,0.564139,-0.283786,0.942296,0.177607
-0.464997,-0.300333,0.469100,0.587516,-0.797040,0.139833
0.448311,-0.787910,0.541994,-0.445192,0.757873,0.476898
0.824975,-0.462151,0.326033,-0.045697,0.998455,0.031612
-0.100581,-0.095383,0.172502,0.332566,0.273116,0.902667
-0.358053,0.411203,0.428461,0.751532,0.020832,0.659368
0.140599,0.124909,0.709950,0.832480,-0.552764,-0.037819
-0.240697,-0.202779,-0.424280,-0.677578,0.381318,-0.628876
0.376181,-0.862499,0.516000,0.365843,0.622077,-0.692227
0.542813,0.443914,0.267784,0.908111,-0.097449,-0.407232
-0.310608,-0.202200,-0.087949,0.387241,-0.677190,0.625666
-0.705983,0.474309,-0.987280,-0.077154,0.279300,0.957099
0.294693,-0.018093,0.648714,-0.340909,0.609719,-0.715559
-0.649086,0.293964,-0.081246,0.467921,0.499992,-0.728737
-0.232499,-0.368939,-0.208384,0.941944,-0.286723,0.174730
-0.098363,-0.703575,0.182943,0.442431,-0.835293,-0.326404
-0.659404,-0.137550,0.286411,-0.520724,-0.850082,0.078784
0.816100,-0.298211,0.455163,-0.189266,0.711934,0.676261
0.217455,0.455300,0.093347,-0.506706,0.619318,-0.599745
-0.244070,-0.340185,-0.199491,0.953902,-0.248342,0.168513
0.163547,0.819462,0.196770,0.782511,-0.195146,-0.591266
0.122276,-0.383896,0.696234,-0.052618,0.216155,-0.974940
-0.157379,0.060452,0.708490,0.847693,0.206261,0.488746
-0.202122,0.230762,0.290216,0.726805,0.193454,0.659037
-0.087468,0.548029,0.592832,0.730057,-0.675314,-0.104731
-0.010224,-0.117287,0.582966,0.947813,-0.284694,0.143528
-0.517940,0.338737,-0.983320,-0.067095,0.215585,0.974177
-0.844940,-0.016259,-0.967037,0.178398,0.231370,0.956369
-0.219580,0.184928,-0.977037,-0.003454,0.187961,0.982171
-0.514373,-0.006513,-0.966506,-0.064054,0.168952,0.983541
0.101058,-0.008733,0.547392,-0.749489,0.657774,-0.074825
0.574349,-0.319245,0.254665,-0.087976,-0.983573,-0.157620
-0.419094,-0.666232,-0.944848,-0.261964,0.011145,0.965013
0.150334,0.065084,0.536021,0.473771,-0.790803,-0.387521
-0.372809,-0.766874,0.304043,0.913360,0.402296,0.062705
-0.514856,-0.185700,0.628361,0.136864,-0.957978,-0.252084
0.138762,-0.292324,0.722582,-0.316513,-0.164971,0.934133
-0.386982,-0.582863,0.325966,0.859785,-0.397862,0.320119
0.468658,-0.335167,0.220353,0.035393,0.900729,0.432936
0.310509,0.777488,0.446181,0.899571,-0.376244,-0.221837
0.097203,0.573503,0.252851,-0.736195,-0.573817,-0.358820
-0.149280,-0.166305,0.934473,0.988420,0.148707,0.030191
-0.000289,0.276982,0.310989,0.442974,0.892796,-0.081787
-0.003955,-0.413712,0.770145,0.615664,0.509737,0.600938
-0.289879,0.351859,0.301809,0.167708,0.229033,0.958863
-0.263646,-0.154050,0.707140,0.964861,-0.083279,0.249214
0.234906,-0.503546,-0.709264,-0.578762,-0.230972,0.782104
0.060170,-0.063926,0.066733,0.810343,-0.513856,0.281594
-0.629604,-0.108892,0.388972,0.764530,-0.343287,-0.545571
-0.029994,-0.056883,0.812333,0.804798,-0.117470,0.581809
0.060364,-0.273991,0.695393,-0.669005,0.639035,-0.379561
-0.317748,-0.169779,0.264510,-0.356063,0.423908,0.832779
0.546091,-0.868867,-0.026359,0.530722,0.841616,-0.100082
0.428735,-0.222656,0.183850,-0.063473,0.957555,0.281176
0.744647,-0.887780,0.221149,0.279382,-0.851264,0.444180
0.024879,0.472958,0.320215,0.857416,0.152881,0.491391
0.667114,0.550635,0.244887,-0.444617,0.195587,-0.874106
-0.274252,0.655232,0.049322,-0.489012,-0.697723,-0.523499
-0.555838,0.615284,0.241038,0.858487,-0.181982,-0.479461
0.172223,0.426641,0.281257,-0.648402,-0.108006,-0.753598
-0.346194,-0.237516,0.487794,0.181243,0.980644,-0.074085
0.343969,0.242438,0.539649,0.709377,-0.605877,-0.360135
0.117644,-0.355624,0.515137,-0.699886,-0.636080,0.324903
-0.293346,-0.450958,0.735523,0.900220,0.187888,0.392812
0.529217,-0.485020,0.191372,0.786969,0.489835,-0.375154
-0.216972,-0.129831,0.625419,-0.509031,0.494340,0.704638
-0.203764,-0.439282,0.560887,-0.732786,-0.306364,-0.607590
-0.117744,0.133594,0.483436,0.198289,0.765172,-0.612530
0.283316,0.179814,0.435031,-0.455679,-0.840057,-0.294382
-0.420254,0.321754,-0.981749,-0.028886,0.165515,0.985784
-0.139345,0.167752,0.445562,0.189952,0.428565,0.883318
0.835776,-0.393352,0.323577,0.974733,-0.002484,-0.223361
-0.161428,-0.250157,0.093103,-0.188154,-0.795796,0.575593
-0.327100,0.259130,0.330059,0.121335,0.206618,0.970869
-0.705983,-0.569065,0.050937,0.434184,-0.275915,-0.857529
0.547633,-0.549380,-0.354040,0.761332,0.636129,-0.125351
-0.336070,0.108313,0.018417,0.933483,0.135418,-0.332072
-0.465862,-0.166016,0.401051,-0.673812,-0.701831,0.231107
0.161234,0.180103,0.701167,-0.230203,0.398559,0.887782
-0.385246,-0.621943,0.783839,0.817549,0.428536,0.384669
0.118221,0.044145,0.823262,0.073036,0.979463,-0.187933
0.102795,-0.311623,0.657807,-0.672572,-0.627841,0.391743
-0.402797,0.541082,0.339439,-0.515809,0.305864,-0.800243
-0.513790,0.543880,-0.067308,-0.012755,0.735019,0.677926
-0.069146,0.218122,-0.004104,0.819380,-0.128440,0.558677
-0.109551,-0.220147,0.884962,0.746468,-0.634077,0.201822
-0.410801,-0.722681,0.673580,-0.639526,-0.314434,-0.701525
0.693441,-0.439957,0.248559,-0.546448,-0.036869,0.836681
-0.106750,-0.020022,-0.153764,0.598246,0.796575,-0.087004
0.176761,0.033048,0.817112,0.073036,0.979463,-0.187933
0.284181,-0.306316,0.728135,0.436101,0.118194,-0.892102
-0.684960,-0.230858,-0.544981,0.435858,0.822223,0.366028
-0.066156,-0.423747,0.491533,-0.670144,0.056971,-0.740042
0.297683,-0.091041,0.420320,-0.220264,-0.597128,0.771312
-0.156514,0.372702,-0.309419,-0.318668,0.914161,0.250520
-0.667408,-0.025233,0.177833,-0.382846,-0.037857,-0.923036
-0.535585,-0.092006,0.378353,-0.674710,-0.733209,-0.084682
0.176949,-0.396536,-0.280549,-0.075567,-0.868055,0.490683
-0.462779,-0.622908,0.368066,-0.631515,0.515004,0.579621
-0.755547,-0.058330,0.405763,-0.432717,0.732524,-0.525514
0.200286,-0.616732,0.331033,0.811594,-0.520313,-0.265686
-0.571841,-0.304193,0.286433,0.540943,0.574913,0.613886
-0.146673,-0.231052,-0.222698,0.813194,0.128463,0.567638
-0.117262,-0.179525,0.939848,0.946705,0.064155,-0.315648
-0.468181,-0.555556,-0.947967,-0.165323,0.064838,0.984106
0.733075,0.448352,0.365433,0.995914,0.056914,-0.070116
-0.516686,-0.133401,0.308445,0.795767,-0.559436,-0.231919
-0.174059,0.300429,0.497041,0.461340,0.717774,-0.521504
0.532884,-0.028900,0.221503,-0.683671,0.310283,-0.660544
0.307619,-0.002268,0.421116,0.693374,-0.483622,0.534175
0.458341,0.862112,0.102151,0.422660,0.904194,0.061579
-0.521989,0.197279,0.645728,0.032574,-0.398253,0.916697
0.090546,-0.383606,-0.029987,-0.014853,-0.999870,0.006321
-0.808201,-0.901964,0.418041,0.064903,0.969381,0.236831
-0.402897,0.232595,0.230817,0.883644,0.463742,-0.064153
-0.002796,-0.662663,0.794259,0.277489,0.847451,0.452577
-0.252652,-0.417958,0.427819,0.764272,-0.413716,-0.494698
-0.635584,0.297438,-0.080626,0.441313,0.455391,-0.773215
0.200869,0.155015,0.469852,-0.450697,-0.426562,-0.784166
-0.392579,-0.166788,-0.048858,-0.166203,0.524458,0.835057
-0.358730,0.174796,0.337426,0.229833,0.190318,0.954440
0.725648,0.376948,0.318909,0.961876,-0.072810,0.263615
-0.060270,-0.403001,0.817444,-0.430538,0.780782,-0.452788
0.224106,-0.499976,0.471423,0.444963,0.678592,0.584397
-0.081682,0.598591,0.390653,-0.017236,0.731159,0.681990
-0.217361,-0.310561,0.141486,0.024358,-0.061888,0.997786
-0.535780,-0.272929,-0.657054,-0.717376,-0.689123,0.102376
0.141370,0.066435,0.438018,-0.214079,0.938755,-0.270016
-0.464609,0.229314,0.768398,-0.452292,0.425865,-0.783627
0.220922,0.791479,0.197611,-0.644587,0.617921,0.450202
-0.467216,-0.145752,-0.628074,0.632708,0.648703,-0.422925
0.055444,-0.291649,0.573962,-0.138958,-0.888988,0.436338
0.176084,-0.323009,0.536596,0.885568,0.284964,0.366830
-0.329125,-0.629180,-0.932880,0.215831,0.196995,-0.956352
-0.099905,-0.237034,0.967856,-0.158918,0.193989,-0.968046
0.324493,-0.281613,0.391361,0.504891,0.655069,0.562112
-0.106461,0.514836,0.025629,0.643756,-0.093668,0.759476
0.220827,0.311140,0.737404,0.645259,-0.727737,-0.232462
-0.114755,-0.259324,-0.170931,-0.437908,0.796050,-0.417781
0.037704,0.580161,0.326520,0.814224,-0.465273,-0.347218
-0.804440,-0.177788,0.661390,-0.178307,0.911595,-0.370406
-0.308778,-0.182033,-0.959648,0.031450,0.050469,0.998230
0.201928,-0.346070,0.548897,0.048635,-0.510682,0.858393
0.070105,-0.212911,0.543853,0.700960,0.634565,-0.325549
-0.701157,-0.852367,0.201615,0.772390,-0.587103,-0.242330
-0.311379,0.268394,0.269377,-0.741818,0.127889,0.658294
-0.431437,0.174892,0.329506,0.589077,0.546144,-0.595579
-0.423727,-0.854201,0.524938,0.960882,-0.034522,0.274799
0.007810,-0.737058,0.793419,0.449299,0.843277,0.294983
0.031436,-0.015004,0.653670,0.795541,-0.387643,0.465668
-0.336741,-0.166691,0.318356,0.668245,0.380411,0.639324
-0.061041,0.360641,0.505647,0.569866,0.004922,-0.821723
-0.116008,-0.125489,0.815077,0.466396,0.864349,0.188086
0.097686,0.061225,0.107571,0.943594,0.221048,0.246510
-0.101735,0.108023,0.528522,0.993934,-0.107290,-0.024151
-0.611288,-0.530371,-0.946220,0.098205,-0.028022,-0.994772
-0.673100,-0.982246,0.485604,-0.229568,0.848017,0.477667
0.418129,0.145173,-0.091732,-0.014892,0.084188,0.996339
-0.815141,-0.619627,0.359217,-0.051590,0.169337,0.984207
0.902985,0.209437,0.424147,0.575193,-0.332153,0.747548
-0.240115,0.143339,0.571661,0.663279,0.663119,-0.346894
-0.286212,0.119988,0.544782,0.404682,0.608713,-0.682423
0.167791,0.597916,-0.045230,-0.748659,0.661380,0.045672
-0.426617,-0.239350,-0.962524,0.133554,0.126278,0.982963
0.765188,0.435712,0.350545,0.989966,-0.118159,0.077495
-0.038958,0.240121,0.163210,0.824415,-0.142752,0.547688
-0.445710,-0.103875,-0.247519,0.513249,0.259158,0.818176
0.036256,-0.312105,0.580687,0.972045,0.233167,-0.027596
0.145031,0.756356,0.341851,0.776818,0.006843,-0.629688
-0.272998,0.517537,0.332205,-0.601954,-0.511250,0.613413
-0.282257,-0.516477,-0.889165,-0.803200,-0.555319,0.215617
-0.587756,-0.319729,0.276102,0.540943,0.574913,0.613886
0.082353,0.019539,0.816802,0.002109,-0.276337,0.961059
-0.024979,-0.033338,0.543211,0.656008,0.466247,0.593521
0.043490,-0.196024,0.710790,0.257703,0.463188,0.847965
0.095849,-0.394510,0.706565,-0.347901,0.124993,-0.929162
-0.487463,-0.071743,-0.963741,-0.095110,0.195315,0.976118
-0.512537,-0.825059,0.436690,0.838224,-0.519401,-0.166140
-0.437128,-0.829595,0.076909,0.759051,0.067915,-0.647479
0.065379,0.342211,0.153675,0.748509,-0.541156,0.383256
0.196043,-0.674724,0.236856,0.653484,0.686887,-0.318033
-0.282357,0.697399,0.069874,0.352775,-0.154464,0.922871
-0.084667,-0.183288,-0.404635,-0.631482,0.775165,0.018720
-0.094890,-0.270999,-0.054654,-0.428787,0.661586,0.615180
-0.829219,-0.199981,-0.959914,0.126054,0.220255,0.967263
0.526515,0.260288,0.548742,0.217467,-0.966239,-0.138165
0.941849,0.364693,0.274620,-0.456026,-0.258150,-0.851704
-0.087951,-0.272544,0.772070,0.500517,-0.359539,0.787537
0.659880,-0.898491,-0.333311,0.960352,0.278760,0.004196
-0.600004,-0.854007,0.097085,-0.613934,-0.715735,0.332879
-0.085538,0.352342,0.388883,0.948296,-0.279826,0.149772
-0.473579,-0.774594,0.438814,0.393492,0.369470,0.841817
-0.203476,-0.035268,-0.965113,-0.088853,-0.048599,-0.994858
-0.379272,-0.468423,-0.934893,0.434396,-0.386015,-0.813813
-0.923532,0.097602,0.161418,0.281093,0.182999,-0.942071
-0.751015,-0.673952,0.353863,-0.430768,0.303805,-0.849789
-0.237902,-0.009988,0.794812,0.701940,0.677960,-0.218289
-0.308101,0.513195,0.324794,0.610311,-0.551100,0.569042
-0.093442,-0.186955,0.943211,0.752816,0.470578,0.460244
0.714653,0.262412,0.438173,0.097122,-0.569324,-0.816356
-0.670010,-0.616828,-0.950578,-0.119266,0.105159,0.987278
0.018128,-0.071453,0.562635,0.523689,-0.547986,0.652273
0.516298,0.186182,-0.091333,-0.577107,0.814786,-0.055416
0.019382,-0.497467,0.411802,-0.814728,0.414089,0.405893
-0.736454,-0.082357,0.421625,-0.607235,-0.210124,-0.766234
-0.696437,-1.000000,0.410342,0.177502,0.982036,0.064023
0.087750,0.422106,0.433328,0.304493,-0.264954,0.914923
-0.121894,0.948183,0.356208,0.491578,0.043617,0.869741
0.196142,-0.355430,0.451579,0.702443,0.654867,0.278789
-0.141470,0.496020,0.311211,0.857126,0.501267,0.118599
-0.364127,-0.867902,0.522372,0.000418,0.983819,0.179167
-0.314470,0.420563,0.710326,0.894662,0.399762,-0.199426
-0.131629,0.242823,0.123256,-0.066009,0.451599,0.889776
0.440401,0.290104,0.545313,-0.592481,0.804885,0.033572
0.776371,-0.401747,0.351164,0.465178,0.837284,0.287342
0.462967,-0.307280,0.395697,-0.386439,0.916617,0.102361
-0.343592,-0.259903,0.441469,-0.219413,0.959430,0.177066
-0.636938,0.579003,0.355766,-0.504533,-0.153442,0.849648
0.743199,-0.233078,0.324329,0.532034,0.821438,-0.205376
-0.253134,-0.118542,0.633051,0.503693,0.280980,-0.816911
-0.011283,-0.240894,0.886112,0.704775,-0.282904,-0.650583
0.038281,-0.057365,0.868591,0.723287,-0.056982,-0.688193
0.350720,-0.090751,0.009789,0.269883,0.064094,0.960758
0.661905,-0.110533,0.401361,-0.625417,0.316663,-0.713147
-0.153424,-0.253921,0.468768,0.663144,0.694867,-0.278208
-0.445810,-0.902832,0.120757,0.892875,-0.317821,-0.319005
0.519864,-0.508757,0.520403,-0.282110,-0.221135,0.933549
-0.248890,-0.173928,-0.957171,0.022243,-0.114901,-0.993128
-0.268661,0.087277,0.814147,0.890376,0.447593,-0.083017
-0.669915,-0.100786,0.167480,-0.305913,0.499486,-0.810512
-0.227290,0.368360,0.528190,0.379400,0.265129,0.886432
0.222946,0.520143,0.148852,-0.479380,0.777972,0.406146
-0.539829,-0.823612,0.174979,0.516367,0.855362,-0.041494
-0.220733,-0.262508,-0.423926,-0.616171,0.677144,-0.402256
-0.302992,0.050128,0.551308,0.884618,0.300418,-0.356650
-0.480907,-0.623294,0.343045,0.109179,-0.994015,0.003639
-0.378977,0.448642,0.023240,0.928486,0.320380,-0.187804
-0.246483,-0.109278,0.170643,-0.256782,-0.296748,-0.919785
-0.570494,-0.707339,-0.440119,0.424590,-0.423838,-0.800053
0.274152,-0.623101,0.698689,0.339055,0.780633,-0.525028
