-0.152104,-0.018771,0.648926,-0.210946,-0.769644,0.602619
-0.109756,-0.078682,0.694558,0.237623,0.388183,0.890421
-0.137345,0.057540,0.696342,-0.218844,0.776696,0.590635
-0.032922,-0.179451,0.782256,-0.645571,0.707239,0.288185
-0.143121,0.193473,0.731075,0.838474,0.304590,-0.451869
-0.133175,0.225583,0.757260,0.412632,0.907806,0.074985
-0.090508,0.164840,0.803515,-0.468850,0.040561,-0.882346
-0.075432,0.181384,0.832785,-0.318016,0.635097,0.703930
-0.203753,0.606991,0.771697,0.479880,0.858516,-0.180737
-0.405383,-0.265212,0.519474,-0.411952,0.759770,0.503036
-0.086979,-0.268962,0.325848,0.018486,-0.598359,0.801015
-0.073665,-0.242552,0.355345,0.101705,0.991785,-0.077577
0.069895,-0.585460,0.470699,-0.491536,0.744090,0.452463
0.044392,-0.456331,0.473644,-0.088563,0.886294,0.454577
-0.022819,-0.208779,0.449440,0.919786,0.315641,-0.233161
0.035247,-0.310803,0.507528,-0.193423,0.636127,0.746947
-0.075750,0.061153,0.454621,-0.261349,-0.714077,0.649454
-0.045919,0.038494,0.494280,0.394565,0.460633,0.795070
-0.046399,0.100212,0.514379,0.877293,-0.308945,-0.367302
0.078075,-0.194323,0.615494,0.174447,0.879359,0.443053
0.010062,0.058091,0.590668,0.641720,0.754986,-0.134873
0.007977,0.121336,0.608983,-0.614030,-0.081276,-0.785087
0.013591,0.166928,0.632479,0.803381,-0.448534,0.391659
0.070375,0.062816,0.687963,-0.278479,0.649968,-0.707100
0.071016,0.120081,0.708599,0.707895,-0.668319,0.228547
0.088825,0.127869,0.740021,-0.287759,0.810042,0.510908
0.107749,0.132314,0.772235,0.889809,0.391526,0.234407
0.126194,0.137320,0.802779,-0.584095,-0.517610,-0.625231
0.145765,0.137040,0.834399,0.863399,-0.312028,-0.396460
0.140150,0.213766,0.850308,0.236634,0.877567,-0.416990
0.124911,0.314127,0.859933,0.877579,0.462695,0.125575
-0.086020,-0.206276,-0.058771,-0.829628,0.422475,0.365009
0.172395,-0.258544,0.344191,-0.467914,-0.194745,0.862050
0.093475,0.086587,0.333265,0.822191,0.285129,-0.492650
0.137262,0.020703,0.382350,0.358082,-0.008653,-0.933650
0.203513,-0.108146,0.445619,0.002157,-0.947426,0.319968
0.234308,-0.136227,0.486693,0.483071,0.734849,0.476066
0.250188,-0.124409,0.516983,0.907375,0.336936,0.251288
0.304244,-0.219621,0.572947,-0.174263,-0.733261,0.657237
0.263982,-0.043933,0.566776,0.902525,0.407686,-0.138711
0.330551,-0.173478,0.630073,0.601302,-0.248733,-0.759320
0.278418,0.033073,0.616230,-0.420527,0.460642,0.781643
0.240887,0.199038,0.611390,-0.223333,0.960509,0.165967
0.319644,0.031546,0.682641,-0.371027,0.059736,-0.926699
0.303765,0.133290,0.692039,-0.074039,0.060555,0.995415
0.282432,0.254911,0.698210,-0.271501,-0.270718,0.923580
0.229016,0.467850,0.684452,-0.106408,-0.302524,0.947183
0.228375,0.530121,0.704041,-0.558115,0.701616,0.442992
0.055136,-0.253122,0.354043,-0.448501,0.477873,-0.755304
0.139029,-0.428115,0.429908,0.998910,0.015815,-0.043921
0.106947,-0.279948,0.428577,0.732230,0.532265,-0.424892
0.054334,-0.070614,0.414707,0.861332,0.270948,-0.429761
0.153788,-0.291206,0.500281,-0.020714,0.541750,0.840284
0.122669,-0.142759,0.500451,0.795423,0.204325,-0.570574
0.136782,-0.125800,0.529438,-0.393387,-0.394705,-0.830334
0.147048,-0.096192,0.555340,0.704437,0.163276,-0.690731
0.189718,-0.158742,0.603633,-0.232516,0.673320,0.701838
0.148815,0.017370,0.596188,0.186863,0.379123,-0.906283
0.132132,0.125231,0.606124,-0.287772,0.138692,0.947603
0.174480,0.064488,0.653568,-0.067752,-0.986799,0.147094
0.241043,-0.067280,0.716610,0.391021,0.840361,-0.375360
0.184745,0.152887,0.699597,-0.668229,0.179604,-0.721951
0.217463,0.114940,0.739992,-0.506214,-0.850263,0.144224
0.193889,0.240735,0.745031,0.398495,0.503024,0.766921
0.273929,0.067126,0.814952,0.474707,-0.201807,-0.856696
0.256443,0.176243,0.823868,0.451218,0.842468,-0.294363
0.253076,0.244205,0.841816,-0.674501,-0.695666,0.247180
0.370011,0.174571,0.643717,0.830336,-0.196677,-0.521402
0.351723,0.285910,0.652436,0.625807,0.772302,0.109156
0.366481,0.300782,0.681027,0.553622,0.099243,-0.826833
0.235429,0.736392,0.616683,0.385864,0.528016,-0.756511
0.330071,0.522892,0.697446,0.986389,0.150327,0.066627
0.308734,0.641044,0.703617,0.807535,0.313529,0.499586
0.381240,0.142605,0.820896,0.970122,-0.071992,-0.231691
0.391344,0.168735,0.846656,-0.690665,0.076509,0.719117
0.442674,0.062121,0.512171,-0.389886,-0.732854,0.557596
0.329910,0.499545,0.478343,-0.742637,0.173894,-0.646724
0.508440,0.106320,0.634007,-0.639471,0.542828,-0.544439
0.327824,0.191250,0.439844,0.932802,0.153346,0.326137
0.387653,0.077688,0.499120,0.545085,0.831338,-0.108437
0.319963,0.332053,0.475257,0.183291,0.553779,0.812240
0.312424,0.413505,0.491704,0.111059,-0.535505,0.837198
0.490313,0.022511,0.646888,0.586872,0.602870,-0.540489
0.509399,0.023486,0.679074,0.027547,0.543365,0.839045
0.370329,0.483138,0.609946,-0.065240,-0.947552,0.312872
0.496731,0.174292,0.710694,0.953078,0.301175,-0.030602
0.473792,0.299943,0.716185,-0.727089,0.641464,0.244674
0.435292,0.471609,0.711515,0.856449,-0.020713,-0.515815
0.376428,0.700811,0.694501,0.596445,-0.582235,0.552500
0.231420,0.035991,0.369952,-0.243462,0.124825,-0.961845
0.293818,0.039470,0.473360,-0.138026,0.323538,-0.936094
0.272965,0.215021,0.499290,-0.050406,0.719604,-0.692553
0.467052,-0.279532,0.646265,0.999810,-0.013274,-0.014256
0.414924,-0.073813,0.632054,-0.010048,-0.321553,0.946838
0.356696,0.153863,0.614447,0.891757,0.158594,-0.423813
0.413641,0.496212,0.614277,-0.523970,0.808393,0.268245
0.511646,0.332469,0.716384,0.801687,-0.570211,-0.179322
0.387496,0.098261,0.434692,0.886209,0.459143,0.061814
0.572439,0.170126,0.625260,0.543917,0.534258,-0.647088
0.611096,0.119530,0.670525,0.970024,-0.010671,-0.242775
0.572762,0.087139,0.656937,0.880662,0.342435,-0.327371
0.536186,0.249490,0.652578,0.808006,0.028973,-0.588462
0.586395,0.299247,0.653257,0.991726,-0.057986,-0.114526
0.491273,0.628115,0.613654,-0.714991,0.698525,-0.029160
0.615267,0.023622,0.508434,-0.070140,-0.153568,0.985646
0.648632,0.141910,0.677205,0.296677,0.724268,0.622429
0.673333,0.217524,0.664297,0.612376,0.474908,0.632027
-0.064041,-0.212673,-0.972436,-0.517952,-0.254458,0.816687
0.065245,-0.054631,-0.967397,0.485544,-0.300681,-0.820877
0.067648,-0.160269,-0.968643,-0.294348,-0.152518,0.943450
0.071178,-0.257288,-0.973285,-0.533101,-0.467747,0.704993
0.072299,-0.379045,-0.967142,-0.256218,-0.053195,0.965154
0.155227,-0.001540,-0.949903,0.375182,0.704987,-0.601857
0.159721,-0.070614,-0.964963,-0.397935,-0.501850,0.767981
0.162286,-0.180562,-0.963746,-0.089769,0.266137,0.959746
0.164053,-0.288287,-0.961849,0.427456,0.453757,-0.781912
0.166456,-0.392118,-0.963406,0.038160,-0.287958,0.956882
0.181856,0.043635,-0.624900,0.739406,-0.578012,0.345226
0.196131,0.123839,-0.702068,0.533733,-0.205413,-0.820326
0.250026,0.097709,-0.957008,-0.013632,0.029599,0.999469
0.252435,-0.007097,-0.958367,-0.112084,-0.320260,0.940676
0.255161,-0.106618,-0.961990,0.334138,-0.088187,-0.938390
0.257888,-0.211417,-0.962075,-0.031541,0.053236,0.998084
0.259811,-0.317751,-0.960858,0.087905,-0.563841,0.821192
0.298469,0.212374,-0.617087,-0.502338,0.863420,-0.046512
0.314030,0.164009,-0.683328,0.974558,0.190876,-0.117483
0.371773,0.182079,-0.956867,0.282570,-0.293855,0.913128
0.373540,0.064904,-0.953017,0.284197,0.122460,0.950913
0.374823,-0.050186,-0.948289,0.013534,-0.032916,0.999366
0.378832,-0.140536,-0.955819,0.118761,-0.072225,0.990293
0.381078,-0.248669,-0.955904,-0.133979,0.096329,0.986291
0.413798,-0.010567,-0.528002,0.085795,0.840111,0.535586
0.506193,0.079360,-0.960858,-0.197823,-0.083659,0.976661
0.507638,-0.033507,-0.956980,-0.176716,0.333785,0.925937
0.611576,0.123143,-0.217295,-0.399572,0.916552,-0.016564
0.401932,-0.196130,0.648983,0.295429,0.874197,0.385358
0.146088,-0.297178,0.645501,0.095583,0.621182,0.777815
0.165174,-0.291901,0.616740,0.355570,-0.218688,-0.908705
0.006214,-0.361255,0.524060,0.042673,0.890896,0.452199
-0.790351,0.126198,0.565701,0.518752,-0.845052,0.129552
-0.780889,-0.091602,0.542743,-0.463619,-0.460274,-0.757103
-0.701969,0.133842,0.551688,-0.632818,0.739728,-0.228788
-0.699884,0.044195,0.550528,0.918969,-0.133679,0.370980
-0.696032,-0.016268,0.537704,-0.229395,-0.710006,0.665785
-0.695714,-0.154152,0.552311,0.519473,0.782594,0.343066
-0.609897,0.526786,0.543932,0.973793,0.009886,-0.227221
-0.607488,0.439499,0.541639,0.571364,0.732543,-0.370032
-0.599147,0.335947,0.509962,0.991146,0.128797,0.032276
-0.595138,0.276451,0.496629,-0.780043,0.501196,-0.374615
-0.599470,0.057260,0.540875,0.121408,-0.224773,0.966818
-0.591608,0.082974,0.498922,0.233353,-0.907811,0.348462
-0.586317,0.049896,0.475710,-0.564757,0.225014,-0.793989
-0.587923,-0.122602,0.504159,0.783090,-0.103337,0.613263
-0.588240,-0.266883,0.521172,-0.551894,-0.397835,0.732899
-0.553593,0.280490,0.288652,0.876460,-0.450563,-0.169737
-0.481732,-0.276054,0.521257,0.331952,0.575453,-0.747437
-0.469220,-0.166386,0.446921,-0.308348,0.152536,0.938964
-0.532260,0.056564,0.734982,-0.538845,0.091440,-0.837427
-0.500182,0.587250,0.518964,0.206212,0.146015,0.967552
-0.501783,0.412809,0.546734,-0.461067,-0.090859,-0.882702
-0.499536,0.322467,0.545574,0.730084,-0.076862,0.679021
-0.483015,0.250602,0.469482,0.892003,0.001270,0.452028
-0.486867,0.030290,0.512765,0.349412,-0.892418,-0.285486
-0.475477,0.119665,0.446383,0.405561,0.496160,0.767688
-0.472270,0.044195,0.439816,-0.304688,0.017459,0.952292
-0.430887,0.475774,0.752250,0.981888,-0.145220,-0.121684
-0.432487,0.304668,0.777443,0.947460,0.104340,0.302380
-0.421743,0.385152,0.717912,0.718571,0.565042,-0.405443
-0.416931,0.349708,0.698408,-0.782404,0.487070,-0.388081
-0.416128,0.231700,0.706816,0.861929,0.228221,0.452762
-0.416451,0.088946,0.722640,-0.189996,0.780435,0.595670
-0.412760,0.032377,0.710495,0.664191,0.358235,0.656139
-0.382122,0.509412,0.511831,0.132020,-0.114799,0.984577
-0.409872,-0.186959,0.720262,-0.688642,-0.723505,-0.048090
-0.382122,0.368329,0.526891,0.734203,0.228699,0.639251
-0.382122,0.232252,0.540337,0.663886,0.389750,0.638240
-0.398163,-0.217678,0.665684,0.342793,0.529310,0.776095
-0.374906,0.112166,0.516756,-0.432853,0.651177,0.623383
-0.369932,0.072827,0.496148,0.113035,0.833949,-0.540141
-0.364157,0.056564,0.468633,0.586350,0.718035,-0.374992
-0.358542,0.019728,0.447515,-0.323381,-0.074852,0.943304
-0.365600,-0.249508,0.509396,0.857227,0.329607,0.395627
-0.358385,-0.375711,0.486778,-0.468087,-0.454552,-0.757810
-0.360950,-0.552934,0.517464,-0.093440,-0.427890,-0.898988
-0.345231,-0.393926,0.423991,0.188969,0.654644,0.731937
-0.335285,-0.335685,0.368168,-0.426242,-0.616981,-0.661553
-0.195735,-0.585460,0.340342,0.847298,-0.257516,-0.464512
-0.314431,0.615330,0.788116,0.126610,-0.456156,0.880847
-0.320370,0.229893,0.855036,-0.048637,0.923813,0.379742
-0.299834,0.513722,0.727509,0.757596,0.596052,-0.266026
-0.296628,0.447422,0.718563,0.622818,0.709626,-0.329438
-0.296951,0.297024,0.736907,-0.113495,-0.866421,-0.486245
-0.288766,0.322322,0.695379,0.324169,0.292370,-0.899686
-0.288448,0.194169,0.706334,-0.782105,0.064790,0.619770
-0.284277,0.142741,0.692095,0.847067,-0.265857,0.460215
-0.266630,0.354848,0.586818,-0.760181,-0.103223,-0.641459
-0.282030,-0.083263,0.705287,0.679693,0.139801,0.720051
-0.251392,0.381394,0.510953,0.188686,-0.463325,0.865868
-0.269357,-0.097719,0.644821,-0.319988,0.699220,0.639296
-0.266312,-0.172918,0.637518,0.797608,0.057494,0.600429
-0.258289,-0.157215,0.598113,0.331370,0.943101,0.027454
-0.245939,-0.051713,0.527655,0.743368,0.147700,-0.652371
-0.237921,-0.026694,0.485533,0.839365,0.252845,-0.481181
-0.232468,-0.067976,0.465462,0.857619,0.115221,-0.501212
-0.221879,-0.000980,0.407573,0.689476,0.102371,0.717038
-0.220596,-0.113431,0.412980,0.411318,0.655526,0.633327
-0.222359,-0.277165,0.437070,0.641486,0.224977,-0.733404
-0.214018,-0.259095,0.395033,0.764182,-0.470443,-0.441259
-0.205358,-0.228656,0.349457,-0.504538,0.318040,-0.802678
-0.202152,-0.302048,0.341927,-0.564709,0.568493,-0.598264
-0.215143,0.587945,0.764337,-0.348506,-0.686616,0.638045
-0.222843,0.291332,0.831342,-0.110635,-0.993007,0.041192
-0.218350,0.250051,0.814414,0.939395,0.314493,-0.136495
-0.207282,0.337890,0.753750,0.901718,-0.385256,0.196171
-0.203273,0.279378,0.741011,-0.511689,0.721957,0.465782
-0.198941,0.236977,0.723659,0.819395,0.568856,-0.070673
-0.197496,0.128005,0.727961,0.866957,-0.497414,0.031055
-0.187555,0.181384,0.676526,0.913804,0.344418,0.215265
-0.180496,0.184158,0.642302,0.644598,-0.764168,0.023257
-0.184985,-0.031556,0.685103,-0.431673,0.803640,0.409660
-0.178249,-0.030309,0.652578,-0.310036,-0.630677,0.711424
-0.175361,-0.110784,0.647086,-0.095172,-0.989494,-0.108832
-0.169746,-0.127463,0.620590,0.906863,0.070597,0.415469
-0.156598,-0.013630,0.546083,-0.087128,-0.455977,0.885717
-0.146969,0.033073,0.494931,0.232989,-0.391651,0.890127
-0.138628,0.048640,0.454592,-0.211227,0.662756,-0.718427
-0.129166,0.094791,0.404402,0.886697,0.242708,0.393525
-0.133977,-0.124273,0.449582,-0.298841,0.954222,0.012390
-0.127403,-0.137754,0.419179,-0.612933,-0.729991,-0.302368
-0.123551,-0.195154,0.406299,-0.612581,0.612040,0.500151
-0.123551,-0.327066,0.419151,-0.394958,0.127398,-0.909823
-0.127883,-0.539870,0.461924,-0.427013,0.389222,0.816190
-0.104141,-0.252283,0.319932,0.287002,0.939321,-0.187897
-0.073347,0.031826,0.143177,0.935704,0.349093,0.050906
-0.044793,-0.018635,0.012027,0.969586,-0.069043,-0.234810
-0.020092,0.004161,-0.110320,0.905665,0.421062,0.049765
-0.003571,0.011804,-0.191167,-0.577412,-0.590788,0.563528
-0.124192,0.502184,0.787040,0.881630,0.457506,-0.115830
-0.119703,0.454786,0.770537,-0.612810,-0.788760,0.048186
-0.124515,0.211407,0.820132,0.570836,-0.817847,0.072618
-0.119865,0.169566,0.801901,0.828986,-0.044421,0.557503
-0.111841,0.202372,0.759921,0.695375,0.631832,-0.342405
-0.106070,0.187085,0.733821,-0.142717,0.957212,0.251748
-0.102541,0.121057,0.723489,0.702260,0.398586,-0.589881
-0.102380,-0.013349,0.738237,-0.617362,0.004873,0.786664
-0.099173,-0.084799,0.729971,0.968522,-0.244438,0.047060
-0.080723,0.138711,0.618665,0.086546,0.643848,0.760243
-0.079441,0.027652,0.623619,0.976168,-0.141615,-0.164442
-0.075593,-0.028365,0.610795,0.136613,0.296653,0.945163
-0.069494,-0.041015,0.582657,-0.098045,0.991981,0.079749
-0.058911,0.025149,0.524824,0.410562,-0.518113,-0.750332
-0.053937,-0.017939,0.507018,0.916599,-0.173722,0.360092
-0.044954,0.015003,0.460367,0.779934,0.624283,0.044429
-0.045596,-0.135387,0.479446,0.788198,-0.514776,-0.337268
-0.049125,-0.333038,0.515992,0.051652,0.530525,0.846094
-0.036613,-0.232270,0.445590,0.790155,0.467379,-0.396500
-0.031640,-0.269657,0.425690,-0.595721,-0.401890,0.695414
-0.037093,-0.501642,0.475483,0.506814,-0.579936,-0.637819
-0.039340,-0.673444,0.504952,0.336729,0.888967,0.310404
0.019367,0.102986,0.144253,0.674854,0.734717,-0.069014
0.022417,0.020703,0.137289,0.476479,0.773830,-0.417319
-0.008383,-0.646755,0.352656,0.224252,0.884686,0.408707
0.035727,-0.016268,0.078805,0.214095,-0.704712,0.676420
0.045513,0.015563,0.028615,0.262680,-0.960963,0.086885
0.030274,-0.643141,0.168315,0.988165,-0.059580,-0.141350
0.041024,0.062816,0.607285,0.314917,-0.297873,-0.901165
0.047598,0.050447,0.577590,0.203845,0.847255,-0.490516
0.047118,-0.096472,0.595424,0.291720,0.683693,0.668928
0.047598,-0.221292,0.606945,0.771905,0.607901,0.186061
0.060271,-0.115510,0.536232,-0.244791,-0.819547,0.518093
0.066688,-0.132333,0.507528,-0.238264,0.530304,-0.813639
0.069572,-0.208227,0.501527,0.642213,-0.465917,-0.608674
0.071016,-0.317199,0.505999,-0.152755,0.599550,0.785624
0.094116,-0.032675,0.367149,-0.097245,-0.378214,0.920596
0.095722,-0.139560,0.370433,0.033203,-0.461711,0.886409
0.087537,-0.413938,0.436900,0.810296,0.293151,0.507427
0.077272,-0.727231,0.518483,0.115412,-0.824612,-0.553801
0.133576,-0.420191,0.223713,-0.727125,-0.686160,0.021779
0.164053,0.095207,0.028134,0.223681,-0.360464,0.905556
0.209925,-0.090355,-0.169511,0.730902,0.668694,0.136497
-0.020254,0.343455,0.865792,-0.060576,0.406470,0.911654
-0.015921,0.301054,0.849204,0.995686,0.045484,-0.080869
-0.014316,0.188052,0.855205,-0.142515,0.685085,0.714386
-0.007100,0.201677,0.819792,0.251348,0.956180,-0.150146
-0.005177,0.104098,0.820500,-0.465860,-0.048157,-0.883547
-0.000521,0.063656,0.802298,-0.119943,0.819896,0.559807
0.010547,0.146355,0.741266,-0.109008,-0.912397,0.394523
0.012632,0.047809,0.743502,-0.701884,0.055323,0.710140
0.016959,-0.000565,0.728641,-0.140184,-0.478417,0.866871
0.020170,-0.068671,0.718931,0.946386,0.219189,-0.237296
0.036212,0.103266,0.626959,0.376488,-0.112926,0.919513
0.088022,0.197503,0.945309,-0.293587,0.949976,-0.106541
0.093152,0.165121,0.924588,0.393353,-0.911079,0.123324
0.102296,0.208625,0.878361,-0.344088,0.417828,0.840847
0.111440,0.251017,0.833437,-0.274014,-0.506042,0.817825
0.112884,0.147051,0.837485,0.050682,-0.307630,0.950155
0.117055,0.094927,0.822906,0.942246,0.316038,-0.110875
0.122826,0.073523,0.799043,-0.832187,0.246212,0.496835
0.134055,0.153023,0.739058,-0.445913,-0.057015,0.893259
0.138868,0.102707,0.723432,0.793858,-0.583090,-0.172612
0.143361,0.050032,0.708514,-0.514909,-0.665753,0.540038
0.144644,-0.051433,0.712194,0.183401,0.893155,-0.410656
0.148976,-0.097439,0.696257,0.458814,-0.881530,-0.111333
0.166456,0.089226,0.597207,0.450581,-0.480662,0.752291
0.169824,0.020288,0.588941,-0.228798,-0.896007,-0.380557
0.170466,-0.099391,0.597179,-0.231522,-0.170132,-0.957838
0.169668,-0.254234,0.617815,0.737176,0.646995,-0.194857
0.178650,-0.226289,0.573599,-0.748243,0.037319,-0.662375
0.185866,-0.224906,0.539884,0.775532,0.112608,-0.621184
0.193243,-0.221708,0.505348,0.804446,0.026266,-0.593445
0.192283,-0.373904,0.525532,0.373669,0.303318,-0.876567
0.219710,-0.019331,0.362875,-0.480682,0.603851,-0.635853
0.228375,-0.280219,0.351127,-0.730649,0.181242,0.658258
0.291253,-0.029477,0.037561,0.956355,-0.290522,0.031350
0.298791,-0.041431,0.003733,0.087219,-0.733664,0.673892
0.314348,0.080471,-0.080596,0.088047,0.000224,0.996116
0.340175,0.093120,-0.200962,-0.039994,0.909931,0.412827
0.250349,0.624085,0.714345,0.866958,-0.024095,-0.497799
0.233828,0.172900,0.833946,0.872474,-0.207226,-0.442545
0.254520,0.427545,0.715110,-0.295450,0.554636,-0.777874
0.236393,-0.041431,0.843458,-0.005230,0.907788,0.419398
0.266709,0.390844,0.664014,0.625964,-0.770627,0.119593
0.260135,0.127869,0.721196,0.645554,0.740266,0.187795
0.266870,0.119945,0.692152,0.258092,-0.289317,0.921783
0.263664,-0.072701,0.725612,0.226871,0.416899,0.880184
0.279544,0.084221,0.637688,0.600865,-0.121295,-0.790095
0.284033,0.029459,0.622967,-0.342433,0.457156,0.820822
0.287562,-0.036010,0.613541,0.067846,-0.629636,0.773922
0.291894,-0.086462,0.598651,0.858244,0.355956,-0.369747
0.306648,0.032793,0.522390,-0.307723,0.085490,-0.947627
0.300716,-0.201135,0.572693,-0.699381,-0.274624,0.659884
0.319004,-0.014741,0.471181,-0.122388,0.039652,0.991690
0.335681,0.138711,0.380850,-0.041338,0.555958,0.830182
0.343224,0.131483,0.347730,0.763648,0.580050,-0.283521
0.305048,-0.646339,0.596726,0.752464,0.115631,0.648404
0.346270,0.055868,0.340596,0.726686,-0.259027,-0.636265
0.386532,0.742508,0.698040,0.705361,-0.511371,0.490882
0.364235,0.194448,0.851214,0.357966,0.848519,-0.389713
0.368244,0.004440,0.852544,-0.257146,0.381220,-0.888002
0.395035,0.353177,0.700616,-0.645565,-0.382268,0.661148
0.396478,0.241702,0.705711,0.051803,0.905731,0.420675
0.410753,0.353873,0.633838,-0.783174,-0.010022,0.621722
0.414600,0.291332,0.623166,0.651061,-0.556163,-0.516529
0.412197,0.123279,0.649577,-0.110455,-0.112500,0.987494
0.416529,0.063928,0.636697,0.206980,-0.180711,0.961511
0.417968,-0.038232,0.640207,-0.222926,-0.761061,0.609172
0.415883,-0.205996,0.665684,0.334451,0.917711,0.214355
0.448289,0.210848,0.483806,-0.348397,-0.110926,0.930760
0.447486,0.055733,0.503990,0.386532,0.801798,-0.455755
0.452939,0.017505,0.484174,-0.759808,-0.648284,-0.049189
0.464966,0.091313,0.423935,0.400221,0.208314,-0.892429
0.471384,0.064904,0.398146,0.073954,0.995164,0.064655
0.476358,0.015698,0.381728,-0.599153,0.391584,0.698339
0.463366,-0.590466,0.497733,-0.415229,0.781412,-0.465811
0.530894,0.230445,0.123475,0.125512,0.988721,-0.081711
0.515656,0.295913,0.735321,-0.610099,0.652958,0.448804
0.528329,0.385983,0.672818,0.929948,-0.093156,0.355695
0.531859,0.309818,0.665599,-0.750961,0.149583,-0.643181
0.533621,0.207233,0.668855,-0.202833,-0.084917,0.975524
0.534746,0.092560,0.675280,-0.202319,0.095589,-0.974643
0.533621,-0.059916,0.694870,-0.501163,0.335964,-0.797473
0.564421,0.324274,0.526353,-0.625934,0.537495,0.565071
0.566663,0.233091,0.525503,0.032311,-0.965270,0.259248
0.576130,0.262835,0.481796,-0.399212,-0.896225,-0.193417
0.577413,0.146770,0.488194,-0.348530,-0.058880,-0.935446
0.576287,-0.004179,0.509142,0.058504,-0.167132,0.984197
0.585754,0.015834,0.467048,0.058096,0.707573,0.704248
0.596822,0.064623,0.414254,0.184064,0.977716,0.100953
0.709743,0.216412,-0.079379,0.410480,-0.801298,0.435234
0.726107,0.184438,-0.146327,-0.346840,0.934932,-0.074863
0.645102,0.321627,0.746871,0.262403,-0.944578,-0.197274
0.694025,0.339697,0.542460,-0.474720,-0.071181,0.877254
0.729314,0.111190,0.418811,0.975786,-0.097424,-0.195834
0.803744,0.317877,0.573599,0.118752,-0.628406,0.768768
0.820422,0.326216,0.504358,0.653798,-0.443667,-0.612950
0.917948,0.499401,0.547385,-0.251606,0.144342,0.957006
0.929500,0.551949,0.496261,0.953656,-0.249379,0.168374
-0.573966,-0.039624,-0.308984,-0.686814,0.691649,-0.223401
-0.580540,-0.160829,-0.337745,0.080058,-0.988760,0.126268
-0.326782,0.521230,-0.340689,0.054713,0.291061,0.955139
-0.344747,0.164425,-0.482936,-0.003961,0.958601,0.284725
-0.383727,0.261579,-0.225221,0.230078,0.561488,-0.794856
-0.401531,-0.006538,-0.250019,0.064544,-0.626918,0.776407
-0.421904,0.180968,-0.491797,-0.045774,-0.998011,-0.043348
-0.429119,0.326632,-0.219050,0.022311,-0.829346,0.558290
-0.499218,-0.178475,-0.581816,0.784632,0.220870,0.579283
-0.495209,0.201677,-0.256530,-0.085589,-0.501412,0.860965
-0.514133,-0.103420,-0.304653,0.147511,-0.940455,0.306242
-0.480132,0.138015,-0.527861,-0.336162,0.777132,-0.532035
0.070375,-0.734043,0.512538,-0.168273,-0.956107,-0.239884
-0.183061,-0.677890,0.517605,0.450081,0.845176,0.288280
0.078236,-0.735154,0.173354,0.988165,-0.059580,-0.141350
0.288683,0.671067,0.719497,0.892978,-0.293793,-0.340993
-0.940970,-0.266603,0.070143,0.772226,-0.506773,0.383206
-0.784256,0.526507,0.521229,-0.592740,0.702137,-0.394541
-0.813289,0.027101,0.472908,0.328929,0.944270,0.012646
-0.754098,-0.107170,0.063123,-0.524125,0.557211,-0.644057
-0.772062,0.497323,0.506792,0.872917,-0.449441,0.189787
-0.777360,0.416007,0.500734,0.666034,-0.607664,0.432601
-0.795163,0.005000,0.421500,-0.098158,0.987364,0.124405
-0.802702,0.030714,0.480777,0.369255,0.928782,0.031849
-0.804948,0.526091,0.524852,-0.592740,0.702137,-0.394541
-0.830290,0.083949,0.496261,0.283933,-0.941738,-0.180308
-0.768695,0.472440,0.512284,0.850434,-0.446568,0.278099
-0.800136,0.035016,0.504782,0.082866,-0.991824,-0.097048
-0.803666,0.065735,0.566097,0.731498,0.143800,0.666507
-0.762439,-0.003899,0.071643,-0.671013,0.438180,-0.598113
-0.768215,-0.102445,0.055310,-0.698313,0.335528,-0.632281
-0.764848,0.447558,0.505631,0.827728,-0.558376,0.055522
-0.792113,0.035296,0.469567,0.199339,0.973581,0.111375
-0.796128,0.026956,0.507443,-0.281207,0.917416,0.281548
-0.799010,0.063512,0.574108,0.893860,0.047005,0.445875
-0.810240,-0.119548,0.548461,-0.453505,-0.395803,-0.798545
-0.727312,-0.030588,0.084523,-0.513315,0.655943,-0.553396
-0.735012,0.349987,0.564880,0.985276,-0.155881,0.070228
-0.751209,-0.018219,0.420991,-0.393340,0.415026,-0.820389
-0.754421,0.098405,0.580760,0.592556,-0.279515,0.755479
-0.760192,0.015563,0.573684,0.630919,-0.151099,0.760993
-0.766933,-0.098975,0.547838,-0.301672,-0.560251,-0.771436
-0.771745,-0.160134,0.554972,-0.276359,-0.371189,-0.886479
-0.558728,0.517471,0.023746,0.042219,-0.882227,0.468928
-0.601076,0.012780,0.088656,0.267315,-0.745011,0.611147
-0.601717,0.474111,0.530627,-0.714082,0.139875,0.685946
-0.606367,0.416567,0.537789,0.442459,0.815780,0.372468
-0.610377,0.406421,0.576684,0.591975,-0.805492,0.027364
-0.615830,0.328023,0.570570,0.639259,-0.163140,0.751487
-0.622570,0.190555,0.529212,0.963713,-0.144150,0.224675
-0.627700,0.123143,0.532014,0.837454,0.431680,0.335145
-0.632835,0.048360,0.530061,0.804341,0.206918,0.556974
-0.637647,-0.004179,0.540224,0.924498,-0.323364,-0.201840
-0.643742,-0.101054,0.523380,-0.439837,-0.795002,-0.417751
-0.546216,0.320659,0.563691,0.641935,-0.422987,0.639532
-0.555679,0.101875,0.471492,-0.336931,0.914057,0.225781
-0.558890,0.092840,0.509368,0.071217,-0.928110,0.365431
-0.562737,0.062816,0.533769,-0.336240,-0.940089,-0.056356
-0.568513,-0.037817,0.516530,0.749756,-0.187106,-0.634711
-0.579738,-0.195849,0.507018,0.898116,0.426456,0.107344
-0.578940,0.051279,0.741040,-0.348576,0.934910,-0.066623
-0.480132,0.747513,0.075097,-0.686471,0.629565,-0.363875
-0.503868,0.349147,0.006620,0.333293,0.933065,-0.135302
-0.522475,0.173180,0.091091,0.283303,0.372109,-0.883897
-0.536112,0.456873,0.558935,-0.146863,-0.904888,0.399511
-0.541081,0.385432,0.559360,0.976675,0.181381,0.114920
-0.416290,0.575160,-0.151338,0.833880,-0.373867,-0.406039
-0.443717,0.336778,0.003167,-0.188221,-0.981973,-0.017395
-0.468741,0.473688,0.528589,0.013231,0.961528,0.274387
-0.472432,0.460767,0.566097,-0.251035,-0.961325,-0.113298
-0.475961,0.436580,0.594235,0.071279,0.964482,-0.254351
-0.483177,0.298975,0.552226,0.845729,-0.007185,0.533565
-0.492320,0.087003,0.464811,-0.408395,0.911547,0.047917
-0.495527,0.086868,0.509906,-0.007847,0.346498,0.938018
-0.490553,0.344982,0.711741,-0.192078,-0.216366,-0.957231
-0.511250,-0.236995,0.396731,0.944280,-0.039328,0.326787
-0.496168,0.344142,0.794966,0.600619,-0.310734,0.736682
-0.513977,-0.232270,0.444600,0.858164,0.509540,-0.062633
-0.504671,0.154143,0.721111,0.397461,-0.575351,0.714840
-0.522959,-0.326786,0.475087,-0.692417,-0.653305,0.306187
-0.514133,0.038910,0.736482,-0.498817,0.225331,-0.836903
-0.528251,-0.311083,0.571277,0.642563,-0.748024,0.166049
-0.398486,0.213766,-0.044900,-0.428037,-0.825483,0.367915
-0.395598,0.399880,0.132081,-0.256017,-0.775893,0.576581
-0.414845,0.352346,0.392060,-0.472232,0.853836,-0.218998
-0.413083,0.484258,0.522503,0.629368,-0.485343,-0.606908
-0.416931,0.444088,0.542771,-0.036517,-0.820491,0.570493
-0.418213,0.486617,0.615268,-0.173790,0.984647,-0.016380
-0.423505,0.411282,0.612352,0.499522,-0.219740,-0.837969
-0.423025,0.507605,0.715648,0.883401,0.154480,0.442423
-0.439066,0.103826,0.506113,-0.276187,0.808387,-0.519838
-0.433133,0.359438,0.708571,-0.432063,-0.438270,-0.788189
-0.437304,0.306899,0.717742,0.284493,0.905113,0.315966
-0.454144,-0.183624,0.416773,-0.764383,0.640762,-0.071706
-0.439385,0.321075,0.769064,0.872701,-0.039443,0.486658
-0.460561,-0.294404,0.393985,-0.754915,-0.434129,-0.491564
-0.443076,0.272702,0.782567,-0.657824,0.108349,-0.745338
-0.461682,-0.264516,0.457536,0.948926,0.306382,-0.075296
-0.452058,0.101044,0.721366,0.388602,0.594014,0.704369
-0.466338,-0.308164,0.475455,-0.291069,-0.939373,0.181269
-0.456709,0.043915,0.727678,0.469516,0.147753,0.870473
-0.468741,-0.230327,0.605275,0.868096,-0.495241,-0.033835
-0.475638,-0.277861,0.659711,0.678737,0.649462,0.342805
-0.376189,0.459791,0.536997,0.944014,0.058125,0.324744
-0.373780,0.591279,0.666533,0.453343,0.622077,-0.638358
-0.384368,0.365411,0.566154,-0.160058,0.798768,0.579958
-0.383727,0.440890,0.658607,-0.173707,-0.942923,0.284115
-0.385010,0.470353,0.721054,0.860445,0.270713,0.431681
-0.398804,0.117858,0.501045,0.025492,-0.850659,0.525099
-0.392068,0.347205,0.688557,0.388895,-0.435549,0.811824
-0.395437,0.320931,0.714091,-0.328278,0.649754,0.685604
-0.415810,-0.133308,0.478003,-0.674283,-0.367878,-0.640319
-0.401369,0.282992,0.775009,0.759611,0.367849,0.536357
-0.409231,0.133154,0.725017,-0.274147,0.776272,0.567666
-0.414043,0.064488,0.725782,0.876215,0.290800,0.384295
-0.423666,-0.112455,0.662514,0.912685,-0.401888,-0.074109
-0.428963,-0.195849,0.655324,0.820711,0.569897,0.040629
-0.432487,-0.225737,0.678111,0.966198,-0.243419,-0.084907
-0.433775,-0.201271,0.732236,-0.235526,-0.848443,0.473995
-0.441955,-0.350413,0.687566,-0.296197,0.776829,0.555701
-0.331276,0.649664,-0.077681,0.171177,0.630912,0.756735
-0.335926,0.592390,-0.066216,0.205034,0.870312,0.447792
-0.358062,0.347485,0.029238,0.100690,0.953455,-0.284227
-0.360627,0.692056,0.552481,0.718034,-0.422269,0.553277
-0.367368,0.570155,0.519644,-0.043431,-0.899345,0.435078
-0.234715,0.357767,-0.003486,0.711267,0.398944,0.578743
-0.227171,0.678847,0.269147,-0.004975,-0.640592,0.767865
-0.239526,0.305228,0.013301,0.634644,0.740641,0.220629
-0.252195,0.410170,0.379039,-0.484839,0.676872,-0.553873
-0.251236,0.520118,0.498045,0.871467,-0.096879,-0.480791
-0.254765,0.497323,0.529863,0.461085,0.018662,0.887160
-0.257809,0.480220,0.565531,-0.220410,0.450147,0.865325
-0.260859,0.458960,0.595707,-0.331087,-0.921774,0.201776
-0.262460,0.475223,0.649237,0.951077,-0.216037,0.220862
-0.266954,0.427401,0.663674,0.822331,0.526533,-0.215720
-0.269201,0.434357,0.709901,0.350931,-0.674318,0.649725
-0.274330,0.357903,0.706023,0.811155,0.583851,0.033841
-0.280748,0.252129,0.684169,0.644655,0.645672,0.409302
-0.289251,0.087283,0.626704,-0.646280,0.582596,-0.492852
-0.286363,0.218907,0.747918,-0.667462,0.736904,-0.107083
-0.292134,0.135097,0.738096,0.912972,-0.201076,-0.355037
-0.302723,-0.025023,0.725017,0.856422,-0.199871,0.476019
-0.309140,-0.135115,0.701890,0.819485,-0.208640,0.533773
-0.314270,-0.202382,0.703985,0.936865,0.199868,0.286943
-0.322293,-0.355138,0.657079,0.742269,0.668278,0.049413
-0.324697,-0.355138,0.696936,0.838364,-0.514325,0.180601
-0.179855,-0.120379,0.703107,0.459847,0.600625,0.654057
-0.186272,-0.227825,0.681904,0.149627,0.065075,-0.986599
-0.202309,-0.607145,0.501074,0.657870,0.720733,0.218519
-0.101258,0.338034,-0.076945,0.922943,0.384869,-0.007187
-0.121309,0.263667,0.178732,-0.082581,-0.711979,0.697328
-0.116497,0.520814,0.398401,-0.399258,0.912586,0.088201
-0.124995,0.425593,0.427785,0.044481,-0.998448,0.033514
-0.125318,0.511779,0.530457,-0.184053,0.543151,-0.819214
-0.128362,0.493429,0.562983,-0.497461,-0.532210,-0.685044
-0.134462,0.391269,0.543536,-0.498549,0.864893,0.058390
-0.137830,0.372087,0.576741,0.741844,0.513256,-0.431551
-0.143121,0.284103,0.566323,0.769680,0.412699,-0.487106
-0.145848,0.285631,0.610286,0.065239,-0.423513,0.903538
-0.143121,0.441170,0.749079,-0.296280,0.133260,0.945759
-0.148575,0.356792,0.740105,0.973377,-0.126637,0.191053
-0.154513,0.259221,0.721592,0.970842,-0.123067,-0.205721
-0.158840,0.202924,0.730169,0.694742,0.509086,-0.508099
-0.164777,0.102986,0.712307,-0.947519,0.314778,-0.055879
-0.166060,0.132874,0.773028,-0.370438,0.151928,-0.916348
-0.168463,0.136904,0.815489,-0.195703,0.959163,-0.204220
0.031718,0.203764,-0.203453,0.960320,0.278073,-0.021469
0.021453,0.470353,0.238745,0.458026,0.853132,-0.249755
0.011829,0.221138,0.119937,-0.196407,0.860957,0.469231
0.009744,0.601010,0.562530,-0.976113,0.113489,0.185266
0.004129,0.517055,0.554378,0.635328,-0.568535,-0.522616
-0.000845,0.436164,0.546451,0.784304,-0.620120,0.017829
-0.003571,0.434773,0.589366,-0.072166,0.096481,0.992715
-0.010630,0.295777,0.546678,0.947272,0.133972,0.291078
-0.013674,0.288133,0.585177,0.916084,-0.393159,0.078844
-0.013195,0.402806,0.700871,-0.832501,0.022515,0.553567
-0.016401,0.387375,0.734925,0.734020,-0.620156,-0.276805
-0.022178,0.293410,0.720262,0.884530,-0.401421,0.237630
-0.024904,0.288549,0.758336,0.674262,0.724624,0.142445
-0.030195,0.203619,0.747522,-0.069478,0.259769,0.963168
-0.031801,0.238648,0.810847,0.215021,-0.975557,0.045321
-0.036295,0.172204,0.811215,0.276923,0.783479,-0.556305
-0.040461,0.129260,0.826926,0.862898,-0.039890,0.503802
-0.056987,-0.394613,0.516360,0.967091,-0.231732,-0.105045
-0.045757,0.045442,0.818518,0.782199,0.316596,-0.536594
-0.051852,-0.056582,0.799722,0.908512,-0.314565,0.275054
-0.058108,-0.168745,0.773622,0.927878,-0.341050,0.150759
-0.061637,-0.205580,0.791428,0.961421,-0.249809,-0.115171
-0.065808,-0.256177,0.802864,0.904699,-0.409577,-0.117330
0.136621,0.237401,0.211937,0.020665,0.300881,-0.953438
0.143361,0.646736,0.527740,-0.254758,0.745670,-0.615690
0.138549,0.593086,0.537647,0.616474,0.540564,0.572495
0.137105,0.659114,0.626761,0.866424,0.098955,-0.489404
0.131970,0.577935,0.618127,-0.530784,0.052942,-0.845852
0.126517,0.501208,0.614334,0.962554,-0.212124,-0.168797
0.122185,0.443112,0.622599,-0.360734,-0.454946,0.814184
0.115288,0.291187,0.571759,-0.493502,0.539943,0.681849
0.115929,0.428096,0.700078,0.219918,0.970685,0.096991
0.109835,0.317597,0.673554,-0.250776,0.503597,0.826741
0.105502,0.272982,0.690057,0.077260,0.154214,0.985012
0.100852,0.205706,0.690510,-0.430669,0.463770,0.774237
0.098287,0.233923,0.750608,0.285747,0.638285,0.714801
0.097004,0.285766,0.824180,-0.277254,0.960114,0.036213
0.090264,0.141494,0.779397,0.462659,-0.536891,0.705475
0.088825,0.182911,0.843741,-0.227740,0.868253,-0.440762
0.084331,0.132595,0.853365,0.693595,0.005085,-0.720347
0.077914,0.011109,0.822793,-0.000100,0.303925,0.952696
0.075348,0.122864,0.966654,-0.620243,0.772449,0.136459
0.052410,-0.666768,0.509708,-0.454694,-0.148622,-0.878160
0.047598,-0.732516,0.514180,0.666803,0.738243,0.101836
0.043750,-0.768240,0.535949,0.951369,0.250201,0.179714
0.038454,-0.846494,0.531646,0.707208,-0.632467,0.315979
0.289970,0.395298,0.564370,0.097145,0.975073,-0.199489
0.287562,0.451587,0.643434,-0.205289,0.834958,0.510588
0.283391,0.419621,0.667779,0.821031,-0.443979,0.358876
0.279862,0.417814,0.708825,-0.349693,-0.567719,0.745258
0.273606,0.266033,0.658522,0.470008,0.503449,0.725004
0.269279,0.228918,0.679215,0.514953,0.842833,0.156383
0.263179,0.092984,0.639556,-0.644511,-0.412692,0.643654
0.260615,0.148298,0.714459,-0.072162,0.978743,0.191976
0.254040,-0.007377,0.661778,0.610078,-0.752306,0.248677
0.255323,0.215437,0.837286,0.730973,0.221335,-0.645515
0.250511,0.132458,0.827549,0.741283,0.561546,0.367647
0.244411,-0.001261,0.790465,0.870721,0.468530,-0.149415
0.240887,-0.002228,0.830917,-0.875393,0.483186,-0.014781
0.236075,-0.075068,0.829134,0.403756,-0.902359,0.150764
0.307774,0.783654,0.679300,-0.587661,0.307618,-0.748349
0.297024,0.378060,0.462717,0.919267,0.220372,0.326165
0.298469,0.671763,0.697361,-0.709398,-0.467380,0.527551
0.472025,0.359710,0.436985,0.378636,0.745055,-0.549116
0.467375,0.310513,0.452073,0.072085,0.987764,-0.138294
0.463043,0.303701,0.492298,-0.763444,-0.350709,0.542362
0.459357,0.356656,0.571702,-0.487759,-0.866864,-0.103138
0.455025,0.354153,0.615154,0.893323,-0.179803,-0.411880
0.447966,0.073938,0.484938,0.906504,0.025902,0.421403
0.442836,-0.004034,0.479956,-0.277800,0.940382,-0.196237
0.441710,0.226695,0.665033,-0.232459,0.408905,0.882473
0.438180,0.255327,0.725895,-0.483508,0.643146,0.593788
0.432727,0.139958,0.696993,0.171739,0.578913,-0.797098
0.426471,-0.047819,0.626393,-0.074899,-0.465431,0.881909
0.422139,-0.065337,0.658890,0.766319,0.535305,0.355252
0.416686,-0.156791,0.647001,-0.286713,0.957984,0.007831
0.412515,-0.196825,0.663957,0.834418,0.270544,-0.480159
0.407546,-0.289679,0.649803,0.992198,-0.099209,0.075500
0.403053,-0.337628,0.663901,0.804758,0.127987,-0.579641
0.385729,-0.704995,0.575665,0.301077,0.674710,0.673884
0.702048,0.330942,0.397863,0.803302,-0.356459,-0.477120
0.696751,0.352490,0.458782,-0.261507,-0.240190,0.934838
0.686486,0.319124,0.530033,0.685058,0.215308,-0.695943
0.681674,0.309537,0.567711,-0.519968,-0.385721,0.762137
0.672050,0.029179,0.480947,0.925988,-0.377546,-0.002443
0.667238,0.047393,0.536062,-0.612852,0.749237,0.251108
0.662427,-0.043373,0.524909,0.921926,0.068440,-0.381272
0.657453,0.277707,0.764649,0.262403,-0.944578,-0.197274
0.889076,0.481196,0.482532,-0.428664,0.600345,-0.675154
0.883946,0.456457,0.511519,0.904656,0.106703,0.412568
0.873999,0.373199,0.548631,0.718934,-0.364313,-0.591954
0.868546,0.333308,0.567031,0.893312,-0.418424,0.164057
0.093314,0.222250,-0.307626,0.740309,-0.658025,0.137647
0.065083,0.182495,-0.372168,0.986556,0.146876,0.071655
0.127481,0.224608,-0.502412,0.085252,0.993191,-0.079394
0.056742,0.183471,-0.496383,0.248921,-0.965507,-0.076384
0.042624,0.189443,-0.522313,-0.550468,0.827759,-0.108629
-0.014957,0.193753,-0.636082,0.407585,0.833761,-0.372446
0.141755,0.195840,-0.481294,-0.667529,0.662252,0.340333
0.468658,0.169015,-0.234025,-0.410020,0.893432,-0.183477
-0.623692,0.066846,0.743248,-0.348576,0.934910,-0.066623
-0.719294,-0.048930,0.561624,0.832999,-0.257491,0.489706
-0.730361,0.085756,0.566776,-0.424868,0.551157,-0.718132
-0.615512,0.057124,0.539318,0.756788,0.125121,0.641574
-0.621924,0.376669,0.585346,-0.382221,0.923003,-0.044404
-0.635078,0.378756,0.563464,0.018683,0.866611,0.498635
-0.651603,0.260613,0.514237,0.905561,-0.354529,0.232954
-0.660263,0.475774,0.537987,0.836322,0.369297,-0.405197
-0.673254,0.508716,0.521767,0.475996,0.856778,-0.198389
-0.493765,0.213070,0.774132,0.734581,0.480491,0.479082
-0.508362,0.091177,0.727140,-0.442729,-0.539674,-0.716061
-0.521833,0.064208,0.699484,-0.403561,0.213237,-0.889757
-0.542368,0.356240,0.716723,0.784617,-0.111651,0.609845
-0.605726,-0.096056,0.528731,-0.266839,-0.387394,-0.882453
-0.690579,0.191250,0.075720,0.527812,0.168908,-0.832397
-0.249948,0.241567,0.855404,-0.004252,0.995938,0.089938
-0.261980,0.241846,0.834342,-0.255684,-0.933170,-0.252623
-0.291493,-0.100782,0.719469,0.828786,-0.063686,0.555930
-0.301278,0.083669,0.736312,-0.015468,-0.757669,0.652456
-0.312988,0.173180,0.732321,-0.307140,-0.250088,0.918216
-0.329670,-0.068391,0.658692,-0.106337,0.915519,0.387966
-0.340258,0.092289,0.669874,0.930068,0.069932,0.360671
-0.347635,0.443944,0.722696,0.021428,-0.635267,0.771995
-0.358864,0.517752,0.716610,-0.672477,0.619082,-0.405602
-0.379718,0.046137,0.592678,-0.462139,0.886775,0.007552
-0.387418,0.335387,0.632734,-0.562780,-0.804907,0.188159
-0.397042,0.528873,0.651502,0.422468,-0.733363,0.532635
-0.419016,0.048360,0.524145,0.391414,-0.755604,0.525221
-0.432331,0.055733,0.502206,0.906247,-0.315291,0.281617
-0.440187,0.315238,0.536685,-0.687136,-0.196473,-0.699459
-0.450296,0.451452,0.544045,-0.372458,0.811054,-0.451073
-0.463606,0.476470,0.526239,-0.177992,0.834948,0.520750
-0.477405,0.422404,0.491647,0.162295,-0.599090,0.784061
-0.591129,-0.341658,0.151556,0.034550,0.825146,0.563862
0.049521,0.174292,1.000000,0.948719,-0.131014,0.287693
0.037813,0.126478,0.969767,0.250372,0.954259,-0.163412
0.026103,0.164145,0.955868,-0.415803,0.893013,0.172151
0.014076,0.142876,0.929995,-0.716327,0.458772,0.525742
0.002523,0.219603,0.923767,0.644073,-0.119017,-0.755649
-0.009827,0.151496,0.889005,0.530208,0.562579,-0.634337
-0.021698,0.099237,0.857272,0.185389,-0.364949,0.912383
-0.034528,0.056980,0.826246,0.984694,0.061310,-0.163152
-0.045278,0.171517,0.828539,0.351203,-0.234315,0.906506
-0.057785,0.152607,0.802383,-0.171589,-0.072279,0.982514
-0.069655,0.210992,0.792192,-0.065697,0.914152,0.400012
-0.082490,0.147882,0.756637,0.902552,-0.077406,-0.423566
-0.093876,0.209456,0.747918,-0.262568,-0.188996,0.946223
-0.104626,0.334556,0.752589,0.663712,-0.226557,-0.712853
-0.116174,0.419901,0.748032,-0.077792,0.729735,0.679291
-0.129488,0.340673,0.709533,-0.104476,-0.843887,0.526251
-0.142481,0.290356,0.676016,-0.464343,-0.403534,0.788381
-0.157881,0.073107,0.606464,-0.411711,0.879233,0.239675
-0.168625,0.226975,0.616457,-0.570938,-0.369710,0.733038
-0.179531,0.332749,0.617079,0.805509,0.586648,0.083664
-0.189796,0.479804,0.626761,-0.117090,-0.976247,-0.182295
-0.207605,0.124950,0.526268,0.812852,0.361676,-0.456576
-0.216588,0.353601,0.554010,0.780316,0.464859,0.418345
-0.232786,0.133154,0.482136,-0.536707,0.749025,-0.388468
-0.241289,0.453539,0.529155,-0.389630,0.410015,-0.824667
-0.252836,0.541242,0.525079,0.683215,0.510476,0.522141
-0.266151,0.496483,0.492383,0.807943,-0.091463,-0.582119
-0.456391,0.308562,0.111614,0.138056,-0.475099,0.869035
0.190516,-0.042542,0.844109,-0.580763,-0.781651,-0.227454
0.178650,0.044746,0.839862,0.604604,0.656330,0.451315
0.167259,0.162898,0.841985,-0.608150,-0.780647,0.144031
0.155389,0.155110,0.818179,-0.227697,-0.707343,0.669194
0.143518,0.060314,0.777047,0.826881,0.561865,0.024006
0.132773,0.235314,0.791937,0.927610,-0.305861,0.214452
0.119943,0.056564,0.732094,0.966737,0.101390,0.234818
0.109032,0.184998,0.737360,-0.360819,-0.230622,0.903672
0.096843,0.157757,0.708939,0.624970,0.702894,0.339636
0.084654,0.204459,0.696115,0.468802,0.829449,0.303708
0.072783,0.277147,0.688699,0.140276,-0.579024,0.803153
0.061715,0.335803,0.679498,0.219095,-0.308230,-0.925738
0.049042,0.223641,0.633413,0.907598,-0.106621,0.406075
0.036368,0.196951,0.604624,0.064320,0.178615,0.981814
0.025300,0.279794,0.600378,0.147392,0.253702,0.955987
0.013914,0.369305,0.596641,0.775223,-0.528046,-0.346694
0.000600,0.308562,0.559869,0.106537,0.981338,0.160082
-0.010468,0.438107,0.564823,-0.589819,0.712067,0.380885
-0.112165,0.327888,0.353109,0.963450,-0.123750,0.237592
-0.124035,0.400855,0.346286,0.783065,-0.380468,0.491989
-0.142960,0.011804,0.233055,-0.540788,-0.188310,-0.819810
0.391505,0.061153,0.852771,0.943217,-0.124081,-0.308133
0.380599,0.210712,0.862481,-0.323227,-0.874699,-0.361145
0.369688,0.199725,0.838985,-0.582736,0.751482,0.309345
0.358302,-0.089796,0.756722,0.920720,0.098129,0.377683
0.347395,-0.261598,0.699342,0.245705,-0.916160,0.316669
0.335681,-0.195298,0.690453,-0.595011,0.450774,-0.665406
0.323816,0.044746,0.717742,-0.535859,-0.014729,0.844179
0.311944,-0.238666,0.635282,0.428360,0.117920,-0.895881
0.300877,0.051559,0.674516,-0.061847,-0.874662,0.480772
0.289648,0.232531,0.690935,0.064388,-0.864059,0.499255
0.278579,0.494820,0.723998,-0.273576,0.901984,-0.334038
0.266229,0.123975,0.622628,-0.475134,0.864482,-0.164070
0.254682,0.245461,0.625657,0.415485,0.663071,-0.622663
0.220195,0.433382,0.597689,0.112886,-0.858109,0.500905
0.207683,0.244765,0.534024,0.931668,0.341922,-0.122814
0.196454,0.382649,0.540733,0.179618,-0.185524,0.966084
0.474913,0.229477,0.731075,-0.219466,-0.058826,0.973845
0.464169,0.217244,0.706674,-0.411261,-0.888818,-0.202157
0.062034,0.187772,-0.097496,-0.157747,0.987401,0.012438
0.048724,0.207378,-0.119265,-0.359589,0.794433,0.489461
0.035247,0.180968,-0.151451,0.719465,0.421390,-0.552087
0.201104,0.329695,-0.067858,-0.605824,0.775984,-0.175575
0.596983,0.235450,0.705513,-0.825518,0.051014,0.562066
0.251793,0.355960,-0.073887,-0.605824,0.775984,-0.175575
0.684562,0.012220,0.544243,-0.773492,0.436444,0.459594
0.330551,0.075330,0.659739,-0.684596,-0.592006,-0.425273
0.301680,-0.100366,0.734529,-0.736199,0.274109,0.618770
0.292374,-0.164579,0.749758,-0.855582,0.091114,-0.509586
0.318201,0.185549,0.842297,0.141152,0.676083,-0.723179
0.296544,-0.016684,0.840230,-0.320542,-0.021014,0.947001
0.286441,-0.087717,0.855573,0.805962,0.576256,-0.135475
0.216343,0.046282,0.686490,0.661407,-0.214067,0.718830
0.207840,-0.010431,0.702767,-0.203536,0.179234,0.962522
0.203028,-0.028086,0.725102,-0.356256,-0.930815,0.081641
0.209446,0.077553,0.762242,0.853210,-0.139037,0.502695
0.202069,0.030155,0.780642,0.439833,-0.573730,-0.690927
0.210410,0.157061,0.821179,0.282678,0.388266,0.877122
0.200786,0.084916,0.836239,0.804524,-0.368048,0.466135
0.190036,0.006384,0.849572,0.362427,0.461314,0.809837
0.100372,0.147330,0.824378,-0.274411,0.943068,-0.187942
0.089946,0.067542,0.838475,-0.011050,0.343822,0.938970
0.098448,0.188468,0.877002,-0.520340,0.801276,0.295301
0.091067,0.175547,0.923512,-0.198841,-0.969130,0.145768
0.087381,0.173324,0.947121,-0.359015,0.867510,-0.344289
0.082246,0.148722,0.967106,0.999803,-0.013392,-0.014634
0.162927,0.480500,0.627893,0.248726,-0.965456,-0.077657
0.175601,0.648968,0.675026,-0.499721,-0.865888,-0.022742
0.107749,-0.044485,0.606804,-0.509806,0.518926,-0.686158
0.114328,0.125502,0.701380,-0.495724,0.415472,-0.762654
0.115611,0.171653,0.731981,-0.572743,0.781042,0.248875
0.106947,0.115084,0.749079,0.820843,0.569063,0.048834
0.109194,0.176378,0.781407,0.924827,-0.355083,-0.136423
0.096363,0.069493,0.791088,0.460357,0.700266,-0.545617
-0.010630,0.143996,0.926230,-0.290806,0.123789,-0.948740
0.044392,0.259357,0.605445,0.251805,0.144154,0.956982
0.032198,0.161227,0.617278,0.859002,-0.412576,-0.303144
0.033324,0.207794,0.647199,-0.067345,0.829684,-0.554156
0.035409,0.263811,0.679243,0.318319,-0.445265,-0.836906
0.031077,0.249490,0.701946,-0.620140,-0.370107,-0.691699
0.028673,0.262971,0.728273,-0.288991,0.772737,-0.565121
0.025462,0.258110,0.751089,-0.116592,0.928159,-0.353450
0.019206,0.227942,0.770508,-0.698874,-0.110790,-0.706612
0.003008,0.086308,0.776679,0.831926,0.405964,-0.378276
0.005573,0.150105,0.808214,-0.430351,0.176498,-0.885238
0.004129,0.165256,0.834456,0.237586,0.971075,0.023805
-0.008060,0.073803,0.846968,-0.634808,0.756922,-0.155202
-0.003092,0.157757,0.881787,0.842691,0.458792,0.281748
-0.018971,0.259637,0.599812,0.346213,0.053540,-0.936627
-0.024581,0.232531,0.621099,0.432992,0.414697,-0.800340
-0.042707,0.076993,0.625176,0.973920,-0.203806,-0.099714
-0.025066,0.301750,0.679442,0.077823,0.374261,0.924052
-0.032604,0.253105,0.696738,-0.604683,0.075565,0.792874
-0.026187,0.358327,0.733935,0.778508,0.165181,0.605508
-0.035331,0.293555,0.749985,-0.476475,-0.731494,0.487738
-0.052493,0.146355,0.754316,-0.445959,0.286343,-0.848014
-0.060996,0.089641,0.771471,-0.250638,-0.673738,0.695167
-0.062117,0.114940,0.799043,-0.150139,-0.442459,0.884132
-0.057143,0.201812,0.834682,-0.085015,-0.067855,0.994066
-0.076073,0.035856,0.836862,-0.504943,-0.631674,-0.588236
-0.081047,0.186389,0.615976,0.197547,0.030082,0.979832
-0.082647,0.209880,0.643774,-0.328798,0.840552,-0.430539
-0.076396,0.312320,0.680914,-0.508409,0.106527,-0.854501
-0.087782,0.220714,0.693483,0.010166,0.710161,0.703966
-0.077355,0.372223,0.737784,-0.112146,0.708116,0.697134
-0.086338,0.314398,0.754656,0.222906,0.348196,0.910534
-0.109276,0.103402,0.750693,0.766386,-0.349342,-0.539086
-0.108954,0.139406,0.778802,-0.134877,-0.282078,0.949863
-0.111362,0.153863,0.804959,-0.410913,-0.398603,-0.819919
-0.109756,0.203899,0.834399,0.101081,-0.377082,0.920648
-0.123712,0.085061,0.843458,0.935595,0.267173,0.230825
-0.068211,0.290492,0.605983,-0.343679,0.603321,-0.719644
-0.198461,0.060594,0.416433,0.502567,-0.109396,0.857589
-0.189317,0.338034,0.552481,0.839500,0.232969,0.490882
-0.188357,0.424483,0.612692,-0.534568,-0.008498,-0.845083
-0.197981,0.349563,0.627299,-0.201039,0.863949,-0.461709
-0.139274,0.223361,0.555283,0.856294,0.511944,0.068364
-0.142798,0.258661,0.609068,0.371445,0.234982,0.898227
-0.162531,0.083109,0.609521,0.079143,-0.237522,0.968153
-0.159163,0.164561,0.645076,-0.731403,0.570286,-0.373930
-0.154351,0.254352,0.681565,0.697032,0.270642,-0.664002
-0.153867,0.296328,0.711684,-0.506735,-0.500541,-0.701910
-0.146813,0.409475,0.749645,0.509865,0.053844,-0.858568
-0.160607,0.298695,0.758676,-0.019832,0.267914,0.963239
-0.186429,0.056428,0.751768,0.310956,0.825831,0.470436
-0.185949,0.096454,0.780303,0.230441,-0.968421,-0.095171
-0.177931,0.228086,0.821321,0.316988,0.707111,0.632070
-0.184343,0.193473,0.841221,0.638873,-0.543949,0.544023
-0.233109,0.009166,0.606860,-0.058962,0.681605,0.729341
-0.225247,0.140382,0.647879,0.867198,-0.363865,-0.339957
-0.210170,0.343871,0.698125,-0.121509,-0.989792,0.074481
-0.224126,0.228918,0.707608,0.874782,0.180519,-0.449632
-0.216264,0.350955,0.747126,0.932682,-0.348678,-0.092346
-0.239844,0.136488,0.743672,0.142424,0.475887,-0.867898
-0.276416,-0.226018,0.721507,-0.163754,-0.933631,0.318618
-0.240486,0.251161,0.830295,-0.315622,-0.878497,-0.358645
-0.247706,0.208209,0.848072,0.316723,-0.825186,0.467711
-0.243050,0.370976,0.466991,-0.328940,-0.475301,0.816019
-0.230382,0.558202,0.516502,0.906112,0.414706,0.083543
-0.227171,0.640069,0.552453,-0.077409,0.100378,-0.991934
-0.284116,0.038078,0.495157,-0.271684,-0.736087,0.619971
-0.259254,0.442832,0.624015,-0.555074,0.547474,-0.626231
-0.271443,0.351235,0.635480,-0.335364,0.930390,-0.148003
-0.293740,0.138847,0.631177,0.863847,-0.500605,-0.056244
-0.285080,0.282017,0.674573,0.016877,-0.738305,0.674256
-0.278340,0.395019,0.712958,0.386381,-0.259552,0.885066
-0.268877,0.538740,0.756043,-0.143316,0.863521,0.483521
-0.310099,0.119250,0.726037,0.094483,-0.677323,0.729593
-0.318925,0.066575,0.743644,0.166308,0.953654,0.250771
