0.006579,0.228230,0.182250,0.856437,-0.096020,0.507243
-0.004488,0.243335,0.200546,0.923166,0.279960,0.263412
0.014599,0.223940,0.210355,0.756802,0.534570,-0.376144
0.053952,0.181053,0.214092,0.328425,0.930786,0.160544
0.015777,0.244994,-0.111475,-0.466404,0.212300,0.858718
0.041432,0.217801,-0.104280,0.199578,-0.956807,0.211398
0.048350,0.212536,-0.090172,0.497560,0.862897,0.088554
0.078433,0.180179,-0.083792,0.124423,-0.903628,0.409848
0.040605,0.231252,-0.024013,0.858826,0.509462,0.053541
0.020686,0.256691,-0.001445,-0.290349,0.948291,-0.128225
0.050769,0.234173,0.067919,0.877702,-0.478963,-0.015280
0.057962,0.228325,0.080903,0.466969,0.755419,-0.459655
0.062664,0.225600,0.095180,0.886904,-0.398139,-0.234280
0.054226,0.237487,0.112943,0.842673,-0.247515,0.478161
0.054572,0.239634,0.128597,-0.544400,0.827023,0.140221
0.059346,0.236416,0.142818,0.332241,0.901612,0.276970
0.028499,0.274234,0.167944,0.901020,0.042469,0.431694
-0.037197,0.351918,0.202879,0.855011,0.210309,0.474053
0.113286,0.186514,0.202879,0.241574,-0.969504,0.041287
-0.010921,0.260099,-0.600165,0.022181,-0.345393,0.938196
0.126287,0.165359,-0.241292,0.936168,0.133368,-0.325273
0.165221,0.123061,-0.238397,0.897127,0.311910,0.312850
0.073938,0.239045,-0.141548,-0.537266,-0.829283,-0.153736
0.066053,0.265364,-0.026711,0.220796,0.796326,0.563128
0.069303,0.264294,-0.011618,-0.177680,0.983370,-0.037598
0.077188,0.257565,0.001254,-0.076802,0.961151,0.265123
0.088665,0.246845,0.013086,-0.628824,-0.769683,-0.110307
0.072621,0.267702,0.034193,-0.242806,0.955414,-0.168018
0.078640,0.263318,0.047627,0.876145,-0.468081,0.115193
0.074972,0.269850,0.064715,0.843159,-0.535664,-0.046348
0.089150,0.256108,0.076153,0.975640,0.202474,-0.084445
0.089011,0.258934,0.092117,0.678560,0.690280,-0.251136
0.094266,0.255132,0.105636,0.840924,0.536068,0.074016
0.152360,0.190798,0.102909,0.987663,-0.068064,-0.141025
0.134378,0.221210,0.170839,0.228756,-0.936675,-0.265162
0.158721,0.111656,-0.797630,-0.582414,0.539244,-0.608284
0.085069,0.259909,-0.366865,0.834601,-0.458428,0.305427
0.117228,0.225404,-0.361778,-0.504520,0.860171,0.074603
0.074558,0.308252,-0.132357,-0.453172,-0.891265,0.016821
0.073246,0.312053,-0.116197,0.568042,-0.811858,0.134964
0.072068,0.315658,-0.099503,0.523296,-0.846948,0.094023
0.067919,0.323071,-0.081825,-0.465986,0.883629,0.045341
0.083756,0.307276,-0.070807,0.995333,0.067179,-0.069272
0.082443,0.311274,-0.054591,0.830405,0.109208,-0.546352
0.103468,0.289732,-0.045850,0.850236,-0.446770,-0.278379
0.113425,0.280475,-0.032922,0.734817,-0.669322,0.109781
0.148557,0.242555,-0.028678,-0.178667,0.870154,0.459249
0.133758,0.261956,-0.007824,0.490470,0.849069,0.196267
0.093785,0.310590,0.021096,-0.087163,0.985297,-0.146942
0.139633,0.262735,0.037959,0.666589,-0.745248,-0.016290
0.077602,0.336225,0.072781,0.991495,-0.085429,0.098177
0.165293,0.151617,-0.976940,0.875301,-0.447700,0.182792
0.199458,0.114970,-0.971853,-0.570094,-0.103340,0.815055
0.068679,0.331352,-0.506210,-0.317915,0.808376,-0.495437
0.145028,0.272188,-0.346517,0.909645,0.310813,0.275576
0.128984,0.293242,-0.323865,0.730404,-0.630596,-0.262409
0.137835,0.285443,-0.310655,0.973150,-0.214868,-0.082521
0.137768,0.288269,-0.293624,0.957644,0.229772,0.173561
0.140119,0.288078,-0.277576,0.823462,0.563350,-0.067428
0.140879,0.289928,-0.260966,0.803494,-0.591843,0.064186
0.134032,0.300357,-0.242416,0.987510,-0.087547,-0.130997
0.144475,0.290708,-0.229938,0.938577,-0.054170,-0.340790
0.145239,0.292463,-0.213440,0.950495,-0.006974,0.310662
0.146619,0.338372,-0.365909,-0.262378,-0.963614,-0.051038
0.156095,0.330085,-0.352110,0.061554,0.978618,0.196260
0.155956,0.333012,-0.334966,0.541163,-0.824753,-0.164090
0.228570,0.266923,-0.243569,0.335887,0.918496,0.208675
0.309068,0.227837,0.084079,0.275113,-0.282290,-0.919035
0.380854,0.150254,0.093747,-0.210689,-0.357699,0.909759
0.394615,0.161171,-0.265322,0.406819,0.911782,0.056147
0.370758,0.191286,-0.240309,-0.431819,-0.894845,-0.113074
0.429746,0.125982,-0.243906,-0.364704,-0.915955,-0.167387
0.471863,0.108926,-0.044389,-0.483443,0.676567,-0.555464
0.381960,0.228426,0.094815,-0.400999,0.036459,0.915353
0.224699,0.329401,-0.977277,-0.385921,-0.046463,0.921361
0.250080,0.302892,-0.969295,0.785875,-0.099064,-0.610399
0.289774,0.259421,-0.966569,0.344061,0.050750,-0.937575
0.308515,0.240414,-0.955805,-0.262509,0.243164,0.933788
0.355128,0.189239,-0.955664,0.468123,0.212171,-0.857814
0.425669,0.113019,-0.945968,-0.432883,0.267696,0.860785
0.487907,0.195968,0.110779,0.198816,0.335151,0.920948
0.521793,0.159315,0.116034,0.042371,0.334979,0.941272
0.212665,0.255620,-0.976293,-0.151565,0.392748,0.907071
0.237493,0.229884,-0.967356,-0.605833,0.090915,0.790380
0.303053,0.200447,-0.681360,0.745541,0.655658,-0.119506
0.154019,0.378136,-0.589485,0.286336,-0.865502,0.410995
0.145028,0.403771,-0.482433,0.427855,-0.885742,-0.180001
0.179817,0.366053,-0.477739,0.627226,0.360807,-0.690222
0.191433,0.355137,-0.465176,0.779355,-0.246086,0.576236
0.168817,0.383990,-0.439573,-0.625038,0.776860,0.076262
0.174283,0.382818,-0.406915,-0.150095,0.861505,0.485057
0.303952,0.354453,-0.932843,0.577631,0.816128,-0.016659
0.305058,0.355524,-0.914406,0.924738,0.308414,0.223025
0.277672,0.394711,-0.847825,0.870831,0.472488,-0.135676
0.285279,0.388470,-0.832227,0.772061,-0.563527,-0.293870
0.285764,0.390130,-0.814605,0.987800,-0.015961,-0.154908
0.282375,0.396656,-0.795382,-0.327425,0.944401,-0.030008
0.282995,0.398221,-0.777198,-0.599835,0.770855,0.214431
0.349873,0.326188,-0.767192,0.890184,0.356949,0.283123
0.419443,0.258154,-0.703703,0.863377,0.017613,-0.504251
0.254436,0.450365,-0.623688,0.950944,-0.205412,0.231327
0.369306,0.334469,-0.544011,-0.377969,0.050881,0.924419
0.301323,0.426580,-0.415684,-0.004981,-0.747321,0.664445
0.264739,0.391885,-0.972499,-0.295996,0.172752,0.939438
0.301876,0.351722,-0.968677,0.197873,0.220289,-0.955154
0.305404,0.350163,-0.951786,0.930912,-0.067136,-0.359021
0.286591,0.469372,-0.981717,-0.160086,0.410710,0.897602
0.306025,0.449389,-0.971375,-0.490582,0.237901,0.838291
0.345445,0.406305,-0.968536,-0.300957,0.131192,0.944571
0.368542,0.382235,-0.958840,0.454923,0.501482,0.735908
0.403745,0.344220,-0.954090,-0.517789,-0.121174,0.846884
0.451324,0.291582,-0.955102,0.129963,-0.023531,0.991240
0.476426,0.265168,-0.946895,0.329230,-0.403414,-0.853736
0.588531,0.372776,0.124325,-0.147885,-0.409391,0.900294
0.299942,0.562066,-0.983179,0.873801,-0.390022,-0.290438
0.330924,0.528340,-0.977755,-0.541161,0.251502,0.802428
0.359623,0.497738,-0.971178,-0.215119,0.435291,0.874212
0.393995,0.460597,-0.966147,0.218032,-0.181862,-0.958847
0.424423,0.427949,-0.960217,-0.355551,0.136769,0.924596
0.461281,0.387691,-0.956142,0.392641,0.059321,-0.917777
0.528986,0.314391,-0.945462,-0.357042,0.247777,0.900626
0.568684,0.271117,-0.943045,0.564683,0.004657,-0.825295
0.597590,0.240122,-0.936244,-0.347115,0.295185,0.890155
0.294476,0.614508,-0.583948,0.952548,-0.290969,-0.089382
0.513773,0.377750,-0.543055,-0.056393,0.916111,-0.396940
0.451603,0.464887,-0.383560,0.094152,-0.444571,0.890782
0.409068,0.573274,0.147259,-0.068825,-0.535124,0.841965
0.338113,0.634485,-0.984697,0.698648,-0.419918,-0.579275
0.369859,0.600081,-0.978823,0.730959,0.093752,-0.675950
0.406029,0.560799,-0.974607,0.370827,-0.266540,-0.889631
0.439636,0.524539,-0.969267,0.491675,0.034860,-0.870081
0.466330,0.496173,-0.961819,-0.015901,-0.028034,0.999480
0.509417,0.448705,-0.961032,-0.349381,0.610820,-0.710515
0.533481,0.422975,-0.951814,0.307448,-0.252694,-0.917399
0.561973,0.392468,-0.944956,-0.133352,0.663639,0.736071
0.607205,0.342953,-0.944113,-0.492259,0.044189,0.869327
0.300977,0.717630,-0.590749,0.735062,0.392523,0.552820
0.585834,0.421024,-0.435498,-0.105222,-0.944395,-0.311523
0.546693,0.467225,-0.404470,-0.482507,0.689318,-0.540395
0.370066,0.703203,-0.984809,0.150538,-0.829828,0.537331
0.398558,0.672303,-0.978345,0.263218,-0.539427,-0.799834
0.470897,0.593745,-0.970700,-0.258745,-0.146542,0.954765
0.503816,0.558169,-0.964883,-0.435644,0.091012,0.895506
0.543443,0.514794,-0.961960,-0.486793,-0.611772,-0.623513
0.569858,0.486429,-0.953641,-0.460642,-0.183055,0.868504
0.599667,0.454363,-0.947317,-0.054317,0.435478,0.898559
0.637288,0.413522,-0.944141,0.347392,-0.455969,-0.819397
0.480440,0.640922,-0.388675,-0.462848,-0.333063,-0.821487
0.508240,0.667431,-0.970419,0.166259,0.947861,0.271877
0.538183,0.634972,-0.964349,-0.611293,0.214853,0.761682
0.576012,0.593840,-0.960695,0.491042,0.132034,-0.861072
0.609210,0.557681,-0.955805,-0.012728,0.712648,0.701406
0.639985,0.524443,-0.949172,-0.320713,0.356982,0.877329
0.675876,0.485554,-0.944563,-0.533376,0.149618,0.832541
0.611561,0.659733,-0.958981,0.472887,0.478181,-0.740082
0.644827,0.623378,-0.954203,-0.205721,0.211048,0.955582
0.668823,0.597933,-0.945574,-0.281403,0.197030,0.939144
0.715917,0.545884,-0.945462,-0.137952,-0.056056,0.988851
0.422693,0.894052,-0.632513,-0.408462,0.835811,-0.366849
0.741298,0.616161,-0.940038,-0.224663,0.062097,0.972456
0.502499,1.000000,-0.630321,-0.442793,0.853661,-0.274220
-0.437270,0.233394,0.799603,-0.100918,-0.271326,0.957182
-0.278831,0.114678,0.743281,0.983161,0.054779,0.174335
-0.327862,0.172766,0.769699,-0.090141,-0.591800,0.801029
-0.366455,0.218675,0.793364,0.265852,-0.456937,0.848841
-0.324545,0.236321,0.770992,-0.585148,0.316680,-0.746536
-0.323300,0.236808,0.784680,0.792930,-0.261050,0.550558
-0.462579,0.321215,0.310099,0.367099,0.037624,0.929421
-0.354353,0.276965,0.313500,-0.510043,0.217520,-0.832191
-0.180769,0.136119,0.656099,0.977978,-0.120120,0.170673
-0.158778,0.113310,0.664250,0.953853,-0.152537,0.258646
-0.169356,0.185247,0.680747,0.993296,-0.084689,0.078676
-0.204626,0.227742,0.704075,0.928837,0.350613,-0.119718
-0.126340,0.165264,0.864750,-0.733312,0.279829,0.619636
-0.209814,0.237975,0.283118,0.321647,-0.113590,0.940022
-0.325444,0.377065,0.361868,-0.705677,0.171691,0.687417
-0.124753,0.156198,0.362487,-0.695386,0.717680,-0.037071
-0.097295,0.133680,0.414228,0.971857,-0.176848,-0.155625
-0.086160,0.123251,0.425498,0.973884,-0.042211,0.223086
-0.088583,0.127933,0.440506,0.971233,-0.081524,-0.223740
-0.078208,0.118474,0.452507,0.401131,0.911784,-0.088003
-0.087477,0.131051,0.469342,-0.668081,0.499349,-0.551651
-0.092179,0.158827,0.247847,0.823136,0.417043,0.385385
-0.051793,0.114774,0.250601,-0.683761,-0.707552,-0.178441
-0.289620,0.394318,0.365044,-0.589369,0.340850,0.732438
-0.096603,0.177835,0.338907,0.998213,-0.056428,-0.019670
-0.067697,0.147036,0.345764,0.623517,0.270167,-0.733646
-0.097780,0.183683,0.368951,0.328113,-0.930852,0.160799
-0.059813,0.142455,0.372576,-0.663490,-0.396310,-0.634602
-0.074544,0.161463,0.391772,0.838101,0.194273,-0.509749
-0.072539,0.161463,0.405684,0.938428,0.261701,0.225533
-0.068664,0.166139,0.463721,0.820942,0.382268,0.424176
-0.223785,0.367612,0.662873,0.564949,0.822858,0.061132
-0.215901,0.362936,0.689319,0.884137,0.282826,0.371902
-0.170187,0.317122,0.719083,-0.605307,0.017378,0.795803
-0.146604,0.292267,0.726699,0.773687,-0.157080,-0.613787
-0.168663,0.379403,0.736283,0.501137,0.475738,-0.722866
-0.129315,0.336712,0.739964,0.626291,0.484007,-0.611144
-0.397297,0.557485,0.254058,0.107486,0.574379,0.811502
-0.002204,0.119938,0.240174,-0.816518,0.273423,0.508466
-0.035192,0.162438,0.280729,0.883596,0.356782,0.303257
-0.058981,0.192065,0.302426,0.997649,0.062033,-0.029131
-0.046673,0.180470,0.313500,0.969113,-0.176008,-0.172745
-0.042663,0.178227,0.327496,0.008461,-0.980697,0.195348
-0.054832,0.194213,0.345511,-0.037490,0.969942,-0.240430
-0.059192,0.201423,0.361897,0.532722,0.820072,0.209019
-0.069424,0.215653,0.379968,0.825764,0.510695,0.239386
-0.068111,0.216338,0.394555,0.757752,0.483680,0.438024
-0.028071,0.172576,0.397646,0.766944,0.423266,0.482331
-0.119633,0.279987,0.437892,0.524276,-0.234610,0.818592
-0.157533,0.325409,0.463327,-0.741631,-0.641831,-0.195029
0.021306,0.127541,0.457650,-0.022128,-0.603815,0.796817
-0.183673,0.385739,0.670208,-0.330523,-0.819825,0.467591
-0.234228,0.445689,0.697020,-0.489663,-0.562067,0.666567
-0.016590,0.204058,0.258920,0.049130,0.849286,0.525642
-0.023090,0.213607,0.275558,0.971737,0.233550,-0.034363
-0.057601,0.255715,0.301049,0.999906,-0.005440,0.012585
-0.060779,0.261563,0.317154,0.644852,0.265265,0.716799
0.032994,0.156590,0.305293,0.894664,0.389603,0.218599
0.080160,0.121306,0.411024,0.298408,0.406821,-0.863394
-0.249926,0.531559,0.714276,-0.605078,-0.555914,0.569948
-0.141902,0.417222,0.742607,-0.076245,-0.560963,0.824322
-0.317977,0.533510,0.244502,0.031597,0.178975,0.983346
-0.275307,0.486625,0.246048,0.034734,-0.060693,0.997552
-0.022052,0.203666,0.215498,-0.288380,-0.943626,-0.162501
-0.020254,0.203470,0.229719,0.689436,0.715104,0.115342
-0.030422,0.217212,0.247594,0.736626,0.513193,-0.440471
-0.107944,0.368974,0.277666,-0.622372,-0.778784,0.078408
-0.075443,0.334279,0.282725,0.762239,0.643719,-0.067950
-0.091694,0.354941,0.302089,0.856381,0.384467,0.344669
-0.225237,0.510600,0.356444,0.602919,-0.266960,0.751812
0.011974,0.256887,0.405797,0.431418,0.290545,-0.854086
0.132998,0.129879,0.446071,0.018731,-0.411143,0.911378
-0.234435,0.576397,0.716356,-0.471679,0.334833,0.815724
-0.197780,0.536526,0.720460,-0.708450,-0.073371,0.701937
-0.054144,0.373853,0.222833,-0.746686,-0.603363,-0.280023
-0.074751,0.413813,0.333988,-0.425842,0.804054,-0.414917
-0.183880,0.593941,0.723186,-0.595783,0.653591,0.466757
-0.149023,0.622789,0.745445,-0.486977,0.702063,0.519578
-0.143768,0.556902,0.358917,0.943235,-0.201643,0.263908
0.057337,0.344904,0.419624,-0.915392,0.347701,0.202882
0.291779,0.199965,0.231714,-0.061631,0.529158,0.846282
0.329194,0.191970,0.447645,0.237637,-0.783471,0.574197
0.635557,0.387304,-0.931943,-0.544740,0.516815,0.660425
0.429818,0.148987,-0.950043,0.148700,0.159355,-0.975958
-0.191419,0.040987,0.652895,0.935210,0.022876,0.353353
-0.230560,0.070714,0.689572,0.750252,0.582053,-0.313586
-0.336646,0.092649,0.760172,0.352588,-0.152129,-0.923330
0.092054,0.204838,-0.167882,0.703251,0.709891,-0.038640
0.055678,0.199180,-0.127523,-0.337894,0.895059,0.291028
0.055610,0.175984,0.088098,0.958688,0.114750,0.260288
0.077669,0.172671,0.122527,0.227840,0.973517,-0.018817
0.036523,0.167406,0.162857,-0.124840,0.929800,0.346247
0.055678,0.261176,-0.129294,0.981502,-0.124613,0.145349
0.021517,0.255620,-0.089329,-0.468397,0.402683,-0.786416
-0.285678,-0.017785,0.680354,-0.503980,0.856782,0.109219
0.395793,0.665093,-0.985343,0.672846,-0.237713,0.700551
0.680093,0.641112,-0.950999,0.332941,-0.088318,-0.938803
0.554920,0.624544,-0.962409,-0.313877,0.235522,0.919789
0.426635,0.607880,-0.974438,0.146959,0.558401,0.816451
0.701532,0.597445,-0.948076,-0.499980,0.187559,0.845483
0.585695,0.581948,-0.961060,0.304360,0.082139,-0.949009
0.448420,0.564600,-0.970335,0.291659,0.529650,0.796496
0.326083,0.548418,-0.983263,-0.250917,0.306233,0.918293
0.618129,0.519083,-0.952545,-0.290463,0.271329,0.917612
0.485349,0.502122,-0.963927,-0.498811,0.371138,0.783227
0.342473,0.484287,-0.973427,0.019488,0.835143,0.549688
0.592402,0.456992,-0.950043,-0.012689,0.186113,0.982446
0.471310,0.441108,-0.962016,-0.022086,0.423721,0.905524
0.331891,0.423558,-0.972077,-0.386153,-0.100128,-0.916984
0.265845,0.372193,-0.840068,0.955672,0.294413,-0.003546
0.308241,0.366542,-0.879753,-0.104426,-0.970495,-0.217336
0.348834,0.361181,-0.919465,-0.267849,0.959170,-0.090828
0.326636,0.352020,-0.947148,0.750920,0.653129,0.097683
0.273591,0.340127,-0.969998,-0.260555,-0.168311,0.950675
0.162456,0.386911,-0.592126,-0.662949,0.748518,0.014830
0.200357,0.381158,-0.630462,-0.820814,-0.544030,-0.174058
0.215637,0.374239,-0.663935,0.948981,-0.244796,-0.198770
0.222276,0.366250,-0.697576,0.842295,-0.453936,-0.290658
0.228641,0.358254,-0.731077,-0.090693,-0.972549,0.214295
0.236801,0.350848,-0.764944,0.867446,-0.175702,0.465475
0.262667,0.344999,-0.800806,0.742265,-0.664424,0.087083
0.260451,0.336130,-0.832059,0.986394,0.087220,0.139351
0.311972,0.331257,-0.873289,-0.141976,0.989083,-0.039464
0.315708,0.323261,-0.905609,0.901553,-0.081890,-0.424848
0.327881,0.316051,-0.940656,0.847417,0.312009,0.429575
0.277326,0.304647,-0.964995,0.261514,-0.698408,-0.666210
0.140051,0.347439,-0.446627,0.771318,-0.111361,-0.626632
0.156235,0.340710,-0.481140,0.452628,0.700382,-0.551899
0.163149,0.333107,-0.513124,-0.632244,-0.772214,-0.062873
0.608657,0.272872,-0.938380,-0.252277,0.275396,0.927639
0.482378,0.255911,-0.949594,-0.224740,0.285852,0.931547
0.321170,0.236808,-0.955973,-0.136803,0.062593,0.988619
0.229608,0.222281,-0.972471,-0.602623,0.068187,0.795107
0.585902,0.208830,-0.933602,0.571330,-0.365555,-0.734813
0.465089,0.192261,-0.946867,0.167446,0.435361,0.884547
0.335833,0.175110,-0.957266,-0.564659,0.012821,0.825225
0.214324,0.158536,-0.968789,0.323475,0.434012,0.840831
0.140672,0.302892,-0.382801,0.822013,-0.057680,-0.566540
0.062318,0.303183,-0.088907,0.930263,-0.004536,0.366866
0.130301,0.257666,-0.286092,0.991935,0.043041,-0.119215
0.124906,0.248992,-0.315883,0.761141,-0.571689,-0.306327
0.449940,0.118183,-0.940853,-0.308500,0.095382,0.946430
0.344406,0.102197,-0.956564,-0.137412,-0.156251,0.978112
0.219026,0.085337,-0.968677,-0.129520,0.478738,0.868351
0.067020,0.262152,-0.006475,-0.251741,0.955323,0.154871
0.068265,0.227647,-0.131739,0.953677,0.136052,0.268309
0.550977,0.063213,-0.936553,-0.522324,0.467741,-0.713019
0.409760,0.044889,-0.945125,-0.566044,0.050626,0.822819
0.294269,0.028606,-0.958981,0.025794,-0.288400,0.957163
0.477118,-0.007749,-0.937396,0.627548,0.534017,-0.566576
-0.110228,0.302404,0.430023,0.805554,0.520377,0.283355
0.025941,0.228230,0.108081,0.932255,-0.313218,0.181093
0.014046,0.219068,0.078570,0.079111,-0.395881,0.914888
0.056370,0.214291,0.042736,-0.548209,-0.607103,-0.575233
0.021239,0.203279,0.017498,-0.477409,0.476213,-0.738446
-0.175442,0.308157,0.709302,0.664469,0.567148,-0.486646
-0.045913,0.191874,0.242310,0.729533,0.614907,0.299449
-0.044807,0.183005,0.212490,-0.647356,-0.747871,-0.147037
0.002637,0.178227,0.176404,0.306248,-0.526107,0.793362
-0.406563,0.166918,0.787153,0.004626,-0.575180,0.818014
-0.139205,0.099568,0.458465,-0.651790,0.757589,-0.035072
-0.082289,0.095082,0.421985,0.779372,0.403425,0.479404
-0.406356,0.101323,0.776304,-0.450180,0.412709,-0.791839
-0.088304,0.044592,0.470241,-0.526584,-0.631940,-0.568649
-0.295707,0.040011,0.728666,-0.313848,-0.528833,0.788565
-0.297019,0.030362,0.698622,0.457415,0.795616,0.397198
-0.269980,0.023930,0.666414,0.445842,-0.769871,-0.456644
-0.205179,0.019933,0.629624,0.532493,-0.846251,-0.017612
-0.261614,0.006583,0.606410,0.025385,0.721447,0.692004
-0.160644,0.004828,0.565011,0.259265,0.923414,-0.283000
-0.278557,-0.010087,0.695306,-0.765422,0.511608,0.390367
0.689156,-0.374918,-0.644514,-0.346180,0.304599,-0.887344
0.621105,-0.472002,-0.651653,0.204573,-0.473094,0.856932
0.037076,-0.381545,0.147821,0.509197,0.845283,0.161914
0.106646,0.337397,-0.190394,-0.855914,-0.040731,-0.515511
0.124007,0.307181,-0.225244,0.904173,0.426696,0.020049
0.163702,0.367517,-0.409332,-0.657428,-0.241063,0.713917
0.156855,0.359813,-0.442608,0.931987,-0.348853,-0.098495
0.194684,0.415568,-0.477542,0.804042,0.558658,0.203513
0.176563,0.418787,-0.508065,-0.510166,0.850700,-0.126648
0.363565,0.056972,-0.945940,-0.724852,-0.588083,-0.358815
0.263220,0.139921,-0.966035,0.385217,-0.126179,-0.914159
0.232997,0.412546,-0.549716,-0.486182,0.856125,0.175148
0.233479,0.397435,-0.584398,-0.205881,-0.944391,0.256396
0.240051,0.376482,-0.619810,-0.482121,-0.866532,0.129162
0.375945,0.109021,-0.947148,0.353697,-0.344402,-0.869647
0.260729,0.208152,-0.964939,0.203730,-0.013853,0.978929
0.254090,0.433987,-0.817725,0.868187,0.481921,-0.118336
0.352291,0.322583,-0.867274,-0.184425,0.982846,0.001298
0.448905,0.198014,-0.950830,0.896240,0.298555,-0.328053
0.314948,0.315171,-0.965529,0.662913,-0.449079,-0.599062
0.259898,0.394514,-0.701033,-0.103841,-0.992688,0.061537
0.485835,0.082512,-0.941443,-0.501801,0.199547,0.841651
0.349320,0.202494,-0.954877,0.406137,0.388240,-0.827238
0.243580,0.292171,-0.973932,0.613516,-0.313178,-0.724926
0.524491,0.290220,-0.938464,0.503269,0.368712,-0.781519
0.325458,0.456409,-0.978851,-0.307292,-0.943879,0.121095
0.315362,0.413034,-0.891725,-0.352581,-0.915023,0.196011
0.617508,0.285348,-0.939448,-0.344204,0.345503,0.873013
0.488460,0.397049,-0.955439,-0.083740,-0.265142,0.960566
0.373662,0.596571,-0.981408,0.661024,0.133133,-0.738459
0.582305,0.654759,-0.962325,0.377363,0.095858,-0.921091
0.688324,0.564892,-0.944338,-0.027091,0.030877,0.999156
0.717922,0.633807,-0.944450,0.395667,0.329111,-0.857400
-0.101030,0.018178,0.449387,0.982807,0.178149,-0.048503
-0.112858,0.014085,0.478054,0.596129,0.793203,-0.124339
-0.101237,0.013793,0.502281,0.036968,0.845466,0.532748
-0.167904,0.002876,0.539913,0.619218,0.765240,-0.176000
-0.181943,-0.000830,0.567766,-0.264009,-0.921759,-0.284008
-0.287269,-0.017493,0.613324,0.233241,0.265136,0.935576
-0.185953,-0.007945,0.645813,0.985923,-0.135831,0.097492
-0.261681,-0.020028,0.685525,0.316397,-0.860535,-0.399215
-0.813897,-0.104732,0.908145,0.428266,0.440270,0.789146
-0.022123,0.105023,0.228538,-0.688883,-0.343516,-0.638308
-0.025302,0.100442,0.281910,-0.700711,-0.703354,-0.119574
-0.188722,0.103762,0.682883,-0.896192,0.439166,0.063039
-0.223021,0.038357,-0.598675,0.962228,0.191594,-0.193415
-0.132633,-0.041278,0.515771,-0.689440,-0.259696,-0.676188
-0.108637,-0.040398,0.537637,0.536423,0.828493,-0.160776
0.045307,-0.031432,-0.585578,0.225338,-0.862535,0.453052
0.345858,0.081631,-0.955355,-0.151566,0.323651,0.933958
-0.062856,-0.121788,-0.217628,0.369854,0.138416,0.918721
-0.348195,-0.355524,0.851092,0.481785,0.654344,0.582853
-0.281735,-0.337099,-0.583667,0.808653,-0.157349,0.566852
0.789223,-0.445392,-0.655728,-0.372241,0.095051,-0.923256
0.386456,0.697260,-0.375184,-0.101695,-0.125089,-0.986920
0.373869,0.692971,-0.992453,0.142663,-0.705287,0.694419
-0.205179,0.473662,0.712675,0.943997,0.326386,-0.048402
0.576223,0.650280,-0.960330,-0.070759,0.411528,0.908646
0.338113,0.562554,-0.980340,-0.581390,-0.058057,0.811551
0.442819,0.575029,-0.976827,0.761895,0.581108,-0.286059
0.510798,0.582144,-0.962971,-0.445697,0.041578,0.894218
0.704440,0.603882,-0.950268,-0.488551,0.080646,0.868800
-0.228416,0.349872,0.694968,0.988019,0.093390,-0.122872
0.332929,0.499296,-0.980959,-0.297006,-0.143629,0.944012
0.435972,0.511480,-0.975815,-0.634646,-0.155932,0.756908
0.497105,0.517715,-0.960330,-0.183473,0.234745,0.954585
0.667371,0.536140,-0.942230,-0.219391,0.150860,0.963903
-0.229041,0.290315,0.694181,0.986423,0.157275,0.047263
0.251739,0.425021,-0.984331,0.841071,-0.532951,0.092539
0.523178,0.455921,-0.961735,0.307866,-0.279152,-0.909556
0.617302,0.466350,-0.954146,-0.667488,0.400690,0.627621
0.676151,0.472293,-0.939138,0.918561,-0.131485,0.372769
0.204227,0.382039,-0.539739,-0.724412,-0.027831,-0.688805
-0.169702,0.232519,0.714867,-0.703591,0.346426,-0.620443
0.270066,0.345874,-0.961931,0.777227,-0.545935,-0.312846
0.284033,0.338372,-0.847572,0.835036,0.540198,0.104411
0.280716,0.335445,-0.818456,0.840714,-0.533938,-0.090054
0.260244,0.330478,-0.785208,0.066495,0.997535,-0.022390
0.234589,0.324332,-0.749823,-0.799730,-0.584296,0.137953
0.230786,0.319168,-0.691674,0.757818,-0.598840,0.259042
0.238459,0.318097,-0.664384,0.416883,0.893622,-0.166277
0.220064,0.313416,-0.630967,-0.557453,0.470729,-0.683857
0.201256,0.308353,-0.598900,-0.151472,-0.988352,0.014680
0.223314,0.309323,-0.576163,0.582592,-0.283446,-0.761738
0.124282,0.293147,-0.525012,0.119176,-0.777460,0.617538
0.177255,0.298019,-0.509273,0.357173,0.843913,-0.400299
0.174212,0.293337,-0.451321,0.583615,0.805113,-0.105770
0.157269,0.289048,-0.418972,0.885222,0.349417,0.307066
0.128431,0.282522,-0.385302,0.910119,-0.362904,0.199962
0.037076,0.117796,0.163869,0.234469,0.633111,0.737695
0.000767,0.164776,0.203413,0.479117,0.874583,-0.074508
-0.007599,0.161171,0.232023,0.848552,0.514745,0.122464
0.327949,0.291487,-0.898021,0.866834,-0.468745,0.169932
0.216400,0.266245,-0.754826,0.969280,0.216524,0.116676
0.252152,0.269071,-0.733804,0.394867,0.902374,0.172630
0.270893,0.269654,-0.710111,-0.189179,-0.978499,0.082162
0.090742,0.240122,-0.611491,-0.228713,0.880987,-0.414188
0.188943,0.244507,-0.519644,0.565355,0.701241,-0.434321
0.114738,0.214487,-0.253321,0.675645,0.681630,0.280863
0.127051,0.214196,-0.227914,0.626515,0.692665,-0.357345
0.120825,0.210977,-0.199612,0.659525,0.657954,-0.363486
0.088112,0.191387,-0.001922,0.977279,0.062385,-0.202569
0.091434,0.189435,0.024974,-0.232978,0.972477,-0.003021
0.055885,0.182612,0.059656,0.747508,0.400896,-0.529636
0.030504,0.176764,0.092005,-0.627603,0.289850,0.722566
0.061765,0.179203,0.111903,-0.368171,-0.929536,0.020337
0.062664,0.177448,0.137928,-0.253591,0.949282,-0.185890
0.060245,0.174717,0.165583,0.480733,-0.762803,-0.432467
-0.160297,0.162337,0.684935,0.969640,-0.211025,0.123557
0.194962,0.168578,-0.966428,0.089336,0.116259,0.989193
0.489152,0.202202,-0.948835,0.103365,0.069985,0.992178
0.545309,0.207467,-0.933517,0.524902,0.472940,-0.707677
0.257825,0.141771,-0.547917,-0.212234,-0.177434,0.960976
0.232651,0.231448,-0.970672,0.475400,-0.154210,-0.866149
0.308929,0.239831,-0.959233,-0.427641,0.222882,0.876040
0.602710,0.273550,-0.941078,0.225862,-0.398080,-0.889111
0.173798,0.116624,-0.980200,-0.379374,-0.270149,0.884927
0.235142,0.123061,-0.966372,0.151125,-0.375871,-0.914266
0.305611,0.130367,-0.953669,0.436854,0.863209,-0.253041
0.266470,0.109610,-0.963618,-0.527955,0.244662,0.813267
0.201045,0.102976,-0.967946,-0.311336,0.220427,0.924382
0.143095,0.096254,-0.975225,0.606857,0.724285,0.327317
0.514740,0.063700,-0.928374,0.007282,-0.167673,0.985816
0.402086,0.050541,-0.944141,0.787694,-0.210385,-0.579030
0.343853,0.043913,-0.951252,0.250209,-0.427117,-0.868888
0.284380,0.037673,-0.956704,-0.243921,-0.211473,0.946457
0.054918,0.104345,-0.255401,-0.586724,0.681298,-0.437708
0.513081,0.070227,-0.238032,0.156103,0.509114,0.846425
-0.069150,0.046936,-0.125612,-0.642748,0.326993,-0.692784
0.233618,0.038357,-0.272714,0.618335,0.760309,0.198979
-0.005180,0.076176,-0.023816,0.841902,-0.527870,-0.112045
-0.100338,0.104732,0.429770,0.990407,-0.117409,0.072861
-0.094116,0.099663,0.404757,0.788710,-0.221621,0.573429
-0.049994,0.088943,0.344949,0.855594,0.482081,0.188565
0.012109,0.079198,0.281320,0.981889,0.189435,-0.002956
-0.404629,0.051517,0.313134,-0.645601,0.740729,-0.185793
-0.216107,0.020813,0.115332,-0.769911,0.466751,-0.435179
-0.491974,0.006969,0.153442,-0.248524,-0.559558,0.790652
-0.032359,0.006095,-0.014429,-0.797765,0.588898,-0.129501
0.031196,-0.022074,-0.157033,-0.618549,0.239128,-0.748475
-0.253383,0.016815,0.347310,-0.072162,0.963723,0.256965
-0.430491,0.009212,0.377944,0.016247,0.916448,0.399823
0.274561,-0.003263,0.071010,-0.089513,-0.265143,0.960045
0.411976,-0.018957,-0.044304,0.007290,-0.097406,0.995218
-0.212232,-0.031920,0.125646,0.559004,-0.549866,0.620615
-0.089828,-0.046930,0.015334,0.862857,-0.504868,-0.024215
-0.192111,-0.054146,0.023119,-0.506046,-0.460624,-0.729207
0.099319,-0.074225,-0.167067,0.649029,-0.152700,0.745281
-0.131806,-0.082119,-0.116759,-0.682991,0.697594,-0.216530
-0.261403,-0.152884,-0.091914,-0.508596,0.128170,-0.851412
-0.307255,0.110972,0.765990,0.327270,-0.354858,0.875768
-0.367075,0.104637,0.761324,0.122535,-0.154370,0.980385
-0.249787,0.096641,0.684092,0.913270,0.293047,0.282952
-0.266038,0.091382,0.666273,-0.731860,0.413080,0.541983
-0.167629,0.066526,0.527688,0.410863,0.876489,-0.250917
-0.303866,0.043521,0.749970,0.495953,-0.847919,-0.187257
-0.262234,0.039231,0.717087,0.861210,0.009425,0.508163
-0.247503,0.034455,0.690584,0.409593,0.722903,-0.556457
-0.271639,0.029195,0.675885,-0.700134,0.476664,0.531605
-0.224060,0.024323,0.640079,0.140868,0.898834,-0.415034
-0.167211,0.020034,0.601351,-0.135735,-0.959613,0.246414
-0.050754,0.000538,0.478363,0.857123,0.476251,0.196277
-0.090309,-0.016226,0.421310,0.905224,-0.423071,0.039755
0.364532,-0.088842,-0.046750,0.233413,-0.687414,0.687735
-0.173505,-0.117207,0.024918,-0.453830,-0.203389,-0.867566
-0.304972,-0.124519,0.043074,0.151092,-0.071947,0.985898
-0.080420,-0.147910,0.265890,-0.242214,-0.957108,-0.158987
0.389427,-0.189822,-0.068868,0.437560,0.603659,0.666436
-0.068525,-0.205808,0.024890,0.413039,0.331292,0.848319
-0.168803,-0.212239,0.031916,0.919742,-0.015268,0.392225
0.420620,-0.238266,-0.278363,-0.044762,-0.118154,0.991986
-0.241902,-0.248600,-0.089581,0.594368,0.334382,0.731379
-0.058500,-0.265263,-0.222630,0.990287,0.045759,0.131292
-0.210920,0.002585,0.927677,-0.376328,0.841268,-0.388130
-0.378350,-0.011157,0.929842,0.410967,-0.801378,0.434625
-0.782986,-0.055116,0.891422,0.935013,-0.041234,0.352207
-0.828695,-0.066229,0.860984,-0.563507,0.140578,-0.814062
-0.208915,-0.077247,0.600395,-0.013746,-0.986964,-0.160353
-0.375235,-0.085332,0.625156,0.009995,0.504420,0.863401
0.002291,-0.085236,0.494355,0.979732,0.161504,0.118495
-0.120185,-0.109021,0.439129,0.876474,-0.480660,-0.027572
-0.011541,-0.112722,0.384943,0.978240,-0.077579,-0.192426
-0.100271,-0.249087,0.283680,-0.603866,-0.195287,-0.772793
0.448627,-0.294117,-0.074883,-0.444687,0.020065,0.895461
-0.436164,-0.305718,0.177331,-0.136666,0.453871,0.880525
0.020340,-0.308930,0.010219,0.961380,0.098075,-0.257157
-0.120118,-0.315462,0.030848,0.212557,0.029075,0.976716
-0.399442,-0.336028,0.046165,-0.123095,0.332032,0.935202
-0.222747,-0.353864,-0.082302,-0.614584,0.037351,-0.787967
0.248143,-0.358546,-0.258998,-0.248116,0.915011,-0.318110
-0.057601,-0.372092,-0.210264,0.288316,-0.956464,0.045291
-0.152413,-0.100442,0.881248,0.704785,0.634730,-0.316852
-0.242455,-0.107653,0.883468,-0.037372,-0.800471,0.598206
-0.287754,-0.113501,0.874672,0.326173,0.691126,-0.644947
-0.270326,-0.118962,0.848197,0.455189,0.596337,-0.661200
-0.403106,-0.132413,0.840552,0.374215,0.442034,-0.815211
-0.436857,-0.138356,0.828804,0.208967,0.929736,-0.303189
-0.790939,-0.149374,0.905531,-0.383883,-0.169315,0.907726
-0.247849,-0.152295,0.711888,0.890930,0.166743,0.422423
-0.886510,-0.167013,0.868320,0.064409,0.118439,-0.990870
-0.077448,-0.380183,0.156421,-0.712956,0.322067,-0.622870
-0.260989,-0.387298,0.189894,-0.206483,-0.977402,0.045280
0.009483,-0.470443,-0.210995,0.869313,-0.152323,0.470205
-0.149234,-0.476874,-0.183340,0.274140,0.293012,0.915965
-0.224127,-0.544325,-0.410793,-0.329310,-0.628823,0.704369
-0.260989,-0.184367,0.949037,-0.374631,0.912216,0.165874
-0.278692,-0.190506,0.932090,0.908565,-0.365779,-0.201782
-0.305525,-0.207658,0.876245,-0.496073,-0.786716,-0.367410
-0.360921,-0.213994,0.869528,0.720636,-0.464050,0.515113
-0.316179,-0.225202,0.814358,0.741964,0.575716,0.343570
-0.296952,-0.268482,0.967193,0.444437,0.238406,-0.863503
-0.287062,-0.274330,0.942938,-0.603127,-0.706767,-0.369754
-0.222540,-0.285246,0.883019,0.092551,0.995121,-0.034185
-0.337545,-0.298501,0.870456,0.912148,0.272189,0.306430
-0.347296,-0.304159,0.852160,0.809282,-0.465147,-0.358750
-0.526899,-0.312440,0.880265,-0.663606,0.189306,-0.723734
-0.290519,-0.337004,0.944512,0.895475,-0.387117,-0.219693
-0.285749,-0.342757,0.922394,0.919989,0.013558,-0.391709
-0.315001,-0.348991,0.909325,-0.546034,0.837641,-0.014329
-0.331184,-0.355327,0.891985,0.264879,-0.921400,-0.284362
-0.373854,-0.367124,0.860900,0.451478,0.590430,0.668999
-0.520812,-0.375310,0.879309,-0.578645,-0.310920,-0.753989
-0.192592,-0.495882,0.341689,0.891667,0.397187,0.217192
-0.256354,-0.374918,0.973826,-0.663383,0.637746,0.391412
-0.284779,-0.387589,0.939032,0.764596,0.044151,0.642996
-0.385264,-0.412838,0.880040,0.897401,-0.348145,0.271047
-0.483676,-0.419661,0.885970,-0.376262,0.654256,0.656030
-0.605388,-0.427651,0.897662,0.440958,0.380711,0.812782
-0.455598,-0.468200,0.895750,0.517421,0.854904,-0.037606
-0.540938,-0.475119,0.897380,0.272074,0.410149,0.870491
-0.264239,-0.496566,0.957525,0.866835,-0.446452,-0.221985
-0.357325,-0.528144,0.875571,-0.696016,0.598692,-0.396395
-0.518183,-0.536134,0.898617,0.023088,0.266931,0.963439
-0.207670,-0.550757,0.748087,-0.548765,-0.140911,0.824015
-0.280836,-0.557872,0.746148,0.540674,0.131063,0.830960
-0.427241,-0.591503,0.889961,0.856670,0.208438,0.471879
-0.379316,-0.644426,0.883862,0.862685,0.268654,0.428485
-0.192385,-0.660120,0.768688,-0.731547,-0.583969,-0.351880
-0.148816,-0.713043,0.774899,0.604862,0.580412,0.545219
0.260523,0.876216,-0.596202,0.489647,-0.047152,0.870645
0.284447,0.859160,-0.603340,-0.440146,0.064347,-0.895618
0.517783,0.669478,-0.969801,0.136326,0.955277,0.262415
0.450564,0.662755,-0.973876,-0.151130,0.984339,-0.090755
0.384932,0.656128,-0.978514,0.258441,0.330950,0.907568
0.682237,0.624835,-0.948244,0.465028,-0.042250,-0.884287
0.622211,0.618113,-0.955102,0.149316,-0.332119,0.931344
0.551741,0.611581,-0.957098,0.267380,-0.936311,-0.227662
0.493580,0.605150,-0.963337,0.425141,0.152290,-0.892224
0.436593,0.598421,-0.971038,0.009530,0.011725,0.999886
0.373869,0.592085,-0.975478,0.358810,0.088159,-0.929238
0.324213,0.585458,-0.985596,0.596274,-0.584027,-0.550791
0.333276,0.568009,-0.659157,0.783289,-0.333146,0.524855
0.684728,0.531946,-0.942258,0.047406,-0.043953,-0.997908
0.630024,0.525223,-0.950914,0.448657,-0.269685,-0.852043
0.561492,0.518399,-0.954624,-0.140646,0.044882,-0.989042
0.496759,0.511576,-0.959683,-0.112096,0.331480,0.936779
0.435900,0.505043,-0.964855,0.401972,0.626263,0.667992
0.369652,0.498517,-0.968087,-0.143827,0.435494,0.888627
0.309621,0.491789,-0.974438,-0.297318,0.207111,0.932045
0.438045,0.641017,-0.383840,-0.603330,-0.296261,-0.740420
0.677674,0.442857,-0.936272,-0.648516,0.333866,-0.684077
0.616609,0.436039,-0.942708,-0.299742,-0.121135,0.946298
0.558655,0.429406,-0.949031,0.788666,-0.184414,-0.586513
0.482032,0.422487,-0.950128,-0.209584,0.256311,0.943599
0.426289,0.415765,-0.958306,0.288925,0.347890,0.891905
0.358032,0.409036,-0.961819,0.735428,-0.168194,-0.656396
0.304159,0.402504,-0.969351,-0.202853,0.406511,0.890842
0.246619,0.396073,-0.975563,0.895790,-0.082888,-0.436681
0.614398,0.568402,-0.386342,0.222402,-0.262689,0.938899
0.341642,0.343340,-0.896307,0.951073,0.269384,-0.151302
0.317852,0.336516,-0.915587,0.725747,-0.489115,0.483796
0.318612,0.330085,-0.942567,-0.754428,-0.542006,0.370226
0.298005,0.323362,-0.963253,0.209195,0.602724,0.770040
0.244061,0.316539,-0.971768,0.621512,-0.412579,-0.665959
0.286591,0.457968,-0.403373,0.196538,-0.653502,0.730963
0.166606,0.450757,-0.389630,0.932483,0.361059,0.010584
0.187491,0.420244,-0.524056,0.361958,0.925971,0.107540
0.183481,0.413813,-0.549098,0.971571,0.087819,0.219859
0.189775,0.407769,-0.577821,-0.608836,0.792295,0.039841
0.201391,0.400945,-0.608399,0.508592,-0.713198,-0.482373
0.213564,0.394907,-0.638162,0.253075,-0.925189,0.282803
0.224906,0.388666,-0.667813,0.804277,0.576487,-0.144229
0.235762,0.382134,-0.698279,-0.557578,0.800043,0.221445
0.239359,0.369367,-0.752437,0.236707,-0.784786,-0.572783
0.274908,0.362835,-0.792121,0.591228,-0.706152,-0.389614
0.276220,0.356208,-0.819945,0.750642,-0.645862,-0.139276
0.450286,0.349872,-0.908167,0.485597,0.250299,0.837583
0.215155,0.351335,-0.678971,0.959215,-0.161628,0.231913
0.263633,0.345095,-0.722787,-0.593925,-0.717620,0.363695
0.253123,0.338759,-0.745242,-0.162316,-0.947684,0.274861
0.247176,0.332619,-0.769216,-0.271306,-0.962267,0.020836
0.579954,0.320727,-0.940459,0.236992,-0.006882,0.971487
0.507894,0.314004,-0.942483,-0.449410,-0.296956,0.842525
0.436318,0.307181,-0.944956,-0.411193,0.141790,0.900453
0.354435,0.300357,-0.943607,-0.090688,0.980957,0.171753
0.315087,0.294021,-0.956198,0.664984,0.308489,-0.680170
0.266191,0.287590,-0.965501,-0.530262,-0.122864,0.838884
0.213564,0.280767,-0.974776,-0.225472,0.439560,0.869454
0.638255,0.447539,-0.429033,-0.350305,-0.913645,0.206248
0.157961,0.387887,-0.503006,-0.872362,0.457525,0.172207
0.175389,0.382235,-0.534230,0.280004,-0.925428,0.255305
0.194823,0.376387,-0.566242,0.889072,-0.444293,-0.110248
0.203953,0.370343,-0.595864,-0.689561,-0.017111,-0.724025
0.210934,0.364007,-0.623857,0.984052,0.172229,0.044482
0.217574,0.357767,-0.652918,0.836187,-0.535501,-0.118446
0.639154,0.412154,-0.431984,-0.328973,-0.873044,0.359961
0.590469,0.405431,-0.441259,0.219998,-0.414858,0.882889
0.336661,0.390808,-0.409219,0.336529,-0.367979,0.866798
0.257961,0.383990,-0.409247,0.193870,-0.110606,0.974772
0.160519,0.377065,-0.402868,-0.678608,-0.641400,0.357906
0.154643,0.370831,-0.426926,0.910087,-0.371490,0.183674
0.160384,0.365078,-0.453878,0.707363,-0.592919,0.384817
0.177187,0.353186,-0.510903,0.973514,0.056040,0.221653
0.187976,0.341395,-0.566354,0.546778,-0.827588,0.127008
0.229540,0.335838,-0.607134,0.794819,-0.538355,0.280066
0.186731,0.322970,-0.644851,0.958351,0.246073,-0.144950
0.196895,0.316926,-0.674137,0.908071,-0.315027,0.275981
0.632514,0.293730,-0.934867,-0.123920,0.117337,0.985330
0.556237,0.286811,-0.935878,-0.435787,-0.123162,0.891583
0.506581,0.280374,-0.945181,0.338392,-0.319600,-0.885069
0.445655,0.273848,-0.950268,-0.051414,0.209686,0.976416
0.372417,0.267120,-0.952039,0.128730,0.183370,0.974579
0.313910,0.260688,-0.957913,0.261953,-0.204410,-0.943185
0.249316,0.253960,-0.962662,0.357356,-0.189296,-0.914584
0.193578,0.247237,-0.970532,0.769116,-0.211351,0.603151
-0.177380,0.524830,0.355573,0.420553,-0.532744,0.734384
0.727465,0.361669,-0.455930,-0.280008,-0.358194,0.890670
0.129815,0.337397,-0.337327,-0.463098,0.790567,0.400680
0.135830,0.331745,-0.364139,0.618283,-0.783409,-0.063209
0.141085,0.325701,-0.391738,0.893682,-0.347207,0.284218
0.172625,0.320239,-0.427066,0.863195,0.134039,0.486752
0.554021,0.236707,-0.929583,-0.044921,0.798604,0.600178
0.511629,0.229985,-0.942539,-0.163735,0.805969,0.568863
0.433895,0.223257,-0.942595,-0.178714,0.578784,0.795657
0.371931,0.216629,-0.948385,-0.107487,0.043069,0.993273
0.311765,0.210097,-0.953641,-0.176898,0.047522,0.983081
0.271586,0.203862,-0.965979,-0.588927,0.605367,0.535440
0.202083,0.197134,-0.968874,0.096373,-0.010842,0.995286
0.161836,0.285443,-0.371053,-0.497760,0.861894,-0.096817
-0.011609,0.213119,-0.621187,-0.021275,-0.553616,0.832500
0.573180,0.191773,-0.933321,-0.123764,0.036824,0.991628
0.510106,0.184950,-0.938942,0.641430,0.250664,-0.725076
0.448834,0.178519,-0.944001,-0.150463,0.077850,0.985546
0.378297,0.171891,-0.946783,0.186538,-0.257579,-0.948081
0.322900,0.165163,-0.954933,-0.304561,0.510761,0.803969
0.286456,0.158637,-0.969745,-0.056237,0.447323,0.892603
0.210175,0.152200,-0.969155,-0.616432,-0.490652,0.615850
0.158033,0.145864,-0.977164,-0.555655,0.033089,-0.830754
-0.037129,0.345975,-0.033063,0.062263,-0.813194,0.578652
0.028085,0.329889,-0.127214,0.309976,-0.946334,-0.091469
0.091088,0.324820,-0.172519,-0.500120,-0.766133,-0.403633
0.082165,0.319168,-0.193851,0.779223,0.295248,0.552847
0.130436,0.314100,-0.233732,0.931755,-0.057475,-0.358509
0.096411,0.308157,-0.248094,-0.620219,0.750743,-0.227406
0.114945,0.303088,-0.278588,0.759502,0.539636,0.363249
0.131061,0.297043,-0.309419,0.991982,-0.064246,-0.108828
0.119786,0.290999,-0.331397,0.782821,-0.518813,-0.343546
-0.181668,0.367029,0.339806,0.267369,-0.733886,0.624440
-0.115070,0.347338,0.227218,0.759696,0.598069,-0.255293
-0.186510,0.319269,0.131408,-0.174115,0.877213,-0.447415
0.021585,0.300649,-0.029943,0.290675,0.924791,0.245498
0.052153,0.295681,-0.063388,0.982717,-0.153904,-0.102859
0.051254,0.290220,-0.086912,0.973465,-0.191364,0.125483
0.057062,0.284568,-0.113724,0.952065,-0.265214,0.152426
0.056784,0.279107,-0.137669,0.920762,0.143795,0.362657
0.094959,0.273848,-0.175049,0.905220,0.227374,0.358996
0.101185,0.268190,-0.202254,0.854103,-0.516745,0.059020
0.113565,0.262830,-0.231540,0.934479,-0.259184,-0.244077
0.116815,0.257375,-0.257031,-0.713598,0.668275,0.210205
0.136383,0.252306,-0.287947,0.988078,-0.101527,-0.115731
0.144754,0.246166,-0.316276,-0.636818,0.667697,0.385543
0.027739,0.169452,-0.610507,0.212474,-0.594796,0.775289
0.554367,0.141771,-0.930454,0.255575,0.049911,0.965500
0.496624,0.135435,-0.936862,0.621069,-0.317789,-0.716438
0.443232,0.129099,-0.944366,-0.464450,0.462831,0.755032
0.392956,0.122573,-0.954343,-0.265355,0.843087,0.467751
0.320271,0.116041,-0.955074,0.336111,0.603039,-0.723445
0.080506,0.262931,0.109739,-0.511368,0.779339,0.362123
0.060106,0.257178,0.091695,-0.800548,0.334619,0.497145
0.034100,0.251134,0.075451,0.872506,-0.212305,-0.440068
0.032787,0.245578,0.051449,0.699653,0.665064,-0.261105
0.069442,0.240997,0.016543,-0.465642,-0.788022,0.402739
0.054711,0.235732,-0.002484,0.605050,0.782094,0.149144
0.057337,0.229789,-0.027948,0.456904,0.889468,0.009229
-0.089203,0.200061,-0.103437,-0.479681,0.564195,-0.672004
0.266537,0.198698,-0.241883,0.130914,0.113221,-0.984907
0.141571,0.186217,-0.251466,0.581432,-0.759188,-0.292525
0.116882,0.180369,-0.268863,0.873590,0.486513,0.012012
-0.231252,0.367220,0.681506,0.765646,0.643076,-0.015444
-0.175096,0.322387,0.463861,-0.741631,-0.641831,-0.195029
-0.036023,0.298507,0.309453,0.769360,0.367342,0.522633
-0.049437,0.293147,0.289864,0.743587,0.516900,-0.424137
0.031960,0.220722,0.259257,0.021038,0.887129,0.461041
-0.055596,0.213803,0.261674,0.246092,0.751407,0.612230
-0.046812,0.208931,0.236267,0.627669,0.693440,0.353798
-0.008012,0.203666,0.200658,0.779480,0.580021,0.236615
0.002152,0.198210,0.173621,-0.748795,0.393168,-0.533597
0.028638,0.193041,0.141441,0.586240,0.693408,-0.418937
0.055750,0.188073,0.109964,0.500357,0.858899,0.109245
0.081544,0.183100,0.078683,0.891194,0.445556,-0.085170
0.036730,0.154544,-0.029043,-0.721321,0.667188,0.185895
0.370619,0.135923,-0.232186,0.596546,0.768999,0.229724
-0.115276,0.124715,-0.101639,-0.484159,0.398304,-0.779067
-0.326896,0.312345,0.789767,-0.759358,0.241000,-0.604396
-0.165071,0.310691,0.723073,0.818704,0.272576,-0.505398
-0.107463,0.239438,0.392812,0.889596,0.238694,0.389414
0.245513,0.211073,0.465098,-0.221273,-0.489780,0.843299
-0.064928,0.168382,0.394498,0.956314,0.220569,0.191866
-0.066385,0.163117,0.372520,0.416246,0.879747,0.229750
-0.072332,0.157465,0.350908,0.698183,0.693031,-0.179578
-0.045288,0.152688,0.320386,-0.086595,0.717522,0.691132
-0.045221,0.147131,0.296525,0.700898,0.711770,0.046105
-0.028417,0.142164,0.267829,0.957242,0.243248,0.156582
0.011835,0.137095,0.231939,0.687792,-0.600297,0.408148
0.150562,0.111555,0.072022,0.989248,0.141394,-0.037368
-0.359883,0.235345,0.790104,0.141722,-0.484925,0.862997
-0.189760,0.233882,0.722006,-0.764898,0.145224,0.627567
-0.428626,0.161171,0.788727,-0.017118,0.492163,-0.870335
-0.313756,0.148696,0.692045,-0.212141,0.501492,0.838750
-0.203520,0.145085,0.638646,0.981209,-0.016685,0.192227
-0.515903,0.083386,0.156000,0.241241,0.224189,0.944215
-0.271500,0.067692,-0.583414,-0.027918,0.971225,0.236523
-0.078486,0.076759,-0.517564,-0.645954,0.426677,-0.633001
-0.000267,0.082607,-0.536619,0.151720,-0.535080,0.831066
0.238320,0.099663,-0.564780,-0.438440,-0.027051,0.898353
0.137561,0.082607,-0.371812,-0.083470,-0.567511,0.819124
0.040740,0.069840,-0.248543,-0.503710,0.416567,-0.756801
0.166259,0.077050,-0.237386,0.846628,0.464574,0.259600
0.154850,0.074326,-0.199641,0.951767,0.070480,0.298618
0.414327,0.075593,0.080200,-0.168054,-0.381644,0.908904
0.039288,-0.023341,-0.595471,0.383267,-0.764371,0.518501
0.137975,-0.015060,-0.627820,-0.156019,0.981443,-0.111477
-0.262581,-0.057067,-0.330329,-0.090278,0.064262,0.993841
-0.331670,-0.065741,-0.253012,-0.240171,-0.875922,-0.418425
-0.123642,-0.048685,-0.326141,0.149594,0.429159,0.890755
0.193025,0.062041,-0.968649,0.782989,0.133111,-0.607626
0.234589,0.064480,-0.961622,0.231525,-0.068482,-0.970416
0.275528,0.066526,-0.955636,-0.132359,-0.130325,-0.982597
-0.225305,0.013597,-0.578889,0.946410,-0.307493,-0.098778
0.321035,0.069156,-0.952685,0.312430,-0.498488,-0.808639
0.367782,0.072083,-0.949172,-0.232265,0.305445,0.923448
0.412736,0.074908,-0.945827,-0.432506,0.231091,0.871513
0.456858,0.077443,-0.939841,0.802290,-0.338940,0.491376
0.502018,0.079876,-0.935148,-0.332357,-0.478303,0.812875
0.550218,0.082999,-0.932253,-0.502518,0.493269,-0.710043
0.171932,0.042843,-0.647184,0.126285,0.025518,0.991666
-0.267076,-0.008040,-0.230978,0.120843,0.868495,0.480742
0.315222,0.046448,-0.545304,0.087474,0.972182,0.217281
0.398625,0.051225,-0.536338,0.551878,0.792820,0.258588
0.148831,0.017791,-0.221281,0.955510,0.127525,0.265968
-0.336853,-0.033283,0.138828,-0.382914,0.046720,-0.922602
-0.063548,-0.007945,-0.001079,-0.848068,0.506053,-0.157136
0.300356,0.019546,-0.077721,-0.233882,-0.709591,0.664665
0.065981,-0.004727,0.091583,-0.704455,-0.288346,-0.648537
0.335281,0.020224,-0.040763,-0.061807,-0.878267,0.474160
-0.094458,-0.052290,-0.223137,-0.339975,-0.647198,-0.682314
-0.188996,-0.065158,-0.101414,-0.662915,0.669657,-0.334818
-0.375235,-0.085141,0.046756,0.266301,-0.246340,0.931880
0.745586,0.022467,-0.598956,-0.631342,0.558201,-0.538348
-0.228623,-0.075391,0.041444,-0.508785,-0.108581,-0.854019
0.135484,-0.039523,-0.185757,-0.800594,0.327581,-0.501737
-0.137546,-0.068180,0.013142,-0.233176,0.609254,0.757917
-0.087751,-0.065063,0.011906,0.371850,-0.428287,-0.823589
-0.057529,-0.065158,0.051730,-0.724634,0.603370,-0.332941
0.252912,-0.037863,-0.080981,-0.547536,-0.516146,-0.658633
-0.131114,-0.031528,-0.646425,-0.477738,-0.593346,-0.647848
0.404159,0.019546,-0.941780,-0.303195,0.003168,0.952923
0.457271,0.022955,-0.942314,-0.168998,0.440314,0.881796
0.493095,0.024615,-0.932646,-0.156178,0.102609,0.982385
-0.196121,-0.113798,-0.643811,0.811071,0.380158,0.444572
-0.333328,-0.129784,-0.515737,0.451019,0.499489,-0.739657
-0.301169,-0.149862,-0.097086,-0.522495,0.113730,-0.845024
-0.270465,-0.148595,-0.086350,-0.522495,0.113730,-0.845024
0.678088,-0.061065,-0.596876,0.288841,-0.497872,0.817737
-0.285125,-0.156096,0.039448,0.086120,0.394867,0.914693
-0.150061,-0.190215,-0.588613,-0.326002,0.714482,0.619062
-0.025648,-0.181345,-0.607022,-0.260802,0.787832,-0.557945
0.141432,-0.168382,-0.651091,0.927849,-0.043642,0.370394
0.101324,-0.174033,-0.590693,0.034340,-0.061588,0.997511
-0.094598,-0.199180,-0.335275,-0.799362,0.476265,-0.366321
-0.288653,-0.219651,-0.177409,0.850416,-0.129198,0.510001
-0.209814,-0.218087,-0.107091,0.750286,0.202998,0.629176
-0.268460,-0.156198,0.058532,0.310899,0.922909,-0.227114
0.115916,-0.118962,-0.181850,-0.780024,0.386115,-0.492420
-0.236440,-0.154538,0.067947,0.474928,0.693404,0.541881
0.374907,-0.106683,-0.102763,-0.464597,-0.693826,0.550232
0.078640,-0.136703,0.104877,0.989145,-0.142834,-0.034513
0.534174,-0.106873,0.088772,0.417559,0.312501,-0.853222
-0.284504,-0.268190,-0.561014,0.748525,-0.300556,0.591081
-0.364585,-0.235827,0.050241,-0.000913,0.232252,0.972655
-0.418529,-0.245381,0.172160,0.919081,-0.385545,0.081513
-0.161475,-0.222572,0.040179,0.888653,-0.002388,0.458574
0.357272,-0.173349,-0.281876,0.208266,0.004922,0.978060
0.502225,-0.160874,-0.341739,0.585308,0.581126,0.565427
0.080092,-0.211073,0.121065,0.444744,0.576707,0.685282
-0.045288,-0.268387,-0.240730,0.984947,-0.169876,0.031953
0.486248,-0.217896,-0.581615,0.659545,-0.510829,0.551412
-0.204487,-0.284759,-0.109227,0.792073,0.221126,0.568968
-0.413755,-0.306205,0.054119,0.672772,-0.329813,-0.662270
-0.478628,-0.316438,0.181547,-0.129368,0.361755,0.923254
-0.143147,-0.287781,0.029499,0.271217,-0.012813,0.962433
-0.017767,-0.278816,0.009685,0.675165,-0.521590,-0.521629
0.330367,-0.251812,-0.085703,-0.521544,0.166947,-0.836732
0.064601,-0.279303,0.131380,0.854005,-0.001907,-0.520262
0.456997,-0.244114,-0.074096,0.411539,0.368956,0.833371
0.122416,-0.276769,0.153948,-0.774709,-0.104961,0.623546
0.260105,-0.266727,0.128401,-0.391799,0.535170,0.748389
0.166606,-0.250057,-0.650360,0.869076,0.488095,-0.080443
-0.193424,-0.289923,-0.345196,-0.628608,0.768278,0.120835
-0.073852,-0.289339,-0.205992,0.984893,0.030318,0.170489
0.584728,-0.225987,-0.594290,0.721999,-0.065559,0.688781
0.425804,-0.253371,-0.275889,-0.044762,-0.118154,0.991986
-0.015897,-0.304159,0.139586,-0.270416,-0.246191,-0.930734
0.085001,-0.297627,0.136101,0.840677,-0.011320,-0.541418
0.254921,-0.285734,0.118789,-0.391799,0.535170,0.748389
-0.369359,-0.350455,-0.150429,0.258206,-0.475225,0.841125
-0.316799,-0.346749,-0.153633,0.452499,0.888463,-0.076667
-0.198818,-0.336808,-0.199107,-0.049389,0.172867,0.983706
-0.087891,-0.328913,-0.209843,-0.363598,0.100489,0.926120
