0.169984,-0.825501,0.733323,0.895195,-0.203738,-0.396380
-0.188986,0.130513,-0.207685,0.596780,0.618741,-0.510894
0.009296,-0.918527,0.387240,0.694319,0.716750,0.064731
0.709915,-0.765691,-0.939794,-0.030910,0.460831,0.886949
-0.087120,-0.249054,0.728694,-0.741540,0.463306,0.485248
0.635580,0.757145,-0.027852,0.755003,-0.634865,0.164063
-0.873265,-0.106204,0.229162,-0.424041,0.898666,-0.112197
0.122480,0.575064,-0.979864,-0.045243,-0.129719,0.990518
0.047863,-0.535834,0.746655,-0.753605,0.313783,-0.577598
0.437434,-0.693363,0.616048,-0.509321,0.406372,0.758587
-0.033322,-0.502137,0.536263,-0.395167,-0.815563,-0.422729
-0.054149,0.007520,0.709140,-0.251514,-0.107387,0.961878
0.253130,-0.429930,0.827022,-0.687932,-0.132448,0.713588
0.420112,0.226067,0.583112,0.002753,0.087884,0.996127
0.895899,-0.554727,0.507399,-0.616185,0.771702,0.157458
0.036119,-0.911547,0.578508,0.652364,0.748448,-0.119363
0.281078,-0.235093,0.777618,0.697304,-0.605387,-0.383762
0.571163,-0.220290,0.795452,0.299356,-0.842014,-0.448774
0.405435,-0.746795,0.620096,0.934263,0.081848,-0.347064
0.220568,-0.346892,0.717108,-0.414112,0.825742,-0.382963
0.438969,0.064925,0.593939,0.803300,-0.512534,-0.303345
-0.103887,-0.100429,0.913283,0.585816,0.792383,-0.170145
0.161464,-0.722246,0.722977,0.876473,-0.121443,-0.465884
0.124996,0.072146,0.811869,0.875010,-0.255972,0.410896
-0.602736,0.249894,-0.969467,-0.072631,0.109466,0.991333
-0.288899,0.113303,0.579140,0.725826,0.188724,0.661483
0.065184,-0.563272,0.642610,-0.707390,0.701255,0.088548
0.098446,-0.623925,0.418482,0.933366,0.319038,0.164448
-0.152654,-0.100788,0.788014,0.971733,0.236007,0.005928
0.099418,-0.218606,0.890946,0.601640,0.795093,-0.076535
0.529100,-0.825140,0.641699,-0.425735,0.809663,0.403975
0.656262,-0.352188,0.411753,-0.571829,0.733122,0.368164
-0.047155,0.280462,-0.473805,-0.264592,0.420014,0.868089
-0.193736,-0.248692,0.714300,0.037441,0.363253,0.930938
0.255501,0.443889,-0.203461,0.362305,-0.112292,-0.925271
-0.923148,-0.071665,0.434343,0.875411,-0.307464,-0.372990
0.200312,-0.160239,-0.864183,0.807607,0.585474,-0.070643
-0.256900,0.003308,0.782829,0.925346,0.185680,0.330543
0.540417,-0.339312,0.729605,0.082200,-0.988762,0.124875
-0.546285,0.269991,0.593408,0.947369,-0.147277,0.284256
0.110736,-0.063604,0.942627,0.977410,-0.160354,-0.137679
0.284285,-0.147723,0.912600,0.977497,0.043102,0.206499
0.217216,-0.099586,0.883408,0.248469,-0.574542,0.779849
0.247535,0.039292,0.682173,0.112687,0.988742,0.098439
0.118701,-0.276852,0.764539,0.028344,0.994906,0.096741
-0.235100,-0.191889,-0.957805,0.312778,-0.073895,-0.946947
-0.851184,-0.373249,-0.413144,0.040808,-0.998581,-0.034205
-0.635853,-0.174079,0.418077,-0.282157,-0.364217,-0.887543
0.274366,0.290089,-0.977435,-0.051872,0.187387,0.980916
-0.518900,0.401528,0.525613,-0.465297,0.463658,0.754003
0.191502,-0.927674,0.605398,0.887308,0.418028,0.194774
0.479779,-0.219208,0.542916,0.790718,0.304665,0.530984
0.221685,-0.470365,0.707672,0.191016,0.558973,0.806884
0.575214,-0.327396,0.704561,0.804439,-0.451008,-0.386613
-0.242231,0.520788,0.183097,-0.470828,0.881403,-0.038089
0.215263,0.021963,0.827755,-0.242574,-0.202781,0.948703
-0.431421,-0.126543,0.744074,-0.523194,0.426056,-0.738068
-0.093269,-0.535593,-0.950621,0.151156,-0.041765,-0.987627
-0.802417,-0.123052,0.460626,-0.599995,0.531005,-0.598364
-0.482431,0.266862,-0.481673,-0.519884,-0.853987,0.020651
0.390066,0.697694,-0.985581,-0.086616,0.107738,0.990399
0.155733,-0.152297,-0.713820,0.963078,-0.165762,0.212142
-0.405571,-0.832722,0.421796,0.181911,0.936205,-0.300714
0.987983,-0.536436,0.510612,-0.722425,0.602505,0.339250
-0.740653,-0.123535,0.450204,0.300193,-0.595281,0.745335
-0.768183,0.004151,0.154309,0.548515,-0.535737,-0.641964
0.359602,0.228231,0.497281,-0.136670,-0.160062,0.977600
-0.159920,0.569046,0.661127,-0.595970,0.799881,0.070779
0.200866,-0.107890,0.887506,-0.667109,0.216354,-0.712851
-0.224764,-0.488056,-0.951987,0.100951,0.021762,-0.994653
0.487318,-0.218968,0.763780,-0.690682,0.221234,0.688487
0.256064,-0.952706,-0.155093,0.365643,0.928204,-0.068873
0.349819,-0.185270,0.818573,-0.465012,-0.760251,-0.453632
-0.196253,-0.060474,0.867294,-0.742622,-0.580652,-0.333699
0.150846,0.099824,0.670461,0.854983,-0.019872,0.518274
0.541816,-0.254348,0.744858,0.396523,0.473020,0.786779
0.624680,0.762560,0.656143,-0.193949,-0.978487,-0.070331
-0.639350,0.070702,-0.969821,0.160665,0.047727,0.985854
0.056945,-0.830436,0.605196,0.963619,0.258888,-0.066452
0.230214,-0.135328,0.873719,0.314393,0.935326,0.162242
0.204917,0.285636,0.687713,-0.038532,0.589545,-0.806816
-0.286247,0.462421,0.611191,-0.398659,0.820814,-0.409067
0.003283,-0.081895,-0.804609,0.623118,0.778609,0.074109
-0.221548,-0.396474,0.802256,0.255172,-0.949716,0.181456
0.169567,-0.789038,0.669500,0.394595,-0.892548,0.218296
-0.882620,-0.052050,0.135919,0.743013,-0.512893,-0.429967
0.138403,-0.096576,0.931143,0.877348,0.451200,-0.163337
0.051069,-0.026898,0.884926,-0.295367,0.950372,0.097729
0.441212,0.030627,-0.967317,0.081967,0.373579,0.923970
0.572980,0.071303,0.685816,0.638179,-0.573392,0.513760
0.515130,0.596725,0.579267,0.835663,-0.514656,0.191823
0.734085,0.462181,0.586957,0.966466,0.181781,-0.181381
-0.263603,-0.212107,0.650755,0.016341,-0.735744,0.677063
-0.090336,-0.081895,-0.410488,-0.552679,-0.639562,-0.534328
0.235382,-0.980987,-0.930308,-0.231663,0.230948,0.944984
-0.592118,-0.509960,0.380132,0.518548,-0.578350,0.629777
0.829385,-0.305013,0.766816,0.451403,0.814741,0.363914
-0.034865,-0.402732,-0.218183,-0.235153,-0.279706,0.930842
-0.268916,-0.262773,0.590170,-0.521062,0.698340,-0.490730
-0.265283,-0.353150,0.385824,0.688826,0.576984,-0.438871
0.369529,-0.829714,0.658597,0.088040,0.935591,0.341934
0.262912,-0.634998,0.736941,0.783266,0.569096,0.250246
0.385179,-0.625370,0.582783,0.228008,-0.965914,-0.122570
0.730034,0.431132,0.672915,0.462040,0.732292,-0.500267
0.227834,-0.616945,0.735499,0.155085,0.842135,0.516485
0.307901,-0.700945,0.458071,-0.567625,0.813896,0.123999
0.931532,-0.496722,-0.950899,-0.149461,0.096949,0.984003
0.542515,-0.642939,-0.953631,0.063067,0.291219,0.954575
-0.597150,0.205606,-0.974754,0.063955,-0.139920,-0.988095
-0.577585,-0.088032,0.479902,0.980926,0.158586,-0.112406
-0.865998,-0.023047,0.544712,0.953743,-0.158436,0.255483
-0.066864,-0.090560,-0.232729,0.716064,-0.680448,-0.155703
0.338647,-0.184188,0.720473,0.162936,0.902002,-0.399806
-0.752252,-0.407064,-0.952063,0.166170,0.047794,0.984938
-0.061415,-0.353872,0.742556,-0.144767,-0.742981,0.653469
-0.751135,0.169264,0.529964,-0.667710,0.683349,-0.295292
-0.070353,-0.061556,0.922289,0.399023,0.911803,-0.096932
-0.567803,-0.349540,0.607017,-0.098178,-0.426890,0.898958
-0.264302,-0.009328,0.800966,0.977360,0.163661,-0.134095
-0.623281,-0.233168,0.504136,-0.582094,-0.683405,0.440595
-0.289880,0.268186,0.605145,0.171716,-0.561100,0.809741
0.448897,-0.500451,0.749083,0.645579,0.492800,-0.583417
-0.085448,0.058306,0.566593,0.056545,0.551566,0.832212
-0.301897,-0.101993,0.869444,0.989715,-0.002010,-0.143037
0.483966,0.373968,-0.978548,0.044709,0.140601,0.989056
0.035001,0.228834,-0.197136,-0.310798,0.284584,0.906872
-0.784814,-0.088515,0.251954,0.019021,0.963202,0.268106
0.227416,-0.175282,0.833068,0.981594,0.174823,-0.076880
-0.602318,0.370960,0.522172,-0.254512,0.049198,-0.965817
0.047436,-0.297553,0.753738,0.553536,-0.820093,0.145073
0.181302,-0.223781,0.741671,0.813860,0.252783,-0.523195
0.108919,-0.459656,0.618907,-0.296936,0.191454,-0.935508
0.114650,-0.143872,0.909312,0.087355,0.662580,0.743879
-0.200031,-0.671580,0.449394,0.962842,-0.238649,0.126417
-0.137149,-0.515494,0.746351,-0.243204,0.482791,0.841288
-0.207715,-0.440279,0.638992,-0.468726,-0.880392,0.072156
0.035701,-0.023047,0.876426,-0.189981,0.976520,0.101568
0.672185,-0.695651,0.664845,-0.558000,0.385122,0.735063
-0.053304,0.093447,0.758367,0.972511,-0.059444,-0.225140
-0.090617,-0.644383,0.743998,-0.137355,0.674354,0.725521
-0.021032,0.504662,-0.989831,0.079097,0.021159,0.996642
0.357785,0.255550,0.688700,0.941762,0.210933,-0.261901
-0.037799,0.356520,0.741089,0.089395,-0.862132,0.498735
-0.206172,-0.616826,0.748855,0.287642,0.687910,0.666365
0.482286,0.680967,-0.329286,0.870043,0.259448,-0.419180
-0.260115,-0.670499,0.774000,0.843836,0.377398,0.381459
0.537901,-0.810699,0.502036,0.221255,0.850903,0.476457
-0.258853,-0.241953,0.600643,0.393203,0.882906,-0.256650
-0.800737,0.008483,0.456174,0.981640,0.164992,0.095707
0.859985,-0.254469,0.439579,0.821761,0.489968,0.290931
0.674982,0.188879,0.687410,0.166141,0.683822,0.710482
-0.605252,-0.081052,0.141130,0.480136,0.699246,0.529646
0.220986,-0.170227,0.920872,-0.032079,-0.419572,0.907155
0.216235,-0.381431,0.702031,0.427256,-0.128948,0.894888
-0.088664,-0.362659,0.498723,-0.783031,-0.606705,-0.137010
-0.243066,0.199591,0.662316,0.957920,0.254595,-0.132551
-0.396914,0.357120,0.228934,-0.534025,0.844776,-0.034212
-0.425136,-0.124257,0.695429,-0.526890,0.831811,-0.174576
0.582199,0.052890,0.704030,-0.363795,0.305432,0.879980
-0.579683,0.200432,0.151577,-0.005200,-0.667435,0.744650
0.533151,-0.559059,0.751663,0.864667,0.460897,0.199810
0.615034,-0.330165,0.484481,0.819905,0.016363,0.572266
0.024102,0.138335,-0.167995,0.056723,0.938671,0.340117
-0.449169,0.090077,0.618300,0.063904,0.981502,0.180470
-0.111017,0.325950,0.401887,-0.633648,0.483369,-0.604024
0.608186,-0.675673,0.462978,0.791714,0.570767,-0.217748
-0.204218,0.482879,-0.136500,-0.631040,0.773302,0.061588
0.636697,0.400565,0.685816,-0.506373,0.730482,-0.458239
-0.134352,-0.025695,-0.241911,0.936855,-0.345862,-0.051786
0.300779,-0.551839,0.695277,-0.442865,0.875623,-0.192756
0.722913,0.173836,0.733779,0.780281,0.258928,-0.569314
0.509816,0.053011,0.696643,-0.244959,-0.875209,-0.417138
0.138547,-0.172755,-0.817586,-0.702683,-0.708064,-0.069866
-0.088800,0.368433,0.705016,0.886050,0.433120,-0.165294
0.160765,-0.620195,0.741216,-0.005214,0.829297,0.558783
-0.235382,-0.570372,-0.954036,-0.050187,-0.010716,0.998682
-0.019488,-0.175161,0.879310,0.162506,-0.704317,0.691035
0.286102,-0.713100,0.499760,-0.149519,0.271878,0.950645
0.071752,-0.329925,-0.948218,-0.017335,-0.215460,0.976359
0.286247,-0.677598,0.598214,0.980288,0.197415,0.007912
-0.213438,-0.168543,-0.242417,0.634548,-0.730658,-0.251968
-0.161183,-0.560143,0.760972,0.440559,-0.553747,0.706592
0.538882,-0.597208,0.774607,0.678588,0.487316,-0.549583
0.091879,-0.516699,0.703144,0.875979,0.392080,-0.280952
0.574097,-0.312715,0.812451,0.314950,0.824610,-0.469920
0.446798,-0.165173,0.693835,-0.298553,0.606415,0.736971
-0.185916,-0.463867,0.764615,0.834530,-0.313827,0.452849
-0.704747,-0.398881,0.204144,0.976370,-0.023582,0.214815
-0.260115,0.177568,0.429865,0.880875,-0.400270,0.252673
0.064767,0.393345,0.748223,0.801622,-0.251832,0.542201
0.376233,0.561585,0.666768,-0.542056,0.798744,-0.261119
0.088518,-0.930441,0.476689,0.782003,0.505594,-0.364479
0.814715,-0.287684,-0.959627,-0.098491,0.105809,0.989497
0.410466,-0.179254,0.804533,0.127675,-0.984927,-0.116697
-0.195971,-0.200795,0.860363,-0.704188,0.218156,-0.675668
0.038635,-0.184910,-0.941109,-0.497050,-0.104817,0.861368
0.738418,-0.256634,0.747110,-0.404701,0.719250,0.564709
0.511497,0.287441,0.651160,0.882826,-0.308252,0.354399
-0.494584,0.160237,0.658622,-0.753598,-0.656093,0.040393
-0.232585,-0.042784,0.274696,-0.855534,0.514339,-0.059305
-0.918253,-0.165173,0.470517,0.973701,-0.226994,-0.019501
-0.768465,-0.405380,0.630012,0.628950,0.718306,0.297420
0.529245,-0.546302,0.449951,0.202421,0.840343,0.502841
0.334451,-0.197426,0.512990,0.961296,0.198083,0.191501
0.377486,-0.488178,0.727606,-0.737584,0.481867,0.473047
0.441212,0.033394,0.674686,-0.543556,0.260546,-0.797912
0.675263,0.123533,-0.968253,-0.102638,-0.112762,-0.988307
-0.604553,-0.181660,0.735448,0.992053,-0.055493,-0.112920
-0.244602,-0.495157,0.787711,-0.063459,-0.993855,0.090689
0.606097,0.296948,-0.974476,-0.053939,0.087573,0.994697
-0.603154,-0.120163,0.727657,0.692391,-0.720768,0.032988
-0.199749,-0.510320,0.844729,0.965029,0.246407,0.089459
-0.441485,-0.470606,0.595001,0.833907,-0.264405,0.484447
0.727663,0.128105,0.697680,0.841760,-0.348936,-0.411927
0.821700,-0.631145,0.504237,0.447693,0.673654,-0.588015
-0.418568,0.009085,0.709671,0.830982,-0.518536,-0.201466
-0.003565,0.654130,0.608788,-0.654276,0.746185,0.123005
0.127230,-0.255191,0.714806,-0.518251,0.846804,-0.119741
0.337112,-0.445816,-0.460499,0.962910,0.234700,0.133115
0.073014,-0.767135,0.672814,0.138790,-0.852353,0.504214
-0.754631,0.193573,0.535403,-0.659792,0.751029,-0.025085
-0.204500,-0.356520,0.685234,-0.597798,-0.760674,0.253005
0.273249,-0.424996,0.695479,0.090947,0.286882,0.953639
0.373162,0.020758,0.635324,0.474386,-0.549683,-0.687609
-0.210086,-0.596608,0.722952,0.093721,0.629579,0.771263
0.375951,-0.332211,0.680023,0.498939,-0.276021,0.821506
-0.345905,0.059389,0.579191,-0.325065,0.061328,0.943701
-0.156151,-0.221495,-0.954441,0.395338,-0.114070,-0.911425
-0.146650,-0.263854,0.844982,-0.404868,-0.462482,-0.788792
0.288481,0.110535,0.708128,0.806090,0.124022,-0.578652
-0.199331,-0.416332,0.717437,0.758319,0.562935,-0.328719
0.063649,-0.318130,0.705598,-0.797358,0.599872,0.066137
-0.814297,0.003188,0.463914,0.981640,0.164992,0.095707
0.271015,-0.147482,0.774658,-0.238845,0.846427,0.475935
0.337248,0.882061,0.684653,0.610578,0.789734,-0.059281
-0.323969,-0.613816,0.344160,0.274651,-0.025400,0.961208
0.504230,-0.175161,0.688523,-0.216906,0.976177,0.005438
0.721796,-0.595884,-0.957223,-0.002593,0.149682,0.988731
0.067982,-0.059510,0.890213,0.006849,0.579900,0.814659
-0.130300,0.068295,-0.356808,-0.559785,0.298444,0.773028
-0.954730,-0.128588,0.327717,0.787410,0.570699,0.232999
0.401247,-0.086348,0.726645,0.738438,0.614472,0.277730
0.336966,0.059389,-0.232729,-0.605566,0.082550,-0.791502
-0.189967,-0.146520,0.620222,-0.092777,0.280782,0.955277
-0.037236,-0.106565,0.853507,-0.350741,-0.515929,0.781536
0.212048,-0.671340,0.718854,0.672119,-0.401709,-0.622002
-0.525467,-0.088394,-0.954415,-0.033843,0.255001,0.966348
-0.062250,0.007039,0.829096,-0.621625,0.173846,0.763780
0.348847,0.253986,0.682452,0.897572,0.005603,-0.440832
-0.003565,0.079246,-0.458172,0.890103,-0.138368,0.434248
0.241250,0.346049,0.698819,0.244433,0.796035,-0.553697
-0.214001,0.080571,0.174192,0.875403,0.071071,-0.478141
-0.098864,0.497803,0.227265,-0.568071,0.803627,-0.177423
-0.120936,-0.150852,0.826263,0.754235,0.144344,0.640542
0.022149,0.433540,0.577091,0.958608,-0.059407,0.278464
0.441630,-0.130875,0.844122,0.351845,0.935477,0.032991
0.395098,0.103435,0.703726,-0.332742,0.217243,-0.917653
0.048417,0.188277,0.742885,-0.681416,-0.166509,0.712704
-0.136450,-0.539082,0.456907,0.993057,-0.025693,-0.114790
-0.055266,-0.735605,0.622398,0.116368,0.783692,0.610152
-0.668134,0.078163,0.622170,0.153888,0.380928,0.911709
0.474047,0.473614,0.531558,0.780106,0.243368,-0.576374
-0.018934,0.557735,0.542182,0.916603,-0.327710,-0.229010
0.006917,0.222697,-0.962637,0.098421,0.023221,0.994874
0.327048,-0.509477,0.624497,0.191937,-0.330235,0.924178
-0.100254,-0.391781,-0.566391,0.928310,-0.370459,0.031622
0.785095,-0.189363,-0.967545,0.019285,0.022764,0.999555
-0.567248,0.419578,0.196125,0.967548,0.092074,-0.235314
-0.121081,0.347613,0.713212,0.956398,0.246304,-0.156964
0.736465,0.053612,0.493967,0.760220,-0.065467,-0.646358
0.289180,-0.884952,-0.930738,-0.205871,0.425558,0.881202
0.480052,-0.147363,0.755179,-0.534557,0.704937,0.466168
0.090199,0.288404,0.677291,0.294387,0.342650,-0.892148
-0.084331,-0.855949,0.459032,-0.501860,-0.823747,0.263776
-0.616715,0.430530,0.182237,0.420235,0.585179,-0.693518
0.203519,-0.484808,-0.938479,-0.149194,0.140736,0.978741
-0.617968,-0.590831,0.595937,0.994759,0.102010,-0.007022
-0.329419,-0.323907,-0.953302,-0.089840,0.131027,0.987300
-0.231749,-0.135568,-0.222028,0.479777,-0.816504,-0.321147
0.036119,-0.728985,0.653310,0.372450,0.248624,-0.894129
-0.123870,0.520188,0.410614,0.496375,0.673158,-0.548151
0.284712,0.694205,0.350409,-0.656636,0.051943,0.752417
0.391465,0.133521,0.687536,0.751889,0.610225,-0.249576
0.589047,0.060713,-0.038577,0.992236,0.029293,0.120872
0.244465,0.869787,0.650957,0.809386,0.586654,0.027032
0.271296,-0.116313,0.749564,0.237217,-0.921308,0.308091
0.041014,-0.198267,0.844780,0.705504,-0.670217,-0.230375
-0.606651,-0.062279,0.406061,-0.556349,-0.718634,-0.417181
0.206879,-0.346171,0.805747,0.661897,0.410491,-0.627207
0.130164,-0.686866,0.420632,-0.249271,0.902751,0.350577
-0.138966,-0.490824,0.783208,-0.256256,0.465402,0.847192
-0.178931,-0.679644,0.765551,0.406194,0.844201,0.349759
0.354297,-0.793008,0.516784,-0.488205,0.329870,0.807986
-0.137149,0.161802,0.563937,-0.356641,0.442925,-0.822572
0.336966,-0.234492,0.739749,0.746914,-0.091846,-0.658547
0.717045,0.040857,0.156257,-0.548329,0.481975,-0.683400
-0.036682,-0.085024,0.871139,-0.227235,0.973322,-0.031741
0.008733,-0.853661,0.553869,0.780900,-0.624637,0.004925
-0.019488,0.003068,-0.583390,0.871997,0.484037,0.073008
-0.922304,-0.092725,0.476892,-0.656780,0.744216,-0.121586
-0.246836,-0.633673,0.753485,0.877543,0.300260,0.373849
-0.372318,0.033877,-0.690344,0.236605,-0.442770,0.864854
0.431430,-0.200915,0.835547,0.830177,0.380923,-0.407066
-0.173618,-0.316806,0.644785,0.668440,0.743200,0.029026
-0.572281,0.324386,0.626066,0.508685,-0.749626,0.423438
-0.653183,0.342920,-0.973616,-0.274925,-0.041450,-0.960572
0.399285,-0.210784,0.751866,-0.662590,-0.432995,0.611138
-0.528400,-0.557254,0.603526,0.706107,0.148994,0.692253
0.205199,0.967506,0.114847,0.597779,0.516762,-0.612876
-0.449169,-0.113786,0.683337,0.318392,0.821923,0.472301
-0.156015,0.210783,-0.966760,0.155221,-0.126880,-0.979698
0.594779,-0.336183,0.469378,0.055908,0.727639,0.683678
-0.076366,0.606834,0.467608,-0.471846,0.848214,-0.240613
-0.352335,-0.093809,0.696238,0.328782,0.719956,-0.611200
0.087683,-0.119683,0.905290,-0.005297,0.899297,0.437306
-0.144270,-0.238824,-0.948142,-0.266154,-0.125301,0.955752
-0.325786,0.344484,0.241102,0.878388,0.145344,0.455312
0.123315,-0.044348,0.974501,0.999939,0.007622,-0.007980
0.872284,-0.572899,0.524550,-0.210724,-0.831577,0.513882
-0.269897,-0.561707,0.697225,0.196688,0.938864,0.282575
0.212883,0.502857,0.625610,-0.451240,-0.450043,0.770612
0.367712,0.870990,-0.307252,0.009635,-0.992463,0.122165
0.530217,0.079487,0.590397,0.911579,-0.060347,-0.406671
-0.603580,-0.140503,0.718929,-0.492219,0.870148,-0.023721
0.179212,0.389133,-0.963320,0.203557,0.207365,0.956851
0.071752,-0.632950,0.655713,0.965228,-0.074394,-0.250599
0.315730,-0.409231,0.491285,0.633595,-0.234067,-0.737407
-0.620066,-0.268429,0.645342,0.879424,0.172079,0.443848
-0.580800,-0.150371,0.749538,0.133295,-0.949146,0.285227
0.187314,0.277452,0.679492,0.133909,0.721303,-0.679551
0.014601,-0.786390,0.587337,0.769334,0.394977,0.502113
0.123179,-0.876167,0.479952,0.932522,0.192567,-0.305484
-0.031087,0.047596,0.852496,-0.667859,-0.003076,-0.744282
-0.067282,-0.024250,-0.530014,-0.713075,-0.700649,-0.024824
0.020614,-0.030148,0.884572,0.355955,-0.927697,-0.112582
0.535249,-0.013540,0.662442,0.395381,0.630669,0.667780
0.148884,-0.248211,0.697276,-0.578230,0.808054,-0.112692
0.475165,-0.204646,0.816018,0.355080,0.898862,0.256838
-0.674982,0.415608,-0.978473,0.351067,0.047408,0.935150
-0.433664,-0.210664,0.663859,0.756449,0.571058,0.318870
0.051769,0.155543,0.838329,0.721054,0.017863,0.692649
-0.174035,-0.544980,0.305102,-0.598322,-0.514642,-0.614129
-0.532733,0.370117,0.137538,0.956997,-0.212124,-0.197891
-0.360864,-0.050485,0.621285,-0.567796,0.801935,-0.185764
0.315449,0.068776,-0.967013,0.121395,0.208003,0.970566
0.287782,-0.080211,0.661152,0.892325,-0.169019,-0.418556
0.624535,0.275887,-0.974982,-0.001865,0.187860,0.982194
0.159366,-0.163128,0.923883,-0.038432,-0.807936,0.588016
0.731714,-0.632590,0.476234,-0.119847,-0.162491,0.979405
-0.533151,-0.472773,0.601300,-0.211139,-0.963492,0.164633
0.601764,-0.033518,0.432091,0.986172,0.164283,-0.021829
-0.653320,0.386003,0.522350,-0.691287,0.664210,-0.284514
-0.584152,0.020037,-0.975766,0.034091,0.057344,0.997772
-0.305249,-0.825623,0.372240,0.260625,0.597933,-0.757991
0.086847,-0.654732,0.597506,-0.031392,-0.446239,0.894363
-0.039053,0.610927,0.284612,0.542960,0.716277,-0.438339
-0.266119,-0.092606,0.708280,0.051028,-0.190827,0.980296
-0.134914,-0.525603,0.796539,-0.783347,0.463815,-0.413816
-0.369666,-0.612853,0.343831,-0.260343,-0.656410,0.708059
-0.163136,0.016546,-0.964332,-0.141689,0.350716,0.925701
-0.354988,-0.216561,0.728314,0.862151,0.451236,0.230395
0.539445,0.273241,0.066227,0.863324,0.305356,-0.401783
0.213864,0.912388,-1.000000,0.074965,0.210548,0.974705
0.689233,-0.021001,0.478308,0.681365,-0.170815,0.711733
0.260251,-0.128348,0.548784,0.984417,0.006565,0.175728
-0.639767,0.339310,0.518074,0.712021,0.309413,0.630309
-0.555231,-0.227631,0.687460,0.816176,-0.493853,-0.299943
0.805769,-0.557975,0.449217,0.638471,0.179816,0.748345
-0.543632,-0.134726,0.763831,0.644344,-0.758342,0.098684
-0.050933,0.152416,0.733146,0.988559,0.139495,0.057385
0.620203,0.543051,-0.986365,-0.018477,0.058317,0.998127
-0.144833,0.001865,0.061901,0.396023,-0.918232,-0.003902
-0.077338,-0.617667,0.703347,0.850148,0.248643,0.464138
0.190385,-0.170950,0.929701,0.226331,-0.802709,0.551754
-0.209805,-0.495157,0.670841,0.504924,0.655571,0.561497
0.082933,0.324748,0.683767,-0.005567,-0.987410,0.158085
-0.194999,-0.680246,0.770332,0.547565,0.720260,0.425908
-0.068681,-0.058910,-0.438213,0.999408,0.005144,0.034004
-0.352753,-0.195138,0.686803,-0.496656,-0.725457,0.476493
0.391319,-0.802757,0.516253,-0.387978,0.792717,0.470184
0.150983,-0.297672,0.788950,0.912516,0.219388,0.345229
-0.246136,-0.484808,0.827553,0.894835,0.446374,-0.004634
0.491795,0.080930,0.689813,-0.166586,0.969583,-0.179325
0.505202,-0.125940,0.672030,0.874749,-0.415894,-0.248691
0.251868,-0.646428,-0.015937,-0.579845,-0.814622,-0.013082
0.593661,-0.808172,0.391642,0.877439,-0.399521,-0.265489
-0.353870,0.341236,-0.352204,0.686049,0.701510,-0.192923
0.677362,0.344846,0.645114,-0.028617,-0.676861,0.735554
0.386569,-0.175763,0.731451,0.326562,0.720265,0.612026
-0.047018,-0.270715,0.798158,0.978052,0.197626,0.066011
0.819884,-0.331730,0.748248,0.640005,-0.763657,0.084977
0.648432,-0.187798,0.473477,0.171618,-0.086501,0.981359
0.193046,-0.270234,0.947560,0.955498,0.158295,-0.248931
0.586950,-0.085265,0.635248,-0.643129,0.139760,0.752896
-0.200867,0.071543,0.570261,-0.069027,-0.169216,-0.983159
0.474465,0.751368,-0.240115,-0.946956,0.281138,-0.155681
0.603717,-0.767013,0.668589,0.960210,-0.078117,-0.268131
0.337529,-0.087551,0.707698,-0.285696,0.170109,0.943102
0.792217,0.321859,0.145127,0.910343,0.301557,0.283440
0.131562,-0.900236,0.613949,0.367349,0.543692,-0.754622
-0.734785,-0.094771,0.457995,0.232605,0.052235,0.971167
-0.191920,-0.187677,0.856720,-0.662743,0.230168,-0.712597
0.617414,0.608158,0.121398,0.624848,0.532195,-0.571256
0.261795,0.371201,-0.192305,0.557355,-0.334855,-0.759755
0.134633,-0.079968,-0.823506,0.675254,0.736630,0.037532
0.398168,0.536072,0.642635,-0.132956,-0.825633,0.548318
-0.436735,0.304289,0.244036,0.500008,0.644421,-0.578544
-0.438551,0.180816,0.097367,0.930282,0.228822,0.286734
0.532596,-0.256515,0.825276,-0.407040,-0.895840,0.178294
0.418714,-0.641616,0.640105,-0.292698,0.251852,0.922441
-0.118838,0.554124,0.589993,-0.496537,0.452681,0.740629
-0.123034,-0.545340,0.315297,0.858948,-0.264361,-0.438545
-0.364352,0.167699,0.579520,0.848245,0.253718,0.464875
0.119819,-0.269391,0.743973,-0.335238,0.516861,-0.787699
-0.753369,0.094890,0.115504,-0.033055,-0.938300,0.344240
0.654445,-0.515975,-0.957982,-0.105510,-0.045535,-0.993375
-0.853563,0.044226,0.100478,-0.648501,0.748492,-0.138590
-0.475582,0.208135,0.609648,0.151901,0.005334,0.988381
-0.844898,-0.337145,0.653007,0.991413,-0.071204,-0.109679
-0.401938,0.306576,0.583871,-0.264254,0.135154,-0.954936
0.458815,-0.176366,0.845969,0.612948,0.650272,-0.448821
0.438278,0.615980,0.530369,0.985162,-0.130265,0.111747
0.568366,-0.477948,0.629860,-0.182712,-0.329587,-0.926277
0.231186,-0.238583,0.818345,0.893777,-0.052755,0.445399
-0.079018,-0.238824,0.824366,0.825523,0.323939,-0.462142
0.239570,0.947408,0.522248,0.085088,0.904341,0.418242
0.438696,-0.393826,0.588753,0.344378,0.611818,0.712097
-0.264166,-0.150973,0.870532,-0.115752,0.992663,-0.034952
0.248235,0.385763,0.203764,0.546113,0.454393,0.703767
-0.748618,-0.481679,0.382308,-0.003623,-0.231683,0.972785
-0.071615,-0.089717,0.900508,0.409549,-0.906589,0.101812
0.597431,-0.465672,0.755306,0.877738,-0.468299,-0.101349
-0.949417,-0.230520,0.362551,0.832232,0.546303,-0.094561
0.302315,-0.165895,0.673396,0.989404,-0.120242,0.081373
0.102915,0.128346,0.806936,0.859737,0.492615,-0.134842
-0.285547,0.098741,0.538135,0.049649,0.897096,0.439038
-0.357504,-0.206571,0.718803,0.313563,-0.580216,0.751684
0.308182,-0.149408,0.536440,0.923028,0.316751,-0.218374
0.345350,-0.212588,0.682679,0.433362,0.611435,0.662075
0.496265,-0.589626,0.485315,0.858348,0.206070,0.469866
-0.060997,-0.348337,-0.952948,-0.026771,0.197448,0.979948
0.475028,0.186834,0.596367,-0.334259,0.417406,0.845011
-0.030951,0.088512,0.833903,0.502634,0.570097,-0.649883
-0.172500,-0.151092,0.704738,-0.609472,0.566285,0.554856
0.773352,0.388290,-0.980142,-0.137035,-0.072611,-0.987901
-0.072033,0.437871,0.700058,0.877824,0.381335,0.289843
0.099836,0.234490,0.670183,0.323590,0.902310,0.284827
0.071197,-0.639330,0.691128,-0.464013,-0.302533,0.832566
-0.392582,0.265297,-0.968531,-0.150385,0.219327,0.963992
0.671486,0.649798,0.362171,0.309724,0.554005,0.772754
0.210785,0.348816,-0.972022,-0.348947,-0.222331,-0.910387
0.524486,0.118960,0.621917,0.813580,-0.581104,-0.020142
0.678334,0.198145,0.684880,0.146270,0.740870,0.655528
-0.279816,-0.067573,0.580481,0.444050,0.004451,0.895991
-0.329001,-0.075877,0.710708,-0.237728,-0.543483,0.805054
-0.066864,0.305973,0.708381,0.896134,0.354799,-0.266574
0.180884,0.183584,0.675343,0.563656,-0.803346,0.192164
-0.344088,0.156748,-0.972123,-0.039183,0.067802,0.996929
-0.150983,-0.495277,0.738534,0.984968,0.011255,-0.172370
-0.242231,-0.665565,0.755964,0.774919,0.459919,0.433561
0.924129,-0.453638,0.462599,0.998860,0.026350,-0.039810
0.457698,0.110295,0.698616,0.424134,-0.045672,0.904447
0.225318,0.307298,0.506969,-0.281723,-0.110445,-0.953118
-0.081534,-0.150732,0.780805,0.982795,0.166546,0.079857
0.437434,0.227510,0.733146,-0.187412,0.926988,-0.324915
-0.280371,0.284793,-0.499102,0.165432,0.640435,-0.749983
-0.402364,0.214874,0.613038,-0.504728,0.565829,-0.651987
0.516383,-0.185391,0.772204,0.834579,0.545307,0.078218
0.155597,-0.793249,0.567074,-0.750977,0.623623,-0.217090
0.349683,-0.378423,0.745972,-0.203488,0.169527,0.964289
-0.855098,-0.011735,0.548228,0.953743,-0.158436,0.255483
-0.303014,-0.420183,0.684855,0.902950,-0.417819,0.100540
0.612245,-0.386606,0.756621,-0.406622,0.228564,-0.884543
-0.414654,0.216439,0.595077,0.840894,-0.529038,-0.114086
-0.441203,0.155543,-0.392679,0.727053,0.668402,0.156947
0.159230,0.495276,-0.973388,-0.024102,0.205318,0.978399
-0.793334,-0.395631,-0.945612,-0.112154,-0.057925,-0.992001
0.752814,-0.632469,0.619817,0.224314,0.362674,0.904517
0.174598,-0.224984,0.830816,-0.226724,0.732034,-0.642435
-0.167750,0.074794,0.870102,0.827053,-0.083706,-0.555857
0.378049,0.453277,0.653968,0.895450,0.242524,0.373297
0.682385,0.153016,0.710556,0.016610,-0.748699,0.662702
0.722350,-0.300320,0.459766,-0.117380,-0.252805,0.960371
0.078600,0.041217,0.786269,0.125844,0.990915,0.047437
-0.045202,-0.201517,0.832410,0.678364,-0.566068,-0.468391
0.226299,-0.774235,-0.944626,0.036442,0.205245,0.978032
0.088246,0.223779,0.754193,-0.193832,0.385424,0.902152
0.099145,-0.585775,0.530748,0.593588,0.502454,0.628643
0.415780,-0.834167,0.429587,-0.139101,0.905509,-0.400879
-0.120382,-0.718757,-0.320812,0.602065,-0.069072,-0.795454
0.046882,-0.282750,0.792138,-0.689460,0.723730,0.029327
-0.038080,0.018593,-0.488680,0.832086,0.383656,-0.400551
0.271995,-0.528854,0.719486,-0.283965,-0.630212,-0.722631
-0.328583,0.210540,0.589360,-0.313981,-0.146270,-0.938094
-0.471949,0.101629,0.144747,-0.317891,-0.669682,0.671171
-0.413682,-0.388292,0.578457,-0.542701,-0.157950,-0.824941
0.271714,-0.135689,0.790645,0.608376,-0.514205,0.604542
0.124996,-0.073350,0.907187,-0.528935,0.840964,0.114053
0.186897,-0.649076,0.521970,-0.741941,0.469750,-0.478392
0.049679,0.640772,0.300600,-0.280225,-0.637404,0.717768
0.690632,-0.736567,0.451165,0.566180,0.528569,-0.632499
0.937118,-0.652687,0.625003,0.815505,-0.573508,0.077718
0.737446,-0.568084,0.515848,0.273156,-0.959575,-0.067839
-0.072169,-0.107168,-0.949027,0.116636,-0.273548,-0.954761
0.436317,-0.124135,0.858769,-0.212524,-0.976931,-0.020980
-0.492486,-0.392143,0.600794,0.856291,0.316421,-0.408220
-0.251169,-0.315603,0.703878,0.760533,0.556070,-0.335225
-0.200730,-0.559661,0.823000,0.908605,0.413128,0.061333
0.163417,0.052409,0.024892,0.351107,0.931603,0.094016
-0.097465,0.253023,0.677620,0.064040,-0.531471,0.844652
0.648432,0.150249,0.714351,-0.433417,0.630245,-0.644159
0.393281,0.311750,0.739647,0.627023,0.619223,-0.472656
0.287918,-0.015946,0.911588,0.766618,-0.042398,0.640702
-0.585414,-0.492629,0.371379,0.427174,-0.704816,0.566354
0.444982,0.785185,0.717766,0.519576,0.853203,-0.045666
-0.500597,0.122930,0.463940,-0.133345,-0.290245,0.947616
0.065184,0.106323,0.560370,0.073608,0.515042,0.853998
0.035982,-0.212107,-0.947611,-0.290982,-0.000937,0.956728
0.276601,-0.672785,0.613847,0.756271,0.229037,-0.612859
0.067282,-0.120044,-0.931421,0.790919,0.511826,-0.335382
-0.727100,0.242914,0.156915,0.918815,-0.277108,-0.281051
0.364079,-0.185029,-0.951607,-0.242228,-0.147028,-0.959014
0.084613,0.438834,0.716653,0.188214,-0.668304,0.719684
0.111716,0.642456,0.617364,0.341158,-0.930915,-0.130414
0.203945,0.783740,0.253093,0.763791,-0.630041,0.140253
-0.979736,-0.199591,0.199160,-0.425621,0.902190,0.069993
-0.584715,0.067692,0.623662,0.876884,-0.471183,0.095184
0.295184,-0.404778,-0.945486,-0.065806,0.151356,0.986286
0.707399,-0.267345,0.468215,-0.176140,-0.657421,0.732647
0.049679,-0.817679,0.577673,0.784182,0.034518,0.619571
0.286801,-0.201517,0.523513,0.818382,0.563695,0.111797
-0.049398,0.013779,-0.668615,0.507911,0.785267,-0.354093
-0.871866,-0.231844,-0.413094,0.040808,-0.998581,-0.034205
-0.001049,-0.134846,0.921530,-0.341151,-0.755669,0.559089
-0.259697,-0.133644,0.721763,0.453946,0.186992,0.871187
0.060997,0.531259,0.492247,0.159344,-0.618621,0.769362
-0.221267,-0.087913,-0.958918,-0.117224,0.139164,0.983307
-0.007053,0.388771,0.760214,-0.090677,0.995880,-0.001137
0.398168,0.065166,0.543320,0.725785,-0.498255,-0.474320
-0.306783,0.358444,0.608535,0.393759,0.850587,-0.348505
-0.444283,-0.190566,0.721080,-0.492794,0.806351,0.327037
-0.474747,-0.412360,-0.959854,0.093480,0.177665,0.979641
-0.586250,-0.181059,0.758417,-0.274529,0.945105,-0.177230
-0.092851,-0.659185,0.748628,-0.238722,0.953748,-0.182693
-0.620066,0.362175,0.113379,-0.839551,0.033503,-0.542247
0.373162,-0.311271,0.676102,0.079753,-0.075321,0.993965
-0.136586,0.418014,0.435532,0.607846,0.356036,-0.709761
-0.250188,-0.608160,0.755230,0.829299,-0.455015,0.324384
0.154198,0.576869,0.274190,0.862721,0.401759,-0.307086
0.059453,0.484806,0.762768,0.909536,0.182123,0.373597
-0.478380,-0.587942,-0.949280,0.094761,0.116890,0.988614
-0.181166,-0.027500,0.560952,-0.045170,0.222794,0.973819
0.793897,-0.341357,0.461587,0.121585,-0.339338,0.932774
0.642147,-0.302606,0.735094,0.418590,0.158671,-0.894207
0.742332,-0.579277,-0.950899,0.043451,0.125295,0.991168
-0.207570,0.098621,0.486732,-0.363577,0.488542,0.793183
-0.201702,-0.425477,0.803420,-0.151381,0.717145,-0.680284
0.008452,0.335097,0.556500,0.765556,-0.575916,0.286783
-0.060997,0.502857,0.772432,0.932636,-0.352887,0.075236
-0.399431,0.154221,0.484809,0.422029,-0.368101,0.828488
-0.666317,0.366748,0.537654,0.931171,-0.362126,0.042250
0.454483,-0.192371,-0.957375,-0.278832,-0.184334,-0.942483
-0.371337,-0.433540,0.325947,0.066364,-0.248022,0.966479
-0.109201,-0.095494,0.895500,0.144125,0.950459,-0.275420
0.594216,-0.684818,0.671726,0.730455,-0.230396,-0.642926
-0.635153,0.085262,0.629632,-0.679588,0.467945,0.564967
0.141345,0.591912,0.268726,0.815297,0.400476,-0.418222
0.003147,-0.519948,0.601680,-0.512740,-0.200944,0.834697
-0.298954,0.268667,0.557917,-0.614002,0.610135,0.500737
-0.623700,-0.121849,0.192811,0.119277,-0.346325,-0.930501
0.287083,0.256031,-0.663302,0.987184,-0.106086,0.119224
-0.059598,-0.326796,-0.356960,-0.621461,0.585917,0.520084
-0.143716,-0.628256,0.738787,0.245922,-0.141206,-0.958949
0.734512,-0.323546,-0.960133,0.065949,0.098328,0.992966
-0.296165,0.014140,0.609370,0.991121,0.126568,-0.040743
0.550762,-0.295867,0.802864,0.707195,0.109510,-0.698486
0.295184,-0.178773,0.808252,0.459438,-0.016269,-0.888061
-0.497518,-0.070943,0.675217,0.608789,0.776740,-0.161401
0.121362,-0.122933,0.760846,0.760931,0.034060,0.647938
-0.104169,-0.101029,0.746781,0.967420,-0.126142,-0.219513
0.376096,-0.400206,-0.951481,0.039963,0.120727,0.991881
0.335013,0.684216,0.634945,0.978020,-0.179797,-0.105591
-0.037381,0.285275,0.556702,-0.704011,0.659160,-0.264341
0.461186,-0.464228,0.452076,0.362757,-0.610910,0.703702
0.226299,-0.540527,0.617920,0.352411,0.514118,-0.781978
-0.452521,-0.290451,0.440894,0.502458,0.847546,-0.170886
0.305385,0.090920,0.714123,-0.611356,-0.173877,0.772017
-0.007471,-0.111740,-0.642230,0.941794,0.335668,-0.018739
0.225881,-0.526687,0.712125,0.971616,0.042625,-0.232690
-0.189685,-0.123654,0.835370,0.722377,0.685096,0.093891
-0.670086,-0.433540,0.609420,0.469859,0.378150,0.797643
-0.596587,-0.478069,0.592699,-0.503484,0.415889,-0.757324
-0.769582,-0.415008,0.621866,0.935762,0.220453,0.275227
-0.258298,-0.102956,-0.956667,-0.181833,0.082014,0.979903
0.243347,0.144353,0.497078,0.236349,0.055067,0.970107
0.056519,-0.276011,0.827098,0.008657,-0.998001,0.062596
0.340881,0.543051,0.655739,-0.316287,0.701572,0.638561
-0.181447,0.160477,0.253194,0.224178,0.970253,0.091402
0.601764,0.665081,0.672055,0.039974,-0.949198,0.312131
0.045483,0.331968,0.742202,-0.447174,-0.383134,0.808235
-0.508835,0.353872,0.145304,0.935848,-0.254725,-0.243524
0.480052,-0.165052,0.683514,0.811452,0.584024,0.021472
0.247399,-0.765208,0.511194,0.258742,-0.236914,-0.936442
0.078182,-0.344606,0.742936,0.096707,0.056165,0.993727
0.038080,0.369758,0.177481,0.453969,-0.017808,-0.890840
0.350518,0.145677,0.794415,0.887551,-0.005431,-0.460678
-0.499898,-0.031953,0.746149,0.896673,-0.442073,-0.023437
-0.780899,-0.126181,0.456351,0.361534,-0.496982,0.788861
-0.145251,0.322341,0.526701,-0.545679,0.730925,0.409858
0.245718,0.584089,-0.987529,0.226162,0.007940,0.974057
-0.331099,0.255310,0.208570,0.752380,0.573169,-0.324656
0.341018,-0.310790,0.709089,0.490644,0.115151,-0.863718
-0.163136,-0.444973,0.782373,0.615942,-0.355501,-0.703019
0.366168,0.090077,0.688928,0.706171,0.603383,0.370473
-0.179349,-0.461099,0.333738,-0.569963,-0.733421,0.370454
0.387695,0.405980,0.546558,0.398099,-0.906868,0.138231
0.483685,-0.401289,0.707470,-0.244205,0.888403,-0.388721
0.452384,-0.530297,0.668311,-0.560901,0.056050,-0.825984
0.762452,0.215355,0.742860,0.954334,-0.108260,-0.278436
0.267245,0.462181,0.566011,0.236790,-0.971536,-0.006883
-0.126949,-0.260606,0.434039,0.976156,-0.119808,-0.181011
0.138684,0.076478,0.896689,0.009030,-0.864212,0.503047
0.649132,0.111016,-0.971794,0.055182,0.040713,0.997646
0.118847,0.165411,0.823834,0.287609,-0.512110,0.809336
0.036545,0.086948,-0.452860,0.664594,-0.100752,0.740381
0.296302,-0.133161,0.867269,0.582832,0.810893,0.052540
-0.636552,0.368313,0.509119,0.452011,-0.265042,0.851727
0.047581,0.024368,0.813463,0.858839,0.499130,-0.115177
0.328301,0.291413,0.707698,0.775072,0.618460,-0.129498
-0.272268,-0.187798,0.707672,0.988780,-0.014005,-0.148719
-0.014601,-0.783501,0.640459,0.175264,0.758579,-0.627568
-0.127648,0.472651,0.603501,0.752423,-0.658635,-0.007755
0.742895,0.678438,0.608333,0.920829,-0.259328,-0.291244
0.311534,-0.363140,-0.282234,0.850134,-0.141277,-0.507261
0.013066,-0.846682,0.682249,-0.861560,0.268056,0.431115
0.808848,-0.232927,0.414282,-0.809666,-0.581540,-0.079072
-0.523932,-0.177689,0.706079,-0.685316,0.654373,-0.319590
0.444845,0.096095,-0.969341,0.091174,-0.043691,0.994876
0.153780,-0.664360,0.553363,0.549711,0.783522,0.289674
0.147350,-0.138578,0.913562,0.611297,-0.220038,-0.760197
0.428633,-0.434262,0.655030,0.413402,-0.785859,0.459918
0.016563,0.352547,0.255521,0.896328,-0.368950,-0.245908
-0.740653,-0.141105,0.214540,-0.345320,-0.913444,-0.215346
-0.153498,0.373247,0.612608,-0.588999,0.595359,-0.546468
-0.132535,-0.485649,0.792846,0.175349,0.934383,0.310130
-0.569764,0.190925,0.636665,0.872933,0.116150,0.473811
0.174317,-0.046153,0.966482,0.998440,-0.021678,-0.051453
0.012930,-0.463026,0.682907,-0.525890,-0.438952,0.728533
0.125550,-0.104880,0.931294,0.797135,0.204854,-0.567988
0.349683,-0.391540,0.732413,-0.219931,-0.883985,0.412554
0.549083,0.141224,0.496041,0.383026,0.365838,-0.848206
0.343951,-0.053373,0.837697,0.126071,0.531842,0.837407
0.384480,0.222576,0.699223,0.637408,-0.136041,0.758422
0.520162,-0.386366,0.768738,0.874847,-0.226152,0.428366
0.525885,-0.308864,0.857479,0.578669,0.791060,-0.198406
-0.240414,-0.054095,0.871594,0.772461,-0.605379,0.191884
-0.125269,0.078523,0.859351,0.791031,0.611767,-0.003317
-0.058899,-0.914195,0.438592,-0.323520,-0.846104,0.423606
0.557184,-0.412722,0.673345,0.503840,0.306067,-0.807755
0.871311,-0.626451,-0.951304,-0.129153,0.382207,0.915007
0.594634,-0.211867,-0.193469,-0.070274,0.082150,0.994139
-0.079717,-0.320056,0.574587,0.883750,0.101371,-0.456848
0.406415,-0.473616,0.685310,0.969246,0.054855,0.239903
-0.360864,-0.313677,0.382130,0.305714,-0.641157,0.703887
0.244184,-0.172034,0.799196,0.999971,0.003301,0.006843
-0.601764,-0.114148,0.204827,-0.239594,0.966288,-0.094244
0.290017,0.360249,0.609876,-0.768181,0.304186,0.563355
-0.309999,0.370358,-0.974602,-0.038149,0.177381,0.983403
0.078600,-0.885795,0.607928,0.930554,0.358350,-0.075195
-0.243765,0.016667,-0.033113,-0.730730,0.602589,-0.320810
0.604553,-0.464590,0.528522,-0.700059,-0.704263,0.118033
-0.771117,-0.302487,0.688472,-0.658736,0.716383,-0.229918
-0.441067,-0.130515,0.281096,-0.251225,0.852655,0.458111
-0.076783,0.522955,0.680782,0.925583,0.006940,-0.378482
-0.512187,-0.559180,0.372847,0.352648,-0.672714,0.650458
-0.668134,-0.501294,-0.951253,-0.061428,0.200786,0.977707
0.521978,-0.635238,0.761934,-0.614565,-0.775292,0.145714
-0.164816,-0.517661,0.718778,0.937174,-0.222204,-0.268941
-0.691050,-0.234973,0.651059,0.266680,-0.736654,0.621469
0.909878,-0.527530,0.536617,0.005626,0.823870,0.566751
0.127367,0.407785,0.544762,0.616831,0.548960,-0.564060
0.353179,-0.386006,0.543346,-0.180589,0.973998,-0.136804
-0.079717,0.365424,0.725304,0.851841,0.419261,-0.313986
-0.346186,0.352667,0.236523,-0.535608,0.825417,-0.178358
0.276319,-0.205730,0.805570,0.101196,0.891228,-0.442122
0.047581,0.527408,-0.986315,-0.063040,-0.142918,0.987725
-0.854535,-0.168783,0.455769,-0.514903,0.695717,-0.500852
-0.686436,-0.286360,0.673117,-0.407317,0.854541,-0.322262
0.654164,0.352667,0.659128,-0.050903,-0.833203,0.550619
0.178786,-0.111379,0.773646,0.515824,0.639037,-0.570576
-0.071752,-0.505386,0.749564,0.885229,0.033119,0.463974
-0.250333,-0.202360,0.720700,0.404687,0.048043,0.913192
-0.312652,-0.186353,0.600111,0.062102,-0.129314,0.989657
-0.131137,-0.404538,0.584529,0.302670,0.869154,-0.391104
0.346885,-0.020399,0.720751,-0.740203,-0.264972,0.617972
-0.514286,0.342077,0.515747,0.717702,0.043242,-0.695006
0.618249,-0.607438,0.519921,-0.291653,0.943276,-0.158647
-0.131981,0.342799,-0.968329,0.059122,-0.254708,-0.965209
-0.155869,-0.725256,0.775695,0.128089,0.960697,0.246280
0.252849,0.347613,-0.974931,0.093121,-0.343496,-0.934526
0.389230,0.258558,-0.977182,-0.134793,0.036533,0.990200
0.165797,-0.115351,-0.871746,0.935660,0.339499,-0.096332
-0.113670,-0.440401,0.466140,0.887714,-0.111949,-0.446578
0.204781,-0.988567,0.602995,-0.638934,-0.769099,-0.015789
0.058899,-0.825501,0.514381,-0.535796,0.580162,0.613461
0.192765,-0.484085,0.708406,0.834539,0.124383,-0.536725
0.186615,-0.390216,0.706711,0.515901,-0.376035,-0.769704
0.767765,0.263373,0.729883,0.810555,-0.346021,-0.472515
0.627614,0.419097,0.653765,0.304053,0.721163,-0.622475
0.814297,-0.262292,-0.957831,0.052130,-0.059612,-0.996860
0.241531,0.034958,0.563279,-0.153095,0.968459,-0.196596
0.302869,-0.230158,0.822291,0.010741,-0.570820,0.821005
0.155178,-0.008606,0.864941,-0.574380,0.815388,0.072318
-0.112135,0.196100,0.674509,0.864063,0.414239,0.286010
0.257880,0.084541,0.702234,0.581044,-0.211236,0.785982
0.620629,-0.228353,0.713212,0.080656,-0.851543,0.518043
0.542234,-0.322705,0.785105,0.578603,0.369268,-0.727227
0.397469,0.610927,0.529331,0.970344,-0.107129,-0.216693
-0.357231,-0.118842,0.758797,-0.211116,-0.952245,0.220587
0.370646,-0.488778,0.700564,0.733756,-0.353819,0.580012
0.559982,-0.474939,0.760795,0.836760,-0.494175,-0.235845
0.198769,0.158072,-0.971137,-0.071537,0.169979,0.982848
0.031368,0.346290,0.703802,0.034064,-0.501877,0.864268
0.144552,-0.163128,0.828388,0.226905,0.083923,0.970294
0.121081,-0.422229,0.585920,-0.257206,-0.206232,0.944094
0.276319,-0.002589,0.637904,0.509720,0.679341,0.527903
0.667016,-0.257598,0.462397,-0.071739,-0.584171,0.808454
-0.429187,-0.076720,0.724646,0.533317,-0.575450,-0.620025
-0.788302,-0.037968,0.190736,-0.081025,0.948964,0.304798
-0.369248,-0.128710,0.732488,-0.556704,-0.477713,-0.679611
-0.544187,0.148564,0.622752,0.319718,0.015304,0.947389
0.227834,-0.235935,0.670461,0.845914,-0.225258,0.483412
0.439532,-0.469042,0.736283,-0.596236,0.743448,0.302965
-0.601900,0.200553,0.664719,0.852121,0.523345,-0.000156
0.082097,-0.235454,0.722395,0.075010,-0.808629,0.583517
0.626633,0.101629,0.518024,0.208845,0.293736,0.932793
-0.056101,-0.571454,0.584706,0.755458,0.639073,0.144459
-0.578148,0.265297,0.602236,-0.290992,0.927090,0.236280
-0.026200,0.125457,0.716779,0.958688,0.281108,-0.043532
0.319082,-0.118601,0.869191,-0.580359,-0.713587,-0.392399
-0.050234,0.154943,0.297235,-0.139297,0.908079,0.394954
0.741216,-0.184789,-0.961170,0.126382,0.001038,-0.991981
-0.826033,-0.156388,0.450431,-0.382376,0.691432,-0.612952
-0.335013,0.293218,-0.209759,0.775179,0.492697,-0.395407
-0.236081,-0.438114,0.811338,0.958497,-0.081701,0.273146
-0.178931,0.175280,-0.487617,0.495653,0.171652,-0.851389
-0.392863,0.400084,-0.407908,0.881897,-0.467973,0.057090
-0.492350,-0.655456,-0.940882,0.054658,0.117215,0.991601
0.711450,0.034718,0.507602,-0.408706,0.572061,-0.711130
0.550199,-0.407305,0.762085,0.941889,-0.269895,0.200006
0.674146,0.071303,-0.972756,0.047065,0.045634,0.997849
0.564596,0.079006,0.703676,-0.454314,0.374328,0.808379
0.492213,-0.484567,0.729301,-0.332243,0.881870,0.334543
-0.175153,0.415127,-0.975184,-0.175105,0.179169,0.968110
-0.058200,-0.571454,0.743012,0.429078,0.749882,0.503556
0.142181,-0.584934,0.701955,0.289990,0.526810,-0.798985
-0.659750,0.221133,0.621512,0.237337,-0.450903,0.860440
-0.242648,-0.170469,-0.218993,0.614848,-0.788630,-0.004829
-0.392164,0.281183,0.588728,-0.056754,0.967743,-0.245463
0.480052,-0.167340,0.464673,0.149371,-0.557957,0.816317
0.060016,0.450026,-0.156384,-0.308530,-0.914486,-0.261772
-0.007616,0.662795,0.568111,0.685763,-0.727490,0.022063
0.770835,-0.314401,0.766108,0.704728,0.539210,-0.461097
0.560263,-0.661955,0.651539,0.915403,-0.384437,-0.119359
-0.518900,0.310186,-0.972300,0.102394,0.036657,0.994068
0.434781,-0.276251,0.763021,0.930257,-0.341382,-0.134462
-0.056101,0.420662,0.216109,-0.807284,0.118761,0.578090
0.409349,-0.629942,0.610458,0.524864,0.420695,-0.739955
-0.191920,-0.101510,0.861577,0.426132,-0.762628,0.486632
-0.510934,0.195017,-0.969037,-0.079668,-0.172063,-0.981859
0.454619,-0.263254,0.696340,0.405898,0.913546,-0.026084
0.262912,-0.231723,0.918140,-0.520074,0.854114,0.003640
-0.074685,-0.126662,0.760340,0.986625,-0.064768,-0.149590
0.170829,-0.129310,0.848752,0.175754,0.932034,0.316897
0.538319,-0.445335,0.597480,-0.376694,0.589078,0.714904
-0.041850,0.454358,0.231262,0.382099,0.450268,-0.807007
-0.027036,0.572897,-0.985353,0.039473,0.075536,0.996361
0.522115,-0.347856,0.781766,-0.714480,0.413447,-0.564429
0.411447,-0.345328,0.748122,0.960839,-0.195004,-0.196879
0.427652,0.693722,0.508462,-0.725316,0.687257,0.039929
-0.756721,-0.290090,0.661506,-0.668038,-0.041507,-0.742969
0.596032,0.083578,0.363487,0.862002,0.504460,-0.049723
-0.479770,0.090318,0.595204,0.484237,-0.704676,0.518600
0.284712,0.506709,-0.384584,0.464599,0.264276,-0.845166
-0.195698,-0.085986,0.817814,0.557778,0.763612,0.325240
-0.472231,0.339550,0.221042,0.741720,0.595503,-0.308590
-0.139802,-0.321380,0.810908,-0.478674,0.216469,-0.850889
-0.405853,-0.159637,0.567555,-0.699469,0.075238,-0.710691
-0.814016,-0.196102,0.420556,0.437220,0.887397,-0.146169
0.664918,0.030867,0.711239,0.313280,0.181844,0.932088
-0.179903,-0.331248,0.063064,0.497287,-0.842887,0.205541
0.743313,0.254588,0.738990,0.790849,-0.396786,-0.465961
0.409912,0.427160,0.570868,0.429325,0.883604,0.186879
0.348702,-0.821048,0.503175,0.279058,-0.005213,0.960260
0.973169,-0.476985,0.509727,0.985433,0.058963,-0.159516
-0.368130,-0.443649,0.370443,0.366139,-0.567215,-0.737706
0.414663,0.107406,0.677974,0.751527,0.188981,0.632055
0.007053,0.281786,-0.968303,0.191646,0.399642,0.896414
-0.406270,0.220649,0.617591,0.266816,-0.377009,0.886946
0.364352,0.189601,0.657054,-0.424350,0.648373,0.632091
-0.198350,0.271074,0.596975,-0.589312,0.534591,-0.605743
-0.375670,-0.156508,0.680200,-0.597347,-0.486388,0.637654
-0.520298,0.207171,-0.971617,0.121983,0.182997,0.975516
-0.365188,-0.578555,0.341833,0.056089,-0.008344,0.998391
-0.060297,0.503580,0.518530,0.770007,-0.564644,-0.297098
-0.077483,0.522593,0.665554,0.109562,-0.992846,-0.047460
0.213028,0.247728,0.661759,0.179414,-0.733766,0.655285
0.582480,-0.266743,0.462548,-0.131261,-0.436444,0.890105
-0.237054,-0.031712,0.606739,0.759659,0.379953,0.527782
-0.121081,-0.286360,0.849232,0.481019,-0.873671,0.072936
0.439114,0.101510,0.695505,0.498346,0.866307,-0.034101
-0.337947,-0.670016,0.343174,-0.200355,-0.506586,0.838587
0.181029,0.123292,-0.193367,-0.611080,-0.364047,-0.702888
0.286946,0.802033,0.328856,0.172587,-0.980352,-0.095521
0.010968,0.355315,0.735575,-0.149406,-0.721459,0.676147
-0.187451,-0.653410,0.765526,-0.578118,-0.456427,-0.676353
0.649413,-0.311271,0.795401,0.944927,-0.112095,-0.307485
0.218896,-0.161563,0.818016,0.976811,-0.137183,-0.164382
0.093132,-0.275770,0.770636,0.594332,0.030627,0.803636
0.486346,0.303327,0.740634,0.313170,0.917081,-0.246754
0.169012,-0.399844,-0.955655,0.013111,0.045385,0.998884
0.439669,0.219687,0.753156,0.949478,-0.255230,0.182616
-0.169004,-0.453999,0.705952,0.332888,0.795610,-0.506153
0.148603,-0.144353,0.780425,-0.152017,0.208908,0.966048
0.775313,-0.370720,0.447649,-0.287178,-0.430939,0.855465
-0.430730,-0.138819,0.738155,-0.186175,0.476556,-0.859205
0.879968,-0.294783,0.457464,-0.539917,-0.367008,-0.757492
0.392999,-0.375654,0.698945,0.496778,0.796672,-0.344275
-0.459651,-0.602745,0.318965,-0.641413,-0.655869,0.398027
-0.832037,-0.029184,0.554653,0.883963,-0.065701,0.462917
-0.380420,-0.196824,0.650679,0.168892,-0.085744,0.981898
0.215118,-0.141826,0.782879,0.464185,0.875241,-0.135963
-0.194717,0.488537,0.532974,-0.575299,0.800666,-0.167226
-0.445118,-0.158193,0.586122,0.441695,0.895511,0.054452
0.229651,-0.024250,-0.219271,0.237565,-0.334806,-0.911849
-0.737437,0.278776,0.637171,0.989682,-0.075123,-0.122005
-0.286520,-0.016307,0.131694,-0.612211,-0.739864,0.278923
0.296447,0.117877,0.747692,0.776283,-0.315890,0.545525
0.583316,0.075515,0.661607,0.012117,-0.761000,0.648639
0.191928,-0.032193,0.895373,0.872496,-0.284450,-0.397289
-0.002166,-0.901920,-0.940705,-0.035225,0.220878,0.974665
-0.024665,-0.145075,0.839367,0.803398,-0.413709,-0.428249
0.232866,0.118118,-0.650654,-0.632721,0.633293,-0.445649
0.617968,-0.424033,0.485366,0.069689,0.790276,0.608775
-0.319500,-0.243156,0.714756,0.705820,-0.030851,0.707719
-0.552571,0.063963,0.124560,0.077775,0.591992,-0.802183
0.534550,0.109692,0.694695,-0.482084,0.870948,-0.095099
0.231049,-0.100429,0.802990,0.565463,0.813477,0.136042
0.875781,-0.636803,0.555893,-0.033608,0.967163,0.251924
0.353316,-0.049763,0.750550,0.151923,0.256171,0.954618
