0.335762,0.017816,-0.975646,-0.233410,0.502602,0.832412
0.096882,0.333053,0.691569,-0.203345,0.640595,0.740465
-0.509104,0.139193,0.622031,-0.147028,0.976610,0.156891
-0.040049,0.139708,0.910780,-0.228766,-0.060972,-0.971570
-0.169700,0.072394,0.448969,0.586747,0.796730,0.144738
0.283205,-0.021431,0.765205,-0.158250,0.963652,0.215247
0.335289,-0.104927,0.563352,0.967737,-0.067990,-0.242616
0.074084,0.216152,0.851449,0.903904,0.396805,-0.159700
-0.017257,0.088923,0.586296,-0.693682,-0.711334,0.113176
0.188222,-0.338381,-0.640486,0.984463,0.173406,0.027636
0.122052,0.615568,0.577525,-0.642521,0.085408,0.761493
0.098307,0.126457,0.959306,0.759261,0.607953,-0.232199
-0.205638,-0.470434,0.507805,0.549121,0.371482,-0.748644
0.196140,-0.399673,-0.908483,0.900603,-0.404438,0.159198
-0.039576,0.433939,0.747794,0.997022,0.076725,0.007762
-0.533800,-0.383659,0.378648,-0.751909,-0.634113,0.180374
0.075987,0.196177,0.958079,0.741517,0.132378,-0.657745
0.025170,0.713355,0.827121,0.372267,0.919289,0.127772
0.210701,0.601793,0.501201,0.617191,0.766810,0.176288
-0.072978,-0.766893,0.371939,-0.774341,0.351484,-0.526170
0.424885,-0.678742,0.411825,0.388741,-0.763959,-0.515021
0.113660,0.179480,0.914330,0.732240,-0.592102,-0.336511
0.500240,0.575964,0.669120,-0.282898,0.938418,0.198344
0.305210,0.722991,0.536492,-0.711201,-0.691752,0.125188
-0.294601,0.097875,0.708666,0.833547,-0.491418,-0.252404
-0.024696,0.634672,0.664605,0.607824,0.791737,-0.060843
0.133448,-0.508136,-0.953198,-0.128481,-0.129418,0.983231
0.144690,0.087031,0.955286,0.013187,0.790847,0.611872
-0.563400,0.111820,0.664265,0.155936,-0.372264,0.914933
-0.047648,-0.445635,0.363090,-0.373539,-0.186018,0.908772
0.462722,0.658609,0.493866,0.545136,-0.711872,0.442792
0.098147,-0.022124,-0.966119,0.196217,-0.275200,-0.941150
-0.239513,0.175865,0.637667,-0.259688,0.460389,0.848884
0.375019,0.515365,0.552232,0.965980,0.222938,0.131077
-0.318032,-0.294825,0.259149,0.476379,-0.060508,-0.877155
0.135984,0.704223,0.374628,-0.278835,0.901376,0.331318
-0.090867,-0.907888,0.594153,0.187324,0.920074,0.344055
0.011396,0.013171,0.709110,0.006673,-0.260305,0.965503
-0.390217,0.564952,0.575124,-0.868386,0.495874,0.003764
0.159410,-0.370745,0.676769,-0.046534,0.817010,0.574743
0.627358,0.256776,0.432341,0.928697,0.259916,0.264509
0.138516,-0.264006,-0.687366,-0.320908,-0.943956,0.077239
0.113027,0.117158,0.871182,-0.200234,-0.741150,-0.640783
0.741651,-0.115088,0.832133,0.668406,0.737642,-0.095489
0.045590,0.468027,-0.982250,-0.261561,-0.003005,-0.965182
0.365840,0.106661,0.744610,0.546341,0.373934,-0.749456
0.554221,-0.560129,0.524354,0.990795,0.042137,-0.128643
0.184106,-0.653093,0.351188,-0.295772,-0.595980,-0.746543
-0.153235,0.238881,0.855416,-0.006307,0.636785,0.771016
-0.776478,0.316524,-0.498590,-0.311607,-0.131165,0.941115
-0.081369,-0.307908,0.629079,-0.785637,0.312628,0.533889
0.193763,0.029532,0.917567,0.690734,0.399745,0.602570
-0.011396,0.243357,0.650640,0.180304,-0.091901,0.979308
-0.035300,-0.631741,0.362542,-0.229288,0.453357,-0.861333
-0.749883,-0.023837,0.477186,0.739593,0.394534,0.545293
0.593797,-0.043119,-0.158940,-0.471595,0.819127,0.326540
0.207537,-0.077733,-0.367215,0.592891,-0.804352,0.038697
0.273074,0.222173,0.939259,0.853755,-0.055524,0.517705
0.786927,0.127834,0.457765,0.892935,0.171026,-0.416434
0.142472,-0.591117,0.369851,0.618053,0.642494,0.453004
0.105747,0.388661,0.648499,0.978075,0.131058,-0.161843
0.022006,-0.642417,0.579066,0.087149,0.914176,0.395838
0.221943,-0.050528,0.839729,0.558634,0.494640,-0.665777
-0.494698,0.195315,0.430566,0.275321,0.559985,0.781419
-0.091659,-0.327022,0.667215,0.694205,-0.658988,0.289507
-0.179197,-0.341312,0.432081,0.513133,0.453669,0.728614
-0.024696,-0.510374,0.378126,0.282585,-0.866646,0.411182
0.423146,-0.550829,-0.950535,-0.114058,0.060585,0.991625
-0.105587,-0.287596,0.360767,0.968902,-0.000078,-0.247446
-0.081843,-0.000079,0.425085,0.843284,0.445315,-0.300942
0.110181,0.581302,0.627721,0.979686,0.123868,0.157706
0.383410,-0.301025,0.481832,0.884191,-0.458633,-0.088664
0.616750,0.076523,0.564552,0.263371,-0.950999,-0.161980
0.398609,0.396752,0.554581,0.956911,0.205546,-0.205114
0.362990,0.204615,0.958836,-0.443680,-0.866944,-0.227062
0.477287,-0.156584,0.662073,-0.130107,-0.238944,0.962277
0.435175,-0.642595,0.542443,-0.529646,0.801276,0.278266
0.116670,0.295172,0.954764,-0.813208,0.495383,-0.305430
-0.564511,0.432216,0.338711,-0.008738,-0.919944,0.391953
0.233180,-0.009210,0.843044,-0.524423,-0.129259,0.841590
0.294447,0.901352,0.456226,-0.825248,0.545322,-0.146933
-0.067596,0.750889,0.839180,0.785485,0.288662,-0.547437
0.376130,-0.397772,0.757583,0.124751,0.874728,0.468282
-0.785661,0.077217,0.602767,-0.537545,0.641077,-0.547783
0.529999,-0.089953,0.834534,-0.395279,-0.599953,-0.695566
0.488210,-0.092538,0.698042,0.743937,0.620540,0.247967
0.146748,-0.091676,-0.053772,0.399573,0.852476,-0.337086
-0.117302,-0.736767,0.587027,-0.532888,0.430812,0.728307
0.418397,0.272107,0.864265,0.341612,0.802953,0.488433
0.070760,0.329438,0.752963,0.950343,0.309674,-0.030810
0.219885,0.648101,0.530227,-0.216274,-0.072906,-0.973607
-0.126960,0.610399,0.549308,0.078019,-0.299674,0.950846
-0.120312,-0.272097,0.304020,0.654749,-0.337134,0.676494
-0.779642,0.475771,0.267111,0.596302,0.374557,0.710022
-0.151337,-0.539807,0.510650,-0.130874,-0.244206,0.960851
-0.049392,-0.185502,0.605116,-0.281546,0.454092,0.845300
-0.548047,-0.213043,0.265362,0.938667,-0.308955,0.153135
-0.186004,0.265561,0.702924,-0.691453,0.711280,-0.126386
0.148173,-0.171389,0.863508,-0.747462,0.443151,0.494892
0.861330,0.246972,0.327304,0.989204,0.019651,0.145222
0.001425,-0.190671,0.634247,0.381470,-0.501506,0.776513
0.393860,-0.102352,-0.128243,-0.231115,0.950995,0.205413
-0.426783,0.026086,0.587836,0.494824,0.801478,-0.335830
0.476968,-0.068601,0.479118,-0.023024,0.184965,0.982475
-0.205638,0.099431,0.575411,0.678899,0.525401,-0.512883
0.609469,-0.208398,0.738841,0.521924,-0.675655,-0.520659
0.696853,0.000089,-0.130671,0.010187,0.483712,0.875168
0.295713,-0.028145,0.851840,-0.250104,0.175865,0.952113
0.407633,-0.056548,0.751396,-0.227909,0.965922,0.122687
-0.704133,-0.005249,0.212529,-0.204628,-0.805711,0.555838
-0.031662,0.231126,0.834221,-0.647000,-0.733942,0.206687
0.016464,0.384521,0.803419,0.953128,0.112193,-0.280999
0.480611,0.212359,0.819185,0.821597,0.569240,-0.030717
0.225267,-0.107859,0.700209,0.072698,0.402138,0.912688
0.375971,0.705432,0.039598,0.742532,-0.664468,0.084428
-0.477919,0.596969,0.556774,0.850062,-0.495678,-0.178040
-0.658856,0.181203,0.586400,0.502263,-0.863341,-0.048716
-0.357448,-0.188948,0.328113,0.322912,-0.570465,-0.755180
-0.456707,-0.014885,0.270321,0.872552,0.300907,-0.384849
-0.007599,-0.058271,-0.658079,0.684924,0.704061,-0.187556
-0.359033,0.416895,0.800835,-0.103821,0.808987,-0.578586
0.375178,-0.271750,0.892039,-0.126789,0.990296,0.056915
0.134873,0.127655,0.939259,0.702080,0.678606,0.215817
-0.031817,0.234919,0.461890,0.965279,-0.231412,0.121185
-0.286055,0.113375,0.702141,-0.446915,0.441978,0.777768
0.239513,-0.299985,-0.502454,0.993075,0.088371,0.077416
0.231440,0.065511,0.709684,-0.281438,0.681257,0.675783
0.106065,-0.389512,0.376716,-0.731249,-0.181996,0.657383
0.438344,0.772230,0.544401,-0.542416,-0.757693,0.362885
-0.844706,0.500906,0.255234,0.650354,0.396641,0.647855
0.239354,0.386423,0.574054,0.961383,-0.070245,0.266098
0.344627,0.374023,0.645262,0.706201,-0.693346,0.143354
0.245214,0.030562,0.935891,-0.379929,-0.896419,0.228224
0.157197,-0.349403,-0.163482,-0.189012,0.810730,-0.554067
0.907235,0.141431,0.235813,0.984953,-0.099327,0.141426
-0.230015,-0.202546,0.568990,-0.667494,-0.726717,-0.162279
-0.321829,0.081000,0.027878,-0.523519,-0.761655,0.381851
0.798643,0.169665,0.407100,0.845121,-0.444612,0.296800
0.868770,0.158653,0.290916,0.776350,-0.630297,0.002768
0.457180,-0.360931,0.659201,-0.140464,0.568616,-0.810522
-0.098147,0.508483,0.722631,0.784809,0.091776,-0.612905
0.706665,-0.099589,0.846803,0.525232,0.843538,0.112141
-0.667248,0.178271,0.619264,0.521524,0.797606,0.303048
0.709834,0.721099,0.186896,0.812966,0.532159,-0.236417
0.230175,-0.270038,0.881336,0.088280,0.873578,0.478611
-0.017097,-0.631057,0.611616,-0.701758,0.613780,-0.361675
-0.065697,-0.397772,0.599765,-0.050725,0.986830,0.153603
-0.274654,-0.689765,0.580449,-0.231702,-0.902186,0.363833
0.559762,-0.589740,0.608196,0.990887,-0.129058,-0.038570
-0.028972,-0.051736,0.692848,0.644017,0.677448,-0.355397
-0.558491,0.282605,0.403106,0.558518,0.597429,-0.575445
0.205005,0.153998,0.913808,-0.551904,0.348323,-0.757676
0.031503,-0.786343,0.536648,-0.039216,-0.938878,-0.342008
0.339878,0.699064,0.583816,0.889826,-0.021413,0.455798
-0.758274,-0.022124,0.542652,-0.558777,0.565535,-0.606580
-0.188062,0.182412,0.880762,0.283422,-0.388942,0.876582
-0.116351,0.296548,0.674915,-0.202045,0.324587,0.924024
0.299829,0.601446,0.752310,0.025843,-0.913612,0.405764
-0.482036,-0.013508,0.671600,0.391363,0.535622,0.748294
0.555801,0.003189,0.651997,0.766048,0.282367,0.577442
0.798010,0.379708,0.548055,-0.223557,0.437494,0.870989
0.760647,0.682367,-0.188384,-0.489660,-0.531119,0.691481
0.224793,-0.649824,0.299582,-0.725277,-0.258877,0.637931
-0.449266,0.165704,0.647951,0.413418,0.647058,-0.640626
-0.278615,-0.421876,0.619238,0.006700,0.966096,0.258095
-0.671523,0.097361,0.540146,-0.516784,0.800803,-0.302735
0.060470,-0.313592,0.563482,-0.433098,0.538362,-0.722906
0.834890,-0.096321,0.556121,-0.439700,0.800115,0.408020
0.373280,-0.252994,0.739468,0.843777,0.295202,-0.448215
0.227798,-0.625373,-0.955495,-0.122303,0.032021,0.991976
-0.560395,0.154345,0.378674,-0.068005,-0.876264,-0.477009
-0.222735,0.461312,0.250274,0.189529,-0.895499,-0.402691
-0.026435,0.112334,0.913208,0.239041,0.254539,0.937054
-0.336076,0.098737,0.469538,-0.461243,0.796481,0.390991
0.177140,0.713523,0.432524,-0.166589,0.967889,0.188255
-0.095457,-0.636217,0.361890,-0.671727,-0.627457,0.393802
0.337501,0.254202,0.915531,0.527962,0.701996,0.477973
0.241098,0.341144,0.797755,0.307999,0.219878,0.925630
0.479978,0.428601,0.573427,0.750897,0.654233,0.090182
-0.247585,-0.463372,0.631846,-0.546395,0.615999,0.567449
0.135032,0.346650,0.624798,0.754957,0.634459,-0.165834
-0.126800,-0.846081,0.572697,-0.205580,-0.974662,-0.088150
0.362516,-0.756732,0.415244,0.585978,-0.677540,-0.444487
0.402884,-0.016608,0.720099,-0.521165,0.730379,-0.441513
-0.638595,0.246794,0.405168,0.553414,0.563454,-0.613394
0.407633,-0.156405,0.664448,0.161512,-0.221370,-0.961722
0.165270,0.385897,0.721457,0.987836,0.153941,0.021974
-0.603928,0.161059,0.682146,-0.583365,-0.784354,-0.210890
0.129332,0.383323,0.577865,-0.226096,0.598884,0.768257
-0.184738,-0.204090,0.599374,-0.497828,-0.039031,-0.866397
0.503090,0.028671,-0.958758,0.439767,-0.120113,-0.890044
0.067596,-0.303431,-0.907439,0.617969,0.781051,-0.089852
0.350168,0.314107,0.642443,0.981340,-0.045186,0.186898
0.915626,0.135578,0.236779,0.984953,-0.099327,0.141426
0.377395,-0.410171,0.359097,0.955469,-0.285275,0.075479
0.115245,0.637772,0.793840,0.012978,-0.801123,0.598360
0.109544,-0.704392,0.504986,0.130073,0.969679,0.206890
-0.351274,0.376430,0.417384,-0.451614,0.851855,0.265309
0.344786,0.913404,0.511720,0.832638,-0.538786,-0.128157
0.056992,0.449081,0.560715,0.835187,-0.548042,-0.045969
-0.238406,-0.140223,0.624354,-0.308724,-0.744327,0.592171
0.136776,-0.721436,0.576246,-0.406902,-0.629379,0.662052
0.394333,0.187225,0.805168,0.756374,-0.275708,-0.593198
0.133607,0.005774,0.711485,-0.146940,-0.388707,0.909569
-0.392908,0.160366,0.657426,-0.700331,0.250166,0.668546
-0.848190,0.040544,0.545497,0.941353,0.296081,-0.161836
-0.209275,-0.745373,0.616158,0.987612,-0.137182,-0.076183
0.421402,0.041921,0.822814,0.430907,0.474753,0.767417
-0.670098,-0.009725,0.530410,-0.556597,0.826875,-0.080486
-0.278770,0.699064,0.320804,-0.480505,0.775224,-0.410051
0.437392,0.015063,0.653171,-0.317958,-0.270053,0.908831
0.140574,-0.292755,-0.452388,0.945705,-0.266452,0.186133
0.732945,0.118188,0.537954,0.983994,0.059886,-0.167838
-0.065219,0.374023,0.736857,0.753462,-0.611791,-0.240847
-0.651576,0.135925,0.593814,-0.099331,0.941409,0.322308
0.730254,0.194632,0.384625,0.977985,-0.177740,0.109334
-0.003957,0.427740,0.712321,0.022361,-0.433321,0.900962
0.247586,-0.225274,0.387497,-0.369910,0.919840,-0.130619
-0.235078,0.571666,0.391517,0.912860,0.080552,-0.400248
0.080258,-0.199960,-0.629183,0.437679,0.896918,-0.063048
-0.087224,0.562881,0.772957,0.299118,-0.532609,0.791743
-0.157830,0.460104,0.438711,0.989702,-0.019656,-0.141791
0.548680,-0.607982,0.509345,-0.369016,0.700774,0.610527
0.305370,-0.001803,0.765205,0.653170,-0.568570,-0.500097
0.212918,-0.211330,0.507126,-0.688962,-0.130313,-0.712987
0.118887,0.063273,0.852415,0.994550,0.100963,0.026011
0.273234,0.124566,0.732837,0.990014,0.007671,-0.140761
0.079152,0.278297,0.813939,0.838326,0.375243,0.395476
-0.106853,0.197733,0.513913,-0.833986,-0.078554,0.546165
0.552163,-0.026769,0.846803,-0.211548,0.967542,0.138240
-0.106538,0.566843,0.695484,0.523120,0.433457,0.733799
0.764289,0.210815,-0.361838,0.391151,-0.915705,0.092117
-0.105906,-0.852795,0.575281,-0.293653,-0.912747,-0.284009
-0.010764,-0.535845,0.477186,-0.233407,-0.055819,-0.970776
0.196928,0.801327,0.473871,0.480320,-0.876161,0.040428
0.200097,-0.639663,0.473401,0.102342,0.389985,-0.915116
0.274022,-0.619352,0.270791,0.763984,-0.598405,-0.241330
-0.153869,0.583540,0.436753,0.952972,0.168329,-0.252013
0.161313,-0.026769,-0.064631,0.583520,0.812098,0.001497
0.247427,0.282437,0.760480,-0.420429,-0.785575,0.453994
0.410324,0.876564,0.345419,0.124745,0.972329,0.197522
0.019947,-0.411726,0.594127,-0.034035,-0.271425,0.961858
0.123795,-0.875692,0.576142,-0.495923,0.451683,-0.741649
0.148173,-0.014370,-0.161551,0.969989,-0.066319,-0.233930
-0.020739,0.112166,0.781180,0.852172,0.167287,0.495800
-0.908186,0.483348,0.267789,0.148070,0.655299,0.740715
0.007440,-0.048983,-0.287053,0.762037,0.622565,0.178080
0.101950,-0.243179,0.185043,0.870356,0.449838,0.200316
0.069021,-0.657569,0.521718,-0.731992,0.286055,-0.618353
0.696060,0.062065,0.445523,0.985387,-0.170091,0.009016
0.064746,-0.288973,0.374602,0.284688,0.455978,-0.843230
-0.114293,0.012825,0.644845,0.115088,0.468675,0.875842
0.663132,0.014202,0.826729,0.972043,0.213402,-0.097937
-0.790410,0.251448,0.444949,0.106688,0.617609,0.779215
-0.813203,-0.071879,0.192482,0.886422,0.343322,-0.310461
0.355550,0.684942,0.650901,0.209900,0.479852,0.851871
-0.154820,0.109928,0.445889,0.669889,0.679487,0.299241
0.370270,-0.410003,0.492326,-0.151625,0.445942,0.882126
-0.520027,-0.455103,0.237275,-0.499236,0.460910,0.733707
-0.002531,0.398990,0.762177,0.799857,0.027597,-0.599556
0.505621,0.117326,0.808771,0.497954,0.266805,0.825141
0.712838,0.031245,0.490733,0.782187,-0.617376,-0.083847
0.254234,-0.350602,-0.862986,0.509955,0.852573,-0.114304
0.795792,0.316692,0.412190,-0.734055,0.380772,-0.562295
0.297452,-0.194108,0.659462,0.624631,-0.085613,-0.776213
0.282731,-0.224927,0.725894,-0.739900,-0.020283,-0.672411
-0.754472,0.115435,0.571679,-0.467943,0.862598,-0.192233
-0.691785,-0.219589,0.445262,-0.110096,0.140376,0.983958
-0.069180,-0.506234,0.756226,0.934496,-0.268983,0.233164
-0.553429,-0.085476,0.197651,0.323694,-0.282980,0.902854
-0.331327,0.203406,0.630593,-0.037012,0.705456,0.707787
-0.047967,0.515365,0.445158,0.474122,-0.659340,-0.583506
0.214503,0.351641,0.732576,0.614472,0.649724,-0.447530
-0.143264,0.211676,0.710049,-0.353729,0.836191,0.419118
0.165111,-0.327358,-0.745889,0.620286,0.776267,-0.112494
-0.688461,-0.112335,0.466536,-0.072116,0.888633,0.452914
0.629257,0.518644,0.648603,0.887964,0.458532,0.035616
0.511321,-0.001287,0.718455,-0.383607,-0.627158,0.677877
0.161154,-0.370745,0.129105,-0.678904,-0.640883,-0.358272
0.306950,-0.648269,0.331036,-0.751586,0.433852,-0.496881
0.071553,-0.182916,0.258914,0.918915,-0.259798,-0.296818
-0.405889,0.190156,0.579274,0.954542,-0.290053,-0.068696
0.758275,0.162604,0.559802,-0.380183,-0.358759,0.852498
0.131390,-0.179817,0.654477,0.066782,-0.060320,0.995943
-0.052716,0.429463,0.775542,0.667066,0.262410,-0.697255
0.032769,0.577172,0.526520,0.576415,-0.279066,-0.768029
0.023112,0.322198,0.846124,-0.407648,-0.912267,0.039907
0.778536,0.332013,0.414043,0.879985,-0.384354,0.279103
0.502930,0.210983,0.516001,-0.117716,0.977137,-0.177048
0.531743,-0.119911,0.666171,-0.287297,0.951950,0.106070
0.127593,0.017648,0.972122,0.981238,0.126138,0.145809
-0.927341,0.406041,0.283660,-0.081575,-0.152667,0.984905
0.146588,0.492815,0.639598,0.836108,0.009602,0.548480
0.169067,0.531211,0.785252,-0.548513,0.742737,0.384025
0.499133,0.306016,0.566902,0.232444,0.972447,-0.017763
0.338926,0.352157,0.693500,-0.048461,-0.889227,0.454891
-0.108596,0.453558,0.655599,0.289409,-0.029898,0.956738
-0.780275,-0.032275,0.477030,0.907789,0.369871,0.197772
0.171285,0.462174,0.599713,0.956477,-0.148618,0.251126
-0.001106,-0.904452,0.489742,0.846925,0.467118,-0.254004
-0.113979,0.549967,0.428504,0.838545,0.069596,-0.540369
-0.426310,-0.002842,-0.476612,0.343897,0.935957,-0.075621
0.348743,0.285536,0.681206,0.901285,-0.153820,0.404999
-0.579864,0.414132,0.319916,0.503391,0.739529,-0.446871
0.578284,-0.162258,0.704490,0.898583,0.438057,0.025589
0.515752,0.066888,0.475646,0.845693,0.140004,-0.514978
0.892195,-0.130924,0.571548,0.864974,-0.450179,0.221719
0.012348,0.377638,0.779274,-0.527615,-0.084385,-0.845282
0.667721,-0.095291,0.673401,0.903294,-0.255114,0.344931
0.095616,-0.035890,0.879013,0.739982,0.601464,-0.301112
0.797691,-0.137123,0.557061,0.962524,0.209152,0.172637
-0.342095,-0.219936,0.246411,-0.687480,-0.143281,0.711928
-0.098466,0.346135,0.678570,-0.023827,0.003217,0.999711
-0.634006,0.171042,0.586322,0.458107,-0.865244,-0.203694
0.034353,0.385214,-0.984756,-0.145706,0.015946,-0.989199
-0.014880,0.520882,0.705194,0.465241,0.849067,0.250274
-0.203102,-0.280188,0.603733,0.912695,-0.263344,0.312470
-0.376922,0.384353,0.809710,0.161291,0.933612,-0.319929
0.224315,-0.470434,-0.923989,0.925547,0.362150,-0.110495
0.565145,-0.079971,0.826312,0.620650,0.435298,0.652157
-0.263258,-0.560990,0.639702,0.831335,0.511126,0.218249
0.085485,-0.107344,0.668833,-0.497551,0.638519,-0.587142
0.280987,-0.168458,-0.120439,0.103166,0.992304,-0.068476
-0.252653,0.241455,0.614957,-0.159242,0.985151,-0.064188
-0.072185,-0.487130,0.523310,-0.754108,0.543682,0.368416
0.202788,0.421887,0.938789,0.956393,-0.284904,0.064364
0.232233,-0.872939,-0.953720,-0.163705,-0.028600,0.986095
0.020261,-0.909096,0.568781,0.808590,0.275568,0.519850
-0.097515,-0.427047,0.565492,0.210576,-0.703708,0.678567
0.401933,0.491260,0.556591,0.872235,0.411770,-0.263914
0.262784,0.246972,0.584469,0.719089,0.546190,0.429636
-0.172391,0.629859,0.673767,-0.551303,-0.081923,-0.830273
0.306636,0.751919,0.627408,0.992947,0.118511,0.003511
0.875577,0.110443,0.526912,0.347171,0.749948,0.563073
0.296505,-0.061204,0.579588,0.415897,0.117757,-0.901755
-0.167168,0.463719,0.702662,-0.320695,0.729225,-0.604471
0.243470,0.446507,0.580292,0.940643,0.088327,0.327704
-0.430426,0.145224,-0.215871,-0.359430,-0.932747,-0.028150
-0.015672,0.738143,0.456487,0.684575,0.592287,-0.424916
-0.167328,-0.693894,0.656643,0.450570,-0.876500,0.169514
0.097988,-0.659292,0.478622,0.215439,-0.972634,0.087007
-0.109862,0.224075,0.415557,0.813788,-0.225345,-0.535695
0.891408,0.211498,0.510519,0.748967,0.660922,0.047225
0.126960,-0.875870,-0.955234,-0.231264,0.118929,0.965595
0.119680,-0.259182,-0.283738,-0.381881,-0.918952,-0.098463
0.068548,0.183788,0.915635,-0.090680,0.936811,0.337880
0.346844,-0.075147,0.725972,0.732571,-0.341167,-0.589020
-0.220676,0.318584,0.524250,0.935831,-0.324361,-0.137879
-0.507360,-0.394682,0.339520,0.329294,0.908118,0.258625
0.053823,-0.987947,0.567502,0.224866,0.633637,0.740229
-0.258668,-0.449943,0.584782,0.822609,0.059360,0.565500
0.014720,0.361109,0.772749,0.666870,0.564372,-0.486590
0.363782,0.055529,0.652963,0.557228,0.733058,-0.390029
0.898848,0.199624,0.618637,0.604210,0.554345,-0.572391
-0.333544,-0.279505,0.435787,-0.705202,0.696088,-0.134731
-0.198512,0.207883,0.732681,0.255975,0.957092,0.135839
0.418556,0.692003,0.541738,-0.542951,-0.839512,0.020593
-0.136776,0.360595,0.750979,0.775859,-0.481539,0.407631
0.080104,0.436514,0.760089,0.479319,0.227514,0.847638
0.316766,-0.253330,0.652754,0.764924,-0.257740,-0.590307
0.128545,0.475771,0.776873,-0.256387,0.847763,-0.464289
0.353811,-0.069809,0.732916,0.762843,0.510688,-0.396571
0.236982,0.421887,0.557479,0.869054,-0.268371,-0.415599
-0.252175,-0.727289,0.533751,-0.104750,0.976541,-0.188138
0.585091,-0.531369,0.502219,-0.484680,0.737503,0.470292
0.378029,-0.304986,0.896502,-0.126789,0.990296,0.056915
0.645402,0.196177,0.582929,0.250470,0.819663,0.515187
-0.291277,0.283298,0.573819,-0.395857,-0.680829,-0.616254
-0.127119,-0.732973,0.621874,0.973452,0.195077,-0.119737
-0.087224,0.269869,0.687001,0.476882,-0.716102,-0.509688
-0.311539,0.308254,0.750352,0.212388,-0.816292,0.537177
0.726298,-0.091329,-0.010050,0.003104,-0.967581,0.252542
0.282413,0.209091,0.723701,0.820819,0.411011,-0.396644
-0.514013,0.324268,0.725241,0.063744,0.986933,-0.147984
0.146429,0.077386,-0.981363,-0.016293,0.275184,0.961253
-0.302041,-0.081347,0.471443,-0.716359,0.464034,0.521059
0.720757,0.217529,0.456513,0.919901,0.389336,0.046893
0.267374,0.706125,0.570165,0.978144,-0.065561,-0.197322
-0.005068,0.216836,0.755338,0.477054,-0.857156,0.194173
0.454808,0.635712,0.615479,-0.308511,0.945925,0.100236
0.111447,-0.252300,-0.091438,-0.672134,0.735164,0.088154
-0.124742,0.446160,0.532028,0.137846,0.330248,0.933774
0.110495,-0.445288,-0.953485,0.380073,0.242233,-0.892674
-0.454489,0.318762,0.775542,0.805861,-0.550032,0.219211
0.308694,-0.290349,0.661472,0.547398,-0.835999,-0.038218
0.358081,-0.364377,0.378126,0.975769,0.124998,-0.179585
-0.396391,0.124566,0.453224,0.151798,-0.907943,-0.390636
0.305370,-0.266076,0.886531,-0.040738,0.950882,0.306861
-0.110495,-0.235603,0.414122,0.253040,-0.704531,0.663029
-0.116351,0.111305,0.725790,-0.661183,-0.552370,0.507666
0.222575,-0.238188,0.458497,-0.274966,-0.352250,0.894603
-0.051924,0.307393,-0.677839,0.982742,0.178957,0.046822
-0.153081,-0.548244,0.585774,0.049592,-0.314468,0.947972
0.438025,0.563229,0.774550,0.509787,0.859908,-0.025998
0.572265,-0.162605,0.747899,0.770383,0.269279,-0.577926
-0.069813,0.185165,0.834743,-0.758322,0.237254,-0.607173
0.045910,-0.550136,-0.955495,0.317146,0.047708,-0.947176
0.239986,-0.477831,-0.731741,0.907122,0.413054,-0.080720
-0.487098,0.112513,0.195719,0.137716,-0.819036,0.556969
-0.184424,0.158653,0.458079,-0.691859,-0.721328,-0.031893
-0.085326,0.013350,0.696346,0.209929,-0.969606,0.125672
-0.313442,-0.001119,0.591099,-0.635906,-0.401818,-0.658913
-0.012508,0.248002,0.534508,-0.469571,-0.026938,0.882484
-0.109389,0.269869,0.719629,-0.773074,-0.162402,-0.613174
0.562927,0.114404,0.662516,0.016254,0.188324,0.981972
0.445784,0.697856,0.033803,0.970869,-0.239050,-0.016360
0.145009,0.655162,0.557426,-0.406857,0.858069,-0.313345
-0.120785,0.372300,0.363665,0.590252,0.806911,-0.022300
-0.283678,0.186541,0.536179,-0.230599,0.091621,-0.968726
0.170965,0.442545,0.753067,-0.150085,0.706340,-0.691780
0.418078,0.224926,0.812164,0.645541,-0.034166,-0.762961
-0.385787,0.503659,0.329783,-0.023102,0.417195,0.908523
0.367265,-0.117326,0.736335,-0.642268,0.247907,0.725282
0.085799,0.478692,0.646933,0.735746,-0.030098,0.676588
0.073929,0.178271,0.780371,-0.688446,-0.327128,-0.647325
-0.486939,0.121119,0.438267,0.785221,-0.615246,-0.070001
-0.068228,-0.397435,0.354894,0.193130,0.221271,-0.955898
0.343361,-0.323922,0.751997,-0.179211,-0.803227,-0.568076
0.054455,-0.555821,0.366171,0.330343,0.348348,-0.877227
-0.477919,-0.091329,0.526547,-0.565604,-0.800314,-0.198969
0.087224,-0.258321,0.670112,0.175563,-0.978459,0.108609
-0.738641,-0.334766,0.457296,-0.247670,-0.968832,-0.004831
0.429320,-0.609359,-0.953511,-0.120167,0.006965,0.992729
0.066012,-0.152622,0.848447,-0.348763,0.801440,0.485858
0.397183,-0.203753,0.714069,0.520369,-0.648030,-0.556124
-0.166850,-0.352493,0.266562,-0.431592,0.292327,0.853390
0.320563,-0.032622,0.799060,0.868747,0.494430,0.028597
0.372014,0.123357,0.745706,0.455686,0.578526,-0.676504
0.068229,0.203753,0.843957,0.770272,0.620494,-0.147204
0.005542,-0.206675,0.603315,0.832908,0.373899,-0.407999
0.561821,0.339768,0.657844,-0.679064,0.518066,0.520077
0.607251,0.313245,0.591412,0.863515,-0.161798,0.477664
-0.162100,-0.357148,0.238972,0.198357,-0.322386,-0.925593
0.115718,0.744342,0.532968,0.106587,-0.882138,0.458772
0.540607,-0.019708,-0.948264,0.984034,-0.006704,-0.177853
0.483934,0.852973,-0.180005,0.237275,-0.786070,0.570784
-0.154506,-0.425155,0.768076,-0.226637,-0.678828,-0.698448
0.419029,-0.100450,0.610963,0.078457,0.996158,0.038894
-0.340037,0.204447,0.332002,-0.703347,-0.404125,0.584796
0.079625,-0.298094,0.377656,0.815630,0.017549,-0.578307
0.800701,0.226829,0.604359,-0.638938,0.754767,0.148614
-0.625141,0.201168,0.539650,-0.639281,0.123660,0.758965
0.020894,-0.073592,0.479588,0.585793,0.754327,-0.296373
-0.657910,0.290012,0.523440,-0.226836,0.187102,0.955792
0.234764,-0.721099,0.518455,-0.015664,0.982828,0.183856
0.042586,-0.430661,-0.626259,-0.525704,0.151116,-0.837137
0.617223,0.003536,0.598747,-0.805323,-0.008553,-0.592775
-0.844547,-0.029690,0.461916,0.949597,0.292469,0.112815
-0.572584,0.115781,0.443305,-0.215984,0.830850,0.512873
0.242837,-0.205645,-0.924276,0.620957,-0.708861,-0.334557
-0.078045,-0.642249,0.484495,0.797362,0.572377,0.191308
-0.038469,-0.820609,0.567763,0.311452,-0.717725,0.622791
-0.159255,-0.198930,-0.708431,0.745413,-0.662984,-0.069364
-0.635745,0.548076,0.291934,-0.232917,0.925856,0.297557
-0.011237,-0.061718,-0.523493,0.034672,0.995048,0.093147
0.031817,0.599723,0.553093,0.857525,0.099291,-0.504769
-0.438185,0.245249,0.520047,0.998003,0.032156,-0.054369
0.325158,0.535688,0.726207,0.287930,0.883851,-0.368652
0.477287,0.888101,-0.956669,0.324123,-0.795818,0.511486
0.890297,-0.154860,0.504803,0.815076,-0.563446,-0.134831
0.608677,0.421540,0.381049,-0.006744,0.566855,0.823790
-0.069494,0.044159,0.680579,0.946765,-0.306724,-0.097755
-0.126008,0.314969,0.641556,-0.673631,0.250408,0.695354
-0.030392,0.105284,0.650405,-0.626121,-0.034021,0.778983
-0.243470,-0.168805,0.543540,0.699342,0.682066,-0.213791
0.236663,-0.306700,0.631872,0.664263,-0.744366,-0.068363
0.986545,-0.034345,0.130697,0.541235,0.821815,-0.178002
-0.528100,0.052082,0.435343,-0.732649,0.503636,0.457795
0.203894,-0.467848,0.309188,-0.671349,-0.736581,0.082084
-0.007913,0.775677,0.475281,-0.288421,0.246587,0.925207
0.217826,-0.850735,0.673088,-0.629542,0.734312,0.253895
0.301887,-0.167942,0.726259,0.978752,-0.048636,0.199196
-0.612473,0.211844,0.686427,0.788898,0.582634,0.195390
0.334970,0.718178,0.581258,0.964768,-0.081357,0.250207
0.427894,0.442198,0.592848,0.994661,-0.089637,0.051135
0.197879,0.751572,0.447533,0.160452,0.963888,-0.212543
0.362038,0.213914,0.509110,0.985092,-0.159104,0.065413
-0.614377,0.036415,0.408953,0.700473,0.694181,0.165681
0.427735,-0.174657,0.774994,0.590752,0.032215,0.806210
0.273707,0.825600,0.547873,-0.151843,0.984581,-0.086859
0.181574,0.307740,0.705351,0.248653,0.907317,0.339039
0.224315,-0.485923,0.349935,0.353068,0.799593,-0.485793
0.612320,-0.022986,0.544505,0.275923,0.275500,-0.920851
0.012029,-0.272097,0.366066,-0.051188,-0.665590,0.744560
-0.437233,0.282437,0.553798,0.898623,-0.437560,0.031917
0.183000,-0.326160,0.382694,0.098162,0.208602,-0.973062
0.233972,-0.124388,0.615322,0.634195,-0.692639,-0.343581
0.124742,0.393305,0.544662,-0.593617,-0.781088,0.193701
-0.174927,-0.218381,0.529496,0.731390,0.621282,0.281207
-0.115403,0.757940,0.531428,-0.163486,-0.929157,0.331571
0.339085,0.484724,0.732889,-0.735669,0.628573,-0.252363
-0.009816,-0.381253,0.565414,-0.499163,0.253833,-0.828496
0.719331,-0.092191,0.544531,0.322329,-0.364396,0.873682
0.537916,0.003704,0.515662,0.979767,-0.101357,-0.172577
0.041475,0.445645,0.602897,-0.119211,0.986020,-0.116422
0.174608,0.139886,-0.987340,-0.106646,0.230989,0.967094
0.001899,0.660500,0.718611,0.035166,-0.778808,0.626276
-0.091026,0.276237,0.540407,-0.454617,-0.458183,-0.763801
0.175874,-0.095113,-0.011798,-0.107978,-0.982555,-0.151415
0.830141,0.348542,0.434299,-0.650785,0.748093,-0.129751
0.302519,-0.521565,0.267476,0.843846,-0.392770,-0.365590
0.071553,-0.007140,0.754946,0.385830,-0.859652,0.334862
0.576860,-0.145729,0.677499,-0.304594,0.421278,0.854252
-0.156564,0.744857,-0.332733,-0.671280,0.741064,-0.014421
0.441668,-0.539124,0.384077,0.954878,0.285298,0.082538
0.325312,0.668591,-0.988932,-0.512783,-0.043420,0.857420
0.894573,-0.123011,0.485539,0.895362,-0.130499,-0.425789
-0.307741,0.499698,0.545732,0.799427,0.289904,0.526186
-0.817638,0.010072,0.451658,0.495742,0.050401,0.867006
0.367265,0.050012,0.762569,-0.282734,0.869224,-0.405600
0.279089,0.466819,0.514853,0.489245,0.632502,0.600483
0.499447,-0.393474,-0.939781,-0.150754,0.137876,0.978909
-0.865127,0.322545,0.399191,0.418826,0.841006,-0.342481
-0.734052,0.288110,0.615114,0.555798,0.484030,0.675873
0.272915,-0.491260,0.319786,0.986828,0.124928,-0.102780
-0.661074,0.241970,0.542783,0.714377,0.284269,-0.639419
0.321515,0.606437,0.572540,0.307918,-0.947636,0.084687
0.498814,0.088062,0.397207,0.552907,0.820019,-0.147861
0.189488,-0.102688,-0.142391,-0.401776,-0.915725,-0.004796
0.336395,0.689250,0.581833,0.821013,0.067753,0.566875
0.035146,0.430325,0.683346,-0.016906,-0.939661,0.341689
0.558337,-0.598000,0.614304,0.720559,-0.595340,0.355479
-0.160521,-0.218559,-0.242730,0.944288,-0.135380,0.299989
-0.054455,0.406387,0.641973,-0.005741,-0.989933,0.141420
-0.009024,-0.236633,-0.113365,-0.023839,0.952691,0.303005
-0.692736,0.289151,0.711511,0.562858,0.767015,-0.308023
-0.244421,0.124902,0.873741,-0.353728,-0.923198,0.150274
-0.167328,0.301719,0.641817,0.868529,0.208557,0.449624
0.095616,-0.575103,0.388306,0.739038,0.612228,0.281070
0.561342,-0.025739,0.825816,-0.300844,0.510192,0.805728
-0.631155,0.147462,0.572775,0.166999,-0.928470,0.331745
-0.188855,-0.343372,-0.176847,0.815515,-0.576757,-0.047824
0.133134,0.516058,0.729183,-0.163079,0.833697,0.527593
-0.109389,0.523971,0.723206,0.583393,0.422298,-0.693770
0.895205,-0.155890,0.500365,0.949150,-0.311412,-0.046222
0.675480,0.018678,0.519107,0.950550,-0.310552,0.003612
0.216716,-0.242486,0.618037,0.617898,-0.712901,-0.331624
0.145009,-0.672721,0.387027,0.808719,0.587298,-0.032486
0.093085,0.304818,0.768859,0.945835,-0.074243,-0.316045
0.264209,-0.020916,0.733699,-0.603742,0.770994,-0.202641
0.341303,0.738322,0.576742,-0.342823,0.827417,-0.444808
0.091341,0.725743,0.655155,-0.664365,0.710695,0.231370
0.219725,0.272790,0.747951,0.791437,-0.563879,-0.235941
0.350482,0.145907,0.750274,-0.665742,-0.593212,0.452645
-0.476968,0.062927,0.596737,0.516677,0.378118,0.768161
-0.143583,0.788928,-0.986896,0.106617,0.057286,0.992649
-0.321196,0.212191,0.700078,-0.159956,0.865016,-0.475564
0.459712,0.318416,0.537484,-0.687758,-0.177183,0.703985
0.403358,0.382283,0.814826,0.767804,0.611903,-0.189875
0.044798,-0.283466,0.253876,0.957026,-0.271011,0.103222
0.438658,0.466304,0.568363,0.726483,0.623419,-0.289088
-0.793888,0.389859,0.423545,-0.356032,-0.929965,-0.091692
-0.272282,0.486962,0.811981,0.971684,-0.108607,0.209843
-0.070127,-0.312899,0.734482,0.901313,-0.418924,0.110170
-0.157351,-0.835236,0.589115,-0.737324,-0.647606,-0.192249
0.430426,0.130072,0.782250,0.873817,0.423195,-0.239477
0.040368,-0.200822,0.857009,-0.567072,-0.269024,0.778495
-0.028972,-0.258321,0.721665,-0.385473,0.604763,0.696901
0.210227,-0.686665,0.515845,0.915149,-0.365567,-0.169889
-0.181256,0.087378,0.506395,0.906534,-0.341479,0.248168
0.173816,-0.206160,0.566484,-0.190345,0.646055,-0.739176
0.717587,0.003010,0.501932,0.987112,-0.151280,0.052199
-0.050972,-0.545492,0.364944,0.591721,-0.769573,0.240050
0.563719,0.033147,0.776612,0.331687,-0.938514,-0.095790
0.023904,0.120257,0.699243,0.941051,-0.308176,-0.139466
-0.039890,0.345274,0.625711,0.117992,-0.861101,-0.494554
0.485993,0.131795,-0.958992,0.665568,-0.168372,-0.727097
0.160202,0.259014,0.915427,-0.542364,-0.813883,-0.208410
0.054775,-0.152107,-0.096372,0.247422,-0.963629,0.101002
0.387526,0.162783,0.800444,-0.736785,0.301228,-0.605318
0.163371,0.147284,0.871887,-0.149806,-0.898215,-0.413242
-0.270697,0.227165,0.644662,0.200855,-0.945957,-0.254601
0.536492,0.072573,0.750091,0.813923,-0.474220,0.335625
-0.596169,0.520882,0.327904,-0.393455,0.834337,0.386101
0.324520,0.280367,0.853902,0.870364,-0.313065,-0.380074
-0.026914,-0.020748,0.554607,0.094178,-0.913940,0.394771
-0.185217,-0.047427,-0.975463,0.180504,0.150164,0.972044
-0.172709,0.179312,0.874863,-0.164450,-0.798140,0.579593
-0.332752,-0.123179,0.446254,0.096531,-0.198159,0.975405
-0.111920,-0.407586,0.680501,0.930942,-0.231695,0.282250
-0.060315,-0.407418,0.364109,0.192244,0.576406,-0.794228
0.144849,0.101322,0.789376,0.049770,0.903099,0.426539
-0.250117,-0.657737,0.631376,0.852114,0.522927,0.021171
0.004435,-0.221312,0.438632,0.811445,0.568146,-0.136991
0.359193,0.773786,0.572122,0.861169,-0.220844,0.457839
-0.033242,0.430661,0.633699,-0.419767,0.906711,0.040877
-0.505935,0.139886,0.606526,-0.302781,0.952886,-0.018228
-0.139148,0.155207,-0.418011,0.746023,0.527935,-0.405875
0.215450,-0.339410,-0.853433,0.477399,0.874513,-0.085544
-0.352700,0.449943,0.833855,-0.710499,0.487818,0.507173
0.646513,0.343719,0.670895,0.334614,-0.289980,0.896630
-0.024856,0.053627,0.837849,0.975902,-0.063807,0.208671
-0.173501,0.687873,0.642913,0.490969,-0.790795,0.365504
-0.294601,0.210647,0.689141,0.296407,-0.941657,0.159454
0.190753,-0.286556,0.543070,0.695454,-0.704314,-0.142429
-0.094350,-0.232157,-0.495275,0.433856,0.884106,-0.173569
0.249011,-0.477831,0.383007,0.300485,0.947478,0.109520
0.172391,0.016965,0.763743,0.492128,0.796832,-0.350528
-0.588096,0.043477,0.550692,0.249554,-0.143056,-0.957736
-0.045117,-0.636049,0.592639,0.405681,-0.556550,0.725035
-0.416652,0.319099,0.727591,-0.592772,-0.784274,-0.183129
0.481876,0.620728,0.452049,0.488840,0.200886,-0.848929
0.279722,0.163813,0.634926,0.874997,0.468084,0.123599
0.520027,-0.145046,0.668781,0.386609,-0.184197,-0.903662
0.386420,0.847467,0.457844,0.955446,-0.294477,0.020175
0.346526,0.142472,0.493318,0.798411,0.593741,0.100057
-0.224474,-0.380728,-0.209397,-0.642091,0.758519,-0.111214
0.386102,0.175865,0.900470,0.390792,-0.811281,-0.434861
0.087224,0.114404,0.932785,-0.228182,0.973516,0.014141
0.346052,0.365932,0.672018,0.534397,-0.817463,-0.214880
0.290964,-0.180678,0.654712,-0.456046,0.238337,0.857448
0.034353,0.271414,0.792900,0.453960,0.889163,-0.057528
0.400667,-0.032453,0.520621,-0.077202,0.746091,0.661354
0.680389,-0.031414,0.549413,-0.236897,-0.089712,0.967384
0.770936,0.506927,0.518690,-0.499856,-0.811112,-0.303714
0.724554,0.081694,0.577604,-0.467298,0.742931,-0.479255
0.672475,0.073256,0.781049,0.993978,0.013540,0.108736
-0.574642,0.309116,0.530332,0.793372,0.267149,-0.546984
0.124742,-0.046566,-0.697651,-0.199988,-0.316510,-0.927268
-0.877316,0.374538,0.283738,0.100279,-0.242557,0.964941
0.245369,-0.337687,-0.959619,-0.025401,0.154447,0.987675
0.269905,-0.110443,0.910650,-0.768720,-0.426307,0.476793
0.139148,0.138163,0.761759,0.997976,0.057514,-0.027147
0.320723,0.144016,0.564082,-0.640684,0.578212,-0.505168
0.403198,-0.207368,0.673584,-0.153643,-0.849451,0.504804
0.628305,-0.201515,0.760663,0.992388,0.006255,0.122990
0.530950,-0.040198,0.481832,-0.620573,-0.034295,0.783398
-0.031662,-0.290864,0.700339,-0.178725,-0.956667,0.229882
-0.648885,0.466125,0.319081,0.830730,-0.540648,0.132617
-0.100838,-0.580788,0.499843,-0.155478,-0.727389,0.668380
0.051451,-0.104927,-0.440590,0.872293,-0.474696,-0.117336
0.046542,-0.781352,0.526860,0.016444,0.864118,0.503021
0.106380,0.059826,0.965884,0.935775,0.241616,0.256800
-0.338926,0.635197,0.534377,0.097684,0.169222,-0.980725
0.162100,-0.248853,-0.481180,0.767222,0.641374,0.003134
0.282886,0.361624,0.745863,0.704766,0.284073,0.650083
0.615324,0.022818,0.825059,0.208179,0.651838,0.729225
0.570840,0.004565,0.640485,-0.682107,-0.726399,0.084106
0.514645,0.473186,0.707909,-0.254479,-0.922789,0.289312
0.494698,0.460272,0.570269,0.882173,-0.118740,0.455709
0.269272,-0.091161,0.866458,-0.599961,-0.520401,-0.607642
-0.694162,-0.142808,0.461420,-0.028367,-0.721434,-0.691902
0.744182,0.254023,0.444218,0.940481,-0.251688,-0.228361
-0.470002,0.163298,0.647324,0.171081,-0.939260,-0.297525
0.353173,0.771369,0.580919,0.815576,-0.246238,0.523644
-0.205319,0.173974,0.692456,-0.161131,0.740064,0.652949
0.007759,-0.352157,-0.396189,0.872496,-0.484229,0.065365
0.388318,0.585957,0.776429,0.668907,0.742929,-0.024903
-0.260407,0.371439,0.316105,0.161227,-0.707636,0.687937
0.036252,0.157792,0.746776,-0.317332,0.065847,0.946026
0.007126,0.371439,0.691334,0.002822,-0.995437,0.095381
-0.546148,0.259708,0.249021,-0.355228,0.596664,-0.719587
-0.467784,0.287596,0.318794,0.620709,0.429464,-0.655958
0.639069,-0.114226,0.575046,-0.169927,0.983677,-0.059190
-0.125694,-0.403971,0.616784,0.032559,0.488462,0.871977
-0.202788,0.233543,0.684678,-0.381112,0.849982,-0.363708
0.456547,0.542570,0.454346,0.954003,-0.296025,0.047402
-0.302041,0.416549,0.512921,-0.395910,-0.662913,0.635454
0.979106,0.201168,0.478126,0.131050,0.922225,0.363767
0.365207,0.683565,0.568259,0.991741,0.128172,-0.004562
0.131075,0.359386,0.540538,0.469397,0.724694,-0.504465
0.760173,0.126625,0.487862,0.955091,0.000797,0.296311
0.528573,-0.089438,0.839781,-0.045671,0.920563,-0.387916
-0.107645,0.562881,0.795302,0.849650,0.206634,0.485178
0.599652,0.351473,0.618925,0.924973,-0.214089,0.313991
-0.951086,0.366279,0.277029,0.308848,-0.198253,-0.930220
-0.071079,-0.272097,-0.764161,0.783731,0.620069,0.035772
0.540448,0.069641,0.071182,-0.235057,0.884528,-0.402938
0.915626,-0.063788,0.127982,0.713145,0.689766,-0.125087
0.741970,0.076009,0.569094,0.764059,-0.598360,0.241202
0.113027,0.388661,0.534508,0.428175,0.476782,-0.767689
0.054775,0.218559,0.141373,0.990791,-0.030297,-0.131969
-0.239672,-0.259876,0.239546,0.583751,0.690746,-0.426737
0.214817,0.168804,0.830514,0.913108,-0.404377,0.052091
-0.391642,-0.437376,0.323440,0.266518,0.772207,0.576771
-0.112394,-0.830245,0.550431,0.817668,0.538367,-0.203910
0.222416,0.491439,0.769068,0.894506,-0.315304,0.316928
-0.299036,-0.244377,0.441582,-0.032136,0.463701,-0.885409
0.195980,0.163992,0.951605,0.803970,-0.510724,0.304621
0.164159,0.421708,0.544297,0.391754,0.749105,-0.534200
0.050659,-0.088923,0.025894,-0.495371,0.847046,-0.192667
-0.581763,0.060174,0.402062,0.743714,0.645105,0.175298
0.176826,-0.292755,0.500183,0.040674,0.550053,0.834138
-0.784709,0.272107,0.481232,0.225604,0.973685,-0.032241
0.561028,0.549116,0.576716,0.483503,0.842639,-0.237032
0.178565,0.281922,0.841034,-0.217220,0.753663,0.620329
-0.360458,-0.402248,0.609162,-0.367191,-0.790595,-0.490031
0.091659,-0.313929,0.621848,-0.405145,-0.440780,0.800981
0.029605,-0.040366,-0.737771,0.917156,0.398271,-0.014354
-0.190120,-0.241277,0.672644,0.851174,0.119767,-0.511037
0.831411,0.173795,-0.235395,-0.196856,0.159512,0.967369
-0.268958,-0.013172,-0.477943,0.162353,0.029784,0.986283
0.098780,0.296548,-0.984286,0.061859,0.238716,0.969117
-0.691944,0.030909,0.211198,-0.197041,-0.802626,0.562997
0.125375,0.143154,0.779379,-0.530859,-0.791637,0.302489
0.098147,0.148839,0.921404,0.978635,0.204387,0.022359
-0.305843,0.414993,0.812660,0.856054,-0.381290,0.348983
0.492007,-0.027284,0.789376,-0.173818,0.913113,0.368799
-0.123476,-0.225957,0.579588,-0.374144,0.582392,-0.721689
0.043059,-0.620034,0.529235,0.703458,-0.091857,0.704776
0.299829,0.108899,-0.148186,0.166802,0.859399,0.483332
-0.151656,-0.201515,0.673949,0.912071,0.198145,-0.358979
-0.640020,0.147631,0.244662,0.137673,-0.592519,0.793705
0.383096,0.531379,0.746176,0.346786,0.497484,-0.795141
-0.598227,-0.273820,-0.166275,0.776638,0.510749,0.368739
-0.135505,0.359049,0.777134,-0.267291,0.939392,0.214704
0.898370,0.031077,0.249178,0.813306,-0.477927,0.331844
0.518128,-0.550483,0.619916,0.986345,0.096398,0.133533
0.346685,0.713523,0.428243,0.324284,0.620631,-0.713903
0.642238,0.400882,0.579770,0.870423,-0.415574,0.263937
-0.053663,-0.690963,0.357322,0.877874,-0.117970,0.464134
0.344946,0.778430,0.537614,-0.669575,-0.742178,0.029006
0.349376,-0.743302,0.216367,-0.612763,0.787516,-0.065876
-0.324206,0.013686,0.568885,-0.454382,-0.640814,-0.618784
0.369323,0.929419,-0.967241,-0.426327,-0.220832,0.877199
0.116037,0.313939,0.628922,-0.453686,-0.736130,-0.502277
-0.133293,-0.067740,0.738502,-0.706705,-0.704072,0.069643
0.387686,0.521397,-0.978413,-0.453621,-0.024676,0.890853
0.055248,-0.101144,0.332916,0.757668,0.426908,-0.493649
-0.125061,-0.428770,-0.966745,0.249443,-0.136528,-0.958717
-0.011874,0.243011,0.769225,0.803623,0.512637,-0.302313
0.380246,0.850052,-0.122292,-0.723020,0.607414,-0.329074
0.231755,0.430840,0.465701,-0.647027,0.314706,0.694490
-0.622923,0.263838,0.644558,-0.119287,0.941776,0.314370
0.271490,0.561852,0.787288,-0.259131,0.961074,0.095852
0.359347,0.143847,0.570086,0.043979,-0.838217,0.543561
-0.109070,-0.333558,0.653119,0.778642,-0.543671,0.313270
-0.409372,-0.557197,0.228061,0.036183,0.791527,0.610062
0.093239,-0.209953,-0.065388,0.317677,-0.841852,0.436311
0.138989,0.545491,0.728374,0.139557,0.989163,0.045619
0.043532,-0.933885,0.120412,0.338628,-0.645883,-0.684227
-0.046223,-0.967457,0.575228,-0.536082,-0.835100,-0.123383
0.363622,0.110958,0.623910,0.918335,0.395007,0.025102
0.028653,-0.188086,-0.566171,0.627303,0.777732,0.040287
-0.044325,0.270384,0.844088,0.844168,-0.533745,0.049970
0.205793,0.188433,0.643305,0.669867,0.716882,0.193283
-0.103056,-0.910305,0.587445,-0.381784,-0.891232,-0.244838
0.221464,0.192048,0.861002,-0.384461,0.904823,0.182990
-0.332119,0.687705,0.365518,0.798898,-0.276234,-0.534281
-0.408106,0.178450,0.559984,0.612426,0.735783,0.289064
-0.346365,0.412755,-0.143853,-0.399116,0.621522,0.674104
0.547095,0.515544,0.659071,0.920303,0.255592,0.296168
-0.075195,-0.022124,0.443070,0.929706,0.292885,-0.223304
0.212445,0.146086,0.766092,0.267210,0.016610,-0.963495
0.315341,0.175004,0.965309,-0.261367,-0.899085,0.351188
-0.086278,-0.754147,0.511590,0.282185,0.851356,0.442226
0.603928,-0.063442,0.835944,0.074632,-0.930256,0.359241
-0.000159,-0.045704,-0.981154,-0.094596,0.057182,0.993872
-0.219406,-0.105789,0.616236,0.263111,-0.839389,0.475603
-0.634798,0.325477,0.265362,0.645051,0.510348,0.568731
-0.091500,0.051388,0.446881,0.946363,0.286852,0.148705
0.006648,-0.056033,-0.533359,0.336668,0.925122,-0.175511
0.772202,0.236118,0.578256,0.267612,0.958779,-0.095533
-0.140100,-0.528616,0.555286,-0.743933,0.226493,-0.628701
-0.084852,-0.132994,-0.174602,0.910894,-0.286952,0.296532
0.143264,0.394682,-0.992404,-0.016188,0.028983,0.999449
0.158304,-0.239039,-0.653981,0.900394,-0.195303,-0.388778
-0.041793,0.280535,0.784756,-0.404610,-0.453946,0.793866
-0.074717,-0.666175,0.580710,-0.179445,-0.290500,0.939899
0.705718,0.288289,0.491386,0.998472,0.047237,0.028659
0.271490,0.069126,0.850692,0.868765,0.119858,-0.480502
0.973724,0.339589,0.453928,-0.828712,-0.348087,-0.438259
-0.310433,0.366279,0.553876,-0.559544,-0.544204,-0.625102
0.113505,0.651715,0.649047,0.777388,0.192831,-0.598735
0.246639,-0.136093,0.694336,0.462360,0.708774,0.532788
0.478867,-0.008170,0.506447,0.473162,0.597578,0.647316
0.406682,0.288804,0.808092,0.709601,0.405266,-0.576390
-0.052397,0.544462,0.774315,0.812030,0.123434,-0.570413
-0.186164,0.568913,0.508223,0.801863,-0.125872,0.584100
-0.163052,-0.821986,-0.963848,-0.163868,0.099245,0.981477
-0.348423,0.008695,0.678465,0.062457,-0.925076,0.374610
-0.194237,0.012488,0.501958,0.928976,0.191353,0.316840
0.091973,-0.263659,0.701044,-0.026962,0.420878,0.906716
0.015513,-0.075494,-0.168076,-0.298082,0.645935,0.702791
0.366787,-0.181540,0.871652,0.383074,0.884516,0.266243
0.637803,0.032285,0.819499,-0.112720,-0.918138,0.379891
0.147854,-0.808556,0.558705,-0.669322,0.612666,-0.420295
0.179990,0.721614,0.467006,0.218372,-0.964931,0.145673
0.539023,-0.209428,0.800078,0.962859,0.034984,-0.267727
-0.147062,0.696994,0.418063,0.871153,-0.016487,-0.490734
-0.131549,0.194454,0.663325,-0.586926,0.798351,0.134736
-0.236030,0.335113,0.574393,0.034568,0.993336,0.109945
0.456229,0.187225,0.810050,-0.716950,-0.546444,0.432876
0.170492,-0.153484,0.359880,0.171742,0.196320,0.965382
-0.301094,0.334429,0.790629,0.626273,-0.062726,0.777076
0.040528,-0.113196,0.830671,0.870361,0.086314,0.484791
-0.105906,0.215806,0.752101,0.466914,0.698392,-0.542439
0.719491,-0.099253,0.010963,0.055114,-0.959216,0.277251
0.369164,0.259540,0.877865,-0.327053,-0.430116,0.841449
-0.023271,-0.796325,0.559828,-0.582189,0.224778,0.781365
0.444832,0.466650,0.417854,0.996415,-0.070882,0.046181
-0.325631,-0.526378,0.347220,0.531589,0.816028,0.226961
0.380560,0.593187,0.601932,0.153702,0.987184,0.042932
0.235870,-0.119396,0.043409,0.332374,0.921538,0.200737
0.612160,-0.509166,-0.154477,-0.311578,-0.448159,0.837898
0.653475,0.381768,0.568311,-0.842331,0.530638,0.094351
-0.049706,0.157960,0.872357,0.132206,-0.961451,0.241110
-0.069021,0.444784,0.427695,0.893975,0.228191,-0.385664
0.855470,0.224926,0.615531,0.744366,0.555024,-0.371307
-0.000159,-0.515712,0.473558,0.262050,-0.199562,0.944195
-0.124742,-0.616073,0.339833,-0.607741,-0.759681,-0.231378
-0.135665,-0.069295,0.452623,0.842820,0.533502,0.070918
0.260726,0.683228,0.597990,-0.370822,-0.559655,-0.741132
0.890616,-0.214945,-0.019081,0.067601,0.970492,-0.231462
0.194870,0.122149,0.883294,0.081357,-0.980007,0.181568
0.364574,0.073771,0.945628,-0.797208,0.218600,-0.562738
0.920061,0.301887,0.399608,-0.743442,-0.668403,-0.023049
0.115245,0.131963,0.754242,-0.313738,0.370579,0.874208
0.569260,-0.048458,0.540955,-0.282932,0.548068,0.787128
0.318665,-0.275029,0.765309,0.990690,-0.132690,0.030456
-0.686243,0.293113,0.597390,0.824292,0.359548,0.437342
-0.602502,-0.143491,0.427565,0.848818,-0.184116,0.495590
0.608044,-0.548759,0.534926,0.822955,-0.514561,-0.240774
-0.093084,-0.730388,0.487601,0.907216,-0.009661,0.420554
0.236030,0.040891,0.938998,-0.084471,0.776367,0.624596
-0.121099,0.298787,0.728165,-0.687610,0.496916,0.529402
0.293654,0.563060,0.363064,0.323279,0.412497,-0.851667
0.006174,0.323407,0.739676,-0.543081,0.404259,0.735960
-0.255025,-0.677019,0.586374,0.106606,-0.934246,0.340323
0.160362,0.586293,0.576064,-0.213748,-0.505849,0.835721
0.744182,0.010933,0.427565,0.921306,-0.388211,0.022056
0.349376,0.087199,0.718350,0.608010,0.443252,0.658674
-0.356023,0.356118,0.334169,0.805221,0.129580,0.578644
0.185217,0.284160,0.599791,-0.618931,-0.654218,0.434653
-0.416812,-0.025907,0.622892,-0.601017,-0.481016,0.638281
0.380246,0.512612,0.562020,0.842188,0.434831,-0.318811
-0.704133,0.318248,0.273480,0.577240,0.815569,0.040505
0.764922,0.164506,0.448812,0.882267,0.030234,-0.469777
-0.492480,0.152453,0.537014,-0.303726,0.345569,-0.887881
0.200570,0.547561,0.714096,-0.184807,-0.942175,0.279559
0.857688,0.095805,-0.227669,-0.041180,-0.196108,0.979717
-0.304418,-0.460619,0.273532,-0.189431,0.741245,-0.643951
0.289538,-0.097876,0.494571,0.924305,0.215081,0.315279
0.363622,0.167081,0.779300,0.991207,-0.050004,-0.122505
0.511477,0.590770,0.364657,0.577175,0.786759,0.218815
-0.232547,-0.810448,0.598486,0.908465,0.335208,0.249655
0.254552,0.214597,0.775202,-0.573682,0.139617,0.807091
0.237614,0.096846,0.956304,0.274907,0.314375,0.908622
0.485674,0.564773,0.582563,0.532340,0.742346,-0.406862
0.032610,-0.224066,0.651866,-0.363615,0.288741,-0.885671
0.498181,-0.372468,0.786870,0.575782,-0.607046,-0.547696
0.535066,-0.040545,0.763587,0.753467,0.359829,-0.550282
-0.442774,0.313077,0.665910,-0.477837,-0.431452,-0.765194
0.025962,0.194454,0.885774,0.460657,0.761586,-0.455831
-0.042585,0.058797,0.687993,0.606979,-0.508408,-0.610818
0.696220,0.015241,0.523362,0.966695,-0.232418,0.107161
-0.075669,-0.040713,-0.834743,-0.542050,-0.820888,0.179789
-0.056987,-0.220619,0.711564,-0.588465,-0.206301,-0.781760
-0.005541,-0.440990,-0.969303,-0.363648,0.061741,0.929488
0.266267,0.664809,0.562543,0.677698,0.138946,0.722094
-0.047967,-0.566843,0.546985,0.462738,0.191359,0.865595
-0.183000,-0.671681,0.644401,0.847592,0.457672,0.268561
0.874625,0.262114,0.437014,-0.281340,-0.763379,-0.581465
-0.139940,-0.479723,0.606917,0.308293,0.796154,-0.520667
