0.741654,0.018072,0.682184,0.195629,-0.958633,-0.206765
0.241110,0.186095,0.954921,0.815496,0.439441,0.376641
0.316305,-0.395997,0.049943,0.799900,0.158681,-0.578775
0.151956,0.845083,0.421338,0.857107,0.262979,-0.442955
0.016785,-0.956586,-0.194566,0.786801,-0.082088,-0.611723
0.565887,0.254083,0.306245,0.267763,0.957981,-0.102841
0.431406,0.220806,0.288483,0.267008,-0.963692,-0.002140
0.012745,-0.766447,-0.013045,0.911085,0.066371,0.406840
-0.172941,0.135206,0.842947,0.753416,-0.598198,0.272992
0.014476,0.026365,0.809463,0.478421,0.676392,0.560007
-0.532091,0.430604,-0.993171,-0.024927,0.117190,0.992797
0.485040,-0.547535,0.356974,0.055455,0.225641,0.972631
-0.065104,-0.079916,0.758881,-0.009315,-0.308900,0.951049
0.373972,0.119951,0.803960,0.894254,-0.446403,-0.032140
-0.386079,-0.283060,-0.704024,0.376088,-0.879926,0.290324
0.021284,0.433676,0.305631,0.894228,-0.413662,-0.171001
0.520561,-0.114012,0.087849,0.759343,0.223537,-0.611089
-0.963669,0.127630,0.421510,0.129596,0.846888,-0.515738
0.206737,0.251932,0.784946,0.886868,0.295876,0.354855
-0.409141,-0.067425,-0.989166,-0.034079,0.168873,0.985048
-0.355514,0.606819,0.440058,-0.581144,-0.731886,0.355829
0.729779,-0.739620,-0.172481,0.902014,0.342003,-0.263449
0.546859,0.104797,0.594826,-0.056901,0.751704,0.657042
-0.186667,-0.636205,-0.172063,0.973990,0.226102,-0.014889
0.196706,0.353709,0.789761,0.122033,0.346066,-0.930240
0.230150,0.120463,0.484793,-0.674527,0.017578,-0.738041
0.292083,0.310909,0.767626,0.216362,-0.724912,0.653981
-0.580071,-0.250704,0.274014,0.765188,0.148841,0.626365
0.090136,0.914094,0.310863,-0.177321,-0.922889,-0.341810
0.003059,0.731531,-0.427234,-0.937837,0.291538,0.188328
-0.229108,-0.615215,0.085344,-0.493599,0.730850,-0.471401
-0.610629,-0.639175,0.220827,-0.445990,0.723916,0.526344
0.119547,0.868325,0.543188,0.247201,0.610893,-0.752131
0.268444,-0.073978,0.494915,-0.752591,-0.269550,0.600791
0.254717,0.762043,0.683339,0.792672,0.247029,-0.557357
-0.327948,-0.307326,0.280917,0.281181,-0.182813,-0.942081
0.039967,-0.325040,0.072373,-0.503293,0.421130,-0.754550
-0.767834,-0.216096,0.529160,0.238433,-0.875645,0.419994
-0.487918,0.008242,-0.981526,0.069450,0.072045,0.994981
-0.022888,-0.822966,-0.038987,-0.061023,0.099859,0.993129
-0.682713,-0.015307,0.309856,-0.700112,0.697954,-0.150674
-0.013202,0.150667,0.671817,-0.503457,0.032817,-0.863397
-0.285620,-0.141248,-0.532035,-0.335608,0.180261,-0.924593
0.434405,0.840987,-0.121874,-0.744359,0.605561,0.281471
0.272942,0.104183,0.791505,-0.215319,-0.625468,-0.749952
-0.469348,0.145753,0.082887,0.094498,0.992017,0.083499
0.083217,0.778733,0.293962,-0.697679,0.715943,0.025872
-0.486419,0.343982,0.372009,-0.415681,-0.478740,0.773315
0.154610,0.156504,0.697538,0.947429,-0.243057,-0.208091
0.016208,0.334152,0.499582,0.261042,-0.512172,0.818252
-0.333946,0.341832,0.085982,0.707677,0.628018,-0.323706
0.490573,-0.091896,0.497519,-0.342988,-0.489295,0.801842
0.225539,-0.765934,-0.230261,-0.363844,0.530135,-0.765881
-0.146416,0.284390,0.834840,0.976820,0.058211,0.205996
-0.086905,0.344699,-0.614308,0.994792,0.083881,-0.057910
0.694251,0.332821,0.140372,-0.243129,0.671752,0.699742
-0.377196,0.491424,0.487201,0.853961,-0.136258,0.502180
0.527713,-0.321354,0.708323,0.946337,0.003332,0.323163
0.164986,0.208110,0.864492,-0.144487,0.987923,-0.055960
0.986160,0.394050,0.260576,-0.148350,0.970456,-0.190282
0.222653,0.174934,0.919545,0.528044,0.846500,0.067880
-0.449166,0.184047,-0.383482,-0.666293,-0.629433,0.399835
0.074220,0.667127,-0.998845,0.128588,0.072162,0.989069
0.756071,0.310602,-0.993269,0.023093,-0.069078,0.997344
-0.431864,-0.013874,0.422861,-0.101378,0.888724,0.447094
0.574884,-0.788563,0.096349,0.695294,0.246876,0.674996
0.438558,-0.143706,-0.980396,-0.062760,0.188919,0.979985
-0.384461,-0.257769,-0.975237,-0.052762,0.102662,0.993316
-0.467039,0.535555,-0.534516,-0.815912,-0.277198,-0.507395
0.612594,-0.536682,-0.070678,0.238865,0.755434,-0.610134
0.058304,0.125172,0.636294,0.631326,0.632529,0.448703
-0.434405,0.663851,-0.283865,0.092353,-0.283925,0.954388
-0.014012,-0.100599,0.750553,0.720591,-0.687641,0.088876
0.000750,0.263810,0.601361,-0.505249,0.862353,-0.032733
-0.037770,-0.087391,0.739793,0.875666,0.459302,0.149166
0.828499,-0.171966,0.441851,-0.020138,0.783998,0.620437
-0.515253,0.168791,0.534933,0.444556,0.763489,0.468460
0.284241,0.020836,0.514568,0.869944,0.457822,-0.183293
0.645812,-0.061997,0.424704,-0.444812,-0.017493,-0.895453
-0.295771,0.406644,0.208028,-0.431234,-0.682202,0.590455
-0.263594,0.294424,0.484572,0.270839,0.760243,-0.590488
0.436482,0.335381,0.168132,0.922135,0.049504,0.383687
-0.082632,-0.116879,0.136958,0.928489,-0.347226,0.131689
0.116429,0.075103,0.588390,-0.260025,-0.164340,-0.951514
-0.666572,-0.187324,-0.017074,-0.307008,-0.853087,-0.421887
0.068567,-0.545180,-0.193829,0.393549,-0.083697,-0.915486
-0.102469,0.338657,0.702624,-0.276228,-0.654109,0.704159
-0.064527,-0.499207,-0.058984,-0.506796,0.198018,-0.839015
0.198205,0.724773,0.644672,0.898976,0.367104,-0.238907
0.126122,-0.202273,0.318258,-0.616550,-0.785769,0.049330
0.291850,0.721701,0.145900,0.652292,0.630064,0.421350
0.188167,-0.216915,-0.969710,-0.058970,0.050321,0.996991
0.299002,-0.198075,0.627721,-0.181228,-0.689415,-0.701329
0.519174,0.387498,0.595809,0.157487,-0.238800,0.958213
0.344674,0.877642,0.044956,0.368325,-0.899265,0.235922
0.066491,0.229304,-0.241267,0.784511,-0.461465,-0.414237
0.137997,0.253058,0.795657,-0.381101,0.599441,0.703869
0.530824,-0.187119,-0.447059,0.576492,-0.089286,-0.812210
0.639703,0.583781,0.104383,-0.577473,0.772067,-0.265400
0.007557,-0.981058,0.199135,-0.100952,0.989364,-0.104724
-0.118850,0.401218,0.702329,-0.206037,-0.699650,0.684133
-0.278701,-0.336918,0.265391,-0.226512,-0.297694,0.927400
-0.673949,-0.668868,0.223824,-0.076493,0.548075,0.832924
0.590912,0.261864,0.689432,0.403591,0.390279,-0.827524
0.823543,0.293503,-0.995161,0.046094,-0.011636,0.998869
0.137765,-0.142068,0.318553,0.547144,0.488931,0.679396
-0.081597,0.122305,0.816022,0.663396,0.431761,0.611137
-0.544544,-0.174525,0.248956,0.626072,-0.506716,0.592683
-0.869905,0.386167,-0.666167,0.754107,-0.606547,0.251839
0.321035,0.126503,0.919422,0.411937,0.908447,-0.070941
0.090826,-0.003942,0.870068,-0.741101,0.039543,0.670228
-0.392422,-0.581836,0.123618,-0.946461,0.279986,0.160683
-0.210538,0.498080,0.429077,-0.388798,-0.914793,0.109497
0.105011,0.482824,0.394414,-0.735418,0.146575,0.661571
0.109741,0.773204,0.270058,-0.725790,0.480756,-0.492040
-0.411337,0.195617,-0.987766,0.064565,0.035866,0.997269
0.096366,0.048277,-0.967769,-0.278892,0.371435,0.885582
0.318959,0.805764,0.159731,0.306889,0.901347,-0.305602
-0.302923,-0.432243,0.305925,-0.589757,0.709032,0.386600
-0.451011,-0.379307,-0.558468,0.544189,-0.438461,-0.715269
0.343294,0.012543,0.659878,-0.695907,0.499881,-0.515590
-0.823656,0.063022,-0.109738,-0.905010,0.424496,-0.027555
-0.583992,0.409614,-0.292365,0.977941,-0.047401,0.203430
-0.311919,-0.044694,0.420380,0.270210,-0.778475,-0.566537
0.092903,0.106025,0.582936,-0.018929,0.429986,0.902637
0.139152,0.262786,0.940009,0.848577,-0.492610,-0.193008
0.480886,0.116982,0.478971,-0.137008,-0.872716,0.468610
0.498992,0.624430,0.699627,0.053822,-0.955689,0.289418
0.001095,-0.018174,-0.957328,0.380332,-0.048505,-0.923577
0.492649,-0.891158,-0.468088,-0.622740,-0.538106,0.568011
0.015054,0.497466,0.352823,-0.682731,0.446760,-0.578173
0.432329,-0.453745,-0.429617,-0.174528,-0.132150,-0.975744
0.071454,-0.084012,0.815457,0.357746,0.923597,0.137788
-0.391500,-0.335278,0.170368,0.716900,0.307054,0.625917
0.197163,0.072646,0.367612,-0.472223,0.383069,-0.793891
0.300966,0.439820,0.678893,0.375189,-0.577229,0.725286
-0.612938,-0.869349,0.138505,-0.503082,0.862815,0.049577
-0.216880,0.659857,0.565273,-0.159598,-0.771288,0.616152
-0.420678,-0.349921,0.412888,-0.012304,0.171546,0.985099
-0.932992,0.175549,0.253427,0.713533,-0.107460,0.692332
0.004094,0.923104,0.046357,-0.232499,0.963764,0.130779
-0.316875,-0.431731,0.085638,0.354410,-0.693016,-0.627792
0.164641,0.799621,-0.370633,-0.261285,0.889656,0.374489
0.387811,0.850714,0.484744,0.539815,0.169984,-0.824442
0.169027,0.431833,0.790940,0.952205,0.082195,-0.294193
-0.423557,0.739517,0.465091,0.856932,0.455855,-0.240548
0.095901,0.434086,0.697416,-0.202101,-0.691362,0.693667
0.240533,-0.196539,0.600845,-0.085410,-0.216833,0.972465
-0.579142,-0.055445,0.488970,-0.669631,0.532234,-0.517998
-0.621012,0.691291,0.342284,0.110755,-0.514962,0.850028
0.273287,-0.058107,0.494374,-0.409811,-0.326470,0.851746
0.080330,0.005375,0.602294,-0.499903,-0.465803,-0.730154
0.940032,0.522039,-0.178549,0.383272,-0.839867,-0.384350
0.012865,-0.924334,0.214686,0.761516,-0.601248,0.242064
0.000060,-0.202171,0.422567,-0.809006,0.499061,-0.310560
0.071454,-0.038346,-0.129662,0.935775,0.284952,0.207672
-0.266473,-0.627297,0.105439,-0.684971,0.593623,-0.422406
-0.169484,-0.162034,-0.743011,-0.567953,0.712960,-0.411239
0.533478,-0.008037,0.374588,0.799809,-0.587838,-0.121460
0.398997,-0.630369,0.334545,-0.524511,0.637951,-0.563832
-0.248600,-0.528286,-0.170221,0.927951,-0.130607,-0.349068
0.044810,0.801157,-0.580774,0.365191,0.052263,0.929465
-0.283318,-0.578354,-0.221171,-0.535248,0.843918,-0.036229
0.554125,0.790815,-0.607994,-0.264158,0.911701,-0.314676
-0.008247,-0.946962,-0.201174,0.898304,0.121828,-0.422148
0.205125,0.073772,0.326659,-0.296645,0.954075,-0.041749
-0.115618,-0.001485,0.611507,0.390053,-0.532286,0.751352
0.545241,-0.145651,0.436201,-0.093081,0.799227,0.593778
-0.515830,-0.612963,0.227387,0.472432,-0.855448,-0.212172
0.423909,0.808631,0.576868,-0.663209,0.671737,-0.330037
0.243757,0.284800,0.194124,0.423936,-0.832781,-0.356026
-0.225651,-0.294323,0.530905,-0.167209,-0.254306,0.952559
0.583880,-0.662725,0.072201,0.420952,0.417609,0.805234
0.238914,0.121998,0.885914,0.765358,-0.643106,-0.025318
0.298657,0.324322,0.315654,0.290786,0.955185,0.055355
-0.610974,0.473199,-0.995578,0.025985,0.114244,0.993113
0.932415,0.141657,0.538913,0.775635,0.265233,-0.572749
0.863675,0.367019,0.338672,0.697781,-0.599844,-0.391521
0.268557,-0.170532,0.491230,0.929213,0.364184,0.062713
0.007212,-0.823683,0.178794,0.852525,0.497496,-0.160309
-0.020587,0.010495,0.496069,0.847609,0.394166,0.355235
-0.259785,-0.374904,0.418587,0.416187,-0.380913,-0.825648
-0.269359,-0.477193,0.185624,-0.463440,0.447700,-0.764715
-0.406494,0.065991,-0.402177,-0.720940,0.207075,0.661337
-0.112162,-0.528695,-0.206825,-0.135775,-0.493897,0.858855
0.341217,-0.798393,-0.964133,0.039624,0.054670,0.997718
0.049765,-0.047970,-0.959441,0.193767,-0.465861,0.863382
0.657920,0.297189,0.382425,-0.173132,0.983430,0.053759
-0.107664,0.521834,0.514371,0.686292,0.234146,-0.688607
-0.239949,0.871602,-0.082322,0.902372,-0.429867,-0.030652
-0.262327,-0.204833,-0.980003,-0.014941,0.135528,0.990661
-0.542467,0.753545,0.338795,-0.246079,0.488864,-0.836933
0.515372,0.775559,0.556208,0.278801,-0.945211,0.169840
-0.551808,-0.744842,0.129244,0.479897,-0.626811,-0.613846
0.110895,-0.594533,-0.526090,-0.067843,0.990309,0.121186
0.277089,0.178211,0.362453,0.827671,-0.358748,-0.431579
0.158876,0.787436,0.211443,0.948594,-0.160342,-0.272873
-0.618704,0.122818,-0.097774,-0.440689,0.454200,0.774271
0.622512,0.525316,0.084066,0.733253,-0.646608,-0.210328
0.252753,0.405928,0.607920,0.603065,0.146652,-0.784095
-0.406719,-0.257871,0.210166,0.899966,0.238393,0.365008
-0.173750,0.307429,-0.248244,-0.544288,-0.428661,-0.721111
-0.531858,0.524803,-0.996340,0.010502,0.078079,0.996892
-0.387347,-0.055445,-0.977817,-0.069902,0.202699,0.976743
0.238569,0.436953,-0.221417,0.295316,0.526956,0.796935
0.911543,0.251727,0.403847,-0.199251,0.768686,0.607799
-0.838530,-0.736037,-0.498133,0.812441,-0.582859,-0.014686
-0.106967,-0.441151,-0.327298,0.943445,-0.314514,-0.104847
-0.549964,-0.216403,-0.693485,0.482689,-0.847218,0.221887
-0.624244,0.079711,0.574240,0.553965,0.804328,0.214892
0.393809,0.585214,-0.999288,0.035749,0.108606,0.993442
0.042845,-0.055445,-0.968899,0.012639,-0.365725,0.930637
0.415610,0.290738,0.473837,0.225009,-0.268085,-0.936750
-0.061070,0.780269,-0.384808,0.807386,-0.578053,-0.118245
0.502913,-0.101111,0.069007,0.419586,0.332764,0.844521
-0.626890,0.114729,-0.982951,-0.122422,0.087252,0.988635
0.306499,0.370297,0.340392,0.163657,-0.985957,-0.033236
-0.039269,-0.212717,0.391392,0.714610,-0.689405,0.118548
-0.798623,0.088311,0.398148,0.241338,-0.867502,0.434967
0.525059,0.805867,0.546848,-0.441973,-0.710312,0.547829
-0.672681,-0.184354,-0.265784,0.988220,0.135937,0.070304
0.022319,0.090769,0.834545,-0.419277,0.902869,-0.095050
-0.674526,0.156914,0.060163,-0.513444,0.548622,0.659840
-0.571997,0.163671,0.544711,-0.290230,-0.773732,-0.563120
0.302810,0.285619,0.484818,0.174308,-0.211622,0.961682
-0.054720,0.446373,0.512357,-0.021813,-0.557316,0.830014
-0.368431,0.155276,-0.986710,-0.029480,0.060895,0.997709
-0.350439,0.453642,-0.995382,-0.071357,-0.017009,0.997306
0.368664,0.731531,0.650396,0.180926,0.584107,-0.791255
0.123468,0.004351,0.909940,-0.235857,0.919527,0.314391
0.193587,0.399068,0.810077,0.525058,0.639974,-0.561023
-0.362779,0.417498,0.219722,0.599387,0.571868,-0.560091
0.314341,-0.225414,0.639857,0.762556,0.277585,-0.584342
0.359787,-0.549787,0.359603,0.651547,0.568548,0.502235
-0.401186,-0.593304,0.197366,0.399729,-0.636658,0.659457
0.638316,-0.034659,0.678942,-0.121670,0.905119,0.407376
0.740845,0.261761,0.363116,0.340865,-0.935440,-0.093606
0.306042,-0.154661,0.109099,0.944189,0.167854,-0.283430
0.280552,-0.334972,-0.055422,0.561910,0.628624,0.537670
-0.782827,0.046127,0.060507,-0.380189,-0.508481,0.772595
-0.608328,0.015819,0.325922,-0.480664,0.792544,-0.375281
0.257371,0.737265,0.443522,0.785572,0.503377,-0.359845
-0.871285,0.527364,-0.581118,-0.745113,0.666073,-0.033950
0.182289,0.390877,0.795927,0.766353,0.441126,-0.467023
0.400151,0.171453,0.665921,-0.048165,0.171236,0.984052
-0.250099,0.836584,-0.488577,0.246143,0.950430,-0.189993
0.377428,0.911944,-0.422321,-0.099227,-0.994894,0.018409
0.407536,0.738288,0.472142,-0.071253,-0.595825,0.799947
-0.498639,0.664363,0.227362,0.498878,0.793446,0.348660
0.071911,0.104388,0.922714,0.517458,0.757922,-0.397229
0.750538,0.210157,-0.983909,-0.123563,-0.090470,-0.988204
0.179980,0.151078,0.756375,-0.255176,0.806246,0.533715
0.147683,0.092920,0.486415,0.117094,0.360762,0.925278
0.420101,-0.202478,0.651968,-0.620099,0.198373,0.759029
-0.701628,0.289817,0.459760,0.712280,-0.198977,0.673101
-0.729307,-0.375519,-0.464035,0.940042,-0.162792,0.299701
-0.130725,0.243024,0.807178,0.698136,0.507211,0.505315
-0.697017,-0.029540,-0.489756,-0.722555,-0.578410,0.378624
-0.844760,-0.804844,-0.041272,0.993414,0.109507,-0.033710
0.524369,0.557569,0.173906,0.485387,-0.538290,0.688944
-0.720430,-0.151692,0.504152,0.809926,-0.191282,0.554465
-0.924108,0.480673,0.400629,-0.801390,0.106736,0.588542
-0.606363,0.173296,0.065543,0.198668,-0.963656,-0.178598
0.360590,0.416884,-0.991991,-0.089966,0.125603,0.987993
0.328645,0.905288,0.474697,0.761804,0.105979,-0.639080
0.811661,-0.381867,-0.615241,0.790158,0.607655,-0.080041
-0.473382,-0.806993,0.117476,-0.624881,0.545020,-0.558997
0.285163,0.087084,0.333317,0.783768,-0.408941,0.467412
0.244454,0.421390,0.715988,0.991643,0.081035,-0.100391
-0.558735,0.109404,0.573969,-0.459041,-0.769558,-0.443916
-0.117350,-0.196233,0.277428,-0.934199,0.095177,0.343821
0.061760,0.733476,0.279615,-0.476099,0.552400,-0.684240
-0.378005,-0.306200,-0.972633,-0.137586,-0.038442,0.989744
0.974398,0.385245,0.542549,-0.685942,-0.129738,0.715997
-0.152639,-0.386577,-0.273056,0.827759,-0.477109,0.295266
-0.163712,-0.344904,0.571734,0.927879,-0.330957,-0.171777
0.541664,0.236983,0.353756,0.481009,0.872957,-0.081097
-0.909924,0.297599,0.278853,0.011009,-0.090153,0.995867
-0.468771,-0.633236,0.296983,-0.521099,0.806818,-0.278389
-0.560234,0.762761,0.126173,-0.344989,0.937726,-0.040660
-0.596910,0.292786,0.434506,0.333217,-0.803023,0.494085
0.105130,-0.761327,0.196482,0.550628,0.193784,0.811946
-0.772789,0.076639,0.397583,0.241338,-0.867502,0.434967
0.405459,-0.945221,-0.075026,0.914759,0.281590,0.289696
-0.234528,0.449239,0.275709,-0.313638,0.118698,0.942095
0.041001,0.555316,0.473984,0.779214,-0.454740,0.431321
0.165218,0.046843,0.432197,-0.392439,0.901038,0.184722
0.774640,0.596067,0.177812,-0.449721,0.170264,-0.876790
-0.320219,0.670711,0.545055,-0.337163,-0.741748,0.579769
0.658617,0.041314,-0.987520,-0.069495,-0.058972,-0.995838
0.194861,0.566375,-0.454454,-0.495561,0.329958,-0.803459
0.344449,0.827062,0.282636,-0.318877,0.945065,-0.071896
-0.898963,0.144013,0.431632,-0.087437,-0.904832,0.416693
0.502223,0.293708,0.342800,-0.396011,-0.904735,0.156940
-0.206962,-0.098551,0.331548,0.856026,0.425592,0.293413
-0.317797,-0.335586,0.277428,-0.351660,0.215503,0.910985
0.715362,0.253878,0.406132,0.148262,-0.988940,0.004033
0.086215,0.148722,0.868349,0.314769,0.868569,-0.382763
0.024972,-0.144729,0.850513,0.067169,0.928581,0.365000
0.469236,0.543849,0.178598,0.519376,-0.417806,0.745444
0.080450,0.727026,0.387191,0.781049,0.293783,-0.551048
-0.271435,0.396815,-0.993318,-0.030507,0.015284,0.999418
-0.373388,-0.103363,0.268855,0.007192,-0.642960,0.765866
0.276976,0.090872,0.951653,-0.496436,0.214812,-0.841075
0.674991,0.309067,0.496364,-0.464634,-0.005558,0.885485
0.051384,-0.648595,0.233258,0.910413,-0.038120,0.411941
0.126002,0.412686,0.698030,0.029392,-0.618951,0.784880
-0.488721,0.513029,0.595956,-0.644791,0.577706,-0.500499
0.055883,0.029846,-0.544907,0.102843,0.973080,0.206249
-0.856178,-0.252957,0.192920,0.791160,0.606570,-0.078347
0.094634,0.006604,-0.453815,0.893451,-0.445441,-0.057684
0.217577,0.236574,0.212843,-0.389277,0.835603,0.387598
0.123580,-0.948600,0.177050,-0.717480,0.372606,-0.588548
0.504989,0.641735,0.710878,0.498817,0.787921,-0.361058
-0.718353,0.351251,0.281629,0.858371,0.414588,-0.302187
0.589645,0.068960,0.598167,0.969102,0.242062,-0.047409
-0.722274,0.033942,-0.486882,0.318557,0.847708,-0.424161
-0.668993,-0.846516,-0.616297,0.340660,-0.810375,0.476699
0.211580,0.848256,0.478111,0.267659,-0.606965,0.748300
0.793788,0.337019,-0.991426,0.068686,0.031070,0.997154
0.854798,0.415245,0.529037,-0.749845,-0.062986,0.658609
-0.378808,-0.600676,0.294625,-0.499837,-0.413910,-0.760816
0.193130,0.196539,0.975065,0.090226,-0.619084,0.780125
0.111008,0.184662,0.952218,-0.718137,0.465490,0.517299
0.600028,-0.046742,0.758045,-0.763603,0.243086,0.598181
0.844415,-0.166129,0.411880,-0.159698,0.915529,0.369193
0.792746,-0.204014,0.034884,0.747598,-0.106577,-0.655545
0.699903,0.400604,0.502530,0.476498,-0.171454,-0.862296
0.498647,-0.639790,0.066845,0.265857,0.885149,-0.381880
0.253450,-0.053397,0.703705,-0.218184,0.574133,0.789156
0.106397,0.679823,0.276053,0.858965,-0.452720,0.239216
0.081717,-0.008345,0.688842,0.994670,0.068839,-0.076770
-0.548119,0.232581,-0.987226,-0.068272,0.165856,0.983784
0.355747,-0.099882,0.626148,0.135359,0.758647,0.637285
-0.484920,0.315721,0.702722,-0.664761,0.741817,-0.088319
0.210080,0.574668,0.733012,0.397776,0.785305,-0.474415
0.844070,0.517636,0.507542,0.603489,0.501492,0.619925
0.109741,-0.499105,0.318896,-0.701291,0.490232,0.517555
-0.020122,-0.504838,-0.017368,0.644232,0.634083,0.427673
-0.502448,0.063738,0.555201,-0.683607,0.306414,-0.662413
-0.522172,0.438181,0.540264,0.985602,0.024244,0.167336
0.717783,0.238928,0.409006,0.148262,-0.988940,0.004033
0.186668,0.227461,0.608559,0.942557,0.330320,-0.049754
-0.691942,0.157016,-0.152803,0.943418,0.236338,-0.232607
0.860676,0.382173,0.519825,-0.057443,0.871415,-0.487172
0.518252,0.807402,-0.558026,-0.159925,0.982017,-0.100328
-0.557693,0.290841,0.110008,0.992537,-0.114016,-0.043258
-0.257941,0.274356,-0.022601,0.465782,0.563883,-0.681970
-0.156680,-0.308247,-0.170835,-0.439607,0.220947,0.870591
0.471890,-0.445759,0.545227,0.760866,0.451472,0.466107
-0.807740,-0.882660,-0.382818,0.250892,0.947095,0.200158
-0.403143,-0.153945,0.221933,-0.819249,0.573196,0.016632
-0.429787,-0.654841,0.315777,0.464062,-0.244028,0.851526
-0.399454,-0.055445,-0.365941,-0.837519,0.257625,0.481863
0.182514,-0.258383,0.325947,0.223156,0.307506,0.925009
0.764954,0.305790,0.223628,-0.360795,0.186341,0.913840
-0.027506,-0.938156,-0.194934,0.782777,-0.312443,-0.538181
-0.842451,0.296268,0.495529,-0.019966,-0.727901,0.685391
-0.504869,-0.578252,-0.503685,-0.348823,-0.896689,-0.272527
-0.385960,-0.665079,-0.286837,-0.093299,-0.909593,0.404891
-0.514907,0.322070,0.147251,-0.765907,-0.267004,0.584889
0.022783,-0.443506,-0.028939,-0.520772,-0.133115,-0.843254
-0.015047,0.139610,0.787427,-0.509769,-0.581946,-0.633621
0.576728,-0.651666,0.357490,-0.670232,-0.134547,0.729854
0.202007,-0.322377,0.666880,0.086365,0.900670,0.425833
0.589300,0.623304,0.188842,-0.008975,-0.247787,0.968773
0.117702,-0.205038,0.612146,0.980182,0.198031,0.005097
-0.142030,0.954026,0.276298,0.038858,0.999233,-0.004834
-0.403375,0.743613,-0.109271,0.937403,-0.206366,-0.280515
0.323225,0.643782,0.432098,0.948384,0.258564,-0.183610
-0.658033,0.115855,0.606029,-0.434618,0.895821,-0.092801
0.198430,0.686274,0.221540,0.970151,0.060019,-0.234958
-0.493571,-0.008345,0.267282,-0.596484,-0.362450,-0.716127
-0.503025,-0.663032,0.317644,0.583841,-0.803885,0.113567
-0.044457,0.660165,0.755982,-0.092553,-0.927324,0.362635
-0.052419,0.096708,0.664718,-0.091744,0.932246,0.350002
-0.142607,0.703476,-0.291235,-0.525471,-0.849220,0.052008
0.065224,0.392823,0.680047,0.681278,0.404619,-0.610037
-0.026239,-0.255209,0.139783,0.961915,0.181561,-0.204343
0.057037,0.087595,0.642854,0.094164,0.747599,0.657442
0.510874,-0.339170,0.332678,-0.540349,-0.387372,-0.746971
-0.116428,0.587364,0.725790,-0.367287,0.816011,-0.446347
-0.756641,0.075513,0.268437,0.060694,0.385258,0.920811
0.445591,-0.464496,-0.226011,-0.249028,-0.785807,0.566120
-0.906115,0.262479,0.289834,-0.471888,-0.835220,0.282363
-0.035806,0.210668,-0.980740,0.025618,0.140574,0.989739
0.437749,0.281319,-0.140594,0.385223,0.463270,-0.798113
0.133041,0.268826,-0.211443,0.897765,-0.377621,0.226762
0.447322,0.347463,0.795165,-0.762253,0.263362,0.591279
0.172025,-0.037833,0.566256,-0.121729,0.992404,-0.017784
0.335333,0.786617,0.157299,-0.118018,-0.920191,0.373257
-0.151259,-0.221626,0.447698,-0.161762,-0.278132,0.946824
-0.647769,-0.127732,0.304206,0.290817,-0.615486,0.732532
0.323683,-0.101827,0.743207,0.019382,0.875839,0.482215
-0.048955,0.141146,0.494399,-0.597401,0.751782,-0.279170
-0.079866,0.575487,0.509311,-0.104324,-0.321147,0.941266
-0.169484,-0.371935,0.555422,0.936927,-0.272989,-0.218275
0.500611,-0.315620,0.713285,0.942982,-0.168027,0.287319
-0.187125,0.529104,0.210043,0.560664,0.510999,0.651564
0.481463,-0.092511,0.506363,-0.210502,-0.471024,0.856636
0.536934,0.135617,0.588120,-0.012164,0.763994,0.645109
0.165218,0.145958,0.875694,-0.291786,-0.486091,0.823758
0.364511,0.065274,0.660615,-0.304156,0.883299,-0.356752
-0.088517,0.193160,0.818086,0.825420,0.409141,0.388954
-0.103046,0.184968,0.831671,0.979978,0.115514,0.162169
0.311694,0.643168,0.412028,0.915648,0.044299,-0.399533
0.369361,0.270875,0.787157,0.774977,0.631531,-0.024088
-0.513056,0.479752,0.584779,0.900806,-0.171845,0.398771
-0.721240,-0.131214,0.301061,0.036811,-0.941468,0.335086
0.003059,0.164183,0.387044,0.755790,0.411830,-0.509094
0.168217,0.169917,0.822557,0.847936,0.234572,-0.475375
0.747419,-0.125787,-0.367538,-0.652684,-0.672635,0.348663
0.365553,-0.219066,0.654547,-0.700450,0.317676,0.639102
-0.602098,-0.661496,0.218911,-0.225254,0.612269,0.757884
0.557925,-0.913582,0.105218,0.535649,-0.308581,0.786039
0.411569,-0.696308,0.381860,0.198639,0.771336,0.604635
-0.814082,0.557057,-0.431460,-0.387338,-0.860450,-0.331051
0.307886,-0.807915,-0.957992,0.024580,0.096380,0.995041
0.714208,-0.135207,-0.980617,0.048210,0.084618,0.995246
0.451708,-0.066400,0.115069,0.933741,0.225265,0.278179
-0.170519,0.569036,0.182504,-0.299017,0.539355,-0.787201
0.157722,-0.427431,-0.205645,-0.654905,0.646638,-0.391099
0.081717,-0.279885,-0.972682,0.008306,0.041266,0.999114
0.389888,0.210157,0.492212,-0.196850,0.516288,0.833485
-0.280319,0.037219,0.308529,-0.666406,0.699542,0.257961
0.696095,-0.326473,0.005011,0.793343,0.474361,-0.381561
0.202816,0.421082,-0.994350,0.096369,0.098623,0.990448
-0.497140,0.349716,-0.032673,0.956285,0.027184,0.291170
-0.327716,-0.519173,-0.216111,-0.685920,0.724532,-0.067589
0.467504,0.170634,0.380656,-0.152559,0.241031,0.958452
-0.767368,0.236881,0.259200,-0.071725,-0.369190,0.926582
0.132697,0.291557,0.822115,-0.297213,0.954806,-0.003129
0.441093,0.496954,0.489191,0.317884,-0.725360,0.610575
-0.237069,-0.622793,-0.162752,0.918498,0.241733,-0.312931
0.092093,0.601187,-0.625313,0.436691,0.898576,-0.043141
-0.009281,0.250089,0.638776,-0.100435,0.697092,0.709913
-0.210425,-0.215482,0.044662,0.075022,0.949078,0.305979
0.725393,-0.142579,0.431165,0.621721,0.569032,-0.538205
-0.115964,0.326678,0.704122,0.005878,-0.624650,0.780883
-0.733347,-0.932524,-0.000295,-0.118851,-0.992672,-0.021824
-0.077557,0.013567,0.604014,0.207274,-0.674305,0.708767
-0.528050,-0.074182,0.322360,-0.713759,0.677083,-0.179181
-0.500836,0.378078,0.030733,0.392464,0.778184,-0.490308
-0.602210,-0.140020,0.291554,0.791546,-0.473084,0.386843
-0.768988,0.063124,0.414877,0.117158,-0.876357,0.467196
0.207314,-0.053295,-0.587383,-0.504879,-0.845531,-0.173709
0.538553,0.241489,0.672481,0.388040,0.821080,-0.418633
-0.526783,-0.297906,-0.104555,0.676126,0.374222,-0.634674
-0.467039,0.313674,0.698595,-0.664761,0.741817,-0.088319
-0.773134,-0.873036,-0.381050,-0.128935,-0.932330,0.337842
0.019785,0.121077,-0.216602,0.971906,-0.125454,-0.199150
0.200972,0.246301,0.797032,0.781500,0.353041,0.514412
0.467969,0.154456,0.496733,-0.091085,-0.819409,0.565927
0.189554,0.017969,-0.370019,0.226868,0.931333,-0.284869
0.224962,0.568218,0.179163,-0.648553,-0.401900,-0.646417
-0.166830,0.456406,-0.992311,-0.076730,-0.028645,0.996640
0.722281,0.405007,-0.158822,-0.272211,0.861227,0.429172
0.649276,0.158757,0.501572,-0.037891,0.355711,0.933828
-0.561614,0.744432,0.327888,-0.281873,0.506873,-0.814633
-0.246178,-0.610301,0.290424,-0.588820,0.313019,-0.745191
-0.522630,-0.339067,0.262566,0.227227,0.940028,-0.254391
-0.280087,0.242615,-0.978996,0.113222,-0.019805,-0.993372
-0.747074,0.417396,-0.013684,0.498041,0.589322,0.636125
0.261173,0.837710,0.696114,0.691561,0.706794,-0.148949
-0.205462,0.333333,0.398885,-0.158016,-0.344052,0.925559
0.455974,-0.177085,-0.976785,0.037767,0.084071,0.995744
0.201429,0.176572,0.851889,0.018957,0.801043,0.598306
0.046886,0.648696,-0.527318,-0.349780,-0.467875,0.811633
-0.562656,0.269953,0.407090,0.619383,0.001522,0.785088
-0.774985,-0.869349,-0.432197,0.653572,0.741064,0.153842
0.839340,0.433676,0.503218,-0.659980,-0.324639,-0.677522
0.453433,0.651154,0.694247,0.344586,0.308672,-0.886556
-0.766102,0.457226,-0.679875,-0.452558,0.838582,-0.303268
0.405340,0.245789,0.480863,0.200118,-0.161471,-0.966375
0.385045,-0.732043,0.395838,0.076994,0.746144,0.661318
0.411457,0.346541,0.793200,0.449649,0.882682,-0.136704
0.765757,0.055137,0.267774,-0.679582,-0.317604,-0.661284
-0.303958,0.454564,0.519039,0.681548,0.717425,-0.144201
0.508101,-0.150873,0.508623,-0.698494,0.312846,-0.643610
-0.668296,-0.198997,0.471945,-0.532894,-0.830290,-0.163222
0.267635,-0.483746,0.359333,0.469474,0.734193,0.490464
0.741197,0.090872,0.647767,-0.372435,0.856494,0.357365
0.160256,-0.424564,-0.965828,0.175882,-0.014462,-0.984305
-0.424599,-0.567911,-0.448116,0.853946,-0.035929,-0.519119
-0.395878,-0.037526,0.408122,0.037799,-0.948157,0.315546
-0.458508,-0.391799,-0.564266,0.542511,-0.428779,-0.722378
0.058881,0.916961,0.531199,0.678646,0.711122,0.183699
-0.320338,-0.219884,0.535425,-0.102044,-0.732809,0.672740
-0.894120,0.561357,-0.007198,0.854425,0.300430,-0.423910
-0.246523,-0.200942,0.712917,0.092885,-0.972751,0.212432
-0.412259,-0.197973,-0.060237,-0.173076,-0.868183,0.465084
0.987547,0.203399,0.553456,0.784810,0.049311,-0.617772
-0.882125,0.155173,0.430551,-0.067829,-0.907052,0.415519
0.097513,0.519787,-0.513340,0.680096,0.529635,-0.506908
-0.159910,-0.492858,0.493171,-0.465154,-0.855194,0.228637
-0.441325,0.081144,0.083084,-0.066220,-0.994992,-0.074873
-0.019432,0.195003,-0.608141,0.760718,0.644436,0.077526
0.134766,0.236881,0.272515,0.486601,0.826737,-0.282358
-0.367854,-0.797368,0.074387,0.265659,-0.027663,0.963670
-0.117350,-0.390672,0.234928,0.950999,-0.106033,-0.290444
-0.491952,0.621051,0.226060,0.502073,0.864588,-0.020234
-0.538666,0.571596,0.315973,-0.139330,-0.349541,0.926503
0.573497,0.455486,0.071414,-0.718727,0.692157,-0.065959
-0.081710,0.329237,0.791800,0.668266,0.146911,0.729272
-0.011935,-0.882762,-0.214366,0.863202,-0.319065,-0.391254
0.073988,0.742384,0.542352,-0.555440,0.361988,-0.748633
0.125312,0.255414,0.386872,-0.224591,0.316126,0.921750
0.340408,0.007013,0.529701,-0.473111,-0.737774,0.481514
0.101667,-0.963037,0.185673,-0.679809,0.436490,-0.589353
-0.000862,0.292786,0.777625,0.190881,-0.037379,0.980901
-0.273744,-0.405315,0.423574,0.169619,-0.565380,0.807202
0.912346,0.237392,0.071881,0.026364,-0.688040,0.725193
0.283783,0.324630,0.588857,-0.080292,-0.961087,0.264322
0.216543,0.211795,0.954429,0.141413,0.972264,-0.186294
0.162100,0.010290,0.932049,0.915912,0.190995,-0.353024
-0.155180,0.318794,0.832899,0.932529,0.301535,0.198662
0.312497,-0.667127,0.355918,0.866856,0.498455,-0.010137
0.311117,0.319408,0.787648,0.565284,0.812877,-0.140306
-0.400954,0.263912,0.382229,0.443147,0.632454,-0.635313
-0.621125,0.552654,-0.996954,0.021055,0.082194,0.996394
0.318262,0.592894,0.401046,-0.493377,0.814508,-0.305215
0.633817,0.262888,0.232767,-0.057798,0.167556,0.984167
0.526558,-0.618799,-0.082715,-0.376943,0.247037,-0.892685
-0.873016,-0.907746,-0.605488,0.600905,-0.706670,0.373538
0.080908,0.089131,-0.781064,-0.064249,-0.997833,0.014161
-0.864132,-0.819076,-0.101705,0.864268,0.446853,0.231007
-0.261172,0.881124,0.272613,0.523210,-0.837492,-0.157667
0.463703,-0.765116,0.086105,0.761102,0.454496,-0.462771
0.040424,0.911022,0.386233,-0.099447,-0.533949,0.839648
0.794478,0.774433,0.162556,-0.394802,-0.589041,-0.705097
-0.117463,0.035171,-0.983172,-0.242215,0.104245,0.964606
-0.070411,0.233092,0.413600,0.396751,0.916898,-0.043432
0.110318,0.685352,0.529357,-0.667412,0.366778,-0.648101
0.050230,-0.761532,-0.192183,0.567167,-0.023086,-0.823279
-0.044112,-0.177085,0.286592,0.999407,0.014528,0.031229
0.054840,0.575283,0.263696,-0.195792,0.201705,0.959677
-0.805663,-0.300671,0.085614,0.962546,0.270467,-0.018772
0.201549,0.274560,0.912077,-0.321749,0.748535,-0.579804
0.062570,-0.930886,0.217658,0.788308,-0.411097,0.457788
0.469701,0.327292,-0.988085,0.075972,0.085168,0.993466
0.488383,0.278247,0.489166,0.444576,-0.320427,-0.836468
0.960446,0.011826,0.570284,0.942585,-0.324759,0.077877
-0.159333,0.258588,0.779492,-0.600404,-0.644811,-0.473006
0.330835,0.521220,0.549845,0.046119,0.948523,0.313332
-0.386192,-0.088108,-0.372328,-0.801461,0.439571,0.405508
0.524714,0.489069,-0.998354,-0.013638,0.085057,0.996283
0.609018,0.607741,-0.999165,-0.158339,-0.038536,0.986632
0.043775,-0.798597,0.206014,-0.654708,0.205284,0.727472
0.152069,0.528797,-0.098045,0.914856,-0.135409,-0.380399
0.122545,0.725387,0.397067,0.826683,0.022440,-0.562220
0.244679,0.195106,0.528153,0.964229,0.206733,0.165903
-0.334988,-0.564737,0.303788,-0.664827,0.373915,-0.646679
-0.235450,0.224184,-0.985358,-0.017892,-0.026608,0.999486
0.241455,-0.378693,0.343684,-0.076932,0.092982,0.992691
0.392654,0.796446,0.572717,0.055264,-0.579125,0.813364
0.346525,-0.407566,-0.970373,-0.049383,0.129454,0.990355
0.078718,-0.065275,-0.969538,0.102985,-0.371836,0.922568
-0.459318,0.313162,0.412494,0.720893,0.346432,-0.600248
-0.228073,0.313367,0.208569,-0.666067,-0.246021,0.704151
-0.487799,-0.241898,-0.635140,0.358429,0.905476,0.227248
0.301198,0.173091,0.886184,-0.378507,0.921648,0.085424
0.066491,-0.064353,0.828133,-0.375762,-0.815032,-0.441050
0.191630,0.544463,0.845870,0.912180,-0.375432,-0.164251
0.683410,0.241284,0.146809,-0.281012,0.589902,0.756999
0.035581,-0.680643,-0.573576,0.394290,-0.914793,-0.087692
0.400039,-0.037015,0.781703,-0.849732,0.317325,-0.421023
-0.251021,-0.436133,0.210215,-0.537371,-0.800216,0.266246
0.597030,0.062202,0.613964,-0.630308,-0.641838,0.436755
0.463929,0.604874,0.682086,-0.668309,0.699586,-0.252870
-0.221611,0.019198,-0.981649,-0.047527,0.132146,0.990090
-0.117238,-0.002612,0.607527,0.238935,-0.612149,0.753779
0.585260,-0.884298,-0.448239,-0.622740,-0.538106,0.568011
-0.353438,0.599549,0.447600,0.639955,0.678501,0.360686
0.205470,0.546306,0.598069,0.844945,0.341805,-0.411384
0.442479,0.212410,0.670589,0.358186,-0.129404,-0.924639
0.057614,0.897916,0.534418,0.864738,0.261725,-0.428636
-0.684677,0.626683,0.124748,-0.182026,0.739040,-0.648604
0.454932,-0.284800,0.126910,-0.334090,0.844375,-0.418826
0.363821,0.816515,0.525033,-0.286306,-0.667349,-0.687514
0.130275,0.855629,0.536407,-0.109135,-0.273530,0.955652
0.350214,-0.429274,-0.968334,-0.049446,0.106639,0.993068
-0.189666,0.388317,0.828944,-0.705408,-0.654479,-0.272135
-0.848568,0.592484,-0.525156,-0.754747,0.654376,-0.046352
0.481696,0.684534,0.533337,0.185647,-0.358257,0.914979
0.744076,0.495930,0.511890,-0.350260,0.471814,0.809141
0.094057,0.675318,0.506363,-0.177550,-0.880074,0.440393
-0.032237,-0.408386,0.167690,-0.001462,-0.675014,0.737803
-0.674181,0.188143,0.305139,0.633463,0.773421,-0.023353
0.730349,0.076946,0.614872,0.302487,0.937146,-0.173954
-0.019665,0.832489,0.288090,0.164366,-0.397703,0.902671
0.386080,-0.893514,-0.955609,0.067529,0.133049,0.988806
0.221963,0.567296,0.722154,0.140481,-0.856087,0.497373
0.139729,0.178109,0.691618,-0.172424,-0.658160,0.732868
0.342372,0.879690,0.063160,-0.479571,0.877418,0.012242
-0.049765,0.224901,0.596546,-0.069404,-0.997217,-0.027217
0.688830,0.024215,0.663563,0.040811,0.984779,0.168951
0.904159,0.354323,0.145752,-0.171202,0.840716,0.513699
0.232804,-0.490298,-0.969611,-0.114285,0.026771,0.993087
-0.376618,-0.429683,0.415418,-0.070440,0.089006,0.993537
-0.102469,0.503506,0.553309,0.613400,0.026729,0.789320
-0.120926,0.213126,-0.265317,0.498687,0.860861,-0.101141
-0.019320,-0.666513,0.176706,0.805911,-0.307366,-0.505998
0.320114,0.344186,0.798777,-0.067901,-0.583810,0.809046
0.824466,0.408283,0.343414,0.395602,-0.330133,-0.857036
-0.301424,0.282956,0.694738,0.009508,-0.743951,0.668166
-0.387002,-0.539241,-0.515821,0.147650,0.988717,0.025251
0.465202,0.737163,0.580013,-0.585211,0.595389,-0.550491
-0.649501,0.073670,0.602565,-0.238956,-0.970884,-0.016842
-0.257596,0.558081,0.255712,-0.028157,0.901729,0.431383
0.013322,-0.478319,-0.030340,0.334456,0.780501,0.528163
-0.517209,0.751599,0.443841,0.450360,0.599674,-0.661489
-0.266705,0.446065,0.263966,0.891270,0.117646,-0.437946
-0.700473,0.522039,-0.997150,-0.047381,-0.102903,-0.993562
0.659765,-0.827472,-0.234216,0.832644,-0.520416,-0.189399
-0.488953,0.118620,-0.411536,0.922572,-0.225706,-0.312920
-0.045957,-0.335996,-0.352037,0.984820,-0.082182,0.152889
-0.056340,0.027082,0.393505,0.060240,0.783957,0.617885
0.437059,-0.705422,0.387486,0.329249,0.611956,0.719100
-0.182401,0.161010,-0.079374,-0.166330,-0.940730,0.295570
-0.121384,0.835560,-0.516214,0.667318,0.709868,0.225330
0.316882,0.587364,0.647914,-0.744503,-0.382644,0.547082
-0.243524,0.381866,0.743994,-0.406134,0.870568,-0.277788
-0.196353,-0.033738,0.609198,-0.540621,0.628834,-0.558835
-0.274322,-0.501972,0.139488,-0.532245,0.812496,-0.237834
-0.042036,-0.440639,0.450106,-0.332806,0.693739,0.638722
0.366362,0.850406,0.497052,-0.813188,0.336883,0.474590
0.187590,0.574771,0.846853,0.912180,-0.375432,-0.164251
-0.035348,0.104388,-0.976736,-0.275007,0.265096,0.924173
0.252873,0.677264,0.653245,0.838574,-0.011630,-0.544663
0.736698,0.060871,-0.986906,0.145211,0.050365,0.988118
-0.007205,-0.655045,0.491967,0.615733,0.779538,-0.114859
-0.239716,0.093022,0.394168,0.126268,0.368829,0.920881
-0.148605,0.038550,0.615880,-0.376488,0.523290,-0.764476
-0.808775,-0.102852,0.319167,0.297065,0.664479,0.685726
0.644778,-0.036707,0.722129,0.372094,-0.858611,-0.352608
0.434518,-0.627605,0.367734,0.091228,0.570150,0.816460
0.214811,0.201761,0.681226,0.090497,0.878997,0.468161
-0.374429,-0.656069,0.131430,-0.852236,0.492239,-0.177186
0.051497,0.225106,0.536899,-0.543467,0.582290,0.604633
-0.404994,0.227871,0.666315,0.717813,-0.086138,0.690887
0.361287,-0.091077,-0.255196,0.006546,0.568115,0.822923
0.498302,-0.106538,0.721589,-0.662005,0.668227,0.339444
-0.130155,0.253263,0.390508,-0.333036,0.663600,-0.669867
0.199930,-0.335689,0.656070,-0.094403,0.841732,0.531578
-0.473382,0.055342,-0.982165,0.096912,0.032659,0.994757
-0.817771,-0.209748,0.007272,0.956622,0.203310,0.208661
-0.424486,0.197665,0.439665,0.030530,0.964298,0.263055
-0.331989,-0.535146,0.140299,0.832411,-0.554142,0.004376
0.463929,0.215379,0.070137,-0.602415,0.101003,-0.791766
-0.167520,0.522347,-0.988282,-0.129808,-0.008271,0.991505
-0.615128,-0.099678,0.301700,-0.555049,0.509041,-0.657874
-0.074910,-0.469513,-0.010244,0.928748,0.350557,-0.120572
-0.524706,0.317974,-0.167297,-0.357379,0.628033,0.691270
-0.262552,0.256847,0.469832,0.312358,0.060375,-0.948044
-0.516632,0.066195,0.513733,-0.192320,-0.790787,0.581093
-0.609940,-0.179952,-0.505871,0.939872,0.308006,0.147555
-0.327490,-0.105923,0.212254,-0.245050,0.852629,0.461491
0.313884,0.620437,-0.311895,-0.314049,0.676546,-0.666078
-0.437749,-0.754057,0.131504,-0.659394,0.472000,-0.585163
0.078028,-0.164799,-0.165160,-0.458130,0.502337,0.733331
-0.419868,0.352787,-0.993514,0.041035,0.040148,0.998351
0.008247,-0.067220,0.852380,0.032475,0.907896,0.417936
-0.899196,0.131828,0.257382,0.800287,-0.066475,0.595921
0.064879,-0.469513,0.320444,0.521118,0.225559,-0.823140
-0.222878,-0.284903,0.170098,0.546250,0.057223,0.835666
0.232916,0.031895,0.927480,0.906206,0.387064,-0.170209
0.406958,-0.148313,0.645384,-0.161972,0.838438,0.520372
0.373740,-0.320432,0.108362,0.915329,-0.343244,0.210611
-0.608672,-0.681053,-0.091706,-0.038528,0.440736,0.896809
0.719973,-0.833000,-0.203361,0.910129,0.271596,-0.312893
-0.227031,-0.215072,0.717216,0.128795,-0.981296,0.143072
-0.713391,0.336405,0.493981,0.317634,-0.602993,0.731784
-0.390000,-0.055240,0.440770,-0.418868,0.781642,0.462152
-0.186892,0.030359,0.414705,0.096244,0.911800,0.399197
-0.446625,0.064967,-0.381639,0.679023,0.146816,-0.719286
-0.729427,-0.135003,0.315850,0.570577,-0.080506,0.817288
-0.401763,-0.578252,-0.221294,-0.156636,-0.971586,0.177440
-0.534512,-0.693237,0.303370,0.850760,-0.517978,0.088916
0.364863,0.127630,0.822655,-0.168781,0.983071,0.071303
-0.403143,0.295755,-0.041394,0.684683,0.306549,-0.661239
-0.845105,-0.684841,0.213138,-0.369442,0.833433,0.410978
0.318614,0.204218,0.887560,0.322051,0.911670,0.255229
0.224384,0.531152,0.717314,-0.398425,0.740632,-0.541038
-0.367390,0.164491,0.517663,-0.218115,-0.741525,-0.634481
-0.803467,-0.337634,0.324817,-0.658839,0.724092,-0.204014
0.344674,-0.457431,0.337297,0.173161,0.253349,0.951751
0.283086,-0.190601,0.309168,-0.212998,-0.313618,-0.925352
-0.561726,-0.579379,0.216651,-0.266432,0.704410,0.657891
0.143418,0.171248,0.779074,-0.435148,0.855660,0.280163
-0.338676,-0.569139,0.091805,0.002442,0.277406,0.960750
-0.389881,-0.196233,-0.728001,-0.723378,0.281923,-0.630273
0.401074,0.379613,-0.078465,0.110922,0.896351,-0.429245
-0.413759,0.356576,-0.993318,0.042041,0.056096,0.997540
0.867019,0.236983,0.414656,-0.020866,0.981961,0.187931
-0.383770,-0.838734,-0.475950,0.827348,-0.232374,-0.511369
0.571765,-0.682793,0.061170,-0.334704,-0.803698,-0.491978
-0.259553,0.077766,0.759839,0.343241,0.872757,0.347102
0.428872,-0.775252,0.409129,0.310883,0.788320,0.530945
-0.123693,0.830542,-0.537685,-0.567022,0.499160,0.655229
0.209623,-0.652895,-0.964944,-0.105270,0.104640,0.988923
-0.384805,0.582552,0.225544,0.409498,0.774138,-0.482724
0.163374,0.167153,-0.503292,0.870523,-0.478749,0.113971
0.874171,0.181897,0.528644,0.572875,-0.339911,-0.745838
-0.144684,0.572620,-0.777428,-0.577923,0.066032,-0.813415
0.024508,0.054932,0.686852,-0.742763,0.666581,0.063036
-0.864020,0.362821,0.273399,0.392548,0.201765,-0.897328
-0.595058,0.123739,-0.445782,0.839193,-0.323397,-0.437229
0.797244,-0.245892,-0.153098,0.953530,0.292481,0.072352
0.438904,0.597809,0.689382,-0.700622,0.145405,0.698561
-0.116309,0.978703,0.494571,0.063071,-0.997947,0.011094
0.248487,0.809655,0.530831,-0.066219,0.164792,0.984103
-0.026352,0.477090,0.283791,-0.479644,0.455580,0.749926
-0.223920,0.587364,0.557510,-0.290894,-0.860760,0.417700
0.297158,0.166333,0.574977,-0.192576,-0.564751,0.802478
0.175482,0.801669,0.525844,-0.186957,0.277897,-0.942242
-0.540742,-0.890749,0.103596,-0.622047,0.711427,-0.327000
0.091171,-0.449035,-0.178843,0.084702,-0.597900,0.797083
0.437517,-0.452005,0.344126,0.312565,-0.055944,-0.948248
-0.873361,-0.088722,0.342800,-0.402910,-0.914986,-0.021555
0.730124,0.448421,0.567705,-0.481507,0.754132,-0.446582
0.008247,0.278349,0.708593,-0.329405,-0.902114,0.278715
0.214924,-0.008755,0.928585,0.813169,0.504460,-0.290304
-0.287465,-0.122408,0.670368,-0.326641,0.915958,0.233079
0.599909,0.450775,-0.993465,-0.006241,0.052578,0.998597
0.846147,-0.071930,0.634305,0.155823,0.976187,-0.150926
-0.682945,0.314903,0.472412,-0.486178,-0.836445,-0.252963
0.485040,-0.517740,-0.209797,0.470154,0.858523,-0.204680
-0.499104,-0.026981,0.420257,0.422992,-0.862733,-0.277073
-0.268782,-0.001690,0.422002,-0.159932,0.791557,0.589795
0.259905,0.689243,0.748219,0.395376,-0.823685,0.406473
0.130275,0.118107,0.731366,0.605369,-0.737287,0.299895
-0.466237,-0.025445,-0.424336,0.008824,0.814200,0.580518
0.337754,0.940101,0.474574,0.728523,0.105899,-0.676786
0.651120,0.018481,0.210755,0.106833,-0.990582,0.085638
0.310420,0.696616,0.556380,0.544073,0.625390,-0.559349
-0.434518,-0.030154,0.418955,0.155999,-0.910805,-0.382228
0.177326,0.143091,0.794477,0.608455,-0.767393,-0.202216
0.497957,-0.200942,-0.978210,0.097379,0.086298,0.991499
-0.580529,0.576101,0.096792,0.301358,0.728610,-0.615069
-0.004326,-0.102545,0.719501,0.864155,0.239380,0.442644
0.571420,0.480775,0.590847,0.920850,0.066077,-0.384278
-0.183781,0.439512,0.228418,0.583871,0.523596,-0.620437
-0.037305,-0.041315,0.399229,0.332853,0.135006,0.933264
0.568421,0.320944,0.477841,-0.416459,0.543156,0.729071
0.050694,0.013771,-0.898983,0.686334,0.718213,-0.114528
0.314341,0.290124,0.606250,-0.137989,0.621546,0.771129
0.479845,0.771157,0.138726,0.754294,0.521526,-0.398812
-0.473157,0.665284,-0.290301,0.091668,-0.174046,0.980462
-0.433941,-0.939795,-0.401562,-0.776743,0.623350,0.090025
-0.529324,0.246198,0.200707,0.590502,-0.726000,-0.352464
0.712011,0.264322,0.358031,-0.234528,0.963760,0.127137
-0.134998,-0.204833,0.435783,-0.630682,0.402308,-0.663617
0.165099,-0.108074,0.569302,0.610570,-0.461309,-0.643738
0.183556,0.140736,0.710509,-0.778829,0.625297,0.049282
0.087250,0.197460,-0.659805,0.893521,-0.429200,-0.131940
-0.630818,0.497466,-0.994866,0.039875,0.124417,0.991428
-0.486532,0.627194,0.440009,-0.164277,-0.588627,0.791538
0.551125,-0.037219,0.197907,-0.407397,0.817409,-0.407271
0.074452,0.136333,0.820764,-0.144990,-0.987069,0.068359
-0.660919,-0.178211,-0.165357,0.997257,0.073650,0.007399
0.752150,-0.529617,-0.040387,0.592623,0.711785,-0.377041
0.590110,0.317668,0.690267,-0.250729,0.080185,0.964731
-0.036503,0.981262,0.426129,-0.121556,0.992238,0.026240
-0.468307,0.322684,0.156119,-0.630750,-0.379299,0.676969
-0.156680,0.144320,0.658601,0.576875,0.816184,-0.032536
0.029358,0.549685,0.706235,0.964156,-0.093175,-0.248440
0.714897,0.591051,-0.985088,-0.091215,-0.079732,0.992634
0.202359,0.251727,0.980814,-0.669316,-0.637556,0.381495
-0.221611,0.500025,0.734560,0.885271,0.334100,0.323532
0.412611,0.692520,0.430993,-0.068865,-0.901022,0.428273
0.419066,-0.147904,0.625657,-0.342670,0.701087,0.625343
0.173173,0.920134,0.490124,-0.083736,0.993910,0.071629
0.725970,-0.020632,0.201199,-0.226289,-0.896374,0.381190
0.846492,-0.248042,0.031052,0.715118,0.042563,-0.697707
-0.683410,0.098858,0.246794,-0.450229,-0.090089,-0.888357
0.767721,-0.313367,0.046430,0.481414,0.172958,-0.859259
-0.235683,0.516817,0.724070,-0.528430,-0.170634,-0.831652
-0.349172,0.610608,-0.085933,0.958488,0.275893,-0.072003
-0.505102,0.269953,0.438338,-0.131736,-0.925804,0.354306
-0.159678,0.249475,0.821451,0.989355,0.112127,0.092761
-0.035348,0.118722,0.910161,0.453240,-0.890670,0.035771
-0.429675,0.749551,-0.083108,0.973680,-0.207746,-0.093750
0.602675,0.325653,0.691520,0.316354,-0.047421,0.947455
0.136843,0.261045,-0.990395,0.052857,0.218026,0.974510
-0.061183,0.404699,0.318823,0.704444,0.672602,-0.226641
-0.700938,-0.929863,0.147644,-0.425083,0.882288,0.202169
-0.087595,-0.093022,0.309684,0.914764,0.251652,-0.316036
0.341675,-0.609379,0.373188,-0.224717,0.513682,0.828030
0.127734,0.099779,0.872034,0.759172,0.649601,0.040935
0.438213,0.480469,0.680465,-0.729539,0.647192,-0.221167
0.313884,0.337531,0.781113,0.529227,0.422753,-0.735662
-0.278010,0.257461,0.655333,0.017363,-0.990624,0.135507
-0.513633,0.498592,0.576745,0.900806,-0.171845,0.398771
-0.520905,0.782829,0.330000,0.248569,-0.530933,0.810138
-0.020699,-0.775252,0.158601,-0.675963,0.265804,0.687330
-0.341675,0.351661,0.516828,0.547952,0.612283,-0.569963
-0.289774,-0.458045,0.302388,-0.690111,0.681552,0.243380
0.804051,-0.188655,0.439026,0.270155,0.918211,0.289662
-0.702092,-0.091998,0.301209,0.170591,0.825453,0.538076
0.609018,0.342446,0.574657,0.182621,-0.779036,0.599793
-0.322295,0.153330,0.532256,0.694688,0.291638,0.657538
-0.110086,-0.205959,0.312509,0.773298,0.633894,0.013758
-0.036503,-0.350638,0.439002,0.959454,0.030242,-0.280238
0.634739,0.385655,0.580185,-0.499325,0.438116,-0.747482
0.351136,-0.118518,-0.977841,0.211518,-0.040096,0.976551
-0.211347,0.142169,0.511030,-0.357986,-0.093830,-0.929001
-0.288964,0.193877,-0.328920,0.703513,0.677621,0.214242
-0.354592,0.804331,-0.633887,-0.640936,0.291702,-0.710007
0.894127,0.387703,0.314474,0.980442,-0.080916,-0.179403
0.028549,0.142374,0.905665,-0.406836,0.913056,-0.028520
-0.157602,-0.227462,0.165602,0.024024,-0.659762,0.751091
-0.507523,-0.735115,0.120007,0.048645,-0.944146,0.325918
0.715932,-0.823888,-0.202476,0.910129,0.271596,-0.312893
-0.425986,-0.586853,0.201985,0.457877,-0.263852,0.848958
0.031202,-0.935289,-0.037685,-0.603326,0.499222,0.621913
0.093015,-0.040905,-0.963347,0.166408,-0.405411,0.898861
0.415722,0.111145,0.563627,0.763959,0.531924,-0.365272
-0.088172,-0.435008,0.077188,-0.223657,0.804733,0.549893
0.350791,-0.269339,0.337739,0.058605,0.192694,0.979507
0.271091,0.090462,0.764973,0.386395,0.609454,-0.692290
-0.537743,0.185174,0.225618,0.314860,0.847261,0.427799
0.801630,0.442994,0.506486,0.616848,0.333587,0.712894
0.483308,-0.077663,0.336928,-0.098135,-0.906422,0.410816
0.459550,0.132852,0.935046,-0.179551,-0.980161,0.083935
0.843261,-0.410024,-0.585270,-0.811274,-0.584086,-0.026028
0.204780,-0.421185,0.337051,-0.668889,0.131239,0.731686
0.155300,0.372446,-0.241218,-0.703989,0.204107,0.680250
0.909579,0.326473,0.349531,0.433234,0.150502,-0.888627
-0.339711,0.806481,-0.255736,-0.385317,0.768658,0.510583
0.239379,-0.699893,0.056232,-0.105699,0.983937,0.143863
0.844760,-0.506886,0.002285,0.553085,0.734088,-0.393969
-0.475691,0.100804,0.409055,0.901160,0.272739,0.336933
0.382046,0.377873,-0.992041,-0.046999,0.079720,0.995709
-0.201887,0.341627,0.504717,-0.016219,-0.506598,0.862030
-0.155525,-0.561768,0.470520,0.352956,0.922749,-0.154780
0.114007,0.448830,-0.110328,0.947609,0.195535,-0.252593
-0.941869,0.386064,-0.651010,0.754107,-0.606547,0.251839
-0.047801,0.266164,-0.981600,0.007793,0.090252,0.995889
-0.172596,-0.580812,0.096153,-0.618443,0.387373,-0.683718
-0.414336,0.491322,0.573306,0.737243,0.643262,0.206607
-0.064182,0.011007,0.611925,0.207274,-0.674305,0.708767
-0.700706,0.629242,-0.514249,-0.393457,0.700216,-0.595725
0.555504,0.272615,0.492188,0.348277,-0.216071,-0.912149
0.773831,-0.610096,-0.261190,0.956495,-0.241347,0.163919
-0.390458,0.196949,-0.042672,-0.482479,-0.789618,0.379100
0.593679,0.058209,0.526974,0.839506,-0.532363,-0.108717
0.088982,0.071623,0.600698,0.038591,0.378369,0.924850
0.067645,-0.473097,0.169262,0.869482,0.228171,-0.438109
-0.400264,-0.545282,0.197121,0.503970,-0.065435,0.861239
-0.842106,0.632928,-0.088488,-0.330049,0.941789,-0.064034
-0.035236,0.722009,0.543114,-0.289578,0.580814,-0.760789
