-0.266745,-0.254975,0.441853,0.527338,0.741857,-0.414202
-0.266577,-0.540671,0.487182,0.998182,0.060147,-0.003815
-0.257705,-0.426548,0.424302,0.925725,-0.310135,0.216445
-0.249836,-0.363687,0.373705,0.956428,-0.191676,-0.220240
-0.245482,-0.482094,0.373423,0.983927,0.001263,-0.178568
-0.242799,-0.661788,0.388890,0.141296,-0.633621,0.760632
-0.227397,-0.284263,0.250479,-0.299791,0.577786,-0.759137
-0.146689,-0.163621,-0.171005,-0.036934,-0.114447,0.992743
-0.141660,-0.245105,-0.183147,0.264805,0.929122,0.258089
-0.146351,-0.737229,0.533864,-0.154434,0.645612,0.747888
-0.127597,-0.500716,0.402976,0.430781,0.380023,0.818542
-0.124081,-0.639659,0.408667,0.914348,-0.376659,0.148643
-0.086573,-0.228241,0.159737,0.255134,0.592381,-0.764193
-0.080042,-0.256567,0.132438,-0.210014,-0.882536,0.420742
-0.068989,-0.093116,0.050823,-0.025251,0.898045,0.439178
-0.256699,0.025301,0.953629,0.724473,-0.674079,-0.144069
-0.250337,0.037716,0.920443,0.001675,-0.915050,0.403337
-0.244812,0.021804,0.895398,-0.744132,0.520324,-0.418962
-0.239283,-0.010195,0.874156,0.162796,-0.960368,0.226255
-0.224883,0.108543,0.783920,0.336314,0.866265,0.369429
-0.219691,0.059680,0.765242,0.304219,-0.183175,0.934825
-0.215506,-0.083567,0.770707,-0.718080,0.316711,-0.619722
-0.208643,-0.048867,0.730506,-0.259092,0.780239,0.569296
-0.203283,-0.085470,0.709630,-0.546184,0.826902,0.133853
-0.200605,-0.256888,0.723632,0.748231,-0.276121,-0.603248
-0.193573,-0.227445,0.684472,0.750440,0.407765,-0.520161
-0.186374,-0.178582,0.641115,-0.714191,0.322639,-0.621156
-0.179674,-0.169985,0.606745,-0.678579,-0.327670,-0.657391
-0.170466,-0.059689,0.545442,-0.325019,-0.522755,0.788093
-0.163265,-0.034539,0.506114,-0.718344,0.693740,0.052025
-0.156566,-0.024358,0.471772,0.203732,0.224564,-0.952924
-0.152212,-0.115711,0.464504,0.038592,-0.180772,0.982768
-0.150204,-0.328347,0.488337,0.663387,-0.372512,-0.648962
-0.148027,-0.517745,0.507551,0.313841,-0.037056,-0.948752
-0.142166,0.024029,0.952953,0.772186,0.545789,-0.325334
-0.135298,0.044875,0.918837,0.797393,0.533031,-0.282919
-0.131113,-0.064779,0.915935,0.814269,0.575577,-0.075346
-0.124919,-0.061603,0.884917,-0.405437,-0.874104,0.267512
-0.119559,-0.110300,0.866577,0.791105,0.611416,0.017990
-0.111689,-0.003988,0.810515,0.853140,-0.218215,-0.473851
-0.105997,-0.028497,0.787047,0.301773,-0.734979,0.607239
-0.100135,-0.053005,0.762199,0.231003,0.217448,0.948343
-0.094443,-0.100275,0.744423,0.093155,-0.336175,-0.937181
-0.087912,-0.086267,0.709376,0.845813,-0.532618,-0.030318
-0.087242,-0.374343,0.752057,-0.385882,-0.110370,0.915922
-0.081550,-0.407129,0.729153,0.096508,0.941197,0.323781
-0.070164,-0.156297,0.633114,-0.132308,-0.404098,0.905097
-0.063966,-0.161873,0.603815,-0.115159,0.088400,0.989406
-0.054257,-0.021016,0.534202,0.293607,0.611345,0.734882
-0.046551,0.009865,0.494620,0.996524,-0.049021,0.067357
-0.041865,-0.072745,0.483633,0.764771,0.643073,-0.039780
-0.036003,-0.117304,0.462532,-0.076737,0.592225,0.802111
-0.031982,-0.234128,0.460701,0.094022,-0.631036,0.770035
-0.026457,-0.284418,0.442304,0.730633,-0.682234,0.027053
-0.007535,-0.330581,0.356661,-0.112210,0.993661,0.006810
0.045043,-0.188772,0.078319,-0.123018,0.737145,0.664442
-0.046050,0.093417,0.940332,0.358531,0.595043,0.719291
-0.040689,0.038988,0.924837,0.417892,-0.692562,0.587984
-0.036172,-0.032955,0.913822,-0.686946,0.678791,0.259515
-0.030311,-0.054434,0.888749,-0.526542,-0.549682,0.648539
-0.025451,-0.107755,0.873001,0.784726,-0.468534,0.405810
0.003181,0.702841,0.605027,0.881280,-0.464830,-0.085317
-0.009549,-0.257044,0.818487,0.664841,0.740116,0.101066
-0.000672,-0.115390,0.752283,0.248256,0.843633,0.476079
0.009712,0.061593,0.676556,-0.544344,-0.359512,-0.757919
0.014735,-0.006367,0.662245,0.788436,-0.515510,0.335586
0.019421,-0.078155,0.650187,0.831808,0.510229,0.218546
0.023443,-0.195135,0.648834,0.780115,0.502076,-0.373283
0.029135,-0.237790,0.627846,-0.520581,-0.545947,0.656457
0.037173,-0.166167,0.576798,0.889400,-0.347154,-0.297409
0.043367,-0.173491,0.547499,0.848659,0.520865,0.092074
0.050904,-0.137840,0.506649,0.970662,0.095125,-0.220831
0.057936,-0.127805,0.470871,-0.699588,-0.219406,0.680028
0.022773,0.041213,0.936782,0.824807,0.557825,0.092334
0.034491,-0.015605,0.890721,0.912503,-0.019863,-0.408588
0.037843,-0.139744,0.892749,-0.134794,-0.952836,-0.271908
0.054420,-0.216458,0.822375,-0.238343,0.619360,0.748054
0.066812,0.107901,0.708109,-0.095365,-0.313596,0.944756
0.078867,0.400592,0.600914,0.938817,-0.343343,0.027164
0.079204,0.071143,0.654187,0.546004,0.829399,0.118225
0.082050,-0.100275,0.667935,0.275211,-0.041972,0.960467
0.085898,-0.208502,0.665484,-0.429568,-0.171475,0.886605
0.090421,-0.310996,0.660357,0.521722,-0.660669,-0.539744
0.101137,-0.077514,0.568149,0.822061,-0.376734,-0.426951
0.105322,-0.192269,0.565924,-0.110962,0.982656,0.148575
0.111689,-0.199273,0.535075,0.999447,-0.010898,-0.031413
0.120729,-0.101703,0.476251,-0.334063,0.432346,0.837543
0.126922,-0.116507,0.448305,-0.626141,-0.486190,-0.609563
0.127591,0.047897,0.909793,0.760675,0.501332,-0.412359
0.159745,0.792922,0.630184,0.292321,0.952578,-0.084517
0.150030,-0.073376,0.818713,-0.011434,-0.720248,0.693623
0.157567,0.003182,0.768115,-0.087519,-0.903387,-0.419800
0.175821,0.662887,0.569079,0.890160,0.000015,-0.455648
0.171968,0.138462,0.673372,0.398304,0.910167,-0.113801
0.178330,0.115857,0.647539,-0.062865,-0.307632,0.949426
0.185699,-0.141493,0.651680,0.961209,0.235385,-0.143773
0.187707,-0.355886,0.675936,-0.605221,0.067532,-0.793188
0.199930,-0.070831,0.568882,0.081733,-0.656029,0.750297
0.207131,-0.012895,0.522369,-0.683381,0.187491,0.705576
0.208306,-0.265485,0.557979,-0.188117,-0.715898,0.672385
0.216175,-0.200546,0.507523,0.044642,0.845012,0.532880
0.221868,-0.254023,0.490197,0.941479,-0.229469,0.246903
0.227729,-0.284739,0.465377,-0.611869,0.521590,-0.594609
0.222870,-0.079428,0.832461,0.502980,0.858500,0.099946
0.229569,-0.017986,0.787216,0.290875,-0.939205,0.182444
0.244808,0.162175,0.679120,0.691192,-0.578685,0.432871
0.249831,0.105677,0.661935,-0.852056,0.357433,0.382416
0.266745,0.660341,0.485943,0.198189,0.721697,0.663231
0.271431,0.568513,0.477040,-0.600439,0.461796,-0.652853
0.258206,-0.453602,0.713292,-0.422427,-0.892121,-0.160234
0.271599,-0.054754,0.577728,-0.450173,-0.107703,0.886422
0.286000,0.363357,0.434557,-0.694366,0.185443,0.695318
0.280139,-0.245270,0.564402,-0.237400,-0.581926,0.777820
0.286501,-0.248136,0.532427,0.747191,0.607322,-0.269936
0.290186,-0.377850,0.534258,-0.648641,0.608312,0.457408
0.310447,-0.323897,0.422809,-0.803530,0.051279,0.593051
0.284661,0.257676,0.760227,0.387306,-0.811861,-0.436894
0.287676,0.079254,0.774398,0.913194,0.096370,0.395967
0.301238,0.204510,0.680613,0.023181,0.765593,0.642907
0.305924,0.154219,0.663090,-0.383424,0.922756,0.038817
0.320831,0.673708,0.496395,-0.200343,0.300851,0.932390
0.330208,0.139890,0.539047,0.927127,0.258592,0.271230
0.333222,-0.026748,0.550711,-0.445935,-0.633937,0.631875
0.335062,-0.247339,0.577953,0.847511,0.519734,0.107714
0.340254,-0.287449,0.557303,0.881077,0.472464,0.021927
0.346279,-0.293656,0.526257,0.639356,0.100439,-0.762323
0.364031,-0.345065,0.441459,-0.703698,-0.125200,0.699381
0.458640,0.354440,0.702784,-0.488844,0.409217,-0.770437
0.462656,0.255121,0.697910,0.172309,0.531244,-0.829512
0.483419,0.144194,0.599984,0.860336,0.316921,0.399229
0.492127,0.287431,0.529976,-0.357677,0.933686,-0.017243
0.357833,0.455031,0.755410,0.692568,0.659434,0.292399
0.361855,0.320226,0.759579,0.047740,-0.692818,0.719531
0.367046,0.298097,0.733830,-0.717272,0.568786,-0.402496
0.377093,0.208813,0.694840,-0.131929,0.896622,0.422686
0.381616,0.146418,0.679627,0.535964,0.549448,-0.640975
0.399025,0.137666,0.588433,0.977813,0.203139,0.051157
0.406226,-0.131788,0.595307,0.045788,-0.922304,0.383743
0.409072,-0.303517,0.608295,-0.666652,0.623941,0.407766
-0.761052,0.112837,-0.422949,0.187823,0.977862,-0.092243
-0.612863,0.034209,-0.432584,-0.267308,-0.960819,0.073299
-0.960484,-0.168712,-0.207769,-0.510421,0.809321,0.290637
-0.909244,0.039144,0.449713,-0.634644,-0.599883,-0.487204
-0.906567,-0.250836,0.335926,0.907490,-0.224807,-0.354857
-0.783658,0.138783,0.594941,-0.366442,-0.918439,-0.148967
-0.759881,-0.235245,0.337532,0.825200,-0.554566,0.107245
-0.758711,-0.375140,0.284061,0.812956,0.521186,-0.259745
-0.789182,-0.297630,0.488168,0.641748,0.555552,-0.528698
-0.733257,0.479860,0.412019,0.470508,-0.874153,-0.120332
-0.768251,0.455186,0.606351,0.196224,-0.582475,0.788809
-0.760551,0.141649,0.463630,-0.211977,0.026445,0.976917
-0.723211,-0.236352,0.124296,-0.473219,0.874470,0.106612
-0.775789,0.176824,0.562402,-0.111024,-0.443166,0.889538
-0.599633,0.421925,0.420583,0.728531,0.676035,0.110536
-0.630279,0.469039,0.605083,-0.486740,0.437545,-0.756068
-0.634627,0.392957,0.606548,0.580492,0.763155,-0.283943
-0.637642,0.311153,0.599927,0.027028,-0.423433,0.905524
-0.582050,-0.219964,0.121874,-0.435608,0.898245,0.058320
-0.638818,0.204510,0.573784,-0.028391,0.403105,0.914713
-0.644173,0.134003,0.580376,0.809312,-0.585362,-0.048637
-0.661926,0.190988,0.697882,0.692791,0.409096,0.593869
-0.666780,0.126844,0.705968,0.724866,-0.644450,0.243420
-0.651710,-0.269303,0.498367,0.258207,-0.761761,0.594179
-0.685366,-0.029128,0.762932,0.786242,0.602907,0.135375
-0.691227,-0.084995,0.779638,-0.506759,0.320530,0.800285
-0.645681,-0.714469,0.326460,0.886347,-0.413319,0.208703
-0.404723,0.515036,0.505100,-0.388209,0.791459,-0.472109
-0.391999,0.301283,0.379621,-0.101856,0.562297,0.820638
-0.410917,0.337566,0.486647,-0.130165,0.121125,0.984066
-0.441062,0.473012,0.681796,0.241325,0.963218,0.118206
-0.432686,0.296348,0.588828,0.604375,0.096385,-0.790848
-0.436038,0.220267,0.587870,0.359681,0.881651,-0.305486
-0.439723,0.132100,0.578967,0.021655,0.336168,0.941553
-0.446922,0.080371,0.599195,0.717627,0.584088,-0.379280
-0.460147,0.085782,0.670837,-0.479187,-0.179073,-0.859251
-0.464502,0.008107,0.670443,0.819491,0.532909,-0.210817
-0.476224,-0.001277,0.728477,0.370651,0.701367,0.608854
-0.426155,-0.461879,0.339842,-0.155059,-0.474871,0.866288
-0.480240,-0.074814,0.728675,-0.834237,0.484829,0.262658
-0.483424,-0.158211,0.720589,0.235826,-0.885012,0.401423
-0.479908,-0.308140,0.660723,0.821693,-0.552973,-0.137988
-0.443739,-0.654784,0.377001,0.093015,0.975898,-0.197411
-0.486608,-0.358266,0.680556,-0.638543,0.751974,-0.163701
-0.492301,-0.419388,0.693234,-0.526519,0.703688,0.477075
-0.499500,-0.469048,0.715293,-0.318971,0.938036,0.135450
-0.506364,-0.520611,0.735267,0.798137,0.417882,-0.433996
-0.206798,0.445958,0.412498,0.872700,-0.347014,0.343476
-0.205628,0.330727,0.376437,0.145147,0.448867,0.881732
-0.215338,0.287917,0.410948,-0.488377,0.165336,0.856827
-0.216681,0.189074,0.390974,-0.777631,0.289338,0.558187
-0.227229,0.156288,0.433683,0.764089,-0.330176,-0.554212
-0.235098,0.105832,0.460137,0.328628,-0.944418,0.008828
-0.277297,0.322926,0.721632,0.110205,-0.724528,0.680378
-0.285668,0.282816,0.750621,0.860853,0.325798,0.390881
-0.287508,0.194164,0.737098,0.898952,-0.154716,-0.409815
-0.298729,0.174269,0.785188,0.753391,0.657213,-0.021764
-0.306431,0.130031,0.809106,0.189096,0.700623,0.688019
-0.299567,-0.037249,0.732985,-0.367882,0.021126,-0.929633
-0.304760,-0.105210,0.740028,-0.331627,0.595544,0.731677
-0.333222,0.030867,0.914639,-0.553978,-0.809473,0.194582
-0.298898,-0.266913,0.669935,-0.570580,0.347924,0.743900
-0.321168,-0.182720,0.798936,-0.060816,0.618638,0.783319
-0.327530,-0.235401,0.815388,0.415657,-0.595906,-0.687113
-0.328700,-0.337895,0.794372,-0.445598,0.490859,-0.748666
-0.333222,-0.407926,0.796569,0.152167,0.961962,0.226877
-0.076190,0.549249,0.498592,-0.040758,0.951477,0.305010
-0.104990,0.638222,0.655652,0.931274,0.363682,-0.021523
-0.089920,0.317836,0.503438,0.697396,0.715138,0.047076
-0.097289,0.262445,0.521834,0.423750,0.794589,-0.434815
-0.103651,0.205947,0.538850,0.888577,-0.374129,-0.265441
-0.121904,0.232846,0.632410,0.042548,-0.055960,0.997526
-0.130944,0.195922,0.666160,-0.534912,0.422998,-0.731397
-0.140991,0.162020,0.703658,0.059176,-0.801795,0.594662
-0.143505,0.074164,0.694220,0.839291,-0.437459,-0.322831
-0.157236,0.069074,0.755382,-0.369708,-0.899438,0.233083
-0.166112,0.033257,0.786709,0.879133,-0.391004,-0.272472
-0.180006,0.044875,0.856520,-0.592229,-0.026240,-0.805342
-0.190053,0.019890,0.897877,-0.164379,0.720894,0.673270
-0.193906,-0.051257,0.898215,-0.514927,-0.070060,0.854366
-0.185535,-0.231738,0.812937,0.182064,-0.936980,-0.298195
-0.148865,-0.664333,0.528708,-0.650674,0.354490,0.671535
-0.149198,-0.778126,0.502029,0.567025,-0.455011,-0.686621
-0.159244,-0.804073,0.541611,0.836771,-0.006231,-0.547517
0.023775,0.204985,0.609393,0.895508,0.243444,-0.372560
0.014567,0.166158,0.641059,-0.054462,-0.177392,0.982632
0.005859,0.126689,0.671570,0.339115,0.319780,0.884727
-0.004019,0.089755,0.706137,0.882184,-0.359121,0.304604
-0.007034,0.008748,0.700108,0.809118,-0.369264,0.457135
-0.017249,-0.022765,0.738619,0.893113,0.152230,-0.423290
-0.050736,0.021319,0.901060,0.075935,0.702175,0.707944
-0.054088,-0.053647,0.898497,-0.423492,-0.840014,-0.339163
-0.062796,-0.085946,0.930444,0.319417,0.791369,-0.521257
-0.045713,-0.336944,0.789498,-0.079261,-0.946111,0.313993
-0.046218,-0.436738,0.768115,-0.266526,0.594926,0.758305
-0.050904,-0.511062,0.770059,-0.270148,0.238907,0.932707
-0.018926,-0.902119,0.526342,0.907457,0.342406,0.243474
0.046551,0.472857,0.571220,-0.430408,0.119560,0.894681
0.043704,0.388342,0.563501,-0.021882,-0.063563,0.997738
0.040020,0.304625,0.558599,0.379375,0.780841,-0.496349
0.038845,0.205947,0.540512,0.263203,0.932503,-0.247309
0.179505,0.777321,0.549922,0.084420,-0.744391,0.662386
0.154384,0.519009,0.597561,0.938308,-0.345210,0.020226
0.148691,0.456624,0.608914,-0.812774,0.445623,0.375258
0.151374,0.335186,0.566346,0.739553,-0.389235,-0.549143
0.156729,0.191143,0.507495,-0.485812,-0.672729,-0.558053
0.125082,0.307170,0.677908,0.706059,-0.479826,0.520814
0.118215,0.248914,0.694502,-0.079041,0.978569,0.190144
0.116375,0.156133,0.681514,-0.197572,0.833155,-0.516545
0.111853,0.079730,0.682247,0.850352,-0.503550,0.152774
0.119891,-0.083401,0.606604,-0.689067,0.464686,0.556105
0.112522,-0.136568,0.625339,0.673780,0.394515,0.624802
0.091090,-0.083401,0.734309,0.833834,0.422845,-0.354857
0.068652,-0.118256,0.828827,0.719640,-0.208807,0.662206
0.050904,-0.084363,0.917316,0.947150,-0.159210,0.278495
0.058942,-0.259113,0.837138,0.726076,0.682525,0.083508
0.052744,-0.314183,0.851195,-0.478233,-0.755958,0.447013
0.338915,0.656679,0.466419,-0.254995,-0.316058,0.913830
0.300901,0.682946,0.638298,0.947325,0.310970,-0.076635
0.320161,0.462190,0.501522,0.931073,-0.342539,0.125577
0.319323,0.361123,0.480477,0.607621,0.623357,-0.492161
0.353816,0.032305,0.252677,-0.667169,-0.493127,-0.558312
0.271768,0.457100,0.710757,0.904182,0.162047,-0.395217
0.270762,0.264991,0.670809,0.897224,0.016574,0.441265
0.257869,0.247806,0.724139,0.423458,-0.830468,-0.361948
0.272100,0.046148,0.613366,-0.458823,0.807961,0.369703
0.265739,-0.019579,0.624212,0.537963,-0.800741,0.263458
0.276960,-0.207074,0.531610,-0.347497,-0.932494,0.098496
0.269423,-0.262775,0.551330,0.157760,0.987331,-0.016987
0.228399,-0.066373,0.777553,-0.739416,-0.516881,-0.431391
0.216508,-0.081177,0.825671,-0.443773,-0.867267,-0.225640
0.211991,-0.153752,0.828179,0.633825,0.035663,-0.772654
0.230238,-0.396628,0.691374,-0.404998,-0.585192,-0.702515
0.221699,-0.441352,0.717715,0.179666,0.798374,0.574734
0.608003,0.960201,-0.005578,-0.550665,-0.638756,-0.537363
0.577864,0.584900,0.036878,0.221526,0.944611,0.242151
0.473209,0.233798,0.400299,0.440997,0.894529,0.073074
0.436033,0.258152,0.563811,-0.233856,0.944121,0.232265
0.480741,-0.026107,0.308458,-0.374962,0.585403,-0.718823
0.403379,0.361288,0.725209,0.774885,-0.429985,0.463321
0.394171,0.319109,0.755466,-0.452958,0.891519,-0.004730
0.407569,0.132255,0.656864,0.208786,0.921403,-0.327758
0.430171,-0.123356,0.501043,-0.492852,-0.850083,-0.185625
0.418618,-0.152800,0.543555,0.639097,-0.716646,-0.279238
0.412087,-0.212640,0.557021,0.232475,-0.960318,-0.154094
0.405725,-0.279173,0.567642,-0.500235,0.035039,0.865180
0.400870,-0.352700,0.571896,-0.382525,-0.470779,-0.795011
0.394508,-0.416202,0.584602,0.634549,0.583009,0.507393
0.388141,-0.473341,0.599618,-0.637404,-0.632635,0.439874
0.377593,-0.503106,0.636439,0.338335,-0.915862,0.216161
0.356494,-0.453923,0.737830,-0.025918,0.791044,0.611210
0.353479,-0.537320,0.730477,0.546750,0.836855,-0.027162
0.680173,0.594925,0.087109,0.212886,0.925488,0.313292
0.640657,-0.154549,0.083982,0.196731,0.910111,-0.364685
0.589249,0.055541,0.346744,-0.598553,0.546407,-0.585811
0.592096,-0.065265,0.308683,-0.660641,0.501031,-0.559036
0.516241,0.309239,0.711912,0.954845,0.240539,-0.174390
0.589249,-0.158211,0.298879,-0.639477,0.578668,-0.506174
0.514902,0.219955,0.698192,-0.523305,-0.735801,0.429825
0.548225,-0.215030,0.458897,-0.167391,-0.583945,0.794348
0.547218,-0.317369,0.439994,-0.338775,0.812173,-0.474980
0.524612,-0.373712,0.521130,0.792321,-0.044530,0.608477
0.512557,-0.398221,0.566459,0.214255,0.471143,0.855640
0.500834,-0.416998,0.612943,0.319261,0.523364,0.790040
0.499163,-0.513607,0.598491,0.929426,0.008187,-0.368917
0.479903,-0.482414,0.685909,0.798555,0.445706,0.404545
0.658067,0.290617,0.588687,0.085102,0.823929,0.560267
0.652042,0.222501,0.597674,0.033317,0.807075,0.589509
0.644842,0.164720,0.615648,0.053014,0.854562,0.516636
0.637305,0.113788,0.636523,0.843180,0.490745,0.219580
0.667281,-0.183196,0.445347,-0.462116,-0.520041,0.718336
0.635128,-0.290471,0.554514,-0.396878,-0.024024,-0.917557
0.619388,-0.398542,0.595448,0.927151,-0.187443,0.324432
0.732082,0.273112,0.594828,0.520066,0.845225,-0.122989
0.726558,0.201013,0.600322,0.874043,0.312084,0.372362
0.724882,0.110932,0.587447,0.590129,-0.237688,0.771526
0.715336,-0.249243,0.545752,-0.127393,-0.948103,0.291328
0.832046,-0.216778,0.578347,-0.074568,0.979793,0.185592
0.007034,-0.643322,-0.968363,-0.235140,-0.270551,-0.933548
-0.007034,-0.557214,-0.977631,-0.069761,0.138973,-0.987836
-0.019927,-0.439604,-0.978082,0.278976,0.383544,-0.880379
0.235431,0.005882,-0.519298,0.878481,0.194379,0.436449
0.084897,-0.574088,-0.968560,-0.265774,-0.032933,0.963473
0.072167,-0.478752,-0.973941,-0.287914,-0.085656,0.953818
0.059612,-0.350786,-0.971208,-0.185343,0.105978,0.976942
0.047052,-0.250525,-0.975124,-0.194010,-0.365976,-0.910177
-0.004188,0.193057,-0.981547,-0.680881,-0.300870,-0.667741
0.185530,-0.013692,-0.968982,0.184401,0.098146,-0.977939
0.172305,0.069861,-0.977575,0.013772,0.200091,0.979681
0.156561,-0.465065,-0.969912,-0.001997,0.204611,0.978841
0.143500,-0.358266,-0.973293,0.036443,0.036048,0.998685
0.131276,-0.240180,-0.972138,0.128990,-0.544070,-0.829066
0.117545,-0.170150,-0.984252,-0.144274,0.192057,0.970721
0.106329,-0.007485,-0.971152,0.428920,0.121646,-0.895114
0.093436,0.080051,-0.978364,-0.052398,0.279274,0.958781
0.079873,0.164565,-0.987914,0.183737,0.437336,0.880329
0.473209,0.417145,-0.436161,-0.325472,0.623212,0.711108
0.741291,0.254966,0.604351,0.598252,0.656296,0.459750
0.541189,-0.126698,0.279131,0.849128,-0.375684,-0.371273
0.440887,-0.069879,0.081446,-0.207098,0.968681,0.136996
0.659575,0.199264,0.604520,-0.225426,0.053898,-0.972768
0.647520,0.274860,0.597336,-0.074971,0.881037,0.467069
0.608673,0.199099,0.633931,-0.731699,-0.653539,-0.193658
0.597287,0.200857,0.609929,-0.197118,0.628826,0.752145
0.585897,0.262922,0.600463,-0.062757,0.826576,0.559315
0.492632,-0.059058,0.325812,-0.302401,0.526167,-0.794796
0.561788,0.307811,0.728083,-0.348380,0.803410,-0.482869
0.551573,0.239850,0.689909,-0.393186,-0.831248,0.392977
0.529972,-0.005891,0.585701,0.693360,-0.481255,-0.536326
0.518249,0.124134,0.590940,0.669549,0.720086,0.182154
0.507202,0.170131,0.577869,0.558907,0.674857,0.481861
0.495811,0.216293,0.564487,0.095845,0.855956,0.508087
0.484594,-0.130515,0.459292,0.738116,0.507042,-0.445076
0.473209,0.112040,0.491549,0.977996,-0.039325,-0.204883
0.379439,0.187325,0.307359,0.570480,0.382349,-0.726885
0.518249,-0.560245,0.607168,0.556219,0.719490,-0.415877
0.480409,0.249710,0.715941,0.063506,-0.936863,0.343881
0.469524,0.295231,0.702925,0.596753,0.264628,-0.757534
0.460480,-0.086908,0.593166,-0.598755,0.617389,-0.510219
0.449595,-0.181603,0.547076,0.553067,-0.718256,-0.422167
0.437877,0.109970,0.590067,0.275110,-0.660011,0.699071
0.426155,0.203082,0.586827,0.082125,-0.996400,0.021054
0.403885,-0.216778,0.440078,-0.345412,0.008275,0.938415
0.358671,0.487175,0.506931,0.966752,-0.037947,-0.252886
0.452441,-0.428141,0.659371,0.409370,0.912286,0.012289
0.415772,0.320857,0.756199,-0.045609,0.966750,0.251622
0.405056,0.317671,0.732703,0.180366,-0.980241,-0.081211
0.394508,0.220908,0.686923,-0.171269,-0.828727,0.532803
0.383956,0.166789,0.650581,0.785807,-0.448175,-0.426200
0.374579,-0.178902,0.547584,-0.090091,0.837205,0.539418
0.362861,0.018142,0.568938,0.590656,0.482122,0.647058
0.351808,0.123978,0.569502,-0.604017,-0.563986,0.563102
0.341092,-0.038997,0.507241,-0.661390,-0.575767,0.480683
0.316646,0.703638,0.630692,-0.632387,-0.726829,0.267968
0.318485,-0.117625,0.439740,0.470250,0.032887,-0.881920
0.307100,-0.099799,0.418611,0.861486,0.280670,-0.423163
0.295546,-0.124463,0.387368,-0.490057,0.871685,0.003104
0.340254,0.339479,0.779497,-0.469493,0.794607,-0.384936
0.329870,0.327541,0.753269,0.207532,0.978192,-0.008423
0.318986,0.385321,0.743409,-0.702366,-0.247032,-0.667576
0.309778,0.183663,0.675034,0.084292,-0.825555,0.557991
0.298724,0.224249,0.660301,-0.436905,-0.306187,-0.845792
0.288177,0.272791,0.648102,0.199961,-0.441541,0.874676
0.278631,-0.021337,0.556655,0.704904,-0.166249,-0.689545
0.266909,0.133683,0.567586,0.268832,0.900185,-0.342632
0.254522,0.530792,0.634439,0.170526,-0.979440,0.107788
0.243131,0.593022,0.625226,0.852328,0.522417,0.024853
0.232415,0.670843,0.619761,0.858687,0.342757,-0.381016
0.223207,-0.062399,0.423992,0.566211,0.760082,0.318874
0.211484,0.289024,0.481942,0.955949,0.012844,0.293253
0.324678,-0.328822,0.763495,0.148151,-0.637772,0.755842
0.315301,-0.434193,0.717941,-0.177734,-0.948759,-0.261279
0.246816,0.249400,0.728928,0.657055,-0.741525,-0.135721
0.236437,0.282816,0.713574,0.247904,-0.907753,-0.338421
0.225721,0.235071,0.678979,0.576821,0.375442,0.725480
0.213830,0.401554,0.692586,-0.655133,0.752359,-0.068968
0.195413,-0.079739,0.534962,0.943364,0.060358,0.326224
0.159913,0.684054,0.639143,0.472579,0.182019,-0.862286
0.148860,0.599384,0.595054,0.933480,0.149045,-0.326191
0.137306,0.781148,0.612859,0.550316,0.805749,0.218910
0.237608,-0.094544,0.842067,0.038629,-0.970912,0.236299
0.227392,-0.095816,0.818572,-0.489105,0.672956,0.554894
0.218516,-0.184789,0.776849,-0.729409,0.682518,0.046174
0.210483,-0.419544,0.703235,0.628088,0.695353,-0.349269
0.199429,-0.367339,0.690896,0.325383,0.785566,0.526319
0.189715,-0.425916,0.655089,0.270497,0.848584,-0.454682
0.177492,-0.215506,0.677711,0.954654,-0.037565,-0.295338
0.167614,-0.320711,0.630353,0.392423,0.777830,-0.490902
0.152713,0.209610,0.724477,0.829551,0.077767,-0.552990
0.144338,-0.026262,0.648553,0.393053,-0.283939,0.874579
0.132114,0.267060,0.691572,-0.577983,0.715916,0.391662
0.121567,0.189550,0.649961,0.292966,0.892724,-0.342367
0.112522,-0.054122,0.571220,0.929229,0.193141,-0.315007
0.101975,-0.070987,0.543048,-0.004268,0.982515,0.186135
0.087406,0.648723,0.683402,0.415592,0.381341,-0.825750
0.142161,-0.059689,0.827390,0.979421,-0.090839,0.180231
0.132114,-0.048867,0.806599,-0.621869,0.678591,0.390888
0.121230,-0.043777,0.784371,0.444144,0.734340,-0.513304
0.104151,-0.370525,0.666217,-0.416346,0.815497,-0.402021
0.092766,-0.234759,0.673288,-0.226883,0.035206,0.973285
0.081212,-0.138151,0.670752,0.400680,0.442655,0.802192
0.069321,0.100266,0.700981,0.844886,0.290495,-0.449199
0.057767,0.198623,0.699150,-0.582339,0.546654,0.601707
0.047552,0.167430,0.668189,-0.062742,0.062246,0.996087
0.036836,0.138939,0.637650,-0.014093,0.049185,0.998690
0.017750,-0.108707,0.534286,0.828432,0.560056,0.006140
0.104320,-0.017354,0.961433,-0.536570,-0.198254,0.820237
0.076189,-0.158842,0.863478,0.395690,-0.756905,0.520120
0.066976,-0.193697,0.833869,0.847749,-0.082008,0.524020
0.057098,-0.182565,0.814036,-0.033479,-0.317823,0.947559
0.047220,-0.198156,0.787442,0.827419,0.315018,0.464909
0.036167,-0.101703,0.786089,-0.928390,-0.031711,0.370251
0.026121,-0.160601,0.749635,-0.163066,0.952106,-0.258659
0.003851,0.017180,0.741577,-0.680682,-0.664066,-0.309334
-0.005358,-0.076883,0.697967,0.150425,-0.309644,0.938879
-0.016580,0.047265,0.702615,0.862355,-0.273280,0.426219
-0.026958,0.041855,0.677598,-0.039550,0.015232,0.999101
-0.037511,0.108378,0.669400,0.802005,0.326520,-0.500172
-0.048226,0.092466,0.641848,0.302014,0.260505,0.917019
-0.017581,-0.073056,0.911653,0.328785,-0.359845,0.873162
-0.027628,-0.045050,0.895848,-0.679690,-0.259702,0.685986
-0.037843,-0.032955,0.875508,0.955219,0.097347,0.279429
-0.047056,-0.106482,0.836771,0.856775,0.510129,-0.075532
-0.057103,-0.110941,0.812684,0.960806,-0.260232,-0.095555
-0.067313,-0.063672,0.800654,-0.201428,-0.552811,0.808596
-0.078034,-0.020541,0.787667,0.211675,-0.903084,0.373674
-0.088080,-0.042019,0.759579,0.500070,0.454070,0.737394
-0.098459,0.007951,0.748057,-0.359668,-0.028168,0.932655
-0.109175,0.034209,0.730196,0.124830,0.750027,0.649520
-0.119559,0.061593,0.712870,-0.657611,-0.722961,0.211840
-0.130443,0.105201,0.698840,0.983735,-0.093615,0.153306
-0.140827,0.146584,0.685233,0.176917,0.474795,0.862131
-0.151543,0.193212,0.672809,0.843535,-0.475195,0.250276
-0.162090,0.192260,0.648525,0.996241,-0.046343,0.073188
-0.172806,0.261328,0.640777,0.261421,0.875330,0.406764
-0.193236,0.094214,0.553838,-0.270497,-0.949485,-0.159088
-0.203784,0.052200,0.519580,0.420695,-0.424437,-0.801791
-0.225220,0.051403,0.471575,0.814545,0.217170,-0.537916
-0.007703,-0.073056,0.934275,-0.734012,-0.662016,0.151531
-0.156566,-0.049343,0.955292,0.975154,0.221502,0.003471
-0.166444,-0.063827,0.929767,0.889864,-0.448697,-0.082538
-0.176997,0.004134,0.922527,-0.727803,0.393904,-0.561375
-0.186874,0.020842,0.904300,-0.244983,0.710973,-0.659167
-0.197253,0.036764,0.884917,-0.725206,0.634758,-0.266755
-0.206630,0.001424,0.855280,0.916939,0.299193,0.264020
-0.216007,-0.127650,0.804289,0.820717,-0.180734,-0.541995
-0.226390,-0.168080,0.772229,0.146165,0.967950,-0.204225
-0.238113,-0.003346,0.784822,-0.093987,-0.327959,0.940005
-0.248998,0.103608,0.785949,-0.501831,0.571223,0.649515
-0.257036,-0.182875,0.700277,-0.543677,-0.679307,-0.492906
-0.268253,-0.082449,0.698756,0.168566,0.761973,0.625286
-0.280813,0.262611,0.752565,0.181734,-0.538508,0.822789
-0.291529,0.295396,0.736281,0.809328,0.262282,-0.525543
-0.301407,0.087375,0.665963,-0.363331,-0.931649,-0.004552
-0.311453,-0.036608,0.613901,0.896080,-0.045130,0.441593
-0.323345,0.289500,0.664357,0.748215,0.389914,-0.536788
-0.334061,0.352691,0.655821,0.731076,-0.263746,-0.629259
-0.344445,0.283613,0.616014,0.793526,0.088283,-0.602098
-0.354322,0.135597,0.558852,0.704759,0.012844,0.709331
-0.365376,0.148487,0.537216,0.678067,-0.467041,-0.567536
-0.376255,0.066364,0.493268,0.648577,0.372664,0.663679
-0.387646,-0.047915,0.441797,0.931115,0.261765,0.253977
-0.398361,-0.103141,0.404610,-0.025889,0.987998,0.152284
-0.346622,-0.029769,0.900722,0.701836,0.582374,0.410203
-0.355661,-0.219003,0.837363,0.891369,0.260237,-0.371131
-0.365539,-0.243677,0.809895,0.311522,0.752911,0.579723
-0.375253,-0.345220,0.765665,0.974409,0.138514,0.177035
-0.386639,-0.264048,0.760227,-0.360282,-0.825638,-0.434187
-0.399531,0.203558,0.839757,0.726583,-0.398825,0.559477
-0.419461,-0.073542,0.732619,-0.036911,0.113718,0.992827
-0.430177,-0.114283,0.699995,-0.430938,-0.140753,-0.891337
-0.440392,-0.197204,0.658441,0.982689,-0.181586,0.036727
-0.450770,-0.199905,0.634889,-0.657111,0.703554,-0.270587
-0.462994,0.049179,0.666583,0.249558,-0.494925,0.832328
-0.473879,0.109019,0.656835,0.675772,0.609825,-0.414060
-0.484932,0.169500,0.646440,0.992630,0.068565,0.099920
-0.496654,0.535562,0.705179,-0.342484,-0.453336,0.822916
-0.507539,0.549725,0.684557,0.801652,-0.336804,0.493879
-0.517749,0.235712,0.589786,0.956879,-0.286892,-0.045559
-0.528633,0.347115,0.591842,0.823988,0.399597,0.401703
-0.551240,-0.166322,0.425204,0.992119,0.120635,-0.033876
-0.562794,-0.130040,0.408413,-0.642088,-0.671886,-0.369177
-0.574180,-0.092475,0.391960,0.332910,0.942912,0.009343
-0.617887,0.645382,0.466222,0.623438,-0.752990,0.210551
-0.552411,-0.506292,0.741634,-0.781880,-0.154514,0.603978
-0.563295,-0.513286,0.716898,-0.497761,-0.308619,0.810548
-0.574686,-0.425596,0.713349,0.150991,-0.974705,-0.164779
-0.585902,-0.105686,0.760622,-0.001879,-0.992943,0.118578
-0.596956,-0.040746,0.751494,0.442296,-0.099113,0.891376
-0.641158,0.142280,0.698333,0.864768,-0.258679,0.430419
-0.652211,0.184460,0.685064,0.005498,-0.073360,0.997290
-0.696920,0.169976,0.587137,-0.012376,-0.893737,0.448421
-0.708305,0.195126,0.568515,-0.026916,0.999632,-0.003333
-0.757035,-0.394083,0.334264,-0.353111,-0.444723,0.823125
-0.767582,-0.194814,0.356210,-0.295280,0.807482,0.510668
-0.780143,-0.272645,0.312346,-0.662011,0.683792,0.306872
-0.968522,-0.364639,0.306260,0.867565,-0.348611,-0.354685
-0.981077,-0.372274,0.278623,-0.716382,0.005911,-0.697684
0.203114,-0.158366,-0.970954,0.502164,0.035678,-0.864036
0.188545,-0.307344,-0.967264,-0.002945,0.022385,0.999745
0.172137,-0.480190,-0.966672,0.010156,0.101600,0.994774
0.045212,-0.105210,-0.980167,-0.167021,0.111798,0.979594
0.029135,-0.262454,-0.976842,0.241785,0.187465,0.952049
0.013228,-0.429093,-0.975011,-0.243873,-0.177872,0.953356
-0.002849,-0.602104,-0.975039,0.024225,0.160305,0.986770
0.092930,-0.110620,-0.429795,-0.437408,-0.897925,0.049048
0.090421,-0.330260,-0.518227,0.949376,0.207368,0.235975
0.074012,0.172365,-0.991802,0.161659,0.388228,0.907274
0.064467,0.118723,-0.972335,-0.354149,0.367052,0.860146
-0.266413,0.025932,-0.992281,0.266227,-0.181534,0.946662
-0.941392,-0.472866,0.320234,0.402172,-0.658934,-0.635660
-0.950938,-0.550531,0.334799,-0.412787,0.727713,0.547760
-0.550739,0.252100,0.609985,0.823147,0.558796,0.100874
-0.543202,0.489089,0.688078,-0.729988,-0.038974,-0.682348
-0.558610,0.330407,0.690417,-0.747494,0.392535,-0.535881
-0.579709,0.097721,0.683261,0.074304,-0.579528,0.811558
-0.600803,-0.019268,0.738704,0.719810,0.622620,0.306948
-0.717012,0.231088,0.554683,-0.388626,-0.561856,-0.730266
-0.752849,0.153423,0.708982,0.368497,0.833164,0.412368
-0.402209,0.242230,0.597702,-0.587432,-0.798575,-0.131154
-0.392668,0.455351,0.649370,0.293774,0.855793,-0.425811
-0.497656,-0.511858,0.712504,-0.023369,0.462239,0.886447
-0.499664,-0.475886,0.740760,-0.747793,0.330926,0.575581
-0.560117,-0.074329,0.495550,0.133910,-0.653396,0.745078
-0.530478,0.476198,0.615225,-0.051458,-0.998180,0.031453
-0.611356,-0.098682,0.752255,0.625846,0.639355,0.446702
-0.616210,-0.099799,0.775638,-0.109295,-0.988654,0.103043
-0.398361,0.434339,0.669513,-0.372299,-0.046668,0.926939
-0.415271,0.257676,0.670471,0.998415,0.018728,-0.053079
-0.434194,0.059359,0.668696,0.509131,-0.281365,0.813400
-0.461993,-0.270731,0.650356,0.891226,-0.405578,-0.203034
-0.468017,-0.294764,0.670273,0.595876,-0.793135,-0.125972
-0.459478,-0.103617,0.717406,0.616134,-0.776989,0.129105
-0.474548,-0.254654,0.722026,-0.540726,-0.835326,0.099229
-0.354992,0.589515,0.524877,-0.363758,0.930158,-0.049873
-0.257705,0.056338,0.568037,0.117508,0.762276,-0.636496
-0.266745,0.063021,0.615140,-0.616809,-0.781477,-0.094022
-0.260884,0.215331,0.658638,0.895672,-0.270621,0.352897
-0.284329,-0.051412,0.647144,0.999506,-0.031443,0.000021
-0.276960,0.123978,0.693487,0.805680,-0.420523,0.417181
-0.271937,0.265787,0.735323,0.946977,0.320296,-0.025414
-0.279638,0.228708,0.754199,0.679568,-0.328931,0.655737
-0.310115,-0.148021,0.729238,-0.118132,0.992824,-0.018595
-0.333054,0.002696,0.909061,0.595068,0.766562,0.241405
-0.137475,0.043282,0.719180,0.904232,0.264252,0.335462
-0.148027,-0.040591,0.732252,0.450142,-0.614576,-0.647819
0.017750,0.225998,0.639284,-0.701652,-0.044060,0.711156
-0.001510,0.017501,0.636129,-0.857074,0.370115,0.358384
-0.001173,0.106309,0.671485,0.405270,0.228038,0.885299
0.001674,0.225046,0.710475,0.644678,0.315199,0.696448
-0.010887,0.108066,0.718279,-0.439498,0.228169,-0.868781
-0.024618,-0.026262,0.724336,0.145038,-0.922678,0.357252
-0.029135,-0.012099,0.749747,0.603965,0.244920,0.758446
-0.049233,-0.240491,0.743718,0.955252,-0.167357,0.243894
-0.047726,-0.136247,0.780455,0.200962,-0.289951,0.935704
-0.314300,-0.135285,0.753466,-0.636566,-0.076433,0.767425
-0.302245,0.104881,0.807134,-0.450828,-0.691142,0.564868
-0.325854,-0.164253,0.796091,-0.588766,0.717907,-0.371436
-0.334393,-0.219489,0.812768,-0.426840,0.509783,0.746946
-0.340760,-0.238421,0.833785,0.591960,0.796764,-0.121455
-0.343606,-0.210415,0.860605,-0.255075,0.521683,-0.814115
0.093098,0.752812,0.520144,0.916295,0.212470,0.339501
0.087074,0.737531,0.541301,0.435349,-0.804422,0.404199
-0.053920,-0.146272,0.802767,0.760627,0.645344,0.070556
-0.051574,-0.038677,0.839419,-0.720640,0.197616,-0.664550
-0.054926,-0.021492,0.863901,-0.201799,-0.686051,0.699008
-0.151875,-0.019103,0.758509,-0.144911,0.825398,0.545636
-0.156398,-0.014013,0.782765,0.618552,0.601634,-0.505401
-0.164098,-0.051888,0.800626,0.886621,0.453007,0.093208
-0.175151,-0.147389,0.811275,0.749728,0.383326,-0.539415
-0.169290,0.084345,0.885622,-0.501134,0.864488,0.039054
-0.183190,-0.049984,0.892299,0.019026,0.998746,0.046312
-0.189552,-0.065420,0.913512,0.771774,0.584870,-0.249583
-0.190390,-0.007960,0.943431,0.313794,0.367673,-0.875414
-0.058774,-0.009398,0.887735,0.444444,0.530868,0.721560
-0.064973,-0.021172,0.909399,0.832782,-0.042704,-0.551951
-0.068657,0.002540,0.934557,-0.126839,-0.499359,0.857060
-0.075857,-0.032314,0.953292,0.948961,-0.128313,-0.288112
-0.082219,-0.057619,0.973266,-0.715777,-0.671595,0.191374
0.150700,0.316243,0.067079,0.665088,-0.012663,-0.746658
0.112859,0.735462,0.422302,0.074033,-0.892893,0.444141
0.195076,0.615296,0.633424,-0.681278,-0.644408,0.347273
0.140321,0.176338,0.692727,0.445712,0.682373,-0.579404
0.119722,-0.059058,0.686332,-0.735198,-0.482528,0.476078
0.095275,-0.353021,0.672837,-0.288078,0.956118,0.053381
0.094774,-0.120325,0.771524,0.796604,0.571364,-0.197397
0.089251,-0.117945,0.795414,-0.590504,0.779042,0.210711
0.069658,-0.255295,0.824375,0.132663,0.564471,0.814723
0.064467,-0.259113,0.847251,0.478858,0.832825,-0.277663
0.376423,0.719706,0.497972,-0.450613,0.549398,0.703641
0.359678,0.540652,0.497155,0.991178,-0.101846,-0.084816
0.305255,0.027370,0.525187,0.010041,-0.757902,0.652291
0.303584,0.089600,0.556627,0.816574,0.214451,-0.535928
0.282147,-0.161873,0.547893,0.135579,0.971466,0.194607
0.274784,-0.196252,0.566713,-0.065814,-0.590669,0.804225
0.291524,0.147691,0.635565,0.132675,-0.535454,0.834078
0.295377,0.294124,0.678274,0.023829,-0.713156,0.700600
0.196082,-0.115390,0.318515,0.090058,0.987458,0.129680
0.222037,0.625166,0.516369,-0.230472,-0.947138,0.223189
0.194907,0.289024,0.494648,0.825988,-0.044339,0.561941
0.198591,0.503728,0.570713,-0.294571,0.863896,0.408549
0.198259,0.587446,0.605844,-0.612662,-0.439386,0.656952
0.147352,0.208337,0.673992,0.904580,-0.042661,0.424164
0.075520,-0.017830,0.900299,0.891542,0.119600,-0.436862
0.056260,-0.227445,0.896834,0.960576,-0.055179,0.272486
0.061620,-0.077039,0.937515,0.757107,-0.189507,-0.625201
0.292194,0.326268,0.706249,-0.778572,-0.231032,0.583481
0.282147,0.257831,0.720138,0.371358,-0.906860,-0.199243
0.268416,0.121589,0.725547,0.872597,0.013385,-0.488257
0.418117,-0.061758,0.538456,0.900570,0.407409,-0.151632
0.424816,0.126689,0.586433,0.456589,0.001466,-0.889676
0.207468,-0.737064,0.640270,-0.823351,0.232286,0.517819
0.218853,-0.475886,0.696333,0.123077,0.981458,-0.146940
0.228567,-0.072424,0.817952,0.384720,-0.647864,-0.657467
0.221030,-0.111893,0.835616,0.733933,0.679190,0.006559
0.404555,0.317992,0.751917,0.226407,0.870468,0.437065
0.399531,0.318944,0.775158,0.125022,-0.752687,0.646399
0.388979,-0.357480,0.546400,0.865981,-0.249992,-0.433106
0.382617,-0.369729,0.568938,0.750435,-0.262915,0.606401
0.412256,0.181438,0.663315,-0.744213,0.559603,0.364679
0.409409,0.230301,0.693403,-0.251329,0.782904,0.569118
0.410917,0.336138,0.730703,-0.546035,0.389872,-0.741516
0.536334,0.075281,0.586151,0.679267,0.174196,-0.712918
0.491125,-0.469844,0.563670,-0.255950,0.313814,0.914336
0.526287,0.265156,0.704503,0.354507,0.604345,-0.713507
0.512388,0.132896,0.711349,-0.814052,0.538601,0.217319
0.654720,0.045672,0.604153,0.012472,-0.686532,0.726993
0.671297,0.218683,0.602801,-0.230345,-0.698075,-0.677962
-0.341092,-0.036132,0.790231,-0.073639,0.451486,0.889234
-0.370900,-0.157093,0.816375,0.449339,0.588509,-0.672124
-0.398024,-0.269303,0.841842,-0.641618,0.741023,-0.198016
-0.292699,0.046313,0.894975,0.527876,-0.703314,0.476126
-0.037679,0.144670,0.639397,0.328217,0.077335,-0.941431
-0.103150,0.077350,0.664132,0.912095,-0.189630,-0.363487
-0.153888,0.035006,0.692417,0.778235,-0.159623,-0.607348
-0.303083,-0.125260,0.740788,-0.423734,0.614495,0.665466
-0.247659,-0.004784,0.784315,0.577758,0.760966,-0.295173
0.079537,0.037240,-0.974420,-0.302360,-0.120272,0.945576
0.325348,-0.461247,0.640439,-0.387587,0.777997,-0.494466
-0.244644,0.052996,0.814149,0.910647,0.385909,-0.147637
-0.068657,0.205783,0.634467,-0.039480,-0.038034,0.998496
-0.102143,0.175707,0.664498,0.211042,-0.886858,0.411028
-0.192066,0.066684,0.686698,-0.524832,0.474408,0.706745
-0.252514,-0.002549,0.711658,0.928503,0.163298,-0.333490
-0.332722,-0.098682,0.734253,-0.139328,0.191450,0.971563
-0.188551,0.114585,0.788569,-0.449823,0.384853,0.805945
-0.542472,0.116617,0.679303,-0.512945,0.061911,-0.856186
0.051713,-0.627539,-0.979709,0.060738,-0.002099,0.998152
-0.187792,-0.360990,0.756190,-0.177899,0.973705,-0.142307
-0.593510,0.270359,0.613683,0.941823,-0.334759,-0.030090
-0.119857,-0.320566,0.796203,-0.200297,-0.380473,0.902841
-0.245877,-0.266221,0.665393,-0.024232,-0.995740,0.088968
0.365328,-0.108307,0.530304,0.949443,0.103322,-0.296450
-0.096758,0.067010,0.925659,0.895430,0.025059,0.444497
0.441859,0.001087,0.579637,-0.569693,0.395683,0.720337
0.008571,-0.397557,0.765683,0.853215,-0.514953,-0.082749
-0.473546,0.045427,0.516747,-0.188140,-0.483942,0.854637
-0.073870,-0.025191,0.770475,0.487970,0.569939,-0.661101
-0.635719,0.230267,0.691943,0.410411,-0.911608,0.023106
-0.739405,0.443330,0.423258,0.960894,0.085453,-0.263403
-0.142455,0.022584,0.588717,-0.575684,0.313016,-0.755387
-0.225299,-0.250372,0.851430,0.221484,0.507395,0.832763
0.541462,0.175416,0.663802,-0.007389,-0.995645,0.092934
-0.024494,-0.179308,0.864548,0.429034,-0.815122,0.389238
0.231180,-0.588063,-0.620247,0.830723,0.370426,-0.415553
0.463672,0.411020,0.756622,0.403572,-0.839242,0.364421
-0.108323,-0.002977,0.698661,0.749364,0.411326,-0.518908
-0.464216,0.362117,0.589426,0.210676,-0.570250,0.793996
0.206884,0.219853,0.467034,-0.746574,0.516788,-0.418995
-0.181565,-0.178942,-0.633735,0.484922,0.864415,-0.132806
-0.052855,-0.202219,0.721106,-0.387631,-0.904280,0.178938
0.365449,-0.020674,0.587925,-0.434954,0.478537,0.762769
0.104695,0.703856,0.536857,0.039017,-0.832698,0.552352
-0.236764,0.150449,-0.196546,-0.292514,-0.708539,0.642190
0.256483,-0.197963,0.099041,-0.200103,0.827714,0.524260
-0.043952,0.090173,0.684548,-0.002972,-0.053013,0.998589
-0.042957,0.090584,0.476946,-0.353925,-0.068884,0.932734
-0.241320,0.028464,0.891085,-0.079500,-0.646660,0.758624
0.354885,-0.114476,0.540274,-0.862098,0.376629,-0.339023
0.225198,0.122655,-0.977098,-0.050630,0.214881,0.975327
0.197138,-0.138182,0.563237,0.832914,-0.397154,0.385385
0.051055,0.274507,0.543769,0.478091,0.588024,-0.652424
0.018118,0.310300,0.580026,0.395202,0.798684,0.453783
-0.449988,-0.202885,0.786328,0.733070,0.621381,-0.276576
-0.057150,-0.035463,0.907121,0.831048,-0.547018,0.100655
-0.370585,0.086340,0.451451,-0.467363,-0.674804,0.571149
0.050544,0.058266,0.700469,-0.551050,0.405340,-0.729412
0.005130,0.573853,0.492761,0.048607,-0.947675,0.315515
-0.202494,-0.423303,0.362470,0.941263,-0.091096,0.325154
-0.206712,0.272003,0.821708,0.872815,0.473923,0.116584
-0.352277,-0.170164,0.685287,-0.751212,-0.636611,0.174374
-0.696739,0.147399,0.707831,-0.007260,-0.839328,0.543578
-0.249061,0.035850,0.789970,0.318616,0.435127,-0.842109
0.022548,-0.238449,0.837050,0.659614,0.751582,0.005860
-0.507717,0.129783,0.639616,0.997534,-0.019613,-0.067382
0.040006,0.231280,0.583668,-0.119236,0.188444,0.974819
-0.440061,0.240375,0.596881,-0.058667,-0.827319,-0.558660
-0.235935,-0.085056,0.729823,0.608095,0.153414,0.778900
0.256616,0.439144,0.699061,0.812438,-0.546943,-0.201985
0.211623,-0.293682,0.542013,0.417562,-0.804320,0.422743
-0.262943,-0.211598,0.822115,0.517591,-0.463494,-0.719217
-0.366920,-0.063557,0.251981,-0.218331,-0.745373,0.629881
-0.184565,0.098125,0.793328,0.167981,0.911726,0.374885
-0.305616,-0.103994,0.803673,0.077206,-0.845163,0.528903
-0.121678,-0.109095,-0.095418,0.992244,-0.058102,0.109892
-0.112447,-0.006010,0.725279,0.493483,-0.761623,0.420005
-0.232070,-0.096588,0.532289,-0.311104,0.933716,0.177166
0.605691,0.192576,0.629397,0.873143,0.480026,0.084832
-0.008475,-0.093049,0.500108,0.839360,0.542765,-0.029701
-0.026417,-0.050294,0.049132,0.772973,-0.531280,-0.346778
-0.167581,0.077966,0.932841,0.781486,0.302823,0.545507
-0.322071,0.276635,0.468246,0.793093,0.265506,-0.548188
-0.482508,0.058201,0.516207,-0.188140,-0.483942,0.854637
-0.487244,0.404732,0.690764,-0.770488,0.255431,-0.584040
0.427221,-0.118871,0.529204,0.912100,-0.405295,0.061717
-0.086478,0.053674,0.709559,-0.300740,-0.867922,0.395306
-0.134273,-0.026381,0.783296,0.436025,0.838301,-0.327314
0.171228,-0.358219,0.274890,0.922544,-0.213417,0.321506
-0.374374,0.036069,0.394493,0.558964,-0.300816,-0.772702
-0.460015,0.394919,0.595359,-0.213163,0.053326,0.975560
0.039624,0.280628,-0.148276,0.934670,-0.325232,-0.143581
0.087388,-0.113234,0.617726,0.752194,0.653271,-0.086257
0.235390,-0.360260,0.657395,0.751459,-0.293521,-0.590893
0.044161,-0.386553,0.734753,0.178927,-0.978986,0.097834
0.092293,-0.213243,0.613358,-0.699062,0.315674,0.641608
0.102490,-0.120065,0.807995,-0.097986,0.840585,0.532744
0.214093,0.125569,0.264610,0.871461,0.103098,0.479507
0.069351,-0.206242,0.649470,0.308405,0.928117,0.208531
-0.181192,-0.021559,0.788904,0.210632,0.895170,0.392817
-0.369074,0.003901,0.677563,-0.247714,0.696092,0.673865
-0.666618,0.122161,0.559097,0.467578,0.732474,-0.494826
0.281246,0.210064,0.677051,0.064813,-0.916075,0.395735
0.268245,0.495919,0.473721,0.228571,-0.232033,0.945471
-0.244194,0.201487,0.694727,0.882370,-0.319780,0.345202
-0.077263,0.495178,0.360940,0.054777,0.992400,0.110187
0.143873,0.667734,0.539325,-0.080608,0.466922,0.880617
-0.569763,0.210220,0.566900,0.200147,-0.461939,0.864033
0.950451,-0.208315,0.575263,0.133063,-0.979969,-0.148170
-0.186784,-0.391824,0.392783,0.925382,0.061517,-0.374011
0.143024,-0.154523,0.481627,-0.429946,-0.075126,0.899724
-0.223468,-0.448247,0.375018,0.915482,-0.344036,-0.208643
-0.152284,-0.069966,0.815571,0.704501,-0.277916,-0.653024
-0.444502,-0.326137,-0.984461,-0.107504,0.292384,0.950239
-0.178588,-0.063471,0.685012,0.776233,-0.368350,-0.511646
0.371024,-0.183950,0.572868,0.014383,-0.102022,0.994678
-0.037632,-0.156230,0.590755,0.689234,0.507165,0.517436
0.018931,-0.141122,0.671014,-0.069428,-0.031367,0.997094
0.481671,0.288580,0.553645,-0.292191,0.943336,0.157295
-0.026447,-0.042177,0.372952,0.723077,0.638134,0.264472
0.371537,0.374898,0.752588,0.852224,-0.422643,-0.308361
-0.281685,-0.191753,0.746526,-0.653704,-0.616532,-0.438816
-0.165166,-0.104888,-0.384195,0.133470,0.896888,0.421638
0.059326,-0.362611,0.822382,0.511042,-0.455291,0.729073
-0.165926,0.162428,0.643947,-0.620001,0.754215,0.216238
-0.355342,0.344348,0.732085,0.855756,0.254207,-0.450622
-0.424453,-0.147782,0.509321,0.245375,0.517968,-0.819451
0.189440,-0.438001,0.697256,0.723500,0.690110,0.017189
0.309488,-0.452878,0.724248,0.142991,0.970836,0.192434
0.172340,0.223589,0.558227,0.519806,0.390520,-0.759800
0.034878,0.360973,0.569033,-0.912737,0.395007,-0.104312
-0.312200,-0.153715,0.418980,0.188780,0.974109,-0.124397
-0.034293,0.249415,0.487119,-0.699162,-0.703650,0.126687
0.377855,0.168557,0.660831,-0.051393,-0.972933,0.225299
-0.137423,0.253113,0.713910,0.042395,-0.738477,0.672944
0.226501,-0.131130,0.772310,-0.556485,0.828652,0.060492
-0.066056,-0.343955,0.746904,0.301621,0.729136,0.614316
-0.055320,-0.586922,0.405295,0.868546,-0.218747,-0.444722
-0.275130,-0.209273,0.570931,0.654582,0.395607,0.644219
-0.192129,-0.196973,-0.241633,-0.520790,-0.569657,-0.635821
-0.315397,0.208126,0.837521,0.734153,-0.087506,0.673322
-0.252255,0.075730,0.795936,0.827649,0.049676,-0.559043
-0.507656,0.108604,0.680812,-0.749037,-0.553448,-0.364197
-0.010484,-0.032540,0.178862,-0.009431,-0.719253,0.694685
-0.231656,0.328846,0.389035,-0.182350,0.674418,0.715478
0.000720,-0.343094,0.710242,-0.267094,0.960979,-0.071978
0.332434,-0.350624,0.556956,0.983385,0.109077,-0.145109
-0.608522,-0.347661,0.480187,0.917179,-0.324069,0.231865
0.251818,-0.093012,0.361455,0.410414,0.909700,0.063294
-0.100452,-0.195753,-0.512627,0.913800,0.244747,-0.324143
0.415632,0.706283,0.536264,-0.244382,-0.868729,-0.430799
-0.225012,0.024548,-0.973556,0.113821,0.289270,0.950456
0.962851,-0.141178,0.576959,-0.655364,-0.589111,0.472701
-0.191983,-0.295065,0.567731,-0.232674,0.808329,0.540802
0.290687,-0.235321,0.506502,0.787516,0.135677,-0.601174
0.350161,0.343448,0.731372,-0.300872,0.471269,-0.829085
-0.287466,0.064000,0.664223,0.284123,0.637550,0.716103
0.241788,0.136792,0.661305,0.544935,-0.718970,0.431427
-0.081275,0.048789,0.325371,-0.199632,-0.291384,0.935544
-0.325620,0.115468,0.699182,0.629413,-0.601960,0.491409
-0.215071,-0.014623,0.785538,-0.069807,-0.530850,0.844586
-0.111620,-0.021345,-0.127174,0.843296,0.313051,-0.436864
-0.145728,-0.023651,0.882869,-0.145245,-0.806597,0.572979
-0.299800,-0.008790,0.702588,0.672482,0.097193,0.733704
-0.659800,0.291522,0.631659,0.970808,0.210258,0.115430
-0.536719,0.497988,0.454360,-0.664220,-0.661205,-0.348740
-0.052364,-0.041045,0.930742,0.425090,0.517189,0.742842
0.264161,0.181399,0.644510,0.853565,-0.462563,0.239713
-0.088816,-0.159858,0.705524,0.978261,-0.138439,-0.154405
0.084443,-0.110932,0.519318,-0.079183,-0.047664,0.995720
-0.586862,0.233894,0.593452,0.143251,0.095122,0.985104
0.039944,0.083795,0.578005,-0.597830,-0.015092,-0.801481
0.284624,0.100270,0.594726,-0.319725,0.848204,0.422286
0.210756,-0.068656,0.575759,-0.228276,-0.021643,-0.973356
-0.056880,-0.339811,0.751647,-0.572290,-0.786651,-0.231655
0.094350,0.092685,0.454706,0.511025,-0.841225,0.176618
-0.274033,-0.315890,0.330256,0.594364,0.744379,-0.304354
0.072228,-0.078759,0.467265,0.922985,-0.380267,-0.059117
-0.046166,-0.422183,-0.322452,0.726709,0.500291,0.470747
0.015495,-0.029750,0.936304,0.881301,-0.317782,0.349748
0.264717,-0.104115,0.823478,-0.064606,0.820012,0.568688
0.170305,0.193077,0.538206,-0.085558,-0.862404,0.498938
-0.070789,0.255516,0.728007,-0.746351,0.416409,-0.519196
-0.290744,-0.274527,0.648805,-0.253783,-0.469233,0.845822
0.075260,-0.025658,0.958025,0.499922,0.139530,-0.854757
0.646066,0.082700,0.346567,0.799214,0.447242,-0.401538
-0.096358,-0.032241,-0.176334,0.832573,0.170576,0.526997
-0.195059,0.119734,0.813201,0.888471,0.295249,-0.351352
-0.014979,-0.003897,0.819729,-0.535317,-0.142950,0.832467
-0.087119,-0.018396,0.733916,-0.338384,0.938632,0.066835
-0.548119,-0.074118,0.746561,0.559760,0.499584,0.661124
0.532209,-0.389443,0.601702,-0.586493,-0.778483,-0.223585
-0.124829,-0.048445,-0.479673,0.778406,-0.590631,0.212695
-0.209603,-0.053059,0.704706,-0.388181,0.881751,0.268012
-0.130403,-0.030312,0.837556,0.349651,0.531077,-0.771817
0.204497,-0.079834,0.803787,-0.536845,0.539497,-0.648646
-0.570792,-0.093731,0.748417,0.575979,0.627043,0.524467
-0.542545,0.514431,0.634107,-0.106400,0.963305,0.246421
-0.033500,-0.056789,0.673129,0.268257,-0.149686,0.951647
-0.059633,0.044875,0.922555,-0.602821,-0.340646,-0.721504
0.016319,-0.152876,-0.111869,0.902982,-0.391406,0.177272
-0.499789,0.214484,0.659008,-0.871083,0.365613,-0.327936
0.000591,-0.076403,0.294165,-0.544397,0.655492,0.523414
