-0.035982,-0.578712,-0.876531,0.663969,0.401019,0.631133
-0.287343,0.527242,-0.997388,-0.167904,-0.166095,0.971710
-0.401457,0.138779,-0.929292,0.387003,0.144432,0.910697
-0.214748,-0.400273,-0.909844,-0.163654,0.709765,0.685165
-0.187080,0.720172,-0.956857,0.300851,0.639451,-0.707525
0.158079,0.214703,0.978351,0.650161,0.511429,-0.561899
0.331649,-0.182540,-0.845644,-0.165368,-0.270424,0.948433
-0.374465,0.486460,-0.387466,0.732031,0.357159,-0.580144
0.426416,-0.170278,-0.849174,0.606504,-0.666727,0.433161
-0.144462,0.657484,-0.974315,-0.254944,0.127059,0.958572
0.536387,-0.894537,-0.807049,0.152987,0.520490,0.840051
0.509443,0.166888,0.707186,0.641344,0.101965,0.760448
0.606730,-0.785075,-0.818270,-0.588951,0.794530,0.147848
-0.727138,0.269034,0.329710,0.513269,0.494773,0.701252
0.212252,-0.132432,-0.870792,0.964503,-0.250129,0.084670
0.245616,-0.179849,-0.861105,0.982803,0.012615,0.184226
-0.173052,-0.024935,-0.896272,-0.354197,-0.667900,-0.654565
-0.099776,0.592372,0.936018,-0.200342,-0.913604,0.353824
-0.096744,-0.327688,-0.877634,-0.717644,0.249265,0.650272
0.398462,0.245932,-0.905246,0.024013,0.358828,0.933095
-0.262088,0.193740,-0.947526,0.205882,-0.562869,0.800494
0.117505,0.555667,-0.943233,0.720323,0.615725,-0.319401
0.655570,0.101093,-0.848941,-0.202137,0.016000,0.979227
0.274604,-0.227762,-0.858351,0.045528,0.844850,0.533062
0.147757,0.232876,0.481053,-0.440275,-0.893743,0.085918
0.191919,-0.256004,-0.864884,0.461437,0.386501,-0.798557
0.118437,-0.310650,-0.874973,-0.051969,-0.030283,0.998189
-0.156090,-0.497854,-0.870430,0.627074,0.683996,0.372731
0.164855,0.110538,-0.419771,-0.218930,0.926320,0.306596
0.721936,-0.726561,-0.799815,0.131708,0.475228,-0.869949
0.027203,-0.691738,-0.854141,0.334919,-0.727112,-0.599281
0.205447,-0.351064,-0.854473,-0.043632,0.050055,0.997793
0.389649,0.130500,-0.885223,0.406861,0.236294,-0.882400
0.253730,-0.215443,-0.884793,0.430135,0.775382,0.462350
0.562182,0.351456,-0.875905,-0.030944,-0.334378,0.941931
-0.032688,0.559392,-0.946139,-0.138997,0.737194,0.661230
0.455803,0.030919,-0.853916,-0.341642,0.547943,-0.763570
0.173780,0.209353,-0.893362,0.811868,-0.271782,0.516725
-0.323494,0.328436,-0.935019,0.944143,0.284319,-0.166604
-0.158223,-0.114627,-0.898002,-0.698862,0.080641,-0.710696
-0.658673,0.399305,0.249536,0.891559,0.426773,0.151614
0.578564,0.415472,-0.881424,0.510128,0.047263,-0.858799
-0.302566,0.328441,0.630154,0.335939,0.858415,-0.387646
-0.328780,0.203998,-0.955755,-0.108545,0.481222,0.869853
0.233857,-0.701604,-0.843265,-0.299965,-0.874741,0.380591
-0.562560,0.352519,0.253415,-0.088975,-0.960000,0.265487
-0.075948,0.698488,-0.970885,0.237908,0.226130,-0.944598
0.383147,0.017527,-0.865928,-0.045381,0.558862,0.828018
0.439150,-0.559790,-0.816704,0.791733,0.364667,-0.490078
0.456463,0.423007,0.683770,-0.639316,-0.183543,0.746717
-0.062100,0.310147,-0.913958,0.828288,-0.149104,-0.540098
-0.182969,0.074049,-0.920768,0.360973,0.288303,0.886894
0.000715,0.720574,-0.971521,-0.465725,0.842295,0.271367
-0.241213,0.548200,0.661015,-0.098075,0.192050,-0.976472
0.442990,0.223216,-0.822349,0.230331,-0.283679,-0.930846
0.481571,0.283094,0.672059,-0.562437,0.464765,-0.683856
0.134184,0.664687,0.871188,-0.686197,-0.576075,0.444153
0.803338,-0.870612,-0.765370,-0.345062,-0.171413,0.922794
0.334717,0.229856,-0.885659,-0.407749,0.269581,0.872391
-0.203960,0.452693,0.919753,0.302426,0.861643,-0.407566
0.090153,-0.688365,-0.858462,0.255234,0.471695,0.844014
0.607558,0.170498,-0.864513,-0.640847,0.736177,-0.217619
0.600334,0.359249,-0.910272,0.812146,0.057523,-0.580612
-0.048284,-0.273387,-0.876742,0.185945,0.537271,0.822657
0.312669,-0.017049,-0.864992,-0.816462,0.375411,0.438698
0.066058,0.638026,-0.944376,0.083730,-0.562962,0.822231
0.638228,-0.541399,-0.812096,-0.420983,-0.906634,-0.028087
0.191689,-0.236929,-0.859955,0.504784,0.133336,-0.852886
-0.357076,-0.012437,-0.949647,-0.045919,0.439874,0.896885
-0.297139,0.292151,-0.952138,0.697664,0.712522,-0.074677
0.192691,0.112728,-0.235555,-0.761292,-0.646708,0.046939
-0.315038,0.102919,-0.944938,0.405037,0.588934,0.699358
0.039019,-0.651342,-0.856448,0.410203,0.043017,-0.910979
0.457728,0.502745,-0.895562,-0.184462,-0.648770,0.738290
0.590223,-0.871871,-0.783455,0.777334,-0.466722,-0.421809
0.722027,0.088736,-0.841943,0.156302,0.041464,0.986839
0.479733,0.039358,-0.852702,0.985053,-0.172040,0.008570
0.052059,-0.178122,-0.891545,0.551783,0.656398,0.514469
0.195834,0.575413,-0.930853,0.675433,0.373409,-0.635890
0.299686,0.402006,0.986158,0.302595,0.440889,0.845016
0.209918,-0.211015,-0.853256,-0.089717,-0.358545,0.929191
-0.186347,0.120106,-0.948128,-0.064246,0.419148,0.905642
-0.444494,0.331602,0.187221,0.538571,0.751154,0.381718
-0.161550,0.208849,0.090027,-0.004619,-0.992820,0.119525
-0.278355,0.035659,-0.915650,0.832262,0.507001,-0.224255
0.265415,0.262601,0.723282,0.333529,-0.208129,0.919479
0.326409,0.160542,-0.887625,0.042681,0.463516,0.885060
0.062510,-0.226831,-0.871709,-0.126659,-0.328683,0.935909
0.271604,0.037484,-0.887136,0.362796,-0.798731,-0.480008
0.733023,-0.819404,-0.789128,-0.386167,0.729257,0.564853
0.072277,0.146084,-0.897085,-0.683546,-0.723592,0.095810
-0.187955,0.053055,-0.902206,-0.621599,0.128470,0.772729
0.220232,0.384789,-0.922023,0.613706,0.266409,0.743230
0.354300,0.069559,-0.883717,0.098307,0.560207,0.822499
0.328780,-0.727834,-0.838282,0.293061,0.328821,0.897771
-0.396761,-0.062795,-0.914053,-0.195032,-0.273204,0.941978
0.168085,-0.596375,-0.838682,0.209569,0.048467,0.976592
0.454444,0.073107,0.666412,0.396287,-0.850841,-0.345000
-0.292701,0.351734,-0.971289,-0.306785,0.863606,0.400084
-0.192574,0.642511,-0.988927,0.192544,0.596573,0.779120
0.450182,-0.139609,-0.879256,-0.412482,0.903486,0.116496
0.040972,0.098306,-0.902566,-0.500245,0.387280,0.774448
-0.051609,0.425995,-0.946486,0.447163,-0.180592,0.876032
-0.224352,0.161394,-0.925860,0.356616,-0.069278,-0.931679
0.278817,-0.721352,-0.829830,-0.452434,0.417581,0.787991
0.139614,-0.434161,-0.842198,0.498233,0.365394,0.786289
0.290656,0.153745,-0.872408,-0.297719,0.484339,0.822666
-0.257971,0.549480,0.683516,-0.021275,0.639540,0.768463
0.357690,-0.604110,-0.840224,-0.110105,0.587456,0.801731
0.234026,-0.778222,-0.825190,0.139440,0.713663,0.686471
0.121231,-0.102799,-0.887387,0.647039,0.106364,0.755001
-0.196405,-0.032701,0.706500,-0.481434,-0.829208,-0.283962
0.149057,0.409077,-0.192191,0.862659,-0.093171,0.497131
0.292857,0.498478,-0.913807,-0.193727,0.576728,0.793633
0.341736,-0.563424,-0.843687,0.059935,0.071672,0.995626
-0.214855,0.009259,0.694907,0.485041,0.871521,0.072017
0.678954,-0.682559,-0.830977,0.477487,-0.471652,-0.741317
-0.145932,-0.539407,-0.885847,0.847562,-0.080289,0.524588
-0.095591,-0.213647,-0.894082,-0.232293,-0.215939,-0.948372
0.337595,-0.837838,-0.816011,0.009645,0.591412,0.806312
0.089934,-0.119803,-0.869319,0.994700,0.051393,0.089059
0.786125,-0.835850,-0.785219,-0.795628,0.350214,0.494294
0.233167,-0.519751,-0.825832,-0.470721,0.083521,0.878320
-0.233983,0.388594,0.404303,-0.463876,0.164741,-0.870448
-0.195065,0.333417,-0.956010,-0.557647,-0.008103,-0.830038
-0.004593,-0.143510,-0.880722,0.830032,0.458875,0.316988
0.557034,0.192469,-0.880665,0.472364,-0.092962,-0.876488
0.030945,-0.051384,-0.880615,-0.119356,0.521616,0.844790
0.721360,-0.840230,-0.785630,-0.247158,0.099120,0.963892
0.095589,-0.391703,-0.864042,-0.240508,-0.627027,0.740940
0.324253,0.376303,-0.899013,-0.677089,0.728656,0.103011
-0.221784,0.424665,-0.929308,0.088582,0.013483,0.995978
0.172413,0.150553,-0.205126,-0.755007,-0.626933,0.192146
-0.035605,0.001679,-0.899806,-0.538659,-0.289317,-0.791292
0.293533,-0.749041,-0.809015,0.851160,0.030454,-0.524023
0.299130,-0.212885,-0.886752,0.367170,-0.123838,0.921873
0.294372,0.470742,-0.917481,0.750850,0.111641,-0.650969
0.233716,-0.719812,-0.820985,0.037225,0.368731,0.928790
0.070620,0.148626,-0.922398,-0.607391,0.565125,0.558309
-0.038424,-0.089014,-0.890846,0.017032,0.140322,0.989959
0.561235,-0.781409,-0.834947,-0.063183,-0.217385,0.974039
0.853442,-0.773847,-0.775870,0.009782,-0.455133,0.890370
-0.271117,0.519603,-0.953097,-0.652834,-0.018034,0.757286
0.361559,-0.828600,-0.827017,0.059633,0.046681,0.997128
0.056470,0.776235,0.699822,-0.382332,-0.114299,0.916929
0.518694,0.209519,0.658435,0.018305,0.322686,0.946329
0.259562,0.279874,-0.898384,0.285385,-0.128275,0.949790
-0.066732,0.416431,0.845446,0.606363,0.678190,-0.415190
0.093337,-0.176691,-0.863766,0.310890,-0.722425,0.617617
-0.201234,0.526888,-0.964138,-0.043811,0.143558,0.988672
0.456934,-0.582878,-0.842230,-0.578362,0.151031,0.801678
0.227256,0.107573,-0.337468,0.843123,-0.524739,0.117446
0.326345,0.448242,-0.907587,-0.384635,-0.752169,0.535068
-0.365633,0.653482,0.334644,0.068465,0.996812,0.040974
-0.016148,-0.608302,-0.876328,0.388189,0.546952,0.741723
-0.190740,0.449187,-0.940130,0.040890,0.511359,0.858394
0.177555,0.154158,0.102418,0.540683,0.821027,-0.183241
0.741793,-0.607326,-0.820843,-0.288572,0.374319,0.881256
-0.131645,0.499228,-0.975530,0.041379,0.127715,0.990947
-0.323750,-0.210812,-0.909964,0.157864,0.747153,0.645633
0.053938,0.209839,-0.923338,-0.447594,0.645181,0.619194
0.391700,-0.225411,-0.861436,0.145347,-0.398018,-0.905790
-0.297706,0.050327,-0.961735,-0.089472,0.066179,0.993788
0.122159,0.329443,-0.929304,0.302266,-0.319307,-0.898153
0.330009,-0.049550,-0.848391,-0.398578,0.877092,0.268038
0.182855,0.149945,-0.195035,0.675915,0.718635,-0.163408
0.793678,0.146689,-0.833325,0.320955,0.911478,0.257284
0.088566,0.208099,-0.894227,-0.323403,0.886881,0.329928
0.305665,-0.699257,-0.842970,-0.173063,0.406004,0.897335
-0.323356,0.621170,-0.990913,-0.400039,0.463256,0.790799
0.155560,-0.558231,-0.865991,0.960213,0.033406,-0.277264
0.214013,-0.339686,-0.848498,0.277386,0.529814,-0.801470
-0.030933,-0.040887,-0.882552,-0.141777,-0.796212,0.588172
-0.032608,0.409561,-0.945053,-0.210977,-0.175298,-0.961644
-0.211914,-0.011006,-0.934019,0.181419,0.039890,0.982596
-0.398143,0.149921,-0.971698,0.082627,0.264913,0.960726
0.785697,-0.779229,-0.810084,-0.176172,0.505745,0.844503
0.030210,0.119985,0.259064,-0.611637,0.613537,0.499472
0.024254,-0.710292,-0.823105,-0.383683,-0.031403,0.922931
0.769076,-0.756474,-0.777478,-0.035993,0.317765,0.947486
-0.126309,-0.469669,-0.890438,0.334610,0.115408,-0.935263
0.287740,0.303216,0.860146,-0.105864,0.966449,0.234029
0.119855,0.720651,0.712044,0.234280,-0.044645,0.971144
0.528118,-0.776068,-0.803826,0.563612,0.797845,-0.213976
-0.186364,-0.358184,-0.915029,-0.555640,0.220641,0.801612
0.207465,0.025645,-0.871443,0.063630,0.333597,0.940566
0.524748,-0.509183,-0.850395,-0.224602,-0.385698,0.894869
0.772550,-0.869499,-0.795535,-0.133030,0.360663,0.923161
0.769700,-0.760043,-0.814761,0.281114,0.129978,0.950832
0.710434,-0.808215,-0.776360,-0.167941,0.161097,-0.972545
-0.182102,-0.077235,-0.921297,-0.095634,-0.753374,0.650601
-0.159151,0.718946,-0.967018,0.071425,-0.507952,0.858419
0.422138,0.136064,-0.870040,0.148474,0.846834,0.510713
-0.171085,0.755202,-0.967291,-0.557802,0.376920,0.739451
-0.334534,0.339391,0.451815,0.606285,0.529760,0.593104
0.688992,-0.876723,-0.783317,-0.260008,0.758292,0.597821
0.355783,-0.221329,-0.846360,0.192860,-0.250248,0.948779
0.065480,0.228755,0.548161,0.858176,0.031190,0.512407
0.185093,0.051184,0.870264,-0.708991,-0.622945,-0.330561
0.404920,-0.700970,-0.844493,0.160922,-0.649678,-0.742982
0.485238,-0.601857,-0.806953,-0.078361,-0.056364,-0.995330
0.579210,-0.614687,-0.831701,-0.326954,0.078748,0.941754
0.274353,0.107692,0.885922,0.221996,-0.969542,0.103474
0.439050,0.268539,0.684675,-0.885840,0.434860,-0.161818
-0.120884,-0.271998,-0.873561,0.499209,0.301447,-0.812355
0.245883,-0.294318,-0.844092,-0.176969,-0.580883,0.794517
0.115132,0.685147,-0.929486,-0.410878,-0.355202,0.839649
-0.172983,0.010108,-0.912661,0.284564,-0.485727,0.826494
0.077426,-0.672259,-0.829847,0.486688,-0.656379,-0.576455
0.073143,0.101051,0.632197,-0.152598,0.535352,0.830730
0.432548,0.154036,0.572030,0.959147,0.199384,-0.200704
0.323845,-0.038360,-0.847495,0.430441,-0.631663,-0.644765
0.238904,-0.095108,-0.876520,-0.465999,0.155318,0.871046
-0.235949,0.760789,-0.963284,0.557238,0.826541,0.079471
0.009545,0.545063,-0.925592,-0.104994,-0.668286,0.736458
-0.185778,-0.032410,-0.941687,-0.569668,-0.080871,0.817886
0.256102,0.312359,-0.921306,0.799436,-0.269356,-0.536981
0.297559,0.387157,-0.924855,0.146536,0.416102,0.897433
0.037955,0.190726,0.063819,0.155778,0.802675,-0.575713
0.141672,-0.442747,-0.831554,0.079835,0.464119,0.882168
0.311258,-0.285452,-0.839784,0.446042,-0.178787,0.876973
-0.357565,0.004017,-0.942295,-0.662055,0.242634,-0.709092
0.001101,0.531674,-0.951393,0.175142,0.951806,-0.251775
0.622374,-0.747230,-0.799888,0.378039,0.285721,-0.880596
0.150322,0.029618,-0.912222,0.718570,0.365094,-0.591916
0.651093,-0.693066,-0.822819,-0.539540,0.190739,-0.820070
0.503845,-0.540720,-0.843295,-0.136112,0.262672,0.955236
0.413612,-0.630899,-0.798879,-0.128732,-0.389866,0.911829
0.562577,-0.598088,-0.828759,-0.348260,-0.159998,-0.923643
0.146981,0.165529,0.773823,-0.734288,-0.594791,-0.327177
0.146583,0.392644,0.124260,0.877992,-0.003101,-0.478666
-0.082880,-0.404293,-0.873741,-0.806478,0.492724,0.326828
0.507239,-0.892357,-0.839925,-0.411887,0.408623,0.814479
0.376504,0.237744,-0.895691,-0.190109,-0.625829,-0.756437
-0.040701,-0.233872,-0.898725,-0.031621,0.537454,0.842700
0.360531,-0.501462,-0.836185,0.077476,0.996994,0.000118
-0.074354,-0.187240,-0.896375,-0.190828,0.097368,-0.976783
-0.437492,0.630754,0.309019,-0.480963,0.863660,0.150881
0.213146,0.498267,-0.918213,-0.326973,0.025632,0.944686
0.434606,0.380601,-0.904246,-0.527265,0.798597,0.290233
0.569960,0.385299,-0.896635,0.517954,0.490434,-0.700855
0.110551,0.308237,-0.913183,0.265796,0.099380,0.958893
0.140093,-0.074955,0.181333,0.161319,0.078491,-0.983776
0.449772,0.078884,-0.891971,-0.548812,0.308419,0.776971
0.458478,-0.540096,-0.826137,0.713088,0.666223,-0.218294
-0.061673,0.753245,-0.955759,0.101132,0.192521,0.976068
-0.092785,-0.408740,-0.887958,-0.409739,0.912158,-0.009084
0.099287,0.064999,-0.902176,-0.328906,0.626070,0.707006
0.071080,-0.256063,-0.886015,-0.604430,0.773511,0.190645
-0.048817,0.438516,-0.940941,0.275743,-0.291443,0.915984
0.031045,0.242271,-0.908740,0.377609,0.453488,0.807316
-0.354621,0.418207,0.382963,-0.274427,0.666195,0.693451
-0.217085,0.808832,-0.960648,0.824337,-0.053729,-0.563544
0.614916,0.198737,-0.879663,0.489231,-0.331250,-0.806800
0.330957,0.178327,-0.905266,0.140427,0.842884,-0.519449
0.683029,0.027726,-0.873831,0.205658,-0.948876,-0.239455
0.321920,-0.621446,-0.841574,0.987237,-0.159072,-0.007755
-0.319813,-0.094505,-0.917037,-0.159107,0.434511,0.886502
-0.110113,0.518160,-0.294313,0.443939,0.412598,-0.795413
0.472460,-0.840366,-0.800015,0.127563,-0.127888,0.983551
-0.173393,0.077986,-0.920702,0.351945,-0.577887,-0.736330
0.356697,0.400540,-0.902090,0.541243,0.095906,0.835379
-0.438213,0.172893,-0.960669,-0.526309,0.721081,0.450601
0.544975,0.122019,0.647818,0.215667,-0.289858,-0.932454
0.393313,0.343647,0.805366,-0.374458,0.923437,0.083936
0.010190,0.539528,-0.950976,-0.406288,-0.887249,-0.218448
-0.450214,0.078989,-0.930266,0.017299,0.535182,0.844560
0.728755,-0.647031,-0.808057,-0.200242,0.287546,0.936600
0.492949,0.178201,-0.889760,0.481041,-0.014943,0.876571
0.371265,-0.813013,-0.800050,-0.247933,-0.963855,-0.097537
0.727204,-0.726836,-0.793346,0.324568,0.777011,0.539361
-0.261699,0.047763,-0.950575,0.725906,-0.687627,-0.015189
-0.106608,-0.503323,-0.858349,0.698546,0.254139,0.668914
0.142873,0.520926,0.666591,-0.356152,0.703944,-0.614508
0.013087,0.441590,0.725657,-0.445692,-0.302473,-0.842537
0.497628,-0.848554,-0.805393,-0.707236,-0.260364,-0.657288
0.319077,-0.690949,-0.843112,-0.689078,-0.199165,0.696781
0.555947,-0.838829,-0.825836,0.640906,-0.508359,-0.575161
-0.311589,0.004342,-0.941285,0.765662,-0.157516,-0.623659
-0.243775,0.357604,-0.959087,0.857754,0.506475,-0.087985
0.271988,0.272859,0.703944,-0.218029,0.958188,0.185308
0.175984,-0.020139,-0.877568,0.288910,0.623203,-0.726738
-0.131058,0.233639,-0.923777,0.361096,-0.348365,0.865015
0.131799,0.112659,-0.898768,0.489166,-0.832298,-0.260761
0.116233,-0.758336,-0.819721,0.770183,0.608461,0.191294
-0.251895,-0.202166,-0.895924,0.425167,0.442194,0.789745
0.732705,0.038758,-0.858696,0.281808,-0.585620,0.760022
-0.306961,-0.128501,-0.909076,0.465844,0.555091,-0.689103
-0.230923,0.765632,-0.954262,-0.016728,-0.227164,0.973713
0.445912,0.277352,0.834793,-0.764999,-0.236763,0.598932
0.685974,-0.901580,-0.781673,-0.275117,-0.385871,0.880576
0.365717,0.248991,-0.907408,-0.258868,-0.168068,0.951178
0.165688,-0.307903,-0.867079,-0.536594,-0.333645,0.775079
0.534374,0.269598,-0.869209,0.342908,0.260978,-0.902388
-0.066437,0.105886,-0.909755,0.574307,0.101931,-0.812270
0.027315,0.609855,-0.959654,-0.640668,0.446658,-0.624533
0.430158,0.129452,-0.837943,0.524867,0.558253,0.642548
0.399092,0.112663,-0.836808,-0.532369,-0.474890,-0.700758
0.813658,-0.715300,-0.780067,-0.143973,0.340173,0.929276
0.470077,-0.010597,-0.837797,0.717035,-0.540639,-0.439967
-0.256985,0.069856,-0.944663,-0.699845,0.592518,-0.398923
0.327917,0.463212,-0.886964,0.981260,0.150979,-0.119725
-0.179737,0.238301,-0.908769,-0.101227,-0.218765,0.970513
0.611867,0.061644,-0.882360,-0.502568,0.820884,0.271248
-0.282317,-0.116474,-0.907243,0.491649,-0.511555,-0.704693
-0.003656,0.197084,-0.914934,0.069358,-0.115909,0.990835
-0.310627,0.104352,-0.940571,-0.075351,0.531891,0.843454
0.864648,-0.714724,-0.794548,0.145100,0.506025,0.850226
0.235479,0.292300,0.644670,0.105452,0.990010,-0.093594
-0.197932,0.638861,-0.971446,-0.289167,0.359076,0.887382
-0.640917,0.652317,0.181119,0.815497,0.198766,0.543559
0.503119,0.202014,-0.899698,0.635066,0.171507,0.753178
0.191004,0.524419,-0.901783,-0.756719,-0.475719,0.448406
-0.009785,0.528952,-0.948163,0.835698,0.291019,0.465744
0.416218,0.281336,0.808642,0.769872,0.302247,-0.562089
-0.247427,0.291421,0.839364,-0.930419,0.235573,0.280760
0.499188,-0.886091,-0.811747,0.433296,0.736040,0.520096
0.320256,-0.089808,-0.847401,0.721519,-0.531470,0.443791
0.421440,-0.194473,-0.852471,-0.444316,0.533188,-0.719926
0.413089,-0.045645,0.604048,-0.676348,0.554435,-0.484928
0.054885,-0.319031,-0.869405,0.045206,-0.085746,0.995291
-0.168272,0.503592,0.849646,-0.313696,-0.609764,0.727862
0.549656,-0.041413,-0.872637,0.429712,0.637644,-0.639342
0.179760,0.077009,-0.867457,-0.388362,0.341804,0.855771
-0.714569,0.584066,0.314630,-0.516392,0.807183,-0.285999
0.491636,-0.152904,-0.838033,0.243009,-0.606745,0.756840
0.207553,0.477715,-0.934898,0.712617,0.653914,-0.254112
-0.039409,-0.596862,-0.850011,0.974706,-0.217764,0.050275
-0.304698,0.054532,-0.931085,0.338338,0.231079,0.912212
0.254314,0.179114,0.896706,0.221545,0.557456,0.800100
-0.335295,0.460420,-0.969936,0.788621,-0.083287,0.609213
0.100666,0.245553,0.229913,0.751998,0.606127,0.259054
0.348456,0.260177,-0.878796,-0.638944,0.271597,0.719712
-0.120437,-0.007126,0.715011,0.407275,0.908216,0.096283
0.713280,-0.887958,-0.797983,0.778905,0.496016,-0.383765
0.669676,0.062335,-0.868763,0.534866,0.439206,-0.721815
0.447302,-0.632755,-0.816053,0.729259,-0.049085,0.682475
0.628029,-0.934956,-0.794811,-0.371554,0.810985,0.451941
0.500814,-0.593827,-0.831578,-0.171201,-0.585906,0.792089
0.442264,0.361757,0.577856,-0.715962,-0.555478,0.422898
-0.237707,0.359338,-0.959688,0.792835,0.559445,0.241729
-0.321144,-0.149536,-0.920413,-0.667934,0.116744,0.735006
0.150575,0.212421,-0.887342,0.320370,-0.256268,0.911970
-0.110412,0.213531,-0.944512,-0.111504,-0.055218,0.992229
0.688849,0.280274,-0.861530,0.998675,0.047723,-0.019272
-0.271126,0.207939,-0.939507,0.685270,0.586786,0.431379
0.421729,-0.850920,-0.804425,-0.317142,-0.362651,-0.876302
0.244130,0.565634,0.653551,0.222301,0.937143,-0.268972
0.236739,-0.018140,0.893081,0.576326,0.782347,0.236180
0.090468,0.117057,0.615439,0.846697,-0.519528,-0.114866
-0.445409,0.271864,-0.958361,-0.180043,-0.164361,0.969830
0.651664,-0.804977,-0.814088,0.095337,-0.433786,-0.895958
0.204902,-0.635195,-0.854682,0.375917,0.506236,-0.776152
-0.200309,0.235381,0.939691,0.689797,0.196487,-0.696830
0.403042,0.038068,-0.861420,-0.443528,0.828979,0.340700
0.214760,0.239965,0.712859,-0.140834,-0.785020,0.603248
0.189833,-0.095740,-0.864511,-0.234231,0.809966,0.537671
0.005481,0.486472,-0.952148,-0.656712,-0.001585,0.754140
-0.016923,-0.032632,-0.915690,0.579717,0.526224,-0.622107
0.238825,0.556002,-0.922430,-0.363922,0.121996,0.923406
-0.081301,-0.676762,-0.856714,0.199246,0.317824,0.926978
0.077810,-0.159398,-0.856700,0.140256,-0.089612,0.986052
0.661730,-0.027901,-0.837194,-0.093719,-0.082813,0.992149
0.202943,-0.529938,-0.829285,0.012048,-0.350383,0.936529
-0.151159,0.758115,-0.953121,0.428436,-0.405653,-0.807396
-0.798992,0.994720,-0.492614,0.503143,0.779702,0.372709
-0.072522,0.134778,0.983839,-0.442822,0.414450,0.795072
0.779260,0.231340,-0.868063,0.114845,0.359300,0.926129
0.359878,-0.621839,-0.815184,-0.128563,-0.658975,0.741096
-0.243598,0.414836,-0.969633,0.923072,-0.342863,-0.174305
-0.238493,0.516390,-0.976811,0.857576,0.059763,-0.510873
0.254621,0.044828,-0.867938,0.463833,0.306114,-0.831356
0.076685,0.660663,-0.935389,0.576025,-0.438986,0.689555
0.180383,0.097061,-0.227850,-0.725886,-0.603914,0.329207
0.013155,0.228118,-0.900188,-0.323432,-0.463361,-0.825038
-0.268582,0.390059,-0.977341,-0.490946,0.657308,-0.571768
0.170910,-0.092269,-0.884799,0.535991,-0.670673,-0.512749
-0.000637,-0.697556,-0.858521,-0.311360,0.860776,0.402641
0.262580,0.540894,-0.940777,-0.515512,-0.134123,0.846320
0.340408,-0.791459,-0.805027,-0.574807,-0.291878,-0.764463
-0.511468,0.590469,0.319419,0.199990,-0.967298,0.156011
0.075064,-0.215979,-0.877244,0.216678,0.189282,0.957718
0.143889,-0.348199,-0.888042,0.714269,0.200270,0.670605
0.078762,-0.260537,-0.890232,0.737046,-0.489089,-0.466428
0.406977,0.245555,-0.892318,-0.559530,0.425093,0.711493
-0.164853,0.292173,-0.953604,0.402530,0.721446,0.563458
-0.008830,-0.374411,-0.854368,0.421297,-0.431543,0.797671
-0.071816,-0.106639,-0.897944,0.004152,-0.033538,0.999429
0.114284,0.204623,0.239709,0.876059,0.374942,0.303214
0.356560,-0.771043,-0.817516,-0.148373,-0.077993,0.985851
0.469107,0.290340,0.948539,0.700411,0.646989,0.301380
0.157832,-0.499961,-0.844692,0.248742,0.319885,-0.914221
-0.411146,0.085233,0.728667,0.544514,0.555245,0.628655
0.116639,-0.373548,-0.840307,-0.204656,-0.514078,0.832970
-0.020856,0.127620,-0.935635,0.027056,-0.997722,-0.061793
0.261026,0.489326,0.652977,-0.041831,-0.556197,0.829997
0.101632,0.626218,-0.936549,-0.170151,0.884869,0.433653
-0.298460,0.322621,0.450182,0.414953,0.540828,0.731655
0.092799,-0.425503,-0.853449,-0.039539,0.298632,0.953549
0.026603,0.023354,-0.914243,-0.141596,0.345485,0.927680
0.091620,0.166963,-0.880447,0.127216,-0.093554,0.987453
0.324602,-0.783834,-0.829338,-0.021857,-0.315911,-0.948537
0.104765,0.256259,0.527600,0.888878,0.443066,0.116572
-0.137579,0.629187,-0.942141,0.369258,0.504288,-0.780604
-0.206010,0.446651,-0.972733,-0.475110,-0.018107,-0.879740
-0.044148,0.296172,-0.928369,0.333438,-0.027806,0.942362
-0.168584,0.694655,-0.981741,0.695603,-0.689238,0.202703
0.229230,-0.167254,0.619659,-0.154981,0.950559,-0.269108
0.185424,-0.516283,-0.850310,0.109696,-0.053600,0.992519
0.469219,0.318733,-0.856959,-0.624870,0.343129,0.701284
0.169757,0.146174,-0.196753,0.728855,0.673431,-0.123536
0.501012,-0.823515,-0.781983,-0.472575,-0.230636,0.850576
-0.266381,0.051650,0.918804,0.912826,0.343391,-0.220976
0.628168,-0.755093,-0.803117,0.258540,0.295314,-0.919754
0.411456,0.157001,-0.883731,0.295118,-0.252891,-0.921386
-0.379828,0.062650,-0.930488,0.715691,0.407988,0.566862
-0.560455,-0.235184,-0.270843,-0.630839,0.635300,-0.445461
-0.114428,0.333948,-0.950418,0.040439,0.230310,0.972277
-0.207298,0.509998,-0.957489,-0.180880,0.011180,0.983442
0.313998,-0.328800,-0.849636,-0.423629,0.892894,0.152573
0.240293,0.086160,-0.308210,0.893952,-0.398686,-0.204696
0.334916,-0.628355,-0.824624,-0.652821,-0.163997,0.739547
0.265378,-0.119144,0.141526,-0.476210,0.034198,-0.878667
0.499749,-0.748740,-0.821189,-0.283601,0.496824,0.820205
0.063763,-0.316047,-0.857554,0.155435,0.192101,0.968988
0.509718,-0.835890,-0.815078,0.069783,0.992727,-0.098097
-0.331718,0.235788,-0.946184,0.151344,0.626134,-0.764886
0.513861,0.185446,-0.905046,0.951027,0.114408,0.287157
-0.363305,0.065293,-0.963600,0.397144,-0.501954,-0.768322
0.499131,-0.053830,0.615921,-0.858731,0.462182,-0.221290
0.718720,0.149288,-0.861192,-0.571612,-0.125404,0.810884
-0.098240,-0.064727,-0.887863,0.270878,0.479731,0.834556
0.158576,-0.553441,-0.864119,0.954716,-0.193195,-0.226257
0.225602,0.402036,-0.922310,0.747879,0.650798,-0.130918
-0.368152,0.290194,-0.940296,0.579029,0.260199,-0.772672
0.368789,-0.569001,-0.811413,-0.594090,-0.024081,0.804038
0.613500,-0.712177,-0.825468,0.124992,0.973735,0.190307
0.318343,-0.624887,-0.856792,-0.194807,0.779541,0.595287
-0.129595,0.117325,-0.902678,0.189425,0.297046,0.935886
-0.364151,0.152252,-0.966359,0.416181,0.237677,0.877669
0.521333,0.389182,-0.900988,0.410116,0.196350,0.890647
0.739901,0.076664,-0.858204,0.306828,-0.049593,0.950472
0.706868,0.118539,-0.878378,0.369037,0.337655,0.865910
0.323180,0.006844,-0.853975,-0.018166,0.641690,0.766749
0.184795,0.066113,-0.867738,-0.690937,-0.127237,0.711630
-0.084827,0.353016,-0.929811,0.490453,0.380555,-0.783986
0.301818,-0.564951,-0.818151,0.124631,0.872764,0.471965
0.175498,-0.472952,-0.858698,-0.094961,0.696933,0.710822
0.253351,0.286300,-0.879349,-0.233301,0.690019,0.685160
0.094459,0.497978,-0.906780,-0.417441,-0.020753,0.908467
0.119068,-0.240057,-0.842429,-0.158025,-0.277477,0.947647
-0.188225,0.628946,-0.958608,-0.170528,0.439292,0.882011
0.419531,0.228485,-0.880769,0.442445,-0.504374,-0.741518
0.376910,-0.598002,-0.830487,-0.200013,0.391506,0.898175
0.733293,-0.743535,-0.799569,0.058028,-0.173373,0.983145
0.115926,0.391109,0.391575,-0.659926,-0.147550,0.736700
-0.756540,0.539787,0.308092,0.868644,-0.372394,0.326772
0.033487,0.107757,-0.241042,0.111532,0.956864,-0.268275
0.069835,0.329752,-0.928054,-0.609764,0.049194,0.791055
0.511022,-0.102664,-0.835857,0.010317,0.233128,0.972391
0.095407,-0.655665,-0.832558,-0.783878,0.607273,0.129439
-0.122580,-0.029680,-0.879306,0.386571,0.127413,0.913416
-0.067036,-0.421667,-0.859200,0.586612,0.133430,-0.798801
-0.027667,0.532730,-0.269574,0.749594,0.551651,-0.365773
-0.197019,0.478262,-0.953799,-0.511818,0.524287,0.680563
0.271391,0.166613,-0.885964,0.106060,-0.934420,0.340016
-0.019579,0.126264,-0.921212,0.216359,-0.703386,0.677080
-0.050082,0.220250,-0.354850,-0.728764,-0.653468,0.204650
-0.169206,0.169973,-0.897807,-0.099686,0.428026,0.898252
0.289266,-0.174971,-0.851957,-0.046316,-0.575377,0.816576
-0.406676,0.255185,-0.975608,-0.116510,-0.135514,0.983901
0.486967,0.078618,-0.850757,-0.400974,-0.471666,-0.785335
0.089988,0.142125,0.825057,0.035872,0.973070,-0.227702
0.069944,-0.435791,-0.851275,-0.250254,-0.595476,-0.763401
-0.108719,-0.447967,-0.856873,-0.037304,-0.992148,-0.119377
0.837327,-0.771301,-0.791366,-0.391479,-0.351579,-0.850375
0.721977,-0.976318,-0.793907,-0.244599,0.561758,-0.790316
0.232739,0.039259,0.964165,0.752013,-0.168351,0.637286
-0.200153,-0.243353,-0.931193,-0.044764,-0.740288,0.670798
0.272321,-0.005971,-0.863419,-0.467149,0.144025,0.872369
0.142704,0.264706,0.751573,0.777752,0.242984,0.579708
-0.124887,0.659523,-0.962099,-0.375070,0.384559,0.843467
0.134937,0.163337,-0.920336,0.429426,0.204284,0.879694
0.692703,0.272430,-0.878189,0.451503,0.340554,-0.824723
0.178262,0.529010,-0.918676,-0.461757,-0.603620,0.649941
0.652148,-0.777255,-0.829414,0.410753,-0.296219,-0.862286
0.122635,-0.385752,-0.847969,-0.146533,-0.658026,0.738600
-0.020963,0.254961,0.302581,0.168106,0.403848,-0.899248
-0.089509,0.557436,-0.965151,-0.052821,-0.679449,0.731819
-0.264384,0.653014,-0.960299,-0.117740,0.244268,0.962533
0.906391,-0.854518,-0.791482,0.359389,-0.485927,-0.796690
-0.315362,0.095068,-0.932286,0.868625,-0.351437,0.349259
-0.414544,-0.013109,-0.951950,-0.289888,-0.661650,-0.691508
-0.217579,-0.068798,-0.920727,0.747968,-0.148581,0.646891
0.010935,0.465715,0.575060,-0.128811,-0.967770,-0.216398
-0.108835,0.564988,-0.951080,-0.479356,0.848874,0.222778
-0.118427,-0.367035,-0.872736,-0.568711,0.462988,0.679860
0.239588,-0.698738,-0.828668,-0.133410,0.831971,0.538541
-0.102460,-0.402559,-0.872586,0.883874,0.467723,0.001309
0.381772,-0.067345,0.635755,-0.442293,0.712608,-0.544580
0.034464,-0.073957,-0.902906,-0.109464,0.422624,-0.899670
-0.287552,0.141532,-0.929110,0.276857,0.341208,-0.898291
0.066371,0.159133,0.540417,0.462020,0.473652,0.749794
-0.069360,-0.124616,-0.892250,-0.434009,-0.032221,-0.900332
0.340965,0.433048,-0.900403,0.849330,0.151542,0.505642
-0.344807,0.442616,-0.966158,-0.126910,0.605625,0.785565
0.014410,0.704177,-0.962302,0.451286,-0.453167,-0.768753
-0.018128,0.471634,0.623995,0.804695,0.546143,-0.232797
0.029586,0.115949,-0.951972,0.354239,-0.419515,-0.835776
0.826784,0.065095,-0.860698,-0.049328,0.063635,0.996753
0.119223,0.159387,0.612209,0.941780,-0.104313,0.319639
0.369784,0.209931,-0.861812,0.593588,0.038511,-0.803847
-0.126252,-0.523430,-0.848747,0.881494,0.169778,-0.440618
-0.276341,0.699838,-0.991049,-0.242897,0.206700,0.947774
0.041147,0.217116,-0.914895,0.609992,-0.740126,-0.283061
-0.278073,0.595602,-0.961485,0.463072,-0.798494,-0.384670
-0.557653,-0.062216,-0.117593,0.500049,-0.710428,0.495220
0.256977,-0.037201,-0.848026,0.267858,0.937395,0.222582
-0.091514,-0.422875,-0.879902,0.804815,-0.528769,-0.269584
0.576864,0.264232,-0.871000,0.158116,0.363563,0.918053
0.804354,-0.814125,-0.788625,-0.742430,0.614971,0.265723
-0.196409,0.638089,-0.952682,-0.638397,0.757130,-0.138576
-0.178175,0.354844,-0.938309,-0.625219,0.638425,0.448904
-0.325343,0.168953,-0.944444,-0.165678,-0.273527,-0.947488
0.142333,0.403853,-0.918621,-0.285923,-0.436889,0.852863
0.436712,0.507596,-0.908070,0.465205,0.677713,-0.569464
-0.166586,0.102434,-0.929352,0.109820,0.761936,0.638274
0.114207,-0.027769,-0.880253,-0.137570,-0.376384,0.916193
0.275813,0.319120,0.709906,-0.100137,-0.985991,0.133396
0.252034,0.240137,0.703415,-0.356436,0.775626,0.520920
0.451900,-0.739138,-0.812830,-0.313283,0.179167,0.932605
0.149712,0.241899,-0.921600,-0.327054,0.449520,-0.831244
0.876387,-0.893686,-0.782416,-0.124787,0.846029,0.518327
0.033805,-0.247991,-0.845350,0.512968,0.069706,0.855573
0.191840,-0.488304,-0.841696,-0.021711,0.175225,0.984289
-0.074677,-0.048468,-0.929731,-0.016631,0.529512,0.848139
0.029919,0.478386,-0.917056,0.002766,0.630610,0.776095
-0.104708,-0.130466,-0.911162,-0.317695,0.168617,0.933080
0.139684,0.183720,0.825488,0.049636,-0.983610,0.173341
0.297727,0.079365,0.921543,-0.770959,0.245890,-0.587503
-0.415498,0.180480,-0.946152,0.881850,-0.012208,-0.471371
0.017296,0.104317,-0.911165,0.483083,0.206385,-0.850903
0.126164,-0.639821,-0.829639,-0.699398,0.067192,-0.711567
-0.547364,0.238857,0.744012,0.403004,-0.021528,0.914945
-0.179326,0.232110,-0.918446,-0.385532,-0.529914,0.755352
0.188484,0.189749,0.035926,0.875942,0.471538,0.101869
0.180222,0.605283,0.699181,0.070219,-0.713501,0.697127
-0.024664,0.515110,-0.946160,-0.030349,0.051580,0.998208
-0.015576,0.631891,-0.931461,-0.629884,0.041400,-0.775585
0.674491,0.142173,-0.849901,0.131433,0.263401,0.955691
0.444987,-0.559505,-0.842924,-0.021492,-0.294653,0.955363
-0.210179,0.569958,-0.980572,0.506202,0.101483,0.856423
-0.303812,0.553923,-0.952557,0.742612,0.044151,-0.668266
0.652734,0.081696,-0.880775,0.048057,0.981769,0.183901
0.212738,0.422670,-0.907137,0.794272,0.286635,-0.535698
-0.178272,-0.386812,-0.884661,0.450377,0.851142,0.269664
0.089238,-0.490619,-0.845108,0.126251,0.585886,0.800499
-0.213510,-0.231937,-0.882451,-0.745959,0.580426,-0.326575
-0.306741,0.608442,-0.980855,-0.705369,0.457153,0.541724
0.685028,-0.695420,-0.829375,0.761221,-0.037012,-0.647435
-0.016765,-0.096841,-0.894733,-0.748413,0.442542,0.493998
0.125129,0.278849,-0.917833,-0.113171,0.217614,-0.969452
0.859429,-0.701651,-0.804006,-0.097159,0.665463,0.740080
0.080909,0.577037,-0.936256,-0.273570,0.859175,-0.432410
0.123103,0.512714,-0.955675,0.679545,-0.102889,-0.726383
-0.362296,0.024699,-0.255813,-0.595246,0.742271,-0.307758
0.198700,-0.006988,-0.875571,-0.408482,0.692649,-0.594458
0.094517,-0.691029,-0.819922,0.801220,-0.439528,0.406032
0.547199,-0.084442,-0.863606,0.544536,0.827429,0.137266
0.619653,0.081630,-0.851638,0.150645,-0.187216,-0.970699
-0.006520,-0.153149,-0.862253,0.225397,0.367978,0.902102
-0.306526,0.331120,-0.935662,0.794833,0.522542,0.308530
0.458986,0.098440,-0.873231,-0.353934,-0.201103,-0.913394
0.540817,-0.096871,-0.868914,-0.305177,0.384058,0.871417
-0.010157,-0.364224,-0.856204,0.582533,-0.269089,-0.766972
0.572903,-0.631698,-0.815993,0.761157,0.581898,0.286418
0.302635,-0.098612,-0.816884,-0.279953,-0.125349,0.951795
0.241039,0.452126,-0.924489,0.319540,0.657876,0.681978
0.218186,0.102109,-0.217224,0.739694,0.419248,-0.526388
0.574275,0.285561,-0.872483,-0.108622,0.399216,-0.910400
0.244529,0.022261,-0.875295,0.102439,-0.001634,0.994738
-0.049650,0.659131,-0.938442,-0.457548,0.299621,0.837184
-0.185178,-0.247459,-0.883474,0.085139,0.036309,0.995707
-0.142479,-0.240259,-0.912242,0.714000,0.696044,0.075669
0.367481,0.188636,0.752199,0.997091,-0.057627,0.049892
0.056414,0.175751,-0.894808,0.394847,-0.222497,-0.891398
0.346904,0.191450,0.148998,-0.694859,-0.613035,0.375977
-0.144819,-0.239247,-0.880546,0.943130,0.238006,-0.232076
0.334360,0.294464,0.792164,0.664854,0.367750,-0.650176
0.408934,-0.090013,-0.864103,-0.371500,-0.451811,-0.811082
0.179596,0.201348,-0.207314,-0.679533,-0.723165,0.123558
0.108489,-0.192491,-0.857368,-0.072878,0.356064,-0.931615
0.370661,0.147362,-0.905873,0.285614,0.957945,0.027686
0.660157,-0.580103,-0.802892,-0.205509,-0.483179,0.851061
-0.185796,0.322628,-0.963282,-0.038371,-0.062302,-0.997319
0.466246,-0.677054,-0.822506,-0.040505,-0.015533,0.999059
0.004570,0.362260,-0.923861,0.955522,0.044839,0.291491
0.909022,-0.745740,-0.782763,-0.252640,0.922277,-0.292539
0.252146,0.406951,-0.914444,-0.015074,0.368745,0.929408
-0.262183,-0.118045,-0.909250,0.447304,0.405295,-0.797280
0.526891,0.034111,-0.851159,-0.296761,0.381980,0.875228
0.547608,-0.895928,-0.795503,-0.353068,-0.776567,0.521812
0.368918,-0.010447,-0.780488,-0.523840,0.817766,0.238434
0.082578,0.153948,-0.911063,-0.457493,0.671725,0.582654
-0.094569,0.412438,0.693934,-0.057066,-0.991390,-0.117857
0.304430,-0.702718,-0.811170,-0.360304,0.240929,0.901185
0.177632,-0.229220,-0.863919,-0.450842,-0.132136,0.882769
-0.015095,-0.295326,-0.870948,-0.660767,0.044713,0.749258
-0.672168,0.324943,0.265983,-0.653881,-0.542524,-0.527359
0.746255,0.159297,-0.868405,-0.331963,-0.744049,0.579820
0.704765,0.167319,-0.862291,-0.035493,0.044452,-0.998381
-0.288898,0.724815,-0.975183,0.878817,0.037859,0.475655
-0.355317,0.326558,-0.945747,-0.098042,0.559647,0.822911
0.131735,0.117702,-0.888792,0.095962,-0.892095,-0.441541
0.159333,0.294518,0.729402,0.065466,0.951878,0.299403
0.372403,0.040868,-0.862337,0.048714,0.683585,0.728244
0.609909,-0.725422,-0.819364,-0.696517,-0.412127,0.587380
0.515482,0.263951,-0.874028,0.713828,0.699831,-0.026218
0.161593,-0.008009,-0.863188,0.279178,0.489662,-0.826009
0.082203,0.534813,0.686206,0.688032,-0.610275,0.392654
0.007185,0.077087,-0.920879,-0.529545,0.556390,0.640322
0.196287,-0.800964,-0.802277,0.363485,0.772057,0.521351
-0.169279,0.173528,-0.946774,0.175895,-0.892172,-0.416041
0.576688,-0.837000,-0.833452,-0.192534,0.633241,0.749625
0.546609,-0.102346,-0.845592,-0.550039,-0.151957,-0.821198
0.489957,0.130374,-0.880621,-0.152734,0.530411,0.833868
-0.041258,-0.046210,-0.889761,0.035268,0.144560,0.988867
-0.154905,0.058594,-0.919350,-0.423000,0.865340,-0.268809
-0.186622,0.829681,-0.219339,0.934155,0.340241,-0.107664
-0.160485,-0.487456,-0.887121,0.320025,0.174776,0.931148
0.247899,0.128403,-0.247947,-0.547962,-0.819871,0.165982
0.060282,0.245905,-0.924633,0.823418,-0.117200,-0.555200
0.826984,-0.677908,-0.789316,0.066194,0.154598,0.985757
0.079853,0.216438,-0.939476,0.651302,0.420782,0.631465
-0.108104,-0.102653,-0.882925,0.955467,0.277847,0.099412
0.558369,-0.626635,-0.807069,-0.570376,-0.503662,-0.648842
-0.024181,0.568813,-0.945018,-0.449033,0.455957,0.768422
0.200344,0.224346,-0.915352,-0.539995,-0.103118,0.835328
0.518678,-0.770892,-0.794955,0.336586,0.697199,-0.632948
-0.046917,0.628110,-0.961699,0.731802,0.129815,0.669040
0.269225,0.090347,-0.352136,0.928338,-0.341327,0.147256
-0.093269,-0.403491,-0.900554,-0.621757,-0.756685,-0.202107
0.443168,0.405233,-0.873183,-0.554574,-0.528815,-0.642497
-0.122916,0.550983,-0.965897,-0.144430,-0.986827,0.072880
0.733930,-0.805584,-0.802369,0.853867,-0.498452,-0.149857
-0.181468,-0.461608,-0.880383,0.452140,0.079845,0.888366
-0.166953,-0.013077,-0.877996,0.321539,-0.317521,-0.892072
-0.713137,0.443748,0.254528,0.882578,0.125624,0.453072
0.866835,-0.693446,-0.814308,0.592574,0.083741,0.801151
0.332049,-0.299819,-0.847334,0.166800,0.147707,0.974864
-0.247507,0.845212,-0.956882,-0.292200,-0.591773,-0.751281
-0.712595,0.667256,0.237723,0.913445,-0.082754,0.398460
0.149639,-0.083264,-0.887792,0.193309,-0.909046,-0.369144
-0.025658,-0.660955,-0.836405,-0.759729,-0.333971,-0.557921
-0.265676,0.293813,0.439190,0.738928,0.450142,0.501355
0.108217,0.348087,-0.926046,-0.237627,0.183585,0.953850
0.180168,0.377923,-0.920392,-0.504417,0.539530,0.674145
0.417981,0.158472,-0.865433,0.814041,0.571643,0.102775
0.299486,-0.560932,-0.855395,-0.283431,0.266827,-0.921124
0.798198,-0.839624,-0.776811,0.886008,0.294172,0.358404
0.058662,-0.067416,-0.883792,0.237603,-0.214236,-0.947443
0.617363,-0.914525,-0.807999,0.132776,0.472641,0.871195
-0.353164,0.059231,-0.940785,0.504225,0.840284,-0.199199
0.258307,0.307458,0.724452,-0.164592,-0.958195,0.234034
-0.164103,0.317112,0.567925,0.141271,-0.607988,0.781276
0.646471,0.000639,-0.885392,0.045037,0.429827,0.901788
0.053735,-0.516168,-0.843559,-0.209383,0.672969,0.709416
-0.263967,0.419081,-0.977032,0.819794,0.355491,-0.448958
-0.273755,0.108349,-0.930265,-0.115936,-0.040455,0.992432
-0.260222,0.638760,-0.965814,-0.781624,-0.116375,0.612797
0.160012,0.644096,0.917846,0.807756,0.493655,-0.322233
0.385948,0.335941,-0.910436,0.701825,0.712137,-0.017388
0.870769,-0.712876,-0.796960,0.208235,0.370130,0.905341
0.589448,-0.985551,-0.814461,-0.321784,0.271543,0.907039
0.087278,0.596726,-0.928200,0.592235,-0.648388,-0.478383
0.383764,-0.131830,-0.864282,-0.299373,0.335613,-0.893163
0.953971,-0.733591,-0.806721,0.592505,-0.171822,-0.787029
0.175260,-0.211405,0.616407,-0.099513,-0.966826,0.235254
-0.189936,0.680213,-0.972909,-0.487500,0.151814,0.859823
-0.645617,0.530975,0.269242,-0.483404,-0.635890,0.601635
0.247424,-0.088587,0.167988,0.334554,-0.044237,0.941338
0.909079,-0.728910,-0.780699,-0.384142,0.828730,0.406990
-0.230633,-0.406232,-0.856307,-0.006011,0.749061,0.662473
0.601268,-0.680763,-0.803814,-0.312636,0.843187,0.437372
0.202149,0.419822,-0.930503,-0.018132,-0.655041,0.755376
0.340028,0.208733,-0.891060,0.364167,0.456635,-0.811706
-0.369364,-0.020453,-0.929439,0.339684,-0.166652,-0.925658
-0.410853,0.453990,-0.983290,0.462921,-0.403924,-0.789018
-0.145643,-0.329649,-0.871393,-0.440062,-0.074013,-0.894912
0.126222,-0.113789,-0.892874,0.726510,-0.171061,-0.665524
0.328583,-0.262685,-0.849623,-0.248523,-0.380956,-0.890566
0.537038,0.273145,-0.878831,-0.136793,0.022482,0.990345
-0.253175,-0.189299,-0.889504,0.276550,0.314377,0.908123
0.695722,0.148612,-0.863025,-0.637805,-0.023942,-0.769826
0.764003,-0.843595,-0.796212,-0.215900,0.384225,0.897640
0.231623,-0.700811,-0.857672,-0.538932,0.114177,-0.834575
0.027361,0.683653,-0.961159,0.595612,0.207643,-0.775971
0.629831,0.147690,-0.886305,-0.363353,-0.692468,0.623268
0.111370,0.221473,-0.921206,-0.599396,0.658498,0.455088
0.466867,0.043155,-0.891314,-0.007019,-0.172387,0.985004
0.454425,0.497016,-0.875225,-0.215585,0.067245,0.974167
0.218406,0.179549,-0.891712,-0.249359,0.841437,0.479378
-0.010892,-0.345868,-0.869426,-0.630641,0.417212,0.654390
0.375866,-0.779945,-0.821073,-0.552575,0.056641,0.831537
0.101240,0.160763,-0.170344,0.824302,0.496648,0.271786
-0.161485,0.593067,-0.969003,-0.105238,0.138821,0.984710
0.251266,-0.079495,-0.849575,0.619144,0.352854,-0.701538
0.297797,0.462709,-0.901687,0.471302,-0.432282,-0.768769
0.128148,0.477913,-0.857407,0.189472,-0.273092,0.943144
-0.121939,0.559148,0.401633,-0.724062,0.630633,-0.279350
0.150419,-0.226180,-0.880510,0.731222,-0.568411,-0.377126
0.004950,0.667187,-0.979265,0.645401,-0.087863,-0.758774
0.192221,0.509246,-0.925627,-0.030460,0.292406,0.955809
0.498865,-0.020592,-0.875362,-0.414661,-0.232274,0.879832
-0.000957,-0.324220,-0.861248,-0.062282,0.568938,0.820018
0.121131,0.319133,0.380936,0.851996,0.060765,-0.520011
0.349796,-0.777905,-0.826053,-0.360195,-0.136213,0.922879
-0.294381,0.739334,-0.961907,-0.757854,0.531564,-0.378282
-0.078729,0.236982,0.335469,-0.559861,-0.573288,0.598244
-0.186022,0.624406,-0.966181,0.015828,0.448741,0.893522
0.243884,-0.201634,-0.867512,-0.118058,-0.153879,-0.981011
0.107718,0.217550,0.459264,0.575284,0.758352,-0.306513
0.450200,0.466819,-0.889485,-0.292671,-0.332690,0.896471
0.698231,-0.868280,-0.775324,-0.395690,0.226775,0.889945
0.408458,0.179556,-0.852054,-0.433312,0.455800,0.777487
-0.273682,0.590666,0.903596,0.202828,0.934939,-0.291119
-0.144944,0.504495,-0.935698,-0.570315,0.281581,0.771656
0.035167,0.331288,0.562519,0.109803,-0.455401,0.883489
-0.381204,0.306587,0.192399,-0.328616,-0.920710,0.210485
-0.227133,0.092475,-0.944980,-0.381335,0.429497,0.818606
-0.336607,-0.245583,-0.899582,0.859215,0.308402,-0.408213
0.075222,0.146993,-0.894864,-0.225284,-0.834551,0.502764
0.956125,-0.719783,-0.772629,0.034088,0.158170,-0.986823
0.120137,0.629344,-0.946324,0.105103,0.888119,0.447436
-0.300949,0.022798,-0.948504,0.284274,-0.815183,-0.504644
0.593248,-0.122763,-0.879687,-0.373692,0.602125,0.705549
0.004407,-0.573544,-0.851245,0.361933,0.547737,-0.754313
0.051903,-0.569014,-0.845466,0.145283,0.185840,-0.971780
0.702258,-0.922790,-0.786611,0.199357,-0.154657,-0.967646
0.407667,0.247863,0.799353,0.738362,0.277668,-0.614591
0.742086,-0.929299,-0.795937,0.534240,0.425499,0.730437
0.212948,0.139782,-0.878945,-0.192730,0.601601,0.775197
0.524405,-0.122749,-0.838778,0.129845,-0.405521,0.904816
0.054660,0.052152,-0.881980,0.073245,0.229892,0.970456
0.085008,-0.268071,-0.884583,0.866048,-0.493144,-0.082276
0.278762,0.252685,-0.911027,-0.370559,0.749103,-0.549118
0.423655,-0.079173,-0.844080,-0.265189,0.803329,-0.533234
0.348239,-0.515905,-0.816090,-0.164706,0.344243,0.924321
0.277287,-0.101622,-0.871682,-0.117873,0.563165,0.817894
0.225681,0.086673,-0.849428,-0.061239,0.112024,0.991817
0.413408,0.390181,0.655315,0.926105,-0.372890,-0.057290
-0.104457,-0.312393,-0.864517,0.704472,0.663877,-0.250973
0.086944,0.143967,0.601717,0.975831,-0.214233,0.043109
0.136906,-0.274122,-0.875157,0.857334,-0.347129,-0.380105
0.237760,0.013928,-0.892828,0.943549,-0.292261,-0.155882
-0.106213,0.521641,-0.944567,-0.743815,0.084520,0.663020
0.036889,0.388012,0.649590,0.792618,0.606805,-0.059533
-0.125706,0.597902,-0.964827,-0.045547,-0.509472,0.859281
-0.681536,0.511707,0.279599,0.781611,-0.564128,0.266167
0.208392,0.068936,-0.895242,0.122923,0.201814,0.971679
-0.081319,-0.295205,-0.866084,-0.238076,-0.477535,-0.845743
0.457936,0.110360,0.652667,-0.509559,0.569455,0.645035
0.144166,0.481866,-0.932223,-0.339692,0.411742,0.845623
0.250706,0.124010,0.946563,0.852861,-0.351411,0.386185
0.566249,-0.036916,-0.874545,-0.052327,0.763267,0.643961
0.209796,0.646841,-0.931113,0.753168,0.341085,0.562494
0.402786,-0.822656,-0.810389,-0.192302,-0.488505,-0.851107
-0.266894,-0.043168,-0.918636,-0.387236,0.151788,0.909400
0.042147,0.269112,0.814245,0.946906,0.309446,-0.087250
0.324040,0.094562,0.896065,0.802401,0.266262,0.534094
-0.351634,0.072904,-0.915951,0.157819,-0.043114,-0.986526
-0.084161,-0.472571,-0.867311,-0.362739,0.019667,0.931683
-0.165570,-0.444665,-0.882839,-0.478020,0.520556,0.707473
0.026869,0.462019,-0.920826,0.016429,0.893245,0.449269
0.198642,-0.033308,-0.868351,-0.399997,0.301823,-0.865393
-0.061295,-0.592360,-0.840424,-0.128564,-0.019546,0.991509
0.108558,0.266698,0.480439,-0.608533,-0.790921,0.064280
-0.013668,0.635050,-0.937872,0.785381,-0.054812,0.616582
-0.633651,0.599060,0.317438,-0.202766,0.977059,-0.065122
-0.250546,0.205034,-0.917388,0.247102,0.151050,0.957144
0.305109,0.258172,-0.882794,-0.272600,0.460542,0.844743
-0.247373,0.215093,-0.948588,-0.002291,-0.343114,0.939291
-0.260344,-0.289928,0.696190,-0.065900,0.561498,0.824850
-0.005043,0.215630,-0.937294,0.151756,-0.652549,0.742395
0.031929,-0.502870,-0.861427,0.935546,-0.218996,0.277118
-0.124909,-0.547113,0.122240,0.551283,0.042275,-0.833247
0.262030,0.027601,-0.876608,0.773250,0.126567,-0.621342
0.062955,0.413382,-0.939880,-0.402156,-0.145049,-0.904009
0.560219,0.071638,-0.859223,0.603453,0.796720,-0.032889
0.520735,0.459554,-0.908404,0.410940,0.366174,0.834892
-0.594734,0.948069,-0.510744,0.466143,0.744679,0.477665
-0.325814,-0.194008,-0.921569,0.369725,0.500477,0.782832
-0.052467,0.106283,-0.904264,0.559952,-0.473626,-0.679803
0.320211,0.461337,-0.895857,-0.576459,-0.064716,0.814559
0.156996,0.305455,0.378260,0.933759,0.152167,-0.323944
0.260876,0.241788,-0.885350,-0.557875,0.092756,0.824725
-0.399731,0.061257,-0.925654,0.927775,-0.252985,0.274286
0.182191,-0.003652,-0.647481,0.163871,-0.946306,0.278660
0.642612,-0.816626,-0.791687,-0.378500,0.726611,0.573388
0.553027,-0.106369,-0.845317,-0.820621,0.136222,-0.555000
0.118974,0.719574,-0.925585,0.443181,0.453532,0.773240
0.548562,0.121804,-0.891875,-0.587679,-0.043608,0.807918
0.624777,-0.762616,-0.804248,-0.067988,0.010084,0.997635
0.710168,0.224982,-0.879669,-0.112719,0.176865,0.977759
-0.326524,0.147733,-0.971825,0.750429,0.142790,-0.645343
0.448112,-0.066268,-0.847067,0.974176,0.203680,0.097447
0.339106,-0.213948,-0.868671,-0.481294,0.843291,-0.239200
-0.069538,0.256897,-0.925478,-0.025969,-0.135496,0.990438
-0.267993,-0.047586,-0.936915,-0.707048,-0.381572,-0.595388
0.177269,-0.083195,-0.874827,0.486484,-0.565387,-0.666086
-0.187064,0.008900,-0.925909,0.233597,-0.894815,0.380446
-0.136718,-0.570200,0.097045,0.551283,0.042275,-0.833247
0.181276,0.560921,-0.950171,-0.239461,0.608481,-0.756577
0.045963,0.433118,0.718685,-0.083585,-0.800814,0.593051
0.283692,0.444166,0.922722,0.304681,0.635202,0.709710
-0.100409,-0.377409,-0.870476,-0.379715,-0.646676,0.661534
0.300563,-0.628810,-0.847515,-0.262749,0.940484,-0.215530
0.283189,-0.792237,-0.789502,-0.184166,-0.351399,0.917933
-0.303180,0.120459,-0.934121,0.296142,0.087517,-0.951126
0.197119,0.096862,0.749386,0.280333,0.740633,0.610636
0.654063,0.106184,-0.883980,0.922015,0.360652,0.140777
0.307087,-0.583461,-0.820563,0.922973,-0.366786,-0.116571
0.265841,0.455410,-0.884807,0.041996,0.310894,0.949516
0.596103,-0.660712,-0.825231,0.352052,0.216523,-0.910592
0.160017,0.455489,-0.928603,0.015048,0.430588,0.902423
0.101986,0.465008,0.647321,0.810610,-0.578073,0.093502
0.263444,0.281786,-0.905302,-0.054957,0.061845,0.996572
-0.331106,0.583385,-0.407753,0.738993,0.331185,-0.586691
0.120659,-0.300997,-0.865370,0.115835,0.333668,0.935547
-0.221239,0.145836,-0.905501,-0.092374,-0.966761,0.238414
-0.207693,-0.204941,-0.910828,-0.287500,-0.067249,0.955417
0.086327,0.518587,-0.932718,-0.491731,0.651455,0.577760
-0.244078,0.460637,-0.934384,-0.088323,0.607506,0.789389
0.194368,0.675204,-0.925153,0.341837,0.361535,-0.867433
0.623518,0.064924,-0.887078,0.492641,-0.748567,-0.443793
-0.351207,0.312131,-0.984808,0.123976,0.172273,0.977216
-0.089996,0.481727,-0.950764,-0.812266,0.475006,0.338518
-0.337881,0.588846,-0.966094,0.060017,-0.997996,-0.020063
-0.428612,0.665993,0.352984,-0.171091,0.985160,0.013705
-0.063799,-0.068788,-0.918111,0.107684,0.787199,0.607224
-0.227672,0.148512,-0.940833,-0.077853,0.202482,0.976187
0.112685,0.049603,0.961758,0.726469,0.626214,-0.283018
0.425773,-0.639113,-0.813568,0.143305,-0.656514,0.740576
-0.096523,0.167610,-0.931937,0.169228,0.406926,0.897649
