0.091244,0.778161,0.542008,-0.194219,-0.344289,0.918555
-0.365520,0.510594,0.602581,-0.501990,-0.777922,-0.377945
-0.088305,0.152763,0.741953,0.975922,-0.090348,0.198530
0.099566,0.654570,0.529782,0.985506,0.164205,-0.042601
-0.187808,0.042331,-0.971869,-0.252491,0.018394,0.967424
0.219631,0.361984,0.529354,0.317895,0.827608,-0.462611
0.348999,0.684547,0.268735,0.161964,-0.831930,0.530716
-0.626704,-0.800054,0.207431,-0.425476,0.262879,-0.865947
-0.555472,0.499273,0.552217,0.956665,-0.138345,-0.256227
-0.732205,-0.798329,0.406720,0.225294,0.974253,0.008599
-0.354505,0.488701,0.160520,0.329091,-0.387871,-0.860962
-0.221099,-0.685304,0.551713,0.950063,0.111392,0.291499
-0.334067,0.414828,0.734516,0.550093,0.816104,-0.177123
0.070560,0.733401,0.531018,0.362945,0.742723,-0.562702
-0.590231,0.229659,0.186937,-0.640884,-0.340152,-0.688160
-0.552413,-0.415045,0.499206,0.554430,0.434373,0.709878
0.156601,-0.222326,-0.944796,-0.530370,-0.177142,-0.829053
-0.694021,-0.763924,0.211212,0.815848,-0.350127,0.460221
0.190624,-0.038987,0.762698,-0.638633,0.746668,-0.186104
0.221346,-0.344725,0.437801,0.206062,0.872129,0.443768
-0.809313,-0.011164,0.464470,0.778696,-0.303554,0.549079
0.437488,0.069398,0.326939,0.827939,0.532413,0.176221
-0.807232,0.414288,-0.512944,0.986646,0.117506,0.112793
0.258308,0.594822,0.415997,0.860084,-0.509804,0.018839
-0.569549,-0.550174,-0.259157,0.855065,-0.111395,0.506415
-0.678353,-0.047939,0.180888,-0.492762,-0.269645,-0.827331
-0.530749,-0.344837,-0.710620,0.373052,-0.895419,-0.243019
0.144361,0.222754,0.435734,0.900499,-0.427959,-0.077157
-0.756928,-0.130331,0.506213,0.766557,0.474732,0.432459
-0.043510,0.592341,0.483174,-0.527767,-0.519923,-0.671672
1.000000,-0.491077,0.214262,0.511682,0.056022,-0.857346
-0.723641,-0.710323,0.219228,-0.084023,-0.595261,0.799127
-0.056848,-0.646698,0.476141,-0.524552,-0.012170,0.851292
-0.457437,-0.389268,0.629124,-0.613631,0.457319,-0.643674
-0.511166,0.017522,0.408308,-0.674057,0.392845,0.625556
0.017809,0.439742,0.649038,0.214289,0.631827,-0.744899
0.379597,-0.500997,-0.946611,-0.158839,0.077527,0.984256
-0.242150,-0.191909,0.630007,0.263018,-0.547775,0.794206
-0.570894,0.594822,0.452598,0.971409,-0.011247,-0.237144
0.638701,0.052573,0.254594,0.217520,-0.133542,-0.966877
-0.306162,0.257588,0.585491,0.389210,0.487508,-0.781570
-0.529158,-0.093338,-0.266391,0.358886,0.754142,0.549974
0.100179,-0.646698,0.441834,0.785415,-0.584614,0.203345
0.105318,0.544244,0.431575,0.326736,0.742382,0.584904
0.181936,-0.786896,0.463084,0.903927,-0.000347,0.427687
-0.028088,0.203237,0.236621,0.832824,-0.441284,0.334173
0.219877,0.068858,0.610496,-0.023139,0.722976,0.690485
-0.369072,-0.230844,0.642787,0.288553,-0.676235,0.677823
0.387553,-0.540360,0.314789,-0.777329,-0.035168,0.628111
0.421823,0.498081,0.479847,-0.627502,-0.733664,0.260726
-0.425371,0.270101,0.471680,0.994458,0.066295,-0.081600
-0.119026,0.571962,0.426004,0.297093,0.689161,0.660903
-0.353161,0.374491,0.433944,-0.381617,0.851343,-0.359978
-0.414357,0.469613,0.611353,0.274716,0.156440,0.948714
-0.600147,-0.581881,0.216077,-0.617367,-0.048375,-0.785186
-0.177772,0.481263,0.316402,0.898003,0.414707,-0.147000
-0.034695,-0.158372,-0.172569,0.568035,0.821438,0.050760
0.262715,0.378914,0.784553,-0.151477,-0.444333,0.882963
-0.301022,0.299215,0.573971,-0.042896,0.531480,0.845984
-0.557552,0.350123,0.532479,0.916594,0.373126,-0.143641
0.090632,0.111459,0.951451,-0.072390,0.580186,0.811261
-0.464537,-0.148775,0.646694,0.428320,-0.859251,0.279697
0.071415,0.626312,-0.403695,0.932284,-0.016638,0.361344
-0.174836,-0.159234,-0.310428,0.503969,0.843732,-0.184746
-0.451195,0.023993,0.381160,0.857344,0.490099,0.157370
-0.521938,0.859907,0.193441,0.451552,0.342075,-0.824067
-0.629154,-0.397786,-0.612286,-0.358773,0.925616,-0.120488
-0.079860,0.092588,0.855007,0.398155,0.629145,-0.667569
-0.046080,-0.496468,-0.314310,-0.070258,0.610647,0.788780
-0.535889,0.355619,0.405863,0.757693,0.641535,-0.119722
0.313385,0.241086,0.718006,-0.323845,-0.534558,0.780623
0.153542,-0.032300,0.954803,-0.667836,-0.726278,-0.162837
0.084757,-0.177566,0.610572,0.981564,0.133708,0.136577
0.323664,0.538635,0.571601,0.422792,0.706032,0.568125
0.633196,-0.230086,0.361271,0.457516,-0.791130,0.405946
-0.111070,0.611969,0.223034,-0.817712,0.517564,0.251942
-0.442504,-0.798652,0.197197,-0.129529,-0.007024,0.991551
0.541768,0.143706,0.072597,-0.593383,-0.248954,0.765453
-0.689367,0.300294,-0.626629,-0.091556,-0.776709,0.623170
0.131389,-0.188242,0.780343,0.593751,0.623691,0.508399
-0.055627,0.219305,0.672632,0.373773,0.880032,0.292981
-0.457314,-0.261794,0.641300,0.960775,-0.205748,0.185956
-0.313139,-0.155785,0.639207,0.716369,-0.157912,0.679617
0.176916,0.108978,0.799299,0.687641,0.614456,-0.386774
-0.553761,0.192021,0.502231,-0.549572,-0.641468,-0.535247
-0.547639,0.262439,0.487056,0.657261,0.493386,0.569717
0.424516,-0.567966,0.349323,-0.375377,-0.492403,0.785259
-0.785445,-0.090534,0.507096,0.784074,0.079691,0.615529
-0.028824,-0.383660,0.593305,0.828817,-0.520022,-0.206495
-0.017805,0.162256,0.684606,0.117470,0.589428,0.799235
0.949942,-0.418389,0.213229,0.055204,0.618967,0.783474
0.340312,0.374603,0.789317,-0.346172,0.938140,-0.007666
0.186463,-0.186412,0.787981,0.750765,0.619967,-0.228019
-0.812006,-0.678945,0.260669,0.912944,0.347516,-0.213930
0.332233,0.699001,0.585087,-0.400298,-0.503269,0.765821
0.320239,0.873171,0.424365,-0.593415,0.759100,-0.267629
0.309225,0.319166,0.881778,-0.745703,0.576803,0.333504
0.224285,-0.497759,0.679211,-0.712809,-0.350898,-0.607267
-0.165412,0.363386,0.475713,-0.176958,0.408890,0.895263
0.166880,-0.249393,0.627990,-0.290957,0.911060,0.292085
0.296862,0.454730,0.559199,-0.145485,-0.863360,0.483160
-0.108990,-0.215856,0.566333,-0.437202,-0.863846,0.250248
0.259044,0.093127,0.446145,0.393703,0.801881,-0.449427
0.164800,0.714102,0.477578,-0.026862,0.999232,-0.028524
0.440916,-0.206469,0.377732,-0.472098,-0.790330,0.390515
-0.033840,0.469718,0.366439,-0.513799,0.824147,-0.238311
-0.693409,-0.429388,0.352272,-0.503865,0.693751,-0.514615
0.010708,0.658882,0.526606,0.326825,0.166194,-0.930358
0.337496,0.234727,0.790804,-0.142805,-0.550250,0.822698
0.595131,-0.046860,0.507071,0.502480,0.171217,-0.847466
0.184259,-0.683796,0.314184,-0.066118,-0.979993,0.187731
0.126982,-0.433699,0.344181,-0.066514,-0.409604,0.909835
0.211066,0.302236,0.771798,-0.236399,-0.288647,0.927792
-0.304447,0.116633,0.671674,0.761573,0.635441,-0.127367
-0.409583,0.222866,0.664037,0.326533,-0.270018,0.905796
0.059179,0.491723,0.448010,-0.136436,-0.577178,0.805140
0.423660,0.032734,0.763026,0.711764,0.020795,-0.702110
0.140447,0.374168,0.491870,-0.352882,0.142148,-0.924807
-0.221346,-0.479104,0.519725,-0.734510,-0.368925,0.569552
-0.222077,0.205389,0.607471,0.815361,0.315468,-0.485454
0.458542,0.246589,0.340173,0.125836,-0.652448,0.747313
0.306651,0.533027,0.086033,-0.038636,-0.818810,0.572763
-0.664156,0.039310,0.502407,-0.693561,0.459191,-0.555083
-0.596352,0.302131,0.513095,0.994957,-0.098084,-0.020968
-0.306162,-0.324346,0.599707,-0.406261,-0.281492,-0.869318
0.026131,-0.515340,0.545839,0.664450,-0.231890,0.710446
-0.178750,0.184254,0.108013,0.330079,-0.342602,0.879586
-0.626827,-0.803286,0.419601,0.948014,-0.308896,-0.076499
-0.047424,-0.258022,0.526959,0.962315,-0.062818,0.264581
0.206782,0.898296,0.484409,-0.794321,-0.508402,-0.332537
0.768682,-0.350333,0.200524,0.623906,-0.491307,0.607749
-0.214002,-0.081154,0.494870,-0.840539,0.531047,0.107157
0.277401,-0.055378,0.652970,-0.691850,0.713577,-0.110234
0.509579,-0.454190,0.367498,-0.371230,0.399843,0.838041
0.144974,0.085143,0.971642,0.607650,0.723430,0.327736
-0.675051,-0.580907,0.222681,0.385962,0.324148,0.863690
0.489995,0.029279,0.299740,0.837022,0.543848,-0.060198
0.186344,0.372984,0.567442,0.725449,0.533090,0.435360
-0.123430,-0.245509,0.531320,0.705259,0.631222,0.322752
0.139954,0.220167,0.606463,0.762183,0.634092,-0.130404
-0.071538,0.111782,0.837060,0.269615,-0.468894,0.841098
0.110338,0.168508,0.947342,-0.122274,0.984148,-0.128460
-0.247536,-0.064547,0.619092,0.618702,0.785034,-0.030503
0.092589,0.476728,0.563686,0.313885,-0.259875,0.913204
0.311305,0.167001,0.780293,-0.164084,-0.791652,0.588527
0.137631,0.338907,0.474881,-0.701716,0.555083,-0.446630
0.217184,0.388406,0.782158,-0.532129,-0.337340,0.776557
-0.750074,-0.556644,0.365758,0.943572,-0.017587,-0.330701
0.627320,0.148340,0.235210,-0.340297,0.507044,0.791899
0.201520,0.146293,0.615185,-0.646940,0.487435,0.586409
0.208374,-0.035966,0.628343,-0.407251,-0.911930,-0.050305
-0.094423,-0.180047,0.747725,0.694820,-0.650875,-0.305919
-0.319623,-0.340848,0.604396,0.369337,0.311313,0.875600
0.117681,-0.109623,0.457337,0.192738,-0.727534,0.658442
-0.220975,-0.598594,0.556250,-0.478756,0.780584,0.401846
-0.521449,0.405335,0.513801,0.894026,-0.314601,0.318972
0.455969,-0.662871,0.395301,-0.122471,-0.704438,0.699119
-0.177283,0.115231,0.640090,0.295655,-0.330751,0.896210
0.072640,-0.723159,0.257518,-0.641141,-0.761137,-0.098023
-0.052934,-0.258885,0.573164,0.180744,0.557167,0.810492
-0.622789,-0.299866,0.353129,0.359634,0.519119,0.775357
-0.306405,-0.056457,0.647299,0.207405,-0.767151,0.607011
0.384005,0.119977,0.604976,0.005355,0.216549,0.976257
0.446303,0.235912,0.630082,-0.603990,-0.250063,0.756746
-0.157087,0.178645,0.722417,-0.690073,-0.436310,0.577436
0.530753,-0.049447,0.566560,0.336651,0.940033,-0.054803
-0.255126,0.421943,0.706133,0.029840,-0.994132,-0.103978
-0.695000,0.314532,0.379395,0.442818,0.792358,0.419619
-0.239703,0.095392,0.803963,0.924530,-0.268591,0.270378
-0.767577,0.369962,0.330040,0.985223,-0.118494,0.123671
-0.087446,-0.540899,0.624864,0.988956,-0.084834,-0.121531
0.518879,0.273550,0.331804,0.216633,-0.706872,0.673352
-0.050977,0.579834,0.240554,-0.302103,0.378038,0.875112
-0.041549,0.156213,0.849865,0.872557,0.485895,0.050506
0.067378,0.073499,0.922966,0.223391,0.191109,0.955810
-0.417539,0.192344,0.571274,-0.494716,0.362069,0.790039
0.298329,0.576813,0.509843,0.196536,-0.039670,0.979694
-0.255491,0.146616,0.546923,-0.360068,0.701739,0.614747
0.256351,0.525800,0.565022,0.967912,0.022100,-0.250315
0.044369,0.477597,0.563207,-0.042556,-0.818621,0.572755
-0.565265,0.386142,0.169796,-0.535989,-0.434689,-0.723714
-0.670277,0.265895,0.572635,0.829816,-0.489673,0.267629
-0.103970,-0.098301,0.615714,-0.676779,0.603712,-0.421310
-0.614587,0.134103,0.577903,-0.058512,-0.711534,0.700211
0.612387,0.205712,0.639787,0.747383,0.204857,-0.632022
0.007773,-0.680992,0.467319,0.193901,0.289548,0.937317
0.359402,0.671178,0.602455,-0.587769,0.062804,0.806588
-0.640535,-0.345699,0.511381,-0.251736,0.732971,0.631967
-0.101524,-0.214236,0.739280,0.745187,-0.548783,-0.378858
-0.401993,-0.551253,0.372968,0.599292,0.410313,0.687381
-0.118903,0.608948,0.225530,-0.817712,0.517564,0.251942
-0.049385,-0.132812,0.571248,0.888322,0.267174,0.373500
0.205434,0.172175,0.986161,0.576529,0.815412,0.052122
-0.113517,-0.299327,-0.965642,0.475142,0.077893,-0.876455
0.309101,-0.042759,0.878954,-0.259294,0.111143,0.959382
0.201396,-0.408897,-0.962290,-0.031353,0.073411,0.996809
-0.427086,-0.817306,0.188349,0.026734,-0.162480,0.986350
0.206782,-0.402644,0.622520,0.891320,0.402125,0.209390
0.309344,0.145648,0.742658,0.738127,-0.659475,-0.142343
0.241418,0.092259,0.646114,0.980077,-0.154875,0.124346
-0.100056,-0.453222,0.493156,0.558823,0.183830,-0.808655
0.160762,0.597732,0.503995,-0.413847,0.487705,-0.768684
-0.574689,-0.320245,0.265660,0.857155,-0.249698,-0.450485
0.151462,0.014508,0.936855,-0.582479,0.421115,0.695256
0.575059,-0.345160,0.363187,-0.446045,0.136853,-0.884486
-0.072027,-0.769637,0.504953,0.941540,0.236803,-0.239639
0.585215,-0.084715,0.524615,0.563827,0.167803,-0.808667
0.267608,0.216606,0.616269,0.165458,-0.147188,0.975171
-0.182303,0.084715,0.866174,-0.529449,-0.788512,-0.312941
0.125757,0.239473,0.656449,0.299799,0.952002,-0.061742
0.432225,0.453762,0.574324,-0.069184,0.006016,0.997586
0.243009,-0.340414,-0.952484,-0.053534,-0.005598,0.998550
-0.600147,0.406198,0.470268,0.820794,-0.482520,-0.305731
0.194909,0.859256,0.487106,0.910769,-0.340740,-0.233229
0.324277,0.457639,0.565879,-0.091482,-0.651201,0.753371
-0.499909,0.297385,0.414257,0.400891,0.909851,-0.107039
0.314241,0.090323,0.622419,0.228481,-0.899752,0.371811
0.253168,0.885684,0.470848,0.771477,0.633084,-0.063466
0.062115,0.194068,0.930075,-0.512888,-0.031167,-0.857890
-0.124289,-0.056891,0.545234,-0.256234,-0.228340,0.939258
-0.617893,-0.029930,0.305135,0.138474,-0.977425,-0.159580
-0.401138,0.579617,-0.330771,-0.414205,0.212501,0.885030
-0.200048,-0.020116,0.548738,-0.461160,0.553409,0.693592
0.085246,0.037151,0.632099,0.409228,0.549519,0.728396
-0.085855,0.093127,0.121071,0.939671,-0.053870,0.337810
-0.795362,-0.859368,0.439490,0.216498,0.158553,0.963322
0.150849,-0.596981,0.476267,-0.045597,0.508251,0.860001
-0.095648,0.344620,0.654332,-0.564572,0.738613,0.368387
-0.272258,-0.169049,0.481485,-0.140703,0.767893,0.624934
-0.037758,-0.446100,0.571853,0.943083,-0.160176,-0.291441
0.135916,0.090323,0.924353,-0.586199,0.310639,-0.748247
-0.209837,0.750443,-0.317411,0.700281,0.134098,0.701159
0.402363,-0.379993,0.136044,-0.567564,-0.103270,0.816827
0.543972,0.358206,0.721283,-0.226010,-0.821194,0.523984
0.038124,-0.604637,-0.263845,-0.226791,-0.425165,0.876242
-0.402972,0.287248,0.445817,0.726181,0.573303,-0.379454
0.128573,0.733401,0.425071,-0.234013,0.571743,0.786351
-0.058440,-0.620165,0.437120,0.474470,0.776892,0.413905
-0.072270,-0.523752,0.601220,0.893588,-0.381100,-0.237198
0.198950,-0.191264,0.774546,0.682234,0.541384,0.491386
0.151704,0.179725,0.875526,-0.424044,0.859899,0.284184
0.818617,-0.345805,0.197676,0.017675,-0.386323,0.922194
0.479594,-0.372556,0.353936,0.358079,0.319310,0.877394
-0.782144,0.383015,0.380353,0.892095,0.211643,-0.399216
-0.201150,-0.175302,0.472713,0.559572,-0.024261,0.828427
0.625606,0.049769,-0.126415,-0.307103,-0.951578,0.013650
-0.131020,0.102935,0.837740,0.457916,0.794831,-0.398191
-0.181933,0.167864,0.775730,0.756056,0.001550,0.654505
0.337129,-0.543269,0.276549,0.953006,-0.298933,-0.049186
0.451688,-0.072959,0.714199,0.031584,0.591627,0.805593
-0.055014,-0.769854,0.488669,0.943030,0.329787,0.043989
-0.547397,0.258128,0.519725,0.906979,0.421148,-0.004937
-0.410072,-0.458396,-0.283683,-0.832377,0.548806,-0.077205
-0.335169,0.399510,0.158504,0.256415,0.600884,-0.757093
-0.787526,-0.088704,0.511961,0.229347,0.196727,0.953257
-0.618016,0.613806,0.365178,-0.595830,0.765251,0.243673
0.064318,-0.556000,0.470570,0.630234,0.537981,0.559805
-0.543844,0.060769,0.370724,-0.504268,-0.800514,0.323869
-0.454131,-0.348609,0.357188,0.648574,-0.248383,-0.719484
0.193564,-0.360148,0.555544,0.613341,-0.456015,0.644875
0.003122,-0.650147,0.518893,0.150983,-0.862208,0.483530
0.176307,0.531947,0.341484,0.488946,-0.661836,0.568247
0.219512,0.851923,0.460361,-0.529903,0.434522,-0.728281
0.554251,-0.527097,0.384311,0.144103,0.697898,0.701550
-0.497216,0.527313,0.516246,-0.284423,0.924806,-0.252660
-0.102868,0.131088,0.582566,-0.121486,-0.616771,0.777711
0.255002,-0.643242,0.482972,-0.173953,0.319890,0.931349
-0.409217,0.412458,0.245696,0.572744,-0.819717,0.005387
-0.467720,-0.295226,0.604522,0.766722,0.622745,0.155969
-0.196989,0.649173,0.169116,0.311207,-0.020135,0.950129
0.348877,0.784737,0.470545,0.809327,-0.536362,0.239387
-0.544214,-0.364354,0.486779,-0.286353,-0.296629,-0.911051
-0.630865,-0.377947,0.357616,0.015694,-0.277503,0.960597
-0.334433,0.218008,0.654206,0.557288,-0.474486,0.681391
-0.829874,-0.139177,0.490963,-0.696893,-0.412373,-0.586761
-0.158312,0.800699,0.229387,0.245474,0.952603,0.179696
0.466987,0.051928,0.302362,0.770054,0.622957,0.137626
0.408727,-0.132378,0.545310,-0.731821,0.664985,0.149105
-0.705036,0.162466,0.268382,-0.660176,0.736906,-0.145388
-0.399789,0.299544,0.425172,0.426747,-0.868409,-0.252493
-0.286089,-0.260932,0.489350,0.367292,0.517242,0.773018
0.081085,-0.080292,0.743364,0.349556,0.918557,0.184564
-0.110701,0.602912,0.661264,0.162885,0.117994,0.979564
-0.609324,0.322404,0.489930,0.989461,-0.144676,0.005940
0.373233,0.289190,0.348769,0.153063,0.504585,-0.849686
-0.394773,0.114691,0.536210,0.240972,0.964798,-0.105341
-0.733307,-0.053548,0.310428,0.117520,0.681793,0.722043
0.306162,0.588352,0.570669,-0.812906,0.023953,0.581902
0.032861,0.629762,0.522296,0.027882,-0.458760,0.888123
-0.712746,-0.043194,0.201885,-0.301163,0.299732,0.905241
0.789244,0.004798,0.094729,-0.449605,0.140101,0.882172
-0.805152,-0.375465,0.289481,-0.273440,0.901782,0.334694
0.173002,0.003502,0.778377,-0.480857,-0.374938,0.792589
-0.197844,0.064652,0.797938,-0.657483,0.176179,-0.732582
0.214738,-0.308061,0.792745,-0.781995,-0.164420,-0.601207
-0.686432,-0.907577,0.177560,-0.500457,0.757683,0.418879
-0.054648,0.268482,0.586373,-0.020266,0.808744,0.587811
-0.157210,0.065837,0.865645,-0.685512,-0.714402,-0.140372
-0.637476,-0.895821,0.182173,-0.041145,-0.603322,0.796435
0.063093,-0.899592,0.543092,0.860851,0.448422,0.240526
-0.122451,0.255218,0.533942,0.858406,0.257161,-0.443855
0.408115,-0.264815,-0.057952,0.044536,-0.934034,0.354398
0.176185,0.841141,0.519170,-0.832311,0.516928,-0.200108
-0.648980,0.312267,0.401452,0.316576,-0.837508,0.445377
-0.244230,0.730926,-0.312218,0.656853,0.055405,0.751980
-0.388898,0.045998,0.578559,-0.627311,-0.497220,-0.599377
0.050734,0.222431,0.762446,0.184197,0.564128,0.804879
-0.145706,0.560745,0.320284,0.837416,0.521387,-0.163985
-0.315709,-0.187598,0.605858,0.371350,-0.927124,0.050398
-0.425494,0.344297,0.212372,0.022097,-0.999745,0.004618
-0.072027,0.401669,0.404704,0.643554,0.635523,0.426554
-0.085978,-0.427663,0.548587,-0.172902,-0.886808,0.428575
0.624751,-0.087730,0.562577,-0.467379,-0.868858,-0.163229
0.089653,-0.217468,0.648736,0.064710,0.969743,-0.235395
-0.338351,0.344942,0.715863,-0.752954,-0.656918,-0.038980
-0.639799,0.537121,0.426710,-0.648204,0.545975,-0.530794
-0.458416,0.551471,0.487737,0.723760,-0.593742,0.351628
-0.278500,-0.415150,0.307605,-0.290695,0.910182,0.295068
0.084514,0.767912,0.521161,0.635853,-0.737580,-0.227302
0.226978,0.757348,0.285574,-0.331439,-0.831781,0.445295
-0.668929,-0.728445,0.216581,0.784643,-0.618172,0.046896
-0.040451,0.695335,0.357188,0.796710,0.212476,-0.565780
0.276789,0.028956,0.659474,0.860571,0.172047,-0.479393
0.445933,0.238394,0.618411,-0.734287,-0.268758,0.623371
0.136040,-0.349471,0.653727,0.794170,0.581646,0.176018
-0.233581,-0.026369,0.618941,-0.819849,0.142347,-0.554603
0.243988,-0.228145,0.518238,-0.360718,0.017535,0.932510
0.142770,0.023453,0.713292,0.309932,-0.196847,0.930158
0.147054,-0.258562,0.659474,-0.275891,0.076538,0.958137
-0.668929,-0.429493,0.495879,0.317000,0.946574,0.059232
0.213147,0.163440,0.955559,0.966213,-0.254356,-0.041652
0.065420,-0.241303,0.581785,0.755685,-0.531989,-0.382005
-0.489873,0.305902,0.400544,0.415974,0.825562,-0.381329
-0.576769,0.450418,0.523380,0.925877,-0.288212,0.244304
0.134325,0.045675,0.818608,-0.061853,-0.150101,0.986734
0.038617,0.536910,0.361549,0.378100,-0.000877,-0.925764
0.393918,0.134754,0.602732,0.009988,0.254965,0.966899
0.696102,-0.383443,0.185173,-0.603606,-0.255358,0.755283
0.375437,0.614451,0.586978,0.862374,-0.155533,-0.481788
-0.757910,-0.664168,0.240301,0.886183,-0.090011,0.454508
-0.650448,-0.465084,0.200877,0.116456,0.717710,0.686535
-0.339576,0.712048,-0.314235,0.160680,-0.037932,0.986277
-0.827058,0.237637,0.310327,-0.552017,0.123417,0.824649
-0.238601,0.005983,0.802047,-0.768382,0.273189,-0.578754
0.649839,-0.077165,0.516523,-0.197484,-0.447244,0.872337
0.186463,-0.222109,0.618260,0.138527,0.919754,-0.367238
0.146688,-0.331679,-0.703436,0.612237,0.776299,-0.150083
-0.309221,-0.245944,0.590709,-0.079798,0.865271,0.494913
0.278380,0.106496,0.618084,0.817440,0.107356,0.565921
0.396857,0.290697,0.706587,-0.268032,-0.855244,0.443527
0.096507,0.182634,0.789620,0.522143,-0.802598,0.288451
-0.137507,-0.301157,0.574979,-0.121527,-0.174841,0.977068
-0.770759,0.034136,0.469461,0.323568,0.048708,0.944950
-0.818247,0.152329,0.300522,0.476274,-0.181229,0.860418
-0.109110,-0.068430,0.473494,0.559017,0.803331,-0.205329
0.112296,0.839634,0.539386,-0.099036,-0.475493,0.874127
-0.676395,-0.721652,0.225404,0.403044,-0.060517,-0.913178
-0.517901,0.195792,0.478233,-0.704838,0.687089,0.176385
0.228689,0.538635,0.414661,0.876965,-0.429309,-0.215929
-0.664402,-0.241843,0.477527,-0.246253,0.830436,0.499735
0.304205,0.616176,0.590709,-0.049917,0.187132,0.981066
0.227957,0.195470,0.608858,-0.589764,0.797670,0.126097
-0.272135,0.252954,0.573542,0.104913,0.388056,0.915645
0.560492,0.065949,0.511860,-0.227577,-0.072135,-0.971085
0.173245,0.306982,0.772680,-0.068339,-0.183579,0.980627
-0.139954,0.766510,0.355953,0.993634,-0.040194,-0.105246
0.725598,0.119760,0.498878,0.253756,0.485355,0.836683
-0.315586,-0.624048,0.412568,-0.636415,-0.349291,0.687729
-0.009360,-0.045135,0.671271,-0.096556,0.265109,0.959372
-0.370294,0.511457,0.488190,0.918807,-0.261128,0.295984
-0.028335,-0.270423,0.353558,0.147627,0.151903,-0.977308
0.224038,0.392717,0.446724,0.367490,0.692489,0.620814
0.007896,-0.655650,0.498929,-0.007214,0.205453,0.978640
-0.644206,-0.811159,0.427617,0.305479,0.580354,0.754899
-0.405052,-0.088487,0.685539,0.056429,0.784672,-0.617337
0.831223,-0.304072,0.235159,-0.476695,-0.673933,0.564426
-0.488158,0.396061,0.654987,-0.707811,-0.574566,0.410946
0.089653,0.215316,0.589549,0.093580,0.561554,0.822131
-0.049385,0.750008,0.438834,0.796577,-0.457878,0.394732
0.322073,0.375682,0.778402,-0.226868,0.897540,-0.378090
0.139954,0.665998,0.515515,0.813693,0.004842,0.581275
0.287315,0.140145,0.681379,0.944247,-0.326826,0.039768
0.666483,0.045675,0.111038,-0.457550,-0.089552,0.884663
0.428800,-0.493230,0.354289,0.497275,0.203309,-0.843435
0.577871,-0.283470,-0.154773,0.105231,-0.980940,0.163348
-0.464657,0.550819,0.622520,0.724669,0.372140,0.579972
-0.254024,-0.399300,0.559477,-0.731436,0.578384,-0.361212
-0.275441,0.452248,0.169393,0.580515,-0.094670,-0.808727
0.277891,0.086222,0.587180,0.970030,0.194214,-0.146020
0.320482,0.438228,0.543520,-0.601654,-0.342129,0.721776
0.737595,-0.094852,0.545663,-0.376330,0.909363,0.177299
-0.713604,0.051066,0.465731,0.327098,-0.599939,0.730123
-0.435407,0.312373,0.444657,0.726181,0.573303,-0.379454
-0.678965,-0.553623,0.337854,-0.475765,0.237783,-0.846822
-0.536990,0.495712,0.519750,-0.729876,0.305876,-0.611327
-0.097729,-0.490215,0.407174,0.429816,0.902615,-0.023348
-0.513617,-0.399622,0.354844,-0.253017,0.312924,0.915457
0.239460,-0.323161,0.667893,0.688669,-0.037189,-0.724122
-0.537361,0.296200,0.176199,-0.114353,-0.731716,-0.671949
0.351080,0.154922,0.465075,0.108841,-0.605809,0.788130
-0.691941,0.168186,0.291220,0.821208,0.025874,0.570043
-0.706628,-0.898513,0.174586,-0.591648,0.075210,0.802681
0.375560,-0.084064,0.730055,0.774677,0.465831,-0.427641
-0.589741,-0.200321,0.427869,0.812790,0.518726,0.265135
0.386941,0.646369,0.587835,0.018244,0.284140,0.958609
-0.608103,-0.493342,0.383101,0.092421,0.884285,0.457710
0.352548,0.675167,0.241536,-0.581716,0.774329,-0.249039
-0.648614,0.522028,0.398931,-0.194258,0.900260,0.389610
-0.233339,0.428203,0.606866,-0.234510,-0.853918,0.464574
-0.380819,-0.351525,0.453656,0.405734,0.576283,0.709421
-0.313382,0.000165,0.813768,0.191718,0.977561,-0.087289
0.145829,-0.184359,0.594918,0.785563,0.098640,0.610869
0.433697,-0.123966,0.360540,-0.391873,-0.471198,-0.790195
-0.221835,0.567539,0.687454,0.427356,-0.770036,-0.473721
-0.019643,-0.239684,0.510801,0.028056,0.865441,0.500224
0.235053,0.904661,0.463336,0.896088,0.438569,0.068432
-0.079371,-0.037691,0.642308,-0.610642,0.500986,-0.613294
0.610430,-0.148880,0.348340,0.670691,-0.175173,-0.720755
0.287804,0.229007,0.706965,0.105354,-0.882420,0.458515
0.451566,0.536476,0.559628,0.281642,0.655626,0.700594
-0.243498,0.301157,0.554738,-0.871193,0.029551,-0.490051
0.190505,-0.311188,-0.957475,0.060792,-0.035898,0.997505
0.063829,0.779451,0.469864,-0.383605,0.299862,-0.873458
0.410442,0.648962,0.598245,-0.556043,-0.275407,0.784199
0.100911,-0.293936,0.645484,0.792026,0.452778,-0.409496
-0.012300,0.046426,0.717703,0.103234,-0.552449,0.827130
0.040085,-0.226203,0.718535,-0.367727,0.928202,-0.056736
0.806866,-0.084175,0.267752,-0.615203,0.231459,0.753626
-0.485465,-0.486760,0.388697,0.106150,0.639124,0.761743
0.137384,0.097656,0.803887,-0.256457,-0.936873,0.237694
-0.532217,-0.582204,0.507398,0.252417,0.222549,0.941678
-0.699403,0.236669,0.312520,-0.216534,0.944663,0.246424
-0.009117,0.156324,0.580197,-0.273191,0.923360,0.269764
-0.206166,0.464544,0.357238,0.244755,-0.513274,0.822585
0.043999,-0.213914,0.318696,0.360022,-0.919873,-0.155621
-0.277768,-0.820756,0.191324,-0.311233,-0.062362,-0.948285
-0.095159,0.525260,0.644955,0.570546,-0.570857,-0.590423
-0.017686,0.467243,0.241738,0.454432,-0.315144,-0.833172
0.207148,-0.293284,0.615689,0.786164,0.254479,-0.563194
0.449851,0.078133,0.661516,-0.126230,0.862066,0.490824
-0.136036,0.253816,0.658693,-0.571655,0.524401,0.631042
0.306408,0.217258,0.688563,-0.363250,0.928891,0.072191
-0.282295,-0.266540,0.351516,0.063130,0.384768,0.920852
-0.021481,-0.453440,0.589625,0.911344,0.273002,0.308096
-0.466618,-0.437155,0.222026,-0.473378,0.857450,0.201726
-0.637842,0.279264,0.347256,-0.162128,-0.853195,0.495754
-0.582768,-0.644216,0.374278,0.542433,0.212050,0.812897
-0.058809,0.568506,0.492652,-0.280904,0.949878,0.137201
0.204945,0.115988,0.949787,0.968714,0.215441,0.123197
0.380576,-0.412129,0.354768,-0.789263,-0.225717,0.571065
0.623525,-0.142087,-0.227042,0.036688,-0.900187,0.433955
0.139954,0.152981,0.406443,0.999109,0.038472,-0.017346
0.619118,-0.020438,0.558645,-0.482889,-0.816476,-0.316521
-0.086101,-0.098735,-0.110030,0.828434,0.460762,-0.318426
0.227710,-0.330382,0.664263,-0.086556,-0.168742,0.981852
0.213879,0.289940,0.799929,0.185528,0.610761,0.769773
0.366868,-0.255324,0.352171,-0.236449,0.025285,-0.971315
-0.126859,0.128929,-0.321141,0.915042,0.252159,-0.314823
-0.720578,-0.056240,0.201255,0.570332,0.189470,0.799263
0.334926,0.205607,0.713569,-0.266503,-0.688095,0.674909
-0.101400,-0.076303,0.662373,-0.444457,0.712827,0.542527
-0.322193,-0.117285,0.642182,-0.610991,0.509318,-0.606040
-0.587661,0.364354,0.167099,-0.535989,-0.434689,-0.723714
-0.483138,-0.254567,0.201961,0.028994,-0.241989,0.969846
0.277279,-0.205607,-0.148748,0.096536,0.940889,-0.324667
0.248884,0.190724,0.526430,0.609208,0.471799,-0.637395
-0.075823,-0.066054,-0.644930,0.138026,0.985059,-0.102995
-0.013768,0.047828,0.573668,0.215695,-0.503517,0.836628
-0.601126,-0.680130,0.170099,0.329080,0.934629,-0.134814
-0.082553,0.456566,0.252955,-0.347501,0.357771,0.866742
-0.414969,0.128389,0.547402,0.105942,0.975588,-0.192363
-0.614957,0.404691,0.388168,0.890253,0.107158,-0.442681
0.191849,-0.014395,0.713947,0.493496,0.460364,0.737921
0.029436,-0.253165,-0.310806,0.911739,0.297242,0.283511
0.142404,0.112216,0.915152,0.877993,0.227633,0.421083
-0.106786,0.447397,0.160646,-0.297639,-0.684611,-0.665371
0.046203,0.755511,0.476242,0.234022,0.431684,-0.871139
0.136529,0.116850,0.851554,0.878897,0.405166,0.251755
-0.053670,-0.083958,0.726526,-0.015455,0.239732,0.970716
0.117069,-0.498838,0.349298,0.285168,0.259984,-0.922544
-0.008628,0.157398,0.564669,-0.234929,0.897463,0.373321
-0.444219,-0.665570,0.395226,0.285300,-0.084745,0.954684
-0.233581,0.937013,0.220337,0.592234,0.461823,-0.660287
-0.433080,0.237097,0.307000,0.940588,-0.072013,-0.331825
0.190994,-0.008143,0.770134,-0.377475,-0.729163,0.570820
0.205068,-0.194173,0.769832,0.847892,0.356054,0.392816
0.286336,-0.414288,0.648484,0.946761,0.294890,0.129165
-0.680803,-0.711725,0.222732,-0.573889,0.817881,0.041493
-0.074721,0.297168,0.577500,0.328545,0.321997,0.887905
-0.248515,-0.245081,0.583802,-0.206104,-0.926502,0.314825
0.188424,-0.230409,0.355827,0.869386,-0.233012,-0.435746
0.440427,-0.032194,0.217993,0.326942,0.308001,-0.893445
0.599905,-0.317013,0.356129,-0.352188,0.162068,-0.921790
0.209718,0.094852,0.699629,-0.735227,-0.441907,0.513964
0.053057,-0.081694,0.710973,-0.294032,0.583153,-0.757284
0.199682,-0.062822,0.630360,-0.555279,-0.398771,-0.729827
-0.234075,-0.053548,0.811953,-0.125191,-0.992077,-0.010541
0.634783,0.476623,0.388546,-0.532607,0.782124,0.323437
0.179979,0.446212,0.563585,-0.070946,0.941230,0.330231
-0.814209,-0.872526,0.440271,-0.072979,0.754214,0.652560
0.293556,0.711185,0.585692,-0.581193,-0.050757,0.812182
0.079494,0.159557,0.568098,-0.549568,-0.640034,-0.536965
-0.206536,-0.476300,0.174359,0.170609,-0.019338,0.985149
0.200051,-0.253382,0.646013,0.971662,-0.082603,0.221472
-0.046812,0.387866,0.479569,0.881043,0.451185,-0.142113
0.036780,0.033485,0.701142,0.866164,0.329381,-0.375856
-0.167616,0.025184,0.636283,0.617527,-0.543902,-0.568183
0.611043,-0.513721,0.380555,-0.118858,-0.815379,-0.566594
-0.174223,0.362846,0.316251,-0.488046,0.793268,-0.364055
0.155746,0.498516,0.547024,0.684500,-0.710417,-0.163609
-0.369681,0.044378,-0.723879,0.668576,0.743578,0.009931
-0.423903,0.276999,0.246830,-0.242364,0.950914,0.192410
-0.121719,0.135294,0.604043,0.181518,0.899658,-0.397074
0.307021,-0.045998,0.870460,0.485274,0.868579,0.100399
-0.399913,0.174545,0.577853,-0.283009,0.798502,-0.531319
-0.121596,0.410726,0.228580,0.831944,0.432039,-0.348154
-0.161251,0.288216,0.680321,0.995156,-0.063923,0.074690
-0.092832,0.052791,0.695974,0.938684,0.326846,0.109741
-0.417904,-0.626417,0.484686,-0.589179,0.122467,-0.798668
-0.151947,-0.306877,0.344257,0.436999,0.864985,0.246642
0.059055,-0.252197,0.616344,0.642079,0.633614,-0.431587
0.162477,-0.052251,0.714325,0.520969,0.672365,-0.525849
0.387677,0.619302,0.592448,0.227281,-0.146231,-0.962788
0.459151,0.240875,0.622495,-0.723707,-0.226260,0.651962
-0.812252,-0.584146,0.222455,0.594179,0.337857,0.729934
0.244111,0.868642,0.427491,-0.201125,-0.360972,0.910631
-0.611651,0.449556,0.414408,0.571765,0.345679,-0.744037
0.195887,0.325748,0.751078,0.445759,-0.842239,0.303202
-0.298083,-0.612404,0.505281,-0.070148,-0.817623,0.571465
-0.683615,-0.175084,0.490106,0.310597,0.132068,0.941322
-0.287315,0.351953,0.649921,0.846314,0.507068,0.163198
-0.057584,0.193423,0.779385,-0.080551,0.934307,0.347248
-0.578973,0.301808,0.290993,0.138211,-0.287214,0.947843
-0.207148,-0.272043,0.574475,0.698074,-0.698711,0.156511
0.697080,-0.231061,0.348945,-0.292059,-0.008216,0.956365
0.286336,-0.001672,0.881450,-0.206029,-0.203469,0.957159
-0.233828,0.623831,0.174334,-0.278087,-0.138460,-0.950524
-0.179486,0.201723,0.868972,-0.556926,0.829072,0.049730
0.244477,-0.140902,0.760253,-0.474139,-0.850678,-0.227022
-0.170186,0.222866,0.151395,-0.206040,-0.876320,0.435443
0.110947,-0.104232,0.614958,0.768785,-0.111362,-0.629736
-0.460007,-0.548555,0.393033,-0.590998,-0.582092,-0.558471
-0.254143,-0.632138,0.559502,-0.478819,0.632593,0.608736
0.042898,-0.656295,0.503743,0.004100,0.782784,0.622280
-0.156108,-0.049769,0.558014,-0.097998,-0.107976,0.989312
-0.368090,-0.351525,0.621714,0.658525,0.498967,0.563362
-0.104336,0.026474,0.569484,0.749449,0.576519,-0.325502
0.246314,0.197629,0.764437,0.233241,-0.370688,0.898993
-0.110458,-0.211860,-0.782788,0.408213,0.906953,0.103916
-0.640535,0.269344,0.555544,0.761627,-0.021538,0.647658
-0.276908,-0.032945,0.652290,-0.270961,0.170085,-0.947444
0.070313,-0.387004,0.490308,0.620486,-0.137317,0.772102
-0.527567,0.293936,-0.262181,0.004621,-0.941247,0.337687
0.072027,-0.699107,0.505155,-0.015519,0.493729,0.869477
0.153053,0.710001,0.473494,-0.213780,0.751089,-0.624630
0.282418,0.076731,0.825313,-0.738674,0.501555,0.450336
0.220733,-0.614774,0.479796,-0.167977,0.480835,0.860570
0.148645,0.088270,0.935545,-0.696515,0.116635,0.707999
-0.478977,0.355296,0.559048,0.486062,-0.319291,-0.813509
0.123800,0.894307,0.553780,-0.508550,-0.387413,0.768952
0.103727,-0.240658,0.611404,0.316210,-0.740246,0.593335
0.220490,0.524615,0.538479,0.702726,0.388736,-0.595870
-0.784343,-0.708171,0.222984,0.097954,-0.054142,0.993717
0.200171,0.208516,0.669456,0.506101,0.543595,-0.669602
-0.557309,-0.452248,0.283986,0.206295,0.718900,0.663796
0.630745,-0.209813,0.366943,-0.688018,0.450360,0.569040
0.140447,-0.175841,0.683421,-0.532806,-0.846089,-0.015870
-0.145217,-0.021406,0.768319,0.816196,-0.315348,0.484128
0.276546,0.131193,0.748254,-0.115548,-0.984898,-0.128938
-0.389634,-0.572067,0.501575,0.840416,-0.539641,0.049883
-0.637229,0.209708,0.588238,-0.148724,0.407795,0.900880
-0.204085,0.159991,0.694764,-0.699667,-0.713252,-0.041686
0.300167,-0.265032,0.708805,-0.828174,-0.111989,0.549169
-0.662445,0.235695,0.285347,-0.611525,0.373968,-0.697270
0.302490,0.542624,0.467041,0.677412,0.704194,-0.212660
-0.484610,-0.244002,0.599456,0.878938,-0.278639,0.387076
0.352795,0.505848,0.576088,-0.573878,-0.113312,0.811064
-0.020622,0.241843,0.740692,-0.400721,0.637098,0.658429
0.299189,-0.049881,0.851529,0.971513,0.211392,-0.107125
-0.373476,-0.246694,0.604245,0.708478,0.282309,-0.646808
-0.036410,0.157615,0.847344,0.139315,0.178936,0.973947
-0.223545,-0.403394,0.520203,-0.064139,0.080668,0.994675
0.100668,-0.238071,0.486627,0.038597,-0.977008,0.209681
0.345328,0.584686,0.583625,-0.155739,-0.536042,0.829702
-0.530017,-0.750548,0.203196,0.302831,0.323787,-0.896357
0.275934,0.384305,0.801618,-0.609081,-0.682898,0.403324
-0.795116,-0.645184,0.241133,0.788130,0.563800,0.246941
-0.036287,-0.393474,0.574551,0.786130,0.543382,-0.294511
-0.768189,-0.058721,0.504399,0.891082,0.094224,0.443954
0.215350,0.661686,0.252527,0.031878,-0.969912,0.241360
-0.046446,0.238716,0.626377,-0.305467,0.272716,0.912314
-0.068356,0.107793,0.853999,0.968431,-0.248382,0.021178
-0.134691,-0.147695,-0.431020,0.120126,0.988641,-0.090325
0.314607,0.259852,0.781654,0.572996,0.275138,-0.771994
0.317912,0.591044,0.597212,-0.141454,-0.529655,0.836335
-0.057218,0.222754,0.591641,0.670625,0.611112,0.420481
0.050364,0.126987,0.623528,0.851129,0.452593,0.265968
-0.250229,-0.372661,0.507928,-0.199505,-0.653028,0.730583
-0.033597,0.310971,0.581709,0.306660,-0.010053,0.951766
-0.466984,0.479210,0.606992,-0.665482,0.246665,-0.704478
-0.502109,0.401887,0.512566,0.946995,-0.203297,0.248740
0.110458,0.242705,0.610622,0.290779,0.479022,0.828243
-0.245455,0.268699,0.734668,0.791149,0.571201,0.218659
-0.652898,0.254244,0.333468,0.713265,-0.117259,-0.691016
0.160026,0.374708,0.450556,0.371175,0.898915,0.232768
-0.308119,-0.257588,-0.538504,-0.331829,0.861035,0.385369
0.256104,0.409759,0.793703,-0.637161,-0.330925,0.696071
-0.580807,-0.069181,0.479569,0.472326,-0.852686,-0.223237
-0.342512,0.090857,-0.151093,-0.600924,-0.763603,0.236223
-0.108867,-0.357995,0.490106,0.834336,0.245850,-0.493397
-0.134078,0.378697,0.610370,0.534123,0.706498,-0.464299
-0.064315,0.601293,-0.220589,-0.550171,0.593697,0.587227
-0.528545,-0.777187,0.182652,-0.768637,-0.476854,-0.426388
-0.374577,0.147583,0.549343,0.148961,0.988242,-0.034476
0.120864,-0.913613,0.517027,0.786408,0.578387,0.216864
0.357079,-0.113829,0.731970,-0.342424,-0.734618,0.585733
-0.237989,0.011486,0.536437,-0.269981,-0.358065,0.893812
-0.040205,-0.357883,-0.963399,0.320977,0.049501,-0.945792
-0.212777,-0.280343,0.497946,0.065813,0.424934,0.902829
-0.115721,0.101000,0.740440,0.881928,-0.471238,0.011753
0.302980,0.652089,0.463411,0.983105,-0.173365,0.058723
-0.472370,-0.773521,0.387563,-0.075317,0.733775,0.675205
0.018545,0.061960,0.944140,0.772661,0.418185,-0.477615
-0.519122,-0.629117,0.198760,-0.486764,-0.101996,-0.867558
-0.383146,0.453005,0.594540,0.884838,0.263535,-0.384203
0.593783,-0.065837,0.590709,0.596856,0.708735,-0.376108
0.096507,0.250900,0.815659,0.253618,0.899118,-0.356742
-0.059788,0.090106,0.726979,0.536099,0.249571,0.806419
-0.132122,0.204310,0.771420,0.074344,0.963965,0.255430
-0.344715,0.393369,0.458042,-0.447352,0.342191,-0.826306
-0.648857,-0.046426,0.291598,0.306355,0.945569,0.109756
0.207395,0.534857,0.437826,-0.652882,0.684838,-0.323638
-0.319746,-0.345805,0.608959,-0.422841,-0.336202,-0.841531
-0.774430,-0.451926,0.312067,-0.544729,0.661805,0.515057
-0.308608,0.413860,0.161503,0.634169,0.127550,-0.762601
0.542623,0.000270,0.550831,-0.046083,0.986531,0.156950
-0.277398,-0.101862,0.627184,0.826773,-0.164762,0.537866
0.216941,0.166567,0.537622,0.547633,0.757773,0.354794
0.513493,0.022920,0.225479,0.457816,0.262514,-0.849406
-0.209595,0.263953,0.226488,-0.378171,-0.805406,-0.456408
0.020255,-0.001889,0.758186,-0.557642,0.581284,0.592574
0.218163,-0.241086,0.791661,-0.530655,-0.356600,-0.768922
-0.220856,0.333081,0.731870,0.653659,0.748008,-0.114951
-0.278870,-0.368889,0.605909,0.419494,0.250836,0.872414
0.521206,-0.684981,0.427441,-0.102145,0.501061,0.859363
-0.167736,-0.467671,0.522876,-0.602895,-0.368682,0.707525
-0.612753,-0.044161,0.279978,0.084157,0.915776,0.392775
-0.221711,0.242488,0.812911,-0.522808,-0.734618,-0.432445
0.478002,-0.058399,0.384916,-0.695405,-0.718298,-0.021447
0.333458,-0.109083,0.300774,-0.494207,0.791997,0.358470
-0.017073,0.020978,0.742079,-0.522202,0.850838,-0.058141
-0.569303,0.495929,0.429130,0.848875,0.435507,0.299576
-0.483751,-0.187163,0.289204,0.503857,0.414226,-0.757987
0.048896,-0.844808,0.432835,0.125243,0.902669,0.411707
-0.131998,-0.275492,0.774848,0.634314,-0.721464,-0.277733
0.037269,0.692853,-0.376875,0.863104,0.321102,0.389801
0.086837,0.749146,0.434070,0.436606,-0.898908,-0.036596
-0.423533,0.224913,0.402662,0.910890,0.098301,-0.400769
0.199193,-0.614451,0.481334,-0.008096,0.486776,0.873489
-0.692060,-0.644322,0.414913,-0.262068,0.647000,0.716039
-0.126735,-0.122781,0.620428,-0.562723,0.773626,-0.291283
0.449238,0.290592,0.671876,-0.146284,0.988785,-0.030082
0.001531,0.381830,0.519926,-0.392816,0.756336,-0.523117
0.237134,0.121056,0.502710,0.768435,0.591972,-0.243057
-0.657671,-0.724456,0.420257,0.210146,-0.293528,0.932566
0.120984,0.109735,0.893070,0.672888,0.719328,-0.172598
-0.335658,0.743110,-0.318394,0.473564,-0.198218,0.858165
-0.421087,0.352927,0.463411,0.935503,-0.270300,0.227533
0.004956,-0.454302,0.549822,0.458915,-0.442782,0.770286
0.188424,-0.215961,0.425046,0.997517,-0.069872,-0.008823
-0.141911,0.250038,0.616823,-0.765427,-0.513639,-0.387680
0.103115,0.089454,0.760934,-0.527444,0.212043,0.822703
-0.895231,-0.648745,0.404956,0.049049,0.983570,0.173736
-0.367601,0.096359,-0.035568,0.516223,0.846699,-0.128899
-0.415458,0.452248,0.461218,0.408906,-0.480923,0.775570
-0.501253,0.260504,0.548839,0.773155,0.594519,0.220858
-0.067743,0.182746,0.861334,-0.382403,-0.859845,-0.338282
0.273607,0.041897,0.859872,0.348222,0.934290,0.076449
-0.060643,-0.099381,-0.857604,-0.718544,-0.695389,-0.011390
-0.772473,-0.231923,0.492526,0.286839,0.920583,0.265048
-0.509945,-0.563978,0.477931,-0.171748,-0.817405,0.549865
0.220613,-0.201835,0.633435,0.849755,-0.516581,-0.105167
0.221468,0.179403,0.528144,0.991814,-0.117874,-0.049097
-0.195764,-0.362741,-0.974843,-0.508788,-0.060637,0.858754
0.679458,0.335780,0.341257,0.233421,-0.401752,0.885500
0.356223,0.038665,0.872476,0.946404,-0.188602,-0.262199
-0.571383,0.394442,0.531194,0.998621,-0.048701,0.019630
-0.459518,0.085788,0.568627,0.008146,-0.415897,0.909375
0.686066,-0.618335,0.367296,0.017849,-0.151185,0.988344
0.776515,-0.108115,0.360994,-0.270574,-0.746314,0.608116
-0.654978,0.039527,0.457362,0.580087,0.786289,-0.212717
0.435654,0.140468,0.692092,0.903290,-0.012774,0.428841
-0.345205,0.058721,0.494366,-0.702050,-0.672007,-0.235653
-0.542989,-0.862600,0.187895,-0.076366,-0.666708,0.741397
0.401874,-0.067996,0.478637,-0.667627,-0.176159,0.723355
0.725721,-0.546830,0.396688,0.207054,0.709815,0.673269
0.460253,0.088381,0.342769,0.137791,-0.004165,0.990453
-0.612996,-0.085255,-0.466966,0.312656,0.828486,-0.464604
-0.052810,0.422160,0.628696,0.573421,-0.815282,0.080644
0.004101,-0.255106,-0.330670,0.998951,-0.045101,-0.007963
-0.810291,0.087519,0.262433,0.987736,-0.067969,-0.140563
-0.070313,-0.153409,-0.382698,0.395383,0.911268,-0.115163
0.016464,0.313992,0.575408,-0.012071,-0.591273,0.806381
-0.164311,-0.210570,0.228177,-0.235343,0.968687,0.079110
0.663547,-0.070800,0.585364,-0.150052,-0.905294,0.397399
-0.649593,-0.288755,0.488947,0.789647,0.427286,0.440322
-0.401993,0.409324,0.625041,-0.378564,0.854195,0.356427
0.639314,0.241626,0.664843,-0.372970,-0.716626,0.589356
0.482163,0.391105,0.360994,0.692983,0.026774,-0.720457
0.376662,0.313130,0.344635,0.377260,0.309263,-0.872944
-0.084144,-0.237749,0.512137,0.930863,-0.346560,0.115714
0.482895,-0.573147,-0.288095,-0.108074,-0.546467,0.830478
0.261856,0.062822,0.573139,0.941549,-0.028901,-0.335633
-0.550822,-0.563332,0.374228,-0.109657,0.369053,0.922917
0.152194,-0.408680,0.658239,0.814078,0.564834,-0.135052
-0.040940,-0.827233,0.498550,0.807751,0.584343,-0.077976
-0.096627,0.097656,0.848101,-0.274267,0.816719,0.507689
0.815192,-0.067351,0.264450,-0.597849,0.370609,0.710792
0.193075,-0.624482,0.482972,0.064721,0.594993,0.801121
-0.639190,0.316256,0.286658,-0.577640,0.584168,-0.570157
0.244234,-0.151361,-0.044995,0.281406,0.918598,0.277468
0.744079,-0.187380,0.366388,-0.401903,0.753100,-0.520879
-0.042898,-0.028311,0.702881,0.846772,0.525838,0.080447
-0.504682,-0.152763,0.669507,-0.257131,0.405731,-0.877078
0.177652,-0.076948,0.379673,0.661682,0.235259,0.711920
0.685823,0.000270,0.525195,0.790534,0.290321,-0.539230
0.642372,0.229981,0.240982,0.913586,0.190595,-0.359212
0.141792,0.151467,0.951501,0.375195,-0.780682,-0.499763
0.222081,0.126987,0.985733,0.987529,0.148929,0.051056
-0.302490,0.236129,0.466764,-0.379229,-0.805785,0.454858
-0.199436,-0.001027,0.792468,-0.329110,0.212144,-0.920153
0.061868,0.288755,0.489350,0.374150,0.439150,-0.816798
0.133593,-0.136156,0.450127,-0.699972,0.707969,0.093907
0.413378,-0.385707,0.354113,0.307999,0.648244,-0.696360
0.063216,-0.116422,0.746591,0.454220,0.822060,0.343368
0.534301,0.147800,0.794762,-0.193977,-0.970500,0.143188
-0.316075,-0.066706,0.655466,0.489416,-0.871099,-0.040711
-0.581666,-0.467131,0.340576,-0.039148,-0.986896,0.156535
-0.107399,0.757558,0.362784,0.809197,0.194568,-0.554385
0.262592,0.669776,0.586222,-0.182572,0.250729,0.950685
0.618139,-0.753569,0.436162,-0.373299,0.482264,0.792508
0.271773,-0.646046,0.316276,0.865582,0.409148,-0.288731
-0.457314,0.175841,0.519120,-0.631621,-0.694113,-0.345343
0.002263,0.557724,0.521338,0.921785,0.330640,0.202458
0.263694,-0.669341,0.297572,0.535829,-0.793005,-0.289880
-0.074231,0.407922,0.637115,-0.542075,0.787060,-0.294434
0.099566,0.137986,0.975045,-0.391657,-0.425512,0.815809
-0.471511,0.336208,0.500466,0.664990,-0.010246,0.746782
0.148399,-0.560528,0.500366,0.513813,-0.067251,-0.855262
-0.507864,0.162256,0.461244,0.475213,0.856044,-0.203373
0.144238,0.088381,0.942603,0.997574,-0.049002,0.049441
-0.728291,-0.769854,0.228681,0.909190,-0.211814,0.358482
0.031640,-0.097761,0.691387,0.343197,0.801716,0.489353
-0.673090,-0.640438,0.407275,0.070541,0.519982,0.851259
0.103851,0.561068,0.615664,-0.264256,0.930021,0.255402
0.048653,0.171958,0.616470,0.367096,-0.571864,0.733630
0.186710,-0.014613,0.950190,0.502464,0.425573,0.752607
-0.174959,0.284444,0.669658,-0.298827,0.933657,-0.197450
-0.391957,-0.078567,0.665020,-0.146046,0.591823,0.792727
-0.506882,0.334266,0.574878,0.941032,-0.232885,-0.245404
0.108012,0.520409,0.508633,-0.318256,0.898300,-0.302935
-0.130653,0.009972,0.866376,0.575661,-0.751687,0.321841
0.124289,0.266000,0.588062,0.013511,-0.999867,0.009160
-0.343367,0.189862,0.552998,0.629302,0.066426,0.774317
-0.109110,-0.225236,-0.786670,0.408213,0.906953,0.103916
0.535280,-0.206904,-0.102443,0.253929,0.903156,0.346162
0.818370,-0.311188,0.228504,-0.326871,-0.801513,0.500731
0.087816,-0.287570,0.569988,0.737014,-0.643407,-0.206975
0.571141,-0.001567,0.500466,0.411548,0.088122,-0.907118
0.217920,0.879424,0.489325,0.474809,0.737366,0.480466
-0.681046,-0.818708,0.193643,0.368169,-0.591776,0.717114
-0.479224,0.398977,0.150336,-0.389686,-0.624410,-0.676947
-0.732575,-0.795953,0.426357,0.423364,0.423836,0.800704
0.591949,-0.022486,0.527816,-0.243853,-0.967974,0.059681
-0.011198,0.148663,0.727408,0.501768,-0.495353,-0.709123
-0.560002,0.022380,0.537647,-0.605149,-0.758414,-0.242081
0.027109,0.371259,0.615235,0.966233,0.231185,0.113787
0.351203,-0.004041,0.860175,0.965562,-0.244225,-0.089695
0.166148,0.347101,0.555242,0.221653,0.682555,0.696412
-0.566121,0.330922,0.400368,0.330729,0.672757,-0.661829
-0.447277,0.135182,0.480754,0.865255,0.181569,-0.467297
-0.704058,-0.856564,0.163142,-0.175609,0.299342,0.937846
0.154521,-0.059584,0.777797,-0.709399,0.392004,-0.585736
-0.679455,-0.694473,0.185803,0.311112,0.950122,-0.021865
-0.051955,0.063895,0.013864,0.349287,0.934218,0.072350
0.150603,-0.235912,0.601774,0.240640,0.929263,0.280289
-0.699284,-0.709033,0.148320,0.135396,-0.942667,0.305035
-0.781161,-0.028094,0.508381,-0.492665,0.800466,0.341374
0.219877,0.134103,0.697411,0.052297,0.442837,0.895076
0.106543,0.064869,0.531522,-0.050278,-0.356865,0.932802
-0.557922,0.303750,0.539084,0.861502,0.470703,0.190402
-0.453399,-0.897223,0.207381,0.149198,0.657601,-0.738445
0.279848,-0.250038,0.784024,-0.510225,-0.510231,-0.692340
0.690716,-0.645836,0.389352,-0.001283,-0.274467,0.961596
0.153542,0.193633,0.692521,0.114370,0.700998,0.703933
0.159660,0.112967,0.907136,0.770845,0.586196,-0.249342
-0.711277,-0.237314,0.490635,0.058272,0.947719,-0.313741
0.222694,-0.630624,0.243755,-0.528593,0.363297,-0.767206
-0.137138,-0.223077,0.746086,0.417381,-0.803960,-0.423605
-0.715315,-0.192561,0.490913,-0.617673,0.126884,0.776132
-0.410315,-0.744407,0.505130,-0.465151,-0.243601,-0.851054
-0.358177,-0.075440,0.364599,-0.169717,-0.149973,0.974014
-0.057095,0.423240,0.498702,-0.756651,0.515573,0.402074
0.480815,0.071445,0.520203,-0.243861,0.792191,0.559433
-0.461598,0.117818,0.544705,0.481269,-0.207180,0.851737
0.057464,0.215638,0.805954,0.241343,0.231320,0.942467
-0.310323,-0.139718,0.654181,0.430143,-0.894160,0.124322
0.256351,0.647666,0.452270,0.781805,-0.553425,0.287231
-0.493910,0.022703,-0.399410,-0.005728,0.969069,0.246723
0.865003,-0.104126,0.274886,0.262015,0.375941,-0.888829
-0.571141,-0.642169,0.209548,-0.569082,0.303457,-0.764238
-0.614710,-0.545751,0.216254,-0.403635,-0.405837,-0.819985
0.726700,0.428308,0.399939,0.627234,0.287017,0.724016
-0.531485,0.173794,0.581558,0.226833,-0.479382,0.847785
-0.384737,0.403611,0.170855,-0.548273,-0.347109,-0.760863
0.029802,0.451926,0.642510,0.029445,-0.996898,0.072995
-0.409706,-0.190724,0.365708,0.968484,-0.236932,0.076831
-0.660607,-0.630519,0.228000,-0.201657,-0.112916,-0.972926
0.831223,-0.029173,0.272970,-0.383967,0.502114,0.774887
-0.528669,-0.056029,0.355297,0.585148,0.514410,-0.626885
0.057830,-0.510489,0.577424,0.727292,-0.686087,-0.018199
0.442384,0.252302,0.340148,0.056393,-0.640503,0.765883
-0.050607,-0.163545,0.165083,0.928690,0.253913,0.270304
0.870512,-0.658987,0.420534,-0.654881,0.753803,-0.053963
0.024540,0.576918,0.507751,0.501067,0.334173,-0.798286
-0.039838,0.075974,0.835900,0.276631,-0.832865,0.479387
-0.749708,-0.099275,0.514431,-0.394517,-0.088575,-0.914610
-0.235666,-0.371799,0.522497,-0.525319,0.843579,0.111419
-0.331008,-0.418928,0.503214,0.814345,-0.559181,-0.155430
-0.344958,0.185333,0.651030,-0.309118,0.351288,-0.883766
-0.404809,-0.581447,0.492904,0.854674,-0.514034,0.072812
-0.396364,0.255646,0.659726,0.331732,-0.247738,0.910264
-0.266872,0.322082,0.738877,-0.489330,-0.422079,0.763155
-0.791690,-0.751088,0.395301,0.294155,0.671916,0.679707
0.416194,-0.034459,0.541680,-0.571429,0.598591,0.561389
-0.481670,0.202375,0.372110,0.956898,-0.014685,0.290051
0.305796,-0.019464,0.543016,-0.069289,-0.071074,0.995062
-0.062358,-0.197412,-0.888054,-0.755039,-0.654198,0.044055
0.063706,0.742893,0.463840,0.796616,-0.557196,-0.234385
0.890704,-0.636884,0.378866,-0.621665,-0.709580,-0.331705
-0.482159,-0.214019,0.445943,0.886320,0.322048,0.332749
0.154644,0.624588,0.496761,-0.675624,-0.372442,0.636254
-0.536871,0.287893,0.209548,-0.234624,0.964509,0.121136
-0.045101,-0.238071,-0.878450,-0.648888,-0.756372,0.082740
-0.180222,-0.390025,0.532933,0.795579,-0.087138,-0.599551
-0.286579,-0.504881,0.352348,0.212146,-0.686616,-0.695379
-0.099686,0.493342,0.311915,0.919437,0.383365,0.087561
0.355853,0.368672,0.809306,0.162435,0.952835,-0.256359
-0.449238,-0.333621,0.607119,-0.406255,0.463434,-0.787519
0.458662,0.145970,0.774873,0.296291,0.882771,-0.364590
-0.363563,0.297602,0.478813,-0.543638,-0.837947,0.047989
0.059668,-0.249610,0.572055,-0.395625,0.125184,-0.909840
