-0.213380,0.165130,0.297569,-0.214790,-0.958351,-0.188227
0.739216,0.019939,-0.909598,-0.150790,0.500542,0.852479
0.375871,0.232326,0.656255,0.718742,0.058034,-0.692851
-0.089088,-0.506291,0.168189,0.887644,0.104330,-0.448557
-0.138036,-0.698595,-0.904900,-0.617315,-0.183823,-0.764939
0.206160,-0.448294,-0.924838,-0.025918,-0.984877,0.171305
-0.176407,0.073721,0.015008,0.834670,0.537384,-0.120597
0.013340,0.418872,-0.971494,0.980189,-0.050974,-0.191394
-0.055036,-0.246923,0.910347,0.841767,0.235331,0.485848
-0.547194,-0.483287,-0.975304,-0.038379,0.534196,0.844489
-0.726697,-0.119831,-0.978431,0.234167,0.042991,-0.971245
0.015636,0.124355,-0.155608,0.772161,0.632593,-0.059944
-0.233430,-0.184987,0.590403,-0.003661,-0.832917,0.553386
-0.460254,-0.207847,-0.958652,-0.103146,0.800079,0.590960
0.531692,-0.279857,-0.898611,0.007696,-0.703685,0.710471
0.079545,0.269590,0.374464,0.801567,-0.494113,0.336664
0.242817,-0.194868,0.451582,-0.678412,-0.700268,-0.222221
-0.669044,-0.137553,-0.946380,-0.705362,0.648159,-0.286973
-0.312025,-0.008405,-0.967634,0.982792,-0.176133,-0.055650
0.248766,-0.537583,-0.911724,-0.500161,-0.108552,-0.859102
0.310829,-0.312808,0.454495,0.783943,0.555252,0.277720
-0.541940,-0.197727,-0.565694,-0.543747,0.109459,-0.832081
-0.207873,0.144796,0.007669,0.974848,-0.219944,-0.036010
-0.207248,-0.076892,-0.162416,0.492150,-0.694069,0.525412
-0.131382,0.060936,-0.310750,0.503837,-0.752858,0.423502
-0.438861,-0.996853,0.440653,0.598480,0.259161,-0.758062
0.121403,0.048089,-0.921452,0.448821,-0.398980,-0.799609
0.052015,-0.093590,0.582707,0.898919,0.078952,0.430942
-0.063824,-0.597509,-0.936376,0.108759,0.888817,0.445170
0.105727,-0.124584,0.066137,-0.381435,-0.855610,0.349913
0.093699,0.422780,-0.333543,0.890765,-0.426737,0.156308
0.456014,0.342302,-0.079223,0.239221,-0.934500,-0.263595
0.424510,-0.516494,-0.896866,-0.324887,0.794190,-0.513528
0.596567,0.046447,-0.865476,-0.295300,-0.041757,-0.954492
-0.110820,0.097053,0.581301,0.582879,0.696037,-0.419267
0.223475,0.379349,0.254558,0.762646,-0.611312,-0.211349
-0.276981,-0.477800,-0.929478,0.163206,0.247517,0.955039
-0.511121,0.245114,0.172533,-0.083067,-0.786786,0.611610
-0.101548,-0.008650,-0.287021,0.616746,0.770063,-0.163180
0.303546,0.450259,-0.961778,0.709462,0.545812,0.445817
0.810801,0.826390,0.592094,-0.601131,-0.761797,-0.241468
-0.293237,0.094015,0.207784,0.829939,0.549362,-0.096968
-0.078045,0.184583,-0.184845,-0.274368,-0.959991,-0.056037
0.128466,-0.680902,-0.932863,-0.157118,-0.499778,0.851784
-0.115052,0.311031,-0.937963,0.704494,0.628489,-0.329680
-0.418357,0.251472,0.369150,-0.106221,-0.782981,0.612909
-0.256478,0.258741,-0.313913,0.445815,0.659361,-0.605386
-0.136834,0.197431,0.393103,-0.114805,0.957666,-0.264001
0.136564,0.515998,0.418820,-0.507618,0.505724,0.697544
0.890293,-0.055300,-0.923857,0.028374,0.229994,0.972778
0.184297,0.484371,-0.398578,-0.639630,0.766022,0.063905
-0.432548,-0.470502,-0.940701,0.019586,0.737041,0.675564
0.219419,0.145760,0.141706,0.637121,-0.537678,0.552250
-0.020602,0.198332,0.228202,0.876434,-0.371877,-0.305895
-0.346099,-0.661556,-0.931066,-0.533081,0.030624,0.845510
-0.178877,0.203645,0.088932,-0.625139,0.628030,0.463442
-0.129596,-0.010262,-0.329073,0.900962,-0.388579,-0.193064
-0.052300,0.040730,-0.906101,0.882945,0.086526,0.461434
-0.028926,-0.558141,-0.920458,-0.387299,0.120400,0.914059
-0.211676,-0.370359,0.563362,0.830276,-0.241800,0.502170
0.042749,0.325529,0.629704,0.647080,0.638151,0.417194
-0.064016,-0.311952,0.524704,-0.317541,-0.049878,-0.946932
-0.097629,0.267285,-0.945274,-0.572547,-0.033966,-0.819168
0.039975,0.228902,-0.026569,0.882439,0.377676,0.280467
-0.489727,-0.360761,0.042327,0.936748,-0.297940,-0.183672
0.243834,0.146167,0.252499,-0.335715,-0.281672,0.898864
-0.372057,0.274621,0.160635,-0.007436,0.492803,0.870109
0.362586,-0.500308,0.588627,0.592509,0.728773,0.343255
-0.190834,-0.074707,-0.027306,-0.356964,-0.932226,-0.059419
-0.139727,0.398173,0.187720,-0.478884,-0.671320,0.565685
0.449810,0.007424,-0.899213,0.829816,0.519334,0.204199
0.317727,0.253153,0.439530,-0.431817,0.281717,-0.856837
-0.254733,0.104708,-0.433759,0.382726,0.807610,-0.448650
-0.231265,0.003669,0.036792,0.314298,-0.157254,0.936209
0.273142,0.205704,0.194597,0.417335,-0.895158,-0.156599
0.641449,0.073168,-0.907196,0.917416,0.088358,-0.387995
0.098667,-0.453741,-0.899392,0.299533,0.743016,-0.598504
-0.290336,-0.529627,-0.944464,-0.132544,-0.901339,0.412335
-0.320493,0.459702,-0.578698,0.775621,0.563118,-0.285150
-0.085440,0.049797,0.746946,0.230826,-0.511831,0.827495
-0.107845,0.188777,0.397895,-0.520703,-0.792651,-0.317134
0.100819,0.142903,0.172155,0.080012,-0.342401,0.936141
-0.022260,0.208119,0.052562,0.794464,-0.605405,-0.048076
0.553778,-0.287293,-0.905263,-0.248265,-0.276394,0.928424
0.319821,0.073289,0.251671,0.005108,0.400314,0.916364
0.046844,-0.335292,-0.927388,-0.612703,-0.788064,0.059576
-0.509607,-0.156880,-0.953606,-0.294077,0.953852,0.060699
-0.026796,0.034528,0.877546,-0.440145,-0.690317,-0.574225
-0.620998,-0.315264,-0.968501,0.779036,-0.148097,-0.609237
-0.096496,-0.045003,0.392952,0.196403,0.953260,0.229610
-0.190377,-0.540573,-0.954493,0.632074,0.538168,-0.557547
0.190617,-0.658654,-0.901745,0.123791,-0.702086,0.701249
0.029033,0.164440,0.109422,0.299098,0.704374,0.643737
0.613003,-0.145157,-0.919644,0.181905,-0.155864,0.970885
-0.154449,0.134946,0.074990,0.503689,-0.320578,0.802201
-0.538646,-0.613387,-0.967992,0.162011,0.946436,0.279305
-0.158214,-0.615767,-0.905889,0.971000,0.008006,0.238947
-0.533849,-0.497562,-0.946757,-0.030178,-0.499506,0.865785
0.308872,-0.429903,-0.899572,0.660184,0.751100,-0.002385
-0.309064,0.015149,-0.971615,0.700272,-0.496114,0.513313
-0.055621,0.703318,0.623594,-0.028836,0.414208,0.909725
-0.456474,0.006589,-0.967506,0.594822,0.031912,0.803224
-0.128362,0.211253,-0.269614,-0.550586,0.513748,-0.657965
-0.194785,-0.198205,-0.479790,0.101113,0.363279,0.926178
-0.218787,-0.680482,-0.939684,-0.362207,-0.233774,-0.902306
-0.322988,-0.260704,-0.936999,0.470033,0.662693,0.583015
-0.096008,0.230726,0.369788,0.342746,0.780876,0.522262
0.043813,0.282876,-0.936004,0.093842,-0.566282,0.818852
-0.192838,-0.070986,-0.590390,0.953753,-0.123358,-0.274114
-0.005007,0.140005,-0.818441,0.961500,-0.202085,0.186225
0.557139,0.815587,0.547157,0.461295,0.700225,-0.544878
0.533371,-0.472593,0.471048,0.098961,0.860546,0.499668
-0.210166,0.460450,0.620451,0.849894,0.383811,-0.361066
0.590898,0.483270,-0.854373,0.382415,-0.616888,-0.687901
-0.404120,-0.159114,-0.947751,-0.002145,-0.196690,0.980463
-0.581806,-0.340498,-0.955823,0.395067,0.809974,-0.433433
0.440691,-0.134656,-0.927175,0.072609,-0.612628,0.787029
-0.332069,0.042749,-0.593306,0.984913,-0.082987,0.151853
-0.557024,-0.383288,-0.936742,0.779180,-0.051411,0.624688
-0.322236,-0.680870,-0.944340,0.656721,-0.753244,-0.036623
-0.468518,-0.175264,-0.956630,0.129460,0.106672,0.985830
0.560067,0.807850,0.569293,-0.510491,-0.561887,0.650908
0.239137,0.074724,0.067440,0.935597,-0.348991,0.053505
-0.406292,0.072256,0.078571,0.136777,-0.060785,0.988735
0.693358,0.445246,-0.902545,-0.673065,0.446347,-0.589710
-0.320485,-0.961404,0.432097,0.603288,0.109091,-0.790027
-0.170770,0.332457,0.650154,0.880924,0.146157,0.450123
-0.552917,0.116853,-0.479488,0.847785,-0.520113,-0.103648
-0.027449,0.208415,-0.457797,0.445938,0.448122,-0.774807
-0.136671,0.212310,0.058928,-0.345547,0.926879,0.146606
-0.528980,-0.094416,-0.945150,0.204155,0.610824,0.764993
-0.372931,0.286905,-0.955257,0.142130,0.085706,0.986131
-0.131682,0.030768,0.638711,0.915807,0.275804,0.291942
-0.446229,-0.522999,-0.928361,0.155186,-0.597094,-0.787017
-0.147796,0.575139,0.724069,-0.418462,-0.892716,-0.167178
-0.658473,-0.096216,0.083116,0.613090,0.181051,-0.768987
-0.106001,0.218620,0.148756,0.476335,0.877726,-0.051981
0.473411,0.260268,-0.907737,0.943618,-0.207997,-0.257532
-0.208765,-0.118650,-0.957424,0.345834,0.459102,0.818306
0.243167,-0.029057,0.247744,-0.311668,0.373410,0.873744
0.219150,0.253007,0.071333,-0.536214,-0.471345,-0.700220
-0.503188,0.144529,-0.955740,0.268398,-0.291188,-0.918244
0.112992,0.286686,0.220839,-0.878857,0.308517,0.363905
-0.288171,-0.066247,-0.858882,0.131593,-0.740659,0.658868
-0.509512,0.150521,-0.413753,0.877736,-0.254753,-0.405808
0.716041,0.158419,-0.888004,-0.241331,0.857623,0.454140
-0.086627,-0.030743,-0.122096,0.896010,0.433357,0.096789
0.132669,-0.007647,-0.002405,-0.652293,0.682755,0.329181
-0.147966,-0.019083,-0.670419,0.511905,0.785010,-0.348874
-0.237192,0.065418,-0.016924,-0.741603,0.670827,-0.004128
-0.693652,-0.064167,-0.976533,0.996473,-0.024603,0.080229
-0.551466,-0.455356,-0.975337,0.844028,0.268029,0.464519
-0.258727,0.083226,0.803007,0.799996,0.520786,0.297972
0.119263,0.321723,-0.857339,0.564970,0.815618,-0.124801
0.044332,0.912774,-0.294731,0.742342,0.645589,0.179285
-0.777218,-0.026560,-0.992934,-0.135388,0.456172,0.879533
-0.458063,0.408836,-0.115192,0.319958,0.680764,-0.658929
0.797935,-0.060141,-0.885150,-0.073740,0.351316,0.933349
0.306430,-0.521118,-0.105074,0.767378,0.606606,-0.207751
-0.013809,0.051959,0.293954,0.071476,0.846447,0.527654
-0.060463,-0.435016,-0.957549,-0.344528,0.164182,0.924308
-0.094034,-0.281168,0.936298,0.962413,0.271541,0.005219
0.489876,0.528778,-0.896383,0.618332,0.664576,-0.419529
0.064946,0.545345,-0.941865,-0.452980,0.683585,-0.572294
-0.790663,-0.112875,-0.970650,-0.436638,-0.118487,0.891800
-0.317124,0.016023,-0.970471,0.865937,-0.446815,0.224743
-0.064990,0.186127,0.282016,0.857026,-0.267726,0.440261
-0.070344,-0.153802,-0.090857,-0.634649,-0.704538,0.317564
-0.534209,0.236488,-0.991583,-0.580817,0.232094,0.780246
-0.486838,0.239998,-0.413759,-0.383683,-0.138552,0.913012
-0.419647,-0.496378,-0.959859,0.629702,0.775619,0.043472
0.117558,0.416543,-0.945674,0.126540,-0.727154,0.674711
0.667684,0.571577,0.606834,0.289273,0.247645,0.924658
-0.311923,0.357666,0.769189,0.714235,0.475800,0.513305
0.010043,0.278721,-0.361844,0.457472,0.806139,0.375313
-0.550658,-0.283786,-0.975711,0.459227,-0.174444,-0.871022
-0.147181,0.200074,0.054745,-0.687557,0.725884,0.018902
0.101794,-0.046253,0.311377,-0.613646,-0.165509,-0.772040
-0.145023,0.354781,-0.968744,-0.512735,0.672954,-0.533138
-0.137630,0.597114,0.181055,0.502337,0.677071,0.537803
-0.321484,0.016198,-0.097737,-0.368063,0.929601,0.019271
0.080723,-0.000500,-0.747900,0.075988,0.996120,-0.044399
-0.001988,0.110146,-0.554566,-0.340756,0.874328,0.345594
-0.068579,0.024519,0.381716,0.984428,0.082399,0.155280
0.470597,-0.587427,0.568863,0.773244,-0.337349,0.536926
-0.131962,0.230057,-0.625548,-0.614837,0.645870,-0.452578
-0.323157,0.206906,0.389244,0.181966,-0.035997,0.982646
0.039977,0.057194,-0.290770,0.955101,0.182567,-0.233350
-0.487572,-0.062025,-0.961116,0.982024,0.112259,-0.151745
0.024476,0.047275,0.817235,0.345005,0.925327,-0.157292
0.048030,-0.424148,-0.910268,0.754314,0.622517,-0.208527
-0.537720,-0.057016,-0.560068,-0.317705,-0.947701,0.030437
-0.601364,-0.092428,-0.372868,-0.025804,-0.353585,0.935046
-0.095194,0.314975,0.359828,0.813213,-0.277238,0.511687
-0.129220,0.030557,0.715874,0.015343,0.955830,0.293518
-0.175201,0.121793,-0.038922,0.808706,-0.249352,-0.532745
-0.704493,-0.514538,-0.961445,-0.323870,-0.748012,0.579298
-0.433314,-0.434571,-0.953768,-0.154539,0.434090,0.887515
0.662409,0.896007,0.526427,-0.024285,0.295260,0.955108
-0.219748,0.000426,0.407090,0.847375,0.455577,0.272774
-0.286853,0.070954,0.082088,-0.021990,0.074388,0.996987
0.086537,0.325962,0.025468,0.777567,0.430947,-0.457901
0.527589,0.479872,-0.953305,-0.644719,0.056397,0.762337
-0.564175,0.041889,-0.961265,-0.131799,0.578837,0.804721
-0.738419,0.140016,-0.978136,-0.107344,0.189790,0.975939
-0.043497,0.059668,0.216487,0.986615,0.159179,-0.035393
-0.140755,0.038748,-0.543425,-0.691385,-0.542658,-0.476978
-0.130472,0.108747,-0.428761,0.265053,0.680458,0.683172
0.437272,0.275209,0.000012,-0.183700,0.952565,-0.242641
-0.347915,0.116511,-0.565300,-0.054988,0.176611,0.982744
0.230366,-0.381194,-0.918759,-0.096733,-0.129867,0.986802
-0.427621,0.248253,-0.981251,-0.058952,0.241147,0.968696
0.236894,0.479153,-0.966254,-0.215730,-0.269989,0.938385
-0.550323,0.216641,-0.961499,-0.287466,0.723617,-0.627488
0.154659,0.477764,-0.335934,0.920848,-0.358754,0.152757
0.165828,0.261269,-0.123903,0.283714,-0.368577,0.885245
-0.302420,0.565927,-0.432093,0.824270,0.296805,-0.482169
-0.458798,0.097192,-0.984082,0.899650,0.432939,-0.056507
0.697078,0.577123,-0.891488,0.854558,-0.110194,0.507531
0.055715,0.380814,-0.961893,-0.187139,-0.536257,0.823048
0.038182,0.262027,0.230878,0.354900,-0.928863,-0.106107
0.203059,-0.489900,-0.936567,-0.524080,0.251474,0.813696
0.195263,0.295895,0.046608,0.739374,0.657951,0.142919
-0.130673,-0.025447,-0.176844,-0.597403,0.062937,-0.799467
-0.553245,-0.494615,-0.963499,-0.538612,-0.796373,-0.275112
-0.366435,-0.686660,-0.936296,-0.409243,-0.432519,0.803397
-0.373707,0.417192,-0.559266,0.033816,-0.365163,0.930329
-0.289556,-0.029590,-0.520757,-0.360535,0.765405,-0.533076
0.296571,-0.401684,0.490570,0.983523,-0.039462,0.176426
0.057000,-0.404414,-0.928337,-0.421755,0.016550,-0.906559
-0.223206,0.048246,-0.975737,-0.183211,0.031555,0.982567
-0.035329,0.135793,0.284175,-0.362860,-0.931624,-0.020237
-0.368992,0.091478,-0.334998,0.099675,-0.887527,0.449845
0.149932,0.370998,0.299072,-0.691612,0.666913,-0.277307
-0.067992,-0.179775,-0.917781,0.858863,-0.465473,0.213750
0.054276,-0.771792,0.136301,-0.344634,0.732124,-0.587556
-0.383207,0.364634,-0.949645,0.027397,-0.516878,0.855620
-0.432677,-0.068527,-0.958844,-0.173862,-0.486638,0.856128
0.005548,-0.446050,-0.888782,-0.530849,0.466046,-0.707814
0.289066,-0.109430,0.763894,0.239401,-0.819934,0.519995
-0.091540,-0.685768,-0.904633,-0.704563,-0.471683,0.530195
-0.527619,-0.499487,-0.974097,0.058123,-0.211905,0.975560
0.591348,0.466564,-0.890359,-0.654706,0.424166,-0.625654
-0.489344,-0.045548,-0.947077,-0.084715,0.493871,0.865399
0.378355,0.067551,-0.907009,-0.350603,0.403883,-0.844960
0.067494,0.381236,-0.957325,-0.097753,-0.103943,0.989768
-0.327528,0.326236,-0.961870,-0.549530,0.606350,0.574766
0.701523,0.149840,-0.913776,-0.655452,0.493374,0.571809
0.473864,-0.136789,-0.906482,0.383531,-0.849837,0.361498
0.507443,0.071520,-0.894214,0.851898,-0.519625,0.065268
0.087161,-0.671592,-0.917758,0.729133,-0.662861,-0.170238
0.047061,0.383909,-0.396750,-0.581586,0.358706,0.730129
0.322083,0.242591,-0.946567,0.744066,0.565246,-0.356178
-0.629234,0.149738,-0.959146,0.982925,-0.022677,-0.182604
0.300979,-0.104632,0.267417,0.125224,0.983180,0.132949
-0.048347,-0.064768,0.550680,0.775861,0.540185,-0.325945
-0.140712,0.119572,-0.001085,0.842797,0.485095,0.233186
-0.095003,0.097412,-0.951843,0.561916,0.827172,0.006053
0.278971,-0.388506,-0.913093,-0.013238,-0.047626,0.998778
0.080227,0.712235,-0.346182,0.724612,-0.477805,0.496628
0.249956,0.356421,-0.126777,0.196047,0.203816,-0.959179
-0.188645,-0.306348,-0.948404,-0.264755,-0.510021,0.818403
0.678132,0.264963,-0.906438,0.826108,0.125216,0.549424
-0.182015,0.139039,0.142878,0.624817,0.346408,0.699718
-0.534615,-0.246401,-0.949223,-0.287950,0.430315,0.855520
0.023235,0.384594,-0.009662,0.292360,-0.923986,-0.246528
0.285651,0.279022,-0.922886,0.350967,0.630934,-0.691914
0.073088,0.261745,-0.946993,0.064805,0.294207,0.953542
0.824479,-0.051943,-0.914238,-0.017923,0.070800,0.997330
0.483345,-0.169798,0.726082,-0.036651,-0.471956,0.880860
-0.387239,-0.176649,-0.925887,0.920409,0.335205,-0.201210
-0.714087,0.033395,-0.979329,-0.424183,0.497805,-0.756478
-0.371562,0.075593,-0.002834,-0.539056,-0.842095,0.017148
0.359063,0.244274,0.475758,0.029380,0.085078,0.995941
-0.261860,0.031866,0.442985,-0.103303,-0.961843,0.253350
0.016135,0.359990,0.199758,-0.579809,0.414135,0.701651
-0.310798,0.037213,-0.977618,0.974492,0.121092,-0.188950
0.059383,-0.788546,-0.916994,-0.396823,0.839050,-0.372190
-0.120190,0.238888,0.432804,0.052073,0.989614,-0.133988
0.328871,0.328229,0.558054,-0.599806,0.791746,-0.115630
-0.056492,-0.032504,0.140265,-0.896927,0.350643,0.269390
0.057873,0.062664,0.239478,0.493648,0.868228,0.049925
0.735480,-0.074922,-0.911857,0.478119,0.516144,-0.710632
-0.285123,0.292457,-0.253638,0.505724,0.374964,0.776946
0.661112,0.908639,0.537819,0.122700,0.750108,0.649833
0.238311,0.283935,-0.927215,0.912060,-0.318125,-0.258734
-0.490900,0.110120,-0.963083,0.990709,0.116378,-0.070374
-0.340159,0.268937,-0.542355,-0.591084,-0.756748,0.279198
-0.210807,-0.277279,-0.927304,0.430439,0.199738,0.880243
0.101441,-0.635702,-0.933738,-0.386057,-0.331527,0.860842
-0.175859,0.232341,0.237462,0.967769,0.121965,-0.220337
0.336732,0.245172,-0.049229,-0.086636,0.878700,0.469447
-0.292319,-0.125427,-0.937934,0.447833,0.093442,0.889221
0.063780,0.086178,0.034241,0.459944,-0.384754,-0.800260
0.089781,-0.646078,-0.907420,0.942895,-0.299366,-0.146044
0.437399,0.040561,-0.889531,0.113908,0.572874,0.811690
0.249246,0.191373,0.696333,-0.607899,0.380506,-0.696903
-0.243693,0.242639,0.091383,0.897458,0.426882,-0.111092
-0.391360,0.350480,-0.129415,0.284737,0.093489,0.954036
0.076584,0.532426,-0.943117,-0.199513,0.524673,-0.827595
0.572215,0.423881,-0.920023,-0.091383,-0.439808,0.893430
0.084415,0.272700,-0.348420,0.845164,0.502166,0.183103
-0.159698,0.105832,-0.639298,0.749249,-0.474727,-0.461801
0.225668,-0.277910,-0.908122,0.605609,0.751857,-0.260669
0.179395,0.083016,0.158661,-0.395956,0.895347,-0.203894
0.214497,0.778827,-0.351484,0.962269,0.152719,0.225201
-0.071389,-0.055080,0.218838,0.757540,-0.184518,-0.626168
-0.174272,0.276661,-0.959493,-0.346404,0.786544,-0.511226
-0.159306,-0.679728,-0.890196,-0.578019,-0.032356,-0.815382
-0.324189,0.276296,0.141475,0.287785,0.556145,-0.779669
0.373673,0.608733,0.292238,0.224114,0.779312,0.585189
-0.190833,-0.517085,0.552610,-0.448359,0.559853,-0.696806
-0.324770,-0.309036,-0.930023,-0.500508,-0.129278,-0.856025
0.239912,-0.429012,0.582115,-0.415309,-0.689488,0.593401
0.544365,0.047070,-0.934827,0.678696,0.715244,-0.166729
-0.089558,0.204640,0.238187,0.348683,0.809336,0.472647
-0.416679,0.215247,-0.561500,-0.668682,-0.502676,0.547889
-0.332225,0.262743,0.150805,-0.138356,-0.613201,-0.777716
-0.324435,0.366033,-0.030400,0.183752,-0.188885,0.964654
-0.001670,0.054962,-0.925231,0.274083,0.849835,0.450176
-0.013196,0.152467,0.181661,-0.383522,-0.864127,-0.325876
0.394228,-0.264078,0.562030,-0.088619,-0.683950,0.724126
0.361656,0.654919,0.410996,0.455017,-0.734108,-0.504029
0.313352,-0.268863,-0.909124,-0.697133,0.679610,-0.228333
-0.161483,0.255312,0.085571,0.009315,0.860067,0.510096
-0.655169,-0.013739,-0.948389,0.183754,0.982469,-0.031434
-0.097279,0.097472,0.134006,0.692145,-0.195571,-0.694757
-0.253027,0.251304,-0.927147,0.604999,0.507793,0.613288
-0.162254,-0.052680,-0.924524,-0.707407,0.477822,0.520827
-0.078159,-0.439093,-0.914318,-0.601050,0.550459,-0.579425
-0.256111,0.499018,0.029869,0.291703,0.674838,0.677866
0.198981,0.439311,-0.273486,0.972475,-0.182433,0.144950
0.070965,0.282533,0.196555,-0.552542,0.814104,-0.178696
-0.088963,0.086732,0.204822,0.465646,0.879480,-0.098430
-0.476845,-0.513681,-0.969288,-0.659021,0.428364,0.618220
-0.409083,-0.452089,-0.965086,0.855392,0.352012,-0.379989
-0.867215,0.171987,-0.975923,0.511161,-0.569238,-0.643959
-0.050187,0.109096,-0.435934,0.087262,0.783989,0.614611
0.078259,-0.328676,-0.916745,-0.728328,0.669857,0.144322
-0.200858,0.074501,0.161597,0.805770,0.568026,-0.167574
0.099549,0.128985,-0.894395,0.488099,-0.440965,0.753200
-0.197613,0.263524,-0.077059,0.916241,-0.308462,-0.255643
0.477665,0.304550,0.458334,0.354122,0.586823,-0.728173
-0.121731,0.207974,-0.936702,0.603918,0.353965,0.714137
-0.483653,-0.047365,-0.959776,0.513063,0.617240,0.596473
0.028135,-0.063293,-0.505552,0.400601,-0.858175,0.321020
0.227298,0.783089,-0.084372,0.450238,-0.814229,-0.366494
-0.147658,0.563025,0.376565,0.982372,-0.126768,0.137386
0.099763,-0.374988,0.853156,0.160714,0.577021,0.800760
0.452113,0.392777,-0.870984,-0.706160,-0.508331,0.492887
0.398286,0.184385,-0.914913,-0.091430,-0.461521,0.882405
-0.640233,-0.383695,-0.948657,0.374633,0.364205,0.852646
0.189550,0.187188,-0.950482,-0.446441,0.018739,-0.894617
-0.589994,0.103132,-0.949232,-0.180401,-0.575369,0.797751
-0.110563,-0.258264,-0.941129,-0.588344,0.097842,0.802669
0.576701,-0.175009,0.275433,0.777600,0.182408,-0.601719
-0.360389,0.321421,-0.584171,0.402850,-0.889035,0.217553
0.009274,0.229925,0.015319,0.512074,0.164923,0.842959
0.131161,0.088353,0.068988,-0.601275,0.777532,0.184153
0.175149,0.110404,0.862589,0.081369,0.476197,0.875566
0.644364,0.140605,-0.919454,-0.005008,0.004621,0.999977
-0.484605,-0.462989,-0.945866,0.268693,0.245901,0.931309
-0.449440,0.779659,-0.360709,0.984655,0.053758,-0.166026
0.539314,-0.436856,0.466147,0.231551,0.806126,0.544560
-0.049490,0.080837,0.330093,-0.362660,-0.930953,0.042488
-0.180836,0.496835,0.726230,0.878090,0.477821,-0.025424
0.325521,0.296518,-0.977070,-0.326376,0.356560,0.875411
0.056816,0.011334,-0.128230,-0.190190,0.897982,-0.396807
0.280344,-0.193645,-0.912932,0.477671,0.453101,-0.752681
-0.206464,-0.140774,-0.937062,-0.222990,-0.732334,0.643399
-0.207859,-0.193787,-0.941250,0.873835,-0.428336,0.230089
0.114692,-0.654540,-0.928431,0.486864,0.690832,-0.534523
0.142314,-0.070272,0.751140,0.208044,0.976748,0.051783
-0.239013,-0.021907,-0.939969,-0.192196,0.932167,0.306800
-0.021158,0.164427,0.123282,0.495105,0.809199,0.316335
-0.056753,-0.058403,0.009132,-0.242380,-0.940996,-0.236173
-0.068311,-0.316737,-0.930058,0.362690,0.340047,-0.867655
-0.538716,0.067483,-0.398697,0.911096,-0.404690,-0.078297
-0.299150,0.080772,0.450635,-0.417159,-0.503240,0.756788
0.363544,0.657453,0.255728,0.531148,-0.847279,-0.000191
-0.133262,0.123703,0.771630,-0.286776,0.945156,-0.156333
0.412705,-0.107943,-0.908429,-0.013821,0.999205,-0.037399
0.547435,-0.351329,0.458783,0.363012,0.825640,0.431903
-0.036892,0.073012,0.196191,-0.623696,-0.746629,-0.231407
-0.099822,0.313405,0.331112,-0.008750,-0.993138,0.116623
0.437115,-0.382566,0.448955,0.934745,0.262022,0.239994
0.199101,0.477198,-0.978647,0.507859,-0.278288,-0.815251
-0.230598,-0.364326,-0.952128,-0.075721,-0.902684,0.423589
-0.368388,-0.049857,-0.972662,0.831260,0.093098,-0.548033
-0.078620,0.681928,-0.259415,-0.019448,-0.022112,0.999566
0.413716,0.108415,-0.881963,0.873136,0.285650,0.395015
0.008396,-0.316237,-0.924666,0.940288,-0.096673,-0.326362
0.239431,-0.423226,-0.910727,-0.082388,0.370496,0.925173
-0.176058,0.058199,0.626124,0.719307,0.672649,0.173609
0.447074,-0.104948,0.281109,0.343990,0.829778,-0.439477
-0.372737,0.022080,-0.961579,0.080439,-0.798051,0.597197
-0.593598,-0.230376,-0.958786,-0.002002,0.849325,0.527867
-0.425551,0.362516,-0.952528,-0.238430,0.953530,-0.184208
-0.575198,0.406567,-0.138671,-0.421258,0.119208,0.899072
-0.753723,0.262874,-0.978796,-0.555687,-0.025720,0.830993
0.138207,0.076749,-0.137461,0.589455,0.801496,-0.100731
-0.431059,-0.491649,-0.970720,0.526466,-0.350945,-0.774384
-0.324571,0.079369,0.152004,-0.443823,0.890942,0.096142
-0.387449,0.405983,0.771514,-0.560254,-0.570117,-0.600901
0.751844,0.880677,0.090170,-0.140493,0.658661,0.739207
0.238489,0.603871,-0.965191,-0.004106,0.994334,0.106220
-0.413059,0.100103,-0.959743,0.702425,0.083851,0.706801
0.507498,-0.200419,-0.898581,0.008462,-0.124660,0.992163
-0.255752,0.196520,0.087150,0.461707,0.689823,-0.557648
0.146725,0.480800,-0.118846,-0.449027,0.545414,-0.707742
-0.468465,0.332130,-0.556130,0.934840,-0.307543,-0.177456
0.024962,0.148010,0.242640,0.951710,0.121519,-0.281923
0.078243,0.136005,-0.919856,0.602002,0.725137,0.334320
-0.569678,-0.179050,-0.973704,-0.212708,0.972064,0.099229
-0.147530,0.231780,-0.938530,-0.782387,0.349927,-0.515190
-0.072185,0.167194,-0.076193,0.272272,0.862589,-0.426389
-0.116686,0.128934,0.862328,-0.023918,-0.943805,0.329636
0.078078,0.439074,0.167754,0.425309,0.374357,0.823996
-0.317821,-0.255400,-0.937779,-0.630584,-0.710398,-0.312567
-0.330124,0.338089,-0.944779,0.809393,0.101582,-0.578416
0.679829,-0.076730,-0.914078,0.041623,-0.600572,0.798486
-0.359358,-0.616969,-0.924140,0.473170,0.498859,-0.726120
-0.244700,0.133997,0.159164,0.720948,0.459533,-0.518713
-0.013485,0.196220,0.299651,-0.203539,0.796854,0.568855
-0.143634,0.130042,0.617659,-0.719581,0.548331,0.426071
-0.633194,-0.227226,-0.974142,-0.320610,0.535290,-0.781456
0.504810,-0.384823,-0.926682,-0.005341,0.775851,0.630894
0.456221,0.198834,0.637195,0.909320,0.381421,-0.166302
0.462322,-0.207624,-0.904689,-0.419948,-0.060079,0.905558
0.450634,-0.330538,-0.926714,0.170329,-0.068462,0.983006
-0.533453,0.188357,-0.953182,-0.022711,0.173178,0.984629
-0.641782,0.212727,-0.985570,0.915503,-0.263025,0.304420
0.020916,0.189879,0.405815,0.558358,-0.790743,0.250924
-0.068205,-0.669300,-0.925285,-0.503421,0.115037,0.856349
-0.166492,0.199674,0.567562,0.629656,0.619212,0.469159
-0.008680,-0.595256,-0.911356,0.879704,-0.278406,-0.385500
-0.416921,0.363309,-0.120784,0.050303,-0.357923,0.932395
-1.000000,-0.543460,0.628985,-0.919814,0.185986,0.345473
-0.105433,0.195662,0.389946,-0.604076,-0.643228,0.470478
-0.281417,0.365083,-0.592271,0.915647,-0.124759,-0.382133
-0.275681,0.315519,0.117237,0.991017,0.051248,-0.123530
-0.220374,0.166958,-0.941785,0.498176,-0.427343,-0.754452
0.054108,-0.123823,-0.046889,0.109561,-0.874415,0.472646
-0.035386,0.018317,0.924773,0.213174,-0.955955,0.201762
0.540706,0.393005,-0.088920,-0.155235,0.925872,0.344474
-0.154362,0.429694,0.170180,0.380979,-0.847867,-0.368750
0.133927,0.418329,0.230090,0.874579,-0.464735,-0.138320
0.087057,-0.366606,-0.916300,0.964184,0.254081,-0.076104
-0.004807,-0.173641,0.238845,-0.144511,0.612681,-0.777006
0.025377,-0.197338,-0.922435,0.809386,0.037058,-0.586106
0.002112,-0.475651,-0.917002,-0.035897,0.631558,0.774497
0.207467,-0.655461,-0.929433,-0.315112,0.654496,-0.687269
-0.293516,0.178487,0.101996,-0.305467,0.581687,-0.753876
-0.077226,-0.146017,0.663197,-0.445160,-0.822745,0.353446
-0.467537,-0.337344,-0.949602,0.202607,0.967883,0.148840
0.492569,-0.314021,0.456529,-0.429200,-0.748207,-0.505939
0.685552,0.361827,-0.917706,-0.009214,-0.566905,0.823731
0.031536,0.304404,0.019706,0.194015,0.016272,0.980864
-0.399166,0.750256,-0.353661,0.948830,-0.166219,-0.268500
0.445585,0.443185,-0.957499,-0.007911,0.398886,0.916966
0.157214,0.381563,0.428166,-0.294819,0.577826,0.761051
0.740901,0.766739,0.552163,-0.747840,0.462970,0.475809
-0.576089,-0.115760,-0.559750,0.821572,-0.089756,0.562995
-0.180311,0.006828,-0.936933,0.501413,-0.505602,-0.702105
-0.271408,-0.335684,-0.943487,-0.385986,-0.253388,-0.887023
0.404653,-0.413441,0.429822,0.927869,0.334398,0.165036
-0.299927,-0.632992,-0.926761,-0.058381,0.107006,0.992543
-0.268960,0.179797,0.105973,0.070106,0.162553,0.984206
-0.123602,-0.505394,-0.921514,0.865303,0.419458,0.274419
-0.129032,-0.177770,-0.555973,0.632762,0.115640,-0.765663
-0.257104,-0.055637,0.743199,0.894793,-0.439558,0.078319
-0.083398,0.285449,0.028183,0.016322,-0.557605,0.829946
-0.201644,0.488409,0.629771,-0.672025,-0.013282,0.740410
0.359255,0.484513,-0.923226,0.734107,0.602905,0.312399
0.014344,0.188970,-0.878162,0.771713,0.565401,0.291171
0.777064,0.109292,-0.912320,-0.157703,-0.615261,0.772388
-0.172756,-0.042780,0.548320,-0.480126,-0.541804,0.689875
-0.351302,-0.156361,-0.934808,-0.447902,-0.064426,-0.891759
0.225305,0.130275,-0.002410,-0.255018,0.963760,0.078314
0.782665,0.286403,-0.910509,-0.643025,0.021924,0.765531
0.238599,0.471007,-0.377692,0.724994,-0.687694,0.038205
-0.107990,0.223153,0.204372,-0.718793,-0.695223,-0.001386
0.045474,0.236928,-0.951870,0.032782,0.858333,0.512044
0.407724,-0.126138,0.762335,-0.069612,-0.379306,0.922649
-0.016068,0.503374,-0.951848,0.056630,0.178574,0.982296
-0.129391,0.154069,0.067035,0.034717,0.131873,0.990658
0.352531,0.116023,-0.917154,-0.224516,0.430307,0.874316
-0.140525,0.026730,0.743324,0.126738,0.859630,-0.494949
-0.693603,-0.146507,-0.965381,0.978685,-0.160803,-0.127741
-0.165327,0.009310,0.404225,0.765120,0.401057,0.503730
-0.079709,-0.098352,0.466753,0.944070,-0.251877,-0.212813
-0.031624,-0.390959,0.896912,0.928356,-0.059927,0.366831
0.033160,0.165401,-0.540129,-0.788939,-0.512785,0.338566
0.545487,-0.245392,-0.910124,-0.580359,0.474432,-0.661890
0.246911,0.312281,0.601618,-0.142978,-0.244464,0.959059
0.017580,0.480850,-0.947901,0.250602,0.380621,-0.890127
-0.123966,0.379596,0.175543,0.001174,0.776850,0.629684
-0.031309,0.037797,0.900045,0.883902,-0.309177,0.350893
0.057673,0.440396,0.043923,0.213255,0.971263,0.105688
-0.253432,0.290137,0.157642,0.743043,-0.665623,0.069526
0.449620,0.111038,-0.913331,-0.517460,0.802878,0.296009
-0.463813,0.041598,-0.964282,0.965124,0.175882,0.193910
-0.234597,0.120829,0.325477,-0.007299,0.995409,0.095437
0.485340,0.321791,0.458736,0.239717,0.822228,-0.516214
-0.399876,-0.191420,-0.927507,-0.715768,-0.411531,0.564197
-0.260902,0.098965,-0.153300,0.982614,-0.144069,0.117108
0.448492,-0.127742,-0.923751,-0.119050,-0.701167,0.702988
-0.032032,-0.492336,-0.930512,0.860677,0.208913,-0.464318
0.057506,0.048800,0.232030,0.363841,0.603876,-0.709193
-0.278674,0.275196,-0.921611,0.631100,-0.654339,-0.416598
-0.532066,-0.088302,-0.974123,0.338453,0.842183,0.419734
-0.558624,-0.117795,-0.958683,0.582806,0.315150,0.749011
-0.139550,-0.699299,-0.887565,-0.693066,-0.124719,-0.710003
0.471262,0.012995,-0.883340,0.543996,0.830578,0.119197
0.422746,0.184010,-0.896582,-0.109826,0.509104,0.853669
-0.628138,0.042332,-0.965550,0.310004,0.476161,-0.822902
0.598135,0.479569,-0.919692,-0.416137,-0.625426,0.660055
-0.186757,-0.049752,0.656413,0.419630,0.897619,-0.134871
0.433107,0.175732,-0.894944,-0.331500,0.470493,0.817768
-0.185545,0.160462,0.025504,-0.701327,0.530580,-0.476052
0.281122,0.028195,-0.928165,-0.077988,-0.229121,0.970269
-0.521318,0.304635,-0.994493,0.382219,-0.004096,-0.924063
0.740796,0.209525,-0.921412,-0.631113,-0.090546,0.770388
-0.490508,-0.015181,-0.962982,0.848724,-0.203759,0.488006
-0.330711,-0.167970,-0.954567,0.405265,-0.703511,-0.583808
-0.185118,0.395065,-0.046480,0.365105,0.074417,0.927987
-0.373924,0.012146,-0.965966,0.108974,-0.118265,0.986984
-0.114689,-0.400989,0.489796,0.999482,-0.016873,0.027389
0.340255,0.099145,-0.900282,0.303904,0.569452,-0.763784
0.856402,0.900145,0.090396,-0.117017,0.647370,0.753140
-0.219136,0.133129,-0.200363,0.879117,0.456871,-0.135730
-0.028963,-0.373034,-0.455507,0.625450,-0.137512,-0.768052
-0.037402,-0.701363,-0.897520,-0.568456,-0.794906,-0.212091
-0.288555,0.140845,0.431627,0.855178,-0.486375,0.179194
0.079695,-0.378046,-0.931806,0.355731,0.418561,-0.835621
-0.262863,0.344173,-0.948250,0.833909,-0.296331,0.465601
-0.330468,0.288790,-0.127248,-0.074621,0.905233,0.418312
0.073279,-0.426133,-0.910518,-0.401661,-0.865337,0.299769
-0.727945,0.263933,-0.975706,0.762928,0.273577,-0.585744
-0.282870,0.302361,-0.583978,-0.409112,0.449924,0.793849
0.613233,0.289754,-0.913809,0.580956,-0.782228,0.224964
-0.200258,0.148515,-0.644572,-0.714326,0.499811,-0.489823
-0.523956,-0.051503,-0.947059,-0.126265,0.979278,0.158342
-0.377049,-0.450607,-0.933198,-0.601573,0.234128,0.763737
-0.196784,0.189933,-0.979921,-0.237746,0.146473,0.960220
-0.312811,0.273335,-0.972867,0.006190,0.652258,0.757971
0.742215,-0.074821,-0.891235,0.369829,0.229855,0.900218
0.037022,-0.417765,0.364732,-0.802625,-0.280794,0.526258
-0.292787,0.426995,-0.554503,0.718923,-0.242987,0.651235
-0.051212,0.282199,0.719014,-0.096662,-0.087489,0.991465
0.476913,-0.410428,0.569914,0.307266,-0.150152,0.939703
-0.463034,-0.440960,-0.950915,-0.316557,-0.710152,-0.628868
-0.564638,-0.231683,-0.559622,-0.244527,0.969005,-0.035154
0.223904,-0.040450,0.867782,-0.042631,0.183488,0.982097
0.028645,0.125214,0.271396,0.855528,0.191500,-0.481040
0.541468,-0.470371,0.448699,-0.230354,0.966308,0.114833
-0.154312,0.218173,-0.498305,-0.386078,0.066481,0.920067
-0.157152,0.250354,0.391516,-0.103675,-0.704125,0.702467
-0.095936,0.034508,-0.472205,0.910506,-0.412823,0.023559
-0.264167,0.443407,-0.957347,-0.267058,0.692446,-0.670222
0.359876,0.608367,-0.899144,0.771267,-0.101867,-0.628307
0.122274,0.103256,0.183531,-0.048658,-0.154482,-0.986797
-0.244788,0.408888,-0.972617,-0.451823,0.787588,0.419001
-0.212831,0.116064,0.195163,-0.560834,0.262298,-0.785281
-0.294665,-0.197550,-0.173538,-0.366762,0.559614,-0.743181
-0.002919,0.577464,0.612976,-0.368714,0.095430,-0.924631
-0.514010,-0.000432,-0.295476,-0.559523,0.789608,-0.251900
-0.202199,0.015686,-0.528772,0.880339,0.471926,0.047841
-0.675355,-0.000173,-0.967658,0.511444,0.726369,0.459144
-0.453974,0.366146,-0.167335,0.828060,0.524021,-0.199293
0.133161,-0.111145,0.494143,0.909194,0.306685,0.281623
0.432236,0.189588,-0.019048,-0.548095,0.714032,-0.435603
-0.088307,0.121747,0.377464,0.955601,-0.242929,0.166767
-0.498548,-0.116623,-0.478011,-0.285831,-0.957194,0.045620
-0.410277,-0.497975,-0.960952,0.204405,0.959499,0.193855
-0.700147,0.308027,-0.968051,-0.020072,-0.995459,0.093049
0.326324,-0.403546,-0.918503,0.114313,0.710408,-0.694444
-0.508597,-0.514431,-0.952999,0.056317,0.311041,0.948726
0.338375,-0.404645,0.028360,0.961830,-0.108900,0.251045
-0.222734,0.173305,0.091111,0.283864,0.323804,-0.902537
-0.136061,0.026733,-0.184569,0.996775,0.075275,0.027815
-0.065512,-0.013760,0.375041,0.919263,-0.350617,-0.178952
-0.109538,0.075828,0.384541,-0.311202,-0.186897,0.931785
-0.148434,-0.094361,0.912642,-0.514965,0.072394,-0.854149
0.122214,-0.375692,0.854138,0.357412,0.352621,0.864821
0.350539,0.209324,-0.944890,0.662218,-0.629692,-0.406148
-0.471847,-0.642311,-0.023956,0.996896,0.030110,0.072740
-0.080615,0.141001,-0.490908,-0.174878,0.696850,0.695570
0.410145,-0.003120,0.748944,0.601287,0.424340,-0.677045
-0.472047,0.320354,-0.953984,0.988151,-0.063125,-0.139899
-0.076441,0.348675,0.038029,0.555825,-0.334311,-0.761114
-0.295028,-0.658651,-0.968944,-0.187995,-0.207265,-0.960052
-0.068123,0.081730,0.141025,0.555752,-0.113510,-0.823563
-0.017971,-0.271229,0.934533,0.997085,0.024267,0.072331
-0.488963,-0.121192,-0.555572,-0.469682,-0.728989,0.497970
0.350341,-0.621817,-0.911017,-0.650220,0.758085,0.050217
-0.497045,0.097389,-0.984229,0.007800,0.328226,0.944567
0.558842,-0.026445,-0.924313,-0.434551,-0.590405,-0.680138
0.056432,0.379986,0.075634,-0.665435,0.679619,-0.308730
0.034790,0.083985,0.012886,0.250324,0.361395,0.898182
0.656951,0.199103,-0.902085,0.413283,0.232092,0.880528
0.502708,0.282018,-0.024729,-0.838131,0.395054,-0.376123
-0.111969,0.016754,-0.126583,-0.184409,-0.909030,0.373708
-0.248341,0.125556,0.194671,-0.826361,0.520349,-0.215324
0.086501,0.007055,0.492356,0.343422,0.722865,0.599606
-0.088587,0.248149,-0.785962,0.926686,-0.326455,0.186227
-0.116728,0.361274,0.654578,0.883374,0.079205,0.461928
0.345708,-0.113462,-0.891992,-0.134015,0.233936,-0.962971
-0.431053,-0.369383,-0.952470,0.164465,-0.876484,0.452468
-0.675241,-0.154865,-0.955729,0.788763,-0.538976,-0.295565
0.266453,-0.514759,0.016662,0.905270,-0.407393,0.120486
-0.393016,0.068372,-0.956903,0.815325,0.539479,0.210256
0.473030,0.471726,-0.932077,0.174258,0.218800,-0.960084
-0.564599,0.000553,-0.956461,-0.661155,0.674396,0.328730
-0.359216,0.333168,-0.986328,0.085028,-0.409330,-0.908416
-0.590367,-0.255366,-0.566976,-0.165311,0.984674,0.055587
-0.020075,-0.165055,-0.330967,0.474696,-0.220530,0.852074
-0.515527,-0.332825,-0.946458,0.390229,0.268026,0.880842
-0.463847,-0.051446,-0.111657,0.992234,-0.098407,0.076080
0.816006,0.076654,-0.896928,0.974172,0.135430,0.180685
-0.143149,0.318601,-0.958413,0.902029,0.102641,0.419296
0.386833,0.528826,0.627411,-0.514184,0.789436,-0.335269
-0.197072,0.116158,-0.901076,0.105542,-0.232485,0.966856
-0.665198,-0.307273,-0.966514,0.082544,0.916591,0.391214
-0.237747,0.516388,-0.270542,0.805232,-0.524201,-0.277154
-0.337088,-0.334764,-0.937801,-0.298123,0.884978,0.357682
-0.711727,0.136334,-0.971021,0.704538,-0.253911,-0.662688
0.370982,0.183032,-0.900477,0.014931,0.712472,0.701542
0.214252,-0.403225,-0.917791,-0.257152,-0.378744,0.889059
-0.215049,0.051405,-0.967099,-0.475251,-0.798089,-0.370392
0.377475,-0.301885,-0.895475,0.256387,-0.094038,-0.961989
0.618391,0.383034,-0.904453,-0.239532,-0.828484,0.506201
-0.245075,0.251634,0.021941,-0.645640,0.547392,-0.532458
-0.056393,0.051353,0.676978,-0.029738,-0.992944,0.114793
0.261945,-0.473883,0.553181,-0.403709,-0.894269,-0.193139
-0.500386,-0.426702,-0.946065,0.684257,0.586290,0.433655
-0.156520,0.329868,-0.944752,-0.677250,0.157032,0.718800
0.654804,0.473734,-0.876282,0.911288,0.410210,0.035788
-0.143868,-0.363238,-0.916729,0.410963,0.380966,-0.828235
-0.127672,0.167354,0.905119,0.953287,0.267721,0.139888
-0.069074,0.425880,-0.973058,-0.231910,0.899131,-0.371190
-0.275085,-0.317814,0.321398,-0.262108,0.762711,0.591245
0.477326,-0.469574,0.548649,0.815892,0.577946,0.017276
-0.550893,-0.320536,-0.969342,-0.013752,0.831450,0.555429
-0.022736,0.227503,-0.503780,0.223892,0.658013,0.718952
-0.148658,0.071430,0.667300,0.018758,-0.982701,0.184248
-0.356851,0.504298,0.713503,0.929302,0.269320,-0.252717
-0.229884,-0.002449,-0.461073,-0.648004,0.556039,-0.520492
-0.142977,-0.248031,0.837486,0.859165,0.500658,-0.105723
-0.108088,0.033462,0.120298,0.998844,0.046780,0.011031
-0.014033,0.088099,-0.149949,-0.594597,-0.803245,0.035390
-0.547088,0.022200,-0.272304,-0.581221,0.810907,-0.067917
0.170745,0.480049,-0.309074,0.951357,-0.228025,-0.207181
0.262131,0.362321,0.601365,0.040763,-0.713917,0.699042
-0.134075,-0.170385,-0.174300,-0.456878,0.334257,-0.824339
-0.142884,0.277999,0.309458,-0.735512,-0.421049,0.530792
-0.410957,0.054936,0.374936,0.032123,0.914228,0.403924
-0.259662,0.024038,-0.656430,0.934026,-0.182660,0.306972
-0.388161,0.370746,-0.502930,-0.409335,0.868003,0.281098
-0.273045,0.340425,0.182274,0.994619,0.064786,0.080843
0.072217,0.293321,-0.367218,0.910062,-0.056660,-0.410581
-0.655766,-0.266656,-0.983141,0.295259,0.424167,0.856098
-0.431874,0.108828,-0.281944,0.458911,-0.829664,0.317896
-0.020729,-0.440490,-0.897259,-0.011248,0.255281,0.966801
-0.012414,0.005330,0.295410,-0.246543,-0.041571,0.968240
0.802567,-0.119091,-0.926015,0.125622,-0.504407,0.854279
0.205514,0.299183,-0.957910,0.075952,-0.557668,0.826582
-0.100342,0.241046,0.380089,0.084056,-0.982916,0.163737
0.616135,0.363442,-0.891255,-0.572799,-0.150668,-0.805730
-0.039831,-0.062782,-0.261399,0.860269,-0.401106,0.314725
-0.642508,-0.308783,-0.967508,-0.109918,0.502706,0.857441
-0.211649,0.285282,0.152284,-0.424793,0.599629,-0.678230
-0.189489,-0.497513,-0.910213,0.993659,0.063122,-0.093043
-0.090747,0.325136,-0.933735,-0.695114,0.617604,-0.367944
-0.839664,0.078924,-0.978247,0.873189,-0.321698,-0.366130
-0.259358,0.102254,-0.149300,0.165273,0.986042,-0.020155
-0.222896,0.378826,-0.116633,0.437433,0.898102,-0.045456
0.363809,0.045830,-0.899625,0.667533,-0.700199,-0.253221
-0.360535,0.135860,0.091632,0.510901,-0.160383,-0.844546
-0.212234,0.640878,0.181382,0.873921,0.288200,0.391412
-0.192045,0.136968,0.323760,0.165605,0.985547,-0.035668
-0.445424,0.400997,0.654638,-0.466487,0.870832,-0.155051
0.103921,0.058326,0.028866,0.822897,-0.563396,-0.073651
0.607880,0.329110,-0.886523,-0.113564,0.342914,0.932477
0.223727,-0.373308,-0.917674,0.190958,-0.311879,0.930734
-0.156029,0.195265,0.197474,-0.896996,0.273873,0.346975
0.436470,-0.020232,-0.881324,0.588078,0.709256,0.388742
-0.167383,-0.032940,-0.920486,0.915671,0.389719,-0.098311
-0.082128,0.317892,-0.028890,0.975630,0.200032,0.090188
-0.162774,0.099748,0.930324,0.857699,0.211788,0.468507
0.129642,-0.095099,0.309319,-0.193602,0.977513,-0.083583
-0.052703,0.252439,0.118991,-0.587823,-0.729523,-0.349656
-0.410881,0.054884,0.637702,0.529781,0.138239,-0.836793
-0.366072,0.477512,-0.966485,-0.646129,0.739814,-0.187597
0.227179,-0.484670,-0.911018,0.122732,0.319466,0.939616
-0.250686,0.226786,0.349695,0.874305,-0.479872,0.072899
-0.117401,0.037493,-0.199122,0.817703,0.512237,0.262633
-0.042713,0.246318,-0.161513,0.266733,0.947002,-0.178997
-0.011655,0.661720,0.613517,0.136508,0.551175,0.823147
0.160004,-0.751408,-0.891453,-0.576285,0.419556,0.701333
-0.116241,0.062967,-0.341838,0.930322,0.364973,-0.035996
0.061537,-0.156978,-0.905417,0.529094,0.253254,-0.809890
-0.210163,-0.188674,0.546755,-0.455849,-0.519094,-0.723010
0.349028,0.108706,-0.515557,0.062709,-0.776567,0.626906
-0.557573,0.016034,-0.978624,0.017642,-0.129095,-0.991475
0.004334,0.131390,-0.498991,-0.594796,-0.231964,-0.769682
0.463876,0.295606,-0.895148,-0.531182,0.552293,-0.642509
0.091730,-0.589655,-0.922411,0.025165,0.255672,0.966436
-0.111686,-0.403995,-0.930316,-0.377794,0.639671,0.669397
-0.248476,-0.186864,-0.906689,-0.646392,-0.680114,0.345865
-0.336621,0.200753,-0.972595,0.846505,0.304925,-0.436406
0.425285,-0.438197,-0.917206,0.753932,-0.447933,-0.480565
-0.201415,0.034995,-0.561592,-0.400938,0.081493,-0.912473
0.211260,0.069445,-0.914530,0.222262,-0.613326,-0.757912
0.126608,0.526793,-0.950117,0.892150,-0.451093,-0.024169
-0.424140,-0.120524,-0.976823,0.120829,0.719514,0.683886
0.136461,-0.068491,0.517536,0.864040,0.216911,0.454296
-0.285129,-0.281608,-0.936659,0.482304,0.319987,0.815470
-0.494911,0.038921,-0.944608,0.425108,-0.158446,-0.891167
-0.484352,-0.481606,0.701163,0.346203,0.739240,0.577640
0.227026,0.153368,-0.941466,0.290547,0.924462,0.246885
-0.247861,0.006327,-0.977823,-0.420531,0.555020,0.717709
-0.609122,-0.023521,-0.394436,-0.328712,0.723403,0.607155
-0.322451,0.410247,0.401493,0.301215,0.337464,-0.891845
-0.216051,-0.027651,-0.476695,0.740683,-0.521958,0.423023
-0.303168,-0.508446,-0.901263,0.388372,-0.261136,-0.883728
-0.566800,0.223315,-0.959292,0.319028,0.591535,-0.740478
-0.193080,0.204801,-0.186500,-0.200509,0.975049,-0.095269
0.071793,-0.356463,-0.905172,0.940272,-0.091671,-0.327850
-0.650093,-0.329397,0.659082,0.190960,-0.941904,0.276316
-0.565852,0.016363,-0.944902,0.842335,-0.048603,-0.536758
0.303809,0.314988,0.608667,0.039485,0.584382,0.810517
0.008139,0.526656,0.185182,0.694363,0.387808,0.606188
-0.094127,0.203815,0.415569,-0.703949,0.588160,0.398151
-0.100558,0.391382,0.208705,-0.468300,-0.540173,-0.699220
0.178120,0.158187,0.296937,0.638368,0.492925,0.591195
0.274562,-0.318710,0.476162,0.957086,0.108430,0.268756
0.012656,0.314761,0.232843,-0.022035,0.905208,0.424398
0.144462,-0.444327,-0.360042,0.565413,-0.438840,0.698375
-0.379882,-0.124711,-0.390159,0.258584,-0.868120,-0.423677
0.555910,-0.136122,0.732422,0.065953,-0.635193,0.769532
-0.109202,-0.212649,-0.464478,-0.203667,0.038061,0.978300
-0.076847,0.066537,-0.234574,-0.217993,0.927228,0.304510
-0.078914,0.193253,0.173471,0.517618,0.557428,0.649111
-0.191316,0.478300,-0.048539,-0.417392,0.585773,-0.694733
-0.259669,0.118147,-0.924680,0.295426,0.138462,0.945279
-0.381273,-0.062492,-0.972660,-0.807985,0.094509,0.581574
0.013573,-0.288655,0.422812,0.845619,-0.141068,0.514809
0.476774,0.211516,-0.929669,-0.660575,-0.302284,-0.687215
0.636985,-0.278357,-0.916134,-0.645587,0.720252,-0.253879
-0.225960,0.079192,-0.065875,0.824207,-0.525951,0.209901
-0.165830,-0.030354,-0.942492,0.164603,-0.141898,0.976100
-0.604151,0.060090,0.008668,-0.112137,0.938164,0.327527
0.557395,0.435624,-0.952641,-0.513513,0.484287,0.708358
-0.044558,0.199221,-0.637350,-0.127693,-0.564986,0.815160
-0.149221,-0.018262,0.125177,0.888387,-0.285792,0.359293
0.530498,-0.083195,0.761769,-0.125652,-0.934230,0.333805
0.698885,-0.108405,-0.921516,-0.206582,0.044735,0.977406
-0.148652,0.341682,-0.051722,0.907685,0.310172,-0.282669
0.007602,0.410519,-0.957896,0.091482,0.320085,-0.942962
-0.168684,-0.622766,-0.929670,0.632594,0.031158,-0.773856
0.079281,-0.314149,0.403315,-0.407931,-0.671957,0.618115
-0.367316,0.242006,-0.966806,0.667859,0.033449,0.743536
0.057420,0.344862,-0.575621,0.775414,-0.404452,-0.484924
-0.006382,-0.203388,-0.933574,0.714750,0.645277,-0.269721
0.062647,0.685752,0.112399,0.627789,-0.768275,0.125038
-0.156372,-0.125062,-0.547561,0.743319,0.289953,-0.602830
-0.142747,-0.582510,-0.931582,-0.760029,0.547081,0.350796
-0.164566,-0.353212,-0.947795,0.423825,0.491516,-0.760778
-0.520229,-0.192072,-0.953621,0.278057,-0.593749,-0.755080
-0.712504,0.130240,-0.985142,0.320084,0.107538,0.941266
-0.204840,0.348476,0.180943,-0.507257,0.689676,0.516756
0.091043,0.263223,-0.045295,-0.656429,0.181287,-0.732281
0.455581,0.209283,-0.904973,0.731379,-0.596692,-0.330217
0.100222,-0.236506,-0.108874,0.670068,0.707905,-0.223338
0.826815,0.104641,-0.877720,0.486070,0.442788,0.753442
0.419126,-0.118225,-0.918144,0.467770,-0.706252,0.531412
-0.140355,0.005238,0.622458,0.751158,0.550593,0.364155
-0.004956,-0.508573,-0.901569,-0.126541,0.962648,-0.239368
-0.627076,-0.247482,-0.969762,0.980554,-0.154340,-0.121213
-0.232306,-0.203960,0.398233,0.180526,-0.180430,0.966879
-0.626537,-0.572014,-0.945224,0.645482,0.730707,-0.222307
-0.201273,-0.139572,-0.878909,0.981158,-0.188612,0.041873
0.034802,-0.068889,0.556930,0.909351,0.316245,0.270315
0.505132,0.180451,0.636402,0.909320,0.381421,-0.166302
-0.771714,0.136972,-0.977214,0.263736,-0.323011,-0.908904
0.098403,0.492789,-0.961000,0.612992,0.777279,0.141694
0.334930,0.453912,0.619783,-0.359833,0.644251,-0.674878
-0.538437,-0.006769,-0.385339,-0.314014,0.628511,0.711596
-0.375167,0.061352,-0.945106,0.963043,-0.083319,-0.256136
0.277908,0.023569,-0.894217,0.247508,-0.894803,-0.371576
-0.173710,0.251346,-0.085666,0.851738,-0.297423,-0.431373
0.208403,0.533766,-0.972899,-0.499130,0.803611,-0.324159
-0.042847,-0.399024,-0.925275,0.218646,0.509283,0.832361
-0.815417,0.118188,-0.990706,-0.340468,0.463081,0.818314
-0.240947,-0.033165,-0.136336,0.337972,0.573298,-0.746395
-0.219431,0.459423,0.700389,0.843344,0.448233,-0.296409
0.267848,0.236571,-0.938258,-0.424596,-0.103669,-0.899428
-0.601460,-0.398110,-0.934905,-0.177827,-0.337814,0.924262
-0.591094,0.141129,-0.956782,-0.032663,-0.197686,0.979721
-0.081017,0.050867,0.905385,0.794864,-0.206449,0.570588
0.433756,0.533931,-0.955961,-0.136800,0.569934,-0.810223
0.299496,0.047948,0.255168,0.091041,0.375762,0.922233
0.777594,0.790958,0.575970,0.767101,0.604357,-0.215195
-0.194222,-0.291596,-0.938898,-0.028858,-0.747859,0.663230
-0.101765,0.299414,0.131352,-0.358031,-0.789265,0.498873
-0.108286,0.064922,0.562341,0.894891,0.262668,-0.360799
-0.266601,-0.682779,-0.922708,-0.193480,0.147202,0.969998
-0.231766,0.222289,0.205546,0.467784,0.846500,-0.254194
-0.052384,-0.753602,0.129168,0.279124,-0.466469,0.839343
-0.190323,0.350794,0.689234,-0.690128,-0.718203,-0.088930
0.277613,-0.654147,-0.901393,0.343374,-0.926414,-0.154436
-0.407968,0.503252,-0.555485,-0.052505,0.691764,0.720212
-0.274219,-0.092059,-0.061474,0.025397,-0.999652,0.007170
0.231493,-0.341791,-0.915096,-0.053016,-0.092619,0.994289
-0.125432,0.149618,-0.484580,0.959185,0.132228,-0.249960
-0.327652,-0.326458,-0.959311,-0.104957,0.903932,0.414598
-0.212744,0.206889,0.187851,0.717027,0.635939,-0.285401
-0.483637,-0.044082,-0.971093,0.981693,0.026897,0.188559
-0.080483,0.055336,-0.141514,0.364500,-0.677809,-0.638526
-0.214004,-0.124677,0.601005,-0.169966,0.277488,-0.945575
-0.732615,0.041451,0.006477,-0.143981,-0.785537,-0.601831
-0.044749,-0.048501,0.241110,-0.618062,0.292386,-0.729733
0.078016,0.218314,0.105218,-0.006456,0.709315,0.704863
0.448367,0.365229,-0.889473,0.467690,0.661686,-0.586036
0.075423,-0.460977,-0.363270,-0.204213,0.649868,-0.732098
0.597070,-0.335489,-0.926522,-0.488231,0.742221,-0.459062
0.365512,0.017523,-0.922336,-0.552609,0.322493,0.768519
-0.533736,0.036335,-0.528293,0.892730,-0.426505,0.145352
-0.214610,0.135187,0.018721,-0.406087,-0.889674,-0.208746
-0.114198,0.186340,0.654790,0.886556,0.322353,0.331824
0.312938,-0.459950,0.016540,0.905270,-0.407393,0.120486
-0.520123,-0.175115,-0.975919,0.395076,0.904052,-0.163107
0.187038,0.581889,-0.302148,0.996407,0.077566,-0.034016
-0.575869,-0.057601,-0.979288,-0.028798,0.610995,-0.791111
-0.631825,0.138833,-0.992454,-0.601195,0.326896,-0.729180
-0.424869,0.384005,-0.006880,0.842968,0.498711,-0.201723
0.048426,0.215517,0.158607,0.493214,0.829039,-0.263503
-0.565855,-0.353854,-0.949029,-0.391309,0.917122,0.075919
-0.274283,0.172424,-0.950433,0.581742,0.292055,-0.759131
-0.054713,-0.516156,-0.901841,0.899522,-0.281133,-0.334400
-0.046039,0.160088,-0.274955,0.603555,0.772827,-0.196111
-0.256786,0.368432,0.095246,0.493636,-0.800933,0.338866
