-0.086689,-0.142446,0.753115,0.873541,-0.331894,-0.356052
0.190402,-0.474366,0.597031,0.199737,-0.332499,0.921710
0.146539,-0.411023,0.647392,-0.432494,0.829484,0.353421
0.302501,-0.593370,0.570954,0.780801,-0.121942,-0.612764
0.301339,-0.582016,0.595118,0.817187,0.567796,-0.099056
0.001030,-0.204189,0.807007,0.937551,0.038910,-0.345664
0.047081,-0.252018,0.798942,0.984642,0.031631,0.171696
0.029795,-0.222104,0.830465,0.439176,-0.712934,-0.546672
0.046050,-0.232980,0.841797,0.593464,-0.531114,-0.604747
0.077139,-0.262416,0.842827,0.707973,-0.448823,-0.545282
0.101648,-0.283690,0.848891,-0.282722,0.546659,0.788183
0.132611,-0.312482,0.851157,0.315370,0.548094,0.774684
-0.164735,-0.209627,0.509556,0.941897,-0.275420,-0.192287
-0.104361,-0.263851,0.517709,0.601169,0.561215,0.568887
-0.090819,-0.270734,0.533103,0.103173,0.917664,-0.383730
-0.052246,-0.308802,0.530454,0.414175,0.288444,-0.863284
-0.032768,-0.323202,0.540814,0.909572,-0.163653,-0.381965
-0.075335,-0.250896,0.616487,-0.651612,-0.730039,0.206021
0.073658,-0.425101,0.541256,0.315856,0.942556,0.108737
-0.070950,-0.236661,0.660813,-0.435004,0.252493,-0.864303
0.042440,-0.366873,0.609629,-0.229755,0.686250,-0.690126
-0.186922,-0.075421,0.781577,-0.012213,0.827315,0.561606
-0.154802,-0.105814,0.782166,0.711721,0.558988,0.425424
-0.270901,-0.138608,0.434384,0.095528,0.387518,-0.916899
-0.115455,-0.312648,0.375194,-0.118038,-0.985641,0.120739
-0.273223,-0.094293,0.536252,-0.152032,0.527128,0.836076
-0.227557,-0.141323,0.529335,0.961498,0.247695,0.119032
0.063722,-0.365272,0.663609,-0.293592,-0.833119,0.468740
0.201236,-0.524588,0.597238,0.236225,0.829422,-0.506218
0.319012,-0.659116,0.545406,0.209335,0.954634,-0.211783
0.302241,-0.629045,0.579283,0.760946,0.616370,-0.202605
0.042180,-0.301928,0.765860,-0.581487,0.056019,0.811625
0.043987,-0.295524,0.785757,0.963984,0.049250,0.261359
0.014832,-0.251384,0.824667,0.965496,-0.006057,0.260349
0.029925,-0.260659,0.836794,-0.132436,-0.930176,0.342395
0.092617,-0.328318,0.818663,0.619922,0.780853,0.077238
0.066560,-0.288006,0.855778,0.130814,0.916221,0.378716
0.098810,-0.318564,0.857073,-0.216573,-0.923318,-0.317144
-0.110683,-0.236183,0.629467,-0.632413,-0.774631,-0.000402
-0.103715,-0.235538,0.648275,0.996322,0.080540,-0.029266
-0.056632,-0.283847,0.640563,-0.351838,-0.903754,-0.243802
0.015737,-0.363036,0.616369,0.397436,0.851106,-0.343022
-0.213365,-0.073341,0.787964,0.465721,0.884243,-0.034910
-0.194016,-0.088377,0.796735,0.586513,0.808755,0.043788
-0.126548,-0.161962,0.775337,-0.609979,-0.662523,0.434729
0.263929,-0.629211,0.546789,0.677377,0.723965,-0.130522
0.386995,-0.769656,0.491808,0.132007,-0.839761,0.526665
0.018316,-0.312004,0.748435,-0.314916,-0.924248,-0.215857
0.056628,-0.340639,0.767832,-0.665830,-0.706237,0.240623
0.008513,-0.273771,0.818722,0.985796,0.146495,-0.082134
0.030055,-0.291530,0.826698,0.972858,0.227283,-0.043475
0.109132,-0.379028,0.798324,0.799193,0.598725,-0.053099
0.056758,-0.306888,0.851716,0.618013,-0.738483,-0.269633
0.066820,-0.310403,0.866639,0.892746,0.427020,0.143730
-0.098299,-0.350393,0.377314,-0.054283,-0.997704,0.040506
-0.191178,-0.224506,0.467761,0.991807,-0.126333,-0.018956
-0.181505,-0.226263,0.486422,0.906601,0.364729,-0.212244
-0.186662,-0.210105,0.514207,-0.553340,0.832895,-0.010023
-0.265224,-0.102778,0.593323,0.196730,0.873785,0.444744
-0.132741,-0.256822,0.526510,-0.518491,-0.672384,-0.528268
-0.109522,-0.275694,0.535193,-0.338497,0.860279,0.381234
-0.062049,-0.324637,0.526539,-0.485229,-0.634917,0.601193
-0.033543,-0.350237,0.530719,-0.079131,0.996805,0.010824
-0.130678,-0.220991,0.620048,0.862162,0.456842,-0.219023
-0.328176,-0.186439,0.267940,-0.271607,-0.715818,0.643300
-0.151059,-0.301928,0.404510,0.292112,0.942542,0.162125
-0.180986,-0.255221,0.450308,0.976306,-0.111684,-0.185346
-0.198016,-0.224184,0.487717,0.988939,0.134498,0.062534
-0.228459,-0.176842,0.533279,0.792846,0.607550,-0.047740
-0.199433,-0.202909,0.537989,0.876767,0.479341,-0.038884
-0.143835,-0.261293,0.524567,-0.618475,-0.576638,-0.533833
-0.106038,-0.298091,0.523390,0.613814,0.761984,0.206431
-0.078819,-0.322558,0.528129,-0.381762,-0.203387,0.901605
-0.048117,-0.350715,0.530866,-0.288980,0.149822,0.945539
-0.123324,-0.248982,0.605508,-0.613017,0.740563,-0.275276
-0.122938,-0.240342,0.628054,0.246602,0.969111,0.003411
-0.139193,-0.211227,0.662255,0.788216,-0.106572,0.606101
-0.044892,-0.316964,0.623345,0.586686,0.797043,-0.143253
-0.048892,-0.303051,0.649216,-0.596221,-0.111427,-0.795050
-0.224203,-0.081504,0.785374,0.410022,0.909422,0.069523
-0.217881,-0.080537,0.802563,0.153351,0.987409,0.038827
-0.142933,-0.162597,0.776309,0.862753,0.484474,-0.144713
0.227809,-0.612087,0.538018,0.859089,0.223396,-0.460500
-0.108231,-0.196036,0.775455,0.430030,0.692564,-0.579163
0.273735,-0.649519,0.554707,0.962138,0.084282,-0.259206
-0.014450,-0.292487,0.759826,0.267503,-0.215696,0.939104
0.024378,-0.330398,0.757442,0.358180,0.923973,0.134095
0.347391,-0.711584,0.576546,0.969349,0.053742,-0.239739
0.064757,-0.362714,0.774278,-0.724522,0.685200,0.074620
-0.001419,-0.274250,0.836882,0.894494,0.219848,0.389292
0.077528,-0.361269,0.808714,0.612275,0.790644,-0.001285
0.079075,-0.354552,0.829082,0.458473,0.888708,-0.001281
0.054951,-0.317285,0.864814,0.045891,-0.974657,-0.218946
0.640222,-0.992316,0.575310,-0.540940,-0.839173,-0.056332
-0.132095,-0.333922,0.393796,-0.190587,-0.943983,0.269394
-0.200339,-0.240820,0.467320,0.860137,-0.495961,0.119111
-0.213625,-0.215065,0.500932,-0.709761,0.701233,-0.067162
-0.176214,-0.251062,0.500079,-0.108530,0.988206,-0.108028
-0.145126,-0.279853,0.503228,-0.268598,-0.961452,0.058858
-0.160475,-0.251540,0.538489,-0.579434,-0.610314,-0.540161
-0.123454,-0.288006,0.536723,0.020806,-0.910237,0.413565
-0.319275,-0.203387,0.265674,0.266615,0.758620,-0.594485
-0.405057,-0.056871,0.435297,0.198863,0.719633,0.665268
-0.068112,-0.346078,0.522743,-0.408759,-0.824970,0.390309
-0.045924,-0.363993,0.532132,0.664148,-0.356388,-0.657187
-0.121391,-0.263539,0.605685,-0.634492,0.764535,-0.113609
-0.111199,-0.267054,0.622373,0.770958,0.627260,-0.110314
-0.138288,-0.225150,0.663727,0.758783,0.312956,0.571233
-0.135064,-0.220347,0.684595,0.988337,0.152132,0.006777
-0.017544,-0.353751,0.629997,0.141585,0.907351,0.395813
-0.031866,-0.327996,0.661784,0.656997,-0.104751,0.746580
-0.227167,-0.084061,0.810362,-0.029161,0.974078,0.224327
-0.122679,-0.201952,0.764447,-0.670169,-0.223596,-0.707727
-0.094689,-0.227229,0.768685,-0.533072,-0.155363,-0.831683
-0.008257,-0.313761,0.757913,-0.279957,0.635816,0.719279
0.327657,-0.708225,0.568540,0.786465,0.069663,-0.613694
0.339396,-0.714142,0.583228,0.997651,0.019096,-0.065786
0.017284,-0.320322,0.805271,0.939889,0.327947,0.095183
0.071981,-0.378072,0.791967,0.697120,0.711468,0.088524
0.117903,-0.424457,0.785256,0.939963,0.326403,-0.099656
0.109132,-0.405897,0.811923,0.965703,0.212848,0.148703
0.046180,-0.322880,0.871083,-0.039731,-0.978242,0.203626
0.636478,-1.000000,0.579902,-0.483051,-0.874849,0.036071
0.361194,-0.729021,0.585965,0.648639,0.646734,0.401251
0.047857,-0.350715,0.800179,-0.530280,-0.846700,-0.043614
0.030956,-0.323046,0.831731,-0.708504,-0.589216,0.388390
0.099715,-0.396622,0.810951,0.782853,0.596222,0.177936
0.054951,-0.336001,0.858809,0.876602,-0.476724,-0.065603
0.071592,-0.348157,0.868787,-0.062321,0.994295,-0.086566
-0.389192,-0.072706,0.417136,-0.496371,0.559903,0.663419
-0.498712,0.070784,0.521977,-0.262624,0.944520,0.197257
-0.162928,-0.292008,0.408395,0.238380,0.927916,-0.286611
-0.149641,-0.299048,0.424701,0.782724,-0.620037,-0.053816
-0.240584,-0.170915,0.537312,0.804046,0.582220,0.120543
-0.218011,-0.188997,0.546466,0.333333,-0.196628,0.922077
-0.147964,-0.264652,0.523125,-0.624519,-0.588750,-0.513176
-0.121517,-0.287849,0.528717,-0.617940,-0.661766,-0.424519
-0.079981,-0.329119,0.524214,0.465869,0.683319,-0.562176
-0.056502,-0.348792,0.532632,-0.674022,0.268937,0.688017
-0.116360,-0.268177,0.595648,-0.473469,0.573777,-0.668287
-0.102168,-0.276651,0.609806,-0.448831,-0.893191,0.027592
-0.157121,-0.202753,0.669143,0.998889,0.000977,0.047106
-0.040251,-0.333922,0.615633,0.746561,0.661313,-0.072887
-0.105782,-0.247224,0.680680,0.978639,0.113474,0.171434
-0.230782,-0.089978,0.783343,-0.477485,-0.845499,-0.239040
-0.229620,-0.083417,0.804652,0.126850,0.983997,0.125135
-0.183824,-0.130124,0.796323,-0.512257,-0.857510,0.047640
0.231679,-0.625052,0.530660,-0.434356,0.585534,0.684459
-0.116230,-0.202753,0.775161,-0.404969,-0.773568,0.487435
0.269865,-0.654001,0.552941,0.847537,0.525011,-0.077740
-0.021934,-0.298892,0.759326,0.327236,-0.187042,0.926246
0.021670,-0.342719,0.753056,0.537116,0.324105,0.778757
0.352552,-0.726785,0.568688,0.773358,0.033898,-0.633063
-0.304827,-0.200195,0.266998,0.289906,0.491096,-0.821450
-0.375775,-0.077344,0.424377,0.996073,0.044616,-0.076468
-0.166152,-0.285614,0.402567,0.389947,0.915320,-0.100650
-0.213109,-0.203387,0.509880,-0.651756,0.643962,-0.400657
-0.105522,-0.323358,0.461110,0.823097,-0.081219,-0.562062
-0.177761,-0.228664,0.534251,-0.672692,-0.672585,-0.308407
-0.139709,-0.265775,0.531926,-0.366056,-0.848371,-0.382453
-0.109782,-0.293287,0.535899,-0.231812,0.946851,-0.223016
-0.056762,-0.348313,0.523537,-0.090812,0.958246,-0.271141
-0.039991,-0.359668,0.536341,0.873213,-0.363918,-0.324133
-0.116230,-0.260981,0.610600,-0.824937,-0.557925,0.090546
-0.096106,-0.276817,0.620725,-0.619983,-0.772227,0.138873
-0.056762,-0.315685,0.617252,0.529089,0.841607,-0.108455
-0.160219,-0.185638,0.706699,0.804748,-0.063091,0.590254
-0.201370,-0.129168,0.755735,-0.038122,0.636489,0.770343
0.028378,-0.392785,0.629467,0.899108,-0.025286,0.436997
-0.208850,-0.104691,0.803828,-0.185552,-0.977892,-0.096422
0.243808,-0.631125,0.538048,0.943509,0.155695,-0.292489
-0.083981,-0.236827,0.768185,0.704943,0.213419,0.676394
0.276184,-0.661040,0.540873,0.772873,0.535282,-0.340794
0.291021,-0.671115,0.553529,0.915319,0.273354,0.295751
-0.000648,-0.320644,0.757766,-0.279957,0.635816,0.719279
0.338105,-0.710949,0.569011,0.774643,0.071581,-0.628335
0.049920,-0.365116,0.768715,0.850043,-0.189155,-0.491576
0.062565,-0.372311,0.782489,0.827795,0.559919,-0.035303
0.025024,-0.320966,0.826639,0.788629,0.609638,-0.080037
0.385448,-0.742943,0.606597,0.897510,0.324444,-0.298683
0.111841,-0.415338,0.794910,0.927806,0.368149,-0.060354
0.052502,-0.338882,0.850980,-0.082939,0.983658,0.159809
0.058691,-0.339194,0.867051,-0.343186,0.939031,0.021088
-0.604232,0.089178,0.274386,-0.533770,-0.743381,0.403080
-0.374228,-0.058306,0.432089,0.071499,0.676613,0.732859
-0.207047,-0.216665,0.438417,0.600150,0.747380,0.285032
-0.218912,-0.177476,0.522065,0.880849,0.352639,0.315834
-0.141902,-0.260815,0.492956,0.302554,0.832818,-0.463546
-0.167699,-0.222748,0.534015,0.661998,0.625866,0.412371
-0.126938,-0.262895,0.530748,-0.229417,0.842396,0.487583
-0.091590,-0.296968,0.530307,-0.164309,-0.684995,0.709778
-0.039731,-0.349914,0.519770,-0.330777,0.883998,-0.330353
-0.035991,-0.346234,0.541344,0.890281,-0.365185,-0.272103
-0.113777,-0.247059,0.616075,-0.515071,-0.752620,0.410200
-0.053793,-0.310246,0.599151,-0.603375,0.314519,-0.732814
-0.027481,-0.334079,0.604125,0.780429,0.407800,-0.473951
-0.127194,-0.209470,0.691777,0.977801,0.014759,0.209016
-0.206787,-0.109495,0.764476,-0.437020,-0.828258,0.350718
-0.222656,-0.083417,0.797000,0.445856,0.893149,0.059135
-0.184599,-0.120693,0.794469,0.437358,0.897679,0.053765
-0.137902,-0.168201,0.786757,-0.594997,-0.780709,0.190976
0.255673,-0.626810,0.538106,0.943509,0.155695,-0.292489
0.278376,-0.646005,0.545965,0.790753,0.598261,-0.129588
0.008513,-0.317598,0.758207,-0.379840,0.825515,0.417429
0.343782,-0.700073,0.571719,0.909627,0.170523,-0.378814
0.062691,-0.366873,0.766890,0.883884,-0.260043,-0.388751
0.062175,-0.359356,0.788523,0.630673,0.765847,0.125419
0.001030,-0.281455,0.846919,0.030058,0.852108,0.522503
0.113518,-0.404784,0.799119,0.998103,0.036966,0.049237
0.051727,-0.326883,0.856367,-0.609229,0.767143,0.200827
0.057144,-0.326239,0.873791,-0.039731,-0.978242,0.203626
-0.509420,0.008552,0.175844,0.187716,0.678454,0.710255
-0.217105,-0.196993,0.414929,-0.264182,-0.913335,0.309882
-0.129776,-0.283847,0.404922,-0.623616,-0.781614,-0.013534
-0.197756,-0.196349,0.477062,-0.655413,0.729954,-0.193907
-0.175439,-0.215065,0.485451,0.998414,-0.021476,-0.052048
-0.181891,-0.200029,0.513500,-0.649943,0.753282,0.100703
0.285475,-0.647127,0.563537,0.921753,0.084984,-0.378350
-0.123840,-0.224027,0.615692,0.866302,0.338815,-0.367049
-0.113262,-0.229309,0.631027,0.772721,-0.633244,0.043645
-0.149256,-0.180200,0.677472,0.993314,-0.114906,-0.011165
-0.022965,-0.319844,0.617664,0.985422,0.133161,-0.105888
-0.004903,-0.333756,0.628849,-0.087149,0.795028,0.600280
-0.212334,-0.087098,0.783873,0.295918,0.955072,0.016410
-0.201110,-0.093492,0.798501,0.545651,0.836354,-0.052697
-0.140740,-0.156524,0.781106,-0.587119,-0.715566,0.378493
-0.082559,-0.216988,0.765389,0.717376,0.411700,0.562028
0.263157,-0.614967,0.548526,0.852747,-0.502964,-0.140887
0.289730,-0.638809,0.554736,0.967818,-0.007079,-0.251550
0.000644,-0.299683,0.755941,-0.658801,0.751441,-0.036299
0.054695,-0.355030,0.744138,-0.253308,-0.751181,-0.609559
0.340168,-0.675918,0.590527,0.825967,0.464007,0.320119
0.029279,-0.312805,0.802416,0.943082,0.152089,0.295746
0.033665,-0.311369,0.819928,0.824264,0.556739,-0.103102
0.106034,-0.388304,0.796205,0.828048,0.449131,-0.335587
0.077914,-0.349436,0.834056,0.718245,0.647811,-0.253900
0.070044,-0.334235,0.858633,0.528119,-0.849025,0.015731
-0.364036,-0.041991,0.428498,-0.055376,0.725462,0.686031
-0.179182,-0.227708,0.397828,0.665200,0.641616,-0.381887
-0.102038,-0.309924,0.369690,0.297001,-0.927537,-0.226859
-0.099460,-0.305921,0.393355,-0.155962,-0.949169,0.273412
-0.182663,-0.195235,0.499225,0.808165,-0.569774,0.149088
-0.267287,-0.092702,0.595648,0.453746,0.877478,0.155392
-0.124230,-0.252497,0.522183,0.393016,0.685235,0.613181
-0.095074,-0.279375,0.526657,0.436950,0.535108,-0.723003
-0.065663,-0.305921,0.531131,-0.233474,-0.340290,0.910875
-0.017674,-0.354396,0.523155,-0.324162,0.937658,-0.125367
-0.091720,-0.246102,0.624581,-0.632413,-0.774631,-0.000402
-0.042314,-0.295846,0.615574,0.669326,0.742945,0.005875
-0.112616,-0.208826,0.682711,0.966505,0.052744,0.251168
-0.218267,-0.081337,0.772835,-0.228175,0.969275,-0.091880
-0.193371,-0.103578,0.778781,0.158630,0.985006,-0.067820
-0.175568,-0.117491,0.789230,0.575474,0.806753,0.134087
-0.137772,-0.154923,0.786139,0.782049,0.619867,0.064531
0.262641,-0.605213,0.556944,0.754737,-0.632604,-0.173738
0.383771,-0.736539,0.504494,-0.253286,0.693087,-0.674890
0.010190,-0.304965,0.757089,-0.658801,0.751441,-0.036299
0.345974,-0.680234,0.572514,0.919588,0.253916,-0.299807
0.059336,-0.348313,0.769833,0.765232,0.625951,-0.150351
0.026315,-0.305130,0.810716,0.886406,0.461924,-0.030175
0.027346,-0.300327,0.830171,0.744844,0.566384,-0.352727
0.114935,-0.393907,0.797442,0.996300,0.033393,0.079194
0.071466,-0.338394,0.844270,0.984872,0.121175,0.123870
0.065013,-0.325438,0.867698,0.045891,-0.974657,-0.218946
-0.507353,0.021518,0.180435,-0.071036,0.420371,0.904567
-0.174537,-0.197793,0.517121,0.884523,0.459065,-0.082942
-0.148350,-0.220668,0.523773,0.788986,0.537922,-0.296887
-0.120486,-0.246424,0.528217,-0.515535,-0.825155,0.230960
-0.093783,-0.270090,0.534369,-0.120206,0.951345,-0.283713
-0.050309,-0.313283,0.529453,-0.468677,-0.262313,0.843524
-0.018706,-0.342553,0.532132,-0.568093,0.820464,-0.064094
-0.115199,-0.225306,0.617870,0.820942,0.490603,-0.292171
-0.161121,-0.227542,0.478122,0.954509,0.297773,-0.015603
-0.180730,-0.198594,0.515561,0.420848,0.902694,0.089612
-0.203177,-0.166756,0.553647,-0.233789,0.533141,-0.813083
-0.126033,-0.248182,0.526098,0.549842,0.834922,0.024060
-0.097267,-0.274250,0.530954,0.102855,0.882274,-0.459362
-0.057018,-0.313439,0.528099,0.455587,0.214186,-0.864040
-0.019997,-0.349592,0.526480,0.228385,-0.960979,0.156076
-0.126808,-0.221782,0.618724,0.801878,0.578357,-0.149983
-0.112100,-0.232180,0.632057,0.741183,-0.671206,0.011432
-0.159834,-0.172038,0.684654,0.992592,-0.118066,0.028661
-0.062824,-0.275850,0.644860,0.348429,-0.885265,-0.308063
-0.005033,-0.335035,0.630585,0.344443,0.882763,0.319512
0.004384,-0.339673,0.647156,-0.579900,0.454936,-0.675832
-0.204724,-0.096861,0.800385,-0.520408,-0.853887,0.007302
-0.119068,-0.188352,0.767184,-0.670169,-0.223596,-0.707727
-0.072241,-0.235060,0.759561,-0.525830,-0.236763,-0.816973
0.285084,-0.633048,0.558827,0.932499,-0.071970,-0.353929
-0.002710,-0.302084,0.758649,-0.658801,0.751441,-0.036299
0.333849,-0.675918,0.573691,0.877155,0.220375,-0.426655
0.078816,-0.382064,0.751408,0.149680,0.866704,0.475835
0.024638,-0.315362,0.804623,0.971228,0.103194,0.214633
0.045278,-0.333278,0.812129,0.769152,0.629313,-0.111224
0.391766,-0.722783,0.603389,0.929294,0.273212,-0.248531
0.122675,-0.414215,0.786640,0.983365,0.136360,0.119995
0.106680,-0.391184,0.815955,-0.342888,-0.907231,0.243638
0.057533,-0.330398,0.865697,-0.343186,0.939031,0.021088
-0.581013,0.078457,0.237212,0.492178,0.734963,0.466466
-0.356556,-0.175074,0.093490,-0.168357,0.762058,0.625239
-0.328822,-0.133971,0.345820,0.727902,0.679145,-0.094449
-0.358489,-0.093180,0.392148,-0.604837,-0.796304,-0.008479
-0.362103,-0.051110,0.420845,0.084024,0.752488,0.653224
-0.217751,-0.189475,0.419403,0.336926,0.928524,-0.155964
-0.135449,-0.270256,0.412839,0.840924,0.539369,0.043905
-0.198016,-0.192033,0.479564,-0.633446,0.757378,-0.158507
0.268574,-0.653356,0.547201,0.597716,0.799920,0.053511
0.000258,-0.339839,0.757059,0.000384,0.790193,0.612858
0.345069,-0.721660,0.566951,0.760768,-0.068216,-0.645429
0.368677,-0.742299,0.574044,0.891163,0.144642,-0.430009
0.034184,-0.355831,0.818339,0.661828,0.749468,-0.016783
0.116226,-0.442372,0.789877,0.927806,0.368149,-0.060354
0.081654,-0.398067,0.830995,-0.390407,-0.868580,0.305207
-0.716850,0.173639,0.256049,0.924648,0.349020,-0.152350
-0.451369,-0.112853,0.135256,0.449543,0.722930,-0.524675
-0.540764,0.066625,0.494163,-0.141105,0.963764,-0.226382
-0.419765,-0.065824,0.431765,-0.033728,0.746211,0.664855
-0.211173,-0.221469,0.439918,-0.602621,-0.525192,-0.600851
-0.187568,-0.235538,0.472147,0.866061,-0.485362,0.119846
-0.231297,-0.179712,0.525186,-0.721960,-0.122625,-0.680983
-0.154283,-0.261137,0.497312,0.208992,0.976428,0.053946
-0.164089,-0.243378,0.528011,-0.456513,-0.783873,-0.420879
-0.126938,-0.279375,0.527040,0.219065,0.873611,0.434527
-0.093138,-0.311526,0.527864,-0.305386,-0.706249,0.638711
-0.046829,-0.357754,0.520211,-0.251983,0.944815,-0.209354
-0.068887,-0.326239,0.558268,0.658873,-0.751976,-0.020452
-0.105782,-0.278730,0.604625,-0.276969,0.800966,-0.530794
-0.113132,-0.264496,0.632263,0.690901,0.696925,0.192228
-0.069403,-0.307688,0.626700,0.563542,0.768525,0.302968
-0.131580,-0.231701,0.689010,0.966414,0.184986,0.178395
-0.220074,-0.125965,0.766478,0.694047,0.707773,-0.131742
0.003868,-0.373112,0.645890,0.366261,0.914648,0.171091
-0.226782,-0.107093,0.813217,0.139472,-0.975041,-0.172751
-0.130678,-0.209627,0.773748,-0.404969,-0.773568,0.487435
-0.071725,-0.374069,0.531808,0.420647,-0.749509,-0.511167
-0.099330,-0.336480,0.573397,0.841345,0.261821,-0.472851
-0.081528,-0.350871,0.584905,0.958366,0.285352,0.010392
-0.135965,-0.283212,0.642977,-0.029432,0.839103,0.543175
-0.136481,-0.277295,0.664904,0.403113,-0.572878,0.713660
-0.111974,-0.299048,0.671085,0.920607,-0.282020,0.270089
-0.033027,-0.382231,0.643330,0.735304,0.172178,0.655502
0.036117,-0.454527,0.621196,0.949911,-0.275415,-0.147699
0.309209,-0.743100,0.518593,-0.268407,-0.951179,0.152365
0.286246,-0.711906,0.554412,0.916587,-0.387812,-0.097315
0.336688,-0.757012,0.567392,0.828442,0.041523,-0.558534
0.345329,-0.761338,0.583522,0.861061,-0.396401,-0.318497
0.363130,-0.775094,0.594883,0.899760,-0.186685,-0.394436
0.384287,-0.793009,0.604066,-0.736363,-0.099785,0.669188
0.415635,-0.822280,0.607215,0.820892,0.495111,-0.284607
0.441046,-0.845477,0.612867,0.748578,0.542743,-0.380869
-0.661638,0.074298,0.264467,0.740689,0.347876,-0.574771
-0.603717,0.014157,0.248073,0.003769,-0.954680,-0.297611
-0.538445,-0.040234,0.280273,0.746986,0.364577,-0.555963
-0.469686,-0.105658,0.282716,0.389439,-0.784311,0.482901
-0.160735,-0.454049,0.082011,0.662065,0.052336,0.747617
-0.177891,-0.303051,0.412545,0.214080,0.959275,0.184285
-0.171053,-0.304330,0.431912,-0.677669,0.682901,-0.272784
-0.213881,-0.249461,0.485568,0.042791,-0.998855,0.021386
-0.210917,-0.246258,0.508026,-0.701981,0.539615,-0.464800
-0.145512,-0.314562,0.488041,0.547459,0.750218,-0.370758
-0.179052,-0.270578,0.533544,-0.237180,0.373154,0.896940
-0.139449,-0.309446,0.530101,-0.671937,0.630814,0.388038
-0.084366,-0.365750,0.517444,-0.285339,0.154137,-0.945951
-0.374874,-0.161484,0.421758,0.090748,-0.783807,0.614338
-0.272062,-0.272492,0.374871,-0.685523,-0.677534,-0.266471
-0.243808,-0.260981,0.526686,0.085047,-0.253560,0.963574
-0.217105,-0.285291,0.531837,-0.293737,0.751468,0.590774
-0.164345,-0.339194,0.519593,-0.232374,0.083447,0.969040
-0.160991,-0.337115,0.541168,0.355412,0.380413,0.853796
-0.119068,-0.378706,0.536193,0.465260,0.127660,0.875920
-0.126678,-0.364315,0.564537,-0.371197,-0.206611,0.905276
-0.305729,-0.156358,0.704315,0.563868,0.821639,-0.083438
-0.152866,-0.317120,0.649746,0.150690,0.669638,0.727239
-0.093527,-0.378384,0.633381,0.571624,0.583460,0.576905
-0.094689,-0.371511,0.656604,0.479438,0.381135,0.790490
-0.043476,-0.423500,0.645478,-0.811540,0.065098,-0.580659
0.025154,-0.495162,0.624493,0.901966,-0.302281,-0.308356
0.255028,-0.735582,0.548084,0.755124,-0.543487,-0.366620
0.266381,-0.742622,0.562772,0.328799,-0.745759,-0.579426
0.297729,-0.772048,0.566039,0.327329,-0.253196,-0.910356
0.409183,-0.868831,0.607363,0.605428,0.615831,-0.504191
-0.660992,-0.006639,0.143026,-0.173197,-0.792118,0.585279
-0.114553,-0.640888,-0.288551,0.467153,-0.607784,-0.642157
-0.670798,0.033508,0.264614,-0.556309,-0.207358,0.804688
-0.630163,-0.006961,0.260258,-0.343914,-0.852484,0.393693
-0.594686,-0.040712,0.261229,0.057648,0.908835,0.413153
-0.526706,-0.000722,0.479093,0.134951,-0.805285,0.577326
-0.435244,-0.099097,0.439123,-0.007028,0.577275,0.816520
-0.515222,-0.111896,0.283157,0.133590,-0.818136,0.559291
-0.219428,-0.444452,0.091283,-0.438529,0.493469,-0.751120
-0.487103,-0.098452,0.444127,0.900765,-0.356112,-0.248608
-0.373197,-0.215543,0.413428,0.236823,-0.831777,0.502058
-0.311921,-0.254743,0.493545,-0.657921,0.678171,0.327449
-0.330625,-0.227229,0.530631,0.796744,0.369494,-0.478198
-0.316177,-0.237618,0.544052,0.845952,0.062150,-0.529625
-0.275932,-0.277608,0.539784,0.999850,0.013722,-0.010530
-0.248197,-0.303363,0.544935,-0.226443,0.223246,0.948096
-0.181375,-0.372790,0.523331,0.456354,0.219653,-0.862261
-0.204079,-0.341440,0.561918,0.266382,-0.358519,0.894709
-0.107845,-0.443973,0.522154,0.920787,0.329184,-0.209261
-0.132355,-0.410544,0.561565,0.059475,-0.515519,0.854812
0.045920,-0.605692,0.468144,0.411623,-0.858728,-0.305210
-0.075981,-0.463012,0.569600,0.875731,0.200996,-0.438972
-0.185115,-0.334557,0.662520,0.965311,-0.242594,-0.096560
-0.147834,-0.370710,0.660313,0.822462,0.548074,0.152223
-0.142032,-0.371989,0.678797,0.660743,0.632101,-0.404805
-0.082689,-0.432775,0.663491,0.724026,-0.031440,0.689056
0.003998,-0.524588,0.631115,-0.145722,0.569907,0.808685
0.053404,-0.574498,0.621638,0.879843,0.095923,0.465483
0.226648,-0.757012,0.558092,0.933005,-0.334458,-0.132812
0.258512,-0.786927,0.560181,0.869696,-0.091467,-0.485038
0.316173,-0.824682,0.633352,-0.347318,-0.891135,-0.291974
-0.509030,-0.224027,0.102556,0.660160,0.547646,0.514075
-0.678408,-0.021518,0.261553,0.548682,0.021997,-0.835742
-0.519092,-0.171081,0.277624,0.286348,0.524705,-0.801679
-0.505806,-0.147562,0.424583,0.431201,0.900733,-0.052398
-0.466978,-0.179878,0.445804,-0.591930,-0.153356,-0.791265
-0.487358,-0.132370,0.558504,-0.118849,0.866546,0.484741
-0.252193,-0.375191,0.492603,0.836104,0.482596,0.260826
-0.274381,-0.344632,0.530631,0.875277,-0.192671,0.443585
-0.414478,-0.180678,0.648068,0.506557,-0.792005,-0.340775
-0.244969,-0.366229,0.558651,0.732383,-0.379019,0.565650
-0.220333,-0.387981,0.565980,-0.563534,-0.188596,0.804277
-0.183438,-0.423978,0.564184,0.191681,-0.455653,0.869275
-0.117006,-0.493395,0.543169,0.925424,-0.344995,0.156744
-0.320563,-0.258579,0.698340,0.470797,0.838067,0.275669
-0.122938,-0.475645,0.592322,0.713581,-0.482427,-0.508002
-0.091850,-0.504760,0.595295,0.101048,0.291310,0.951277
-0.214141,-0.356631,0.718031,-0.358232,-0.929824,-0.084245
-0.012903,-0.571618,0.633499,-0.419619,-0.341216,-0.841125
-0.643965,-0.089656,0.122040,-0.664603,-0.239925,-0.707629
-0.578435,-0.150920,0.128427,0.410604,0.452692,0.791501
-0.310504,-0.635606,-0.526871,-0.478144,0.774272,0.414586
-0.615456,-0.192677,0.076331,0.873932,-0.362240,-0.324077
-0.334369,-0.488601,-0.024301,0.840407,-0.228891,0.491248
-0.446853,-0.344632,0.119215,0.643641,0.142347,0.751973
-0.265480,-0.526034,0.095109,-0.546258,0.348277,-0.761778
-0.732200,0.022475,0.492014,-0.291087,0.568201,0.769685
-0.504644,-0.207068,0.452397,-0.224782,0.097104,-0.969559
-0.610295,-0.080058,0.552087,0.887537,-0.256733,-0.382579
0.019863,-0.603134,0.635118,-0.380765,-0.479792,-0.790454
0.048758,-0.629846,0.638415,-0.734762,-0.076272,-0.674023
0.259157,-0.853629,0.553647,0.069162,0.652600,0.754540
0.200335,-0.777173,0.632911,0.471169,0.804750,0.361077
-0.409572,-0.285135,0.508291,-0.703303,-0.687395,0.181257
-0.597398,-0.049187,0.729157,0.011839,-0.931132,0.364489
-0.205110,-0.492917,0.465701,-0.561139,-0.502146,-0.658006
-0.273223,-0.410222,0.534486,-0.200193,0.825414,0.527839
-0.249745,-0.431018,0.541638,-0.335181,0.580594,0.742000
-0.243422,-0.432453,0.560917,0.458138,-0.083447,-0.884956
-0.200854,-0.475001,0.555384,-0.713697,0.694543,-0.090813
-0.123970,-0.556105,0.528364,0.897997,-0.093535,0.429945
-0.403380,-0.235860,0.733071,-0.004127,-0.107618,0.994184
-0.068887,-0.612253,0.516120,0.842057,-0.158659,0.515527
-0.332302,-0.310403,0.709231,0.530955,0.758545,0.377751
-0.140740,-0.520429,0.607569,-0.124889,0.782457,0.610052
-0.094429,-0.566824,0.599798,-0.387121,0.442613,0.808846
-0.227683,-0.411979,0.706846,-0.390901,-0.868937,-0.303553
-0.118683,-0.528748,0.659253,-0.241538,-0.361964,0.900356
-0.049152,-0.601533,0.637590,0.258223,0.789570,0.556686
-0.021674,-0.626810,0.642623,0.558846,0.377321,0.738458
0.012123,-0.659116,0.643742,-0.653368,0.250490,-0.714399
-0.624356,-0.253942,0.041570,0.257019,-0.429749,0.865596
-0.713107,-0.116055,0.254283,0.975586,-0.196368,-0.098342
-0.756710,-0.014313,0.497989,-0.569850,0.547026,0.613216
-0.725236,-0.044393,0.499520,-0.569850,0.547026,0.613216
-0.578175,-0.199873,0.444509,0.715053,-0.608257,-0.344561
-0.466462,-0.273937,0.584228,0.869482,0.422168,-0.256466
-0.530832,-0.189953,0.673558,-0.040599,-0.132015,0.990416
-0.242131,-0.516270,0.479888,0.792245,-0.336617,-0.508956
-0.355395,-0.382709,0.578371,0.124241,-0.964688,0.232253
-0.316953,-0.420454,0.576193,-0.096065,-0.993400,0.062678
-0.243552,-0.497554,0.551028,0.878086,0.475460,0.053880
-0.233230,-0.503637,0.567628,-0.200796,0.904861,0.375376
-0.160735,-0.580103,0.542433,0.624039,-0.058111,0.779229
-0.047475,-0.668714,0.627524,0.861323,0.259520,-0.436774
-0.031736,-0.681191,0.638974,0.154704,-0.878413,0.452170
-0.029543,-0.678155,0.659724,0.921195,0.376676,-0.097541
-0.668086,-0.119892,0.717766,0.218276,-0.965122,0.144549
-0.410994,-0.399980,0.591174,-0.345982,-0.911762,-0.221330
-0.371649,-0.439170,0.587348,0.358577,0.758270,0.544471
-0.336562,-0.473566,0.586436,-0.054990,-0.006035,0.998469
-0.272834,-0.539790,0.567746,0.681368,-0.140639,0.718303
-0.224459,-0.589221,0.558298,0.978403,-0.112838,0.173191
-0.430728,-0.545384,-0.081460,-0.643993,-0.437761,-0.627406
-0.643190,-0.277608,0.171665,-0.330686,0.077004,-0.940594
-0.598685,-0.295211,0.275593,0.311569,-0.868609,0.385284
-0.764709,-0.078946,0.502169,0.691957,0.660551,-0.291320
-0.688856,-0.280810,0.289544,0.545489,0.306413,0.780098
-0.620227,-0.353273,0.265497,0.191858,-0.939769,0.282886
-0.684341,-0.177798,0.728038,-0.319840,-0.729603,0.604468
-0.410218,-0.483319,0.566774,-0.067840,0.457718,-0.886506
-0.385452,-0.506039,0.572749,-0.149939,0.596354,-0.788594
-0.392806,-0.491803,0.600917,-0.623050,-0.483475,-0.614866
-0.366874,-0.515636,0.606921,-0.503741,-0.221953,-0.834855
-0.324692,-0.557862,0.602271,-0.629574,-0.222988,-0.744253
-0.448660,-0.527156,0.568835,0.816494,0.575855,0.041571
-0.433311,-0.538989,0.581932,0.568781,0.822057,-0.026651
-0.390353,-0.581860,0.575928,0.191898,-0.971865,-0.136577
-0.413958,-0.549865,0.613867,0.886040,0.393790,-0.244668
-0.367650,-0.596417,0.606744,0.884540,0.187168,0.427267
-0.794766,-0.274093,0.233356,0.816801,-0.569215,0.093976
-0.807923,-0.407185,0.197595,-0.220879,0.787272,-0.575686
-0.738652,-0.480762,0.172695,-0.452930,-0.503337,-0.735871
-0.794766,-0.394865,0.298403,0.924630,-0.247194,0.289749
-0.769996,-0.505872,0.177934,0.666661,0.476284,0.573339
-0.691435,-0.577056,0.201834,0.728719,-0.633432,-0.260255
-0.781995,-0.534674,0.182319,0.169754,0.496668,0.851178
-0.704335,-0.605057,0.205719,0.728719,-0.633432,-0.260255
-0.898865,-0.455172,0.207367,-0.556332,0.520897,-0.647426
-0.709111,-0.641845,0.201981,0.645244,-0.722365,-0.248694
-0.903770,-0.494196,0.197036,-0.529460,0.395437,-0.750535
-0.716591,-0.731901,0.095492,-0.080753,-0.993936,0.074632
-0.907125,-0.625843,0.191443,-0.422682,0.062692,-0.904107
0.179694,-0.828841,-0.950766,0.012330,0.210498,0.977517
0.351391,-0.823715,-0.939699,-0.141148,0.084895,0.986342
0.536635,-0.640400,-0.930575,0.872079,0.210854,-0.441610
0.210397,0.407977,-0.978610,0.450063,0.112953,-0.885824
0.254772,0.547464,-0.971899,0.164826,0.028077,-0.985923
0.160215,0.527791,-0.980405,-0.329197,0.043333,0.943266
0.301725,0.435812,-0.970781,0.192684,-0.365054,-0.910828
0.355647,0.577535,-0.972459,-0.143350,-0.127916,0.981371
0.477166,0.498677,-0.959773,0.317992,-0.065610,-0.945820
-0.375130,-0.620249,0.599239,0.971624,0.198088,0.129262
-0.582304,-0.381743,0.250722,-0.475758,0.611535,-0.632202
-0.660992,-0.327840,0.285836,0.043510,0.835093,0.548386
-0.156606,-0.642802,0.494516,0.974095,0.218057,-0.059916
-0.321468,-0.533385,0.538783,-0.071884,0.591459,0.803124
-0.361327,-0.505081,0.569777,-0.123038,0.263881,0.956676
-0.365843,-0.500122,0.596943,0.746679,0.498105,0.440865
-0.030835,-0.717022,0.613131,-0.563221,0.818668,0.112094
-0.055986,-0.699106,0.642417,0.835054,-0.547773,0.051279
-0.480264,-0.418863,0.711467,0.770719,-0.544646,0.330686
-0.523092,-0.332155,-0.313981,0.884284,-0.466270,-0.025194
-0.451884,-0.350871,0.116448,0.643641,0.142347,0.751973
-0.537410,-0.285926,0.259522,-0.532493,0.496786,-0.685313
-0.145256,-0.525867,0.481948,-0.654062,0.656557,0.375680
-0.296313,-0.425580,0.523861,-0.770622,0.309475,-0.557107
-0.281089,-0.434210,0.548879,0.796451,0.206658,-0.568294
-0.251937,-0.451491,0.571425,-0.440106,0.301724,0.845736
0.088232,-0.669358,0.616104,-0.329317,-0.942597,-0.055325
-0.627581,-0.123095,0.114035,-0.706961,-0.122179,-0.696620
-0.400156,-0.271213,0.114741,-0.411290,-0.107252,-0.905173
-0.447629,-0.230901,0.254607,-0.601465,0.797231,0.051602
-0.432665,-0.231389,0.411456,0.148246,0.853080,-0.500277
-0.217625,-0.369275,0.440536,0.931540,0.253658,-0.260557
-0.270255,-0.331677,0.500403,0.795506,0.196577,-0.573173
-0.298249,-0.312004,0.530189,0.767512,0.454739,0.451816
-0.206012,-0.370710,0.546112,0.158721,0.416759,0.895053
-0.079595,-0.448611,0.610689,0.332962,-0.383591,-0.861391
-0.121131,-0.326083,-0.034132,-0.220385,-0.628283,0.746117
-0.289218,-0.195714,0.335313,-0.208415,-0.928312,-0.307895
-0.204464,-0.243378,0.458608,0.951459,0.045055,-0.304461
-0.204334,-0.241621,0.485480,0.829047,-0.559167,-0.003761
-0.368165,-0.133170,0.528717,0.902674,-0.164132,-0.397794
-0.172344,-0.260337,0.534486,-0.029618,0.059585,0.997784
-0.110939,-0.295045,0.607098,0.273895,0.898910,-0.341967
-0.151574,-0.259692,0.768038,0.601386,0.737438,0.307439
-0.118293,-0.279053,0.790172,0.656689,0.684286,-0.317036
-0.052116,-0.320801,0.834969,0.570230,-0.605499,0.555166
0.026315,-0.370388,0.852246,0.090543,0.964813,0.246856
-0.073143,-0.171882,0.585052,0.728419,-0.596939,0.336259
0.037539,-0.240186,0.653425,-0.192909,-0.831904,0.520309
0.086685,-0.271535,0.673852,0.748874,0.362749,0.554618
0.026701,-0.231545,0.705434,0.992482,-0.115584,-0.040259
-0.134418,-0.123095,0.773630,0.867431,0.299961,0.396972
0.044373,-0.238262,0.782077,0.977546,0.180249,0.109149
-0.012387,-0.200508,0.813983,0.963351,0.083213,-0.255011
0.018702,-0.219868,0.836970,0.660404,0.623951,0.417794
-0.007096,-0.201474,0.864667,0.936100,0.106737,-0.335146
-0.049668,-0.172682,0.893923,0.497644,0.849322,-0.176076
-0.092236,-0.165799,0.456194,-0.637582,0.736871,-0.224746
-0.309729,-0.020874,0.532190,-0.353034,-0.260924,0.898491
0.188725,0.556105,0.246954,-0.412955,0.093403,0.905949
0.203559,0.336793,0.262760,0.403071,0.896844,-0.182219
0.034826,0.034631,0.647568,0.098007,0.690034,0.717111
0.008899,0.057828,0.831790,0.714562,0.394558,0.577690
0.037665,0.039268,0.853806,-0.108574,0.989120,0.099266
0.067592,0.021353,0.902164,0.812155,-0.173476,0.557056
0.058821,0.028391,0.928066,0.715526,0.503663,-0.484093
-0.098684,-0.014479,0.575428,0.533616,0.747286,0.396003
0.097908,-0.135885,0.737869,-0.138726,0.032783,0.989788
0.082685,-0.124852,0.764771,0.310976,0.248330,0.917402
0.018961,-0.081816,0.796470,0.460689,0.812475,0.357282
-0.022449,-0.054147,0.826786,-0.361389,0.573724,-0.735009
0.100101,-0.133483,0.839884,-0.762252,0.136945,-0.632627
0.014706,-0.076544,0.874556,-0.503509,-0.251960,-0.826435
-0.029543,-0.046951,0.905019,0.920172,-0.390930,0.021403
0.085654,-0.121015,0.919971,0.256573,0.722164,-0.642378
0.121903,-0.143402,0.941605,0.416317,0.833473,0.363322
0.694785,-0.390549,-0.928279,0.221544,-0.014473,-0.975043
0.635836,-0.619770,-0.924218,-0.134327,-0.073154,-0.988233
0.567337,-0.761494,-0.932959,0.674447,-0.209290,-0.708038
0.153247,0.108851,0.613337,-0.432060,0.901759,-0.012448
0.211558,0.110295,0.634265,0.019728,0.227247,0.973637
0.363776,0.114611,0.644772,-0.451017,-0.296137,0.841954
0.129257,0.111574,0.773689,-0.662878,-0.500860,-0.556536
0.280443,0.115255,0.784344,-0.169372,0.977692,-0.124222
0.172726,0.113810,0.821341,-0.431870,-0.397361,0.809687
0.067466,0.112209,0.856896,0.952407,-0.195343,0.234012
-0.341203,0.094772,0.532308,0.096009,-0.657483,0.747328
-0.152090,0.099254,0.539401,0.547414,0.578130,0.605065
0.103715,0.105814,0.539902,0.322007,0.931636,0.168419
0.230907,0.108851,0.553794,0.781819,0.510426,-0.358085
0.085268,0.106459,0.594559,-0.138667,0.439553,0.887448
0.077012,-0.025677,0.743697,0.833905,-0.523052,0.176124
0.089524,-0.024877,0.769009,-0.680195,0.483807,-0.550695
0.111195,-0.023431,0.792261,-0.533775,0.646273,0.545358
0.020509,-0.024398,0.827493,-0.140121,0.577678,-0.804148
0.182789,-0.020395,0.838295,-0.601753,0.410714,-0.684987
0.089008,-0.021352,0.873644,0.413338,0.260706,-0.872459
0.069269,-0.021352,0.900752,0.063023,0.805218,-0.589620
0.133768,-0.018960,0.919912,0.910340,0.383962,-0.154447
0.183564,-0.017359,0.941458,0.643707,0.312730,-0.698456
-0.164345,-0.041826,0.426290,-0.155780,0.066806,0.985530
-0.027221,-0.037832,0.437769,0.971285,0.176936,0.159057
-0.163314,0.096695,0.434826,-0.142001,0.119847,0.982585
0.104617,0.103578,0.432530,0.804970,0.420049,-0.419026
0.009415,0.102299,0.469851,0.914403,-0.146433,-0.377392
0.031346,-0.051745,-0.055382,0.497371,0.561323,0.661467
-0.104621,-0.038311,0.472912,0.869703,-0.431536,-0.239569
-0.264708,-0.040712,0.516620,0.860378,0.422825,0.284550
-0.172860,-0.038311,0.533927,0.206560,-0.765057,0.609935
-0.137256,-0.037032,0.555943,-0.364955,0.592422,0.718223
0.002836,-0.033029,0.567304,-0.385883,0.860541,-0.332511
0.088232,-0.030637,0.585494,0.983698,0.178819,-0.019049
0.138028,-0.028557,0.606215,0.269961,0.517240,-0.812148
0.063852,-0.029192,0.640475,0.317239,0.290698,0.902692
0.063852,-0.028069,0.667200,0.153409,0.832206,0.532821
0.113388,-0.026478,0.688922,0.859255,-0.252560,0.444852
0.505286,-0.017515,0.675647,-0.764413,0.133225,0.630812
-0.133516,-0.149963,0.506201,0.496542,0.566849,0.657365
-0.163703,-0.150119,0.535104,-0.269523,0.137699,0.953098
0.054821,-0.145004,0.539401,0.068276,0.677854,0.732020
0.066305,-0.143568,0.564037,0.787455,-0.572722,0.227822
0.190142,-0.128367,0.943989,-0.270762,-0.771959,-0.575123
-0.345203,-0.270578,0.413428,0.209195,0.344601,0.915143
-0.087721,-0.263851,0.439123,0.941924,-0.269865,-0.199878
-0.132095,-0.263695,0.469763,0.788099,0.608969,-0.089762
-0.091850,-0.261460,0.492544,-0.227428,-0.558640,0.797620
-0.138548,-0.261137,0.523331,-0.609010,-0.594846,-0.524656
-0.032122,-0.145169,0.601005,-0.509299,0.846367,-0.155811
0.041664,-0.142446,0.620313,-0.012844,0.334380,0.942351
0.073914,-0.140688,0.643742,0.246547,0.912672,-0.325952
0.162664,-0.138130,0.660460,-0.294952,0.624838,0.722897
-0.333333,-0.368787,0.430440,0.426426,0.892218,0.148688
-0.031350,-0.258413,0.539048,-0.451893,-0.679648,0.577815
0.082945,-0.255377,0.554118,0.916896,0.292254,0.271827
0.080493,-0.254098,0.581226,-0.728809,0.681995,-0.060983
0.079721,-0.253453,0.607098,0.355366,0.499536,-0.790050
0.114163,-0.138130,0.690953,0.711476,0.002976,0.702704
0.108357,-0.137808,0.718149,0.775166,0.576455,-0.258490
0.014832,-0.138608,0.752968,0.873177,0.212791,-0.438499
-0.089142,-0.140210,0.789642,0.337701,0.730034,-0.594145
0.118679,-0.134772,0.795764,0.170752,0.970839,0.168274
0.128997,-0.133971,0.821223,-0.310435,0.789411,-0.529585
0.176596,-0.131891,0.842003,0.882025,-0.470560,0.024616
0.079205,-0.132849,0.876675,0.365309,-0.267622,-0.891587
0.140736,-0.131091,0.897102,0.968890,0.180821,0.168985
0.176986,-0.129168,0.918912,-0.038426,-0.979032,0.200049
-0.160991,-0.364627,0.439152,0.829899,0.174443,-0.529940
-0.115069,-0.362548,0.460256,0.613316,0.470195,-0.634634
-0.083205,-0.360634,0.483891,-0.600277,-0.087334,0.795010
-0.214527,-0.362236,0.524567,-0.291112,-0.263894,0.919572
0.020253,-0.253620,0.638974,0.933330,0.336381,-0.125469
0.065143,-0.251384,0.661107,0.306894,0.915776,-0.259172
0.113002,-0.249304,0.681946,0.744193,-0.202736,0.636454
0.131450,-0.248182,0.706758,0.310932,0.903466,-0.295077
0.130674,-0.247537,0.733483,-0.415093,-0.068524,-0.907195
0.405183,-0.240019,0.758708,0.552414,-0.721914,-0.416747
0.047211,-0.246258,0.819045,-0.760988,0.223997,-0.608870
0.070560,-0.244657,0.843239,-0.341100,0.272025,0.899807
0.144476,-0.241465,0.887477,-0.755091,0.609767,0.240878
0.161762,-0.240342,0.912083,0.401177,-0.830091,0.387307
0.198914,-0.344320,0.771158,-0.187123,0.976824,0.103923
0.284313,-0.341440,0.788317,-0.329912,0.896542,0.295587
0.162538,-0.343353,0.826551,-0.701713,0.703379,-0.113387
0.134414,-0.342875,0.855660,0.032360,0.993464,0.109467
-0.105392,-0.477559,0.553883,-0.155895,0.987773,-0.001177
0.072497,-0.472609,0.562448,0.908249,0.373810,0.188018
0.032893,-0.472609,0.593411,0.263799,-0.713508,0.649089
-0.128225,-0.483163,0.424583,-0.582662,-0.636574,0.505250
-0.128099,-0.481884,0.451632,0.474605,0.870575,0.129806
-0.139835,-0.481406,0.478769,0.442469,-0.693030,-0.569149
-0.115328,-0.479804,0.501963,-0.799072,0.593179,-0.098099
-0.232328,-0.480762,0.541256,0.864122,0.461942,0.199757
0.220975,-0.460932,0.784844,0.213227,-0.954931,-0.206498
-0.202401,-0.586175,0.467791,0.406054,0.044317,0.912774
-0.118037,-0.583139,0.484774,0.788382,-0.441263,0.428650
-0.055341,-0.580580,0.504935,0.535913,0.280947,0.796157
-0.301729,-0.584896,0.557326,0.193096,-0.854349,-0.482496
-0.109136,-0.359512,0.540432,0.163654,0.225671,0.960359
0.095330,-0.354718,0.545053,0.953707,0.115282,-0.277765
0.050435,-0.354396,0.575575,0.874952,0.483889,0.017621
0.155184,-0.351672,0.591793,0.257528,-0.922246,0.288342
0.067466,-0.352316,0.626465,0.601445,-0.778457,0.179634
-0.084237,-0.354396,0.668407,-0.675191,0.122219,-0.727447
-0.082949,-0.353751,0.694867,-0.776985,-0.597448,-0.198369
0.293470,-0.344154,0.709613,-0.399632,0.849988,0.343242
0.152090,-0.345911,0.749201,-0.021293,0.745651,0.665996
0.304953,-0.707425,0.558062,0.851238,0.178852,-0.493362
0.162278,-0.709505,0.599622,-0.617018,-0.595118,-0.514901
-0.013033,-0.711428,0.644301,0.963755,-0.137692,0.228513
0.222007,-0.467962,0.600946,0.901099,0.433590,0.004544
0.279798,-0.465570,0.620961,0.861395,-0.294346,-0.413955
0.190402,-0.466048,0.655721,0.093796,-0.807567,0.582270
0.489551,-0.458686,0.652601,-0.289302,0.921470,0.259227
0.139961,-0.463324,0.766301,0.365208,0.909861,0.196917
-0.191693,-0.581382,0.572779,0.386526,-0.510186,-0.768315
0.003222,-0.576744,0.578371,-0.362610,0.907087,0.213790
0.089393,-0.574342,0.595295,0.571746,0.480611,0.664921
0.010316,-0.574664,0.630350,-0.609920,-0.470441,-0.637718
0.336688,-0.830120,0.565509,-0.681121,0.719958,0.133174
0.393573,-0.827396,0.587054,0.108334,0.573182,0.812236
-0.079595,-0.585062,0.427762,0.838763,0.281905,-0.465838
-0.126422,-0.718623,0.524008,0.462948,0.875510,0.138425
-0.125387,-0.717822,0.549644,0.082774,0.937420,-0.338219
0.239808,-0.709348,0.538872,-0.816979,0.324413,0.476762
0.517155,-0.932975,0.590527,-0.504334,-0.859001,-0.088114
0.115451,0.337115,-0.982260,-0.245638,0.258360,0.934298
0.255028,0.294723,-0.965041,0.232155,0.028478,-0.972262
0.149122,0.281611,-0.972076,-0.079678,0.335609,0.938626
0.047987,0.268655,-0.979787,0.354537,-0.251603,-0.900555
-0.076371,0.254733,-0.981347,0.019063,0.226774,0.973761
0.606421,0.228343,-0.938316,0.779756,0.095975,-0.618683
0.530312,0.216666,-0.951561,-0.560001,0.037737,0.827632
0.435240,0.204189,-0.959685,0.220071,-0.389725,-0.894250
0.119065,0.172360,-0.950148,0.715258,-0.587335,-0.378740
0.010576,0.151887,-0.983967,-0.107955,0.293918,0.949714
0.185111,0.374869,-0.988588,0.019321,-0.033744,0.999244
0.014060,0.358555,-0.981112,0.248399,-0.143762,-0.957930
0.049664,0.015915,-0.911120,-0.527285,0.848700,-0.040970
0.066560,0.009354,-0.942584,0.908234,0.317075,-0.273084
0.052628,0.001035,-0.967602,0.941039,-0.313280,-0.127676
0.408667,-0.156202,-0.955328,-0.355845,0.036141,0.933846
0.429953,-0.341918,-0.944939,-0.240679,0.015527,0.970481
0.327011,-0.355509,-0.952473,-0.172817,0.395814,0.901923
0.198788,-0.369753,-0.953474,0.403840,-0.083694,-0.910993
0.098554,-0.383187,-0.961392,0.174083,0.169154,-0.970094
0.030571,0.075099,-0.682543,-0.260243,0.961123,0.092277
-0.006194,0.065980,-0.703087,0.682698,-0.730254,0.025543
0.046825,0.053825,-0.768281,-0.623169,0.752640,0.212588
0.058821,0.046951,-0.799186,0.353144,0.934537,0.043937
0.038696,0.038467,-0.822467,0.778477,0.625548,-0.051620
0.072107,0.032551,-0.858111,-0.436679,0.897821,-0.056833
0.058565,0.024076,-0.884159,-0.480904,0.874042,0.069156
0.789987,-0.299370,-0.935049,-0.065263,0.109463,0.991846
0.651571,-0.314562,-0.935343,0.252045,0.679584,0.688940
0.531603,-0.328640,-0.938257,-0.315099,0.341135,0.885629
0.602811,-0.858433,-0.922334,0.214556,-0.098273,-0.971755
0.500645,-0.872024,-0.928898,0.266954,0.342429,-0.900821
0.288183,-0.899702,-0.941583,0.220613,-0.376021,-0.899965
0.861455,-0.497398,-0.922187,-0.026814,0.014611,0.999534
0.588619,-0.527469,-0.922540,-0.240167,-0.120378,0.963239
0.518317,-0.539624,-0.936903,-0.443990,0.145791,0.884091
0.410990,-0.553546,-0.943467,0.532063,-0.223413,-0.816698
0.299147,-0.567146,-0.948206,-0.431359,-0.139779,0.891286
0.209106,-0.579780,-0.957153,0.118029,0.285793,-0.950995
0.991870,-0.648406,-0.918007,0.248170,-0.227607,-0.941598
0.882996,-0.662641,-0.924600,0.215417,-0.078474,-0.973364
0.778122,-0.676231,-0.930928,-0.045055,0.018822,0.998807
0.520510,-0.705824,-0.934284,0.380690,-0.063235,-0.922538
0.427890,-0.718945,-0.942819,0.099300,-0.119355,-0.987873
0.336298,-0.732058,-0.952385,0.277407,-0.326324,-0.903636
0.194658,-0.747415,-0.951590,-0.098590,-0.197285,-0.975376
0.525025,-0.922099,0.562330,0.580416,0.812488,-0.054585
0.404797,-0.822280,0.607421,0.820892,0.495111,-0.284607
0.367386,-0.832199,0.590703,-0.213030,0.111000,0.970720
0.367646,-0.747581,0.582992,0.177165,0.795383,0.579636
0.251158,-0.761972,0.579195,-0.446097,0.828386,0.338783
0.222778,-0.771257,0.561153,0.966422,0.069818,0.247292
0.523088,-0.770935,0.464259,0.831251,-0.068636,0.551644
0.152861,-0.681991,0.615045,-0.400936,-0.702112,-0.588463
0.141122,-0.690632,0.593264,0.627001,0.485683,0.609083
0.286891,-0.690788,0.546318,0.788435,-0.555574,-0.264024
0.291537,-0.707425,0.497224,0.656976,0.737302,-0.157380
-0.265480,-0.753331,0.543434,-0.354565,0.573522,-0.738482
0.001545,-0.627610,0.643301,0.206218,0.557235,0.804340
0.038696,-0.634006,0.614485,0.444206,0.774233,0.450826
0.295407,-0.628724,0.548349,0.441073,0.346213,-0.828004
0.259803,-0.638965,0.530277,-0.509910,0.715087,0.478165
-0.131453,-0.683749,0.526039,-0.455716,0.713970,0.531574
0.095972,-0.465882,0.795234,0.969079,0.244253,-0.035030
0.267673,-0.505081,0.629025,0.853493,-0.401880,0.331727
0.004769,-0.534830,0.625582,-0.654302,0.493100,0.573359
0.146669,-0.535152,0.578577,-0.090493,-0.992640,0.080480
0.204976,-0.540913,0.545053,0.942090,0.018836,-0.334830
0.176986,-0.550344,0.526716,0.923793,-0.296184,-0.242655
-0.360426,-0.586497,0.593411,0.921604,0.261848,0.286500
-0.268834,-0.590012,0.554118,0.983152,0.011378,0.182437
-0.148094,-0.591779,0.510763,0.938435,0.193239,-0.286354
-0.180730,-0.601855,0.492338,0.866147,-0.366277,-0.340043
-0.181245,-0.610173,0.468380,0.784232,0.615864,-0.075447
-0.109392,-0.614488,0.431912,0.838763,0.281905,-0.465838
0.655831,-0.591935,0.253783,-0.571636,-0.798593,-0.188364
0.515608,-0.337437,0.637620,-0.354675,0.665818,0.656423
0.298245,-0.357276,0.649923,0.788416,0.038040,0.613965
0.144736,-0.373912,0.651188,0.788156,-0.461275,-0.407476
0.080493,-0.385589,0.638091,-0.317038,0.787303,0.528812
0.254902,-0.383666,0.585788,0.692068,0.028223,0.721281
0.013671,-0.404140,0.602594,-0.339709,-0.755634,0.560013
-0.011871,-0.413737,0.584022,0.528748,0.841782,0.108758
0.059982,-0.418062,0.548232,0.500197,0.832474,-0.238304
0.022831,-0.427971,0.531484,0.104194,0.657931,0.745835
-0.337463,-0.455328,0.567893,-0.388815,-0.443786,-0.807389
-0.312437,-0.462045,0.540167,0.818031,-0.502767,-0.279374
-0.151834,-0.461723,0.489277,-0.559481,0.820993,0.113803
-0.155188,-0.469885,0.466820,0.365680,0.879009,0.305976
0.061659,-0.316163,0.848302,-0.325832,0.639094,0.696701
0.230002,-0.314562,0.798472,-0.138152,0.851259,-0.506233
0.296052,-0.318721,0.764830,-0.372891,0.913357,0.163500
0.082300,-0.338238,0.775484,-0.120478,0.971858,0.202430
0.081008,-0.345433,0.753439,-0.168651,-0.846180,-0.505506
-0.132095,-0.476124,0.439682,-0.576788,-0.752810,0.317165
-0.156220,-0.485721,0.419609,0.888546,0.457996,0.026952
0.127836,-0.130447,0.948580,0.898997,0.345695,0.268884
0.189886,-0.133971,0.917205,0.499855,0.699656,-0.510516
0.065013,-0.156202,0.891804,0.073125,-0.150477,0.985905
0.020378,-0.166600,0.875881,0.544661,0.756394,-0.362232
0.032633,-0.181001,0.827993,0.989268,0.128021,-0.070417
0.178533,-0.179878,0.782813,0.216301,-0.918802,0.330178
0.136607,-0.189153,0.767184,-0.298252,0.796540,0.525899
0.188851,-0.193312,0.735602,0.291934,-0.936397,0.194770
0.058951,-0.208826,0.733954,0.432367,0.330993,0.838751
0.106809,-0.213629,0.702932,0.676070,0.554070,-0.485732
0.140866,-0.219702,0.673999,0.627021,-0.712360,-0.315257
0.226907,-0.222426,0.636354,0.471559,-0.877666,-0.085639
-0.110298,-0.248982,0.668760,0.072508,-0.968834,0.236862
-0.142547,-0.257935,0.651453,-0.813441,-0.009142,0.581575
-0.011871,-0.257779,0.606391,-0.514317,0.857077,0.029963
-0.033543,-0.267220,0.587201,-0.603612,0.780882,0.160861
0.026315,-0.271691,0.553500,-0.570153,0.656694,0.493638
0.003612,-0.280810,0.533486,-0.366174,0.644070,-0.671632
-0.137000,-0.296490,0.533044,0.039051,0.761574,0.646901
-0.225365,-0.308967,0.524655,0.441095,0.469766,-0.764693
-0.261610,-0.318564,0.507820,0.984620,0.080979,-0.154809
-0.102168,-0.317764,0.456724,0.591531,-0.268152,-0.760385
-0.186792,-0.329597,0.447924,0.768285,-0.004332,-0.640093
-0.220589,-0.339361,0.429528,0.743588,-0.435310,0.507525
0.166148,0.013834,0.941134,-0.444698,0.099002,0.890192
0.094554,0.002636,0.929449,0.787908,0.610444,-0.080990
0.095070,-0.004237,0.906344,0.547746,0.786866,-0.284281
0.034184,-0.015758,0.892864,-0.239059,0.958201,-0.157169
0.051857,-0.021518,0.868199,-0.696189,-0.281097,0.660534
0.096361,-0.025989,0.839148,-0.164637,-0.788037,0.593205
