0.205903,0.437962,0.806204,-0.629090,0.770087,0.105890
0.267119,0.410075,0.879187,-0.620584,-0.637644,0.456383
0.293056,0.387223,0.867961,-0.478244,-0.778890,0.405725
0.285286,0.368374,0.771637,0.122041,-0.490846,0.862657
0.290160,0.347847,0.707727,0.398506,0.846022,-0.354173
0.319649,0.324736,0.705200,0.721170,-0.510812,0.467959
0.347559,0.300592,0.695065,-0.753388,0.312556,-0.578546
0.390740,0.276322,0.729776,0.978266,0.194920,-0.070726
0.385866,0.253596,0.627538,-0.373166,0.913820,-0.160249
0.402721,0.229200,0.583581,-0.545557,-0.782233,0.300797
0.468805,0.203638,0.679561,-0.533656,-0.433057,0.726411
0.472229,0.180140,0.599573,0.812696,-0.438994,0.383157
0.498162,0.156256,0.584644,-0.630680,0.772290,-0.076230
0.528708,0.131205,0.578414,-0.458347,-0.387111,0.800039
0.601639,0.082791,0.607067,-0.667464,0.218794,-0.711773
0.618622,0.056331,0.556192,0.988898,-0.119979,0.087665
0.617175,0.027412,0.439253,0.866996,0.373515,-0.329854
0.656009,0.003134,0.461934,0.957577,0.277447,-0.077909
0.969992,-0.216597,0.542210,-0.924707,-0.088473,-0.370255
0.290686,0.437576,0.777092,0.083750,0.016673,0.996347
0.310826,0.415757,0.752257,-0.401347,0.195778,-0.894758
0.321754,0.393937,0.700635,0.680125,-0.730329,-0.063638
0.350584,0.369667,0.693256,0.602291,-0.319054,-0.731745
0.379286,0.345649,0.684500,0.414800,0.135492,0.899768
0.400744,0.322671,0.659550,0.665377,-0.729163,-0.159984
0.410747,0.300079,0.602157,-0.194167,-0.878901,0.435697
0.425890,0.275676,0.553320,-0.482158,-0.852939,-0.200048
0.447480,0.251665,0.524380,-0.514077,-0.854415,0.075497
0.491188,0.226355,0.556048,-0.163899,0.922006,0.350773
0.531207,0.201179,0.578184,0.830374,-0.422234,-0.363589
0.567281,0.176011,0.587343,0.038818,-0.312887,-0.948997
0.604142,0.152127,0.604655,0.267640,-0.936632,-0.226031
0.632840,0.127983,0.595468,-0.240698,0.653688,0.717465
0.653113,0.101774,0.555876,0.406483,-0.887129,-0.218569
0.685631,0.077890,0.559838,-0.413284,0.906481,0.086538
0.728546,0.054267,0.595583,0.711721,0.140698,0.688227
0.735264,0.025087,0.503192,-0.666098,0.627273,-0.403537
0.792005,0.004040,0.589955,0.579917,0.755899,-0.303832
0.826889,-0.019072,0.603622,0.899203,0.413279,-0.143647
-0.376507,0.895894,0.569685,0.623511,0.780743,-0.040923
-0.345306,0.870844,0.566068,-0.685236,-0.714892,0.139217
-0.307786,0.845030,0.577064,0.202148,0.978764,0.034012
-0.262632,0.817008,0.603220,0.943297,-0.212777,-0.254786
-0.213658,0.787443,0.634026,-0.521086,-0.843118,-0.132747
-0.186145,0.764465,0.626676,-0.033807,0.982878,0.181128
-0.151522,0.738903,0.630667,-0.049113,0.898113,0.437015
-0.093990,0.707919,0.681141,0.942849,0.085618,-0.322032
-0.036856,0.677574,0.732935,0.977349,0.211586,0.004505
-0.012501,0.655762,0.720905,0.933164,0.078326,-0.350812
-0.044361,0.645818,0.587773,0.121217,-0.155449,0.980379
-0.030669,0.624384,0.546459,-0.252560,0.930551,0.265121
0.041081,0.592243,0.634428,0.116591,0.565146,0.816711
0.041081,0.573394,0.561962,0.668961,0.034548,-0.742494
0.045951,0.553119,0.497679,-0.635911,0.687926,-0.349821
0.112960,0.521875,0.575887,0.698013,0.622924,-0.353190
0.173123,0.493216,0.643960,-0.136622,0.670889,0.728863
0.258826,0.461712,0.775656,0.164108,-0.341172,-0.925565
-0.349914,0.967160,0.592051,0.528186,0.725084,-0.441897
-0.286067,0.917966,0.591649,-0.406676,-0.488588,0.771944
-0.236960,0.888408,0.622140,0.843910,0.248833,0.475288
-0.176796,0.855738,0.675456,0.938807,-0.315356,0.138534
-0.150469,0.832374,0.663972,0.741070,-0.098093,0.664223
-0.135725,0.813139,0.631988,-0.693814,0.519496,0.498745
-0.123612,0.793897,0.593171,0.725452,-0.129599,0.675961
-0.026061,0.752976,0.725814,0.992887,0.070765,-0.095752
-0.020135,0.735546,0.674853,-0.255908,-0.638747,0.725612
-0.052918,0.725736,0.536927,-0.388618,0.727431,0.565527
-0.022372,0.700685,0.531185,0.328972,0.078014,-0.941112
-0.013027,0.680032,0.478845,-0.306991,-0.910375,0.277440
0.033970,0.652405,0.510915,0.700608,0.683287,0.205591
0.065962,0.627741,0.510857,0.807306,0.195155,0.556930
0.090056,0.604118,0.490501,0.972507,-0.124371,-0.196882
0.210378,0.544987,0.620992,-0.227800,0.818140,-0.527971
0.310432,0.510000,0.785131,-0.509365,0.860073,0.028686
0.365329,0.463784,0.769368,0.157809,-0.852499,0.498340
0.370596,0.443643,0.705947,-0.241974,0.911604,0.332306
0.397586,0.419885,0.693457,-0.344118,0.670712,-0.657061
0.417067,0.397420,0.664230,0.022154,0.014858,0.999644
0.440763,0.373276,0.641319,0.939040,-0.320683,0.123964
0.470123,0.348880,0.633337,-0.012481,-0.825993,0.563542
0.500665,0.323964,0.628514,-0.184557,0.692442,-0.697468
0.525546,0.300592,0.610254,0.813410,-0.471167,0.341125
0.537659,0.276842,0.554354,0.300483,-0.940908,-0.156212
0.574521,0.251272,0.565350,0.440856,-0.665772,0.601991
0.606773,0.227262,0.567762,0.714956,0.693814,0.086366
0.645479,0.202219,0.586395,0.402266,-0.813187,-0.420607
0.671545,0.176783,0.564719,-0.523123,-0.838750,-0.151132
0.713673,0.152513,0.596616,0.240625,-0.970464,-0.017292
0.740001,0.128109,0.580969,0.998494,-0.045702,-0.030362
0.764355,0.103453,0.556737,0.181568,0.921483,0.343369
0.804507,0.079183,0.583237,-0.514161,0.074399,0.854461
0.839263,0.055937,0.595611,-0.796317,-0.052293,0.602616
0.879022,0.032573,0.623288,0.919834,0.125174,-0.371802
0.789236,-0.095885,-0.151355,-0.256130,-0.952619,0.164053
0.546871,0.326541,0.451685,0.391558,0.919181,0.042287
0.645346,0.276708,0.554297,-0.537728,-0.843115,-0.002375
0.659958,0.251665,0.499660,0.077181,0.987829,0.135045
0.708800,0.227136,0.550421,0.271469,0.946124,0.176503
0.755537,0.204150,0.602071,0.004542,-0.517110,0.855907
0.784234,0.178721,0.589439,-0.118367,0.893398,0.433394
0.817146,0.153805,0.590558,-0.289031,-0.305990,0.907100
-0.077273,0.826047,0.531673,-0.226686,0.817439,-0.529535
-0.037250,0.799578,0.548928,-0.280929,-0.944087,-0.172565
-0.014080,0.777120,0.530495,0.356075,0.467997,-0.808820
-0.001573,0.756585,0.486080,-0.267407,-0.903714,-0.334357
0.026072,0.732575,0.475945,-0.670950,-0.626842,-0.396101
0.092820,0.681065,0.475055,0.817421,0.535703,0.211765
0.328733,0.582684,0.803965,-0.667025,0.262149,0.697392
0.357563,0.559320,0.798424,0.912878,0.379195,-0.151215
0.380604,0.537241,0.781513,-0.612210,0.023026,-0.790360
0.348744,0.521749,0.622456,0.734644,0.384520,0.558965
0.396529,0.495020,0.662565,-0.338418,0.891316,-0.301711
0.426810,0.470498,0.658000,0.232433,0.861418,-0.451590
0.470517,0.445708,0.692309,-0.115511,0.956308,0.268575
0.489344,0.423116,0.660009,-0.603091,0.779292,-0.170249
0.506852,0.399232,0.618092,-0.214560,0.924446,0.315220
0.536868,0.375214,0.614905,0.724891,-0.676061,-0.132193
0.525414,0.351851,0.487573,0.584862,0.690852,-0.425042
0.469071,0.527817,0.641692,-0.388396,0.438598,0.810420
0.507644,0.502380,0.658574,-0.431496,-0.200993,-0.879439
0.539764,0.477724,0.659062,0.631986,0.612041,-0.475394
0.573468,0.453068,0.663225,0.267355,0.852577,-0.449037
0.603744,0.429436,0.661502,-0.289687,-0.761111,0.580337
0.769490,0.256307,0.475514,0.371270,-0.928483,0.008806
0.509484,0.583070,0.599057,0.890800,0.454246,0.011664
0.561749,0.556862,0.656421,0.054297,0.446937,-0.892916
0.595978,0.531945,0.662105,0.361804,-0.580642,-0.729351
0.626653,0.508062,0.660498,0.399717,-0.640751,-0.655488
0.666937,0.482499,0.684528,-0.604981,-0.401283,0.687728
0.694321,0.458355,0.671034,-0.110541,-0.636537,0.763283
0.825443,0.311182,0.476864,-0.025627,0.978278,0.205708
0.688921,0.557894,0.676633,0.833864,0.200070,-0.514434
0.720515,0.534270,0.679475,-0.448184,-0.371514,0.813086
0.753826,0.509614,0.683466,-0.353686,-0.023610,0.935066
0.789108,0.485856,0.697821,0.725440,-0.035795,-0.687354
0.773572,0.588106,0.690041,0.392779,-0.545903,-0.740077
0.805958,0.564608,0.695381,-0.626217,0.275546,0.729333
0.836893,0.540984,0.696903,0.807559,-0.016350,-0.589560
0.513959,0.633163,0.664402,-0.095875,-0.663822,0.741719
0.829653,0.474241,0.671436,0.916623,0.342551,0.206061
0.400478,0.579067,0.779245,0.342273,-0.494302,0.799071
0.359274,0.599728,0.807324,0.766824,-0.568798,-0.297406
0.054508,0.633036,0.443272,0.849841,0.423550,-0.313648
-0.068976,0.695910,0.483553,-0.246522,0.627603,-0.738472
-0.242360,0.783314,0.530237,0.354936,-0.673871,0.648011
-0.332671,0.829018,0.565580,0.589618,0.771745,-0.238245
0.035288,0.643753,0.539453,0.528490,0.333186,0.780823
-0.202601,0.764205,0.593171,0.228726,0.545237,-0.806474
-0.200099,0.763433,0.616254,-0.316840,0.902354,0.292182
-0.078852,0.702364,0.622772,0.813573,0.559920,0.156807
0.776995,0.270515,0.511690,-0.042166,0.937200,0.346235
-0.096887,0.711788,0.648439,0.213647,0.976807,0.014230
0.260012,0.531693,0.625729,-0.202198,0.636450,0.744344
0.401138,0.460428,0.631040,0.140681,0.882959,0.447874
0.452482,0.434991,0.647090,0.842750,-0.318539,-0.433941
-0.009472,0.668543,0.727996,0.896253,0.003218,-0.443531
0.514225,0.404906,0.685160,-0.089459,0.591372,0.801421
0.329391,0.498511,0.777092,-0.610168,0.655796,-0.444552
0.059510,0.748453,0.455159,0.742791,0.657584,-0.125877
-0.014739,0.786151,0.488808,-0.182411,-0.982904,0.025038
-0.203389,0.881175,0.536525,0.476817,0.827449,-0.296603
-0.205101,0.882593,0.606694,-0.634968,-0.593738,-0.494258
0.098480,0.729865,0.612034,-0.607630,-0.407522,-0.681697
-0.147966,0.854454,0.667130,0.693411,-0.241109,0.679005
0.556879,0.499417,0.645913,0.114274,-0.982486,-0.147183
0.574782,0.490765,0.667101,-0.721268,0.190951,0.665816
0.102558,0.503286,0.434056,0.271157,-0.085503,0.958730
-0.128481,0.620641,0.487860,0.878536,-0.371632,-0.300106
-0.303708,0.709337,0.533768,0.720920,0.411435,0.557670
-0.103339,0.608633,0.530697,-0.616855,0.636274,0.463298
-0.196149,0.656014,0.588606,0.585566,0.424492,-0.690593
0.137973,0.487794,0.568307,0.796148,0.145093,-0.587449
-0.074903,0.595465,0.619413,0.494109,-0.299053,-0.816348
-0.098598,0.607861,0.644793,0.547598,0.056384,0.834840
0.252246,0.430862,0.621997,0.988258,-0.134343,0.072787
0.238815,0.438088,0.647348,-0.371792,0.136294,0.918256
0.017779,0.549896,0.697821,-0.214120,0.891402,-0.399443
0.299376,0.408136,0.685361,-0.336102,0.741176,0.581114
0.241583,0.437962,0.715938,-0.008840,-0.931835,0.362775
0.244741,0.436410,0.738792,-0.234224,0.725991,-0.646588
-0.046072,0.583850,0.797275,0.167069,-0.814200,-0.556027
0.205774,0.456677,0.788002,0.317243,0.159084,-0.934906
0.180102,0.363465,0.922856,-0.601159,0.798743,0.024848
0.190897,0.358170,0.944274,0.849203,0.249363,0.465481
0.193922,0.356626,0.966611,0.994688,-0.046175,0.092001
0.156535,0.483279,0.885015,0.550137,0.693139,-0.465734
0.280023,0.420918,0.892882,0.935145,-0.166951,-0.312459
-0.065819,0.480955,0.521566,0.740723,-0.606040,0.289906
-0.013687,0.453966,0.467361,-0.599756,0.800181,-0.001906
-0.132430,0.514129,0.506838,-0.368097,-0.735561,0.568731
-0.172321,0.535436,0.559177,0.880506,0.250187,-0.402635
-0.002493,0.449711,0.559608,-0.534279,0.115986,0.837313
0.072017,0.412525,0.572528,-0.538058,0.256967,0.802784
-0.117686,0.508448,0.620647,-0.077652,-0.818629,0.569048
0.054375,0.422084,0.620934,-0.524760,0.295031,-0.798488
0.165751,0.365916,0.630035,0.108091,0.947029,-0.302411
0.133892,0.382448,0.657282,0.157898,0.949309,-0.271811
0.026730,0.436796,0.694233,0.935296,0.017573,0.353429
0.115857,0.392259,0.705171,0.992535,0.057523,-0.107546
0.112960,0.394323,0.727853,0.621891,0.266876,-0.736226
0.144426,0.378445,0.747060,-0.564786,0.800802,0.199334
0.125599,0.388642,0.771694,0.190265,0.916519,-0.351841
0.202745,0.349652,0.785102,0.465527,-0.838027,-0.284596
0.274097,0.313759,0.799371,-0.194191,-0.943974,-0.266839
0.257248,0.322671,0.824493,0.821195,0.553515,-0.138781
0.102956,0.401297,0.865492,-0.023713,-0.982177,0.186459
0.042660,0.432406,0.894777,0.209222,0.624322,0.752628
0.078469,0.314405,0.710138,0.687924,0.130629,-0.713930
0.117307,0.295431,0.728513,-0.376252,0.641080,-0.668917
-0.026061,0.368115,0.769627,0.321280,-0.599899,-0.732735
0.074652,0.317762,0.779963,-0.373389,0.886776,0.272415
0.125467,0.292074,0.795753,-0.300083,0.613750,0.730247
0.085182,0.313113,0.822885,-0.678198,0.727439,0.104306
0.109669,0.300978,0.842782,0.877827,-0.219474,-0.425736
0.097822,0.307439,0.866324,0.192434,0.980496,-0.039945
0.153244,0.280199,0.882546,0.471677,0.214287,0.855337
0.191950,0.260570,0.900663,-0.480755,-0.558792,0.675741
0.130601,0.292334,0.930866,0.137202,0.701062,0.699777
0.117307,0.299174,0.954237,0.221698,-0.945994,-0.236527
0.130601,0.292460,0.974449,0.848609,-0.460719,-0.260000
-0.273295,0.374955,0.505718,-0.263036,-0.894627,0.361184
-0.344519,0.411107,0.537759,0.798145,0.474732,0.370936
-0.010392,0.240815,0.424209,0.915504,-0.376012,-0.143065
0.058984,0.319701,0.435607,-0.027666,0.783353,0.620961
-0.096887,0.398838,0.502905,-0.235303,0.336708,0.911735
0.095977,0.303176,0.546487,0.201978,0.706243,0.678547
0.025545,0.338809,0.579275,-0.297061,0.932482,-0.205505
-0.061737,0.383220,0.613929,-0.521566,0.490786,0.697924
0.088344,0.307826,0.617948,-0.685874,0.568654,0.454103
0.058855,0.322931,0.644218,0.955013,-0.208484,0.210913
0.019491,0.343584,0.671982,0.745308,-0.579329,0.329991
0.060169,0.323577,0.690098,0.877109,-0.416778,-0.238696
0.037132,0.128495,0.871090,0.377322,-0.833839,0.402914
0.052009,0.120623,0.891963,-0.179922,-0.947164,-0.265533
-0.480904,0.381416,0.550593,-0.387756,-0.376657,-0.841293
-0.231564,0.256567,0.563685,0.030733,-0.999054,-0.030777
-0.072532,0.176523,0.565178,-0.619507,0.557157,0.552980
-0.043702,0.162197,0.584988,0.804569,-0.511860,-0.301110
-0.239596,0.262248,0.632935,0.787616,-0.613899,-0.052808
-0.248020,0.266637,0.657282,0.290591,0.809773,-0.509730
0.120858,0.079829,0.633165,-0.646597,0.222802,-0.729570
0.104668,0.088859,0.658717,0.844900,-0.385637,0.370714
-0.208395,0.248309,0.720905,-0.209237,-0.977864,-0.001444
0.033315,0.126431,0.712607,0.990673,0.131108,0.037130
0.119938,0.082665,0.724867,0.697062,0.559880,0.447928
0.030153,0.128495,0.758430,0.149333,0.976539,-0.155150
0.056746,0.115714,0.778240,-0.260966,0.819477,0.510249
0.184051,0.051422,0.785533,0.720776,0.625140,0.299469
0.204983,0.041478,0.806061,0.945931,0.296109,0.132418
-0.412710,0.238885,0.429663,-0.212494,0.877606,0.429713
-0.228141,0.145279,0.428400,0.249424,0.257399,0.933559
-0.196016,0.130047,0.471696,0.818345,0.397390,-0.415202
-0.500915,0.285100,0.534974,0.289177,0.557790,0.777976
-0.545941,0.308724,0.563455,0.651585,0.585634,-0.482151
-0.334378,0.201959,0.558919,0.385517,-0.757557,-0.526768
-0.257892,0.163481,0.571351,-0.136903,-0.061192,0.988693
0.037919,0.014111,0.556220,0.383974,-0.251538,-0.888421
0.391925,-0.165472,0.533855,-0.718881,-0.151867,0.678341
-0.380195,0.227388,0.657426,-0.448139,-0.563885,0.693690
-0.399021,0.237206,0.682088,-0.404557,-0.662482,-0.630437
-0.385329,0.231005,0.702616,-0.147529,0.989047,0.004661
-0.154547,0.317636,0.628169,-0.715115,-0.337556,-0.612100
-0.019741,0.249467,0.633998,-0.367336,-0.113702,-0.923112
0.013436,0.232943,0.652143,0.163316,-0.565312,0.808548
-0.073850,0.277740,0.686710,0.160198,0.240340,0.957379
-0.008287,0.245204,0.701554,0.928178,-0.352649,-0.118844
0.050033,0.216285,0.717431,0.303600,0.430841,0.849825
0.050165,0.216419,0.739710,0.036837,-0.491571,0.870058
-0.206551,0.346681,0.794002,-0.035722,0.569176,0.821439
0.045424,0.219642,0.785647,-0.431984,-0.837063,-0.335731
0.185895,0.148636,0.790356,0.726495,0.481511,-0.490258
0.025545,0.230618,0.833192,0.795131,-0.603356,0.061065
0.088079,0.199509,0.848524,-0.430745,0.474996,-0.767357
0.103482,0.192275,0.869569,0.181712,0.482488,-0.856846
0.167330,0.160259,0.883838,-0.004413,0.985869,0.167457
0.109011,0.189824,0.912778,0.143480,-0.765051,0.627782
0.196952,-0.064381,0.651540,-0.175181,-0.514553,0.839373
-0.023558,0.049097,0.725240,-0.207074,-0.975389,-0.075738
0.085841,-0.006031,0.734715,-0.713864,-0.677736,-0.176270
0.186289,-0.056249,0.745452,0.873545,0.363919,-0.323237
-0.007893,0.042383,0.791849,0.777906,-0.210073,0.592225
0.091635,-0.007835,0.801582,-0.089857,0.705017,0.703475
0.210644,-0.067486,0.810109,-0.370535,-0.056561,0.927095
-0.171268,0.222999,0.415107,0.044092,0.662674,0.747609
0.042001,0.115848,0.433482,0.831063,0.540884,-0.129531
-0.297256,0.288071,0.502646,0.894720,-0.066705,0.441619
-0.218005,0.029476,0.361849,0.498180,0.862987,-0.084084
-0.432327,0.139346,0.414964,-0.309976,0.910511,0.273652
-0.478799,0.163742,0.445052,0.462676,-0.509332,0.725611
-0.039881,-0.048117,0.823890,-0.716654,-0.491791,-0.494519
-0.273162,0.059554,0.440085,-0.666104,0.668180,-0.331424
-0.173772,0.009848,0.449560,0.889113,0.287830,0.355854
-0.247755,0.047805,0.483209,0.751742,-0.613870,-0.240931
-0.449309,0.150574,0.532735,-0.298760,-0.367709,-0.880644
-0.415739,0.134310,0.551770,-0.721816,-0.194569,0.664172
-0.092805,-0.029008,0.532678,-0.687233,0.591194,0.422137
0.088212,-0.120155,0.532649,-0.684495,0.034722,-0.728190
0.017514,-0.083876,0.564604,0.830544,-0.464109,-0.307894
0.403773,-0.279471,0.537185,-0.114974,0.340887,0.933047
-0.223666,0.039933,0.641864,0.155596,0.949660,0.271910
0.587947,-0.372682,0.537128,0.072297,0.190302,0.979060
-0.235116,0.046126,0.665694,-0.147765,0.950449,-0.273519
-0.218133,0.040193,0.755903,-0.137908,-0.989238,0.048878
-0.202075,0.032313,0.775800,0.468499,0.813175,0.345334
0.219462,-0.181098,0.746457,0.814430,0.106458,0.570412
-0.617554,0.131852,0.421538,-0.200621,0.969641,-0.139811
-0.643359,0.145279,0.447780,0.334080,0.793232,0.509091
-0.558049,0.102807,0.459838,-0.191780,-0.133876,0.972264
-0.168765,-0.093947,0.454068,0.582942,0.580266,0.568745
0.013963,-0.186645,0.453379,-0.619613,-0.252841,-0.743069
-0.290543,-0.030687,0.517662,0.772016,-0.507291,-0.382946
-0.207210,-0.072647,0.529261,-0.231988,-0.161124,0.959281
0.342027,-0.351123,0.479792,-0.514065,0.161383,0.842432
0.020808,-0.186906,0.546028,-0.368625,-0.568256,0.735664
-0.017110,-0.167151,0.573734,0.832578,0.329673,0.445118
0.439710,-0.398639,0.538247,-0.021840,-0.373119,0.927527
0.713802,-0.537679,0.526821,-0.727536,0.549274,-0.411084
-0.149284,-0.280117,0.431702,-0.025093,-0.591197,0.806136
0.108878,-0.410514,0.421108,-0.466417,0.775875,-0.424822
-0.426799,-0.136679,0.538994,-0.429800,0.668296,0.607168
-0.314105,-0.193619,0.547664,-0.424729,0.406163,0.809096
0.262382,-0.485908,0.495669,0.279113,-0.707553,-0.649204
0.093081,-0.398891,0.541004,0.589121,-0.583455,0.559032
-0.011316,-0.345441,0.577380,0.647321,0.638596,0.416137
-0.064766,-0.317302,0.608014,-0.219824,-0.958639,-0.180798
-0.398495,-0.073679,0.331042,0.056816,0.432590,0.899799
-0.250519,-0.144559,0.452603,-0.374255,0.591341,-0.714317
0.110589,-0.327885,0.427194,0.895219,0.443065,-0.047710
-0.339911,-0.097437,0.533654,0.124006,-0.869015,-0.478994
-0.236960,-0.148948,0.542698,0.424660,0.573553,0.700500
0.023308,-0.280377,0.532247,-0.066780,-0.940925,-0.331964
0.068465,-0.303095,0.550019,0.928704,0.273090,0.250860
-0.002232,-0.266689,0.582864,0.945473,0.149865,0.289173
0.158905,-0.347766,0.584730,0.281926,-0.545363,0.789365
0.498427,-0.520122,0.563829,-0.075805,-0.502517,0.861237
-0.370585,-0.265271,0.551741,-0.096424,-0.009874,-0.995291
0.448533,-0.680470,0.491104,0.941800,-0.009407,-0.336042
0.415621,-0.663300,0.518437,-0.568773,-0.467737,0.676550
0.517515,-0.812671,0.517346,-0.861187,0.388832,0.327363
0.370202,-0.904590,0.492195,0.819940,-0.557093,-0.131703
0.326756,-0.881487,0.520734,-0.710415,0.675046,0.199059
0.294900,-0.944226,0.481917,0.717111,-0.628048,-0.302171
0.294635,-0.943194,0.505919,0.742892,-0.622879,-0.245220
0.143767,0.019146,-0.570818,-0.053652,-0.983309,0.173851
-0.065951,-0.427683,-0.972624,-0.357581,-0.130735,0.924686
-0.143225,0.895374,0.664373,-0.572677,0.648000,-0.502132
-0.159681,0.875753,0.600693,0.647946,0.563754,0.512199
-0.318846,0.853673,0.562881,0.556079,0.819838,-0.136533
0.013436,0.823596,0.627251,-0.220186,-0.943923,0.246022
-0.233276,0.799452,0.604828,0.464039,-0.440912,-0.768287
-0.221030,0.793511,0.580969,0.940209,0.085365,-0.329728
-0.146255,0.788736,0.544937,0.469188,0.482211,0.739821
-0.285934,0.779437,0.547119,0.571741,-0.532981,0.623734
-0.277377,0.773504,0.522801,-0.708788,0.410309,-0.573817
-0.386776,0.718762,0.361906,0.806073,0.471068,0.358248
-0.017503,0.759044,0.724436,0.993685,0.025071,-0.109366
-0.095701,0.732315,0.651367,0.497435,-0.865845,0.053579
-0.120582,0.725349,0.633194,0.826705,0.561759,-0.031395
-0.130590,0.711922,0.589841,0.871000,0.340924,0.353738
-0.184169,0.704562,0.577581,-0.150722,-0.338847,0.928690
-0.208921,0.691647,0.537415,-0.035258,-0.761919,0.646712
-0.276457,0.684288,0.527682,-0.545217,-0.650043,0.529323
-0.080431,0.681065,0.469399,-0.327126,0.775146,-0.540498
-0.037776,0.675123,0.438507,-0.267715,0.665206,-0.697015
-0.053706,0.668150,0.418237,-0.405748,-0.321510,0.855570
-0.030010,0.642201,0.645396,0.814719,0.349758,-0.462495
-0.021187,0.636007,0.622226,-0.414252,-0.191786,-0.889727
0.097030,0.631744,0.578844,0.844297,0.373230,-0.384528
-0.101628,0.621548,0.592109,-0.149905,0.523395,0.838801
-0.193779,0.613022,0.585850,-0.240508,-0.481622,0.842731
-0.147308,0.607348,0.554957,0.918974,-0.013192,0.394097
-0.187459,0.600240,0.539252,0.710251,0.297518,-0.637986
-0.205892,0.593527,0.520619,0.404606,-0.593225,0.695973
-0.185487,0.587853,0.494923,0.959677,0.280319,0.021013
0.038317,0.584883,0.431329,-0.312617,0.329940,-0.890736
-0.313053,0.558414,0.426821,-0.451727,0.128998,0.882781
-0.459578,0.542662,0.408360,-0.376495,0.671632,0.638092
0.090184,0.670222,0.713182,-0.395885,-0.529160,0.750509
-0.243412,0.454486,0.400350,-0.266150,-0.863903,0.427594
-0.095569,0.443123,0.326047,-0.580003,-0.755389,-0.304934
-0.148492,0.435503,0.312294,0.782812,0.618312,0.069969
-0.208921,0.421178,0.278243,0.904561,-0.107063,-0.412682
0.361512,0.615094,0.805487,0.585801,-0.748563,-0.310631
0.323465,0.607734,0.789811,0.627003,-0.766959,0.136531
-0.042384,0.587333,0.808415,-0.187431,0.880635,-0.435145
-0.069242,0.580359,0.791074,-0.502282,0.736324,-0.453365
0.427075,0.577909,0.662622,-0.481098,0.631334,-0.608245
0.033315,0.563449,0.708846,0.193562,0.882817,-0.427981
-0.011184,0.556476,0.694233,0.384436,0.921493,0.055308
0.229996,0.555317,0.630839,-0.217761,0.637550,0.738993
-0.011184,0.537115,0.628083,-0.655671,-0.083452,0.750421
-0.118344,0.528463,0.624408,-0.128194,-0.255384,0.958303
0.066882,0.525492,0.570001,0.380557,0.478305,-0.791455
-0.027507,0.517360,0.564977,0.020462,-0.332627,0.942836
-0.109526,0.509228,0.556823,0.068394,-0.804335,0.590227
-0.109659,0.502774,0.534745,-0.402220,-0.853947,0.330143
-0.065951,0.497345,0.503967,-0.304324,0.320061,0.897189
-0.150072,0.488953,0.496129,0.875676,0.151318,-0.458578
-0.366764,0.478756,0.512436,0.432356,-0.494345,0.754117
-0.173639,0.475399,0.455302,0.882206,0.334719,0.331174
-0.097152,0.470238,0.419069,0.545898,0.612436,-0.571767
-0.161000,0.462358,0.407499,0.450683,0.688532,-0.568163
0.105194,0.525618,0.886996,-0.835007,0.328215,0.441631
0.290027,0.504059,0.769340,0.332427,-0.905277,0.264509
0.553982,0.503160,0.703277,-0.278278,0.859768,0.428206
0.041740,0.486242,0.768105,-0.734204,-0.400879,0.547941
0.367832,0.486502,0.691074,-0.140334,0.465794,0.873695
0.433789,0.481341,0.657368,-0.106805,-0.901845,0.418651
0.041869,0.467267,0.702358,-0.338883,0.860108,-0.381276
0.025810,0.460940,0.682863,-0.236642,0.915422,0.325583
0.293056,0.459261,0.614790,0.318499,0.192663,-0.928138
0.161408,0.450483,0.616025,0.231999,-0.110659,0.966401
0.024886,0.441185,0.617403,0.823726,-0.037184,0.565767
-0.039881,0.433699,0.607067,-0.681716,0.019360,0.731360
0.020150,0.428152,0.573820,0.638387,-0.656300,-0.402159
-0.070953,0.419759,0.567216,0.212404,0.538503,0.815413
-0.035671,0.413692,0.538104,0.581396,0.679282,-0.447834
-0.107023,0.405946,0.528974,-0.369356,-0.257926,0.892777
-0.211553,0.398192,0.525701,-0.711266,0.302887,0.634319
-0.474456,0.387223,0.550421,0.578520,0.452850,0.678411
-0.518163,0.379864,0.536496,0.939117,-0.210606,-0.271485
-0.014872,0.381542,0.421940,-0.493000,0.725788,0.479774
-0.024876,0.374568,0.400465,-0.295263,-0.621714,0.725460
-0.131904,0.365916,0.396732,-0.354933,-0.524506,0.773896
-0.262367,0.350818,0.376003,0.732005,-0.131557,-0.668477
-0.195756,0.344877,0.340201,-0.622133,-0.638562,-0.452979
-0.113869,0.339582,0.302245,0.749408,0.651214,-0.119618
0.081892,0.328613,0.217893,0.929178,-0.269997,-0.252448
0.315041,0.460428,0.894834,0.747768,0.388361,-0.538534
0.233025,0.452161,0.886680,0.279269,0.597504,-0.751663
0.103876,0.443643,0.887255,-0.722644,0.683201,0.104981
0.008828,0.435897,0.882202,0.389330,-0.237427,0.889972
0.279891,0.428404,0.793830,-0.669791,0.380716,-0.637523
0.177205,0.419759,0.789121,-0.395964,-0.060478,-0.916272
0.178651,0.413298,0.766785,0.793115,-0.605601,-0.064929
0.067409,0.404654,0.763569,0.815474,0.467764,-0.340879
-0.208788,0.392905,0.789581,-0.152183,0.971470,0.181895
0.100586,0.392644,0.715306,-0.719185,-0.672280,-0.175534
0.132706,0.387089,0.687400,0.375565,-0.205491,0.903728
0.039896,0.378957,0.681944,0.501490,0.651051,-0.569772
0.131654,0.374442,0.643558,-0.379943,-0.892917,0.241543
0.028836,0.365404,0.638993,0.947905,0.149321,-0.281389
-0.005788,0.358170,0.622743,0.761096,0.548442,-0.346329
-0.203787,0.348234,0.635950,0.809403,0.164651,-0.563699
-0.267767,0.340748,0.625671,0.451988,-0.839905,0.300444
0.091237,0.340488,0.539367,0.186733,0.471543,0.861845
0.014617,0.332742,0.531127,0.217865,-0.152662,-0.963965
-0.256312,0.321119,0.556565,-0.558777,0.516093,0.649166
-0.349520,0.313113,0.550535,-0.462866,-0.848885,-0.255244
-0.633616,0.302144,0.579074,0.388626,-0.457737,0.799654
-0.504604,0.297369,0.533883,-0.563937,-0.273998,-0.779038
-0.060945,0.298267,0.430956,-0.075384,0.926912,-0.367629
-0.052653,0.291553,0.406236,-0.326570,0.705275,0.629237
-0.106891,0.284068,0.393775,-0.032842,0.361248,0.931891
-0.215502,0.275415,0.390473,-0.520300,0.583817,0.623254
-0.335961,0.266772,0.389411,0.789650,-0.612862,-0.029205
0.046875,0.259025,0.271898,0.484241,-0.871498,0.077467
-0.032380,0.251019,0.263802,-0.423281,0.867508,-0.261271
0.143108,0.387089,0.928684,-0.505648,0.743398,-0.437813
0.234472,0.382960,0.892853,-0.463613,0.572794,-0.675995
0.228678,0.376893,0.872038,0.175241,-0.721893,0.669449
0.089264,0.367854,0.873473,-0.145498,0.694796,0.704336
0.065171,0.360495,0.855673,0.297175,0.437692,-0.848595
0.094925,0.354947,0.829632,0.987084,0.143582,0.071062
0.066621,0.348234,0.813353,0.026675,0.929302,0.368357
0.151400,0.343584,0.776977,-0.493783,0.654289,0.572787
0.056352,0.335452,0.771981,-0.011494,0.725158,0.688487
-0.292387,0.322025,0.809477,-0.777782,-0.598539,0.191849
0.063857,0.322537,0.726360,-0.093087,-0.534211,0.840210
0.055034,0.316344,0.705602,0.637349,0.620826,0.456467
0.030945,0.309504,0.688232,-0.360789,0.104712,0.926751
-0.139015,0.300332,0.696328,-0.308026,0.199978,-0.930123
-0.035012,0.295296,0.655789,-0.535461,-0.844531,0.006968
-0.082801,0.288197,0.642639,-0.608391,0.773367,-0.178227
-0.410998,0.275550,0.677896,-0.026741,0.901916,0.431083
-0.348994,0.270254,0.644534,0.622470,-0.738935,-0.257887
-0.007893,0.269734,0.561474,0.816093,-0.260728,0.515765
-0.022372,0.263020,0.542095,0.787633,0.345352,-0.510262
-0.260788,0.252438,0.562881,0.487935,-0.853324,0.183730
-0.358737,0.244432,0.557713,0.887154,0.461288,-0.013046
-0.551730,0.234748,0.570662,0.535066,0.701405,0.470888
-0.555812,0.228294,0.548727,0.363671,0.292589,-0.884384
-0.431668,0.223393,0.503306,0.542555,0.393246,-0.742288
-0.189697,0.214220,0.413700,-0.111460,0.679089,0.725544
-0.410210,0.204150,0.431989,-0.258205,-0.449685,-0.855052
-0.377033,0.197956,0.402618,-0.255950,0.779948,0.571113
0.113486,0.310662,0.989522,-0.038464,0.831789,0.553757
0.127178,0.304595,0.965893,0.748216,-0.410177,0.521467
0.130208,0.298528,0.944676,0.872097,-0.463792,-0.156023
0.121517,0.292334,0.925411,-0.006678,-0.999745,0.021590
0.141790,0.286779,0.900318,0.918329,-0.363674,0.156247
0.171677,0.281231,0.874507,0.242084,0.577637,0.779570
0.144687,0.274643,0.857166,-0.609741,0.009794,0.792540
0.133763,0.267544,0.837154,0.993003,0.117597,0.010816
0.073728,0.259798,0.825326,0.919926,0.246553,-0.304874
0.096110,0.253990,0.800376,-0.515168,0.853303,-0.080471
0.129283,0.248435,0.773589,-0.040113,0.688488,0.724138
-0.030143,0.238885,0.778613,-0.528538,-0.118722,0.840567
0.058196,0.234361,0.742237,0.797787,0.376749,0.470739
0.072941,0.228034,0.717517,0.281342,0.370119,0.885358
-0.058314,0.219256,0.717833,-0.523370,0.532823,0.664968
-0.156130,0.211384,0.712550,0.021797,-0.146003,0.989044
0.023046,0.208027,0.659895,-0.333856,0.852595,0.402022
-0.082407,0.199635,0.656708,-0.118543,-0.684034,0.719753
-0.297649,0.189178,0.672068,-0.158243,-0.479950,0.862906
-0.323981,0.182330,0.655100,0.913364,-0.382160,-0.140430
-0.115846,0.179368,0.595784,0.487719,0.727882,-0.481994
-0.097152,0.173166,0.569714,0.154198,-0.980884,-0.118702
-0.119269,0.166066,0.550823,-0.227287,0.950386,0.212385
-0.153892,0.159092,0.535147,-0.622421,-0.467498,0.627724
-0.160867,0.152765,0.514360,0.966894,0.110552,0.229986
-0.250917,0.144893,0.507728,-0.233692,-0.953223,-0.191711
-0.050809,0.141276,0.449187,-0.382004,-0.020189,-0.923940
0.014750,0.135468,0.414016,0.853458,0.287529,0.434668
-0.197993,0.125272,0.429663,-0.149904,-0.270436,-0.950996
-0.582404,0.106030,0.455130,0.981156,0.172837,0.086368
-0.635593,0.098677,0.442784,-0.555316,-0.283073,0.781981
-0.341883,0.096219,0.364777,0.534185,0.465114,-0.705914
-0.320558,0.089892,0.338220,0.516835,0.757235,-0.399345
-0.441017,0.081247,0.337301,-0.767509,-0.272907,0.580045
0.259618,0.214354,0.908558,-0.077396,-0.842373,0.533308
0.277914,0.208933,0.884642,0.180461,-0.933063,-0.311170
0.279497,0.202731,0.863482,0.230018,0.923553,-0.306824
0.096371,0.192795,0.872181,0.509999,-0.837060,0.198068
0.139159,0.186979,0.844074,0.120514,-0.088945,0.988719
0.191950,0.181558,0.813095,0.131020,-0.850619,0.509196
0.165490,0.174458,0.795553,0.867876,0.079374,-0.490398
0.180628,0.168131,0.770804,0.272391,-0.264651,0.925075
0.099268,0.160259,0.763425,0.271231,0.227481,-0.935247
0.145213,0.154703,0.734255,0.910852,0.410082,0.046695
0.031206,0.145925,0.731585,0.364441,0.846792,0.387460
-0.173900,0.135989,0.745625,0.217138,0.398037,0.891301
-0.002892,0.133018,0.693745,-0.051659,-0.373479,0.926199
0.331236,0.132112,0.613211,-0.512601,-0.380080,0.769922
0.154695,0.122168,0.621365,0.910638,-0.234992,0.339879
-0.105444,0.110939,0.645281,0.340134,-0.237126,0.909989
-0.174032,0.103453,0.635720,0.823315,-0.114978,-0.555817
0.134550,0.102034,0.558460,0.423459,0.371453,-0.826260
0.029101,0.093642,0.555244,-0.841261,0.538989,0.042072
0.004879,0.086408,0.536726,0.840811,-0.473567,-0.262242
0.000665,0.079569,0.514532,0.566442,0.117680,-0.815656
-0.098204,0.071436,0.509336,0.214041,0.401276,0.890598
-0.215635,0.063297,0.508532,0.901198,-0.427222,-0.072965
-0.173506,0.057103,0.478730,0.926885,0.114056,-0.357597
-0.144937,0.050776,0.450737,0.898138,0.283292,0.336295
-0.136380,0.044322,0.426850,0.972549,0.200978,0.117286
-0.354523,0.033866,0.443761,-0.296801,0.554942,-0.777141
-0.648228,0.022629,0.474883,-0.366703,-0.703726,-0.608522
-0.768426,0.013985,0.474165,-0.308871,-0.239556,-0.920441
-0.262632,0.014757,0.357571,0.624515,0.545863,-0.558582
-0.218660,0.008689,0.326736,0.025070,-0.677188,0.735383
-0.351758,-0.000223,0.328085,0.618102,-0.029377,-0.785549
-0.432195,-0.008095,0.320649,-0.582685,0.285319,0.760967
-0.498284,-0.015715,0.309481,0.736721,-0.635130,-0.232060
0.189579,0.139598,0.890040,-0.794953,0.424333,-0.433580
0.071358,0.131079,0.888001,0.132332,0.425182,0.895382
0.363356,0.117652,0.774852,-0.225275,0.861370,-0.455295
0.211435,0.108228,0.779274,-0.737960,-0.286469,0.611025
0.087159,0.099190,0.778326,0.682671,-0.728661,0.054890
0.129416,0.093508,0.748926,0.287098,0.935881,0.204209
0.142714,0.087181,0.724436,-0.061365,-0.976887,0.204758
-0.221557,0.074147,0.765808,0.158854,0.716509,0.679250
-0.062922,0.070790,0.717058,0.764088,0.409271,0.498665
0.611775,0.077370,0.577409,-0.208850,-0.704622,0.678151
0.230916,0.063297,0.621910,-0.589735,0.242846,-0.770220
0.116383,0.054393,0.619384,0.744524,-0.629654,-0.221856
-0.109129,0.043676,0.636381,-0.492430,0.492942,-0.717301
0.036867,0.039547,0.587974,0.124800,0.872294,0.472787
0.124414,0.034638,0.550593,0.074168,0.463595,0.882937
0.024099,0.026380,0.546487,0.818748,-0.249107,-0.517297
-0.022770,0.018759,0.531960,0.749051,-0.628706,-0.208928
-0.082801,0.011660,0.520705,-0.458296,0.418102,0.784318
-0.217213,0.002882,0.521968,-0.589224,0.700628,0.402412
-0.262367,-0.004998,0.507211,0.395192,-0.896214,-0.201552
-0.224060,-0.011326,0.477180,0.347282,-0.815654,0.462713
-0.188910,-0.017259,0.448613,0.829721,0.278839,0.483541
-0.183643,-0.023713,0.425328,0.397615,0.894588,-0.203997
-0.498545,-0.035596,0.460183,-0.474671,0.027725,-0.879726
-0.837673,-0.047471,0.500751,0.777013,-0.070286,0.625548
-0.755654,-0.052892,0.462566,-0.577409,-0.216934,-0.787108
0.306877,-0.043854,0.240919,0.975031,0.220851,0.023216
-0.346885,-0.060512,0.339598,0.134541,0.280618,0.950343
-0.427454,-0.068518,0.332076,0.605319,-0.225684,-0.763319
-0.474190,-0.075484,0.318209,0.600071,-0.605209,-0.523103
-0.107156,-0.091236,0.177612,-0.504337,0.842669,-0.188557
0.136656,0.047293,0.902615,0.650893,-0.732520,-0.199381
0.182472,0.015789,0.787026,0.934033,0.319843,-0.159007
-0.083195,0.004300,0.811056,0.867564,0.173091,0.466231
0.166542,-0.003966,0.724982,0.003719,0.403836,0.914824
0.191950,-0.009774,0.698252,0.539069,0.595575,0.595563
0.252246,-0.021782,0.642812,-0.436337,0.763203,0.476583
0.142188,-0.030561,0.640256,0.982563,-0.179552,0.048288
0.070964,-0.038433,0.631069,-0.512175,0.661868,0.547364
0.066754,-0.045280,0.609192,-0.175877,-0.929963,0.322857
0.069253,-0.058574,0.564202,-0.418812,0.357088,0.834916
-0.031195,-0.066966,0.559206,-0.068763,0.792647,0.605791
-0.025667,-0.073806,0.535405,-0.599065,-0.347012,0.721598
-0.107947,-0.081425,0.528113,0.073123,-0.826304,0.558458
-0.274219,-0.090337,0.536123,0.324914,-0.772335,-0.545830
-0.303708,-0.098084,0.518580,-0.937640,0.324701,0.124099
-0.054626,-0.100660,0.451139,0.335427,0.941223,0.039839
-0.122033,-0.108540,0.440258,0.900717,0.432604,-0.039531
-0.265923,-0.117830,0.443445,-0.339514,0.940407,0.019093
-0.335829,-0.125836,0.433138,0.711334,0.651329,0.264150
-0.065027,-0.135135,0.338163,0.822859,0.560864,-0.091288
-0.289357,-0.152179,0.333999,0.424991,0.226817,0.876320
-0.456417,-0.161603,0.341924,0.119391,-0.209638,-0.970463
-0.348203,-0.166764,0.297881,0.330553,0.893126,-0.305059
-0.574377,-0.176575,0.316917,-0.152476,0.870960,0.467098
0.271992,-0.095499,0.712406,0.949662,-0.249218,-0.189820
0.468014,-0.125451,0.567073,0.909298,0.251244,-0.331744
0.457617,-0.132684,0.545942,0.812796,0.313423,-0.491049
0.408381,-0.140170,0.532563,0.724806,0.517734,-0.454542
0.025810,-0.153211,0.578414,-0.531463,0.390849,-0.751521
-0.020532,-0.160823,0.563800,0.862290,0.288577,-0.416148
-0.149413,-0.169602,0.564948,-0.622500,0.422365,0.658864
0.336366,-0.168443,0.454785,0.722526,0.003371,-0.691335
-0.345833,-0.185873,0.554670,0.441879,-0.720686,-0.534186
-0.446939,-0.194651,0.550248,0.170062,0.723357,0.669204
-0.025796,-0.194912,0.451541,0.590909,0.748180,-0.301751
0.116516,-0.199553,0.403278,0.840832,-0.351988,-0.411225
0.084262,-0.207173,0.385679,0.652481,-0.139256,-0.744900
0.006458,-0.215052,0.377467,0.739316,0.655286,-0.154957
0.032917,-0.221892,0.349101,-0.099486,-0.988258,0.115964
-0.621507,-0.279084,0.309567,-0.824548,0.502042,-0.260912
-0.084512,-0.249905,0.596157,0.000314,0.206463,0.978454
0.066228,-0.254428,0.547406,0.085207,0.994194,0.065708
0.043186,-0.261528,0.529577,-0.492227,-0.833967,-0.249421
-0.411130,-0.281669,0.566499,0.967068,-0.026676,-0.253118
0.058457,-0.289415,0.435205,0.939993,0.265290,-0.214556
0.052403,-0.296641,0.413040,0.974964,0.089012,-0.203770
0.256982,-0.300770,0.352977,0.560131,0.446976,-0.697471
0.208671,-0.308524,0.339225,-0.494317,-0.233049,0.837460
0.159170,-0.316522,0.324669,-0.193047,-0.099248,0.976157
0.242503,-0.155788,0.825670,0.495874,-0.387394,-0.777197
0.282655,-0.181997,0.732016,-0.151572,0.971725,0.181040
0.591370,-0.210915,0.567417,0.170857,0.984951,-0.026049
0.760539,-0.214793,0.515681,-0.118213,0.478738,0.869963
0.504088,-0.226281,0.537730,-0.706764,-0.223603,-0.671183
0.432997,-0.234548,0.527309,-0.605899,-0.217121,0.765340
0.498033,-0.307878,0.541635,-0.240743,-0.152234,0.958576
0.316226,-0.317688,0.551713,-0.409136,-0.037052,-0.911721
-0.036591,-0.330469,0.591391,0.221912,0.967732,0.119374
0.002376,-0.337183,0.561618,0.639057,0.583630,0.500981
0.204850,-0.341186,0.502503,-0.175362,-0.907335,0.382089
0.185630,-0.369459,0.415854,-0.040853,0.993588,0.105422
0.151665,-0.392051,0.351685,-0.641618,0.757115,0.122895
0.587686,-0.387662,0.530352,0.009506,0.006835,0.999931
0.087420,-0.409867,0.573935,-0.602511,-0.500694,0.621518
0.183786,-0.415288,0.534802,0.490545,-0.730288,-0.475441
0.104929,-0.423555,0.525873,-0.486287,0.757393,0.435753
0.250795,-0.428590,0.476634,-0.433650,0.031815,0.900519
0.361777,-0.441497,0.410887,0.683655,0.617684,0.388692
0.107432,-0.452214,0.434688,-0.793051,0.500344,0.347456
0.232761,-0.479967,0.318553,0.615576,0.584307,-0.528822
0.117174,-0.489005,0.316285,-0.090865,0.312392,-0.945598
0.316226,-0.481645,0.560039,0.312097,0.328302,0.891523
0.148769,-0.491589,0.566814,0.805320,-0.036660,0.591706
0.380073,-0.494947,0.503594,-0.515888,0.650939,0.556900
0.310826,-0.502818,0.493746,0.272946,-0.582623,0.765540
0.372174,-0.508894,0.459580,-0.665776,0.112395,0.737638
0.244082,-0.518184,0.460327,-0.335762,-0.765924,0.548292
0.309380,-0.543487,0.567188,0.225030,0.392738,0.891694
0.244476,-0.551493,0.556680,0.301157,0.644090,0.703174
0.391793,-0.563375,0.484358,-0.431059,0.054099,0.900701
0.319781,-0.571894,0.474022,0.923683,0.240349,-0.298399
0.500271,-0.591901,0.543990,0.147021,0.906291,-0.396260
0.464330,-0.774202,0.535491,-0.244514,-0.138421,0.959715
0.452089,-0.781688,0.514590,-0.855452,0.323534,0.404385
-0.147834,0.604764,0.480998,0.912492,0.049890,0.406042
-0.054100,0.482499,0.440114,-0.077092,-0.993402,0.084904
-0.340043,0.850057,0.560929,0.917327,0.392450,-0.067042
-0.248020,0.731157,0.521767,0.814249,-0.544826,-0.200406
-0.220243,0.815716,0.592654,-0.591873,-0.799171,0.104939
-0.105838,0.676541,0.549272,0.767197,0.020906,0.641071
0.537792,0.466235,0.699716,-0.644662,-0.751464,0.140402
0.435500,0.448159,0.640285,0.988656,-0.042620,-0.144025
0.381130,0.459908,0.623174,-0.588767,-0.522865,0.616413
-0.106762,0.858709,0.673848,-0.675140,-0.737558,0.013949
-0.014080,0.740707,0.635404,0.819410,-0.561747,0.114053
0.437999,0.299433,0.539712,0.119096,0.851266,0.511041
-0.169818,0.807324,0.609996,-0.510196,0.138856,-0.848775
0.341239,0.230744,0.873933,-0.531719,0.178292,0.827941
0.170094,0.345523,0.874823,-0.285253,0.198016,-0.937774
0.078337,0.388902,0.863453,-0.526607,0.838808,-0.138155
-0.106364,0.090671,0.594578,0.773975,-0.176932,-0.607995
-0.017503,-0.029142,0.555991,0.407807,-0.277502,-0.869877
-0.138883,0.040705,0.548957,0.138554,0.638553,-0.757002
-0.249334,0.101388,0.540717,0.864733,0.020635,0.501807
-0.547781,0.335193,0.562537,0.382626,0.190352,0.904082
-0.542779,0.292720,0.537185,0.408447,-0.683129,-0.605397
-0.391777,0.114035,0.488032,-0.724454,-0.573149,0.382971
0.250008,0.458615,0.778958,-0.083050,0.176625,0.980768
0.206300,0.459781,0.760497,0.987237,0.126562,0.096672
0.302799,0.335452,0.720905,0.901715,0.112285,0.417496
0.241053,0.353781,0.706004,0.010414,0.992029,-0.125582
-0.255654,0.346815,0.482348,-0.642858,0.316331,-0.697616
0.052009,0.027018,0.406724,-0.247199,0.674760,-0.695407
0.100586,0.239531,0.967357,0.879562,0.424688,-0.214499
-0.505524,0.237332,0.715622,-0.612205,-0.742065,-0.273029
-0.006969,-0.302196,0.587515,0.981340,-0.087365,0.171289
0.023440,-0.372556,0.556967,-0.736543,-0.525467,-0.425898
0.408116,-0.767741,0.471495,0.891888,-0.175125,-0.416974
-0.253942,-0.197236,0.550966,0.033748,0.078631,0.996332
-0.307392,-0.189742,0.533625,0.777014,0.563304,0.280958
-0.397571,-0.145978,0.523203,-0.505764,0.804545,0.311304
0.129022,0.304981,0.831269,0.801837,0.481567,0.353767
0.103615,0.288843,0.810138,0.471832,0.458672,-0.752991
0.107299,0.248309,0.785647,-0.173049,0.938651,0.298309
0.016594,0.291814,0.775111,0.311392,0.565694,0.763561
-0.119795,0.375475,0.770517,-0.754358,0.635187,-0.165776
0.082285,0.155090,0.716024,0.954916,0.215307,-0.204395
-0.028825,0.216033,0.707612,0.794658,-0.577618,0.186754
-0.076216,0.219902,0.689639,0.456703,0.883930,0.100450
0.094660,0.024827,0.637988,0.419726,0.576291,-0.701227
-0.009211,0.081247,0.629548,-0.563587,-0.499559,0.657884
-0.304496,0.311182,0.650851,0.113415,-0.008232,0.993514
-0.389938,-0.129067,0.333109,0.066663,0.310618,0.948194
0.103482,0.440538,0.702616,0.683018,0.601106,0.414918
0.014356,0.482633,0.690988,0.656181,0.566640,0.498343
0.152983,0.321899,0.645568,-0.144909,-0.989440,-0.003070
0.097822,0.332355,0.628600,-0.462174,0.886400,-0.026284
0.013436,0.369793,0.616197,0.656864,0.599394,-0.457446
-0.041991,0.381156,0.599344,0.789534,0.562002,-0.246557
0.074652,0.238490,0.556536,0.150939,0.058497,0.986811
0.010540,0.259151,0.541980,0.767794,0.086443,-0.634838
-0.086883,0.309118,0.531759,0.725037,-0.138000,0.674742
-0.122427,0.304595,0.512752,0.851181,0.245041,-0.464162
-0.251572,0.382314,0.507556,-0.348714,-0.678572,0.646482
0.015015,0.159227,0.882259,-0.039834,0.874973,0.482530
0.196425,-0.084136,0.806807,0.941883,0.154238,-0.298440
0.011327,0.005332,0.785102,0.107312,0.570773,0.814065
-0.179034,0.096353,0.763282,-0.337141,0.872733,-0.353090
-0.452993,-0.359901,0.583610,-0.434769,-0.556742,-0.707824
0.034761,0.204150,-0.224739,-0.678257,0.733241,0.048217
0.045424,0.156902,-0.353076,0.067799,-0.993088,0.095813
0.081233,0.157674,-0.332433,-0.079583,0.996664,0.018096
0.119938,0.150574,-0.242770,0.539874,0.593035,-0.597365
0.058855,0.049617,-0.421408,-0.042452,-0.994504,0.095703
0.105853,0.051682,-0.406535,-0.782698,0.554181,-0.283315
-0.015398,0.030375,-0.316240,0.126795,-0.950664,0.283128
0.156141,0.036450,-0.248426,-0.725160,-0.643684,0.244571
-0.377824,0.055298,-0.268466,-0.157757,0.963056,-0.218258
0.062145,0.112231,-0.427868,0.006493,-0.992112,0.125183
-0.134933,0.080215,-0.303636,-0.158353,0.936493,-0.312897
0.069646,0.104351,-0.357354,0.067799,-0.993088,0.095813
0.057144,0.098157,-0.316843,-0.078490,0.988107,0.132228
0.126784,0.103712,-0.312393,-0.170393,0.983393,0.062491
0.098480,0.091317,-0.229907,0.880055,-0.365537,-0.303127
0.005799,-0.028236,-0.392065,-0.069369,0.997438,-0.017462
-0.002232,-0.034177,-0.351669,-0.796835,0.586426,0.145464
0.362436,0.012558,-0.475470,0.070168,0.994545,-0.077181
0.208671,-0.062057,-0.498180,-0.084358,-0.992578,0.087590
0.064251,-0.970955,0.484472,-0.504718,0.737956,0.447974
0.205377,-0.959592,0.488520,0.564762,-0.738203,-0.368918
0.376124,-0.779363,0.470289,0.793067,-0.213137,-0.570628
0.482497,-0.698933,0.520619,0.935988,0.015818,-0.351676
0.234865,-0.615272,0.314132,0.200438,0.934192,-0.295144
0.263302,-0.630764,0.454269,-0.726017,-0.112217,0.678459
0.342292,-0.627407,0.482864,0.836707,0.345319,-0.425060
0.336237,-0.631796,0.514590,0.746373,0.593900,-0.300350
0.211302,-0.531225,0.336038,0.726345,0.384322,-0.569841
0.298585,-0.522960,0.331444,0.692972,0.291614,-0.659356
0.295953,-0.527223,0.363313,0.772367,0.570454,-0.279341
0.236051,-0.543620,0.447464,-0.481946,-0.606860,0.632020
0.312409,-0.537033,0.446976,0.600769,0.240556,-0.762371
0.157061,-0.565180,0.565063,-0.524789,-0.237766,-0.817352
0.105981,-0.466934,0.333109,0.079411,-0.785415,0.613855
0.056087,-0.481133,0.413270,0.079902,-0.991473,0.102942
0.285286,-0.454152,0.353351,0.770368,0.175420,-0.612993
0.168913,-0.477650,0.458403,-0.667391,-0.561473,0.489222
0.190765,-0.478548,0.480137,0.791160,0.484973,-0.372648
0.281867,-0.470030,0.475084,-0.639478,0.767647,-0.042262
0.121783,-0.495206,0.565580,0.745539,0.017223,0.666240
0.500006,-0.463191,0.566068,0.912724,0.045138,-0.406075
0.642843,-0.448211,0.542037,-0.108376,0.161173,0.980958
0.092161,-0.402382,0.511116,-0.682775,-0.657938,-0.317703
0.020411,-0.415808,0.568336,-0.734499,-0.637448,-0.232747
0.061487,-0.413736,0.580624,-0.228291,-0.114572,0.966828
0.204324,-0.398639,0.555560,0.890171,0.427508,-0.157581
0.541476,-0.368293,0.543817,-0.206755,0.922582,-0.325723
0.555694,-0.370357,0.567705,0.906988,-0.421082,-0.007941
0.371781,-0.332408,0.157859,0.987831,0.032020,0.152201
0.045689,-0.381074,0.318754,-0.522265,-0.044983,-0.851596
0.066754,-0.382500,0.341550,0.465504,-0.250437,-0.848874
-0.009866,-0.396700,0.401584,0.755012,-0.148273,-0.638726
0.017121,-0.396960,0.421567,-0.742063,0.230721,0.629373
0.099140,-0.389986,0.420333,-0.702991,0.711197,-0.001875
0.205903,-0.379396,0.409222,0.311409,-0.865264,-0.392866
0.279758,-0.373202,0.409681,-0.640413,-0.679158,0.358631
-0.288433,-0.327759,0.316515,0.983910,-0.132212,-0.120170
0.388237,-0.246549,0.137475,0.974642,0.079459,0.209189
-0.041592,-0.309808,0.341436,-0.644526,-0.059734,-0.762245
0.069646,-0.298839,0.328286,0.032233,-0.188588,0.981527
-0.449044,-0.373974,0.563197,-0.676612,-0.701671,-0.223279
-0.435356,-0.375787,0.586395,0.999294,0.037559,-0.001284
0.005932,-0.319367,0.443272,0.930985,0.250742,-0.265322
0.107299,-0.309162,0.432850,0.905311,0.301345,-0.299339
0.089923,-0.315750,0.469801,0.892208,0.416999,-0.173427
-0.067004,-0.341052,0.560383,-0.299074,-0.953290,0.042342
-0.008026,-0.336797,0.567159,0.857690,0.513666,0.022675
-0.013687,-0.341186,0.597420,0.692270,0.531243,0.488409
0.495398,-0.291479,0.549387,-0.570044,-0.636584,0.519432
0.578469,-0.287863,0.575514,-0.313445,0.925375,-0.213150
-0.597414,-0.303489,0.376779,0.682247,-0.449017,-0.576994
-0.272508,-0.266824,0.306925,-0.744009,-0.366117,-0.558935
-0.121374,-0.253782,0.307758,-0.402998,0.698619,0.591206
-0.045546,-0.247454,0.307385,0.324914,0.931784,0.161894
0.080574,-0.234287,0.288723,0.214763,-0.912427,-0.348359
-0.010392,-0.250686,0.355016,0.087766,-0.984135,0.154190
-0.435750,-0.312653,0.554182,0.788108,-0.288566,-0.543705
-0.405735,-0.312267,0.572327,0.107370,0.630586,0.768657
-0.232352,-0.292386,0.534170,0.617339,0.404116,0.674969
0.075440,-0.254294,0.442583,0.788640,-0.018353,0.614581
0.208141,-0.240355,0.420160,-0.623025,-0.607767,0.492402
0.014224,-0.270432,0.525184,-0.538148,0.837600,-0.093932
-0.115187,-0.291346,0.603249,0.064196,0.740597,0.668876
-0.018295,-0.281921,0.595324,-0.399184,-0.342616,-0.850451
0.185497,-0.258431,0.547062,0.959133,0.161674,-0.232218
0.444584,-0.227574,0.478299,0.881380,-0.429061,-0.197676
0.523441,-0.224477,0.505316,0.866137,-0.308480,-0.393251
0.448533,-0.238030,0.562537,0.939690,-0.111821,0.323231
0.645608,-0.219308,0.546574,-0.749555,0.092648,0.655426
0.627573,-0.225249,0.582232,-0.287036,0.897064,-0.335986
0.904561,-0.199301,0.564747,0.802494,-0.080769,0.591168
-0.231167,0.910093,0.615738,0.800464,0.503676,-0.324914
-0.328191,0.813392,0.559235,0.761779,0.564891,-0.317162
-0.223007,0.823722,0.547664,-0.297271,0.024705,0.954473
-0.252757,0.815716,0.588463,0.314292,0.517997,-0.795550
-0.196282,0.819459,0.594836,0.865281,0.479420,-0.146442
-0.153627,0.821784,0.606349,0.976552,-0.072687,0.202638
-0.114660,0.819593,0.648123,-0.192819,0.913944,-0.357109
-0.012236,0.727540,0.732533,0.925535,0.060809,0.373748
-0.365844,0.724829,0.527826,-0.483806,-0.873830,0.048509
-0.268161,0.733994,0.519327,-0.762466,0.361161,0.536850
-0.234722,0.734640,0.534917,-0.661013,0.333974,0.671954
-0.149678,0.742772,0.530295,-0.047031,-0.883777,0.465539
-0.126641,0.741740,0.550851,-0.622321,0.653396,0.431034
-0.172321,0.731803,0.596588,-0.615248,0.285885,0.734669
-0.042123,0.745743,0.575887,0.808510,-0.273579,-0.521024
-0.160080,0.725736,0.649788,0.518367,0.221784,0.825898
-0.098204,0.730385,0.654985,-0.006682,-0.989473,0.144566
0.036473,0.744844,0.631643,0.609245,-0.287517,0.739023
-0.374928,0.658985,0.375888,0.873157,0.396993,0.282832
-0.266975,0.654084,0.483668,-0.328862,-0.944193,0.018685
-0.279747,0.648142,0.518638,0.873030,0.222493,-0.433953
-0.233669,0.650593,0.529060,-0.271027,-0.357660,0.893657
-0.203260,0.650979,0.546832,0.833290,0.520474,-0.186372
-0.170477,0.651373,0.563656,-0.457328,-0.395211,-0.796655
-0.112025,0.655628,0.570403,-0.463760,0.670000,0.579677
-0.078458,0.656660,0.585562,0.968854,0.004766,0.247588
-0.161920,0.641689,0.645252,0.502821,0.572705,-0.647441
-0.056735,0.652012,0.634084,0.945634,-0.059447,0.319753
0.081233,0.659505,0.666814,-0.104543,-0.003338,0.994515
-0.296465,0.596112,0.334803,0.782883,0.032669,0.621310
-0.298441,0.591723,0.365581,0.974497,0.006742,-0.224300
