0.043424,-0.062902,0.909873,-0.574593,-0.818083,0.024162
-0.678731,-0.023086,-0.549385,0.337136,0.057600,-0.939692
-0.190738,0.175032,0.674240,0.689249,0.347008,0.636019
-0.364564,-0.020927,0.339782,-0.406239,-0.269709,-0.873056
0.090456,0.030761,0.713195,0.664183,-0.207836,0.718098
-0.584669,0.243149,0.375416,0.234319,-0.044976,0.971119
0.572852,-0.567669,0.229889,-0.573308,-0.238250,0.783936
-0.160877,-0.107634,0.778134,0.888695,0.066179,-0.453698
0.618767,-0.466571,0.581036,0.984609,-0.173306,-0.022567
-0.551945,0.090004,-0.368754,0.589263,0.721703,0.363200
-0.201317,-0.210889,-0.035580,-0.652025,0.658167,0.376403
-0.605074,-0.078732,0.605803,-0.076909,0.968295,0.237674
0.297255,-0.291960,0.221810,-0.228768,-0.299607,0.926229
0.072047,-0.543323,0.230442,0.870096,0.283264,0.403355
-0.026747,-0.150447,0.791215,0.864109,-0.503106,-0.014149
0.166983,0.398212,-0.165127,0.838323,0.273599,-0.471549
-0.184648,-0.783535,0.414238,0.522935,-0.520790,-0.674772
-0.620005,0.056665,-0.657153,0.833226,0.181069,-0.522444
0.757621,-0.071177,0.632474,-0.473948,-0.021056,-0.880301
0.880808,-0.447503,0.568995,-0.283263,0.897653,0.337611
0.576459,-0.025725,0.562732,-0.355308,0.933120,0.055169
-0.123673,-0.337291,0.757152,0.975194,0.025097,-0.219924
-0.341044,-0.104036,0.582541,-0.309356,-0.890749,-0.332964
-0.335075,-0.227799,-0.370835,-0.614134,0.665138,0.424771
0.681473,0.013851,0.216166,0.034106,-0.986361,0.161026
0.098050,-0.052828,0.589026,-0.597509,0.606594,-0.524430
-0.265397,-0.321581,0.587942,-0.713965,0.700072,-0.012358
-0.662806,0.180547,0.582010,-0.744120,-0.564876,0.356652
-0.031228,-0.345326,0.412136,-0.171451,0.978534,0.114350
0.557428,0.665767,0.173316,0.494330,0.844633,0.205506
-0.385964,-0.140252,-0.226990,0.757581,-0.638133,0.137323
-0.069055,-0.439228,0.088943,0.988936,-0.147280,-0.017710
-0.209154,-0.034479,0.724284,0.561255,0.819846,-0.113336
-0.170332,-0.184985,0.938668,0.915090,-0.369278,0.161997
-0.032974,-0.400253,0.703257,-0.391284,0.357503,0.847991
0.440339,-0.497152,0.237791,0.525857,0.608989,-0.593807
-0.728254,-0.231997,0.433118,0.047089,0.807823,0.587541
0.001245,-0.033400,0.894379,-0.702924,-0.711067,0.016775
0.658956,-0.400132,0.508084,-0.706867,0.470184,0.528456
0.552196,-0.036518,0.562422,0.135106,0.970627,-0.199073
0.325620,-0.984769,0.583803,-0.056388,-0.975707,0.211698
0.491107,-0.433111,0.497438,-0.475522,0.618692,0.625379
0.007716,0.414763,0.588052,-0.081576,0.775038,0.626627
-0.455893,0.086407,0.725988,-0.225034,-0.963800,-0.143002
0.014186,0.035078,0.945795,-0.655373,0.755305,0.000816
-0.107626,-0.007616,-0.073029,0.964395,-0.250325,0.085326
-0.802913,0.246986,0.566074,-0.799675,0.351145,-0.487050
-0.744308,-0.060982,0.590686,0.156019,0.987458,-0.024181
-0.249594,-0.697787,0.367825,-0.502611,-0.491129,-0.711460
-0.796936,0.328057,0.544671,0.543173,0.050228,0.838117
0.646509,0.019487,0.529155,0.582858,0.658431,0.476177
-0.443825,0.332134,-0.963568,-0.550702,-0.056094,-0.832815
0.659579,0.159802,0.270039,0.925884,-0.252179,-0.281325
0.449551,-0.415963,0.750866,0.987179,0.141455,-0.073952
-0.246860,-0.022847,0.882980,-0.623171,0.119604,0.772886
0.274609,0.267494,0.415876,0.231867,0.809259,0.539758
0.179050,-0.441746,0.555494,0.104715,0.983152,0.149826
0.424042,0.161119,0.406160,0.185888,-0.964785,0.186106
-0.787983,-0.118306,0.592900,0.271779,0.914777,0.298862
-0.235407,-0.598129,0.700490,-0.050106,-0.698389,0.713962
-0.213885,-0.517419,0.755337,0.512508,-0.621221,-0.592807
-0.181283,0.133897,0.837673,0.958710,0.222078,-0.177640
-0.101278,-0.979973,0.416917,-0.454972,0.890336,0.017413
-0.252707,0.412964,0.667600,0.137217,0.535326,0.833425
-0.220227,-0.284044,-0.409679,0.012405,0.931870,0.362580
0.177304,0.215327,0.427917,-0.000987,-0.993720,0.111891
-0.005475,0.137374,0.726431,0.972805,0.033742,-0.229153
-0.671395,0.240631,0.519881,-0.087545,-0.995619,-0.032831
-0.446187,-0.080289,0.593431,0.379129,0.914752,-0.139608
-0.057109,0.186304,0.829794,-0.503390,0.435829,-0.746091
-0.764836,0.175511,0.535087,0.848906,0.190988,0.492831
-0.071295,-0.881994,0.421122,0.911596,0.121162,0.392826
0.064453,-0.556634,0.246002,0.922205,-0.259002,0.287150
0.664060,-0.004977,0.607840,0.874288,0.044956,-0.483320
0.559539,-0.804641,0.553701,-0.078795,0.890948,0.447217
-0.523451,0.197697,0.373933,-0.225178,-0.282143,0.932572
0.096683,0.152246,-0.359148,0.126161,-0.206959,0.970181
0.330974,0.815674,0.573953,-0.766752,0.577093,0.281166
0.091208,-0.018049,-0.505096,-0.488909,-0.777397,0.395755
-0.721913,0.288961,0.553679,0.312530,-0.726263,0.612264
0.073285,0.048989,0.936831,0.909483,0.346593,-0.229593
-0.676499,-0.095401,0.629597,0.511412,0.845713,-0.152409
-0.704992,-0.024045,0.356227,0.555963,0.757506,-0.342183
-0.245614,-0.297715,-0.295913,0.851781,0.513255,-0.105064
0.842609,-0.373148,0.202377,-0.398482,-0.019411,-0.916971
0.205554,-0.303472,0.510939,0.804299,0.186657,-0.564147
0.088838,0.135696,0.878487,0.569579,0.672208,0.472986
-0.436352,-0.415723,0.632850,-0.621256,0.362665,0.694633
0.277093,-0.074055,0.249853,0.230110,0.906157,0.354864
0.355982,0.518378,0.711800,-0.823673,0.273706,0.496636
0.825438,-0.348323,-0.017364,-0.299650,0.859817,0.413430
-0.223591,-0.335852,0.600779,0.766035,-0.356776,0.534697
0.224958,0.439226,0.694315,-0.718358,-0.464774,0.517636
0.635065,-0.520777,0.244785,0.761894,0.532072,0.369345
-0.612790,0.115069,-0.966069,0.024384,0.114719,0.993099
-0.239266,0.175272,0.507022,0.776245,0.531269,0.339407
-0.116086,-0.206572,-0.205830,0.960924,0.214806,0.174595
0.176689,0.042633,0.399719,0.900795,0.301758,0.312267
0.915893,-0.099238,0.258264,-0.662929,-0.713444,0.226986
0.077895,-0.131858,0.535817,-0.161307,-0.592484,-0.789268
-0.104270,0.590813,-0.995728,0.013188,0.118718,0.992840
0.791590,-0.128980,0.631124,-0.532190,-0.103577,0.840265
-0.520717,-0.570307,0.085424,-0.811993,0.547723,0.201661
-0.941646,0.201895,-0.249145,0.684558,0.563419,0.462536
0.618266,-0.301673,0.682938,0.066268,0.580514,0.811549
-0.241878,-0.499910,0.118292,0.984976,0.148998,0.087307
0.245121,-0.144571,0.734974,0.313602,0.654350,0.688098
-0.050889,0.275529,-0.170970,-0.351333,-0.043219,0.935252
-0.163619,0.122383,0.428957,-0.650297,-0.576859,-0.494315
-0.362323,-0.061462,-0.881697,0.998023,0.060136,-0.018263
0.478539,0.666847,0.281482,0.421004,-0.848453,0.320754
0.624987,-0.359237,0.681832,-0.153908,-0.503862,0.849962
-0.086347,0.262696,-0.030467,0.986221,-0.152064,0.065149
-0.695530,0.267974,-0.969212,-0.232452,0.292738,0.927508
-0.290907,0.450021,0.646573,-0.660478,-0.149817,-0.735746
-0.024135,-0.294238,0.858169,-0.072828,0.976788,0.201450
-0.705236,-0.103315,0.303306,0.130285,0.989287,0.065855
-0.621000,0.159081,0.555494,-0.662827,-0.407095,-0.628437
-0.060595,-0.254302,0.818284,-0.106980,0.413732,0.904091
0.209655,-0.433951,0.580726,0.880052,0.471920,0.052921
0.320274,-0.233075,-0.153617,0.034616,0.960072,-0.277603
0.320395,0.860167,0.603656,0.265411,-0.963098,0.044720
-0.451533,-0.522576,0.243036,0.929883,-0.327873,-0.166786
0.246860,0.636984,0.593475,0.925738,0.240898,0.291509
0.677995,-0.319543,0.208707,0.260629,-0.890035,0.374046
0.525942,-0.256941,0.466828,-0.347783,0.890571,0.293138
0.207544,-0.180668,0.674107,0.228480,-0.034573,0.972935
-0.657331,0.155604,-0.406182,0.873314,0.487087,0.008321
0.836761,-0.090123,0.328117,0.029546,0.996525,-0.077878
-0.275475,-0.314265,0.902104,0.118781,0.980742,0.155037
-0.404502,-0.145290,-0.147265,-0.533213,0.836728,-0.124780
0.457639,-0.101998,0.496730,-0.498689,0.621825,0.603857
-0.730995,0.180307,0.376080,-0.296385,0.701959,-0.647618
0.235165,0.678838,0.594715,0.082593,-0.068710,0.994212
-0.054998,-0.633628,0.453459,0.714484,0.653554,0.249760
-0.799800,0.113389,-0.965317,-0.088613,0.157526,0.983531
-0.436603,0.325058,0.647724,0.488041,-0.541998,-0.684145
0.199707,-0.667086,-0.115503,0.854743,0.235560,-0.462521
-0.241635,-0.019489,0.516650,0.036086,0.874012,-0.484563
0.076026,0.171914,0.673753,-0.543285,0.508909,0.667722
0.208539,-0.373029,0.557707,0.344315,0.771047,0.535663
-0.190123,0.134856,0.445889,0.714419,0.474638,0.514124
0.938661,-0.412005,0.130576,0.086304,0.973254,0.212903
0.731246,-0.066979,0.640132,0.045642,-0.077419,0.995953
0.236159,-0.281886,0.723775,0.293687,0.465664,0.834809
-0.164735,-0.244589,-0.531811,-0.432404,0.769257,-0.470394
-0.356103,0.261018,0.249610,-0.458819,0.847043,-0.268334
-0.070171,0.069976,0.595489,-0.700454,0.059051,-0.711250
-0.648871,-0.575464,0.609832,-0.180856,0.665817,0.723864
0.294764,-0.259580,0.672713,-0.748693,0.379433,0.543590
-0.486869,0.037477,0.678158,0.112202,0.674002,0.730159
-0.208661,-0.490676,0.743916,-0.614084,0.515676,0.597477
0.782758,-0.325058,0.117230,-0.478025,-0.855279,0.199974
-0.454275,-0.364035,0.458837,0.741030,-0.279384,0.610589
0.261540,-0.056186,0.353615,0.480702,-0.840482,-0.250033
-0.057360,-0.607123,0.256781,0.907674,-0.356925,0.220753
-0.378127,0.149246,0.500028,-0.389879,0.101623,-0.915242
0.030734,0.157882,0.542701,0.490346,0.129305,-0.861882
-0.844469,-0.395934,0.467425,0.327969,0.761574,0.558965
-0.461490,-0.171674,0.217583,0.443664,-0.829849,0.338397
-0.479032,0.184265,0.774726,0.465079,0.846166,-0.260200
0.237033,-0.591053,0.585839,0.591166,0.806120,-0.026310
-0.010951,0.026924,0.486548,-0.650418,-0.551188,-0.522636
0.237033,-0.289800,0.237282,0.424336,0.899113,-0.107399
-0.068432,-0.408887,0.784951,0.971055,0.018751,0.238120
-0.245242,-0.194220,0.606976,-0.034688,-0.246565,0.968505
-0.461368,0.141692,0.738272,-0.075293,-0.981816,0.174264
0.651491,-0.512143,0.248415,-0.692174,-0.642936,-0.327917
0.125048,-0.560113,0.396465,0.366882,0.913955,0.173447
0.263287,-0.541285,0.397196,0.353779,0.837837,0.415776
-0.339555,-0.772740,0.686967,0.545287,-0.115816,-0.830210
-0.496454,-0.379026,0.527849,-0.550565,0.819252,-0.160326
-0.299739,-0.264976,0.465079,-0.278994,0.936334,0.213168
-0.384347,-0.413804,0.493166,-0.335520,0.920327,0.201058
-0.257560,-0.317863,-0.597525,0.017500,0.938711,0.344260
0.330473,0.895784,0.005810,0.250913,-0.335215,0.908115
-0.638543,-0.073334,0.281283,0.371890,-0.610309,0.699443
-0.631078,-0.245187,-0.394739,-0.034498,0.471177,0.881364
-0.031972,0.158722,0.409015,0.755120,0.562851,0.336142
0.088967,-0.261139,0.720919,0.219848,-0.943738,0.247035
0.875705,-0.107155,0.652107,0.968233,-0.219076,-0.120542
-0.261418,0.361157,0.349653,0.819978,-0.438062,0.368425
-0.054869,-0.005457,0.816624,0.693129,0.017107,0.720610
0.676499,-0.304312,0.671274,-0.453668,0.784121,-0.423485
0.433998,0.332493,0.401490,-0.108326,-0.829187,0.548375
0.319651,0.561912,0.395248,-0.441249,0.789782,-0.426081
0.039445,0.121305,0.236618,-0.547869,-0.008903,-0.836517
0.250596,0.481322,0.698078,-0.666010,0.295367,0.684974
-0.121934,-0.082570,-0.223581,0.861136,0.507622,-0.027659
-0.624364,-0.408167,0.653457,-0.635397,-0.053642,-0.770320
-0.271617,-0.379745,-0.350583,-0.430280,0.881426,-0.194800
-0.520717,-0.217486,-0.267781,-0.258318,0.783421,0.565264
0.338811,0.395455,0.143347,0.613828,-0.555202,0.561218
0.095438,0.209930,0.614834,-0.561553,0.735024,0.379998
0.015181,-0.066858,0.916756,-0.594774,0.530323,-0.604154
0.092825,0.156204,0.115614,-0.624455,0.777167,-0.077895
0.363326,-0.860287,0.578092,0.967238,0.003982,0.253841
-0.357349,-0.276129,0.413840,-0.482491,-0.802122,0.351855
0.188756,-0.062302,0.812950,0.059182,-0.976756,0.206023
0.469084,-0.226001,0.722579,0.208994,0.469996,-0.857570
-0.240389,0.015650,0.532630,-0.278082,-0.959592,0.043049
-0.126787,-0.291239,0.684488,-0.528721,0.345669,-0.775221
0.397045,0.308389,0.457487,0.338171,-0.452497,-0.825159
-0.205547,-0.208971,-0.332079,0.766038,-0.631253,0.121268
-0.043918,0.070216,0.430883,-0.140978,-0.810030,-0.569190
-0.180417,0.313546,0.075110,0.880626,-0.438035,0.180618
-0.026124,-0.924567,0.511935,0.041168,-0.215425,0.975652
0.072541,0.193141,0.453127,0.683449,0.628041,0.372104
-0.301979,-0.423398,0.618043,0.122202,-0.894136,0.430798
0.500934,-0.043953,0.600359,-0.862198,0.242815,0.444584
0.195226,0.836061,0.178296,-0.578878,0.177541,0.795852
0.375264,-0.537447,0.416585,0.814137,-0.040901,-0.579231
-0.578950,0.002818,0.684466,-0.136922,0.965960,0.219486
-0.802784,-0.106194,0.405451,0.396017,0.527044,0.751928
0.443825,-0.125503,0.236573,0.440492,-0.733426,0.517739
-0.217743,-0.615638,-0.036576,0.935151,-0.292072,-0.200465
0.314297,0.631469,0.713128,0.473314,0.205094,-0.856685
-0.299610,-0.779937,0.692434,0.991318,0.050065,-0.121584
0.045171,0.316543,0.347130,-0.051591,-0.756125,0.652390
0.357850,-0.794686,0.672646,0.338496,-0.814996,-0.470321
0.557550,-0.049710,0.661867,-0.300064,-0.889234,0.345289
0.483893,-0.367992,0.450183,-0.593653,0.799084,0.095082
0.653982,-0.520058,0.417846,0.877734,-0.236327,0.416813
-0.067316,0.070337,0.888359,-0.524723,0.765362,-0.372675
-0.614036,-0.429634,0.617401,0.295461,-0.434575,0.850792
-0.051261,-0.476884,0.329844,-0.656116,0.095349,-0.748612
-0.115463,0.005336,0.662354,0.202239,-0.951490,0.231876
-0.473557,-0.240751,-0.051051,-0.057323,0.890862,0.450642
-0.261167,-0.343648,0.486969,-0.670422,0.741177,0.034515
-0.495580,0.114829,0.767400,0.940488,-0.188475,-0.282771
-0.638421,0.109431,0.567136,0.286628,0.215547,0.933479
0.242508,-0.056665,0.803676,0.802351,-0.566510,-0.187880
-0.024264,-0.286801,0.188986,0.525409,0.840433,-0.132729
-0.518849,0.226720,0.763903,0.660831,0.728503,-0.180516
-0.527932,-0.112670,-0.953542,-0.255763,0.430353,0.865668
0.409362,-0.072135,0.552683,-0.323324,0.935235,-0.144214
-0.205426,-0.503508,0.316984,0.822134,0.569079,0.015640
-0.200945,-0.045272,0.336594,-0.051554,0.031597,0.998170
0.463107,0.830425,0.161541,0.150817,-0.301953,0.941318
0.482146,-0.877196,0.567999,0.737533,0.430730,0.520112
0.460495,-0.787133,0.663771,0.865765,0.449728,0.219535
-0.596614,-0.481082,0.534733,-0.146732,0.888243,0.435310
0.201074,0.546800,0.539580,0.996889,0.034959,0.070648
0.882547,-0.541164,0.243390,0.156105,0.064237,0.985650
0.427026,-0.005096,0.646064,0.968863,-0.213673,0.125090
-0.710711,-0.144331,0.638893,-0.140981,0.065390,0.987850
0.272369,-0.068538,0.612134,0.056789,0.982581,-0.176943
0.404130,-0.672003,0.490223,-0.665230,0.721994,-0.190247
-0.050145,-0.233315,0.739976,-0.377167,0.887288,-0.265452
0.052636,-0.238832,-0.177676,-0.285160,0.724170,-0.627902
-0.382729,-0.186783,-0.831100,-0.727342,0.680365,0.089872
0.298000,0.456018,0.693452,0.913630,-0.342981,-0.218277
-0.068933,-0.040355,0.796594,0.772761,0.625198,0.109397
0.569617,-0.267734,0.522604,0.799147,0.592508,-0.101482
0.226705,-0.195300,0.828289,0.534012,-0.520240,-0.666469
-0.176187,0.563711,0.408550,0.737655,-0.504707,-0.448482
-0.297377,-0.008215,0.847036,0.573473,0.777020,-0.259554
0.087471,-0.171553,0.228472,-0.295824,-0.552851,0.779002
-0.087592,0.109792,0.047797,0.950023,-0.206505,0.234118
0.309574,0.011693,0.820852,-0.668159,0.721766,0.180606
-0.127409,-0.103315,0.923839,-0.150861,0.931169,0.331912
-0.181032,0.276849,0.180000,-0.753719,0.593292,0.282686
-0.160384,-0.062422,0.923485,0.005869,-0.203307,-0.979097
-0.110360,-0.015531,0.880125,-0.053169,0.182849,0.981702
0.155531,-0.444744,0.480860,0.916751,0.137369,-0.375096
0.017049,0.220483,0.726873,0.516685,0.855836,0.024114
0.425781,-0.411165,0.753920,-0.324933,0.921964,0.210715
0.703253,-0.308029,0.215392,-0.321763,0.932301,0.165179
0.066443,-0.294117,0.307024,0.817013,-0.141790,-0.558915
0.021401,-0.653536,-0.372251,0.352844,0.293374,0.888500
0.276971,0.245787,0.447439,-0.558973,0.494686,-0.665458
0.460624,-0.342447,0.423402,-0.435390,0.894664,0.100060
-0.137988,-0.012054,0.771273,0.185002,0.946776,-0.263419
-0.808761,-0.054746,-0.957902,-0.070820,0.182311,0.980687
-0.542490,0.106434,-0.377962,0.544063,0.631582,0.552359
-0.588033,-0.450382,0.546995,-0.184555,0.957856,0.220117
0.048156,0.604724,0.558438,0.007460,0.903369,0.428799
-0.546226,-0.368592,0.448213,0.433963,0.644481,0.629539
0.077143,-0.319543,0.608681,-0.010388,0.192386,0.981264
-0.135246,-0.453979,0.750113,-0.484133,0.465307,-0.741016
0.144208,0.208611,0.682695,0.915801,-0.349333,0.198181
0.085360,0.404570,0.699605,0.890439,-0.136811,0.434051
-0.286297,-0.665408,0.687852,0.153516,0.454490,0.877424
0.212146,-0.245787,0.734930,-0.838446,0.122640,0.531007
0.087349,0.054146,0.156605,0.473783,-0.874319,-0.105339
-0.624235,-0.437548,0.649473,-0.683400,0.561690,-0.466336
-0.600100,-0.189063,0.432034,-0.153482,0.980593,0.121982
-0.400150,-0.016010,0.637366,-0.173102,-0.920123,0.351295
-0.523079,-0.256341,0.617379,0.416818,0.777544,0.470838
-0.815604,-0.135456,0.629442,-0.525298,-0.421305,0.739300
0.094192,-0.173712,0.658060,0.716459,0.696020,-0.047354
-0.528676,-0.037956,0.669149,0.251953,0.891814,-0.375750
-0.082869,-0.185706,0.146623,0.967851,0.143498,0.206575
-0.333085,0.318942,0.478514,0.849013,0.416215,0.325487
0.054125,-0.182467,0.741371,0.206578,-0.502987,0.839243
0.736349,0.230557,0.391596,0.654476,0.692081,-0.304443
-0.471939,-0.578582,0.586392,0.848974,-0.171541,0.499817
-0.088838,0.462134,0.098151,0.961474,-0.178719,0.208869
0.163748,-0.240391,0.836965,0.217157,-0.626225,-0.748789
0.345031,0.138814,0.334890,0.049693,0.847596,0.528311
0.320897,-0.423637,0.761025,0.336746,-0.935502,-0.106949
0.073786,-0.360917,0.535618,0.837668,-0.163221,-0.521220
-0.058727,-0.324099,0.867841,0.476735,-0.878948,0.013204
-0.396414,-0.403250,0.625458,0.405948,-0.372527,0.834523
0.315292,-0.748755,0.653280,-0.086134,0.832350,0.547516
-0.317281,-0.300833,0.615918,0.315354,0.622761,0.716045
0.764965,0.170115,0.338808,-0.356114,0.925806,0.126752
-0.388949,0.160521,0.232877,-0.662790,0.254278,-0.704310
0.359088,-0.013611,0.675037,0.586281,0.252114,-0.769879
0.303475,0.294837,0.400892,-0.292105,-0.898631,0.327319
-0.033969,0.549918,0.298259,0.709910,0.440693,-0.549380
-0.843474,0.244589,0.183630,-0.617474,0.780756,0.095635
-0.083864,-0.117468,0.682584,0.716512,0.354724,-0.600651
0.136872,-0.212569,0.488009,0.900597,-0.023882,-0.433998
0.053130,-0.510224,0.601266,0.033462,0.990773,0.131335
-0.433117,0.248906,0.544029,0.508000,0.078253,0.857795
0.600229,-0.602206,0.535707,-0.824006,0.427446,-0.371892
0.701757,-0.536847,0.442791,-0.481118,0.132418,0.866597
0.766461,0.174192,0.288565,-0.574962,0.138905,-0.806303
-0.246359,-0.044912,0.172895,-0.101676,0.782047,0.614870
-0.061962,-0.523536,0.453857,-0.871208,0.382773,-0.307378
0.044047,-0.224081,0.740773,-0.403762,0.072800,-0.911963
0.371656,0.769022,-0.129713,-0.612480,0.731490,-0.299653
-0.040561,-0.790370,0.493299,-0.032144,-0.912539,0.407724
-0.075776,0.512982,0.350561,-0.119652,0.966592,-0.226680
-0.232423,-0.757870,0.394053,0.972789,-0.005116,-0.231637
-0.247232,-0.198297,-0.417603,0.902019,-0.324208,-0.285045
-0.089461,-0.274331,0.877735,0.837579,-0.040392,0.544821
0.296503,0.001978,0.321942,0.755174,0.654660,0.033661
-0.274108,-0.526054,0.708702,0.635328,-0.750211,0.183144
-0.877193,0.289800,0.198460,-0.598807,0.749540,0.282171
0.389199,0.005217,0.526101,0.688858,-0.104457,-0.717331
0.551952,0.372069,0.097265,0.566297,-0.823712,0.028382
-0.037577,-0.218205,0.914189,0.896447,-0.350211,0.271542
0.829539,-0.524495,0.451423,0.948588,-0.315444,-0.025997
-0.013564,0.231276,0.851927,0.683026,-0.728643,-0.050547
-0.267137,0.271811,0.675325,-0.358768,0.142927,0.922419
-0.009333,0.401091,0.348812,0.479616,0.485209,-0.731122
-0.243997,0.219164,0.675789,0.728593,0.433464,0.530341
0.738210,0.198656,0.561359,0.844123,-0.288002,-0.452228
-0.022517,0.558193,-0.988092,0.001540,0.180157,0.983637
0.902831,-0.065059,0.663372,0.652406,0.757697,0.016189
0.054626,-0.253943,0.596950,0.881655,0.046724,0.469576
0.005354,0.229357,0.545822,-0.756203,-0.412529,0.507915
-0.877694,0.136536,-0.249853,0.075557,-0.209229,0.974943
-0.365809,-0.639623,0.746461,-0.721259,-0.650034,0.239250
-0.626726,-0.143370,0.608703,0.419357,0.698890,0.579390
0.657589,-0.052467,0.633692,-0.615402,-0.757177,0.219004
-0.335569,-0.413443,0.706865,0.227992,0.959206,-0.167163
-0.559782,-0.287402,0.632009,0.199890,0.853258,0.481658
-0.262656,-0.046231,0.153750,0.295902,0.544676,0.784710
-0.701879,-0.271932,-0.664789,0.622696,0.739382,-0.256053
-0.871839,0.153924,-0.248149,-0.632191,-0.259669,-0.730005
0.287299,-0.078011,0.692633,-0.423777,0.141905,0.894582
0.720044,-0.131379,0.633603,-0.004086,-0.798759,0.601637
-0.201567,-0.168316,-0.288233,0.845262,0.519188,-0.126396
-0.905064,0.171314,0.210168,0.909313,-0.321306,-0.264409
0.142469,0.325179,0.702172,-0.227371,-0.044975,0.972769
-0.447676,-0.422798,0.508084,0.345345,-0.901173,-0.261961
-0.373525,0.013732,0.645776,0.076242,-0.997080,-0.004244
-0.546842,0.521377,0.558394,-0.040068,-0.976592,0.211337
0.059600,-0.293277,-0.026793,0.207273,-0.090200,0.974116
0.259178,0.291239,0.733690,-0.548975,0.586686,-0.595336
0.606571,-0.013972,0.178805,-0.254436,0.967050,-0.008706
0.205927,-0.114469,0.595578,0.339698,-0.845367,0.412262
-0.230806,-0.236433,-0.551200,0.239048,0.641935,0.728544
0.679856,0.212209,0.375771,0.312732,0.795977,-0.518285
0.284687,-0.562991,0.476987,0.018805,-0.984748,0.172970
-0.625982,-0.041554,-0.694204,-0.356839,-0.916013,0.183264
-0.025380,0.050669,0.952878,-0.707751,0.704295,0.055289
0.340923,-0.389937,0.741880,-0.103289,0.850084,0.516419
0.039073,0.180428,0.868107,0.648423,0.595995,0.473643
-0.198332,-0.711940,0.397594,0.953378,-0.134335,-0.270231
-0.329599,-0.723812,0.659831,-0.190753,-0.473067,-0.860129
-0.140601,-0.555915,0.698033,0.671612,-0.725962,-0.148042
-0.478782,-0.324699,-0.208220,0.731199,-0.607904,-0.309517
-0.513875,-0.204534,0.473733,-0.029058,0.496850,0.867350
0.074660,0.899021,0.010414,0.775129,-0.032523,-0.630965
-0.340300,-0.463813,0.616627,-0.519435,-0.161285,0.839151
0.288788,0.343767,0.681832,-0.491592,-0.314085,-0.812212
0.226082,0.303712,0.670389,0.467600,-0.807375,0.359856
0.160133,-0.620916,0.547548,-0.512603,-0.856577,-0.059272
0.296876,0.654495,0.373292,0.736635,-0.402979,-0.543117
-0.704863,0.219764,0.560873,0.921262,-0.007304,-0.388873
-0.174441,0.298315,0.177433,-0.774611,0.550888,0.310645
-0.117081,0.047190,0.642523,-0.357380,0.923108,-0.141955
-0.576209,-0.227199,0.606534,-0.642394,-0.630460,-0.435718
0.041685,0.567908,0.547194,0.530045,0.790594,0.306618
0.125549,-0.212688,0.710738,0.834180,-0.539150,0.116019
0.252836,-0.574264,0.564923,0.862914,0.454981,-0.219937
0.012690,0.278287,0.602107,-0.655933,0.269732,-0.704980
-0.222095,-0.182827,0.629287,0.574900,0.814907,0.073598
0.445192,-0.069976,0.170129,-0.126532,0.930165,-0.344647
0.758122,-0.636625,0.235644,0.223961,0.950771,-0.214187
0.123680,-0.152606,0.574595,-0.490735,0.851103,-0.186553
0.317783,0.857649,0.362358,-0.525491,0.542204,0.655648
0.039939,-0.094921,0.851374,0.925752,0.243901,-0.288955
-0.649372,-0.157882,0.632253,-0.353605,-0.918994,0.174393
0.281323,-0.125262,-0.120771,0.091317,0.987573,-0.127913
0.258555,0.200934,0.408019,0.716010,-0.519992,0.465766
-0.458004,0.378544,0.498301,0.839136,-0.195292,0.507653
-0.011566,-0.293878,-0.419241,0.129835,0.988294,0.080114
-0.015181,0.234874,-0.150563,0.100061,-0.026346,0.994632
-0.056365,-0.051388,0.685904,0.765267,-0.106882,-0.634778
0.621501,-0.061103,0.537743,0.237907,-0.940874,-0.241155
0.241134,-0.059423,-0.397727,0.142469,-0.266038,0.953376
0.211273,0.188223,0.417558,0.819539,-0.525318,-0.228903
-0.047654,-0.975056,0.507597,-0.317737,0.567808,-0.759366
-0.401396,-0.326498,0.425327,-0.084433,0.995500,-0.043011
0.141967,0.390177,0.722668,-0.526776,-0.849445,-0.030828
-0.904563,-0.083168,0.470037,0.982148,-0.088506,-0.165989
-0.168844,-0.163760,0.453503,-0.654022,0.573530,0.493273
0.259428,-0.178509,0.243922,0.994675,0.072303,-0.073437
0.361085,0.554835,0.711579,-0.170815,-0.344540,0.923101
0.580446,0.021406,0.592036,0.242414,-0.879615,-0.409283
0.127409,0.014930,0.434623,0.938719,-0.317455,0.134272
-0.496575,-0.160521,0.247839,0.786101,-0.171189,0.593919
0.092947,0.091922,0.131130,0.348087,-0.910484,0.223281
0.735848,0.081129,0.283297,-0.531406,0.234471,-0.814021
-0.036703,-0.360796,0.841104,-0.491496,0.761371,-0.422784
0.301357,-0.444504,0.436128,-0.074404,-0.585899,0.806962
0.638300,-0.381304,0.675479,0.266413,0.943551,-0.196811
-0.875948,0.131858,0.558659,-0.391012,-0.861744,-0.323277
0.276098,0.007016,0.517225,-0.545860,0.136393,-0.826700
0.494965,0.162320,0.313022,0.705023,0.308918,-0.638367
-0.140722,0.087245,0.829617,-0.480527,0.349089,-0.804507
-0.147693,-0.208132,0.845287,0.865933,-0.446867,0.224654
0.302853,0.421478,0.449187,0.505477,-0.017589,0.862661
-0.444942,0.519458,0.558504,0.752111,0.643201,-0.143602
-0.024264,-0.322540,0.738980,0.296908,-0.884975,-0.358700
0.784254,-0.486958,0.463131,0.243451,0.894097,-0.375929
0.001747,0.120466,0.535729,0.604707,0.075424,-0.792868
0.061347,-0.226839,-0.040980,-0.364509,-0.655014,-0.661883
0.056365,-0.086407,0.057425,0.288356,0.942410,-0.169454
-0.001868,-0.037597,0.797944,0.485081,0.338840,0.806154
0.591769,0.547400,0.232943,0.850103,0.524573,0.046356
0.477293,-0.793248,0.524928,0.922841,-0.382600,-0.044507
-0.063830,0.164237,0.599982,-0.191569,-0.532654,0.824367
0.021902,-0.150687,0.886920,0.746339,-0.248260,0.617531
0.341424,-0.357438,0.348259,0.607613,0.553022,-0.570065
-0.378621,-0.412724,0.713106,0.329053,-0.632703,-0.701007
-0.382607,0.285722,0.648344,-0.326912,0.557331,0.763224
0.656594,-0.200815,0.474729,0.899656,-0.305649,-0.311764
-0.105636,-0.108833,0.755248,0.308611,0.757912,0.574743
0.652114,-0.033639,0.628202,0.984573,-0.164257,-0.060295
0.094443,-0.270493,0.582408,0.815422,0.247787,0.523153
-0.370290,0.091082,-0.462025,0.177728,0.849201,-0.497262
0.341545,-0.090605,0.621496,0.343968,0.821851,-0.454145
0.047783,0.071175,0.678733,0.543408,0.241342,0.804028
-0.024013,-0.462494,0.762088,-0.215083,-0.344843,0.913686
0.421300,-0.332015,0.231261,-0.522910,-0.593113,-0.612194
0.551824,0.079331,0.547814,0.231227,0.682299,0.693543
0.286054,-0.530131,-0.032082,-0.626254,-0.342323,0.700443
-0.643395,-0.051029,0.501356,0.156341,-0.607640,0.778673
-0.122807,-0.320741,0.889598,0.886662,0.061807,0.458270
0.190123,-0.234155,0.104702,0.056438,0.995314,0.078510
-0.053874,-0.231036,0.739357,-0.407051,0.862573,-0.300462
-0.439967,-0.017090,0.666582,-0.460595,0.820847,-0.337729
0.260423,0.798645,0.359237,0.473906,-0.650391,-0.593637
0.372902,-0.050189,0.332234,0.435537,-0.428260,0.791771
-0.852808,0.116507,0.454057,0.986807,0.107035,0.121475
-0.126787,-0.511183,0.736369,-0.110206,0.987780,0.110210
-0.801789,-0.223122,0.281814,0.374418,-0.679511,0.630933
0.428021,0.417280,0.169243,-0.555635,0.823680,0.113228
0.109244,0.302392,0.677383,0.832780,0.250484,-0.493696
0.356605,-0.203454,0.714036,-0.119981,-0.927357,0.354421
0.119944,-0.868323,-0.372495,0.905466,0.164419,-0.391278
0.212640,0.773699,0.605073,-0.717380,0.445984,-0.535223
-0.119200,0.602686,-0.179580,-0.158875,-0.253106,0.954304
-0.500683,0.326377,-0.097398,0.933306,0.170844,0.315837
-0.557421,-0.128501,0.618796,-0.175064,0.969805,0.169796
-0.448921,0.041554,0.510054,0.725258,0.684140,-0.077156
-0.726887,0.207531,0.543719,0.856465,-0.283337,-0.431494
0.227198,-0.671163,0.603878,0.926616,-0.074401,0.368574
-0.305336,-0.120466,-0.361030,0.494123,-0.699998,-0.515602
0.481280,0.765425,-0.561647,-0.595714,0.721487,0.352960
-0.511384,0.212807,0.782118,0.604888,0.779793,-0.161347
0.168221,-0.261858,0.100121,-0.274441,0.887138,-0.371038
0.459378,-0.122025,0.591727,0.554010,-0.747019,-0.367472
0.002613,-0.453979,0.739998,-0.305368,-0.836029,0.455856
-0.342168,-0.612881,0.757285,0.839935,0.513413,-0.175831
-0.511756,0.393535,-0.970408,0.148577,0.596427,0.788796
-0.329599,0.425555,0.517070,0.610672,-0.351196,0.709747
-0.106753,-0.021527,-0.700512,-0.699007,0.668510,0.253936
-0.342540,0.418721,0.478359,0.874946,0.371891,0.310108
-0.324868,-0.059784,0.647680,0.453230,0.837856,0.304268
-0.609677,-0.042994,0.369485,-0.269904,-0.939562,0.210653
-0.115836,0.382863,-0.587145,0.998124,-0.006145,0.060912
0.780145,-0.058704,0.513197,0.019736,-0.974959,0.221508
0.890134,-0.323740,0.526212,0.002976,0.940823,0.338886
0.655972,0.042873,0.565277,-0.463500,0.882705,0.077459
-0.244248,-0.754631,0.385067,0.900174,0.423903,-0.099968
-0.547844,0.303952,0.551997,0.232823,-0.450594,0.861834
0.341796,-0.831984,0.514591,0.658539,0.201876,-0.724964
0.222102,0.139773,0.433096,-0.648920,0.751646,-0.118034
-0.552818,-0.561912,0.608548,0.382100,-0.869025,0.314318
-0.324868,-0.357438,0.036266,0.393256,-0.919104,-0.024467
-0.157399,-0.307670,0.774350,0.995207,0.021349,0.095429
-0.104270,-0.160041,0.766160,0.658989,0.499174,0.562635
0.569989,0.791689,0.213842,0.979364,0.086528,-0.182646
0.247483,0.140613,-0.193701,-0.399589,0.157473,-0.903067
-0.390938,-0.218805,-0.928907,-0.193455,0.887677,-0.417858
-0.074029,-0.110752,0.828399,0.877881,0.293497,0.378398
-0.417192,0.422558,0.361008,0.205942,-0.837034,0.506913
-0.167348,0.157042,0.701663,0.199448,-0.879193,-0.432712
0.262041,-0.198898,0.671761,0.613622,0.626935,0.480021
0.319401,-0.138334,0.242372,-0.620591,0.628384,-0.469042
0.198462,0.557353,0.594582,0.555949,-0.740727,0.377152
-0.149061,0.065420,0.057093,0.798416,-0.140646,0.585450
-0.792456,0.188342,-0.964542,-0.122136,0.253002,0.959725
0.174570,0.591413,0.580970,0.299376,-0.933502,0.197354
0.010078,-0.888589,0.522316,0.791081,0.405994,-0.457559
0.139978,-0.861607,0.502086,-0.090267,-0.874116,-0.477256
0.277715,0.471128,0.677095,0.105810,0.536679,-0.837126
-0.359339,0.072975,0.576897,0.339076,0.787586,0.514525
-0.213384,-0.224921,0.867310,-0.847918,-0.057228,-0.527029
-0.660194,-0.592253,0.612598,0.279692,-0.618778,-0.734088
0.077766,-0.362476,0.449364,0.210190,0.944556,-0.252258
0.430011,-0.194579,0.726918,0.107542,0.720619,-0.684940
0.002369,-0.647299,0.292305,0.997100,0.036445,-0.066815
-0.802541,-0.282005,-0.128429,-0.386483,-0.899653,-0.203112
-0.208410,-0.760269,0.374642,0.724011,0.585579,0.364563
0.027621,0.420878,0.734996,0.020559,-0.731017,0.682050
0.386093,-0.013853,0.321876,0.331687,-0.521725,0.785994
-0.100533,-0.065420,0.944091,0.470543,-0.838952,0.273402
-0.148688,-0.434791,0.340844,0.408939,0.680206,0.608349
-0.763590,-0.004258,0.640154,0.300895,0.282153,-0.910962
-0.277715,-0.133417,0.671385,0.835635,0.014103,-0.549104
0.702008,-0.072135,0.242992,-0.036425,-0.997331,0.063275
0.293770,-0.160041,0.527208,-0.410268,0.909081,-0.072465
-0.021651,-0.390058,0.878178,0.132079,0.829782,0.542233
0.351129,0.584216,0.265612,0.913413,-0.401476,-0.067037
0.006721,-0.391138,0.311783,0.775397,-0.609333,-0.165747
0.000129,-0.056905,0.798121,0.348375,-0.162310,0.923196
0.050267,0.406848,0.714811,0.861951,-0.420862,0.282694
-0.081623,0.512502,-0.032127,0.969076,-0.170768,0.178127
-0.513746,0.363075,0.547902,0.693241,0.193818,0.694155
-0.341917,0.005697,0.749693,0.983807,0.175106,0.038224
0.399156,-0.674521,0.657087,-0.443341,0.411272,0.796432
0.416828,-0.018649,0.551864,0.113131,-0.989255,-0.092607
0.102280,-0.135696,0.675125,0.835193,0.312509,-0.452537
0.334954,-0.290280,0.421255,-0.132001,-0.808571,0.573401
-0.498565,-0.362355,0.473313,0.433616,0.896832,-0.087577
-0.843474,-0.043234,0.610983,0.810138,0.559460,-0.175159
-0.013935,-0.168316,0.747812,0.823312,-0.413502,0.388811
0.369044,0.033758,0.331459,0.592170,-0.238042,0.769851
-0.806392,-0.466211,0.657308,-0.589862,0.793728,-0.148521
-0.471696,0.037716,-0.958832,-0.152641,0.353073,0.923060
0.547722,-0.442945,0.373314,-0.690702,-0.716460,-0.098063
0.395047,-0.254663,0.708746,0.232940,0.898078,-0.373088
-0.206291,-0.877556,0.425239,0.727870,-0.663147,0.174474
0.052757,0.281044,0.528181,0.975099,-0.145832,0.167080
0.190495,0.048509,0.663837,0.424111,0.711686,0.560030
-0.573718,0.325898,0.180531,0.367349,0.694615,-0.618518
-0.732735,0.038077,-0.962130,-0.051670,0.090928,0.994516
-0.453280,-0.419200,0.510430,0.393646,-0.886681,-0.242568
0.212025,-0.047671,0.269353,-0.054482,0.997483,-0.045373
0.415954,-0.799124,0.672602,-0.360312,-0.734368,-0.575221
-0.629217,-0.004857,0.513485,-0.290463,0.766739,-0.572488
0.329599,0.911974,0.366497,0.757664,-0.651815,0.032911
0.503797,0.628590,0.259415,0.447665,-0.803553,0.392299
-0.110740,-0.334054,0.895995,0.973428,0.224198,0.046615
0.256687,0.411765,0.260832,-0.627909,0.773927,-0.082259
0.084608,0.928404,-0.028364,0.150884,-0.966580,0.207262
0.145826,0.615518,0.683602,0.965642,-0.241238,-0.096646
0.350134,0.042273,0.675723,-0.565876,-0.089801,0.819586
0.143714,0.049829,0.738582,-0.751858,0.238673,-0.614610
0.378499,-0.812197,0.573643,0.902958,0.019469,0.429288
-0.349504,-0.549918,0.679242,0.950538,-0.307898,0.040950
0.173074,-0.172873,0.646308,0.556238,0.551101,-0.622002
-0.178420,0.358278,0.187990,-0.748858,0.533326,0.393414
0.171084,0.384781,0.253594,-0.726971,0.686125,0.027311
-0.266142,-0.728489,-0.060391,0.883055,-0.469268,-0.000923
0.396421,-0.282245,0.222231,0.146681,0.761375,0.631500
0.380246,-0.391257,0.511227,0.367950,-0.835088,0.408950
0.047031,-0.276129,0.867863,-0.003846,0.905326,0.424700
-0.282819,-0.171793,-0.614657,0.575492,-0.807612,0.128735
0.171957,-0.209930,0.717843,-0.334574,0.848826,-0.409333
-0.625731,-0.208971,-0.631832,0.050920,0.849700,0.524802
-0.498192,0.250104,-0.964321,-0.163312,0.317213,-0.934187
-0.224214,-0.415602,0.662177,0.799274,-0.387776,0.459119
-0.431500,-0.364035,0.365080,-0.781186,0.603476,-0.159891
0.338310,0.230676,0.013026,0.318623,0.693621,-0.646041
-0.491973,0.350122,0.535508,0.650854,0.242101,0.719566
-0.696031,0.231756,0.196445,-0.337461,0.927233,0.162358
-0.585413,-0.519339,0.573754,0.047185,0.960441,0.274456
-0.648749,0.056305,0.654253,0.892462,0.387794,-0.230495
-0.669155,-0.420759,0.448302,0.524929,0.813484,0.250387
-0.576831,-0.109433,0.604962,-0.342702,0.939165,-0.022880
0.035708,0.599807,0.550094,0.158227,0.868899,0.469019
-0.447432,0.172033,0.763017,0.615995,0.675596,-0.405118
-0.059349,-0.654853,-0.850555,0.952477,0.300901,-0.047393
0.592514,0.752232,-0.098328,0.225663,0.973743,-0.030011
0.110239,0.885471,0.314594,0.995653,0.091728,-0.016190
-0.521211,0.184505,0.517668,0.229449,0.824349,-0.517495
-0.082990,-0.022007,0.255320,-0.236717,0.179659,0.954823
0.068561,0.101637,0.472804,-0.644064,-0.312410,-0.698271
0.499317,-0.903700,0.605316,0.963281,-0.060112,0.261679
-0.403758,-0.299635,0.623090,-0.386321,-0.415066,-0.823697
0.541996,-0.516940,0.398590,-0.279008,0.952183,0.124509
-0.486498,0.522215,0.524817,-0.164524,-0.860458,0.482228
-0.808009,-0.458415,0.488098,0.416601,0.908869,-0.020026
0.720044,-0.140373,0.195494,0.428886,-0.345724,-0.834585
-0.691300,0.247107,-0.967243,-0.115768,0.288791,0.950367
-0.633075,-0.298434,-0.035402,0.432122,-0.600199,-0.673076
-0.483012,0.528333,0.548190,-0.002207,-0.969868,0.243621
-0.106381,-0.200815,0.504454,0.156728,-0.977212,-0.143153
-0.252829,-0.591653,0.621341,-0.272031,0.569129,0.775945
0.426533,-0.318942,0.732119,0.025842,0.324529,0.945522
0.014558,-0.026684,0.739689,-0.380769,-0.417412,-0.825095
-0.500805,0.559273,-0.979084,0.091228,0.229700,0.968976
0.368923,0.205372,-0.685749,-0.212581,0.420837,0.881876
0.461991,-0.960305,0.549607,0.708626,-0.625973,-0.325587
0.284064,0.393656,0.454566,0.517460,-0.058289,0.853720
-0.500061,0.372908,-0.089984,0.907655,0.356416,0.221652
-0.298744,-0.196019,0.755337,0.766302,0.497972,-0.405962
-0.298121,-0.364873,0.445734,-0.313870,-0.874574,-0.369602
-0.714075,0.341488,-0.975188,-0.224568,0.229501,0.947047
0.945633,-0.214847,0.241952,0.648490,0.400382,-0.647422
0.630834,-0.210531,0.657839,-0.193440,0.434452,0.879678
-0.058605,-0.262219,0.755979,0.788522,-0.183161,0.587099
0.082246,-0.215327,0.632341,0.561466,0.827442,0.009843
0.340680,-0.240870,0.732296,-0.098036,-0.766958,0.634164
-0.366804,-0.603526,0.756200,0.963473,0.252191,0.090111
-0.531167,0.180307,0.545246,0.683417,0.337252,0.647458
-0.190616,-0.055467,0.759476,0.695976,0.697769,-0.169518
-0.568865,0.386100,0.550536,0.442641,0.437058,0.782975
0.251713,-0.207292,0.376235,0.798326,0.132906,0.587377
0.225581,0.472326,0.691593,-0.487590,0.311364,-0.815664
0.193236,0.357438,0.706975,-0.152896,-0.984259,-0.088634
0.123931,-0.461054,0.618884,0.202777,-0.417201,-0.885904
0.323129,0.057385,0.307378,0.874350,-0.247559,-0.417404
0.320517,-0.326738,0.531413,0.588143,-0.222931,0.777425
0.833146,0.061462,0.578469,0.969849,0.232222,-0.073932
-0.219483,-0.341128,0.324222,0.640087,0.757248,-0.129861
0.650496,-0.164479,0.611425,0.191797,-0.961134,-0.198586
0.100040,0.056184,0.653368,0.345310,0.796008,-0.497125
0.168350,0.518138,0.685705,-0.451354,0.443149,0.774531
0.199707,-0.132338,0.092440,0.453275,0.888789,-0.067792
0.422424,0.332974,0.444827,0.422545,-0.821192,-0.383535
0.607444,-0.583378,0.503082,0.242069,0.958638,-0.149722
-0.402140,-0.207412,0.600668,-0.423133,0.102022,-0.900305
0.589529,-0.441746,0.403282,-0.072001,0.869069,0.489424
0.751401,0.158003,0.363354,-0.110256,-0.968928,0.221409
0.210407,-0.133657,0.510696,-0.036184,-0.944335,0.326990
-0.674258,-0.468610,0.509014,-0.562773,0.614691,-0.552667
-0.111978,-0.156444,0.959230,0.272373,0.889304,-0.367357
-0.042429,-0.825149,0.486349,-0.627182,0.711503,-0.316868
-0.341917,-0.153805,-0.420856,0.909694,0.414292,-0.028616
0.199084,-0.491395,0.490156,0.852974,0.505382,-0.130477
0.388455,-0.596570,0.597127,0.775077,0.601562,0.193337
0.402892,-0.222403,0.203772,0.156912,-0.741590,0.652245
0.458877,0.378544,0.428736,0.010406,-0.981916,0.189029
-0.297871,0.037356,0.853764,0.799922,0.585317,-0.132397
0.240268,-0.314265,0.218645,-0.603256,-0.539156,0.587702
0.509022,0.252503,0.042795,-0.464363,0.862301,-0.201998
0.416076,-0.749116,0.668352,-0.262769,0.818540,0.510828
0.015303,-0.005578,0.694293,-0.005927,0.756776,0.653647
0.467960,-0.703544,0.210057,-0.392243,0.868980,-0.301695
-0.215754,0.297594,0.502994,0.147368,0.758532,0.634754
0.063336,-0.754992,-0.367913,0.845637,0.219117,-0.486709
-0.537888,0.140252,0.696705,-0.750143,-0.294607,0.592024
0.399778,0.207531,-0.237658,0.140330,0.860574,0.489612
0.218366,-0.625833,0.193900,0.240319,0.796307,-0.555105
0.546599,0.851172,0.277410,0.992254,0.006296,0.124063
0.130774,0.475205,0.379334,-0.387640,0.815684,-0.429412
-0.327982,-0.224202,0.446133,-0.311721,0.945224,0.096859
-0.558294,-0.228039,0.239517,-0.136629,0.866745,-0.479673
-0.132634,0.132578,0.876584,0.872911,0.411455,0.262166
-0.673636,-0.604366,0.609168,-0.160457,0.776308,0.609590
0.126794,0.255980,0.689822,0.988572,0.139949,0.056029
0.463730,0.853809,0.002711,0.087413,0.361741,0.928172
-0.159761,-0.553757,0.440201,0.783805,0.612104,-0.104782
-0.240632,-0.261737,0.892520,0.057752,0.976535,0.207473
-0.196464,-0.012652,0.527385,0.039281,0.997168,-0.064130
-0.084858,-0.160521,-0.013269,0.901837,0.316924,-0.293681
0.323881,0.293277,0.187039,-0.671887,0.740148,-0.027372
-0.751773,0.134256,0.567911,-0.063317,-0.989683,-0.128524
0.408740,0.172633,0.292748,-0.062618,0.879908,-0.471000
-0.711706,0.083647,-0.961908,-0.021730,0.163662,0.986277
0.204309,0.310067,0.685926,0.247918,-0.354315,0.901664
-0.573475,-0.435151,0.252177,-0.114476,0.716897,0.687716
0.116086,-0.398694,0.481657,-0.762366,-0.587516,-0.271337
0.045414,-0.263536,0.770941,-0.575380,0.744652,-0.338277
-0.313925,-0.035438,0.665896,-0.378132,-0.528284,0.760218
-0.248098,-0.048630,0.694315,-0.527566,0.839155,0.132265
0.685460,0.082088,0.507597,-0.180455,0.981410,-0.065341
0.047411,0.460454,0.738073,0.033091,0.960177,-0.277424
-0.847081,-0.203094,0.282722,0.797146,0.533148,0.283393
-0.223591,0.363794,0.649605,0.944822,0.321519,0.062742
-0.076148,-0.330815,0.741481,0.623150,-0.697908,-0.352999
0.753391,-0.278887,0.520523,-0.181357,0.697848,0.692906
-0.491851,0.119025,0.745310,-0.135882,0.990548,-0.018752
0.091701,0.048030,0.157845,0.473783,-0.874319,-0.105339
-0.151673,-0.132938,0.803632,0.862594,-0.419081,-0.283375
-0.233418,-0.290880,0.573865,-0.234951,0.951181,0.200134
0.015060,0.065059,0.956375,-0.630303,0.775160,-0.042952
0.623369,-0.051748,0.527982,0.196655,0.300870,0.933169
0.207043,-0.558074,0.628446,0.332983,0.739556,0.584961
0.412719,0.351442,0.448302,0.233029,-0.874679,-0.425010
0.514004,-0.238832,0.206405,0.280267,0.205370,0.937696
-0.125048,-0.214128,0.859962,0.026845,0.726436,0.686709
-0.330594,0.488876,-0.553635,-0.085259,-0.473068,0.876891
0.419440,-0.354681,0.741990,-0.571480,0.293270,0.766423
-0.030734,-0.219045,0.508726,-0.493336,-0.843142,-0.213847
0.616648,-0.017211,0.317161,-0.690306,-0.579491,-0.433207
0.732119,-0.271932,0.218734,-0.388214,0.820996,0.418636
-0.414952,0.125143,0.757949,0.176854,-0.701773,0.690099
-0.093318,-0.196617,0.870741,0.193758,0.904951,-0.378842
-0.626604,-0.027403,0.329091,0.068684,0.498206,0.864334
-0.017793,-0.012413,0.960315,0.954277,-0.298493,-0.016038
0.293770,-0.134018,0.522648,-0.285812,-0.925291,-0.249293
-0.356103,0.023924,0.668397,-0.318516,-0.689413,0.650583
0.219110,0.226480,0.444628,-0.743183,0.315749,0.589900
-0.016920,0.598488,0.549430,-0.546045,-0.831163,-0.104897
-0.252335,0.317383,-0.977778,0.051879,0.176208,0.982985
0.205053,-0.078611,0.674284,0.774704,-0.042938,0.630865
-0.301106,0.407446,-0.981629,0.181850,0.318077,0.930461
0.118949,-0.045393,-0.164507,0.591583,0.571438,0.568761
0.498200,-0.079091,0.315988,-0.010525,-0.977769,0.209422
-0.235036,-0.823830,0.410852,-0.619672,0.516110,0.591301
0.139856,-0.774420,0.310366,0.651535,0.682748,-0.330691
-0.144208,-0.266535,0.615232,-0.637488,0.635608,0.435444
-0.674380,0.031361,0.550027,0.263039,0.912801,-0.312417
-0.088093,-0.027284,0.888536,0.822486,0.359683,-0.440619
-0.149433,0.286322,0.044920,0.949517,-0.148941,0.276107
0.671274,0.002218,0.599805,0.929534,-0.327301,-0.169825
-0.358837,-0.299274,0.621939,-0.276439,-0.579599,-0.766581
0.683964,0.069857,0.620434,0.901828,-0.277869,-0.330899
0.077393,0.424357,0.553037,0.840720,-0.222911,0.493458
-0.228315,-0.193860,0.807196,0.912733,0.303465,0.273547
0.158273,-0.265095,0.872600,0.777558,-0.385461,0.496813
0.507404,-0.132338,0.538053,-0.058428,-0.918140,0.391924
0.812870,-0.521377,0.472206,-0.029331,-0.917887,0.395756
-0.438972,0.052826,0.116544,0.966958,-0.234121,-0.100891
0.037455,-0.750794,0.480949,0.823782,0.378376,0.422156
-0.746921,0.015170,0.522228,0.508316,-0.786163,0.351514
0.195598,-0.090724,0.731167,-0.057590,-0.312877,-0.948046
-0.585542,0.097919,0.363730,0.383016,-0.277325,0.881130
0.149190,0.267134,0.458417,-0.165082,0.697883,-0.696927
-0.107998,-0.090963,0.925034,-0.390928,0.217844,0.894270
-0.650116,0.349643,0.161120,-0.196822,0.623006,0.757050
-0.244248,0.329495,0.676188,0.140081,0.462362,0.875556
0.430383,-0.989207,0.497659,0.478510,0.813091,-0.331528
0.156898,-0.803682,0.163887,0.191759,-0.960448,0.201909
-0.299739,0.162199,0.378227,0.555213,0.588337,0.587876
0.132391,0.016250,0.670588,-0.612880,-0.460560,-0.642077
0.443453,-0.852971,0.526876,0.831628,-0.458624,-0.313144
0.554315,-0.372669,0.357112,0.460593,0.887288,-0.023951
0.058233,0.257420,0.536592,0.995603,-0.090889,0.022656
-0.000995,-0.297475,0.722801,-0.029620,0.966307,0.255684
0.051884,-0.121305,0.886854,0.769503,0.459959,-0.443061
0.661318,0.007375,0.300627,0.930811,0.245475,0.270801
-0.536270,-0.211250,0.451887,-0.760001,-0.555142,0.337958
0.172208,0.343167,0.687122,0.976895,0.024211,-0.212343
0.596372,-0.315705,0.455097,-0.479127,-0.873772,-0.083423
0.509394,-0.062781,0.657064,-0.399023,0.861850,-0.313041
-0.261289,-0.151885,0.881763,-0.402468,-0.147832,-0.903419
0.010700,-0.660731,0.461095,0.748193,0.636737,0.186478
0.359840,-0.457696,0.210876,-0.225258,-0.941070,-0.252283
-0.252578,-0.371831,0.587344,-0.657394,0.723370,0.211115
0.035215,-0.216525,0.725590,-0.443773,0.870774,-0.211701
-0.020900,0.531690,-0.988336,-0.002195,0.153982,0.988071
-0.780518,0.432152,0.293545,-0.674979,0.281050,-0.682213
0.300240,0.796485,0.205299,0.705451,0.281661,-0.650389
0.088838,0.350003,0.349609,-0.112841,0.579863,-0.806862
0.383352,-0.062422,0.673222,-0.231952,-0.402880,0.885374
0.719923,0.181987,0.279911,-0.691847,0.308091,-0.653014
-0.239394,-0.482281,0.684045,0.891249,0.399565,0.214529
-0.184268,-0.460814,0.705249,0.118464,0.186126,0.975358
0.733114,-0.497632,0.339007,0.216171,0.967974,0.127660
-0.239394,0.023924,0.831454,0.800592,-0.035132,0.598180
0.127288,-0.150807,0.603302,0.484844,-0.869133,0.097645
-0.094807,-0.156923,0.769192,-0.466608,-0.671727,-0.575378
0.095809,-0.247228,0.569505,0.420598,-0.614965,0.667020
-0.283441,-0.214727,0.522803,0.765541,-0.360749,0.532736
0.190624,0.668525,0.601731,0.813581,-0.092745,0.574008
-0.177304,-0.016250,0.917796,0.423746,-0.100493,0.900189
0.374147,0.352400,0.444030,-0.592117,0.732079,0.336834
0.307083,-0.125622,0.491174,-0.203596,0.950337,0.235389
-0.085724,-0.119986,0.647923,-0.514630,-0.319094,0.795823
-0.222718,0.220723,0.437589,0.813773,0.030081,0.580403
-0.103396,-0.022246,-0.373159,0.993912,0.050834,0.097747
0.539255,0.766504,0.256626,0.977556,-0.176675,0.114757
0.489740,0.802482,0.287281,-0.671375,0.134412,-0.728827
-0.787732,0.058104,0.354058,0.915305,0.174685,0.362908
-0.852808,0.186185,0.260013,-0.215888,0.957038,-0.193572
-0.275224,0.420759,0.660030,0.445764,-0.591455,-0.671920
0.054998,0.652454,-0.302487,0.901421,-0.223129,0.371017
0.560534,0.773341,0.216498,0.979364,0.086528,-0.182646
-0.066070,-0.106434,0.928598,-0.502139,-0.438643,0.745285
0.323631,-0.681837,0.567756,0.696651,0.687008,-0.206635
0.285431,-0.549199,0.492480,-0.568044,0.387082,-0.726287
-0.174190,0.100797,0.885814,-0.578561,0.333490,0.744346
-0.108743,-0.763507,0.450626,-0.767480,0.472581,0.433175
-0.002863,-0.271571,0.854118,0.084321,-0.988302,-0.127083
0.434241,-0.111472,0.685594,0.993476,-0.082744,-0.078480
0.691930,-0.384902,0.476079,-0.319061,0.926196,-0.200903
-0.574963,0.147929,0.666073,0.768831,0.352428,-0.533567
-0.912157,-0.105356,0.527916,-0.728236,0.620402,-0.291160
-0.353612,-0.623554,0.685838,0.984060,0.151230,-0.093568
-0.925098,0.228398,0.568398,-0.431714,-0.211209,-0.876934
0.132642,0.436829,0.677073,0.849438,0.124740,-0.512732
0.949362,-0.349284,0.190491,0.425474,0.728945,-0.536294
-0.086347,-0.695508,0.146866,0.886772,0.411285,-0.210902
-0.788978,0.113150,0.571851,-0.108491,0.777546,0.619397
-0.066564,-0.177910,0.619615,-0.240898,0.498944,0.832480
0.229066,-0.039036,0.663306,0.320740,0.253179,0.912703
-0.011566,0.054986,-0.266166,-0.427556,0.786876,0.444997
-0.401396,-0.036518,-0.714257,0.240085,0.967392,0.080698
-0.763096,0.320620,0.592568,0.882421,0.468688,-0.040798
0.248477,0.313786,0.227786,-0.526010,0.844742,-0.098612
-0.353491,0.494032,0.524131,0.586407,-0.693515,0.418526
0.335075,-0.495233,0.451400,-0.737161,0.656748,0.158981
0.617021,0.366553,0.069067,-0.538397,0.842662,-0.007050
-0.302473,0.446903,0.657419,0.367772,-0.219947,-0.903531
-0.351745,0.240030,0.230044,-0.733911,0.382610,-0.561235
0.244619,-0.006895,0.322163,-0.494246,-0.680603,-0.540833
0.226203,0.425197,0.695798,0.993793,-0.100938,0.046758
0.524082,0.048270,0.335886,0.041228,-0.625571,0.779077
0.527066,0.105114,0.359502,0.081173,-0.942447,0.324352
0.034091,0.307189,0.716249,0.972457,-0.224931,-0.061111
-0.157893,-0.027882,0.877868,0.159590,0.724266,0.670798
-0.379122,0.299993,0.341065,-0.694643,-0.382752,0.609075
-0.383223,-0.322060,0.577141,0.880504,-0.474037,-0.001512
0.617150,0.666247,0.159195,-0.528348,-0.551156,0.645814
0.127539,0.531211,0.676409,0.848694,0.045805,-0.526896
0.544860,0.073813,0.666316,0.430486,0.420189,0.798826
-0.372280,-0.286562,0.593010,-0.118991,-0.316990,0.940935
-0.442952,-0.613600,0.605383,0.553622,-0.198767,0.808699
0.559167,-0.819153,0.561072,0.950644,-0.070566,-0.302152
0.058856,-0.247707,0.874459,-0.458605,0.437388,-0.773546
0.151050,-0.390777,0.338542,0.844664,0.305492,0.439565
0.228945,0.803562,0.610230,0.077075,-0.663337,0.744341
0.266149,0.821191,0.602262,-0.340553,0.858606,-0.383170
0.229066,-0.234036,0.067894,-0.710109,-0.697165,0.098521
-0.351501,0.165796,0.761512,-0.125449,-0.783376,0.608756
-0.267266,-0.016729,0.664612,0.118031,-0.990775,0.066578
0.196343,-0.206812,-0.466009,0.144334,-0.952129,-0.269479
0.423298,0.494753,0.211828,0.344173,-0.621381,0.703869
-0.543234,-0.459136,0.514702,-0.180629,0.945993,0.269205
0.121691,-0.794447,0.200075,-0.286243,0.897150,-0.336433
0.250095,-0.627031,-0.036996,0.774955,0.509001,-0.374650
0.484637,-0.099599,0.620898,0.889614,-0.043955,-0.454594
-0.131267,-0.962104,0.516185,0.526008,0.554491,-0.644868
0.526071,-0.009774,0.668684,0.337459,-0.433284,0.835695
0.730502,-0.073455,0.525835,-0.303048,-0.876444,-0.374176
-0.466715,0.394615,0.532608,0.841587,0.339995,0.419683
-0.408360,0.168195,0.710982,-0.267132,-0.897892,-0.349901
