-0.237697,0.047922,-0.974644,0.366470,0.154011,-0.917595
-0.206578,-0.246973,0.629844,0.908886,0.408084,0.085988
-0.505862,-0.284055,0.711441,0.691688,0.719428,0.063174
-0.449332,-0.445085,0.422087,-0.010763,0.999914,-0.007482
-0.406643,0.114998,0.672378,-0.018258,-0.769285,0.638645
0.301079,-0.116887,0.717177,-0.635447,0.671762,-0.380714
-0.315900,-0.859855,-0.956496,0.165847,0.161371,-0.972859
-0.506190,0.626550,0.490918,-0.008588,0.093424,0.995589
-0.095794,0.123331,0.702587,-0.462249,0.137977,-0.875950
0.076736,-0.261587,0.230274,0.184919,0.120266,0.975367
-0.050013,-0.150986,0.887400,0.338053,-0.857596,-0.387620
0.475240,0.044614,0.700204,0.152959,-0.798424,-0.582343
0.606717,0.045400,0.214037,-0.581264,0.291374,0.759759
0.165530,0.042887,0.940700,-0.884195,0.103003,0.455621
-0.217332,-0.264733,-0.100113,0.429711,-0.902118,0.039139
0.188828,0.410363,0.339873,-0.099802,-0.331236,0.938255
-0.292114,-0.307309,-0.972821,0.000901,-0.070864,0.997486
-0.050013,-0.228754,0.812628,-0.413608,-0.827478,0.379748
0.417566,0.393246,-0.213860,0.028390,0.039873,0.998801
-0.346204,-0.071482,-0.129999,0.517549,-0.364384,0.774188
-0.082111,0.086250,0.540570,-0.015614,0.881973,0.471042
0.194526,-0.170625,0.904284,0.929490,0.299975,-0.214626
-0.072988,-0.030949,0.820276,-0.284515,0.354778,0.890609
-0.148904,-0.502275,-0.962584,-0.350656,-0.351655,0.867974
0.087162,-0.493798,-0.953966,0.072014,-0.115083,0.990742
-0.224989,0.088925,-0.287338,-0.539613,-0.831523,-0.131862
0.538452,-0.751766,0.680761,0.092973,0.586811,0.804369
-0.387908,-0.136056,-0.766447,0.880136,0.463354,0.103264
-0.211306,-0.023565,0.695792,0.701817,0.506533,-0.500877
0.257416,-0.128202,0.845543,0.900941,-0.084889,-0.425557
0.358589,0.608321,0.342138,-0.437339,0.374151,-0.817769
0.311017,-0.580513,0.222185,0.481920,0.756156,0.442698
-0.390026,-0.429378,0.701910,0.450025,0.847383,0.281815
-0.022970,-0.106991,-0.752269,0.147105,0.979752,-0.135816
0.699906,0.176435,0.207301,-0.140408,0.501513,0.853681
0.608506,-0.305420,0.757210,-0.657568,0.674864,0.334907
0.090096,-0.058441,0.930140,0.894996,0.333979,-0.295702
-0.326326,0.194339,0.237157,-0.396285,-0.795000,0.459275
-0.598891,0.354593,0.691468,0.064248,0.997335,0.034579
0.277452,-0.134800,0.349198,0.247453,0.946566,0.206832
0.146632,-0.284525,0.040519,-0.520581,-0.844751,0.124057
-0.638970,0.613509,0.230980,0.100086,0.450895,0.886948
0.108671,-0.498660,0.775565,0.950171,-0.052946,0.307199
-0.105405,-0.243521,-0.715265,0.853728,0.138814,0.501877
-0.190777,-0.786171,-0.964614,0.185106,0.057198,-0.981053
-0.069403,0.064568,0.450797,0.133761,0.926812,0.350896
-0.254641,0.271953,0.017164,0.172980,0.927823,0.330489
-0.068752,-0.106051,0.826306,-0.719809,-0.282024,0.634301
-0.183444,-0.240529,0.590458,0.464294,0.615608,-0.636756
-0.594004,-0.344380,0.614343,-0.088043,0.957502,0.274660
-0.001462,-0.146738,0.854338,0.932392,-0.357825,0.051046
0.187362,0.632677,0.316312,-0.428516,0.777865,0.459674
-0.078849,0.452939,0.547571,0.887829,-0.303762,-0.345670
0.043504,-0.132910,0.921168,0.118931,0.768607,0.628568
0.486969,-0.139517,0.511656,0.832953,-0.548304,-0.074510
-0.029160,-0.171411,-0.444472,-0.603345,-0.781342,-0.159621
0.509939,-0.029376,0.380142,-0.377679,0.440988,0.814179
-0.581783,-0.215550,-0.983234,-0.230788,-0.101680,0.967677
-0.118441,0.390724,0.815334,0.969470,-0.164963,-0.181425
0.010431,0.334637,0.034901,-0.343939,0.398500,0.850237
0.223363,0.124117,0.878164,-0.644065,0.750474,0.148223
-0.041381,-0.129929,-0.052961,0.884079,-0.186119,-0.428677
-0.009446,0.043204,0.850779,0.372145,-0.924785,-0.079248
-0.175787,-0.254357,-0.417528,0.210288,-0.896912,0.389009
-0.155750,-0.037710,0.586369,0.927673,-0.215114,-0.305203
0.271590,-0.155071,0.608842,0.602150,0.785179,0.144605
0.348978,0.302437,-0.219273,0.365781,0.195899,-0.909850
-0.827301,-0.248700,0.443943,-0.494360,-0.684642,0.535606
-0.444116,0.474783,-0.126204,-0.361556,-0.526720,0.769314
-0.105569,-0.053579,0.840131,0.603405,0.769014,-0.210995
-0.172366,0.189784,0.234686,0.360937,-0.287836,0.887060
0.126589,-0.000475,0.340873,0.476510,0.615765,-0.627512
-0.081296,0.090967,0.430177,0.570185,0.803046,0.173224
-0.211957,0.311383,0.650552,-0.364346,-0.927286,0.085979
-0.101332,-0.136689,-0.460327,0.862919,0.330654,-0.382150
0.052787,0.337629,0.008163,-0.192781,0.439683,0.877220
-0.178556,-0.019643,0.746592,0.895839,-0.143323,-0.420632
-0.340988,0.309034,0.686703,0.253899,0.401830,-0.879811
-0.055064,-0.806280,0.010339,0.998929,-0.020904,-0.041268
0.598404,-0.243051,0.807745,-0.535124,-0.026510,0.844357
-0.547571,0.046819,0.515068,0.985682,0.027359,-0.166380
0.743404,-0.208646,0.666289,-0.777579,-0.617289,-0.119688
0.095311,0.111229,0.393614,0.063953,0.979857,-0.189184
0.059956,-0.550192,0.689350,0.900311,0.348286,0.261031
-0.113066,-0.176119,0.205683,-0.696500,0.651467,-0.300797
0.101501,-0.084687,0.655435,0.452529,0.769491,0.450668
0.023463,-0.159626,0.873811,0.859805,-0.502981,-0.088008
-0.450147,0.531656,0.230068,-0.680492,-0.360094,-0.638171
-0.369174,0.296463,0.255394,-0.303888,-0.086161,0.948804
0.550832,-0.267399,0.784154,0.444286,0.849637,-0.284126
-0.263765,0.064732,0.198859,0.180681,0.949090,0.258037
0.111112,-0.210525,0.924845,0.629512,-0.508732,0.587288
-0.014011,-0.197331,-0.121174,0.867218,0.424498,-0.260259
-0.011078,-0.186178,0.912609,0.919862,0.212236,-0.329864
0.102640,-0.833149,0.750121,-0.527683,0.793817,-0.302333
0.287227,0.068337,-0.220361,-0.697306,0.592239,0.403755
-0.272560,0.221994,0.460768,0.715262,0.181410,0.674901
0.190131,-0.566062,0.790125,-0.698831,-0.370886,0.611619
-0.210327,0.187904,0.616313,0.837135,-0.009218,0.546918
0.322095,-0.557106,0.853632,0.070550,-0.993324,-0.091271
-0.136852,-0.098668,0.506332,0.933558,-0.332802,0.133085
-0.487615,-0.461741,0.743121,-0.742370,-0.199945,-0.639460
0.002610,0.140294,0.630079,0.738844,0.644093,-0.198122
0.423433,0.065038,0.741591,0.487830,-0.821089,0.296370
-0.261646,-0.002834,-0.106496,-0.688512,-0.707842,0.157831
0.584885,-0.750356,0.587310,0.055502,0.648506,0.759184
-0.254965,0.189630,0.763123,0.409100,0.178311,-0.894898
0.037802,-0.002200,0.303311,0.113500,-0.897493,0.426173
0.154612,-0.279653,0.942671,-0.515492,0.587976,0.623339
0.213429,0.033624,0.344844,-0.197510,0.958397,0.206072
0.028350,0.789470,0.214625,0.676061,-0.005365,-0.736826
0.066962,0.058288,0.887930,-0.731178,0.446443,-0.515817
-0.273052,-0.064262,0.599282,0.440703,0.890281,-0.114804
0.455034,0.460485,0.037283,-0.202379,0.977160,-0.064824
-0.384815,0.306359,-0.087671,0.963480,0.244163,0.109959
-0.092373,0.283268,0.817481,0.503728,0.391354,-0.770129
-0.437110,0.333851,0.481505,-0.250654,0.678108,-0.690899
-0.130985,-0.326784,0.471151,0.215472,0.703171,-0.677586
-0.040566,-0.478714,0.581457,0.500125,0.793572,0.346581
0.537150,0.284994,0.606489,0.373470,0.031792,-0.927097
0.154939,0.514530,0.342138,-0.027491,0.253342,0.966986
-0.062398,0.302907,0.794185,-0.163693,0.300865,0.939513
-0.247636,-0.201415,-0.976821,-0.185586,0.380962,0.905774
0.115676,-0.474313,0.877546,0.672977,0.738440,0.042526
-0.544637,0.355062,0.700322,0.001123,-0.728501,0.685044
0.127733,-0.600938,0.661642,0.495271,0.691413,0.525980
-0.268975,0.367950,0.711382,-0.353636,-0.682143,0.640017
-0.170900,-0.346269,0.760446,-0.387937,0.818593,0.423570
0.387426,0.005336,0.191740,-0.021403,-0.444697,0.895425
-0.556531,0.432524,0.706558,-0.424734,-0.791764,0.438987
-0.002769,0.715633,0.230244,0.961736,-0.040837,-0.270919
-0.042192,-0.325211,-0.593488,0.343224,0.325995,-0.880866
-0.372918,-0.035820,-0.583928,0.702231,0.707184,0.082240
-0.484522,-0.283892,0.575868,-0.488108,0.786893,-0.377558
-0.054576,0.551448,0.835924,0.818594,-0.023474,-0.573892
-0.350112,-0.021993,0.533305,0.931862,-0.232933,0.278164
-0.142555,0.269440,0.758887,0.557573,0.795065,-0.238714
0.025581,0.499293,0.468063,0.771966,-0.115222,-0.625134
0.614046,0.092224,0.669231,0.574933,-0.507766,0.641581
-0.015637,0.177222,0.791420,-0.488620,-0.661238,-0.569223
0.455526,0.684833,0.338491,-0.448212,-0.362262,-0.817235
-0.127888,0.034564,0.756181,0.631218,-0.473315,-0.614440
0.523626,-0.201252,0.151030,0.914355,0.186644,-0.359332
-0.255128,0.309351,-0.051755,-0.272534,0.033794,0.961553
-0.077224,-0.035667,0.670996,-0.421783,-0.424546,0.801162
0.433366,-0.201886,0.634992,-0.533577,-0.325446,-0.780628
-0.004395,0.046349,0.804245,0.351669,-0.881991,-0.313720
0.469701,-0.171095,0.750121,-0.120139,0.866150,0.485130
0.287555,-0.242572,0.823894,0.256822,0.902885,0.344733
0.105573,-0.163241,0.818099,-0.361405,0.277857,-0.890046
-0.102312,-0.204081,0.411881,0.968087,0.250157,0.015106
-0.890026,-0.374547,0.768006,0.407785,0.912905,0.017772
-0.545125,-0.389315,0.640845,0.713423,0.649356,-0.263370
0.389380,0.549252,0.333314,-0.636525,0.487574,-0.597586
-0.358748,-0.486098,0.779536,0.853698,0.018886,-0.520426
-0.096122,-0.128826,0.761593,0.649958,0.319055,-0.689752
-0.554577,0.481533,0.482506,-0.263575,-0.376067,0.888314
-0.130005,0.096309,0.287427,0.787162,0.444940,-0.427089
0.665038,-0.024035,0.729443,0.327881,0.182382,-0.926947
0.412350,-0.086250,0.189358,0.059887,-0.255818,0.964868
0.061587,-0.327417,0.810598,-0.472130,0.736505,0.484410
-0.143858,-0.492379,0.847778,0.950843,0.267491,0.156031
0.612256,0.219634,0.345138,0.809189,-0.586915,-0.027285
-0.458614,0.813347,0.484653,0.607130,-0.389672,-0.692494
-0.104753,-0.120349,0.352169,0.840126,0.121440,-0.528621
-0.357446,0.457503,0.203330,0.936001,-0.210110,0.282413
-0.407786,-0.615082,0.781566,0.051730,0.932380,-0.357760
0.014503,0.576898,0.546277,-0.635979,0.351735,0.686887
-0.405017,0.325844,-0.119762,0.912852,0.209130,-0.350664
-0.026063,-0.043367,0.945936,-0.692875,-0.721057,-0.001239
0.028514,-0.501652,-0.018281,0.853057,-0.521330,-0.022575
-0.123979,0.128356,0.442119,0.517280,0.580687,0.628668
-0.036494,-0.654359,-0.945259,-0.417455,0.896158,0.150439
0.028350,-0.125374,0.924051,0.301293,0.344968,0.888943
-0.190290,-0.080755,-0.370112,0.975760,0.021324,0.217804
-0.168617,-0.084840,-0.968585,-0.114096,0.189937,0.975144
-0.036494,0.622465,0.234333,0.774712,-0.262731,-0.575147
-0.036981,-0.098668,0.637051,-0.050823,-0.982225,0.180695
-0.176766,0.084053,0.700499,0.963806,0.256777,-0.071722
-0.460732,0.405185,0.249305,0.138947,0.241459,0.960412
0.182797,0.054049,0.339550,-0.308370,-0.474710,-0.824353
-0.103128,0.202202,0.781948,-0.201297,0.125279,-0.971486
0.003261,-0.253734,0.962496,0.922309,0.318830,0.218386
-0.829096,-0.258135,0.574162,0.851876,0.251073,0.459640
0.240635,-0.444462,0.721765,0.844193,0.239331,-0.479645
-0.358097,0.378632,0.236157,0.707226,0.578037,0.407069
0.117959,0.250742,0.473063,-0.196373,-0.289072,0.936950
0.129523,0.289712,0.376230,0.743307,0.420947,0.519903
0.135713,0.501335,0.574545,0.488227,-0.064589,-0.870323
-0.157868,-0.123801,-0.903549,-0.478285,0.624680,0.617267
0.053766,-0.252008,0.828570,0.647050,0.621653,-0.441445
-0.254313,0.401416,0.724177,-0.618519,-0.326766,0.714603
0.176935,0.042101,0.788243,0.822599,-0.517210,0.236271
-0.733461,-0.148627,0.429441,-0.467256,0.496407,0.731609
-0.095794,-0.006286,-0.173797,0.910432,0.372079,0.180751
0.136365,-0.535587,0.763829,0.864607,0.501160,0.035958
0.074295,-0.198270,0.948377,-0.591225,-0.536366,0.602299
-0.365753,0.247127,0.691057,0.041771,-0.460717,0.886564
-0.051643,-0.083900,0.833453,0.725607,0.683595,-0.078693
0.821279,0.040221,0.616284,0.876900,0.413913,-0.244383
-0.395729,0.175649,0.674496,-0.150227,-0.500263,0.852742
-0.230692,0.319870,0.703175,0.267661,0.689490,-0.673024
-0.052946,0.063945,0.751504,0.547378,0.371037,0.750140
0.108179,-0.390101,0.784478,0.037991,-0.557834,0.829082
-0.104753,0.065824,-0.484859,0.974188,0.186891,-0.126607
0.572500,0.247606,0.576662,-0.586639,0.791713,0.170428
-0.169433,0.083584,0.155089,0.669392,0.659602,-0.341817
-0.153304,-0.318461,-0.356522,-0.162396,-0.906670,0.389329
-0.101661,0.216020,0.706793,0.203345,-0.765792,0.610092
0.365594,0.289233,0.876428,-0.815418,0.390917,0.426940
-0.465783,0.094582,0.594635,-0.735246,-0.675741,0.052798
0.313946,-0.450589,0.183298,-0.303320,0.889687,0.341254
0.272565,-0.413355,0.871722,-0.512145,-0.585865,0.628068
0.420986,-0.807229,0.687615,-0.421629,0.427373,0.799738
0.372271,-0.513274,0.843101,0.207963,-0.945134,-0.251938
0.062074,0.440693,0.274278,0.927455,-0.205870,-0.312160
0.071526,0.190417,0.560072,0.464309,0.097306,-0.880312
-0.378462,0.314375,0.675467,-0.718966,0.515074,-0.466676
-0.261319,-0.896935,-0.962408,-0.100206,-0.113864,0.988430
-0.388724,0.147994,-0.081641,0.688830,0.716574,0.109705
0.274196,-0.580829,0.806980,0.832716,-0.290841,0.471163
-0.049197,0.058288,0.782801,0.985367,-0.170442,0.001150
0.194854,0.502745,0.578574,-0.501314,0.170355,0.848330
0.466275,0.007695,0.711412,-0.206340,0.478365,0.853575
-0.112410,-0.214926,-0.651346,0.757615,0.527730,0.384084
0.507169,0.030325,0.187534,-0.521206,0.376105,0.766087
-0.529648,-0.216815,0.468239,-0.490025,-0.732463,0.472623
-0.180187,-0.401100,0.765299,0.136756,-0.963203,0.231382
-0.137339,0.534639,0.742709,0.995148,0.039672,0.090042
0.052950,0.331022,0.236215,-0.031249,-0.477050,0.878320
0.168786,-0.254673,-0.148295,0.715767,-0.649556,0.256428
0.416750,-0.824192,0.630727,0.242244,0.941740,-0.233332
-0.110948,0.287353,0.302369,0.846978,-0.106860,-0.520777
-0.510098,0.079806,0.253776,0.698812,-0.387479,0.601266
0.053602,-0.197953,0.849896,0.905426,0.420352,-0.059235
-0.028673,-0.167796,0.199623,0.371244,-0.894002,0.250873
-0.110784,0.350038,0.694910,-0.435808,0.826338,0.356702
-0.172853,-0.552551,-0.601753,0.941916,0.297495,-0.155857
-0.122026,-0.210841,0.778830,0.900757,0.292326,0.321220
-0.311823,-0.528204,-0.970762,-0.144374,0.020029,0.989321
-0.140436,-0.121442,-0.245216,0.347634,0.483462,-0.803377
-0.405017,0.319716,0.019399,0.779771,-0.008670,0.626004
-0.164709,0.106051,-0.056432,0.232802,-0.886650,0.399568
0.138647,-0.030479,-0.013075,-0.449423,0.841040,-0.301116
0.095962,0.097881,0.802686,0.363912,0.931432,-0.001457
-0.422612,-0.798743,-0.978262,-0.231301,0.194375,0.953267
-0.066305,-0.346739,0.595282,0.872435,-0.133522,0.470138
-0.404201,0.245717,0.683967,-0.600237,0.124613,0.790055
-0.223850,-0.205184,0.345227,0.080037,0.139322,0.987007
-0.191429,-0.255776,-0.747650,0.969320,-0.075615,-0.233884
-0.248610,-0.294583,0.821511,0.176079,-0.496161,0.850188
-0.194685,0.258289,0.840072,0.543834,-0.830412,-0.121082
-0.509124,0.520810,0.714794,-0.569923,0.356561,-0.740305
0.038612,-0.192306,0.871251,0.472588,0.842507,-0.258540
-0.327301,0.241315,0.462651,-0.003357,-0.931936,0.362608
0.818997,0.216499,0.219331,-0.185528,0.679667,0.709670
-0.188659,-0.444615,0.347374,0.178543,-0.902763,0.391332
0.125774,0.304479,0.779507,0.968385,0.144140,-0.203604
-0.321275,0.434873,-0.077464,0.843477,-0.002822,-0.537157
0.016944,0.295677,0.558925,0.762413,0.083199,-0.641720
-0.057018,-0.348935,0.662995,0.901513,-0.317734,0.293803
0.802381,-0.049178,0.601959,-0.654873,0.008185,0.755695
-0.745354,-0.268654,0.439148,-0.353949,0.868388,0.347308
-0.115835,-0.158840,-0.084906,-0.749116,0.313674,-0.583467
-0.104753,0.122391,0.474681,-0.167579,0.985541,-0.025043
0.035355,0.302120,0.789714,0.299126,-0.478956,0.825303
0.168622,-0.000312,0.784360,0.716901,-0.677074,0.166204
-0.011401,-0.155857,0.926904,-0.577470,-0.252073,-0.776523
-0.407786,0.314213,-0.132411,0.968167,0.133726,-0.211591
-0.233297,0.306359,0.715324,0.572755,0.783307,-0.241621
-0.679048,0.647915,0.503802,0.480928,0.169582,-0.860204
0.004400,0.268654,0.336549,0.454572,-0.099916,-0.885088
0.715383,0.011943,0.217861,-0.394557,-0.016187,0.918729
0.446074,-0.198270,0.782684,0.392838,-0.912850,-0.111278
-0.363143,0.036607,-0.171415,0.826369,0.379660,-0.415900
0.381723,-0.213507,0.355581,0.635400,0.771926,-0.019951
-0.014821,0.024822,0.468945,0.315176,-0.667501,-0.674616
-0.075429,0.126160,0.597841,0.648149,0.619222,-0.443246
-0.165689,-0.177375,0.821982,0.046611,-0.049359,0.997693
-0.213260,0.258912,0.635257,-0.451632,-0.879766,-0.148460
-0.209675,0.033461,0.704558,-0.645170,0.497858,0.579562
-0.000651,0.151456,0.811186,0.049588,0.895491,0.442308
0.503584,-0.206286,0.635109,0.175235,0.980791,-0.085686
-0.489569,0.311863,0.469769,-0.123876,0.187965,0.974332
-0.545940,-0.419798,0.641669,0.770797,0.573090,-0.278280
-0.341311,0.182870,0.822952,-0.827650,0.344604,-0.442994
-0.014498,-0.060177,0.956113,-0.347382,-0.907824,-0.234906
0.071526,0.111076,0.784331,0.718802,0.694280,-0.036042
0.140436,-0.157737,0.675025,-0.097377,0.927975,0.359693
0.270447,0.680441,0.342873,0.697808,-0.313203,-0.644180
-0.254641,-0.103059,0.571809,0.228636,0.523629,-0.820694
0.249431,-0.790410,0.620490,0.484653,0.867566,-0.111539
-0.040402,-0.202355,0.338638,0.142026,0.908725,0.392488
-0.464809,0.783189,0.489124,-0.155574,0.114740,0.981138
0.510102,-0.294583,0.625608,0.285189,0.841906,0.458106
-0.089768,-0.170145,-0.674937,-0.609839,-0.771559,-0.181091
-0.198598,-0.296146,-0.220979,0.867835,-0.493418,0.058317
-0.559787,0.368103,0.690703,0.568282,0.764657,-0.303900
-0.201039,-0.278867,0.638022,-0.235740,-0.661618,0.711821
-0.099214,-0.068500,0.823629,0.421131,-0.330267,-0.844732
0.483060,0.385546,-0.218684,-0.203753,0.034031,0.978431
-0.262134,-0.542185,0.675937,-0.368793,-0.928879,0.034297
-0.308895,0.252631,0.485417,0.288031,0.110638,0.951208
0.153473,0.017121,0.808274,0.613125,-0.757740,0.223403
0.024601,0.299762,0.557602,0.762413,0.083199,-0.641720
-0.656888,-0.060483,0.590017,0.172661,0.560380,-0.810038
-0.054576,-0.112648,-0.967732,-0.171782,0.173508,0.969735
0.321767,-0.470382,0.856809,-0.511994,-0.810866,-0.283476
0.356958,-0.198586,0.731766,0.802612,0.584937,0.116888
-0.647114,0.016028,-0.521568,0.412719,0.723422,0.553465
-0.025089,-0.167949,-0.099672,0.952914,-0.133965,0.272046
0.073967,0.052006,0.441001,0.289843,0.871898,0.394697
0.702347,-0.231420,0.683497,0.448764,-0.866861,0.217170
-0.015965,0.237077,0.718942,0.597396,-0.787361,-0.152252
-0.247308,-0.013823,-0.126940,0.631834,0.733107,-0.251675
-0.065003,-0.113119,0.253982,-0.186602,-0.708099,0.681010
0.258554,-0.450273,0.859015,0.454126,0.653433,-0.605635
-0.014334,-0.308095,0.802980,-0.242301,0.135655,0.960671
0.018739,0.239743,0.789743,0.746780,-0.311774,0.587466
0.583578,-0.056245,0.197506,-0.400926,-0.149656,0.903804
-0.560931,-0.131818,0.401791,0.416342,0.907226,-0.060007
-0.046920,-0.048076,0.957996,0.356926,-0.615245,0.702906
-0.437438,-0.734486,-0.971968,-0.455376,0.435675,0.776415
-0.364610,0.231419,0.744709,0.894982,-0.251076,-0.368740
-0.715214,0.539826,-0.227097,-0.667044,-0.124052,0.734618
-0.707880,-0.109820,-0.985557,-0.150195,-0.128500,0.980270
-0.076567,0.433463,0.803803,0.787926,0.505249,0.351988
-0.786899,-0.255930,-0.994999,-0.234416,-0.021040,0.971909
0.060935,-0.189784,0.823923,0.442772,-0.805890,0.393057
0.173674,0.051690,0.825335,0.355617,0.934290,-0.025255
-0.159494,-0.235505,0.807951,0.606214,-0.791842,0.074108
-0.123328,-0.326477,0.544424,-0.115359,0.985924,-0.121018
0.172207,-0.617278,0.669966,0.503952,0.704509,-0.499699
-0.138477,0.280276,0.795067,0.478330,0.756797,-0.445487
-0.728245,0.654829,0.230656,-0.458033,-0.573662,-0.679056
0.351583,0.143909,-0.217566,0.426338,-0.184420,-0.885565
-0.293576,-0.284994,0.453532,0.770259,0.617019,-0.161210
-0.167807,-0.278081,0.143647,0.565173,-0.823537,0.048656
-0.088952,-0.021523,0.783860,0.810012,0.514729,0.280954
-0.142714,0.458759,0.711823,-0.260764,0.773721,-0.577372
0.048391,0.019327,0.334932,-0.520541,0.132889,0.843432
0.652493,0.261271,0.338314,-0.713793,0.679671,-0.168958
-0.038612,-0.639429,-0.955760,-0.463355,0.576369,0.673128
-0.053433,0.417747,0.230421,0.584813,-0.066203,-0.808462
-0.311823,0.155224,0.185945,0.717613,0.667553,-0.198505
0.014016,0.095052,0.699704,0.762552,0.020452,0.646604
-0.031442,-0.480278,-0.957966,0.029460,-0.110636,0.993424
0.171556,-0.290805,0.691586,-0.528891,0.208208,-0.822754
-0.009446,-0.079182,0.561837,0.069938,0.240703,0.968076
-0.116323,-0.013823,0.283750,0.942921,0.330822,-0.038180
-0.397032,0.115314,-0.158296,0.737140,0.611689,0.287159
0.014826,0.571403,0.219478,-0.312984,0.034258,-0.949140
0.176935,-0.422781,-0.345021,0.471200,-0.149238,-0.869309
-0.269790,0.558831,0.653406,-0.505838,-0.448889,-0.736632
-0.206254,-0.452162,0.375024,0.822457,0.548681,0.150045
-0.061095,0.035034,-0.069198,0.744561,-0.316121,0.587959
-0.056695,0.667870,0.702146,0.405430,0.600812,-0.688949
-0.138318,-0.387589,0.769153,-0.074932,-0.992656,0.094974
-0.255293,-0.002354,0.339667,0.226611,0.530599,0.816769
-0.387093,0.273679,0.232039,0.780938,0.506708,0.365216
0.153309,0.443359,0.027429,-0.234731,0.883384,-0.405628
0.736071,-0.019481,0.605342,0.455449,0.261228,-0.851074
-0.031114,-0.142816,-0.238892,0.964963,0.243167,-0.098574
-0.246497,-0.279653,-0.431088,0.533894,0.643401,-0.548627
0.017108,-0.085943,0.215184,0.368497,0.928045,0.054248
0.074947,-0.732281,-0.350933,0.985034,0.022659,-0.170864
0.643534,0.103223,0.203506,-0.371594,0.347752,0.860806
-0.361676,-0.168103,0.406086,0.174195,-0.983473,0.049360
-0.212773,-0.107624,0.104672,-0.346625,0.893224,-0.286360
-0.344573,0.281695,-0.115821,0.784829,0.208003,-0.583762
0.313787,-0.337467,0.162678,0.203661,0.699030,0.685478
-0.168294,-0.447761,0.396085,0.959970,-0.115364,-0.255241
-0.455357,0.456717,0.248364,-0.403686,0.188030,-0.895367
0.038776,-0.035820,0.916521,-0.309512,0.864188,0.396713
-0.563864,0.112802,-0.986528,0.048516,0.098036,0.994000
-0.196151,-0.221370,0.825423,-0.506782,-0.484931,-0.712751
-0.187356,-0.099138,0.822776,0.008029,-0.444264,0.895860
0.041873,-0.143439,0.699763,0.395228,0.702962,0.591303
-0.075429,-0.595759,-0.522657,0.939343,0.338711,0.053939
-0.365753,0.969363,0.498331,0.840112,-0.542377,0.006331
0.216686,0.397168,0.456532,-0.638122,0.553876,-0.534811
0.226133,0.579420,0.342020,-0.486781,0.159506,0.858838
-0.071029,-0.310607,0.662906,0.886711,0.457634,-0.065687
0.627405,-0.019164,-0.118850,-0.036258,0.586819,0.808906
-0.386278,0.407544,0.486300,0.887600,0.324366,0.327036
0.542361,-0.277295,0.331696,0.218443,0.849090,0.480967
-0.275986,-0.724274,0.772447,0.836359,0.539711,0.095996
0.174489,0.064415,0.910285,-0.779074,0.621741,-0.080509
0.103943,0.426233,0.574339,-0.403225,-0.230746,0.885532
-0.233948,0.301651,0.673496,0.323129,-0.926521,0.192736
-0.102148,-0.377223,0.591811,0.869983,-0.025637,0.492414
-0.116487,-0.230011,-0.146236,-0.219785,0.869492,0.442355
-0.049361,0.042418,0.197564,-0.537300,-0.824311,0.178381
0.131805,0.579726,0.573015,-0.391483,0.144457,0.908776
-0.095794,0.049178,-0.527628,0.969592,0.174934,-0.171143
0.054905,0.014609,0.857897,0.469024,0.448386,-0.760899
0.298797,-0.484679,0.897695,0.667484,0.604270,-0.435112
0.053115,-0.293634,0.279338,0.420481,-0.150630,0.894710
0.222060,-0.525999,0.741150,-0.632834,-0.619996,-0.463817
-0.439556,0.538100,0.697116,-0.616160,-0.685383,0.388068
-0.137175,-0.256092,-0.652435,-0.431215,0.602152,-0.671912
-0.484030,0.245248,0.679379,-0.064765,-0.247490,0.966723
-0.309218,-0.029070,-0.976145,0.180851,-0.028062,-0.983110
-0.086506,0.704634,0.207301,0.417510,-0.283335,-0.863369
-0.225153,-0.652163,0.735061,0.909199,0.411717,0.062014
-0.146462,-0.140457,-0.594546,0.561253,0.806307,0.186719
-0.222548,0.195288,0.045402,-0.554566,-0.388980,-0.735630
-0.099866,-0.069603,0.703969,0.238496,0.641564,-0.729051
0.529981,0.041948,0.368788,-0.070556,0.699071,0.711563
-0.363794,0.113272,-0.067639,-0.678331,-0.727472,0.103202
0.580649,0.208636,0.685556,0.579846,-0.788562,0.204812
0.381559,-0.117836,0.635492,0.576060,0.741665,0.343640
-0.301561,-0.661896,0.719500,0.610142,0.700303,0.370543
-0.547407,0.674467,0.450002,-0.028025,-0.946507,0.321464
0.345065,0.811784,0.338667,-0.374576,-0.456557,-0.807000
-0.435644,-0.197647,-0.153472,0.094011,0.961267,0.259092
0.141416,0.150037,0.419646,0.583044,-0.667194,0.463585
-0.010913,-0.775336,0.029282,0.994981,-0.021487,0.097732
-0.211629,0.222780,0.793890,0.814715,-0.218235,0.537228
-0.198598,-0.743596,0.804774,0.808629,0.471244,-0.352204
-0.237210,-0.521444,-0.962731,0.176759,0.226707,-0.957789
-0.092861,-0.469595,-0.933199,0.985159,-0.169279,0.028410
0.173674,-0.432840,0.765741,-0.079009,-0.258601,0.962748
-0.003257,0.770302,0.719706,-0.319974,-0.565105,0.760442
0.525416,0.111546,0.591546,-0.439150,0.377150,0.815417
-0.020688,-0.169992,0.889489,-0.359364,0.932703,-0.030383
-0.211142,-0.186965,0.666319,0.812861,0.576930,-0.080052
0.309551,-0.424507,-0.244599,0.669254,0.741348,-0.050013
-0.106220,-0.048229,0.530893,0.993665,-0.046846,0.102156
-0.017919,-0.374078,0.817452,-0.158736,-0.394660,0.905012
0.177259,-0.141397,0.225303,-0.016838,0.702488,0.711496
-0.388396,-0.292848,-0.969085,-0.183369,0.269985,0.945243
0.413165,0.659230,0.291545,-0.140536,0.594732,0.791545
0.226133,-0.389162,0.771771,-0.536663,0.533822,-0.653473
0.155591,-0.176752,0.925081,0.631553,0.484771,0.605093
0.094983,-0.194818,0.457885,-0.014138,-0.803747,0.594804
-0.107687,0.083421,-0.337049,0.889877,0.268358,0.368920
-0.055879,-0.218858,0.057521,0.950113,-0.211114,-0.229599
-0.128052,0.131970,0.843101,0.201937,-0.979368,0.007757
0.019062,-0.145482,0.677702,0.364059,-0.926783,-0.092384
0.214239,0.171247,0.616637,0.213304,-0.363089,0.907010
-0.584552,0.437865,0.702705,-0.112917,-0.424212,0.898495
-0.281684,0.070379,-0.082376,0.716640,0.602305,-0.351647
0.046597,-0.225925,0.938258,0.677905,-0.011406,0.735061
0.511242,-0.198740,0.783272,-0.056501,0.967932,0.244776
-0.211306,-0.347209,0.811098,-0.694147,0.707849,-0.130805
-0.036002,-0.001414,0.848543,-0.666076,0.640828,-0.381683
-0.455685,-0.010054,-0.988911,0.216406,-0.178851,-0.959782
-0.236559,0.066927,0.661553,-0.175984,-0.575515,0.798632
-0.001626,-0.327417,0.853632,0.832405,0.091918,0.546492
0.044479,0.222147,0.529334,0.443038,-0.640758,-0.627015
-0.487943,0.100547,0.684909,0.594811,0.688099,-0.415595
-0.042848,-0.184922,-0.452708,-0.723268,0.653482,0.223259
-0.337568,-0.153652,0.662612,0.939076,0.278907,-0.200868
-0.233461,0.063782,0.795361,0.874357,-0.463162,-0.144845
-0.582270,0.022462,-0.988646,-0.007238,-0.034026,0.999395
0.480778,0.023249,0.675819,0.285632,-0.896687,0.338183
-0.092209,-0.193092,0.239216,-0.438589,-0.205507,0.874875
-0.024109,0.254990,-0.132234,0.794353,-0.450725,0.407246
0.004236,0.126946,0.579898,-0.412402,-0.794724,-0.445352
-0.646950,0.454205,0.480594,0.535453,-0.078019,-0.840954
0.636041,-0.142336,0.741120,0.388967,-0.919807,-0.051577
0.140277,-0.267399,0.175033,0.928652,0.331379,0.166715
0.449987,0.778634,0.332843,0.309921,0.297739,0.902940
0.508149,0.069756,0.696763,-0.347461,0.822414,0.450450
-0.447700,0.385383,0.212536,-0.023876,-0.856102,0.516255
0.634246,0.138884,0.212184,0.146718,-0.454903,-0.878372
-0.043987,-0.058288,0.074640,-0.715632,0.577651,-0.392670
-0.207394,-0.213354,-0.346050,0.860916,-0.469635,0.195617
0.014667,-0.229061,-0.204006,-0.444313,0.895831,-0.008542
-0.094819,-0.224353,0.786507,0.968004,-0.136883,0.210314
-0.423427,-0.011310,-0.548601,-0.634053,-0.560944,-0.532277
-0.183772,-0.283892,-0.103231,-0.153003,0.960174,-0.233786
-0.161453,-0.280909,0.581928,0.573713,0.627339,-0.526592
-0.488594,-0.344380,-0.132499,0.088013,0.769131,0.633002
-0.308402,-0.152866,0.378789,0.681540,0.721835,0.120237
-0.189962,0.001731,0.442590,0.874712,-0.013871,-0.484444
-0.038448,-0.149250,0.345756,-0.645085,0.721845,-0.250608
-0.199736,0.058758,0.120262,0.055885,-0.918730,0.390913
0.122846,-0.025454,0.622344,0.927382,0.198976,0.316814
-0.181166,0.298189,0.783743,0.647357,0.757581,0.083666
0.077880,0.104162,0.556807,-0.278980,-0.047339,0.959130
-0.297161,0.340458,0.054432,0.421258,0.052890,0.905397
-0.182305,-0.028283,-0.668672,0.893728,0.386059,-0.228492
-0.157376,0.123484,-0.006339,0.911438,0.367898,-0.184209
-0.187680,0.164334,0.742356,0.850025,-0.335852,-0.405785
-0.126749,-0.094266,-0.167973,0.993343,-0.112989,0.022453
-0.408273,-0.117836,-0.976880,0.067192,-0.287868,-0.955310
0.120728,0.506360,0.577045,0.555589,-0.118928,-0.822908
-0.894914,-0.338099,0.767035,0.263432,0.956411,0.126025
-0.089604,-0.566695,-0.960025,-0.314844,-0.251201,0.915298
-0.192895,0.375957,0.734443,0.585289,0.397781,-0.706545
-0.139621,0.050434,0.710882,0.882967,-0.019526,-0.469030
-0.120723,0.132757,0.605430,-0.620470,0.275913,-0.734091
-0.326162,-0.152549,0.340638,0.004015,0.197375,0.980320
0.061587,-0.230164,0.975998,0.915530,0.027322,-0.401321
0.341480,-0.497097,0.871693,0.124523,0.654447,0.745784
-0.373410,-0.014609,0.560514,0.373054,-0.199645,-0.906075
-0.185726,0.011157,-0.037930,0.614803,0.764270,-0.194699
-0.188982,-0.172504,0.904990,0.515882,-0.814119,0.266600
0.163083,-0.194501,0.115380,0.369237,0.634482,0.679041
-0.047572,-0.632524,-0.954584,0.512344,-0.439195,-0.737978
-0.372595,0.219951,0.245834,0.812242,0.571051,-0.119012
-0.856138,-0.195604,-0.422970,0.171997,0.983845,-0.049660
-0.011729,0.181307,0.783125,0.625010,0.777673,0.067733
-0.102148,-0.328040,-0.203241,-0.691194,0.680868,-0.242219
0.102317,0.623875,0.460386,0.893158,0.013641,-0.449536
-0.503257,0.520188,-0.105231,0.327435,0.625252,-0.708410
-0.244703,-0.338722,0.573897,0.616299,0.726781,-0.303256
0.462855,-0.215866,0.785537,-0.373885,-0.906832,-0.194591
0.119261,-0.350507,0.738238,0.435783,-0.796685,-0.418792
-0.164709,0.113119,0.569926,0.005445,0.924855,0.380281
-0.568260,0.556482,0.491448,0.336427,-0.031538,-0.941181
0.116164,-0.520188,0.758563,-0.666331,-0.241142,-0.705588
-0.092702,-0.189314,-0.776536,0.790600,0.584061,0.183912
-0.683608,-0.254520,0.471181,0.126078,0.985722,-0.111610
-0.625118,0.499762,0.710264,-0.185710,-0.434486,0.881325
0.022324,0.444615,0.452620,0.915086,0.114212,-0.386746
0.032263,-0.168889,0.840689,0.943291,0.092046,-0.318952
-0.091394,0.525529,0.831159,-0.758176,0.449629,0.472232
0.023949,0.049648,0.306282,-0.282388,-0.390544,0.876203
0.650375,-0.223567,0.810569,-0.381852,0.294175,0.876156
-0.503580,-0.566695,0.787713,0.000798,-0.996398,0.084794
-0.756759,-0.287507,0.446325,0.056589,-0.861091,0.505291
0.312156,-0.252478,0.633903,-0.730056,-0.413265,-0.544270
-0.095958,-0.130868,-0.471710,0.877548,0.099682,-0.469013
-0.320946,0.091121,-0.064227,-0.603615,-0.794228,0.069643
-0.033884,0.174863,0.607636,0.595216,0.683304,-0.422864
-0.174320,0.323485,0.798509,0.931355,0.257069,-0.257862
0.341973,0.258442,0.873016,-0.775239,0.430118,0.462605
0.172043,0.507463,0.485888,0.181306,-0.402216,0.897413
0.100850,0.448384,-0.171591,-0.703090,0.499733,-0.505897
0.174489,-0.266929,0.751739,-0.704673,-0.039180,0.708449
0.243569,0.546577,0.587369,0.737802,-0.239026,-0.631280
-0.298140,-0.212730,0.829159,0.021379,-0.061515,0.997877
0.440372,-0.250742,0.795685,0.752569,-0.064728,-0.655324
0.188177,-0.549569,0.758005,0.205124,0.054868,0.977197
-0.217983,-0.797956,-0.959202,0.055720,-0.019378,-0.998258
0.001959,0.656871,0.694380,0.178776,-0.789496,0.587141
0.285437,0.785539,0.339256,-0.583858,0.184368,0.790644
-0.370149,0.591195,-0.069463,-0.651406,-0.155522,0.742619
-0.236718,-0.587743,0.770447,0.528688,0.702664,-0.476186
-0.094655,0.288139,0.794273,0.248334,-0.606210,-0.755539
-0.382697,-0.687039,-0.979351,-0.333245,0.106852,0.936766
-0.381718,-0.321759,0.742062,-0.686342,0.688147,-0.235347
-0.217496,-0.550671,0.789243,0.757740,0.589384,0.280100
0.116651,-0.354439,-0.431736,0.812931,-0.512606,-0.276367
0.065823,0.587590,0.328666,0.583403,-0.692209,-0.424838
-0.048387,0.412252,0.820834,-0.708087,-0.385797,0.591417
-0.143693,-0.155071,-0.365111,0.711410,0.700696,0.054054
-0.288037,0.139201,0.673613,0.059862,0.635740,0.769578
0.242261,0.803135,0.332137,-0.648566,0.135921,0.748924
-0.077383,-0.174393,0.822099,0.529207,0.310304,-0.789716
0.121051,-0.113751,0.957525,0.803121,-0.554479,0.218058
-0.052131,0.206910,0.767859,0.965661,-0.123396,-0.228631
0.373902,0.725213,0.341373,-0.200132,-0.297856,-0.933396
-0.137991,-0.340765,0.608724,0.316237,-0.930887,0.182874
0.183613,0.033461,0.804656,-0.269034,-0.806125,0.527051
-0.224015,-0.089078,-0.146412,0.907094,0.329395,0.262066
-0.546269,-0.102282,-0.982969,-0.154961,0.058040,0.986214
-0.339850,-0.134483,-0.975497,0.078318,0.134636,0.987795
-0.366241,0.440847,0.227362,0.744953,0.132457,0.653835
-0.325998,-0.344227,-0.954113,0.837568,-0.006544,-0.546295
0.098245,-0.352713,0.826188,0.859329,-0.422646,-0.287966
0.078203,-0.399844,0.786655,0.285704,0.482567,-0.827950
-0.226456,-0.281073,0.481035,0.449032,0.369631,-0.813476
-0.018570,-0.285781,-0.044225,0.419315,0.901799,0.104560
0.237214,0.046973,0.811039,0.143808,0.977614,-0.153588
-0.572008,-0.273373,0.599223,-0.016530,0.844814,0.534804
-0.417561,0.341714,0.684556,0.128406,-0.579092,0.805087
-0.625934,0.695209,0.485182,-0.259148,-0.116146,0.958829
0.049530,-0.166693,0.937611,-0.625743,0.517254,-0.583861
0.621215,-0.054049,0.586693,0.393504,-0.299574,-0.869143
-0.132288,0.107777,0.334902,-0.602163,-0.770693,0.208405
-0.172366,0.021839,0.699557,-0.120246,-0.695757,0.708141
0.242425,0.001098,0.232598,0.487834,-0.872929,-0.003645
-0.398175,0.065671,-0.203036,0.890509,0.446955,0.085001
-0.071521,-0.448547,-0.929757,0.700382,-0.668990,0.248830
0.102481,-0.019327,0.865869,0.858727,-0.376856,-0.347227
0.712772,-0.127569,0.707440,-0.241759,-0.670273,0.701632
-0.212116,0.087669,-0.403321,-0.022354,0.863794,0.503348
-0.079665,-0.075567,-0.157884,0.937554,0.347698,0.009949
-0.029325,-0.175966,-0.313018,0.863670,0.475973,0.165905
-0.647765,-0.085310,0.589399,-0.036205,-0.671924,0.739734
-0.309382,-0.632678,-0.967467,-0.290009,0.298270,0.909357
-0.698270,-0.099761,0.455532,-0.190699,0.885018,0.424707
-0.268652,0.300865,0.714941,0.655109,0.701489,-0.280617
-0.123815,0.092224,-0.113056,-0.226210,-0.416289,0.880643
0.147770,-0.068184,0.099525,-0.269988,-0.911710,-0.309663
-0.218635,-0.286720,0.283456,0.075580,0.991818,-0.102885
0.426525,0.034880,0.347374,0.631879,-0.767048,-0.111204
0.058002,0.453725,0.468798,0.494227,0.321565,-0.807673
-0.340009,-0.893474,-0.964790,-0.236594,-0.224999,0.945198
-0.310198,-0.159943,0.829600,-0.447360,-0.855550,-0.260582
-0.038935,0.828277,0.200477,0.459826,-0.690876,-0.557898
-0.211957,-0.645873,0.814657,0.685863,0.715392,-0.133439
-0.578849,0.479338,0.481006,0.558531,0.803689,-0.205248
-0.050828,-0.461588,-0.905667,-0.145743,-0.821359,0.551479
-0.586670,-0.639275,-0.981410,-0.258478,-0.015033,0.965900
-0.741605,-0.034718,-1.000000,0.334395,-0.379022,-0.862857
-0.074455,-0.488141,0.592605,0.883836,0.252263,0.393950
-0.058977,0.596853,0.689880,0.904747,-0.012688,-0.425760
0.217501,-0.581616,0.676967,-0.351228,-0.068933,-0.933749
0.247641,-0.720188,0.800215,0.681021,-0.708384,-0.185481
0.132780,0.086250,0.481182,0.644813,0.737978,0.199009
-0.151678,-0.135586,-0.003662,0.983525,-0.076272,-0.163892
0.060935,-0.183819,0.996588,0.465098,0.499743,-0.730713
-0.169433,-0.201886,-0.204977,0.765553,-0.155884,0.624203
0.708701,0.038332,-0.121498,0.026575,0.653202,0.756717
0.353865,-0.166223,0.199182,-0.362898,0.145583,-0.920386
0.002934,-0.094266,0.829924,0.784732,-0.006827,-0.619797
-0.530463,0.544064,0.430324,0.307187,0.740744,0.597440
-0.068752,-0.278397,0.600724,0.999016,0.039405,0.020360
-0.261646,0.069440,-0.528863,0.233892,0.034136,-0.971663
-0.108666,-0.142183,-0.034430,0.975536,-0.073489,0.207193
-0.490712,-0.432053,-0.978057,0.422537,0.022279,-0.906072
-0.335122,-0.475253,-0.968732,0.289034,-0.184407,-0.939390
0.211962,-0.126630,0.386849,0.993811,0.014669,0.110109
-0.254805,-0.425610,0.710088,0.289014,0.862141,-0.416154
-0.207721,-0.213037,-0.078317,0.949090,-0.072441,-0.306562
0.263605,0.146421,0.862574,0.932681,0.203522,-0.297800
0.134088,-0.086729,0.815510,-0.226087,-0.132265,0.965086
-0.036166,-0.116733,0.187181,0.926842,0.026085,0.374543
-0.145160,-0.076201,0.754181,-0.063692,0.735058,0.675006
0.129851,0.177845,0.564279,0.015386,-0.016089,0.999752
-0.166012,0.176743,0.812216,0.705989,0.510383,0.491007
0.001467,-0.079182,0.850073,-0.700001,0.006619,-0.714111
-0.372108,0.341867,0.708823,0.475757,0.742027,-0.472283
0.567126,-0.233463,0.794067,0.964615,0.179098,-0.193497
-0.031930,-0.170308,-0.449767,0.513135,0.854746,0.078109
-0.127400,-0.339039,0.226362,0.012710,0.904932,-0.425367
0.024278,0.050271,0.604077,-0.157478,0.075674,0.984619
-0.020365,0.074157,0.749386,0.915816,-0.189713,0.353962
-0.147601,-0.027814,-0.303105,0.829734,0.551073,0.088658
0.181007,-0.207543,0.175797,0.855897,0.339341,0.390242
-0.396544,0.238334,0.661730,-0.512425,0.222097,0.829514
-0.249425,0.088292,-0.022870,0.813513,0.505960,-0.286707
0.137016,0.042887,0.395203,-0.623663,-0.693269,-0.361140
-0.018570,0.337150,0.771771,0.776136,0.601684,-0.188649
-0.227271,-0.637702,0.754828,0.946865,0.213031,-0.240966
-0.786412,-0.180674,0.453856,0.363245,0.499681,-0.786366
-0.162591,-0.234882,-0.184534,-0.573573,0.759758,-0.306239
-0.645483,0.467082,0.715647,-0.271537,-0.408728,0.871326
-0.206742,-0.255306,0.798773,-0.234639,0.721243,-0.651731
-0.168458,-0.061116,0.400026,0.963356,-0.267447,0.020413
0.283155,-0.492696,-0.228097,0.136893,0.973789,0.181649
-0.655909,-0.170308,-0.985293,-0.261531,0.031144,0.964693
0.180192,-0.714214,0.804950,-0.423394,0.902748,0.076052
-0.146135,0.106358,0.333049,0.678421,0.327906,-0.657436
0.039591,-0.104632,0.865251,0.751683,-0.659475,0.008137
-0.066141,0.518461,0.681408,0.039461,-0.931069,0.362702
-0.702670,-0.607065,-0.972409,-0.019654,0.167375,0.985697
-0.541540,0.439274,-0.204477,-0.763768,-0.245282,0.597072
0.093029,-0.380675,0.874075,0.899526,0.279351,0.335880
-0.174161,0.295830,0.809216,0.920986,-0.338127,0.193530
0.463998,-0.257186,0.378495,-0.261891,-0.699953,0.664439
0.240307,0.094736,0.839337,-0.287555,-0.092406,0.953296
0.048550,-0.277611,-0.912167,0.882915,-0.388454,0.263752
-0.007816,0.217909,0.681732,0.996015,-0.076599,0.045689
-0.058485,0.115631,0.326489,-0.012552,0.376182,0.926461
0.462203,0.205337,0.555425,0.441886,-0.851783,-0.281428
0.344086,-0.003611,0.578192,0.413875,-0.315224,-0.854015
0.233953,-0.390887,0.877958,0.326368,0.881024,0.342463
0.250082,-0.358054,0.670201,0.504367,-0.151601,0.850077
0.510102,0.419789,0.004662,0.291891,-0.956008,0.029129
-0.054249,0.026241,0.760240,-0.082236,0.919000,0.385586
0.092050,-0.243838,0.954378,-0.316929,0.486798,-0.813992
0.059633,0.086413,0.459886,0.357536,-0.692607,-0.626469
0.012708,0.283268,0.461533,0.308821,0.100959,0.945747
0.119585,-0.278244,-0.028223,0.847008,0.501703,-0.175702
-0.719614,0.579420,-0.255512,0.694820,0.120599,-0.709000
0.312320,-0.020267,0.812628,0.397143,0.812548,-0.426665
0.236563,-0.099291,0.746327,0.021400,0.733756,0.679076
-0.492830,-0.243358,0.473269,0.341693,0.801054,-0.491486
0.272893,-0.014609,0.430618,-0.298631,0.834859,0.462418
-0.057510,0.661110,0.698498,0.406784,0.616466,-0.674163
-0.541381,0.300078,0.577515,0.893046,0.449387,0.022798
0.078690,-0.629379,-0.049902,-0.435913,0.777197,-0.453810
-0.426848,0.372188,0.683320,-0.169868,0.344888,-0.923145
0.577552,-0.126946,0.756916,-0.361890,0.885556,0.291250
-0.346204,0.405338,0.197447,0.827346,0.415300,0.378185
-0.110948,0.029060,0.471092,0.040703,-0.999059,0.014967
-0.016129,-0.836447,0.581663,-0.256090,0.950326,-0.176915
-0.307100,-0.073218,0.463151,-0.702858,0.502884,0.503088
-0.174484,-0.397485,0.499390,-0.602607,0.704382,0.375113
0.046925,0.332442,0.560160,0.670765,0.173520,-0.721087
0.063213,-0.046033,0.924051,-0.279620,0.793831,0.540041
-0.175787,0.130561,0.710353,-0.707954,-0.303981,0.637492
0.018739,0.001098,0.617166,-0.511179,0.689177,0.513548
-0.363143,0.072268,0.661583,-0.452241,-0.811368,0.370352
0.008472,-0.083114,0.735326,-0.280602,-0.839356,0.465558
-0.158355,0.300231,0.700204,0.120749,-0.910755,-0.394899
-0.530140,-0.342500,0.441501,-0.655762,-0.473211,0.588257
0.652493,-0.290336,0.806774,-0.502380,-0.172216,0.847323
-0.171715,-0.259861,0.484976,0.595585,0.651055,-0.470538
-0.108502,-0.361190,-0.550777,0.969905,-0.227123,0.087745
0.166504,-0.486884,0.839366,-0.676982,-0.726565,-0.117468
-0.322413,0.058288,0.736855,0.716652,0.573467,0.396920
0.213265,-0.243051,-0.345697,0.023804,-0.753200,0.657361
0.365594,-0.222780,0.475828,-0.127170,0.595091,0.793533
-0.154935,-0.069440,-0.378936,0.166363,0.961880,0.217050
0.191598,0.519401,0.341109,-0.024841,-0.075219,0.996858
-0.235092,-0.347525,0.828806,0.150621,-0.391748,0.907660
-0.297976,-0.210995,-0.955407,-0.131999,-0.645269,0.752466
-0.238025,-0.266612,0.372347,0.229263,0.876996,0.422276
0.195182,0.032052,0.840131,0.953921,-0.255025,-0.158102
0.749107,0.534015,0.011722,-0.284352,0.957103,-0.055657
-0.116974,-0.090335,0.666583,-0.639102,-0.512222,0.573740
-0.032417,-0.432053,0.807333,0.796427,0.193838,-0.572828
0.142718,-0.020113,0.923051,-0.306791,-0.860702,0.406289
-0.354020,0.222626,0.033606,0.121235,0.681744,0.721476
0.535191,-0.796853,0.596135,-0.189476,0.787397,0.586604
-0.154283,-0.028120,0.220802,0.331026,0.158742,0.930173
-0.619579,0.622302,0.223038,-0.621527,0.377362,0.686515
-0.013519,-0.041162,-0.036460,0.710258,0.699745,-0.076745
-0.614205,-0.306052,-0.985999,-0.264512,0.074362,0.961511
0.020365,-0.793872,0.583486,-0.432061,0.844191,-0.317278
-0.246984,-1.000000,-0.963555,0.122466,0.041752,-0.991594
-0.208537,0.205030,0.723207,0.521473,-0.606044,-0.600647
-0.051156,-0.183819,0.933111,-0.204652,0.397761,0.894373
-0.318834,-0.252948,0.816716,-0.441139,0.360668,-0.821776
0.065659,0.007379,0.373965,-0.002289,-0.750056,0.661370
0.705444,0.042571,0.744444,0.538382,0.132200,-0.832267
-0.584881,-0.263783,0.668142,-0.716060,-0.529761,0.454546
0.276801,-0.016815,0.567573,0.021859,0.887516,0.460259
0.310202,-0.305266,0.761681,-0.440809,0.877098,0.190754
0.168786,-0.250742,0.937905,-0.011440,0.904769,0.425748
-0.142062,-0.275415,-0.701852,0.985706,-0.166301,0.026983
-0.031278,-0.000945,0.459503,-0.048526,0.329658,0.942852
-0.355650,-0.240223,0.825247,0.669793,-0.080409,0.738182
-0.412838,-0.340142,0.780066,-0.520411,0.569615,0.636169
0.006518,-0.224036,0.935376,0.935840,0.206766,0.285395
-0.319321,-0.065048,0.343079,0.261941,0.434973,0.861502
-0.351743,-0.090814,0.557307,-0.620070,-0.559911,0.549556
0.008313,-0.046665,0.375436,0.171520,-0.362864,0.915920
-0.236395,-0.660016,0.816658,0.534637,0.833487,-0.139512
-0.152329,0.123801,0.316871,0.356688,-0.329728,0.874101
-0.208373,-0.012730,0.749827,-0.777939,0.604633,0.170968
-0.197783,0.207543,0.528893,0.328831,-0.801382,0.499656
0.092865,-0.230011,0.834777,0.673546,0.723116,-0.153098
-0.262626,-0.282952,0.248423,0.478687,0.064107,0.875642
-0.105897,-0.613193,0.849985,0.896278,0.432343,-0.098819
-0.140759,0.264099,0.673143,-0.057520,-0.756392,0.651585
-0.187356,-0.253417,-0.737208,0.304461,0.943205,-0.132922
-0.091235,-0.402510,-0.446090,-0.731595,0.495846,0.467874
0.028350,-0.168736,0.927581,-0.554543,-0.831954,0.018282
-0.076731,-0.308718,-0.065639,0.879454,-0.180863,-0.440282
-0.325675,0.388059,0.719618,-0.384706,-0.388109,0.837480
-0.156565,-0.309820,-0.551777,0.928475,0.302663,0.215243
-0.199901,0.046819,0.276219,0.774652,0.599258,-0.201998
0.030468,-0.111862,-0.960937,0.462706,-0.011152,-0.886441
-0.449983,-0.188221,-0.969350,-0.327108,-0.151481,0.932767
0.251713,-0.317521,0.185652,-0.453488,-0.528071,0.717976
-0.202019,-0.326477,0.368611,0.425978,0.678904,-0.598024
-0.512544,0.282012,-0.557690,-0.214194,0.267103,0.939562
-0.167807,0.134167,0.222273,0.472872,-0.680980,0.559159
-0.053925,-0.130561,0.743474,0.916417,-0.320795,0.239313
0.184100,-0.082798,0.815687,0.329960,0.182022,0.926280
-0.435156,-0.149567,0.853691,0.808790,-0.219192,0.545723
0.072500,-0.611150,0.604842,-0.555351,0.784859,0.274920
-0.299120,0.144542,-0.099760,0.895303,-0.044084,-0.443271
-0.206578,-0.399374,0.748651,0.311991,-0.844261,-0.435758
0.059469,0.608321,0.312194,0.406947,-0.833187,-0.374424
-0.374877,0.307308,0.669142,-0.711427,-0.603850,0.359494
0.129851,0.436915,0.338638,-0.090937,-0.384787,0.918515
-0.040730,-0.269757,0.732767,0.951441,-0.179786,0.249875
-0.045289,0.352704,0.663260,0.857676,0.487129,-0.164612
-0.217819,0.303060,0.679320,0.047215,0.986136,-0.159082
0.041058,0.114221,0.707617,0.967268,0.029032,0.252089
0.457968,-0.375967,0.792567,-0.301522,0.904489,-0.301636
-0.275657,0.437078,0.463003,0.880384,0.236160,0.411282
0.224830,-0.486568,0.710264,-0.604410,-0.168184,0.778719
0.474589,-0.146422,0.620814,0.592087,0.664019,0.456632
0.450475,0.607228,0.598459,-0.054021,-0.521243,0.851697
0.116492,-0.449487,0.767388,0.910864,0.329673,-0.248280
0.035191,0.128202,0.775742,0.179671,-0.220628,0.958667
0.337737,-0.448700,0.724972,0.913647,-0.184859,0.362044
0.647283,0.175649,0.205859,-0.032215,0.573772,0.818381
0.066474,-0.231890,-0.958466,0.436685,0.237616,-0.867666
0.031283,0.064732,0.760740,0.849781,0.340883,-0.402083
0.191921,0.676826,0.589017,0.664352,0.390409,-0.637351
0.704957,-0.196861,0.780889,0.842262,-0.535196,0.064497
-0.459106,0.819637,0.491859,0.378823,0.007885,0.925435
0.388241,0.769199,0.337902,0.460616,0.356265,0.812963
-0.164382,0.111076,0.315076,0.570543,0.821233,-0.007519
0.098404,0.625917,-0.124910,0.773900,-0.086144,0.627421
-0.180187,-0.372352,0.774800,-0.138908,0.989189,-0.047003
-0.289181,0.190570,0.715853,0.555283,0.364609,0.747476
-0.275006,0.121288,0.559102,0.212970,0.331733,0.919020
-0.157053,-0.297249,-0.950495,0.075275,0.462267,0.883540
-0.500323,0.301651,-0.300075,0.816639,0.576971,0.014308
0.199090,0.102590,0.878399,0.004486,-0.347455,0.937686
-0.096281,-0.496464,0.436824,0.564694,0.527161,-0.634998
-0.261970,-0.200945,0.830247,0.428809,0.566288,0.703876
-0.008467,-0.052476,0.165120,0.416696,0.710906,-0.566549
0.237051,0.389468,0.339814,0.023756,-0.223813,0.974343
-0.189962,0.027497,0.836513,0.835010,0.517813,-0.186085
-0.172694,-0.264416,-0.970879,-0.287458,0.168628,0.942832
0.601337,0.188374,0.689968,0.962440,0.092127,0.255384
-0.390842,0.949091,0.477123,0.860394,-0.495683,-0.118413
-0.070541,-0.538100,-0.099907,0.927571,0.182606,0.325987
-0.115835,-0.322546,-0.573927,-0.110755,-0.992577,0.050250
0.090911,0.306675,0.455032,-0.003274,-0.409938,0.912108
0.167483,-0.346892,0.855926,0.615376,0.777586,-0.129120
-0.142062,0.312956,0.674084,-0.330594,0.469704,-0.818587
-0.110456,0.693473,0.714235,-0.452675,0.681802,-0.574657
-0.711794,0.685303,0.437795,-0.186409,0.757574,0.625566
-0.029976,-0.373608,0.070816,0.977811,0.077065,0.194800
-0.764580,-0.064732,-0.988705,-0.308234,0.220402,0.925427
-0.225804,0.280276,0.718236,-0.573181,-0.766941,0.288557
0.113723,-0.312180,0.888577,-0.754063,-0.656127,0.029771
-0.325347,-0.223096,0.437383,-0.811808,0.490291,-0.317147
-0.175135,0.042264,0.759799,0.741994,0.219824,-0.633342
0.491204,0.098821,0.577074,-0.445357,0.734796,0.511598
0.242754,-0.697874,0.644405,-0.006300,-0.889866,0.456178
0.054090,-0.367164,-0.956701,-0.224866,0.339357,0.913385
-0.288530,-0.337159,0.470004,0.580701,0.068769,-0.811208
0.417566,0.024035,0.690615,0.354486,-0.935045,-0.005600
-0.369497,-0.087199,-0.970703,-0.145464,-0.021123,0.989138
0.241610,0.872262,0.340726,-0.605839,-0.175393,0.776013
-0.104430,-0.812877,0.762799,-0.036190,0.821070,0.569680
-0.746656,0.432207,0.454297,0.566430,-0.065090,-0.821535
-0.022642,0.352550,0.323048,-0.631124,0.468311,0.618358
-0.144344,0.025924,0.681938,0.943556,0.233233,0.235168
-0.096281,-0.567634,0.878252,0.704887,0.658189,-0.264426
-0.386441,-0.509352,-0.972321,-0.003031,0.037306,0.999299
-0.048874,-0.142970,0.966997,0.832782,0.233119,-0.502125
-0.014170,-0.146268,-0.073258,0.966268,0.257494,-0.004778
-0.593840,0.038016,-0.992323,0.014221,-0.116855,0.993047
-0.104430,0.083737,0.327666,0.596376,0.663049,-0.452440
0.042361,-0.234719,-0.560190,-0.219164,-0.931426,-0.290538
-0.037955,0.053886,0.565926,-0.340954,0.132654,-0.930673
-0.007980,-0.221207,-0.428265,0.896305,0.438821,0.063828
0.195992,0.065518,0.893430,-0.684999,0.724042,-0.080863
0.637667,-0.238804,0.709705,-0.105779,0.854650,-0.508316
-0.065654,-0.242265,-0.028223,0.966486,-0.048006,0.252189
-0.243723,0.280756,0.452796,-0.244967,-0.802902,0.543451
0.553602,-0.116887,0.583869,0.147098,-0.251551,-0.956600
-0.848481,0.486721,0.446619,0.863887,0.037154,-0.502314
0.008964,-0.148944,0.236010,0.178330,0.879224,0.441773
-0.426356,-0.219012,0.870487,-0.347371,-0.906626,-0.239506
-0.167807,-0.210372,0.462886,0.941189,0.332621,-0.059393
0.605086,-0.082328,0.662465,0.848722,0.329049,-0.414003
0.313135,0.769831,0.345021,-0.020449,0.222954,0.974614
-0.390355,0.550355,0.065874,0.122423,0.565605,-0.815539
-0.496415,0.136209,0.563249,0.542810,0.399411,0.738802
-0.273540,0.342338,0.231421,0.831034,-0.084345,-0.549790
