0.359651,-0.239469,-0.155712,0.704312,0.265567,-0.658346
-0.285175,0.028743,0.604729,0.264820,-0.907780,-0.325277
-0.204815,-0.082567,0.191706,0.228271,0.504053,-0.832960
0.138317,0.106979,0.438510,-0.296535,0.935090,-0.194098
0.688928,0.363864,0.167324,-0.088432,0.996080,-0.001870
-0.370152,0.406514,0.342946,0.988361,0.055341,0.141705
-0.240234,0.445483,0.437352,0.700756,-0.243792,0.670452
0.216856,0.374158,-0.259205,0.498244,-0.762460,0.412804
-0.310232,0.202115,0.239839,0.888754,0.373947,-0.265102
0.204256,0.264608,-0.166132,0.954555,-0.178018,0.239028
-0.061460,-0.216385,0.776176,0.062405,0.217162,0.974139
-0.192357,-0.019193,0.734393,0.474472,-0.443831,0.760191
-0.403054,-0.782372,0.453981,0.859643,-0.214649,-0.463617
0.733306,0.125647,0.426196,0.837633,0.250800,0.485254
-0.024081,0.223583,0.192619,0.414221,0.030186,0.909675
-0.476270,0.127271,0.622375,0.169320,-0.389340,0.905398
-0.213634,0.183437,0.423916,-0.050956,0.397393,0.916233
-0.093379,0.135501,0.423354,0.058852,0.736938,0.673393
-0.572869,-0.613416,0.126208,0.717989,-0.146319,-0.680502
0.183117,0.250643,0.736708,0.953614,-0.286680,0.091838
0.418175,0.416512,0.309232,-0.150408,-0.311464,-0.938279
-0.359933,-0.135950,0.694364,0.834321,0.417373,0.360150
0.157500,-0.730317,-0.963725,0.180527,-0.384270,-0.905398
-0.041858,-0.088894,0.233700,-0.632908,0.564580,0.529790
0.011060,0.077863,0.771299,0.050205,0.568177,0.821374
0.379954,0.325639,0.075199,0.602642,-0.790671,-0.107994
-0.229035,-0.830308,0.465979,0.994273,-0.061143,0.087647
-0.147275,-0.281526,0.850339,-0.330545,-0.784710,-0.524377
0.173038,0.212849,-0.154098,0.945854,-0.271173,-0.178399
-0.034860,-0.071985,-0.700433,0.181752,-0.969489,-0.164493
-0.121799,-0.056835,0.865390,-0.825989,-0.561944,0.044283
0.243874,0.506944,0.692259,0.278132,-0.749453,0.600802
0.531149,0.434453,0.317722,0.330784,-0.611624,-0.718678
-0.182697,0.036102,0.782140,0.031313,0.866193,-0.498727
0.193618,-0.665023,0.722851,0.239851,-0.315740,-0.918030
-0.345373,0.183877,0.223702,0.972961,0.228857,-0.031169
0.589531,0.066393,0.698188,-0.503563,0.725539,0.469060
0.574830,-0.375926,0.533968,0.286645,0.702110,-0.651825
-0.522608,-0.195500,-0.276676,-0.552017,0.816128,-0.170917
0.236458,-0.420487,0.723588,0.889343,0.014880,-0.456999
0.129776,0.062417,0.820063,-0.365174,0.926779,-0.087916
0.001959,0.516799,-0.007280,-0.482931,0.828225,0.284291
0.129640,0.005515,-0.492817,-0.566555,0.781735,-0.260587
-0.367632,-0.106835,0.611921,0.644796,0.589055,-0.487085
0.076158,-0.384901,0.683068,-0.555625,0.477351,0.680748
-0.389331,-0.313872,0.404761,0.365425,0.928064,-0.071851
0.084279,-0.039486,0.849673,0.901315,-0.342580,0.265086
0.172338,0.204762,0.240927,0.909690,-0.414252,0.029322
-0.114237,-0.285646,0.430757,-0.399891,-0.009169,0.916517
0.374212,0.190797,0.760775,0.241856,-0.373883,0.895387
0.755146,-0.472390,0.453455,0.775239,-0.479560,0.411129
-0.309395,-0.038750,0.403322,-0.322350,0.876227,0.358213
0.061739,-0.400491,0.394096,-0.384843,0.673074,-0.631560
-0.498110,-0.056251,0.439492,0.236489,0.962686,0.131564
-0.237016,0.037422,0.674297,-0.678388,0.371397,-0.633920
-0.661486,-0.221824,0.414303,0.080110,-0.975897,0.202997
-0.657709,-0.719286,0.362802,-0.506774,-0.655553,-0.559849
0.030379,-0.402250,0.652897,-0.102386,0.956985,0.271472
0.093657,-0.066689,0.862548,0.675188,-0.102334,-0.730513
0.343276,0.276231,-0.958393,-0.326278,-0.378155,0.866338
-0.495312,0.158002,0.577470,-0.755290,0.638350,0.148483
-0.414811,-0.368728,-0.404971,-0.124968,0.991208,-0.043465
0.398291,-0.379902,0.483310,0.273978,0.945175,0.177706
0.495449,0.314016,0.177323,-0.602040,0.798373,-0.012211
-0.548790,-0.106682,0.519164,0.395637,-0.853823,-0.338317
0.008261,-0.053604,-0.233665,0.743258,-0.669005,-0.000185
-0.195015,0.065505,0.759582,-0.623509,0.593455,0.508967
-0.317235,-0.174920,-0.254995,0.069073,0.901779,0.426643
0.162678,0.039630,0.572734,0.184967,0.336812,0.923225
0.244434,0.446067,-0.931976,0.482322,0.416497,0.770646
-0.218534,0.200347,0.346349,-0.046494,0.998736,0.019115
-0.611367,-0.154475,-0.145082,0.372814,0.866129,-0.332913
0.034861,0.026688,0.891035,-0.317064,-0.003169,0.948399
0.425451,-0.545331,0.156063,0.566002,0.606909,-0.557945
0.083019,-0.282406,-0.098493,0.326226,-0.930169,-0.168411
-0.266834,-0.499747,0.785262,0.994641,0.031907,-0.098338
-0.239114,0.220936,0.117508,-0.112375,-0.943677,-0.311201
0.255777,0.341076,0.118911,0.107485,0.993587,0.035096
0.199915,0.209905,-0.140837,-0.751182,0.406985,-0.519700
0.429932,0.065801,-0.966251,0.220815,0.027893,-0.974917
0.138598,-0.426806,0.686506,-0.143794,0.608943,0.780072
0.463953,-0.307994,0.524601,-0.534193,-0.691793,0.485861
0.531572,-0.332406,-0.951972,0.403034,-0.046861,-0.913984
0.100100,0.183294,0.198723,-0.401619,0.612167,0.681142
0.037241,0.749721,-0.235419,-0.212950,-0.313556,0.925384
0.033741,-0.109922,0.932396,0.685289,0.689079,0.235689
0.324374,0.280198,0.154169,-0.648480,0.690088,0.321329
0.097580,-0.244764,0.762599,0.196977,-0.549718,0.811795
0.082600,-0.521062,-0.973653,0.247616,-0.090185,-0.964652
-0.025760,-0.230063,-0.644582,-0.429893,0.165094,0.887658
-0.331372,0.002571,0.513972,0.568158,0.606734,-0.555941
-0.005598,0.276231,0.051027,0.831025,-0.525087,-0.183526
0.168838,-0.309026,0.663597,0.890268,-0.170942,0.422139
-0.594709,-0.074632,0.645284,-0.104335,-0.881280,0.460933
-0.228895,0.403570,0.581399,0.264724,0.920521,-0.287336
0.156239,-0.603409,-0.967619,0.427913,-0.213081,-0.878343
-0.199915,-0.790163,-0.126804,0.819755,0.571706,-0.033985
-0.008961,-0.223295,0.876125,0.562830,0.630186,0.534871
-0.079797,-0.360632,0.461734,0.963563,-0.225193,0.144344
0.290353,0.446946,0.266747,-0.327304,0.720287,0.611603
-0.185496,-0.332989,0.571331,0.558782,0.017509,-0.829130
-0.609547,-0.465040,0.359540,-0.533020,0.409580,-0.740360
-0.005740,0.065361,0.579575,0.138420,0.561124,-0.816076
0.226657,-0.249907,0.857075,0.832636,0.442633,-0.332856
0.328292,-0.251971,0.251873,-0.093734,0.566300,-0.818852
-0.003920,-0.681492,0.448368,0.159161,0.713516,0.682321
-0.371413,0.571206,0.477100,0.930140,0.021654,0.366565
0.233655,0.065657,-0.968952,0.130548,0.356880,0.924983
0.328292,-0.388132,-0.967374,-0.167519,0.107582,0.979981
-0.131459,-0.516360,0.584802,-0.506327,0.489850,0.709704
-0.546127,-0.515776,0.067235,-0.717066,0.688787,0.106721
0.090859,-0.033311,-0.947061,0.021306,0.539706,0.841584
0.727008,-0.386660,0.527689,-0.323683,-0.667939,-0.670140
-0.072940,-0.026104,-0.505797,-0.130066,0.794577,0.593068
-0.219094,-0.003164,0.213703,0.638125,0.253088,0.727147
-0.366093,0.243580,0.242891,0.987895,0.039059,-0.150126
-0.129639,0.419007,0.683594,-0.654457,-0.440804,0.614310
-0.461992,-0.200795,0.490256,-0.659071,0.512652,-0.550285
0.128379,0.107715,0.829501,0.803989,-0.537457,0.254444
0.293293,-0.205947,0.722886,-0.086127,0.928165,0.362067
0.370853,-0.321519,-0.968426,0.148924,-0.073624,-0.986104
-0.506651,-0.034783,0.449140,-0.433476,-0.032946,0.900563
-0.055718,0.380782,0.196267,-0.312244,-0.589623,-0.744882
-0.146998,-0.716342,0.056395,-0.144873,-0.983290,0.110243
0.284197,-0.344459,-0.969373,-0.124848,-0.017868,0.992015
-0.703766,0.040805,0.660299,0.797881,0.571896,-0.190582
-0.247095,0.172856,-0.066954,0.080270,0.966654,-0.243179
0.156239,-0.081983,0.825396,0.430539,-0.851477,0.299373
0.044379,-0.039486,-0.692961,-0.581988,0.788841,0.197533
-0.312753,0.013449,0.508674,0.568158,0.606734,-0.555941
-0.440151,-0.308873,0.323826,0.863926,-0.296933,0.406770
0.027858,-0.261530,0.412198,0.815052,0.024288,0.578879
-0.210835,0.189029,0.519514,-0.131664,0.166461,0.977218
-0.122495,-0.159627,0.945868,-0.599155,0.414499,-0.684984
-0.209015,0.062713,0.257626,0.923247,-0.201827,0.326927
0.431052,-0.265936,-0.146977,0.939737,0.134963,-0.314134
0.084279,-0.730020,0.702363,-0.396071,0.774876,0.492641
0.014981,-0.165362,0.800347,0.190591,0.700560,0.687670
0.170518,0.239020,0.753969,0.918104,-0.268216,-0.291795
-0.012319,-0.379606,-0.628971,0.674126,0.651300,0.348371
0.091277,-0.741050,-0.957866,-0.481946,0.040053,0.875285
-0.446453,0.580765,0.292357,0.556482,-0.219665,-0.801296
0.309113,-0.593123,0.292533,-0.179623,0.875622,0.448355
-0.277895,0.353722,0.082987,-0.036152,0.210744,0.976873
0.132579,-0.323287,0.787507,-0.739627,0.668661,0.076452
-0.163378,0.093157,0.753969,0.681701,-0.480351,-0.551857
-0.238136,0.148004,0.672297,-0.582612,0.008486,-0.812706
0.217556,0.348579,0.565367,-0.527182,0.813301,-0.246212
-0.421810,-0.299611,0.349331,-0.536130,-0.589515,-0.604182
0.238696,-0.181831,0.423459,0.782749,-0.581303,0.222241
0.208315,0.472974,-0.941834,-0.218821,0.475289,0.852184
0.592048,0.217552,0.332737,-0.340101,-0.324482,0.882634
0.369875,0.549738,0.713168,-0.231621,-0.916897,0.325042
-0.488451,-0.269176,0.662369,0.374343,0.719555,-0.584899
-0.118296,0.196523,0.548984,0.987926,0.088835,-0.126931
0.360493,0.214177,0.808486,-0.246937,0.419870,-0.873345
-0.299175,0.264168,0.275378,0.892795,0.140857,-0.427874
-0.390314,0.458273,-0.093406,0.341855,0.935242,0.091963
0.127118,0.033894,-0.536529,-0.590698,0.446225,0.672279
-0.287837,-0.194476,0.104457,0.819077,0.380387,0.429439
0.283214,-0.254323,0.283376,0.908992,-0.385002,0.159707
-0.203555,-0.189765,-0.058921,0.781311,-0.418651,0.462908
-0.288956,0.215353,0.797190,-0.253280,0.945771,-0.203386
-0.093939,-0.318144,0.747373,-0.024682,0.254271,0.966818
0.098698,0.472830,-0.971443,-0.372512,0.386778,0.843586
0.025342,-0.002724,0.653984,0.337233,0.575112,0.745333
-0.424890,0.130206,0.852269,-0.458251,0.840540,0.288962
-0.514632,0.144324,0.490466,-0.197324,-0.751980,0.628958
0.407532,-0.275055,0.582206,0.006271,-0.978779,0.204822
-0.188435,-0.097277,0.780245,0.515226,0.754509,-0.406520
0.043401,0.056538,0.726184,0.117479,0.718972,-0.685038
-0.026461,-0.468280,0.844832,0.716862,-0.590536,-0.370643
-0.200616,-0.145212,0.310425,0.906285,-0.047058,-0.420040
-0.053197,-0.345492,0.773299,0.714032,0.580006,-0.392112
-0.181019,-0.311081,-0.056430,0.988559,0.102239,0.110898
0.287837,0.078151,0.758880,-0.214046,-0.023895,0.976531
-0.164078,0.076831,0.304391,0.112637,-0.992014,0.056763
-0.183676,-0.166241,-0.992633,-0.217259,-0.017118,0.975964
0.059918,-0.112417,-0.272817,-0.399017,0.915784,-0.046107
-0.635728,-0.248884,0.646863,0.829175,0.534180,0.164679
-0.032057,-0.650465,0.635321,0.094743,-0.824433,-0.557973
0.178776,-0.227703,-0.966953,-0.158896,0.128774,0.978861
-0.486490,0.541938,0.416373,0.890236,-0.265689,-0.369986
0.151475,-0.144477,-0.181778,0.394825,0.488784,-0.777948
0.498111,0.497386,-0.222193,0.197771,-0.495577,0.845748
-0.019740,-0.048604,-0.745724,-0.081521,0.985486,-0.148904
0.211396,0.003604,-0.457173,0.855517,-0.379178,0.352583
-0.352512,0.077567,0.198513,0.550619,0.265712,-0.791338
-0.164916,-0.261970,0.747514,0.356773,0.042883,0.933206
-0.031639,0.033302,0.448122,0.595217,-0.020228,-0.803310
-0.073359,-0.108010,0.677981,0.731907,-0.669920,0.124575
-0.163937,-0.213297,0.752530,0.532508,0.039411,0.845507
-0.111998,-0.228439,0.791226,-0.542740,0.464108,0.700026
0.152736,0.078151,-0.960743,-0.135183,0.188512,0.972722
0.191935,0.304753,0.757828,0.856988,0.004207,-0.515320
-0.041021,0.391364,0.669315,-0.704472,-0.507667,0.495978
-0.042277,0.715750,-0.233980,-0.238423,0.366978,-0.899156
0.377433,0.133006,0.325966,-0.377149,0.549430,0.745577
-0.351811,0.708839,0.470820,0.454578,-0.295084,-0.840407
-0.123619,0.408721,0.609114,0.609239,0.282860,-0.740823
-0.022120,-0.054043,-0.769300,0.889622,-0.414605,-0.191511
-0.277895,0.021249,0.757091,-0.036836,0.945843,-0.322527
0.184796,-0.273439,-0.970847,0.090928,0.054728,-0.994353
-0.139717,-0.242709,0.671175,0.794283,0.140901,-0.590984
0.577910,0.456505,0.411391,-0.091410,-0.907785,0.409354
0.736527,-0.113306,0.279763,0.068097,-0.816835,0.572838
0.375895,0.036389,0.824975,0.850342,-0.041780,-0.524569
-0.400111,-0.495035,-0.000052,-0.384691,0.768571,-0.511187
0.212656,0.409897,0.022400,0.182992,0.959629,0.213601
-0.006300,0.071240,0.703556,0.733616,-0.140885,-0.664800
0.797143,-0.535036,0.499237,-0.512899,0.855927,0.065754
0.239256,-0.647090,0.729236,0.892172,0.383798,0.238176
-0.426992,-0.370487,0.113579,-0.526534,0.420597,0.738823
-0.301555,0.175351,0.267028,0.997717,0.039825,-0.054545
0.311634,0.386364,0.571892,0.064015,0.857662,-0.510214
0.475292,-0.184918,-0.960392,-0.138832,0.075378,0.987443
-0.216155,-0.178887,0.591503,-0.059468,-0.837342,0.543436
-0.336696,-0.111241,0.626234,0.462831,0.391266,0.795423
0.172197,0.284317,-0.206827,-0.472678,0.843061,0.256562
-0.111579,-0.316080,0.870055,0.022915,-0.827758,0.560617
0.311493,-0.094925,0.403077,0.913785,0.336853,-0.226995
-0.439032,-0.427542,0.100844,-0.734358,0.637759,-0.232342
-0.049420,-0.770749,-0.155326,0.907081,0.118277,0.403998
0.030101,-0.376518,0.687102,-0.416208,-0.615175,0.669574
0.361194,-0.272264,-0.966988,-0.160742,-0.051477,0.985653
-0.062857,-0.321375,0.437352,-0.462293,0.166250,-0.871003
0.161699,-0.012130,-0.615359,0.747481,0.606305,0.271415
0.417751,0.344459,0.576874,0.239528,0.951389,-0.193610
0.206636,0.174767,-0.708011,0.320766,0.556700,-0.766286
0.071958,-0.642531,0.437703,-0.525602,-0.713942,-0.462633
0.074478,-0.319608,0.747057,0.087150,-0.832280,0.547463
0.615431,-0.455185,0.206301,0.235519,-0.745041,0.624055
-0.005180,-0.449306,0.830132,-0.002317,0.620729,0.784022
-0.201735,-0.489452,0.329158,-0.013677,-0.759331,0.650561
0.043820,0.239469,0.581996,-0.451585,-0.499755,-0.739131
0.290217,0.140205,-0.558280,-0.540552,0.829975,-0.137642
0.194738,-0.287261,0.792805,0.085939,0.809458,0.580854
0.357973,0.376222,0.140767,-0.044764,0.896519,0.440739
-0.449251,0.600617,0.431528,0.938248,-0.261917,-0.226030
-0.051659,-0.059339,-0.516252,-0.740816,0.626911,0.241193
0.066498,0.151827,0.273904,-0.756573,0.629718,-0.176219
-0.403892,0.622382,0.465207,0.935232,0.307196,-0.175990
-0.366093,-0.490628,0.155958,-0.673511,0.738430,0.033229
-0.073918,-0.425486,-0.979793,0.346120,0.016532,-0.938045
-0.048998,-0.064481,0.933309,0.951334,0.196568,0.237328
-0.008401,0.038014,0.679630,0.227099,0.945305,-0.234148
-0.065519,-0.208146,0.682015,-0.487068,-0.258506,0.834229
0.182698,0.392988,0.299198,0.882605,0.236900,0.406062
0.009380,0.265048,0.670894,-0.592118,0.035849,0.805054
-0.286435,-0.042573,0.513901,0.784774,0.356265,-0.507153
0.411873,0.180206,-0.964357,-0.117810,-0.005236,0.993022
0.443091,0.671198,-0.209598,0.201873,-0.464708,-0.862145
-0.431611,0.013306,0.393710,0.368797,0.143661,0.918341
0.676047,0.552682,-0.046572,-0.205047,-0.973523,-0.101037
0.332633,-0.356962,-0.969654,-0.188693,0.034961,0.981414
-0.216996,-0.479158,-0.041415,0.889940,0.447163,0.089729
-0.340754,-0.238589,0.098037,0.911357,-0.396467,0.110643
0.195015,0.262849,0.754249,-0.580827,0.628905,0.516835
-0.262215,0.332110,0.030644,0.581230,0.274625,-0.765998
0.073637,-0.052715,0.962532,0.481361,0.657523,0.579616
0.701668,0.058307,0.245979,0.866650,-0.286546,-0.408423
0.414534,-0.417400,-0.962181,-0.128823,0.065619,0.989494
-0.281676,-0.642235,-0.219386,-0.301393,-0.064579,-0.951310
-0.009098,-0.288733,0.829185,-0.342871,0.246760,-0.906393
0.370153,0.058307,0.601817,-0.000684,-0.914077,0.405541
-0.376873,0.483861,0.557789,0.242126,0.954680,-0.173092
-0.384713,0.181966,0.162518,0.517360,0.852426,-0.075553
-0.439592,-0.085510,0.523093,0.344914,0.824027,-0.449460
0.173875,0.016250,0.590977,-0.694921,0.305870,0.650791
-0.005321,0.027127,-0.976670,0.107049,-0.011674,0.994185
-0.006718,0.086094,0.318108,0.433475,-0.775754,-0.458590
-0.532550,-0.357105,-0.189672,0.543778,0.358931,-0.758600
0.428672,-0.255355,-0.962076,0.277375,0.002735,-0.960758
-0.249757,-0.803401,0.489203,0.273390,0.191804,-0.942586
-0.667929,-0.214617,0.380273,-0.007365,-0.932169,0.361948
-0.262074,0.160210,0.047519,0.254600,-0.806180,0.534091
0.152317,-0.245500,0.789788,0.373072,0.864175,0.337665
0.435674,0.313872,0.584732,0.254531,0.815450,-0.519861
-0.027858,-0.390484,0.627954,0.757034,0.396344,-0.519433
0.114656,-0.283734,0.605641,-0.673706,0.738548,0.025806
0.471092,-0.078896,-0.968777,-0.152550,-0.035030,0.987675
0.328292,-0.120657,-0.967724,0.035253,0.101735,0.994187
-0.216018,0.083006,0.845673,-0.298720,-0.620798,0.724828
0.107940,-0.311817,0.680506,0.596449,0.134293,-0.791337
0.124038,-0.323431,0.724640,-0.503137,0.852319,0.142849
0.209016,0.192996,-0.190935,-0.767269,0.431486,0.474467
-0.592329,-0.449746,-0.359575,0.720061,-0.607970,0.334492
0.634750,0.037422,0.683839,-0.420744,-0.516791,0.745588
0.649306,-0.494748,0.521269,0.571682,0.723692,0.386587
0.073637,-0.074919,0.926012,0.928312,-0.345531,0.137278
0.514910,0.456505,0.474960,0.024874,0.923484,0.382830
0.009240,0.129327,0.774737,-0.240853,-0.008120,-0.970528
-0.427133,-0.450042,0.060990,-0.600415,0.784967,0.152740
0.343412,0.114177,0.765371,0.539996,0.261544,-0.800000
-0.075319,0.795009,0.151432,-0.591763,-0.208454,0.778693
-0.534648,-0.162714,0.588170,0.805574,0.142765,0.575038
-0.338934,0.525918,0.309969,0.667014,0.034758,0.744234
-0.218397,-0.049924,0.787542,0.946213,0.119983,0.300474
-0.118860,-0.200212,0.337754,0.959860,0.017608,0.279926
0.319196,0.360193,0.393815,0.779094,-0.621154,0.084739
0.463112,0.231670,0.456963,0.714150,-0.118360,-0.689914
-0.418174,-0.091389,0.502359,0.836186,-0.547020,-0.039525
0.057820,-0.246972,0.654476,0.819558,-0.268710,0.506083
0.067057,-0.000076,-0.615710,0.330556,-0.936306,0.118590
-0.025760,-0.491211,-0.981617,-0.199053,-0.028088,0.979586
0.092957,-0.482101,-0.973899,-0.231895,-0.018768,0.972560
0.195297,0.505033,0.259135,0.812413,-0.558603,-0.167177
-0.102338,-0.075808,0.791261,0.799926,-0.593955,-0.085654
-0.435674,-0.117273,0.665246,0.866886,0.360481,0.344330
0.248215,0.302985,0.717659,0.986040,-0.025204,0.164590
0.196134,-0.068449,0.619183,0.010917,0.993660,0.111896
-0.351252,-0.495035,0.174551,0.822425,-0.563347,-0.079098
-0.083719,-0.522247,-0.135294,0.999512,0.025836,0.017541
-0.158336,-0.128743,0.674332,0.879408,0.452174,-0.148929
0.529611,-0.288141,0.438931,0.140027,0.799072,0.584702
0.138180,-0.564888,-0.969689,0.365842,-0.260613,-0.893443
0.260395,-0.605034,0.351471,-0.177084,-0.666685,0.723997
0.429232,0.342988,0.290849,0.985186,0.171490,-0.000375
0.035561,0.053451,0.939729,-0.827693,0.521656,-0.206883
0.294275,0.243876,0.609325,-0.169053,0.974073,-0.150340
-0.214335,0.357401,0.545090,0.544399,0.804341,-0.238045
0.388212,-0.183743,-0.970706,0.348567,0.177801,-0.920265
-0.237153,-0.120217,0.310951,0.814852,-0.306062,-0.492283
0.274396,-0.378574,0.813187,0.903620,0.418469,0.091403
-0.503289,0.171384,0.163325,0.096271,0.981984,0.162602
-0.291335,-0.420335,-0.267133,-0.255727,0.897549,0.359180
-0.183398,-0.323727,-0.457068,0.557605,-0.827157,0.069912
-0.244297,-0.438868,0.009525,0.696870,-0.560822,0.447047
0.463671,0.256961,0.684330,-0.067037,-0.938496,0.338721
-0.031079,-0.076984,-0.298672,0.982321,0.021174,0.186005
-0.004898,0.279758,-0.310811,0.943792,-0.012748,0.330294
-0.047601,0.397691,0.151222,0.912848,-0.335565,0.232603
0.740868,0.037422,0.290744,0.625070,0.632416,0.457535
0.806525,-0.442396,0.444439,0.599217,0.613565,-0.514274
-0.247377,-0.351370,0.222123,-0.682537,-0.709772,0.174263
0.874422,-0.390340,0.457805,-0.312272,0.040166,-0.949143
-0.035420,-0.067569,-0.693382,-0.364296,0.926402,0.095226
-0.192635,-0.521062,0.429915,-0.512162,0.314968,0.799053
0.104159,0.146532,-0.973759,-0.111474,-0.151060,0.982219
-0.171637,0.575030,0.131049,0.831214,0.100175,-0.546853
-0.544171,-0.289316,-0.251767,0.500343,-0.607343,0.617083
0.298475,0.314905,0.151818,0.549268,-0.689507,-0.472107
0.035280,-0.049188,-0.687488,-0.356382,0.933033,0.049409
0.379672,-0.142269,-0.173148,-0.073161,0.184232,0.980156
-0.008401,-0.041541,-0.498325,0.516188,-0.760603,-0.393742
-0.049139,0.213881,0.639636,-0.667133,0.046925,0.743459
0.280275,0.168592,0.292954,-0.632427,0.028477,0.774096
-0.545850,-0.529301,0.042221,0.726993,-0.601246,0.331639
0.509031,0.377542,0.187216,-0.519435,0.825385,-0.221193
-0.316393,0.063153,0.567016,0.484434,-0.874340,0.029224
0.100660,-0.100660,-0.113368,-0.104450,0.668683,0.736175
0.129640,-0.085806,0.809784,-0.222799,0.974038,-0.040118
0.590091,-0.363576,0.614763,-0.131215,-0.806676,0.576243
-0.299312,-0.340788,0.652301,0.410592,0.560825,0.718951
-0.247514,-0.328430,-0.474750,-0.411520,0.899092,0.149283
0.200339,0.412248,0.268151,0.804564,-0.478382,-0.351890
-0.095477,-0.129183,0.696364,0.615788,0.750833,-0.238863
0.210558,-0.208298,0.874651,0.791267,0.575057,0.207859
-0.358531,0.497090,0.479451,0.897986,-0.159502,0.410097
-0.046759,-0.300203,-0.155116,0.766053,-0.639821,-0.061586
0.060901,0.192996,0.772387,-0.363902,-0.151550,-0.919026
-0.391711,-0.429454,-0.154063,0.687481,-0.046774,-0.724694
-0.415513,0.241668,0.359785,0.837688,0.432147,0.333958
-0.024641,-0.106682,0.820590,-0.681724,-0.212694,-0.700010
0.647067,0.337692,-0.240015,-0.361550,0.272638,-0.891600
0.549909,0.378717,0.147959,0.298889,-0.939234,-0.168831
0.056000,-0.244908,0.781333,-0.460986,-0.405110,-0.789543
0.225815,-0.318432,0.468224,0.486666,0.865991,-0.114963
0.055719,-0.138741,-0.970812,0.715876,-0.238029,0.656402
0.002801,0.093884,0.721588,0.193985,0.973403,0.121883
0.034019,-0.203586,0.822835,-0.074657,-0.906729,0.415053
0.549491,-0.367696,0.222719,-0.674673,-0.736214,0.052968
-0.425450,0.157850,0.187988,-0.023187,-0.180209,0.983355
-0.204115,-0.175207,-0.073199,0.840985,-0.385453,0.379697
0.552848,0.586060,0.193847,0.857049,0.443014,0.263069
-0.373092,0.293723,0.153221,0.242935,0.822241,0.514687
0.222598,-0.039333,0.930397,0.165052,0.905516,-0.390895
0.069860,0.120208,0.937027,0.967281,0.129564,0.218130
-0.087218,-0.275495,-0.488888,-0.551308,0.742470,0.380523
-0.235055,-0.391219,0.836482,0.922621,0.284348,-0.260609
-0.345514,-0.087861,-0.265730,-0.068721,0.907150,0.415158
-0.305614,-0.331813,0.136698,0.170106,-0.376633,0.910610
-0.328155,-0.203883,0.243663,0.857602,-0.223566,-0.463181
0.135796,0.087862,0.764178,0.152949,0.689449,0.708002
-0.529888,-0.568119,-0.174622,0.033336,-0.213743,0.976321
0.296655,0.375630,0.382133,-0.557790,0.820757,-0.123400
-0.392694,0.102563,0.690295,-0.596953,0.801815,-0.027195
-0.665267,-0.041981,0.628339,0.891414,0.452902,0.016137
0.119138,0.061242,0.785367,-0.573934,0.554417,0.602679
0.789586,-0.488420,0.427459,-0.162684,-0.926096,0.340412
-0.258015,0.019633,0.408339,0.973493,-0.094883,-0.208105
-0.268795,-0.272111,-0.028785,0.944330,0.328092,-0.024430
-0.488869,-0.038310,-0.022260,-0.206650,0.761815,0.613950
0.448833,0.005219,0.303373,-0.156898,-0.516800,0.841606
-0.129079,-0.138598,0.342595,-0.462831,0.790325,-0.401464
-0.287136,0.281813,0.104562,-0.605001,0.726852,0.325053
-0.106119,0.930587,0.153186,-0.362946,0.198175,0.910493
0.041859,0.511208,0.695417,0.561833,0.802371,-0.201360
0.108918,-0.006987,0.663527,-0.597654,0.634077,0.490669
-0.031639,0.272695,0.034223,0.783135,-0.606691,-0.136475
-0.469549,0.489739,0.413566,-0.037647,-0.667738,0.743444
-0.443514,0.265048,0.725341,0.089139,-0.936003,0.340517
0.211814,0.284022,0.294567,0.696903,-0.658223,-0.284725
-0.385691,-0.100660,0.422196,0.139064,0.560968,0.816074
-0.204675,0.361809,0.058149,-0.453278,-0.789047,0.414660
-0.144618,-0.403722,-0.994948,-0.520783,-0.219764,0.824918
-0.266415,0.161386,-0.027417,0.913272,0.395191,0.098784
-0.538010,-0.601793,0.123226,0.796601,-0.114610,-0.593542
0.305615,-0.457986,-0.973057,-0.105250,0.317385,0.942438
0.417474,0.269024,0.179112,0.205638,-0.976314,-0.067263
-0.397453,0.232702,0.498781,-0.429304,-0.341428,-0.836137
-0.283632,-0.291085,0.090249,-0.529254,-0.153979,0.834374
0.148959,-0.449163,0.404831,0.877098,0.375865,0.299039
-0.091277,-0.838538,0.472610,-0.203000,-0.122861,-0.971440
0.102757,0.177702,0.844025,-0.481171,0.873429,0.074810
-0.117039,0.365632,-0.965795,-0.151637,-0.115282,0.981691
-0.391711,0.761783,0.300391,-0.484549,0.753803,-0.443839
-0.321994,0.190644,0.542142,-0.599327,-0.274467,0.751981
-0.527649,-0.393724,-0.196302,0.609164,0.492755,-0.621379
0.356153,0.335781,0.053062,0.552011,-0.818853,0.157365
-0.782305,0.080951,0.502956,-0.569422,0.804442,0.169210
-0.236034,-0.044045,0.579821,0.992691,0.069690,-0.098526
-0.011477,-0.232414,0.619674,-0.412264,0.445999,-0.794433
0.478514,-0.338877,0.567893,0.467860,0.879426,0.087848
0.107799,-0.224471,0.640443,0.835577,-0.543337,0.081213
-0.440852,0.063010,0.830272,0.450371,0.887754,0.095175
-0.238973,-0.373575,0.211002,0.481084,0.863186,-0.153195
-0.548930,-0.654881,0.102352,0.720940,-0.674418,-0.159389
-0.342151,-0.792370,0.474294,0.876957,-0.305682,-0.370817
0.221756,0.282989,-0.109018,0.964985,-0.087284,-0.247356
0.252974,-0.289021,0.550106,-0.073746,-0.951400,0.298998
0.326472,-0.476510,-0.963339,0.061513,-0.305769,-0.950117
-0.302952,-0.148156,-0.243032,-0.244149,0.918002,0.312512
-0.629708,-0.596651,0.316845,0.900991,0.255230,0.350818
0.067480,-0.162418,-0.121577,0.371923,-0.292482,-0.880981
0.373934,-0.055076,-0.970215,-0.191191,-0.018245,0.981383
-0.057119,-0.104771,0.811503,0.038950,0.356619,0.933438
-0.292036,-0.333142,0.041976,-0.623827,0.650526,-0.433192
-0.535211,0.237557,0.611991,-0.186431,0.427978,0.884352
-0.731485,-0.183007,0.556035,0.753727,0.545263,0.366856
0.660649,-0.388572,0.506675,0.916075,0.311833,0.252125
-0.157918,0.227263,0.486187,-0.522059,-0.843613,-0.125588
0.364834,0.346371,0.108316,-0.502203,0.850054,0.158745
0.133416,-0.069633,0.620306,0.216152,0.970655,0.105389
0.355593,0.296524,0.094704,-0.672715,0.708689,0.212637
-0.493911,-0.227119,0.486783,-0.348513,0.892673,-0.285786
-0.338233,0.110946,0.111053,0.922942,0.072168,-0.378114
-0.257314,-0.067273,0.665456,0.255416,0.418334,-0.871642
-0.493351,0.569151,0.392517,0.973881,-0.029378,0.225150
0.043401,0.333573,0.676227,0.645127,0.190722,-0.739890
0.255636,-0.021249,0.931169,0.247956,0.687111,-0.682932
0.068741,-0.025960,-0.181007,0.053147,0.625275,0.778593
0.449111,0.464600,0.627076,-0.448195,0.889437,-0.089574
0.105419,0.048748,0.421039,0.807443,0.033570,-0.588989
0.502870,-0.229614,0.187146,0.832760,0.235227,-0.501178
0.547530,0.424158,0.432896,-0.055954,-0.998430,-0.002747
0.282796,0.406361,-0.221351,0.898096,-0.431293,0.086076
-0.345792,0.143292,0.189286,-0.120444,0.457456,0.881037
0.035420,-0.174624,0.927485,0.913131,-0.355942,-0.198739
0.081058,-0.319904,0.557824,0.780124,-0.060218,0.622721
-0.312612,-0.172560,0.263309,0.973270,-0.097892,-0.207755
0.813806,-0.048748,0.289305,-0.314255,0.736079,-0.599526
0.458630,0.446802,0.430476,-0.557115,-0.316988,0.767555
0.047879,-0.453722,0.306776,0.816136,0.152574,-0.557353
-0.003920,-0.333878,-0.710362,0.871083,-0.193872,-0.451252
-0.117458,0.202258,0.304391,0.588470,0.800771,0.111665
-0.013862,-0.224911,-0.051483,-0.403047,-0.424384,-0.810834
0.085258,-0.227119,0.617148,-0.395925,0.822216,-0.408907
0.037100,-0.022577,0.895981,0.441715,-0.459439,-0.770586
0.382893,-0.720758,-0.072883,-0.876611,0.446198,-0.180167
0.106257,-0.270792,-0.980845,0.049673,-0.054208,0.997293
0.078819,0.044476,0.837254,0.519940,-0.502008,-0.691123
-0.141119,0.136974,0.199390,0.737682,-0.329846,-0.589089
0.027021,0.129623,0.311933,0.309990,-0.935291,0.170695
-0.210557,0.345483,0.050922,-0.130581,0.321312,-0.937927
-0.305473,0.219320,0.518462,-0.259132,0.877727,0.403046
0.152877,0.225791,0.567016,-0.554733,0.828377,-0.077862
0.021702,0.029775,0.605817,0.417231,0.904440,-0.088924
0.271457,0.360929,-0.228052,0.207402,0.961799,0.178681
0.245557,0.139469,-0.074708,0.820702,-0.547769,0.162474
-0.462133,-0.286229,0.165991,0.998540,0.053775,-0.005090
0.138039,0.005659,0.924433,-0.270837,-0.960017,-0.070810
-0.463252,0.016097,-0.016681,0.033458,0.681861,0.730717
0.018198,-0.319168,0.812416,-0.111700,0.991734,-0.063140
-0.065519,0.362401,0.652125,0.961715,0.038249,-0.271371
-0.188858,-0.297852,-0.412900,-0.604291,0.780459,-0.160363
0.400252,-0.603265,-0.127962,0.965067,-0.109604,-0.237976
0.086800,-0.017721,-0.578172,-0.214993,0.938620,0.269759
0.120116,0.499154,0.722956,0.210928,-0.818869,0.533819
0.595829,-0.305202,0.635847,-0.132888,-0.291522,0.947288
0.095759,-0.461809,0.820835,-0.385592,0.238097,-0.891419
0.229177,-0.642531,0.714010,0.398219,0.175642,-0.900318
0.397731,0.140061,0.561087,0.973809,0.226955,-0.013696
0.046341,0.077863,0.035661,0.406351,0.870360,-0.278124
-0.367491,-0.244764,0.472504,0.589791,0.771187,0.239620
0.469272,0.505329,0.250680,-0.582142,0.813044,-0.008359
0.769288,-0.527533,0.156624,-0.619305,0.245048,-0.745931
-0.243036,-0.383869,-0.147748,-0.242925,0.503886,0.828907
-0.067617,0.325926,0.624059,0.865996,-0.292787,-0.405372
-0.472211,-0.295204,-0.182234,-0.312034,0.019101,0.949879
0.073778,0.211080,0.756214,0.546448,0.819902,0.170751
-0.031220,0.464447,0.631181,-0.545833,-0.706590,0.450330
0.001540,-0.296380,0.462646,-0.647168,0.759766,0.062680
0.657009,-0.398866,0.535933,0.161486,0.165832,0.972842
-0.148258,0.086533,0.706783,-0.112075,0.943643,0.311413
0.083998,-0.044925,0.896578,0.724076,0.329321,0.606020
-0.406694,-0.160066,0.356032,0.956264,-0.228390,0.182751
-0.021278,-0.065361,0.916961,-0.425992,0.904596,-0.015397
-0.261514,0.489443,-0.099335,-0.224269,0.247417,0.942596
0.548230,-0.305050,0.619674,0.281447,0.559039,-0.779912
0.265296,0.041837,0.806171,-0.456705,0.378414,0.805123
0.168279,0.240052,0.876967,0.977587,-0.210034,-0.014495
0.476830,0.421654,0.085618,-0.683956,0.702202,0.197780
0.835364,-0.303138,0.437843,0.210903,0.782324,0.586080
-0.018198,0.697522,0.142802,0.799374,0.229975,-0.555080
-0.412013,-0.370640,0.111579,-0.564094,0.358094,0.744020
0.294976,-0.110659,0.574348,0.285713,-0.487169,-0.825248
-0.011477,-0.000812,0.818064,0.415203,-0.892075,-0.178349
-0.226374,-0.402546,-0.155853,0.178756,0.608982,0.772779
-0.034579,-0.328582,0.706959,0.173380,0.123881,0.977033
-0.638248,-0.163593,0.532249,-0.195334,-0.867130,0.458181
-0.475569,-0.468127,0.069936,-0.346514,0.937889,-0.017073
-0.091700,0.500177,0.142100,0.884579,0.128994,-0.448198
0.056701,0.593850,-0.966742,0.341546,0.104898,-0.933993
-0.462410,0.314312,0.031837,0.959095,0.251863,0.129233
0.166877,0.465183,0.589504,0.279620,0.959893,0.020420
-0.317513,0.326958,0.266361,0.977451,0.025504,-0.209616
-0.362731,0.017425,0.681770,-0.371209,0.412578,-0.831855
0.009799,-0.395636,0.662615,0.411887,0.883288,0.223945
-0.279014,0.277990,-0.095687,0.840939,0.541127,0.001550
0.314856,-0.213145,0.428546,0.710094,-0.022055,0.703762
-0.057397,0.006834,0.928573,0.922290,-0.268354,-0.278149
-0.416072,-0.329606,-0.167290,0.475419,-0.386397,-0.790363
-0.051240,-0.076248,-0.833395,0.181468,0.966432,0.181872
-0.200757,-0.169328,0.682226,-0.107683,0.831874,-0.544417
0.237577,0.261521,0.084460,0.343808,-0.935897,-0.076760
-0.037518,0.015657,-0.968987,-0.263905,-0.288596,-0.920362
-0.193336,0.009186,-0.493764,-0.043378,0.995854,0.079953
-0.158477,-0.310641,0.754355,-0.072608,-0.747629,0.660136
0.195575,0.279462,0.714501,-0.344829,0.913501,0.215891
0.377993,0.238733,0.495343,0.514650,-0.757080,0.402450
-0.335435,-0.192852,0.329334,-0.266141,0.957671,0.109707
0.060760,-0.064041,0.772352,-0.696057,0.715215,-0.063026
0.021979,0.409161,-0.307864,-0.257898,0.576374,-0.775423
0.238974,0.619582,-0.254889,0.922268,-0.386244,0.015392
-0.062439,-0.362257,0.657738,0.426801,0.883428,0.193380
-0.297915,-0.148300,0.276711,0.842297,-0.309356,-0.441400
0.300436,0.497386,0.278465,-0.169661,0.742558,0.647937
0.308413,0.307841,0.080812,0.541038,-0.839996,-0.041047
-0.191097,0.091245,-0.021663,-0.417022,0.594152,0.687805
-0.253397,-0.026248,0.237594,0.926305,-0.329582,0.182581
-0.599750,-0.290932,-0.167886,0.587157,0.593290,-0.550684
0.049280,-0.262849,0.479626,0.159265,0.921423,-0.354421
-0.443932,-0.071688,0.581855,0.841721,-0.033871,0.538850
-0.704325,-0.023017,0.478363,0.622362,-0.124967,0.772690
-0.271875,-0.292260,0.114771,0.194920,0.585214,0.787103
-0.003637,0.270200,-0.972250,0.091896,-0.412978,0.906093
-0.419853,-0.249324,0.199109,0.812613,0.452599,-0.367170
-0.081758,-0.388285,0.734989,0.985232,0.030889,-0.168418
-0.188995,-0.286381,-0.139680,-0.404982,-0.006288,0.914303
-0.070137,0.592971,0.161290,0.917203,0.165049,-0.362627
-0.235055,-0.188149,0.656335,0.808014,0.587968,-0.037510
-0.023940,-0.162122,-0.698118,0.885772,-0.463675,-0.020347
-0.012178,-0.056691,-0.258573,-0.348142,0.936860,0.033028
0.018758,-0.046100,-0.427424,0.609788,-0.771936,-0.179648
0.679546,-0.190941,0.439141,0.135013,0.990426,0.028767
-0.147416,0.426950,0.223631,-0.810248,0.109740,-0.575722
-0.080220,0.437684,0.201354,0.886523,-0.055443,0.459351
0.488173,-0.154035,0.615254,-0.727946,0.090610,0.679621
0.082600,0.043453,-0.685243,0.974308,-0.216774,-0.061103
0.264595,0.043596,0.748461,0.325936,0.064223,-0.943208
-0.343971,-0.980147,0.455349,-0.179447,0.501073,0.846596
-0.031361,0.361369,-0.007806,0.989581,0.062603,-0.129656
-0.225254,-0.206530,0.766633,-0.623432,0.380417,0.683092
0.023381,0.087709,0.828378,0.030071,-0.807132,0.589605
-0.021560,-0.441076,-0.983511,0.067558,-0.022134,-0.997470
0.601571,-0.192565,-0.950464,-0.461809,0.058190,0.885069
-0.567267,-0.313585,0.426898,0.279030,0.917457,-0.283575
-0.397034,-0.257410,0.794524,0.040664,-0.986278,0.160007
-0.292314,-0.263001,0.059412,-0.564950,0.773299,-0.287819
-0.194596,-0.563855,0.813749,0.381008,-0.903282,-0.197267
-0.600028,0.027567,0.442825,0.271933,0.275962,0.921899
-0.088479,0.290053,0.157361,0.822841,-0.496671,0.276134
-0.256054,0.178735,0.754811,0.494554,0.849056,0.185796
0.188577,-0.099036,-0.969093,0.066690,-0.161409,0.984632
0.230715,0.504449,-0.203284,-0.644646,-0.035466,0.763658
0.405293,-0.284757,-0.964111,-0.247468,-0.019958,0.968690
-0.172897,0.356809,0.597993,0.758267,0.453761,-0.468116
-0.386251,-0.395492,0.053553,-0.727733,0.682080,-0.071911
-0.147275,-0.388132,0.808451,-0.298943,0.550576,0.779422
-0.098138,-0.567832,0.451315,0.012211,0.837343,0.546542
0.124038,0.161386,-0.970075,-0.084544,-0.221408,0.971510
-0.467452,-0.195796,0.686120,0.836462,0.359132,-0.413952
-0.044379,-0.066985,-0.880229,0.974148,0.190288,-0.121761
0.047178,-0.086542,-0.381922,0.830615,0.554911,0.046385
-0.125157,0.361512,0.128980,-0.781104,0.341937,0.522452
-0.460172,-0.439452,0.111403,0.520282,-0.561201,-0.643708
-0.273695,-0.169185,0.628795,0.390089,-0.446568,-0.805238
0.222876,-0.200795,0.588240,0.727058,0.583687,-0.361519
0.310096,0.353282,-0.281166,-0.492282,0.094823,0.865255
0.211255,-0.628414,-0.964848,-0.075224,0.346373,0.935076
0.753745,0.015513,0.319020,0.013462,-0.652323,0.757821
0.340755,0.356513,0.069796,0.604537,-0.790639,-0.097086
-0.470673,-0.577094,-0.175604,-0.733837,0.393007,0.554103
-0.615148,-0.730317,0.131646,0.573163,0.383360,-0.724237
-0.500349,0.089334,0.536635,0.939149,0.215669,0.267368
0.235056,0.367839,0.793015,0.675190,0.334134,-0.657627
-0.389195,-0.672382,-0.225456,0.648349,-0.702745,0.292904
-0.230997,-0.313432,0.514182,-0.394375,-0.917447,-0.052538
-0.165757,-0.116977,-0.932011,0.968750,0.032530,-0.245897
-0.303935,0.152123,0.311267,0.537376,-0.588639,-0.603930
-0.149095,-0.122712,0.780806,-0.211427,-0.867243,0.450764
0.138039,0.232262,0.376695,-0.399444,0.854640,-0.331715
0.236735,-0.596354,-0.962146,-0.271368,0.210103,0.939264
-0.362872,0.202115,0.577084,0.709010,-0.583754,0.395646
0.494471,-0.010218,0.666509,-0.282755,0.845302,-0.453337
-0.091136,0.266223,0.605290,0.648565,0.598831,-0.469856
0.232394,0.009922,0.929099,-0.558097,0.082191,0.825695
-0.515892,-0.385341,-0.383396,-0.662178,0.642282,-0.385996
0.278177,-0.698554,-0.299339,0.332775,0.941947,-0.044683
-0.169538,0.103443,0.865039,0.337727,0.906769,0.252408
-0.474450,0.426214,0.426582,0.005079,-0.739142,0.673531
-0.056000,0.511064,0.639987,-0.705980,-0.527623,0.472446
-0.358395,0.182414,0.777474,-0.046852,-0.994961,-0.088647
0.365252,0.435925,0.307548,0.213903,-0.570452,-0.792988
0.113960,-0.112714,0.895350,0.890381,0.453009,0.044762
-0.130758,-0.394603,0.726955,0.744779,0.619938,0.246944
-0.478931,-0.383869,0.318248,-0.480800,-0.218824,-0.849086
0.194456,0.304753,0.759441,0.457664,0.126386,-0.880096
0.442113,-0.047716,-0.202722,0.479715,0.517721,0.708406
-0.253816,-0.395043,-0.489414,-0.683816,0.683751,0.254719
-0.275656,0.048452,0.942220,0.340804,0.938518,-0.055095
-0.059217,-0.010667,0.928888,0.970114,-0.183138,-0.159186
-0.332915,0.169616,0.541336,-0.585666,-0.519911,0.621843
-0.252273,0.476061,0.073515,0.090557,-0.188202,0.977946
-0.019039,0.120361,0.579365,0.255119,0.328868,-0.909264
0.213216,-0.561360,-0.966426,-0.102764,0.321191,0.941422
0.704749,-0.131391,0.269238,0.254712,-0.826749,0.501605
0.027858,0.073008,0.896122,-0.255575,-0.103025,0.961284
0.534789,0.430333,0.590310,0.118995,-0.873231,0.472555
-0.056136,-0.836636,0.422653,0.485439,0.856932,0.173254
0.081199,-0.121679,0.827536,0.434176,-0.828569,-0.353503
0.139158,-0.010218,0.587363,0.946748,-0.061166,-0.316112
-0.110879,-0.689435,0.464400,-0.587014,0.370844,-0.719645
-0.339075,0.220496,0.184164,0.056955,0.976038,0.210014
-0.150637,-0.756192,-0.624551,-0.793551,0.243052,-0.557856
-0.426432,-0.333142,-0.201003,-0.517957,0.312035,-0.796464
0.297497,-0.551362,-0.961304,-0.163503,0.181793,0.969648
-0.449952,-0.102859,0.680261,0.577952,0.775092,-0.255351
-0.664426,-0.053011,0.442369,-0.594751,0.052171,-0.802215
-0.377292,0.111386,0.516813,0.720239,0.395758,-0.569764
0.252414,0.320783,0.299409,0.448075,-0.564261,-0.693425
-0.341032,0.072712,0.597783,-0.725141,0.491580,-0.482203
0.009521,-0.114482,0.926363,-0.084007,-0.046384,0.995385
-0.006440,0.302402,0.655177,0.749055,0.462208,-0.474637
-0.137479,0.046540,0.666859,0.418884,0.588493,-0.691529
0.419571,-0.151980,-0.147748,0.905538,0.402787,0.133277
-0.321434,0.111089,0.529758,0.823193,0.215066,-0.525451
0.731767,-0.342988,0.448403,0.172610,0.461700,-0.870080
0.259977,-0.285053,0.746952,0.511600,0.513792,-0.688682
0.094917,-0.368136,-0.976881,0.191508,-0.080265,-0.978203
-0.324934,0.237997,0.020541,0.961251,0.183885,0.205386
-0.541368,-0.210353,0.523444,0.122811,0.917406,-0.378529
0.142516,-0.212562,-0.074392,-0.136767,-0.965319,-0.222384
-0.278177,-0.022424,0.524286,0.723509,0.606405,-0.329859
-0.694388,-0.282109,0.329299,0.747855,0.631662,0.204243
0.210695,0.402097,0.792629,0.718348,0.403147,-0.566965
-0.234214,-0.378286,-0.238226,-0.430242,0.872890,-0.230119
-0.459052,-0.617239,0.137084,0.376226,0.137929,-0.916204
0.267816,0.466656,0.282991,-0.326010,0.564028,0.758676
-0.092260,-0.196972,0.634900,0.589090,-0.343055,0.731633
0.256196,0.145939,0.840481,-0.173698,0.982330,0.069685
-0.279992,0.122712,0.255170,0.562051,0.644093,0.518885
-0.038637,-0.157714,0.746672,-0.091480,-0.265576,0.959740
-0.328856,0.182118,0.085899,0.624836,-0.741947,-0.243093
-0.112840,0.188589,0.117964,-0.145834,0.989002,0.024652
-0.257037,-0.008459,-0.992738,-0.216521,0.077300,0.973213
0.369175,0.691346,-0.215352,-0.263124,0.705149,0.658431
-0.332774,0.096828,0.293620,0.723507,-0.191001,0.663367
-0.482990,-0.391076,0.160519,0.895396,0.169668,-0.411678
-0.360911,-0.379462,0.316248,0.269645,0.663958,0.697461
-0.273276,-0.143004,0.292498,0.618944,-0.750415,-0.231915
0.471652,-0.113746,0.282710,-0.079151,0.730512,0.678297
-0.373233,-0.169185,0.614587,0.845637,0.389498,-0.364952
-0.606188,0.428125,0.561262,-0.335790,-0.863014,0.377429
0.645807,0.523710,0.031100,-0.599135,0.777834,-0.189766
-0.303375,0.299754,-0.055728,0.370385,0.834802,0.407334
-0.302952,-0.192269,0.308179,0.282621,-0.782272,-0.555135
0.056838,0.009043,-0.206897,-0.513582,0.852318,-0.098933
-0.335713,-0.552242,0.396973,-0.543621,-0.111032,0.831955
0.590091,-0.230646,0.248400,0.373553,-0.612383,0.696739
-0.502310,0.161673,0.621674,0.377809,-0.106101,0.919784
0.704189,-0.365048,0.501798,-0.000880,-0.979042,0.203657
-0.144476,-0.137269,0.680296,0.219001,0.953023,-0.209253
0.177379,0.228286,0.149888,0.088906,0.995990,-0.009944
-0.543611,-0.764575,-0.320037,0.949847,0.302664,-0.078651
0.283774,-0.460633,-0.967128,-0.144286,0.206020,0.967852
0.435811,-0.639587,0.146030,0.779742,0.381872,-0.496161
-0.032758,-0.412544,0.616657,0.801317,-0.500034,0.328415
-0.097438,0.516360,0.172622,0.910887,0.011852,-0.412485
-0.025901,-0.547243,-0.982775,0.383234,-0.021804,-0.923394
0.197955,0.102267,-0.458612,0.988515,-0.143444,0.047561
0.007142,-0.190061,-0.711484,0.968633,-0.053984,-0.242561
-0.172478,-0.297995,-0.157677,-0.541068,0.811422,0.220998
-0.030101,-0.387988,0.854163,0.605712,0.095852,0.789889
-0.393394,-0.759728,-0.233805,0.948198,-0.317679,0.000707
-0.033181,0.498714,0.178621,0.841091,0.085349,-0.534118
-0.629290,-0.194028,0.537266,0.148069,-0.832174,0.534380
-0.422934,0.070656,0.640618,-0.532544,0.845367,0.041848
-0.108076,-0.655760,0.661703,-0.517241,0.157489,0.841225
0.357554,-0.677085,-0.128594,0.813332,-0.300254,-0.498336
0.722107,0.112714,0.577926,0.934027,0.289387,-0.209402
0.703907,0.193732,0.291901,0.519218,0.843989,0.134517
-0.229877,0.500034,0.619078,0.429405,0.118815,-0.895262
0.333752,-0.354018,0.778491,-0.262612,0.790314,0.553569
-0.168278,-0.679140,0.538564,0.912675,0.005793,0.408644
-0.385414,-0.838691,0.440895,0.651183,-0.191268,-0.734423
0.348176,0.263136,0.431704,0.799984,-0.286466,-0.527221
0.089740,0.266960,-0.981863,-0.003817,-0.051933,0.998643
-0.140277,-0.512392,0.762283,-0.216920,0.938807,-0.267557
-0.253674,0.309905,-0.055377,-0.471688,0.142014,0.870254
0.527509,0.249171,0.195390,-0.408564,0.766497,-0.495538
0.521771,-0.288141,-0.953235,0.362933,-0.102350,-0.926177
0.034720,0.024040,0.948920,-0.527951,-0.262624,-0.807649
-0.018061,0.129327,0.621218,0.107064,-0.982736,-0.150887
0.452332,-0.096244,-0.966497,-0.080774,0.144431,0.986213
-0.156238,-0.408425,0.581364,-0.469448,0.374715,0.799504
-0.331654,-0.346227,0.118420,0.769587,-0.396894,-0.500211
0.641607,0.500474,-0.046747,-0.188607,-0.963902,-0.187936
-0.381773,-0.038310,0.207213,0.918209,-0.384841,-0.093750
-0.165898,0.105211,0.634900,-0.220849,0.940131,-0.259575
0.037381,-0.001252,-0.553579,-0.497465,0.860364,0.110912
0.568669,-0.228878,0.441667,0.447910,0.624644,0.639685
-0.727708,-0.415192,0.305478,0.961856,0.192836,-0.194029
-0.012601,-0.030960,0.830237,0.055151,0.648371,0.759324
-0.117176,-0.373871,0.588276,-0.655088,0.288602,0.698261
0.017639,0.427246,0.620692,0.215399,0.892614,0.396035
0.148399,-0.557977,0.354137,-0.522658,-0.561827,0.641232
-0.542911,-0.190501,0.436405,0.091202,0.033690,0.995262
-0.351952,-0.432693,-0.214720,0.031304,0.937180,0.347439
-0.411590,-0.054779,0.605220,0.400408,0.798025,-0.450366
0.067057,-0.223879,0.459138,-0.419483,-0.685090,0.595554
0.378412,0.329902,0.115718,-0.537793,0.842889,-0.017801
-0.329274,-0.108010,0.225070,-0.270488,0.857203,0.438224
-0.353071,0.081974,0.568173,-0.463716,0.145481,-0.873958
-0.022680,0.165496,0.704327,-0.590540,0.118704,0.798230
0.086240,0.192412,0.824694,0.230700,0.856174,0.462324
0.167437,0.013009,0.587644,0.825785,-0.398952,-0.398642
0.650708,-0.102571,0.267484,0.144974,-0.743114,0.653272
0.039479,0.124184,0.406480,-0.126427,0.322464,0.938101
0.498953,-0.133150,-0.962708,-0.870678,0.482727,0.094308
0.085959,-0.017865,0.783262,-0.916689,0.397988,0.035883
-0.595550,0.396363,0.530495,0.991205,-0.124900,0.043727
0.230997,0.153587,0.198618,-0.380908,0.924280,-0.024829
0.021839,-0.670470,-0.975863,-0.241072,0.261397,0.934642
-0.307434,-0.006107,0.003596,0.556113,-0.829760,0.047298
-0.466469,-0.033751,-0.015734,-0.004110,0.687710,0.725974
0.482713,-0.402690,0.491659,-0.096028,-0.992257,-0.078771
-0.333615,0.680460,0.470961,-0.324613,-0.232407,0.916850
-0.064959,-0.461073,-0.989791,0.349786,0.012703,-0.936744
0.070697,-0.151244,0.793962,0.340995,0.660249,0.669173
0.359651,0.669142,-0.217948,0.396597,-0.624490,-0.672847
0.189696,0.311225,-0.276395,0.966714,-0.183353,-0.178453
-0.538989,-0.002428,0.666474,0.125307,0.951826,0.279867
-0.501468,-0.955744,-0.150169,-0.858436,-0.196003,-0.473994
-0.256054,-0.372399,-0.019243,0.973717,0.110928,0.198921
0.129498,-0.460480,0.354593,-0.549472,-0.819179,0.164398
0.297497,-0.587972,0.331123,0.402374,0.914946,0.031132
0.371832,-0.237701,0.584381,-0.127905,-0.589796,0.797359
-0.168697,-0.412105,0.443842,0.380098,-0.128882,0.915923
-0.102616,0.302546,0.587819,0.669024,0.546725,-0.503486
-0.318495,0.047420,0.816169,0.229579,0.973190,-0.013951
-0.194878,-0.111538,0.333544,0.706640,0.702451,-0.084986
0.293716,0.288428,0.515866,0.658454,-0.660617,0.360586
-0.375053,-0.204619,0.441071,0.565739,-0.817593,-0.107150
-0.418033,-0.204762,0.276395,-0.083680,0.973224,0.214086
0.258858,0.417544,-0.948184,-0.674266,-0.315076,-0.667902
0.248775,0.317256,0.549580,0.154035,-0.980544,0.121683
-0.386392,-0.243884,0.060394,-0.689553,0.690208,-0.219383
0.055018,0.068152,0.949903,-0.782387,-0.237703,-0.575646
-0.861823,0.008603,0.484187,-0.203008,0.757538,0.620423
0.090440,-0.682524,0.669351,0.950079,0.070475,-0.303946
0.088479,0.133446,0.288709,0.325839,-0.930904,0.165064
-0.215595,-0.062130,0.352769,0.893782,0.446833,-0.038646
0.526249,0.296075,0.431949,0.600373,-0.644268,-0.473784
-0.514909,-0.364456,0.346664,0.248112,-0.400008,0.882289
0.043119,0.317552,0.563718,0.702864,0.446313,0.553884
0.284893,0.393132,-0.951306,-0.194541,-0.415170,0.888700
-0.254093,0.148587,0.421355,0.928736,-0.175124,-0.326775
0.141957,0.197411,-0.959445,-0.162342,-0.043294,0.985784
0.304076,0.410920,-0.019839,-0.184435,0.961297,0.204674
0.096597,0.222407,0.239348,0.972857,-0.224475,0.056214
-0.087078,0.574150,0.645951,0.904720,0.051965,-0.422826
-0.098138,0.121536,0.524321,0.082417,-0.798026,0.596960
-0.058521,0.267992,0.165220,0.763521,0.403447,-0.504248
-0.170235,-0.319320,0.638127,0.416669,0.889622,0.186976
-0.287136,0.179470,0.175428,0.192366,-0.923423,-0.332092
0.144896,-0.448427,0.335543,0.607215,-0.629291,0.485060
0.263476,0.434893,0.779193,0.466672,0.831564,-0.301197
-0.420972,0.090213,0.502149,0.836654,0.380332,-0.394155
-0.205794,-0.224032,0.765827,-0.530936,0.573637,0.623737
0.092260,0.003891,0.779719,0.753151,-0.571095,0.326517
-0.204815,-0.560032,0.571787,0.900671,-0.434460,-0.006066
0.178635,-0.291964,0.444228,0.319482,-0.595875,0.736793
0.578889,-0.192116,0.350594,0.605128,-0.620104,-0.499291
-0.236875,-0.286965,-0.737340,0.514928,0.726469,0.455072
0.374912,-0.278143,0.761757,0.369040,0.880230,0.298337
-0.235615,-0.425190,-0.197285,-0.662475,0.709770,0.239488
-0.027439,0.647674,0.033907,-0.797357,-0.514361,-0.315681
-0.417892,0.719870,0.505376,0.061984,0.323807,0.944090
-0.125858,0.737218,-0.245768,0.172917,-0.392982,0.903141
-0.202017,0.252115,0.116034,0.009774,0.737061,0.675755
0.136919,0.443123,-0.951657,-0.676044,0.600577,0.426934
-0.251713,0.462239,0.074813,0.090557,-0.188202,0.977946
0.024359,0.140940,0.836973,-0.343216,0.793044,-0.503274
0.151757,-0.198587,-0.982704,0.056772,-0.103570,0.993001
-0.050540,-0.329758,0.853251,-0.406929,0.865796,-0.291215
0.168279,0.043749,-0.501447,0.855145,-0.509695,0.094538
-0.054316,-0.106835,0.913873,0.871387,-0.184597,-0.454542
0.047601,-0.129183,-0.899069,0.957877,0.281538,0.056638
0.158897,-0.000076,0.747093,0.509430,-0.279836,-0.813740
0.348454,0.087126,-0.970952,0.082329,0.047542,0.995471
0.240375,0.250939,0.047414,-0.541074,0.770436,0.337146
0.226934,0.162561,0.765616,-0.066950,-0.539209,0.839507
-0.015818,-0.388724,0.715869,-0.208948,-0.977643,-0.023564
-0.046477,0.023896,0.653353,0.338756,0.938326,-0.069197
0.194738,-0.212122,0.722254,0.703451,0.517216,-0.487488
0.409771,-0.269024,-0.418513,0.383173,0.802067,0.458112
-0.294275,-0.156539,0.394166,0.767311,-0.641068,-0.016295
0.682768,-0.338285,0.509621,0.001788,-0.996768,0.080312
0.248215,-0.153891,0.594660,-0.543408,-0.565398,0.620510
-0.150355,-0.408138,0.842516,0.354899,-0.244252,0.902434
0.230155,-0.016106,0.678682,0.619662,-0.020175,0.784610
-0.286995,0.134326,-0.058991,0.069595,-0.965038,0.252704
0.003779,-0.112274,0.781438,-0.387421,0.915744,-0.106388
0.135236,-0.019041,-0.282324,-0.729279,0.664135,-0.164548
0.151475,-0.695466,0.714922,-0.647390,0.118113,0.752951
-0.577068,-0.000076,0.442404,0.511077,0.372307,0.774718
-0.207755,-0.079039,0.380133,-0.489506,0.768451,-0.412150
0.259836,0.009483,0.623463,-0.707024,0.707063,-0.013367
-0.628866,0.109626,0.107685,0.675722,-0.635765,0.373098
-0.533669,-0.223143,0.539897,0.180817,0.814535,-0.551216
-0.126276,-0.171976,0.580277,0.600671,0.644515,-0.473069
0.717207,0.126975,0.313477,0.299519,0.865002,0.402565
0.050540,-0.196092,0.557263,-0.472651,0.861623,-0.184951
0.370572,-0.309609,0.361855,0.332538,-0.904462,-0.267148
-0.053898,-0.209474,-0.207458,0.207568,0.879987,0.427245
-0.498392,0.425774,0.578347,0.714510,-0.525207,0.462205
