0.476804,-0.120834,0.409424,0.998953,-0.032069,0.032616
0.024975,-0.012328,0.967802,0.189415,0.930460,0.313634
0.147400,-0.164456,-0.972121,0.078621,-0.083320,0.993417
-0.070371,0.139434,-0.498343,0.919501,-0.050588,-0.389819
-0.025050,-0.221706,-0.611017,0.135244,0.989949,-0.041348
0.347166,0.391748,-0.037026,-0.534589,-0.604839,-0.590241
-0.106130,-0.178476,-0.772151,0.405039,0.911954,-0.065452
0.528385,0.472490,0.366566,0.551492,0.295671,-0.780023
0.086483,0.024628,0.882720,0.156313,-0.950632,0.268075
-0.353060,-0.136381,-0.107490,-0.052764,-0.998322,0.023850
0.096621,-0.099890,0.323459,0.701847,-0.693740,-0.161663
0.214149,0.337924,0.641180,0.398867,0.602611,-0.691205
-0.100317,-0.472396,-0.956418,-0.670454,0.735943,0.094229
-0.303943,0.099010,-0.722922,0.051672,0.998071,-0.034422
-0.155024,0.224515,-0.988284,-0.364671,-0.077627,0.927895
0.124693,-0.333765,-0.952311,-0.100083,-0.612117,0.784409
0.176635,-0.487037,-0.970375,-0.000876,0.371110,0.928588
0.365910,0.020959,0.211801,0.734346,-0.638100,-0.231440
-0.289356,-0.147570,0.084535,0.003467,-0.538610,-0.842548
0.628673,-0.114732,0.066576,0.383959,0.857051,-0.343568
0.163085,-0.848833,0.408199,-0.388736,0.615597,0.685511
0.396991,-0.375845,0.358656,-0.605292,-0.517067,0.605197
0.646765,0.040209,0.201022,-0.362761,0.930466,0.051359
-0.103368,-0.383186,-0.969406,0.479225,-0.035047,-0.876992
-0.304586,0.095421,-0.000264,-0.176901,-0.025243,0.983905
-0.231188,-0.209352,-0.995472,-0.620783,-0.188021,-0.761102
0.137035,0.028981,0.676208,-0.103141,0.871745,0.478981
-0.116127,-0.081707,-0.871170,0.628581,0.670369,0.394325
-0.297949,0.501425,-0.057020,0.220393,-0.328835,0.918311
-0.068923,-0.196782,-0.773194,0.591533,0.753561,-0.286767
0.198787,0.445151,0.550370,-0.214198,0.722704,0.657129
-0.204798,0.647229,0.520745,0.091913,0.447901,0.889346
-0.035982,-0.173872,-0.718109,0.775437,0.160970,0.610562
0.292239,-0.181143,0.607117,0.769024,0.531337,0.355365
-0.021109,-0.279306,0.455647,-0.184515,-0.328688,0.926239
0.795587,0.613584,0.163458,-0.426926,0.868818,0.250776
0.108880,-0.061338,-0.488523,-0.637904,0.462493,-0.615775
0.927561,0.330418,0.291235,-0.109021,0.751500,-0.650663
0.047027,-0.103217,0.964638,0.779188,-0.626373,-0.022868
0.053851,-0.115039,-0.569913,0.868196,-0.439923,0.229573
-0.004499,0.400272,0.548574,-0.132926,-0.870892,0.473157
0.195676,0.772933,0.197232,-0.606692,0.790789,0.081105
0.171791,0.191084,0.576843,-0.250777,-0.928444,-0.274047
0.735047,0.456680,0.260888,0.170732,0.866114,0.469785
0.891424,-0.265270,0.321881,-0.350937,0.934183,-0.064387
-0.207687,0.075990,0.301565,-0.525232,-0.142646,-0.838918
-0.117374,-0.506890,-0.952827,-0.223201,-0.844637,0.486590
0.009756,-0.153499,-0.917775,0.562517,-0.442137,-0.698634
0.452853,0.396267,0.177792,0.480126,-0.377154,-0.791981
0.065586,0.043856,0.621127,0.348982,-0.933520,0.082164
0.022470,-0.146111,-0.320356,0.517825,0.027369,-0.855049
-0.202136,-0.127685,-0.431099,0.029790,-0.989305,0.142790
0.373667,-0.028640,0.423437,0.919365,0.352610,-0.174454
-0.393875,-0.317025,-0.247628,0.285226,0.896136,0.339981
-0.275886,0.073266,-0.182186,-0.524745,0.849076,-0.060928
-0.164320,-0.454019,0.086734,0.180360,-0.720360,-0.669740
0.046758,0.529755,-0.055814,0.264533,0.265917,-0.926990
-0.137133,-0.289505,-0.984070,0.489939,0.487974,-0.722386
-0.108363,0.095205,0.775603,0.111334,0.562215,0.819463
-0.248060,-0.142123,-0.973967,-0.559818,-0.371381,-0.740729
-0.054110,-0.134030,-0.607876,-0.533138,-0.836317,-0.127816
0.274680,0.390286,0.390614,-0.557012,0.799930,-0.223273
-0.420488,-0.554779,0.291035,0.988885,0.090451,-0.118006
0.709688,0.317084,-0.624976,-0.648067,0.317374,0.692302
0.265497,-0.296391,0.343887,0.559096,0.804598,-0.200084
-0.348545,0.563738,0.476415,0.810972,0.548683,-0.203154
-0.041528,0.048940,0.317262,-0.406636,-0.557079,0.724092
0.494358,0.222067,-0.059096,-0.529311,0.372118,-0.762468
-0.054007,-0.227799,0.676586,0.529430,-0.483334,-0.697203
0.098685,-0.017927,0.485821,0.950007,-0.164706,0.265252
-0.358968,-0.316483,-0.022729,0.132474,0.843770,-0.520099
0.428127,0.401518,0.544030,0.737363,0.517929,0.433642
0.843783,0.276888,0.283352,0.243085,-0.901167,0.358897
0.051743,-0.509237,-0.979624,-0.169145,0.054551,0.984080
-0.268304,-0.005818,-0.627575,-0.642329,0.728951,0.236737
0.283037,0.287429,0.740324,0.732750,-0.302113,0.609759
-0.113486,0.216348,0.352103,0.913831,-0.148606,-0.377928
0.158409,0.180266,0.625371,0.841527,-0.354893,-0.407288
0.006871,-0.163632,-0.631966,0.877017,-0.479708,-0.026858
0.041541,-0.102620,-0.418771,0.910604,-0.188009,-0.368039
0.325967,-0.327542,0.135636,0.464613,0.868226,0.174123
-0.520889,0.685873,0.193316,0.799426,0.576436,-0.169233
0.145398,-0.016121,0.537335,0.900381,-0.431671,0.054536
0.101868,0.246242,0.502506,0.243711,-0.855474,0.456914
0.145535,0.657365,0.548007,0.884596,-0.321350,-0.337972
0.117382,0.000588,0.750618,-0.231253,0.957341,0.173262
0.480927,0.379458,0.174552,0.500352,-0.482904,-0.718646
-0.028631,0.059360,-0.742164,-0.254181,-0.848695,-0.463799
0.034687,0.107645,0.553921,0.090962,0.657830,0.747653
0.033220,0.046308,0.586180,-0.201461,0.922831,0.328325
0.060174,-0.031537,-0.064245,0.224515,0.781675,0.581874
0.099285,-0.148391,-0.963962,0.672495,0.173854,0.719392
0.021993,-0.218524,-0.893564,0.957165,0.027821,-0.288202
0.141700,0.065849,0.543946,-0.115247,-0.478103,0.870710
0.010650,-0.058020,0.668452,-0.510416,0.794760,0.328379
0.039113,-0.667520,-0.971129,0.465032,0.091058,-0.880599
-0.158335,0.483146,0.314362,-0.553858,-0.064427,-0.830114
0.000983,0.119058,0.375382,0.416061,-0.874978,-0.247602
-0.156319,0.246378,0.273306,0.956550,-0.096996,-0.274962
0.173177,0.338292,-0.989638,-0.078125,0.328007,0.941439
0.674832,0.391660,0.408980,-0.464538,0.871969,-0.154511
0.460643,0.316697,-0.610826,0.183224,0.569976,0.800972
0.814842,0.241676,0.265024,0.034901,-0.879246,0.475089
0.360343,0.195101,0.323087,0.012164,-0.851285,0.524562
-0.286532,-0.013094,0.365584,0.199536,-0.810065,0.551344
0.051941,-0.022625,0.594968,0.520156,0.111258,-0.846794
0.118378,0.061078,0.499789,0.592096,0.472998,-0.652454
0.445081,0.371572,-0.281239,-0.720906,-0.393140,0.570733
-0.005032,0.014423,0.966577,0.487524,0.071908,-0.870143
0.098802,0.166974,0.258586,0.056104,0.983589,0.171477
0.000318,0.220745,0.320882,0.031369,-0.600846,0.798749
0.145574,-0.276588,0.539362,0.423885,-0.822404,-0.379437
0.489277,0.399538,-0.041429,0.329594,0.418273,-0.846413
-0.153858,0.270359,-0.652512,0.954256,-0.071256,0.290375
0.025031,0.024239,0.395285,0.927224,-0.235685,-0.291048
0.567145,0.264246,0.236281,0.758918,0.360646,0.542198
0.002557,-0.007886,0.253376,-0.692107,-0.483324,0.536084
0.405228,0.362788,0.487065,-0.204545,0.973149,-0.105561
-0.123358,0.157831,0.291947,-0.439124,-0.807819,0.393191
0.428437,0.513705,-0.026890,0.179388,-0.972025,0.151616
-0.134132,-0.089828,0.189473,-0.472760,0.819522,0.323855
0.368742,0.506315,-0.256709,-0.482954,-0.411328,0.773023
0.062118,0.277201,0.352344,0.712422,0.444893,0.542702
0.472416,0.413499,0.502722,0.438650,-0.781700,0.443319
0.093735,-0.224263,-0.959308,0.315266,-0.922860,-0.221217
-0.039991,0.332523,0.246014,0.925105,-0.355311,-0.133918
0.436674,-0.401032,0.358960,0.809715,0.498735,-0.309231
0.710366,0.204991,-0.606106,-0.465177,0.756565,0.459587
0.357219,0.332209,0.766517,0.980875,-0.065403,-0.183322
-0.052322,-0.192722,-0.599366,0.334892,0.901881,-0.272869
0.592662,-0.927005,0.031236,0.625852,-0.295607,0.721752
-0.131929,0.091745,-0.991287,0.297103,0.120450,0.947218
0.058433,0.066924,0.944302,0.707203,-0.382321,0.594722
0.098416,0.024384,0.679852,0.848680,0.051333,-0.526410
-0.122059,-0.122229,-0.318450,0.979083,0.160013,0.125667
0.148930,0.017428,0.741555,0.825584,-0.452220,-0.337503
-0.063193,-0.657710,-0.967392,-0.090565,-0.147410,0.984920
0.160225,-0.088277,0.616223,0.253074,0.931833,0.260080
0.083510,-0.055229,0.497783,0.914545,-0.176662,0.363865
-0.099806,0.111170,-0.086759,0.810130,-0.577278,-0.102175
0.083101,0.045063,0.496920,0.038137,-0.347043,0.937074
0.044879,-0.071687,0.956844,0.752401,-0.503336,-0.424907
0.310679,0.066463,-0.979230,-0.563676,-0.426914,0.707116
0.235479,-0.269052,-0.961038,0.253507,0.120060,-0.959854
-0.060020,0.047301,0.362432,-0.121535,-0.937179,0.326995
0.630770,-0.983247,0.016438,0.734072,0.129240,-0.666659
0.080778,0.247576,-0.983524,0.339266,-0.118976,-0.933136
-0.077963,0.241689,0.475384,0.558856,0.449917,0.696602
-0.126099,-0.085343,0.488659,-0.417282,-0.630489,-0.654492
-0.175636,-0.350391,0.029362,0.626085,0.439275,0.644247
0.384132,0.367183,0.778533,0.812099,-0.510965,0.281796
0.249929,0.150078,0.760277,0.849764,-0.526940,-0.015361
0.788653,-0.438105,0.306383,0.952648,-0.245680,-0.179173
0.553352,-0.167292,0.087918,-0.172296,0.702355,0.690660
-0.385304,-0.189170,-0.436941,-0.867433,0.239974,-0.435859
-0.203879,0.313621,-0.628522,0.833159,0.005752,0.553003
-0.117341,0.185376,-0.991680,0.053390,-0.188305,0.980658
-0.140762,0.053156,0.779032,0.201092,-0.888106,0.413316
0.226230,0.060775,0.544857,0.497006,0.454899,-0.738954
0.165615,-0.227748,0.196530,0.214433,0.891990,0.397960
0.356920,0.309195,-0.029860,0.568314,0.282192,0.772908
0.421392,0.393668,0.519990,0.500195,-0.746638,0.438562
0.115191,0.254651,-0.080775,0.776225,0.262822,-0.573061
-0.172111,-0.141527,-0.465690,0.208569,-0.961196,0.180559
0.331748,-0.343742,0.761980,-0.070938,-0.880076,0.469504
-0.073582,-0.312308,-0.974895,-0.136621,-0.503640,0.853043
0.044334,-0.171141,-0.907485,-0.776446,0.155285,-0.610752
0.362245,0.096110,-0.577180,0.012552,0.725839,0.687750
0.100039,0.158269,0.418477,0.769577,-0.554200,-0.317196
-0.117914,-0.171717,-0.600513,0.660957,0.435550,0.611091
0.040669,-0.332730,-0.968234,0.066751,-0.436951,0.897005
0.633120,0.433147,0.019460,-0.615702,0.787246,0.033988
-0.147944,-0.443784,0.465035,0.807604,-0.588985,-0.029531
0.069102,0.512771,0.569098,0.184614,-0.766037,0.615715
-0.085188,-0.179360,-0.414790,0.339460,0.909163,-0.241223
-0.191577,0.133522,0.233270,0.833103,-0.551655,0.040200
-0.081530,-0.298076,0.741647,0.986147,-0.051472,0.157684
0.351781,-0.288195,0.368122,0.860041,0.507855,0.049110
0.512945,-0.119437,0.821407,-0.032372,0.516923,0.855420
0.129973,0.167158,0.143744,-0.022088,-0.964138,0.264481
0.090155,-0.030522,0.722839,-0.288670,0.924551,-0.248749
0.171704,-0.123065,-0.013196,-0.188413,-0.412986,0.891035
0.024410,-0.281040,-0.969936,0.505005,0.359385,-0.784737
0.439379,0.372020,0.547814,0.837985,0.478845,0.261704
0.159864,-0.008527,0.763330,0.043257,-0.973550,0.224344
0.087878,0.045478,0.412290,0.513511,0.856619,0.050103
0.017736,-0.355937,0.403849,0.711946,0.680961,-0.171537
0.138310,0.123915,0.382676,-0.192109,0.980017,0.051580
0.304442,0.257728,0.508550,0.903566,0.426969,0.035572
-0.157982,-0.000863,-0.725093,0.731653,-0.679535,0.054007
0.024998,0.101862,-0.981120,-0.438844,0.249355,0.863272
0.402720,0.156555,0.163713,-0.177788,0.860391,0.477617
0.105952,-0.272478,-0.950349,0.294162,0.002476,0.955752
0.366157,0.599629,0.178770,0.269165,-0.923412,-0.273608
0.355756,0.257614,0.587259,0.701200,0.710493,0.059311
0.249785,-0.197571,0.758245,0.870093,-0.427347,0.245587
0.109951,-0.200195,-0.087796,0.715162,-0.371114,-0.592299
-0.009056,0.274719,-0.137879,-0.008703,-0.293894,0.955798
-0.028274,-0.010100,-0.068037,0.001373,-0.946185,0.323623
0.054771,-0.125268,0.414136,0.181795,0.967446,0.176065
0.097840,-0.055136,0.729499,-0.201090,0.975140,-0.093083
0.168272,0.496306,0.519692,0.054981,-0.156996,-0.986068
-0.023838,-0.574126,-0.961899,-0.277115,-0.029315,0.960389
0.361566,-0.317074,0.150820,0.742420,-0.035813,-0.668977
0.022924,0.057470,0.805607,0.037033,0.871590,0.488834
-0.018781,0.565189,0.177428,0.878587,-0.299419,0.372066
0.246773,-0.328459,-0.955013,0.443161,0.058230,-0.894549
-0.279898,-0.018205,0.583769,0.464231,0.771271,-0.435466
0.314426,-0.662655,-0.248358,0.134333,0.620764,0.772403
-0.047526,-0.771184,-0.972723,-0.322539,0.063871,-0.944399
0.007491,-0.191181,-0.402305,0.872633,0.439422,-0.213119
-0.246798,-0.394897,-0.973945,0.974859,-0.222762,0.005114
-0.256940,0.121391,-0.062355,-0.190738,-0.132063,0.972717
-0.093054,0.110204,-0.100626,0.821913,-0.566819,-0.056347
0.362766,0.027277,0.233787,-0.636416,-0.119214,-0.762078
-0.059415,-0.079704,-0.319065,0.923042,0.209952,0.322356
0.655657,0.338115,0.289297,-0.287460,-0.926875,0.241390
0.558608,0.399340,0.201942,-0.759194,0.522964,0.387471
-0.054719,0.416305,0.131754,0.817370,0.162649,0.552677
-0.090924,-0.493087,0.099827,0.553024,-0.828961,-0.083597
0.073194,0.336722,0.166583,0.685616,0.076829,-0.723898
0.237252,0.153446,0.072591,0.710670,-0.173238,-0.681863
0.282586,-0.239874,-0.958009,-0.486781,0.691740,0.533423
0.638629,0.412101,0.238048,-0.093320,0.808947,0.580428
-0.725643,-0.077203,-0.255321,0.728312,0.624714,0.281591
0.022056,0.094014,0.499151,0.872819,-0.434234,-0.222771
0.087031,0.234263,0.612367,0.821448,-0.503996,0.266856
0.239265,0.006603,0.808013,-0.161686,0.428780,0.888823
0.126582,-0.032942,0.577684,-0.544761,-0.653361,-0.525695
-0.177286,-0.136661,-0.991829,-0.300545,0.468441,-0.830804
0.542198,0.003707,0.216625,-0.257250,0.836762,-0.483376
0.314503,0.738411,0.108759,-0.585417,0.622268,0.519682
-0.209380,0.017196,-0.977032,0.647135,0.073217,-0.758852
-0.142736,-0.100792,0.645153,-0.698685,0.702291,0.136484
0.070346,0.021953,0.472014,0.441598,0.149508,-0.884669
0.532686,0.326731,-0.637778,0.763123,0.625711,-0.161645
0.121389,-0.138932,-0.966338,0.144856,0.004762,0.989441
0.379315,0.238833,-0.172380,0.083404,0.961893,0.260395
0.918415,-0.360217,0.129622,0.848376,-0.410487,-0.334304
0.068821,0.017445,0.279080,0.507577,0.749344,-0.425263
0.044941,0.055186,0.610475,0.066043,0.781031,0.620990
-0.309694,0.287510,-0.048473,0.221864,-0.790899,0.570312
-0.042836,-0.072379,0.761503,0.300670,0.909576,-0.286826
0.123298,0.006731,0.686837,-0.431848,-0.837783,0.334105
-0.031322,-0.628103,-0.979248,-0.076291,-0.081677,0.993735
0.186478,-0.107193,0.304467,-0.333048,-0.857024,-0.393178
0.022163,-0.051661,0.473388,-0.738863,-0.673765,0.011100
0.495172,0.062991,-0.079791,0.348683,-0.417011,0.839358
-0.306757,-0.479955,-0.984737,-0.708820,0.525484,0.470575
-0.036502,0.751994,0.197268,0.358871,0.873707,-0.328402
0.292777,0.122496,0.557561,0.113302,-0.511881,0.851552
0.232727,-0.470048,-0.263651,0.375071,0.619224,0.689843
-0.188277,-0.013423,-0.118614,-0.571730,0.785918,-0.235494
-0.086764,0.163478,-0.611871,0.189161,0.428736,0.883405
-0.087779,0.077392,0.325155,0.382135,0.905338,-0.185300
0.154321,0.034463,0.606629,0.136622,-0.715979,0.684623
0.023885,-0.002737,0.498042,0.674025,0.332941,0.659425
-0.045892,0.191272,0.573088,0.184909,-0.865156,0.466169
-0.517177,-0.229762,-0.293497,0.093001,-0.802238,-0.589715
-0.081454,0.359247,-0.088807,0.893465,-0.130058,0.429890
0.061292,0.182195,0.372947,0.448834,-0.791512,-0.414798
-0.067301,-0.637453,-0.992169,-0.162909,0.041124,0.985784
-0.081595,-0.046531,-0.901404,0.432078,0.897133,0.091984
0.226957,0.143196,0.715663,-0.124608,0.198502,-0.972147
0.623897,0.892404,0.136138,0.717491,-0.027834,-0.696011
0.732659,-0.540794,0.167738,-0.800643,0.588513,0.112352
0.302694,-0.143354,0.830689,0.386374,0.763619,0.517301
-0.005113,0.681138,0.162709,0.683479,0.464712,-0.562938
-0.086433,-0.101718,0.225454,-0.217794,0.818521,0.531591
0.033251,0.375725,0.206041,0.816452,0.567646,0.105758
-0.086070,0.125577,-0.386727,-0.521774,0.851205,-0.056596
-0.473323,-0.086107,-0.269082,0.279322,-0.214534,0.935924
-0.279600,-0.033902,0.005545,0.919573,-0.050893,-0.389609
-0.040992,0.050211,0.247513,0.965109,-0.112317,0.236539
0.028351,0.426419,0.129426,-0.729649,-0.453148,0.512122
-0.069858,0.078664,-0.447668,-0.710132,0.683629,-0.168414
0.181256,0.197677,0.608584,0.974132,-0.195475,-0.113390
-0.080141,0.018846,0.284777,0.314951,0.864132,-0.392533
0.455693,0.289370,0.230450,-0.465386,0.764609,-0.445857
0.140464,0.007181,0.451765,0.608540,0.786517,-0.105215
-0.121659,0.006301,-0.685475,-0.803722,0.594133,-0.032211
0.344732,-0.040965,0.228926,0.736554,-0.653528,-0.174327
-0.014213,-0.822735,-0.981432,0.328911,0.186106,0.925841
0.000174,0.007607,0.699393,-0.834388,0.043164,0.549485
-0.111150,0.087660,0.832316,0.160952,-0.077255,0.983934
0.440106,0.253736,0.214063,0.666181,-0.737940,0.107925
-0.217287,-0.102768,0.464496,0.293309,0.686562,-0.665284
0.367786,-0.087901,-0.974263,-0.311846,0.072096,0.947393
0.330138,-0.308114,0.328497,0.071522,0.325353,0.942884
0.007583,-0.027586,-0.879074,0.574505,0.765903,0.288682
-0.670627,0.024153,-0.306220,-0.806450,0.442780,0.391899
-0.104289,0.151285,0.277844,0.788734,0.584291,-0.191058
0.347363,-0.096416,0.660489,0.442614,0.614213,-0.653327
0.272922,-0.513086,-0.973775,-0.299702,0.187968,0.935332
0.171491,0.259999,-0.058156,0.271100,-0.311351,0.910805
0.092186,-0.123132,0.336467,0.127573,0.988992,0.074971
-0.322138,0.297237,0.561237,-0.278823,0.183602,0.942628
-0.102000,0.268964,-0.977941,0.008006,0.745169,0.666828
-0.389806,0.652773,0.100756,0.689184,0.690086,0.220920
0.060182,0.848690,0.064123,-0.328577,-0.472909,0.817554
0.238200,0.240111,0.826060,0.754766,-0.654216,0.048256
0.268533,-0.158429,-0.958625,0.009483,-0.251867,0.967715
-0.005063,-0.450064,-0.982246,-0.590216,-0.118035,0.798569
0.102098,-0.282028,-0.009429,0.911898,0.232778,-0.338020
0.011653,-0.037145,0.439748,0.721543,0.571448,-0.390926
-0.152957,0.482881,0.382259,0.897606,0.407942,0.166993
-0.457969,-0.257971,0.262222,0.297576,0.877385,0.376356
0.310186,-0.176895,0.808676,0.220264,-0.953297,0.206661
0.048543,0.501642,0.577296,0.050105,0.768641,-0.637715
0.171828,-0.846362,0.426133,0.271390,-0.626256,-0.730856
0.571152,-0.852102,0.013869,-0.683488,0.056171,0.727797
0.051709,0.004048,0.685648,0.460469,-0.784767,0.414861
0.389121,0.178518,0.396410,0.609201,0.491647,-0.622220
0.050349,0.031214,0.915835,0.881216,-0.470467,-0.046028
-0.168807,0.077602,-0.619783,0.813098,-0.030721,-0.581316
0.184277,0.003062,0.764576,0.656277,-0.407297,-0.635145
-0.038904,-0.020684,0.506081,-0.133803,-0.381947,0.914447
0.267699,-0.522722,-0.031567,0.902874,-0.068340,-0.424440
-0.027170,-0.137466,0.054028,0.017219,0.758177,0.651821
0.137401,0.195907,0.259783,-0.139942,0.986448,-0.085654
0.294189,0.423027,0.443314,-0.053860,0.724346,-0.687330
-0.012839,-0.026602,-0.947685,-0.481910,-0.175263,-0.858514
-0.095798,0.607669,0.552489,-0.578215,0.668773,0.467344
-0.332851,0.055800,0.573789,0.904680,-0.364294,0.221008
-0.090837,-0.203611,-0.918043,0.883268,-0.403959,-0.238022
0.146626,-0.418334,-0.960480,-0.171058,-0.108235,0.979298
0.892245,-0.231727,0.344604,-0.345211,0.937368,-0.046597
-0.073778,-0.029888,0.660882,-0.206097,0.711734,0.671535
-0.212775,-0.096315,0.066143,0.963517,0.074595,0.257042
0.022716,-0.081520,0.820612,-0.280709,-0.786799,0.549682
-0.139398,0.219551,0.342012,-0.784248,-0.189698,-0.590737
0.012069,-0.222873,0.372814,0.950358,-0.138112,0.278828
-0.155964,-0.643014,-0.985507,-0.189572,0.191694,0.962972
0.377980,-0.515464,-0.281237,-0.192743,-0.763528,-0.616340
0.735906,0.399616,0.230368,-0.065403,-0.742375,0.666785
0.016377,0.253175,0.192004,0.925579,0.352532,0.137932
0.041724,0.418672,-0.254629,-0.685560,0.444257,-0.576752
0.383747,0.261502,0.344705,-0.417025,0.429308,-0.801115
-0.258927,-0.010648,0.359232,-0.392923,0.693937,-0.603376
-0.209996,0.373732,0.477396,-0.435713,0.194259,-0.878873
-0.001595,-0.553230,0.380409,0.994574,0.035661,-0.097732
-0.031440,0.014206,0.348364,-0.362338,0.917947,-0.161507
-0.506656,-0.185047,0.265297,-0.312170,-0.702812,-0.639222
-0.177563,-0.637584,-0.987948,-0.305707,0.285515,0.908309
-0.122102,0.421188,0.335205,-0.573282,-0.033127,-0.818688
-0.237990,-0.212521,-0.498575,0.806592,-0.589793,0.039422
0.226043,0.369692,0.032658,-0.029796,-0.845498,0.533147
0.261399,-0.680685,0.329610,0.762264,0.301782,0.572609
0.088111,-0.403514,-0.057682,0.904761,0.380241,-0.191896
0.532310,0.501618,0.355077,0.850302,-0.524553,0.042792
0.121084,-0.418723,0.829811,0.804219,0.561391,0.195123
-0.112375,0.034161,-0.613719,0.860877,0.092192,-0.500392
0.326578,-0.443493,-0.962577,0.194791,-0.434585,0.879314
0.232820,0.177658,0.716047,-0.399918,-0.740955,0.539492
-0.083578,0.074560,0.377162,0.323615,0.569328,-0.755737
0.401701,0.202367,0.241842,0.938928,0.284243,0.193958
-0.059660,0.031165,-0.752423,-0.255146,0.851299,0.458464
0.315394,0.260973,0.591423,-0.440529,-0.874832,-0.201502
0.239286,0.179732,0.411203,0.409996,-0.279194,0.868305
-0.166485,-0.031796,-0.534141,0.755678,0.426948,0.496654
0.156582,0.692442,0.540095,0.650734,0.693403,-0.309414
-0.028607,0.218754,0.579638,-0.296671,0.556696,0.775936
0.097110,-0.030078,0.649602,0.144281,0.970548,-0.192925
-0.150946,-0.237082,-0.969363,0.304176,0.602322,0.738028
0.717984,0.454659,0.231238,-0.092050,-0.856835,0.507307
-0.364091,-0.337139,0.044948,0.070278,-0.112155,0.991202
-0.409072,0.029723,0.460102,0.562446,0.565882,-0.602853
-0.346052,0.542815,-0.011221,0.398498,0.756602,0.518414
0.117492,0.337627,0.443393,0.214841,-0.860771,0.461428
0.076267,-0.145197,0.766704,0.978767,0.128160,0.159972
0.731730,-0.419575,0.295820,0.952648,-0.245680,-0.179173
0.099918,-0.063189,0.797554,0.784973,0.523984,-0.330542
0.108505,0.061509,0.649213,0.049586,0.992100,-0.115238
0.092645,0.016533,0.853262,-0.394484,-0.917146,-0.056789
0.455281,-0.670594,-0.022356,-0.054498,0.419489,0.906123
0.383885,0.420239,0.419026,-0.589398,0.807045,-0.035882
0.152418,0.062996,0.650261,-0.507440,0.820348,-0.263692
0.041290,-0.128808,0.513196,0.237185,-0.004395,0.971455
-0.329807,-0.196448,-0.368014,0.236710,-0.956969,0.167865
-0.020303,-0.096210,0.458907,0.799411,0.468823,-0.375695
0.611021,-0.977034,0.037858,-0.431961,-0.705866,-0.561394
-0.268035,-0.065023,0.181057,-0.473673,0.556598,0.682520
0.094485,0.323186,0.555057,-0.191764,0.242830,0.950926
-0.292869,0.399043,0.336213,0.374554,0.178932,0.909776
0.238233,-0.042543,0.043517,0.749684,0.480171,0.455423
0.017631,-0.666611,0.384717,-0.216802,0.023390,0.975935
0.462464,-0.180872,0.800890,0.707355,0.463454,-0.533723
-0.152728,0.030661,-0.270522,-0.158927,0.987208,0.012719
-0.061834,0.027196,-0.599930,-0.308800,0.565292,0.764910
-0.983226,-0.373170,-0.355415,0.369249,-0.589512,-0.718422
0.470294,0.176743,0.143890,-0.613429,0.164648,0.772396
0.106049,0.035586,-0.571952,0.890460,-0.214714,0.401222
0.552470,0.568101,-0.502973,-0.560123,0.806490,-0.189303
0.218561,0.035424,-0.647302,-0.092966,-0.725500,0.681914
0.058197,0.017720,0.525568,0.563124,0.781519,0.268552
0.094926,0.278530,-0.967241,0.742540,0.331495,-0.582018
-0.159126,0.019110,-0.979398,0.156441,0.124383,0.979824
0.889144,0.387901,0.310012,-0.661613,-0.743953,0.093822
-0.005861,-0.024292,-0.979720,-0.400539,0.110819,0.909554
0.623998,0.549990,-0.603492,-0.378943,-0.132743,0.915850
-0.081477,0.033516,-0.453537,-0.525070,0.765538,-0.371823
0.084805,-0.888707,-0.014789,0.797467,0.283098,0.532824
0.075150,0.022763,0.442014,0.007200,0.205217,0.978690
0.449115,-0.240610,0.465950,0.077491,0.821114,0.565480
0.516620,0.385011,-0.632507,0.600643,0.329020,0.728679
0.207302,0.087816,0.635287,0.992551,0.035656,-0.116494
0.245642,0.500660,0.441062,-0.326282,0.786928,-0.523722
0.190566,0.320104,0.548134,-0.641159,0.045162,-0.766078
0.610903,0.364122,0.502932,0.096061,-0.992621,-0.074002
0.609233,-0.022223,0.691099,0.769142,0.574859,-0.279208
0.353789,0.269772,0.364385,0.932645,-0.166782,0.319933
0.674434,-0.543962,0.185082,0.447033,0.273439,0.851700
-0.160096,0.245055,0.346848,0.992888,0.010444,-0.118595
-0.276979,0.000865,0.158303,0.946506,-0.139402,-0.291020
-0.018581,-0.103980,0.718171,0.296946,-0.277358,0.913726
0.130498,-0.471155,-0.961938,0.257571,-0.032174,-0.965724
0.201151,-0.105670,0.402115,0.675244,-0.301450,0.673182
0.448176,0.320835,0.543836,-0.405867,0.387614,0.827664
0.126613,-0.168166,0.485662,0.195104,-0.869060,0.454608
0.091227,0.324809,0.438254,0.373111,-0.569857,0.732155
-0.163399,0.413514,0.346563,0.255402,0.660860,0.705715
-0.322308,0.065750,-0.431440,-0.078998,-0.127741,0.988656
0.410335,-0.370152,0.344748,0.727129,0.685345,-0.039833
0.049666,-0.195663,-0.339227,-0.588247,0.232155,0.774642
0.039139,0.094068,0.807394,0.562513,0.818418,0.117345
-0.165230,0.090029,0.233193,0.785077,0.582677,0.210099
-0.184298,-0.097084,0.246750,-0.123992,-0.931419,0.342176
0.152608,0.315076,-0.985008,-0.093976,0.539119,0.836970
-0.161885,0.043890,-0.671077,0.998408,-0.020699,0.052464
0.300756,0.209374,0.626940,-0.499127,0.197423,-0.843740
0.061737,-0.155635,-0.975351,-0.047553,-0.180242,0.982472
0.049836,0.479468,0.487171,-0.247503,0.007471,0.968858
-0.164923,0.131372,0.228086,0.896236,-0.283446,0.341202
0.565766,-0.964643,0.026237,-0.581759,0.571468,0.578775
0.134579,-0.071223,0.456597,-0.577295,0.376116,0.724753
0.211538,0.066661,-0.054529,0.832029,0.554360,-0.020284
0.022370,0.119910,0.494330,-0.480713,0.844744,0.235207
0.021532,0.062133,0.751415,0.873870,-0.071114,-0.480930
-0.042880,-0.110003,-0.587113,0.554091,0.793719,0.250985
0.397345,0.420092,0.539009,0.905257,0.316756,0.283153
0.376434,0.140665,0.400841,-0.382679,0.752696,0.535729
0.009278,0.114709,0.277260,-0.744063,0.363507,0.560565
0.009013,-0.020896,-0.412659,0.879140,0.180257,-0.441157
-0.196505,0.081723,-0.769837,-0.374598,0.428336,0.822317
-0.326756,-0.206640,-0.627316,-0.085493,-0.954356,0.286174
0.240795,-0.025072,-0.968731,-0.108428,-0.008346,0.994069
0.099931,0.041973,0.501134,-0.673371,-0.714023,0.191683
-0.007924,0.039828,0.552638,0.621389,0.781775,0.051997
-0.151217,0.098311,-0.536526,-0.479666,0.843714,-0.240972
0.441947,0.131059,0.685070,0.743244,0.414730,-0.524964
0.080915,-0.088881,0.761782,0.890765,-0.335952,-0.306062
0.250515,0.144674,0.565924,0.814959,0.483654,0.319251
0.080961,0.020006,-0.481982,0.394888,0.213396,0.893602
-0.087672,0.002319,0.347681,-0.812760,0.434424,-0.388197
-0.087306,0.267425,-0.491085,0.537244,-0.181895,-0.823579
0.114614,0.019330,0.224406,0.257998,-0.903008,-0.343531
0.087868,0.349658,-0.082651,-0.203565,-0.305075,0.930317
-0.002218,0.071613,0.184070,-0.762352,0.591456,0.262677
-0.555605,-0.173589,-0.005195,-0.068812,-0.944411,0.321485
-0.131366,-0.222599,0.580208,-0.681645,-0.156368,-0.714779
-0.097817,-0.171056,-0.964879,0.313627,-0.090771,-0.945198
0.111401,-0.114783,0.826823,0.512303,0.184006,-0.838861
0.399700,-0.280612,0.057792,0.354154,-0.232510,-0.905822
-0.022928,0.065741,0.168355,0.175996,-0.982154,-0.066326
-0.072253,0.569575,0.251140,-0.652749,-0.508311,0.561728
0.183269,0.033503,0.237698,-0.162156,0.190588,0.968185
-0.138142,-0.654929,-0.975069,0.272514,-0.049112,-0.960897
0.094756,0.148090,0.060326,-0.718759,0.673374,0.173071
0.505840,0.608353,-0.567086,0.107569,-0.951148,0.289391
0.343986,-0.083967,0.502571,0.779992,-0.284651,-0.557302
0.311155,-0.480123,0.278502,0.695021,0.250858,-0.673807
0.242220,-0.405367,-0.963962,-0.133185,-0.902708,0.409120
0.311652,0.224044,-0.978739,0.030528,0.237046,0.971019
-0.087817,0.403742,0.413891,0.847926,0.432252,-0.306886
0.075412,-0.076209,0.886273,0.957711,0.269986,0.099489
0.665194,0.451549,0.269284,-0.006123,-0.973297,0.229467
0.162676,0.272899,0.560055,0.945108,0.076360,0.317710
0.128415,-0.081217,0.915900,0.446299,0.794239,-0.412313
0.139352,-0.210466,-0.292374,-0.669969,-0.645776,-0.366217
0.019499,-0.072982,0.792036,0.601495,0.669547,0.435787
0.072836,-0.209351,0.539657,-0.011569,0.160444,0.986977
0.012779,-0.034410,0.316081,-0.483919,-0.208889,0.849816
0.065277,0.016720,0.642319,0.735089,0.119307,0.667390
-0.158552,-0.440899,-0.770357,0.848106,-0.529822,0.002190
0.288575,0.499911,0.058390,0.881057,-0.205055,-0.426252
0.562836,-0.292152,0.103527,0.470392,0.882072,-0.026072
-0.116958,-0.724851,-0.970039,-0.416884,-0.367839,0.831205
0.828485,0.404564,0.318110,-0.615016,-0.787661,0.036683
-0.014242,-0.292389,-0.976753,-0.466914,-0.136925,0.873638
-0.473011,0.542569,-0.052399,-0.115245,0.218273,0.969059
0.278502,0.221446,0.119810,0.757254,-0.646167,-0.095054
0.343612,0.666513,0.095411,0.426076,0.165045,-0.889505
0.093659,0.200837,0.431241,-0.587076,-0.008950,-0.809483
-0.060891,0.237928,0.427371,0.992927,0.078121,0.089408
0.117322,-0.156802,0.851361,-0.713577,-0.373207,0.592895
0.104094,0.195912,0.548552,0.733701,-0.525146,-0.431165
-0.050666,0.071022,-0.482166,-0.658570,0.187867,0.728691
-0.060218,0.380708,0.472097,0.798582,0.478460,-0.365160
-0.036566,0.290510,0.135584,0.579342,0.605008,0.546194
-0.295824,-0.724440,-0.979982,-0.314560,0.012129,0.949160
-0.218192,-0.134195,-0.771644,0.143788,-0.167765,0.975284
-0.244045,-0.303294,-0.486107,0.827918,0.098621,-0.552110
-0.240944,-0.280389,-0.965368,-0.067533,0.925250,-0.373299
-0.201712,-0.419009,-0.764346,-0.132330,0.004662,0.991195
-0.148501,0.219174,-0.604165,-0.677285,-0.307584,0.668340
0.313782,-0.257090,-0.973849,-0.476270,0.241705,-0.845426
0.045148,-0.036139,0.674723,-0.073331,0.302240,0.950407
-0.075520,-0.067179,0.672739,0.273801,0.947458,0.165399
-0.338250,0.007419,0.265086,-0.155136,-0.907749,0.389776
0.640444,0.374403,0.251245,-0.214760,-0.532296,0.818864
0.911685,-0.231367,0.341610,-0.345211,0.937368,-0.046597
-0.081675,0.213240,0.843837,-0.178377,-0.972433,0.150188
0.705872,0.313396,0.246727,-0.659743,-0.641285,-0.391781
0.002096,0.220002,-0.039186,0.178998,-0.838438,-0.514764
0.130896,0.049324,0.446759,-0.591423,-0.801191,0.091168
-0.145302,0.072267,0.498327,-0.498731,-0.674335,-0.544554
-0.112753,0.053224,-0.757611,-0.349075,0.713105,0.607970
-0.014432,-0.142658,-0.784384,0.034673,0.993357,-0.109724
-0.088864,-0.148367,0.087673,0.908865,-0.150373,-0.389041
0.012569,0.064883,0.280867,0.690055,-0.682961,-0.239558
0.620711,-0.228652,0.092908,0.009516,0.828894,0.559325
0.060077,0.209739,0.547287,-0.500095,0.561275,0.659450
-0.281243,-0.290596,0.075710,0.990027,0.140599,0.008802
-0.110827,-0.182455,-0.784269,-0.505555,-0.842301,-0.186933
-0.003897,-0.151421,-0.474129,-0.582959,0.155389,-0.797504
-0.225334,-0.241630,-0.984256,0.835624,0.023446,0.548802
0.152177,0.279271,-0.070105,0.516232,0.720864,0.462450
0.103286,0.026385,0.127213,0.925332,0.001418,0.379155
0.466693,0.740592,0.093641,-0.258910,-0.445371,0.857094
0.136437,0.071338,0.458455,-0.443697,0.894074,0.061358
0.876800,0.333396,0.288801,-0.587885,-0.656590,0.472525
-0.285426,0.045098,0.301476,0.057872,0.702135,0.709688
0.141863,0.053775,-0.576488,0.851537,-0.061721,0.520648
0.055593,-0.686918,-0.951583,-0.387296,-0.030459,0.921452
0.026885,0.600060,0.163734,-0.171839,-0.179774,0.968583
-0.152774,0.144970,0.259148,-0.445502,0.438652,0.780456
-0.158586,0.043897,-0.288393,0.782420,0.511898,0.354655
0.041195,-0.029089,0.967194,-0.750529,0.646690,0.136008
0.292505,-0.003366,0.631269,0.871463,0.342239,-0.351320
-0.014724,-0.489483,0.350671,0.500648,-0.251055,-0.828446
0.091670,-0.905075,0.412301,0.830157,-0.209455,-0.516689
0.335765,0.137066,-0.583442,-0.124731,0.754218,0.644669
0.136507,-0.002793,-0.978235,-0.147926,0.084148,-0.985412
-0.010126,-0.002920,0.392508,0.914770,-0.403329,0.022830
-0.045182,0.134566,-0.609048,0.217697,0.235851,0.947091
-0.111173,0.171340,-0.980415,0.367873,-0.251076,-0.895338
0.408727,0.422810,0.515512,0.399237,-0.641813,0.654741
0.184537,0.109232,0.661737,-0.279935,0.882909,-0.376972
0.231945,-0.043350,0.262875,-0.480240,0.556043,-0.678370
-0.209318,-0.183271,-0.961242,-0.408889,-0.911136,-0.051388
-0.169746,0.077086,-0.705191,0.942035,-0.304941,-0.139933
0.420225,0.135176,0.212813,0.922685,0.340505,-0.180856
0.235131,-0.003510,0.548289,0.147026,-0.887531,0.436659
-0.231089,0.405342,0.328405,0.304834,-0.395577,0.866369
0.470650,-0.412343,0.130712,-0.372381,-0.916107,-0.148594
-0.699786,0.842891,0.122457,-0.435281,-0.900278,-0.005502
0.460845,0.266638,0.172142,0.968036,-0.120988,-0.219701
0.010956,-0.035316,0.467863,0.952726,0.002923,-0.303816
0.986682,0.330959,0.313897,-0.117449,-0.992577,0.031564
0.073840,-0.198258,0.840570,0.897384,0.413585,-0.153783
0.104624,-0.073899,0.711657,-0.216636,0.119205,0.968947
-0.062151,0.005636,-0.645529,-0.323088,-0.766646,0.554859
0.007291,0.164026,0.119641,0.443060,-0.248339,0.861409
-0.452535,-0.049654,-0.611099,0.222379,-0.964390,0.143178
0.225519,0.379053,-0.984305,-0.131891,0.463098,0.876439
0.076696,0.053311,0.476821,-0.335770,-0.501826,0.797138
-0.091901,-0.004772,-0.195277,0.806744,0.569389,-0.157987
-0.265581,-0.126248,0.459521,-0.415944,-0.739870,0.528756
0.106165,-0.188761,0.232944,-0.277488,-0.907055,0.316624
-0.263337,0.398528,0.493290,0.592929,-0.516643,0.617670
0.042787,0.034396,0.742424,-0.697011,-0.484486,0.528630
0.557584,0.877581,0.122149,-0.070859,-0.679485,0.730260
-0.074891,-0.249809,-0.864371,0.539604,-0.532569,-0.652072
0.173917,0.198445,0.480670,0.714163,0.484412,0.505288
-0.167104,0.361096,0.277925,0.862032,0.126709,0.490761
-0.196467,-0.258857,-0.994048,0.346649,0.362994,0.864910
-0.145230,0.328307,0.152607,0.943582,-0.001539,0.331134
0.167312,0.208318,0.709852,0.616015,0.459102,-0.640118
0.442791,0.042563,0.225616,0.713915,-0.697882,-0.057325
0.369111,0.295881,0.410078,0.999933,0.011501,0.001167
-0.046335,-0.073340,0.813845,0.147755,0.519364,0.841682
-0.014139,0.129120,0.383807,0.354723,0.934139,-0.039438
0.013425,-0.165338,-0.324990,0.245678,0.942237,0.227664
-0.481533,0.180441,-0.007733,0.991684,0.108607,-0.069039
0.041107,0.233756,-0.990959,0.477875,-0.172972,-0.861229
-0.041061,-0.067481,0.411830,0.901851,0.152364,-0.404289
0.520238,-0.796994,-0.000526,0.507052,0.560405,0.654862
-0.159144,-0.050415,0.605877,-0.587838,0.537566,-0.604540
-0.019258,-0.014958,0.597486,0.748787,-0.093235,0.656221
0.234906,0.012511,-0.952956,0.654847,0.471375,0.590746
0.082373,-0.098912,-0.955211,-0.280088,0.471690,0.836098
0.001232,-0.142319,0.239216,-0.605748,-0.786285,0.121756
0.101293,0.314158,0.528250,0.939279,0.268390,-0.213826
-0.034871,0.525186,-0.063618,0.586790,-0.182266,-0.788959
0.462804,-0.761948,0.011903,0.871648,0.466937,-0.148995
0.226650,-0.044351,0.625568,-0.539560,0.325956,-0.776291
0.072165,0.695056,0.534904,-0.005868,-0.640091,0.768277
-0.105067,-0.152060,-0.085838,0.441464,-0.230653,0.867127
0.137564,0.227376,0.496823,0.858258,0.505979,0.085898
-0.014791,0.439539,0.256422,0.939605,-0.165000,0.299861
0.198088,-0.099361,0.748152,0.795901,0.006326,0.605394
-0.047813,0.364494,0.682647,-0.276330,-0.302351,-0.912264
0.089947,0.249913,0.304126,-0.598322,0.710813,0.369804
0.264165,0.119094,0.322113,0.487364,-0.714971,0.501292
0.033990,0.266267,-1.000000,-0.136713,0.414631,0.899662
-0.075435,-0.009661,0.661851,0.960363,-0.224690,-0.164978
-0.154289,-0.031139,0.018314,-0.686964,0.625770,0.369448
0.511854,0.221130,0.221020,0.379290,0.774292,-0.506568
-0.149992,-0.130141,-0.972787,-0.125350,0.299183,0.945927
0.142411,-0.121193,0.813940,0.087037,-0.972083,-0.217900
0.336913,-0.136523,0.073348,-0.396277,-0.874743,-0.278907
0.680725,0.639222,-0.567908,0.692686,-0.550648,0.465803
0.449764,-0.523311,-0.270463,0.156922,0.793492,0.588002
-0.176340,0.624369,0.534812,-0.458852,0.417672,0.784222
-0.140157,0.315126,0.055420,0.871253,0.468956,0.144906
0.843511,-0.382532,0.134500,-0.106758,0.905271,0.411201
0.082122,-0.177081,0.326173,0.967311,0.123411,-0.221540
0.041848,0.078150,0.440821,0.728866,0.357977,-0.583616
0.230307,-0.298792,-0.320361,0.453385,0.888436,-0.071571
0.605215,-0.954866,0.023735,0.431416,0.815005,-0.386843
-0.061760,0.031729,-0.302800,0.274488,0.695408,-0.664126
0.080646,-0.335398,0.489538,0.588137,0.733706,-0.340250
0.080145,0.133816,0.551166,-0.933582,0.358115,0.013381
0.037541,0.305276,-0.473180,-0.471733,0.332759,0.816541
-0.103583,-0.716647,-0.974796,-0.097799,-0.043824,0.994241
-0.131709,-0.212906,-0.974849,-0.508749,-0.322008,0.798427
-0.022051,-0.039992,0.531555,0.949390,-0.159077,-0.270839
0.788752,0.428554,0.333489,0.101331,0.994846,0.003711
0.344045,0.026081,-0.047403,-0.214815,-0.901247,0.376309
0.559872,-0.930285,0.014982,-0.505249,0.123038,0.854157
0.191537,-0.075492,-0.947084,0.867947,-0.273824,0.414354
0.308114,-0.235620,0.557118,0.462332,0.885933,0.037039
0.009048,0.831515,0.241210,-0.589730,-0.021038,-0.807326
-0.027279,-0.075191,0.601250,0.886164,0.345173,0.309143
-0.013229,-0.187524,-0.606394,0.285462,0.868353,-0.405555
0.657891,-0.307873,0.107216,-0.172171,-0.982633,-0.069202
0.061565,0.725788,0.543190,-0.110892,-0.253182,-0.961042
-0.034835,-0.015212,0.465338,0.929192,0.115689,-0.351023
0.374156,-0.126013,0.769663,0.801448,0.446329,-0.398085
0.180632,0.795638,0.263353,-0.024162,0.430374,0.902327
0.044709,-0.026952,0.575478,0.621501,-0.782190,-0.043758
0.010395,-0.131347,0.328952,-0.219887,-0.974813,-0.037260
-0.764125,0.018508,-0.211502,-0.545028,-0.820662,-0.171635
0.226508,-0.220538,0.841907,-0.494898,0.857507,0.140563
0.175725,-0.226680,0.429095,-0.254170,0.094469,0.962535
0.511322,-0.824383,0.015784,0.632958,0.731526,0.253446
0.091129,0.151082,-0.088156,-0.279392,0.955769,-0.091897
0.217333,0.103997,0.443164,-0.330410,0.877926,0.346520
-0.049367,-0.174771,-0.792996,0.421376,-0.806698,0.414343
0.475378,0.097366,-0.163477,-0.243525,0.968830,0.045431
0.140453,-0.193975,-0.380549,0.814545,0.487768,0.314004
0.571219,0.455216,0.472927,-0.180382,0.306365,0.934667
-0.376299,0.608639,0.099367,0.717991,0.695393,-0.030304
0.172843,0.073157,0.463332,-0.313729,0.699537,-0.642045
0.224938,-0.218176,0.709127,0.745964,0.389053,-0.540533
0.480033,0.492535,0.515060,0.467437,-0.753512,0.462301
-0.116632,0.120513,0.290369,0.753306,0.639296,0.154371
-0.121007,-0.077918,0.048912,0.013978,0.142869,0.989643
-0.016275,-0.070007,0.885631,0.858873,0.456652,-0.231961
0.607178,0.213280,0.249144,-0.377567,-0.876590,0.298384
0.162258,0.367105,0.477046,0.230754,-0.130224,0.964259
-0.014548,-0.020026,-0.044338,-0.340124,0.930513,0.135869
0.498023,-0.217832,0.790098,0.836637,0.064332,-0.543966
0.032178,-0.147534,-0.604719,0.950447,0.100741,-0.294111
-0.226167,0.279237,0.534250,-0.536921,-0.638955,0.550865
-0.378145,0.387792,0.517392,0.909265,-0.004027,0.416199
-0.194914,0.050282,0.073699,-0.512672,0.743386,0.429587
0.011507,0.042343,0.941377,0.939180,-0.229627,0.255369
0.264109,0.432349,0.063820,0.952856,-0.281744,-0.112627
0.277003,-0.215951,0.805174,0.612219,-0.710204,0.347559
0.624186,0.679147,-0.596070,0.038248,-0.959157,0.280276
-0.037623,-0.099762,-0.201317,-0.148633,-0.837358,0.526061
0.041091,-0.234172,-0.941416,-0.721843,0.657413,-0.216219
0.651614,-0.379392,0.193119,0.597141,0.611417,-0.519223
-0.191782,-0.130788,-0.819728,-0.521568,-0.689589,0.502428
-0.341960,-0.197332,-0.375382,-0.356294,0.872757,-0.333693
0.535352,0.274791,0.243200,0.605260,0.005061,-0.796012
0.331184,0.246088,0.447054,-0.515985,0.845711,-0.136133
0.084593,0.524835,0.522029,0.295523,-0.079406,0.952030
0.833377,0.446653,0.305738,0.611045,0.768321,-0.190543
0.040893,0.527180,0.174865,0.906345,-0.097112,0.411227
-0.145572,-0.082251,-0.987006,0.777557,0.136414,0.613837
-0.016555,-0.077832,0.509743,-0.301287,0.000791,0.953533
0.024576,-0.410518,0.406769,-0.218381,-0.833373,0.507740
0.110615,-0.239448,-0.298078,0.699340,-0.511120,-0.499680
-0.076255,-0.540794,-0.982337,0.194351,-0.061526,0.979001
0.667680,0.378416,0.307142,-0.091402,-0.789022,0.607527
-0.169274,0.398406,0.341586,0.804305,0.414466,0.425807
0.054093,0.050826,0.350792,-0.260094,0.965469,0.014852
0.785003,0.547559,0.446092,0.328472,-0.904603,0.271661
0.168663,-0.683189,0.402924,0.223443,0.603711,0.765249
0.109104,-0.185231,0.436814,-0.437518,-0.845587,-0.305876
-0.113258,-0.053620,-0.079848,-0.647327,0.316878,0.693222
0.145579,0.427837,0.534019,-0.688738,0.707246,0.159507
-0.117863,-0.075404,-0.525867,0.527931,0.848716,-0.031153
0.495423,0.502520,0.533537,0.314892,-0.898349,-0.306288
0.029808,0.003826,0.865477,0.772922,0.623561,0.117316
0.354208,-0.241665,0.335408,-0.015297,0.983309,0.181299
0.170701,0.295354,0.610486,0.930988,-0.011958,-0.364855
0.772372,0.498896,-0.605124,0.985177,0.166333,-0.041954
-0.142185,0.316411,0.310432,0.786268,-0.476689,0.393130
0.021785,0.095834,0.742031,0.715049,-0.619580,-0.323767
-0.218107,-0.333887,-0.986075,-0.186054,-0.278508,-0.942241
0.292874,-0.250280,0.125205,0.673322,0.395994,-0.624361
0.219423,-0.080522,0.820451,0.469496,0.819307,0.329105
0.038369,-0.184670,0.468529,0.786603,-0.601637,-0.138884
-0.020058,0.073873,-0.374558,0.845127,0.410596,0.342302
0.219482,0.306537,0.615401,0.683853,0.375797,-0.625397
-0.715061,0.092362,-0.040345,0.932073,-0.159779,-0.325131
-0.245774,-0.066693,0.701624,-0.133781,0.944369,0.300450
0.081580,0.059477,0.811644,0.685272,-0.515457,0.514496
-0.032838,0.609313,-0.059913,0.052599,-0.135226,0.989418
-0.082330,-0.158651,-0.602709,0.704991,0.701988,-0.100996
-0.142511,-0.037287,-0.251689,-0.483358,0.787188,0.383015
0.042125,0.019179,0.945583,0.810921,-0.355959,0.464436
0.301092,-0.198753,0.448356,-0.511481,0.127649,-0.849760
-0.143866,0.126699,0.325977,0.974135,-0.107614,0.198699
-0.075220,0.069348,-0.758768,0.202737,-0.861081,-0.466302
0.729866,0.290808,0.253037,0.795733,0.349990,-0.494283
-0.210095,0.015696,0.831969,0.540989,-0.076773,-0.837518
-0.131014,-0.012501,0.761033,0.252899,-0.717696,0.648811
0.493027,0.374278,0.345476,-0.210067,0.369067,0.905352
-0.152578,-0.019360,-0.932931,-0.269281,0.956338,-0.113603
0.160689,-0.171507,0.046576,0.401918,-0.698474,0.592112
0.215687,-0.122770,-0.969236,-0.080596,-0.022957,0.996482
0.032081,0.921716,0.241085,0.110552,0.779657,0.616371
0.628716,-0.485829,0.385837,0.223256,0.972876,-0.060576
-0.346763,-0.551088,-0.991259,-0.624666,-0.065298,0.778157
0.558171,-0.096029,0.702374,-0.290585,0.950291,0.111839
0.029064,-0.095985,-0.512957,-0.418821,0.217304,0.881685
0.008189,-0.105600,0.246545,0.841097,0.426191,-0.333041
-0.056619,-0.495920,-0.982755,-0.386413,-0.038217,-0.921534
0.333974,-0.521587,0.269802,0.799377,0.263832,-0.539805
-0.024344,0.620430,-0.061894,0.027518,-0.132088,0.990856
0.229726,0.067418,0.608575,0.313706,0.667620,-0.675183
-0.009930,0.047732,0.412396,-0.760542,-0.080452,-0.644285
0.025533,-0.179903,-0.804126,0.942452,0.239608,-0.233180
-0.163576,0.273767,0.033119,0.852138,0.153476,0.500306
0.007915,-0.088175,-0.865008,-0.565963,-0.586411,-0.579489
0.011092,-0.081474,-0.475100,0.472155,-0.116735,0.873752
0.147749,-0.478952,-0.704398,0.931232,0.336262,-0.140478
-0.145731,-0.307302,-0.981369,0.816349,0.564760,0.120918
0.033346,0.017331,0.316099,-0.002809,0.260106,0.965576
-0.006822,-0.040866,0.389430,0.955264,-0.188969,0.227513
0.038235,0.092196,0.957892,0.560888,-0.801956,0.205601
-0.073729,-0.502577,-0.976987,0.216921,-0.000042,0.976189
0.032186,0.366141,0.547971,0.769709,0.638146,-0.017811
0.008369,-0.028745,0.294232,0.841169,-0.526511,0.123375
-0.014021,0.035089,0.612553,0.054903,0.898448,0.435634
-0.079322,-0.154157,-0.360912,0.674280,0.703757,0.223769
0.138698,0.140164,0.111756,0.219985,-0.048591,0.974292
-0.152152,0.122216,-0.953061,0.602338,0.105923,-0.791182
-0.193062,0.158250,0.822114,-0.521177,0.841905,-0.139896
0.103613,0.183041,0.547136,0.951520,-0.185288,-0.245515
0.132103,0.296630,0.443878,-0.185624,0.717974,-0.670863
0.149980,-0.148567,-0.969263,0.206192,-0.172095,0.963259
0.169385,-0.103613,0.490564,-0.156037,0.968643,-0.193348
-0.286119,0.002332,0.166871,0.756029,-0.281998,-0.590676
-0.176124,-0.024450,-0.711660,0.999189,-0.019866,0.035012
-0.243272,-0.009777,0.041428,0.741814,0.593830,0.311575
-0.618785,-0.204557,-0.336350,-0.313597,-0.925803,-0.211059
0.480065,-0.490825,-0.255743,0.182416,0.687380,0.703017
-0.314413,-0.171576,-0.962652,0.909774,-0.017452,0.414737
-0.169153,-0.581091,-0.980707,-0.034987,-0.430164,0.902073
-0.115058,-0.011054,-0.383668,0.208873,0.723197,0.658300
0.352052,-0.047409,0.230940,0.789504,-0.545802,-0.280685
0.547851,-0.899317,0.011162,-0.556114,0.283856,0.781130
0.066703,0.093428,0.498303,0.023816,-0.998999,0.037872
0.491915,-0.524098,0.367634,0.837901,0.496230,-0.227328
-0.199729,0.413864,0.339692,0.972285,0.198070,0.124220
-0.017341,0.031606,0.296823,0.153462,-0.921887,0.355773
-0.086567,-0.001031,0.217669,-0.338472,0.452996,0.824761
-0.221698,0.369713,0.330627,-0.576498,-0.812089,0.090347
0.132902,-0.050156,0.584960,-0.066531,-0.996584,0.048923
-0.051015,0.038845,0.694545,-0.075521,0.604805,0.792785
0.036023,0.284508,-0.681099,0.798338,-0.546311,0.253379
0.333188,-0.118234,0.242256,0.799049,-0.600824,-0.023047
0.030956,0.005236,0.470715,0.798701,-0.591422,-0.110894
0.115049,-0.021376,0.209379,-0.682668,0.577520,0.447700
-0.621164,-0.141942,0.008993,0.169491,-0.984064,0.053772
-0.299602,-0.167130,-0.432027,-0.058851,-0.958060,0.280461
0.091637,0.053666,0.541885,-0.062769,-0.370539,0.926694
0.076884,-0.000472,0.702134,-0.713640,0.464837,0.524066
0.298747,-0.066775,0.607734,0.840718,0.165521,0.515554
-0.035763,0.603993,0.561777,-0.355646,0.538797,0.763684
-0.389336,0.656455,0.260792,-0.634835,-0.737320,-0.230963
0.069062,-0.047281,-0.152304,0.928671,0.097134,-0.357960
-0.195206,-0.577303,-0.965788,-0.644289,0.482581,-0.593302
0.298458,-0.012884,0.607446,0.856722,0.506383,0.097996
0.161141,0.136143,0.498171,0.929002,-0.148578,0.338939
0.337832,0.013645,0.507359,-0.299815,0.166851,-0.939293
-0.135247,0.333345,-0.987066,0.093882,-0.995546,-0.008617
0.102666,-0.454410,0.362820,0.999949,0.006991,-0.007268
0.214968,0.119573,0.148521,-0.655026,0.739104,-0.157058
-0.139396,-0.262674,-0.980418,0.770180,0.275276,-0.575366
0.016764,-0.053860,0.789061,0.647082,0.479923,0.592417
0.078945,0.043492,0.414563,0.556383,0.829366,-0.050899
-0.003103,-0.101399,0.256024,-0.410858,-0.715718,0.564750
-0.135243,0.006004,-0.973068,-0.249502,0.136246,0.958742
-0.207912,0.436855,0.330052,-0.212399,-0.707265,0.674287
-0.006686,0.182395,0.459103,0.942719,0.333244,0.015151
0.262477,-0.074952,0.774348,0.741877,0.574939,-0.345057
-0.272795,-0.233370,-0.973659,-0.727465,0.426291,-0.537653
0.066648,0.008024,0.618284,-0.660158,-0.745169,0.094418
0.182347,0.322174,0.018412,-0.349632,-0.358836,-0.865445
0.305738,0.119113,-0.034981,0.395926,0.498369,-0.771279
0.412238,-0.412523,0.154865,-0.501206,-0.862715,0.067194
0.257623,0.356777,0.780663,-0.434557,0.888680,-0.146316
-0.161999,0.278682,-0.618704,0.440486,0.653892,-0.615140
0.085039,-0.039048,0.983426,-0.600663,0.703945,0.379033
0.340658,0.322236,0.244277,0.956565,-0.263328,-0.125069
0.137599,-0.093427,-0.585155,0.921692,-0.289000,0.258771
-0.074588,0.028484,-0.994762,-0.259202,-0.098284,0.960809
-0.197217,-0.486428,0.505157,-0.634462,0.701319,0.324977
-0.006905,0.217966,-0.976125,-0.188800,0.131531,0.973167
-0.258225,-0.097109,-0.973009,-0.597482,0.331063,-0.730351
0.103444,-0.338481,-0.958271,-0.435681,-0.164660,0.884912
0.102875,-0.556275,-0.965333,-0.168565,0.115896,0.978853
0.016183,-0.589150,-0.959801,0.197574,-0.265455,0.943662
0.150856,0.184903,0.785744,-0.569643,0.816063,-0.097717
0.394247,-0.121082,0.436813,0.784890,-0.203190,-0.585372
-0.053992,-0.244187,-0.898165,0.487400,0.872513,0.034088
-0.173026,0.328627,-0.598305,0.701328,0.602653,-0.380721
-0.034568,0.165105,0.468804,0.992599,-0.088310,0.083362
0.272485,0.159994,-0.291313,-0.458714,-0.138186,0.877773
0.720786,-0.407623,0.365073,0.350240,0.719529,0.599675
0.068980,-0.089975,0.712987,0.751309,0.659789,-0.014587
0.147859,0.214830,0.572139,0.150898,0.847556,0.508801
0.253060,0.126995,0.427919,0.815786,-0.572972,0.078715
0.220697,0.039661,0.605399,0.247827,0.585441,-0.771907
0.538968,0.552298,0.339185,0.640143,-0.707392,0.299689
0.257267,0.317501,0.738032,0.141034,-0.611268,0.778756
0.511007,-0.128694,0.072391,-0.228653,0.810900,0.538664
0.098944,0.058991,0.350469,-0.340334,-0.701647,-0.625991
0.068325,0.067845,0.047961,-0.524296,0.851099,-0.027297
-0.306926,0.432394,-0.074135,0.964642,-0.255701,0.063892
-0.111815,0.080001,-0.136132,0.999328,0.034719,0.011714
0.056026,0.013313,0.895077,0.481368,0.871706,-0.091728
-0.154690,-0.000505,-0.800413,-0.154713,0.971930,-0.177246
-0.000221,0.634378,0.272504,0.919897,-0.079974,0.383919
0.090731,0.006929,0.210249,0.992914,0.117378,0.018573
0.073176,-0.471609,-0.967772,-0.107561,-0.139360,0.984383
-0.077994,0.005053,-0.990075,-0.336370,-0.000694,0.941730
-0.190258,0.396323,0.474051,-0.413465,0.614472,-0.671916
-0.269922,-0.048782,-0.067651,0.230557,-0.264259,0.936489
0.012615,0.662227,0.171947,0.856935,0.174934,-0.484830
0.365427,0.222408,-0.030069,0.477508,0.417242,-0.773237
0.000559,-0.476726,-0.977505,-0.426971,0.034939,0.903590
-0.091540,0.239507,0.243794,0.874277,-0.482571,-0.052587
-0.102254,0.525860,0.190765,0.756484,0.603145,0.252878
