-0.111948,0.130672,0.672184,0.722658,0.475865,0.501315
0.578398,-0.647674,0.461783,0.713878,-0.520654,-0.468293
0.676907,0.650923,0.602438,0.754314,0.153438,-0.638331
0.268488,0.233841,-0.239243,0.960893,-0.276889,-0.004228
-0.054347,0.441801,0.584761,0.330349,-0.053697,0.942330
0.557600,-0.622607,0.326843,0.857859,0.504367,-0.098447
-0.131291,-0.168968,-0.376939,-0.402696,0.900488,-0.164187
-0.537230,0.452015,0.237093,-0.462484,0.038834,-0.885777
0.466791,-0.340605,0.057949,-0.634651,-0.494576,0.593812
0.459175,-0.045839,-0.963129,0.347866,0.065834,0.935230
0.343974,0.078799,0.538938,0.978533,0.204122,0.028415
0.487248,-0.211789,0.592424,-0.585719,0.314583,0.746974
0.175623,0.411629,-0.068317,-0.754147,0.518364,0.403189
0.530125,-0.849484,0.503913,-0.052127,0.990521,-0.127085
0.440346,-0.743995,0.423926,0.925166,-0.161288,0.343590
0.380949,-0.172450,-0.493722,0.926708,0.102007,0.361673
0.178021,-0.829871,0.081543,0.735229,-0.126779,-0.665857
0.614942,0.922247,0.407033,0.595263,0.796062,-0.109299
0.801693,0.723339,0.251053,-0.654755,0.641147,-0.400284
0.688289,-0.044911,0.231429,-0.043939,0.892670,0.448564
0.224837,-0.058488,-0.955315,-0.121260,0.171715,0.977655
-0.016005,0.536382,0.871028,-0.245191,-0.947258,0.206359
-0.226206,-0.219101,0.369378,0.822853,-0.562482,0.080790
0.887792,0.566556,0.072237,-0.103899,0.037284,0.993889
0.939148,0.253452,0.395400,0.956240,0.291981,-0.018752
0.365371,-0.287687,0.257602,0.138834,-0.916941,0.374092
0.486305,-0.112799,0.386777,-0.195209,0.486285,0.851716
0.132146,0.511200,0.582258,0.134101,-0.398711,0.907219
0.233995,-0.147732,0.608330,-0.075129,-0.993963,-0.079953
-0.107583,0.313218,0.463072,0.963661,-0.075554,-0.256221
0.046217,-0.216433,0.475641,0.306538,-0.292445,0.905820
-0.649521,-0.151792,-0.332608,0.695461,0.481028,-0.533804
0.112546,0.286991,0.724734,-0.223105,0.950112,-0.217972
0.149693,-0.522804,0.455182,0.013156,0.708758,0.705329
0.177849,0.127886,0.473744,-0.265014,0.952045,0.152899
0.685725,-0.063014,0.218810,-0.334840,0.658125,-0.674354
0.244949,0.076245,0.601300,0.244453,-0.479305,-0.842917
0.007618,-0.070094,0.699369,0.886752,0.452600,0.093935
0.453612,-0.565741,0.368923,-0.630789,0.358012,-0.688427
0.379494,-0.193106,0.036529,-0.722278,-0.571084,-0.390099
0.212598,0.106535,0.765903,-0.283885,0.674832,0.681184
0.224751,0.241153,0.597709,0.953802,-0.010404,-0.300255
0.154486,0.506441,0.673979,0.737340,-0.586612,-0.334987
0.288685,-0.091216,0.615057,-0.041305,0.972377,-0.229732
0.726805,-0.233724,0.280135,-0.654396,0.499512,0.567674
0.217905,0.292098,0.624312,-0.389234,-0.627156,0.674664
-0.666981,-0.377510,0.385082,0.633429,-0.611366,0.474340
-0.769857,-0.071371,0.198022,0.125855,0.951975,-0.279113
-0.433328,0.849716,0.121044,0.278370,0.732655,-0.621070
0.058456,-0.498085,0.213828,0.589805,-0.172152,-0.788982
0.418777,-0.168156,0.181281,0.062374,-0.677014,0.733322
-0.306146,-0.233028,0.338349,0.104005,-0.538541,0.836156
0.277130,-0.885227,0.459380,-0.403109,-0.545140,0.735068
-0.828740,-0.265405,-0.171899,0.433674,0.571203,-0.696889
-0.295447,-0.723686,0.277176,-0.089232,0.757891,0.646250
0.188806,-0.930833,0.542200,-0.332469,0.927609,0.170310
0.590635,-0.442729,-0.262635,-0.141733,0.937219,0.318640
-0.890276,0.044332,0.234286,0.217979,0.880405,-0.421155
-0.095430,-0.019844,0.274697,-0.128443,-0.980196,-0.150723
0.476121,-0.433562,0.421473,-0.431026,0.453089,0.780337
0.436151,0.783104,0.434167,0.831477,-0.538418,-0.136942
-0.131291,-0.093535,0.476273,-0.355150,-0.522416,0.775210
-0.126582,-0.992457,-0.460948,0.224729,-0.973982,-0.029245
-0.190261,-0.170011,0.381567,0.608735,-0.693386,0.385562
0.962169,0.123362,0.394894,0.932653,-0.314360,0.177018
-0.217733,0.681908,0.451718,0.659094,0.427845,-0.618501
0.296560,0.514332,0.752627,-0.147319,-0.790602,0.594345
-0.675026,-0.346292,0.403771,-0.654688,0.668920,-0.352037
0.148922,-0.859347,0.436848,0.365673,0.929254,-0.052640
-0.525163,-0.588951,0.353901,-0.069194,0.454783,0.887910
-0.549983,-0.067889,0.210237,-0.445648,0.699471,-0.558694
-0.506675,-0.224904,-0.130072,0.280270,-0.315847,0.906471
0.922803,-0.027620,0.518783,0.525905,-0.427038,-0.735570
-0.620079,-0.538238,-0.154324,0.447079,-0.376671,-0.811319
-0.097483,0.324592,-0.503129,0.170367,0.781768,0.599845
0.650720,-0.124056,0.399598,0.614781,0.052703,0.786935
0.038341,0.539863,0.756825,0.797522,-0.132247,0.588617
0.061622,0.176629,0.838659,0.770900,0.523854,0.362341
-0.239302,0.543809,0.593385,-0.357813,-0.590014,-0.723778
0.392331,-0.073692,0.525029,-0.027111,0.757744,0.651988
0.439233,-0.400370,0.415024,0.875324,0.254474,0.411157
0.030555,-0.559011,0.204876,0.783093,0.002028,-0.621902
-0.061452,0.732389,0.586177,0.050090,-0.651988,0.756573
-0.542281,-0.383196,-0.218683,0.809840,-0.551101,0.201114
0.122474,0.664965,0.750275,0.891706,0.447412,0.068435
0.189148,-0.435650,0.429742,0.169284,0.689412,0.704312
0.524820,0.208310,0.199995,0.857331,0.379526,-0.347769
0.183326,0.193108,0.425544,-0.325830,0.623109,0.711035
0.242640,-0.195196,0.393782,0.162139,-0.984509,0.066726
0.121876,-0.126029,0.216964,0.478766,-0.723834,0.496837
0.653629,0.408496,0.451364,0.532942,0.577331,-0.618596
-0.112546,-0.157014,0.090015,0.340378,-0.938117,0.063875
-0.082762,-0.531043,0.245236,-0.793594,0.280754,-0.539802
0.804007,0.000001,0.253708,-0.029984,0.435885,0.899503
-0.207463,0.089360,0.720763,0.898172,0.173505,0.403959
0.221499,-0.381687,0.421902,0.368437,0.380461,0.848236
-0.907395,-0.079146,-0.169042,0.665190,0.352406,-0.658280
0.602107,0.632821,0.575784,-0.318226,0.223249,0.921353
-0.700615,-0.544158,-0.286381,-0.424109,0.694238,0.581519
-0.451473,-0.529999,-0.234362,-0.705144,-0.580446,-0.407251
0.051096,0.126958,0.496858,-0.335798,-0.280501,-0.899199
0.428535,0.258327,0.585823,0.564603,0.709238,-0.422143
-0.802636,0.426135,0.330307,0.836459,0.328178,-0.438903
-0.169292,0.159801,0.700937,-0.695247,-0.212703,-0.686577
0.206522,0.419288,0.883015,0.840654,-0.167176,-0.515125
0.486219,0.500524,0.626133,0.622001,-0.537122,-0.569749
-0.088840,-0.554602,-0.187502,-0.429016,-0.328679,-0.841377
0.086957,0.966347,0.622947,-0.060901,0.998113,-0.007902
-0.345858,-0.281188,-0.020041,-0.018824,0.846078,0.532726
-0.000513,-0.596031,0.165071,0.895256,0.174381,-0.410010
-0.333448,0.454684,0.552063,0.884102,-0.385877,0.263557
-0.163470,-0.062667,0.581322,0.411037,0.607473,-0.679724
-0.210973,-0.100034,0.262685,0.425722,-0.682167,0.594482
-0.043307,0.355113,0.847763,-0.671883,-0.109279,-0.732552
0.528756,0.401532,0.671552,0.502711,0.824016,-0.261304
-0.194027,-0.084483,0.553201,-0.192684,-0.968334,-0.158751
0.811196,-0.008007,0.502244,0.548982,-0.065831,-0.833238
0.445053,0.221539,0.194533,-0.168594,-0.534076,0.828456
0.623587,0.321806,-0.226422,-0.139913,0.983657,0.113326
0.322750,-0.160032,0.635945,0.233881,0.939614,0.249849
0.504450,-0.594407,0.436570,-0.576931,0.222646,0.785862
0.153801,0.044679,0.138240,0.767115,0.480371,-0.425180
0.553920,0.636997,0.536738,0.807863,-0.268832,-0.524487
-0.504878,-0.646512,0.366343,0.398642,0.426419,0.811943
-0.030127,0.659858,0.675547,0.836354,-0.068050,0.543950
0.460800,-0.594175,-0.507024,-0.750654,-0.328519,-0.573231
0.646013,0.666591,0.281728,-0.044129,-0.649348,0.759210
0.172202,0.283162,0.529025,-0.048280,0.997675,0.048100
0.969785,0.520020,0.399927,-0.790671,-0.567367,0.230074
0.219274,-0.907973,-0.028513,-0.319053,-0.943852,0.085727
-0.826686,0.478125,0.318573,0.688880,0.535811,-0.488212
-0.015576,0.883487,0.649045,-0.679716,0.668028,0.302861
0.408078,-0.799003,0.563165,-0.008657,-0.990739,0.135503
0.438207,-0.470814,0.415100,0.453912,0.036170,0.890312
-0.323776,0.324475,0.379241,0.398356,-0.508733,0.763219
-0.426137,0.699317,0.420183,0.052185,0.497491,0.865898
-0.274221,-0.193919,0.393048,-0.535459,0.760446,-0.367430
0.168436,0.592085,0.920973,0.904554,0.411427,0.111846
0.613233,0.957411,0.572724,0.994405,-0.102633,0.024998
-0.011726,-0.631078,-0.102507,0.883464,-0.461835,0.078735
-0.167067,0.625160,0.467194,0.368431,-0.771474,0.518735
0.654141,-0.192642,0.523993,0.561753,-0.701731,-0.438187
0.406368,0.560172,0.415479,0.134119,-0.173438,0.975670
-0.551266,-0.160844,0.453007,-0.576162,-0.220330,-0.787079
0.677079,0.840897,0.428907,0.933547,0.351516,0.070183
0.017289,-0.054892,0.606737,-0.673148,0.715478,0.186984
-0.459773,-0.307183,-0.127948,0.332478,0.426523,0.841152
-0.803064,0.465941,0.324567,0.688880,0.535811,-0.488212
-0.443511,0.497274,0.468054,0.289325,-0.278903,0.915699
0.102532,0.354300,0.817391,0.163151,0.610823,-0.774775
-0.300240,0.393873,0.415681,-0.000788,-0.836898,0.547358
0.306830,0.690845,0.490055,-0.118120,0.500698,0.857525
-0.160561,-0.255193,0.665280,0.732697,0.140535,0.665886
0.541082,0.371824,0.665963,0.770952,0.190367,-0.607777
0.825488,0.487061,0.263267,-0.168146,0.446343,0.878922
0.279956,0.201462,0.759809,0.670013,-0.717297,-0.191224
0.331735,0.362076,0.173442,-0.088979,-0.345536,0.934177
0.209260,0.465359,0.903827,0.578504,0.801455,0.151668
0.740841,0.298016,0.256793,-0.530197,0.682373,-0.503248
-0.549555,-0.388998,0.457989,0.875130,0.473728,0.098634
0.087811,-0.775095,0.031522,-0.307285,-0.903952,0.297401
-0.880691,-0.109086,-0.183355,0.884496,0.387885,-0.259252
-0.159448,-0.104445,0.092139,-0.272612,0.956773,-0.101328
-0.412701,-0.320644,0.042599,0.070085,-0.831326,0.551349
-0.344659,-0.093652,0.120083,-0.579865,0.784053,-0.221398
-0.454296,0.665546,0.441122,-0.327746,0.602896,-0.727392
0.234337,0.354300,0.648387,0.978497,0.103683,-0.178308
0.192914,-0.055355,0.204041,0.795797,0.253896,-0.549768
0.261383,0.440178,0.694741,-0.280623,0.875906,-0.392478
0.186238,-0.192410,0.575581,-0.036769,0.773030,0.633302
0.553405,0.277940,0.670439,-0.400672,0.903601,-0.151553
0.116741,0.749798,0.772832,0.991384,0.130471,0.011617
0.295873,-0.922247,0.148482,0.241847,0.399296,0.884348
0.344061,-0.210166,0.678025,-0.728518,0.389557,0.563477
0.073349,-0.083904,0.591791,-0.077691,0.346776,0.934725
-0.431102,-0.562956,-0.164945,-0.501986,0.555200,-0.663146
0.664756,0.528955,0.367633,0.107641,-0.991685,-0.070531
-0.777045,-0.338285,0.138670,-0.175606,0.385033,0.906042
0.771740,-0.000463,-0.651574,-0.059281,0.672554,0.737670
0.632316,-0.421028,0.325957,0.005510,0.752397,0.658687
0.836870,0.389811,0.265846,-0.292787,0.492238,-0.819742
-0.436752,-0.273645,0.437683,0.152615,0.414881,0.896985
-0.894985,-0.034234,0.225638,-0.039298,-0.225048,0.973555
0.066245,-0.036206,0.504773,0.943697,0.318970,-0.087720
0.235363,0.145410,0.764285,-0.281606,0.634855,0.719483
0.473468,-0.065800,0.551102,0.349178,0.529736,0.772952
0.851335,0.171522,-0.375068,0.892520,-0.417921,0.169559
-0.054091,0.434838,0.747316,-0.673083,0.348000,-0.652575
0.719617,0.481838,0.463730,-0.074085,-0.424955,0.902178
0.861261,0.242776,0.113483,0.474249,-0.086720,-0.876110
0.280212,0.857259,0.582561,0.801483,-0.004851,-0.597998
0.429817,0.187652,0.705539,0.777671,-0.501333,-0.379333
-0.001370,0.452711,0.829201,0.885149,-0.081426,0.458128
0.181788,0.243821,0.478144,0.571946,-0.672397,-0.469852
-0.023879,0.188118,0.649146,-0.060122,0.177410,0.982299
-0.395413,-0.817686,0.289238,0.127432,0.360873,0.923868
0.134029,0.251712,0.627549,0.371438,-0.460871,0.805997
0.767718,-0.306602,0.553403,-0.702913,-0.708192,0.066160
-0.519257,-0.431357,-0.157358,0.876663,-0.048210,0.478683
-0.602961,0.185332,0.436595,0.770518,-0.052056,0.635290
0.077199,-0.058488,-0.951648,0.000197,0.191861,0.981422
0.744179,-0.394684,-0.257375,-0.101848,0.895760,0.432713
0.109208,-0.236161,0.392618,-0.102001,0.238003,0.965894
0.078568,-0.364976,0.217065,-0.408473,0.195069,0.891682
0.215338,0.356853,0.436317,0.794765,-0.562052,-0.229011
0.559227,-0.673320,0.165122,0.742116,0.666810,0.068038
0.022680,0.271325,0.777132,0.239527,-0.088209,0.966874
-0.179732,-0.126261,0.396766,-0.675826,0.296662,-0.674723
-0.372047,0.393177,0.469647,0.048731,0.213160,0.975801
-0.405341,0.277360,0.419247,-0.510135,0.849102,-0.137072
0.200701,0.256355,0.580032,0.899953,0.185815,0.394409
0.566671,0.579437,0.560004,-0.185371,-0.905928,0.380700
-0.337557,-0.813973,0.284383,-0.077712,0.495957,0.864863
-0.456352,-0.243240,0.204572,-0.196056,0.942921,-0.269188
0.293306,-0.772195,0.098638,0.997512,0.044154,0.054953
-0.346714,-0.481606,0.315918,-0.633815,-0.584508,-0.506586
0.029270,-0.808285,0.249105,0.979211,-0.192674,-0.063431
-0.024736,0.238599,0.779382,-0.230898,0.735496,-0.636971
0.091664,0.986424,0.679846,-0.018693,0.984041,0.176958
0.277814,-0.156086,0.407918,-0.243629,0.969833,0.008238
0.225608,0.293375,0.827001,0.650883,0.122841,-0.749174
-0.195910,-0.158059,0.300871,-0.199955,0.941839,0.270105
0.299898,0.901474,0.649247,0.349753,-0.727435,-0.590348
0.942914,0.623187,0.497490,0.847301,0.427390,0.315308
0.775506,-0.200417,0.270525,-0.666668,0.518267,0.535680
-0.693171,-0.090403,0.199641,-0.325634,-0.866868,0.377495
-0.683755,-0.489729,0.095300,-0.345939,0.928946,0.131857
-0.023793,0.765232,0.679467,0.979162,0.109698,0.170904
0.606897,-0.177672,-0.007018,0.443137,0.734181,-0.514400
-0.051780,0.076941,0.671855,-0.471055,-0.709158,-0.524596
0.081480,0.029013,0.886454,0.990176,-0.092797,0.104596
0.912360,0.414646,0.268982,0.381339,0.890894,0.246757
0.133172,0.940351,0.670540,-0.434665,-0.890035,-0.137490
-0.258131,-0.514911,0.259777,0.156571,0.341390,0.926789
-0.233566,0.910294,0.545564,-0.530118,-0.821593,0.209665
0.445481,-0.797145,0.441501,-0.799923,0.575218,-0.171018
0.279870,0.389928,0.599833,0.498755,-0.821618,0.276021
-0.262409,-0.054428,0.398511,-0.207835,-0.004024,-0.978156
0.264807,-0.028779,0.621935,-0.117727,0.570543,0.812786
0.413044,-0.715098,-0.444915,0.528141,-0.843791,0.095315
-0.231513,0.057794,0.471190,0.759854,-0.379966,0.527492
-0.872131,0.387490,-0.169497,0.888965,-0.356046,-0.288049
0.180589,0.347686,0.624540,-0.343956,-0.938514,-0.029755
0.607153,0.693397,0.577427,0.703446,0.396242,-0.590047
0.238960,0.156899,-0.262888,0.940259,-0.177510,-0.290522
0.218590,-0.583497,0.236562,0.213370,0.085617,0.973213
0.729631,0.606708,0.462870,-0.337800,0.305943,0.890107
0.261383,0.047001,-0.955619,-0.046221,0.105098,0.993387
-0.696423,0.296624,0.208188,0.054201,0.452311,-0.890212
-0.044592,-0.393176,0.244756,0.760956,-0.162053,0.628240
0.285433,0.336776,0.851657,0.907842,0.052395,-0.416025
-0.459003,-0.470814,0.452856,0.703667,0.082506,0.705724
0.060681,-0.194964,-0.017614,0.514922,0.702052,-0.491913
0.450786,-0.561448,0.427618,-0.431449,-0.382239,0.817157
0.444112,0.078450,0.518808,0.431930,0.860442,0.270325
0.091750,0.365442,0.671476,0.832118,-0.553060,0.041287
0.509671,-0.682953,-0.515091,-0.773330,-0.194601,-0.603400
-0.098938,0.109667,0.512613,-0.205402,-0.939067,-0.275613
-0.605701,0.453058,0.224272,-0.083316,-0.607491,0.789945
0.764975,-0.113495,-0.613211,-0.091575,0.850269,0.518321
-0.226893,-0.297086,-0.025984,0.409341,-0.510600,0.756126
-0.793220,-0.133572,0.150834,0.115119,0.439705,-0.890734
0.068470,-0.989207,-0.390747,-0.437648,0.855665,0.276227
-0.095942,0.902868,0.518303,-0.731799,0.643150,-0.225452
0.208576,0.270629,0.737732,0.579943,-0.805970,0.118653
-0.146354,-0.063595,0.311138,-0.113392,0.975635,0.187825
0.350222,-0.300916,0.422636,0.893127,0.220812,-0.391876
0.111177,0.533482,0.874897,0.719477,0.562616,-0.407205
0.302808,-0.265869,0.324744,0.873819,0.474660,-0.105540
0.758644,0.526402,0.459557,0.155979,-0.233512,0.959762
0.213368,-0.464198,0.226118,0.966220,0.255094,-0.036682
-0.015406,0.206684,0.781178,0.769186,-0.504942,0.391646
-0.106128,0.356273,0.770455,-0.728029,-0.537596,-0.425399
0.002141,0.672277,0.534234,0.435990,-0.672453,0.598097
0.163301,0.309389,0.820856,-0.148308,-0.083009,-0.985451
0.272680,0.376001,0.568602,-0.546162,-0.707539,0.448437
0.854328,-0.028316,0.519264,0.604595,-0.186798,-0.774320
0.299298,0.448532,0.478094,0.856626,-0.121524,0.501422
0.733141,0.053731,0.494304,-0.413899,-0.088296,0.906031
-0.641732,-0.437158,0.398283,-0.175281,0.810134,-0.559429
0.172886,-0.449924,0.435128,0.337017,0.737961,0.584665
0.042024,-0.860392,0.239066,0.790331,0.453940,-0.411479
-0.033721,0.072183,0.729108,0.590811,0.526891,-0.611006
-0.694710,-0.033770,0.237043,0.039945,0.918508,-0.393380
0.323348,-0.383659,0.362727,0.495445,0.868062,-0.031665
-0.475949,-0.059997,0.194254,0.392132,-0.735534,0.552469
0.443854,-0.926424,0.211324,-0.818499,-0.162727,-0.550980
-0.496492,-0.691771,0.107388,0.974876,0.048433,-0.217420
-0.668692,-0.627365,0.367987,0.031176,0.508914,0.860253
0.087728,0.197053,0.881219,0.993392,-0.108272,0.038074
-0.551438,-0.329929,-0.286128,-0.495980,0.623245,0.604624
0.255222,-0.138099,-0.302490,0.969024,-0.219892,0.112431
0.267458,0.907857,0.523259,0.038026,-0.833589,0.551075
0.252824,-0.877451,0.510160,-0.524918,0.824181,-0.212571
-0.614944,-0.571427,-0.265998,0.591625,0.681548,-0.430666
0.033893,0.480330,0.748429,0.950385,0.181535,0.252613
-0.493496,0.767437,0.118616,-0.492552,0.534808,-0.686565
0.468847,-0.542415,0.416314,0.118286,-0.505353,0.854767
-0.425539,-0.395729,0.435230,0.972436,-0.172711,-0.156652
-0.030383,-0.026226,0.579122,0.862471,-0.336289,0.378225
0.874869,0.083904,0.516659,-0.526244,0.539310,0.657429
0.086100,0.242661,0.600187,0.250064,0.949008,-0.191966
0.301267,-0.730185,0.514965,-0.031076,0.899810,0.435173
0.368111,-0.717767,-0.427415,-0.450104,0.881624,-0.141934
0.197707,0.169896,0.335213,0.380641,-0.830802,-0.406055
-0.586785,-0.523385,0.365357,0.366566,0.543065,0.755454
-0.029785,-0.878379,0.008763,0.177538,-0.436554,0.881987
0.803663,0.512709,0.490156,-0.507094,0.188039,0.841128
0.349282,-0.289428,0.655949,0.638975,0.712703,0.289422
-0.509499,-0.275153,0.371174,0.475813,0.826475,-0.300900
0.703527,0.869329,0.585368,0.891473,0.266197,0.366626
0.545961,0.243589,0.446837,0.911140,0.193639,0.363770
-0.154485,-0.016710,0.386246,-0.367910,0.468221,-0.803375
0.153629,0.573751,0.516735,0.871387,0.009248,0.490509
-0.549041,-0.371590,0.324820,0.158834,0.688188,0.707933
-0.044077,0.285946,0.634807,0.473277,0.728246,-0.495648
-0.936066,-0.145757,0.046443,0.729128,-0.049770,0.682565
0.725948,0.736801,0.452299,-0.441372,-0.743448,0.502469
0.368281,0.562262,0.688444,-0.656230,0.187634,0.730859
-0.461314,0.820935,0.261623,-0.342630,-0.758646,0.554131
0.058970,0.296971,0.652813,0.500505,0.082001,-0.861842
-0.555717,-0.615063,0.006562,0.168715,0.274832,-0.946574
0.176653,0.776142,0.291489,0.211188,-0.665575,0.715828
-0.183585,-0.566671,0.271208,0.423553,-0.056574,0.904103
0.336358,-0.204131,0.671754,-0.785081,0.540383,0.302712
0.393271,0.522225,0.429894,0.217547,0.797531,0.562688
0.020455,0.455612,0.729538,0.036357,0.895263,-0.444052
0.204895,0.382499,0.795567,0.855173,0.514157,-0.065742
0.849967,0.105838,0.437076,0.419424,-0.902139,0.101135
0.201471,0.278404,0.809830,0.785242,0.616942,0.052698
-0.177849,-0.452709,0.246298,-0.299784,0.362037,-0.882643
0.376411,0.133689,0.522349,0.504852,0.824625,0.255181
0.518742,-0.057211,0.460746,0.250915,-0.153230,-0.955804
-0.130262,-0.709180,-0.020193,0.902037,-0.399423,-0.163675
-0.014806,0.109899,0.717779,0.839377,-0.477736,0.259257
0.038856,-0.025879,0.313515,0.257645,-0.753330,0.605072
0.847397,0.449345,0.468838,-0.684044,0.281158,0.673078
0.079254,0.120924,0.643178,0.099515,0.473567,0.875118
0.018486,-0.192759,0.727009,-0.794360,-0.451587,-0.406276
0.209260,-0.355460,0.418666,0.673716,0.347770,0.652045
-0.173827,0.382036,0.515698,0.885629,0.133978,-0.444648
0.023879,-0.520250,0.198832,0.852215,0.017110,-0.522912
0.486906,0.369038,0.617459,-0.521871,0.546555,0.654926
0.934525,0.206337,0.352890,-0.579045,0.320142,0.749811
-0.266946,-0.759776,-0.156347,0.423852,0.021037,0.905487
0.263608,-0.588372,0.412495,0.885872,0.371867,0.277391
0.405939,0.371127,0.591741,-0.592855,-0.545898,0.592046
0.197791,0.082744,0.492078,-0.518802,-0.201086,0.830908
0.785776,0.828479,0.480850,0.308512,-0.639721,0.703972
-0.107327,0.041547,0.407791,-0.416173,0.908781,-0.030292
0.312992,0.646397,0.682299,0.671940,0.348500,-0.653486
-0.628038,-0.350585,0.396336,0.354387,-0.825598,0.439087
-0.019515,0.040153,0.681541,0.469121,0.675193,0.569245
-0.346372,0.581873,0.460215,0.952381,-0.202828,0.227665
0.141990,0.584078,0.730171,0.451820,0.366552,0.813325
0.122819,0.678659,0.726908,-0.728057,-0.620961,0.290415
-0.722613,-0.012882,-0.335567,-0.714882,-0.232148,0.659584
-0.613147,-0.668794,-0.175743,-0.090492,-0.989421,0.113393
-0.328055,0.798190,0.347048,0.667159,0.744682,-0.018620
0.164583,-0.432168,0.448430,0.850021,0.206573,0.484554
-0.174169,-0.451200,0.255503,-0.369517,0.179649,-0.911693
-0.489473,0.169664,0.379114,0.808486,-0.305143,0.503228
-0.302894,0.596264,0.642090,-0.126176,-0.977402,0.169605
-0.323946,0.888825,0.417831,0.540328,0.778182,0.320121
0.188464,0.915748,0.610555,0.184084,0.952503,0.242591
0.220729,0.302427,0.837951,0.772456,-0.320069,-0.548515
0.260440,0.276083,0.628435,0.689512,0.616764,-0.379704
-0.521482,-0.073924,-0.005070,0.281255,0.840828,0.462498
0.215251,-0.052106,0.369403,0.158450,-0.567774,0.807791
0.216534,0.247419,0.749390,0.955062,0.078220,0.285900
0.780725,-0.146687,0.247462,-0.428000,0.901412,0.065362
0.347140,-0.023558,0.548219,-0.678358,-0.049769,0.733044
0.292279,0.227921,0.613868,0.972184,0.156572,-0.174196
0.356556,-0.906928,0.125065,-0.015559,0.698833,0.715116
-0.091577,0.329001,0.639359,-0.060791,0.489305,0.869991
-0.218161,-0.721597,-0.158092,0.171672,-0.064531,0.983038
-0.076428,-0.026575,0.600389,0.694170,-0.301381,0.653680
0.581650,0.414878,0.681389,0.707561,0.377815,-0.597170
0.407480,-0.072879,0.548345,-0.666473,0.496236,0.556385
0.522851,0.837531,0.389584,0.780621,-0.588809,-0.209607
0.356300,0.351515,-0.029651,0.932791,-0.001680,-0.360415
-0.055032,0.099572,0.370314,0.889706,-0.414430,0.191498
0.099965,0.266218,0.819465,-0.148549,0.942642,0.298929
0.007275,-0.011720,0.693831,0.830029,0.511319,0.222723
-0.593973,0.196472,0.431967,0.858780,-0.014309,0.512144
-0.287487,-0.176859,0.596798,-0.340210,-0.913130,-0.224612
0.210715,0.276198,0.809855,-0.631246,-0.681654,0.369969
0.427166,-0.939771,0.506872,0.542352,-0.829884,-0.130950
0.800581,0.342579,0.469850,0.680797,0.651198,-0.335346
0.253767,0.785077,0.645454,0.922639,-0.278460,-0.266828
0.526531,-0.876292,0.180447,0.616710,0.597908,-0.512030
0.005050,0.785658,0.633922,-0.731126,-0.550156,0.403464
0.271397,0.165951,0.577453,0.964704,-0.127252,-0.230549
0.702843,-0.347220,0.419905,0.944627,0.320981,0.068207
-0.483568,-0.562377,-0.166260,0.282434,-0.476002,0.832858
0.414326,0.219218,0.457964,0.282460,-0.666371,-0.690048
0.103046,-0.820239,0.247032,0.456066,0.252982,0.853232
0.260098,0.272253,0.859623,0.902071,0.085562,-0.423022
0.770538,-0.340141,0.428781,-0.567579,0.714644,0.408825
-0.016260,-0.092375,-0.093656,0.896653,-0.339600,0.284051
-0.175882,0.011954,0.151365,0.135886,0.973124,-0.185914
0.117255,-0.304282,0.485933,0.849074,0.339280,0.404922
0.130262,-0.082163,0.446230,0.900442,-0.434950,-0.004781
-0.487676,0.050482,0.216331,-0.408560,0.388154,-0.826084
0.891647,0.691656,0.371300,-0.064858,0.926899,0.369665
-0.400034,-0.248695,-0.088725,0.859544,0.182118,-0.477511
-0.529357,0.055589,0.287974,-0.216875,0.808820,-0.546604
-0.578056,-0.690844,-0.208568,0.185037,0.937665,0.294187
0.558114,-0.867007,0.200147,-0.598852,0.534482,-0.596410
0.620333,-0.834165,0.144360,0.898423,-0.337273,0.281215
0.207293,0.260068,0.459304,0.883327,0.045222,0.466572
0.006675,0.053964,0.560686,0.971572,0.153704,0.180065
0.089781,-0.774631,0.133536,0.483329,-0.680298,0.550988
-0.368111,0.014158,0.515091,0.243928,0.060629,0.967896
0.165267,0.932925,0.607976,0.029173,0.980590,-0.193889
0.513694,0.567020,0.420360,0.417487,0.124209,0.900154
0.157481,-0.724963,0.250117,0.431881,0.636084,0.639434
-0.022338,-0.432981,-0.034051,0.673657,-0.456610,-0.581115
-0.054091,0.257283,0.789245,0.955674,-0.239716,0.170947
0.476207,-0.734711,0.152604,0.356537,0.122755,0.926182
0.416638,-0.604734,0.407893,-0.496967,0.866867,0.039556
0.402431,0.942209,0.434243,0.767892,-0.624511,-0.142578
-0.331306,0.437509,0.141831,-0.133316,0.825388,0.548600
0.424426,0.590926,0.510185,-0.019099,0.563012,0.826228
0.284062,0.798887,0.618344,0.808503,-0.587357,-0.036535
0.006675,-0.897180,0.206368,0.959910,-0.230317,-0.159773
-0.264123,0.544853,0.484289,0.291179,0.669006,0.683847
-0.835672,0.178834,0.336655,0.462758,0.381109,0.800382
0.289625,0.206337,0.764133,-0.702343,0.711533,-0.020853
-0.737589,-0.513983,0.100712,0.062206,0.862489,0.502238
0.864259,-0.011373,0.516735,-0.519718,0.413133,0.747806
0.071294,0.198794,0.242100,0.734498,-0.647194,0.204090
0.271909,0.134153,0.480951,-0.260812,0.759397,0.596065
0.332505,0.430544,-0.316449,0.884879,-0.416204,-0.209196
-0.368539,-0.393408,0.113837,0.947004,0.125394,0.295737
0.340038,0.341302,0.623958,-0.386658,-0.501715,-0.773807
0.172800,0.322155,0.052562,-0.647416,0.600260,-0.469617
-0.873845,-0.483579,0.105593,0.561623,0.774737,-0.290453
-0.029443,0.301961,0.653066,-0.313437,0.704897,-0.636300
0.635314,0.706743,0.444561,-0.101117,-0.660550,0.743942
0.540481,-0.363350,0.478448,0.376644,0.827122,-0.417142
0.359123,0.288732,0.583244,0.255661,0.929615,-0.265431
-0.509329,0.288500,0.399573,0.364632,-0.241559,0.899274
-0.682556,-0.029012,0.276898,0.816944,0.217937,-0.533954
0.492297,0.628641,0.420891,-0.549445,0.016304,-0.835371
-0.517374,-0.600208,0.007852,-0.015908,-0.382778,0.923703
0.326002,0.081467,0.364371,0.174158,0.746773,0.641872
0.600566,0.734479,-0.245919,0.294043,0.572962,0.765019
0.154828,-0.973424,0.024871,-0.706246,-0.626367,-0.329972
-0.072665,-0.135777,-0.951926,0.021325,0.174714,0.984388
-0.289370,-0.335500,0.305271,0.863438,-0.481579,0.150188
0.019685,-0.060461,0.596217,-0.604439,0.688456,0.400852
0.617167,0.831728,0.438138,0.808952,-0.357513,0.466670
0.719188,0.745736,0.426733,0.984615,-0.078766,-0.155977
0.503081,0.035976,0.354685,0.206487,0.671588,0.711571
0.116143,-0.569804,0.238358,0.100389,0.553440,0.826817
-0.331993,0.069630,0.522045,-0.717161,-0.120355,-0.686437
0.479287,-0.284437,0.593005,0.828563,0.343382,-0.442235
0.576599,0.301497,0.442968,0.007131,-0.066216,0.997780
0.549297,-0.578624,0.353092,-0.270189,0.318269,0.908682
0.180931,-0.776489,0.241342,0.975869,0.044536,0.213767
-0.198392,0.774633,0.610783,0.774592,0.629064,-0.065457
0.559739,-0.333295,0.178373,0.287832,-0.101082,-0.952331
-0.178363,-0.439248,0.263115,-0.251881,-0.001783,-0.967756
-0.291851,-0.073111,0.339310,-0.351675,-0.903590,-0.244642
0.055888,-0.079610,0.449745,0.083864,-0.613822,0.784977
0.818728,-0.157827,0.029272,0.207501,-0.634310,0.744711
-0.046475,0.348150,0.525535,-0.617946,0.620905,0.482306
0.613745,0.607636,0.597962,0.077847,0.976204,-0.202402
0.234851,-0.155042,-0.333089,0.904610,-0.120234,0.408931
0.684951,-0.696297,0.090799,0.577531,0.489416,0.653399
0.196166,-0.674016,-0.225360,0.942720,-0.213565,0.256259
-0.016689,-0.587908,0.166563,0.974600,0.020579,-0.223006
0.646525,0.034235,0.228672,0.153554,-0.695948,0.701482
-0.485365,-0.082743,0.560863,0.960167,-0.278701,0.020123
0.112376,0.872578,0.369985,-0.740118,-0.477719,-0.473296
-0.108267,0.778810,0.513725,0.681445,-0.436948,0.587119
-0.406368,0.613324,0.047075,0.531416,0.829178,-0.173378
0.006505,0.128816,0.637336,-0.124379,0.502994,0.855293
-0.115542,-0.257283,0.662549,-0.689401,-0.013925,-0.724246
0.587981,-0.541487,0.342648,-0.023024,0.639008,0.768856
0.769770,-0.430080,0.125115,0.879175,-0.469210,0.083027
0.191031,0.197402,0.533096,0.706971,0.328317,0.626418
0.642419,-0.779853,0.448784,0.888601,-0.354818,0.290676
0.135228,-0.901125,0.189298,-0.117741,0.572474,0.811425
-0.643187,-0.040153,-0.306865,-0.590887,-0.588781,0.551533
0.209346,-0.195196,0.362297,-0.492671,-0.726214,-0.479466
0.651743,-0.423350,0.340751,0.146683,-0.925968,-0.347947
0.201557,0.460486,0.879120,0.748940,-0.174328,-0.639295
0.127267,0.417664,0.907899,-0.549536,-0.719930,-0.423924
0.465593,0.497853,-0.271132,0.218391,-0.942959,0.251263
0.366998,0.242312,0.437000,-0.461480,0.341873,0.818632
0.517287,-0.236625,0.259044,-0.414442,-0.859892,-0.298032
0.453612,0.436928,0.621101,-0.475871,0.652252,-0.590012
0.089694,-0.099919,-0.038477,-0.678645,0.733118,-0.044487
-0.381463,0.493791,0.462491,-0.612654,0.381108,-0.692395
-0.603987,-0.619125,-0.150151,-0.181673,-0.721627,0.668019
0.441545,-0.887315,0.430576,-0.517273,0.807568,-0.283307
-0.554863,-0.375884,-0.471772,0.880135,-0.094717,-0.465179
-0.710287,0.308460,0.436469,-0.502872,-0.821085,-0.270072
0.273536,0.331322,0.531402,-0.513672,0.846252,0.141415
0.229458,0.651155,0.583648,0.815457,0.086341,0.572342
0.802978,0.155158,-0.382326,-0.760001,0.401384,-0.511165
0.170405,0.328769,0.409865,-0.166935,-0.353073,0.920583
0.432899,0.342115,0.581802,-0.702516,-0.446944,0.553816
0.019771,-0.826970,-0.415353,-0.201532,0.675444,0.709338
0.107753,-0.449345,0.509072,0.204381,0.045451,0.977836
0.586184,-0.733666,0.202069,-0.275968,0.317696,0.907145
-0.149434,0.855983,0.585848,0.974521,0.209682,0.079634
-0.542281,-0.335615,0.052461,0.017515,-0.930823,0.365050
0.852620,0.572706,0.397297,0.648507,-0.758370,-0.065679
0.599625,0.821284,0.493722,0.178038,-0.312731,-0.933007
0.116312,0.033771,0.210869,0.951245,-0.276274,-0.137132
-0.331223,0.720437,0.276442,0.409455,0.694039,-0.592162
0.078740,0.054659,0.269437,-0.712185,0.498117,-0.494644
-0.077714,-0.620402,0.542554,0.520551,0.668337,0.531369
-0.010355,-0.392363,0.453134,0.850023,0.506979,-0.142947
0.105016,-0.934317,0.269564,0.373480,-0.087326,-0.923519
-0.031752,0.551352,0.643380,0.922694,-0.318400,-0.217389
0.160475,0.574447,-0.774375,0.679477,-0.581501,0.447401
0.322833,-0.517118,0.092367,0.730682,-0.635716,0.248935
-0.307943,0.548684,0.681085,0.693850,0.636912,0.336028
0.034661,-0.784148,0.042624,-0.104455,-0.983201,0.149681
0.144727,0.201347,0.707942,0.791979,0.157963,-0.589760
-0.033123,0.228270,0.803685,-0.885997,0.446344,0.125639
-0.073605,-0.723686,-0.033697,0.678617,-0.604473,0.417242
0.724835,-0.246954,0.415757,-0.207329,-0.894704,-0.395624
-0.573519,0.418245,0.323530,0.894604,-0.404675,-0.189531
0.065046,-0.136707,0.254821,-0.556446,0.808461,-0.191725
0.109124,0.945574,0.667480,-0.003623,-0.947829,0.318758
0.786633,-0.423929,-0.019814,0.905680,-0.267024,-0.329305
-0.222014,-0.142161,0.395046,0.051135,-0.772255,0.633251
0.127695,0.427759,0.819389,0.341296,-0.087778,-0.935848
0.627009,-0.235116,0.526850,-0.564180,0.644564,0.515983
-0.265236,0.455612,0.638272,0.772465,0.604647,0.194166
0.058542,-0.048044,0.631292,-0.378491,0.865179,-0.328953
0.154057,-0.169548,0.399143,-0.467977,-0.303925,0.829835
-0.292794,-0.165253,0.622492,0.081863,0.903504,0.420690
0.350052,-0.212138,0.657339,-0.798281,0.521038,-0.302104
0.493323,0.019265,0.470937,0.284827,0.326316,0.901328
0.185638,0.363701,0.818832,0.112164,0.277055,0.954285
-0.268145,0.998376,0.555452,0.661918,0.652779,-0.368435
0.396011,0.031799,0.496403,-0.211150,0.977338,-0.015031
0.684439,-0.146106,0.381517,0.324565,0.518542,0.791057
0.061023,0.173726,0.492913,-0.423702,0.250768,-0.870397
-0.148151,0.839853,0.612680,0.505689,0.542552,-0.670758
0.004964,-0.093767,0.468332,-0.634704,0.440353,0.635011
0.723722,-0.476268,0.210186,0.988386,-0.130583,-0.077722
-0.485963,0.675177,0.438669,-0.490400,0.479827,-0.727512
-0.208063,-0.058605,0.556994,0.146830,0.988869,0.024050
0.257703,0.263898,0.842932,0.722341,0.325329,-0.610234
0.231085,-0.575258,0.095174,-0.623167,0.057907,0.779942
-0.470986,0.882443,0.120766,0.257469,0.772849,-0.580013
-0.335587,-0.733898,0.276341,0.097064,0.510926,0.854127
0.842262,-0.024718,-0.696714,0.250773,0.955153,0.157464
-0.173913,-0.158408,0.663535,-0.626290,-0.539658,-0.562611
-0.271825,-0.183939,0.572420,-0.212923,0.977046,0.006715
0.455153,-0.303585,0.454752,0.303564,0.285568,-0.909010
-0.412445,-0.192061,0.038097,0.411695,0.057812,-0.909486
-0.410304,-0.661599,-0.273054,0.818480,0.543310,-0.186829
-0.012925,0.212140,0.729412,-0.688848,-0.447954,-0.569935
-0.330366,-0.202390,0.419854,0.032224,-0.230436,0.972554
0.721753,0.688639,0.626310,-0.684303,-0.721441,0.106080
0.377096,0.911222,0.627322,0.578447,-0.760309,0.295517
-0.836186,0.343739,0.225309,-0.003100,0.393078,0.919500
-0.454811,0.147500,-0.198680,-0.789738,0.540833,0.289507
0.681274,-0.477776,0.181433,0.935703,0.348737,-0.053323
-0.457465,0.870838,0.287266,-0.158893,-0.809588,0.565085
0.252139,-0.233260,-0.262660,0.999233,0.030376,0.024696
0.113230,-0.250435,0.471291,0.283317,0.246368,0.926841
0.111519,0.336313,0.708802,0.194406,0.980687,0.021437
0.078398,0.269584,0.722483,-0.334162,0.941235,-0.049115
0.487590,0.524778,-0.981135,0.053043,0.230633,0.971594
0.280299,0.238482,0.431714,-0.250230,0.312299,0.916435
0.380949,-0.791459,0.418109,0.292885,-0.524772,-0.799270
0.678019,0.040038,0.479206,-0.369075,-0.389110,0.844024
0.488274,0.227225,0.183785,0.128181,-0.211339,0.968971
0.220130,0.356736,-0.060528,-0.561478,0.801629,0.205265
-0.841919,-0.078333,-0.151795,0.728328,0.087579,-0.679609
0.127781,0.201926,0.714390,0.175289,-0.950763,0.255584
-0.265578,-0.059533,0.485959,0.774705,0.105125,0.623523
0.068128,0.919695,0.666266,-0.017664,-0.937670,0.347079
0.128465,-0.729372,0.255099,0.131965,0.554181,0.821869
0.664328,0.428804,0.475717,0.528743,0.141029,-0.836984
0.350478,-0.285018,0.679214,0.819725,0.490078,-0.296436
0.758215,0.730883,0.468661,0.271739,0.691396,-0.669425
0.103817,0.958688,0.480698,-0.221462,0.197570,0.954945
-0.620764,-0.066263,0.297862,0.656857,0.518381,-0.547558
0.297414,0.213300,0.772327,0.803547,-0.523538,-0.283233
0.551522,0.436696,0.519997,0.859996,-0.348837,-0.372451
0.121361,0.640247,0.748277,0.930746,0.345058,0.121023
0.572151,-0.191597,-0.021407,-0.450167,-0.597328,0.663739
-0.014463,0.231868,0.643102,0.089704,-0.152898,0.984162
0.227318,0.620287,0.603879,0.818659,0.422296,0.389184
-0.025078,0.037717,0.652535,0.283185,-0.774053,0.566258
-0.423486,-0.641058,-0.223690,0.366864,0.925816,0.090969
0.273194,0.376233,0.457129,0.678272,-0.702625,-0.215094
-0.093291,0.058839,0.420410,-0.614656,0.677289,-0.404324
0.368709,0.206916,0.804190,0.842716,-0.090182,-0.530752
0.368882,0.184983,0.663560,0.687909,-0.223818,-0.690425
-0.790569,0.061507,0.219594,0.669343,0.703833,0.237904
0.271483,-0.059765,0.493368,0.747664,0.210125,-0.629957
-0.329167,0.411978,0.542276,0.525838,-0.825505,-0.205027
-0.716023,0.066846,-0.297255,0.914981,0.180211,-0.361017
0.131717,0.336313,0.808312,-0.011291,-0.965106,0.261617
-0.105530,0.815481,0.644366,0.164818,-0.967920,-0.189649
-0.874443,0.341419,-0.269083,-0.682588,-0.687223,0.248591
-0.464396,-0.654520,-0.173619,-0.432176,0.897555,0.087287
0.193170,0.223048,0.628409,0.125610,-0.154289,0.980009
0.059226,0.424046,0.924640,-0.750672,-0.575884,-0.323804
0.317957,-0.280839,0.373475,0.891698,0.354651,-0.281242
0.539797,0.955321,-0.525055,0.909916,-0.414781,0.003037
-0.580708,0.259719,0.428528,-0.525007,0.087215,-0.846618
-0.530553,-0.542649,-0.029954,0.766475,-0.463485,-0.444633
-0.515833,-0.431589,-0.138999,0.416909,0.395995,0.818153
-0.550495,-0.545432,-0.255326,-0.639380,0.302056,0.707076
-0.009328,-0.017407,0.477891,-0.524307,-0.618293,0.585504
0.178878,0.275734,0.821033,-0.100773,0.749720,0.654037
0.541594,-0.303817,0.456017,0.498348,0.272840,-0.822926
0.221157,0.748289,0.638272,0.962638,0.264117,-0.059744
0.242554,0.285250,0.849305,0.632155,0.216791,-0.743896
0.286546,0.195544,-0.018954,-0.457315,-0.365079,-0.810913
0.150719,-0.480098,0.227484,0.225129,-0.066313,0.972070
0.636338,-0.305442,0.413987,-0.277008,0.305995,0.910842
-0.017373,0.273529,0.551203,0.922534,-0.341875,-0.179033
0.501882,-0.242660,0.591033,-0.585719,0.314583,0.746974
0.308713,0.490659,0.436797,0.938624,0.344633,0.014592
-0.412359,-0.476617,-0.002997,0.251403,0.142142,-0.957388
0.160475,0.115819,0.453640,-0.215438,0.891814,-0.397812
-0.206864,-0.594407,0.266327,0.413841,-0.082991,0.906558
0.436065,-0.513403,0.152376,0.800839,-0.000845,-0.598879
0.150975,0.172567,0.645226,-0.428555,-0.184462,-0.884485
0.549297,0.803529,0.127771,-0.352587,0.935373,0.027562
0.341749,0.637925,0.690164,0.660529,0.576670,-0.480784
0.693942,-0.670651,0.013466,0.796805,-0.604227,-0.003360
0.385997,-0.269931,0.226143,0.782085,0.504168,-0.366275
0.165440,-0.463154,-0.310026,0.991390,-0.110877,-0.069652
0.213112,-0.205872,-0.122334,0.794002,-0.310295,0.522760
0.333448,-0.371126,0.375548,0.302297,0.765929,-0.567423
0.428106,0.810491,0.068874,0.127585,-0.785135,0.606040
-0.222270,-0.172450,0.316904,0.329512,-0.899962,-0.285463
0.442658,-0.764766,0.457559,-0.375205,0.781977,0.497728
-0.152772,-0.301265,-0.016248,-0.420550,0.550855,-0.720900
-0.599537,-0.499130,0.369783,-0.409690,-0.449741,-0.793654
-0.495807,-0.539978,0.002112,-0.282241,0.470630,0.835971
0.090465,-0.538355,0.229229,0.575298,-0.253133,-0.777789
0.500086,-0.834397,0.173341,0.424398,0.147676,0.893352
0.745720,-0.403737,0.437151,-0.637742,0.448029,0.626543
0.450786,0.165604,0.451288,-0.142239,0.539694,0.829758
0.118880,-0.149006,0.399067,0.980504,0.135553,0.142259
-0.292452,0.536150,0.660121,0.859883,0.400071,0.317086
0.521652,0.056981,-0.963989,0.301727,0.040332,0.952541
0.185638,0.406988,0.744610,0.398959,-0.149720,-0.904663
0.655938,0.402693,0.441349,0.304470,0.601015,0.738972
-0.118368,-0.429732,0.252823,-0.480605,0.153251,-0.863442
0.176311,0.262504,0.827835,-0.199684,0.683924,0.701693
-0.527730,-0.787165,0.086879,0.974876,0.048433,-0.217420
-0.321295,0.030405,0.497718,0.831783,-0.177064,0.526104
-0.202158,-0.539978,0.265088,0.267142,0.220120,0.938180
0.554518,-0.666706,0.175364,0.620407,0.541288,0.567541
0.203613,0.159917,0.387105,0.868241,0.134143,0.477664
0.833789,0.223512,0.410700,-0.202758,0.031932,0.978708
-0.321807,-0.185911,0.220934,0.716061,0.692025,0.091421
0.647977,0.023559,0.459051,0.343752,0.877224,-0.335132
0.607837,0.761055,0.231909,0.368330,0.166328,0.914696
0.528756,-0.923639,0.181281,-0.492373,-0.706486,0.508377
0.335674,0.268190,0.663636,-0.306150,0.837983,0.451726
-0.693171,0.444240,0.409309,0.196770,0.906989,0.372359
0.477918,-0.750958,0.132247,0.236704,-0.877545,0.416996
0.691544,0.128931,0.476829,-0.346469,-0.348676,0.870853
-0.002995,0.303123,0.642950,-0.164407,-0.215841,0.962488
0.301865,-0.980968,0.151011,0.241847,0.399296,0.884348
0.736051,-0.053730,0.235450,0.818977,0.573798,-0.005687
0.185552,-0.422537,0.214763,-0.475783,-0.451478,-0.754850
0.210116,-0.135430,0.492407,-0.442655,0.813407,0.377393
0.742894,-0.359173,0.431563,0.634495,-0.551104,-0.541941
0.405169,0.471045,0.533526,-0.431295,0.282882,0.856716
0.869222,0.489614,0.385588,0.153312,0.579059,-0.800741
0.485451,-0.331786,0.441172,-0.440450,-0.774437,0.454149
-0.416980,-0.283393,0.350437,0.705090,-0.407868,0.580079
0.706437,0.703494,0.565491,0.195453,0.938160,0.285752
-0.425539,0.327724,0.445320,-0.439800,0.713501,-0.545428
-0.279528,-0.754090,0.286103,-0.041356,0.624401,0.780008
-0.137453,0.053847,0.469799,-0.535116,-0.459822,-0.708671
0.778672,-0.267263,0.401166,0.409083,0.690646,0.596371
0.490500,0.362192,0.630255,-0.639285,0.768957,-0.004538
-0.605442,-0.391667,-0.283523,-0.518296,0.725449,0.452871
-0.433670,0.884531,0.133284,0.389327,0.739772,-0.548782
-0.516261,-0.347916,0.359819,-0.092071,-0.520833,0.848679
-0.199760,-0.621794,-0.159280,0.105863,0.301743,0.947494
0.240328,-0.203550,0.655620,-0.200324,0.737784,0.644627
0.885311,-0.049438,0.512714,-0.632154,0.270868,0.725956
0.286546,0.222235,0.643911,0.818072,-0.042302,-0.573559
0.403886,-0.255889,0.548624,0.775761,0.308310,-0.550582
0.313334,0.778114,0.491623,-0.695577,0.532271,-0.482555
0.538514,0.311477,0.448734,0.158489,0.199872,0.966919
-0.179048,0.382153,0.505734,0.894593,-0.413149,0.170326
0.045446,-0.080770,0.685132,0.823958,0.553886,0.119598
-0.657738,0.640247,-0.412723,0.094970,0.663914,0.741754
0.528158,0.346292,0.562128,-0.859821,0.315820,-0.401205
-0.716963,-0.615991,-0.200121,-0.681945,0.511415,0.522882
0.093291,0.284205,0.432650,0.260913,0.418140,0.870105
0.811451,-0.400023,-0.264810,-0.264615,0.776787,0.571472
0.198392,-0.212021,0.223792,0.671008,0.040558,-0.740340
-0.348767,-0.489961,0.105820,-0.009188,-0.122554,0.992419
0.404142,-0.065453,0.555123,-0.193933,0.151448,0.969254
0.507874,-0.841709,0.524852,-0.280284,0.941196,-0.188655
0.378893,-0.638505,0.427340,-0.623263,0.640258,0.449013
-0.223981,-0.161308,0.293816,-0.057987,0.932468,0.356569
-0.783551,-0.567250,-0.289643,-0.538273,0.691566,0.481663
0.287144,0.053731,0.604461,0.178956,-0.487101,0.854814
-0.437180,-0.531971,0.300618,0.647101,-0.307858,0.697484
0.596711,-0.711616,0.213980,-0.672413,0.630215,0.388188
-0.407909,-0.572357,-0.152098,-0.314917,0.530710,-0.786876
-0.698562,-0.031448,0.227762,-0.145075,-0.910298,0.387699
0.485023,-0.608216,0.167120,0.516113,0.770850,0.373387
0.717820,0.651272,0.554971,-0.690283,0.709714,0.140770
-0.531154,0.665197,0.439782,0.914076,-0.189088,0.358762
0.247945,0.161193,0.762692,0.466504,-0.370992,-0.802957
-0.214395,-0.927701,-0.403467,-0.228714,-0.954972,-0.188994
0.885739,0.445980,0.271157,0.059220,0.772221,0.632588
0.602702,0.389232,0.689810,0.755955,0.340340,-0.559197
0.322578,-0.051061,0.397752,0.509265,-0.185013,-0.840487
0.205324,0.141929,0.750047,-0.366563,0.655478,0.660288
-0.018831,0.718349,0.666241,0.933969,0.207636,0.290841
0.415525,0.089823,0.700355,0.731984,-0.474261,-0.489158
-0.042108,-0.206568,0.206671,-0.749701,-0.661177,-0.028176
0.522509,-0.239642,0.472252,0.729838,0.188892,-0.657006
-0.278502,-0.307764,0.412318,0.794109,-0.381928,0.472781
0.191287,-0.161657,0.200880,-0.020260,0.032709,0.999260
0.008302,0.904376,0.471266,0.095600,-0.057798,0.993740
-0.439489,-0.362887,-0.402784,0.915938,-0.246892,-0.316388
0.495635,-0.212487,0.569765,0.915553,-0.104507,-0.388382
0.591748,-0.447951,0.053043,0.277852,0.446294,-0.850659
-0.758132,0.061507,0.333772,0.487026,0.117318,0.865472
0.558370,0.614833,0.070922,0.214923,0.427571,-0.878061
0.494007,-0.704073,0.049250,-0.294751,-0.161929,0.941754
0.882401,0.253801,0.340549,0.340593,-0.928833,-0.145830
-0.474666,-0.340490,0.442310,0.464384,-0.159044,-0.871236
-0.427336,-0.567599,-0.368114,0.926827,-0.016066,-0.375145
-0.459687,-0.519554,-0.428300,0.958695,-0.067568,-0.276296
0.142332,0.764304,0.597633,-0.444222,-0.879373,-0.171378
0.741525,0.828479,0.322114,-0.248600,-0.603115,0.757925
-0.333448,-0.137635,0.457686,-0.635319,0.718956,-0.281909
-0.618196,0.345016,0.434395,-0.406401,-0.902530,-0.142403
-0.730913,0.369968,0.308129,0.338161,0.674764,-0.656004
0.033465,0.451434,0.764563,0.791715,0.341586,0.506465
-0.258474,-0.173146,0.610454,0.186839,0.914671,0.358425
-0.118796,-0.417894,0.259044,0.469707,-0.178963,0.864493
0.278073,-0.763955,0.113331,0.951646,0.187095,0.243651
-0.470814,0.811072,0.284864,-0.158893,-0.809588,0.565085
0.204639,0.837995,0.570852,0.904893,0.392739,-0.164090
-0.638138,0.020774,0.297154,0.269044,-0.895078,0.355600
0.308199,0.276083,0.644543,0.071163,-0.982088,-0.174470
-0.498458,-0.755599,-0.108071,-0.123889,0.522274,0.843731
0.203869,0.664850,0.604461,0.944124,0.257413,-0.205836
-0.551524,0.377278,0.432347,-0.137497,-0.764335,-0.629990
0.495721,-0.897180,0.183760,0.737248,0.604364,0.302009
0.176394,-0.961239,-0.423344,0.048257,0.944021,0.326337
-0.717477,-0.126727,0.207733,-0.275358,-0.911098,0.306721
0.346113,0.882907,0.339234,0.176613,0.887997,0.424582
-0.692228,0.298480,0.459633,0.718742,0.234042,0.654702
0.371104,-0.147383,0.389053,0.841683,0.337601,0.421421
-0.465509,-0.775559,-0.110271,0.639625,0.562454,0.523952
-0.485192,-0.051757,0.557803,0.956116,0.197543,0.216379
-0.366314,0.725544,0.653521,0.739535,0.627091,-0.244632
-0.590379,-0.212138,0.211881,0.293359,0.710714,-0.639395
0.395155,-0.548567,0.419171,0.958599,-0.123112,-0.256772
0.041424,0.267147,0.894547,0.077054,0.677855,0.731146
-0.635312,-0.086458,0.147066,-0.340537,-0.106536,-0.934176
0.287487,-0.051757,0.399876,-0.213645,0.366178,0.905687
-0.164842,0.767553,0.588858,0.472294,0.812171,-0.342516
0.106042,0.326449,0.774881,0.055479,-0.460153,0.886104
-0.454296,-0.434258,0.419197,0.868194,0.449451,0.210316
-0.139592,0.763144,0.611162,-0.533591,-0.815754,0.223217
0.004878,0.367878,0.848749,0.532160,-0.830116,0.166473
-0.365799,-0.895788,-0.247234,0.960131,0.260456,-0.101541
-0.219702,0.238135,0.495872,0.277957,0.387655,-0.878899
0.416724,-0.856330,0.571864,-0.032912,-0.946986,0.319585
0.083789,0.472207,0.830845,-0.248459,-0.800731,0.545068
0.224323,0.729025,0.580007,-0.553916,0.212033,-0.805120
0.241269,0.282814,0.849533,-0.697016,-0.271895,0.663507
0.483738,-0.136590,0.584711,0.230108,-0.870043,-0.435976
0.584730,0.449577,-0.280843,0.452235,-0.668344,0.590593
-0.164842,-0.228734,0.671552,0.683202,0.285514,0.672099
0.580624,0.133689,0.422004,0.930755,0.273648,0.242513
0.056317,-0.027967,0.661563,0.366894,0.648726,0.666741
0.349365,0.557736,-0.252545,0.102845,0.991759,-0.076395
0.735366,0.093884,0.243213,-0.129500,0.193093,0.972597
0.093633,0.267147,0.778295,-0.382106,0.472209,-0.794364
0.204038,0.330627,0.824851,0.700713,0.081003,-0.708830
0.333190,0.056285,0.703896,0.016963,-0.956237,0.292103
0.133431,0.437509,0.830946,-0.532972,-0.835230,0.135394
0.239216,-0.352560,-0.677419,0.370481,0.928826,-0.005162
0.048356,-0.704654,0.234312,0.864372,-0.384145,-0.324489
-0.291851,0.523616,0.618218,-0.398347,-0.916081,0.045981
0.491184,-0.784728,0.427871,-0.645709,-0.002788,-0.763578
0.070181,0.937451,-0.019485,0.547580,0.755544,-0.359597
-0.874443,0.259255,0.138695,-0.746403,0.481931,-0.458939
0.033893,-0.529534,0.499564,0.131423,-0.153490,0.979372
0.345173,0.505282,-0.384172,0.985212,-0.170857,-0.012879
-0.259928,-0.353834,0.004893,0.454432,-0.038446,0.889952
0.386512,0.912848,0.617333,0.972424,-0.228589,-0.046248
0.136596,0.242893,0.711255,0.722705,-0.375654,0.580156
0.098167,-0.116513,0.609999,0.139612,0.898913,-0.415287
0.252824,0.494489,0.637968,-0.519490,0.389382,-0.760600
0.567013,0.173843,0.458520,-0.579181,-0.717584,-0.386811
0.145242,0.188929,0.654279,-0.387937,0.793974,-0.468093
-0.178277,0.111293,0.544603,0.971601,0.040333,0.233161
0.891391,0.139841,0.374056,-0.556623,0.810991,-0.180181
-0.423998,-0.133804,0.157409,-0.195868,0.957859,-0.210098
-0.583019,-0.336428,0.482418,-0.578900,-0.644569,-0.499405
0.705324,0.799351,0.466638,-0.263456,-0.791795,0.551046
0.161673,-0.972148,-0.066699,-0.177429,0.984127,-0.003550
-0.040227,0.183824,0.588200,0.462851,0.483357,-0.743058
0.298271,0.442731,-0.275734,0.802281,-0.586242,-0.112546
-0.670662,-0.635140,-0.173214,-0.284270,0.430028,0.856893
0.361777,-0.466402,0.339942,0.975118,-0.012617,-0.221328
0.076428,-0.338168,0.198478,-0.169349,0.339336,0.925296
0.629323,0.391901,0.408727,-0.625976,0.721434,0.296121
0.367510,-0.293605,0.171798,-0.153004,0.098365,0.983318
0.217391,0.297901,0.646819,-0.111321,0.935859,0.334328
-0.834731,-0.202971,-0.300214,0.088414,0.254233,0.963093
-0.300925,-0.057211,0.135130,-0.268117,0.905854,0.327937
0.078398,0.270861,0.885746,0.896407,-0.344735,0.278590
0.009929,0.543809,0.620115,-0.142194,0.752677,0.642852
0.016603,0.189278,0.767851,0.886097,0.423662,-0.187997
0.170060,0.745155,-0.263545,0.586546,0.592418,0.552272
0.552551,0.454103,0.538255,-0.481116,0.185510,-0.856804
0.130777,0.975863,0.347529,-0.608605,0.477054,-0.634049
-0.516347,-0.492051,0.355039,0.501616,0.532405,0.681855
0.477832,0.115934,-0.752399,0.775509,0.623598,-0.098542
0.412958,-0.461877,0.054054,0.712629,-0.130743,-0.689251
0.776703,0.449694,0.373475,-0.410869,0.649168,-0.640131
-0.094832,0.309040,0.490890,0.938624,-0.300565,0.169250
0.683243,-0.450622,-0.243770,-0.101848,0.895760,0.432713
0.371190,-0.137518,-0.415504,0.888517,-0.458816,0.005094
-0.371190,0.410120,0.575657,0.951519,0.057635,0.302141
0.259244,0.121388,0.510286,0.984327,0.167640,-0.054749
0.102960,0.170130,0.618597,0.874822,-0.043956,0.482447
-0.691886,-0.409539,0.399775,0.682052,-0.727853,0.070959
-0.657479,-0.568412,0.380176,-0.083648,0.502387,0.860587
-0.105444,0.623304,0.565693,0.381463,0.810860,0.443838
-0.133517,0.026809,0.517519,-0.617754,0.251949,0.744917
0.374528,-0.228966,0.283296,0.308918,-0.850350,0.425998
0.712857,0.042358,0.255478,0.539385,0.296012,-0.788315
0.017373,0.313684,0.712494,0.938080,0.196148,0.285538
0.625729,0.681793,0.565516,0.395755,0.883797,0.249563
0.233138,0.853314,0.639739,-0.140370,0.312258,-0.939570
-0.219360,0.475689,0.542403,-0.176609,-0.972684,0.150646
0.081051,0.535569,0.650461,0.741225,-0.057682,0.668774
0.303579,0.530347,0.436519,0.963871,-0.065404,0.258213
-0.929648,0.025300,0.244857,-0.666935,0.278944,-0.690933
