0.144038,0.393098,0.684072,0.840620,-0.055798,0.538744
0.739402,-0.317430,-0.087687,0.162290,0.687587,-0.707733
-0.051216,0.937174,-0.103326,0.621200,-0.777015,-0.101775
0.025636,0.379372,-0.046096,-0.278522,0.930801,0.236718
-0.014019,-0.253467,0.467758,0.783848,-0.597564,0.168817
0.566713,-0.036009,0.552669,0.014812,-0.976831,0.213499
0.138342,-0.077816,0.022637,0.911297,0.110837,0.396552
-0.282771,-0.293630,0.801762,-0.532864,0.824455,-0.190604
-0.084612,0.641151,-0.137721,0.654677,0.553314,0.515016
-0.047974,-0.098965,0.655598,0.317059,0.799108,-0.510784
0.278077,-0.388318,0.326099,-0.293768,-0.923537,0.246535
0.013572,0.064720,0.601711,0.621100,0.581617,-0.525315
0.124267,-0.074542,0.939115,0.978447,0.204090,0.031455
-0.074113,0.610172,0.612194,0.873360,0.430079,0.228636
-0.180005,0.028200,0.419538,-0.222079,-0.966765,0.126672
0.146384,0.172120,0.448946,-0.614083,0.644065,0.456160
-0.109746,0.055398,-0.340095,-0.711707,0.574417,-0.404375
-0.557775,0.427850,0.613327,0.823947,0.551060,0.132075
0.183356,-0.082981,-0.639109,0.126353,-0.946131,0.298113
-0.031220,0.016243,0.690333,-0.853070,0.058177,-0.518544
-0.018597,0.310122,0.375170,-0.550612,0.788012,0.275433
0.000503,0.080329,0.359899,0.901710,0.396207,-0.173028
-0.129742,0.150463,0.582162,0.769220,-0.526535,-0.362025
-0.292377,0.237973,0.354403,0.432759,0.798406,-0.418650
0.423512,0.288596,0.291081,0.437346,-0.880644,-0.182192
0.315053,-0.234831,0.296096,0.019033,-0.094948,0.995300
-0.310696,0.152984,0.675516,-0.378985,-0.922491,-0.073350
0.173528,0.343614,0.739262,0.211431,0.890385,0.403128
-0.114661,0.230419,0.833919,-0.144067,0.884548,0.443644
-0.249705,-0.034625,0.748697,0.925444,-0.183206,0.331646
0.256407,0.014605,0.598680,0.247357,0.671708,0.698301
-0.109858,0.249809,0.815248,0.208883,0.825488,0.524345
0.894442,0.139635,-0.089359,-0.294041,-0.303036,-0.906482
-0.630943,0.430494,0.055502,0.715030,0.596925,0.363885
-0.035576,-0.780913,0.391971,0.959025,-0.261089,-0.110014
-0.108628,0.018379,0.667838,0.800626,0.599095,0.009139
0.775818,-0.140650,0.350720,-0.436342,0.450459,0.778904
0.449429,-0.238981,-0.031902,-0.256498,-0.885517,-0.387387
0.136553,0.128053,0.655768,0.904194,0.425525,-0.036911
0.105277,0.198441,0.132990,0.914257,-0.136931,0.381292
0.529516,0.183202,0.286406,-0.017109,-0.947999,0.317812
0.905838,0.220851,0.230111,-0.439865,0.897344,-0.035955
-0.212958,-0.094685,0.503541,0.489637,-0.784187,-0.381190
-0.294944,-0.159278,0.522354,-0.424161,0.842649,-0.331708
0.012120,0.040666,-0.837885,0.979504,0.075457,0.186755
0.591509,-0.135984,-0.541704,0.086390,0.721224,0.687294
0.313154,0.535127,-0.118030,0.948150,-0.317780,0.005244
0.061490,-0.125033,0.591682,0.401883,-0.827817,0.391419
0.008769,0.001387,-0.504023,-0.453589,-0.889153,-0.060522
0.047752,0.174010,0.661038,0.985507,0.132473,-0.105955
-0.330577,0.444726,-0.537936,-0.642356,0.636190,0.427365
-0.264899,0.131581,0.628570,-0.476191,-0.870195,-0.126501
0.406645,0.243138,0.536066,-0.746096,0.591164,0.306374
-0.085506,0.108410,0.485862,0.661520,0.014228,0.749792
0.608935,0.107657,0.225040,0.111645,-0.608918,0.785337
0.157555,0.172880,-0.378513,-0.523198,0.368279,-0.768527
0.100586,0.448631,0.699003,0.752274,-0.231079,0.616998
0.027869,0.502011,0.572983,0.932798,-0.027182,0.359374
-0.411114,0.448001,0.522524,0.995642,-0.003918,0.093176
-0.455684,0.438048,0.400414,0.717743,-0.594467,-0.362566
-0.140909,-0.087007,0.242067,0.946905,0.282529,-0.153456
0.907177,-0.106397,0.136474,-0.643366,-0.707677,0.292016
0.212287,-0.139766,0.597490,-0.615306,-0.348134,0.707249
0.081487,0.045200,0.556239,0.878499,-0.304645,0.368010
0.166489,0.967392,-0.167044,0.351320,-0.707939,0.612697
0.247473,0.052509,0.375482,-0.178062,0.377716,-0.908639
-0.205919,-0.116726,0.676422,0.975064,0.202223,0.091413
0.123596,0.132211,-0.991925,0.761020,-0.175588,0.624514
0.528957,0.245405,0.402142,0.440773,-0.879411,-0.179874
0.628485,0.432130,0.594118,-0.884031,0.186865,0.428451
0.578890,-0.415892,-0.125652,0.217308,0.086880,-0.972229
0.070428,-0.523422,0.278304,0.381245,0.909449,-0.165998
-0.073554,0.269959,-0.030938,0.900020,-0.004203,-0.435827
-0.103603,-0.256234,0.626048,0.079946,-0.996790,-0.004209
0.043062,-0.062077,-0.742520,0.628444,0.765080,0.140393
0.118459,-0.097459,-0.903615,-0.166044,-0.983840,-0.066994
0.853672,-0.056159,0.132565,0.509469,0.833116,0.215312
0.058252,-0.065474,-0.785131,0.591971,0.803802,-0.058932
0.194973,-0.208509,-0.215379,0.162696,0.854371,0.493537
0.078582,0.521155,0.432797,0.751103,-0.484823,0.448097
0.240992,-0.218208,-0.017509,0.140619,0.986608,0.082653
0.186260,0.073158,0.065418,-0.573225,0.798877,-0.182232
0.099021,-0.083733,-0.862874,0.839151,0.534700,-0.099610
-0.068530,0.222234,0.206001,0.483541,0.334219,0.809003
-0.481152,-0.521655,0.515752,-0.681091,0.699982,-0.214801
-0.005193,-0.225885,-0.241359,0.242224,-0.970150,0.011638
-0.093213,0.157388,0.596668,0.841237,-0.320280,-0.435593
0.330914,0.106896,-0.465974,0.942182,-0.224482,0.248800
0.228707,-0.116849,-0.631148,-0.062358,-0.933834,0.352228
0.152526,-0.087007,0.588084,0.640501,0.698746,-0.318610
-0.193187,0.044324,0.138288,-0.327550,-0.325120,-0.887135
-0.618320,0.206749,-0.250538,0.380244,0.379160,-0.843595
0.080702,0.144676,0.821084,-0.146797,0.209611,0.966703
0.228373,-0.030599,-0.599530,0.743001,-0.508315,0.435391
-0.173304,0.379626,0.616075,0.220724,-0.704601,0.674403
0.039711,-0.456439,-0.005751,0.763217,-0.267124,0.588341
-0.679195,0.499621,0.423391,-0.231579,-0.972775,-0.008929
0.231165,0.296780,0.260256,0.954936,-0.272465,-0.117727
0.158669,-0.424077,0.415174,0.952958,0.259280,-0.156985
0.240546,-0.549990,0.366897,0.789466,0.469363,0.395528
-0.039820,-0.231680,0.221413,-0.269124,0.957746,0.101465
0.579336,0.362127,0.565928,-0.184063,-0.667968,0.721068
0.550518,0.210023,0.329584,0.053988,-0.987643,0.147127
-0.303548,0.160031,0.540741,-0.615093,0.784783,-0.075999
-0.074226,0.132711,0.288163,-0.190673,-0.980335,0.050860
0.352359,0.539285,0.666874,-0.095852,-0.902909,0.419008
-0.714493,0.464370,0.045274,-0.626528,-0.746736,-0.223266
0.628706,0.007804,0.393727,0.796243,0.192352,0.573583
-0.018822,0.272979,0.561140,-0.194705,0.929679,0.312710
-0.049873,-0.452658,-0.122960,-0.204260,-0.875809,0.437306
0.202009,0.137367,0.538106,0.248391,-0.968654,-0.003457
0.308014,-0.832288,0.428292,0.821270,0.570152,0.021038
-0.178107,-0.196928,-0.339585,0.935384,-0.289805,-0.202654
0.244793,-0.472424,0.246742,-0.673642,0.636027,0.376399
0.329349,-0.391592,0.311027,0.125392,-0.704773,0.698263
0.468304,0.191133,0.355083,-0.159389,0.911839,0.378346
0.077130,-0.111185,-0.487534,0.893153,0.353034,0.278649
-0.422506,-0.442713,0.498470,0.847428,-0.216197,0.484896
-0.049092,0.500374,0.560970,-0.014932,0.303288,0.952782
-0.245686,-0.040044,0.695943,0.456666,-0.527147,0.716640
-0.085506,0.574667,-0.522694,-0.217803,-0.884655,0.412247
0.292152,0.223118,0.545047,-0.430128,0.187703,-0.883039
-0.001621,-0.013853,-0.277425,-0.514490,-0.840710,0.168837
0.181457,-0.366531,0.368682,-0.776866,-0.623903,-0.084993
-0.328903,-0.516244,0.419311,-0.706740,0.492001,-0.508384
-0.141581,0.203852,0.368427,0.738142,0.621696,-0.261994
-0.152080,0.087383,0.477929,0.568104,0.034776,-0.822222
0.132755,-0.101862,-0.969713,0.439384,-0.895777,0.067272
0.214073,0.218838,0.208494,-0.019315,0.998520,-0.050846
-0.066965,-0.339087,0.206001,0.840265,0.175203,0.513087
-0.279754,-0.092802,0.488979,-0.578350,0.782778,0.229718
-0.021392,0.159278,0.520909,0.012646,-0.908552,0.417580
-0.181791,0.741372,0.266319,0.301518,0.949260,0.089398
0.504720,-0.355833,0.033233,0.330906,0.903072,0.273794
0.135660,0.171874,0.291393,0.568757,-0.546393,-0.614792
0.215416,-0.640897,0.352448,0.928258,-0.371936,-0.000393
0.308460,-0.750441,0.408545,0.729538,0.587462,0.350233
0.049426,0.062199,0.095563,0.972579,-0.231019,0.026843
0.141356,-0.185469,0.112959,0.981643,0.177825,0.068963
0.055348,-0.012339,0.898374,0.398528,0.898522,-0.183942
0.782632,-0.237344,-0.199966,-0.328163,-0.671013,-0.664869
-0.025299,0.396118,0.693223,-0.811459,-0.186509,0.553849
0.103491,0.533874,0.456142,-0.728472,0.566213,-0.385658
0.268918,-0.289726,0.151632,-0.490334,-0.807675,0.327465
0.381961,-0.220598,0.823238,-0.216367,-0.753371,-0.620980
-0.441943,-0.232433,0.166364,-0.469104,0.550533,0.690547
0.055235,-0.069508,-0.642254,0.983642,-0.101779,-0.148624
-0.162470,0.110931,0.373838,0.912230,0.298590,0.280499
0.182129,0.332032,-0.183052,0.879755,-0.155774,-0.449184
0.379504,0.383906,0.537285,-0.083938,0.750216,0.655844
-0.327897,-0.526819,0.661066,-0.637604,-0.623134,-0.452951
0.128958,0.221481,0.374887,-0.772159,0.012844,-0.635299
0.237308,-0.151093,0.472971,-0.470657,0.075028,0.879121
-0.488300,-0.243646,0.541393,0.874762,-0.374968,0.306904
0.156215,0.549613,0.152000,0.952076,0.112481,-0.284429
-0.400281,0.483129,-0.508330,0.192138,-0.753336,0.628942
-0.449985,-0.034756,0.436820,-0.013403,0.972445,0.232745
-0.059929,0.144545,0.050091,-0.407294,-0.016499,0.913148
-0.418487,0.283431,0.617237,-0.554160,-0.786123,-0.273709
-0.173750,-0.428104,0.586072,0.951715,-0.284983,-0.114118
0.108628,-0.150848,-0.112421,-0.234156,-0.959585,0.156104
-0.033344,0.095945,0.786350,-0.032554,0.953758,0.298808
-0.118680,0.054015,0.439738,0.376058,0.920750,-0.103922
0.187491,0.220974,-0.342248,0.573797,0.027863,0.818523
0.119239,-0.055652,0.359758,0.950559,-0.230108,0.208537
-0.319744,-0.555024,0.335619,0.135038,-0.364552,0.921340
0.167048,0.408837,0.763259,0.682836,0.670579,-0.289930
0.111310,-0.704861,0.324654,0.021967,0.850964,0.524765
0.703769,-0.411612,-0.404635,0.681903,0.088668,0.726049
0.076346,-0.080337,0.583919,0.574594,-0.569370,-0.587928
0.190951,-0.318307,-0.646221,0.203470,0.533228,0.821138
-0.199777,-0.389955,0.570546,0.763188,-0.631104,-0.138750
0.243004,0.193776,0.205406,0.363353,0.930434,-0.047620
-0.314381,-0.244898,0.809327,-0.532864,0.824455,-0.190604
0.017145,0.387941,0.511389,0.817886,-0.421075,0.392121
0.301758,0.579577,0.532015,-0.124480,-0.680253,0.722330
0.068976,-0.250316,-0.359248,0.409538,0.890254,-0.199314
0.272940,-0.160285,-0.024762,0.647546,0.557958,0.519006
-0.214298,-0.303075,0.636956,0.794420,-0.170527,-0.582938
0.436694,0.326237,0.323861,0.626043,0.495065,-0.602479
-0.114995,-0.183079,0.323436,0.381120,-0.006550,0.924502
-0.189277,-0.350792,0.599360,0.691168,-0.672957,0.263468
-0.007317,-0.312266,0.400329,-0.591463,0.639951,-0.490546
-0.216977,-0.359360,0.589302,0.957818,-0.131861,-0.255339
-0.625468,0.223618,0.350266,-0.002161,-0.853408,0.521239
0.292936,-0.480739,0.146957,0.885362,0.228200,0.405042
0.151074,-0.106774,0.160528,0.332570,-0.754423,-0.565900
0.065959,0.379626,0.714925,-0.060576,-0.473940,0.878471
0.156103,0.071268,0.788673,0.759960,0.169249,-0.627547
0.024852,-0.082850,-0.643161,0.966579,0.050682,-0.251311
-0.058923,0.134348,0.593098,-0.619479,-0.640827,-0.453418
0.121029,0.042933,0.594288,-0.058452,0.356167,-0.932592
0.466518,0.501258,-0.378315,0.895812,0.066407,0.439445
0.178219,-0.703354,0.179765,0.965576,0.225790,-0.129159
0.155877,-0.178045,0.903530,0.843344,0.534127,0.058986
-0.525385,0.398262,0.383924,0.367166,0.674457,-0.640544
0.088522,-0.016243,0.842192,0.340286,0.923477,-0.177189
-0.046188,-0.438678,0.356188,0.990690,-0.095500,-0.097020
-0.109412,0.047214,0.666959,0.705073,0.328826,0.628288
0.521250,-0.505539,0.026887,0.814390,0.559641,0.153525
0.549400,0.011078,0.537681,-0.500801,0.471982,0.725556
0.154763,0.013722,0.611514,0.642041,0.094721,0.760796
0.061156,0.075418,0.923504,0.824448,0.133124,-0.550057
0.295503,0.392344,0.240225,0.867967,-0.373005,-0.327872
-0.092320,-0.510327,0.298164,0.927917,0.001815,-0.372783
0.311365,0.149203,0.290968,-0.752905,0.596295,0.278508
0.399834,-0.261652,-0.031562,0.625922,0.720995,0.297300
-0.100811,0.195544,0.769974,0.624060,-0.744120,0.238398
0.265345,-0.029715,0.756403,-0.102507,0.892705,0.438827
0.260542,0.391591,-0.161123,0.827753,-0.512012,-0.229497
0.025636,-0.077939,0.283403,-0.226948,-0.969072,0.096927
-0.164031,0.574920,0.678632,0.788831,0.613403,0.038514
0.148170,-0.164320,0.549297,-0.489219,-0.781306,0.387589
-0.156103,0.751578,0.233766,-0.215267,-0.492873,0.843051
0.183690,-0.280911,-0.300997,-0.692334,0.709487,-0.131539
0.349121,0.489300,0.672966,-0.404901,0.909469,-0.094458
0.070762,-0.042941,0.721498,0.715728,0.215269,-0.664374
-0.011002,-0.598214,0.308562,-0.731113,0.468300,0.496154
0.059929,0.050364,0.647552,0.374027,0.909318,0.182332
0.000949,0.015359,0.661350,0.015518,-0.991153,-0.131814
0.574867,-0.200955,0.175941,-0.063600,0.509418,0.858166
0.182016,-0.015743,0.490877,0.915406,0.310833,-0.255763
0.170065,-0.651472,0.168489,0.581164,0.351083,0.734159
-0.019268,-0.493074,0.313010,0.790947,0.398617,-0.464228
0.056687,0.152861,0.722575,0.712892,-0.521068,0.469332
-0.080815,0.389955,0.724784,-0.574891,0.817375,0.037383
0.087629,-0.219968,0.842447,0.974380,0.078383,-0.210807
0.146609,-0.176155,-0.116755,-0.327893,0.935264,-0.133295
0.551633,0.035509,-0.379760,-0.369023,-0.772352,-0.517005
0.080034,0.043186,0.580746,0.659010,0.739623,-0.136616
-0.032897,0.029461,-0.436650,0.228092,0.819946,0.525035
0.043955,-0.086631,0.509491,0.997755,-0.066559,0.007470
0.071434,-0.011462,0.688236,-0.705448,0.679890,0.200231
0.206031,0.319190,0.805644,0.966519,-0.238765,0.093976
0.115108,0.511080,0.439710,-0.593807,0.619084,-0.513935
0.156995,-0.092295,0.993144,-0.567618,0.823292,-0.000431
0.015471,-0.288465,-0.258415,0.865660,0.376615,0.329840
0.390674,0.376605,0.535075,-0.484961,0.516864,0.705453
-0.324321,-0.020777,0.683335,0.455669,0.803819,0.382414
0.109074,-0.010071,0.723510,0.222764,0.579232,0.784135
-0.183581,-0.044324,0.693336,0.238476,0.239143,-0.941244
0.386093,-0.334553,0.511956,-0.646718,0.037813,0.761792
0.021167,0.357592,-0.198294,0.956088,-0.286067,-0.063724
-0.038259,0.031605,0.829471,0.265797,0.956707,-0.118594
-0.408994,0.538531,-0.465804,-0.531140,0.709041,-0.463844
0.290813,0.088513,0.823096,-0.058517,0.848506,0.525940
0.066072,-0.241002,0.705491,0.980604,0.140544,-0.136615
0.028875,-0.035632,0.749660,-0.036049,0.866784,0.497379
0.127284,-0.186353,0.794169,0.230236,0.340851,0.911489
0.168725,0.064213,0.297116,-0.251614,0.208426,-0.945119
0.019827,-0.051502,-0.891801,0.321888,0.945358,0.051837
0.039599,0.703853,0.658488,-0.068250,-0.963030,-0.260606
-0.130856,0.866786,0.300771,0.955656,-0.210504,-0.205936
0.797934,-0.087761,0.157978,0.527068,0.844228,0.097357
-0.415583,-0.519395,0.491359,0.869504,-0.035293,0.492664
0.146496,-0.139512,0.554170,0.759593,0.614107,-0.214221
0.008323,0.006167,0.535301,0.777071,-0.189953,-0.600065
0.165596,-0.234324,0.757565,0.864218,0.264978,-0.427684
0.366100,0.211283,0.730026,0.609900,0.165180,0.775073
0.494221,-0.137622,-0.520286,-0.264096,-0.871610,-0.412976
0.296509,0.625158,-0.172116,0.980898,-0.179784,-0.074274
-0.058477,-0.360998,0.306578,-0.780579,0.572714,0.250388
-0.317286,-0.200578,0.505694,0.825777,-0.449105,0.341170
-0.290254,0.152354,0.624178,0.407886,0.779439,0.475504
-0.335826,-0.243138,-0.268302,-0.351605,-0.636636,-0.686344
-0.172076,0.265048,0.806494,-0.162149,0.954680,0.249587
-0.032113,0.369305,0.008414,0.544257,0.688272,0.479652
0.227480,0.134348,-0.657695,-0.375130,0.752718,-0.541012
-0.548060,0.279781,0.557202,0.968224,0.219934,0.119043
-0.451775,0.210776,0.666676,0.659531,0.630868,0.408685
0.224910,-0.486280,0.077431,-0.090779,0.978186,0.186846
0.017145,-0.143792,0.669396,-0.152432,0.575355,-0.803574
0.008323,0.157771,0.470875,0.680360,0.654254,0.330245
0.387545,-0.183963,-0.031052,-0.374081,-0.874927,0.307515
-0.010334,-0.148704,0.187500,0.346320,-0.802289,-0.486205
-0.288914,0.081089,0.715860,-0.344996,-0.818171,-0.459973
0.031332,0.280657,0.422286,0.772723,-0.429252,0.467592
0.135547,0.228528,0.822246,-0.271932,0.177686,-0.945770
0.383414,-0.469658,-0.066636,0.756769,0.626971,0.184955
0.079922,0.345504,0.017736,0.749427,0.236837,0.618278
0.007538,-0.216194,0.300997,0.230254,0.063061,-0.971085
0.023737,0.285191,0.474785,0.837092,-0.474218,0.272754
-0.242111,0.097075,-0.173844,-0.507278,-0.822488,0.257259
0.030214,-0.479225,0.762268,0.949361,-0.267144,-0.165373
-0.165037,0.414001,0.644237,-0.714292,-0.695543,-0.077503
-0.297068,-0.466883,0.645314,0.942185,-0.274306,0.192466
-0.343871,0.300554,0.386899,-0.675809,0.684269,-0.273969
0.068863,-0.094685,-0.790005,0.376740,0.926008,0.024004
-0.358168,-0.117102,0.151802,-0.086553,0.453734,0.886924
-0.340408,-0.534881,0.658261,-0.681808,-0.581671,-0.443618
-0.046860,0.801439,-0.083239,0.872135,-0.225323,0.434293
-0.479475,0.105513,-0.361854,-0.410932,-0.911572,0.013112
0.140128,0.532867,-0.225550,-0.790169,0.587631,0.174136
0.078135,-0.052755,0.642509,-0.359729,0.886778,0.290206
-0.188384,-0.068494,0.689171,-0.331837,0.678501,-0.655378
0.613517,0.639137,0.380751,0.448935,0.000163,-0.893564
0.034012,0.005160,0.553321,-0.546301,0.833980,-0.077662
0.022953,-0.034879,-0.186197,0.886354,-0.415805,0.203673
-0.493996,0.071391,0.756601,0.588212,0.089911,0.803693
-0.133202,0.086753,0.816098,0.651051,0.731238,-0.203527
0.105389,0.404434,0.763203,-0.080335,0.283091,0.955723
0.097123,0.038906,0.598651,-0.556712,0.476331,-0.680574
0.126053,0.100479,0.794396,-0.445903,-0.864950,-0.230286
-0.034458,0.100226,0.823634,-0.565631,-0.818871,-0.097527
-0.033902,-0.944475,0.401802,0.976449,-0.214028,-0.027207
0.104609,-0.046461,0.542668,0.722677,0.684950,0.092633
0.116113,0.323348,0.698379,0.724514,0.340204,0.599450
0.278077,0.044193,0.893245,-0.445919,-0.672689,0.590463
0.427309,-0.431631,0.246883,-0.702395,0.648432,-0.293560
0.083051,0.074795,-0.659112,0.179024,-0.863188,0.472078
-0.026864,0.429487,0.593523,0.972936,-0.020939,0.230126
-0.217315,-0.092671,0.121855,-0.015101,0.998040,-0.060735
0.190283,-0.137245,0.113667,-0.619128,0.782050,0.071261
0.097569,-0.093931,-0.724445,0.476604,0.878592,-0.030411
0.574980,-0.521278,0.056040,0.149278,-0.563892,0.812245
-0.547389,0.190633,0.337347,-0.164030,-0.909670,0.381569
0.388663,0.381009,0.345223,-0.747803,0.489258,0.448794
-0.709244,0.643287,0.283828,0.633955,-0.756233,0.161903
0.137558,-0.055529,0.917101,-0.150035,0.988389,-0.024001
0.208155,-0.287589,0.061197,-0.610832,-0.294772,0.734842
0.043843,0.075549,0.603836,0.532261,0.664091,-0.525054
0.124267,0.270712,0.378287,0.836452,0.325899,0.440611
0.043618,-0.084110,0.660613,0.995881,0.087905,-0.022214
-0.277522,0.708011,0.291478,-0.755846,0.423036,0.499737
0.097682,0.317046,0.753088,0.941294,0.314883,0.121710
-0.793132,0.508559,0.433278,0.355264,-0.654064,0.667823
0.799833,-0.140265,0.352306,-0.581297,0.480585,0.656606
0.263334,-0.077309,0.756545,0.115000,-0.911988,-0.393767
0.081708,-0.220475,0.606046,0.134063,-0.683530,0.717506
-0.219435,-0.306095,0.641772,-0.702992,0.653256,-0.281174
0.536443,-0.185976,-0.041903,0.237993,-0.832897,0.499642
0.326558,-0.279904,-0.586554,0.889692,0.327382,-0.318228
-0.016698,0.002263,0.904210,0.149500,-0.677221,0.720431
0.131528,-0.047091,0.602221,0.279209,0.605950,-0.744894
0.367215,-0.273487,0.012919,0.715373,0.635105,0.291347
0.583468,0.220475,0.316778,-0.169830,0.946776,-0.273446
-0.689247,0.529340,0.425714,-0.231579,-0.972775,-0.008929
0.093213,-0.074542,0.043518,0.871651,0.481108,0.093592
-0.000724,0.012715,0.128003,0.876736,-0.331664,0.348329
-0.021392,-0.286828,0.603156,-0.424326,0.768177,-0.479428
0.210388,-0.728031,0.351966,-0.103670,-0.990143,0.094177
0.230718,0.353435,-0.271107,-0.199409,-0.955039,0.219403
-0.192403,-0.233947,0.641206,0.885581,-0.280778,0.370014
-0.049426,0.283054,0.554170,-0.296083,0.651776,0.698228
0.108181,-0.144930,-0.368540,0.248726,0.709441,-0.659416
0.116001,0.080713,0.051451,0.161173,0.941086,0.297288
-0.407988,0.233823,0.552725,-0.123848,-0.990863,-0.053411
0.305556,0.495464,0.661378,0.897750,-0.354851,-0.261009
0.136890,-0.030852,0.453961,-0.425664,0.527677,-0.735097
0.220553,-0.418790,0.390838,-0.892791,0.090113,0.441366
0.026304,0.019770,-0.096045,0.982386,-0.133963,0.130278
0.006645,0.053892,0.165486,-0.207217,0.974132,-0.090155
-0.014578,-0.633343,0.337970,-0.804887,0.593420,-0.002998
0.483497,0.401159,0.262608,0.165709,0.290955,0.942277
-0.110639,-0.299424,0.408630,-0.457639,-0.013086,-0.889042
-0.101367,0.190887,-0.612251,0.972939,0.077676,-0.217614
-0.139795,0.074542,0.676054,0.583991,0.474617,0.658554
-0.109524,0.601741,0.290429,0.944067,0.102684,0.313357
-0.071543,-0.532737,-0.226456,0.630700,0.306449,0.712956
0.232730,0.415008,0.807740,0.953677,-0.191164,0.232286
-0.273499,-0.487787,0.252352,-0.029918,0.716286,0.697165
-0.474897,0.255480,0.361032,-0.069423,-0.653150,0.754040
-0.571738,0.226769,0.362534,0.236298,-0.604378,0.760849
0.190504,-0.052001,0.570518,-0.713676,0.093522,-0.694205
0.033790,-0.077309,-0.406675,0.973959,0.080859,0.211817
0.315275,0.094938,0.644606,-0.266029,-0.180803,-0.946857
0.267691,0.002394,0.420557,-0.349752,0.528903,-0.773263
0.259871,-0.094055,-0.043716,0.425506,0.396531,-0.813454
-0.595419,0.141026,-0.551762,-0.490553,-0.845905,-0.209289
-0.261661,0.108287,0.023487,-0.384638,-0.848312,0.363896
0.186819,-0.022037,0.605338,0.001571,0.170625,0.985335
-0.311030,0.014229,-0.248810,0.624971,0.519664,0.582547
-0.210054,-0.427351,0.583210,-0.659313,0.494353,0.566499
0.167607,-0.042433,0.348396,0.165506,0.575355,0.800983
-0.245349,0.325991,0.623952,-0.559136,0.568182,-0.603768
-0.149735,0.047597,-0.681040,0.704060,0.704961,-0.085611
-0.384975,0.565222,0.422654,-0.357081,0.897723,-0.258043
-0.112316,-0.179052,0.406108,0.826378,-0.131068,0.547649
0.447530,0.040796,-0.653389,0.904207,-0.388141,0.178204
-0.304775,0.055398,0.244277,0.473968,0.794825,0.378956
0.495002,-0.028208,0.541166,-0.133617,0.975072,0.177145
0.437921,0.779905,0.360749,-0.682456,-0.095736,0.724630
0.533313,-0.651472,0.115395,0.723444,0.659080,0.205532
-0.076905,0.224378,0.710534,0.972970,0.183935,-0.139632
0.300306,0.540798,0.698294,0.097128,-0.498351,0.861518
-0.101258,0.714052,0.302499,-0.457497,0.142561,0.877709
0.745769,-0.168977,-0.052187,0.284204,-0.051089,0.957402
0.232617,0.017879,-0.368512,0.001960,0.403125,0.915143
-0.062274,-0.006798,0.095931,-0.292886,0.659512,0.692287
-0.323207,0.337450,0.404040,0.773225,-0.403147,0.489484
0.309466,0.476958,0.497138,0.929268,-0.183325,-0.320707
0.474897,-0.215441,-0.209429,-0.558321,-0.743705,-0.367669
0.148395,-0.445611,0.356329,0.461385,0.702242,-0.542200
-0.472101,0.196551,0.069271,0.633609,0.681252,0.366654
0.060263,0.011454,0.384520,0.306283,-0.951812,0.015638
0.260430,0.133848,0.506658,0.836079,-0.172418,-0.520811
0.733146,-0.343744,-0.244447,0.187428,0.971972,0.141919
-0.142253,0.371818,0.565475,0.954627,-0.218226,-0.202643
-0.036248,0.048220,0.483454,0.310310,-0.500114,0.808451
-0.098353,0.164565,0.542696,-0.330248,0.925979,0.183031
-0.795698,0.295520,0.398884,-0.415616,0.598065,-0.685260
-0.049651,0.489300,-0.341597,0.263477,0.631734,-0.729035
-0.528735,0.723750,0.212064,0.280837,0.642899,0.712608
-0.001955,0.483628,0.576439,0.986078,-0.026492,-0.164160
0.115554,0.002140,0.938973,0.976441,-0.215596,0.009068
-0.289807,0.134855,0.755241,0.488971,-0.696650,-0.524964
0.101258,0.243768,0.213820,0.226346,0.967743,0.110636
0.063948,0.071268,0.571339,0.589770,0.762298,0.266593
0.088522,0.047214,0.395115,-0.167384,0.615812,0.769908
0.393020,-0.531607,0.091058,0.200357,0.889644,0.410353
0.014465,-0.375223,0.755015,0.683931,0.121486,-0.719360
0.080815,-0.437549,0.489687,0.674549,0.091965,0.732480
0.193075,0.266308,0.631403,-0.451456,0.884588,0.117008
0.370232,0.148450,0.509406,-0.649343,0.191547,0.735978
0.598883,-0.192271,0.090010,0.176208,-0.693732,0.698346
0.176879,-0.178668,0.132621,0.921153,-0.373411,0.109735
0.286681,0.203852,0.428150,-0.521751,0.790956,-0.319631
0.615415,0.658650,0.377720,0.448935,0.000163,-0.893564
0.087854,-0.117602,-0.768076,-0.712831,-0.701287,0.008295
0.069644,0.133341,-0.638939,0.278077,-0.948503,-0.151706
-0.516893,0.132587,-0.369277,0.443604,0.849386,0.285935
0.313935,-0.734448,0.271532,-0.731292,-0.681400,0.030098
-0.217424,0.184716,0.528955,-0.691638,-0.560348,-0.455682
0.066184,-0.082850,-0.076921,0.910733,0.401780,-0.095592
0.133986,-0.559681,0.194753,0.475924,0.722891,-0.500924
-0.051997,0.113828,0.605281,0.547621,0.501937,0.669455
0.294835,0.032735,0.639959,0.177537,-0.943751,0.278955
0.136778,0.085493,0.187925,0.650364,-0.736943,0.184232
0.155990,0.104882,0.338565,-0.625397,0.476360,-0.618029
-0.010668,-0.138382,-0.049836,0.974785,-0.219931,0.037737
0.282212,-0.163313,0.346866,-0.094157,-0.574574,0.813019
-0.036135,0.095192,0.495382,-0.258793,-0.546423,0.796523
0.276404,0.342483,0.500708,-0.451127,0.098915,0.886961
0.433118,-0.458699,0.206766,0.503387,0.803356,-0.318152
0.279195,-0.024427,0.536435,0.888114,-0.444770,0.115901
-0.160906,-0.300808,0.600918,-0.422835,0.261757,-0.867579
-0.063948,-0.194161,0.515667,0.286714,0.273830,0.918048
0.393354,0.394105,0.697048,0.999425,0.003385,-0.033726
0.149959,0.712791,-0.143019,0.330355,0.669779,0.665028
0.153086,-0.690636,-0.014138,0.959710,0.057355,-0.275075
-0.005865,0.086753,0.200419,0.287221,0.682846,0.671733
0.631498,0.285698,0.413616,-0.230221,0.972952,0.019021
-0.469647,0.155627,-0.226995,0.540934,0.573024,-0.615658
-0.382295,0.083987,0.271759,-0.380386,-0.898669,0.218404
0.209161,-0.058549,-0.442940,-0.087212,-0.003169,0.996185
0.206591,0.252330,0.340265,-0.598131,0.400497,0.694148
0.064060,0.024681,0.685942,0.808981,-0.234991,-0.538821
0.232951,-0.089651,0.057315,0.686556,-0.716000,0.126428
0.190729,-0.160416,-0.678859,0.390353,0.769480,0.505495
0.127393,-0.045584,0.809922,-0.608231,0.789426,0.082840
-0.006870,0.003270,-0.225096,0.854880,0.324525,-0.404802
0.221780,0.287082,0.648515,0.514523,-0.705417,0.487496
0.070987,-0.122513,0.800912,-0.468535,0.116916,0.875674
0.123821,0.278267,0.730423,0.923621,0.117401,0.364885
0.153532,0.056659,0.485154,0.936083,0.063811,0.345943
-0.448870,-0.099473,-0.008896,-0.248540,0.860818,-0.444096
-0.138898,0.618864,0.635794,0.888800,0.176549,0.422924
0.041610,0.057542,0.686225,-0.008458,0.409150,0.912428
-0.213739,0.090404,-0.285585,0.189225,0.965794,0.177304
-0.245128,-0.018886,0.780570,0.030101,-0.390549,0.920090
-0.250490,-0.303828,-0.183647,0.044068,-0.998976,0.010197
-0.337169,-0.255727,-0.241132,-0.783587,0.468741,0.407766
-0.142808,0.238857,-0.113951,0.313867,-0.110836,0.942976
-0.239094,0.189749,0.518076,0.890923,-0.362650,-0.273390
-0.001284,-0.593050,0.309582,-0.743154,0.227977,0.629086
0.256298,-0.043947,0.498838,-0.031235,-0.936676,0.348801
0.394693,-0.572776,0.303830,0.768487,0.144135,-0.623421
0.057693,-0.125917,0.906221,0.101325,-0.877732,0.468317
-0.049205,-0.186606,0.524903,0.711420,-0.628048,-0.315337
0.898798,-0.120499,0.143302,0.159808,-0.780752,0.604059
0.096789,0.133464,0.792894,0.075235,-0.758612,0.647184
0.029546,0.069754,0.402255,0.110217,-0.887046,0.448331
0.367215,0.230795,-0.077261,0.417642,0.817194,0.397202
-0.170624,0.093424,0.697529,0.973008,-0.199935,-0.115246
-0.562132,0.423946,-0.372875,0.004417,0.452566,0.891720
0.642557,-0.196428,-0.499150,0.029350,0.913743,0.405232
-0.204133,0.071521,0.726314,0.887468,0.275213,0.369673
-0.065066,0.265548,0.681607,0.926855,0.293958,0.233514
-0.075006,0.232940,0.477334,0.839639,-0.030854,0.542269
0.064173,-0.048228,0.533800,0.698112,-0.637559,0.325820
0.453895,0.207249,0.520569,-0.623005,0.570920,0.534710
0.072548,-0.149080,0.100295,0.480363,0.875156,-0.057910
0.143367,0.107910,0.811565,-0.260073,-0.952572,-0.158011
-0.384641,0.349531,0.007196,0.463090,0.636061,0.617230
0.031779,-0.117348,-0.807769,0.402096,0.912495,-0.075312
-0.213851,-0.144169,-0.203253,0.550641,0.043924,-0.833585
-0.257413,-0.448500,0.231641,-0.734426,0.545857,-0.403308
-0.104609,0.235707,0.632253,0.751580,-0.578468,-0.317021
-0.083607,0.287966,0.675176,0.863720,0.351394,-0.361261
0.230493,0.315163,-0.178519,0.930926,-0.284460,-0.229042
0.184028,-0.350415,-0.633443,0.336742,0.313915,0.887729
-0.213851,-0.290479,0.647354,0.499731,-0.407847,-0.764153
0.255068,-0.351045,0.143756,0.722174,0.523402,-0.452233
0.802066,-0.102116,0.153927,0.529349,0.827079,-0.189024
-0.096901,0.188620,0.602590,0.658606,0.320311,0.680910
-0.534544,-0.592296,-0.218835,0.390769,-0.552177,-0.736478
0.440491,0.072905,-0.241614,0.351213,-0.413261,-0.840158
0.032338,0.145429,0.682938,0.836211,-0.445227,0.320194
0.579111,-0.083480,-0.552357,0.086390,0.721224,0.687294
-0.360513,0.038152,0.726711,0.262849,0.060412,0.962944
0.157442,-0.188873,-0.045048,0.012529,-0.215351,0.976456
0.733146,0.291869,0.259123,0.377572,-0.817707,0.434504
-0.305668,-0.334300,-0.167469,-0.025126,0.795870,0.604945
0.281653,-0.707881,0.314001,-0.535604,-0.843381,-0.042866
-0.383301,0.263158,0.400980,0.856606,-0.465136,0.223328
-0.503827,0.062076,0.759718,-0.527291,-0.720882,-0.449769
-0.237979,-0.224248,0.331397,-0.625500,0.358215,-0.693132
0.280647,0.223618,0.591710,-0.681217,0.620307,-0.388797
0.043062,-0.070008,0.401065,-0.486783,0.580616,0.652631
0.264340,0.112568,0.804454,-0.435216,0.735400,0.519397
-0.003295,-0.176908,-0.647835,0.939910,-0.336432,0.058165
0.332700,-0.472677,0.288305,0.630358,0.758311,-0.166169
0.788662,-0.084233,0.134604,0.625831,0.522046,0.579485
-0.015246,0.292369,0.634548,0.520068,0.004337,-0.854114
0.374476,0.432384,0.646192,0.266274,-0.714345,0.647155
-0.285451,-0.050242,0.754845,-0.055377,-0.961146,0.270430
0.084391,0.052124,0.757593,0.237664,0.971295,0.010050
-0.292040,-0.156512,0.526660,0.429883,-0.701688,0.568185
0.505835,0.288465,0.560460,0.919587,0.301630,-0.251751
-0.028875,-0.952283,0.408545,0.551798,-0.501788,-0.666128
0.191622,0.365024,0.737052,0.148951,0.970345,0.190379
0.174980,-0.186852,-0.980083,-0.316146,0.618595,-0.719300
-0.453227,0.480609,0.574683,0.821946,0.059715,0.566427
0.185142,-0.651979,0.192203,0.907967,0.307190,0.285011
0.503043,-0.189627,0.302357,-0.023539,0.866946,-0.497846
0.209382,-0.045200,0.611571,-0.258228,0.426266,0.866958
-0.031220,-0.377743,0.730876,0.377740,0.565926,0.732831
0.031332,0.036638,0.336469,-0.401357,0.908131,-0.119205
-0.167829,0.593557,0.674411,0.825504,0.561420,-0.057886
-0.148283,0.924201,0.248612,0.876669,-0.380517,0.294378
0.243004,0.343997,0.496657,0.852258,0.032484,-0.522113
0.227701,0.381893,0.727164,-0.324689,-0.944022,-0.058306
-0.305109,-0.456185,-0.407582,-0.694054,-0.319991,0.644900
-0.439264,0.249686,0.669367,0.812791,0.353967,0.462685
0.081261,0.088137,0.600691,0.018581,-0.772276,0.635016
-0.022285,0.559181,0.552357,0.372188,0.244234,0.895447
0.182350,-0.702593,0.354998,0.985810,0.166462,0.021673
0.063614,0.006421,0.420246,0.111712,0.130366,0.985152
-0.123037,0.129436,0.744815,-0.421928,0.744783,-0.516986
0.444401,0.216570,0.299099,0.424059,0.856581,0.294013
-0.294835,-0.535757,0.619192,-0.428879,-0.691197,-0.581644
0.569393,0.180558,0.291364,-0.318096,0.929476,-0.186789
0.047419,0.051371,0.168914,-0.692385,0.686442,0.222262
0.200336,0.312012,0.589387,0.557328,0.185026,-0.809414
0.525831,-0.168093,-0.532497,0.171504,0.721680,0.670645
0.456353,-0.018003,-0.224416,-0.097157,0.700571,0.706938
-0.097907,0.182448,-0.338707,0.452650,-0.306585,0.837325
-0.325886,0.279273,0.585165,-0.498175,-0.866538,0.030549
0.538454,0.231556,0.408346,0.419207,-0.903527,-0.088908
-0.162020,-0.004531,-0.704839,-0.755256,-0.649343,-0.089119
0.112316,-0.026187,0.909763,0.538221,0.816736,-0.207994
-0.418709,-0.285568,0.563208,0.943744,-0.002708,0.330665
-0.602458,0.181818,0.290656,-0.151975,-0.960457,0.233293
0.543816,0.102239,0.223651,-0.093838,0.886141,-0.453816
-0.001955,0.194284,-0.005865,0.078020,-0.938579,-0.336128
0.670932,-0.382777,-0.405230,-0.115746,0.132602,-0.984388
0.042503,-0.287205,0.593013,-0.078141,-0.867634,0.491025
0.155097,-0.160538,0.090747,-0.520631,0.849400,-0.086389
0.562691,0.262781,0.423334,0.332180,-0.942460,0.037766
0.165037,0.040666,0.585987,0.605447,-0.792281,0.075658
0.340855,0.257363,-0.402992,0.950504,-0.282262,-0.129887
-0.186707,-0.042311,0.724218,0.021893,0.611462,0.790971
-0.034458,0.592550,0.571028,0.437556,0.873251,-0.214422
-0.322982,0.540545,0.270965,0.663341,0.521619,-0.536556
0.197652,0.004277,0.525753,0.161920,-0.222077,0.961490
0.003182,-0.152354,0.800657,0.001586,-0.962538,0.271141
0.453895,-0.606145,0.136106,0.638452,0.736833,0.222386
0.728343,-0.119116,0.360154,0.046800,0.593602,0.803397
0.314381,0.124779,0.698323,-0.700126,0.539041,0.468251
0.795030,-0.074288,0.152510,0.606748,0.705916,0.365429
0.004859,0.207632,0.534706,0.899758,-0.434475,0.040822
0.467523,0.326491,0.579187,0.043553,-0.657542,0.752158
0.000169,0.483759,0.582020,0.942170,0.001090,0.335134
0.343646,-0.128807,0.294396,0.185742,-0.865640,0.464937
0.195532,-0.128053,0.189710,0.122282,-0.952528,0.278813
-0.451662,0.151093,0.268472,0.032827,-0.896970,0.440871
0.058923,0.140395,0.743370,0.238119,0.572539,-0.784537
0.285563,-0.192524,-0.205972,0.008272,0.996143,0.087349
-0.547389,0.393728,0.381516,0.376730,0.705633,-0.600130
-0.256186,0.271719,-0.320065,-0.538059,-0.202984,-0.818101
-0.028762,-0.328504,0.255893,0.971581,0.008418,0.236558
0.162804,-0.332786,0.414183,0.742560,0.313839,0.591701
-0.037588,-0.402044,0.295359,-0.559618,0.827830,0.039069
0.277296,-0.609550,0.359134,0.864040,-0.309837,-0.396783
0.914772,-0.205235,0.131205,0.644447,0.560664,-0.519946
-0.385871,0.116218,0.717362,-0.064595,-0.981525,-0.180101
0.121029,0.336820,-0.676337,-0.103994,-0.556268,0.824470
0.315721,0.263035,0.614602,-0.688425,-0.699650,-0.191210
0.065625,-0.109794,0.177669,0.473742,0.803829,-0.359761
0.588830,-0.155505,-0.220932,0.287988,-0.055693,0.956013
0.235968,-0.496348,-0.505751,0.930502,0.298524,0.212247
0.209270,-0.529463,0.433052,0.420182,-0.767109,-0.484759
-0.009775,0.149964,0.896334,0.534780,0.843768,0.045456
0.298854,0.504532,0.665599,0.801907,-0.303852,-0.514411
0.437365,0.214180,0.316127,-0.026067,-0.872490,0.487936
0.008544,0.004907,0.001445,-0.257626,0.804009,-0.535909
-0.161574,-0.757496,0.304935,0.671704,-0.680098,-0.293736
0.053115,0.191640,-0.199003,0.155251,0.094398,0.983355
0.717285,0.358976,0.433477,-0.058234,-0.801947,0.594550
0.360400,-0.213297,0.825249,-0.216367,-0.753371,-0.620980
-0.378832,0.257870,0.392792,0.931241,-0.327241,0.160324
0.514214,0.268699,0.431862,-0.429875,0.894319,0.124097
-0.099805,-0.577441,-0.339897,0.828774,0.516063,-0.216361
-0.032785,-0.001387,-0.667073,0.631776,0.594171,-0.497815
0.018934,0.396748,0.769690,0.221785,0.567697,0.792800
0.117341,0.157264,-0.989177,0.761020,-0.175588,0.624514
0.045295,-0.004031,0.920047,-0.691583,-0.701896,0.170456
0.279642,0.214680,-0.004023,0.432233,-0.326591,0.840543
0.125273,-0.050364,0.976994,0.963521,-0.206676,-0.170038
0.200557,-0.012216,0.051054,0.970428,0.115907,-0.211742
0.398269,-0.526320,0.316070,0.828259,0.534353,0.168685
0.118684,-0.030852,0.886616,0.420939,0.901528,0.100288
0.545043,0.787836,-0.192826,0.183012,0.679548,0.710437
0.077351,-0.124027,-0.959995,0.431645,0.811555,-0.393777
-0.077130,0.012845,0.257706,-0.542735,0.646408,0.536280
0.254621,-0.183709,0.728439,-0.458178,-0.710684,0.533855
0.323654,0.033619,-0.656335,0.595497,0.205218,-0.776704
-0.026417,0.134094,0.778643,-0.074060,0.842448,0.533663
-0.037809,0.052885,0.698691,0.857686,-0.513665,-0.022884
-0.163138,0.389824,0.612817,0.012433,0.721692,-0.692103
-0.004634,-0.572776,0.311763,-0.695796,0.029788,0.717622
-0.189724,-0.186606,0.778049,-0.619607,0.775444,0.121546
0.228820,-0.544326,0.334655,0.719220,0.630948,-0.290909
0.148395,-0.403550,0.716143,0.793006,0.243890,0.558264
-0.131641,0.205865,0.650782,-0.365719,0.917221,-0.157971
-0.667131,0.146436,0.316296,0.045698,0.987995,-0.147571
-0.392126,-0.347141,-0.092333,-0.758354,0.605380,-0.241689
0.104496,-0.097836,-0.756205,0.099331,0.993524,0.055171
0.077018,0.025941,0.544821,0.865956,-0.365324,0.341554
0.084612,0.187990,0.007621,0.991450,0.077863,-0.104710
0.408656,-0.249186,0.505836,0.710371,0.314698,-0.629554
0.361297,0.226139,0.275754,-0.483822,0.212123,-0.849070
-0.291259,0.366407,0.201666,0.648792,0.638531,-0.413942
0.330021,0.133087,0.453507,0.418930,-0.888896,-0.185366
0.511197,-0.137752,0.370467,-0.010966,-0.996841,0.078658
-0.510638,0.075549,0.755468,0.430299,-0.553648,0.712963
-0.076905,-0.081974,-0.016942,0.957516,-0.198780,-0.208923
0.168388,0.165072,0.371713,-0.641482,-0.006689,-0.767109
0.016477,-0.169100,0.535925,-0.463634,0.885899,0.015050
0.015471,0.385543,0.364744,-0.514135,0.609818,0.603147
0.120804,-0.134601,-0.976145,0.144356,-0.863522,0.483209
-0.196313,0.409598,0.651830,-0.703150,0.262826,0.660683
0.033006,-0.041681,0.698351,0.289415,0.244268,0.925512
0.011674,-0.008565,-0.732038,0.834573,0.546439,0.069945
0.367106,0.264794,0.558080,0.095815,-0.902989,0.418844
0.176542,-0.823473,0.188775,0.905844,0.376900,0.193370
0.069644,0.041296,0.804340,0.827595,-0.226202,0.513730
0.391567,-0.368421,0.478893,-0.710827,0.499059,0.495646
0.328344,0.612946,0.279692,0.988711,-0.030404,-0.146715
0.061490,-0.502650,0.343665,0.750743,0.021141,-0.660255
0.308351,-0.447624,0.305417,0.737392,0.625418,0.255156
-0.274952,-0.334422,0.565616,0.815832,-0.113866,0.566968
0.429211,0.066987,0.212120,0.185917,-0.978695,0.087126
-0.015805,0.074411,0.013599,0.860576,0.078192,-0.503285
0.122481,0.003777,0.747110,-0.240146,0.970537,-0.019687
-0.140909,0.145053,0.130496,0.316470,0.705499,0.634128
0.081261,-0.168469,-0.266857,0.869049,-0.024488,0.494119
0.208489,-0.184209,0.820064,0.152907,0.790064,0.593648
0.106954,-0.010832,0.783856,0.403232,-0.103509,-0.909225
-0.180339,0.008058,0.714557,-0.703688,-0.426350,-0.568375
0.106170,-0.095692,0.798362,0.903949,0.069785,0.421907
0.116782,0.024051,0.736514,0.890995,-0.453456,-0.022505
0.149176,-0.059179,0.810063,0.212152,0.655612,0.724682
0.325552,0.096828,-0.031760,0.381150,0.226300,0.896389
0.225131,-0.160669,0.365169,0.514966,0.146906,0.844528
0.099021,-0.031728,0.627352,0.895945,-0.139446,0.421709
0.415358,0.142156,0.724756,-0.809650,0.313141,0.496396
0.276625,-0.583482,0.130525,0.988231,0.112155,-0.104025
0.083832,-0.146183,0.281902,0.798818,0.578157,0.166206
0.077018,-0.072152,0.945858,0.235808,0.966531,0.101053
-0.322201,0.198687,0.555899,0.897099,0.439650,-0.043821
0.072439,0.342107,0.375340,0.361912,-0.457948,-0.811975
-0.359061,-0.472800,0.483199,0.432229,-0.901447,0.023902
0.150740,-0.140396,0.032412,-0.469526,-0.874809,-0.119390
-0.167829,0.054522,-0.510171,0.108046,0.795287,0.596527
0.463947,0.149333,0.407043,0.452928,-0.674546,0.582961
0.400390,-0.082850,0.459741,0.739003,0.551709,0.386642
-0.395031,0.284307,0.517991,0.779534,-0.621470,0.078111
-0.158114,0.091918,0.338707,0.360645,0.809409,-0.463456
0.148170,-0.048859,0.858086,0.803775,0.567233,0.179425
0.226696,-0.575674,0.318506,0.963976,0.260579,-0.053379
0.121475,-0.462856,0.401547,0.999492,-0.031811,-0.001745
-0.436022,0.284061,0.578592,0.882679,0.436576,0.174012
-0.104384,0.191893,0.602590,-0.660280,-0.272928,-0.699672
0.060710,-0.262028,0.340378,0.843631,-0.462482,-0.272757
-0.095783,-0.013346,0.685800,-0.703133,-0.709720,0.043610
0.358727,-0.222865,0.208522,0.900810,0.421010,0.106258
0.072995,0.321711,0.129675,0.590380,0.124089,-0.797529
0.425748,0.143416,0.411038,-0.350628,0.600030,-0.719043
0.254955,0.401536,-0.087857,0.877073,-0.311081,0.366022
-0.092766,-0.136745,-0.117974,-0.465571,0.866242,-0.181299
0.127284,0.373585,0.749150,-0.488521,0.854103,-0.178480
0.015246,-0.147190,0.599955,0.781557,-0.488183,0.388389
0.057134,0.166963,0.641829,0.889043,0.041352,0.455952
0.252054,0.153491,0.513798,0.702582,0.711602,0.000387
-0.099134,0.074411,0.154862,0.556809,0.826910,-0.078631
-0.176988,-0.052632,-0.329981,0.863287,-0.308256,0.399642
0.282771,0.192270,0.054454,-0.487040,0.871770,0.053007
-0.119018,0.127300,0.677895,-0.771785,0.625857,0.112476
0.351466,-0.555654,0.313123,0.627646,0.747529,-0.217398
0.218096,0.413248,0.465832,-0.678321,-0.730803,0.076208
-0.302543,-0.527826,0.656193,-0.719055,-0.446717,-0.532358
-0.107175,0.483383,0.678774,0.825967,0.563423,-0.018262
0.616421,-0.207256,-0.077998,0.041794,-0.973766,0.223682
-0.148617,-0.293000,0.428405,-0.380805,-0.021174,-0.924413
0.155097,-0.132711,-0.536548,0.612499,0.744101,0.266755
0.235968,-0.101862,-0.627437,-0.045429,-0.914449,0.402143
0.039599,0.001003,0.694781,0.935304,0.075872,-0.345616
-0.358839,-0.353435,0.649139,-0.070948,-0.468404,0.880661
-0.181457,-0.035133,0.089500,0.045201,0.911435,0.408954
0.181791,-0.138629,-0.988667,0.199379,-0.337382,0.920011
-0.247585,-0.613953,0.658460,0.515483,0.752043,0.410740
-0.043843,0.494841,0.568903,0.654767,-0.456880,-0.602114
0.247585,-0.080206,0.537455,0.938992,-0.326509,0.108098
-0.287574,0.051878,0.437160,-0.084138,-0.926590,0.366540
0.226696,-0.389325,0.359389,0.862723,0.498712,0.083632
0.172969,0.144046,0.768132,-0.365082,-0.234880,0.900859
-0.034349,-0.148074,0.643302,-0.365863,0.433364,-0.823614
0.015358,0.116595,0.709146,0.110627,0.992624,-0.049595
-0.356603,0.055398,0.735551,-0.309837,-0.265662,-0.912921
0.211728,-0.432131,0.354233,-0.048406,-0.584577,0.809893
-0.148283,0.010071,0.696254,0.047680,-0.456739,0.888322
0.643340,0.069500,-0.062302,0.776769,-0.427112,0.462823
-0.508071,-0.509820,0.533687,0.863026,-0.127512,0.488801
0.147948,0.294636,0.763741,0.811685,-0.079616,-0.578644
0.159341,0.149964,0.304340,0.874026,-0.437021,0.212346
0.284445,0.021276,0.536321,-0.840988,0.536852,-0.067290
-0.195198,-0.116595,0.513939,-0.657426,0.749692,0.075847
-0.159119,-0.363510,0.235607,-0.759545,0.401835,-0.511488
-0.029099,0.434774,0.468296,0.784434,-0.620085,-0.012592
0.108181,-0.095192,-0.805190,-0.254517,-0.961959,0.099282
-0.161686,-0.384537,0.424580,0.933665,-0.172058,0.314110
0.102263,-0.236967,-0.987761,-0.143972,0.127373,-0.981350
-0.091761,0.559435,0.559837,0.860369,0.410499,-0.302087
0.165821,-0.240118,0.340152,0.103982,0.254549,0.961453
-0.070762,0.219967,0.485239,0.773129,0.592372,0.226642
-0.248925,0.237851,0.598963,0.056407,0.988749,0.138544
0.529741,0.288841,0.411860,-0.328717,0.932764,0.147972
-0.055460,0.192524,0.511786,-0.555929,-0.802197,-0.217768
0.327117,-0.309745,0.720903,-0.525861,-0.796921,0.297299
0.127059,-0.065097,-0.602306,-0.572696,0.809540,0.129094
0.442724,-0.364771,0.066211,-0.115268,-0.969690,-0.215440
0.386205,0.029215,0.651462,-0.293236,-0.900546,0.320983
-0.856130,0.027954,-0.278389,0.310781,-0.948405,-0.062787
0.512428,0.542812,0.366982,-0.777001,0.170526,0.605963
0.333035,0.278013,0.736967,0.355423,-0.298028,0.885920
-0.473666,-0.242132,0.164579,-0.469104,0.550533,0.690547
-0.053115,0.023420,0.705802,0.885873,-0.404603,0.226993
0.102597,0.610172,0.471130,0.811506,-0.384125,0.440347
-0.239765,-0.036393,0.042101,0.452199,0.866506,0.211383
-0.028094,-0.057796,-0.186508,-0.560703,0.817893,0.129082
0.171405,0.271465,-0.454896,-0.331842,0.109754,0.936928
0.016030,0.555777,-0.126275,0.794512,0.602965,0.071997
0.044402,-0.245659,0.379731,-0.475641,0.585198,-0.656741
0.369672,0.244521,-0.688973,-0.796868,0.562655,-0.220047
-0.384307,0.405694,-0.187783,0.881651,0.233783,-0.409923
-0.331695,0.100348,0.076666,0.706544,0.707229,0.024974
0.416363,0.372955,0.357519,0.707462,-0.642140,-0.295217
0.041272,-0.171997,0.386899,0.755868,0.098362,0.647293
-0.128290,-0.460966,-0.341030,0.863214,0.449866,-0.229091
0.051325,-0.093301,-0.671974,-0.648505,-0.738506,-0.184525
0.362412,-0.296650,0.723368,0.721057,0.657018,-0.220008
0.123374,-0.464869,0.730026,-0.564188,-0.558641,-0.607957
0.073891,0.301184,0.736684,0.780941,0.623891,-0.029850
-0.187938,0.079575,0.747280,-0.812189,0.541904,0.216078
0.878806,-0.293253,-0.060913,-0.016607,-0.695317,0.718511
0.321642,0.569249,-0.506658,0.276633,0.821793,0.498128
-0.136331,-0.048351,0.368824,-0.550174,-0.822347,-0.145103
-0.232730,-0.361497,-0.164580,0.321309,-0.678177,-0.660936
0.013238,0.103376,-0.051621,0.049020,0.792411,-0.608015
-0.614076,0.383030,0.078167,0.896999,0.404311,-0.178676
0.042166,0.197050,0.688690,0.929950,-0.257020,0.262934
0.226921,0.372448,0.296946,0.851651,-0.403971,0.333912
-0.168947,-0.041173,0.158516,-0.002284,-0.991275,0.131790
0.021167,0.037645,0.607406,0.545338,0.558229,-0.625289
0.325218,-0.471172,-0.138231,-0.275550,-0.389675,0.878764
0.452334,0.739989,-0.112619,-0.789148,0.609132,-0.078759
-0.343983,0.283554,0.338877,-0.305240,-0.952275,0.000767
-0.035130,0.363633,0.541223,0.720104,-0.671881,0.173282
0.234403,-0.020654,-0.623725,-0.560866,-0.227547,-0.796022
-0.035910,0.314279,-0.633273,0.803407,-0.591171,0.071091
0.285451,0.423070,0.511758,0.675650,0.039428,-0.736168
-0.377380,0.240494,0.656788,-0.258320,0.135957,-0.956445
-0.416810,0.004907,0.441806,-0.142321,0.979874,0.139971
-0.143705,0.256233,-0.103553,0.604784,0.783020,-0.145311
0.342978,-0.577564,0.192628,0.085506,-0.772170,0.629636
0.071434,-0.049988,0.746628,0.370925,0.843186,-0.389168
0.023625,-0.184593,-0.994617,0.535831,0.241202,-0.809140
-0.350460,-0.392345,-0.152935,0.275019,0.871012,0.407067
0.080702,0.386927,0.584542,0.252984,0.519245,0.816324
0.364201,-0.379503,-0.126077,0.039221,-0.487539,0.872220
-0.537002,0.415385,0.345903,0.330970,-0.547879,0.768302
0.163585,0.093555,0.737307,0.872583,-0.484394,0.062942
0.388997,-0.080337,0.463622,-0.584895,-0.732314,0.348732
-0.036807,-0.311759,0.134151,0.551405,0.772898,-0.313977
0.403631,-0.361121,0.658573,0.652075,0.716209,-0.248683
-0.226583,-0.170990,0.807230,-0.180829,0.313431,0.932235
0.177885,-0.378497,0.200646,-0.351255,0.316000,0.881342
0.185926,0.273732,-0.207927,0.968638,-0.248473,0.001231
0.753477,-0.170867,-0.225266,0.317173,0.295653,0.901105
-0.563696,0.056912,0.096215,0.218306,0.956463,0.193705
0.498912,-0.087761,0.352646,0.563303,0.353468,-0.746827
0.192069,0.530977,-0.243342,0.602161,0.741280,-0.296490
0.352138,-0.332539,0.665004,-0.636195,-0.719525,0.278461
-0.073892,0.161921,0.337517,0.980304,-0.106650,-0.166223
0.219548,-0.547600,0.418319,-0.278878,-0.622974,0.730842
0.159453,0.294260,0.764902,0.814264,0.089903,-0.573490
0.332813,0.568872,0.316466,-0.691148,0.674272,0.260138
0.081149,-0.395496,0.788843,0.924777,0.075180,-0.373009
-0.259203,-0.228782,0.367407,0.817121,-0.460047,0.347375
-0.522814,-0.285568,0.566721,-0.798597,-0.048987,-0.599869
0.194527,-0.040797,-0.282440,-0.353437,-0.880776,0.315145
0.167720,-0.064091,0.513089,0.499532,-0.818689,0.283226
0.400168,-0.315917,0.737420,0.364390,-0.804710,0.468680
0.011336,-0.063967,0.378116,0.990577,0.136952,-0.001140
-0.315275,0.295897,0.521305,-0.454866,-0.862582,0.221470
0.602793,-0.048098,0.396645,0.929882,-0.367843,0.003415
0.196985,0.290732,0.373980,0.730132,0.495536,0.470480
0.279642,0.552633,0.693789,0.283286,-0.676468,0.679808
-0.294388,0.002640,0.397297,0.021831,-0.921636,0.387441
0.180789,-0.472047,0.393812,-0.463205,-0.016633,0.886095
0.095562,0.110047,0.366840,-0.558040,0.654708,-0.509851
0.029321,-0.510957,0.323124,0.953806,0.298228,-0.036257
0.186932,-0.032105,-0.007763,0.388193,-0.430791,0.814693
0.545824,0.160792,0.277255,0.174631,-0.966895,0.186058
0.451103,-0.703600,0.335222,-0.184861,0.758642,0.624731
0.382854,0.101232,-0.634378,0.401883,0.838979,-0.366884
0.428093,-0.094308,0.373612,-0.159636,-0.976434,0.145232
0.383635,0.358346,0.356159,0.748155,-0.568721,-0.341791
0.284223,-0.288465,0.348085,-0.496549,0.110850,-0.860902
0.006424,0.086246,0.793234,0.943404,0.331564,-0.007390
-0.377046,0.232056,0.637324,-0.363513,0.884052,-0.293785
-0.117565,0.559304,0.303094,0.913959,0.205310,0.350039
-0.978105,0.057166,-0.424779,-0.260979,0.789268,0.555829
0.216756,-0.012715,0.258103,0.312255,0.844441,0.435220
-0.172969,0.020899,0.321708,0.477086,-0.803862,-0.355238
0.433118,-0.348655,-0.386928,0.394961,0.915265,-0.079353
0.021055,0.145306,0.793518,0.996035,0.053601,-0.071002
-0.113096,-0.175525,0.864631,-0.524120,0.833029,0.177089
-0.416923,-0.047598,0.794906,0.146413,-0.887540,0.436848
-0.466851,-0.585626,-0.231641,0.390769,-0.552177,-0.736478
0.146830,-0.078569,0.725040,0.768517,-0.417144,0.485151
0.525160,-0.478972,-0.417101,0.354688,0.896488,0.265528
0.388885,0.332155,0.355366,0.748155,-0.568721,-0.341791
0.461715,-0.284561,-0.086667,-0.394224,0.853243,-0.341414
-0.072549,-0.443213,0.328366,-0.537274,-0.786596,0.304307
-0.031554,0.521532,0.522892,-0.696322,0.362448,-0.619489
0.034908,-0.106397,0.486627,-0.175755,0.869517,0.461575
0.191397,0.065850,0.791308,0.865739,-0.141757,-0.480001
0.266238,0.400906,0.322728,0.937537,0.346007,0.036093
0.298295,0.221858,-0.347631,0.872384,-0.095885,0.479325
0.245240,-0.107911,-0.244079,-0.231506,0.861109,0.452656
