-0.026551,-0.470209,0.732192,0.613493,0.705521,-0.354778
-0.640884,0.498302,0.486520,0.789523,0.588835,-0.172992
-0.136762,-0.096421,0.905260,0.922257,0.103449,0.372478
0.193292,-0.123125,0.363106,-0.486526,-0.856674,-0.171472
-0.142485,-0.190315,0.891956,0.928060,-0.156839,-0.337795
0.662757,-0.101958,-0.952654,-0.075764,-0.014433,0.997021
0.334179,0.252137,-0.990323,-0.075534,0.076054,0.994239
0.396179,0.560399,0.489229,0.208699,0.897591,0.388297
-0.023401,0.096081,0.294750,0.871597,0.411384,0.266612
0.194226,0.241114,-0.302810,0.902597,-0.430148,0.017071
0.172884,0.337526,0.425049,0.099979,-0.023192,0.994719
0.144746,0.208928,0.484532,-0.126583,-0.831889,0.540313
-0.354884,0.092817,0.486899,0.128673,-0.864447,0.485978
0.248841,-0.128479,0.883164,-0.244665,-0.809051,0.534393
-0.037799,-0.182690,-0.638287,-0.134610,-0.988814,-0.064245
-0.064496,0.043088,0.907269,-0.206613,0.965699,-0.157281
-0.083401,0.094856,0.814134,0.605776,0.472362,0.640242
0.194703,0.467779,0.636658,0.410336,0.889678,0.200243
0.059244,-0.491117,0.693722,0.234678,0.970457,-0.056029
-0.565708,0.443938,0.214360,-0.015116,0.936129,0.351331
-0.141153,0.072000,0.743353,-0.622952,0.285767,0.728195
-0.122096,-0.012238,0.934513,0.966822,0.253191,0.033904
-0.156082,0.189589,0.753790,0.874757,0.340572,0.344690
-0.054116,-0.216569,0.687564,0.943887,-0.270536,0.189440
-0.272819,-0.157014,0.837511,-0.520084,0.737029,0.431625
0.145303,0.501021,0.457831,0.600419,-0.537078,0.592490
-0.634346,0.132640,0.517798,-0.561982,0.788598,-0.249578
-0.064378,-0.243841,-0.979523,-0.420998,0.219333,-0.880144
-0.162353,0.006283,0.865151,-0.002863,0.982911,0.184058
-0.103899,-0.144514,0.933445,0.882993,-0.404399,0.238295
-0.611955,0.253465,-0.640872,0.071526,-0.144562,0.986907
0.180477,0.368041,0.378391,0.981609,-0.145020,-0.124147
0.349522,0.575660,0.629977,-0.113934,-0.991394,0.064469
-0.017477,0.162344,0.528264,-0.451713,-0.856627,0.249289
0.027901,0.150913,-0.997889,-0.262003,-0.248217,-0.932600
-0.595073,-0.186925,-0.127676,-0.741774,-0.563074,-0.364305
-0.120553,0.034601,0.558744,-0.233641,0.913569,0.332871
0.163893,-0.304429,0.525032,0.071240,-0.993480,-0.089009
0.246716,0.230797,0.416739,-0.587887,0.798272,0.130963
-0.381773,0.200466,0.420629,0.906522,-0.313357,-0.282889
0.107505,-0.022606,-0.078602,0.283702,-0.941977,0.179422
-0.159851,0.079432,0.849731,-0.649499,0.104910,-0.753091
-0.228030,0.123948,0.304368,0.988364,0.036464,-0.147674
-0.541116,0.015480,0.582562,0.973999,-0.083035,0.210789
0.730780,-0.018872,-0.957110,-0.041511,0.103867,0.993724
0.402546,-0.199126,-0.957495,0.295753,-0.554413,-0.777918
-0.048308,0.244994,0.644039,0.310422,0.700665,0.642422
-0.342475,-0.049947,0.679635,0.055517,-0.516570,0.854443
0.071207,0.342905,0.618726,0.808526,0.421689,0.410444
-0.171070,0.008700,0.903588,0.768908,0.558293,-0.311591
0.204376,0.159442,0.549538,-0.441748,-0.336791,-0.831523
-0.556903,-0.157370,0.680709,-0.000339,0.782813,0.622257
-0.087976,-0.020755,0.647341,-0.643588,0.472660,-0.601986
-0.290125,0.216704,0.569891,-0.550157,0.799568,0.240868
-0.457273,0.456961,0.540300,-0.438860,-0.814790,0.378839
0.123168,0.542692,0.367454,0.256010,0.946551,0.196216
-0.341837,0.001983,0.602607,-0.433222,-0.381298,-0.816658
0.471896,-0.639890,-0.136285,-0.468783,-0.650346,0.597739
-0.133500,0.217764,0.810372,0.835617,0.416712,-0.357903
-0.192570,0.270414,0.747411,0.623436,0.755370,0.201848
-0.433063,0.409387,0.472659,0.081868,-0.015731,-0.996519
-0.144139,-0.057178,0.697278,-0.313248,0.926234,-0.209683
-0.067215,-0.204458,0.532941,-0.002517,0.580408,0.814322
-0.132284,-0.071540,0.707121,0.457157,-0.874998,0.159329
-0.352818,0.086419,0.586369,0.982515,0.152004,-0.107509
-0.494037,0.456001,0.589361,0.128620,0.919494,-0.371468
-0.152368,-0.318919,0.852229,0.797405,0.082918,0.597721
-0.243210,-0.195147,-0.721102,-0.615211,-0.625858,-0.479393
-0.067398,0.231944,0.522008,-0.744385,-0.377333,-0.550918
-0.627827,0.096309,-0.189009,-0.163335,-0.558725,0.813110
-0.159727,0.237241,0.365519,0.753765,0.620370,0.216748
0.292813,0.261014,0.550247,-0.621209,-0.726128,0.294682
-0.003303,-0.283932,-0.985865,0.479492,-0.033039,-0.876924
0.173114,0.133800,-0.420004,0.822411,0.568776,0.011586
-0.230267,0.036589,0.797896,0.946390,-0.201735,0.252287
0.184994,0.102954,0.609464,0.487524,0.572068,-0.659589
-0.161890,0.022673,0.905727,0.493881,0.775995,-0.392317
-0.517372,-0.342738,0.750020,0.055203,-0.979248,0.195005
0.515020,-0.269128,-0.471417,0.288098,0.957495,0.014250
-0.532735,0.265604,0.605468,0.185832,-0.125038,0.974593
-0.368515,-0.249730,0.652788,0.092664,-0.980574,-0.172880
0.155929,-0.149822,0.865001,-0.434481,-0.230660,0.870645
-0.133387,0.340770,0.731076,0.616306,-0.317937,-0.720474
-0.207736,0.226016,0.388933,0.831052,-0.321265,-0.454027
0.325940,-0.102951,-0.971885,-0.416004,0.362016,0.834198
-0.487382,-0.069152,0.656081,-0.258326,-0.837679,0.481209
-0.040374,-0.219814,0.946412,0.298967,0.954135,0.015664
-0.097194,0.070497,0.611269,0.446951,-0.192813,-0.873532
-0.063695,0.140960,0.495878,-0.804300,-0.052649,-0.591886
-0.119641,0.103111,0.745410,0.578576,0.051091,0.814027
0.345167,0.395132,-0.979750,-0.499915,-0.234140,-0.833825
-0.457083,0.074616,0.606784,0.901063,-0.003779,0.433671
-0.285992,0.148784,0.569021,0.499764,-0.463766,0.731544
-0.206640,-0.177417,0.847491,-0.657272,-0.619864,-0.428675
-0.287255,-0.037879,-0.653047,0.470927,-0.112901,0.874918
0.188732,0.097513,0.599420,0.620747,0.416857,-0.664006
-0.593789,0.362641,0.624404,-0.755507,0.517678,0.401521
-0.120731,0.016322,0.610682,-0.556764,0.805835,0.201600
-0.559787,0.082294,-0.170868,0.016181,-0.416719,0.908891
-0.317027,0.052150,0.739350,0.916856,-0.192779,-0.349587
-0.495357,0.750989,0.182303,0.734780,-0.139269,0.663854
-0.198801,0.507608,0.292095,0.745913,0.137220,-0.651755
-0.328352,0.271712,0.511236,-0.706907,0.185251,-0.682616
0.494668,-0.606425,-0.946983,-0.646029,0.623854,0.439833
-0.616449,0.576422,0.548574,0.378034,-0.920827,-0.095744
-0.102083,-0.023987,0.760618,-0.118900,-0.907990,0.401767
-0.552901,0.039573,0.015214,0.018090,0.551031,0.834289
0.369982,0.344232,0.564074,0.959587,-0.148777,0.238869
-0.440812,0.236947,0.492464,0.808908,0.071602,-0.583559
0.194804,0.306835,0.528243,0.679616,-0.079649,-0.729231
-0.348717,-0.040235,-0.235604,0.209110,-0.922308,0.324993
0.123529,0.250939,0.607467,0.199491,-0.792838,0.575857
-0.575236,0.311631,0.555393,-0.719398,-0.433240,0.542928
0.203262,-0.693755,-0.168499,0.425187,-0.858405,0.286977
-0.501801,0.034096,0.619241,0.479365,0.782887,0.396607
0.251284,0.095343,0.530638,0.488610,0.550691,-0.676757
0.212674,-0.404714,-0.962489,-0.255760,-0.498982,0.828012
-0.166617,-0.139211,0.705247,-0.547030,0.000963,-0.837113
0.125048,-0.331639,-0.542282,0.488138,0.489584,0.722516
-0.240402,-0.079851,0.693698,0.358428,0.776897,0.517649
-0.330478,0.115150,0.712078,-0.307858,-0.950883,-0.032329
0.862109,-0.563166,-0.933391,-0.091511,0.325811,0.940996
-0.290494,0.331098,0.380178,0.969035,-0.221547,-0.109034
0.296980,0.228448,0.053572,-0.150015,-0.035376,-0.988051
-0.032357,-0.144945,0.766174,0.779725,-0.098136,-0.618384
-0.346930,-0.196963,0.834028,0.779087,-0.173710,-0.602369
-0.097211,-0.036534,0.759704,-0.326600,-0.784170,0.527646
-0.035728,0.165330,0.577415,-0.315346,-0.315823,0.894881
-0.103342,0.324069,0.449266,-0.558933,0.677810,-0.477670
0.210353,0.356322,0.408985,0.844726,0.270085,-0.462053
-0.239613,0.034575,0.896174,0.093036,-0.902652,0.420194
-0.013629,-0.004811,0.618418,0.055645,0.796799,-0.601677
-0.537339,-0.146532,-0.138046,0.329394,0.806216,0.491442
-0.111796,0.003722,0.363181,-0.244526,-0.770044,0.589270
0.441497,-0.561944,-0.956287,-0.276357,0.159239,0.947771
-0.418570,0.235292,0.580359,-0.669789,-0.688143,-0.279000
-0.077102,-0.042216,0.818346,-0.097098,-0.993610,-0.057542
0.162133,-0.072793,0.692582,0.903567,-0.150129,-0.401282
-0.058409,-0.019874,0.830663,0.393928,0.753890,-0.525804
-0.038193,0.511711,0.719431,0.985727,-0.163502,-0.040123
-0.448622,0.092208,0.715613,-0.148535,0.972424,-0.179804
-0.374216,0.069252,0.469363,0.980822,-0.179432,-0.076110
-0.235169,-0.119614,0.837971,0.459654,-0.779394,0.425749
0.040222,0.291188,0.707268,0.164206,-0.383662,0.908757
0.419159,0.191961,0.442863,0.269222,0.962206,0.040979
-0.168311,0.228621,0.744424,0.992122,0.121239,-0.031538
0.181205,0.219514,0.404853,0.584469,-0.349008,-0.732522
-0.580198,0.469687,0.464993,0.832026,0.541940,0.118464
0.003864,0.187898,0.615234,-0.585377,0.668011,-0.459452
-0.384223,-0.037999,0.585925,-0.436386,0.860303,-0.263527
0.129976,-0.506750,-0.229123,0.752558,0.338176,-0.565061
-0.108479,0.169188,0.675627,0.449204,-0.084825,-0.889393
0.006953,0.202097,0.651412,-0.541168,-0.840684,-0.019698
0.280754,0.027838,-0.966705,0.675694,0.079267,-0.732908
-0.228362,-0.201633,0.732455,-0.195515,0.737873,0.646001
0.113825,-0.452580,-0.983352,0.739702,0.084477,-0.667611
0.145477,0.091963,0.555430,-0.773168,0.615945,-0.151075
-0.489734,0.617378,0.192997,-0.676990,-0.060223,-0.733524
-0.047102,-0.048702,0.715806,0.931502,0.278816,0.233591
0.466327,0.373809,-0.958490,0.014149,-0.135803,0.990635
-0.186088,-0.210830,0.850372,0.006233,0.832569,0.553886
0.117031,0.305228,0.635116,-0.484349,0.835873,-0.258309
0.437334,0.018707,0.381547,0.353124,0.834791,0.422407
0.180806,-0.251728,-0.279047,-0.441266,-0.765061,0.469004
-0.306028,0.317291,0.723533,-0.182595,-0.815799,0.548754
0.104159,0.114894,0.611746,-0.192550,-0.391174,-0.899948
0.180150,-0.120887,-0.928653,0.008009,0.875609,0.482954
-0.121210,0.227854,0.481401,0.085819,-0.993188,-0.078815
-0.189109,-0.062648,0.842224,0.947418,-0.311162,0.074680
0.778680,-0.462243,-0.954151,-0.180463,-0.266414,0.946814
-0.071418,-0.237791,-0.242064,0.620645,-0.700781,0.351719
0.303830,-0.054159,0.797980,0.980479,-0.189590,-0.052126
-0.056229,0.135318,0.478976,0.902701,0.277225,0.329055
-0.403700,-0.100508,0.574715,0.724054,0.627953,-0.285343
-0.622503,0.379464,0.544101,-0.136146,-0.723870,0.676370
-0.219062,0.331303,0.394866,-0.161804,0.722908,0.671732
0.332384,0.405176,0.558260,-0.555318,-0.367034,0.746263
-0.389028,-0.214936,0.698674,-0.757670,0.568160,-0.321140
-0.269675,-0.240206,0.848542,-0.240415,-0.361612,0.900798
0.004966,-0.125070,0.857859,-0.290628,-0.907822,0.302317
-0.037041,0.186792,0.662198,-0.449118,0.893464,-0.003950
-0.329755,-0.358408,0.538469,-0.205947,-0.898049,-0.388708
-0.174335,0.054907,0.846211,-0.087257,0.527266,-0.845208
-0.242047,-0.000187,0.238504,-0.395411,-0.170793,0.902485
-0.563820,0.237679,0.635837,0.748900,0.358251,0.557499
-0.416666,-0.500943,-0.083254,0.525540,0.817619,0.235172
0.122282,0.225474,0.518829,-0.725978,0.624099,-0.288890
0.445873,0.081121,0.423267,-0.240221,-0.686196,0.686607
-0.151255,-0.326755,0.742583,0.116894,-0.736079,0.666726
0.151038,0.013461,0.717478,0.646125,0.757032,-0.097084
-0.410467,-0.218556,0.763755,-0.204647,-0.860478,-0.466581
-0.098708,-0.262471,-0.669970,-0.696067,0.224240,-0.682061
-1.000000,0.091542,0.124825,-0.536363,-0.730476,0.422754
0.366301,0.320465,0.546277,0.246266,-0.672977,0.697463
-0.170868,-0.066034,0.974226,0.938247,-0.238721,0.250410
-0.021789,0.097615,0.853382,0.643304,0.412061,-0.645264
-0.391741,-0.147027,0.555748,0.730080,-0.112061,0.674111
-0.346600,-0.024342,0.742481,0.986127,0.069372,-0.150804
0.306205,0.574813,0.497182,-0.326015,-0.034951,-0.944718
-0.697202,0.581898,0.523390,-0.615327,0.750894,0.239856
-0.331387,-0.293835,0.764961,-0.388870,-0.164215,0.906539
-0.419081,0.812112,0.239157,-0.694936,0.479663,0.535712
-0.438832,0.618152,0.241596,0.978228,-0.178964,-0.105083
-0.082918,-0.308312,-0.033753,-0.714002,0.696689,-0.069467
-0.158777,-0.217742,0.881503,0.920623,0.233837,-0.312688
-0.213709,-0.199160,0.707799,-0.690949,-0.115639,-0.713595
-0.174415,0.081897,0.794459,0.274256,-0.886930,0.371670
-0.283330,-0.015559,0.912274,-0.396798,0.426553,0.812775
-0.339113,-0.169510,0.747712,0.986470,0.061876,-0.151817
-0.471099,0.426423,0.457049,0.786942,-0.457022,-0.414552
0.098007,0.316093,0.617552,-0.680102,-0.710579,-0.180384
0.427914,-0.126563,0.379738,-0.559060,0.469261,-0.683554
-0.507499,0.233645,0.628637,-0.385137,-0.440984,-0.810680
0.456845,0.391382,-0.956413,-0.008744,-0.083918,0.996434
0.029972,0.539980,0.368064,-0.106690,-0.299388,0.948148
-0.208481,0.265135,-0.237979,-0.767559,0.452674,0.453805
-0.245525,-0.283594,0.747207,0.489480,-0.500962,0.713755
-0.389231,0.093369,0.461176,0.961357,-0.171899,0.215042
0.083734,0.285705,0.681441,0.648970,-0.587757,0.483094
0.082695,-0.095557,0.683805,0.328512,-0.940905,-0.082331
0.561226,-0.073586,-0.969482,0.239096,-0.211054,-0.947781
0.100780,0.433301,0.637359,-0.562835,0.661433,-0.495704
-0.136910,0.373403,0.737642,-0.268440,0.950075,-0.159049
-0.126640,-0.033213,0.720085,-0.524888,0.845499,0.098102
0.014280,0.018220,0.863313,-0.098469,0.947358,0.304658
-0.100143,0.439740,0.762682,0.840450,-0.289585,0.458023
-0.290219,-0.289388,0.648096,0.039972,-0.961928,0.270364
-0.063061,-0.070261,0.762633,0.932824,0.242033,0.266946
0.176572,0.311040,0.392887,0.770614,-0.612970,-0.174422
0.602213,-0.323766,-0.948792,0.130714,-0.422324,-0.896971
-0.377333,0.134309,0.462818,0.571918,-0.239879,0.784454
-0.419984,-0.149026,0.570731,0.666377,0.492157,-0.560110
-0.120874,0.521667,0.301772,0.665430,0.144166,-0.732406
-0.476469,0.228046,0.611297,0.175679,0.819753,0.545107
-0.452030,0.233697,0.462753,-0.160685,0.005189,-0.986992
-0.594637,0.237343,0.469422,0.498144,0.859590,-0.113828
0.097446,-0.094167,0.886145,0.797106,0.535490,-0.279058
0.036327,-0.243049,0.484602,-0.398184,0.679487,0.616236
-0.662243,0.368864,0.489143,-0.060580,0.282674,0.957301
0.047021,0.425077,0.616011,0.813842,0.057263,-0.578258
-0.320714,-0.184711,0.677080,-0.327089,0.838019,-0.436733
0.198473,0.450352,0.382201,0.591684,-0.242413,-0.768860
-0.743447,0.548297,0.496502,0.812176,0.491498,0.314325
-0.473099,0.249885,0.581719,0.518375,0.851852,0.075071
0.370473,0.429690,0.426620,0.758007,0.496713,0.422731
0.736822,0.111218,0.113368,0.246380,0.930828,-0.269920
-0.031949,-0.458804,0.727320,-0.710371,-0.618307,0.336257
0.570707,-0.092652,0.384685,0.797824,0.602618,0.018144
0.365369,-0.181353,-0.969119,-0.267276,0.247804,0.931213
0.251143,-0.283420,-0.478513,-0.045900,-0.930580,0.363199
0.001517,0.066753,0.634545,0.999310,0.008760,0.036105
0.026312,0.205058,-0.723789,0.970636,-0.234214,0.054851
-0.505997,0.333252,0.637082,0.924415,0.318419,-0.209920
0.368419,-0.196067,-0.955915,-0.373085,0.472195,0.798648
0.595496,-0.215411,0.377322,0.297574,-0.078414,0.951473
-0.061279,0.231048,0.611030,0.720065,-0.584384,-0.374167
-0.084804,-0.057917,0.934082,0.827953,-0.043007,-0.559146
-0.487679,-0.249622,0.706423,0.134634,0.347917,0.927808
-0.418280,0.005166,0.588029,0.813194,-0.402602,-0.420270
0.168995,0.204746,0.540599,0.154425,0.847028,0.508622
-0.166688,0.537610,-0.162148,-0.166324,0.938542,-0.302450
0.379174,0.305238,0.551585,-0.592958,0.603197,-0.533437
0.524392,-0.363149,-0.419388,0.402380,0.897732,0.179356
-0.184452,0.123345,0.731691,0.855072,-0.088478,-0.510904
-0.299460,-0.432747,-0.515466,0.455036,0.890068,0.026851
0.227155,0.348916,0.588089,0.347474,-0.934679,0.075080
-0.305880,-0.587561,-0.286353,0.964851,0.256482,0.057260
0.083686,-0.026937,-0.981235,-0.228992,0.958738,-0.168478
-0.606606,0.102198,-0.178013,-0.043467,-0.463218,0.885178
0.122588,-0.557859,-0.981864,-0.246945,-0.592598,0.766711
0.202921,-0.075965,-0.961386,-0.097309,0.108756,0.989294
0.063593,0.017346,0.670798,0.812949,0.087794,-0.575678
-0.003962,-0.428766,-0.983174,-0.250492,0.321325,0.913238
0.015044,0.406146,0.601092,-0.631525,-0.183973,0.753213
-0.226135,0.075322,0.586033,-0.622979,0.761369,0.179483
0.024104,0.314556,-0.984481,-0.435873,0.300975,0.848192
-0.156354,-0.276315,0.846992,0.838556,-0.539801,-0.073745
0.316065,0.450799,-0.963178,0.452857,-0.206135,-0.867427
0.403690,0.519852,0.668368,0.802958,0.591761,-0.071256
0.164955,0.197101,0.390098,0.868098,-0.412292,-0.276443
0.218830,0.442007,-0.976494,-0.577889,0.209277,0.788827
-0.175601,-0.057167,0.723445,0.922344,-0.218646,0.318551
0.254340,0.447753,0.637883,0.128204,-0.957883,-0.256949
0.003596,-0.246641,0.499734,0.433793,-0.782026,-0.447503
0.036234,-0.097500,0.852823,0.114676,-0.975344,-0.188559
-0.163792,-0.392284,0.538100,-0.320419,0.860485,0.396102
-0.206030,-0.092758,0.728809,0.746739,-0.203396,0.633254
-0.411527,-0.014688,0.600009,-0.045641,-0.582387,0.811629
0.451186,0.208263,0.443338,-0.713394,0.442987,0.542984
-0.252384,-0.133099,0.132460,0.976454,0.067338,0.204948
-0.134653,-0.003260,0.880680,-0.050994,-0.304544,0.951132
-0.027562,0.234767,0.677797,0.971970,-0.224020,0.071339
0.020045,0.125034,0.444316,0.022806,-0.868289,0.495535
-0.375846,0.170934,0.424424,0.261279,-0.534205,0.803964
-0.398508,-0.102283,0.731430,-0.338837,0.924035,0.177059
-0.040789,-0.283821,0.714124,0.910867,-0.313450,0.268460
0.038498,0.409318,0.693550,0.451255,0.880962,-0.142388
0.276262,0.266707,0.538556,0.601616,0.274268,-0.750224
-0.256184,-0.161862,0.729158,-0.276154,-0.914818,0.294699
-0.275440,0.508482,0.279922,-0.311747,-0.531550,0.787571
-0.378123,0.269848,0.451448,0.298422,-0.685762,0.663833
0.027235,-0.066258,-0.994749,-0.372513,-0.400459,0.837178
0.194727,0.147383,0.616814,-0.694444,-0.593068,0.407454
0.384604,-0.236144,0.401372,-0.085839,-0.797775,0.596813
0.084527,0.315784,0.698483,0.906764,-0.316086,0.279052
-0.028612,-0.173987,-0.684171,0.670560,-0.701261,-0.242039
-0.208198,-0.225323,0.743266,0.515113,0.762807,-0.390875
-0.081705,-0.883702,-0.633387,0.994758,-0.057192,0.084763
-0.339787,0.014837,0.690624,-0.436827,0.894127,0.098585
-0.078203,-0.156341,0.970713,0.888890,0.427864,0.163726
-0.027727,0.093573,0.716978,0.978588,-0.117819,-0.168771
0.106969,-0.087984,-0.375059,-0.438071,0.714053,0.546098
-0.259212,-0.164446,0.775859,0.780343,0.026486,0.624791
-0.050014,-0.145737,0.738339,0.495400,0.694085,-0.522327
-0.149390,-0.083137,-0.656740,0.415408,0.798430,-0.435828
-0.387677,-0.331412,0.536898,0.866738,0.497886,-0.029568
-0.122205,-0.761234,-0.005036,0.743743,0.588835,0.316416
0.034990,0.284588,0.378670,-0.477623,-0.141148,0.867152
0.072561,0.116204,0.817786,0.216671,0.718107,0.661344
-0.716619,0.566493,0.546168,-0.796515,0.568554,0.205695
0.187663,0.181277,0.093620,0.782244,-0.620048,-0.060288
0.250744,-0.026069,-0.968114,0.131525,-0.120611,-0.983948
-0.215632,0.114430,0.743220,-0.002563,-0.400257,0.916399
-0.498136,-0.039946,0.346578,0.431790,0.644125,0.631395
-0.173202,0.063716,0.853537,0.857444,-0.092213,0.506248
-0.402557,0.313756,0.608681,0.062553,0.578892,0.813001
-0.044703,0.206466,0.513247,0.671339,0.709880,0.213011
-0.167437,-0.075091,0.733235,-0.624261,-0.567639,0.536735
-0.589323,0.261034,0.479533,0.447511,0.739711,-0.502555
-0.006160,0.214950,0.653800,0.153189,0.942696,0.296407
0.120242,-0.302468,-0.963678,-0.194937,0.189702,-0.962296
-0.253231,-0.023388,0.798225,0.604310,-0.658742,-0.448185
0.090547,0.689063,0.338213,0.070025,-0.214124,0.974293
-0.532356,-0.022941,0.610521,-0.575790,0.787901,-0.218354
0.076084,-0.684165,-0.091875,-0.671190,0.639836,-0.374317
-0.235509,-0.094441,0.516711,0.875829,-0.051713,-0.479842
-0.249982,0.029151,0.444128,0.072794,0.928287,-0.364670
0.272327,0.480914,-0.976841,-0.383481,0.304915,0.871762
-0.460822,0.279412,0.506155,-0.095254,-0.912592,0.397621
-0.168026,-0.078651,0.827944,0.970121,0.197408,0.141050
-0.213260,0.058279,0.456513,-0.188530,-0.812350,0.551855
0.495910,0.181720,-0.568083,0.834816,-0.542824,-0.091784
0.029233,0.546643,0.371867,0.257554,0.266387,-0.928818
-0.068428,-0.141659,0.784413,0.369728,0.500073,0.783089
0.015395,0.047873,-0.965287,0.601944,-0.310800,-0.735572
-0.174676,0.004148,0.815948,-0.588992,-0.770102,0.245011
-0.223915,-0.210798,0.865988,-0.818125,-0.118621,0.562672
-0.239366,0.089049,0.719832,0.299434,-0.539560,-0.786902
-0.409870,-0.187665,0.654621,0.858590,0.124868,-0.497223
0.117607,-0.073843,0.869497,0.818226,0.080400,0.569247
0.438031,-0.505246,-0.959017,-0.446300,-0.034301,0.894226
-0.290531,-0.220140,0.870469,0.805702,0.581739,0.111460
-0.247513,0.394273,-0.280686,0.722045,0.531475,-0.442929
-0.463967,-0.162141,0.701850,-0.574389,0.811059,-0.110732
-0.367832,0.296961,0.466471,-0.200005,0.452821,0.868879
0.371602,0.522196,-0.969787,-0.587677,0.310850,0.746999
0.365231,-0.364305,-0.320028,0.143599,0.736548,0.660966
0.124861,0.405521,0.456341,-0.360535,0.031897,-0.932200
0.155418,-0.109210,-0.982331,-0.200065,0.420061,0.885168
0.069058,-0.250637,-0.949175,-0.297425,0.413481,-0.860565
0.056383,-0.289752,-0.756304,0.806281,-0.110219,0.581174
-0.104326,-0.213200,0.774295,0.920075,0.356897,-0.161512
-0.028357,0.071014,0.651537,0.886826,-0.056539,-0.458632
0.026643,0.552031,0.332461,0.999796,-0.007577,0.018707
-0.407613,0.761034,0.236156,-0.506810,0.602748,0.616310
-0.640765,0.151870,-0.183960,-0.445664,-0.703675,0.553376
-0.091418,-0.129997,0.770822,0.003705,-0.899188,0.437546
-0.325279,-0.243654,0.721132,0.775073,-0.318186,0.545911
-0.494211,0.176687,0.720846,0.944691,-0.214869,0.247772
-0.132367,-0.235053,0.840610,0.984765,-0.101798,-0.140982
0.096726,0.234444,0.558303,-0.154874,-0.443288,0.882898
-0.533531,0.057210,0.601206,0.999250,0.033498,-0.019444
-0.507429,0.191660,0.506805,0.838840,-0.423213,0.342400
-0.106287,0.151873,0.674639,-0.443059,0.253339,0.859952
-0.456317,-0.139435,0.734223,0.786298,-0.610427,0.095473
-0.316582,-0.179468,0.688689,0.143946,-0.976256,0.161874
-0.380787,0.094678,0.578841,0.870265,-0.491724,-0.029091
-0.110609,0.073486,0.836577,0.826053,0.560939,0.054624
-0.214712,0.335985,0.382977,-0.160002,0.548483,0.820710
0.381295,0.359973,-0.984689,0.392267,-0.158186,-0.906148
-0.331424,0.212913,0.629309,-0.547137,-0.191980,0.814730
-0.423487,0.061310,0.695873,-0.243537,-0.602203,0.760290
-0.305469,-0.207908,0.664790,-0.666284,0.731543,0.144604
-0.158720,0.197423,0.405313,-0.552512,0.595738,0.582947
-0.230494,-0.103738,0.702235,-0.039294,0.938889,0.341969
-0.544793,-0.003831,0.580740,0.948854,-0.099115,0.299754
0.442312,0.128966,0.108676,-0.034446,-0.812786,0.581544
-0.110663,-0.129084,0.899199,0.846130,0.527273,0.077766
0.441449,-0.538588,-0.304630,0.310340,0.687607,0.656419
0.057375,-0.110046,0.579253,-0.274811,0.442073,0.853844
-0.346072,0.548911,0.233821,-0.077143,-0.303175,0.949807
0.417581,0.586635,0.079702,0.728998,0.483001,-0.485049
-0.064218,0.117545,0.628543,0.868446,0.410482,-0.278040
-0.559734,0.175021,0.632072,-0.491058,0.142361,-0.859416
-0.046666,-0.376626,0.675327,0.422892,0.687882,0.589899
-0.042612,0.103884,0.433339,-0.100101,-0.987607,-0.120879
0.010434,0.482484,0.738814,0.427845,-0.126490,0.894957
-0.202151,0.524353,0.765444,0.342100,0.670925,-0.657896
-0.021891,-0.078886,0.726331,0.828133,0.560221,0.018647
0.099761,-0.018698,0.856673,-0.475419,-0.351856,0.806333
-0.498766,0.093479,0.703247,0.978947,-0.064063,0.193800
-0.030061,0.153104,0.691179,0.962021,0.024303,0.271890
0.159160,-0.701189,-0.133529,0.759181,-0.564487,0.324034
-0.222945,-0.474380,-0.490337,-0.705024,-0.705286,0.074254
0.359619,0.317262,0.064743,-0.554607,0.574945,0.601539
-0.282012,-0.138474,0.783812,0.971289,-0.111307,0.210258
-0.292636,0.016509,0.871820,-0.368471,0.927089,0.068808
0.124375,-0.160378,0.888919,0.317121,0.704814,-0.634563
0.020500,-0.366836,0.676816,-0.650162,-0.745008,-0.149172
-0.346444,0.389537,0.260081,0.897062,-0.421995,-0.131149
0.149384,-0.126814,0.619178,0.539123,0.447827,-0.713300
-0.541478,0.301058,0.501214,0.230783,0.835706,-0.498331
0.091793,0.306935,0.606301,0.994055,0.046151,0.098618
-0.166227,0.416371,0.749888,0.016352,-0.482808,0.875574
-0.349293,0.491303,0.251438,0.846677,0.504486,-0.169210
-0.073445,-0.109225,0.919541,-0.397774,-0.909670,-0.119487
-0.023142,-0.134605,0.678659,-0.542991,0.489312,-0.682447
0.175389,0.409513,-0.988387,-0.300449,0.416516,0.858047
-0.068190,-0.109480,0.908977,-0.528203,-0.606386,-0.594388
-0.220233,0.114195,0.721024,0.057046,-0.788745,0.612067
-0.063689,-0.255824,0.791001,-0.131731,0.454175,0.881120
0.699938,0.099808,-0.958779,-0.203623,-0.278739,0.938532
0.359389,-0.119195,0.390413,0.351395,-0.914026,0.202677
-0.363300,0.180750,0.425094,-0.689432,0.205193,-0.694680
-0.089694,0.173832,0.492943,0.770416,-0.052171,0.635404
-0.078417,0.300648,0.513771,0.897153,-0.409236,-0.166259
-0.139493,0.042985,0.068418,-0.523202,0.808457,0.269551
-0.427027,0.104200,0.513878,-0.165406,0.933489,-0.318180
-0.036625,-0.079110,0.298489,-0.337537,-0.716027,-0.611043
-0.287475,-0.010507,0.639629,0.961708,0.213830,0.171450
-0.401309,-0.213323,0.678961,-0.882733,0.288709,-0.370714
-0.073648,0.097218,-0.945505,0.835078,0.547128,-0.057412
-0.310733,0.346914,0.736106,0.108674,-0.959399,-0.260277
-0.315619,-0.196487,0.183464,0.098473,-0.855586,-0.508208
0.364882,0.372670,0.059149,0.430004,0.256176,-0.865720
0.412046,0.172112,0.497198,0.100839,-0.991208,-0.085663
-0.446595,0.132485,0.596995,-0.116155,0.195118,-0.973877
0.061766,-0.093958,0.586588,0.395770,0.738296,0.546155
0.038625,-0.217454,0.828007,0.779998,-0.566174,-0.266552
0.164483,-0.121906,0.881674,0.290769,0.830560,-0.474998
-0.576710,-0.025022,0.596082,0.772471,-0.621085,0.132447
-0.436716,0.399719,0.167111,0.279004,-0.942286,0.185077
0.194607,-0.152628,0.677970,0.570393,0.546201,-0.613446
-0.129232,0.068028,0.458236,0.144665,-0.916453,0.373077
0.364461,0.362513,0.057362,0.430004,0.256176,-0.865720
0.034576,0.345078,-0.987624,-0.287665,0.635971,0.716093
-0.515044,-0.359966,0.709633,0.126180,0.747437,0.652240
-0.450532,0.036954,0.532004,0.850729,0.494824,0.177228
-0.315942,0.255609,0.637381,0.829763,0.412042,0.376450
-0.442601,0.397820,0.160112,0.111584,-0.975601,0.189082
-0.165503,0.047633,0.769234,0.745676,0.647223,0.158333
-0.305802,0.128168,0.628084,-0.168400,-0.584166,0.793972
0.029683,0.371694,0.367162,0.134966,0.560604,0.817011
0.316487,0.415782,0.642855,-0.165798,0.985954,0.020143
-0.160437,-0.017231,0.867980,0.372698,-0.907877,-0.191979
-0.104640,0.361281,0.279582,-0.607903,-0.054177,0.792161
-0.268645,-0.515934,0.113345,0.002714,0.037091,0.999308
0.500524,-0.591928,-0.955498,-0.619681,0.248357,0.744523
-0.206355,-0.138557,0.692754,0.960966,-0.015798,0.276217
-0.223755,-0.247462,0.859271,0.778188,0.302508,0.550374
-0.387966,-0.267927,0.733365,0.809393,-0.545406,-0.217752
-0.453132,0.282906,0.591033,-0.620295,-0.594517,0.511648
-0.618374,0.375302,0.551177,0.656253,0.607096,-0.448070
0.076437,0.390982,0.688015,0.781812,0.569966,0.252802
-0.504767,0.354153,0.505535,-0.463398,-0.443255,0.767325
0.070786,-0.117148,-0.952856,0.903746,0.150666,0.400679
-0.081796,0.030983,0.765337,0.262598,0.290771,-0.920051
0.909552,-0.334579,-0.937262,-0.136674,0.049199,0.989394
-0.141337,0.112973,0.543192,-0.315834,0.481620,0.817491
-0.645532,0.182931,0.637658,0.701831,0.024821,0.711911
-0.686786,0.428235,0.543665,0.844664,0.506007,0.174641
-0.117538,0.364846,-0.143609,-0.098597,-0.926869,-0.362205
-0.200325,-0.123074,0.742464,-0.654306,0.269334,0.706642
-0.157812,0.545618,0.286878,0.322153,-0.041847,-0.945762
0.382443,-0.228085,-0.460681,0.103627,0.952237,-0.287238
-0.288034,0.055529,0.516477,0.180812,0.706018,0.684723
0.526754,-0.538836,-0.941127,-0.697600,0.149650,0.700684
0.176183,-0.127514,0.890436,0.176827,0.800036,-0.573302
-0.306649,-0.063458,0.595197,0.173107,0.297892,-0.938773
-0.067941,-0.049793,0.082487,0.223784,-0.955772,-0.190843
-0.551189,0.240852,0.630174,-0.432122,-0.231599,-0.871569
0.409759,0.190480,-0.979024,0.139722,-0.143450,0.979745
-0.077911,-0.137281,-0.473657,0.912799,0.405481,-0.048824
-0.012694,-0.273699,0.723325,0.827491,-0.325250,0.457681
-0.328843,0.021975,0.713578,0.453644,0.415215,0.788545
-0.209457,-0.043895,0.878046,-0.227402,-0.969880,-0.087303
0.099710,-0.657763,-0.989870,-0.483151,0.633683,0.604162
-0.212976,0.455806,0.287863,-0.618096,-0.374857,0.690970
-0.267521,-0.163508,0.688737,0.700620,-0.647954,0.298808
-0.149311,-0.231925,0.914433,-0.035493,0.685671,0.727045
-0.045864,-0.168304,0.776111,0.979013,0.040168,-0.199799
-0.511423,0.098912,0.281465,-0.248376,0.928888,0.274730
-0.314118,-0.174076,0.674733,-0.808118,0.424426,0.408421
-0.153325,0.564202,0.772776,-0.356234,-0.727820,0.585982
-0.382400,-0.040120,0.571696,0.840496,-0.035732,0.540638
0.179230,-0.212877,0.490664,-0.411383,0.396805,0.820554
-0.230507,-0.186965,0.852457,-0.488176,0.848034,0.206211
-0.395560,0.047328,0.544067,-0.541997,-0.276672,0.793532
-0.376403,-0.176964,0.759559,-0.075261,0.426861,0.901180
-0.075616,0.021163,0.686454,0.469860,0.836296,-0.282561
-0.125666,-0.067897,0.901678,0.899805,0.320124,-0.296432
-0.063552,-0.257898,0.563736,-0.218835,0.755121,-0.617983
0.189371,0.205602,0.428309,-0.106662,0.244053,-0.963878
-0.342932,0.148637,0.635089,0.765019,0.389720,-0.512703
0.786552,0.136866,-0.965941,0.382768,-0.006405,-0.923822
-0.168925,-0.017855,0.956674,-0.254848,-0.367509,0.894421
-0.630692,0.336969,0.460173,-0.165939,0.697425,-0.697182
-0.010026,0.045783,-0.984326,-0.345004,0.095346,-0.933746
0.227982,0.412917,0.391894,0.604215,-0.633218,-0.483693
-0.185245,0.014750,0.898313,0.212282,0.591025,0.778220
0.337798,0.421730,0.610378,-0.614096,0.757510,-0.221508
-0.224771,-0.252235,0.130481,-0.714559,-0.588400,0.378406
-0.115926,0.104586,0.554054,0.496417,-0.863237,-0.091604
-0.113377,0.043514,0.916541,-0.302518,-0.853845,0.423594
-0.580140,0.587106,0.485982,0.817158,-0.507961,-0.272451
-0.142577,-0.252011,0.534069,0.521481,-0.605196,-0.601494
0.274284,-0.219952,-0.168305,0.136793,0.776327,0.615308
-0.461185,-0.212330,0.579144,0.156510,0.923970,0.348976
0.006060,0.743580,0.315196,0.753348,0.165090,-0.636563
0.076144,0.043414,-0.948730,-0.774439,-0.521177,-0.358634
-0.055276,-0.092516,-0.703758,-0.416674,0.905387,0.081587
0.021762,-0.020880,-0.783484,-0.762071,0.621045,-0.183168
-0.339880,-0.245121,0.756281,-0.522152,-0.452119,-0.723150
-0.576468,0.435419,0.495693,0.852292,0.523059,-0.002629
0.509517,0.151413,0.492795,0.465035,0.549786,-0.693886
0.179677,-0.469238,-0.966897,-0.075995,0.363754,0.928390
-0.722641,0.667994,0.238393,-0.141705,-0.989893,-0.005596
-0.224261,0.335678,0.737236,0.058823,0.541642,0.838549
0.126594,-0.039818,-0.964416,0.680538,0.442645,0.583896
-0.104772,-0.015049,0.635927,0.262847,-0.961165,-0.084105
0.253606,-0.681753,-0.967174,0.109774,-0.074413,-0.991167
0.198179,0.246554,0.587597,-0.557092,0.742716,-0.371514
-0.597810,0.384068,0.558870,0.504723,0.833104,-0.226258
-0.057249,-0.203542,-0.064420,-0.336161,0.939174,0.070345
0.259605,0.675044,-0.400158,0.941850,-0.333693,0.039603
-0.550096,0.001130,0.579296,0.923156,-0.287057,0.255697
0.056332,-0.915194,-0.503409,0.419265,0.468838,0.777436
-0.159630,0.187328,0.836068,-0.371897,-0.662521,0.650199
0.237964,0.387773,0.642506,0.202598,-0.639474,0.741638
-0.028258,0.166668,-0.978270,0.785456,0.152459,0.599846
0.149555,0.236220,0.598660,0.850004,0.216640,0.480168
-0.356740,0.118907,0.722149,-0.323181,0.535011,0.780587
-0.424646,0.238143,0.639524,0.515060,-0.518392,-0.682630
-0.124000,0.427180,0.361281,-0.278814,0.654062,-0.703182
-0.357259,-0.159139,0.662890,-0.074300,-0.366523,0.927437
-0.048039,-0.053255,0.835434,0.231512,0.882787,0.408766
-0.583137,0.366102,0.537680,0.418646,-0.864874,0.276999
0.062521,0.001966,0.870889,-0.278415,0.477462,0.833376
-0.411838,0.332501,0.538676,0.118925,-0.521373,0.845001
-0.186104,0.186840,0.349945,0.998918,0.037323,0.027762
-0.039570,0.674749,0.271414,-0.640020,0.310038,-0.703029
-0.094004,-0.190119,-0.576022,0.700248,0.461990,-0.544259
0.387724,0.254501,0.474234,0.994545,-0.011479,0.103670
-0.129761,-0.270888,-0.021245,0.432062,-0.704855,0.562585
0.259572,-0.412449,-0.589448,0.671640,0.641188,0.371184
0.317780,0.313497,-0.983459,0.309784,-0.211296,0.927032
0.463100,0.358285,0.444649,0.442386,0.785774,-0.432266
-0.404476,0.140567,0.452600,-0.419871,0.548047,0.723432
-0.232552,-0.050018,0.832721,0.266600,-0.963341,-0.029961
-0.005408,0.388453,0.721597,0.430369,0.641073,-0.635459
-0.142073,-0.140877,0.914588,0.567192,0.679709,-0.465069
-0.233247,-0.144079,0.732271,0.411528,-0.417191,0.810306
-0.033266,0.038153,0.802137,0.959590,-0.269373,-0.081397
-0.007042,-0.147781,0.671365,-0.266516,0.942341,-0.202391
0.123414,0.190826,0.373815,0.756878,-0.337928,-0.559411
-0.094788,-0.143613,0.969024,0.997044,-0.051921,-0.056638
-0.259793,0.099106,0.693248,0.927278,-0.346638,-0.141411
-0.435869,-0.246508,0.642467,0.551472,0.729904,0.403880
0.877771,-0.466193,-0.943524,0.220258,0.218222,-0.950719
0.302209,-0.432320,0.097195,0.144959,0.536951,0.831066
0.111172,-0.030970,0.351741,-0.025807,0.284856,0.958223
0.092313,-0.399776,0.704247,0.653256,0.740798,-0.156446
-0.750286,0.551706,-0.134117,-0.503478,-0.681918,0.530563
-0.254305,-0.196113,0.691562,0.201289,-0.434393,0.877944
-0.200230,0.340714,0.750967,0.406256,-0.247411,0.879627
0.643971,0.094034,-0.948231,-0.083185,0.889713,0.448877
-0.367075,0.173395,0.632879,0.087415,-0.031462,0.995675
-0.290268,0.170343,0.281325,-0.698184,0.486029,0.525657
-0.417660,0.266697,0.514807,0.151297,0.719156,0.678176
-0.309112,-0.146496,0.857105,0.633066,-0.691671,0.347589
-0.253241,0.565258,0.259034,0.834148,0.513774,-0.200583
0.000138,0.489602,0.702514,-0.402677,-0.647336,0.647153
0.345315,-0.304971,-0.461170,-0.254621,-0.966667,0.026895
-0.196103,0.156638,0.495986,-0.315071,0.440795,0.840494
-0.165370,0.077366,0.672403,-0.492881,0.666467,0.559366
-0.248724,-0.273913,0.505799,-0.297222,-0.319853,-0.899640
0.102794,0.249666,-0.982998,0.624893,0.191885,0.756762
-0.045444,0.238510,0.701208,0.954376,-0.259927,0.146987
0.229307,0.092877,-0.014145,-0.230879,0.885411,0.403413
-0.113756,-0.055080,0.733804,-0.620594,0.194776,-0.759556
-0.147503,0.144983,0.847505,-0.700682,0.095171,-0.707098
-0.419621,0.049265,0.309105,0.339635,0.889061,0.306950
-0.088284,-0.010766,0.816509,0.895027,-0.301313,0.328842
-0.041733,-0.200389,0.830688,0.067601,0.802851,0.592335
0.338186,0.184138,-0.974828,0.038372,0.157674,0.986745
0.313424,0.433486,0.656139,0.289405,-0.947928,0.132956
-0.069821,-0.101203,0.960286,0.909574,-0.116016,0.399017
-0.172218,-0.155936,0.749992,0.815332,-0.419619,-0.398941
-0.145352,-0.406639,-0.575039,0.367365,0.450766,0.813544
-0.501064,-0.115471,0.595646,-0.894287,0.439255,0.085469
-0.075295,-0.080479,0.960159,-0.677442,0.123358,0.725159
-0.070809,0.110947,0.704964,-0.597803,-0.332530,0.729421
0.036980,0.530315,-0.986367,0.107225,-0.251691,-0.961850
0.451126,-0.011729,0.393357,-0.567624,0.782884,-0.254746
-0.076979,-0.046121,0.714572,0.221922,0.960402,0.168462
-0.171606,0.048940,0.058361,0.513575,0.845604,-0.145586
-0.469873,-0.080732,0.598805,-0.413435,0.682034,-0.603242
0.031349,-0.213826,-0.985157,0.442965,0.271449,-0.854458
-0.067844,0.124115,0.425208,0.032957,0.903964,0.426336
-0.085727,-0.166530,0.616662,0.028093,-0.257196,0.965951
-0.632498,0.594042,0.463369,0.837988,0.166631,0.519625
-0.376428,0.212631,0.245533,0.603709,0.793160,-0.080209
-0.073724,-0.204957,0.730139,-0.519557,-0.252104,0.816397
-0.291851,-0.176630,-0.110232,0.223117,-0.713705,0.663960
0.189232,0.394694,0.626339,-0.172987,0.041981,0.984029
0.889298,-0.498434,-0.941887,0.453197,-0.362079,-0.814562
-0.204065,0.251360,0.382147,0.474567,0.542707,0.693004
0.580522,0.201069,0.150991,0.037506,0.921453,0.386674
-0.135562,0.067498,0.605682,-0.623570,0.610076,0.488843
0.009260,0.055197,0.736316,0.783541,-0.619938,-0.041727
-0.445531,0.263808,0.459577,0.314536,0.586850,-0.746106
0.446139,0.524257,0.493813,-0.581013,-0.539213,0.609650
-0.713584,0.590053,0.490572,-0.429988,-0.830318,0.354516
0.337299,0.030421,0.410840,0.638949,0.257647,-0.724819
0.252143,0.008213,-0.975646,0.260111,0.872397,0.413842
-0.119843,-0.003308,0.913500,0.077775,-0.535161,-0.841162
-0.001049,0.249851,-0.990054,0.248469,0.012695,-0.968557
0.342876,0.657236,-0.961237,0.465611,0.264131,-0.844654
-0.284762,-0.057233,-0.402634,0.520537,-0.834383,-0.181235
-0.151985,0.273651,0.393208,0.188800,0.746655,0.637857
-0.422210,-0.288234,0.334672,0.075072,0.950304,-0.302138
-0.077473,-0.108640,0.086637,0.771890,-0.565235,0.291026
-0.463937,0.134580,0.411179,-0.115980,-0.982763,0.143961
-0.054025,-0.127373,0.849322,-0.465020,0.883958,-0.048730
0.048089,-0.196760,0.934687,0.806535,0.591172,0.004106
-0.282537,0.305597,0.755802,0.147771,0.034606,0.988416
-0.293567,0.303242,0.753060,0.032901,0.270706,0.962100
-0.119778,0.113989,0.829567,-0.729637,-0.586052,0.352383
-0.130813,-0.556821,-0.541303,0.074301,0.993537,0.085814
0.367186,0.462679,-0.968539,0.017927,0.171660,0.984993
-0.533329,0.054384,0.298684,0.862754,-0.406500,-0.300687
-0.093678,-0.048212,0.790122,0.896526,0.001608,0.442987
-0.503616,-0.145112,0.574205,-0.648057,0.558773,-0.517489
-0.185626,-0.049294,0.835939,-0.368081,0.908999,-0.195546
-0.233246,-0.231124,0.883095,0.032487,-0.994788,0.096654
-0.467946,0.162665,0.287408,-0.248376,0.928888,0.274730
0.181400,-0.026057,0.696389,0.944002,-0.032199,-0.328365
0.001618,-0.225784,0.682044,0.987150,-0.112761,0.113220
-0.084241,0.012856,0.959515,0.819055,0.511641,-0.259562
-0.049445,-0.124682,0.878045,-0.108619,-0.953653,0.280621
-0.132848,-0.232817,0.846822,0.019179,-0.943064,0.332058
0.297738,0.347406,0.605095,-0.323865,0.945439,0.035463
-0.265375,0.288108,0.240014,0.957350,0.276929,0.082410
-0.295176,-0.482999,0.103002,-0.148850,-0.054975,0.987331
-0.094081,0.227504,0.528051,0.800498,0.441790,0.405000
-0.214834,-0.170836,-0.211463,0.607060,0.793934,0.033854
-0.147994,0.218370,0.834607,0.350761,0.747951,-0.563503
-0.162892,0.115357,0.831008,0.234251,-0.526530,0.817247
-0.159093,0.051123,0.944563,0.962483,0.118653,0.244023
0.457611,0.136383,-0.553022,0.885875,-0.427599,-0.179954
-0.352111,0.009944,0.666713,-0.001846,0.036298,0.999339
-0.049832,-0.235207,0.688648,0.777532,-0.480399,0.405784
0.159146,0.266871,-0.991706,0.091509,0.291437,0.952203
-0.067681,-0.020962,-0.440565,-0.537376,-0.569152,0.622329
-0.174983,0.135429,0.415364,0.848099,-0.519881,-0.102232
-0.292743,-0.018645,0.752470,-0.504690,0.859523,0.080669
-0.020369,0.589262,0.352842,0.470990,0.696915,0.540812
-0.270047,-0.199856,0.871138,-0.648493,-0.270096,-0.711692
0.152810,0.298419,0.582537,0.221103,-0.891027,0.396465
-0.003078,-0.025176,-0.423692,0.256133,0.881160,-0.397433
0.519375,0.149099,-0.967275,0.166968,-0.072710,0.983278
-0.284365,0.145256,0.654959,-0.562912,-0.818859,-0.112252
-0.573770,0.412611,0.488110,-0.791327,-0.490240,0.365331
0.011935,-0.098856,-0.723670,0.887443,-0.431767,-0.161317
-0.521579,-0.208838,0.572434,0.472069,0.683941,-0.556216
0.392339,0.460647,0.676800,-0.050084,0.037842,0.998028
0.249860,0.421985,0.543930,-0.262704,0.919414,0.292684
-0.165168,-0.362007,0.838693,0.854032,-0.504692,0.126160
-0.096744,0.154540,0.838546,0.932505,0.254679,-0.256073
0.015059,-0.165387,0.603733,0.018878,0.974995,0.221425
0.181985,0.037265,-0.055754,0.257142,-0.901639,0.347743
-0.238368,-0.112089,0.872019,-0.777423,0.185904,-0.600877
-0.290232,-0.186751,0.784645,0.992112,0.074476,0.100831
-0.226328,-0.259624,0.860848,-0.482214,-0.789147,-0.380417
-0.046245,0.188756,0.628440,0.903076,-0.429031,-0.019651
-0.449767,-0.399076,0.123090,0.771772,-0.144849,0.619183
0.177686,-0.001182,0.701815,-0.725430,-0.678262,0.117099
0.010354,-0.034090,0.833449,-0.671314,-0.712668,0.203574
0.145888,0.216354,0.353689,-0.646396,0.759508,-0.072937
-0.642288,0.133262,0.534772,-0.086545,-0.825698,0.557434
0.076756,-0.058305,-0.983762,0.681487,-0.103633,-0.724456
0.284972,0.302680,0.427897,-0.014144,-0.722416,0.691314
-0.465547,0.287309,0.614178,0.194074,0.352428,0.915494
0.343498,-0.018010,0.724854,-0.065188,0.898581,0.433939
0.536394,-0.013919,0.375235,0.045512,-0.703956,0.708784
0.103551,-0.100686,0.483318,-0.199562,0.868734,0.453295
-0.481512,-0.323479,0.790943,0.700926,-0.690200,0.179796
-0.529189,0.371778,0.480614,0.196024,-0.413719,0.889051
0.092732,-0.069456,0.869065,-0.388070,-0.564752,0.728324
-0.226197,-0.011087,0.622210,0.982511,0.183367,-0.032389
-0.111147,0.043992,0.766482,-0.373506,0.915878,0.147172
-0.372612,0.198629,0.589322,-0.669302,-0.689624,-0.276503
-0.475445,-0.225905,0.594431,0.612237,0.765619,-0.197469
0.325945,0.483666,0.370366,-0.230165,-0.947612,-0.221483
-0.124478,-0.210797,0.924939,0.989669,-0.123772,-0.072361
0.795595,-0.442338,-0.936493,0.285650,-0.039553,-0.957517
0.192845,0.282291,0.629774,-0.594293,0.796003,-0.114868
-0.184802,0.109155,0.875524,0.487302,0.547706,0.680114
-0.435782,0.141874,0.415300,0.135329,0.848337,-0.511870
-0.307532,0.118970,0.689349,0.268301,0.877846,-0.396738
-0.174351,0.066471,0.604174,-0.714844,0.581830,-0.387907
-0.529822,-0.102902,0.647278,-0.526148,-0.850311,0.011787
-0.049142,0.371570,0.449820,0.358832,0.011888,-0.933326
-0.105775,0.121200,0.793478,-0.739968,0.671413,0.040648
-0.462205,0.212547,0.596645,0.955282,0.103737,-0.276902
-0.465972,0.143140,0.497210,-0.502046,0.764643,-0.404067
0.514078,0.087905,0.490803,-0.353657,-0.603811,0.714380
0.052378,-0.580563,-0.999473,0.233386,0.358406,0.903922
-0.403571,0.309831,0.492247,0.405174,-0.896096,-0.181231
0.131674,0.191546,0.371929,0.766499,-0.318449,-0.557735
0.527878,-0.388312,-0.952280,0.467858,-0.199683,-0.860950
-0.371650,0.042298,0.453839,0.925465,-0.047189,0.375882
-0.082793,-0.049482,0.817840,0.528360,0.840332,0.121154
-0.061749,-0.008633,0.041676,-0.321017,0.735799,0.596278
-0.519376,0.171275,0.537737,0.031126,-0.864779,0.501187
-0.140937,-0.204487,0.866711,-0.623146,0.736862,-0.262150
-0.163423,-0.300197,0.749546,0.476230,0.850348,-0.223862
-0.376703,0.261971,0.600555,0.045267,-0.623682,0.780366
0.017633,-0.326742,-0.837126,0.855917,0.484258,0.181385
0.050884,-0.144983,-0.984953,0.584900,-0.123148,-0.801702
-0.148583,0.204505,0.627571,-0.249477,0.791717,-0.557625
0.082498,-0.098239,-0.944455,0.833768,0.002678,0.552109
0.532405,0.107868,-0.966363,0.056608,-0.012165,0.998322
-0.130298,0.339718,0.743491,-0.288188,0.242080,-0.926469
-0.575729,0.515074,0.515259,-0.439971,0.511692,0.737968
-0.707540,0.604982,0.500153,0.170215,-0.956714,0.236063
-0.327015,-0.035456,0.152006,-0.131323,0.990347,0.044357
0.715282,0.080821,-0.958336,-0.453850,-0.108415,0.884458
-0.120492,-0.066656,0.820672,0.115410,0.965908,0.231735
0.188296,-0.553746,-0.980388,-0.426872,-0.271302,0.862656
-0.548403,0.147365,0.509016,-0.162152,0.818815,-0.550680
-0.058802,-0.184811,-0.653971,0.521256,0.780270,-0.345646
-0.250545,-0.199467,0.856023,0.490017,0.864768,-0.109819
-0.067977,-0.174982,0.916306,-0.769346,0.301939,-0.562974
0.219000,-0.226760,0.522380,0.791140,0.229298,0.567028
-0.286476,-0.064362,0.557104,0.803096,0.583447,-0.120940
-0.173651,-0.186107,0.683130,-0.345035,-0.020863,0.938358
0.153279,0.418868,0.623380,0.829480,-0.280676,-0.482891
-0.591188,0.438680,0.564303,-0.616153,-0.743500,0.259928
-0.513734,-0.149847,-0.141312,0.143205,0.828619,0.541186
-0.054672,0.046873,0.461616,-0.142437,0.969460,-0.199646
0.048022,-0.451306,0.686654,0.147350,0.832832,0.533553
-0.096972,0.012166,0.735211,0.906583,-0.268114,0.325917
-0.287912,0.004671,0.890455,-0.263617,-0.891492,0.368440
0.781872,-0.277616,-0.955750,-0.030251,0.118109,0.992540
-0.339763,0.170588,0.578623,-0.918194,-0.199027,0.342504
-0.456955,0.183873,0.567083,0.081920,-0.807989,0.583475
-0.054402,-0.184240,0.574482,-0.640274,0.602374,-0.476649
-0.450876,-0.134720,0.648124,-0.337968,-0.416413,0.844025
-0.468826,-0.575977,0.035805,0.752683,0.508166,0.418612
0.141609,-0.048876,0.890328,0.659630,0.550230,-0.511990
-0.138663,0.085363,0.748468,0.890913,0.100366,0.442945
-0.419162,0.199242,0.631602,-0.077983,0.620749,-0.780121
-0.193912,-0.208966,0.862908,0.356060,0.900053,-0.251247
-0.050648,0.018472,0.723674,0.704659,-0.362320,0.610066
-0.312605,-0.298926,0.773235,0.869979,0.155170,-0.468037
-0.052374,0.245295,0.497442,0.165637,-0.980874,-0.102226
0.044550,0.405428,0.599743,0.316402,0.761380,-0.565853
0.573345,-0.010072,-0.950749,-0.337935,-0.558113,0.757832
-0.021580,0.056070,0.671553,-0.433001,-0.591717,-0.679986
-0.289525,-0.589919,-0.022651,-0.524889,-0.422775,0.738750
-0.135936,-0.222901,0.915342,0.097011,0.792167,0.602545
-0.408915,0.049506,0.585816,0.708173,-0.651783,-0.271422
-0.354480,-0.377361,0.768129,-0.155437,0.631037,0.760021
0.341864,-0.067582,-0.971498,-0.550682,0.139161,0.823033
-0.206704,-0.026271,0.708955,-0.688289,-0.083014,-0.720671
-0.236734,-0.104504,0.819243,0.466235,-0.716641,-0.518700
0.487209,-0.204963,-0.964490,-0.231516,0.139461,0.962783
0.359513,-0.177785,-0.427043,-0.343258,-0.938011,0.048063
-0.336736,-0.251535,0.821669,0.635361,0.498459,-0.589793
-0.329769,0.191511,0.584521,0.993267,-0.115839,0.001312
0.037626,-0.115315,-0.718403,0.876155,-0.481352,0.025542
-0.404695,0.308815,0.469183,-0.150833,-0.456042,0.877083
0.121544,-0.010386,0.896846,0.535493,0.842553,0.057901
-0.478783,-0.020041,0.605041,-0.077387,-0.949172,0.305097
0.299714,0.435695,0.390414,-0.391843,0.315806,0.864133
0.116465,0.221178,0.579203,0.711220,-0.696073,0.098225
-0.126095,-0.155382,0.927963,0.948189,0.234931,-0.213882
0.236155,0.204239,0.545167,-0.554553,0.817081,-0.157637
-0.301924,-0.108719,0.795701,-0.781918,0.622912,0.024179
0.747657,-0.421604,-0.950260,-0.065908,-0.003632,0.997819
-0.119838,-0.310682,0.766486,0.551518,0.634658,-0.541329
0.071680,0.405451,0.682961,0.629078,0.767774,-0.121590
0.021788,0.428534,0.704845,0.886525,0.292216,0.358724
-0.506561,-0.319341,0.743980,0.183636,-0.961264,0.205547
-0.008679,0.281705,0.550469,-0.131939,0.747729,-0.650764
-0.449083,0.023318,0.486731,0.597740,-0.574449,0.559210
0.068276,-0.254242,-0.922063,0.998205,0.034560,0.048914
-0.160723,-0.056843,0.824917,0.230412,-0.710442,0.664968
-0.106064,-0.218236,0.644430,0.044413,-0.973175,0.225739
-0.085261,0.014688,0.716551,0.235666,0.087690,-0.967870
-0.208447,0.154863,0.681516,-0.174580,0.980049,0.095008
0.338675,-0.219768,-0.957443,0.324639,-0.168228,-0.930757
-0.637756,0.218491,0.640542,-0.623681,0.316365,-0.714797
0.608698,0.147631,0.077744,0.165133,-0.799024,0.578179
-0.289999,-0.380865,-0.381109,0.838822,-0.209754,-0.502376
0.317255,0.467892,0.673394,0.695120,-0.082011,-0.714201
-0.392088,0.253471,0.492072,0.897340,-0.180632,-0.402682
-0.648493,0.193406,0.544890,-0.197212,-0.620743,0.758806
-0.526230,0.001730,0.025180,-0.184492,0.799577,0.571524
0.005342,0.398350,-0.997652,-0.182891,-0.023292,0.982857
-0.150088,0.140807,0.694933,0.244119,0.587010,-0.771897
-0.203828,-0.186249,0.834202,-0.078555,0.927234,0.366150
-0.447316,0.112871,0.683407,0.997680,-0.034908,-0.058444
-0.133363,0.027071,0.893226,0.897441,0.398623,0.188942
-0.345033,0.183344,0.575926,0.897255,0.131633,-0.421435
-0.253798,-0.038333,0.664185,0.694790,0.540121,-0.474906
0.217138,-0.170789,-0.978179,0.105799,-0.338974,-0.934828
-0.392021,0.047681,0.703131,0.421266,0.775323,-0.470542
0.093471,0.657935,0.331964,-0.108438,-0.437115,0.892845
0.049848,-0.182205,0.881559,-0.059445,0.977266,-0.203514
-0.049284,-0.023872,0.716942,0.889261,0.024908,0.456721
-0.243323,-0.000704,0.898949,0.409794,0.834271,0.368864
-0.514104,0.303242,0.584664,0.767921,0.479883,-0.424275
-0.235390,0.294464,0.392561,-0.097882,0.745062,0.659774
-0.030622,0.207579,-0.973059,0.444647,0.240720,0.862753
-0.125407,-0.159755,-0.622915,0.438246,0.897120,0.055821
0.008606,-0.166855,0.588044,-0.497968,0.859882,0.112384
-0.135047,0.856277,0.329925,-0.590825,0.226634,0.774314
-0.360991,0.609247,-0.255628,0.553320,0.613343,-0.563602
-0.140286,-0.211446,0.891518,0.927216,0.144908,-0.345357
-0.312318,-0.219180,0.546213,0.530914,-0.048485,0.846037
-0.375129,-0.103056,0.571160,0.393380,0.276378,0.876851
-0.515605,0.283464,0.583383,0.275754,0.868893,0.411078
-0.204846,-0.368353,0.729604,0.302997,0.929887,0.208574
0.711146,0.242141,0.243907,0.688427,-0.721663,0.072605
-0.358525,0.121637,0.572299,0.948681,-0.262902,-0.175747
-0.091761,-0.040543,0.844696,0.022180,0.939458,0.341946
0.250370,-0.457108,-0.950189,-0.553299,0.489428,-0.674033
0.128119,0.166744,0.514386,-0.709439,0.460395,-0.533603
-0.143473,-0.075818,0.720737,0.753258,-0.657705,0.005248
-0.227131,-0.248048,-0.477859,0.381045,-0.458716,-0.802735
-0.210576,-0.260901,0.872474,-0.544003,0.364612,0.755724
0.040202,-0.115987,0.833414,0.825854,0.211467,-0.522731
-0.433086,-0.055572,0.632750,-0.076588,0.901115,0.426762
-0.206966,0.170897,0.545564,-0.205226,0.235254,-0.950020
-0.229712,-0.053926,0.042333,-0.634080,0.594675,0.494272
-0.013376,-0.387211,0.732597,0.939221,0.173811,0.296065
