0.201957,0.186630,0.659706,-0.064502,0.750244,0.658007
-0.076011,-0.013459,-0.307270,-0.104933,-0.183314,0.977438
-0.773687,-0.191571,0.200198,-0.469470,-0.344090,0.813142
0.106763,0.196644,0.943422,-0.285945,0.736116,-0.613488
0.512845,-0.031212,0.785994,0.058673,-0.215242,0.974797
-0.330627,0.260437,0.618711,-0.299188,-0.251429,0.920472
-0.335019,0.477696,0.041422,0.269733,0.161241,-0.949339
-0.496719,0.562946,0.056427,-0.118646,-0.304847,0.944982
-0.732540,-0.050398,0.189984,0.086752,0.463922,0.881618
-0.192448,-0.600795,-0.133571,-0.117562,0.004233,-0.993057
-0.253113,-0.228507,0.127404,0.410060,-0.911952,0.013906
-0.122776,0.146508,-0.294936,0.166178,-0.116790,0.979155
-0.158362,-0.206269,0.139518,0.305425,0.773083,0.555931
-0.513344,0.191119,0.067715,0.057988,0.993404,0.098924
-0.398353,-0.335543,0.301268,-0.376376,0.415819,0.827910
0.190115,-0.006894,-0.184505,-0.410347,0.443269,-0.796949
0.364491,-0.116855,0.546715,0.871339,0.490428,-0.015757
0.253393,0.712188,-0.159424,-0.317991,-0.641287,0.698307
0.058441,0.550658,-0.586141,0.521936,0.831468,0.190376
-0.082295,-0.243204,0.520669,0.221554,-0.058249,0.973407
-0.320895,0.035701,0.249618,-0.639899,0.408109,0.651134
0.461690,0.026791,0.805459,0.469978,0.183374,0.863421
0.724868,-0.223760,-0.974891,-0.172388,-0.404006,-0.898366
0.243884,-0.434581,0.723167,0.803236,0.434200,-0.407777
0.286310,-0.449929,0.681814,-0.569369,0.582895,0.579700
0.311944,0.432565,-0.444627,0.315831,0.511385,-0.799210
0.486489,0.332749,0.863029,-0.255361,0.733614,-0.629763
-0.091581,0.362337,0.664413,-0.202666,0.033354,-0.978680
0.067338,0.146376,0.928610,-0.316968,0.656245,-0.684744
-0.279136,0.088505,0.543824,-0.415825,-0.747081,0.518613
-0.295206,0.201911,0.165756,-0.491141,-0.870334,-0.036044
0.691115,0.724544,-0.019947,-0.648517,0.387621,0.655115
-0.006561,0.364092,-0.523395,0.012663,-0.134593,0.990820
-0.223254,0.220509,0.263549,-0.143019,0.142215,0.979449
-0.222475,-0.129794,0.600430,-0.798788,0.574557,0.178386
0.621498,0.613995,0.599879,-0.605902,-0.163842,0.778485
0.720086,-0.204641,-0.988519,0.110997,0.281912,0.952998
0.379282,-0.149758,0.578184,0.984716,-0.028445,-0.171827
-0.077846,0.234492,-0.136655,0.253492,0.463098,-0.849283
0.022855,-0.029521,0.115868,-0.343881,-0.935657,0.079323
-0.583019,0.449409,0.057280,0.337528,-0.681464,0.649370
-0.097086,-0.344453,0.130625,0.017264,0.402228,0.915377
0.427325,0.150540,0.789243,0.071846,-0.676052,0.733343
-0.075789,-0.049616,0.147172,-0.227660,-0.205274,-0.951858
0.557775,0.432958,-0.039247,-0.085023,-0.361022,0.928673
0.334410,-0.069192,0.344383,0.868147,0.478064,0.133325
0.358764,-0.008843,0.727104,-0.128731,0.789506,-0.600091
-0.359429,0.241124,0.143014,0.205853,0.977140,-0.053130
0.106263,0.142217,0.608551,-0.689811,0.259165,-0.676014
-0.488990,0.690208,0.222774,0.826246,-0.498181,0.262932
-0.505505,0.624140,0.236733,-0.622682,0.351248,-0.699208
-0.494605,-0.180776,0.237669,-0.383567,0.809568,0.444383
-0.180437,0.136494,0.090676,-0.209691,0.189007,0.959326
0.219417,0.046886,-0.666892,0.602033,0.789797,0.117374
-0.507951,0.247431,0.156422,0.788000,0.369139,0.492740
0.029806,-0.263037,-0.693157,-0.516762,-0.844702,0.139413
-0.207128,0.151060,0.270349,0.247042,-0.294836,-0.923061
-0.134007,-0.156978,0.128643,0.304031,0.754799,0.581243
0.875391,0.026533,0.776716,0.517538,-0.215494,-0.828080
-0.860042,-0.231305,0.201300,0.143824,0.190715,0.971052
0.210244,-0.398622,-0.557755,0.096937,0.177005,-0.979425
0.060666,-0.254063,0.372410,-0.034844,-0.177619,0.983482
-0.459463,-0.399011,0.303470,0.233267,0.429937,0.872204
0.572121,0.052672,0.263053,-0.624274,0.637084,-0.452114
-0.140345,0.392248,-0.518742,-0.123029,-0.297349,0.946809
-0.542038,0.812592,0.085060,0.099128,0.454348,-0.885292
0.420152,-0.204189,0.201244,0.959067,-0.198908,0.201559
-0.542983,0.616663,0.243478,-0.652644,0.336626,-0.678778
-0.473975,0.072311,0.183624,-0.165947,-0.291952,0.941926
0.324123,0.471778,-0.190369,-0.551368,0.452445,0.700919
-0.127890,0.435621,0.078314,0.189533,0.973342,0.129157
0.160922,-0.264533,-0.310766,-0.140326,-0.181420,0.973342
0.566338,-0.517426,-0.744339,0.813144,-0.582057,-0.002563
0.256952,0.243140,0.943615,-0.154323,-0.768035,0.621535
-0.618717,0.405254,0.204328,0.974026,-0.221153,-0.048624
0.550935,-0.402587,-0.521358,-0.771448,-0.635112,-0.038732
-0.506728,-0.107556,0.194224,0.330939,-0.731422,-0.596240
0.369496,0.150278,-0.237009,-0.266228,0.449230,0.852828
0.595364,-0.415462,-0.986922,-0.342607,0.294768,0.892038
0.199735,0.179216,-0.233540,0.361991,0.543760,0.757158
0.406585,0.403174,0.578542,0.302460,0.433915,-0.848667
-0.197508,0.333657,-0.536198,0.253583,0.308044,-0.916954
-0.677213,0.022564,0.009705,0.010703,-0.245460,0.969348
-0.825678,0.447913,0.039026,0.307291,0.209605,0.928245
0.037756,0.169071,0.048332,0.920908,-0.378760,-0.092025
-0.218472,0.147547,0.601586,-0.413395,-0.050925,0.909127
-0.207851,0.431461,0.660724,-0.130839,-0.410262,0.902533
-0.314668,0.328716,0.231530,-0.141423,-0.033509,0.989382
0.372331,0.304982,0.891497,0.260383,0.701821,-0.663059
0.047432,-0.260501,0.689302,0.424870,0.237877,0.873442
0.227315,0.402849,0.496111,-0.727092,-0.222026,0.649647
-0.489935,0.494342,0.039632,0.040612,0.085712,0.995492
0.436667,-0.305827,-0.026389,0.973682,-0.001442,-0.227904
0.182942,-0.083559,0.102212,0.407216,-0.703439,0.582536
0.314836,-0.082325,0.504426,0.992570,0.118519,-0.027534
-0.823453,0.191639,0.175089,0.342081,-0.073583,0.936785
0.018796,-0.150346,0.835304,0.073905,-0.179611,0.980958
-0.907417,0.064183,0.146704,-0.209052,-0.034611,0.977292
0.012178,0.455327,0.589114,0.448093,0.398459,0.800277
-0.860431,0.110806,0.174263,0.451205,0.367480,-0.813248
0.343251,-0.425738,0.698112,-0.642675,0.008265,0.766095
-0.036921,0.466900,-0.510758,-0.370746,0.137885,-0.918442
0.548099,0.210690,0.545145,0.821061,-0.560593,-0.107675
-0.490880,-0.115426,-0.585700,0.160124,-0.018183,0.986929
0.043929,-0.195215,-0.410845,-0.531525,0.427080,0.731495
0.431218,0.143971,0.192875,0.126255,-0.291306,0.948262
-0.640846,-0.061321,0.200115,-0.090401,0.894597,-0.437634
-0.228090,0.024385,-0.308536,-0.001485,-0.260784,0.965396
0.237211,0.057030,-0.265146,0.873456,0.374395,-0.311292
-0.251111,0.419820,0.219470,-0.064355,0.470973,0.879797
-0.376112,0.110548,0.218314,0.877454,0.169834,-0.448587
0.449957,-0.254131,-0.013504,0.916644,-0.339825,-0.210436
-0.068226,-0.307649,-0.575541,-0.671609,-0.067993,0.737779
-0.548988,0.427103,0.205154,-0.379677,0.210061,-0.900955
0.362490,0.637666,0.864653,0.850236,-0.478187,0.220082
-0.127724,-0.027767,-0.404375,-0.607935,-0.316136,0.728336
-0.272686,0.066004,-0.308564,0.053653,-0.269018,0.961640
0.161311,0.155612,0.121953,0.812581,-0.495358,-0.307136
-0.032862,-0.186499,-0.537326,0.476480,0.870583,0.122686
-0.746996,-0.198791,0.239844,0.796108,0.129915,-0.591044
-0.213134,0.212901,0.614719,-0.153440,-0.375885,0.913874
0.104148,-0.143257,0.543796,0.208994,0.629854,0.748067
0.221197,0.441086,-0.201630,-0.485115,0.153597,0.860855
0.269129,-0.097605,0.477141,0.334080,0.892558,-0.302870
-0.868048,-0.339186,0.184340,0.525681,-0.492525,0.693598
0.371109,-0.523280,-0.732472,-0.022912,-0.694419,0.719206
0.025134,-0.236830,-0.521854,-0.667112,-0.087370,-0.739816
0.021187,-0.249511,-0.695057,-0.518573,-0.843080,0.142473
0.863991,-0.038563,0.332186,-0.084615,0.037800,0.995697
0.372665,0.550789,-0.173052,0.589623,0.717931,-0.370026
0.167316,-0.595397,0.405476,0.948383,-0.001046,-0.317127
0.780139,0.272793,-0.425574,0.792371,0.335489,0.509505
0.352871,-0.090973,0.453464,0.926857,-0.348803,0.138828
0.365881,-0.124075,0.500984,0.951433,-0.018660,-0.307290
0.239824,0.140201,0.856118,0.855698,-0.449166,0.256964
-0.443005,0.585447,0.216937,0.300889,-0.251403,0.919925
-0.572063,0.466381,0.209641,-0.371670,-0.096926,0.923291
-0.533029,0.171286,0.604174,0.971015,0.194023,0.139590
-0.039200,0.121471,-0.316080,-0.434253,0.286247,-0.854100
-0.096475,-0.206269,0.105433,0.363878,0.792655,0.489174
0.197566,0.295226,0.960216,0.017326,-0.740559,0.671768
0.313724,0.133632,0.804220,0.337160,-0.574328,0.745969
-0.808106,-0.505396,0.349394,-0.237193,0.677096,0.696620
0.215580,-0.094875,-0.468689,-0.121947,-0.914055,0.386824
-0.372331,0.233127,0.529149,0.279719,-0.225716,0.933172
0.634787,0.669855,0.602219,0.519655,0.181918,-0.834784
-0.530860,0.117832,0.603623,0.545674,-0.122306,0.829024
0.004060,0.212381,-0.243121,-0.474878,-0.612648,0.631786
-0.377668,0.248276,0.135856,0.140947,-0.966122,0.216200
0.588191,-0.299453,-0.199152,-0.702526,0.601343,-0.380583
-0.071285,-0.302183,0.364784,0.143133,-0.364970,0.919951
-0.079236,-0.119717,-0.439506,0.476558,0.656847,-0.584333
-0.582350,0.664001,0.049791,-0.237164,-0.425725,0.873219
-0.439501,0.146444,0.082912,0.654511,0.035746,-0.755207
-0.405248,0.000389,0.243836,-0.039786,0.997163,-0.063891
0.092027,0.271558,-0.312694,0.584678,0.341390,-0.735938
0.696231,0.349982,-0.095302,-0.698410,0.648383,-0.303023
0.286701,0.222331,0.681539,0.517562,0.369730,-0.771640
0.281584,-0.026922,0.755517,-0.540888,0.557936,-0.629403
-0.531082,0.731827,0.271836,0.209693,-0.149712,0.966238
-0.454904,0.158212,0.537932,0.114549,0.115098,0.986727
0.394741,-0.260568,0.183018,0.989077,0.147285,-0.005747
0.218028,-0.193977,-0.287062,0.184755,0.244618,-0.951855
-0.421596,0.274420,0.078094,0.200405,0.891213,0.406912
-0.311498,-0.145599,-0.594648,-0.211200,-0.148531,-0.966092
0.054326,-0.043893,-0.390113,0.342547,0.448312,0.825638
0.115770,-0.143582,0.386397,-0.194262,-0.302127,0.933264
0.042594,-0.772791,-0.663505,-0.240818,0.897164,-0.370275
0.239380,-0.272726,0.741971,0.166692,0.496582,0.851834
0.196342,0.085381,-0.665267,0.754856,0.638377,0.150557
0.453293,0.088243,0.556186,0.936860,-0.343339,-0.066429
-0.768349,0.227923,0.180182,0.065662,-0.093677,0.993435
-0.389124,0.175576,0.180595,-0.629799,0.493968,0.599457
-0.575233,-0.264664,0.219250,0.852119,-0.233486,0.468377
0.325791,0.411172,-0.458585,-0.610748,-0.358559,0.705990
-0.135509,0.426453,-0.107250,0.075476,-0.660537,0.746990
-0.718971,0.518275,0.011797,0.235461,0.197925,0.951516
0.340916,-0.171155,0.698856,0.179471,0.678288,0.712541
-0.671040,0.336194,0.029280,-0.109861,0.357093,0.927586
0.007841,0.146769,0.089685,0.411263,-0.754842,-0.510957
0.586745,-0.443491,-0.640681,0.896425,-0.412616,0.161774
0.487712,0.340682,0.876960,0.654937,-0.641424,0.399541
0.133843,0.184356,0.600320,-0.612590,0.234417,-0.754840
0.275523,0.370073,-0.221480,0.940907,0.179967,0.286890
-0.136843,-0.120693,-0.099844,0.497253,0.787244,0.364673
0.568785,-0.024191,-0.351514,-0.737996,0.568122,0.364143
-0.373831,0.204121,0.578900,-0.622068,-0.686849,0.375858
-0.802491,0.294059,0.038558,0.215119,-0.079823,0.973320
-0.466025,-0.287423,0.286593,0.146719,0.177127,0.973190
-0.224087,-0.120562,-0.625291,0.091395,-0.473202,0.876200
0.141404,0.297242,0.975221,-0.602548,0.419873,-0.678706
0.295319,-0.240410,0.723387,-0.523710,-0.500220,-0.689571
-0.498554,0.593186,0.230731,0.729813,-0.337246,0.594675
-0.712355,0.016320,0.154881,0.730717,0.495395,-0.469720
0.369718,-0.176811,0.292375,0.864924,-0.265758,0.425768
0.738101,-0.357591,-0.975634,-0.120174,0.212563,0.969729
0.084854,0.136819,-0.158625,0.401749,-0.015655,0.915616
0.152859,0.320849,-0.497378,-0.080504,0.575054,0.814145
0.420040,-0.179930,0.210578,0.994758,-0.049880,0.089264
-0.085964,0.342762,0.661027,0.434053,0.247118,0.866332
0.193117,0.287296,-0.520064,-0.024079,0.480730,0.876538
-0.776635,-0.037261,0.157937,-0.543160,0.827130,-0.144338
-0.908084,-0.104436,0.151825,0.056377,0.407444,0.911488
-0.524688,-0.161856,0.217571,0.373910,-0.651197,-0.660404
0.693229,0.045715,-0.159396,0.306537,-0.688038,0.657753
0.251891,0.393613,-0.216415,0.664342,0.716681,0.212176
0.386955,0.365457,0.916606,0.654563,0.596839,-0.464037
-0.588245,0.554885,0.185716,-0.059131,-0.851493,0.521021
-0.043705,-0.247562,0.093209,-0.326706,-0.873669,-0.360507
-0.092582,0.005918,0.660036,0.734106,-0.102519,-0.671252
-0.223142,0.131941,-0.500021,0.239155,0.160111,0.957690
0.750779,-0.473727,-0.938797,-0.023305,0.455073,0.890149
0.228871,0.593122,-0.229107,0.088858,-0.151911,0.984392
0.579460,-0.534401,-0.738695,0.838188,0.338075,0.427956
0.443339,0.194108,0.187534,-0.156361,-0.165508,0.973734
0.582742,-0.205292,0.759454,0.157430,0.482661,0.861542
0.275300,0.260957,0.955536,-0.131031,-0.712629,0.689196
-0.667149,0.083496,0.113886,-0.101474,0.899850,0.424232
0.439114,0.137728,-0.466046,-0.565754,0.819376,0.092436
-0.272854,0.338730,0.093512,-0.625018,0.516606,0.585209
-0.663256,0.485436,0.220021,0.344342,0.849936,0.398794
0.534142,0.172453,0.737703,-0.076784,-0.673088,0.735565
-0.043537,-0.027636,0.510317,-0.138612,-0.329282,0.934002
0.717862,-0.563859,-0.928582,-0.158681,0.433662,0.886994
-0.555048,0.491417,0.037787,0.133193,0.030843,0.990610
0.672932,-0.645859,-0.923021,-0.017999,0.159272,0.987071
0.521965,-0.199248,0.742054,0.915872,-0.153880,-0.370810
0.194729,-0.325335,0.664056,-0.465304,-0.178082,0.867052
-0.301880,0.033101,0.084261,-0.409374,0.447336,0.795175
0.427714,-0.520482,-0.725121,-0.195164,-0.557769,0.806725
0.426768,0.835870,-0.076057,-0.077885,-0.496340,0.864628
-0.425545,0.303096,0.231089,0.590790,0.453130,-0.667564
-0.222475,0.452596,0.201575,0.276590,-0.245673,-0.929055
-0.307607,-0.353491,0.645802,-0.260919,0.320192,0.910713
-0.222585,0.285605,-0.548917,0.326941,0.316575,-0.890444
-0.249833,-0.255365,0.613755,-0.117626,0.371979,0.920758
-0.389068,0.260501,0.540493,-0.267241,0.204463,-0.941688
0.165036,0.019702,-0.610038,0.394409,0.881961,0.258043
-0.396741,0.203149,-0.474086,0.536082,0.328424,0.777659
0.126392,-0.559370,0.343337,0.990860,0.089493,-0.100931
0.023356,0.202498,0.947441,0.577154,-0.468024,0.669214
0.225869,-0.142995,0.089217,0.370584,-0.374594,0.849910
-0.510565,-0.006763,0.521193,-0.170675,-0.169950,0.970560
-0.617772,0.251920,0.080985,0.196935,-0.959004,0.203782
0.584799,0.377162,0.545889,-0.455678,-0.342043,0.821805
0.314613,0.582978,-0.234943,0.653408,0.426813,-0.625210
0.289536,0.523411,-0.249480,-0.459068,-0.068993,0.885718
0.510176,-0.369164,-0.392508,0.900945,0.407157,-0.150071
-0.525521,0.517362,0.039439,-0.038800,0.065786,0.997079
-0.085687,0.216088,-0.555553,0.142224,0.441827,-0.885754
-0.003724,-0.371375,0.705436,-0.095790,0.408605,0.907671
0.596753,-0.196060,-0.611910,-0.511236,-0.064815,-0.856993
-0.285087,0.015281,0.279352,-0.388694,0.362674,0.846986
-0.714023,0.467289,0.199152,-0.279116,0.266611,-0.922504
0.008063,0.459161,0.594428,0.448093,0.398459,0.800277
0.715527,-0.622576,-0.928803,0.107688,0.291346,0.950537
-0.043149,-0.017102,0.520725,-0.083219,-0.332398,0.939460
-0.044761,-0.333594,-0.524166,-0.290725,0.386265,-0.875373
-0.402747,0.625311,0.044065,-0.023401,-0.200100,0.979496
-0.586966,0.394784,0.211679,0.142884,0.350500,0.925599
0.612379,0.341528,0.555139,-0.196581,-0.303658,0.932281
0.181550,-0.384770,-0.560839,-0.120626,-0.292121,0.948744
0.279806,0.158085,0.816417,0.472695,-0.312934,0.823791
-0.075955,-0.482376,-0.626585,0.114343,-0.537228,0.835650
0.202626,0.419237,0.688917,-0.125315,-0.720088,0.682473
0.160476,-0.242164,0.644866,0.226312,0.132121,0.965053
0.247276,-0.454739,0.224316,-0.497024,0.018418,-0.867541
0.046821,0.031474,0.113610,-0.495220,0.658397,-0.566808
-0.060052,0.412994,0.641810,-0.526931,-0.178570,-0.830937
-0.323953,0.234298,0.139848,0.748294,0.652439,0.119916
-0.545540,0.446353,-0.008824,0.627412,0.174786,-0.758817
0.163424,-0.675769,0.714247,0.193103,0.247973,0.949326
0.320452,0.378463,0.723112,0.719043,0.410380,-0.560861
0.081462,-0.336781,0.676665,0.623133,0.249932,0.741107
-0.125054,0.066262,0.109646,-0.383566,-0.596713,-0.704848
-0.070617,-0.771946,-0.739411,-0.608181,-0.792257,-0.049450
-0.069005,-0.165432,-0.666561,0.813305,0.580505,-0.039365
0.051435,-0.038495,-0.528103,0.086048,0.330829,0.939759
-0.286699,0.177462,0.618518,-0.082182,-0.453961,0.887223
-0.189390,0.361945,0.647289,-0.151615,-0.465446,0.871994
-0.490880,-0.003120,0.553515,-0.532002,-0.845224,0.050699
0.183442,-0.066977,0.806258,-0.515917,0.588675,-0.622328
0.378561,-0.193719,-0.180843,0.181063,-0.115888,0.976620
-0.914256,0.035312,0.141528,0.175754,0.213433,0.961019
0.151413,-0.467877,-0.564803,-0.017405,0.162666,0.986528
-0.529081,0.649045,0.251160,0.772255,-0.413128,0.482647
-0.286254,0.169917,0.602054,0.074200,-0.594282,0.800826
0.608987,0.375082,-0.053839,-0.397586,-0.494504,0.772911
0.302048,-0.068866,0.545035,-0.122622,-0.951194,0.283185
-0.615547,0.175445,0.047369,0.942078,-0.334619,0.022790
-0.040535,-0.659512,-0.499030,-0.159775,0.154920,0.974921
-0.657361,0.154636,0.067990,0.108619,0.848638,0.517703
0.816060,-0.278385,-0.965227,-0.325371,0.175245,0.929205
-0.365435,0.193004,0.192902,0.937341,0.294825,-0.185661
0.012735,-0.683897,0.315006,0.443240,0.884306,0.146768
0.266237,0.063206,-0.540575,0.339529,0.748051,0.570210
0.595197,-0.032772,0.665955,0.027495,-0.999541,-0.012688
0.118828,-0.794120,0.289346,0.324552,0.945542,0.024818
0.496721,0.466448,-0.155184,0.780096,0.415439,-0.467825
0.009899,0.123098,-0.549523,-0.071351,0.244682,0.966975
-0.646742,0.133437,0.180816,-0.071172,-0.257588,0.963630
0.139402,-0.147289,0.769365,-0.595477,0.329187,-0.732832
0.302214,0.041619,0.079966,-0.182287,-0.208574,0.960869
-0.550100,0.701651,0.261484,0.490348,-0.176161,0.853538
-0.123330,-0.328065,0.517834,-0.109877,-0.069236,-0.991531
-0.516736,0.688192,0.053784,-0.080766,-0.367510,0.926506
0.413590,0.946871,-0.057941,0.632203,0.366838,-0.682458
-0.299042,0.232539,0.610506,0.045184,-0.195022,0.979758
-0.517682,0.095915,0.605991,0.339513,-0.270281,0.900932
0.092862,0.271948,0.614553,-0.424949,0.145957,-0.893373
0.721086,-0.078880,-0.172749,-0.375488,0.676592,-0.633429
0.494997,-0.375014,-0.486860,0.718645,0.686828,-0.108703
0.220809,-0.207376,0.405586,-0.608312,0.753513,-0.249348
-0.092692,-0.049616,0.519403,0.035391,0.256466,0.965905
0.061667,0.132203,0.926242,0.205396,-0.764181,0.611425
-0.205016,-0.200545,-0.421665,0.190662,0.392035,0.899976
0.395686,0.080960,-0.576367,0.886310,-0.462529,0.022827
-0.595918,0.421317,0.215616,0.061082,-0.470715,0.880168
-0.189000,-0.603589,0.213964,0.364750,-0.739070,-0.566333
0.431328,-0.270582,-0.028592,0.992767,0.102450,0.062585
-0.770740,0.644168,0.238055,0.220628,-0.457181,0.861574
-0.712633,-0.151643,0.223050,-0.719958,0.550283,-0.422905
0.009843,-0.017686,0.453822,-0.392620,-0.397570,-0.829330
0.000223,0.423789,0.639415,-0.430458,0.036332,-0.901879
-0.170539,-0.472556,-0.619537,-0.029479,-0.157976,0.987003
0.160810,0.108401,0.885577,0.458007,-0.518650,0.721964
-0.502224,0.053974,0.547706,-0.672470,0.391922,-0.627838
-0.319894,-0.390819,0.301791,0.353893,0.627424,0.693613
-0.490602,0.192353,0.547155,0.370933,0.121858,0.920630
0.161033,0.450385,-0.593684,0.767281,0.521462,0.373304
0.590638,0.119197,-0.449885,-0.701842,0.543628,-0.460310
0.521520,-0.418066,-0.524249,-0.700939,-0.712260,-0.037021
-0.676713,0.393093,0.010531,-0.249681,-0.223751,-0.942123
-0.672764,-0.100729,0.182798,-0.453418,0.255586,0.853866
0.578070,-0.473600,-0.786573,0.890949,0.451060,0.052482
-0.786643,0.073938,0.141280,0.868785,-0.183665,-0.459868
0.277581,-0.401158,0.656374,0.033458,0.583106,0.811707
0.600534,-0.551305,-0.923406,-0.016845,-0.965085,0.261396
0.009176,-0.283327,-0.321339,-0.080544,-0.187988,-0.978863
-0.068560,-0.096760,0.146704,0.000788,-0.264063,0.964505
-0.192949,0.534334,0.037898,0.044295,0.214936,0.975623
0.177047,-0.051113,0.437716,-0.586131,0.522283,0.619411
-0.545484,0.616075,0.035998,-0.307534,-0.470482,0.827085
0.113990,0.063143,0.909172,0.300821,-0.384754,0.872623
0.259787,-0.017817,0.772476,0.742396,-0.491989,0.454747
0.130395,0.330407,0.993282,0.027392,-0.571744,0.819975
-0.497274,0.273833,0.038090,-0.201300,0.438019,0.876138
-0.166258,0.361750,0.653015,0.439706,0.232074,-0.867641
0.384732,-0.166928,-0.382872,0.500558,0.449403,0.739918
-0.166592,0.034792,0.633578,-0.656376,0.677624,-0.331658
-0.417926,0.171869,0.535812,0.268060,0.009677,0.963354
0.411812,-0.073288,0.654585,-0.649379,0.755605,-0.085835
0.418150,0.206920,-0.160745,0.907101,0.313291,0.281097
0.585299,-0.185459,0.231970,0.047796,-0.258726,0.964768
0.207518,0.228443,0.553212,0.864003,-0.228614,0.448592
0.073288,-0.062103,-0.517008,-0.187125,0.342517,0.920688
-0.675822,0.466575,0.010035,0.248262,0.290042,0.924252
0.285533,0.147222,0.635340,0.965247,0.042399,-0.257879
-0.547318,0.238783,0.044808,-0.157477,0.541401,0.825885
0.770519,0.427298,-0.075479,0.703141,-0.311193,0.639337
-0.507561,0.477045,0.201272,0.914773,0.120234,-0.385660
-0.101979,-0.173104,0.835882,-0.611379,0.160220,-0.774949
-0.656694,0.461114,0.005217,0.285568,0.380436,0.879613
0.079684,0.051569,-0.167986,-0.185316,-0.293220,0.937913
0.411644,0.076927,0.510290,0.825659,0.193382,-0.529991
0.551603,-0.511250,-0.699324,-0.712602,0.584658,-0.387781
0.244719,0.011379,0.800972,-0.525907,0.685460,-0.503554
-0.012733,-0.018857,0.810360,0.083710,-0.593175,0.800710
0.073288,-0.219601,-0.131671,-0.400638,-0.912654,0.080943
0.604094,0.187670,0.681043,0.170314,-0.893270,0.416006
-0.290536,-0.300624,0.633716,-0.045324,0.500690,0.864439
0.354983,0.568606,0.824622,-0.946465,0.320991,0.034185
0.235877,-0.003056,0.078920,-0.283804,0.272507,-0.919345
-0.036142,0.115101,0.106287,-0.586203,0.794064,0.160712
0.178771,-0.786123,0.260383,0.869533,-0.233975,-0.434935
0.331350,0.396086,0.912448,0.567945,-0.303413,-0.765101
-0.380281,0.068799,0.049378,-0.700198,0.178457,0.691286
0.261622,0.349656,0.570062,-0.002452,0.999815,0.019092
0.059777,-0.206530,-0.036934,0.239754,0.957151,0.162421
0.140181,0.323318,0.977699,-0.614917,0.197092,-0.763565
-0.055216,-0.342699,0.704114,-0.042500,0.297431,-0.953797
0.076568,0.025231,-0.316410,-0.076882,0.020803,0.996823
0.801770,-0.004421,-0.174483,0.159594,-0.680864,0.714810
0.358764,0.091561,0.258924,0.877407,0.258151,0.404370
0.129227,0.113342,0.590903,0.416516,0.008449,0.909089
-0.844417,-0.348811,0.250003,0.253181,0.940898,0.224969
0.522187,0.050525,0.748882,-0.264702,0.934699,0.237216
-0.255671,0.215504,0.259061,-0.390244,0.097703,0.915513
-0.482318,-0.098125,-0.573503,0.025503,-0.135125,0.990500
-0.331405,0.032125,0.226409,-0.684079,0.193629,0.703238
0.376168,-0.107750,0.230593,0.938522,0.234993,0.252893
-0.690558,-0.023798,0.204714,-0.408204,0.414202,0.813515
0.107985,0.146508,0.928720,0.520993,-0.552065,0.650992
0.481819,0.117442,0.566923,0.919688,-0.291593,-0.262959
-0.304770,-0.259461,0.268918,0.665750,0.567647,0.484307
0.541593,0.196191,0.527580,-0.505025,0.294827,0.811189
0.673933,-0.510405,-0.961758,-0.216786,0.253794,0.942652
0.286144,0.032839,0.786435,-0.578873,0.716588,-0.389112
0.739102,-0.530627,-0.943559,0.346034,-0.458784,-0.818400
-0.283585,-0.602485,0.036907,-0.626844,0.266534,0.732138
-0.293538,-0.561775,0.252509,-0.468619,0.440414,-0.765788
0.190670,-0.029327,-0.570007,-0.588421,-0.219838,-0.778095
0.179327,0.241775,0.941385,0.213883,-0.714777,0.665843
0.109487,-0.790092,0.358341,0.023587,0.999719,-0.002510
0.086578,-0.023278,-0.307793,-0.228498,0.218770,0.948645
-0.305604,-0.771100,0.384056,0.362960,0.653879,0.663854
-0.712465,-0.031212,0.163360,0.896227,0.175157,-0.407550
-0.093361,-0.336063,0.709318,-0.132293,0.077454,0.988180
-0.274744,-0.172389,0.151467,0.597529,0.425737,0.679490
0.422265,0.329431,0.923737,-0.155820,-0.809560,0.565979
0.373444,0.235270,0.239404,0.969791,-0.223753,-0.097165
-0.097474,-0.697749,0.267899,-0.524366,0.466182,0.712541
0.465637,0.555536,-0.114877,0.848393,0.121815,-0.515161
-0.115212,-0.131878,-0.552965,-0.549916,-0.825391,0.127755
0.196342,0.067044,-0.189075,-0.600126,-0.538358,-0.591624
-0.111265,-0.203601,0.546495,0.216451,-0.052065,0.974904
-0.493882,0.401353,0.559655,-0.180513,-0.393999,0.901210
0.401303,-0.431525,-0.118621,0.954874,0.261716,-0.140430
0.557831,-0.481923,-0.685365,-0.245960,0.950864,-0.188046
0.256117,0.055471,0.590325,0.482018,0.484418,-0.730067
-0.398131,-0.028938,0.219911,0.886479,-0.449773,0.108901
0.357819,-0.578945,0.712236,-0.303482,0.264154,0.915490
0.588469,0.667839,-0.063200,0.377354,0.324168,-0.867478
0.739102,-0.244570,0.713641,-0.490127,0.183086,-0.852206
-0.007785,0.080114,-0.403714,0.441864,0.369585,0.817412
0.652525,0.112759,-0.357571,-0.476437,0.751520,0.456318
0.740159,0.271166,-0.071404,-0.741344,0.356465,0.568632
-0.315669,0.016062,0.256363,-0.692795,0.228309,0.684040
-0.634286,-0.115490,0.004639,-0.029459,-0.167882,0.985367
-0.528747,0.479062,0.577358,0.078537,-0.419105,0.904534
-0.138345,-0.043179,-0.666313,0.716597,0.689226,-0.107033
-0.635842,-0.148587,0.275773,-0.081970,0.530475,0.843728
-0.241046,0.187737,-0.558030,-0.544879,-0.630759,-0.552494
0.456407,0.012292,0.790647,-0.554107,-0.387136,-0.736948
-0.430493,0.264990,0.140344,0.332497,0.911496,-0.242118
0.317395,-0.502471,-0.675234,0.010535,-0.994579,0.103452
-0.652469,0.187150,0.058684,0.690930,0.685622,0.229212
-0.046429,-0.004811,-0.523175,0.310573,0.334854,0.889616
0.396297,-0.047275,0.476343,0.799369,-0.513541,0.311905
0.049544,-0.723242,-0.362526,-0.264822,0.649825,0.712458
0.520353,-0.352451,-0.345925,0.878447,0.476327,0.038000
-0.495440,0.164781,0.177457,0.539614,0.384107,0.749186
-0.573120,-0.165952,0.241579,0.423567,0.615270,-0.664856
0.443617,0.362988,-0.493000,-0.667750,-0.687676,0.284975
-0.786365,0.155350,0.138499,0.972961,0.003040,-0.230948
0.394741,-0.067953,0.274231,0.971237,-0.076307,-0.225557
-0.075455,0.381583,0.121209,0.186281,-0.008586,0.982459
0.568450,0.417351,-0.091365,-0.608545,-0.273055,0.745060
0.581296,-0.408767,-0.501535,-0.750033,-0.660254,0.038926
0.281863,0.022369,0.596492,-0.234696,-0.366721,0.900241
-0.224922,-0.568086,0.210165,0.219220,-0.771751,-0.596945
0.016627,0.119780,-0.546219,-0.127190,0.206556,0.970133
0.242938,0.181169,0.608799,0.917686,0.192122,-0.347767
-0.008562,-0.176096,-0.494514,-0.035274,0.008201,0.999344
-0.349477,0.111005,-0.612736,-0.188346,-0.229483,0.954915
0.308331,-0.222331,-0.160718,0.187487,0.045589,0.981209
0.708742,0.167579,-0.058629,0.530410,0.099426,0.841891
-0.227702,0.427492,0.049902,-0.146241,0.535633,0.831691
-0.110821,-0.651645,-0.509767,0.007499,0.166682,0.985982
0.607430,0.226296,-0.125862,-0.018690,-0.946151,0.323184
0.044596,-0.016320,0.145933,-0.238232,0.820236,0.520057
0.015348,-0.336388,0.077241,0.923792,-0.086262,0.373051
-0.380728,-0.041226,0.192627,0.806112,0.583238,-0.100088
-0.225533,0.000262,0.273185,-0.090728,0.110762,0.989697
0.281418,0.091299,-0.226354,-0.614235,-0.323136,0.719929
0.090247,-0.379372,0.532205,0.017123,-0.277845,0.960473
0.163368,-0.643580,0.713613,0.170059,0.266887,0.948605
0.345698,-0.141824,0.404540,-0.223646,-0.959948,-0.168768
-0.276190,0.029978,-0.634156,0.444919,-0.872350,0.202612
0.427047,0.110028,-0.430145,-0.358211,-0.107430,0.927439
-0.534474,-0.162050,0.256886,-0.209805,0.706259,0.676151
0.673989,0.521915,0.000372,0.884118,-0.058581,0.463576
0.224868,-0.574393,0.695497,-0.091000,0.393813,0.914675
-0.670039,0.588376,0.212285,-0.356517,0.073818,-0.931368
0.067394,-0.087981,0.495065,0.494304,0.613850,0.615509
0.287534,-0.085123,0.539584,-0.220510,-0.961420,0.164458
-0.298375,0.376967,0.229244,0.015014,0.429854,0.902773
-0.822953,-0.114057,0.161956,-0.376426,0.412996,0.829300
0.134065,-0.188452,0.763941,0.733194,0.227779,0.640737
0.229872,-0.130314,-0.501893,0.669754,-0.025396,-0.742149
0.107652,0.069644,-0.314401,-0.142018,0.221130,0.964848
-0.861320,-0.302509,0.207825,0.462033,-0.316104,0.828616
0.456073,0.205749,-0.375384,0.893032,-0.061256,-0.445805
-0.497052,0.058785,0.133296,-0.075632,0.145288,0.986494
-0.785642,0.150278,0.172997,0.421533,0.332595,0.843618
0.054326,0.213488,0.951379,0.385294,-0.448779,0.806316
0.381340,-0.086488,0.217075,0.999647,0.010117,0.024583
-0.334853,0.009299,0.113831,-0.403622,0.268303,0.874701
0.777692,0.167448,-0.106204,-0.630929,0.016778,-0.775659
0.293261,0.550984,-0.236100,0.556840,0.266121,-0.786835
0.406139,0.097542,0.579037,-0.348327,-0.064629,0.935142
0.561277,0.414165,0.555773,0.554212,0.310087,-0.772461
-0.344583,-0.065353,0.580139,0.106668,0.065841,0.992112
-0.085353,-0.132529,-0.526148,0.651397,0.747999,-0.127200
0.359153,0.579921,0.835387,-0.911707,0.410662,-0.012153
0.308776,0.383147,0.527855,0.566117,0.468510,-0.678241
0.218028,0.156001,0.853503,0.858113,-0.418480,0.297519
0.568062,-0.057551,0.768980,-0.395667,0.211921,-0.893609
0.435111,0.334114,0.213496,0.802129,-0.597114,0.006595
0.154917,0.164130,-0.160883,-0.335885,-0.710233,-0.618668
0.047322,0.086814,0.133681,0.392796,0.462824,-0.794673
-0.101257,-0.218688,0.102818,0.429871,0.752110,0.499541
-0.700232,0.387632,0.201520,-0.372964,0.192756,-0.907603
0.470863,-0.256599,0.717798,-0.346648,0.616605,0.706847
-0.834853,0.250682,0.181532,-0.172135,0.056422,-0.983456
0.534977,-0.050918,0.739631,-0.039021,0.937180,0.346657
-0.706961,-0.200807,0.253142,0.306463,0.780956,-0.544231
0.162757,0.530369,0.596988,-0.125647,-0.552870,0.823740
0.477091,-0.359865,-0.485677,-0.411999,-0.908331,0.072058
0.432051,-0.148067,0.194802,0.963908,0.154081,-0.217117
0.413202,0.301143,-0.163608,0.893581,0.142171,0.425794
0.397799,0.277151,-0.172832,0.947093,0.274335,0.166598
-0.641403,0.423396,0.215891,0.680757,0.127370,0.721351
0.410755,0.874885,-0.066641,0.500142,-0.536108,0.680034
-0.741047,-0.226427,0.209008,0.661672,-0.050871,-0.748066
0.134175,0.159188,-0.217268,-0.503489,0.769711,0.392484
-0.434608,0.263819,0.083160,-0.126220,-0.952529,-0.277051
-0.500166,-0.126932,0.194995,0.750961,-0.484011,-0.449212
0.096975,0.194695,0.719753,-0.260290,0.350052,-0.899840
0.287702,0.531278,0.124733,-0.087427,-0.235896,0.967838
-0.446841,0.094549,0.594730,0.347564,0.005920,0.937638
0.608598,0.166083,0.268615,-0.518714,0.777511,-0.355545
0.150802,0.155418,0.901629,-0.434290,0.614245,-0.658860
0.214137,0.547407,0.608441,-0.767629,0.339289,-0.543718
-0.186499,0.076149,-0.505747,0.132550,-0.163048,0.977674
0.644797,-0.477303,0.672370,-0.431521,0.654559,-0.620759
-0.115046,-0.045195,0.658604,-0.360398,0.110353,0.926248
0.405750,0.071466,0.187313,0.937920,0.178592,-0.297341
0.041260,-0.537326,0.173189,0.775632,0.469410,-0.421959
0.306718,0.221160,0.902840,-0.550814,0.833802,-0.037133
-0.351868,-0.627065,0.042798,-0.240879,0.243399,0.939540
0.236823,0.010534,0.158240,0.617346,-0.135618,-0.774914
0.587524,-0.461114,-0.743871,0.945775,-0.322922,0.035077
0.471754,0.146702,0.798741,0.246354,-0.664435,0.705575
-0.335631,0.218950,0.113968,0.122904,-0.833482,0.538704
-0.100033,0.088374,0.645967,-0.302281,0.799385,0.519240
0.081851,0.264208,0.086023,-0.432242,0.320701,0.842804
0.108986,-0.205360,0.022287,-0.463332,-0.691998,-0.553590
0.346086,0.203538,0.508473,0.335381,0.299441,-0.893227
-0.076400,0.308752,-0.293945,0.162471,-0.644502,0.747142
-0.230427,0.360190,0.650510,-0.049415,-0.439991,0.896642
0.693562,-0.537064,-0.954682,-0.353310,0.328182,0.876053
-0.176156,0.428338,-0.518192,-0.184010,-0.274208,0.943902
-0.735764,0.023215,0.031813,-0.091148,-0.672067,0.734860
-0.639901,0.357329,0.202291,-0.102371,-0.434007,0.895074
-0.499721,0.191766,0.086657,-0.422337,-0.727318,0.540962
0.306551,0.395629,0.580827,-0.456220,0.257628,-0.851758
-0.402691,0.220966,0.089492,0.992328,-0.075797,-0.097674
-0.325511,-0.046235,0.574026,-0.031188,0.745881,0.665349
0.589080,0.429640,0.556956,0.389229,0.190121,-0.901307
-0.626222,-0.133176,0.252289,0.009323,0.296910,0.954860
0.724979,0.338535,-0.460843,-0.273397,-0.540159,0.795916
0.549767,0.243724,-0.107884,0.938230,-0.307294,-0.159042
-0.549933,-0.197295,0.233209,-0.654927,0.738969,-0.158100
0.695674,0.116466,0.743595,0.237213,0.067279,0.969125
-0.604315,-0.046429,0.000261,-0.085091,-0.158109,0.983748
0.111099,0.470024,-0.591316,-0.577059,-0.103002,-0.810181
-0.068838,-0.152814,-0.583167,0.476104,-0.726793,0.495073
-0.637901,0.198855,0.181614,0.963841,-0.150975,-0.219583
-0.693005,-0.395046,0.344851,-0.059252,0.620733,0.781780
-0.404916,0.081416,0.530168,0.050602,-0.047050,0.997610
0.534476,0.202693,-0.173933,0.545058,0.316401,-0.776404
-0.046263,-0.213357,-0.137728,0.165606,0.659615,-0.733132
-0.032972,0.172000,0.629338,-0.607056,0.332622,-0.721697
-0.324175,0.609117,0.051223,-0.269826,-0.123831,0.954913
0.502781,-0.364548,-0.384607,0.926690,0.371099,-0.059432
-0.484318,0.517882,0.180595,-0.029655,-0.356931,0.933660
0.434053,-0.018857,0.182523,0.965422,-0.207721,-0.157519
-0.261954,-0.048966,0.538290,0.484916,0.775170,0.404930
0.575345,-0.578358,-0.950085,0.930681,-0.363229,0.043560
-0.210631,-0.197295,0.630246,-0.496580,-0.061822,0.865786
0.336967,0.210690,-0.234283,-0.028265,0.679441,0.733185
-0.282918,0.074847,-0.304819,0.027275,-0.287289,0.957455
-0.101257,0.113084,0.154468,-0.255523,0.206154,-0.944568
-0.723921,-0.074978,0.184285,0.222168,0.432783,0.873693
-0.128002,-0.026596,0.154881,0.078962,0.334328,0.939143
-0.343638,0.240017,0.110747,0.532431,-0.841364,0.092869
0.023688,0.001040,0.921644,0.652089,-0.270090,0.708401
0.365326,0.258616,0.237697,0.864779,-0.498218,-0.062730
0.049544,0.539148,-0.535895,0.922608,0.100278,0.372475
0.611544,-0.511119,-0.172914,0.941415,-0.264976,-0.208629
-0.407028,0.001234,0.545283,0.941818,-0.250987,-0.223571
-0.348642,0.104242,0.235769,0.493649,0.280776,-0.823089
-0.070062,-0.168746,-0.315584,-0.084928,0.042262,-0.995490
0.648189,0.058785,-0.130790,0.107676,-0.444466,0.889301
-0.376444,0.283196,0.603238,0.616343,0.467564,-0.633645
0.274023,-0.136625,0.705381,-0.517863,-0.264101,-0.813676
-0.101201,-0.198140,0.682392,0.144563,0.743246,0.653213
0.096086,-0.220315,0.017469,-0.567242,-0.114167,-0.815599
0.622888,-0.650931,-0.527112,0.884882,0.463907,0.042111
0.055161,-0.066655,-0.510868,-0.020445,-0.343535,-0.938917
-0.038144,-0.160490,-0.039302,-0.267581,0.790996,0.550205
0.654138,-0.407270,0.697700,-0.050134,-0.521488,0.851785
0.440838,0.307518,0.749625,0.498948,0.704917,-0.504125
0.682442,0.537263,-0.042606,-0.064976,-0.478818,0.875506
0.162144,0.311550,0.956004,-0.031654,-0.713794,0.699640
0.399523,-0.100015,0.655025,-0.671458,0.735856,-0.087525
-0.039146,-0.245935,0.154715,-0.595060,0.007881,0.803643
-0.696285,0.044738,0.173052,-0.386119,0.225988,-0.894339
-0.251779,0.407659,0.648418,0.118847,-0.435451,0.892333
-0.021963,-0.063857,0.512630,0.207919,0.290377,0.934051
-0.192282,-0.479125,-0.616068,-0.115199,-0.293893,0.948871
-0.453069,0.246391,0.535950,-0.131480,0.013091,-0.991232
0.182552,-0.767718,-0.297386,0.034893,0.200403,0.979092
-0.559163,0.789504,0.083546,-0.035307,-0.471093,0.881377
0.465581,-0.329950,-0.416076,0.880337,0.468718,0.072872
0.149635,0.162507,-0.315034,0.699838,-0.033178,-0.713530
0.673044,-0.481078,-0.961152,-0.158014,0.385461,0.909094
-0.172153,-0.191897,0.639965,-0.639835,0.187136,0.745380
-0.061666,0.191445,0.677436,-0.320556,-0.281792,0.904343
-0.433051,0.270777,0.199978,0.692169,0.622022,-0.366047
-0.532083,0.699246,0.261539,0.443301,-0.185777,0.876910
-0.281250,-0.158605,-0.703839,0.737234,0.616074,-0.277380
0.217305,0.381520,0.609542,0.989860,0.022875,-0.140192
-0.685498,-0.010276,0.176824,0.328322,0.514916,0.791875
-0.500110,0.353689,0.215754,0.021000,-0.065403,0.997638
0.307162,-0.449798,-0.700536,-0.291733,-0.950059,-0.110811
-0.730816,0.597869,0.220792,0.184610,-0.443200,0.877207
0.034642,0.221097,0.954848,-0.687769,0.248647,-0.682018
0.327625,0.304787,0.143868,-0.213617,-0.779156,0.589308
0.404749,0.355380,-0.199097,0.928364,0.238232,-0.285281
0.205462,0.421579,-0.511006,-0.396690,-0.288447,0.871456
0.790259,-0.087008,-0.989290,-0.201518,0.203918,0.958023
-0.338523,-0.167253,0.045689,0.776137,0.325509,-0.540051
0.058776,-0.216933,-0.143262,0.013610,-0.757495,0.652700
0.570731,-0.439522,-0.635891,0.789633,-0.582079,0.194074
-0.009118,-0.375602,0.558966,0.113598,0.328165,-0.937765
0.687112,-0.513524,-0.949204,0.348616,-0.486381,-0.801187
0.132341,-0.290546,-0.594455,0.868187,0.472688,-0.151052
-0.661310,-0.427103,0.338105,-0.049498,0.504896,0.861760
0.559721,-0.061972,0.728508,-0.287193,0.696695,0.657371
0.074123,0.016062,0.112619,0.162193,0.724768,-0.669630
0.371554,-0.655285,0.737345,-0.326099,0.231725,0.916495
0.439670,0.292888,0.108957,-0.450136,0.560436,-0.695190
0.285421,0.162245,-0.202236,0.092567,0.204387,0.974504
-0.296763,-0.051045,0.580964,-0.070642,0.709147,0.701513
0.506896,-0.070684,-0.603486,0.436860,0.346164,0.830255
-0.022297,-0.488555,0.157276,0.933136,0.112035,0.341622
-0.293371,-0.059825,0.277040,0.553844,-0.423277,-0.717003
-0.566058,0.391077,0.005988,0.486124,0.732722,0.476237
0.167204,0.334245,0.975800,-0.222797,0.635199,-0.739516
-0.171486,-0.069386,-0.332902,0.121483,0.098374,0.987707
0.545930,0.572051,0.570172,-0.306301,-0.567210,0.764495
0.707575,-0.443491,-0.965805,0.175085,-0.385909,-0.905770
0.218640,-0.003576,0.596162,-0.547938,-0.307623,0.777903
-0.661198,-0.194759,0.227014,-0.162826,0.183033,-0.969529
-0.436333,0.364286,0.564280,0.068739,-0.232551,0.970152
-0.274910,-0.750164,-0.136655,0.123731,-0.021654,0.992079
-0.917259,-0.343870,0.208210,-0.351338,0.656775,-0.667240
-0.333519,0.287943,0.629999,-0.235915,-0.334889,0.912246
-0.363100,-0.119455,0.263879,-0.597290,0.519339,0.611173
0.385677,-0.302445,-0.107140,-0.199099,0.968205,-0.151458
0.098088,-0.022758,0.098303,0.202037,-0.319723,0.925721
0.560054,0.178045,-0.068568,0.584702,-0.148206,-0.797595
-0.226312,0.159970,0.265201,0.369714,-0.046042,-0.928004
0.285255,-0.495577,-0.675647,0.133366,-0.972286,0.192026
0.672043,0.088179,0.271726,-0.695789,0.236731,0.678112
0.167595,-0.292431,0.172941,-0.213890,0.724930,0.654772
-0.410142,0.334828,0.041945,0.481708,-0.151431,-0.863149
-0.399411,0.204121,0.104635,0.567858,0.530236,-0.629593
0.061167,0.382627,-0.029225,0.977808,-0.075127,-0.195568
0.592638,-0.596437,-0.957381,-0.743370,0.606085,0.282952
0.259731,0.231761,0.571053,0.899896,-0.275241,0.338273
-0.304437,0.202236,0.225087,0.796595,0.089731,0.597817
0.001725,0.201065,-0.647206,-0.375261,0.315559,-0.871551
-0.125333,-0.603525,-0.136737,0.131712,0.117899,0.984252
0.628337,0.492199,-0.052379,0.729154,-0.658206,-0.187347
0.250334,-0.020548,0.593051,0.592069,0.206238,-0.779050
-0.539312,0.430354,0.197555,-0.428999,0.767185,-0.476851
0.160032,-0.247951,0.768292,0.612137,0.070627,0.787591
0.428827,0.835025,-0.089905,-0.110886,-0.538320,0.835413
-0.218694,-0.214592,0.618518,0.466541,0.028285,-0.884047
0.005171,0.113604,0.130129,0.315965,0.740159,-0.593575
-0.227091,-0.319417,0.258180,-0.596037,-0.260688,-0.759461
-0.587688,0.413188,0.044175,0.250977,-0.144450,0.957154
-0.532083,0.428731,0.044505,0.265916,-0.167507,0.949331
0.479316,0.334634,0.879823,0.614815,-0.663631,0.426142
-0.401355,-0.655352,0.357598,-0.122555,0.463079,0.877803
0.101591,-0.274027,-0.313878,0.181669,0.036754,-0.982673
0.545542,-0.139550,0.275305,0.170561,-0.248595,0.953472
0.379782,-0.043048,-0.127184,0.403706,0.007125,-0.914861
-0.615657,0.251269,0.049571,-0.188649,0.564181,0.803810
0.557941,0.121733,0.726718,-0.254058,-0.142899,0.956574
-0.148187,0.439070,0.078755,0.238274,0.967712,0.082216
-0.605927,-0.479062,0.227042,0.695046,0.392246,-0.602540
-0.758618,-0.291912,0.211596,-0.580936,0.082705,0.809737
-0.211688,-0.583299,0.217653,0.266247,-0.717984,-0.643127
0.164036,0.285537,0.956555,-0.236568,-0.722646,0.649476
0.317505,-0.342048,0.652217,-0.619936,0.549743,0.559877
0.163980,-0.440955,0.683989,0.220560,-0.346980,-0.911569
-0.349699,-0.034074,-0.762978,-0.368287,0.885538,0.283173
-0.269349,-0.000520,0.265366,-0.448764,0.338368,0.827114
0.347420,0.243792,0.692441,-0.623247,-0.293330,0.724928
-0.547152,0.366564,0.213331,0.045431,0.324656,0.944740
-0.583852,-0.576603,0.353991,0.302273,0.337435,0.891498
-0.193727,-0.155025,-0.084096,-0.114870,-0.805230,0.581730
0.616049,-0.056511,0.751965,0.340383,0.492939,0.800719
-0.462855,0.251400,0.087620,0.152569,-0.986844,-0.053490
-0.164701,0.149694,-0.171152,0.450765,0.287886,-0.844945
-0.611154,0.221160,0.193232,0.176449,-0.163085,0.970705
0.072232,0.113148,0.916909,-0.422416,0.615143,-0.665705
0.214024,0.208674,0.925636,-0.228365,0.789000,-0.570376
-0.149633,-0.029589,-0.159121,0.062443,-0.024197,0.997755
0.185221,0.479125,0.583607,-0.049812,-0.407097,0.912026
0.220809,-0.453116,-0.108352,-0.121755,0.013854,0.992464
-0.032918,0.066719,-0.398455,0.281459,0.150064,0.947766
0.090081,-0.200934,-0.142602,-0.205033,-0.879340,0.429793
0.038979,0.383341,0.059207,0.496385,0.519500,0.695500
0.550712,0.074978,-0.039852,-0.386647,0.214068,0.897039
-0.456071,0.544935,0.050590,-0.220371,0.421930,-0.879438
-0.615269,0.379503,0.189240,0.019869,-0.772025,0.635281
0.257841,0.247300,0.674022,0.398916,0.375700,-0.836490
-0.052102,0.124075,0.454951,0.283412,0.169309,0.943934
0.146130,0.532774,0.608331,0.221288,0.433332,-0.873645
0.367439,0.322084,0.891194,-0.253648,-0.550697,0.795233
0.174323,0.306347,0.609102,-0.111194,-0.511481,-0.852070
0.385233,0.315257,0.554837,-0.273213,-0.591874,0.758314
0.437612,-0.186955,0.323514,-0.201759,0.975467,0.088075
-0.205793,0.067564,0.269523,0.577493,-0.475921,-0.663326
-0.019071,-0.164975,0.823796,-0.308990,0.009572,-0.951017
0.566560,0.169853,0.738502,-0.360110,-0.446426,0.819161
-0.094250,-0.240930,-0.608386,0.438650,-0.829855,0.344857
0.003503,0.405449,-0.527580,0.409377,0.119254,0.904538
-0.122219,-0.206007,-0.596548,0.342158,0.324505,-0.881830
-0.345474,0.179022,0.601228,-0.624575,-0.687528,0.370420
0.299489,0.019508,0.777019,0.473192,-0.821323,0.318617
-0.429658,0.217910,-0.464725,0.559556,0.416062,0.716791
-0.235598,-0.514890,0.088749,-0.899518,0.332256,0.283678
0.435165,-0.201327,-0.037953,-0.778756,0.623936,-0.065140
0.415481,-0.150798,0.301075,0.704225,-0.380930,-0.599132
0.774468,-0.297956,-0.972165,-0.143450,0.236032,0.961099
0.662257,-0.474509,-0.962557,-0.168182,0.385055,0.907440
0.328627,0.427691,-0.184285,0.142825,-0.490288,0.859778
0.255450,0.209714,0.110995,-0.231630,0.143524,0.962158
0.022076,0.003901,-0.537161,0.166682,0.540030,0.824975
0.759453,0.296527,-0.064411,-0.613290,0.017803,0.789657
-0.544928,0.849591,0.093457,-0.035307,-0.471093,0.881377
0.291815,-0.413839,-0.571906,0.743866,-0.423792,0.516782
0.349645,-0.118677,0.348320,0.728426,0.642617,0.237569
0.153471,0.252698,0.589830,0.428907,-0.351342,-0.832225
-0.084574,-0.174338,0.827816,-0.362870,0.398371,-0.842393
-0.799433,0.053192,0.113115,-0.410707,-0.446165,-0.795146
0.410811,-0.630122,0.738116,-0.412279,-0.046206,0.909885
-0.322231,-0.571857,0.029032,0.619595,-0.336121,-0.709313
0.171598,0.582585,0.613370,-0.038797,-0.497334,0.866691
-0.671931,-0.094942,0.242184,-0.664614,0.723325,-0.187319
-0.033973,-0.075042,0.520229,-0.119838,0.235604,-0.964432
-0.394238,0.045715,0.177870,-0.104452,-0.208256,0.972481
0.368494,-0.162308,0.531021,0.958943,0.282453,0.025456
0.033642,-0.276694,-0.176493,0.118189,-0.768867,0.628391
-0.203680,0.086421,0.272167,-0.435298,0.071589,0.897436
0.463412,0.012939,-0.412029,-0.133276,0.365131,0.921367
-0.054214,-0.069513,0.516925,-0.167849,0.094387,-0.981284
0.208686,0.260175,-0.280344,0.947262,-0.019067,-0.319892
0.656752,0.409418,-0.050204,-0.255629,0.196461,-0.946603
-0.206738,0.064833,0.271946,0.389622,-0.456049,-0.800134
-0.162310,0.010990,0.614581,-0.579374,0.809551,-0.094624
-0.344917,-0.609963,0.312721,0.996510,0.054046,0.063622
0.196120,0.370918,0.989373,0.081269,-0.711638,0.697830
-0.042814,-0.660750,0.076745,-0.577865,0.808931,0.108177
-0.469972,0.289050,0.045606,-0.255493,0.746475,0.614409
-0.002891,-0.161205,0.801853,-0.478893,-0.111034,-0.870823
0.136066,0.262843,-0.634266,0.169385,-0.517055,0.839025
0.068840,-0.445051,-0.518192,-0.487935,0.396317,0.777723
-0.483373,-0.076864,0.193563,-0.590220,0.638377,0.494080
-0.521240,0.129599,0.596960,0.873333,0.000595,0.487124
0.083352,-0.447849,-0.519183,-0.725125,0.503441,0.469832
-0.157807,0.354792,0.661303,0.472448,0.274429,-0.837545
-0.281695,-0.552996,0.066806,-0.687504,0.371408,0.624015
0.510176,0.024449,0.713723,0.017101,-0.860507,0.509152
-0.048265,-0.587201,0.048195,-0.109237,0.118743,0.986898
-0.417537,0.178112,0.541098,-0.249155,0.032643,-0.967913
-0.005893,-0.311288,0.126578,0.953528,0.289545,0.083358
0.014347,-0.136363,-0.044423,-0.553873,0.444788,0.703839
-0.624777,0.266613,0.199317,0.264493,-0.491753,0.829592
0.474922,-0.039015,0.675647,0.722624,-0.583309,-0.370899
0.247444,0.235468,0.573558,0.960686,0.133942,0.243192
0.723423,-0.183379,0.372493,-0.494126,0.544920,0.677423
-0.388289,0.010145,0.589059,0.015722,0.249222,0.968319
0.027193,0.219600,0.029418,0.973942,-0.184841,-0.131414
0.397688,0.859867,-0.067467,-0.418491,0.515285,-0.747895
0.364269,-0.137728,0.435651,0.445602,-0.878282,0.173379
-0.245273,-0.392835,0.655053,-0.199644,0.108491,0.973844
0.442506,0.061841,0.512768,0.860000,0.188391,-0.474246
0.417984,0.044286,0.793896,-0.472873,0.011088,0.881061
0.643295,-0.640917,-0.930069,-0.113125,-0.069572,0.991142
0.435609,-0.320329,-0.088804,0.025326,-0.998676,-0.044772
0.557775,-0.177982,0.217130,0.057142,-0.116764,0.991514
0.375723,0.314150,0.271891,0.940421,-0.339993,-0.003606
-0.191615,-0.013201,0.644040,0.877346,-0.161117,-0.452002
0.313057,-0.120237,-0.154826,-0.086478,-0.225632,0.970367
0.423823,0.769020,-0.099900,0.621202,0.298324,-0.724645
0.517405,0.210106,-0.442176,0.298171,0.040827,0.953639
0.037311,0.460399,0.585480,-0.299381,0.188857,-0.935256
-0.505116,-0.543050,0.338904,-0.243708,-0.231534,-0.941806
-0.230427,0.171738,-0.514998,-0.406645,-0.766389,-0.497280
-0.299821,0.469306,0.050948,-0.068361,0.450789,0.890009
-0.445562,0.101443,0.540878,0.459743,-0.212185,0.862330
-0.334018,-0.139030,-0.577275,0.235322,0.207585,0.949490
0.249166,-0.009756,0.600980,0.563087,0.220640,-0.796399
0.024800,0.213488,0.958069,-0.601031,0.376248,-0.705123
-0.067226,0.039603,-0.165068,-0.085110,0.037094,-0.995681
-0.104370,0.027442,0.650895,0.885852,0.197049,-0.420046
-0.696674,-0.094097,0.214047,0.961671,-0.273994,0.010794
0.202681,0.318766,0.611359,0.099273,0.793056,0.601005
0.189114,-0.558981,0.235604,-0.343608,-0.087400,-0.935037
-0.196673,-0.007672,0.647124,-0.306287,-0.412139,-0.858097
0.148189,-0.361945,-0.587985,0.520716,0.823449,0.225361
-0.189612,0.167968,0.626530,0.520477,-0.015822,-0.853729
-0.557217,0.618286,0.061933,-0.088841,-0.172751,0.980951
0.080739,-0.444988,-0.150421,-0.010719,-0.000873,0.999942
-0.606093,0.683639,0.058739,-0.260406,-0.446152,0.856234
-0.776300,-0.275912,0.203695,-0.380389,-0.099404,0.919469
0.163536,-0.025556,0.130928,0.777841,-0.074464,-0.624034
-0.402691,0.310963,0.105571,-0.435317,0.479507,-0.761953
0.390792,0.192222,0.188057,0.877233,0.105538,0.468320
-0.418094,-0.133894,0.224371,0.950754,0.182384,0.250607
-0.127668,0.393161,0.072643,-0.542413,0.322626,0.775694
-0.307106,-0.121991,-0.605578,-0.102492,-0.375745,-0.921038
-0.373443,-0.669010,0.034318,-0.047857,0.197445,0.979145
0.073400,-0.597544,-0.494239,-0.655294,0.540437,0.527747
-0.318949,0.279230,0.129138,0.804525,-0.581127,-0.122600
-0.336020,0.004227,-0.642746,0.796546,-0.463237,0.388493
-0.840746,-0.028613,0.157964,-0.325097,0.086484,0.941718
-0.094639,0.379698,0.111821,-0.161822,0.030977,0.986334
-0.036977,0.038495,0.834230,-0.105750,-0.906730,0.408237
0.280695,-0.083821,0.538125,-0.200836,-0.963005,0.179682
-0.425990,-0.024060,0.270074,0.305061,-0.084111,-0.948611
0.758452,-0.305827,-0.972798,0.139801,-0.153333,-0.978236
0.672043,0.633114,-0.015762,0.981935,0.032420,-0.186419
-0.065891,-0.356745,0.140316,-0.684277,0.117386,0.719712
0.394352,0.760372,-0.094834,0.489970,0.566421,-0.662643
0.098367,0.098713,-0.148466,0.132652,0.010390,0.991108
0.172209,0.360385,0.597759,-0.233962,0.252503,0.938884
0.157641,-0.769735,0.282794,-0.061111,-0.997895,0.021696
0.134788,0.369878,-0.238991,0.741393,0.076518,0.666695
0.044262,-0.031280,0.130295,0.031603,0.997410,-0.064617
0.404583,-0.331578,0.726388,0.109737,0.183107,0.976949
-0.245884,-0.241970,0.614333,-0.144331,0.136055,0.980131
0.630950,-0.476394,-0.963025,-0.411376,0.436310,0.800252
0.655472,-0.214786,0.739961,-0.242212,-0.286505,-0.926956
0.608320,0.034594,-0.118621,0.652673,-0.413632,0.634765
0.409643,-0.067953,0.670250,0.422675,-0.885930,-0.190982
-0.133006,0.362663,0.659816,0.279744,0.254100,-0.925838
-0.341024,-0.243792,0.300277,0.010339,-0.291313,0.956572
0.220753,0.112823,-0.333645,0.869691,0.480347,0.113596
-0.266736,0.629602,0.047314,0.087170,-0.291070,0.952722
0.038869,-0.454025,0.705491,-0.392361,-0.471477,-0.789786
-0.188778,0.175120,0.616205,-0.501582,-0.006098,0.865089
