-0.379819,-0.350365,0.488138,-0.696722,-0.145679,-0.702393
-0.690364,-0.436419,0.155153,0.193650,-0.980676,0.027840
-0.426002,-0.438494,-0.594507,-0.287952,0.043110,0.956674
0.112524,0.151902,0.931186,-0.298544,-0.954098,0.023839
-0.907230,0.507491,-0.020370,0.395254,0.517307,-0.759057
-0.335354,0.618364,-0.987919,0.037609,0.253209,0.966680
0.147694,0.091280,0.881818,0.991013,-0.108087,0.078809
-0.223082,-0.151364,0.354157,0.867786,0.478328,0.134721
0.145470,0.071533,0.927370,-0.307910,0.939917,-0.147472
0.248950,0.516174,0.535075,0.050294,0.909046,-0.413650
0.004902,-0.328390,-0.670686,0.659794,0.042791,-0.750227
-0.969684,0.097503,-0.946864,0.081163,0.208013,0.974753
-0.090597,0.413370,-0.967210,-0.200373,0.137712,0.969993
0.463593,0.232271,0.427151,0.111311,-0.590564,0.799277
-0.258653,-0.226354,0.458629,-0.226076,-0.511825,0.828809
0.066847,0.183788,0.782377,0.162763,0.159725,0.973651
0.512606,0.043181,0.246086,0.418669,-0.138324,-0.897543
0.153957,0.488744,0.504837,0.099910,0.158765,0.982248
0.665505,0.155974,0.362081,-0.536830,0.833642,-0.129824
-0.364359,-0.089204,0.530190,0.819249,0.554514,0.146099
0.781922,0.299578,0.483909,-0.563772,-0.199000,0.801598
-0.793746,0.575490,-0.792489,0.779335,-0.390331,0.490181
-0.779193,0.437034,0.156441,-0.014631,-0.292921,0.956025
-0.338892,0.778640,-0.212032,0.557671,-0.277701,-0.782231
-0.555557,-0.286054,0.227637,0.315113,-0.297033,0.901374
-0.554345,-0.499577,-0.456782,0.083151,-0.977898,0.191839
-0.097369,0.314406,0.563150,-0.468383,0.488561,0.736156
-0.654590,0.332155,-0.957268,-0.080507,0.195392,0.977415
-0.575162,-0.120400,0.209164,0.334558,-0.003025,-0.942370
-0.480573,-0.849404,-0.055323,-0.449561,0.567437,-0.689863
-0.421253,-0.648559,0.038187,-0.511412,0.814983,-0.272508
-0.237534,0.635421,0.423918,-0.521357,0.507908,-0.685723
0.398311,-0.352516,0.434103,-0.479493,-0.271559,-0.834471
0.295133,-0.151440,0.620710,-0.044082,-0.990770,0.128188
-0.807994,-0.053246,0.029630,-0.203475,0.454877,-0.866997
-0.432975,0.806915,0.221415,0.959928,0.141542,0.241877
-0.548785,0.203074,-0.657414,0.656465,0.745055,0.118095
-0.487848,-0.249558,0.343534,0.566443,0.824052,0.008967
-0.195292,-0.335074,0.080894,0.630822,-0.624870,0.460001
0.817595,-0.080983,0.538721,0.040494,-0.931681,0.361014
-0.451571,0.111872,-0.939475,-0.147956,0.147398,0.977948
-0.385278,0.483058,-0.968546,-0.216962,-0.240733,-0.946031
-0.412864,0.719170,-0.718060,0.156074,-0.244410,0.957029
-0.093934,0.378103,0.529631,0.456952,0.409214,0.789771
0.174370,-0.087591,0.801240,0.981155,-0.090261,-0.170843
-0.084938,0.161507,-0.939062,-0.040323,0.289615,0.956294
-0.079784,0.592624,0.424599,0.011692,-0.931686,0.363077
0.162244,-0.004687,-0.808629,-0.520868,-0.852794,0.037945
-0.401851,0.189705,-0.949052,-0.044081,0.260347,0.964508
0.219239,0.388014,0.622314,0.227826,-0.432171,0.872539
-0.794150,-0.278064,-0.173141,0.500151,0.665086,-0.554536
-0.180640,-0.605147,0.320345,0.880204,0.384821,0.277765
0.519983,-0.186631,0.400851,-0.177093,-0.672694,0.718415
-0.432873,-0.556511,0.168522,0.438461,0.631344,-0.639653
0.390530,-0.290665,0.394531,0.721168,-0.688163,0.079674
0.132736,-0.567575,0.297059,0.776228,-0.630301,0.013780
-0.822850,-0.267383,0.084200,-0.080043,0.815759,0.572826
-0.283211,0.120093,0.622873,0.061316,-0.998028,-0.013441
-0.663081,-0.407222,0.228901,0.986320,-0.159164,0.042900
0.100601,0.083520,0.954716,0.759992,-0.461611,0.457522
-0.216615,0.267615,0.742343,0.425104,-0.846109,0.321537
-0.111719,0.384864,0.423578,0.114516,0.776184,0.620020
-0.080087,0.390704,0.744482,-0.655363,0.696080,-0.293210
0.031782,0.743066,0.267841,0.786000,-0.097879,0.610429
0.400738,0.015213,0.563539,-0.358718,0.932692,-0.037508
0.681572,-0.035574,0.522217,-0.661531,0.447909,0.601460
0.296447,0.100346,0.644191,0.714263,0.501654,0.488029
-0.000859,0.178179,0.596159,-0.614574,0.746272,-0.255687
-0.854075,0.175336,0.226787,-0.491765,0.823537,-0.282760
0.003486,0.146216,-0.289985,0.216924,0.933287,-0.286215
-0.737763,0.189090,0.136850,0.877238,0.455529,-0.151479
-0.268861,0.089359,0.620637,-0.360247,0.907834,0.214616
-0.261484,-0.632654,-0.351677,-0.026514,-0.900006,0.435070
-0.777376,-0.495044,0.083082,0.933559,0.357709,-0.022622
-0.295035,-0.162428,0.545576,0.781046,-0.427924,-0.454806
-0.444598,0.355667,0.586680,0.660929,-0.664176,0.349346
-0.761305,0.008759,0.232110,-0.448322,0.760719,0.469376
0.122124,0.265310,0.524891,0.006656,0.966389,0.256999
-0.686525,0.104956,0.455007,0.317185,-0.937360,0.144049
0.001263,0.293431,0.797010,-0.166099,0.976309,-0.138681
-0.517054,-0.046253,0.214973,-0.459641,-0.720170,-0.519698
-0.459858,0.193316,0.360428,-0.423869,0.194694,0.884550
0.338688,0.495275,0.521269,0.977717,0.121763,-0.171008
0.607498,0.575490,0.249246,0.010064,-0.546447,0.837433
0.140215,0.106800,0.751701,-0.553177,-0.829773,-0.073975
-0.734830,-0.469688,0.137798,-0.427053,0.730233,-0.533278
0.186096,0.411218,0.388089,-0.015021,0.996383,0.083640
0.598403,0.178333,0.373821,0.156125,-0.409744,0.898741
0.392855,0.067922,-0.929266,0.242421,0.465543,0.851177
-0.628620,-0.027890,0.445892,0.654897,0.535330,-0.533415
0.748270,0.193470,0.365386,0.109608,0.668202,0.735861
-0.054724,0.740761,0.307997,0.936204,0.331168,0.117685
-0.007730,0.272685,0.572314,0.093616,-0.136600,-0.986193
-0.854279,0.428814,-0.736461,0.956826,0.247908,-0.151742
-0.241172,-0.824818,0.065946,0.029993,0.018368,0.999381
-0.024507,0.301575,0.778221,0.868803,0.209064,0.448858
-0.312518,0.533923,-0.570856,0.446887,-0.250916,0.858681
-0.569201,0.639493,-0.629509,0.848260,-0.510027,-0.142574
-0.246428,-0.412985,0.039426,0.790864,-0.195242,0.580013
-0.276944,0.289897,-0.955712,0.049363,0.260596,0.964185
0.265524,0.078832,0.786947,-0.124024,-0.880959,0.456651
-0.166389,0.732156,0.494652,0.982599,0.139664,-0.122449
-0.768278,0.183020,0.026300,0.355556,-0.235183,0.904582
-0.074933,0.095967,0.737190,0.919014,0.132522,0.371284
0.713405,-0.078448,0.486509,-0.377880,-0.062310,0.923756
0.208325,-0.443872,0.270880,-0.341735,0.436456,0.832300
0.097974,0.111563,0.753670,0.447403,0.889310,0.094646
-0.477440,-0.237956,0.316723,0.674899,0.728343,0.118436
-0.662779,0.057088,0.230870,-0.556660,0.742271,-0.373047
0.586277,0.096350,0.611522,0.618637,0.416348,-0.666290
-0.580821,0.529850,0.238576,0.976643,-0.158602,0.144964
-0.111617,-0.667307,-0.176106,0.508927,0.139880,-0.849368
-0.770403,0.265463,0.358751,0.934084,0.325954,-0.145743
0.358697,-0.305340,0.425182,-0.663154,-0.439677,-0.605732
-0.599517,0.461391,0.165216,0.917839,-0.227197,-0.325505
-0.261382,-0.755282,-0.009164,0.712027,0.682971,-0.162996
-0.590218,0.019209,0.509747,0.603720,0.627206,-0.492071
0.529988,0.262927,0.591736,-0.029556,0.941107,0.336816
0.300086,0.043872,0.503403,0.065507,0.927549,0.367915
-0.119198,-0.430118,0.498809,-0.200812,0.663991,-0.720271
0.535647,0.416289,0.323189,0.763938,-0.582181,0.278323
-0.108382,0.085824,0.673384,-0.056919,-0.986831,0.151406
-0.151435,0.539225,0.556563,0.964029,0.237094,-0.120140
-0.920369,-0.142220,0.252042,0.956243,-0.238120,-0.169996
0.407103,0.503726,0.647691,0.815055,-0.421932,-0.397064
-0.507857,-0.122320,0.528488,0.998840,-0.036291,-0.031650
0.849023,0.477065,0.362786,0.806049,0.184532,-0.562346
0.298266,0.286747,0.597715,0.711419,0.032644,0.702010
0.542722,-0.002766,0.721488,-0.742029,0.549903,0.383405
0.450153,-0.137379,0.508240,-0.644083,-0.097983,0.758655
0.064725,0.133693,0.902163,0.956408,0.081898,-0.280315
-0.438434,-0.467537,-0.310112,0.521072,0.841124,0.144896
-0.625792,0.007684,0.295625,0.035617,-0.752337,0.657815
0.099994,0.268536,0.643899,0.710913,0.606893,0.355364
-0.757771,0.729006,0.011813,0.707525,-0.681849,0.185714
-0.483201,-0.023818,0.432742,-0.246874,0.642481,0.725446
0.634782,0.434345,0.473432,-0.142490,0.344480,-0.927917
-0.294528,-0.527391,0.271172,0.087717,0.404467,0.910336
-0.971402,0.339839,0.318935,0.910294,-0.124265,0.394871
-0.266436,-0.506646,0.266091,0.133623,0.272152,0.952931
0.195594,0.179870,0.844434,0.727138,-0.575150,-0.374797
-0.014299,0.222129,0.790933,0.776859,0.301256,0.552933
0.176292,0.021745,-0.446621,0.965910,-0.037327,-0.256174
-0.198120,0.640645,0.367428,-0.816415,0.293045,0.497585
-0.336974,0.845870,-0.196792,-0.691522,0.482633,0.537460
-0.503916,-0.274222,0.227151,0.322620,-0.106660,0.940500
-0.072105,0.641875,0.360087,0.093453,-0.534193,0.840181
-0.039563,0.442490,0.591590,-0.194315,0.798293,0.570061
0.285230,0.126931,-0.938260,0.268811,0.439214,0.857223
0.435701,0.529620,0.299174,-0.033965,0.527949,0.848597
0.887120,0.140454,0.433277,0.690657,0.629831,-0.355396
-0.535851,0.065310,0.449392,-0.718831,0.597079,-0.356061
-0.534639,-0.183173,0.342343,0.990358,0.051106,0.128761
0.408719,-0.258624,0.046816,0.265278,0.192413,0.944778
0.098883,-0.014368,0.780919,0.812436,0.477744,-0.334229
-0.339397,-0.946063,-0.386704,0.252598,-0.504117,0.825869
-0.333334,0.457934,-0.098347,-0.606688,-0.426336,-0.670945
0.318679,-0.206838,0.661060,-0.273129,0.769743,0.576971
0.302408,0.669765,0.435561,0.850891,0.440710,0.285935
-0.185892,-0.611064,0.311181,0.880204,0.384821,0.277765
-0.593151,-0.339839,0.165484,-0.736502,0.640188,0.218460
-0.319185,0.445947,0.538527,0.774648,0.470736,0.422289
0.775048,0.099040,0.471317,0.729171,-0.246155,-0.638528
0.537467,0.200692,0.701896,0.414898,-0.622472,-0.663617
-0.117378,-0.365885,0.071390,-0.171149,-0.154448,0.973064
0.855086,0.300345,0.537093,-0.503138,-0.790696,0.348786
-0.165380,0.100577,0.739062,0.578252,0.760090,-0.296459
-0.567785,-0.089819,0.375061,0.934817,-0.241062,-0.260779
0.374968,0.142374,0.828585,0.962179,0.165950,-0.216036
-0.755548,-0.321629,0.098687,0.848257,0.230843,0.476625
-0.665505,0.050634,0.470418,-0.258099,0.904118,-0.340523
-0.576374,0.233731,-0.666213,0.491960,0.843584,0.215269
0.729170,0.434192,0.474283,-0.314226,-0.484318,0.816516
-0.630137,0.607300,-0.029728,-0.005225,-0.702246,0.711915
0.387298,0.046562,0.585100,-0.111522,0.353241,-0.928861
0.517054,0.329389,0.469737,-0.434919,0.696000,-0.571340
-0.475722,-0.520630,0.107535,-0.098461,-0.963577,-0.248644
0.428728,0.523320,0.316505,0.499902,-0.429692,-0.751973
0.233287,-0.076296,0.610792,0.069121,0.296178,0.952628
-0.012079,-0.173338,-0.650997,-0.029144,0.519966,0.853689
-0.548989,0.434192,0.275061,0.001838,-0.810031,0.586384
-0.462282,0.668690,-0.701167,-0.589635,-0.798391,-0.122076
-0.478350,-0.889589,-0.066335,0.625510,-0.654033,0.425416
0.753121,-0.351056,0.302917,-0.712215,0.672674,0.200648
-0.290387,0.758510,-0.563004,0.907157,-0.164992,0.387096
-0.672681,-0.544680,-0.508994,0.089004,-0.911293,0.402024
-0.502099,0.614522,-0.010817,0.144122,-0.961071,-0.235735
-0.781820,0.111334,-0.457219,-0.477487,-0.716637,-0.508367
-0.628620,0.281291,0.478585,0.026011,-0.837778,0.545392
-0.170330,-0.696273,0.054886,0.332345,-0.562338,0.757181
0.354555,-0.424510,0.471901,0.379107,0.564860,0.732947
-0.289677,0.292663,0.452771,0.814407,-0.563158,0.139979
-0.084737,-0.621821,0.313734,-0.738519,0.673625,0.028624
0.057348,-0.183710,0.733982,-0.256235,0.745014,0.615871
0.476731,0.022436,0.564098,0.412411,-0.910270,0.036413
-0.396698,0.064772,0.611376,0.453612,-0.853227,0.257370
-0.087059,0.528851,0.392611,-0.091010,0.963885,0.250287
-0.867922,0.386401,0.257073,-0.550565,-0.222172,-0.804685
-0.517257,-0.190164,0.445041,0.710814,-0.176519,-0.680870
-0.662877,0.106185,0.319981,0.274435,-0.891389,0.360708
0.353747,0.211372,0.651629,0.822731,0.129625,-0.553453
-0.615787,0.159124,-0.951215,0.126795,-0.193136,-0.972945
-0.154466,0.291587,0.791517,0.403718,-0.888629,0.217599
0.183366,0.121245,0.784370,0.234874,0.378446,-0.895328
-0.479361,-0.421513,0.228974,0.885834,-0.058133,-0.460346
-0.847105,0.707339,-0.081065,0.971007,-0.234593,0.045956
-0.300086,0.934154,-0.053598,-0.011396,-0.876056,0.482074
0.726339,-0.279677,0.598736,0.373872,0.893698,-0.248039
0.914506,0.039801,0.390131,0.853839,0.504167,0.129520
0.381639,-0.239800,0.507365,-0.366238,0.838573,0.403317
0.148502,-0.111178,0.692756,0.939052,-0.322721,0.118460
-0.697239,-0.026969,0.317404,0.929835,-0.365705,0.040833
0.788186,-0.192393,0.323918,0.947077,-0.225035,-0.228922
-0.440050,0.843027,-0.520831,0.306491,0.933498,-0.186131
0.370015,0.349059,-0.254254,0.662604,-0.674686,0.325200
-0.948565,0.219055,0.045163,0.530541,-0.001588,0.847658
0.202666,0.840415,0.199222,-0.154971,-0.616380,0.772049
-0.226113,0.266693,0.599562,0.495984,0.855125,0.150871
-0.137085,0.212908,0.712032,0.345943,-0.661138,0.665748
0.021068,-0.094891,0.493534,0.891478,-0.421922,0.165069
-0.711184,-0.165963,-0.095333,-0.432971,-0.708265,0.557581
-0.326765,-0.575336,0.223165,0.270233,0.947998,-0.168147
-0.388815,-0.438877,0.368765,0.399272,0.612296,0.682405
0.123339,-0.478909,0.298444,0.927132,-0.067637,0.368582
-0.686121,0.217057,-0.952309,0.047553,-0.191251,-0.980389
0.475216,0.422282,0.287555,0.635010,0.457900,0.622165
-0.712397,-0.273530,0.346475,0.850436,-0.524764,-0.037162
-0.469455,0.071610,0.449344,0.324132,0.926007,0.193516
0.970893,0.111718,-0.321463,0.990372,0.075630,-0.115950
0.325652,0.445947,0.653816,-0.729856,0.682692,0.035250
0.140215,0.044642,0.650632,-0.028400,-0.485563,0.873740
0.011267,0.863620,0.277662,0.679290,-0.436109,0.590233
-0.143148,-0.063004,0.607754,0.180867,-0.817675,0.546530
-0.210955,-0.030350,-0.350146,0.021470,-0.243576,0.969644
-0.051692,0.861929,0.294968,-0.628351,0.496913,-0.598542
0.080188,0.092586,0.711911,-0.598665,0.456393,0.658260
-0.512104,-0.480061,0.173602,0.166112,0.667811,-0.725559
-0.263303,0.353822,-0.964050,0.066438,0.287684,0.955418
0.603153,-0.328698,0.319276,0.662621,0.326495,-0.674043
-0.177809,-0.146677,0.710015,0.108256,0.858074,0.501985
-0.449952,-0.071994,0.612664,-0.317146,0.850811,0.418975
-0.433379,0.358125,0.576057,-0.377694,0.885292,-0.271303
-0.531305,-0.060238,0.594579,0.950496,-0.104982,-0.292465
-0.500582,-0.270534,0.489232,0.245747,0.441608,-0.862897
0.112626,0.159662,0.909796,0.746828,-0.576323,0.331812
-0.667932,-0.769036,0.066505,-0.748638,0.122455,-0.651572
0.470162,0.725010,0.354910,0.439895,0.529078,-0.725651
-0.502099,-0.061237,0.574016,0.867193,-0.482746,-0.122199
0.068870,-0.185401,0.733155,-0.252897,0.811663,0.526542
-0.868123,0.586094,0.111886,0.615767,0.787743,-0.017080
-0.201963,-0.774798,-0.269689,0.996045,0.085615,0.023755
-0.215908,0.209604,0.716529,-0.148266,-0.731579,0.665440
0.110806,0.471380,0.636923,-0.167108,0.340718,0.925195
-0.447932,0.111180,0.625134,-0.669105,0.738977,0.078809
0.419735,0.433731,0.352771,-0.257482,0.966247,-0.008339
0.594360,-0.349750,0.467331,-0.043232,0.996144,0.076345
-0.979085,0.540607,-0.031818,-0.733591,0.597790,0.323253
0.074023,0.338149,0.678877,-0.356064,0.934429,0.007804
-0.003588,-0.182097,0.730214,-0.121794,-0.933225,-0.338020
-0.384368,-0.399692,0.381186,-0.709897,-0.072109,-0.700604
-0.041787,-0.778870,0.145041,0.626009,0.441530,0.642778
-0.258350,0.123550,0.651142,0.063560,-0.960958,0.269296
0.399828,0.411679,0.361935,0.094606,0.992881,-0.072373
-0.617706,-0.734768,0.003913,0.828177,-0.454417,0.328068
-0.188621,-0.726392,-0.298177,0.997261,0.005306,0.073768
0.453588,-0.360814,-0.496476,0.881460,-0.358626,-0.307271
-0.116570,0.975643,0.314560,0.837904,0.295712,-0.458771
0.015915,0.799462,0.310501,0.949652,0.062339,-0.307041
-0.601031,0.222436,-0.610185,-0.682793,-0.698071,-0.215615
0.879441,-0.148674,0.472995,0.728112,-0.611345,0.310016
0.294023,0.233346,0.502674,0.805015,-0.260269,0.533115
0.268657,0.285748,0.749587,-0.003984,-0.889383,0.457146
0.137183,-0.070457,0.468960,-0.161181,-0.331850,0.929460
0.265524,-0.148597,0.582790,-0.284687,0.769461,0.571737
0.553130,0.096043,0.608192,-0.751932,-0.384539,0.535471
0.118285,-0.242720,0.451872,0.377991,0.892601,0.245734
0.583042,-0.156050,0.463102,-0.113767,0.986224,-0.120080
-0.871154,0.405225,0.160063,-0.503769,0.789315,-0.350997
-0.019252,0.529389,0.502868,0.875847,0.116384,0.468345
-0.752516,0.438571,-0.043559,0.589466,0.028492,-0.807291
-0.499774,-0.875758,-0.411011,0.665742,0.468484,-0.580784
0.240969,-0.241874,0.629995,-0.380077,0.767322,0.516486
0.889544,0.189781,0.417428,-0.586509,-0.748445,0.309576
0.065533,-0.413523,0.309431,0.712462,0.081558,0.696955
-0.087464,0.688437,0.494458,0.850657,0.489227,-0.192459
-0.374968,0.238110,-0.049052,0.317165,-0.368543,-0.873832
0.431862,0.025125,0.676057,-0.129651,0.932241,0.337812
0.591532,0.129466,0.528561,0.297345,-0.753215,-0.586731
0.861754,0.340761,0.569154,0.169637,-0.964643,0.201710
0.010357,0.607914,0.427248,0.653187,0.728952,0.204882
0.214591,0.835421,0.201726,-0.022534,-0.618588,0.785392
-0.547271,0.497196,0.292173,0.373578,0.647345,-0.664368
0.314840,0.403381,0.618255,0.930821,-0.336992,0.141452
-0.656715,-0.448559,0.198614,-0.668441,-0.692027,0.272554
0.033197,0.428814,0.434735,-0.521211,0.803687,0.287100
0.457126,0.734307,-0.081113,0.856286,-0.224730,-0.465049
0.212874,-0.090203,0.583666,0.741189,0.521622,-0.422551
0.455612,0.383327,0.463685,0.891242,-0.285550,0.352349
0.434893,0.286823,0.492368,0.176970,-0.108419,0.978226
-0.098177,0.548982,0.056271,0.808049,0.243437,-0.536466
0.896316,0.324549,0.549830,-0.124042,0.919469,-0.373083
0.347277,0.046408,0.729290,0.606855,0.518171,-0.602683
-0.590523,0.084826,0.455882,-0.681110,0.133746,-0.719861
-0.751606,-0.266999,-0.189815,0.476573,0.844073,-0.245801
0.362034,0.453015,0.656077,-0.659578,0.748548,0.068064
-0.862362,0.216904,0.129825,0.916505,-0.395271,-0.061482
-0.762521,-0.240722,0.235732,-0.131094,0.737728,0.662248
-0.379415,-0.186784,-0.935173,-0.192518,0.020409,0.981081
0.033602,-0.005993,0.875109,0.171051,-0.930032,0.325241
-0.020668,0.404303,0.740350,0.293107,-0.878929,0.376260
0.210145,-0.124702,-0.593826,-0.606789,0.640145,-0.471191
0.929667,0.233731,0.507681,0.827691,-0.478542,0.293129
-0.211462,0.711410,0.330749,0.197131,0.705032,0.681226
0.084734,0.116404,0.936728,0.970480,0.223453,0.090763
-0.754638,-0.775873,0.077273,0.336136,0.198025,0.920760
-0.836289,-0.008912,0.028294,-0.000048,0.337884,0.941188
0.201759,-0.019823,0.833325,0.948012,0.309611,-0.073583
-0.349300,-0.298040,0.565143,0.955347,-0.290015,0.056600
-0.580417,0.027584,0.428901,-0.484586,0.873471,0.047158
0.558891,0.611525,0.396135,-0.719598,0.517075,-0.463480
0.181547,0.397388,0.524332,-0.133937,0.855869,0.499549
0.397706,0.349290,0.407608,0.979909,-0.050854,0.192855
-0.867213,-0.090971,-0.137846,-0.402942,-0.667227,0.626455
-0.195292,0.940300,0.063029,0.986113,0.054383,-0.156921
0.429841,0.449712,0.490277,0.475405,-0.031108,0.879217
0.143854,-0.007836,0.772946,0.886521,-0.327510,0.326830
-0.608713,0.428505,0.158678,0.204290,0.238252,0.949474
-0.485323,0.805224,-0.421075,0.944011,0.064330,-0.323580
0.701581,0.225125,0.251434,0.940355,0.254006,-0.226303
-0.622455,-0.729696,0.033593,-0.740278,-0.649637,0.173093
0.589509,0.409835,0.257487,0.782532,-0.171242,0.598598
-0.356880,-0.257472,0.494069,-0.137036,0.164961,-0.976734
-0.893791,-0.101037,0.027929,-0.107293,-0.540979,0.834164
0.288968,0.503419,0.552747,0.898184,0.434045,-0.069784
-0.781114,-0.530618,0.002965,0.196860,0.894843,-0.400628
-0.246930,0.538840,0.211133,0.526110,0.679304,-0.511618
0.005103,0.324780,0.613053,0.886191,0.362850,-0.288107
-0.474005,-0.070841,0.443486,0.780142,0.333076,-0.529564
-0.450356,-0.318324,0.374186,0.042120,0.093328,0.994744
0.003789,-0.428890,0.058143,-0.635752,0.189821,-0.748190
-0.849326,0.102882,0.211667,0.604612,0.518381,0.604753
-0.175888,0.778180,-0.581381,0.825751,-0.200671,-0.527131
0.283916,-0.096657,-0.825353,-0.708861,-0.705118,0.018023
0.520085,-0.137379,0.455907,-0.107825,0.994153,-0.005741
-0.527768,0.276297,0.241906,-0.279161,-0.413368,-0.866715
0.640848,-0.166192,0.559285,0.919386,-0.111514,-0.377218
-0.026326,0.355130,0.723068,-0.296913,0.830371,-0.471514
0.300792,-0.240337,0.668279,-0.018962,0.934522,0.355399
-0.634985,0.257934,-0.955226,-0.021500,0.220925,0.975054
-0.314337,0.073762,0.608362,-0.459267,0.888257,-0.008524
-0.800923,0.735382,-0.043972,0.864302,-0.469960,-0.179219
-0.449650,0.169805,0.485950,0.453650,0.758423,-0.467971
0.474609,0.427738,0.461595,0.787379,-0.361994,-0.498994
0.304329,0.206685,0.814998,0.749648,0.661710,-0.012959
0.163660,0.057472,0.791711,-0.679282,0.680746,0.274155
-0.640142,0.273608,0.283617,-0.140246,-0.130391,0.981493
-0.386690,0.292816,0.522338,0.087074,-0.916639,0.390116
0.632965,-0.005840,0.490520,0.341770,0.477536,0.809415
0.148298,0.193777,0.764682,0.920598,-0.017135,-0.390135
-0.351524,0.538764,-0.976325,0.175991,0.113926,0.977777
-0.006620,-0.525393,0.453670,0.428779,0.766352,0.478386
0.036229,-0.190702,0.449951,0.970375,0.122995,0.207953
-0.894598,-0.012370,0.092295,-0.006121,-0.871835,0.489762
-0.356375,0.175182,0.506976,-0.048881,-0.935653,0.349520
0.879139,0.197772,0.416650,0.582347,0.777765,-0.236544
-0.486436,0.003765,0.547691,0.930739,-0.343609,0.125128
-0.199131,0.359509,0.488405,-0.364514,0.434575,0.823574
-0.634581,0.626355,0.192246,0.821475,-0.132544,-0.554627
-0.057756,0.068536,0.565046,0.343171,0.709179,0.615873
0.487950,-0.104341,0.510744,-0.305154,-0.221221,0.926252
-0.829317,0.425125,0.150194,-0.365635,0.822009,-0.436591
0.138093,0.315329,0.630287,-0.495663,0.051494,-0.866987
0.337174,0.119094,0.813199,0.609048,0.539775,-0.581122
-0.540196,-0.074759,0.449708,0.254517,0.720217,-0.645375
-0.345865,0.482905,-0.977200,0.082978,0.214697,0.973150
-0.150321,0.776258,0.283155,-0.626101,0.273621,0.730156
0.910768,-0.014445,0.343729,0.990960,-0.086034,-0.102940
-0.023397,0.510104,0.488819,0.969272,0.237714,0.063269
-0.387600,0.081906,0.631575,-0.465337,0.877805,0.113666
-0.657826,0.138071,-0.953476,0.068433,0.165937,0.983759
0.017735,-0.180945,0.477807,-0.600152,-0.775145,0.197403
-1.000000,0.481368,0.273238,0.531729,0.835017,0.141461
-0.359206,0.495428,0.524964,0.814691,0.157094,0.558212
-0.596281,0.826047,0.255761,-0.157157,-0.821760,0.547734
-0.511394,0.468459,0.144701,0.560095,0.320760,0.763811
0.806680,0.094968,0.059042,0.933849,-0.312185,0.174548
-0.027437,-0.761121,-0.427492,-0.342420,0.787546,-0.512367
0.684502,0.400154,0.462786,0.077932,-0.285785,0.955120
-0.080087,0.192010,0.700073,-0.247920,0.389466,-0.887047
0.189630,0.268460,0.787409,-0.631899,-0.008584,0.775004
0.002678,0.413446,0.468911,-0.814453,-0.535334,-0.223793
-0.697541,0.797849,-0.542975,-0.688383,0.725202,-0.014526
-0.328887,0.362274,0.550535,0.894535,0.114784,0.432009
0.581324,0.469458,0.469640,-0.443163,-0.212965,0.870777
0.187813,-0.305109,0.492392,-0.753359,0.643685,-0.134613
0.250871,-0.040876,0.520588,0.858667,0.371398,-0.353207
-0.133748,-0.772569,0.175498,-0.630917,-0.320254,-0.706669
0.211258,-0.098271,-0.826981,0.479119,0.866157,-0.142186
0.247131,0.054015,0.698566,0.621281,-0.670328,-0.405796
-0.228945,-0.360890,0.045211,0.398974,0.547219,-0.735779
0.410437,0.486286,0.641225,0.652541,-0.716171,0.247567
-0.405793,-0.069304,0.581526,0.866773,0.033041,0.497608
0.165781,-0.043027,0.775085,-0.598650,0.241843,-0.763630
0.001565,-0.001460,0.706928,0.190276,-0.938938,0.286690
0.023798,0.078448,0.947594,-0.742682,0.669559,-0.010710
0.625588,0.474146,0.307073,-0.556310,0.655203,-0.511105
0.032084,-0.334382,0.417015,0.926072,-0.256707,0.276572
-0.028448,-0.073223,0.692027,-0.307229,-0.062318,0.949593
0.896822,-0.354514,0.443875,0.742452,-0.021165,-0.669564
0.846898,0.274914,0.483009,0.546265,-0.428965,-0.719432
0.002475,0.001998,0.777880,-0.468424,-0.748371,0.469595
-0.778890,0.752900,-0.055396,0.813163,-0.524312,-0.252709
-0.623973,-0.186093,0.296475,0.766710,0.568726,-0.297838
0.076549,-0.146523,0.614025,0.954773,-0.296475,0.022587
-0.479867,-0.516711,0.052698,-0.475598,-0.564266,0.674841
0.552927,-0.260776,0.440326,0.005538,0.706115,0.708075
-0.867213,0.238187,0.117112,-0.374659,-0.034161,0.926533
-0.190644,0.812448,0.076130,-0.356970,-0.154093,-0.921319
-0.614372,-0.434575,0.154837,-0.223222,0.734447,0.640905
0.900461,-0.072378,0.442829,0.378483,0.766505,0.518865
0.395381,0.721168,0.488721,0.796102,0.397521,-0.456288
-0.492801,-0.901267,-0.081575,0.362427,-0.810221,0.460640
0.501692,0.665540,0.496986,0.950509,0.024423,-0.309735
-0.065132,0.256397,-0.600219,-0.762835,-0.399219,0.508633
-0.524634,-0.326393,0.401458,0.675851,0.725384,-0.130548
-0.118590,-0.497887,0.448882,0.354523,0.716747,0.600489
0.390330,0.120707,0.333034,0.754947,0.638365,-0.150151
-0.127281,0.204687,0.587846,-0.226953,-0.708251,0.668486
-0.027335,0.036727,0.667623,0.421532,0.728804,0.539588
0.014197,0.316481,0.629485,-0.517316,-0.801339,0.300401
0.528976,-0.267537,-0.013320,-0.101957,0.897751,0.428541
0.134352,0.087669,0.880895,0.829012,-0.514998,0.217982
-0.642868,-0.512332,-0.429752,0.005334,-0.992038,0.125828
0.724825,0.394008,0.505834,0.756763,0.636811,0.147588
-0.219646,-0.158663,0.507389,-0.124170,0.984769,-0.121704
0.627710,0.311640,0.276033,0.837134,0.471802,0.276785
0.109897,0.140531,0.806806,-0.429677,0.877435,-0.213273
-0.121825,0.145295,0.770199,-0.430403,0.356447,-0.829276
-0.594261,0.347599,0.479144,0.754601,-0.370606,0.541505
-0.090902,0.059624,-0.614560,0.790262,0.560298,-0.248096
-0.195190,-0.102190,0.541541,-0.364178,0.592535,-0.718524
0.732100,-0.108798,0.482961,-0.280825,0.902356,-0.326941
0.256731,0.439186,0.503136,0.840425,0.538432,0.061457
0.593854,0.508183,0.308678,0.258893,0.666056,-0.699531
-0.739076,0.584787,0.170856,0.740394,-0.472572,-0.478009
-0.031178,0.210066,0.779460,0.094864,-0.817767,0.567678
-0.780507,-0.508336,0.035975,-0.195526,0.825328,-0.529721
-0.328989,0.762966,0.341614,0.476370,0.871898,0.113425
-0.379113,0.260622,0.493923,-0.567369,-0.308934,0.763316
0.261786,-0.441413,0.470224,0.079306,0.447304,0.890859
0.187610,0.138994,-0.940107,0.044657,0.346533,0.936974
-0.483808,-0.132847,0.567501,0.788821,0.585348,-0.187428
0.094942,0.355283,0.506660,-0.495996,-0.146396,0.855895
0.234499,0.622589,0.237214,0.305217,0.402931,0.862838
0.004294,0.083520,0.738697,0.195744,-0.043248,0.979701
-0.743014,0.473454,-0.044361,0.427960,0.597852,0.677808
-0.633268,0.016673,0.437919,-0.483789,0.678713,0.552537
-0.066446,0.283059,0.794336,0.305371,-0.887471,0.345172
-0.437626,-0.228198,0.463199,0.882370,0.165344,-0.440551
0.116770,-0.144679,0.623772,0.735259,-0.309571,-0.602959
-0.115053,-0.293969,0.316723,-0.086216,0.965849,0.244342
0.164267,-0.014906,0.821585,0.970651,0.196297,-0.138942
-0.220152,0.229275,0.506612,-0.036031,-0.722624,0.690301
-0.611744,0.352670,-0.368644,0.965065,0.159884,0.207572
0.260978,-0.230810,0.497083,0.252074,-0.852558,-0.457826
0.850032,0.474914,0.380603,0.954417,0.287093,-0.081649
0.063211,0.052402,0.834176,0.935434,0.337578,-0.104900
-0.849831,0.237572,-0.956101,-0.070686,0.144279,0.987009
0.135568,-0.423971,0.261157,0.151391,0.988210,0.022855
0.371835,0.531772,0.464682,0.948896,-0.281088,0.143481
0.394471,0.136765,0.649101,0.729981,0.307397,-0.610438
0.504826,0.213216,0.705566,0.250995,-0.435033,-0.864724
-0.323734,-0.247100,-0.933228,-0.155443,0.058836,0.986091
-0.031378,-0.753285,-0.189694,0.474102,0.361794,-0.802703
-0.289172,0.641337,-0.155177,-0.440155,0.337288,0.832166
-0.218333,-0.535458,0.150121,0.973548,-0.010680,-0.228231
-0.261382,-0.688128,0.050146,0.752128,-0.273416,-0.599623
0.333939,-0.039877,0.556830,-0.604131,0.715984,0.349847
0.542620,0.536996,0.421779,0.696691,0.191405,-0.691365
0.366580,0.253400,-0.081405,0.825859,-0.081929,-0.557893
-0.577688,0.065617,-0.490204,0.876355,0.481232,0.020456
0.802739,0.421283,0.372630,0.787321,0.090856,-0.609812
0.042897,0.311487,0.616043,0.431252,-0.144632,-0.890563
0.221564,-0.447407,0.051483,-0.201709,0.213634,0.955863
0.557374,-0.084748,0.515411,-0.444089,-0.711026,-0.545185
0.082510,-0.190702,0.638721,0.574035,0.739789,-0.350992
-0.651864,-0.053861,0.276422,-0.684753,0.728577,-0.017014
0.120206,-0.098194,0.742538,-0.700955,-0.184624,0.688895
-0.218838,0.835805,0.277297,0.896864,0.078192,-0.435340
0.106362,0.118248,0.670394,0.947888,-0.314042,-0.053716
-0.116974,-0.287130,0.567307,-0.407795,0.876460,-0.255970
-0.702087,0.732002,0.142246,-0.711029,-0.560524,0.424559
-0.010663,-0.404994,0.465070,0.962266,-0.267125,0.051847
0.798495,-0.172263,0.474137,-0.645277,0.493488,-0.583169
0.766863,0.261545,0.358969,0.660399,0.198836,0.724111
-0.471377,-0.025432,0.588114,-0.148808,0.596285,0.788860
-0.411754,-0.453400,0.232377,0.344405,-0.085172,-0.934950
-0.649437,-0.009527,0.236048,0.510047,-0.655507,0.556923
-0.510991,0.082674,0.352990,0.209863,0.814244,-0.541262
-0.599517,0.488360,-0.389596,0.852320,-0.450212,-0.266194
-0.465416,0.221437,-0.954035,-0.014387,0.236168,0.971606
0.807994,0.135230,0.400681,-0.153235,0.720725,-0.676073
-0.721692,0.803535,0.170321,0.993758,-0.024738,0.108780
-0.159314,-0.432501,0.505566,0.676491,0.164164,-0.717920
0.042594,0.062543,0.936242,-0.736424,0.676146,0.022508
-0.050073,-0.357818,0.251264,0.013231,0.340600,0.940115
-0.115155,-0.503956,0.067404,-0.897091,0.436682,0.067360
0.216611,0.165271,0.845941,-0.741985,0.351836,0.570675
-0.355971,0.198694,-0.951143,-0.029545,0.237086,0.971039
-0.738571,0.401767,-0.964876,0.093427,-0.205750,-0.974135
0.274113,0.048022,0.648760,0.794596,-0.109492,0.597183
0.311404,-0.153745,0.505761,-0.460606,0.445195,0.767882
0.431963,0.284365,0.470491,0.441544,-0.794498,0.416907
0.165075,0.200999,0.625061,-0.722070,-0.257645,-0.642054
-0.793950,-0.593699,0.106320,0.945574,0.232573,-0.227595
-0.372442,-0.054015,0.676422,0.950033,-0.264169,0.166290
-0.249962,-0.249941,0.543996,0.852768,0.003772,0.522277
-0.818202,0.488282,-0.014633,-0.166130,-0.776221,0.608179
0.160832,0.055321,0.602382,-0.209294,-0.023099,0.977580
0.188418,0.231349,-0.218474,-0.472738,0.660571,0.583237
0.029660,0.555129,0.329290,-0.255424,-0.508940,0.822033
-0.593049,-0.299270,0.184808,0.941132,-0.319821,-0.109474
0.541914,0.592240,-0.021779,0.430467,0.110580,-0.895807
-0.414786,-0.620668,0.048226,-0.739960,0.464748,-0.486280
0.181041,-0.105033,0.756806,0.882524,-0.342371,-0.322386
0.751403,-0.213522,0.488794,-0.685614,0.488777,-0.539472
-0.136881,0.569574,0.426130,0.600421,-0.535919,0.593537
-0.084938,-0.662005,-0.411668,0.875162,0.477268,-0.079420
-0.070791,-0.776489,-0.191590,-0.209167,-0.535585,0.818167
-0.197516,0.089513,0.445722,-0.164332,0.706637,0.688229
-0.210653,0.791010,-0.194118,-0.393618,-0.537860,-0.745501
-0.221062,-0.371571,0.245698,0.925167,-0.358086,-0.125856
0.119700,0.113715,0.755445,0.447073,0.871737,0.200500
0.941287,0.075989,0.600778,0.949773,0.236334,-0.205127
-0.398012,-0.081905,0.561522,-0.362763,0.906531,-0.215881
-0.181044,-0.042720,0.589086,-0.823870,0.559878,0.088170
-0.566472,-0.537456,0.158386,0.706432,-0.179909,0.684534
-0.613765,0.060776,0.464487,0.320058,-0.796925,0.512322
-0.703098,0.024357,0.018230,0.146315,0.294156,0.944492
0.469455,0.487361,0.391225,0.942180,-0.328463,0.066397
0.717750,0.534768,0.475134,-0.401173,0.706498,-0.583028
-0.105656,0.111563,0.788017,0.953072,0.183303,0.240942
-0.056442,0.450250,0.551458,0.943166,0.034230,0.330554
0.147694,0.170188,0.665435,-0.692302,-0.688779,-0.215180
-0.321714,0.464388,-0.975887,0.041331,0.257675,0.965347
0.920569,-0.253554,0.305396,0.950824,-0.226014,-0.211780
0.332523,0.538302,0.299198,-0.070622,0.256294,0.964016
0.596078,0.344065,0.452625,0.750165,0.360590,0.554281
0.691577,0.186862,0.263588,-0.699153,0.304917,0.646692
0.158910,0.628199,0.359431,0.593132,-0.120986,-0.795963
-0.347583,0.266847,0.324380,0.187303,0.811405,0.553661
0.142741,-0.514099,0.273359,0.486300,-0.543527,-0.684171
-0.613361,-0.818747,-0.024939,-0.612859,0.609426,-0.502994
0.489868,0.590012,0.395260,0.553098,-0.634392,0.540027
0.349806,0.204302,0.248493,-0.662187,0.372007,-0.650476
-0.426508,0.317327,0.557827,-0.500208,0.849126,-0.169636
-0.137893,0.651940,0.477151,0.950645,-0.231824,0.206231
0.341519,0.418210,0.295382,0.497974,0.590361,0.635213
-0.398718,0.491356,-0.328464,0.889767,-0.127781,-0.438162
0.276540,0.108951,0.828488,-0.271951,0.632085,0.725611
-0.613765,-0.269305,0.269932,-0.127110,-0.965754,0.226191
0.137384,0.222974,0.767696,-0.309330,-0.495430,0.811705
0.564649,0.081675,0.266675,-0.676253,0.688491,0.262036
-0.587995,-0.040337,0.444652,-0.546455,-0.272946,0.791762
-0.089687,0.789551,0.284054,-0.213681,-0.280699,0.935707
0.253194,-0.055551,0.569008,0.990305,-0.079803,0.113695
-0.276642,0.894046,0.207997,0.819750,-0.149770,0.552792
-0.048963,0.952210,0.382669,0.889166,0.255078,0.379893
-0.954527,0.205148,0.036728,0.580157,0.038613,0.813589
-0.702593,0.340146,0.257244,0.829715,-0.195189,-0.522947
-0.968876,0.196773,0.146913,-0.391922,0.142557,0.908886
-0.174272,0.707568,0.379387,0.858926,0.278136,-0.429984
-0.684807,0.321168,0.265484,-0.164803,0.560906,0.811310
0.185994,0.332693,0.806077,0.119015,0.923238,-0.365332
-0.206912,0.920707,0.137020,0.917778,0.135264,0.373347
0.089079,0.120246,0.897375,-0.602188,0.798290,-0.010081
-0.476024,-0.103189,0.059407,0.720016,-0.479990,-0.501185
0.109897,-0.041414,-0.917064,0.237131,-0.078055,-0.968337
0.342025,0.125163,0.817647,0.526829,0.491589,-0.693391
-0.890155,0.084211,-0.300267,-0.539706,-0.245365,-0.805303
0.264311,0.753746,0.175547,0.744244,-0.238749,0.623779
0.350614,0.457780,0.623797,-0.280339,0.952411,-0.119680
-0.579406,0.736152,-0.450875,0.995559,-0.064960,-0.068141
-0.231066,0.716174,-0.584784,-0.153089,0.601880,0.783775
-0.409429,-0.746753,-0.406855,0.805370,-0.188722,-0.561928
-0.239957,-0.687821,0.081089,0.979362,-0.201041,-0.020801
0.415794,-0.015135,0.551094,0.960939,-0.245866,-0.127068
0.191249,0.800000,0.193413,-0.123576,0.605035,-0.786550
0.006718,-0.267691,0.062324,0.839228,-0.195950,0.507248
0.411248,0.047714,0.540277,-0.069702,0.965061,0.252584
0.313020,0.473070,0.621779,-0.243962,0.968216,0.055132
-0.657927,0.592701,-0.728440,-0.163422,0.754107,0.636094
-0.339197,-0.038493,0.675328,0.900393,-0.268822,0.342092
-0.801629,-0.047407,-0.075182,-0.368774,-0.906226,0.206787
0.185488,0.275298,0.817355,0.226016,0.712662,-0.664101
0.093224,0.264233,0.780506,-0.002627,-0.897463,0.441082
-0.358093,0.739455,0.194069,0.230084,0.038425,0.972412
-0.174879,-0.916941,0.133665,-0.307783,-0.875237,0.373136
-0.061392,0.160968,0.755882,0.962892,-0.077202,0.258608
0.423677,-0.049788,0.705785,0.933594,-0.087906,-0.347383
-0.509375,0.533846,0.319494,0.930792,0.198967,0.306656
-0.344653,0.708106,0.339183,0.546990,0.825430,0.139525
0.139709,0.870841,0.204229,0.379683,0.606870,-0.698248
-0.146988,0.733001,0.072120,0.947593,-0.111339,-0.299450
0.065937,0.472379,0.392513,0.196971,0.578575,0.791488
-0.562832,0.072071,0.305542,0.443895,0.555904,-0.702800
0.337174,0.183404,0.667574,0.747699,-0.663732,-0.020138
-0.700270,0.804764,-0.519397,-0.722661,0.601536,0.340464
0.132533,-0.557279,0.059139,0.059573,0.063250,0.996218
-0.295438,0.685901,0.196330,-0.172790,-0.174197,-0.969432
0.069878,0.325471,0.687263,-0.748620,0.518730,-0.412900
-0.528979,-0.841567,-0.029096,-0.454227,-0.007678,-0.890853
0.260167,0.070765,0.506684,0.936663,0.184387,-0.297764
-0.794856,0.469151,-0.025960,-0.083755,-0.575692,0.813365
-0.814767,-0.048175,0.234978,0.777586,-0.348674,-0.523246
0.297458,0.809758,-0.120248,-0.420505,-0.560986,0.713072
-0.160933,0.401999,-0.958848,-0.109854,0.113272,0.987472
-0.149310,-0.582174,0.082280,-0.125582,0.523450,0.842751
0.213682,0.065924,0.873165,0.863784,-0.394583,-0.313341
-0.234200,-0.104187,0.550632,-0.715328,0.617113,0.327838
-0.862362,0.668844,0.048809,0.842659,-0.494840,-0.212270
-0.185590,0.604610,-0.552431,0.747156,-0.293574,0.596299
-0.147996,0.271072,-0.953452,-0.206262,0.373716,0.904319
-0.352233,0.201383,-0.951215,-0.029545,0.237086,0.971039
0.437015,-0.369189,-0.376471,-0.271001,0.952107,0.141597
0.551008,-0.329465,0.273384,0.218792,-0.139428,0.965759
0.348693,0.025816,0.552163,-0.496558,0.670773,0.550903
0.579909,-0.143450,0.328123,-0.016009,-0.213179,0.976882
-0.217827,0.095890,0.686485,0.901216,0.431237,-0.042952
-0.456117,-0.115559,0.590399,-0.694260,-0.500515,-0.517192
0.841341,0.092048,0.521949,0.781403,-0.591555,-0.198675
0.535243,0.021284,0.561011,-0.562180,0.826800,0.018839
0.371129,-0.460315,0.259966,-0.853958,0.518306,-0.045990
0.850538,0.335536,0.577175,0.169637,-0.964643,0.201710
-0.371937,-0.472685,0.109747,-0.595326,0.650127,-0.472145
-0.600728,0.835036,0.146718,0.975278,0.147849,0.164237
-0.074529,-0.266615,0.435999,0.669082,-0.110638,0.734907
0.373957,0.565272,0.649976,-0.535941,-0.043119,0.843153
-0.624781,0.178103,-0.951847,-0.050620,0.129923,0.990231
-0.170734,-0.760967,-0.217015,0.846746,0.411434,-0.337260
-0.018240,0.116328,0.705493,0.199776,0.957388,0.208563
-0.166895,-0.459009,0.492999,-0.697234,0.516323,-0.497268
-0.005306,-0.185708,-0.652382,-0.298593,-0.209575,0.931086
-0.316659,0.324549,0.282693,0.340786,0.542713,-0.767677
-0.480876,0.680984,-0.404132,0.997630,-0.048510,-0.048797
0.573037,-0.112715,0.524502,0.445673,0.532577,0.719540
0.202163,0.150135,-0.942392,0.083215,0.330381,0.940172
-0.207924,0.227584,0.722314,-0.110430,-0.977935,0.177336
-0.346371,-0.905494,0.079630,-0.168218,0.309818,0.935797
0.033296,-0.203227,0.711035,-0.459770,-0.872496,-0.165416
0.011872,0.305571,0.760355,0.908241,0.400744,-0.120422
-0.738065,-0.602920,0.105518,0.913668,0.395215,0.094955
0.336465,0.018287,0.616699,0.346791,0.752420,-0.560000
0.423476,0.495045,0.625474,-0.585047,0.793691,-0.166658
0.041583,-0.507722,0.267866,0.354695,-0.326659,-0.876062
0.057046,0.251941,0.701556,0.848604,-0.079903,0.522960
0.218129,0.803919,0.197958,0.211670,-0.572535,0.792086
-0.327271,-0.940069,0.085270,0.172293,-0.148803,0.973742
-0.343743,0.814522,0.202868,-0.182707,0.480716,-0.857631
0.155576,0.132616,0.948687,0.930690,-0.110543,0.348706
-0.562024,0.503035,0.246427,0.686536,-0.173791,-0.706021
-0.150019,-0.698963,-0.306685,0.870382,0.305699,0.385984
-0.671975,0.485594,0.161206,-0.191147,0.058315,0.979828
-0.521399,0.466846,0.221804,0.832978,-0.384607,0.397774
-0.442375,-0.674529,0.067987,-0.605106,0.470664,-0.642123
-0.793342,0.012370,0.237117,-0.539765,0.667747,0.512608
0.121316,0.136689,0.785318,0.302372,0.949443,0.084431
-0.636706,-0.504341,-0.111619,0.159212,0.623840,-0.765163
-0.856299,0.005148,0.264633,-0.317108,0.072986,0.945577
-0.690364,-0.127392,0.203768,-0.324916,-0.604027,-0.727723
-0.237129,0.132079,0.735659,-0.775878,0.444360,0.447837
-0.247738,0.252094,0.706101,0.238605,0.959321,0.150899
0.125662,-0.047330,0.825207,-0.475369,-0.853118,0.214973
0.335456,0.090741,0.638260,-0.527307,-0.042468,0.848613
-0.302411,0.158125,0.578707,0.519042,-0.700335,0.490027
-0.882374,-0.212447,-0.177443,-0.792297,-0.606844,0.063298
-0.540803,0.868076,-0.528707,-0.468669,0.882485,0.039618
-0.761407,0.082521,-0.488697,-0.170348,-0.950230,0.260852
-0.306960,-0.856165,0.077929,0.327898,0.199542,0.923399
0.272700,0.061314,0.770151,0.240144,-0.242125,-0.940057
-0.301098,0.760815,-0.176860,0.753733,-0.510093,-0.414356
-0.079279,0.774184,-0.130603,0.824674,-0.434988,-0.361522
0.820626,0.071764,0.535999,0.673276,-0.515059,-0.530484
0.700875,-0.151057,0.603986,0.821588,-0.386435,-0.419119
0.334645,0.447253,0.661011,-0.679830,0.624816,0.383974
0.005911,0.000845,0.615557,-0.031850,-0.931604,0.362078
-0.308678,-0.143450,0.532377,0.906940,-0.399786,0.132778
-0.184076,-0.728621,-0.214633,0.853037,0.170396,-0.493247
0.310090,0.216750,0.609115,0.987654,-0.034538,0.152797
-0.078169,-0.548444,0.045722,-0.065821,0.613026,0.787317
0.876912,0.197234,0.079339,0.903616,0.286870,0.318093
-0.855694,0.197465,0.025158,0.323438,-0.077434,0.943076
-0.188017,-0.428198,0.029995,0.696655,0.310308,-0.646824
0.170228,-0.476373,-0.560039,0.874599,-0.124615,-0.468560
-0.873680,-0.038571,0.273748,0.952412,-0.129943,-0.275727
-0.406197,-0.728621,-0.670345,-0.050937,-0.334004,0.941194
-0.955335,0.294045,0.044677,0.640273,0.015353,0.767994
-0.159620,-0.151978,-0.928707,-0.084126,0.055303,0.994919
0.508159,-0.197617,0.466286,0.508757,0.504491,-0.697607
-0.725131,0.550135,0.110015,0.050853,0.980208,0.191329
-0.563135,0.404380,-0.961911,0.145839,-0.201150,-0.968643
-0.314741,0.651787,0.265143,-0.270481,0.858145,-0.436379
-0.146078,-0.612217,-0.036655,-0.462038,0.879912,0.110796
-0.435097,0.308644,0.531113,0.255978,0.920056,-0.296601
0.293517,0.297426,0.511983,-0.763965,-0.544442,-0.346323
0.501692,-0.018594,0.514657,0.446337,0.683801,0.577234
-0.052599,-0.414445,0.062956,0.012677,-0.198300,0.980059
-0.715123,0.543143,-0.037652,-0.177631,0.329106,-0.927435
-0.883382,0.081137,0.025839,-0.457721,-0.018776,-0.888898
0.665202,-0.167576,0.568595,0.950130,-0.152433,-0.272060
0.495327,-0.064002,0.522873,0.268968,0.327801,0.905650
0.366379,0.522090,0.630894,0.664423,0.688667,-0.290308
-0.003992,0.683135,0.291492,0.820923,0.018250,0.570747
-0.085746,-0.608605,-0.189888,-0.465020,-0.019257,0.885091
0.217623,0.261699,0.791614,-0.654400,0.751718,0.081737
-0.223082,0.842798,-0.585659,0.910438,-0.260833,-0.321044
-0.356779,-0.192854,-0.937020,-0.174084,0.016283,0.984596
-0.237129,0.049251,0.462834,-0.355034,0.685070,0.636105
0.432367,-0.158279,0.455348,-0.379948,0.666654,-0.641258
0.366783,0.496351,0.428148,-0.404805,0.228343,-0.885433
-0.644083,0.671840,0.097837,0.323847,0.573467,-0.752502
-0.044010,-0.007836,-0.548250,0.588243,0.378355,-0.714715
-0.093123,0.053094,0.619470,0.418919,0.890360,-0.178229
-0.537871,-0.192624,0.519251,0.966014,0.033061,-0.256368
0.393460,0.093507,0.648590,0.868507,-0.078541,-0.489415
0.303623,0.318402,0.563418,0.928144,-0.173548,-0.329287
-0.533427,0.410373,-0.964098,-0.101207,0.193916,0.975784
-0.760701,0.407607,-0.283082,0.915587,0.263535,-0.303727
0.328178,0.652632,0.456393,-0.458995,-0.723768,0.515250
-0.007428,-0.509566,0.050243,0.022116,-0.376430,0.926181
0.487040,0.430734,-0.041298,0.255403,0.060865,-0.964917
0.479966,0.627123,0.400510,-0.475420,-0.860358,-0.183741
0.201454,0.076450,0.872727,0.870089,-0.227471,-0.437266
-0.682482,0.065079,0.261740,-0.231704,0.438570,0.868314
0.011974,0.408068,0.758580,-0.213733,0.951769,-0.220124
-0.263100,0.722705,-0.160647,-0.327931,0.641573,0.693430
-0.369411,-0.139838,-0.703379,-0.578962,-0.205166,0.789120
0.470365,-0.030041,0.496548,0.851548,-0.400849,0.337915
0.467031,-0.358278,-0.128026,0.992431,-0.030495,0.118960
0.148400,0.104572,0.849149,0.541826,-0.825436,-0.158369
-0.130112,-0.565808,-0.669762,-0.209751,0.388518,0.897250
0.153957,0.584018,0.350292,0.738380,-0.087516,-0.668682
-0.905818,0.311487,0.125911,0.921444,0.304990,0.240669
-0.429641,-0.129235,0.584759,-0.419227,0.907857,-0.006631
0.533627,0.420592,0.351434,-0.483441,0.694130,-0.533356
0.487342,-0.404380,0.295892,-0.461604,0.260420,0.848000
0.077055,0.146908,0.848979,-0.207634,0.816767,0.538312
0.923197,0.296120,0.492513,0.953756,0.220638,-0.204126
-0.479664,0.734844,-0.556004,0.066466,-0.786188,0.614402
-0.826791,-0.165578,-0.155299,-0.195316,-0.719429,0.666538
0.055732,0.077142,0.842927,0.594940,-0.588616,-0.547336
-0.796676,-0.405378,0.120928,0.902227,0.397375,-0.167568
-0.312012,0.144372,0.542416,0.018167,0.589112,0.807847
-0.282403,-0.797387,-0.371901,0.914419,-0.078138,-0.397155
-0.467839,0.784403,-0.391833,0.934850,0.041307,-0.352631
0.783436,0.398848,0.472970,-0.216139,-0.128097,0.967923
-0.532819,-0.520784,0.229849,-0.318002,-0.037110,0.947364
-0.798798,0.131924,0.068425,0.739743,0.667463,-0.085282
0.268355,-0.151747,0.595819,-0.519271,0.816450,0.252522
-0.226215,-0.408144,0.420880,0.365191,0.581020,-0.727359
-0.747159,0.566961,0.166845,-0.441436,0.726810,0.526195
0.679148,-0.116097,0.382061,-0.552062,0.317832,-0.770850
0.177605,-0.041183,0.859358,-0.718690,-0.666611,0.197773
0.570715,0.224664,0.611400,-0.495889,0.780368,0.380947
0.300086,-0.066231,0.556733,0.534695,-0.739040,-0.409781
-0.655198,0.455398,-0.323578,0.704554,-0.657754,0.266390
-0.791624,0.021821,0.233252,-0.573886,0.510469,0.640372
0.031680,0.836420,0.355032,-0.698120,-0.439426,0.565273
-0.477946,-0.201306,0.466043,0.877901,0.094328,-0.469459
0.261786,0.469305,0.625085,-0.470214,0.717781,-0.513507
-0.172353,-0.374260,0.479217,0.807747,0.562156,0.177557
0.363246,0.676681,0.339718,0.727782,0.399621,-0.557348
-0.044516,0.578180,0.534492,0.386782,-0.618836,0.683698
0.296953,-0.376412,0.434954,0.501791,-0.772904,0.388362
-0.338488,0.087745,0.630457,0.078538,0.968191,0.237568
-0.239048,0.395313,-0.573627,0.061479,-0.097252,0.993359
-0.100401,0.365655,0.574186,0.736600,-0.669812,0.093662
-0.093730,0.372187,0.624550,0.803914,0.290429,-0.519011
-0.085545,0.932232,0.371585,0.405935,0.874186,-0.266487
-0.014099,0.572340,0.537530,0.304288,-0.559242,0.771140
0.350312,0.600922,0.465970,0.975706,0.201728,0.085456
0.381639,0.757358,0.266966,0.278915,0.916348,-0.287251
-0.898845,0.358202,-0.070248,0.588848,0.374416,-0.716290
-0.905917,0.386555,0.320418,-0.729536,-0.450952,-0.514217
0.013997,0.296658,0.799757,-0.193858,0.976669,0.092392
0.731998,0.303880,0.416578,0.242661,-0.419619,0.874663
0.357383,-0.416211,0.278877,-0.798924,0.429625,-0.420883
-0.546157,0.475528,0.068449,-0.298191,0.903524,-0.307777
-0.063011,-0.088205,0.604205,-0.135820,0.100956,0.985576
-0.123139,-0.624509,0.325911,0.127576,0.938483,0.320896
-0.132030,-0.768651,0.139669,0.646795,0.578761,0.496682
-0.206509,0.093662,0.614779,-0.186436,-0.226784,0.955935
-0.169220,-0.493123,0.475936,0.945514,0.324448,-0.027158
-0.679654,0.107184,0.318814,0.278536,-0.702293,0.655135
-0.260472,-0.544218,0.256004,-0.141180,-0.485852,-0.862564
-0.658331,0.239262,0.276155,-0.335467,0.259467,-0.905615
0.920976,0.013677,0.361765,0.994890,-0.037269,0.093832
-0.261990,-0.733231,0.070491,-0.591214,0.397362,0.701833
0.153859,-0.399539,0.304521,0.662658,-0.370972,0.650588
-0.359206,0.301422,0.496694,-0.271018,0.960427,-0.064259
-0.705526,0.433731,0.161570,0.034272,0.926066,0.375802
0.390733,0.160507,0.392586,0.524989,-0.503863,0.685936
0.842251,-0.121321,0.497423,0.638595,-0.212561,0.739604
0.484817,0.436036,0.486218,0.212070,-0.571829,0.792488
-0.849631,0.583558,0.163102,0.523503,0.214714,0.824526
-0.868021,-0.316557,0.239548,-0.499406,0.651362,0.571245
-0.680058,0.763043,0.167185,0.917114,0.382588,0.111929
0.358293,0.144910,0.835440,0.589350,0.668214,-0.454044
0.417410,0.499270,0.443559,0.587522,-0.805752,0.074702
-0.022586,0.379331,0.637530,-0.496686,0.138489,0.856811
-0.672478,0.026893,0.441638,0.827594,0.514251,-0.225022
-0.072204,0.631194,0.403695,0.754140,0.187652,0.629333
-0.249863,0.181329,-0.950413,0.090857,-0.330778,-0.939325
0.203677,0.005840,0.833398,0.960705,0.248423,0.123818
0.351524,0.002766,0.551750,0.541979,-0.310913,-0.780764
-0.583347,0.296658,0.488600,0.080237,0.854121,-0.513847
-0.734527,0.797311,-0.243413,-0.115394,0.681707,-0.722468
0.034410,0.239723,0.708337,0.990386,0.065888,-0.121628
0.756152,-0.028735,0.381016,0.342238,-0.144669,0.928409
-0.384368,0.388859,0.586850,-0.663603,0.495490,-0.560465
-0.214493,0.846947,-0.190326,-0.637087,0.770741,-0.008856
-0.360418,-0.259931,0.525863,0.494917,0.805023,-0.327100
0.010154,0.151749,-0.747910,-0.647950,-0.730932,-0.214240
-0.148098,0.166423,0.771706,0.276499,0.325322,0.904275
-0.055328,0.412678,0.767526,0.488987,-0.870879,0.049617
-0.698047,0.526239,-0.672679,-0.418277,0.875358,0.242473
-0.313427,-0.485363,0.382110,-0.568238,-0.485389,-0.664457
-0.296145,0.564964,0.543510,-0.442483,0.640142,0.628034
0.370521,-0.076296,0.692416,0.951512,0.156123,-0.265049
-0.128292,0.419824,0.528415,0.481278,0.199659,0.853527
-0.850137,0.507800,-0.693413,0.940330,0.155495,-0.302657
0.160122,0.902958,0.225523,-0.365977,-0.686908,0.627868
0.107269,0.235113,0.769859,-0.191407,-0.601416,0.775669
-0.207622,0.224434,0.739596,-0.690828,0.498822,-0.523387
-0.897430,0.098272,0.034759,0.473204,0.088282,0.876518
-0.572735,0.013677,0.016772,-0.135096,0.143109,0.980443
0.330605,0.035498,0.472970,-0.011801,0.938593,0.344825
0.154263,0.087208,0.870078,0.872286,0.383160,-0.303818
0.386388,-0.086977,0.504448,-0.540900,-0.050167,-0.839589
-0.324240,-0.788781,-0.368619,0.778495,0.021906,-0.627268
0.860342,0.255245,0.509723,-0.702897,-0.599223,0.383232
-0.640142,-0.088666,0.211862,-0.298959,0.693874,0.655105
-0.470973,-0.170802,0.445625,0.688167,-0.325323,-0.648530
0.644586,-0.109027,0.510063,-0.229480,0.632382,0.739886
-0.220152,-0.126776,0.674259,0.422499,0.899647,-0.110135
-0.862565,0.106954,0.150365,-0.435926,-0.682928,0.586156
-0.644891,0.833654,0.150292,0.916274,-0.172493,0.361509
0.216917,0.320016,0.793899,0.809844,0.123735,0.573448
-0.375576,0.324549,-0.955226,0.082021,0.147550,0.985648
0.269869,0.103111,0.792003,-0.434724,-0.292246,0.851826
-0.512810,0.046639,-0.945552,-0.220609,-0.020282,0.975151
