0.323748,0.203308,-0.396254,0.638081,-0.746810,0.187422
0.323222,0.401898,0.905566,-0.610803,-0.791743,-0.007927
0.198774,-0.007308,0.842480,-0.350324,-0.828519,-0.436841
0.278640,0.290459,-0.971555,-0.559218,0.074374,-0.825678
0.324665,0.195006,-0.960049,0.262100,0.687699,-0.677033
0.324149,0.441882,-0.973663,-0.234454,-0.963147,0.131833
0.164437,0.318584,-0.442606,-0.767275,0.638300,0.062149
-0.115794,-0.167768,0.120208,-0.775544,0.421658,-0.469826
-0.056272,0.132921,-0.598806,0.311203,0.625965,-0.715067
0.175893,0.359173,-0.286261,-0.024789,-0.978446,0.205011
0.362134,0.612925,-0.985921,0.312859,0.345480,0.884739
0.197460,0.667722,0.094897,0.078019,-0.064777,0.994845
0.075693,0.396832,0.030356,-0.302772,0.878007,-0.370719
0.432185,-0.087993,-0.930061,0.180960,0.319422,-0.930174
0.659062,0.568849,0.665783,-0.697290,-0.138355,0.703310
-0.035345,-0.142891,-0.102873,0.969740,-0.099455,0.222963
0.218301,0.203410,-0.974171,0.959082,0.168026,0.227879
0.295696,0.354036,-0.399874,-0.243541,-0.918948,-0.310197
0.351741,0.417453,0.061586,0.311140,-0.117027,-0.943131
0.510023,0.357634,-0.956091,-0.295862,-0.141919,0.944629
0.483179,0.022076,-0.936750,-0.331336,-0.076719,-0.940388
0.130058,0.269111,0.323972,0.419293,-0.434553,-0.797093
0.534281,-0.163522,0.932098,0.523337,0.833655,0.176459
0.466066,0.008976,-0.943297,-0.679283,0.666551,-0.307059
0.238798,0.042731,-0.112287,0.974645,0.095379,-0.202411
0.543560,-0.099439,0.961816,-0.552924,-0.807854,-0.204076
-0.046804,0.097424,-0.963055,0.447182,0.807685,-0.384283
0.293768,0.765871,0.743443,0.967304,-0.142427,0.209850
0.416781,0.066487,-0.962645,0.185977,0.427234,0.884807
0.321552,0.269797,-0.557445,-0.468336,0.882556,-0.041900
-0.325480,0.039353,-0.217052,0.723952,-0.009931,0.689779
0.547814,0.537653,0.670709,0.827461,-0.032721,-0.560569
0.395713,0.170044,-0.951053,-0.238447,-0.299704,0.923754
0.192508,0.636437,0.698180,0.458529,-0.364545,0.810468
0.015011,-0.018852,0.065257,0.628029,0.663914,0.405954
-0.083476,0.253153,0.814490,-0.366028,0.514857,-0.775207
0.058402,-0.029157,0.647105,0.842997,-0.447325,-0.298757
0.245909,0.027101,-0.946932,-0.495789,0.600021,0.627828
-0.340159,0.161078,-0.155635,-0.331681,-0.086784,0.939392
0.083694,-0.920343,-0.130656,-0.562457,0.047122,0.825483
-0.288809,0.204539,-0.037392,-0.065057,0.509655,0.857916
-0.249254,0.426798,0.233005,0.183956,0.668209,0.720873
0.297502,0.416059,0.687658,0.381232,-0.539825,0.750500
0.311275,0.155663,-0.965977,0.995808,0.081001,-0.042485
0.439994,0.045910,-0.959949,-0.415392,0.188419,0.889915
0.339940,0.305760,0.121842,0.961423,0.102007,0.255462
0.437303,0.516439,0.803485,-0.611414,0.486812,-0.623848
0.378910,-0.133299,-0.933346,0.602331,0.115377,-0.789865
0.144889,0.185929,-0.971011,-0.900699,0.387883,0.195674
0.216105,0.272792,0.763804,0.893454,0.447472,0.038841
0.252371,0.261989,0.604061,0.939560,0.327735,-0.099078
-0.494884,0.304422,0.234862,-0.240861,0.333073,-0.911619
0.173146,0.234445,0.370776,-0.266453,-0.023872,0.963552
0.027036,0.293780,-0.964690,-0.721164,0.562220,0.404761
-0.248578,0.607868,0.088354,-0.036700,0.896692,0.441132
-0.029299,0.372873,0.480300,0.247195,-0.124732,0.960904
0.034072,-0.014171,0.053852,0.785543,-0.012211,0.618687
0.295193,0.675828,0.614379,-0.646540,0.413755,-0.640931
0.088456,0.231115,0.309401,-0.707260,-0.535922,-0.461053
0.465268,0.005557,0.262948,0.866762,0.473775,0.155759
0.464835,0.326796,-0.956955,-0.255187,-0.030456,0.966412
0.417644,0.022584,-0.451011,0.902610,-0.245224,0.353779
0.296613,0.053468,0.512160,0.442895,-0.894382,0.062650
0.342685,0.092324,-0.970340,-0.344550,0.422984,0.838075
-0.266823,0.189394,0.768763,0.345470,-0.469948,0.812280
0.511081,-0.059059,-0.931254,0.390095,-0.460398,-0.797408
0.168857,0.246816,-0.974968,-0.252619,-0.564563,-0.785781
-0.073702,0.286014,0.742644,0.654775,-0.048770,0.754249
0.539870,0.536229,-0.925503,0.008150,-0.665922,0.745977
0.233306,0.074308,0.046379,-0.779038,0.626646,0.020374
0.320847,0.170761,-0.399890,0.751122,-0.595851,-0.284214
0.439069,0.292044,-0.961813,-0.644402,0.399248,0.652186
0.461231,0.677818,-0.956816,-0.164551,-0.816298,0.553697
0.043769,-0.006059,-0.021052,-0.551711,-0.762834,-0.337194
0.100541,0.384658,-0.265994,-0.128050,-0.599199,0.790293
0.150386,-0.839488,-0.122069,0.059191,-0.155254,0.986100
0.328863,0.419654,-0.649208,0.830860,0.101809,0.547089
0.084705,0.274353,0.377583,0.863000,-0.504903,0.017409
0.377036,0.166142,-0.948689,0.210904,0.661997,0.719221
-0.140102,0.462218,0.702801,0.907161,0.410393,0.092930
0.647200,0.557685,0.641324,0.394333,0.246704,-0.885234
0.593020,-0.156386,0.188992,-0.715022,-0.695341,0.072423
0.140888,-0.031486,0.678129,-0.537898,0.674347,0.505887
0.212989,0.419665,0.045613,-0.058166,0.436629,0.897759
-0.067055,-0.119055,0.125844,-0.637224,0.754243,-0.158313
0.340712,0.304739,-0.955361,0.675415,-0.018445,-0.737207
0.480650,0.302836,-0.881554,-0.481310,-0.875455,-0.043809
-0.422011,0.622556,-0.180854,-0.532132,-0.042413,-0.845598
-0.370698,0.493879,0.860736,-0.083825,0.994600,-0.061192
0.275487,0.162957,0.081037,-0.633852,0.374130,0.676948
0.196543,0.278039,-0.983961,0.301282,0.269482,0.914663
0.772246,0.678801,0.710352,-0.647037,0.748877,-0.143269
0.477350,0.580420,-0.959341,-0.055386,-0.061131,0.996592
0.574252,-0.200584,-0.917825,-0.747341,0.321335,-0.581572
-0.266039,0.589355,0.540196,-0.624087,0.718959,0.305963
-0.077633,0.548569,0.603438,0.743736,0.668421,-0.008403
0.335691,0.524066,0.588254,0.543404,0.364772,-0.756077
-0.288121,-0.144761,0.211334,-0.483866,-0.277125,-0.830106
0.568287,0.438722,0.686389,-0.201073,-0.828059,0.523343
-0.096944,0.543921,0.881127,0.884321,0.440124,-0.155780
-0.632194,0.361148,0.251829,0.161098,-0.112143,0.980546
0.393947,0.558228,-0.973226,-0.099055,0.608211,0.787571
0.147195,-0.247509,-0.775587,0.097138,-0.940988,0.324199
-0.220143,-0.335465,-0.732248,0.302981,-0.776632,0.552309
0.337744,0.316858,-0.644238,-0.279224,-0.950041,-0.139483
0.340985,0.094308,-0.957310,0.054341,0.340812,0.938560
0.242136,0.714082,0.755930,-0.736022,0.583182,-0.343760
0.138043,0.555361,0.686229,0.187369,-0.867671,0.460477
0.293460,0.646852,-0.961460,-0.642856,0.577501,-0.503218
0.194655,0.460858,0.511897,-0.558826,-0.709982,0.428531
0.127687,0.008222,0.305248,0.142468,-0.984890,0.098462
0.272855,0.636696,0.615983,-0.739742,-0.672889,0.001477
0.302302,0.499725,-0.957791,0.061397,-0.998113,0.001286
0.405407,0.135956,-0.944327,0.769748,0.237754,-0.592419
-0.028096,0.277572,-0.990507,0.891439,-0.372917,0.257429
-0.097310,0.347726,0.736978,0.968809,0.171092,-0.179265
-0.246243,-0.073990,-0.173490,-0.117070,-0.799429,0.589244
0.352279,0.203934,0.786236,0.629925,0.581141,-0.515238
0.228546,0.258019,0.249271,-0.558650,0.039045,-0.828484
0.231684,0.525216,0.487969,0.615695,-0.289080,-0.733043
0.084644,-0.042351,0.912464,-0.582047,0.662215,0.471903
-0.371125,0.050333,-0.144553,0.016357,-0.067670,0.997574
0.399933,0.370654,-0.766743,0.912904,0.386195,0.132136
0.301303,0.627414,0.906109,-0.315707,-0.183986,-0.930848
0.761040,0.670793,0.711563,-0.647037,0.748877,-0.143269
0.320949,0.043677,-0.952397,0.755274,-0.203155,-0.623129
0.004903,0.857238,0.759178,-0.469460,-0.666180,0.579492
-0.145369,0.759588,0.643761,0.411605,0.565014,-0.715081
-0.233009,0.477987,0.798374,-0.561615,0.782803,0.267970
-0.024012,0.225050,-0.972923,-0.329947,0.422410,-0.844218
0.256314,0.282425,0.277481,-0.620633,-0.627166,-0.470615
0.323236,0.153516,-0.969780,-0.437618,-0.006751,0.899136
0.344727,0.031028,0.837954,0.882097,0.045012,0.468912
-0.000727,-0.592941,0.041906,0.846534,0.279955,0.452776
0.144225,0.201225,0.691132,0.661667,-0.463658,0.589253
0.183193,-0.056952,-0.433478,0.773053,-0.296338,0.560869
0.029576,0.720365,0.871957,0.139966,-0.731617,0.667193
0.195806,0.118535,0.413222,0.910244,0.219692,0.350987
0.385900,0.046356,0.813144,-0.742267,-0.550139,-0.382605
0.377479,-0.212645,-0.935770,-0.703656,0.494068,0.510652
0.300390,0.349978,-0.961744,-0.651803,0.155927,0.742186
0.165188,-0.286655,-0.125047,0.377655,0.868554,0.320923
0.150723,-0.229944,-0.137527,0.546226,0.724116,0.421062
-0.381458,0.682898,-0.225444,0.902439,-0.190469,-0.386427
0.047684,0.681051,0.744614,-0.589769,0.654501,0.473076
0.357591,-0.048227,-0.941141,-0.352895,0.787975,-0.504540
-0.115415,-0.419817,0.142339,0.807042,0.156459,-0.569389
0.183569,0.595994,0.559624,0.730754,-0.174774,-0.659888
0.332312,0.294204,0.240021,-0.831268,-0.204539,-0.516872
0.296038,-0.010928,-0.206491,0.288776,0.896894,-0.334948
0.210568,0.001844,-0.099185,0.966295,0.068932,-0.248037
0.300379,0.281904,-0.063956,-0.474931,-0.826698,-0.301681
-0.349184,0.352363,-0.564598,-0.569139,-0.807164,0.156741
0.395592,-0.218605,-0.931761,0.521640,-0.700702,-0.486732
0.031712,0.467659,0.511265,0.017811,-0.938746,0.344148
0.388649,0.662755,-0.951748,0.938602,-0.089964,-0.333067
0.231551,0.334625,0.262277,0.996825,0.071244,0.035546
-0.401609,0.476769,-0.182067,-0.658535,0.178076,-0.731177
0.409498,0.035983,-0.942313,-0.723190,-0.345533,0.597999
0.368667,0.417379,-0.951572,-0.014392,0.155830,0.987679
0.189748,0.271296,-0.959450,-0.646622,0.698596,-0.306340
0.005824,0.013634,-0.338998,0.431071,0.588174,0.684273
0.448447,0.093910,0.591238,0.271188,0.858439,-0.435360
0.283383,0.214648,0.781868,-0.326088,-0.580420,0.746177
-0.070806,0.031211,0.173498,0.061554,0.996761,-0.051756
0.453822,0.719597,0.880710,-0.407276,0.608752,-0.680843
-0.193026,0.567732,0.598212,0.414184,0.545041,-0.728959
0.262175,0.374498,-0.099540,0.349180,-0.820050,-0.453423
0.095876,0.537572,0.852909,-0.472012,-0.641679,0.604527
0.513887,0.528311,-0.932321,-0.003589,-0.717825,0.696215
-0.245938,0.278744,-0.023365,-0.741608,0.461152,0.487193
0.380282,0.354972,-0.938405,0.198614,-0.951519,0.234870
0.196583,0.443810,0.607509,0.169276,0.974561,0.146889
0.536329,0.666434,0.663561,-0.431317,-0.804201,0.408934
0.408808,0.211273,0.154693,0.829843,0.521573,0.198297
0.289222,0.669107,0.086976,0.377789,0.762210,0.525653
0.236053,0.384230,0.619893,-0.063133,0.721664,0.689359
0.316336,0.060693,0.563670,0.322526,0.567175,0.757819
0.247921,0.740440,0.734288,-0.724864,0.667624,-0.169855
0.296208,0.033974,0.005924,0.681931,-0.491033,0.542086
0.272858,0.253654,-0.113583,0.899851,0.351077,-0.258868
0.018164,0.755848,0.677197,-0.463817,0.144296,-0.874101
0.356451,-0.118189,-0.942124,-0.115399,0.770897,0.626419
0.255256,0.294004,0.121277,0.981153,-0.184569,0.057218
0.217461,0.373823,0.704345,-0.754973,-0.247471,-0.607268
0.478909,0.535225,-0.504676,-0.772927,0.611058,-0.170856
0.377300,0.364150,-0.970963,-0.055155,-0.137358,0.988985
0.688375,0.665370,0.678652,-0.493872,-0.680409,0.541419
0.284263,0.495584,-0.014573,-0.726591,-0.643002,0.242101
0.047961,0.313595,-0.968016,-0.594742,-0.322864,0.736234
0.363278,0.281803,0.603128,-0.181950,0.888496,-0.421271
0.366701,0.264034,-0.567742,-0.691507,0.722165,-0.017199
0.400911,-0.383878,0.850170,0.897014,0.111475,0.427714
-0.277297,0.186459,0.719079,0.929910,0.232230,0.285196
-0.202132,0.297425,-0.265646,0.700815,-0.622359,0.348609
0.030576,0.886590,0.756426,-0.466854,-0.688412,0.555100
-0.211358,0.481644,-0.356376,0.750968,0.616222,-0.237312
0.372140,0.559581,0.898280,0.967367,0.102209,-0.231850
0.092768,0.338966,0.687333,0.922604,0.349731,0.162756
-0.384814,0.694622,0.121164,0.959527,-0.279165,0.037071
-0.166806,0.001369,0.910054,-0.719991,-0.502283,-0.478879
0.262582,0.483128,0.518746,-0.576946,-0.591005,0.563778
0.415802,0.630627,-0.961982,0.145952,0.388598,0.909774
0.313576,0.603778,-0.979854,0.403371,-0.087370,-0.910856
0.355052,0.045130,0.843952,0.949129,0.271243,0.159939
0.292042,0.292620,0.403620,-0.564056,0.824737,-0.040617
-0.062420,0.746432,0.727546,0.560003,0.444350,0.699249
0.363957,0.022427,0.910802,-0.655233,0.518457,-0.549429
0.397824,0.432018,0.571115,0.595816,-0.802623,0.028264
-0.107383,0.116039,-0.971334,-0.571944,-0.034961,0.819547
0.079098,0.091047,-0.958833,-0.753775,0.649519,0.099743
0.460115,0.125750,-0.955785,-0.320111,-0.457503,0.829590
0.383765,0.332863,-0.969757,0.811074,0.564134,-0.154635
0.367872,0.461976,-0.959233,-0.322115,0.391337,0.862031
0.387988,0.655092,-0.957638,0.554821,0.423044,0.716385
0.049828,-0.141509,0.914964,-0.029025,0.978455,0.204408
0.242897,0.091296,0.352352,0.077757,0.694583,-0.715198
0.142001,0.547714,0.673289,0.932308,0.273827,0.236262
0.271141,-0.017086,-0.214048,0.383369,0.906374,-0.177523
-0.146342,0.084546,-0.308552,0.659778,0.295353,0.690985
0.213437,0.245342,-0.966736,0.309413,0.685613,-0.658938
0.276443,0.617614,0.848431,-0.270672,0.962669,0.002379
0.519788,0.482797,0.617401,0.440753,-0.893585,-0.085097
-0.402183,0.340512,-0.578962,-0.521853,-0.742154,0.420568
-0.159349,0.683343,0.577646,-0.056164,-0.993578,-0.098226
-0.337967,0.493345,0.833736,0.444334,0.888160,-0.117216
0.213699,0.011977,0.528118,-0.491351,0.679421,-0.544942
-0.110364,-0.223292,0.167519,-0.316775,-0.939125,0.133036
0.528674,0.588615,-0.960265,0.245417,0.297319,0.922698
0.507918,0.445517,0.088432,-0.661305,0.734286,0.153294
-0.208567,0.328280,0.755090,-0.695150,-0.133517,-0.706356
0.063592,0.250394,-0.950087,-0.083275,-0.512180,0.854831
0.139300,0.023381,0.393750,0.262088,-0.109218,0.958844
0.522109,0.493198,0.669567,0.771497,-0.636232,-0.000925
0.227720,0.492967,-0.984287,0.229234,0.141959,0.962964
-0.171289,0.312748,0.754085,-0.666656,-0.068463,-0.742215
0.206578,0.400411,-0.966306,0.072227,0.086430,0.993636
0.034009,0.731662,0.715800,0.781961,-0.569550,0.253277
-0.303843,0.518334,-0.242896,0.015037,0.649338,0.760351
0.192712,0.287024,0.526826,0.920097,0.367413,0.135752
0.222005,0.088500,-0.518598,-0.593482,0.283302,-0.753339
0.502471,0.053431,0.231394,-0.717620,0.279171,-0.638032
0.136203,0.162189,-0.979874,0.745833,-0.052934,0.664026
-0.200680,0.505195,0.095363,0.962428,0.271538,0.000154
0.072482,0.481228,0.683379,-0.536112,0.312532,-0.784161
0.497930,0.504967,-0.964944,0.191103,-0.000720,0.981570
0.529251,0.184170,-0.943248,0.828903,0.233957,-0.508118
-0.007349,0.196830,0.416127,-0.014078,0.775847,-0.630763
0.273227,0.319704,-0.681047,0.911536,0.387208,-0.138467
-0.074392,0.441621,0.570519,-0.014147,-0.908161,0.418383
0.558028,0.388002,-0.941930,0.997955,-0.061918,0.015867
0.471572,0.020082,-0.940686,0.191374,0.261980,0.945908
0.261020,0.008510,0.915425,0.344956,0.926207,0.152142
0.002231,-0.119025,0.681175,0.417039,-0.739743,-0.528071
0.411455,0.125010,-0.950394,-0.400906,-0.120723,0.908130
0.017384,0.079433,0.904563,-0.104381,0.894962,0.433759
0.244242,0.248068,-0.436915,0.686597,-0.709007,-0.160916
0.463986,-0.101332,-0.926131,-0.316276,0.174188,-0.932539
-0.615380,-0.134485,-0.103843,0.257589,-0.950401,0.174317
0.330346,0.732710,0.607709,0.564579,-0.751178,0.342028
0.308062,-0.107030,-0.465199,0.965694,-0.173269,0.193425
-0.112089,-0.051909,0.066372,-0.007175,0.080952,0.996692
0.340183,0.074190,-0.939908,0.148729,0.074911,0.986037
0.436727,-0.192342,-0.927961,-0.723508,-0.081626,0.685473
0.266816,0.143891,-0.616526,0.971537,-0.173818,0.160942
-0.200466,0.234451,0.481622,0.069631,-0.560003,0.825559
0.582720,0.313148,0.177482,0.758107,-0.573902,-0.309693
0.146361,0.309276,-0.977414,-0.444460,0.339888,-0.828813
0.231201,-0.094923,-0.189421,-0.232521,-0.811969,-0.535388
-0.076696,0.145591,0.790769,0.289779,-0.924822,-0.246438
0.576760,0.320827,-0.932678,0.910802,-0.247611,-0.330347
-0.294391,0.098464,-0.159868,0.375677,-0.251312,-0.892026
0.162970,0.421038,0.672596,-0.222954,0.466698,-0.855853
0.506099,0.133118,0.532632,0.009478,-0.589015,0.808066
0.128416,0.532129,0.833999,-0.686226,-0.671084,0.280607
-0.012634,0.132158,0.540193,0.500276,0.854657,-0.138871
-0.083176,-0.001309,0.937498,0.536885,0.141721,0.831667
0.259290,0.131185,0.774296,-0.078146,-0.725026,0.684274
0.228578,0.045081,-0.507697,-0.623532,-0.026632,-0.781344
0.136552,0.085313,-0.972525,-0.702544,0.263721,0.660972
-0.633698,0.735611,-0.572542,-0.778986,0.258513,-0.571273
-0.045137,0.477049,0.886580,0.813485,-0.452563,0.365281
0.308994,0.357848,-0.427802,0.660896,0.747721,-0.064262
0.308249,0.346985,0.205970,-0.287896,-0.187908,0.939046
0.285004,0.439226,0.809703,0.019266,-0.550656,0.834510
0.227159,0.264986,0.617166,-0.486758,-0.836186,-0.252704
0.358686,0.299979,-0.478460,0.861239,0.508149,-0.007209
0.540144,0.405919,0.110563,0.740852,-0.645297,-0.186361
-0.143431,0.707753,0.764010,-0.324335,0.719848,0.613698
0.170917,0.305819,0.634138,0.332043,0.452476,0.827655
0.245637,0.259762,-0.961363,-0.057610,0.259729,-0.963962
0.094722,0.120712,-0.954915,-0.634259,0.577183,0.514368
-0.120644,0.791963,0.665374,-0.239616,-0.788019,0.567107
0.552791,0.339549,0.649440,-0.310650,0.685124,-0.658864
0.629979,0.102742,0.627455,-0.039256,-0.511874,0.858163
0.047256,0.790153,0.707010,0.233254,0.952452,0.196029
-0.557895,0.263689,-0.288656,-0.665054,0.441677,-0.602183
0.001528,0.609908,0.082491,-0.270721,0.528921,-0.804334
0.353854,0.324797,-0.532010,0.885249,0.462130,-0.052635
0.222517,0.708348,0.761161,-0.476868,0.673644,-0.564624
-0.112267,0.762169,0.726753,-0.689004,0.020333,-0.724472
0.256783,0.328614,-0.958251,0.103611,0.354941,0.929130
-0.062830,0.076035,-0.993279,0.343828,-0.484281,0.804521
0.242071,0.179191,0.777154,0.383006,-0.315023,-0.868370
0.105870,0.618022,0.564709,0.907343,0.268697,-0.323313
-0.237518,0.545255,0.103741,0.658694,0.041938,0.751241
-0.251917,0.822907,0.645515,0.258082,0.705362,-0.660196
0.458680,0.687219,-0.940262,0.002884,0.582026,0.813165
0.164804,-0.489557,-0.085324,0.858853,-0.135491,0.493977
-0.002985,-0.159645,-0.119874,-0.229192,0.938120,-0.259618
0.306252,0.148872,-0.944289,0.603456,0.367081,-0.707879
0.451901,0.108499,0.117519,0.980602,-0.143203,-0.133840
0.534895,0.046898,0.613586,-0.667705,0.710864,0.221000
0.187312,0.381080,0.097887,0.697635,0.716059,0.023763
0.313541,0.198324,-0.185733,0.953946,-0.198801,-0.224644
0.120026,0.529432,0.803930,0.971154,-0.028934,0.236690
-0.221168,0.371601,0.029947,0.852479,0.488494,-0.186152
0.252066,0.310009,0.171816,0.840879,-0.307403,-0.445451
0.416187,0.559670,0.662674,0.156503,0.787705,0.595842
0.122228,0.196732,-0.460834,-0.747516,0.650892,0.132511
0.420496,0.475670,0.599126,-0.640984,0.729992,-0.237173
0.158767,0.242098,-0.955246,0.892263,-0.315935,0.322572
0.176918,0.592144,0.845025,0.662324,0.434064,-0.610668
-0.226970,0.568411,0.579181,0.354541,-0.915038,0.192370
0.320587,0.235963,-0.272840,0.161678,0.984521,0.067665
0.323328,0.403426,-0.491769,-0.378296,-0.347184,-0.858112
0.172453,0.485022,-0.972048,-0.274385,0.641604,0.716280
-0.236613,0.441551,0.195905,0.762766,0.575150,-0.295619
-0.001845,0.659571,0.521524,0.268290,0.037672,0.962601
-0.513709,0.406125,-0.167147,-0.335070,0.897252,0.287518
0.255826,0.612025,0.479429,-0.622984,-0.008771,0.782185
-0.102352,-0.487886,0.094504,0.754322,0.261358,0.602237
0.097351,0.792425,0.111095,0.249618,-0.073036,0.965586
0.267673,0.497626,0.706488,-0.740726,0.194755,-0.642958
0.207596,0.318727,-0.978605,-0.027823,-0.563912,0.825366
0.323569,-0.110754,-0.271982,0.166336,0.985560,0.031666
0.505558,0.147370,0.461821,-0.010012,-0.619029,0.785304
0.433810,0.500437,-0.949510,-0.060019,-0.084655,0.994601
-0.010690,-0.094414,-0.087329,0.781922,-0.462160,-0.418337
-0.054299,-0.462946,-0.269300,0.976514,0.168275,0.134548
0.261284,0.153140,0.781446,0.088299,-0.679923,0.727948
-0.007032,0.240574,0.159562,-0.665983,0.254562,-0.701189
0.134239,0.549771,0.471319,0.072330,-0.260991,0.962628
0.196644,0.494429,0.731129,0.950699,-0.000320,-0.310115
0.130994,-0.000251,0.355801,0.893806,0.060079,0.444410
0.374704,-0.288734,0.796376,0.225789,-0.921042,-0.317334
-0.314383,0.238245,0.255202,-0.053715,-0.229967,0.971715
0.140601,0.579408,0.640312,0.853469,0.212521,0.475841
0.221040,0.295231,0.763249,0.914565,0.385935,-0.120937
0.401141,0.677515,-0.966649,0.388477,0.727329,0.565755
-0.042711,0.583873,0.578347,-0.026418,0.998488,0.048202
0.243512,0.404100,-0.645669,0.931227,-0.303766,0.201353
0.093241,0.380246,0.786809,-0.485310,0.096687,0.868980
0.370871,-0.035164,0.136830,-0.794737,0.378711,-0.474311
-0.961281,0.248916,0.194833,0.655403,0.281491,-0.700864
-0.390659,0.592698,0.619117,-0.055415,-0.755521,0.652776
-0.006917,0.202073,0.808607,-0.134654,-0.700245,0.701089
0.074248,0.539534,0.053081,-0.298670,0.739259,-0.603566
0.252430,0.394278,-0.415104,-0.098388,0.966564,0.236797
1.000000,0.475972,0.326707,-0.270652,0.843119,-0.464648
0.290100,0.359323,0.672646,0.335463,0.570938,0.749329
0.361096,0.505869,-0.971471,0.829292,0.306519,0.467248
0.007529,-0.063224,0.160684,0.786253,-0.427047,0.446585
0.241340,0.131665,0.093180,-0.517479,-0.490230,0.701348
0.337787,-0.084400,-0.182852,-0.400071,0.810380,0.428051
0.395978,0.526927,-0.959925,0.883411,0.188981,-0.428802
0.256939,0.175641,0.738851,0.724218,-0.278217,0.630954
0.226020,-0.202155,-0.505960,-0.619534,0.771854,0.142898
0.165125,0.206762,-0.970075,-0.805775,0.442133,0.394011
0.409277,-0.034608,0.047977,-0.109276,-0.760879,0.639626
-0.022317,0.044622,-0.972047,0.145382,0.148699,0.978137
0.219252,0.265419,0.158304,0.225996,-0.973378,0.038233
0.289256,0.116699,0.729633,0.909948,-0.403950,0.093905
0.000226,-0.651728,0.050149,0.529142,0.585747,0.613929
0.296202,0.088582,-0.062230,0.983949,-0.081033,-0.158993
0.272187,0.636887,0.577636,0.714949,0.638743,0.284352
0.297833,0.449229,-0.969120,0.408790,0.506614,0.759100
0.299692,0.362281,0.663493,-0.615878,0.688788,-0.382446
-0.215145,0.034243,0.150804,-0.184523,0.710301,-0.679282
0.004220,0.024597,0.188756,-0.138230,-0.980860,0.137132
0.372434,0.526075,-0.959129,0.405840,-0.694262,-0.594386
0.487934,0.065936,-0.944491,-0.163523,-0.525173,0.835137
0.274424,0.638548,-0.976065,0.352803,-0.832252,0.427653
0.276756,0.386562,-0.213848,0.060959,-0.701780,0.709781
0.505036,-0.056158,-0.940952,0.387999,-0.650425,-0.652996
0.176281,0.920517,0.796794,0.965049,0.134757,0.224770
0.234866,0.256357,-0.952219,0.292190,0.621906,0.726538
0.416115,0.466777,-0.963179,0.654078,0.715338,-0.245914
-0.036200,0.668390,0.528158,-0.626470,-0.136846,0.767338
0.054909,0.056893,0.150352,0.352836,0.020716,-0.935456
0.249508,0.332806,-0.972184,0.516506,0.169014,-0.839438
0.199117,0.257586,-0.532688,-0.398171,0.716592,-0.572675
0.482582,0.096194,-0.955724,-0.570776,-0.524779,0.631523
0.304078,0.280832,-0.280745,-0.234141,-0.972010,0.019331
0.230689,0.151810,0.671198,-0.726538,0.008421,0.687075
0.354360,0.309496,-0.056492,0.904679,0.425797,-0.015919
-0.040535,-0.400204,-0.162525,-0.702248,0.645805,-0.299640
0.415124,0.430153,0.776163,0.294789,-0.823303,0.485047
-0.284232,0.389981,0.172091,0.175184,0.251988,0.951742
0.045002,-0.473757,0.098151,0.855510,-0.467751,-0.222060
0.102551,-0.847165,-0.136314,-0.292326,0.073880,0.953461
0.296933,0.628959,0.632534,-0.688269,-0.098989,0.718671
-0.080631,0.302597,0.834809,0.550683,0.789214,0.271826
0.837046,0.261783,0.573168,-0.059143,0.357010,0.932226
-0.773853,0.698113,-0.532523,-0.371065,0.449431,-0.812602
-0.127194,0.453380,-0.253875,0.304704,-0.178909,0.935493
0.101720,-0.062687,0.683008,-0.486885,0.867914,-0.098329
0.347018,0.243080,-0.968417,-0.342418,0.795211,-0.500389
0.044841,0.702097,0.101333,0.072903,-0.166237,0.983387
-0.163085,0.103913,0.090565,-0.340384,-0.930850,0.132879
0.286748,0.423130,-0.640034,0.989497,-0.107072,0.097114
0.138183,0.608264,0.843011,-0.430474,-0.682481,0.590688
0.302225,0.118571,-0.018675,0.974369,0.224026,0.020434
0.097174,0.239159,-0.953440,-0.545849,0.009886,0.837825
0.300509,0.015661,-0.965095,0.164276,-0.014930,-0.986301
0.349501,-0.264736,0.797525,0.307898,0.890686,-0.334481
0.466280,-0.170467,-0.923342,0.238802,-0.345386,0.907569
0.058392,0.103548,0.107140,0.939779,0.038956,-0.339554
0.403205,-0.011333,-0.935311,-0.443927,0.348184,0.825649
0.176759,0.668833,0.650662,0.494515,-0.805281,0.327074
-0.033409,0.223776,-0.356471,-0.281386,-0.895626,-0.344495
0.150570,0.249963,-0.103614,0.206231,-0.977619,-0.041597
-0.398676,0.392832,-0.556409,0.677817,0.713249,-0.178438
-0.062923,0.144178,0.540785,0.396436,0.710005,-0.582006
-0.348538,-0.107861,-0.131754,-0.016200,-0.437564,0.899042
-0.138125,-0.227767,-0.257327,0.600992,0.286278,0.746226
0.355777,0.385022,0.496673,-0.110606,-0.993669,-0.019687
0.396424,0.240394,-0.968515,-0.638706,0.738820,0.214942
0.053626,0.347382,-0.962186,0.842559,-0.534923,-0.062869
0.149564,-0.252281,-0.814609,-0.345660,-0.905313,-0.246834
-0.059217,0.140431,-0.975517,-0.020748,-0.861260,0.507740
-0.164617,-0.737103,0.085725,0.152823,-0.961375,0.228918
-0.108682,0.045128,-0.971710,-0.662308,0.150511,0.733959
0.243384,0.102560,0.758141,-0.262066,-0.025495,0.964713
-0.711135,0.639565,-0.546047,0.790180,0.345764,0.506026
0.236855,0.331278,0.625117,-0.584182,-0.572326,-0.575477
0.303546,0.547205,0.914461,-0.280239,-0.896486,-0.343189
0.189205,-0.769268,-0.018308,0.733173,0.427971,0.528486
0.203043,0.007270,0.233399,0.845622,-0.527498,0.081671
0.458119,0.270011,-0.940169,0.590595,-0.281555,0.756257
0.166747,0.256037,-0.489723,-0.636107,-0.121235,-0.762017
0.303584,0.508247,0.901641,0.488928,-0.475377,0.731414
0.033358,-0.431469,0.039983,0.888347,-0.454462,-0.065606
0.368826,0.440595,-0.565862,0.184371,-0.949527,0.253784
0.272320,0.559811,-0.968442,-0.232834,0.773272,0.589778
-0.613680,0.826448,-0.533736,-0.637092,0.629305,-0.445071
0.303521,0.395871,0.666305,0.877362,0.140554,0.458782
0.052778,-0.652277,0.040139,0.851952,0.412057,0.323090
-0.262010,-0.156490,-0.244423,0.367309,-0.742570,0.560066
-0.016193,0.061120,-0.981479,-0.405673,0.050314,-0.912632
-0.021823,0.682568,0.721224,0.085954,0.444157,0.891816
0.344938,0.124394,-0.466242,0.965597,0.116038,0.232720
0.395726,-0.028994,-0.279952,0.843555,-0.207296,-0.495423
0.388247,0.529957,0.830382,0.898796,0.222426,-0.377746
0.177186,0.403959,0.632356,0.991173,0.062660,0.116834
0.137049,0.599388,0.577523,-0.475059,-0.588682,-0.654044
0.200015,0.640910,0.741484,0.881025,-0.324418,-0.344307
0.199113,0.179137,-0.966088,0.151981,0.329321,0.931906
0.128955,0.698879,0.895257,-0.133218,-0.908067,0.397072
-0.033082,0.723706,0.114329,-0.311508,0.354883,-0.881488
-0.140567,0.389143,0.910854,0.877429,-0.191483,0.439832
0.178912,0.392581,0.046510,-0.480772,-0.870453,0.105688
-0.196463,0.344615,0.716295,-0.032375,-0.205410,0.978140
0.166918,0.432872,0.564980,0.914459,0.352176,-0.199341
0.208912,0.466530,0.665156,0.229007,0.379560,0.896376
0.313325,0.396677,0.393124,0.885499,-0.241725,-0.396814
0.450159,-0.010213,-0.934191,-0.579576,0.016775,-0.814745
0.225839,-0.528485,-0.130147,0.962985,-0.173077,0.206650
0.030849,-0.064921,0.130080,0.737457,-0.658443,0.150363
0.419784,0.012977,-0.462565,0.952544,-0.292037,-0.085873
0.283199,-0.137305,-0.494596,0.968854,0.040411,-0.244313
0.258681,0.075464,-0.076961,-0.717179,0.161274,0.677972
0.332781,-0.012792,-0.206393,-0.053044,-0.991722,0.116937
0.167378,0.013136,0.356148,0.539162,0.186638,0.821262
-0.138893,0.437288,0.543992,-0.541769,0.638922,-0.546137
0.297413,0.523579,-0.952336,0.077396,-0.995296,-0.058273
0.083537,-0.042404,0.968404,-0.807921,0.580620,-0.100717
-0.235645,0.709743,0.573816,0.884419,-0.451594,0.117756
0.254383,0.170821,-0.232537,0.846983,0.345792,0.403792
0.102732,0.519467,0.608502,-0.538935,0.829235,0.148048
0.382752,0.200563,0.152196,0.665298,0.710255,0.230036
0.041984,0.073790,0.521276,-0.516073,-0.836666,0.183464
0.116168,0.358201,0.752885,0.059277,-0.520354,0.851891
0.262800,0.354439,0.802897,0.389369,0.332575,-0.858944
-0.322354,-0.147092,0.214981,-0.473874,-0.303884,-0.826497
0.291362,0.195443,0.609355,0.779213,-0.625339,-0.042180
0.549749,0.570817,0.676749,0.793774,-0.341530,-0.503269
0.116185,0.647578,0.552771,0.453117,-0.887933,0.079125
-0.400834,0.430653,0.191213,-0.413333,0.266770,-0.870626
-0.409339,0.057270,-0.266591,0.151473,0.652002,0.742933
0.269846,0.364274,-0.402948,-0.570252,-0.710264,-0.412720
0.004602,0.345615,0.694816,-0.520044,-0.009652,-0.854085
0.459135,0.167687,-0.954476,0.664469,-0.534080,-0.522723
-0.346334,-0.100278,-0.431689,0.707378,-0.675775,-0.207229
-0.733899,0.430814,-0.236767,0.731210,0.379936,-0.566552
0.239097,0.157021,0.600447,-0.511101,0.461143,0.725343
0.117063,0.094650,0.428161,-0.717996,-0.696037,-0.003776
0.094295,0.437060,0.602818,0.106906,-0.146484,0.983419
0.069174,0.199977,-0.964056,0.159777,-0.142941,0.976749
-0.507888,-0.489028,-0.199277,-0.344400,-0.290952,-0.892600
-0.162101,0.473045,0.548518,0.979118,-0.196319,-0.052797
-0.161867,0.203994,-0.331778,0.577208,-0.739649,0.346049
-0.260592,0.810353,0.644938,0.250032,0.633801,-0.731970
0.335009,0.147720,-0.228089,0.881474,0.264717,0.391059
-0.152110,0.025995,0.166932,0.411740,0.597946,-0.687700
0.211704,0.272956,-0.974512,0.998530,-0.052815,-0.012185
0.095550,0.682121,0.911585,-0.160838,0.093938,0.982500
-0.101836,-0.139033,0.061051,-0.243844,-0.066444,0.967536
0.221599,-0.057699,-0.938900,-0.593066,-0.036749,0.804315
0.176234,0.295461,0.678664,-0.161069,0.652881,0.740137
0.520512,0.240103,0.517547,0.371604,0.886386,0.276097
0.122983,0.577159,0.552590,0.362092,0.865427,-0.346304
-0.201046,0.507177,0.806840,-0.042570,-0.927336,0.371800
-0.075380,0.602146,0.564965,-0.184460,-0.189854,0.964329
0.540928,0.374772,-0.956024,0.644495,0.125987,-0.754157
0.151217,0.073093,0.865399,0.677836,0.353707,0.644539
0.501855,0.122704,-0.948880,-0.177436,0.735794,-0.653547
0.254219,0.271724,0.545151,-0.244745,-0.191745,-0.950439
0.136306,0.535754,0.716140,0.817996,0.547297,0.177056
-0.078137,0.324752,0.744575,-0.508719,-0.103179,-0.854728
0.521104,0.555117,0.582909,0.939116,-0.054845,-0.339195
0.177355,0.781690,0.707526,0.233889,0.887857,0.396240
0.387742,0.404388,0.584550,-0.311177,-0.310010,-0.898367
-0.093048,-0.454184,0.079278,-0.373514,-0.872484,0.315053
0.268473,0.344704,0.378383,0.554950,0.822890,0.121996
0.051986,-0.029298,0.159938,-0.482287,0.802856,-0.350459
0.269682,0.583273,0.626691,0.348865,0.659001,0.666341
-0.028796,0.459448,0.056020,-0.418602,-0.513581,0.749004
0.086347,0.282309,0.143964,-0.394138,0.909034,-0.135325
0.194282,0.007065,0.393645,-0.729112,0.354261,-0.585572
0.043799,-0.102590,0.517876,-0.321423,-0.763563,0.560052
0.112046,0.505652,0.091439,0.059635,-0.790878,0.609061
0.250776,0.010734,0.332822,0.288964,-0.922037,0.257580
-0.016998,0.121739,0.539853,0.500276,0.854657,-0.138871
0.076938,0.241944,0.820573,-0.499108,-0.555468,-0.665092
0.288221,-0.067493,-0.962701,0.303195,0.108008,-0.946788
0.160089,0.529102,0.675742,0.974031,-0.136777,0.180430
0.229941,0.080687,-0.967932,-0.701984,-0.497730,0.509395
0.482314,0.082364,0.505277,-0.641430,-0.766441,-0.033683
0.119856,0.598091,0.704212,0.284466,-0.945162,0.160459
-0.071231,0.017685,0.193324,-0.048142,-0.954159,0.295402
0.496842,-0.189426,0.810857,-0.214535,-0.975101,0.056151
0.217782,0.134746,-0.949881,0.948295,-0.314222,-0.044730
-0.487328,0.394465,0.233434,-0.523891,-0.541559,-0.657459
-0.099989,-0.374278,-0.275542,0.784993,-0.108424,0.609943
0.044089,0.413265,0.847702,0.076317,-0.151421,0.985519
0.318428,0.444997,-0.655235,0.862070,-0.078153,0.500727
0.488931,0.534281,0.657523,0.389987,-0.903823,-0.176109
0.168939,0.361794,0.465078,-0.484574,0.213574,-0.848277
0.471893,-0.214169,0.812173,0.063938,0.648688,0.758364
0.488613,0.024658,0.647691,0.828112,-0.105970,0.550455
-0.299069,0.504169,0.104504,0.487822,0.121652,0.864425
0.325339,0.327537,0.297528,-0.628305,0.686558,-0.365884
0.299828,0.197971,0.616951,0.919208,-0.161291,-0.359223
-0.128514,0.495403,0.562393,-0.061682,0.508783,0.858682
0.274795,0.329016,0.643057,0.264047,0.175044,0.948493
0.170855,0.064692,0.238633,0.866789,-0.478016,0.142050
-0.254473,-0.741507,0.277821,-0.323684,0.945639,0.031540
0.445761,-0.049635,0.761553,0.948526,0.316472,-0.012032
0.156737,0.053499,0.462794,0.724989,0.452966,0.518857
0.119767,0.903867,0.781226,0.089452,-0.995820,0.018439
0.301234,0.430597,0.287971,0.904136,0.321131,-0.281804
0.302928,0.662041,0.303051,0.928394,-0.203196,-0.311122
-0.014130,0.232139,0.873509,-0.258134,-0.521184,-0.813470
-0.148815,0.344068,0.720455,-0.126272,-0.257663,0.957948
0.096457,-0.911039,-0.131242,-0.562457,0.047122,0.825483
0.275527,0.022926,-0.047959,0.889942,-0.413916,0.191512
0.337357,0.325262,0.080061,-0.242265,0.892001,-0.381630
0.138141,0.086057,-0.976497,-0.126862,-0.000990,0.991920
0.344204,0.281743,-0.464227,-0.722401,-0.507001,-0.470199
0.497594,0.394613,-0.934182,0.040154,0.682046,0.730206
-0.064713,0.518921,0.083068,-0.292479,0.325676,-0.899106
0.247601,0.282417,0.280345,-0.110240,0.916707,0.384052
0.203499,0.047985,-0.078493,0.981916,0.134249,-0.133488
0.287997,0.290132,0.122295,0.244575,-0.681857,0.689387
-0.025186,0.379909,0.788845,-0.525544,-0.270698,-0.806552
-0.408369,-0.021120,-0.161938,0.661789,-0.144319,-0.735668
0.033143,0.201156,0.720880,0.582108,0.492976,0.646626
-0.691122,0.557568,-0.541958,0.874020,0.296846,0.384671
0.524473,0.354288,0.188276,-0.366559,-0.744977,-0.557355
-0.016466,0.050844,-0.537932,0.716124,0.580041,-0.388226
0.174155,-0.369661,-0.233733,-0.307271,0.930208,0.200741
-0.311077,0.561453,0.593850,-0.126743,-0.962813,0.238593
0.419896,-0.060902,-0.927518,0.275051,0.053556,-0.959937
0.344436,-0.418835,0.829903,0.914653,0.238209,0.326599
0.294674,0.017885,0.660999,-0.180156,-0.833229,0.522755
-0.017749,0.188272,-0.389776,-0.552420,-0.788103,-0.271523
0.369310,0.276807,-0.308239,-0.345034,0.901179,0.262351
0.164380,0.333320,-0.428354,-0.696572,0.545216,0.466398
0.133448,0.269852,-0.949337,0.149673,-0.001621,-0.988734
0.436453,0.282358,-0.881536,0.558565,0.828990,-0.027943
0.527671,0.118052,-0.962141,-0.321913,0.081294,0.943273
0.276867,0.361049,0.413083,0.720554,-0.327586,0.611138
0.042223,0.245791,-0.953571,0.747710,0.657346,0.093950
0.400227,0.432205,-0.977601,-0.129262,-0.218368,0.967268
-0.198148,0.355826,0.172523,-0.595044,-0.781463,-0.187716
0.366892,-0.054256,-0.958575,-0.327491,0.869411,-0.369965
0.235892,0.405051,-0.489008,-0.331758,-0.931846,-0.146966
0.008037,0.060627,-0.970655,0.966848,-0.193231,0.166931
0.268192,-0.774011,-0.027510,0.567165,-0.486513,0.664552
0.277023,0.400884,0.135246,0.527817,0.591885,-0.609164
-0.011288,0.282458,-0.002660,-0.056327,-0.090517,0.994301
0.136316,0.005746,0.322533,-0.299449,0.953981,-0.015824
0.188493,0.038440,0.042446,0.761500,-0.539717,0.358920
0.205220,0.415187,0.703018,0.828945,-0.559329,0.000976
-0.212583,0.573877,-0.255122,-0.330355,-0.869305,-0.367662
-0.560305,0.029019,-0.148164,-0.146685,0.899037,-0.412572
0.245617,0.054448,0.773095,0.146654,-0.480593,0.864594
0.218261,0.192218,0.559067,-0.622780,0.131207,-0.771317
0.514620,0.220345,0.516670,0.310000,0.929008,0.202098
-0.057990,0.106796,-0.973341,-0.476571,0.187941,0.858812
0.385217,0.424681,-0.951458,-0.117155,0.150511,0.981642
-0.072958,0.286428,0.852293,0.778207,-0.506597,-0.371151
-0.342589,0.818851,0.625230,-0.045152,-0.553342,0.831729
0.306506,-0.157990,0.785478,0.255407,0.964836,0.062115
0.494428,0.262704,-0.936239,0.507059,-0.580421,-0.637183
-0.162515,0.072118,0.921581,-0.169654,0.977274,0.127098
0.121800,0.066118,-0.970617,-0.383532,0.664314,0.641553
0.287079,0.250821,0.628348,-0.659953,-0.612442,-0.435174
0.275957,0.149369,0.542357,-0.241286,0.191752,0.951321
-0.083999,0.117974,-0.040798,-0.809673,0.435398,0.393520
0.204149,0.416622,0.805259,-0.218278,-0.973963,-0.061252
0.150907,0.991592,0.898112,-0.488974,-0.168745,-0.855821
0.183503,0.565462,0.132604,0.870530,-0.456208,-0.184533
-0.034939,0.711033,0.739140,0.370495,0.625318,0.686812
0.223605,0.604333,0.501715,-0.123650,-0.445037,0.886935
0.366668,0.550562,-0.961983,-0.247940,-0.188147,0.950330
0.275473,0.378216,0.040862,-0.252344,-0.592757,0.764828
0.200831,0.186392,-0.130422,0.367656,0.818530,0.441404
0.257984,0.381320,0.385000,-0.442872,0.449339,0.775860
0.187926,0.223189,0.254893,-0.664002,-0.455334,0.593104
-0.011360,0.396574,0.725066,-0.331630,0.299759,0.894520
0.358695,0.503734,-0.966375,0.742883,0.298959,0.598956
-0.220688,0.280947,0.788962,-0.070073,0.342516,-0.936895
0.300120,0.285710,0.840696,0.890814,0.454230,-0.011244
0.186332,0.881468,0.747893,0.758703,0.498078,0.419867
0.469549,0.126809,-0.938653,0.778597,0.204471,-0.593278
0.508959,0.659255,-0.947668,0.780555,0.594170,-0.194154
0.439631,0.146938,0.492846,-0.458982,-0.779832,0.425673
0.339806,0.096874,0.905200,0.493796,0.025215,0.869212
0.303051,0.349790,-0.948932,0.585359,0.143705,-0.797937
0.410896,0.664296,-0.960469,0.594569,0.802037,0.056783
0.080947,-0.588039,0.165226,0.381005,0.567419,0.729980
0.233589,0.226630,0.219591,0.917247,0.186195,-0.352121
0.283130,0.473819,0.646389,0.856136,-0.312194,0.411785
0.209013,0.275060,0.223193,0.887574,0.218148,-0.405739
0.339418,0.131648,-0.954411,0.067182,-0.858755,0.507963
0.288547,0.265534,-0.220503,0.568302,0.260281,-0.780568
0.286988,-0.082546,-0.933270,0.036797,0.098134,0.994493
0.351904,0.520081,0.832427,0.943426,-0.178717,-0.279297
0.292004,0.553507,0.618753,0.829571,0.003966,-0.558387
0.192199,0.179591,-0.958071,0.031569,-0.933845,0.356281
-0.539730,0.446429,0.214458,-0.626611,0.442307,0.641657
0.276992,0.748164,0.679407,-0.748840,-0.103419,-0.654632
0.086278,-0.014360,0.740331,0.773645,0.229269,-0.590686
0.636015,-0.149292,0.333667,0.356946,0.883499,0.303347
0.189929,0.525838,0.661389,-0.486034,0.550395,-0.678850
0.014816,0.324149,-0.328859,0.073390,-0.946167,0.315250
0.183855,0.584825,0.791093,0.785549,0.503557,0.359643
-0.012203,0.297192,-0.977352,0.689705,-0.580859,-0.432331
0.270678,0.474222,0.893139,0.762844,0.639803,0.093383
0.331744,-0.214295,0.773114,-0.326282,0.690780,0.645261
-0.645882,0.060718,-0.159457,-0.632303,0.678698,-0.373579
0.557174,0.064672,-0.948061,-0.088083,0.080825,0.992829
-0.167076,0.358985,0.711759,-0.162999,-0.980195,-0.112465
0.491203,-0.194899,-0.926199,0.284961,-0.083859,0.954864
0.240580,0.517435,-0.976591,0.972244,0.067661,-0.223972
0.424817,0.431799,0.586707,0.679111,-0.692663,0.242952
0.274911,0.250502,-0.449883,0.995027,0.099582,0.001965
-0.028622,-0.622097,-0.130696,0.930222,0.364864,0.039525
0.109390,0.050032,-0.958528,0.625666,-0.262461,-0.734613
-0.480745,0.031054,-0.105306,-0.009465,0.993925,-0.109652
0.146210,0.132729,-0.965014,0.127981,0.237717,0.962866
0.191368,-0.087597,0.008586,0.814884,-0.425657,0.393422
-0.362226,0.711886,0.618790,0.977921,-0.206844,0.029773
0.196935,0.726567,0.586867,-0.050999,-0.998668,0.007890
0.231025,0.173891,0.252654,-0.703356,-0.623200,0.341925
0.101706,0.238370,-0.052536,-0.250861,0.855861,0.452295
0.028472,0.127900,0.887367,-0.751256,-0.370243,-0.546384
0.443083,-0.051199,-0.943737,0.902637,-0.428302,-0.042464
0.190699,0.460753,0.743171,0.974006,-0.119970,0.192145
0.048761,0.918363,0.880603,-0.772764,0.390866,0.500060
0.179109,0.544010,0.841136,0.829848,0.411064,-0.377331
0.297620,0.104990,0.358884,-0.069286,-0.787496,0.612413
0.018297,0.631768,0.903266,0.560480,0.121621,0.819189
0.060410,0.160098,-0.032061,0.349855,-0.920968,0.171520
0.230555,0.222491,0.644427,-0.422672,-0.453789,-0.784490
0.042746,0.364572,0.110241,-0.132772,0.987151,-0.088904
-0.013583,-0.261824,0.064773,0.965644,0.241236,0.096624
0.227005,0.324770,0.471413,-0.140561,0.627889,0.765505
0.119354,0.582546,0.663801,0.893594,0.446699,-0.044166
0.220394,0.303497,0.173427,0.811612,-0.424199,-0.401674
0.253849,0.362683,-0.663324,0.880593,-0.396276,0.259849
0.182075,0.791176,0.695016,0.286442,0.911899,0.293924
0.448616,0.405692,0.105023,-0.617518,0.671994,-0.408773
0.503002,0.446371,0.161038,0.939752,0.328837,0.093445
0.157271,0.224235,0.464861,-0.585401,0.794525,0.161353
-0.589369,0.054286,-0.136120,0.115303,-0.958477,0.260820
0.229310,0.173049,0.025783,-0.672357,0.335313,0.659925
0.333687,-0.009125,-0.278812,0.512275,-0.534638,-0.672113
0.670646,0.051420,0.498095,0.833061,-0.394511,0.387776
-0.077959,0.172584,-0.993747,0.238162,-0.187883,-0.952879
0.192490,0.332678,-0.439963,-0.556692,0.826377,0.084827
0.533635,0.059362,-0.956323,-0.610460,-0.041563,0.790956
-0.196438,0.428190,0.083994,-0.361425,-0.493614,-0.791022
0.114543,0.248912,-0.986802,0.334631,0.299049,-0.893640
0.126024,0.326994,0.720995,0.786174,-0.587479,0.191830
0.358595,0.068435,-0.512923,-0.221665,-0.668509,0.709902
0.528863,0.379145,-0.927283,0.087796,0.354709,0.930845
0.404644,-0.166294,0.778662,-0.328958,0.884435,0.331000
-0.758016,0.075604,0.244416,0.341399,-0.185548,0.921422
-0.519247,0.468278,0.203240,0.177333,0.578612,0.796091
-0.357602,0.598125,0.598661,0.255961,-0.506198,0.823558
-0.236299,0.322408,0.781744,-0.056748,0.801187,0.595717
0.032019,0.005508,0.148952,-0.407682,0.756014,-0.512092
0.024019,0.058676,-0.986961,0.926288,0.229111,0.299163
0.166212,0.677310,0.537332,-0.226172,-0.924947,0.305483
0.524789,0.763594,0.632548,-0.627754,0.764401,-0.147022
0.086448,0.151992,0.858463,-0.424502,-0.442921,-0.789695
0.004217,0.127737,-0.960532,0.381104,0.198815,0.902902
0.472518,0.221468,-0.929433,-0.126014,-0.907755,-0.400127
0.540121,0.578309,0.625399,0.717570,0.592123,-0.366720
0.312061,0.093784,-0.937247,-0.356964,-0.186464,0.915319
0.209514,-0.047773,-0.536952,-0.361309,-0.209327,0.908646
0.126561,-0.286983,-0.765546,0.097138,-0.940988,0.324199
0.011682,0.668929,0.598304,-0.383990,0.603494,-0.698818
0.271605,0.088494,-0.314970,0.656155,0.430714,0.619634
0.282224,0.340608,0.540302,0.064323,-0.951779,-0.299965
-0.077978,0.358997,0.712605,0.926204,-0.214473,0.310078
0.495829,0.346961,0.310997,-0.011244,-0.982102,0.188013
0.482123,0.426414,0.301653,-0.053438,-0.936666,0.346124
0.218342,0.028349,0.590934,-0.001307,0.913239,0.407423
0.073943,0.268358,0.458327,0.517963,0.244012,-0.819861
0.208649,0.222008,0.483111,0.457773,0.297011,-0.837990
-0.185748,0.596281,0.084683,0.946624,0.155150,-0.282545
0.455426,-0.036875,-0.953189,0.922374,-0.377457,0.082177
0.169105,0.716561,0.655217,0.802615,0.051703,0.594252
0.134841,0.549353,0.049824,-0.115887,0.582992,-0.804171
0.162184,0.213203,-0.986520,-0.123520,0.272076,0.954315
-0.433903,0.326824,0.223220,0.638770,0.624985,0.448738
0.444101,0.448641,0.892417,0.980782,-0.035093,0.191926
0.192770,0.169992,0.715014,0.893605,-0.025156,0.448150
0.470636,0.246170,-0.959109,0.877863,0.094024,-0.469591
0.102494,0.646168,0.747374,0.414904,-0.357411,0.836727
-0.064869,0.178397,-0.990952,0.423349,-0.007117,-0.905939
0.308106,0.387464,-0.208647,0.447299,-0.443373,0.776752
-0.757466,0.684856,-0.244710,0.214774,0.219688,0.951635
0.334428,0.329808,0.040663,0.802550,0.371287,-0.466969
0.291462,0.372386,-0.341537,0.958979,0.111034,0.260828
0.166571,0.094277,-0.962812,0.008746,0.457744,0.889041
-0.049870,0.613205,0.852718,-0.261634,0.416510,-0.870670
0.297681,0.289962,-0.272232,-0.024910,-0.940036,0.340166
-0.333180,0.483645,0.665921,0.495476,0.817945,0.292351
0.563302,0.794658,0.879472,-0.578283,0.645109,-0.499424
0.151050,0.258983,0.367435,0.766981,-0.088197,-0.635579
0.047191,0.595163,0.911048,0.120277,0.225181,0.966864
-0.154948,0.231454,0.730800,-0.528826,0.848151,-0.031347
-0.224555,-0.351094,-0.251675,0.203110,0.443960,-0.872723
-0.357875,0.737506,0.705480,0.989025,0.143858,0.033670
0.003699,0.257221,-0.970551,0.779542,-0.167807,-0.603452
0.308839,0.450323,-0.531182,-0.355738,0.932703,0.059301
-0.209607,0.495847,0.522827,-0.686698,0.718580,0.109948
0.044215,-0.191118,-0.732223,0.183287,-0.764541,0.617966
0.263886,0.246667,0.842305,0.837406,0.530612,0.131159
-0.116691,0.553491,0.850600,0.265939,-0.900750,0.343405
-0.544725,0.473657,-0.161704,0.960328,0.029218,-0.277338
0.204038,0.599426,0.546352,0.457023,-0.723326,-0.517619
0.281504,0.352187,0.401598,0.961998,-0.227291,-0.151322
0.172716,0.751106,0.070894,-0.510078,-0.822287,0.252320
-0.263582,0.433539,0.164951,0.792707,-0.241172,0.559867
0.200926,-0.175347,0.864705,0.943875,0.316144,0.095669
0.317132,-0.085626,-0.954869,0.510925,0.838868,-0.187766
0.189198,0.423948,-0.976968,0.159950,-0.337295,-0.927711
0.135442,0.655228,0.656101,-0.694472,0.689041,-0.207197
0.207162,0.264835,0.800675,0.393826,0.805657,0.442513
0.194216,0.478973,-0.966777,0.817494,-0.473887,0.327314
0.019511,0.744915,0.877402,0.133257,-0.869505,0.475609
0.278705,0.634739,-0.959167,0.882346,-0.378632,-0.279469
-0.168437,-0.226679,-0.741601,0.284087,-0.754305,0.591876
0.224777,0.040019,-0.046486,0.511179,0.668991,0.539581
-0.183870,0.625172,0.531097,-0.292805,-0.550959,0.781479
-0.404231,-0.077947,-0.207842,0.701753,0.081833,0.707705
0.111451,0.438570,0.467990,0.343930,-0.142045,0.928189
0.209148,0.411881,-0.011286,0.799070,0.598581,0.056458
0.257887,0.333009,-0.328562,-0.098521,0.553796,0.826803
-0.329123,0.312918,-0.566812,-0.680931,-0.625282,0.381255
0.019593,0.092139,-0.976079,-0.619736,0.688284,0.377084
0.377861,0.453135,0.064784,-0.007652,0.477668,0.878507
0.125558,0.136980,0.804598,-0.493425,0.154724,-0.855916
0.062152,-0.033448,0.088274,0.777942,-0.396080,0.487777
0.259014,0.466275,0.480414,0.264458,-0.491229,0.829913
0.199783,0.155440,0.376820,0.969489,0.245133,-0.000981
0.370609,0.471806,-0.963015,0.177109,-0.613712,-0.769409
-0.095552,0.356157,-0.313073,0.577892,0.803252,0.144320
-0.256510,-0.470832,-0.302130,0.593156,0.800212,0.088471
0.148866,0.325918,0.722716,0.648165,-0.753944,0.107009
-0.381777,0.308926,-0.042114,-0.052166,0.737045,0.673828
0.579803,0.088803,-0.942854,0.868057,0.277818,0.411454
0.210848,0.600385,0.521637,0.769686,-0.554445,0.316501
0.377086,0.256066,-0.926414,-0.564887,-0.312809,0.763579
0.270101,-0.026671,-0.201173,0.423718,-0.905724,-0.011263
-0.302512,0.466675,0.770294,0.285866,-0.133474,-0.948928
0.164973,0.513250,-0.980358,-0.084043,0.532947,0.841965
0.380387,0.231693,0.068179,0.945259,0.192108,0.263780
0.386963,0.321308,-0.659007,0.961420,0.169235,0.216869
0.395013,0.723994,-0.956960,0.919946,-0.093465,-0.380742
0.442391,0.545374,-0.942550,0.914811,0.062690,-0.398986
0.012701,-0.098799,0.134626,0.745823,-0.665619,0.026426
0.401431,0.286441,-0.854682,0.658690,0.685088,-0.311099
-0.016816,-0.148888,0.933986,0.181753,0.963067,-0.198666
0.219404,0.382611,-0.173685,0.936728,-0.042134,-0.347514
0.025389,0.604697,0.631032,-0.263171,0.960717,-0.088110
-0.303151,0.744866,0.120938,-0.632575,-0.774487,-0.004207
0.272642,0.210522,-0.112876,0.575513,0.692337,-0.435264
-0.022866,0.328143,-0.005161,0.122243,-0.097892,0.987661
0.099846,0.601620,0.720693,-0.742103,0.668376,-0.050565
0.461360,0.223048,0.721309,0.482036,0.708509,-0.515419
0.221273,0.559765,0.562673,0.043132,-0.244594,0.968666
-0.491487,-0.059202,-0.169737,-0.627981,0.290501,-0.721976
-0.640987,0.422052,0.253638,0.003193,-0.235283,0.971922
0.212543,-0.015545,-0.947634,0.089738,0.859674,0.502900
0.242885,0.731563,0.681467,0.302387,0.712855,0.632772
0.169703,0.544155,0.468050,-0.015107,-0.202784,0.979107
0.395405,0.201936,0.740305,-0.483262,0.853043,-0.196915
0.279971,0.275165,-0.215434,-0.460858,-0.451172,-0.764234
-0.385881,-0.116645,-0.136922,-0.224777,-0.177941,0.958025
0.113690,0.570015,0.767507,-0.528494,0.295102,0.795996
0.238054,0.479993,0.692734,0.838084,-0.422756,0.344807
0.607212,0.040041,0.515509,-0.609823,0.355754,-0.708205
0.139122,0.297834,0.412878,0.321391,0.801858,-0.503717
0.370706,0.144108,0.266048,0.418219,0.892185,0.170585
0.372193,0.475492,0.602394,0.609199,-0.251447,-0.752098
0.249962,0.357477,-0.651299,0.837877,0.093433,0.537804
0.005384,0.153949,-0.984078,-0.768928,0.613574,-0.179658
0.105711,0.397316,0.736781,-0.076992,-0.988764,-0.128136
0.477103,0.403642,-0.930806,0.733868,0.089292,0.673398
0.412889,0.000947,-0.218103,0.937683,-0.341605,0.063693
0.008302,0.342045,0.108947,-0.381549,-0.763750,-0.520679
-0.179020,0.562274,0.508668,-0.280486,-0.520334,0.806585
0.171531,0.372413,-0.961410,0.406862,0.773824,-0.485447
-0.181969,-0.207968,-0.242793,0.667855,0.604062,0.434833
0.016573,-0.343374,0.069874,0.863859,0.471113,0.178325
-0.021717,-0.074993,-0.284835,-0.584902,-0.150599,-0.797000
0.485713,0.481849,0.645044,-0.338327,0.932473,-0.126607
0.460688,0.262392,-0.862070,-0.521509,-0.849946,0.074967
0.128622,0.402938,0.490191,-0.047614,-0.883712,0.465602
0.057675,0.238591,-0.116993,-0.681302,-0.682183,-0.265432
-0.546101,0.275096,-0.276715,-0.778343,0.615474,0.123989
0.354791,0.289406,-0.734568,-0.699485,-0.685986,-0.200360
0.236063,0.791903,0.678570,-0.217937,0.680978,-0.699123
-0.037091,0.012479,-0.616646,-0.343964,-0.725497,0.596106
0.431689,0.224620,-0.957658,0.165126,0.500440,0.849878
0.446828,0.613619,0.613969,0.858336,0.503889,-0.096726
0.092090,-0.381400,0.052460,0.560207,-0.596874,0.574377
