0.483743,-0.081239,0.833256,0.665972,0.713932,-0.216294
0.327189,0.370141,0.665759,0.690817,0.138929,-0.709556
0.225575,0.346254,0.889273,0.866728,0.033206,-0.497675
-0.593693,-0.393127,0.586622,0.466600,-0.878310,0.104191
-0.199238,0.190535,0.239677,0.386523,0.815341,0.431066
0.094407,0.406723,0.648836,0.872772,-0.488026,0.009951
0.077801,-0.340394,0.484185,0.883297,0.255959,0.392775
-0.437141,-0.257089,0.110637,-0.088549,0.529889,-0.843431
-0.235671,0.298479,0.339432,-0.332072,-0.491231,0.805245
-0.089067,0.550272,-0.059803,-0.529634,0.538388,0.655459
0.285563,0.184451,0.716397,-0.098863,0.991096,0.089186
-0.310362,-0.292244,0.190069,-0.662390,0.741153,-0.109231
-0.724861,0.079737,0.287944,-0.150182,-0.129751,0.980107
-0.968396,0.140732,0.283840,-0.089713,-0.303419,0.948625
-0.742712,-0.053822,0.210131,0.077188,-0.090818,0.992872
0.002451,0.038573,0.867968,-0.347560,0.296161,0.889658
-0.253960,0.424826,0.485395,-0.589037,-0.491406,0.641526
0.108307,0.154329,0.915336,0.839601,-0.522392,0.148921
-0.060901,0.011831,0.853874,-0.558348,-0.216793,-0.800780
0.310436,0.081690,0.349570,-0.036925,0.949191,-0.312525
-0.326017,-0.170178,0.716332,-0.322897,0.937080,0.132736
0.118328,0.131793,0.893933,0.710613,-0.456332,0.535528
-0.303924,0.662272,0.494698,0.938427,-0.284576,0.195887
-0.416073,0.259793,0.637374,0.398433,-0.630722,0.665913
0.193241,0.935624,0.448508,-0.297669,0.944880,0.136360
-0.210358,0.027455,0.779331,0.492908,0.053329,0.868446
-0.424704,0.012357,0.528806,0.787161,0.465274,-0.404843
-0.124327,0.294873,0.455179,0.759095,0.486599,-0.432430
-0.122644,0.700207,0.564418,0.588925,0.511617,-0.625632
0.085702,0.252282,0.843360,0.781385,-0.470486,-0.409976
-0.252569,-0.011230,0.800276,0.435466,0.552111,-0.711015
0.041371,0.762930,0.612064,0.758957,-0.646752,0.075470
-0.099308,-0.176714,0.589205,0.953377,-0.291945,0.076426
0.017302,-0.452094,0.748886,-0.738310,-0.605493,-0.297113
-0.399393,-0.417840,0.544355,-0.107918,0.744940,0.658345
0.128498,0.404545,0.772856,-0.644146,0.673901,-0.361847
-0.599547,-0.247624,-0.136667,-0.403140,0.134254,0.905237
-0.311972,0.625014,-0.455898,0.464512,-0.634112,-0.618167
-0.013058,-0.048188,0.769750,-0.442305,0.105798,0.890602
0.568896,-0.039399,0.754265,-0.689187,0.299187,0.659931
-0.218625,-0.009277,0.807127,0.205967,0.404774,-0.890919
0.251472,-0.432789,0.450094,0.859820,0.489186,-0.146310
-0.158711,-0.027681,0.787130,0.562240,-0.191860,0.804410
-0.062437,0.016488,0.626436,0.961436,-0.143333,-0.234727
-0.402758,-0.387418,0.274078,0.661751,-0.614546,-0.429440
0.033689,-0.091005,0.846124,0.253203,0.952435,0.169575
0.446066,0.566798,0.220677,-0.165054,0.984840,0.053363
0.035299,0.643944,0.583237,-0.280344,0.329134,-0.901708
-0.038663,-0.116019,0.795306,0.838219,-0.038976,0.543940
-0.045905,0.405296,0.826895,-0.049718,-0.731796,0.679708
-0.342551,-0.028582,0.213205,-0.465250,-0.885010,0.017285
0.336188,0.596920,0.077543,-0.245847,0.623754,0.741950
-0.210798,0.288488,0.446529,0.096628,0.137214,0.985817
0.159662,-0.727624,0.259870,-0.233349,-0.566219,0.790535
0.026884,0.199249,0.468603,0.532565,0.845050,0.047593
0.520099,-0.110535,0.748706,0.736873,-0.148113,-0.659606
-0.012326,-0.115117,0.907553,0.944834,0.327540,-0.002676
-0.188120,0.231099,0.778873,-0.373044,-0.025863,0.927453
-0.044514,0.062685,0.782650,0.460113,0.742755,0.486427
-0.211528,0.078610,0.622413,-0.133099,-0.890875,0.434311
-0.068510,-0.702535,0.242325,0.737715,0.451488,-0.501931
0.048026,0.029934,0.372428,-0.759347,-0.649015,-0.046609
-0.338894,0.289390,0.301417,0.822615,0.557322,-0.112676
0.244670,0.123305,0.613878,-0.426989,0.814542,0.392685
-0.394198,0.178216,0.585134,0.073295,-0.733380,0.675857
-0.283661,0.026779,0.812294,0.578452,0.470068,0.666655
-0.181096,0.497991,-0.093943,0.617341,-0.766535,0.176961
-0.536998,-0.375474,0.574980,-0.398217,0.909272,-0.121029
0.349574,0.167249,0.615170,-0.592879,0.762100,-0.260187
0.480816,-0.134423,0.529117,0.246430,0.955946,-0.159500
0.147519,0.216676,0.947285,0.885795,0.439488,-0.149056
0.664216,0.395606,0.301695,-0.132773,-0.937427,-0.321872
0.271371,0.641390,0.431650,0.580991,-0.112565,-0.806088
0.047955,0.747906,0.591543,0.981365,0.130500,-0.141042
0.297121,0.347606,0.316541,0.844625,-0.413333,0.340242
0.075754,0.370366,0.620059,-0.265803,0.414197,0.870511
0.297853,0.428207,0.497903,-0.509754,0.790462,0.339590
0.341015,-0.761728,0.269435,-0.051920,-0.976350,0.209867
-0.347306,0.678272,0.522265,-0.806952,-0.590415,-0.015469
-0.120378,-0.195944,0.739419,0.766681,0.580219,0.274855
0.180732,-0.067869,0.748935,0.330232,0.942834,0.044848
-0.453528,-0.019493,0.375551,-0.149484,-0.904072,0.400386
-0.500933,0.495737,0.191884,0.935161,-0.353070,0.028551
-0.076045,0.231700,0.696695,-0.716381,-0.549041,0.430526
-0.028346,-0.473202,0.687440,-0.805078,-0.295385,-0.514390
0.258056,0.229746,0.102151,0.348753,0.506849,-0.788337
-0.122644,0.101296,0.374374,-0.638955,-0.762733,-0.099873
0.381689,0.251080,0.764550,-0.085675,-0.036950,0.995638
-0.090018,0.177390,0.902779,0.908442,0.367013,0.200086
-0.340356,-0.162592,0.428396,0.487521,-0.863702,0.127834
-0.153882,-0.223887,0.706047,0.154388,0.350804,-0.923635
-0.492153,0.177390,0.596694,-0.074880,-0.796800,0.599586
0.014522,0.071249,0.646089,0.908608,0.027382,0.416752
-0.593181,-0.423023,0.587096,0.466600,-0.878310,0.104191
0.627053,0.007700,0.368422,-0.173377,0.766335,-0.618604
-0.502981,-0.163192,0.591118,-0.197570,-0.225188,0.954074
-0.176122,0.067117,-0.942887,0.832248,0.360938,-0.420816
0.005305,-0.303061,0.206288,-0.715402,0.160835,-0.679950
-0.452796,0.336413,0.663748,0.898730,-0.161999,0.407481
-0.490838,0.048113,0.667721,0.180704,0.251965,-0.950715
-0.107209,0.228019,0.451418,0.681292,0.534810,-0.499819
-0.037857,0.393202,-0.135277,-0.045461,-0.461726,0.885857
0.433265,-0.610141,0.147704,-0.931826,0.060486,-0.357828
-0.072825,0.024451,0.724393,0.080494,-0.888391,0.451977
-0.361058,0.660244,0.516886,-0.685784,-0.706949,0.172986
0.019497,0.063662,0.905624,-0.315022,0.516407,0.796295
0.445993,0.534648,0.512766,-0.801298,0.576381,-0.160334
-0.034127,0.412958,0.549293,-0.445866,0.871194,0.205486
0.196313,-0.454047,0.661606,-0.480905,-0.620489,0.619454
-0.098578,0.096488,0.780933,0.020633,0.966299,0.256595
-0.336260,-0.507531,0.608107,0.148982,0.729375,0.667695
0.007425,0.201502,0.599702,0.505602,0.013860,-0.862655
-0.065290,0.497991,-0.201171,-0.155385,0.679545,0.716989
0.379202,0.653484,0.558646,0.425147,-0.468601,-0.774379
-0.406488,0.286085,0.466869,0.011491,-0.268294,0.963268
0.093384,-0.503249,-0.066032,-0.136584,0.799717,0.584635
-0.142982,0.270836,0.668833,0.984898,0.164007,0.055472
0.005816,0.072751,0.696727,0.506953,0.842371,-0.182782
-0.312557,0.089427,0.170382,0.386547,-0.877138,0.284973
-0.033030,0.013859,-0.812016,0.974348,-0.220493,-0.045049
0.086506,0.848789,0.432958,-0.179378,-0.086401,0.979979
0.444238,0.495587,0.422036,-0.016228,0.837895,0.545590
-0.075678,-0.051117,0.606651,-0.656433,-0.327132,-0.679765
-0.441822,-0.024300,0.023455,-0.079123,-0.940081,0.331642
0.515199,-0.446385,0.639500,0.715473,0.270455,-0.644168
-0.832400,0.100770,0.398376,0.757896,0.651821,-0.026883
0.070340,0.051343,-0.703562,-0.700869,0.685944,0.195610
-0.229306,0.059230,0.801732,0.143446,0.643741,0.751678
-0.048171,-0.035718,-0.508204,0.845373,-0.533627,-0.024222
0.044296,-0.131418,0.386751,0.908721,0.374784,0.183746
0.737738,0.229521,0.315724,-0.225920,0.168491,-0.959464
-0.481986,-0.052545,0.358611,-0.171102,-0.850207,0.497868
-0.116500,-0.170404,0.734138,0.870691,0.318626,0.374666
0.081679,0.028056,0.881654,0.870569,0.078785,0.485699
0.316289,0.360526,0.761918,-0.291660,0.032685,0.955964
-0.399027,0.382009,0.264840,0.895857,-0.172121,-0.409651
-0.035225,0.056451,-0.893181,0.178542,-0.983909,-0.006706
0.469184,-0.275869,0.633679,0.552241,0.516272,-0.654594
0.280296,0.599700,0.668604,0.631895,-0.178650,-0.754183
0.010279,-0.550948,0.280373,-0.678613,-0.243268,0.693040
-0.650317,-0.036169,-0.007350,0.567116,0.462525,-0.681505
-0.338380,-0.172357,0.543783,0.459817,-0.866508,-0.194247
-0.016056,-0.063061,-0.519502,0.941147,-0.336579,0.030938
0.121695,0.066742,0.960137,0.887462,0.076443,0.454497
0.173490,0.072300,0.856474,0.241898,0.500187,-0.831443
-0.186803,0.111061,-0.991432,-0.041520,0.016294,0.999005
-0.032736,-0.034742,-0.808926,0.982563,-0.174578,-0.063969
0.017010,-0.142761,0.894178,0.904715,0.161420,0.394251
0.216504,0.062911,0.688650,0.958580,0.282699,-0.034726
-0.051904,-0.184751,-0.984941,0.201315,0.364433,-0.909209
0.009986,0.332507,0.887605,-0.215037,-0.678542,0.702382
0.685724,-0.031437,0.475094,-0.219246,-0.406460,-0.886973
-0.237354,0.537803,-0.453740,-0.123388,-0.728176,0.674192
-0.562603,0.397784,0.431094,-0.607052,0.371815,-0.702312
0.184170,-0.254535,0.348376,0.788407,0.584185,-0.192721
-0.106550,0.262948,0.468913,0.885863,0.158322,-0.436096
0.423462,0.461784,0.051088,-0.746467,0.499921,-0.439166
0.223309,-0.630798,0.304115,-0.471517,0.212179,0.855951
0.351258,0.759850,0.436457,0.783823,-0.596427,-0.172903
-0.469696,0.418592,0.279131,0.193792,0.253693,-0.947673
-0.878195,-0.024451,0.207466,-0.053715,0.938908,-0.339949
0.479425,0.462836,0.357827,-0.287384,-0.772638,0.566074
0.424632,0.071324,0.128786,-0.220047,-0.931126,-0.290831
0.130473,0.613822,0.415724,0.982010,0.090030,-0.165987
-0.148982,-0.145014,0.738961,0.931835,0.174624,0.318105
-0.091554,-0.068019,0.641053,-0.444180,0.894308,0.054015
-0.126962,0.649427,0.547887,0.795390,0.321025,-0.514098
-0.791069,0.160864,0.012467,0.988550,0.055287,0.140400
0.729544,0.385615,0.339318,-0.151330,0.959296,-0.238435
0.500130,0.141859,0.275256,-0.305749,0.902014,-0.304775
-0.750905,0.326423,0.165166,0.331646,0.531630,-0.779346
-0.294853,-0.571531,0.607044,-0.473934,-0.485891,-0.734368
0.602254,-0.132244,-0.039037,-0.327937,0.210859,0.920867
-0.109624,-0.410404,0.218993,-0.716334,-0.066546,-0.694577
0.337724,-0.075005,0.545892,-0.025445,-0.930610,0.365126
0.013205,0.055624,0.605196,0.868389,-0.485425,-0.101306
-0.739932,-0.098066,0.339089,0.935130,0.324054,-0.143253
0.350673,-0.080714,0.651796,0.919056,-0.189953,0.345331
-0.307290,-0.420770,0.654019,-0.182274,-0.080677,-0.979932
0.588647,0.576263,0.413337,0.402360,0.616717,0.676585
0.049124,-0.194817,0.833190,0.557485,0.781072,-0.281314
0.678774,-0.250178,0.450731,0.106520,0.089187,0.990303
-0.305388,-0.041728,0.818475,-0.740457,0.006750,-0.672070
0.378325,0.634479,0.557648,-0.507852,0.418828,0.752774
0.006914,0.728751,0.033413,0.993940,-0.105140,0.032068
0.039907,0.349709,0.866480,-0.772535,0.205200,-0.600902
0.084899,-0.272714,0.365495,0.813669,0.384964,0.435597
0.025933,0.094610,0.001529,0.582278,-0.806713,0.100833
0.011814,-0.163944,0.684939,0.850756,0.520826,0.070391
-0.002449,0.387042,0.546448,-0.330960,-0.632716,0.700097
-0.595890,0.461559,0.259870,0.964442,0.261368,0.039215
-0.008156,-0.064563,-0.678464,0.581800,0.784940,-0.213018
0.076924,-0.638685,0.536752,0.664938,0.692996,-0.278594
0.480304,0.442930,0.439760,-0.343324,0.927080,0.150506
-0.298804,-0.297653,0.098897,0.432101,0.263078,-0.862600
0.351624,0.041878,0.835152,0.183207,-0.982672,-0.028131
0.058414,0.238460,0.617966,0.919697,-0.352968,-0.171963
0.090310,0.359474,0.770338,-0.687006,0.010121,-0.726581
-0.635539,0.560263,0.415561,0.166306,-0.313365,0.934957
-0.347014,-0.352263,-0.044057,0.186686,0.384138,0.904205
0.021984,0.350685,0.547217,0.743181,-0.511833,0.430940
-0.623542,-0.509258,0.108479,-0.089732,0.988293,-0.123389
0.641246,0.034516,0.369779,-0.202817,0.738129,-0.643452
0.408319,0.857953,0.471529,-0.380194,0.795307,-0.472164
0.035957,-0.060056,-0.774410,0.805776,-0.567679,-0.168717
0.153370,-0.178817,0.828776,-0.583130,0.292122,0.758039
-0.083287,0.212695,0.679772,0.766842,0.630723,0.118918
0.138156,0.250704,0.812539,0.988345,-0.014128,0.151573
-0.289586,-0.427606,0.631554,0.763316,0.426797,0.484966
0.441825,0.244845,0.768883,-0.022913,-0.046030,0.998677
-0.459087,-0.801390,0.346332,-0.606764,0.442761,0.660152
0.044222,-0.392676,0.540611,-0.090650,0.503737,0.859087
-0.638392,-0.037446,-0.001104,0.603312,0.589302,-0.537343
0.508030,0.154854,-0.209183,-0.051868,0.626665,0.777561
0.212700,-0.164019,0.892543,-0.639788,-0.720469,0.267574
0.016277,-0.462685,0.670861,0.848184,-0.197073,0.491676
-0.401295,-0.390047,0.289759,0.987615,-0.154959,-0.024571
-0.386516,0.362629,0.471350,0.274146,-0.145254,0.950655
0.495740,-0.395606,0.635036,0.765254,0.141268,-0.628037
0.403856,-0.112939,0.413877,0.192624,0.981209,0.011194
-0.002523,0.013559,0.894783,0.855889,0.513822,0.058661
-0.366033,-0.610291,0.342359,0.786637,0.278193,-0.551191
0.492740,0.054573,-0.002722,0.109287,0.017866,0.993850
-0.048977,0.251756,0.812065,0.969786,0.072276,-0.233004
-0.103989,0.592864,0.546808,0.827196,0.403030,-0.391553
-0.169099,0.072676,0.456617,0.796292,0.476118,0.373136
-0.543802,-0.404019,0.585526,-0.122105,0.987230,0.102313
-0.368375,-0.168676,0.444976,0.471749,-0.880325,0.049804
0.497276,-0.046160,0.744651,0.441203,-0.226203,-0.868431
-0.034053,0.559812,0.357140,0.893362,0.114009,-0.434634
0.423243,0.220357,0.215494,-0.443153,0.888967,0.115559
0.111892,-0.111286,0.792984,0.875188,0.255936,-0.410541
0.304144,-0.605634,0.355848,-0.378970,-0.744670,0.549408
-0.154540,0.606685,0.732339,0.983115,0.163204,0.082760
0.075241,0.208038,-0.238287,-0.836885,0.295524,-0.460748
0.052781,0.293596,0.575798,0.972211,0.233781,0.012321
-0.111745,0.072150,0.788422,0.010596,-0.997021,0.076405
0.315631,-0.456751,0.747938,-0.654232,0.657517,-0.373701
-0.172097,0.021746,0.799214,-0.418810,-0.193591,-0.887198
-0.278173,-0.184601,0.655900,0.928007,-0.155791,0.338425
0.288124,-0.221934,0.221380,0.779608,-0.103739,0.617616
-0.087676,0.399437,0.581831,0.979121,0.079360,0.187144
-0.714180,0.489878,0.402121,0.124618,-0.438762,0.889920
-0.001938,-0.079286,-0.443684,0.998223,0.058595,0.010856
0.142616,0.021972,0.940206,0.317525,0.882907,-0.345909
0.045394,0.171305,0.891203,-0.629265,0.594663,0.500401
0.127547,0.206685,0.734399,-0.494171,0.401730,-0.770979
-0.499250,0.340169,0.396300,0.890761,0.383586,0.243736
0.635394,0.129089,0.174519,-0.159946,0.982763,-0.092708
0.304511,0.885296,0.418717,0.492191,0.827863,0.269054
-0.696624,-0.031061,0.197345,0.541674,0.609380,-0.579005
-0.259885,-0.563718,0.352267,-0.413367,0.636450,-0.651199
0.165223,-0.114216,0.863701,-0.726577,0.563547,-0.393066
-0.168806,0.035493,0.526435,-0.106964,-0.928419,0.355805
0.045539,0.701033,-0.246675,-0.431775,0.714106,0.551021
-0.003400,-0.041502,-0.966710,-0.202900,0.026306,0.978846
0.496910,0.646873,0.017340,0.829305,0.558796,0.000757
0.417830,0.506028,0.090640,0.010309,0.651696,0.758410
-0.372252,-0.136075,-0.046935,-0.054698,0.599509,0.798497
0.447602,-0.409653,0.167962,-0.409537,0.859863,-0.304820
-0.013791,0.084920,0.933502,-0.405650,-0.891519,0.201599
-0.279783,-0.609465,0.346087,-0.690252,0.501034,-0.522032
-0.371594,-0.202178,0.551778,0.546888,-0.804275,0.232500
-0.022421,-0.222610,0.793523,-0.442719,-0.520814,-0.729899
-0.106990,0.002216,0.740171,0.743170,-0.529930,0.408501
0.159443,0.245070,0.803743,0.995239,0.083169,-0.050819
-0.644976,0.273915,0.156615,-0.028051,-0.025730,0.999275
-0.676872,-0.480413,0.120398,0.078840,-0.799508,0.595459
-0.310510,0.195869,0.395646,-0.370757,-0.923307,0.100221
0.015692,-0.001840,0.627073,-0.563045,0.664634,0.491164
0.463185,-0.684207,0.177282,0.971333,0.024923,0.236412
-0.060756,0.031061,-0.879168,-0.390098,0.912765,-0.121174
0.311826,0.057653,0.833305,-0.072773,-0.988406,0.133258
0.260909,-0.393878,0.827239,-0.046720,0.953590,0.297460
-0.062951,0.108357,0.745910,-0.356302,0.738447,0.572491
0.365157,-0.148845,-0.039413,0.184506,-0.744280,0.641877
0.309851,0.588958,-0.271724,0.140542,0.898090,0.416753
-0.507004,-0.043681,0.001104,0.113778,0.921448,-0.371467
-0.418560,0.141033,0.179686,-0.322950,-0.835657,0.444276
-0.226600,0.226667,0.163858,-0.538979,0.409732,-0.735950
-0.349135,-0.006498,0.653284,0.419085,-0.004700,0.907935
-0.001279,-0.034066,-0.058560,-0.566679,0.789897,-0.234389
0.136472,0.198197,0.885660,0.462349,-0.638048,-0.615734
-0.042027,0.520901,0.549244,-0.021586,0.971914,0.234343
-0.020008,-0.050892,0.643064,-0.717352,0.684407,-0.130354
0.633637,-0.062085,0.761100,-0.658243,0.092247,0.747132
0.590183,0.066291,0.363173,0.013747,0.930150,0.366922
0.018472,-0.321465,0.522658,0.050657,-0.998514,-0.020074
0.416072,-0.091005,0.726371,0.776252,0.410068,-0.478829
-0.342624,0.076808,0.819668,0.832228,0.365439,0.416954
-0.028713,0.242216,0.766692,0.268993,0.903596,-0.333402
0.398149,0.154329,0.716921,-0.060445,-0.956357,0.285882
0.021765,-0.170779,0.547462,0.209041,0.146603,0.966855
0.435605,0.155380,0.712064,0.255843,-0.966071,0.035373
-0.418412,-0.263324,0.291132,0.912024,0.353585,-0.207821
-0.352720,-0.489803,0.290020,0.303626,-0.436607,-0.846868
-0.064266,0.025052,0.784743,-0.459247,-0.001801,-0.888307
0.500201,0.596845,-0.001709,0.894173,0.421262,-0.151631
-0.186876,-0.528113,0.038318,0.032660,-0.198256,0.979606
-0.379055,0.248751,0.359658,0.000654,0.811738,0.584021
0.531586,-0.074930,0.470630,0.101838,-0.921076,0.375830
0.557336,0.070798,-0.010849,0.177141,-0.710179,0.681371
-0.286367,-0.156056,0.480849,-0.668779,0.737938,0.090459
0.267348,-0.089878,0.762245,0.585424,0.542523,0.602452
-0.044441,0.044507,0.838880,0.901372,0.428931,0.059561
-0.139544,0.403042,0.743082,0.752285,0.525223,0.397754
0.137790,0.263249,0.802467,0.991925,0.002928,0.126789
-0.603277,0.275117,0.149110,-0.004286,-0.105202,0.994442
0.244596,-0.341972,0.332974,0.827911,0.504995,-0.244016
0.220308,-0.368263,0.821222,-0.093657,0.898659,0.428533
0.429827,0.892808,0.420728,-0.206448,0.510814,0.834534
0.173782,0.112939,0.856441,0.380050,0.876035,-0.296858
0.291854,-0.190685,0.762048,0.265473,0.837813,0.477067
-0.149419,0.079211,0.796990,0.363914,-0.362565,0.857970
-0.181463,0.546066,-0.447428,-0.169728,0.573573,0.801378
-0.028494,0.211343,-0.987492,-0.093255,0.144464,0.985106
-0.095139,-0.074178,0.686050,-0.082737,-0.991393,-0.101465
-0.092505,0.478761,0.044809,0.855325,0.056891,0.514959
-0.642782,0.825953,0.329524,-0.561598,-0.787384,-0.254230
-0.104284,-0.190310,0.340331,0.360500,-0.576124,-0.733567
-0.136837,0.156131,0.826797,0.519312,-0.214240,-0.827295
-0.185267,-0.793502,0.019449,0.882283,0.321827,-0.343516
-0.100844,-0.055249,0.689026,0.198440,0.978496,0.056268
-0.206628,0.079737,0.003148,0.324419,0.749278,0.577352
0.353379,-0.441277,0.158299,-0.422556,0.417688,-0.804353
0.169393,-0.342723,-0.074943,0.305722,-0.158141,-0.938896
0.192509,-0.116019,0.829577,0.862414,-0.206930,-0.461977
0.324335,0.441653,0.761215,-0.350396,0.557662,0.752486
-0.393906,-0.334385,0.516265,0.983193,-0.087158,-0.160423
-0.406562,0.114967,0.175140,-0.322950,-0.835657,0.444276
-0.031858,-0.465840,0.686933,-0.748284,-0.445762,-0.491291
-0.579574,-0.248225,0.443995,-0.185032,0.909069,0.373305
0.391419,-0.018742,0.389907,0.167496,0.870957,0.461929
-0.444823,0.740770,0.289350,0.887515,-0.409948,-0.210379
-0.063096,-0.113089,0.539843,0.044906,0.704954,0.707830
-0.576502,0.214498,0.603120,0.094600,-0.859536,0.502244
-0.388054,0.322141,0.273751,0.901782,-0.124367,-0.413910
-0.497274,0.247474,0.631521,-0.378751,0.909422,-0.171751
0.143641,0.404244,0.870977,-0.005528,0.930470,0.366327
0.157541,-0.199775,0.302283,0.961623,0.098340,0.256147
-0.139105,0.604282,0.542655,0.542192,0.162392,-0.824413
0.504371,-0.035793,0.592214,-0.430502,0.599212,0.674991
0.384469,0.096113,0.863750,-0.398039,-0.832815,0.384688
-0.397929,-0.322892,0.192685,-0.085874,-0.675210,0.732610
0.173124,-0.417615,-0.066555,0.694242,-0.536796,-0.479456
0.559530,0.020695,0.121657,-0.267270,0.842790,-0.467195
0.334945,-0.105577,0.207793,0.730149,0.080487,0.678531
-0.826329,0.331380,0.133217,0.551277,0.819468,-0.156738
-0.395955,0.853746,0.394158,-0.025928,-0.613228,0.789480
-0.747320,-0.074254,0.353297,-0.373514,-0.397721,0.838037
0.626250,0.373897,0.636900,0.805537,-0.046011,-0.590756
0.396980,0.802892,0.347444,0.889441,-0.324890,0.321468
0.129083,0.222535,0.949918,0.885795,0.439488,-0.149056
0.415999,-0.335962,0.601387,0.907640,0.027873,-0.418822
-0.517247,0.475230,0.154784,0.856133,-0.459743,-0.235952
-0.300559,-0.279399,-0.041686,0.266788,0.097963,0.958764
-0.482131,-0.484920,0.108773,0.285643,-0.726674,0.624782
0.235085,0.189709,0.684808,0.282619,-0.908157,0.308833
0.577161,-0.061859,0.601861,0.235514,0.185131,-0.954075
0.121329,0.430761,0.640694,0.931292,-0.349885,0.101369
0.198363,0.006122,0.810594,0.111747,0.952779,-0.282357
-0.109769,0.487624,-0.052167,-0.458500,0.303254,0.835353
0.182634,0.182347,0.879348,0.948049,-0.050881,0.314028
0.572845,-0.028207,0.760888,-0.647424,0.317582,0.692809
-0.749662,-0.147117,0.343487,0.861257,0.405270,-0.306583
0.054976,0.606009,0.366100,0.404209,0.582146,-0.705494
0.089944,0.126235,0.958371,0.406628,-0.772658,-0.487497
-0.246936,-0.363531,0.794586,-0.506163,0.822308,0.260015
-0.100187,0.309296,0.466379,0.803982,0.449396,-0.389430
0.014668,0.010930,0.577711,0.890627,-0.442149,0.106247
0.134936,0.021521,-0.974804,-0.107453,0.363279,0.925463
0.537073,-0.286610,0.639402,-0.571819,0.396938,0.717958
-0.029519,-0.027531,-0.337715,0.995510,0.093896,-0.011960
0.249425,0.417615,0.583368,0.466056,-0.240020,0.851576
-0.496763,0.329577,0.661459,0.926857,-0.224654,0.300776
0.110209,-0.249352,0.599196,0.650068,0.686714,0.325324
0.193315,-0.120977,0.786771,-0.577110,0.234423,-0.782298
0.066315,0.553653,-0.213941,0.306849,0.271322,0.912265
-0.409049,0.935399,0.399243,-0.317224,0.908859,-0.270820
-0.141446,0.529690,0.728922,0.976818,0.214064,0.001854
-0.079116,0.325070,0.829119,0.986561,0.109700,0.121093
-0.581550,-0.096563,0.194451,-0.634186,-0.697767,0.333060
0.356013,-0.137653,0.503168,0.202007,0.971493,0.124072
-0.176633,-0.103249,0.698608,-0.530159,0.840052,0.115083
-0.271297,0.136075,0.426336,0.554390,0.831028,0.045216
0.532026,-0.094761,0.746646,0.650703,-0.045408,-0.757974
0.142398,0.179418,0.739713,-0.557868,0.407751,-0.722857
-0.261494,-0.183549,0.669602,0.654346,-0.755087,0.040937
0.108965,0.038648,0.984352,-0.625897,0.006266,-0.779880
-0.146566,-0.006723,0.620059,0.073832,-0.033922,0.996694
0.484913,-0.585352,0.578267,-0.110513,-0.815636,0.567912
0.350014,-0.408225,0.223113,0.967938,-0.066806,0.242141
-0.436482,0.207136,0.390544,-0.626781,-0.776871,0.060149
0.471890,-0.229371,0.631472,-0.213658,-0.158908,0.963898
0.174513,0.245596,0.879005,0.306745,-0.764483,-0.566986
0.384982,-0.352563,0.726780,0.527175,0.677093,0.513451
0.080800,-0.125183,0.924918,0.336074,0.675542,-0.656275
0.127768,-0.089953,0.526648,0.431620,0.177410,0.884438
0.021325,0.105502,0.553577,-0.202285,0.865794,-0.457692
-0.611982,-0.330178,-0.126497,-0.281475,-0.848315,0.448480
0.175756,-0.017615,0.734399,0.631296,0.410303,0.658117
-0.798016,0.168300,0.033102,0.839002,-0.537186,-0.086642
0.134059,0.390423,0.788994,0.971841,0.145280,-0.185522
-0.518709,0.201052,0.593489,0.560080,-0.669866,0.487431
0.420609,0.560563,-0.282025,0.155780,0.873215,0.461766
-0.167415,0.050667,0.830296,0.782659,-0.279530,-0.556155
0.236037,0.228845,0.696073,-0.324090,0.834393,0.445818
-0.204799,-0.041803,0.508253,-0.437962,0.859385,0.263905
-0.037127,0.013033,-0.047196,-0.457216,0.762618,-0.457567
0.234208,-0.444131,0.393782,0.865606,0.499676,-0.032407
0.787191,-0.073653,0.623542,0.682824,0.275354,-0.676706
0.205897,0.235230,0.875735,0.755519,-0.487085,-0.438108
-0.242473,0.310948,0.804478,-0.655767,-0.752513,-0.060779
-0.010058,0.082817,-0.970471,0.254793,0.611813,0.748843
-0.551337,0.034742,0.661426,0.161868,0.434730,0.885894
-0.057463,0.700432,0.645550,0.885127,-0.098563,-0.454792
-0.291488,-0.385315,0.568178,0.574993,-0.686684,-0.444802
0.474306,0.128714,-0.007121,-0.374032,0.829390,-0.414985
-0.329821,-0.217577,0.133855,0.009493,-0.566371,0.824096
-0.142105,-0.312526,0.596857,0.184543,0.966911,-0.176143
0.087750,0.056977,0.872154,-0.509144,-0.781183,0.361283
-0.605619,0.616451,0.297934,-0.792666,0.602808,-0.091118
-0.663484,0.872376,0.312977,-0.229227,-0.865291,0.445787
-0.034493,0.040826,-0.758729,0.867163,-0.483329,0.120091
0.141301,0.299756,0.773919,0.900243,-0.135112,-0.413892
-0.359377,-0.548695,0.345792,-0.465151,0.135737,0.874763
-0.094260,-0.202254,0.843573,-0.900058,0.286029,-0.328761
0.150080,0.361352,0.869849,0.056491,0.997163,0.049755
0.203337,0.302085,0.118060,0.686147,-0.013820,-0.727332
0.439335,0.468094,0.509201,-0.665233,0.673753,-0.321748
0.023520,0.181897,0.772022,-0.107815,-0.200001,0.973846
-0.741250,-0.065615,0.354131,-0.413342,-0.226598,0.881930
-0.457406,-0.147117,0.568947,0.025016,-0.766277,0.642024
0.320020,0.670685,0.308170,0.865739,-0.366418,0.340931
0.099455,0.013634,0.902256,0.419275,0.302073,-0.856131
0.245913,0.371343,-0.248179,-0.653822,0.586442,-0.478124
-0.272614,-0.000338,-0.990451,0.138020,0.091159,0.986225
0.281100,-0.400864,-0.093387,0.990702,-0.083477,0.107429
0.195362,0.168751,-0.226187,0.474792,-0.537698,-0.696745
-0.246643,-0.040826,-0.990582,-0.214921,0.091676,0.972319
-0.318044,-0.109333,0.819456,0.823103,-0.381336,0.420814
0.160979,0.109859,0.972073,-0.560447,-0.131603,-0.817667
0.093603,-0.280901,0.359151,0.661075,0.717312,-0.220099
0.380008,0.182347,0.766071,0.241941,0.314871,-0.917780
-0.033468,0.499493,0.632469,0.621786,-0.387258,0.680744
-0.804529,-0.082592,0.185212,-0.139559,-0.966523,0.215304
-0.040199,0.209991,0.746106,0.952504,0.269577,-0.141647
-0.048611,0.631324,0.569535,0.793106,0.234514,-0.562126
-0.215553,-0.457728,0.634562,0.834787,0.438008,0.333586
0.505981,0.151700,-0.192063,0.887077,0.412862,-0.206492
-0.691431,-0.119399,0.115428,0.454238,-0.648256,-0.611091
-0.192583,-0.130366,0.777222,0.414922,-0.557922,-0.718723
-0.182048,0.046009,0.801225,-0.689380,-0.046073,-0.722933
-0.776363,0.212469,0.055535,-0.346325,0.826342,0.444093
0.192071,0.051042,0.687326,0.483818,0.524992,0.700217
-0.422583,0.328526,0.415120,-0.498551,-0.542135,0.676415
0.286295,-0.227343,0.652074,0.807345,-0.380084,0.451365
-0.004206,0.388244,-0.044629,0.269432,-0.303825,0.913836
-0.684260,0.035418,-0.030404,0.806715,0.559259,-0.190893
0.414536,-0.620883,0.348948,-0.151707,-0.770125,0.619590
0.334505,0.196920,0.737114,0.560759,-0.825443,0.064754
-0.517173,0.082066,0.665383,-0.697747,-0.231974,0.677744
0.032153,0.005521,-0.356273,0.959586,-0.276734,-0.051113
-0.149785,-0.039474,-0.972694,0.610409,0.518591,-0.598719
-0.503128,0.079362,0.658892,0.963086,0.036914,-0.266650
0.527197,-0.061559,0.598787,-0.576121,0.077395,0.813692
-0.463112,-0.528939,0.312879,0.129147,-0.746807,0.652381
-0.336186,0.338141,-0.032791,-0.455599,0.871964,0.179188
0.098358,0.030911,0.911821,0.619993,0.596117,-0.510150
0.505981,0.436920,0.447396,-0.346536,0.934178,-0.084991
-0.066460,0.484695,0.622397,0.780668,0.247755,-0.573738
-0.027324,0.033991,0.602368,-0.480749,0.869371,0.114342
0.021691,0.036019,-0.518930,0.887325,-0.451119,0.095630
0.624347,0.397559,0.350878,-0.241210,-0.954256,0.176674
-0.470499,0.217502,0.620337,-0.362627,0.869249,0.336018
-0.398880,0.602629,-0.495222,0.897386,0.348749,-0.270319
-0.506345,-0.215549,0.579820,-0.695423,-0.585185,0.417067
0.270639,-0.442930,0.552743,0.487311,0.663527,-0.567679
0.801311,0.143662,0.214758,0.570271,-0.803691,-0.169916
-0.373715,0.876357,0.399603,-0.025928,-0.613228,0.789480
-0.475036,0.035643,0.664991,-0.293517,-0.350358,0.889436
0.449944,-0.479662,0.599016,0.435671,0.624559,-0.648165
-0.362816,0.677972,0.376565,0.816500,0.323117,-0.478460
-0.049196,0.059531,0.600961,0.721604,-0.648852,-0.241408
0.059073,0.236657,0.604003,0.565386,0.146764,-0.811664
0.229745,0.355643,-0.131043,0.252332,0.683528,0.684922
0.134644,0.104150,0.971746,-0.419826,0.569768,-0.706478
-0.817551,0.352113,0.160899,0.324956,0.705926,-0.629343
-0.072240,-0.510535,0.234657,0.048155,0.640347,0.766574
0.094043,0.071324,0.722447,-0.094258,0.995521,0.007359
0.113939,0.411606,-0.232237,0.630264,-0.161841,0.759325
-0.271443,-0.353765,0.628921,0.961527,-0.166742,-0.218317
0.005157,-0.487249,0.690269,0.973499,-0.194381,0.120483
-0.685504,-0.204056,0.344190,-0.008873,-0.588934,0.808133
-0.025859,-0.428657,0.666348,0.988099,0.150958,-0.029546
-0.766560,0.117146,0.223015,0.559670,-0.802083,0.208403
0.348478,0.396732,0.566461,0.207261,0.873226,0.441043
0.333553,-0.152751,-0.033952,-0.040222,-0.624653,0.779866
-0.365669,0.219155,0.411130,-0.245986,-0.935992,0.251811
-0.379787,0.320638,0.470974,-0.020967,-0.303709,0.952534
-0.154907,-0.362028,0.791823,0.536699,-0.814617,-0.219896
0.184315,0.217277,0.877452,0.718034,-0.547231,-0.430075
0.145909,0.112113,-0.088384,0.699960,-0.697047,-0.155505
-0.060975,-0.301108,0.811934,0.400492,-0.911073,-0.097735
0.099528,-0.129164,0.765711,0.129001,-0.570871,0.810843
-0.365081,-0.228545,0.742035,0.880158,0.101518,0.463698
0.132228,0.345803,0.480146,-0.469546,0.841979,-0.265704
-0.219650,0.036845,0.630376,0.265649,0.648343,0.713500
-0.153589,0.301484,0.789567,0.680303,0.649653,-0.339321
0.110283,0.058479,0.985857,0.994187,-0.106464,-0.016058
0.545852,0.434967,0.443390,0.245079,-0.966671,-0.074043
0.104210,0.373521,0.404949,0.818451,0.117852,-0.562360
-0.055342,-0.005746,-0.531438,0.969229,-0.239379,0.057377
-0.087531,0.500545,0.611557,0.968482,-0.108200,0.224355
0.194485,-0.382160,-0.067749,-0.478860,0.258981,0.838822
-0.311239,-0.317634,0.561131,0.907490,-0.270722,-0.321205
-0.676580,0.556357,0.405554,0.170369,-0.377127,0.910357
-0.277077,-0.343249,0.346872,0.528237,0.683054,0.504384
0.282417,-0.537803,0.704739,-0.551704,-0.833812,0.019494
0.147008,0.106779,0.482844,0.937882,-0.250032,0.240545
0.249791,0.024601,0.800930,-0.112757,-0.927734,0.355803
-0.240352,-0.079437,0.524882,-0.661317,0.749952,-0.015250
0.956035,-0.274291,-0.071412,0.513969,0.852254,-0.097462
0.346428,0.642967,0.677008,-0.450907,0.388786,0.803448
0.451040,-0.113540,0.411653,0.273292,0.922566,-0.272367
-0.332308,-0.326648,0.698232,0.933160,-0.296658,0.202995
0.347819,0.859380,0.439073,0.040940,0.784097,0.619287
0.392077,0.408676,0.763275,-0.686721,0.726830,-0.011492
0.223162,-0.465765,0.676289,0.783805,0.607944,-0.126701
0.279491,-0.437070,0.457566,0.738232,0.569905,-0.360862
-0.460038,0.339643,0.386964,0.845230,0.322765,0.425921
0.087238,0.025127,-0.690481,-0.529630,0.843395,0.090428
0.307803,0.716131,0.470974,-0.462618,0.340459,-0.818580
-0.047879,0.202629,0.862491,0.206778,-0.855577,0.474585
-0.740591,0.030009,-0.020937,0.822729,0.554831,-0.123611
-0.046198,0.163718,0.731309,-0.702192,-0.693712,-0.160284
-0.512272,-0.475080,-0.148178,-0.252294,-0.131149,0.958722
0.575406,0.606685,0.502841,0.366892,0.621980,-0.691759
-0.434362,-0.310197,0.528561,-0.272869,0.945940,-0.175330
-0.083579,0.430235,0.832356,0.925943,-0.376931,-0.023526
-0.198800,0.489352,0.523001,0.522342,0.790213,-0.320503
0.120525,0.270160,0.832716,-0.712160,0.555262,-0.429549
0.000697,0.115042,0.861640,0.982477,0.169937,-0.076559
0.524562,0.424977,0.010309,0.972380,-0.026678,0.231874
-0.097405,0.400563,0.730590,0.873165,0.456891,0.169802
-0.086214,0.017315,0.709236,0.897152,-0.430722,0.097967
-0.498446,0.556432,0.474620,-0.811389,-0.317454,-0.490787
0.252571,0.047061,0.853792,0.042154,-0.947832,0.315972
0.200923,0.295925,0.320956,0.030660,-0.712573,0.700928
0.194558,-0.351812,0.409233,0.802451,0.595265,0.041619
0.084970,0.340545,0.629493,0.962011,-0.054345,0.267546
-0.137057,-0.139606,0.660494,-0.674252,0.695437,-0.248498
0.526904,0.209840,0.088809,0.733918,0.676407,-0.061950
0.590183,0.580469,0.517033,0.111738,-0.989697,0.089528
0.171222,-0.079437,0.261668,-0.462548,-0.560322,-0.687087
-0.692016,0.643718,0.411048,0.389374,0.227862,0.892450
-0.496178,0.209765,0.663503,0.949417,-0.252552,0.186613
-0.053514,-0.064038,0.841807,0.972157,-0.193008,0.132885
-0.460770,0.397108,0.456699,0.908895,0.317364,-0.270538
-0.271809,0.046986,0.348212,-0.383919,0.194872,0.902569
-0.017300,0.033315,0.538747,-0.508840,0.790188,0.341591
0.317167,-0.144413,-0.180945,0.042741,0.291634,0.955575
0.356671,0.209690,0.771221,0.087293,-0.324969,0.941687
0.350818,-0.065690,0.667869,0.744982,0.661163,-0.088684
-0.023227,0.171455,0.691577,0.857936,0.501889,0.109788
-0.551190,-0.027455,0.374063,-0.185995,-0.919978,0.345030
-0.038589,0.181671,0.690907,0.938623,0.342115,-0.044099
-0.106990,0.359775,0.850457,-0.224157,-0.613157,0.757491
-0.619224,0.002742,0.659971,0.033264,0.549695,0.834703
-0.719375,-0.011831,0.373262,0.110383,-0.854468,0.507642
-0.082702,-0.396207,0.627073,0.032628,-0.096876,0.994761
-0.196532,0.445408,0.761967,0.413263,-0.684877,0.600132
0.708257,-0.183249,0.534986,-0.057855,-0.638802,0.767193
0.038225,0.042930,0.727140,-0.616623,0.785843,-0.047201
0.478402,0.598197,0.609676,0.981982,0.185262,-0.037283
0.100698,0.245221,0.946746,0.886537,0.455488,0.081132
-0.345185,0.393577,-0.053344,0.817856,-0.574129,0.038569
-0.328651,-0.533371,0.604804,-0.468300,-0.531311,-0.705977
0.368082,-0.792751,0.254000,-0.409470,-0.901958,-0.137138
0.345989,0.802366,0.355112,0.993464,-0.110599,0.028246
0.602328,0.207136,-0.128132,-0.555227,0.815363,-0.164032
0.184242,-0.539756,0.665089,0.943695,0.226333,-0.241274
0.003329,-0.352113,0.739157,0.738053,0.546341,0.395966
0.287246,0.304338,0.776290,0.194760,-0.262232,-0.945147
0.042978,0.358347,0.210425,-0.692309,0.161298,0.703343
0.016425,0.064413,0.907831,0.321388,-0.463058,-0.826007
0.297194,0.456150,0.346005,0.369295,-0.650330,0.663847
-0.454698,-0.028282,0.005191,-0.064645,-0.858502,0.508720
0.307364,0.572357,0.656864,0.849714,0.137087,-0.509109
-0.628442,-0.297878,-0.112190,0.204738,0.967905,0.145745
0.178609,0.338366,-0.256125,-0.733268,0.487926,-0.473546
-0.579500,-0.365333,0.117439,0.075881,-0.358353,0.930497
0.080215,-0.133070,0.684595,-0.001290,0.442615,0.896711
-0.188558,0.262948,0.770273,0.897185,0.309803,0.314771
0.019863,-0.334310,0.204147,-0.669768,0.103883,-0.735268
-0.313068,0.281577,-0.017781,0.154027,-0.770800,-0.618177
-0.061341,-0.539906,0.713863,0.842041,-0.533146,-0.081989
-0.091480,0.171455,0.874459,-0.246785,-0.909543,0.334409
-0.332382,-0.684732,0.354344,-0.654599,-0.001422,-0.755975
0.054684,0.244319,0.832798,-0.457271,-0.003845,0.889319
0.159443,0.265728,0.627646,0.868805,-0.494560,-0.024264
0.358500,0.587906,0.559660,-0.396937,0.144232,0.906442
-0.128935,-0.040451,0.904185,-0.705300,0.321182,-0.631976
-0.070119,0.112488,0.363500,0.583412,0.811633,0.029707
0.031420,-0.143136,0.852059,0.713728,0.586149,-0.383434
0.385786,0.162066,0.728333,-0.282689,0.951446,-0.121809
-0.575551,-0.089878,0.283758,-0.589238,-0.419077,-0.690777
0.482352,-0.051718,0.743049,-0.275342,0.174442,0.945387
-0.111234,0.062685,0.829462,-0.167319,0.843133,0.511011
-0.329017,0.702009,0.418978,0.951724,0.277048,0.132157
0.522660,-0.091080,0.741054,-0.386351,0.066226,0.919971
-0.192583,0.084394,0.501369,0.749936,-0.616057,-0.240976
0.738689,0.208864,0.231191,-0.626343,0.714518,0.311702
0.396174,0.406347,0.761656,-0.686721,0.726830,-0.011492
-0.036248,0.669709,0.584742,-0.080975,-0.937618,0.338105
0.098725,0.110836,0.989863,0.981007,0.079430,0.176962
-0.742346,0.049840,0.388108,0.533073,0.671961,0.514103
-0.494935,0.035718,0.078737,0.153520,0.397788,0.904542
0.100261,-0.219906,0.847563,-0.391906,-0.916633,0.078703
-0.426972,0.284883,0.258921,0.320216,0.706189,-0.631474
-0.270273,0.070347,0.636459,0.395612,0.762804,0.511488
0.489594,0.942535,0.358759,-0.547292,0.649354,-0.528026
-0.403269,0.048113,0.656570,0.484646,0.171175,0.857798
-0.354622,-0.237634,0.510460,0.836439,-0.423195,0.348248
-0.141813,0.386516,0.165150,0.705103,-0.649502,-0.284564
0.529536,-0.488977,0.584987,0.015336,-0.827751,0.560886
-0.014302,0.107305,0.877304,0.925206,0.379230,0.013347
0.158126,0.203681,0.825326,0.871446,-0.348878,0.344768
-0.542996,-0.351737,0.122916,-0.298626,0.028610,-0.953941
-0.281319,0.348808,-0.077396,0.878695,-0.352313,0.322134
-0.009254,0.658216,0.582763,0.197290,0.700214,-0.686131
0.348770,-0.176413,0.775456,0.630869,0.376121,-0.678629
0.243864,0.316582,0.760152,-0.416981,0.660300,0.624605
0.183146,-0.239512,0.534708,0.939570,0.077114,-0.333560
0.108528,0.017014,0.920568,-0.011595,0.988160,0.152990
-0.233987,0.563718,-0.475552,-0.575441,0.496667,0.649761
-0.735907,-0.058103,0.220285,0.084857,0.473882,-0.876490
0.471817,0.101746,-0.111536,-0.763399,-0.158329,-0.626222
0.108307,0.267305,0.081435,0.852021,-0.341976,-0.396373
-0.584622,0.777577,0.393618,-0.313742,0.143748,0.938564
0.103040,0.440225,0.788847,0.994034,0.013917,0.108176
0.140643,0.555906,0.642181,0.831951,-0.515614,-0.204939
0.533048,0.150723,-0.114071,0.495510,-0.847301,0.191183
0.368814,0.175587,0.702630,0.904979,0.030476,-0.424364
-0.133765,-0.199624,0.803645,0.627151,0.371228,0.684741
0.402394,0.816413,0.468325,0.842481,-0.506985,0.182189
0.545631,0.496413,0.016719,0.949166,0.314381,0.015759
0.468452,0.130817,0.198784,0.785195,-0.619248,-0.000698
-0.044881,0.321991,-0.429606,-0.120810,0.150134,0.981257
-0.101210,0.398685,0.551893,0.827379,-0.151726,-0.540761
-0.118987,0.421822,0.503103,0.779212,0.572139,-0.255903
-0.303486,0.017615,0.553348,0.243957,0.876695,-0.414598
0.369620,0.482742,-0.275092,-0.533946,-0.520530,-0.666296
-0.080874,0.685408,0.569699,0.676176,0.137528,-0.723790
0.366986,0.251756,0.419224,-0.811391,0.573933,0.110661
-0.117159,0.224939,0.679526,0.923155,0.383951,0.019165
-0.240426,0.377352,0.473132,0.513269,0.813322,-0.273976
-0.172537,-0.107831,0.781310,0.003871,0.367063,0.930188
-0.030177,0.628394,0.375093,0.370246,0.704769,-0.605160
0.017010,0.158460,0.861837,0.903737,-0.375149,0.206211
0.213651,-0.594967,0.792477,-0.710849,0.703081,0.019257
-0.581039,-0.445859,0.122818,-0.307697,0.459896,-0.832957
0.542413,0.268883,0.716953,-0.221140,-0.003083,0.975237
-0.179705,-0.023775,-0.979284,0.740239,-0.021390,-0.672004
0.264347,0.060207,0.955232,0.777511,0.593475,0.207998
0.208458,0.525108,0.654085,0.561441,-0.804243,-0.194879
-0.132374,0.450592,0.719210,0.970551,-0.048124,-0.236041
-0.086580,0.206685,0.469600,-0.031636,0.588733,0.807708
-0.245766,-0.082967,0.184068,0.214328,0.232739,0.948629
0.398589,-0.321765,0.706783,0.465134,0.739909,0.485989
-0.791725,0.063962,0.246250,-0.412846,-0.902012,-0.126223
0.253374,0.318986,0.040198,0.179161,-0.604637,0.776090
0.110283,-0.102498,0.686705,-0.137553,-0.780814,0.609433
-0.369692,0.381408,0.471644,0.263888,-0.171170,0.949244
-0.096454,0.442554,0.093779,-0.369789,-0.927652,0.052132
-0.324920,-0.319437,0.459479,-0.572577,0.362488,-0.735362
-0.553166,0.547192,0.435656,0.997235,-0.036879,-0.064518
-0.404367,0.221634,0.319288,0.758302,0.642766,0.108761
-0.616152,-0.048939,0.179326,-0.049839,-0.876139,0.479475
-0.772266,-0.180545,0.102445,-0.445716,0.558694,0.699427
-0.353158,-0.214423,0.683778,0.863651,-0.230223,0.448446
-0.223892,-0.385014,0.581520,0.767374,-0.523119,-0.370789
-0.201799,0.199249,0.331551,0.788043,0.547736,-0.281021
-0.758366,0.076958,0.284674,0.347338,0.157594,-0.924403
0.117525,0.332432,0.837474,0.882937,0.018001,-0.469146
-0.636269,-0.001915,0.368863,-0.082550,-0.840806,0.535005
-0.109624,0.673840,0.564696,0.764421,0.289367,-0.576132
0.228357,0.187531,0.775276,0.989232,0.061128,0.132981
0.101870,-0.206535,0.864992,-0.329041,-0.046942,-0.943148
0.398297,0.621559,0.059067,0.257544,0.751001,0.608004
-0.459015,0.057127,0.586099,0.576902,0.372966,0.726691
-0.021544,0.478535,-0.039005,-0.032799,-0.150082,0.988129
-0.486156,-0.059380,-0.008870,-0.020008,-0.970797,0.239067
0.269102,-0.433540,0.625438,-0.752279,0.061952,-0.655925
0.521490,-0.036319,0.739975,-0.442941,0.453782,0.773231
-0.012692,0.542986,0.569552,-0.084219,-0.479269,0.873618
-0.241156,-0.095211,0.806064,-0.712949,0.592663,0.374772
-0.078387,0.333484,0.509381,0.801423,0.442471,-0.402419
-0.243498,-0.016864,0.789992,-0.215160,0.969263,-0.119313
-0.189142,0.239286,0.754331,0.584911,0.770506,0.253378
0.326822,-0.206385,0.574522,-0.214311,-0.409410,0.886822
-0.024105,0.028131,-0.269615,0.939820,-0.341503,-0.010734
0.450455,0.569052,0.225566,-0.248838,0.967512,0.044715
0.028494,-0.083418,0.053589,0.515137,0.836279,-0.187810
-0.004280,0.240113,0.865630,0.117006,-0.381309,0.917013
-0.415999,-0.295925,0.116490,-0.178192,0.003174,0.983991
0.172026,0.502272,0.660511,0.811158,-0.584668,-0.013651
0.173928,0.337390,0.794848,0.909387,0.272247,0.314478
-0.404001,0.213221,0.553005,0.124388,0.965727,-0.227815
-0.171441,0.304113,0.441853,0.619652,0.765238,-0.174475
0.512786,-0.050516,0.481193,0.173423,-0.960373,0.218195
0.252863,-0.428958,0.467147,0.271234,0.939072,-0.211130
0.479938,-0.241390,-0.040378,-0.367442,-0.835734,0.408087
-0.152931,-0.340845,0.803530,0.747435,-0.642567,-0.168667
-0.064194,-0.072000,0.545173,0.985951,-0.156332,0.058824
-0.887047,-0.046160,0.210638,0.095362,-0.811572,0.576418
-0.443358,-0.122554,0.576190,0.389931,-0.548823,0.739423
0.122425,0.365709,0.835054,0.919520,0.051288,-0.389682
-0.501079,0.537878,0.193290,0.886633,-0.420762,0.191941
-0.495372,0.824000,0.400698,-0.525852,0.345680,-0.777164
-0.616299,0.130892,0.164447,0.024085,-0.941978,0.334809
-0.069901,-0.288939,0.120039,0.064351,-0.114700,0.991314
-0.347525,-0.551850,0.306731,-0.028525,0.907537,0.419002
-0.745710,-0.078610,0.347722,-0.567030,-0.695550,0.441234
0.410879,0.674967,0.400404,0.987990,0.081196,0.131468
0.417756,0.878761,0.358530,-0.635449,0.618464,-0.462285
0.132449,-0.237484,-0.022948,0.048206,-0.626900,0.777607
-0.734811,-0.022122,0.337568,0.061989,-0.902419,0.426377
0.031787,0.057052,0.883583,0.716408,0.560012,-0.416107
-0.339550,0.647023,0.338762,0.780529,0.622894,0.052703
0.006767,0.647925,0.009475,0.846075,0.252183,0.469638
0.202167,0.329577,0.871238,0.931196,0.120981,-0.343856
-0.245400,0.314329,0.795387,0.472478,-0.833836,0.285450
0.404807,-0.155681,-0.040231,0.060853,-0.664642,0.744680
-0.300633,0.147117,0.570075,0.033671,-0.756880,0.652686
0.055268,-0.221709,0.839126,0.856074,0.499380,-0.133257
-0.458502,0.755042,0.293111,0.874559,-0.467239,-0.129745
0.715133,-0.171981,0.526451,0.231864,0.817810,0.526712
0.186876,0.388620,0.872138,0.818301,0.543285,-0.187684
-0.516077,-0.511587,-0.150794,-0.252294,-0.131149,0.958722
0.266470,-0.764357,0.557828,0.898883,0.396953,-0.185572
-0.577746,-0.376751,0.591413,-0.182641,0.972673,0.143350
-0.182851,0.151399,-0.103950,-0.561168,0.225775,-0.796314
0.162004,0.210216,0.947678,0.989439,0.142692,-0.025481
0.872199,0.067343,0.340855,-0.374681,-0.924912,-0.064431
-0.307290,-0.516545,0.076758,-0.472260,-0.874818,0.108002
-0.314240,0.295925,-0.093322,0.474227,-0.440485,0.762287
-0.673361,-0.114742,0.187829,0.214786,0.959098,-0.184388
-0.514467,-0.485671,0.322182,0.660779,0.745200,0.089710
-0.154322,0.397033,0.691871,0.789761,0.613099,-0.019686
-0.055708,0.094310,0.953024,-0.002118,-0.980101,0.198490
0.296610,0.633653,0.444256,-0.729383,0.355694,0.584365
-0.516077,0.784563,0.402529,0.101418,-0.307499,0.946128
-0.104795,-0.336038,0.529280,0.071761,-0.830122,0.552944
0.355062,0.319061,0.490872,0.114156,-0.976583,-0.182358
0.203703,-0.190836,0.904348,-0.210065,-0.904912,0.370144
0.137716,-0.103023,0.357941,0.897367,0.259859,0.356659
0.176636,0.022047,0.029897,0.376557,-0.924426,0.060336
0.238231,0.099343,0.882389,-0.534173,-0.754796,-0.380713
-0.085555,0.065164,0.780966,-0.266714,0.374491,0.888043
-0.031640,-0.069521,0.146592,-0.460652,0.881386,-0.104680
0.040346,0.047362,0.491150,0.549385,-0.785511,-0.284866
-0.060535,0.018216,-0.378772,0.925941,-0.371445,-0.068282
0.304437,-0.114592,0.618931,0.117364,-0.882498,0.455437
0.245987,0.159962,0.666037,-0.016813,0.937948,0.346368
-0.109111,0.463662,0.623771,-0.348521,0.261041,0.900217
-0.433484,0.585728,0.368684,-0.017256,0.791680,0.610692
0.027616,0.647624,-0.231158,-0.277596,0.577441,0.767791
0.705038,-0.009352,0.599114,-0.234677,0.926179,0.295158
0.129962,-0.287061,0.316280,0.786128,0.618050,0.004104
0.136399,-0.130441,0.193371,-0.526539,-0.278276,0.803318
0.079922,-0.549596,0.458089,0.662747,-0.723640,-0.192644
-0.111819,-0.163117,0.868802,0.949504,-0.275663,0.149839
0.476279,0.834141,0.449652,0.725940,-0.682530,-0.084638
-0.176341,0.592413,0.541036,0.683581,-0.044757,-0.728501
0.006182,0.666930,0.579656,-0.356695,-0.064880,0.931965
-0.218186,0.097991,0.554296,-0.148382,0.714203,-0.684030
-0.148908,0.088751,-0.928989,0.859732,0.480768,-0.172403
0.015766,-0.163718,0.613012,0.585931,0.238564,0.774449
-0.256154,0.261371,0.304671,-0.483521,-0.462543,0.743143
-0.177584,0.428282,0.714762,0.895773,0.036991,-0.442970
-0.297561,0.367286,-0.043812,-0.302326,0.934421,0.188298
0.004353,0.046310,0.683369,-0.700713,0.699826,-0.138726
-0.453675,0.124432,0.177397,0.572586,0.776381,-0.263396
0.296902,-0.175587,-0.049747,-0.044376,-0.814263,0.578797
-0.565603,0.056977,0.376990,-0.358619,-0.914442,0.187586
0.336699,0.595493,0.450323,0.754010,-0.134209,-0.643006
0.308388,0.611117,0.674703,-0.601389,0.306197,0.737953
-0.326238,0.547568,0.485607,0.982838,-0.092604,-0.159541
0.091554,0.184601,0.937508,0.966570,-0.251805,-0.048334
-0.263689,-0.169352,0.797153,0.747660,0.308188,0.588239
-0.469182,0.306141,0.662603,0.926857,-0.224654,0.300776
-0.768683,0.067493,-0.026660,0.802473,0.593488,-0.061724
0.000475,-0.484620,0.682110,0.993492,0.025530,0.111001
0.145032,-0.344901,0.858845,0.940558,0.316091,0.124248
0.542778,0.305840,0.725766,0.404913,-0.910251,0.086535
0.369913,-0.121127,0.656995,0.872894,0.486573,-0.036096
-0.331649,-0.197596,0.469698,-0.590954,0.614224,0.522974
-0.849374,-0.072901,0.151939,0.276664,0.959068,-0.060372
0.348770,0.310648,0.584971,-0.234407,0.186853,0.954012
0.216138,-0.101746,0.695697,-0.651896,0.360699,0.667029
-0.064632,-0.063587,0.578381,0.959297,-0.278425,-0.047220
0.062805,-0.307192,0.684595,0.952563,0.291192,0.088490
-0.323677,0.207211,0.581553,0.101996,-0.917145,0.385283
0.647537,0.270310,-0.142325,-0.373717,0.923918,0.081918
0.029885,0.067042,0.849296,0.909347,-0.075308,-0.409166
-0.222575,-0.102197,0.691904,-0.457201,0.888538,-0.038315
0.345696,0.599775,0.549882,-0.320319,0.070318,0.944696
-0.079409,0.523080,-0.440120,0.246651,0.906813,-0.341837
0.472330,0.848113,0.459234,0.682150,-0.697859,0.218323
0.191850,0.751737,0.554509,0.212458,-0.421497,0.881591
0.538388,0.127587,-0.009017,-0.336656,0.855590,0.393229
0.300706,-0.090779,-0.029521,0.114508,-0.723557,0.680701
0.357183,0.206009,0.694602,-0.078435,0.623701,0.777718
0.589232,-0.475230,0.432402,0.911009,-0.384197,-0.149851
0.314240,0.653634,0.457304,-0.598309,0.070080,0.798195
0.380885,0.659268,0.067111,0.111722,0.651852,0.750072
0.078386,-0.215249,-0.028949,-0.283935,-0.652597,0.702494
0.452358,-0.412732,0.153541,0.245935,-0.767740,0.591685
-0.427557,0.298554,0.451500,0.934122,0.301287,-0.191422
-0.731154,0.131042,0.281207,-0.236489,-0.498176,0.834202
0.168221,0.260995,0.792003,0.996593,-0.010632,-0.081790
0.108162,0.199249,0.753088,0.925407,-0.201069,0.321236
0.011814,-0.038648,-0.968280,-0.135239,0.138757,0.981049
-0.422071,-0.210892,0.751126,0.906567,-0.251454,0.338980
-0.594865,-0.004695,0.664239,-0.033054,-0.519854,-0.853615
-0.073705,-0.084545,0.867478,0.977867,-0.136712,0.158386
-0.047001,-0.504451,0.702074,0.809096,-0.542547,-0.225845
0.193241,-0.434817,-0.090738,0.829851,-0.471821,0.297879
-0.276345,-0.438873,0.080355,-0.306405,-0.873002,0.379451
-0.284978,-0.284507,0.696286,-0.611535,0.540826,-0.577522
0.114013,0.711700,0.578447,0.296897,-0.394897,0.869430
-0.451114,-0.062460,0.207580,0.047414,-0.328361,0.943362
0.238012,-0.358047,0.204833,0.667161,0.281432,-0.689705
0.096383,-0.007399,-0.768147,0.783048,-0.601484,-0.158280
-0.611470,0.426329,0.446529,0.931679,-0.314684,0.181518
0.075460,-0.464714,0.744668,0.457423,0.778567,0.429648
-0.067119,0.689465,0.406143,0.661249,0.660679,-0.355321
0.426168,-0.212995,0.638715,0.737266,0.479495,-0.475944
-0.168074,0.536977,0.526075,0.860711,0.258484,-0.438592
-0.275686,-0.067042,0.530850,-0.607681,-0.404892,0.683218
-0.123084,-0.331981,0.705720,-0.368746,-0.918110,0.145261
0.070485,-0.090479,0.854937,0.412652,0.302308,-0.859260
0.386592,0.441352,0.761215,-0.512220,0.301179,0.804315
-0.321409,-0.069221,0.796924,0.992347,0.029330,0.119946
0.282710,0.710347,0.434021,-0.455458,0.375291,0.807288
-0.572553,0.409953,0.164431,0.845539,-0.359521,-0.394725
0.456821,0.626216,0.054734,-0.779637,-0.315598,-0.540892
-0.038808,0.019869,-0.819129,0.968515,-0.242008,-0.058407
-0.077728,0.694122,0.565840,0.665275,0.278635,-0.692656
0.254544,-0.210366,-0.045888,-0.067853,-0.773721,0.629882
0.509932,0.249803,0.714566,-0.013913,0.451711,0.892056
