-0.221439,-0.732823,-0.535266,-0.223560,0.695578,-0.682783
0.272948,-0.451009,-0.500007,0.502337,0.845600,-0.180603
-0.109574,-0.482638,0.516041,0.548711,0.703432,-0.451774
0.440836,-0.375374,-0.124543,-0.520206,0.492199,-0.697944
-0.034510,0.270960,0.749753,0.327095,-0.815168,0.478028
-0.545816,-0.010461,0.018843,-0.112721,-0.688672,0.716257
0.063072,0.613477,-0.512586,0.998837,-0.020703,-0.043552
-0.331348,0.257797,0.584952,-0.644168,0.042294,0.763714
0.073614,-0.707283,-0.554096,-0.041362,-0.401707,0.914833
0.608974,0.069005,0.286602,0.129088,-0.152760,0.979796
-0.388134,-0.175776,0.164260,-0.502324,0.752269,-0.426335
-0.129378,0.466628,-0.465828,0.880723,0.266141,-0.391786
0.295990,0.187270,0.518836,0.651204,-0.167657,-0.740151
-0.069619,0.420559,-0.592626,0.858384,-0.025814,0.512358
0.292757,-0.283433,0.459525,0.555252,-0.038996,0.830767
-0.410573,-0.143951,0.618972,-0.692795,0.690907,0.206597
0.292078,0.244831,0.748276,-0.677340,0.449513,-0.582365
0.017254,-0.015569,-0.065918,-0.442970,-0.673391,0.591881
0.223987,0.046412,0.614463,0.074314,-0.945601,0.316727
-0.530433,0.263297,0.396416,0.948466,0.171548,-0.266427
0.268616,0.415157,0.477326,-0.229311,-0.432369,0.872051
-0.248553,-0.463287,0.347864,-0.757458,0.340401,0.557121
0.065370,0.118905,0.693975,0.577956,0.405833,-0.708002
-0.102684,0.505133,0.658874,-0.801080,0.537266,-0.263848
0.225009,0.106920,0.772512,0.941916,-0.052476,-0.331722
-0.411849,-0.400814,0.147988,0.773908,0.022247,0.632907
0.507309,0.148766,0.248309,-0.417496,-0.796988,-0.436472
-0.078631,0.099357,0.773066,0.263368,0.944237,0.197619
-0.009606,0.544325,0.111357,0.248617,0.766047,-0.592757
-0.322767,-0.385197,-0.475375,0.305316,0.492443,0.815035
-0.329651,-0.077255,-0.131717,0.757211,0.359716,-0.545192
0.639408,0.339031,-0.008769,-0.549002,-0.603786,-0.577961
0.089765,0.347184,0.600327,0.252766,0.613600,0.748067
0.756202,0.215167,0.019634,0.553706,0.502040,0.664353
-0.502209,0.227347,0.454593,0.678054,-0.296752,0.672444
-0.191430,-0.444526,0.492095,-0.051659,-0.597076,0.800520
-0.371474,0.018810,0.257777,0.305014,-0.715108,0.628957
-0.044798,-0.121948,0.580179,-0.100050,0.161037,0.981864
-0.008844,0.875154,-0.215502,0.049914,0.320391,-0.945969
-0.140683,-0.316635,-0.550879,0.977827,0.205048,-0.042544
0.029327,-0.287264,-0.726782,0.937805,-0.298104,-0.177921
-0.496092,0.085801,-0.094795,-0.214254,0.974102,0.072250
-0.034344,-0.625755,0.052995,-0.797224,0.579863,-0.167909
0.561117,0.226954,-0.469626,-0.603066,0.699201,0.383966
-0.280005,-0.580472,-0.166950,0.297067,0.212198,0.930980
0.395952,0.321645,0.496314,0.455608,0.667544,0.588903
0.159978,0.977899,0.106188,0.964072,-0.144243,0.223067
0.057971,0.595109,0.107929,-0.609094,0.365254,-0.703984
-0.277032,0.678700,0.097591,-0.268474,-0.143583,-0.952526
0.421028,-0.241589,0.184119,-0.542172,-0.028888,0.839771
0.454778,0.058200,0.377375,0.954810,-0.294295,0.041578
-0.550662,-0.690879,-0.602199,-0.138749,0.681632,0.718420
-0.375469,-0.256323,-0.171644,0.910469,-0.351220,0.218381
0.000340,-0.793723,-0.559107,-0.253804,-0.340034,0.905517
0.108038,0.069299,0.827868,0.294393,-0.930303,0.218789
-0.029581,0.358283,0.577357,-0.426921,0.645628,-0.633169
-0.022696,-0.432345,-0.441302,0.321720,0.935983,0.142942
0.021674,0.036295,0.658241,0.425644,-0.601822,-0.675749
-0.007142,0.219586,0.318327,0.593861,0.378005,0.710240
0.163040,0.221650,0.673062,0.033136,0.165000,0.985737
0.090870,0.145720,-0.989082,-0.011101,0.250813,0.967972
-0.079648,-0.009478,0.496921,0.105665,-0.667815,0.736789
-0.386858,0.245912,0.572161,0.816646,-0.577082,0.008120
-0.536296,-0.766121,-0.581524,-0.536771,0.080639,0.839866
-0.273888,-0.240803,0.339531,0.770809,-0.581636,-0.259910
0.146717,0.488336,0.530177,0.702409,0.351943,0.618674
0.499573,0.410737,-0.437504,0.037948,-0.256159,0.965889
-0.173328,0.532342,0.402244,0.594736,-0.095731,-0.798201
0.408617,0.281274,0.042156,-0.350436,0.578940,0.736222
-0.384736,-0.188153,0.572979,-0.695789,0.437694,-0.569475
0.155558,0.555621,0.567731,0.492798,0.743041,-0.452815
-0.554657,0.305535,0.474056,-0.818834,-0.153651,-0.553084
-0.465829,-0.431560,0.147540,0.788088,0.162148,0.593822
-0.494048,0.484505,0.349183,-0.723542,-0.231347,-0.650358
-0.124361,0.037769,0.766868,0.666250,-0.732187,-0.141468
0.416607,0.628015,-0.079288,0.836643,-0.256912,0.483761
0.980959,0.021659,0.299155,-0.226248,0.397474,0.889284
-0.220080,0.521537,0.511479,-0.520888,0.511694,-0.683260
0.241160,-0.938608,-0.501536,0.039032,0.888579,0.457060
0.369518,-0.083542,0.743555,0.699794,0.432641,-0.568428
0.162018,0.559157,0.094664,-0.649020,0.294670,-0.701386
-0.595038,0.084034,-0.518204,-0.168878,0.027958,0.985240
0.229087,0.090025,0.145272,0.284611,0.958612,-0.007728
0.235634,0.036885,0.147118,0.364181,0.921592,0.134314
-0.428934,0.313983,-0.499004,0.005928,0.803131,0.595774
-0.615604,-0.015176,0.332437,0.842791,-0.301415,0.445928
0.352516,-0.335395,0.202421,0.338695,0.537733,-0.772094
0.636176,0.601887,-0.222754,0.343202,0.235047,0.909376
0.565112,0.164972,-0.351741,-0.803589,0.444614,-0.395680
0.136859,0.244733,0.641916,-0.076330,0.898011,0.433302
-0.489544,0.207604,-0.485370,-0.692133,0.461954,0.554572
0.117985,0.180885,0.768767,0.851571,-0.520305,0.064102
0.295819,-0.090516,0.727969,-0.712289,0.168517,0.681357
-0.677916,0.306125,0.494416,-0.234927,0.972012,0.001407
0.339934,-0.360837,0.633714,-0.685966,0.715716,-0.131157
-0.464381,-0.069888,0.303242,-0.162682,-0.862956,0.478373
0.014281,0.146310,0.790050,0.534000,0.655387,-0.534146
-0.086793,-0.633613,-0.534924,0.571311,-0.314294,0.758171
-0.231297,-0.287461,0.289107,-0.449963,0.439617,0.777348
-0.172223,-0.531948,0.359969,-0.621070,0.580196,0.526919
0.456391,-0.030892,-0.087912,-0.934505,0.077241,-0.347469
-0.547772,0.177448,0.037462,0.557634,0.116087,-0.821930
0.229683,0.422524,-0.233092,0.318696,-0.892910,0.318034
-0.737420,-0.501890,-0.302926,0.091209,0.605079,0.790923
-0.254929,-0.559452,-0.427324,-0.399364,-0.910698,0.105534
0.394930,-0.035115,0.148437,-0.576919,-0.803483,-0.146900
-0.135500,0.006532,0.744610,-0.705786,0.692920,-0.147406
0.320043,-0.105152,0.742500,0.510844,-0.197814,-0.836605
-0.413717,0.112716,-0.451587,-0.333845,0.724484,0.603051
-0.429106,0.532833,-0.129554,-0.304613,0.523346,0.795814
-0.256543,-0.161436,0.501536,-0.043153,-0.674950,0.736600
0.248895,-0.749423,-0.540752,-0.647535,-0.724891,0.235014
0.405219,0.357202,-0.260625,-0.287664,0.660946,-0.693109
0.219737,0.372527,0.596767,-0.639013,0.461414,0.615434
-0.131505,0.164383,0.506679,0.466851,-0.203997,0.860486
-0.384222,0.120967,0.394570,0.099183,-0.194765,0.975822
-0.008927,-0.128628,0.688411,-0.345315,0.545243,0.763850
-0.224754,0.272727,0.469256,0.927186,0.007487,-0.374526
0.096313,0.499632,0.490249,0.407171,-0.772151,0.487847
0.077184,0.180591,0.198571,0.927454,0.347175,-0.138919
-0.110591,-0.259761,0.509131,0.991871,0.117636,0.048523
0.178340,0.163794,0.615333,0.578376,0.207104,-0.789043
-0.204183,-0.411227,-0.951633,0.026700,0.055719,0.998089
0.114586,0.082953,0.775097,0.635086,0.771186,0.044013
-0.250001,-0.140710,0.219115,-0.424969,0.899883,0.098040
-0.422392,0.272825,0.418411,0.415362,0.101384,0.903989
-0.540379,0.141594,0.307990,-0.312431,0.377128,-0.871872
0.233850,-0.948725,-0.311945,0.817237,-0.567185,-0.102098
0.482063,0.145425,0.114812,0.905274,0.423336,-0.035565
-0.056446,0.103384,0.765734,-0.541164,-0.564715,0.623089
0.497026,0.139827,0.245962,0.767221,0.113586,0.631245
-0.791228,-0.188939,0.020241,-0.295725,-0.000483,-0.955273
0.181826,0.319288,0.580047,-0.688424,0.722241,-0.066638
-0.320722,0.192083,0.416459,-0.185269,0.176965,-0.966622
-0.155901,-0.397377,-0.950737,-0.048234,0.121439,0.991426
0.192364,0.061736,0.709720,-0.459712,0.757948,0.462795
-1.000000,-0.036196,-0.456941,0.082558,0.062093,0.994650
-0.266235,0.253868,-0.083772,0.513889,0.828150,0.223799
0.037571,-0.395019,0.418173,0.024557,0.992473,0.119974
-0.142385,-0.099946,-0.413874,0.133701,-0.218124,0.966719
0.123681,0.008595,0.793926,0.435027,-0.789451,0.433034
-0.281794,-0.581945,-0.072273,0.921650,-0.290440,0.257304
-0.173582,0.086980,0.485264,0.289274,0.314301,0.904177
0.291907,0.073720,0.828211,0.999498,-0.019440,-0.025035
-0.273208,0.376357,0.202157,-0.183051,-0.834868,0.519122
-0.172731,0.147193,-0.715838,-0.562980,0.172801,0.808203
-0.330585,0.548156,0.399871,0.963699,0.265947,-0.023605
0.417375,-0.450812,-0.238868,0.954767,0.283666,0.089187
-0.661936,0.202201,-0.717236,0.960477,-0.194295,-0.199334
0.222119,0.480674,0.262260,0.842582,0.491713,0.219714
0.644425,0.211237,0.282909,0.519010,-0.048410,-0.853396
0.061033,-0.412995,0.587352,0.905618,-0.395398,0.153350
0.001274,-0.161829,0.645740,0.855282,0.219055,0.469583
0.232319,0.451500,0.488376,0.118844,-0.946870,0.298852
0.049727,0.348264,0.715231,-0.691408,0.026174,-0.721990
0.283834,-0.031776,0.761330,-0.418463,-0.875460,0.241782
0.213361,-0.009970,0.516015,0.790386,0.403079,-0.461321
0.305676,-0.083640,0.730026,-0.348479,0.579257,0.736901
0.281110,0.410344,0.185701,-0.512095,-0.373749,0.773350
0.130737,-0.254947,0.464219,0.430160,-0.834045,-0.345445
-0.176809,-0.637248,0.016048,0.949650,-0.210494,-0.232072
0.004677,-0.472226,-0.414692,0.846385,0.485069,0.219865
-0.017425,-0.029222,0.057505,-0.673487,0.738175,-0.038897
0.677662,0.354060,-0.221330,0.187350,-0.556704,0.809309
0.085262,0.247876,0.720216,-0.358303,0.482709,-0.799131
-0.297686,0.701685,0.390509,0.085059,-0.936605,0.339905
0.254929,0.257600,0.643499,0.688083,0.429814,-0.584638
-0.118835,0.176662,0.755265,0.456215,-0.886261,0.080054
-0.725518,-0.498747,-0.496578,0.187553,0.387719,-0.902496
-0.446279,0.056334,0.511373,0.889344,0.127308,0.439158
-0.169074,-0.551201,0.089257,0.763250,-0.619357,0.183974
0.154370,0.078925,0.689123,0.767531,-0.332030,0.548318
-0.078206,0.371446,-0.445047,0.836033,0.218514,-0.503290
0.354130,0.388832,0.360945,0.083412,-0.335536,0.938327
0.037146,0.067924,-0.350581,0.864864,0.400981,0.302034
0.754080,0.345022,-0.345491,-0.276904,0.299490,-0.913033
-0.330077,-0.158489,0.605127,0.920373,0.132786,0.367807
0.147060,0.073130,0.727996,0.903411,0.283113,0.322018
0.217953,0.217721,0.691180,0.881486,0.063078,-0.467978
-0.177406,-0.728303,-0.133352,-0.512085,0.785896,0.346606
-0.493539,-0.271450,-0.404961,0.948707,0.062609,-0.309896
0.036040,0.218997,0.682002,-0.017129,0.549939,0.835029
0.439560,-0.232748,-0.015177,0.884061,0.396765,0.247009
0.100562,-0.293649,0.467252,0.212318,0.697127,0.684788
-0.252719,-0.154068,0.662355,-0.066920,0.941688,0.329766
0.198994,-0.114090,0.029946,0.071792,0.266893,0.961048
-0.168736,-0.123422,0.724119,0.498398,-0.831195,0.246402
-0.153436,-0.335003,-0.245197,-0.270349,-0.931104,-0.244859
-0.391958,0.114484,0.352110,0.775542,-0.001314,0.631295
-0.076930,0.547273,0.420573,-0.685578,-0.565189,-0.458850
-0.278391,-0.371445,-0.062437,0.561164,-0.437436,-0.702670
-0.198828,0.163401,0.502617,-0.176566,0.686438,-0.705427
0.239287,0.050931,0.558210,0.305419,0.943110,0.131386
0.734105,0.322136,0.289239,0.182618,-0.208774,0.960762
-0.160150,0.180885,0.399607,-0.222264,0.081779,0.971551
-0.585346,-0.263396,0.182220,-0.117232,0.625420,0.771431
0.078714,0.238840,0.372707,0.852568,0.522111,-0.022992
0.655388,0.119297,0.030500,0.012619,-0.935165,0.353988
0.140600,0.122047,0.845300,-0.143615,0.635801,0.758374
-0.308146,0.054762,0.457125,0.024147,0.720556,0.692976
-0.075228,0.516232,0.509896,-0.195798,0.852881,0.484001
0.130058,0.216051,-0.554861,0.937023,-0.323052,-0.132760
0.125040,-0.059574,0.492464,0.432560,-0.543813,-0.719137
0.235634,0.533324,0.565832,0.951675,-0.009373,0.306965
-0.020569,0.047198,0.819745,-0.207316,0.880034,-0.427271
-0.019044,0.034331,-0.253662,0.923810,0.340526,0.174978
-0.555337,-0.212710,0.138679,0.839305,-0.378610,-0.390156
-0.078968,-0.092382,0.343698,0.867054,-0.115692,-0.484596
0.047860,0.098964,-0.403484,0.705107,0.657860,-0.264659
-0.231043,-0.666126,-0.761515,0.469975,0.824215,-0.315899
-0.186755,-0.066254,0.722985,0.663460,-0.444428,0.601917
-0.706732,-0.614557,-0.595079,-0.240564,0.166296,0.956282
-0.055341,0.328717,0.607922,0.600493,0.658597,-0.453495
0.560525,0.563578,-0.209805,-0.536247,-0.426016,-0.728663
-0.603536,0.049654,-0.073856,0.493398,0.812492,0.310508
0.726198,-0.114286,0.275578,0.594981,0.415473,-0.688026
-0.221268,-0.236089,0.496473,0.402849,0.281449,0.870919
-0.180638,0.420265,0.614964,-0.339803,0.859783,-0.381192
-0.492943,-0.438239,-0.559977,0.460185,-0.880736,0.111958
-0.102264,-0.432739,0.098013,0.703881,-0.709277,-0.038444
0.116288,0.196012,0.860728,0.774342,0.463564,0.430701
-0.115691,-0.340896,0.027678,0.901050,0.118037,-0.417345
-0.545816,0.328914,-0.334230,0.358622,0.921692,0.147902
-0.083389,-0.593929,-0.095059,-0.837218,0.413840,-0.357494
-0.008158,-0.147586,-0.711750,0.990585,-0.012976,-0.136284
0.168140,-0.316339,0.594499,0.167415,0.638276,0.751382
-0.456479,-0.369578,0.124623,0.802860,0.240334,0.545578
0.505353,0.216934,0.395387,-0.271047,0.381107,-0.883907
0.071061,0.174500,0.765207,0.881341,0.292697,0.370899
-0.166609,0.434311,0.473502,-0.130690,0.980498,0.146777
0.597923,0.420952,-0.205849,0.471808,-0.258925,0.842825
-0.242519,-0.101812,0.315954,0.621568,0.335818,0.707729
-0.018530,0.198959,0.716866,0.299620,0.817857,-0.491261
0.357191,-0.008791,0.173332,0.998546,0.050130,-0.019822
0.501187,-0.133637,-0.101599,0.514775,-0.506220,0.691916
-0.069873,0.591474,0.122987,-0.702589,-0.197152,0.683740
0.085687,-0.636560,-0.442858,-0.283120,0.394920,-0.874003
0.341123,0.513090,0.220697,0.938137,0.329756,0.105636
-0.442113,0.182653,0.047088,0.223536,0.611552,-0.758971
0.211239,-0.074799,0.491515,-0.467682,0.837276,0.283272
0.054148,-0.334708,-0.671401,0.755695,-0.238319,-0.610024
-0.040720,-0.494229,-0.463850,0.831122,0.414048,-0.371215
-0.120791,0.209273,0.711988,-0.011818,-0.863039,0.504998
-0.173069,-0.353470,-0.145430,-0.100092,-0.325429,0.940254
0.056358,0.480576,0.305405,0.059620,0.988966,-0.135617
-0.391107,0.173125,0.422656,0.699901,0.379127,0.605311
0.600646,0.022838,0.464035,0.822404,-0.536796,0.188419
-0.506629,-0.294336,-0.458312,0.919062,0.330405,-0.214844
0.045561,0.034822,0.703733,-0.402168,-0.473734,-0.783478
-0.381929,-0.568783,-0.444572,0.238681,0.948705,-0.207340
0.139832,-0.019399,0.790261,0.782220,-0.540145,-0.310442
-0.532555,-0.866313,-0.672851,0.989801,0.063652,0.127443
-0.477814,0.240411,-0.274708,0.900652,-0.430794,-0.056947
-0.304659,-0.359952,-0.378456,0.002069,-0.826212,0.563355
-0.633628,0.399146,0.269961,-0.341780,0.307808,0.887942
0.320551,-0.232160,0.182510,-0.216946,0.521822,0.825007
0.142639,0.135210,0.849994,-0.591866,0.255024,0.764629
0.242602,0.310938,0.675488,-0.691654,0.317676,0.648611
0.573698,0.211139,0.393199,0.737610,0.383090,0.556034
-0.337812,-0.107214,0.591044,0.934712,0.256453,0.246061
-0.500424,-0.487451,-0.644580,0.900411,0.354374,-0.252346
0.768104,0.173421,0.013674,-0.307263,-0.586802,-0.749168
0.135158,0.358382,0.454884,0.266665,0.052884,0.962337
0.218803,0.012229,0.500086,0.944556,0.242162,-0.221747
0.432758,-0.131280,0.367749,0.310928,-0.508345,0.803062
-0.619942,-0.692843,-0.592310,-0.042481,-0.912778,0.406240
-0.587556,0.284613,0.338740,-0.423767,0.556797,-0.714422
0.026012,0.286381,-0.742105,0.578629,-0.077349,-0.811915
-0.613819,0.423408,0.262128,0.244731,0.351038,0.903814
-0.797262,-0.263198,-0.461635,-0.156517,0.501022,-0.851164
0.205625,0.343255,0.188444,0.616039,-0.737137,-0.277713
-0.223395,-0.453857,-0.661432,-0.099564,-0.646230,0.756620
-0.095208,0.528216,0.487928,0.263205,-0.877405,-0.401103
0.099623,-0.095230,0.834672,0.893349,-0.323433,0.311960
0.231297,0.296204,-0.438770,0.234387,0.228446,0.944921
0.340957,0.331762,-0.227053,0.467935,-0.883340,0.027319
-0.244984,-0.050734,-0.957962,0.058589,-0.047419,0.997155
0.013938,0.182949,-0.528278,0.722961,-0.480110,0.496812
-0.139921,0.221453,0.659032,0.837414,-0.073434,0.541614
-0.080753,0.168018,0.764416,0.879040,-0.305855,0.365706
0.322849,0.214970,0.482073,-0.172114,0.572035,0.801968
0.182677,0.444428,0.502064,-0.676566,0.580543,-0.453022
-0.124449,0.184913,0.149597,-0.049953,-0.745930,0.664148
0.579053,0.353077,0.008373,-0.433769,0.894489,-0.108322
-0.247962,0.672905,0.414903,0.191469,0.971099,-0.142502
-0.183611,0.105153,-0.508630,0.168909,-0.520616,0.836916
-0.582628,0.129710,0.434366,-0.358116,0.922756,-0.142385
0.629971,0.392761,-0.016997,0.226713,0.424422,0.876622
-0.196022,-0.141692,0.552910,-0.700345,-0.705628,-0.107730
0.141617,-0.203084,0.435553,-0.105006,0.988373,0.109971
0.326502,-0.360346,-0.091552,-0.543350,0.839493,0.004755
0.553298,0.216051,0.422656,0.292174,0.312739,0.903786
0.442450,-0.675654,-0.563511,-0.417628,0.766212,-0.488370
0.130991,0.255636,0.694107,0.789268,-0.599117,-0.134594
-0.277628,-0.133441,0.177420,-0.285481,0.953497,0.096667
0.136605,-0.163695,0.506784,-0.471555,0.591023,0.654468
-0.501955,-0.058199,-0.203819,0.446965,0.859103,-0.249326
0.138644,0.381956,0.532234,0.987616,0.027123,0.154529
-0.126488,-0.094347,0.700489,-0.102310,-0.984702,-0.141049
-0.029073,0.039832,0.646953,-0.435725,-0.126391,0.891162
-0.055253,0.363784,0.692208,-0.633797,0.771743,-0.052095
0.220334,0.003782,0.554808,0.453053,0.611610,0.648595
-0.556696,-0.364471,-0.432335,0.879553,0.196791,-0.433198
-0.222544,-0.367614,0.281011,-0.649240,0.651422,0.392602
0.286889,-0.112519,0.184646,0.011260,0.071006,0.997412
0.190154,0.213006,0.721482,-0.176468,-0.921929,0.344827
-0.737078,-0.072835,-0.185200,0.094649,0.758969,0.644211
0.202906,0.053387,0.917718,0.896118,-0.442334,0.036239
0.246431,0.185109,0.475507,0.275994,0.449481,-0.849585
-0.084069,0.016552,0.580469,0.820532,0.002417,0.571595
0.120963,0.061736,0.701702,-0.307517,0.123373,-0.943511
-0.098523,0.305044,0.728207,-0.583775,-0.797649,-0.151535
-0.215234,0.766122,0.313264,0.006243,0.167631,0.985830
-0.188966,-0.456018,-0.073645,0.644237,-0.222062,0.731880
-0.436416,0.005059,0.512375,-0.709458,0.382510,-0.591908
-0.109912,-0.382741,-0.546818,0.899983,0.202357,-0.386111
0.067580,-0.158293,0.740602,0.476083,-0.871856,0.114946
-0.440582,-0.443937,-0.528726,0.777272,-0.369775,-0.509034
-0.517935,0.033839,-0.275314,0.864632,-0.316940,-0.389820
-0.583048,0.044841,0.409734,0.106759,-0.789857,0.603928
0.354047,0.053878,0.029524,0.958177,-0.074837,0.276217
-0.377845,0.581259,0.250023,-0.230111,-0.745218,0.625859
-0.217870,-0.057610,0.521553,0.951127,-0.151331,0.269177
0.507989,0.271844,0.411264,0.324545,0.447495,-0.833318
-0.259350,-0.315358,-0.156480,0.851033,0.207236,0.482490
0.172731,-0.040420,-0.966323,0.048365,0.390552,0.919310
0.221865,-0.212416,0.721271,0.162808,0.054747,0.985138
-0.099540,-0.231472,0.487111,0.722463,0.687500,0.073424
0.746002,-0.064093,0.295990,0.493436,0.346853,-0.797630
-0.132096,0.071559,0.752865,-0.273399,0.779628,-0.563411
-0.208261,-0.061735,0.745586,-0.683584,0.728503,0.044670
-0.202398,-0.404548,-0.504991,-0.561838,0.535065,-0.630906
0.208178,-0.110357,0.708823,0.503754,-0.817390,0.279474
-0.206051,-0.256126,0.406622,0.537560,0.632994,-0.557089
-0.155812,0.050145,-0.781769,0.525081,0.845164,0.099937
0.191772,0.245126,0.490882,-0.540897,-0.599483,0.589958
0.182589,-0.745199,-0.514380,-0.735139,-0.592524,-0.329374
-0.341636,-0.266637,0.288157,-0.363957,0.641279,0.675498
-0.065453,0.733707,-0.229769,-0.409166,-0.247768,0.878177
0.318258,0.849615,-0.240845,0.167350,0.929476,-0.328737
-0.500678,0.356417,-0.547398,0.820192,-0.168675,-0.546656
-0.106767,0.722214,0.118029,-0.428401,0.773940,0.466358
0.448572,-0.061441,0.628704,0.738726,-0.560320,-0.374600
-0.015557,0.399538,-0.410578,0.865912,0.222694,-0.447887
-0.527289,0.024311,-0.240503,-0.243798,0.651911,0.718035
0.222882,0.334513,0.634796,0.939989,0.214418,0.265417
0.073614,0.029518,0.902422,0.942807,-0.062455,0.327436
-0.070470,0.048574,0.641151,0.484252,0.207564,-0.849951
-0.220671,0.008890,0.336920,0.873751,0.473108,-0.112823
0.499490,0.353863,0.132666,0.599605,0.793399,0.104845
-0.613057,-0.353666,0.157957,0.332401,0.758541,0.560469
0.004677,0.197289,0.104289,0.639045,0.722538,-0.263742
0.368071,0.748245,-0.063017,0.855637,0.323601,0.403941
-0.160492,-0.236285,-0.598270,0.554744,-0.675231,-0.486129
0.037914,0.069005,-0.503936,-0.108084,0.798771,0.591847
0.187943,0.417416,0.519417,0.431792,-0.524013,-0.734143
0.226285,0.196995,0.741024,-0.493654,0.866245,0.076974
-0.445853,-0.604636,-0.436818,0.623205,0.778511,0.074405
-0.285022,0.080301,0.530440,0.787793,-0.289722,0.543547
0.189137,-0.371838,0.569946,0.177857,0.933164,-0.312366
-0.505099,0.106920,0.299181,-0.243973,0.705275,-0.665630
0.153177,0.054467,0.814734,0.093175,0.979460,0.178818
0.798964,0.084820,0.289450,0.033968,-0.020652,0.999210
-0.151480,0.289229,0.468782,0.781499,0.180195,0.597318
0.126146,0.465940,-0.503382,-0.518251,-0.069339,-0.852413
0.220925,0.752272,-0.271991,-0.172187,0.967482,-0.185286
0.642806,-0.135504,-0.121537,-0.298020,-0.020389,-0.954342
-0.191855,-0.059378,0.257592,0.957287,0.283857,-0.055012
-0.063839,0.611709,-0.246832,-0.324814,0.567847,-0.756337
0.557547,-0.038062,-0.109247,0.206343,0.356037,0.911406
0.099032,0.248760,0.752285,-0.803196,0.594516,-0.037781
-0.524819,0.312018,0.458497,0.842060,0.271728,0.465939
0.249233,-0.106821,0.646268,0.934114,0.176352,0.310372
-0.227473,-0.659741,-0.180901,0.248920,-0.967743,-0.038885
-0.409214,0.322823,0.395625,-0.313883,0.948258,-0.047785
-0.029244,-0.123520,0.640545,-0.725838,-0.517987,-0.452603
-0.563073,0.487354,0.385735,0.607553,0.536976,0.585266
0.032725,-0.195619,-0.960389,0.119346,-0.101871,0.987613
-0.168482,-0.277638,-0.797961,-0.814761,0.578417,0.039970
-0.019126,0.031679,0.607685,0.813603,-0.276558,-0.511435
-0.495921,-0.081479,-0.120983,0.543673,0.831445,0.114535
-0.618837,-0.412210,-0.321519,-0.411467,-0.112620,-0.904440
0.225517,0.259860,-0.179477,0.690672,-0.467655,-0.551608
0.578799,0.320367,-0.356726,0.034778,-0.375245,0.926273
-0.022613,0.080497,0.916321,0.216434,0.973940,-0.067804
-0.691602,0.618291,-0.318011,0.814189,0.413343,-0.407730
0.372066,-0.326065,0.644975,-0.734383,0.667459,-0.123203
-0.151226,-0.388733,-0.308939,0.401234,0.912528,-0.079396
-0.240989,0.503856,0.372233,0.805235,0.480754,-0.347092
0.418226,-0.718874,-0.581154,-0.393810,0.841261,-0.370396
0.152839,-0.161730,0.624352,0.869610,0.188369,-0.456394
0.437433,-0.034821,0.647745,0.103589,-0.465925,0.878740
-0.657598,0.173322,-0.569313,0.953589,0.300189,0.023547
0.714638,-0.011934,0.286786,0.390078,0.061121,-0.918751
0.124786,0.257600,-0.515461,0.984299,0.114646,0.134205
-0.416695,0.311626,0.062542,-0.474337,-0.261283,-0.840676
0.503994,0.258387,0.416485,-0.571171,0.820761,0.010689
-0.356594,0.182162,0.315506,-0.205028,-0.318278,0.925561
0.011137,-0.032660,0.674539,0.781713,0.348488,-0.517185
0.164653,-0.673395,-0.431069,-0.419067,-0.014857,0.907834
-0.146292,-0.201316,-0.572372,0.931875,-0.329042,0.152778
0.652841,0.251805,0.029155,0.431244,0.236494,0.870689
-0.581777,0.170179,0.076493,-0.492067,0.094550,0.865407
-0.780094,0.065666,-0.139549,-0.277679,0.624238,0.730220
0.554912,-0.546486,-0.534238,0.296662,-0.688427,0.661861
0.045053,-0.177349,0.726967,-0.045901,-0.368739,0.928399
-0.122747,0.494033,0.234912,-0.853969,0.078688,-0.514339
0.244221,-0.087373,0.489906,-0.310400,0.948133,0.068528
0.111188,0.135603,0.494099,0.102625,-0.880035,0.463687
0.105491,0.437847,0.702968,0.956776,0.216109,-0.194621
0.215571,-0.759049,-0.343698,0.961900,0.261286,-0.080484
0.068597,0.011542,-0.307225,-0.569540,0.804342,0.169286
-0.107618,-0.668876,-0.553094,0.339181,-0.423668,0.839918
-0.414568,0.153284,0.301106,0.138517,-0.563064,0.814722
0.513177,0.435294,0.025542,0.533703,-0.232366,-0.813122
0.118410,0.795197,-0.253768,0.577398,0.472048,0.666170
-0.555934,0.173421,0.317431,-0.729385,0.141822,-0.669241
-0.061204,-0.076272,0.417329,0.347364,0.083038,0.934047
0.351582,-0.270959,0.208328,-0.372728,0.127231,0.919177
-0.089257,-0.096802,0.649511,0.304171,0.488268,0.817970
-0.546242,-0.285300,-0.422999,0.922323,0.033609,-0.384956
-0.012579,-0.359658,-0.395836,0.568723,0.785431,-0.244240
0.107701,-0.274790,0.457943,-0.599834,-0.781490,-0.171674
-0.219312,-0.481950,0.365877,0.893092,0.399903,0.206067
-0.037488,-0.242178,0.135145,-0.336142,-0.196856,0.921008
0.105745,-0.181375,-0.961417,-0.128886,-0.072668,-0.988993
0.146634,-0.551790,-0.516357,0.562210,0.440303,-0.700038
0.381249,-0.067432,0.704392,0.804040,0.593241,0.039811
-0.199679,-0.072245,0.599720,0.968485,-0.225496,-0.105779
-0.063243,0.071166,0.888181,0.053725,0.998142,0.028728
0.221865,0.740779,0.071667,-0.365669,0.463663,-0.807034
0.093335,0.030304,0.778551,0.809647,0.057000,0.584143
-0.022696,0.184716,0.754605,-0.070963,0.552566,0.830443
-0.092572,0.735574,-0.223334,-0.333717,-0.264461,0.904817
0.508757,0.455332,-0.161570,-0.418428,-0.694343,-0.585496
0.004932,0.120869,0.441434,-0.798353,-0.060305,0.599162
0.348858,-0.100240,0.620660,0.806678,0.431301,0.404042
0.508585,0.045529,0.233356,0.968275,-0.222113,-0.114494
-0.183186,0.308483,-0.473713,-0.515643,0.743182,0.426371
0.463790,-0.018712,0.630128,-0.598756,0.774304,0.204802
-0.031708,-0.178625,0.645450,0.842241,0.202061,0.499801
0.105574,-0.039536,0.712146,0.835520,0.080421,-0.543543
-0.564857,-0.138745,-0.249654,-0.694171,0.368895,-0.618097
-0.094694,0.593438,0.110566,-0.434172,-0.440672,0.785686
0.243624,-0.067923,0.407598,0.797215,-0.328414,-0.506550
0.791654,-0.119395,0.292245,-0.562008,-0.520300,0.642989
0.212002,0.336281,0.504543,0.560895,0.719100,0.410234
-0.201122,-0.215657,0.618709,-0.736524,0.127439,-0.664298
0.215146,-0.225676,0.721587,-0.363878,0.254180,-0.896094
-0.041229,-0.101812,-0.671401,0.866626,-0.418178,0.272188
-0.299985,0.428909,0.405040,-0.721131,0.678688,0.139115
-0.378785,-0.374981,0.382702,0.231698,-0.940733,-0.247665
0.662190,0.253279,0.022377,-0.515420,-0.591766,-0.619803
0.109486,0.316046,0.367565,-0.712761,-0.075399,-0.697343
0.643486,0.161928,0.272888,0.361357,0.535280,0.763477
0.092147,0.090811,0.942324,0.930439,0.227480,0.287291
-0.457413,-0.504444,-0.376558,0.679858,-0.557563,0.476357
-0.112801,0.257797,0.752364,0.952267,0.292227,0.088263
-0.035957,0.213202,-0.598982,0.944718,0.309020,-0.109611
0.035449,-0.156622,-0.947203,0.107706,-0.322877,0.940293
0.385410,0.361426,0.470390,0.927762,0.372450,0.023223
0.555679,0.144247,0.032267,0.123070,-0.568132,0.813683
0.181997,0.267620,0.153896,-0.347104,-0.096102,0.932890
0.243282,-0.312116,0.562404,0.789294,0.345982,-0.507258
0.015215,0.148078,0.614463,0.227994,-0.920591,0.317066
0.172986,0.103188,0.874362,-0.062860,-0.981541,-0.180628
0.075482,0.170375,-0.992352,-0.139749,0.321383,0.936580
0.168394,0.521537,0.512850,-0.248368,-0.878857,0.407337
0.243282,0.337852,0.434656,-0.286054,0.915457,-0.283040
-0.502723,-0.874073,-0.591440,-0.343302,-0.168181,0.924045
0.644763,0.466628,-0.247834,-0.022474,-0.022694,0.999490
0.360932,-0.403959,0.204663,-0.243111,-0.590260,0.769734
-0.508668,0.381367,0.448264,0.609078,0.547870,0.573466
-0.298708,0.074309,0.286180,0.459060,0.887019,0.049613
0.127847,0.086293,0.530678,0.973248,0.177953,0.145334
-0.333983,0.211631,0.558606,-0.148182,-0.987421,0.055151
-0.671031,-0.378714,-0.481150,0.070525,-0.484195,0.872113
0.058911,-0.685379,-0.552540,-0.367926,0.006874,0.929830
0.093506,0.067826,0.808352,0.010052,0.960566,0.277869
-0.021933,-0.212710,-0.955114,-0.224386,-0.140473,-0.964323
0.050153,-0.092972,0.800941,-0.465757,0.723791,0.509114
0.084836,0.460930,0.055553,0.427724,-0.590381,0.684472
-0.201376,-0.386572,-0.303638,-0.604758,-0.781531,0.153220
-0.303129,-0.617307,-0.153949,0.805920,0.572109,-0.152265
0.340869,0.371839,-0.252001,-0.554800,0.659667,-0.506987
0.022696,0.173125,0.919802,0.914628,-0.400612,-0.054454
-0.113227,-0.226069,0.437346,0.364091,0.926926,0.090802
0.702140,0.317617,0.287683,0.134848,-0.237715,0.961929
-0.309334,0.439910,0.320385,-0.372704,0.071373,0.925201
0.689138,0.262512,0.019370,0.505080,0.705207,0.497571
-0.117393,0.222828,0.698459,-0.594306,-0.437404,0.674891
-0.704096,-0.346790,0.186888,-0.325788,0.020662,0.945217
0.199763,0.421738,0.724805,0.652339,-0.035345,0.757103
-0.159807,0.587741,0.472052,-0.421567,-0.905629,-0.046010
0.293779,0.122735,0.847067,0.330777,0.919479,-0.212474
0.481383,-0.030499,0.541728,0.450432,0.036532,0.892063
0.082792,0.410638,0.717315,0.041342,0.124901,0.991307
0.056700,0.252788,0.694529,0.226888,-0.694790,-0.682487
0.039527,-1.000000,-0.462241,0.254718,-0.233815,0.938323
0.388388,-0.117135,0.641020,-0.202184,-0.179771,0.962707
-0.252974,-0.069888,0.431280,0.709529,0.254714,0.657031
0.045307,-0.008005,0.794269,-0.197146,-0.042550,0.979450
0.022613,-0.323609,-0.686512,0.755695,-0.238319,-0.610024
-0.172135,-0.236187,-0.134644,0.562261,0.421864,-0.711262
0.157514,-0.032169,0.686644,0.790683,-0.354381,0.499234
0.069365,0.007907,0.950024,0.955031,-0.091332,-0.282090
0.006628,0.038947,-0.254717,0.990148,0.126594,0.059840
-0.220080,-0.546093,0.137176,-0.497853,0.752187,-0.431691
0.276606,0.321546,0.684376,-0.484980,-0.845483,-0.223500
-0.292161,0.395217,-0.297968,-0.422291,0.498629,0.756994
-0.088914,0.419185,0.076889,0.875115,-0.125228,-0.467430
-0.348692,0.113306,-0.031660,-0.483975,-0.138250,-0.864092
-0.076504,0.341585,0.541200,-0.696405,-0.496648,-0.518036
-0.527118,-0.638033,-0.352664,0.789107,0.607004,0.094109
-0.014706,0.157115,0.787096,0.929567,0.074782,0.360989
0.765214,0.139434,0.026887,-0.396719,0.069700,-0.915290
0.205200,0.314572,0.503751,0.113842,0.993472,0.007372
0.355235,0.232553,0.166159,0.782565,0.104101,0.613803
0.601835,0.076765,0.408890,-0.149530,0.951411,0.269180
-0.124874,0.131575,-0.996492,0.231913,0.528935,0.816360
0.028730,-0.049064,0.673458,0.720648,0.083382,-0.688269
-0.589678,-0.327046,0.141896,0.061234,0.568734,0.820239
0.126234,-0.000835,0.620739,-0.384304,0.744649,-0.545719
-0.672561,0.018810,-0.316033,0.506403,-0.854242,0.117584
-0.102004,0.034724,0.850970,0.892153,0.112281,-0.437558
-0.564946,-0.118806,-0.343830,-0.704142,-0.605391,0.371061
-0.743454,-0.245813,-0.461477,-0.097018,-0.291882,0.951521
0.395616,-0.346102,0.170273,-0.192589,-0.093932,-0.976773
0.197044,0.176269,0.278004,-0.517890,0.855006,-0.027488
-0.481300,-0.660920,-0.478223,-0.115430,0.958023,0.262427
0.800495,0.138353,0.288685,-0.049797,0.037885,0.998041
-0.335514,0.674869,0.090286,-0.268474,-0.143583,-0.952526
0.218549,-0.323609,0.693712,-0.770554,0.073138,-0.633165
-0.307975,0.547371,0.282672,0.037147,-0.778045,0.627109
0.732403,0.558176,-0.250471,0.378166,0.220274,-0.899150
-0.486312,0.278622,-0.305721,-0.204261,0.802087,0.561189
0.013176,0.364963,0.426533,-0.273881,0.899413,0.340654
-0.330668,0.384903,-0.109854,0.443017,-0.561609,0.698807
0.240480,-0.008889,0.547081,0.837591,0.402792,-0.369054
-0.658366,0.274201,0.028601,-0.013758,-0.788940,0.614316
0.051258,0.169688,0.712594,0.809021,-0.460709,0.365009
0.094949,0.337754,-0.683479,0.983070,-0.083917,-0.162887
0.435908,-0.589705,-0.214130,0.973593,-0.225640,0.034680
-0.497280,0.335396,-0.518494,0.898688,0.041842,-0.436589
0.060353,0.356221,0.764152,-0.296896,0.681145,0.669249
0.292586,0.410737,0.355117,-0.266468,0.173827,0.948040
-0.392046,-0.621727,-0.417936,0.501367,0.805039,-0.317084
0.697974,0.195914,0.281855,0.143926,0.054793,0.988070
-0.145446,-0.070870,0.688147,0.621075,-0.753160,0.216832
-0.434123,-0.228034,-0.312367,-0.315213,-0.709365,0.630430
0.327182,-0.032660,0.205427,0.070006,-0.916082,0.394834
0.126317,-0.773390,-0.235545,-0.103020,0.941726,0.320216
0.132865,0.357006,0.722563,0.990144,0.070883,-0.120789
0.599796,0.167624,0.281749,0.739061,-0.563746,-0.368753
0.144507,0.008301,0.254902,0.715896,-0.162125,0.679123
-0.512834,0.323511,0.465406,0.832311,0.260480,0.489294
0.077863,-0.359560,0.591360,-0.601184,0.654934,0.457863
-0.582202,0.001228,0.133853,0.354423,0.842486,0.405711
0.309925,0.338540,-0.169113,-0.529080,0.727430,0.436945
-0.744642,-0.076174,0.169930,0.731964,0.673943,-0.100148
0.046329,0.559845,0.431438,0.026691,0.977774,0.207955
-0.666185,-0.528903,-0.491567,0.338601,0.155371,-0.928014
-0.075741,0.210845,0.507892,0.257022,0.134337,-0.957023
-0.027288,0.850302,-0.221884,-0.108964,-0.315525,0.942640
0.512072,-0.012916,0.536005,0.242345,0.012047,0.970115
0.604813,-0.137272,-0.124913,-0.349828,0.050086,-0.935474
0.132268,0.102009,0.706449,-0.010238,-0.455042,0.890411
-0.427321,-0.074014,-0.015968,0.136983,0.957630,-0.253338
-0.210305,-0.051127,-0.271042,-0.637697,0.473514,0.607558
0.882864,-0.075095,0.300262,-0.262909,0.252577,0.931173
-0.419243,-0.567997,-0.366193,0.843700,-0.182925,0.504687
0.175196,-0.196994,0.581075,0.455349,0.283766,0.843881
-0.665931,0.296892,0.476377,-0.173203,0.974475,0.142824
-0.066729,-0.201708,-0.080502,0.943103,-0.332311,0.011213
-0.194320,0.702569,0.310706,0.069716,0.166584,0.983560
0.151309,0.550121,0.536400,-0.639268,0.768950,-0.007269
-0.178511,-0.174205,0.542150,0.905663,0.011060,-0.423853
0.096313,0.129022,0.960547,0.939076,0.343362,0.015453
-0.670263,-0.279112,-0.467279,0.136397,-0.299025,0.944447
0.057634,-0.247875,0.721508,-0.096991,-0.436513,0.894454
0.194745,0.823388,-0.228872,0.093873,0.691613,-0.716142
-0.091467,0.055842,-0.488587,0.095201,0.971356,-0.217725
0.149182,-0.279013,0.714598,-0.156337,-0.133455,0.978646
-0.499490,0.216345,0.028100,-0.251609,-0.527006,0.811762
0.344780,-0.591474,-0.522397,0.190508,-0.700519,0.687736
0.424768,0.199352,0.284518,0.886078,0.330562,0.324953
-0.010457,-0.186778,-0.970700,-0.027913,-0.030872,0.999134
-0.544966,0.425274,-0.378536,0.053009,0.876877,0.477784
0.050324,0.052306,0.760486,0.972999,0.098972,-0.208512
-0.127593,0.500614,0.287604,-0.073908,-0.803127,0.591207
-0.181909,0.234124,0.705922,-0.381397,0.798860,-0.465143
-0.001274,-0.042483,0.855506,0.612891,0.498478,-0.613094
0.476963,0.369973,0.419175,0.374957,0.299361,-0.877377
-0.282728,-0.148077,0.577040,0.074434,0.909065,0.409953
-0.358976,-0.050636,0.570315,0.961994,0.037629,0.270464
-0.295647,-0.039536,0.337922,-0.308931,0.343006,-0.887079
-0.248895,-0.203673,-0.963158,0.253508,0.018013,-0.967166
0.360760,-0.307401,0.417778,0.748216,-0.639717,0.175883
-0.529753,-0.888316,-0.635060,0.355210,0.933429,-0.050355
-0.591043,0.369088,0.244379,-0.776725,0.271555,-0.568292
0.054999,0.153873,0.877949,-0.582940,-0.286063,0.760493
-0.275584,-0.297087,0.329536,0.751722,-0.364448,0.549628
-0.388217,0.392270,0.165262,-0.744299,0.627099,0.229709
0.315622,-0.355728,-0.232670,-0.738748,0.565097,0.367309
-0.248470,-0.252983,-0.297520,0.543546,0.527993,-0.652519
-0.559332,0.283828,0.481836,-0.844599,0.111498,-0.523661
-0.243370,0.379501,0.488139,0.981955,-0.147446,-0.118424
0.194149,0.223221,0.612854,0.818360,-0.132279,-0.559275
-0.292332,0.301213,0.607711,-0.544018,0.463800,0.699238
-0.640856,0.001622,-0.254691,0.812538,-0.489057,-0.317183
-0.238270,-0.567309,0.335259,0.931636,-0.027087,-0.362381
-0.372320,0.324985,0.400161,-0.300223,-0.953493,-0.026781
-0.176809,0.567802,0.569445,-0.082423,-0.801052,0.592893
-0.183103,0.613870,0.084721,-0.393275,0.237630,-0.888182
-0.020740,0.227641,0.711275,-0.428054,-0.599750,0.676069
0.310947,0.166347,0.701992,-0.241861,-0.763753,0.598486
-0.645017,-0.361131,0.167662,-0.591626,-0.455118,-0.665467
-0.324380,-0.221452,0.513720,0.739891,0.531613,0.412248
-0.022017,-0.320859,0.404117,0.808650,0.100636,-0.579618
-0.563498,-0.053877,-0.510767,0.565252,0.774298,0.284520
-0.321319,-0.332645,-0.289582,0.533479,0.842129,-0.078857
-0.316136,-0.127842,0.482759,0.353444,0.805303,0.475988
-0.119432,0.333432,0.748302,-0.759675,-0.622741,-0.187315
0.443130,0.075979,-0.469705,0.783785,-0.505083,-0.361349
0.122830,-0.102303,-0.700700,0.802076,-0.590226,0.091142
-0.019126,-0.043269,0.487823,0.116973,-0.645014,0.755165
-0.508928,-0.040322,-0.200997,0.500636,0.839790,-0.210038
-0.269804,-0.492264,0.341245,0.886224,-0.079677,-0.456353
-0.786808,0.261235,-0.002439,0.676837,0.711640,0.188309
-0.205796,0.509945,0.406147,0.895321,-0.383433,-0.226669
-0.267765,-0.539904,-0.704208,0.570677,0.800541,-0.182925
0.060099,0.013212,0.918747,0.938115,-0.257979,-0.231057
-0.364501,0.699524,0.320938,0.201331,-0.092881,0.975110
0.240563,0.455233,0.492860,-0.048196,-0.917732,0.394264
-0.458010,0.286381,-0.502591,-0.230590,0.521864,0.821271
0.202906,-0.633809,-0.464773,0.981321,-0.149102,0.121564
-0.447976,-0.400814,0.387449,-0.198585,0.151426,-0.968315
0.235380,-0.627130,-0.540435,0.479287,0.245494,-0.842625
-0.380569,0.392859,-0.398552,0.140882,-0.849693,0.508108
-0.655559,-0.775158,-0.587352,0.418598,0.037561,0.907394
-0.668312,-0.238741,-0.393937,0.548488,0.772825,-0.319221
0.071061,-0.037375,0.486108,0.273090,0.942474,-0.192783
-0.069873,0.094348,0.800731,0.823651,-0.207583,-0.527739
0.990562,-0.229213,0.265504,-0.526580,-0.670199,-0.523016
0.238099,0.401896,0.489932,0.212253,-0.266232,0.940249
0.035190,-0.071754,0.581550,0.036391,-0.511358,-0.858597
0.830415,-0.156131,0.281855,0.568436,0.580913,-0.582598
-0.104728,-0.406413,0.004866,0.979902,0.137605,-0.144417
0.461154,-0.014684,0.649722,0.020642,-0.880637,0.473341
-0.351494,-0.358283,-0.180954,-0.605313,-0.675008,0.421854
-0.159387,-0.481656,-0.155452,0.684272,-0.178257,-0.707104
-0.005782,0.648937,0.148147,0.946845,-0.029522,0.320333
0.493965,0.373214,0.413057,0.217464,0.887236,0.406843
0.929273,-0.231864,0.301528,-0.341150,-0.736424,0.584205
0.107530,-0.043858,0.886704,0.887668,-0.459155,-0.034954
0.270572,0.150435,0.686459,0.122431,-0.258239,-0.958292
-0.074802,0.030893,0.070058,-0.606001,0.397571,0.688985
0.379973,0.354158,-0.439719,0.075767,-0.183679,0.980062
0.181230,0.205736,0.330221,0.861105,-0.506596,-0.043121
0.851667,-0.094740,0.297915,-0.449839,-0.093920,0.888157
-0.533832,0.355238,0.358493,0.234248,-0.879304,0.414671
0.444660,-0.019596,0.640782,0.280356,0.959800,-0.013578
0.183782,0.495605,0.725517,-0.244030,0.455979,0.855881
0.144507,-0.240705,-0.964503,0.138604,-0.228383,0.963655
-0.369856,0.117922,0.413901,0.053323,-0.966031,0.252866
-0.000423,0.018516,0.730184,0.494105,0.623421,-0.605976
-0.312566,0.780463,0.310600,0.032612,-0.328439,0.943962
-0.020486,0.771230,0.236600,0.506074,0.114195,-0.854897
0.118664,-0.422032,-0.285230,-0.624053,-0.408738,0.665952
-0.422729,0.240313,-0.269380,-0.569811,0.721982,0.392501
0.342487,0.193950,0.710563,-0.717111,0.210509,-0.664408
-0.290376,-0.586857,0.310047,0.971998,0.215882,-0.092820
-0.240734,-0.513678,-0.509527,-0.409051,0.496372,-0.765697
-0.440582,0.091106,0.405409,-0.336171,0.632500,-0.697806
0.648503,0.227838,0.136622,0.738915,0.383985,0.553679
0.421541,0.110948,0.332252,0.936504,-0.333412,0.108615
-0.225771,-0.126467,0.704893,0.552915,0.578268,-0.599909
0.259521,-0.717696,-0.524322,0.260759,0.927517,0.267799
0.653095,0.363784,0.010641,-0.492457,-0.833977,-0.248934
-0.784089,0.346595,0.039967,-0.064417,-0.793383,0.605304
0.042163,0.058298,0.806110,-0.271817,-0.820028,-0.503656
0.015894,0.054762,0.714361,-0.604291,-0.795880,-0.037513
0.052020,-0.691960,-0.709192,0.266596,0.734443,-0.624115
-0.208349,0.246010,0.392671,0.719146,-0.369301,-0.588597
-0.533915,0.374491,-0.136859,0.902288,0.221801,-0.369703
0.114415,-0.095722,0.510028,-0.753682,0.188104,-0.629746
-0.256460,0.281961,-0.238577,0.234028,-0.790506,0.565978
-0.358976,-0.618682,-0.010799,-0.298306,0.627608,0.719112
0.296752,0.865626,-0.224152,0.083898,0.979411,-0.183614
-0.134987,-0.316045,0.265451,0.885868,0.041497,-0.462078
0.258841,0.221650,0.732874,0.190037,0.888854,-0.416923
-0.168394,0.417515,0.499954,0.947022,-0.143255,-0.287448
0.090870,-0.009086,0.858301,0.808645,0.030513,0.587505
-0.483339,-0.468199,-0.324973,0.581984,-0.282981,-0.762376
0.687265,0.170572,0.241848,-0.431956,0.861312,-0.267500
0.422133,-0.461127,-0.184013,0.778971,0.596771,-0.192531
-0.233767,0.100928,0.517228,0.722287,-0.641665,-0.258008
0.058568,-0.106723,0.816079,-0.566292,0.511903,0.645963
0.150629,0.814057,-0.242085,0.607692,0.555470,0.567594
-0.050407,0.052993,0.683769,0.127615,-0.819451,0.558762
0.034256,-0.005452,-0.310020,0.806210,0.589814,0.046318
-0.156663,-0.114483,0.713728,0.394003,-0.794050,0.462868
0.077013,0.177448,0.898941,-0.445423,-0.803651,-0.394643
0.171284,-0.330975,-0.277055,-0.626879,-0.376084,0.682337
0.421795,0.053681,0.521922,0.690168,0.656816,-0.303745
0.137197,0.182261,0.788626,0.541586,-0.473784,0.694415
-0.185904,0.090811,0.433047,-0.776545,0.630055,0.002870
0.010032,0.313295,-0.776652,0.490293,0.073368,-0.868464
0.190750,0.544915,0.280879,0.551914,0.184967,0.813129
0.510453,0.285006,0.034508,0.139598,-0.871104,-0.470839
-0.524819,-0.066155,-0.002756,0.114350,-0.940336,0.320456
0.463276,-0.684396,-0.564645,-0.409932,0.794606,-0.447837
0.566731,0.484702,0.015072,0.261327,0.906693,0.331084
-0.022696,0.487059,0.422736,0.957904,0.182973,0.221223
0.258416,0.271450,0.216847,0.795251,-0.093885,0.598967
-0.354130,-0.368105,-0.213814,-0.689615,-0.639401,-0.339995
0.078797,0.371839,0.503013,-0.475095,0.478564,0.738419
0.450694,0.124601,0.566412,-0.026872,0.948640,0.315216
0.181484,0.974560,0.134275,0.395036,0.609650,0.687221
0.086533,0.060361,0.891161,0.411960,0.833946,0.367182
0.135583,0.297481,0.287076,0.993724,0.110612,0.016649
0.527543,0.371544,0.401770,0.534791,0.764864,0.359141
0.082792,-0.504051,-0.284360,-0.896913,-0.184269,0.401985
0.085770,-0.144442,0.578807,0.536785,0.144564,0.831242
-0.126234,0.192083,0.354167,0.911597,-0.243646,0.331101
0.002887,0.896568,0.252950,0.831279,-0.403450,-0.382364
0.362462,0.097196,0.858723,0.728233,-0.665671,0.162970
0.494302,0.082757,0.235571,0.646619,-0.658804,0.384527
-0.136180,0.024803,0.751071,0.873669,-0.475335,0.103724
-0.598182,-0.376553,0.183037,0.330604,0.234804,0.914094
0.205879,0.512794,0.233514,-0.465079,-0.790147,-0.399211
0.276264,0.367418,0.471234,-0.113035,-0.830378,0.545615
0.202735,-0.037866,0.687224,0.556753,0.307863,-0.771522
-0.163973,0.512794,0.255509,-0.490641,-0.712778,-0.501217
-0.126488,-0.374294,0.397075,0.693524,0.386853,-0.607757
-0.250935,0.000345,0.420837,0.693645,0.302642,0.653655
-0.693813,-0.700113,-0.584688,-0.109821,-0.310692,0.944145
0.105149,-0.177349,0.664359,0.332819,-0.270918,0.903236
0.118410,-0.094445,0.206509,-0.964934,0.243879,0.097085
0.091125,0.251805,0.666970,0.220378,0.967115,-0.126972
-0.908364,-0.257698,-0.456809,0.246209,-0.521371,0.817039
-0.088743,-0.449241,0.089917,-0.478763,0.801221,0.358930
0.450357,0.708168,-0.079710,0.963454,0.084843,0.254084
-0.085262,-0.709935,-0.582869,-0.217260,0.301481,-0.928390
-0.541396,0.174992,-0.539882,-0.235328,0.481959,0.844000
0.150712,0.865724,0.117133,-0.740640,0.669976,-0.050833
-0.437013,0.141692,0.376241,0.446111,0.816347,-0.366828
-0.238950,0.643142,0.283859,-0.502274,0.702820,-0.503752
-0.188031,-0.291980,0.021032,0.202322,0.614878,0.762228
0.406407,0.771426,-0.058164,0.805039,0.416571,0.422351
0.331690,-0.714061,-0.581339,-0.171556,0.975703,-0.136282
0.027879,0.180395,0.566017,0.575972,-0.452929,0.680523
-0.018105,0.520653,0.405462,-0.618421,-0.602661,0.504336
-0.104811,-0.333137,0.046771,0.925596,0.106995,-0.363077
0.402158,-0.115367,0.376821,0.352993,-0.665142,0.658014
0.924516,-0.042188,0.294408,0.021368,0.420700,0.906948
0.032046,-0.124993,0.763440,0.454773,0.654728,-0.603749
-0.110083,-0.017631,-0.957330,-0.300876,0.195338,0.933444
-0.607448,-0.781542,-0.602199,0.070177,0.321529,0.944296
0.737503,0.174304,0.042631,0.663034,0.167070,0.729708
-0.049048,-0.909140,-0.460369,-0.156813,0.320494,-0.934181
-0.513348,-0.610039,-0.680816,0.793777,0.582151,-0.176120
0.252636,0.349345,0.450136,0.356662,0.729088,-0.584143
0.064265,-0.091695,-0.736777,0.923775,-0.303422,-0.233614
-0.216339,-0.207111,0.632686,-0.396209,-0.440587,0.805544
0.102772,0.326949,0.519786,-0.341163,0.924252,-0.171364
-0.528903,0.379501,0.267772,0.157812,0.566210,0.809013
-0.471100,0.250332,0.333017,0.760299,0.435542,-0.481922
-0.450865,0.563578,-0.560320,-0.600029,0.778955,0.182190
0.625550,0.379795,-0.500930,0.795083,-0.157449,0.585708
0.116371,0.564756,0.568126,0.484102,0.640249,-0.596428
-0.019044,0.099161,-0.446972,0.943005,0.288836,-0.165274
-0.601243,0.364766,0.260150,0.395968,-0.195437,-0.897226
0.357274,0.252198,0.700990,0.823585,0.427056,0.373271
-0.042505,-0.051913,0.777892,-0.431806,-0.696301,0.573331
-0.315197,0.592457,0.096879,0.036281,-0.076711,0.996393
-0.239546,0.203183,0.553200,-0.001199,-0.913217,0.407472
0.302958,-0.669073,-0.245513,-0.075998,0.827120,0.556864
-0.115779,0.204656,0.692894,-0.373676,0.809612,0.452652
-0.239801,-0.132361,-0.957514,-0.086768,-0.122098,0.988718
-0.235209,0.093365,-0.453829,0.191077,-0.669076,-0.718211
-0.783409,-0.307303,-0.476324,0.176605,0.538636,-0.823821
0.124190,0.018025,0.250471,0.952111,0.130557,0.276476
0.474327,-0.078434,0.182589,0.331584,-0.650549,0.683255
0.024824,0.365258,0.245408,0.839408,0.408302,0.358726
-0.000848,0.012623,0.855532,-0.668555,-0.094109,0.737684
0.110420,0.165464,0.226684,-0.072889,0.068281,0.995000
0.333475,0.535976,-0.069504,0.303698,-0.842776,0.444405
-0.643575,0.149944,-0.521500,-0.686235,0.305955,0.659904
-0.100220,0.213202,0.718976,-0.200983,0.821105,-0.534221
-0.012838,0.882128,0.161544,0.812103,0.323063,-0.485921
-0.428680,-0.132262,-0.685773,0.867724,0.320190,-0.380175
-0.551513,-0.182751,-0.546791,0.926254,-0.023830,0.376146
-0.245409,0.502874,0.380487,0.479574,0.087176,-0.873160
0.389322,-0.752860,-0.578438,-0.424100,0.863581,-0.272702
0.115094,0.097196,-0.407730,0.016177,0.999455,-0.028778
0.625804,0.178626,0.268827,-0.598397,-0.147386,0.787527
0.361611,0.368401,-0.144191,-0.575805,0.628301,0.523150
0.211664,0.170179,0.688754,0.919146,0.200281,-0.339201
-0.022525,-0.243357,0.420573,0.489371,0.744370,-0.454345
0.038505,-0.307205,0.425294,0.413736,0.640704,-0.646778
-0.118327,0.431561,0.444414,0.634415,0.452440,0.626750
0.102855,-0.553165,-0.412978,-0.250392,-0.705432,0.663076
0.224500,0.225480,0.737147,-0.150632,-0.820247,0.551820
0.486058,0.109278,0.095033,0.910635,0.254724,0.325360
0.222456,-0.014684,0.651990,-0.120303,0.595202,0.794520
-0.630910,-0.425273,-0.315189,0.629548,0.161089,0.760079
-0.661168,-0.251706,-0.457152,0.210939,0.272873,-0.938640
-0.061033,-0.164284,0.671875,0.737350,-0.675341,-0.015115
-0.747620,-0.438338,0.197542,0.386946,0.820142,0.421474
0.193894,0.585385,0.076440,0.766250,-0.305152,0.565458
-0.293862,0.257797,0.559028,0.370539,-0.892423,0.257453
-0.068431,0.663279,0.052916,0.835748,0.472275,-0.280145
0.117139,0.113796,0.238129,0.882740,0.468723,0.032690
0.247790,0.025294,0.544787,0.552544,0.815244,-0.173413
-0.121725,0.657974,0.053760,0.827464,0.327185,0.456348
-0.136263,0.478317,0.353957,-0.261738,-0.708105,0.655805
0.028818,0.479496,0.727811,-0.758810,0.634915,-0.145226
-0.505441,0.444526,0.222833,0.350487,-0.153187,0.923955
-0.275501,0.252002,0.568522,0.604506,-0.703291,0.374104
-0.583473,0.390698,0.260546,-0.000630,0.677432,0.735585
0.124107,0.055057,0.581128,0.910185,0.020411,-0.413699
-0.424857,0.147979,0.398051,0.028826,0.999299,-0.023869
0.317495,0.131575,0.286813,-0.063283,0.729908,0.680610
0.053894,-0.108884,0.711144,-0.417890,-0.609526,-0.673681
0.115691,0.288542,0.707821,0.928989,-0.078495,0.361687
-0.214383,-0.442267,0.495682,-0.509845,-0.479124,0.714491
-0.384901,0.219292,-0.290927,0.888224,0.418344,0.189862
0.108210,0.184913,0.915424,0.985754,-0.165946,-0.027413
0.121980,0.102599,0.929480,0.879831,0.469141,0.076192
-0.282900,-0.251608,0.332674,-0.679766,0.729458,0.076217
0.589253,0.378616,-0.479594,0.776823,-0.077604,0.624918
-0.455799,-0.131771,-0.243641,-0.171021,-0.601416,0.780417
-0.553298,0.160945,0.018263,0.104770,-0.066389,0.992278
-0.160321,0.112127,0.693791,0.830343,0.396979,-0.391074
-0.548369,-0.044840,-0.530968,0.717998,-0.241415,0.652838
-0.070044,-0.504640,-0.671242,-0.091096,-0.292711,0.951852
0.144507,0.016748,0.768794,-0.169525,0.418249,0.892373
-0.145358,-0.502186,-0.022931,0.803914,-0.408351,-0.432403
-0.114332,0.582241,0.559819,-0.737314,-0.622389,-0.262679
-0.111100,-0.315260,-0.492279,0.388938,-0.908772,0.151198
0.418988,-0.062422,0.203107,-0.028798,0.295078,0.955039
0.169074,0.037572,0.835964,-0.257527,-0.965557,-0.037134
0.147060,-0.130199,-0.073961,-0.171062,-0.485887,0.857118
0.860933,-0.044546,0.302240,-0.114431,0.313511,0.942664
-0.393063,0.111046,-0.471683,0.798582,-0.218735,-0.560733
0.335343,-0.414960,-0.125229,-0.683658,0.261999,-0.681152
-0.191518,0.284024,0.484658,0.401191,0.858435,0.319586
-0.723734,-0.014782,-0.148094,0.687064,-0.595643,-0.416116
