0.228256,-0.034524,0.900877,0.581721,0.734141,-0.350198
0.719041,0.259614,0.204246,-0.390585,0.679150,0.621449
0.138499,-0.222051,0.368845,-0.409023,0.742185,-0.530906
-0.105209,0.228377,0.630246,0.369240,0.617817,0.694236
0.131068,-0.517321,0.393738,0.180954,0.983482,-0.004386
0.212601,0.713101,0.583034,-0.177946,0.929774,-0.322266
-0.320390,0.080121,0.590809,-0.501114,-0.650507,-0.570724
0.066773,-0.255663,0.363783,-0.070342,-0.828516,0.555530
-0.011096,0.281801,-0.566868,-0.657600,0.480554,0.580199
-0.150883,-0.405729,0.301215,0.411147,0.501949,0.760924
-0.182979,0.206425,0.345798,0.719503,-0.587296,-0.370673
0.097484,0.226685,-0.257835,0.363373,0.899940,-0.240974
0.009115,0.316884,0.725370,0.284692,0.854407,-0.434670
0.008420,0.044816,0.379809,-0.159607,0.041684,-0.986300
0.463641,0.160027,0.411974,-0.145059,-0.630041,0.762893
0.017339,0.638859,0.691499,0.958508,-0.261233,-0.114102
0.351992,-0.219902,0.556603,0.967108,0.175960,0.183685
-0.249356,0.165228,0.648790,-0.841165,0.522696,0.138674
0.266495,0.291533,0.652118,0.096282,0.929930,0.354907
0.286011,0.688655,0.606920,-0.289299,0.797877,0.528865
-0.017832,-0.226913,0.417931,0.772684,0.584629,0.247322
-0.021100,0.534631,0.375669,0.102098,-0.355210,0.929194
0.264315,-0.088845,0.658831,0.996122,-0.033664,-0.081291
0.049338,-0.295271,0.691303,0.269585,0.337529,0.901886
0.195661,0.612493,-0.416057,-0.030398,0.897371,0.440229
0.128392,0.198392,0.704421,-0.430288,-0.884201,0.181770
0.254607,0.215364,-0.304348,0.187127,-0.382167,0.904949
0.082721,-0.162521,0.261499,0.851740,0.177677,0.492919
0.155935,0.253169,0.718014,0.307325,0.622037,-0.720154
-0.220229,-0.192058,0.532717,0.340962,0.592238,0.730067
0.064394,0.021158,0.630805,0.892114,0.447230,0.064175
-0.064691,0.099365,0.766932,0.730510,0.088070,0.677200
0.407174,-0.099255,0.799880,-0.482314,-0.803339,-0.349314
-0.024075,0.117587,-0.020012,0.785968,-0.524366,-0.327558
0.235784,-0.469444,0.598948,0.259518,0.965522,0.020422
0.488708,-0.197376,0.564798,-0.564837,-0.229313,0.792701
0.868140,0.215142,0.277553,0.172162,0.638047,-0.750504
0.325641,0.368373,0.745703,-0.782250,0.622965,0.000141
0.138895,-0.195000,0.672200,0.323174,0.912836,0.249577
0.381316,0.363620,0.777952,0.702074,0.105350,-0.704268
0.255696,-0.415801,0.422630,-0.426420,-0.757798,-0.493871
0.055874,0.022857,0.536521,0.585001,0.806963,0.081145
0.013571,0.286214,0.843400,-0.136656,-0.826288,0.546419
-0.041015,-0.393731,0.685010,0.514305,0.468927,0.718051
-0.600653,0.293005,0.124477,0.724311,0.028463,-0.688886
0.699821,0.294587,0.219181,0.151807,-0.723572,-0.673349
-0.306419,-0.341676,0.438153,0.365973,0.188540,0.911327
0.342284,-0.455526,0.577440,0.284991,-0.937506,0.199656
0.170002,-0.155275,0.692142,-0.162541,0.820692,-0.547764
-0.271152,-0.107516,0.430433,-0.459992,0.705916,0.538600
-0.024075,-0.064510,0.733453,0.277454,0.781308,0.559086
-0.025263,0.172357,0.602556,0.617827,-0.119204,-0.777226
-0.006340,-0.389773,0.682549,-0.439645,-0.425343,-0.791072
0.125916,-0.177117,0.690828,0.338438,0.898115,-0.280800
-0.302754,0.188431,0.213895,0.458239,0.843167,-0.281223
0.230533,0.056586,-0.957627,-0.066083,0.030677,0.997342
-0.191202,0.589518,0.559120,0.740203,0.450849,0.498833
-0.333961,0.527723,0.597270,0.075455,-0.754199,0.652296
0.577669,0.308844,0.583593,0.970977,-0.123971,-0.204535
-0.622748,0.302399,0.123778,0.804967,0.074476,-0.588627
0.083516,0.649497,0.695358,0.889009,0.378210,0.258110
0.495344,0.195449,0.208693,0.400783,0.312650,-0.861175
-0.046267,-0.231783,0.619646,0.822742,-0.568118,-0.018373
0.085893,0.081371,0.944369,0.604220,0.624737,0.494592
-0.013076,0.233697,-0.362440,0.567682,0.823204,0.008469
0.309986,0.138068,0.762821,0.851061,0.000142,-0.525066
-0.030019,0.395312,0.358385,0.590035,0.448502,-0.671345
-0.101645,0.263240,0.607115,0.898187,-0.246015,-0.364330
0.028035,0.063598,0.881774,-0.157254,0.721942,0.673848
0.633051,0.253279,0.572881,0.931144,-0.324278,0.166777
-0.124332,-0.095974,0.765617,0.336185,0.827524,0.449647
0.124728,0.128791,0.949012,0.143289,-0.865019,0.480843
0.124927,0.793119,0.596068,0.668472,0.736327,0.104731
-0.165444,0.238000,0.629463,-0.198893,0.966198,0.164021
0.302162,0.291305,-0.531598,0.642840,-0.763361,0.063533
-0.123340,0.065753,0.620485,-0.401672,0.539155,0.740251
-0.090153,-0.084093,0.756248,-0.491144,-0.644725,-0.585753
0.216664,-0.091677,0.598697,0.782930,-0.382308,0.490777
0.030611,0.137612,0.766904,0.930607,0.060397,0.361003
0.028335,-0.117028,0.673934,0.734038,-0.389251,-0.556482
0.503667,-0.107516,0.611339,0.986984,-0.160202,0.014050
0.167230,0.494906,0.398828,0.357343,-0.749299,0.557546
0.638399,0.282588,0.599648,0.653971,-0.342866,-0.674363
-0.278879,0.120868,0.350861,-0.260668,0.819948,0.509644
-0.048939,0.003164,0.223097,0.647404,0.589852,0.482641
-0.028432,-0.586693,0.427217,-0.161055,0.752536,0.638554
-0.424610,-0.611250,0.477310,0.579887,0.008838,-0.814649
0.037447,0.506109,0.624624,-0.016005,-0.625855,0.779775
-0.042402,-0.034068,0.463437,-0.129549,-0.859387,0.494643
-0.030908,0.196803,0.640035,0.205080,0.971079,-0.122265
-0.379928,0.234829,0.651559,-0.728490,0.271791,-0.628834
0.282446,-0.457563,0.455158,0.910142,0.214747,0.354296
-0.239053,0.583177,0.603367,-0.093832,-0.972381,0.213708
0.344165,-0.694659,0.299201,0.372152,-0.836782,-0.401621
0.187438,0.482113,0.654887,0.930850,-0.004346,-0.365375
-0.258868,0.173262,0.277218,0.862550,-0.476462,0.170270
-0.092530,0.073220,0.550590,-0.145073,0.499351,0.854167
0.045474,-0.215143,0.729705,-0.465015,0.326433,-0.822923
-0.050327,0.330575,0.839904,0.004686,-0.969499,0.245051
0.020211,-0.172482,0.503042,0.851063,-0.162500,-0.499285
-0.083514,-0.172931,0.755437,0.902366,-0.231863,0.363285
0.442045,0.310543,0.519264,-0.216168,0.917574,0.333659
0.505052,0.257355,0.537528,0.284291,-0.146492,0.947480
-0.097285,0.395195,0.320235,0.798385,0.166609,-0.578638
0.494948,-0.365099,0.629715,0.551602,0.715369,-0.428932
-0.042007,-0.405957,0.696086,0.644430,0.727052,0.236868
0.331881,0.159682,0.488050,0.970233,-0.207709,0.124517
0.340500,-0.629810,0.366608,-0.677040,-0.733445,-0.060632
0.024867,0.479060,0.647587,-0.264298,0.076940,0.961367
0.462157,0.192955,0.347421,-0.100287,0.594613,0.797733
0.156131,0.201334,0.522117,-0.186580,0.279219,0.941926
0.357540,0.578763,0.661544,0.680044,0.725032,-0.108945
0.127700,-0.374832,0.614471,-0.497762,0.451055,0.740798
-0.417179,0.150854,0.595760,-0.309681,0.948148,0.071505
0.257679,0.319937,0.888850,0.971184,-0.238200,0.007847
0.593917,0.336916,0.576657,0.649997,0.758057,0.053416
0.444126,-0.021393,0.610891,-0.262568,0.775355,-0.574354
-0.194770,-0.351975,0.485113,0.305034,-0.741583,0.597503
0.012284,0.123583,0.697400,0.963052,0.250694,0.098401
-0.077373,-0.373699,0.687975,-0.596631,-0.532141,-0.600714
-0.170003,-0.365893,0.446963,0.193867,-0.886783,0.419560
0.046662,-0.099144,0.035983,-0.412318,0.842722,0.346140
0.105904,0.544018,0.642161,0.078162,-0.293765,0.952677
-0.110760,-0.895205,0.460696,0.264359,0.320249,0.909700
-0.134436,0.604680,0.361433,0.837388,0.388140,-0.384875
-0.157023,0.551037,0.594725,0.682277,0.508770,-0.525025
0.181394,-0.461411,0.396787,-0.379527,0.655569,-0.652831
-0.136912,0.605475,0.587957,0.470428,0.558831,0.682939
0.239252,0.326389,0.226146,-0.751776,0.628510,-0.199520
-0.057558,-0.336806,0.337687,0.783014,-0.258476,-0.565755
0.541510,0.021047,0.651587,-0.098997,0.734204,0.671673
0.051814,0.631392,0.674242,-0.215999,0.721857,-0.657470
-0.256388,0.666703,0.540716,0.168291,0.952590,-0.253476
0.435209,0.019804,0.560239,-0.275381,0.681015,0.678516
0.060134,0.193522,0.921910,0.400929,0.491385,0.773173
0.635823,0.265050,0.597970,-0.753227,0.334496,0.566358
0.049138,0.041873,0.639784,0.969376,-0.047466,0.240952
0.177334,0.356153,0.605801,0.585343,0.307381,0.750260
-0.006440,-0.603783,0.459717,-0.252573,0.636293,-0.728929
-0.099169,0.113173,0.597438,-0.514941,0.462703,-0.721625
0.059342,-0.138869,0.629127,-0.469321,0.818892,0.330384
0.219437,0.516519,0.603787,0.112304,-0.734068,0.669725
-0.185951,0.257237,0.478149,0.792888,0.451753,0.408960
-0.228057,0.659796,0.589187,0.908116,0.298995,0.293132
0.576185,0.011763,0.414547,0.516398,0.582875,0.627368
0.175254,-0.449192,0.563092,0.359959,0.927898,0.097135
0.206161,0.428697,0.322388,0.937523,0.281186,-0.204901
0.390331,0.707893,0.632120,-0.871613,-0.240766,-0.426992
0.036259,-0.490043,0.609073,0.096594,0.856596,0.506866
0.010600,0.292887,-0.336149,0.698932,0.637998,-0.323192
-0.030215,0.097210,0.505083,0.698206,0.166988,-0.696149
0.674559,0.271840,0.608906,-0.569723,-0.694238,0.439828
0.077373,0.290628,0.835848,0.470547,0.764011,-0.441444
0.145927,0.040057,0.066497,-0.203081,-0.974460,0.095842
0.270655,-0.408334,0.410603,0.814504,0.340366,0.469824
0.404695,0.117587,0.587061,0.482579,0.823837,0.297339
-0.265307,0.359773,0.556267,0.907999,-0.417706,-0.032557
-0.086090,-0.488572,0.428168,0.464934,0.572250,0.675549
-0.151376,-0.443755,0.309634,0.996443,-0.081477,0.021536
0.374580,-0.519925,0.301131,-0.142335,0.767464,-0.625091
0.046762,0.079900,0.603256,0.870337,0.490078,-0.048336
-0.008816,-0.427688,0.367083,0.576250,0.771829,-0.268729
0.471964,-0.006680,0.621520,-0.222134,0.955826,-0.192492
0.125520,0.668057,0.716531,0.934065,0.341862,-0.103215
0.058749,-0.150074,0.678717,-0.309247,-0.529504,0.789931
0.360412,0.261990,0.552100,-0.132061,0.940967,0.311675
0.224788,0.449861,0.609409,0.678941,-0.697865,-0.228089
0.019911,-0.048671,0.475044,0.814160,-0.365987,-0.450774
0.198733,0.028742,0.235459,0.280413,0.022487,-0.959616
0.597485,-0.019583,0.416421,0.675533,0.116690,0.728037
-0.017535,0.467628,0.371195,0.594636,0.493397,-0.634798
-0.168119,0.539155,0.587173,-0.535731,0.190440,-0.822633
0.309194,0.103662,0.599536,-0.644292,-0.149814,-0.749962
0.315337,0.293571,0.270757,-0.510471,-0.849787,0.131457
-0.203982,0.676657,0.478457,0.969865,0.193305,0.148305
0.828613,0.061001,0.297439,0.313976,0.202880,0.927501
0.132951,-0.604577,0.432755,-0.051657,0.984737,0.166207
0.194769,0.712535,0.593690,0.403539,0.894164,-0.193977
-0.151376,0.101852,0.382270,0.214422,0.930289,0.297634
-0.130772,0.420435,0.095865,-0.086421,-0.600698,0.794791
0.091441,0.120523,0.843959,0.957791,-0.286539,-0.023054
-0.171487,0.176550,0.727384,0.261092,0.739197,0.620821
-0.406579,0.204160,0.163047,0.163442,0.985685,-0.041383
0.534774,0.491963,0.362440,0.017636,0.932420,0.360945
0.127799,0.152215,0.981261,0.193918,-0.824442,0.531686
-0.105113,0.150971,0.613912,0.201515,0.909307,-0.364078
0.185161,-0.202813,0.688338,-0.082994,0.961727,-0.261139
-0.015156,0.331708,0.709287,0.356151,0.934404,0.006776
0.142559,0.536551,0.395891,0.949015,-0.262654,0.174307
0.151379,0.085557,0.935503,0.127644,0.676663,0.725144
0.101844,0.167156,0.724530,-0.729819,0.544945,0.412794
0.173074,0.046170,-0.020935,0.822764,0.567439,-0.032744
0.579353,0.385013,0.251542,0.763933,0.623836,-0.165030
0.198237,-0.184929,0.856769,-0.519109,0.604295,0.604445
-0.052803,0.719892,0.562532,-0.450329,0.882657,0.134609
0.132059,-0.103330,0.815543,0.925455,0.260785,-0.274818
-0.223897,-0.043912,0.548827,0.139186,-0.404623,0.903829
-0.185258,0.035988,0.482736,0.916232,-0.292452,0.273843
-0.209926,-0.161161,0.519711,-0.320158,-0.722076,-0.613274
0.041610,0.071410,0.646888,0.984236,-0.010081,-0.176575
-0.036655,0.077634,0.817249,0.128709,0.975099,0.180601
0.051218,0.157762,-0.122463,-0.612176,0.735260,-0.290917
0.272339,0.335217,0.605913,0.525946,0.749413,0.402196
0.054786,0.312352,0.638721,0.836012,-0.546926,0.044222
-0.163167,0.433338,0.537444,-0.695372,0.309441,-0.648616
0.152171,-0.238007,0.649461,0.330455,-0.893378,0.304426
0.409254,-0.185378,0.586166,0.083946,-0.783075,0.616236
-0.485833,0.228944,0.146741,0.575649,0.712102,0.401920
-0.009808,-0.256906,0.266925,-0.592320,0.711300,-0.378429
-0.194966,-0.035995,0.534088,-0.133237,-0.678222,0.722678
0.057858,0.125731,-0.291650,0.019240,0.996507,0.081263
-0.320586,0.192051,0.227600,-0.524906,-0.794369,0.305700
0.264711,0.130262,0.624373,0.782750,-0.198854,0.589712
-0.452842,-0.686625,0.454040,0.761692,0.179204,0.622665
-0.000496,0.245695,0.870754,0.952129,-0.038721,-0.303236
0.620764,0.261651,0.567259,0.128399,-0.959318,0.251440
-0.374876,0.177904,0.666215,-0.724321,0.673460,-0.147688
-0.197841,-0.452811,0.408869,-0.048585,-0.993947,-0.098530
-0.170498,-0.236992,0.532074,-0.523012,0.140144,-0.840725
0.161779,0.056697,0.811207,0.917055,0.074789,0.391684
-0.029423,-0.445565,0.687947,-0.529001,-0.608591,-0.591418
-0.147612,0.029081,0.243403,0.397134,0.842874,-0.363109
0.285418,-0.611816,0.391472,-0.641417,-0.650931,-0.406045
0.245592,0.636372,0.605857,-0.128929,-0.991654,0.000232
-0.067762,0.139539,0.838310,-0.592246,0.180853,-0.785198
0.520011,0.300927,0.480415,0.147050,0.968105,0.202851
0.271351,0.014824,0.617492,0.354082,0.683805,0.637994
-0.272340,0.100719,0.569749,0.438043,-0.821029,0.366100
0.276502,-0.063605,0.750430,-0.407654,0.910570,-0.068418
0.040223,0.270141,0.647923,-0.721226,-0.456123,-0.521330
0.294927,-0.239368,-0.332429,0.632922,0.283850,-0.720305
0.651971,0.293909,0.608318,-0.765090,0.463311,0.447193
0.164255,-0.070056,0.690911,-0.231907,0.383657,-0.893883
0.565189,0.096423,0.211014,-0.301665,0.863879,0.403376
0.196949,0.372448,-0.985568,-0.299992,0.198281,0.933108
0.452745,-0.904372,0.423497,-0.722266,-0.496124,-0.481863
0.228848,0.689333,0.660537,0.627268,0.676134,-0.386494
-0.476621,0.012109,0.622247,0.655069,-0.399457,0.641341
0.018823,0.065753,0.708896,-0.335331,0.150352,0.930025
0.255599,-0.373588,0.236215,0.598148,0.801077,0.022260
0.070241,0.694997,0.696925,-0.087945,0.631491,0.770380
-0.101745,0.033046,0.480666,0.514609,-0.220911,0.828478
0.081137,0.133765,0.851260,0.888026,-0.298093,-0.350073
0.105212,0.266970,0.073517,-0.819783,0.572509,-0.013737
0.302558,-0.562814,0.475576,0.906572,0.415866,-0.071991
0.061918,0.087822,0.646748,0.970736,-0.222286,-0.090886
0.265703,0.634107,0.612262,0.327332,-0.742435,-0.584503
-0.030908,0.054888,0.503517,0.542332,-0.739430,-0.398898
0.278978,-0.746382,0.313997,0.793578,-0.601030,-0.094857
0.300574,-0.438437,0.391360,0.960330,-0.050917,0.274178
0.599861,-0.015964,0.700561,0.151709,-0.886788,-0.436567
-0.625321,0.340991,0.127750,-0.664371,0.200251,0.720077
0.353776,0.007577,0.566141,0.204630,0.978815,0.006848
0.290470,0.138068,0.719776,0.364699,0.450863,0.814688
0.082425,0.114078,0.986743,0.970334,-0.237498,0.045237
-0.311471,0.314169,0.293971,0.401736,0.853280,-0.332446
-0.189419,-0.110459,0.780917,0.370310,0.751761,0.545642
0.138003,0.086690,0.979051,0.648956,0.692367,-0.315411
0.051614,0.078428,0.836659,-0.080287,-0.959336,-0.270609
0.044086,0.464574,0.430797,-0.116575,0.783591,0.610242
0.484744,0.376296,0.525249,-0.370232,-0.281157,0.885370
0.349516,-0.543915,0.429035,0.941899,0.147227,0.301912
0.289778,-0.811230,0.428140,0.393844,0.381595,0.836225
0.011392,0.359773,0.567903,0.461217,0.839167,-0.288232
-0.104717,-0.739254,0.315927,0.668331,-0.633079,0.390569
0.403803,-0.347561,0.445956,-0.488515,0.869004,0.078640
0.063009,-0.327190,0.583677,-0.418043,0.156370,0.894868
-0.048347,0.380143,0.401429,0.955553,-0.268666,-0.121397
-0.237964,0.237889,0.649293,0.322083,0.896757,0.303460
0.141175,0.312470,0.615730,0.762755,0.010587,0.646601
0.187241,-0.376303,0.475128,-0.614173,-0.749643,-0.246631
0.491580,0.280778,0.491351,0.045080,0.998476,0.031830
0.795226,0.170775,0.268911,0.734707,0.661878,0.148742
0.389043,0.649497,0.574587,-0.336957,0.844225,-0.416826
0.141471,-0.307836,0.235376,0.213519,0.911741,-0.350909
0.096889,0.159343,-0.169060,0.270664,0.951135,0.148606
0.004360,-0.291989,0.671948,0.993968,-0.081924,-0.072917
0.126016,0.562579,0.437118,0.687074,0.726265,-0.021631
0.102636,0.131506,0.916148,0.759794,-0.645888,-0.074444
-0.008916,0.386374,0.776665,0.878633,0.477473,0.004746
-0.135428,0.551831,0.602864,0.317099,-0.562597,0.763501
0.357044,0.029875,0.627841,-0.058183,0.619094,0.783159
-0.001088,0.074125,0.913519,0.403647,-0.716747,-0.568633
-0.420943,-0.366004,0.449397,-0.762641,0.645723,0.037687
-0.002676,0.337703,-0.319899,0.869871,0.477011,-0.125638
0.176442,0.131050,0.806648,-0.433085,-0.844192,-0.315874
0.085297,0.054659,0.721146,0.670704,0.248432,-0.698883
0.252627,0.075368,0.691946,0.944775,-0.123638,-0.303502
-0.157816,-0.239589,0.777141,0.884998,-0.095131,0.455772
0.429662,-0.123929,0.515097,0.631772,0.483747,-0.605684
0.147119,0.161153,-0.518005,0.460916,-0.870919,0.170463
-0.193581,0.213105,0.273777,0.956148,-0.284400,0.069981
0.121756,-0.089750,0.802145,-0.709709,0.609935,0.352552
0.200217,0.631731,0.384676,-0.535010,-0.836074,-0.121427
0.365168,0.062465,0.577384,0.352025,-0.503472,0.789047
0.565386,0.360906,0.347085,-0.028169,0.562680,0.826195
0.229245,0.581257,0.637098,-0.626294,-0.100317,0.773106
0.572914,0.632297,-0.086915,0.174837,-0.788745,0.589333
0.482168,0.285420,0.557442,-0.489408,0.789058,0.371305
0.062810,-0.051047,0.694380,-0.500053,0.565638,-0.655744
0.030018,0.214687,0.646580,0.024654,0.998806,-0.042174
0.564890,-0.149169,0.631728,-0.407894,0.002840,0.913025
0.092433,-0.514378,0.445789,0.360240,-0.200224,0.911119
0.361008,0.456195,0.214595,0.175968,-0.470877,0.864471
-0.626312,0.458461,0.115527,-0.290961,0.512673,0.807780
0.111652,0.125393,0.936370,0.180593,-0.980229,-0.080856
0.147119,-0.506794,0.495378,-0.187418,-0.942684,0.276081
0.279475,-0.127438,0.688590,0.952359,-0.191516,-0.237349
0.216365,0.309300,0.599620,0.849959,0.486213,0.202896
0.053894,-0.301950,0.379362,0.255894,-0.694664,0.672280
-0.281455,0.263240,0.656006,-0.357436,-0.931441,0.068247
0.129680,-0.533616,0.441705,-0.363466,0.401768,-0.840520
0.270459,-0.100615,0.664453,0.991975,-0.114286,0.054073
0.539627,-0.257583,0.539206,0.771350,-0.345499,-0.534462
0.093025,-0.517204,0.403527,0.108697,0.947227,0.301574
-0.177035,-0.107295,0.772386,0.354133,0.746089,0.563863
-0.247869,0.071977,0.374215,0.655118,-0.554936,-0.512705
0.050227,0.023085,0.608542,0.682665,0.647338,0.339001
-0.018524,-0.059985,0.396087,0.989297,0.119277,-0.084055
0.464037,0.254295,0.560994,0.611058,0.134523,-0.780072
0.159995,0.356831,0.547960,0.212670,0.966481,-0.143824
0.201805,0.291982,0.647503,0.210314,-0.135710,-0.968169
0.014563,0.144969,0.755213,0.926550,0.372066,0.055425
0.160591,-0.078774,0.330443,0.500021,-0.846417,0.183188
-0.131663,0.360112,0.732194,0.441514,-0.600797,0.666415
0.087776,0.381843,0.654020,0.383593,0.822260,-0.420411
0.363384,0.518447,0.536073,-0.092268,-0.788626,0.607911
0.218249,0.306813,0.853301,0.924338,-0.310911,-0.221210
0.051418,0.173151,0.957039,0.233820,0.861673,-0.450387
0.237368,0.572878,0.642441,-0.302264,-0.496997,0.813407
0.310582,-0.249439,0.753646,-0.362814,0.674633,0.642835
-0.260648,0.536102,0.449061,-0.331106,0.936639,0.114351
0.157419,-0.026373,0.493336,-0.111386,0.983548,0.142218
0.057558,0.057830,0.621296,0.958811,0.279122,-0.052657
0.046463,-0.093149,0.620541,0.213308,-0.962936,-0.165087
0.176838,0.558731,0.645797,0.315118,-0.797893,0.513875
-0.036855,-0.255663,0.361265,0.611266,0.256907,-0.748567
-0.221913,0.072087,0.631365,-0.457216,-0.659872,0.596257
0.111848,-0.363856,0.605941,-0.178672,0.707469,0.683786
0.293838,-0.193639,0.742319,-0.110278,0.628719,0.769773
0.194769,-0.046067,0.785000,0.746893,-0.491204,-0.448185
-0.004856,0.339859,0.593047,0.843139,-0.537696,-0.000579
0.441054,0.286097,0.665264,0.637983,0.503387,-0.582734
0.616108,-0.241855,0.653097,0.898822,0.277464,-0.339313
0.107292,-0.087602,0.366552,0.092911,-0.281040,0.955188
0.410343,0.406855,0.528690,-0.409930,-0.219990,-0.885190
-0.120368,0.519918,0.450851,0.370615,0.928602,-0.018510
0.630276,0.170886,0.567651,0.625469,-0.772432,-0.110171
0.030611,-0.478390,0.636595,0.602644,-0.512794,0.611443
0.418862,0.132639,0.367307,0.279746,-0.902335,-0.327923
-0.399148,0.254979,0.698044,0.232828,0.830649,0.505780
-0.144839,0.619850,-0.422126,0.481557,-0.662218,-0.574082
-0.008716,0.158328,0.754905,-0.628020,0.652096,-0.424689
0.114920,0.319143,0.620261,0.003061,0.227806,0.973702
0.333069,0.071749,0.817808,0.711423,-0.549555,-0.438026
0.487616,-0.076964,0.643643,0.962360,-0.111359,-0.247917
-0.189518,0.002376,0.606752,0.650508,0.723364,0.231483
0.703093,0.301943,0.494064,-0.505203,0.783345,0.362133
0.416586,0.268331,0.543066,-0.285196,-0.096589,0.953590
0.156627,-0.107516,0.840575,0.789701,0.594248,0.152454
0.328709,0.434015,0.489868,0.900712,0.323029,-0.290464
0.175946,0.214576,0.779127,-0.329355,-0.886961,0.323768
0.283139,0.571745,0.599648,0.757850,0.566419,-0.323779
0.237568,0.189564,0.816102,0.707087,0.213119,0.674246
0.229840,-0.786557,0.341099,0.855678,0.162006,-0.491497
0.595800,0.096084,0.621324,-0.652789,-0.664015,-0.364624
-0.116208,0.224530,0.779742,0.993934,-0.083202,-0.071922
0.221221,-0.037467,0.913687,0.633925,0.711145,-0.303992
0.339509,0.755652,0.661264,0.431661,-0.871173,0.233936
-0.170199,0.331252,0.243543,0.978953,-0.081106,-0.187276
0.073014,-0.478390,0.633714,0.299744,-0.946968,-0.115780
-0.464434,0.082614,0.626862,0.749078,0.619257,0.235381
0.525363,0.338836,0.559232,0.159443,-0.338878,0.927222
0.483752,-0.194323,0.582223,-0.702816,-0.638075,0.314500
-0.166535,0.013919,0.603843,0.458882,0.802065,-0.382255
0.130572,0.136486,0.951361,0.314108,-0.935303,0.162922
0.378147,0.114527,0.718769,0.816289,-0.071912,0.573149
0.400535,0.136031,0.615450,-0.650321,0.758222,0.046708
0.176738,0.497392,0.583398,0.301137,0.884102,0.357323
-0.465425,0.135464,0.123443,-0.533947,0.383230,-0.753681
-0.074102,0.670212,0.383613,0.493031,0.495860,-0.714873
0.230433,0.282477,-0.973681,-0.038102,0.244151,0.968988
0.294434,0.482568,0.382410,-0.563583,0.798276,-0.212438
0.303942,0.331031,0.728726,0.852721,-0.491204,0.177724
0.276403,0.076501,0.707022,0.952125,-0.201174,0.230189
0.215673,0.414101,0.484386,0.356514,0.807877,0.469289
0.059638,0.631164,0.382354,0.320860,0.775475,-0.543772
0.607392,0.083181,0.623226,0.778927,0.508415,0.367134
-0.425303,0.128108,0.602556,0.852067,-0.298202,-0.430182
-0.330790,0.166817,0.533640,-0.483125,-0.145869,-0.863315
-0.180503,0.086123,0.557946,0.081559,0.134443,0.987559
0.025263,0.439790,0.458990,-0.460501,0.231801,0.856859
-0.310482,-0.444432,0.457396,0.168832,0.906849,0.386162
0.361601,0.679379,0.614499,0.323154,-0.830575,0.453560
-0.233901,0.567559,0.473003,-0.318007,0.912308,-0.258001
0.187438,0.204954,0.691862,0.346103,-0.714632,-0.607876
-0.089261,0.241619,0.783126,0.069800,0.608194,0.790714
0.143155,0.185937,-0.235599,0.900699,0.405977,-0.154678
0.002872,0.465252,0.513167,0.130633,0.989074,-0.068316
0.040223,0.673376,0.691527,-0.813281,0.563050,0.146792
0.172182,0.083968,0.863146,-0.557439,-0.398716,-0.728208
0.297306,0.036327,0.462682,0.862630,-0.325618,0.387095
0.085793,0.113733,0.820269,-0.392256,0.772475,0.499418
0.099268,-0.099939,0.716308,0.901501,-0.267114,-0.340510
0.182585,0.113850,-0.966241,-0.446693,0.272253,-0.852258
-0.119973,0.545607,0.483855,-0.364109,-0.829691,0.423128
0.028927,0.014706,0.028123,-0.792186,0.467470,-0.392317
0.210621,0.247960,0.844715,0.963540,-0.245523,0.106343
0.047354,-0.152112,0.693289,0.552660,0.833405,-0.001645
0.185062,0.114983,0.826031,-0.573148,0.674037,-0.466021
0.100160,0.439334,0.479520,-0.010765,0.836188,0.548337
0.222013,0.441372,0.317605,0.978287,0.125567,-0.164886
0.346741,-0.614420,0.481114,-0.763237,-0.642820,0.065196
0.257283,0.587708,0.645657,0.484584,0.407952,-0.773792
0.017535,0.149161,0.613129,0.807646,0.589099,-0.025895
0.547158,0.225435,0.375810,-0.850686,-0.397029,0.344530
-0.085198,0.079333,0.739774,0.877836,-0.029136,-0.478075
0.034079,-0.199870,0.653573,0.890034,0.392994,-0.231075
0.378147,-0.862727,0.439468,-0.691437,-0.336347,-0.639363
0.226669,0.464008,0.592739,0.319272,0.259764,-0.911366
0.103724,0.276026,0.680898,0.087958,0.375227,-0.922750
0.342976,-0.815416,0.440111,0.725793,0.522233,0.447769
0.091144,0.045037,0.968730,0.496048,0.415347,-0.762511
-0.031503,0.250337,0.816969,-0.635899,0.700341,-0.324276
0.318705,0.702125,0.628316,0.341780,-0.935103,0.093642
-0.121756,0.617128,0.365069,0.810712,0.350741,-0.468750
0.078165,0.273649,-0.048373,-0.307090,0.591067,-0.745879
0.053202,-0.241288,0.703358,0.458735,-0.787919,-0.410787
0.261543,-0.017089,0.836967,-0.773592,0.463543,0.432069
0.074797,-0.255663,0.673850,0.996436,0.051199,-0.067035
0.009611,0.262902,0.697904,0.700779,-0.626751,-0.340724
0.143451,0.117242,0.915309,0.826485,0.556593,-0.084417
0.288886,0.230304,0.527011,0.001260,0.557227,0.830359
-0.011392,0.243995,0.751577,0.936033,0.238159,-0.259081
0.103528,-0.410254,0.604291,0.789559,-0.109764,-0.603779
-0.434514,0.175079,0.119835,0.042145,-0.032015,0.998598
-0.045075,0.373581,0.770344,-0.020135,-0.785611,0.618393
0.252824,0.334989,0.828464,0.886350,-0.461451,0.038030
-0.194470,0.420435,0.533109,0.892527,-0.362398,0.268446
-0.181791,-0.036672,0.508132,0.301695,-0.951900,-0.053534
0.146423,0.098571,-0.942383,0.707178,0.422758,0.566723
-0.096097,0.169194,0.735830,-0.552070,0.190938,0.811641
-0.032099,0.401536,0.465619,-0.560570,-0.562606,-0.607648
-0.239944,0.347553,0.326528,0.811490,0.562450,-0.158537
0.131763,0.152892,0.912764,0.916610,-0.340669,0.209217
-0.513771,0.220116,0.146489,0.529074,0.815347,0.235139
-0.243116,0.353549,-0.424784,0.932561,-0.043948,-0.358327
-0.057955,-0.359552,0.707721,0.761147,-0.574934,-0.300178
-0.018032,0.076052,0.887619,0.852300,-0.013073,0.522890
-0.060135,0.359324,0.359280,0.955129,0.117510,-0.271882
0.433722,-0.267316,0.528298,0.168784,0.879298,0.445361
-0.122152,-0.416933,0.352931,-0.494651,0.795711,0.349521
0.257183,0.084763,0.608878,-0.426695,-0.451836,-0.783439
0.022488,-0.260754,0.707134,0.511130,-0.792139,-0.333559
0.166831,-0.221146,0.836240,0.771396,-0.607199,-0.190416
-0.638400,0.357853,0.120002,-0.531287,0.315602,0.786212
0.312858,-0.025130,0.794985,0.837049,0.540243,0.086521
0.031406,0.456762,0.630777,0.961729,0.263851,-0.073895
0.023083,-0.223860,0.640986,0.766490,0.473835,-0.433559
-0.053595,0.165346,0.799712,0.502303,-0.580695,-0.640690
-0.050623,0.284405,0.540493,0.720295,0.356207,-0.595224
0.112740,0.275010,0.088817,0.836471,-0.537112,-0.108756
0.087973,0.266859,0.636120,-0.090886,-0.620041,0.779288
0.031802,-0.038710,0.700169,0.338188,0.701353,0.627482
0.205765,-0.112048,0.665683,0.539055,0.803279,0.253302
0.135527,-0.440930,0.597354,0.374997,0.447318,0.811963
-0.296711,0.064281,0.580013,-0.036647,0.216943,0.975496
0.135923,0.100947,-0.754010,0.476171,0.866625,0.149071
0.464732,0.045604,0.383305,0.309212,0.908743,0.280311
-0.109768,0.045721,0.840631,-0.571575,-0.625079,-0.531581
0.249356,0.619850,0.579314,-0.059824,0.945782,0.319247
-0.033783,0.382181,0.549275,0.558490,0.035948,0.828732
0.053298,-0.458358,0.385739,0.449206,0.850337,0.274119
0.355161,0.163985,0.700029,0.119259,0.838576,0.531570
0.596692,-0.559077,0.307900,0.302343,-0.457574,-0.836191
-0.058154,-0.781804,0.306614,0.681129,-0.630451,0.372284
0.176342,0.251352,0.642301,-0.288825,-0.139840,0.947114
-0.065386,0.178471,0.498287,0.968359,-0.190318,-0.161430
0.600257,-0.221373,0.647251,0.906203,-0.057876,-0.418864
0.408559,-0.021849,0.665907,0.179446,0.563307,0.806526
-0.050822,-0.277056,0.623226,0.690481,-0.500746,-0.522005
0.213197,0.315413,0.562616,0.945433,0.282875,-0.161675
0.610164,0.301266,0.487407,0.799015,-0.333266,-0.500508
-0.102833,0.111923,0.482764,0.794526,-0.605315,-0.048198
-0.050327,0.165118,0.399444,0.924454,-0.376789,-0.058436
-0.029623,0.387051,0.456445,-0.003744,0.675392,0.737449
0.414406,-0.133661,0.555288,-0.110269,0.993860,0.009075
-0.384784,0.188093,0.146937,0.737476,0.613440,-0.282526
-0.146127,-0.746493,0.375586,0.471057,-0.726144,0.500819
0.086389,-0.183347,0.682912,-0.663263,0.370857,0.650036
0.168714,0.423944,0.664257,-0.420571,0.247679,-0.872798
0.061226,-0.376420,0.589411,0.740687,0.307418,-0.597392
-0.383692,0.121435,0.621016,0.287951,-0.764138,0.577216
0.046166,-0.314515,0.705763,0.781528,-0.228733,0.580427
0.084209,0.123017,0.617464,0.788092,0.471752,-0.395426
-0.004457,0.196126,0.919504,0.931638,0.273790,0.238934
0.355756,0.112717,0.398493,-0.400294,0.912954,-0.079244
-0.181791,-0.051268,-0.392451,0.948478,0.051152,-0.312686
0.416782,-0.063039,0.772050,0.901553,0.386103,0.195261
0.157222,0.238228,-0.421903,0.966236,-0.156965,0.204326
0.707449,0.333635,0.515069,-0.644033,0.322654,0.693625
0.245392,-0.085226,0.703218,0.427127,-0.576875,-0.696260
-0.034772,-0.038026,0.384592,0.417867,-0.521952,0.743608
0.338717,0.060883,0.533920,0.444072,0.400216,0.801640
0.329801,0.381504,0.761506,-0.506447,-0.848484,0.153578
0.307906,-0.051047,0.212049,0.278172,0.524545,0.804657
-0.090549,-0.053085,0.604906,-0.508011,-0.617318,0.600703
0.271448,0.017994,0.824017,-0.034041,-0.988612,0.146583
-0.114621,-0.266867,0.318976,-0.682797,0.678234,0.271638
-0.120764,0.291077,0.348316,-0.368060,0.737479,0.566265
0.305230,-0.110576,0.423162,0.276529,-0.762296,0.585181
0.655638,0.166589,0.233222,-0.529603,0.664006,0.527841
0.219337,0.187188,0.691079,0.999457,-0.032903,-0.001791
-0.459877,0.167156,0.120422,-0.449220,0.039769,-0.892535
0.594413,0.374258,0.554030,0.988069,-0.060458,-0.141649
0.398555,0.120751,0.580097,0.482579,0.823837,0.297339
0.309986,0.262218,0.793531,-0.629874,0.600391,-0.492736
0.273827,0.054770,0.536689,0.126659,0.335532,0.933475
0.220528,0.307600,0.857916,0.932995,0.010998,-0.359720
-0.052903,0.117131,0.827681,0.831667,-0.156997,0.532617
-0.332970,-0.552971,0.483939,0.143889,0.143236,0.979173
-0.177234,0.522066,0.449089,-0.154670,-0.175299,-0.972290
0.139984,-0.167384,0.811319,0.912597,0.041254,-0.406773
0.280267,0.129468,0.812662,0.576573,0.778659,-0.247496
-0.194174,0.021841,0.241445,0.263998,0.360839,0.894483
0.139984,0.108980,0.756164,0.816562,-0.571558,0.080919
0.340301,0.179375,0.213979,-0.185389,-0.975478,0.118636
0.250248,-0.203151,0.710014,0.660556,0.710841,-0.241601
-0.449870,-0.562925,0.453508,0.910980,-0.270575,-0.311294
0.760155,0.384675,0.517474,-0.377658,0.107539,0.919679
0.345749,0.329104,0.524634,-0.078304,0.841165,0.535079
-0.224885,-0.070513,0.512915,0.755479,0.222185,0.616349
0.275411,-0.202018,0.739242,-0.744984,0.447392,0.494812
0.757876,0.053188,0.208973,0.432775,0.850449,-0.299069
-0.040619,-0.156070,0.660341,0.775487,-0.621617,0.110511
0.003072,0.078995,0.469730,0.832725,0.535869,0.139336
0.187537,0.162625,0.705400,-0.281440,0.006219,-0.959559
-0.212898,0.145314,0.614667,-0.637030,0.725975,-0.259139
0.075489,0.299795,0.692338,0.432278,-0.892315,0.130039
0.294630,0.118375,0.428867,0.939149,-0.342519,0.026065
0.068557,-0.134000,0.626051,0.491071,-0.859713,-0.140508
0.581633,0.207330,0.216412,0.529031,0.370353,-0.763521
0.307114,0.461515,0.355672,-0.438592,0.893166,-0.099456
-0.078165,0.609999,0.341044,0.779490,0.516088,-0.355033
-0.045671,-0.351519,0.687751,-0.490643,-0.431688,-0.756911
-0.091341,0.290062,0.671892,0.549499,-0.824232,-0.136720
-0.031107,-0.394076,0.364622,0.590139,0.807297,0.002537
-0.003268,0.362716,0.750011,-0.242809,0.967148,-0.075287
0.191302,-0.222389,0.712420,0.552360,0.659061,-0.510427
-0.401427,0.231887,0.114520,-0.162496,0.330425,0.929739
-0.268972,-0.115667,0.557274,0.828772,-0.203355,0.521328
-0.340401,0.298324,0.665264,-0.535835,0.249091,-0.806743
-0.083910,-0.060213,0.453564,-0.087484,-0.748327,0.657535
0.236180,0.458351,0.617576,0.555906,0.035847,0.830472
-0.226074,0.600833,0.588712,-0.501262,0.356745,0.788333
0.138599,0.187637,0.899115,0.238277,-0.968389,0.073799
0.386764,-0.293917,0.243123,-0.620465,-0.404950,-0.671594
-0.084209,0.056807,0.611423,-0.691105,0.456016,0.560735
0.253419,-0.403919,0.564239,0.987882,-0.151347,-0.034402
-0.179810,-0.129137,0.782455,0.340644,0.856221,0.388389
0.009511,0.072087,0.874782,0.281638,-0.956688,-0.073676
0.255400,0.502939,-0.985428,0.258781,-0.080036,-0.962615
0.081633,-0.098122,0.574168,0.873276,0.349780,-0.339178
0.551914,-0.309756,0.570811,0.804276,0.493793,-0.330617
-0.021399,0.015162,0.496581,-0.619286,-0.456134,0.639082
0.062910,0.096423,-0.609744,0.843576,0.536824,0.014138
0.300970,0.063487,0.830394,-0.624740,0.779770,0.040719
0.316921,-0.383659,0.399723,-0.303452,-0.254392,-0.918260
0.180502,0.211744,0.840072,0.721672,-0.453862,-0.522684
-0.405983,0.072992,0.591844,-0.621684,-0.754126,-0.211669
0.130176,-0.351070,0.653433,-0.296409,0.930566,-0.214913
0.260352,-0.247173,0.722629,0.924964,-0.136390,-0.354739
-0.428274,0.036209,0.618079,0.772238,-0.397683,0.495476
0.334753,-0.248873,0.384871,-0.341688,0.184108,0.921604
-0.006636,-0.179044,0.502342,0.899913,0.080358,-0.428602
0.098276,0.211972,0.735998,-0.412159,-0.877386,0.245598
0.161482,-0.186173,0.855762,-0.315748,0.840973,0.439394
0.484348,0.231887,0.101319,-0.436887,0.888770,0.138630
-0.067070,-0.127887,0.737285,-0.548103,0.433565,-0.715265
0.279078,0.134110,0.691555,0.245468,0.258842,0.934209
0.355360,-0.239706,0.245808,0.724767,-0.197680,0.660027
0.365960,0.339064,0.469367,0.441989,0.893080,-0.083988
-0.316326,0.313147,0.666690,0.514162,0.581747,0.630244
0.164059,-0.065076,0.797307,0.813252,-0.578587,-0.062116
0.143055,0.177455,0.877998,-0.286376,-0.605470,0.742560
0.635923,-0.158107,0.409037,-0.007360,-0.011119,0.999911
0.448189,0.097099,0.625939,0.268795,0.630148,0.728466
-0.089854,0.206087,0.436698,-0.005378,-0.299419,0.954107
0.577869,0.338159,0.486736,0.017465,0.462497,0.886449
0.508619,-0.146226,0.553386,0.932062,0.101230,-0.347870
-0.023579,-0.288598,0.692645,0.827293,-0.555263,-0.085257
0.529227,0.181185,0.369628,0.536602,-0.828663,-0.159299
-0.046859,-0.172482,0.458682,0.973675,0.046312,-0.223188
0.073609,0.019009,0.811263,-0.622371,-0.764575,-0.167571
-0.219637,0.615318,0.613856,-0.492209,0.722735,-0.485164
0.306421,-0.494346,0.407918,0.984332,-0.015352,-0.175655
-0.027047,-0.430970,0.697009,-0.587211,-0.658859,-0.470201
0.542106,-0.385925,0.579510,-0.235110,-0.965717,0.110061
-0.277591,0.239022,0.229418,0.250026,-0.011017,0.968177
0.630871,-0.351408,0.600123,-0.829231,0.556002,0.056901
-0.042995,0.354572,-0.600599,0.847630,0.529687,-0.030916
0.240044,0.413984,0.282140,0.770586,0.566236,-0.292532
-0.277392,0.596536,0.605633,0.020710,-0.900009,0.435379
0.166238,0.019804,0.058078,-0.001169,-0.954383,0.298584
-0.400535,-0.764377,0.455941,0.015883,-0.996812,0.078186
0.086389,0.272068,0.183996,0.162918,0.973450,0.160787
0.219537,0.577071,0.660565,0.068716,0.662840,0.745601
0.037746,0.022968,0.874502,-0.294860,-0.906318,-0.302728
0.482068,-0.121780,0.536773,0.588099,0.684828,-0.430290
0.364672,0.165567,0.157257,-0.523476,0.560295,0.641905
-0.034772,-0.008269,-0.265079,0.866486,0.340613,-0.364944
-0.204578,0.005768,0.433426,0.633101,-0.062644,-0.771531
0.246584,-0.649166,0.398968,0.414109,0.876543,0.245327
0.335049,0.024667,0.877523,-0.472830,-0.878441,-0.069086
-0.066278,-0.885583,0.465563,0.043035,0.020478,0.998864
0.022687,-0.154709,0.728446,0.245869,-0.014752,-0.969191
0.109868,0.204388,0.929965,-0.503264,-0.755072,0.420228
0.357144,-0.208014,0.749843,-0.694596,0.340701,0.633609
0.197146,0.058845,0.675081,0.967824,-0.178412,0.177443
0.040618,0.275232,0.682884,-0.688378,0.229752,-0.688004
-0.033683,0.051378,0.746179,0.651398,-0.009747,-0.758674
-0.021895,0.214120,0.825248,0.918439,-0.277810,0.281588
0.732712,0.081143,0.211965,-0.501826,-0.826497,0.255096
0.594017,0.133654,0.510622,0.883068,-0.381810,0.272785
-0.086486,-0.394981,0.708560,0.541059,0.761143,0.357654
0.568258,-0.200658,0.630442,-0.527952,0.547534,0.649210
-0.194870,0.172702,0.576014,0.877398,-0.447332,0.173396
-0.311471,0.069821,0.602277,0.223210,-0.757408,0.613604
-0.606500,0.276592,0.129568,0.643637,0.305408,-0.701753
-0.094610,0.328199,0.811627,0.735336,0.597485,0.319832
0.111156,0.078539,0.949292,-0.521872,0.132662,-0.842645
-0.177334,0.574011,0.578391,-0.552669,0.407362,0.727058
-0.153855,0.163985,0.727887,-0.016754,-0.999834,0.007174
0.022983,-0.338505,0.690156,-0.192538,-0.830496,0.522691
0.388747,-0.002494,0.499434,0.988764,-0.110754,-0.100393
0.179514,0.616907,0.629463,-0.504810,0.431975,-0.747371
0.085793,0.136597,0.792580,0.549035,0.722544,0.420108
-0.024172,0.027043,0.252101,0.492996,0.869524,-0.029697
-0.012780,0.498981,0.367643,-0.352918,-0.063775,0.933478
0.239152,-0.203601,0.680339,0.972609,0.027997,0.230754
-0.165543,0.093929,0.420784,0.022930,0.307786,0.951179
-0.128392,-0.095297,0.517558,0.968093,-0.248189,0.034625
0.090353,0.388405,0.547429,0.005101,0.542773,0.839864
-0.175154,-0.357294,0.454151,-0.249349,-0.640024,0.726770
0.129583,0.088271,0.906359,0.460596,0.727275,-0.508844
-0.109373,0.537346,0.570084,0.895057,0.210038,0.393392
-0.334554,-0.155959,0.404981,0.395542,-0.847791,-0.353267
0.253915,0.495921,0.604207,-0.716335,0.403450,-0.569291
0.116900,-0.015280,0.537808,-0.274516,0.909509,-0.312144
-0.082226,0.230761,0.504552,0.961666,0.124591,0.244285
-0.435406,0.107626,0.637714,-0.296957,0.930614,-0.213950
-0.309490,0.088727,0.346498,0.761526,0.643965,0.073398
0.086685,0.860454,0.601633,0.892394,0.449918,0.034732
0.322469,-0.232122,0.750430,-0.108162,0.434807,0.894005
0.004656,0.267088,0.762317,0.887812,0.012890,-0.460027
0.532694,0.026932,0.658131,-0.533913,0.530427,0.658471
0.713792,0.142710,0.281665,-0.588739,0.663575,0.461578
0.468497,0.307600,0.674130,0.957706,-0.062985,-0.280769
0.717357,0.398483,0.511656,0.791839,-0.055188,-0.608232
0.015256,0.256899,0.808075,-0.132087,0.986284,-0.098982
-0.021003,-0.450207,0.326304,0.811854,0.583691,0.014057
-0.247572,0.159343,0.379417,-0.179328,0.950066,0.255373
-0.033783,0.172585,0.690856,0.674387,0.419583,0.607579
0.192886,0.590872,0.618723,0.894488,-0.340702,0.289504
0.285219,0.138863,0.715105,-0.142513,0.735903,0.661919
0.330493,-0.043691,0.230453,-0.467751,-0.647079,-0.602078
-0.018824,0.055115,0.871929,-0.559658,-0.709942,-0.427511
0.264911,-0.158556,0.732306,0.671538,-0.230152,-0.704320
0.405886,0.365092,0.548520,0.178698,0.295049,0.938623
0.035566,0.248527,0.678689,0.836404,-0.078433,0.542473
0.239352,0.288252,0.844994,0.807391,-0.549434,0.215041
0.411038,-0.056366,0.775071,0.876825,0.440678,0.192307
0.203982,0.145763,0.781224,0.868023,-0.417555,-0.268671
0.241132,0.417831,0.466374,0.507761,0.798233,0.324041
0.148999,0.025689,0.772526,0.802571,-0.054365,-0.594074
0.111652,0.124598,0.978184,-0.624900,0.748769,-0.221009
-0.024867,0.479854,0.493392,0.540517,0.840037,-0.046689
0.653755,0.313037,0.598501,-0.774762,0.512351,0.370459
0.232812,0.623697,0.647391,0.143669,-0.566569,-0.811393
-0.523479,0.080577,0.128925,0.854740,0.296862,0.425784
0.221024,0.420207,0.290895,0.627346,0.766607,-0.136932
0.072022,0.086572,0.750178,-0.558864,-0.084479,-0.824945
0.464137,0.356609,0.499825,0.969820,0.243806,-0.002870
-0.218446,-0.664555,0.473534,0.172998,-0.215072,0.961153
0.284230,0.466046,0.500133,0.870482,0.275045,0.408180
0.214189,-0.362723,0.607787,0.997962,-0.056822,0.029028
0.837725,0.087256,0.274281,0.407426,0.681832,0.607543
0.157519,0.160704,0.747801,-0.357720,-0.896838,0.260226
0.186942,0.568126,0.473450,0.999268,0.037607,0.007036
0.259263,0.149610,0.787322,0.153153,0.719596,0.677293
0.287598,0.000110,-0.960647,-0.015595,-0.035146,0.999261
0.401131,-0.340315,0.408338,-0.334751,0.904829,-0.263108
0.548546,-0.751245,0.349602,-0.074441,0.459753,0.884921
0.421339,-0.072322,0.566924,0.909154,-0.379427,-0.171680
0.665246,-0.054211,0.452110,0.309423,0.844152,-0.437796
-0.149196,0.392252,0.746458,0.458831,-0.883858,0.090934
0.471765,-0.362612,0.561078,0.443682,0.367877,-0.817198
-0.322170,-0.195339,0.434321,0.853503,-0.104430,-0.510517
-0.341885,0.433567,0.316878,0.535725,0.751868,-0.384308
0.566873,0.102757,0.629379,0.030787,0.813715,0.580449
0.668518,-0.315641,0.569888,0.087905,-0.982889,-0.161873
0.498020,0.061222,0.422434,0.538400,0.713320,0.448665
-0.059243,0.342235,0.747773,-0.207244,-0.892829,0.399883
0.093025,0.251352,0.706322,0.231825,0.234861,0.943980
0.436398,-0.265167,0.371083,-0.244943,0.813428,0.527578
0.173570,0.179147,-0.261918,-0.046524,0.991965,-0.117647
0.214881,0.226685,0.817165,0.738625,0.355175,-0.572961
0.762235,0.351968,0.524410,0.654587,-0.332730,-0.678828
0.527443,0.033833,0.396423,0.064051,0.818139,0.571442
0.198830,0.410136,0.581468,0.801462,-0.560324,0.209033
0.076085,0.348908,0.645881,-0.479593,0.431636,-0.763990
0.230632,0.231548,0.856154,0.955306,-0.033826,-0.293679
0.146027,0.539155,0.651838,-0.115194,0.668501,0.734736
-0.069843,0.562807,0.594641,0.153847,0.981460,-0.114308
0.417774,0.132411,0.611563,0.125506,-0.877508,0.462847
-0.144047,0.017766,0.525697,0.888257,-0.046236,0.457013
0.133843,0.176999,0.916316,0.934367,-0.322785,0.150890
-0.123936,0.062921,0.607060,0.574940,-0.615572,0.538995
0.579353,0.408554,0.531571,0.403184,0.897784,-0.177274
0.312858,-0.488689,0.300208,0.780178,0.448959,0.435613
0.604024,0.304775,0.505951,0.890685,-0.390521,0.232752
0.465029,-0.064738,0.623533,0.982998,0.172872,-0.061884
0.201406,0.303525,0.606584,0.617548,0.702317,0.354097
0.017339,-0.006908,0.433426,0.868461,0.495747,0.003223
-0.268179,0.317105,0.319759,0.758695,0.501593,-0.415675
0.677038,0.354454,0.493980,-0.521852,0.387537,0.759925
0.175946,0.106266,0.815599,0.501775,0.429504,-0.750832
-0.210521,0.661495,0.587873,0.885885,0.003678,0.463890
-0.043391,-0.304326,0.393346,0.970058,-0.162874,0.180167
0.332873,-0.033391,0.640958,0.806832,0.372029,0.458930
-0.363681,0.159571,0.159663,0.334152,0.881976,-0.332358
-0.021695,0.036327,0.461535,0.464172,-0.009565,0.885693
-0.035171,0.251918,0.346553,-0.144903,0.140739,0.979385
0.015159,0.010409,0.882305,0.759992,0.515586,0.395707
0.199129,0.142254,0.941964,0.874735,-0.058880,-0.481012
0.184269,0.470004,0.463801,0.784815,-0.465272,-0.409374
-0.245096,0.306695,0.620149,-0.733318,-0.210016,-0.646636
0.136912,0.621887,0.552407,0.864342,0.071193,-0.497839
-0.161087,-0.138186,0.217643,0.088869,-0.200052,0.975747
0.071825,0.029419,0.598865,-0.707912,-0.079998,0.701755
0.359521,-0.628001,0.340037,-0.166438,-0.823544,0.542285
0.180898,0.670434,0.584405,0.954372,-0.220610,0.201259
0.549038,0.256111,0.564938,0.515763,0.169604,-0.839775
-0.067962,0.476117,0.208357,-0.112241,0.990111,0.084159
-0.044482,0.217174,0.643979,0.113438,0.989076,0.094130
0.050922,-0.282029,0.730768,-0.608093,0.696553,-0.380837
-0.379433,0.120979,0.608150,-0.133698,0.990814,-0.020320
0.369528,0.343934,0.536577,0.907451,0.349212,-0.233631
0.098476,0.105589,0.915505,-0.520301,0.819706,0.239519
-0.391816,0.023313,0.602836,0.492723,-0.530760,0.689578
0.028435,0.159910,0.721230,-0.106092,0.817232,0.566459
0.443234,-0.092465,0.594082,0.004168,-0.996818,0.079606
0.350109,0.426998,-0.112674,0.381235,-0.777861,0.499591
0.276007,0.759727,0.680703,-0.979759,0.033182,0.197413
-0.188230,-0.174064,0.777029,0.825036,0.325123,0.462180
0.325937,-0.092582,0.785084,-0.189074,-0.962629,-0.193897
0.040419,-0.259510,0.381319,-0.504164,-0.857713,0.100730
0.357244,-0.821191,0.336932,0.736181,0.079162,-0.672139
0.186845,-0.185157,0.190960,-0.086157,-0.098320,0.991418
0.089856,0.381504,0.762065,-0.238017,-0.964332,0.115811
-0.007428,0.059978,0.820465,0.288487,0.820533,0.493458
0.061126,-0.156297,0.648818,-0.579332,-0.191403,0.792300
0.327818,-0.808177,0.317158,-0.305732,0.448693,0.839763
0.019319,0.286553,0.343980,0.206158,0.226963,-0.951833
0.372300,-0.193529,0.224859,0.335839,-0.063829,-0.939754
0.233804,0.594160,0.563148,-0.258481,-0.492367,0.831121
0.049238,0.062693,0.726460,0.971866,0.165319,-0.167767
-0.013375,-0.045500,0.136840,-0.740282,-0.669448,-0.061822
-0.172974,0.439334,0.620764,-0.166726,0.133816,0.976881
-0.080742,0.053983,0.834925,-0.106462,0.891957,0.439407
-0.106993,0.553530,0.410771,0.964357,0.238784,0.114011
0.320686,0.021724,-0.973765,-0.161520,0.086657,0.983057
-0.327322,0.063715,0.592627,-0.132770,0.960044,-0.246349
0.265307,0.418625,0.530759,0.732984,-0.483175,0.478828
0.317713,-0.623925,0.477450,-0.401807,-0.882831,0.243230
0.128295,0.327404,0.518397,0.129306,0.533745,-0.835701
0.033883,0.257921,0.627114,-0.202465,-0.505151,0.838946
0.016743,-0.250793,0.695275,-0.546603,0.837140,-0.020549
0.016743,0.023424,0.894696,-0.589040,-0.700815,-0.402356
0.061918,0.119618,0.833499,-0.367007,-0.923041,-0.115335
0.157222,-0.034524,0.812662,0.920115,-0.089094,0.381379
0.346544,0.128902,0.548911,-0.340372,0.010572,0.940232
0.126116,0.085101,0.827262,0.624674,0.634741,0.454848
-0.079950,-0.138075,0.759520,0.788326,-0.044537,0.613644
-0.252428,-0.695225,0.471940,0.010723,-0.605522,0.795756
0.187834,0.272406,0.800635,0.795456,0.400808,-0.454535
0.263523,0.047758,-0.019117,0.910888,0.412652,-0.001096
0.169507,-0.596426,0.425595,0.338133,-0.805149,0.487238
0.349912,-0.592917,0.496553,0.324187,-0.506336,0.799078
0.833069,0.161381,0.267960,0.962272,-0.123761,-0.242314
-0.089854,-0.366570,0.693624,-0.493059,-0.791031,-0.362163
0.107292,0.084763,0.942775,0.549029,0.540693,-0.637353
0.174558,0.419075,0.547373,0.087590,-0.987519,-0.130898
0.393503,-0.465369,0.310166,0.523984,0.828717,-0.196643
0.847137,0.416588,0.358133,0.290404,0.956352,0.032504
-0.509212,0.650401,0.175857,0.599151,0.470634,-0.647705
0.435406,0.097438,0.504608,0.975037,0.160059,0.153897
-0.248168,0.138179,0.373712,-0.814552,-0.433274,-0.385719
0.179214,0.047758,-0.962661,-0.101453,0.376694,-0.920765
-0.035268,0.381394,0.788329,-0.332753,-0.770787,0.543289
0.000396,0.452576,0.608710,-0.452294,0.586455,-0.671938
-0.043491,0.284059,0.523236,0.742572,0.496157,-0.449906
0.115912,0.098909,-0.179185,0.227753,0.969003,0.095721
0.512683,0.182774,0.201085,0.126797,0.357792,-0.925153
-0.019319,0.167038,0.799013,-0.405542,0.066315,-0.911668
0.155242,0.010182,0.865859,0.990547,0.116186,-0.072924
-0.191598,0.505654,0.588628,-0.228170,-0.555268,0.799760
-0.116108,0.348687,0.746934,0.523799,0.850880,-0.040480
0.266395,0.097776,0.666802,-0.151167,-0.969458,0.193133
0.229245,0.450994,0.567343,0.968657,0.246920,0.027083
-0.302854,0.043683,0.592459,0.855596,-0.170068,0.488910
0.111552,-0.131852,0.691275,0.425680,0.652734,-0.626686
0.125916,0.580013,0.614751,-0.075033,-0.881404,0.466366
0.607984,-0.240721,0.632540,0.917213,0.209218,-0.339039
0.670694,-0.345067,0.608654,-0.533671,0.845617,-0.011245
0.185654,0.561792,0.360930,0.784580,-0.427222,0.449350
0.514860,-0.089294,0.600962,-0.371018,-0.928600,-0.006963
0.287398,-0.006341,0.459801,-0.237140,0.968299,0.078494
0.244104,-0.628795,0.274589,0.042129,0.724378,0.688115
0.245392,-0.538486,0.382019,0.352681,0.165327,0.921023
-0.445513,0.125959,0.622946,-0.286396,0.662614,-0.692041
0.064790,-0.359442,0.600934,0.820102,-0.311114,-0.480251
-0.258076,0.235851,0.643196,-0.311697,0.902060,0.298551
-0.588270,0.317672,0.136308,-0.419167,0.105980,0.901702
0.168914,-0.001022,0.907646,0.667160,0.669911,-0.325756
0.022687,0.201555,0.686688,-0.707267,0.342780,-0.618284
0.315138,0.054770,0.608095,0.891005,0.408483,0.198119
-0.212205,0.103323,0.561721,0.566193,0.368253,0.737438
0.552902,0.186849,0.192694,0.166452,0.153716,-0.973994
0.004160,0.272855,0.813585,-0.329575,0.908604,-0.256550
0.280663,-0.059191,0.736194,-0.368156,-0.352119,0.860508
0.603924,-0.296175,0.628512,0.079062,-0.260152,0.962325
0.117000,0.005768,0.760387,-0.129889,-0.751145,0.647233
0.323361,0.132183,0.510509,0.801957,0.526669,0.281930
0.145531,0.081481,0.019453,0.924617,0.379877,-0.027886
-0.041807,-0.443306,0.459941,0.150373,0.091981,0.984341
0.052011,0.174961,0.748276,-0.081569,0.223146,0.971366
0.265011,0.427902,-0.981652,0.185340,-0.099387,-0.977636
0.196157,-0.126871,0.606053,-0.130913,0.982919,-0.129354
0.277690,-0.016868,0.462263,-0.159568,0.940276,0.300697
-0.299486,0.251469,0.665096,-0.590106,0.580965,-0.560584
0.111452,0.351629,-0.031843,0.944247,-0.194242,-0.265833
0.035170,0.138745,0.747689,0.693168,0.712879,-0.106406
0.312462,0.039836,0.819934,0.767689,-0.632717,0.101606
0.396967,-0.087484,0.696477,-0.082474,0.977969,-0.191766
0.271151,-0.600501,0.428056,0.823059,0.246728,0.511566
0.115712,-0.192735,0.682409,0.220423,0.432196,0.874426
0.203489,-0.436855,0.200889,0.545657,0.419566,-0.725412
-0.093225,0.121773,0.624652,-0.793913,0.554655,-0.249116
-0.062414,0.457218,0.363671,0.769211,0.120793,-0.627474
0.208242,0.305901,0.820493,-0.195952,-0.448384,0.872098
0.031010,0.132072,0.671752,0.845377,-0.312765,0.433031
0.077569,0.243885,0.793950,0.015710,-0.587181,0.809303
0.153259,-0.117366,0.803348,-0.031529,0.614008,0.788670
-0.300774,0.187070,0.220580,-0.516818,-0.834359,0.191690
0.442045,0.561902,-0.081097,0.174837,-0.788745,0.589333
0.004260,-0.299463,0.190709,0.552204,0.618056,-0.559534
-0.112444,0.097328,0.402744,-0.289407,0.949703,-0.119610
