-0.095947,-0.109281,0.400920,-0.074988,-0.995517,-0.057648
-0.118273,-0.119979,0.352358,-0.433523,0.498137,0.750944
-0.356190,-0.106985,0.513942,-0.245325,-0.258503,0.934340
-0.441974,-0.110196,0.529349,-0.192378,0.472246,0.860218
-0.525003,-0.114173,0.539148,0.248035,-0.046374,0.967640
-0.628971,-0.115704,0.570180,0.993847,-0.100318,0.046958
-0.307528,-0.168006,0.170522,0.513619,0.739998,0.434279
-0.427927,-0.167548,0.220064,-0.120880,-0.634761,0.763195
-0.294484,-0.197522,0.009646,-0.032747,0.085377,0.995810
-0.364718,-0.203488,0.004801,0.999966,-0.006726,0.004671
-0.381149,-0.215874,-0.053017,0.928993,-0.022909,-0.369386
-0.476716,-0.218778,-0.032220,0.941575,0.312848,-0.124752
-0.394816,-0.244018,-0.197070,0.567971,0.362868,-0.738739
-0.456274,-0.251207,-0.212586,0.964151,0.089840,0.249685
-0.408239,-0.272153,-0.342213,0.856670,0.515461,-0.020384
-0.142731,-0.272919,0.041331,-0.388833,0.722401,0.571792
-0.217729,-0.278585,0.040351,-0.284024,0.742042,0.607210
-0.235037,-0.291271,-0.019100,0.300331,0.893647,-0.333461
-0.264007,-0.302445,-0.067499,-0.585325,-0.808786,0.057100
-0.288843,-0.313609,-0.117313,0.110654,-0.310260,0.944190
-0.246951,-0.333641,-0.236976,-0.119306,0.987348,0.104451
-0.277429,-0.344806,-0.285321,-0.241939,-0.946029,-0.215627
-0.434201,-0.339447,-0.198105,0.936595,0.086700,0.339520
0.756260,-0.102243,0.600668,0.012467,0.212914,0.976991
0.384150,-0.090622,0.803356,-0.698855,0.151819,0.698965
0.234149,-0.099797,0.811358,0.337498,-0.940030,-0.049383
0.175329,-0.106985,0.797693,-0.181234,-0.925473,-0.332648
0.096817,-0.111270,0.804989,-0.303678,-0.158981,0.939417
0.044645,-0.118607,0.785226,0.886337,-0.033429,-0.461832
-0.001885,-0.127018,0.760183,0.784802,-0.459357,-0.416025
-0.040140,-0.135886,0.727137,-0.008177,-0.659917,0.751294
-0.010416,-0.151792,0.631427,0.669068,0.346315,-0.657582
-0.048288,-0.160510,0.599633,-0.553002,0.253685,-0.793620
0.045147,-0.184221,0.438050,0.834110,-0.470396,-0.288075
0.089545,-0.202722,0.325300,0.857487,-0.243553,-0.453210
-0.488630,-0.151334,0.817184,0.187356,0.918801,0.347423
-0.035624,-0.202414,0.374244,0.963501,-0.067796,0.258979
-0.059453,-0.213279,0.325191,0.572796,-0.230212,-0.786707
-0.115514,-0.220617,0.306899,0.972688,-0.043393,-0.228023
-0.102347,-0.236066,0.222514,0.921368,-0.222373,-0.318796
-0.113133,-0.248303,0.161376,0.938495,0.333677,-0.088802
-0.529392,-0.213279,0.504360,-0.486602,0.600705,-0.634328
-0.164302,-0.256555,0.137149,-0.409098,0.701528,0.583522
-0.034119,-0.279957,0.536862,-0.739870,0.638055,0.213255
0.003007,-0.297544,0.431952,0.626583,-0.678606,0.383260
-0.028348,-0.307336,0.392482,0.756750,0.535600,0.374783
-0.076259,-0.315597,0.367112,-0.571007,-0.670540,0.473631
-0.108743,-0.325231,0.328621,0.660003,0.742510,-0.114349
-0.125549,-0.337310,0.271131,0.878178,0.107974,-0.465988
-0.156402,-0.348325,0.227468,-0.390514,0.631918,0.669462
-0.188131,-0.358565,0.183860,-0.173470,-0.947977,0.266921
-0.154894,-0.376768,0.076773,0.868543,0.349164,-0.351735
-0.124668,-0.394354,-0.027647,0.666896,0.395557,0.631494
-0.006149,-0.424029,-0.226469,-0.759071,-0.483099,-0.436378
-0.191140,-0.415460,-0.112413,0.185847,0.380803,0.905787
-0.252091,-0.422956,-0.128582,0.260127,0.052313,0.964156
-0.130815,-0.453396,-0.332794,-0.495560,0.251747,-0.831290
-0.255352,-0.452930,-0.283307,-0.356360,0.490077,-0.795507
0.033607,-0.208538,0.885726,0.768061,0.146251,0.623452
0.059944,-0.223828,0.795243,-0.530314,0.747152,-0.400663
-0.013298,-0.229485,0.795461,0.751822,-0.409640,-0.516681
0.021064,-0.245848,0.696050,0.780069,0.061194,-0.622694
0.094812,-0.267113,0.555644,0.039947,-0.999198,-0.002723
0.057685,-0.276597,0.519822,-0.621286,0.775649,-0.111230
0.130430,-0.372483,0.821811,0.708382,0.378299,0.595890
0.058941,-0.377991,0.820015,0.983499,0.140372,0.114132
0.079509,-0.394056,0.731927,0.859731,0.509914,0.029166
0.102083,-0.409804,0.643459,0.988224,-0.003782,0.152968
0.125664,-0.425710,0.553303,0.963917,0.259871,0.057720
0.207185,-0.448804,0.404731,-0.735354,-0.669414,0.105543
0.244181,-0.466698,0.299822,0.379652,0.617481,0.688899
-0.171199,-0.432440,0.629685,0.465345,-0.428224,-0.774648
-0.200046,-0.442839,0.586241,-0.103085,-0.993945,-0.038034
-0.005647,-0.480467,0.322742,0.984920,0.153951,-0.078942
-0.247452,-0.465018,0.490369,-0.556208,0.730760,0.395757
-0.094317,-0.497437,0.268245,0.432780,0.747975,0.503224
-0.031988,-0.520074,0.131432,0.945277,0.324490,0.034019
-0.160915,-0.518235,0.187780,-0.209244,0.395240,0.894428
-0.118273,-0.538426,0.068824,0.985956,0.134637,0.098810
-0.136584,-0.566262,-0.066954,0.727482,0.486445,-0.483881
-0.180733,-0.575588,-0.096679,0.947682,0.230454,-0.220885
-0.194026,-0.790930,-0.120198,0.945553,-0.078463,0.315869
0.555971,-0.574066,0.665182,0.123966,0.390740,0.912115
0.400329,-0.583541,0.673783,0.238135,-0.054583,0.969697
0.319811,-0.587826,0.682984,-0.097052,-0.330365,-0.938850
0.228255,-0.591195,0.699371,0.929172,0.225132,-0.293182
0.199032,-0.615970,0.590596,0.802274,0.459816,-0.380691
0.178089,-0.670876,0.329057,-0.670072,0.158214,0.725239
0.078755,-0.688006,0.282182,0.985459,0.015545,0.169203
0.017053,-0.695193,0.269062,-0.535532,0.188223,0.823273
-0.018944,-0.705742,0.230245,0.991268,0.048290,-0.122699
-0.127053,-0.736789,0.118094,0.964361,0.169002,-0.203582
0.060196,-0.891260,0.218812,0.796971,0.500320,-0.338404
0.014167,-0.900286,0.192571,0.703754,0.629120,-0.330058
0.327083,-0.187740,-0.941946,0.095875,-0.177077,0.979516
0.285820,-0.331495,-0.946410,0.037678,-0.021524,0.999058
0.362574,-0.327527,-0.943851,-0.185742,-0.322398,0.928202
0.236407,-0.278585,-0.935630,0.098458,-0.114038,0.988586
0.312535,-0.273992,-0.949078,0.277528,-0.030272,0.960241
0.094938,-0.468836,-0.961436,-0.172459,-0.406972,0.897013
0.319057,-0.457214,-0.948696,-0.257855,0.476689,0.840403
0.316171,-0.383041,-0.944014,0.007522,0.038991,0.999211
0.389041,-0.357809,-0.942272,-0.590187,0.015567,0.807116
0.019560,-0.597767,-0.951527,0.014030,-0.734713,0.678233
0.093809,-0.594556,-0.938353,0.137121,-0.985446,0.100467
-0.451757,0.817236,0.110037,-0.537757,-0.623326,-0.567699
-0.306774,0.822892,0.167527,-0.490554,0.860300,0.138710
-0.232529,0.822127,0.287463,0.729329,0.088608,-0.678401
-0.163173,0.824115,0.336570,-0.262456,-0.773046,0.577509
-0.092312,0.826869,0.365261,0.486742,-0.814924,-0.314612
-0.925084,0.676683,0.197961,-0.078956,0.770324,0.632745
-0.858487,0.681266,0.187616,0.038659,0.912937,0.406264
-0.789631,0.686008,0.163771,0.178184,-0.695390,0.696192
-0.720400,0.689070,0.178960,-0.006916,-0.698494,0.715583
-0.650668,0.693504,0.172863,-0.294360,0.246563,-0.923341
-0.512961,0.704211,0.105191,0.481061,-0.595120,0.643748
-0.443356,0.707272,0.123484,0.795390,-0.331300,-0.507539
-0.349415,0.694419,0.556624,-0.426487,0.306422,-0.851008
-0.291851,0.706507,0.346152,0.710879,-0.672024,-0.207450
-0.227385,0.712164,0.304721,0.496077,0.011275,-0.868206
-0.153141,0.712472,0.399940,0.993572,-0.095969,0.060042
-0.091309,0.723935,0.212061,0.917808,0.075343,0.389809
-0.641640,0.614131,0.208522,-0.254067,0.473465,0.843375
-0.547952,0.604031,0.557169,0.223162,-0.071554,0.972152
-0.414883,0.612749,0.528151,0.500716,-0.656810,0.563811
-0.361709,0.627433,0.266612,0.206383,-0.240846,0.948367
-0.290848,0.631260,0.273417,-0.011651,0.305795,0.952026
-0.220114,0.634620,0.287082,-0.688132,-0.221302,0.691013
-0.147120,0.633556,0.410284,0.991727,-0.092143,0.089376
-0.084159,0.640893,0.318114,0.319843,-0.151268,0.935317
0.108606,0.675917,-0.226306,-0.041117,0.156712,0.986788
0.398947,0.657715,0.559020,-0.156739,0.322990,0.933333
-0.912040,0.493769,0.473274,0.157745,-0.987007,-0.030560
-0.632110,0.505083,0.582266,-0.188287,0.685527,0.703279
-0.461915,0.536279,0.077535,0.705989,0.631636,0.320337
-0.389550,0.539490,0.098386,0.481146,0.594773,-0.644006
-0.315428,0.539192,0.203622,0.965745,-0.144238,0.215714
-0.244065,0.540564,0.272110,-0.257549,-0.696426,0.669820
-0.167062,0.539799,0.394823,0.952030,0.305885,-0.008604
-0.027218,0.543626,0.480351,-0.699431,0.713102,0.047769
-0.054309,0.573450,-0.242584,0.308365,-0.287208,0.906875
0.011783,0.586603,-0.455507,0.754168,0.635809,0.164247
0.378504,0.569773,0.410012,-0.329705,-0.662925,-0.672179
0.447984,0.574673,0.383499,0.192949,-0.416063,-0.888629
0.517842,0.579256,0.370487,-0.311857,0.196882,0.929507
0.587325,0.581861,0.399559,0.027077,-0.839649,0.542454
-0.849833,0.376609,0.663657,-0.172062,0.922490,0.345552
-0.787625,0.382882,0.602192,-0.170661,0.161064,-0.972077
-0.558489,0.381809,0.933036,0.689276,0.605033,-0.398539
-0.548453,0.415003,0.146567,-0.439600,0.637458,-0.632771
-0.507944,0.434577,-0.261475,0.327163,-0.838840,0.435100
-0.440845,0.440085,-0.305029,-0.808417,0.521874,-0.272229
-0.340011,0.425551,0.173135,0.716936,0.697124,-0.004570
-0.163425,0.403988,0.943761,0.857100,-0.267278,-0.440389
-0.197287,0.430909,0.249245,0.791294,-0.025494,-0.610904
-0.122035,0.430601,0.365206,0.209429,-0.189892,0.959208
0.359318,0.457056,0.379470,-0.152810,-0.543054,0.825676
0.429298,0.460575,0.387364,-0.396974,0.917709,-0.014902
0.496022,0.447114,0.791269,-0.789552,0.207428,-0.577565
0.053674,0.297087,0.869067,0.119472,0.989922,-0.076033
0.114377,0.306412,0.726266,-0.651770,-0.369072,0.662557
0.244809,0.324615,0.439846,-0.613324,0.357686,-0.704198
0.313411,0.331345,0.372229,0.642537,0.604540,0.470827
0.380135,0.335471,0.361123,0.963005,-0.130050,-0.236025
0.448990,0.321861,0.807929,0.291290,-0.250643,0.923216
0.445730,0.351835,0.040732,-0.448004,-0.240284,-0.861137
0.517214,0.356885,0.012640,-0.596540,-0.220790,-0.771616
-0.888961,0.249059,0.731873,0.857526,0.478167,0.189750
-0.722284,0.274599,0.332105,0.863986,0.389650,-0.318905
-0.607273,0.259001,0.886270,0.049895,0.171448,0.983929
-0.652050,0.278277,0.332160,0.332578,0.179388,0.925857
-0.586582,0.283169,0.308532,-0.720183,-0.529171,-0.448681
-0.473455,0.264200,0.947137,0.861323,0.052682,-0.505319
0.403088,0.212047,0.709933,0.907697,-0.027658,-0.418715
0.394683,0.251505,-0.346405,0.027760,-0.853456,0.520425
0.464415,0.263137,-0.537932,-0.191631,0.537084,0.821473
0.177962,0.317735,0.523633,0.855597,-0.494364,-0.153486
-0.866011,0.138182,0.764429,0.272869,0.232527,0.933528
-0.205565,0.181457,0.615585,0.361244,0.201076,-0.910533
-0.139094,0.184678,0.619995,0.753596,0.425783,0.500801
-0.074878,0.192473,0.516283,-0.397653,0.701720,-0.591153
0.064961,0.195376,0.654511,-0.097414,0.407753,0.907881
0.132060,0.201042,0.607092,0.782223,-0.065933,-0.619500
0.198156,0.208836,0.496303,0.901606,-0.364223,0.233343
0.262996,0.217704,0.353773,0.038079,0.083382,0.995790
0.336364,0.203945,0.831992,-0.504354,0.241602,-0.829009
-0.641012,0.114780,0.851482,-0.633812,-0.699165,0.330834
-0.254101,0.147199,0.595169,-0.688771,-0.403439,0.602355
-0.184870,0.148273,0.659084,0.067301,0.241225,0.968133
-0.119402,0.155152,0.590977,0.803152,-0.162561,0.573167
-0.051301,0.160202,0.568983,-0.011961,-0.153115,0.988136
0.084152,0.166625,0.598382,0.068175,0.455399,0.887673
0.148740,0.172748,0.548403,-0.661987,-0.593697,0.457489
0.214082,0.183147,0.384425,-0.656407,0.297001,-0.693485
0.288330,0.168771,0.819851,-0.515560,0.322654,-0.793783
0.278046,0.194610,0.187671,0.311217,0.690733,0.652712
0.357059,0.172282,0.836347,0.326912,0.162536,0.930973
0.343640,0.220308,-0.327622,-0.697354,0.510187,-0.503395
0.416507,0.226124,-0.370740,0.553544,0.581221,-0.596465
0.492007,0.186508,0.680099,0.323004,0.907615,0.268150
-0.802801,0.058193,0.800361,-0.409335,0.163983,0.897527
-0.437837,0.103466,0.249190,-0.464796,-0.655172,-0.595578
-0.364970,0.104073,0.321762,0.699026,-0.384804,-0.602734
-0.275420,0.094290,0.659356,0.851758,0.253657,0.458438
-0.207196,0.098108,0.658049,0.916680,-0.165760,0.363623
-0.139094,0.102542,0.650047,-0.020611,-0.737561,0.674966
-0.077009,0.110495,0.557931,-0.289328,0.023429,0.956943
-0.018944,0.123190,0.351160,0.716887,0.547312,0.431882
0.125538,0.119372,0.614115,-0.757516,0.596785,0.264608
0.200162,0.112483,0.864820,-0.566897,0.614152,-0.549040
0.264875,0.122117,0.729478,-0.187100,-0.981594,-0.038294
0.397944,0.131759,0.685978,-0.513556,0.759249,0.399753
0.463538,0.134663,0.695397,0.121799,0.886741,0.445931
0.458647,0.189878,-0.543485,0.704276,-0.488293,-0.515330
-0.907022,0.023169,-0.092106,0.336936,-0.010166,0.941473
-0.681146,-0.008485,0.874457,-0.492108,0.782061,-0.382375
-0.768814,0.033110,-0.132176,0.136578,0.301319,0.943691
-0.677258,0.025922,0.141341,0.727950,0.682482,-0.065619
-0.508572,0.016289,0.546770,0.095630,-0.287258,0.953068
-0.439594,0.020565,0.543667,-0.157178,0.138073,0.977871
-0.370738,0.024541,0.540183,-0.269148,-0.767000,-0.582469
-0.170698,0.037544,0.500767,-0.547652,0.459638,-0.699149
-0.095947,0.035705,0.632625,0.082637,-0.533809,0.841557
-0.020321,0.029134,0.876253,-0.460163,0.887637,0.018719
0.045522,0.036629,0.799435,0.752648,0.658352,0.009663
0.114500,0.038459,0.837763,-0.630267,0.776358,0.005697
0.181350,0.044275,0.799000,-0.041722,-0.744994,0.665766
0.171942,0.061096,0.420519,0.739104,0.129703,-0.660986
0.244307,0.052844,0.686468,-0.574812,0.817076,-0.044475
0.309025,0.057577,0.661316,-0.659028,0.743042,-0.116497
0.443096,0.065530,0.652551,-0.162161,-0.740591,0.652095
0.510819,0.107284,-0.164895,0.089720,-0.965266,0.245382
0.584064,0.116152,-0.275304,0.695961,0.284500,0.659317
0.727290,0.125179,-0.293705,-0.515719,-0.413642,0.750289
0.781847,0.088474,0.566968,0.345384,0.429437,0.834442
-0.725043,-0.040148,0.103013,-0.622796,-0.714404,0.318987
-0.545946,-0.052227,0.570453,-0.244164,0.432657,0.867866
-0.479349,-0.046571,0.532833,0.873218,-0.476776,-0.100867
-0.347785,-0.038776,0.519604,0.888870,-0.152819,0.431922
-0.279060,-0.034184,0.510457,0.288159,0.813049,0.505881
-0.223497,-0.021339,0.302707,-0.288689,0.957421,-0.001898
-0.137464,-0.032345,0.640410,-0.602342,-0.732459,-0.317314
-0.066101,-0.031122,0.704162,0.257004,-0.855206,-0.450080
0.000369,-0.025008,0.657505,0.144656,0.972043,0.184951
0.070101,-0.026688,0.772541,-0.169566,-0.201917,0.964612
0.137702,-0.026847,0.854095,0.991640,-0.120988,0.044865
0.201038,-0.014450,0.674273,0.803551,-0.587276,0.097017
0.265128,-0.006805,0.584281,-0.353367,-0.490718,-0.796447
0.334607,-0.002222,0.577802,-0.590013,0.165277,-0.790297
0.405093,-0.006805,0.752234,0.932866,-0.343683,-0.107906
0.471189,0.022404,0.213803,-0.185656,-0.466103,-0.865032
0.538790,0.009559,0.567676,-0.054213,0.995609,0.076318
0.682766,0.059416,-0.301218,-0.132531,-0.270020,0.953690
0.808558,0.024243,0.575243,0.892851,0.411116,0.183848
-0.753511,-0.136651,0.198832,0.543222,0.816702,-0.194697
-0.521363,-0.139862,0.536154,-0.366652,0.505936,-0.780766
-0.343399,-0.108208,0.088151,-0.079709,-0.929524,0.360044
-0.261124,-0.113407,0.289097,-0.045778,-0.845798,0.531535
-0.188882,-0.111270,0.327859,-0.544309,0.427484,0.721793
-0.099836,-0.128856,0.807602,0.216486,0.250509,0.943599
0.032979,-0.119372,0.774828,-0.380541,0.605549,0.698927
0.101582,-0.120903,0.882296,0.982304,-0.012647,0.186864
0.165546,-0.110346,0.732962,-0.097913,-0.942473,-0.319620
0.234777,-0.108665,0.783702,0.829520,0.409724,0.379502
0.302251,-0.103317,0.747062,0.477811,-0.878414,-0.009213
0.366590,-0.098267,0.721094,-0.486361,0.870562,-0.074670
0.431181,-0.088474,0.587874,0.286919,-0.953432,0.092975
0.499907,-0.083433,0.569581,-0.462711,0.527796,-0.712271
0.566377,-0.079606,0.565770,-0.195942,0.515212,-0.834364
0.641380,-0.035257,-0.282980,0.598897,0.490950,0.632686
0.714874,-0.030356,-0.292888,0.335080,0.098713,0.937004
-0.517099,-0.227197,0.729423,-0.078597,-0.843325,0.531626
-0.581189,-0.189569,-0.123084,0.619467,-0.465984,-0.631759
-0.427679,-0.187273,0.007740,-0.278429,-0.366153,0.887924
-0.344650,-0.191716,0.194204,-0.347803,-0.215454,-0.912476
-0.278432,-0.185285,0.143627,0.841468,0.497473,0.210836
0.025206,-0.201350,0.829542,-0.588510,-0.390261,0.708063
0.094812,-0.200127,0.890952,-0.093724,0.028882,0.995179
0.154887,-0.183605,0.616075,0.855462,-0.419238,0.304013
0.215965,-0.169229,0.391284,-0.061500,-0.492414,0.868186
0.353171,-0.162041,0.397763,-0.668053,-0.483473,0.565649
0.417636,-0.143073,0.087770,-0.661091,0.586169,0.468364
0.559982,-0.138798,0.163989,0.424644,-0.686681,0.590039
-0.446238,-0.270324,-0.129726,-0.657681,-0.357835,0.662880
-0.368354,-0.272770,0.004583,-0.395345,-0.785449,0.476206
0.630717,-0.136193,0.187235,0.486800,-0.363599,0.794243
-0.197287,-0.291430,0.589997,-0.349343,0.787163,0.508265
-0.139718,-0.276438,0.345063,0.841838,0.417735,-0.341770
-0.058324,-0.284550,0.610740,0.936881,-0.047079,-0.346465
0.016047,-0.287453,0.760074,0.855931,0.453823,0.247845
0.082017,-0.283327,0.754847,-0.558116,-0.674716,0.482974
0.144851,-0.274758,0.647815,0.904273,0.188077,-0.383299
0.274658,-0.254418,0.377510,-0.380702,-0.228831,0.895937
0.345018,-0.251813,0.401356,-0.615831,-0.265190,0.741907
0.412243,-0.235757,0.151522,0.208340,0.704949,0.677968
-0.463044,-0.356119,-0.148508,0.676355,-0.160775,0.718815
-0.138589,-0.374938,0.602900,0.788413,-0.135587,0.600018
-0.077389,-0.365762,0.490967,-0.443122,0.623090,0.644516
0.000496,-0.374780,0.769601,-0.641723,-0.698313,-0.317097
0.071357,-0.375396,0.860683,0.980424,-0.156048,-0.120072
0.132060,-0.364689,0.716412,-0.660238,0.586356,0.469332
0.259483,-0.335172,0.252294,0.357526,0.821543,-0.444120
0.330217,-0.331802,0.262692,-0.610344,-0.678292,0.409145
-0.270027,-0.402924,-0.150631,0.081124,0.996114,0.034287
-0.162043,-0.435800,0.612590,-0.154228,0.987072,-0.043611
-0.045154,-0.406284,0.162029,0.929220,0.210351,-0.303813
0.049912,-0.434577,0.827255,0.913586,0.230306,0.335141
0.115507,-0.427847,0.771343,-0.484155,-0.800380,-0.353533
0.179842,-0.417299,0.629413,0.934722,0.291444,0.203358
0.241547,-0.403838,0.428305,0.854035,0.516920,0.058473
0.376372,-0.387167,0.248755,-0.707070,-0.641399,0.297758
-0.553471,-0.422190,-0.083069,0.020735,0.915660,0.401417
-0.416893,-0.408272,-0.207360,-0.138075,-0.945226,0.295776
-0.229896,-0.437788,0.581885,-0.231163,0.971934,0.043678
-0.669232,-0.464561,-0.065430,0.273496,0.904474,0.327301
-0.206316,-0.476183,0.626310,0.912029,-0.349376,-0.214802
-0.140220,-0.469601,0.570561,0.986676,0.162445,-0.009026
-0.088676,-0.444827,0.161974,0.682326,0.247211,-0.687981
-0.016058,-0.442689,0.202207,0.949593,-0.111622,-0.292939
0.074618,-0.472971,0.857253,0.823997,0.422116,0.377951
0.134066,-0.459819,0.680262,0.840133,0.486752,-0.239268
0.202420,-0.455991,0.677377,0.865855,-0.498716,0.039721
0.262744,-0.437788,0.402281,0.922593,-0.375603,0.088005
0.329969,-0.424029,0.219520,-0.715587,-0.633167,0.295016
-0.203054,-0.505241,0.639485,0.143984,-0.566961,0.811064
-0.138589,-0.494842,0.527716,0.848877,-0.483505,-0.213612
-0.087546,-0.471440,0.173298,0.984538,0.115797,-0.131439
-0.016934,-0.471282,0.241187,0.735107,0.219087,-0.641575
0.074870,-0.501106,0.841193,0.813729,0.417843,0.404045
0.058064,-0.473121,0.350017,-0.549966,0.596795,0.584271
0.133438,-0.486124,0.636600,0.638022,0.768473,0.048761
0.204299,-0.486423,0.715486,0.757539,0.243262,-0.605771
0.268638,-0.471132,0.511165,0.956003,-0.059372,-0.287287
0.333980,-0.451250,0.236124,0.694151,0.709438,0.121873
-0.267019,-0.580022,0.567676,0.991581,-0.070471,0.108629
-0.201550,-0.575130,0.544919,-0.827496,0.520769,0.209883
-0.170322,-0.530622,-0.172626,0.588488,0.366645,0.720592
-0.090306,-0.536438,-0.003094,0.620780,0.743956,-0.247310
-0.010290,-0.548825,0.276085,0.868120,-0.100674,-0.486037
0.062075,-0.547453,0.327478,0.986764,0.115694,-0.113629
0.142845,-0.563509,0.675961,-0.529064,-0.474372,0.703607
0.124661,-0.527878,0.057337,0.607334,0.041599,-0.793357
0.211322,-0.559075,0.670027,0.569206,0.633083,0.524605
0.338623,-0.534300,0.362974,0.970164,-0.231553,0.071874
0.615292,-0.537203,0.673729,0.237377,0.298150,0.924532
-0.169944,-0.656800,-0.109582,0.978402,0.070027,-0.194488
-0.065975,-0.690760,0.588473,0.444147,0.692487,-0.568503
-0.094570,-0.654970,-0.063742,0.892649,-0.077244,-0.444084
-0.010538,-0.667814,0.239228,-0.556253,0.721588,0.412181
0.061953,-0.665975,0.282128,0.968639,0.221488,0.112610
0.200035,-0.663381,0.371412,0.849174,0.038026,-0.526743
-0.108991,-0.834365,0.180430,0.867484,0.474547,-0.149253
0.034361,-0.831004,0.261331,-0.449230,-0.595194,0.666286
0.176585,-0.824274,0.282400,0.017701,-0.713094,0.700845
-0.007657,-0.769208,0.268082,0.509172,0.346093,-0.788013
0.060070,-0.765848,0.269334,0.401173,0.028178,-0.915569
0.128171,-0.757746,0.197198,-0.641300,0.473377,0.603861
0.049912,-0.866943,0.238356,0.481644,0.692628,-0.536922
0.274785,-0.106220,-0.917665,-0.650632,-0.379401,-0.657825
0.161910,-0.129622,-0.946247,-0.114680,-0.522229,-0.845059
0.109233,-0.099181,-0.897194,0.900253,0.025345,0.434629
-0.020949,-0.134663,-0.941673,-0.456903,0.878017,0.142569
-0.195783,-0.134821,-0.931166,-0.544827,-0.828348,-0.130399
0.284066,-0.245391,-0.947771,0.038311,-0.147127,0.988375
0.197654,-0.247995,-0.939006,-0.181682,0.320119,-0.929793
0.129676,-0.247080,-0.907974,0.479350,0.415442,-0.773066
-0.111123,-0.371569,-0.951419,0.163365,0.736825,-0.656049
0.412366,-0.346645,-0.945920,-0.661900,-0.126384,0.738861
0.315922,-0.351993,-0.949894,0.042666,0.097229,0.994347
0.227753,-0.355512,-0.943797,-0.227892,-0.408819,-0.883704
0.136450,-0.359797,-0.946029,0.245184,0.074861,0.966582
0.042261,-0.365454,-0.951473,0.339128,0.548065,-0.764602
-0.061585,-0.371876,-0.963831,0.036837,-0.244873,0.968855
-0.158534,-0.377841,-0.970419,-0.420254,-0.043422,0.906367
0.348528,-0.349240,-0.950384,0.033323,-0.613322,0.789130
0.258105,-0.353524,-0.951527,-0.014831,0.084210,0.996338
0.171815,-0.356735,-0.943633,-0.094972,-0.033569,0.994914
0.073489,-0.362392,-0.949404,-0.239551,-0.337393,0.910374
-0.032611,-0.369580,-0.965084,0.635535,0.014555,0.771935
0.356558,-0.355662,-0.946029,0.069908,-0.235194,0.969431
0.262369,-0.360255,-0.947444,0.033459,0.129763,0.990980
0.169435,-0.365146,-0.947172,-0.121326,-0.005927,0.992595
0.075246,-0.369430,-0.948152,0.238540,0.451610,-0.859737
-0.032738,-0.377384,-0.970256,-0.383026,0.260430,-0.886266
-0.131566,-0.383498,-0.980273,0.890536,0.370278,-0.264272
0.335488,-0.331037,-0.941673,-0.195632,-0.069582,0.978206
0.240170,-0.336852,-0.948479,0.330240,0.013300,0.943803
0.144602,-0.341744,-0.951854,-0.020387,0.183045,0.982893
0.075498,-0.341436,-0.926811,0.169929,-0.244107,0.954744
-0.050673,-0.353067,-0.966390,0.505515,0.229137,0.831836
-0.132446,-0.354747,-0.951963,-0.522881,0.635169,0.568467
0.370226,-0.424337,-0.941347,-0.447147,0.271433,0.852281
0.270020,-0.430601,-0.950384,0.051361,-0.010919,0.998620
0.080639,-0.440243,-0.958224,-0.345587,-0.343007,0.873451
-0.036753,-0.449718,-0.986316,0.202026,-0.006825,0.979356
-0.109619,-0.450484,-0.961109,-0.001338,0.426604,0.904437
0.107476,-0.565348,-0.966826,-0.181653,-0.043024,0.982421
0.020563,-0.569016,-0.963015,0.438577,-0.009618,-0.898642
0.355551,0.256864,-0.379397,0.513000,0.716940,-0.472047
0.321062,0.297394,-0.317115,0.944591,0.282706,0.166811
0.098199,0.181457,-0.476793,0.731649,0.545415,-0.408915
0.066845,0.227188,-0.406291,0.038207,-0.882072,0.469564
-0.069737,0.324764,-0.251894,0.368438,0.859348,-0.354647
0.494012,-0.138032,-0.141159,0.330754,0.636421,-0.696828
0.431556,-0.047644,-0.008157,-0.042033,0.995197,0.088415
0.198657,-0.174428,-0.176056,-0.074732,0.940498,0.331479
0.103967,-0.181159,-0.179867,-0.519575,0.850114,0.085718
0.071732,-0.138182,-0.116769,0.664968,0.224233,0.712416
0.176707,0.019500,0.102306,0.368564,-0.263925,-0.891349
0.071231,0.002063,0.083741,0.047258,0.204399,-0.977746
0.279676,0.242945,0.416382,0.688180,-0.529203,0.496338
-0.001257,0.148123,0.297208,0.897716,-0.237038,-0.371374
0.087160,0.288517,0.493036,-0.474609,0.818714,-0.323193
0.132688,0.390378,0.635837,0.968183,0.069592,0.240373
0.097571,0.426167,0.688701,-0.415245,-0.714664,0.562874
-0.444734,0.121659,0.285884,0.533341,0.837805,0.116751
-0.840299,0.329356,0.607255,-0.459182,0.300992,-0.835797
0.864243,-0.092610,0.566642,0.179895,0.040859,0.982837
0.365212,-0.389463,0.185384,-0.646985,-0.423963,-0.633771
0.518470,-0.110196,0.562014,-0.325382,0.585986,-0.742123
0.381391,-0.157607,0.504632,-0.796167,-0.093638,0.597787
0.369724,-0.099181,0.585642,-0.324010,0.078055,-0.942828
0.296104,-0.094440,0.596530,0.252246,0.268937,0.929540
0.203549,-0.102850,0.590487,0.343028,-0.937339,-0.061060
0.173699,-0.060946,0.649557,-0.280831,0.939874,-0.194348
0.076501,-0.073642,0.637961,-0.226048,0.498638,0.836817
0.078132,-0.003136,0.734650,-0.207640,0.958762,-0.194067
-0.009536,-0.006656,0.734541,0.429617,0.801068,0.416796
-0.276802,-0.161126,0.536753,0.077709,0.183973,0.979855
-0.483865,0.068284,0.864984,-0.389482,0.576132,-0.718593
0.026083,-0.767687,0.278208,-0.002699,-0.376475,0.926423
0.144725,-0.449112,0.697847,-0.590789,-0.554176,0.586393
0.139210,-0.385944,0.783048,-0.575344,-0.716923,-0.393700
-0.199793,-0.604647,0.508824,0.592248,0.804994,0.035013
0.045897,-0.327826,0.865256,0.980294,0.100485,-0.170079
0.016173,-0.283626,0.926285,-0.761029,-0.648556,0.014521
0.241800,-0.672706,0.694798,0.955112,0.296191,-0.005690
-0.393940,0.104838,0.853987,-0.076455,0.956013,-0.283185
0.476705,-0.518543,-0.435472,-0.746595,0.555987,0.365343
0.282558,-0.484285,-0.348256,0.609145,0.749455,0.259345
0.816087,0.043360,0.597619,-0.511418,-0.702503,-0.494916
0.093055,-0.390994,-0.147528,-0.682368,0.698323,-0.216146
0.110737,-0.326603,-0.026994,0.828835,-0.523947,-0.196245
0.378631,-0.044275,0.480569,-0.795403,-0.056582,0.603434
0.281307,-0.056055,0.468918,-0.311034,0.950381,-0.005739
0.062075,-0.096278,0.418341,0.961989,-0.185505,0.200410
0.207059,0.046412,0.674110,-0.367185,0.800825,0.473134
0.098823,0.025615,0.646454,0.783140,0.459314,-0.419193
-0.000005,0.013535,0.634259,-0.385562,0.453792,0.803377
-0.068482,0.017820,0.650972,0.850569,0.511018,0.124069
-0.224251,-0.030058,0.576550,0.697599,0.454372,-0.553987
-0.324962,-0.043668,0.562722,-0.427507,-0.083323,-0.900164
0.452374,0.203795,-0.566133,0.621730,-0.692587,-0.365754
0.081894,0.226274,-0.472656,0.841306,0.179880,-0.509753
0.437952,0.498203,0.054778,0.165886,-0.304932,0.937816
0.341884,0.486730,0.042474,0.100557,0.777105,0.621286
-0.184997,0.262977,-0.361268,-0.487651,0.709917,-0.508148
-0.185621,0.312228,-0.256848,0.305388,0.816566,-0.489855
-0.148498,0.382275,-0.114918,0.538787,0.016874,0.842273
-0.242312,0.372632,-0.122757,0.121553,-0.713000,0.690547
-0.358448,0.351993,-0.151938,0.944091,0.100774,-0.313904
-0.194152,0.542702,0.229264,-0.400127,0.563033,0.723113
-0.144487,0.851186,-0.118456,0.076726,-0.690573,0.719182
-0.229770,0.847209,-0.116769,-0.454637,-0.079040,0.887163
0.030472,0.299075,0.406909,-0.400426,0.658914,0.636782
-0.007530,0.304116,0.462277,0.579820,0.710958,0.397930
0.215965,0.367900,0.897105,-0.473367,-0.235826,-0.848711
0.006268,0.341436,0.761435,0.962838,0.191259,0.190692
-0.213339,0.313908,0.616946,0.372581,0.336868,0.864698
-0.327721,0.304881,0.584934,0.951691,0.295774,-0.082475
-0.147997,0.359023,0.960475,0.168949,0.265394,0.949222
-0.763543,0.250133,0.304177,-0.221574,0.258247,0.940326
-0.250465,0.351685,0.939188,-0.632128,0.707819,0.315289
0.453128,0.201499,-0.537823,-0.412884,0.440698,0.797064
0.407099,0.219235,-0.377546,-0.325710,-0.770645,0.547740
0.327083,0.217555,-0.364806,-0.423237,-0.902948,0.074539
0.310028,0.227188,-0.277264,-0.227590,-0.918804,-0.322493
0.466673,0.270782,0.015035,0.301526,-0.395310,0.867648
0.043137,0.189569,-0.486647,0.781435,0.431031,-0.451189
0.329590,0.268793,0.054615,0.846712,0.282117,0.451098
0.005261,0.220617,-0.219120,0.191288,-0.876192,-0.442375
-0.075881,0.217555,-0.212586,-0.685391,0.053016,-0.726243
0.343763,0.309166,0.373155,-0.748459,-0.245130,0.616215
0.298362,0.312685,0.421173,0.434700,-0.568850,0.698173
0.053047,0.279799,0.241950,-0.699947,-0.315355,-0.640801
-0.025714,0.276746,0.248755,-0.596547,0.404117,-0.693413
0.117133,-0.234843,-0.815804,0.211517,0.977164,0.020282
0.578920,-0.120138,-0.150631,0.990738,-0.128230,-0.044664
0.198780,-0.186816,-0.499332,0.993778,-0.109172,0.022039
0.614791,-0.083126,0.100836,0.766329,-0.059990,-0.639642
0.397695,-0.085721,0.157183,0.911145,0.041024,-0.410039
0.350537,-0.081903,0.200846,-0.289147,0.916081,-0.277829
0.262870,-0.086337,0.197035,-0.047652,0.998715,0.017255
0.395560,-0.044275,0.451660,0.838137,0.325678,0.437562
0.365713,-0.037245,0.513071,0.836708,-0.106701,-0.537154
0.209569,-0.055289,0.435056,0.785505,0.541290,-0.299979
0.136324,-0.056512,0.451170,-0.101466,0.529725,0.842079
0.230260,-0.023934,0.654239,0.678519,0.578722,-0.452430
0.120773,-0.033568,0.624187,-0.222424,-0.459465,0.859895
0.000121,-0.044732,0.582865,0.933728,-0.008778,0.357875
0.099829,-0.011090,0.787839,0.933168,0.189678,0.305320
0.055178,-0.007570,0.829596,0.210170,-0.842435,0.496117
-0.025087,-0.010175,0.835748,0.568827,0.541632,-0.618927
-0.378263,-0.067070,0.548294,-0.550832,0.255890,-0.794421
-0.450127,-0.068134,0.565444,0.098140,0.775598,0.623552
-0.504936,-0.066146,0.597075,0.131822,0.088135,0.987347
-0.367730,-0.026996,0.831883,0.417131,0.842938,0.339790
0.237911,-0.281180,-0.425563,0.979389,0.192334,0.061683
0.237157,-0.251813,-0.215200,-0.784662,0.607310,-0.124420
0.828752,-0.111876,0.585206,-0.407606,0.131881,-0.903584
0.043891,-0.278277,-0.336224,0.908483,-0.380778,-0.172242
0.159901,-0.239277,-0.094665,0.421010,0.895449,0.144642
0.064709,-0.244327,-0.101144,0.253866,-0.257689,0.932281
0.069979,-0.229643,0.004528,0.866090,0.467197,0.177808
0.327837,-0.161892,0.397926,0.667352,0.438037,-0.602300
0.219226,-0.170452,0.373917,0.085667,0.994766,-0.055688
0.218097,-0.157607,0.467666,0.139393,-0.986533,-0.085574
0.290462,-0.129155,0.647107,-0.018445,-0.964472,0.263539
0.272779,-0.119522,0.723925,-0.207164,0.977253,-0.045390
0.218724,-0.116927,0.759747,0.927391,0.190114,-0.322183
0.092806,-0.129313,0.712002,-0.235348,0.841177,-0.486860
0.098823,-0.115704,0.809725,0.197811,0.187748,-0.962092
0.096063,-0.102850,0.900697,0.650841,-0.366203,-0.665058
-0.070614,-0.123806,0.809289,-0.051730,-0.196971,0.979044
-0.142229,-0.125179,0.825023,-0.643889,0.000508,-0.765119
-0.489507,-0.181010,0.546172,-0.675393,0.737444,-0.004582
-0.287335,-0.127932,0.854749,-0.229966,-0.947304,0.223002
0.112494,-0.116161,0.755664,0.591044,0.497831,0.634690
0.100204,-0.105763,0.836946,-0.112696,0.928493,0.353836
0.014041,-0.110504,0.832972,-0.152048,-0.385945,0.909905
-0.063843,-0.113715,0.838253,0.662943,-0.502256,-0.555199
-0.163046,-0.120595,0.824425,-0.619858,0.167936,-0.766533
-0.474959,-0.168006,0.579762,-0.313638,0.722991,-0.615561
-0.286332,-0.119522,0.873695,-0.070706,-0.900387,0.429306
0.112368,-0.289133,-0.545608,-0.233518,0.737191,0.634050
0.609272,-0.173056,0.149290,0.560107,-0.658202,0.503042
0.200916,-0.215725,-0.026014,0.988004,0.152938,-0.021389
0.036741,-0.235450,-0.113556,0.491923,-0.216600,0.843265
0.492259,-0.129920,0.513942,-0.571691,-0.505019,0.646626
0.301122,-0.155162,0.394442,-0.218283,-0.628277,0.746740
0.229759,-0.156384,0.408869,-0.039693,-0.712850,0.700192
0.319811,-0.126252,0.605132,0.774316,-0.114635,0.622329
0.276163,-0.122126,0.653640,-0.103656,-0.927090,0.360221
0.274031,-0.110038,0.744068,0.087641,0.909741,0.405820
0.188875,-0.114173,0.745048,0.093585,0.992410,0.079777
0.112996,-0.308708,-0.533631,-0.203510,0.348370,0.914998
0.593594,-0.197980,0.145369,-0.379028,0.875493,-0.299748
0.067847,-0.289899,-0.370087,0.732095,-0.384799,-0.562110
0.060196,-0.278119,-0.276719,-0.433007,-0.900365,0.042981
0.027962,-0.258245,-0.108983,0.312155,-0.289254,0.904926
0.417885,-0.169080,0.438540,0.955060,0.149345,-0.256040
0.288579,-0.181467,0.390576,-0.247626,-0.573541,0.780853
0.179218,-0.190185,0.365642,0.081723,-0.995127,0.055160
0.324951,-0.149505,0.628814,-0.027537,-0.981259,0.190716
0.164918,-0.168155,0.542687,-0.776602,0.224334,0.588696
0.203549,-0.148889,0.679173,-0.368066,0.929698,-0.013743
0.167303,-0.143381,0.734813,-0.120914,0.978750,0.165613
0.097192,-0.144912,0.748804,-0.419972,-0.860057,-0.289697
0.076375,-0.136809,0.820613,0.035458,-0.859411,0.510055
0.050287,-0.129920,0.886053,0.003399,-0.181337,0.983415
-0.053180,-0.137725,0.866780,0.674306,0.232795,-0.700798
0.211701,-0.290207,-0.352720,0.883067,0.364500,0.295521
0.191883,-0.280574,-0.268934,-0.442991,0.874982,-0.195359
0.051041,-0.294492,-0.327677,0.877506,-0.234631,-0.418248
0.140714,-0.264508,-0.117150,0.838587,-0.314734,0.444651
0.458647,-0.191100,0.351378,-0.550348,0.489636,-0.676294
0.095814,-0.248452,0.030170,0.910709,0.391704,0.131062
0.299866,-0.197373,0.365914,0.817235,0.151165,-0.556126
0.194267,-0.205476,0.341687,0.143896,0.989538,-0.010393
0.122905,-0.206857,0.360307,0.126357,-0.966894,0.221697
0.268010,-0.167241,0.622227,-0.399119,-0.916726,0.017845
0.045648,-0.197065,0.471041,-0.615224,0.743108,0.263229
0.185112,-0.159287,0.719242,-0.405636,-0.292281,0.866043
0.085155,-0.166783,0.701386,-0.063275,-0.225155,0.972266
0.112747,-0.149654,0.826820,0.897760,-0.422428,0.124825
0.048408,-0.150728,0.846691,0.763577,-0.467990,-0.444899
0.002379,-0.147666,0.890517,0.966165,-0.217541,-0.138569
-0.130942,-0.160361,0.839668,0.183274,-0.953042,-0.241084
-0.585828,-0.220159,0.535446,0.635521,-0.539762,0.552060
0.071858,-0.350462,-0.212532,-0.223844,0.918114,0.327049
0.022067,-0.347401,-0.165494,0.703318,-0.710751,-0.013298
0.354928,-0.272004,0.322088,-0.169096,-0.877834,0.448123
0.279175,-0.274301,0.332051,0.862309,0.454467,-0.223343
0.108230,-0.294949,0.233566,0.342852,0.574736,0.743056
0.084275,-0.286996,0.306627,-0.188330,0.982094,-0.004864
0.083145,-0.275831,0.400757,-0.227186,0.851378,0.472802
-0.060081,-0.290048,0.338911,-0.716370,0.247794,0.652236
0.119517,-0.245241,0.637579,-0.551006,-0.832459,0.058348
-0.004518,-0.256098,0.596693,0.840632,0.006813,0.541564
-0.001510,-0.244476,0.692239,0.946526,-0.268406,0.179015
0.071231,-0.220308,0.862479,-0.646366,0.723336,0.242889
0.072486,-0.208687,0.957208,-0.900175,0.318609,0.296942
0.051669,-0.367591,-0.342485,0.110180,0.219053,-0.969472
0.120773,-0.508145,-0.506682,0.816166,0.229448,-0.530308
0.169936,-0.486124,-0.344880,-0.576000,-0.804535,0.144733
0.166048,-0.436267,0.063108,0.708822,-0.069007,-0.702004
0.234149,-0.410877,0.243855,0.041044,0.443403,-0.895382
0.013915,-0.440243,0.093214,-0.136489,0.500420,0.854957
0.154761,-0.401542,0.349963,0.588254,0.387152,-0.709980
0.175831,-0.386102,0.469354,0.301057,-0.900436,-0.313975
0.155763,-0.377533,0.544974,0.932392,0.320625,0.166866
0.159778,-0.365454,0.642479,0.923949,-0.310295,0.223684
0.144725,-0.356884,0.721747,-0.178355,0.911677,0.370182
0.086533,-0.356119,0.752997,0.718504,0.514282,0.468258
0.035613,-0.353673,0.791650,0.712872,0.640361,-0.285921
0.040883,-0.341286,0.887360,0.970093,0.059947,0.235215
-0.391054,-0.409654,0.510294,0.493664,0.864178,-0.097426
-0.000507,-0.600213,-0.182153,-0.310973,0.280719,0.908016
-0.071368,-0.588442,-0.058516,-0.380823,0.918346,0.107766
0.246565,-0.514874,0.406038,0.746439,-0.621689,0.237343
0.139083,-0.522828,0.383608,-0.431013,-0.193196,0.881421
0.123781,-0.513195,0.465380,0.827528,0.548248,0.120918
0.199534,-0.487655,0.642697,0.453089,0.874928,0.170914
0.163288,-0.483212,0.695070,0.569217,0.653041,-0.499529
0.151247,-0.473737,0.776951,-0.455786,-0.766048,-0.453242
0.045147,-0.470217,0.846092,0.928730,0.352522,0.114843
-0.249458,-0.513493,0.620049,0.849338,0.066719,-0.523616
0.204926,-0.628049,0.359545,0.949904,-0.220235,-0.221762
0.195144,-0.605412,0.542360,0.948116,0.251553,0.194416
0.235404,-0.585837,0.684781,0.813671,0.418517,-0.403463
0.258981,-0.697331,0.701386,0.943660,0.326051,-0.056540
-0.082402,-0.846145,0.192353,0.770995,0.582848,-0.256621
0.016674,-0.523286,-0.961817,0.200290,0.138918,-0.969838
0.082269,-0.562743,-0.952072,0.392352,0.462575,-0.795038
0.053923,-0.279351,-0.938625,-0.307321,0.492476,0.814261
0.171314,-0.271397,-0.942545,-0.025471,0.227000,0.973562
0.304509,-0.256406,-0.934650,0.499262,0.327843,0.802033
0.184610,0.001148,-0.949676,-0.116993,-0.548090,0.828197
-0.126927,-0.249218,-0.908682,0.022063,-0.119026,0.992646
0.037622,-0.225051,-0.884673,0.951095,0.308793,0.008083
0.093931,-0.242179,-0.932799,0.866122,-0.052557,-0.497062
0.197903,-0.238661,-0.944722,-0.181682,0.320119,-0.929793
0.321062,-0.228420,-0.944396,0.134918,-0.316564,0.938927
0.007270,-0.562743,-0.948860,-0.674023,-0.301011,-0.674600
0.145104,-0.548517,-0.942653,-0.807891,0.582301,-0.090762
-0.148751,-0.149505,-0.952616,0.793327,0.607953,-0.032023
-0.024084,-0.140478,-0.955502,-0.701792,0.017882,0.712158
0.115127,-0.123041,-0.946355,0.177679,0.247674,-0.952411
0.235653,-0.116002,-0.951854,-0.250321,0.184798,0.950363
-0.084534,-0.123190,-0.938189,0.214168,-0.976748,0.009805
0.053923,-0.107592,-0.931983,0.067895,0.719411,0.691258
0.163288,-0.103924,-0.941510,-0.281725,-0.164970,0.945207
0.288705,-0.091844,-0.940204,-0.508789,-0.333525,0.793659
-0.176216,-0.127018,-0.969766,-0.419173,0.852377,-0.312647
-0.018565,-0.102551,-0.950929,0.676878,0.102731,-0.728891
0.110615,-0.089399,-0.947335,-0.023392,-0.472837,0.880839
0.044519,-0.011547,-0.947335,0.070714,0.326090,0.942690
0.154761,-0.006656,-0.956101,0.190735,-0.295339,0.936160
0.139083,-0.060032,-0.941183,0.112814,-0.209656,0.971245
0.254970,-0.052993,-0.946083,-0.594831,-0.274836,0.755408
-0.205688,-0.137874,-0.947281,0.534274,-0.682717,0.498447
0.005387,-0.085422,-0.890062,-0.443861,0.734940,0.512689
0.039628,-0.117991,-0.949241,0.357714,0.281209,-0.890484
0.169936,-0.106369,-0.948860,-0.044301,0.117654,0.992066
-0.159785,-0.151185,-0.962525,0.127005,0.618929,0.775111
-0.009287,-0.127932,-0.945212,-0.663835,0.265641,0.699112
0.109861,-0.121668,-0.951909,0.189395,0.219788,-0.956986
0.243806,-0.108049,-0.948207,0.407322,0.090719,-0.908768
-0.126674,-0.160202,-0.954195,0.228940,0.920852,0.315623
0.034736,-0.133897,-0.933072,-0.450782,0.321537,0.832712
0.130678,-0.136502,-0.951419,0.422057,-0.030634,-0.906051
0.264875,-0.120595,-0.944123,-0.280647,-0.177069,0.943337
0.005514,-0.216033,-0.203549,0.812525,-0.306730,-0.495702
-0.017439,-0.186974,0.853170,0.250111,-0.967460,-0.038272
0.101961,-0.171675,0.778421,0.889689,-0.355087,0.286995
0.212953,-0.130079,0.391502,0.120500,0.635727,-0.762450
0.243932,-0.123041,0.335916,0.827722,0.442187,-0.345465
0.101709,-0.112950,0.090329,-0.039107,0.469138,0.882258
0.257853,-0.096428,0.032674,0.115350,-0.971576,0.206723
0.190252,-0.084199,-0.172626,-0.693492,0.666730,-0.273021
0.113122,-0.046720,0.862152,0.953768,-0.146362,0.262497
0.156391,0.075173,0.850938,-0.628181,0.694711,-0.350379
-0.314800,0.273068,0.912620,-0.668364,0.621435,-0.408788
-0.138214,0.283626,0.943761,-0.296120,-0.902553,0.312588
-0.274417,0.294641,0.713853,0.620957,0.663665,-0.417086
0.305764,0.369272,0.390740,0.743825,0.571999,0.345747
-0.332487,0.414238,0.691858,0.754581,0.594416,0.277987
0.079885,0.436566,0.790289,-0.546365,0.817546,-0.181947
-0.204436,0.474344,0.161049,-0.440145,0.815206,0.376446
0.375618,0.498969,0.370868,-0.035518,0.746682,0.664232
-0.686164,0.495142,0.896016,0.782833,-0.153359,-0.603037
0.523614,0.602042,0.739277,0.771170,0.627692,0.106302
0.348654,0.606785,0.553848,-0.440592,-0.025959,0.897332
0.447609,0.630952,0.385459,0.126429,0.665591,0.735530
0.564625,0.640277,0.381430,0.301297,0.412535,-0.859672
-0.195905,0.629272,-0.100817,-0.720104,-0.232027,0.653921
-0.526380,0.639363,0.569146,-0.428068,0.520351,-0.738913
-0.224752,0.681266,0.377946,-0.622126,0.606770,0.494762
-0.272537,0.687996,0.270586,0.810030,0.245091,-0.532712
-0.254476,0.726540,-0.106370,0.625654,0.362527,-0.690747
-0.173204,0.793217,0.499841,0.320865,-0.771615,0.549232
-0.271156,0.806678,0.287790,0.003280,-0.531518,0.847041
-0.130563,0.855013,-0.091344,0.838128,-0.458451,-0.295574
-0.339131,0.901351,0.115753,-0.714807,0.473498,0.514636
-0.201298,0.934844,-0.113938,0.494886,0.344046,-0.797947
-0.056693,0.523892,-0.497862,-0.495333,0.868438,0.021454
0.134946,0.566869,-0.453220,0.112147,0.957396,0.266113
0.058814,0.484892,-0.581376,-0.017865,0.591529,0.806086
0.188495,0.496672,-0.580233,0.097681,-0.070503,0.992717
-0.103472,0.528634,-0.262782,0.100004,-0.718748,0.688041
0.075747,0.563807,-0.229790,-0.680407,0.014467,0.732692
-0.064345,0.405369,-0.474942,0.373173,0.604412,0.703866
0.281433,0.518852,-0.334754,-0.641770,0.539589,0.544954
0.018056,0.347709,-0.583609,-0.327574,0.037890,0.944065
-0.290094,0.495599,-0.077625,0.036580,0.059352,0.997567
-0.236541,0.472505,-0.123846,-0.442672,0.437466,0.782729
-0.173331,0.407507,-0.241060,0.960551,-0.277473,0.018704
-0.158909,0.367591,-0.309439,0.423295,0.486838,-0.764075
-0.170698,0.313450,-0.398179,0.984971,0.144800,-0.094157
0.119770,0.353982,-0.372265,0.773333,0.622474,0.120344
0.254970,0.369123,-0.366766,0.801017,0.557829,-0.217253
-0.071869,0.164487,-0.660535,0.887126,0.388162,0.249677
0.428422,0.258086,-0.577348,-0.765207,0.635698,0.101716
-0.248708,0.530315,0.098659,-0.070897,0.739069,0.669888
-0.289719,0.417449,-0.084267,0.573175,0.805859,0.148531
-0.260370,0.385029,-0.142356,0.780565,0.021992,0.624687
-0.179979,0.327826,-0.248899,0.804579,0.512616,-0.299795
-0.061834,0.336236,-0.251839,0.565087,0.338888,-0.752218
0.193639,0.310239,-0.331814,0.159107,0.662823,0.731677
0.035490,0.188188,-0.512235,0.943182,0.095559,-0.318239
0.226498,0.182073,-0.550780,0.248730,-0.122271,0.960824
0.294979,0.166932,-0.585841,-0.206267,0.879425,-0.429028
-0.151633,0.602658,0.281474,0.065329,-0.492391,0.867919
-0.265763,0.459203,0.058698,0.975068,-0.172847,0.139165
-0.305897,0.302594,-0.197669,0.952221,0.041421,-0.302589
-0.286458,0.214801,-0.346677,0.507353,0.838786,0.197565
0.240296,0.270623,-0.329310,-0.397294,-0.319346,-0.860334
0.154259,0.182690,-0.463618,0.710796,-0.481347,-0.512907
0.042008,0.080213,-0.618179,0.148416,-0.378775,0.913511
0.271398,0.140627,-0.551651,0.144116,-0.854385,0.499256
-0.403221,0.542403,0.236233,0.765558,-0.576325,0.285957
-0.175964,0.600521,0.300801,0.305033,0.359395,-0.881924
-0.324709,0.489027,0.135406,-0.583955,-0.797439,-0.151946
-0.241183,0.480308,0.108893,0.310927,-0.483608,-0.818198
-0.373747,0.327975,-0.128365,-0.112381,-0.468898,0.876074
-0.183366,0.367591,-0.089384,0.796786,0.359133,0.485958
-0.257611,0.285764,-0.215526,0.841776,-0.405155,0.356739
-0.290347,0.224743,-0.313195,0.365145,0.876350,0.314132
0.231390,0.277969,-0.299313,0.953901,0.117179,-0.276299
0.241298,0.233769,-0.374388,0.413578,0.878460,-0.239291
0.410735,0.264966,-0.346840,-0.055788,-0.722982,0.688610
0.169056,0.103765,-0.582846,-0.552392,0.403437,0.729453
-0.351800,0.540564,0.257901,0.290656,0.761633,-0.579167
-0.196157,0.566412,0.278644,-0.042439,-0.075288,0.996258
-0.306651,0.470516,0.133501,0.878854,0.428104,0.210578
-0.389175,0.295406,-0.149815,-0.730656,0.588705,-0.345786
-0.192269,0.339905,-0.103485,0.875815,0.482376,0.016154
-0.248957,0.220617,-0.295828,0.171455,0.979106,-0.109337
0.376874,0.461340,0.018629,0.049122,0.297452,0.953472
0.101456,0.238054,-0.316897,0.048998,0.395554,0.917135
0.228756,0.251048,-0.313467,0.967205,-0.231724,-0.104007
0.124784,0.155460,-0.459045,0.780491,0.514052,-0.355787
0.390293,0.232089,-0.369325,0.225667,0.835459,-0.501081
0.190252,0.090612,-0.578382,-0.682201,0.631709,0.368165
-0.363462,0.549133,0.261440,0.312227,0.418404,-0.852908
-0.199793,0.576353,0.284033,0.589438,-0.035580,-0.807030
-0.325211,0.476332,0.132957,0.804396,0.592946,0.036901
-0.164677,0.366975,-0.076264,-0.309349,0.347147,0.885320
0.345894,0.461191,0.009428,0.225710,0.924753,0.306411
0.230260,0.269092,-0.298877,0.949251,-0.149071,-0.276949
0.304884,0.255641,-0.332195,0.272895,0.520636,0.808991
0.391924,0.249218,-0.356586,-0.251728,-0.900899,0.353573
0.160027,0.091685,-0.589706,-0.578564,0.583705,0.569695
-0.168941,0.587210,0.284795,-0.205821,-0.632679,0.746562
-0.270528,0.314981,-0.164623,0.886945,0.408794,-0.214980
0.231642,0.452015,-0.004346,0.804071,-0.558279,0.204436
0.414249,0.489027,0.032022,0.227691,0.563966,-0.793788
0.229384,0.264359,-0.323594,0.969908,-0.239334,0.044693
0.074116,0.146135,-0.503034,0.637795,0.609062,-0.471445
0.248196,0.131909,-0.552304,-0.430505,0.787523,0.440991
-0.282320,0.580479,0.289695,-0.185926,0.767218,0.613847
-0.174460,0.613972,0.302217,0.377806,0.096909,-0.920799
-0.331105,0.501414,0.132031,0.838427,0.486407,0.245863
-0.259241,0.490250,0.101272,-0.333080,0.507718,0.794531
-0.168439,0.394504,-0.075937,-0.208302,0.436628,0.875195
0.091550,0.374164,-0.148780,0.824441,0.133689,0.549932
-0.221744,0.138490,-0.507063,0.812614,-0.403909,0.420137
0.215965,0.293418,-0.305301,0.957679,0.244601,-0.151726
0.243679,0.259309,-0.368835,-0.285932,-0.955563,0.071715
0.397695,0.282860,-0.350978,-0.270106,-0.875482,0.400717
-0.176966,0.448804,-0.113883,0.255888,0.094366,0.962090
-0.139718,0.375087,-0.247538,-0.171049,0.568965,0.804376
-0.197413,0.302594,-0.364915,-0.610028,0.266399,-0.746256
0.165672,0.328900,-0.373844,0.549143,0.834197,-0.050571
0.250955,0.322627,-0.397363,0.274324,0.327518,0.904145
0.435066,0.218629,-0.604950,0.238613,-0.412353,-0.879220
-0.116516,0.490857,-0.249226,-0.752523,0.597207,-0.277583
0.030721,0.512270,-0.233274,0.828686,-0.156337,-0.537437
0.072988,0.441457,-0.364480,0.870943,-0.015624,0.491136
0.220102,0.464094,-0.347820,0.807506,-0.350786,-0.474219
0.058191,0.344647,-0.534611,0.822957,-0.484378,0.296848
0.125787,0.562286,-0.425346,0.039598,0.978063,0.204509
0.019813,0.471440,-0.572992,0.152674,-0.941971,-0.298967
0.146734,0.483828,-0.570216,0.105471,0.227093,-0.968145
-0.137338,0.578948,-0.593245,-0.256397,-0.931215,0.259037
-0.022955,0.585837,-0.598417,-0.157253,0.555769,0.816328
-0.139217,0.578192,-0.250369,-0.141113,-0.125950,0.981949
0.031100,0.604796,-0.219936,0.510457,0.859460,-0.027625
-0.103974,0.455068,-0.547514,-0.471146,0.833366,0.289002
0.250829,0.546837,-0.399431,0.873865,-0.274331,-0.401376
0.108483,0.460734,-0.574462,0.593706,0.122719,-0.795269
-0.326091,0.557087,0.305647,0.362499,-0.173930,0.915610
-0.233907,0.557385,0.288062,0.018787,-0.626777,0.778972
-0.085790,0.576662,0.304775,0.595697,0.362180,-0.716917
-0.274042,0.476173,0.109874,-0.079672,0.477219,0.875165
-0.203935,0.398331,-0.080946,0.964701,0.054557,0.257636
0.273904,0.468220,-0.011478,0.731137,-0.642269,0.230063
-0.165932,0.274301,-0.373081,0.313740,0.601856,-0.734395
0.209064,0.340363,-0.291473,-0.317902,-0.037135,0.947396
0.270142,0.327518,-0.333665,-0.042193,-0.030409,0.998647
0.360068,0.324615,-0.356912,-0.035553,-0.993410,0.108963
0.089166,0.189719,-0.615022,0.222889,0.280523,-0.933610
0.416006,0.238969,-0.563465,0.841158,-0.470738,-0.266192
-0.685158,0.263893,0.330908,-0.146135,-0.871497,0.468121
0.130054,0.487039,0.677213,0.885285,0.419391,-0.200955
-0.591596,0.195226,0.162029,0.548955,0.830023,0.098539
0.146107,0.425551,0.537297,0.991108,-0.121547,-0.054142
0.050662,0.357800,0.404459,-0.301734,0.868623,0.393002
0.002126,0.305040,0.296718,0.901385,0.410825,-0.136848
0.228503,0.352292,0.360198,0.649153,0.458221,0.607152
-0.316683,0.083275,-0.136858,0.013914,0.737396,0.675318
0.001123,0.165094,-0.013057,0.693284,0.659412,-0.290745
-0.107614,0.017512,-0.321089,0.869920,0.207102,-0.447601
0.094058,0.055588,-0.272963,0.894143,-0.118340,0.431860
-0.050926,-0.035715,-0.448919,-0.327575,-0.764127,0.555701
0.454004,0.118448,-0.200010,0.504481,0.862920,0.029445
0.136699,-0.036629,-0.485885,0.829331,0.406652,0.383203
-0.496282,0.268793,0.923509,0.931155,-0.357739,-0.070514
-0.381275,0.138331,0.622880,0.467227,-0.787063,0.402779
-0.199667,0.169836,0.658867,0.046448,0.091497,0.994721
-0.066476,0.184678,0.667032,0.804622,-0.584923,0.102218
-0.102347,0.136035,0.569364,0.645046,0.741670,0.183960
0.069979,0.165094,0.601648,0.310588,0.305149,0.900233
-0.266142,0.005424,0.318386,-0.060818,0.170079,0.983552
0.023070,0.076694,0.419213,-0.398564,0.103718,-0.911257
0.014543,0.037395,0.336461,0.513044,0.013406,0.858257
0.017428,0.003594,0.263400,-0.485540,-0.716492,0.500890
-0.033618,-0.050855,0.156258,0.769469,0.492942,0.406111
0.114626,-0.032046,0.170468,0.066443,-0.996834,-0.043674
0.136450,-0.058809,0.109166,0.044620,-0.450047,-0.891889
0.262495,-0.048251,0.109874,0.007118,-0.989660,-0.143256
0.291212,-0.073950,0.048790,0.030351,0.726689,0.686295
-0.284575,-0.044582,0.874946,-0.078819,-0.775258,0.626708
-0.022331,-0.052685,0.813972,0.116557,-0.886366,0.448073
0.090923,-0.045348,0.810215,0.858834,0.229138,0.458148
0.076501,-0.086944,0.726429,0.513686,0.849174,0.122599
0.199408,-0.077161,0.726048,-0.065002,0.760777,0.645751
0.158898,-0.129313,0.625384,-0.503769,0.566868,-0.651826
