0.150703,0.670913,0.660987,0.515609,0.749904,-0.414477
0.239607,0.663765,0.706471,-0.657568,-0.731105,0.181905
0.316848,0.690433,0.611230,0.122090,-0.990660,-0.060716
0.442800,0.688831,0.642114,-0.154416,0.975239,0.158318
-0.137735,0.662808,0.653249,0.249054,0.965229,-0.079406
-0.032476,0.666968,0.656412,0.061099,0.961648,0.267395
0.124301,0.673257,0.660516,0.486977,0.756846,-0.435933
0.210908,0.667287,0.703275,0.449701,0.835385,-0.316069
0.316422,0.670276,0.710374,0.183336,-0.800784,0.570204
0.318550,0.684885,0.648606,-0.549174,0.197627,0.812005
0.354319,0.690752,0.631079,0.120996,0.992484,-0.018302
-0.202115,0.658536,0.650692,-0.053542,0.926341,-0.372862
-0.170097,0.665366,0.627109,0.335163,0.559962,-0.757699
0.134777,0.652137,0.746876,0.366614,-0.896569,-0.248513
0.207758,0.663446,0.712762,0.469767,-0.880539,-0.063004
-0.251337,0.651394,0.685378,0.995985,-0.084762,-0.028782
-0.120957,0.662912,0.659944,0.185881,0.956051,0.226747
0.092537,0.643282,0.792629,-0.350678,0.524191,0.776047
0.116210,0.651602,0.759660,-0.193959,0.976457,0.094405
0.147805,0.672938,0.672493,0.529216,0.756726,-0.383792
0.211760,0.672190,0.689785,0.417645,0.898612,-0.134422
0.321105,0.674755,0.700449,-0.686968,0.683755,-0.246078
0.295303,0.694593,0.606285,-0.509036,0.860561,0.017815
-0.066966,0.695876,0.627950,-0.012867,0.864418,0.502608
0.137331,0.677952,0.752998,0.129072,-0.980431,0.148643
0.224534,0.685738,0.736716,-0.337850,0.235400,-0.911287
0.270095,0.689365,0.729583,0.410631,-0.414924,0.811924
-0.199817,0.683610,0.656950,0.213993,-0.234780,0.948201
-0.164389,0.689684,0.636462,0.816246,0.561315,-0.136632
-0.254318,0.710486,0.666975,0.451156,0.087671,0.888128
-0.203308,0.713474,0.665428,0.344384,0.186560,0.920106
0.118001,0.697366,0.807902,-0.698155,0.596397,-0.396094
0.177442,0.711449,0.756464,0.419295,-0.897023,-0.139791
-0.256021,0.755716,0.664822,0.113742,0.127993,0.985231
-0.203562,0.758171,0.664990,0.484409,0.055910,0.873053
-0.098220,0.775561,0.607260,-0.171743,-0.967971,0.183130
0.099520,0.747506,0.780551,0.968313,0.115763,-0.221291
0.191918,0.753477,0.773621,0.429036,0.368830,-0.824556
-0.247676,0.774812,0.669700,0.113742,0.127993,0.985231
-0.214207,0.781316,0.647362,0.417702,0.830874,0.367659
-0.222469,0.795933,0.576377,0.857040,-0.426698,0.288811
0.133670,0.761902,0.817827,0.128003,-0.648993,0.749949
0.180592,0.764675,0.815203,0.137710,0.987159,0.080954
0.176164,0.778543,0.748221,0.892210,0.397172,0.214978
0.112208,0.806279,0.758247,0.746607,-0.664363,0.034646
0.175228,0.805745,0.775337,-0.680153,-0.707563,0.191694
0.037438,0.844041,0.727296,-0.489137,-0.671923,0.556115
0.158281,0.832524,0.812747,0.579341,0.591576,-0.560716
0.183061,0.839991,0.781056,0.000899,0.649157,0.760654
0.037184,0.870390,0.833033,0.445945,0.779578,0.439763
0.047317,0.893002,0.724571,-0.489137,-0.671923,0.556115
0.180338,0.879349,0.822268,0.765888,-0.141297,-0.627257
0.253659,0.901857,0.729920,-0.479280,-0.699013,0.530728
0.826273,-0.391227,-0.951419,-0.395556,0.123589,0.910088
0.731064,-0.400609,-0.966659,-0.293330,-0.096689,0.951109
0.654080,-0.405733,-0.966154,-0.395243,0.113717,0.911511
0.568494,-0.412882,-0.971436,-0.299890,0.154282,0.941415
0.483166,-0.419920,-0.976482,-0.012152,0.134203,0.990879
0.397239,-0.427069,-0.983917,-0.132348,0.042335,0.990299
0.312589,-0.434107,-0.989502,-0.110590,0.257028,0.960056
0.784546,-0.315702,-0.960199,0.315798,-0.583411,-0.748267
0.701855,-0.322741,-0.965885,-0.079748,-0.054938,0.995300
0.618143,-0.329570,-0.970157,0.113782,0.066402,-0.991284
0.528981,-0.337246,-0.980082,-0.168477,0.066343,0.983470
0.445609,-0.343861,-0.983480,-0.215972,0.122796,0.968647
0.361471,-0.350262,-0.987416,-0.046662,-0.040048,0.998108
0.819802,-0.523500,-0.946204,-0.110041,0.353745,0.928846
0.751673,-0.527445,-0.941831,-0.208138,-0.456924,-0.864812
0.701088,-0.527875,-0.924875,0.786164,0.502552,0.359706
0.610224,-0.536190,-0.933992,0.990019,-0.081869,-0.114714
0.611586,-0.527127,-0.881140,-0.774342,-0.553984,-0.305772
0.535878,-0.532459,-0.879761,-0.034122,0.968505,0.246643
0.331069,-0.561901,-0.966961,-0.027253,0.431696,0.901607
0.844668,-0.555500,-0.939980,-0.170339,0.254395,0.951981
0.767427,-0.561581,-0.942066,-0.134611,0.095913,0.986246
0.721016,-0.561048,-0.920131,0.846988,0.228671,0.479918
0.672815,-0.560833,-0.899509,-0.506156,-0.726746,-0.464378
0.640880,-0.557845,-0.867750,0.926300,-0.069409,0.370338
0.599662,-0.557102,-0.844706,0.727761,-0.684685,-0.039622
0.582120,-0.551874,-0.805512,0.647222,-0.684659,0.335180
0.881032,-0.552297,-0.937457,-0.239874,0.319365,0.916770
0.802257,-0.558274,-0.938466,0.764287,0.319231,0.560318
0.732854,-0.562115,-0.932714,0.728574,-0.099419,0.677713
0.698960,-0.560084,-0.904387,0.743563,0.473387,0.472249
0.655613,-0.559446,-0.882654,-0.800063,-0.521704,-0.296184
0.611755,-0.558489,-0.858566,0.924948,0.198939,0.323876
0.585527,-0.554966,-0.825159,0.798801,0.400708,0.448721
0.941408,-0.669960,-0.927499,-0.393309,0.214488,0.894038
0.851139,-0.678176,-0.936683,-0.326160,0.253928,0.910571
0.763256,-0.685853,-0.943883,0.472395,0.147018,-0.869039
0.671113,-0.694707,-0.956768,-0.194841,-0.234967,0.952275
0.588848,-0.701322,-0.961848,-0.500452,-0.012256,0.865677
0.497982,-0.709005,-0.970595,0.185144,0.049215,-0.981478
0.417848,-0.715509,-0.974094,-0.081042,0.153015,0.984895
0.880777,-0.624515,-0.932175,0.224281,-0.198038,-0.954190
0.801662,-0.630915,-0.935741,-0.151876,-0.073074,0.985695
0.700153,-0.641267,-0.952495,0.511866,-0.040786,-0.858097
0.624019,-0.646703,-0.953572,0.597342,-0.368558,-0.712283
0.549164,-0.651931,-0.951419,0.688049,0.487770,-0.537279
0.457616,-0.659829,-0.960603,0.191429,-0.470895,0.861170
0.980243,-0.780259,-0.914210,-0.236058,0.671034,0.702844
0.885886,-0.789647,-0.928777,-0.215162,0.070794,0.974009
0.783182,-0.800312,-0.946574,-0.317224,0.121756,0.940502
0.695893,-0.807994,-0.953370,-0.112685,-0.015814,0.993505
0.602474,-0.816315,-0.964169,0.453624,0.090182,-0.886618
0.521403,-0.822716,-0.968374,-0.189482,0.203754,0.960511
0.446888,-0.828263,-0.968004,-0.000389,0.401097,0.916036
0.132308,-0.687558,0.019766,-0.778296,0.625393,0.056030
0.053619,-0.593901,-0.062456,0.900436,-0.340671,0.270478
-0.007270,-0.589740,-0.007653,0.863480,0.308883,0.398739
0.046381,-0.550910,0.206581,0.373430,-0.913941,-0.158939
-0.228345,-0.582917,0.133510,-0.071151,-0.538791,0.839429
-0.125898,-0.558274,0.238339,-0.040079,-0.731180,0.681006
0.261495,-0.478804,0.555384,0.583140,-0.809899,0.063335
-0.218976,-0.570117,-0.107772,-0.186982,0.976637,0.105917
0.114934,-0.490113,0.234740,0.759435,-0.563321,-0.325464
-0.057428,-0.512087,0.175159,0.685924,-0.711210,0.153911
0.100882,-0.478165,0.313799,-0.478607,0.742364,0.468861
0.009251,-0.486272,0.304009,-0.324417,0.925465,-0.195622
0.488701,-0.620035,-0.728808,0.835196,0.264801,0.482004
0.452847,-0.618114,-0.702567,-0.753465,-0.234800,-0.614133
0.410184,-0.617581,-0.679488,0.872523,0.339273,0.351564
0.384806,-0.613531,-0.644601,0.904354,0.012051,0.426612
0.361471,-0.609475,-0.608436,0.992236,0.050037,0.113861
0.320169,-0.609156,-0.586569,0.860190,0.453224,0.233798
0.555126,-0.551978,-0.792526,-0.574193,0.484370,-0.660066
0.534176,-0.547394,-0.753737,0.835495,0.414501,0.360745
0.478906,-0.548567,-0.738564,-0.722529,-0.603571,-0.337125
0.446376,-0.546431,-0.710507,0.693304,0.451823,0.561414
0.413334,-0.544087,-0.682718,0.848484,-0.152999,0.506623
0.364025,-0.544725,-0.663744,0.913480,0.246613,0.323628
0.339414,-0.541209,-0.630472,0.979099,0.163430,-0.121059
0.327748,-0.534699,-0.586838,0.831798,0.468428,0.297805
0.317784,-0.528298,-0.542161,0.762356,-0.519041,0.386535
0.325619,-0.518806,-0.486214,-0.408556,0.909025,0.082189
0.317017,-0.512087,-0.443353,0.899236,-0.037170,0.435882
0.284487,-0.501845,-0.366481,0.756827,0.594523,-0.271578
0.284061,-0.494273,-0.319045,-0.190419,-0.967700,0.165220
-0.297579,-0.393356,0.552760,-0.590824,0.654942,-0.471145
0.102842,-0.409255,0.239382,0.948023,0.193258,0.252791
-0.140631,-0.384502,0.489311,-0.566073,0.823367,-0.040356
0.539881,-0.550591,-0.781256,0.948774,0.130821,0.287600
0.517400,-0.545897,-0.745663,-0.747373,-0.595709,-0.294219
0.475502,-0.545044,-0.721609,0.792324,0.446044,0.416253
0.433262,-0.544191,-0.697756,0.919641,-0.066770,0.387043
0.396984,-0.542271,-0.670136,0.913788,0.321327,0.248477
0.366240,-0.539289,-0.640833,0.970294,0.197401,0.139866
0.328429,-0.537687,-0.616544,0.753563,-0.057839,0.654826
0.291556,-0.535981,-0.589529,0.784837,0.477938,0.394471
0.345035,-0.517953,-0.505188,0.843425,0.535903,0.037966
0.337286,-0.511019,-0.459636,0.811922,0.521670,0.261997
0.326045,-0.504300,-0.416675,0.998061,-0.059612,0.017903
0.325791,-0.487658,-0.318473,-0.020888,0.992150,-0.123297
0.455742,-0.511553,-0.726150,-0.644582,-0.694530,-0.319596
0.431133,-0.507282,-0.690422,0.960055,0.063588,0.272490
0.398515,-0.504508,-0.662297,0.967653,0.007883,0.252163
0.374075,-0.499924,-0.626300,0.989920,-0.110373,-0.088743
0.343419,-0.496832,-0.594979,0.289868,0.414225,0.862783
0.288063,-0.498434,-0.580345,0.890210,0.386166,0.241665
0.319657,-0.484240,-0.510436,0.849774,0.523936,0.058105
0.322979,-0.475066,-0.459569,0.932494,0.335002,0.135015
0.305351,-0.469845,-0.421217,0.942853,-0.014286,0.332902
0.323234,-0.458106,-0.361704,0.968507,0.067635,-0.239624
0.283720,-0.456934,-0.337750,0.656450,0.541716,0.524993
0.276992,-0.441041,-0.243619,-0.570486,0.815170,0.100219
0.233222,-0.441145,-0.224679,-0.078125,0.996854,-0.013351
0.175397,-0.443281,-0.214923,-0.200455,-0.978548,0.047564
0.158707,-0.437838,-0.177008,0.968487,-0.230517,0.094315
0.157600,-0.430161,-0.131591,0.877237,0.338581,0.340320
0.084275,-0.418748,-0.034600,-0.762502,-0.179806,-0.621499
0.311141,-0.316874,0.462464,0.998577,0.034938,0.040299
-0.293748,-0.347488,0.537183,-0.484923,0.446110,-0.752221
0.261154,-0.349194,-0.457483,0.928591,0.368245,-0.045988
0.258514,-0.341407,-0.409240,0.993473,0.013385,0.113282
0.162283,-0.247860,0.188381,0.934274,0.192238,-0.300294
0.132817,-0.245829,0.214285,0.473249,0.880733,0.018576
0.253574,-0.210521,0.376138,-0.752511,0.464174,0.467193
0.154279,-0.205084,0.448435,0.457607,0.888925,0.020187
-0.001565,-0.224285,0.400630,0.317071,0.823690,0.470108
-0.093282,-0.232814,0.389360,0.707458,-0.557952,0.433812
0.741966,-0.126994,0.199382,0.891606,0.316012,-0.324309
0.071502,-0.244553,-0.223367,0.067056,0.918916,0.388712
-0.060240,-0.259378,-0.257716,-0.135770,-0.987792,-0.076379
-0.121724,-0.246577,-0.153795,0.216793,0.966025,-0.140700
-0.092175,-0.234096,-0.089975,0.529490,0.452510,0.717548
0.038546,-0.203483,0.037428,0.623492,-0.383841,0.681119
0.012827,-0.200709,0.066293,0.741314,-0.661375,0.114177
0.208951,-0.152067,0.277768,0.526510,0.845209,0.091704
0.332774,-0.108972,0.482717,0.968665,-0.202266,-0.144144
0.353380,-0.098412,0.538899,0.553145,0.819118,0.151911
0.105482,-0.118465,0.521674,-0.489687,-0.573497,-0.656740
0.139972,-0.306418,-0.147907,0.886982,0.377390,-0.266156
0.261409,-0.131689,-0.176469,0.874961,-0.454353,0.167351
0.253319,-0.117612,-0.087351,0.865598,-0.465580,0.184324
-0.151190,-0.149183,-0.105619,-0.309202,-0.921535,0.234878
-0.199817,-0.142679,-0.042573,-0.250869,-0.949734,-0.187268
-0.084170,-0.129449,-0.454119,-0.087362,0.899939,-0.427175
0.284573,0.272702,0.286112,0.160869,0.813415,-0.558997
0.135031,0.440927,0.501825,-0.696886,0.598265,0.395512
0.031734,0.466847,0.736917,0.842032,-0.480538,-0.245084
0.302796,0.679768,0.589800,-0.011697,-0.862540,0.505853
0.615076,-0.938665,-0.959022,0.395260,-0.103206,-0.912753
0.453104,-0.720307,-0.973993,0.026587,0.194928,0.980457
0.587910,-0.712521,-0.961377,-0.273531,-0.056792,0.960185
0.726892,-0.704310,-0.946171,0.173148,0.386825,-0.905752
0.850373,-0.696732,-0.938265,-0.242638,0.286116,0.926965
0.483080,-0.768415,-0.972075,0.003675,0.078609,0.996899
0.602388,-0.761163,-0.964876,-0.228210,0.042335,0.972691
0.463918,-0.811302,-0.968408,0.240313,0.153759,0.958440
0.585441,-0.803834,-0.962050,-0.458555,0.004762,0.888653
0.720164,-0.796581,-0.947012,0.430894,0.358103,-0.828307
0.568411,-0.872425,-0.966221,0.046488,-0.084691,0.995322
0.408310,-0.608622,-0.961949,0.274984,-0.118246,-0.954150
0.558190,-0.600620,-0.942133,-0.712042,-0.038533,0.701079
0.787696,-0.585476,-0.931166,0.067873,0.123181,0.990060
0.386849,-0.664627,-0.976078,0.498892,0.344899,0.795079
0.505477,-0.657264,-0.969417,-0.233655,-0.067022,0.970007
0.649909,-0.648839,-0.951923,-0.586132,-0.296227,0.754121
0.777137,-0.641267,-0.940687,0.304319,-0.178935,-0.935613
0.907771,-0.633688,-0.929518,-0.125822,0.389021,0.912596
0.562875,-0.508883,-0.828894,-0.108191,0.993891,-0.021816
0.622059,-0.502483,-0.849819,0.206418,0.943350,0.259772
0.615333,-0.496513,-0.904286,-0.116516,0.980005,0.161287
0.649225,-0.490536,-0.937693,0.274566,-0.904679,-0.325836
0.748692,-0.483068,-0.942133,0.134385,0.450645,0.882531
0.587146,-0.559342,-0.813284,-0.747438,0.508605,-0.427384
0.600429,-0.553684,-0.856278,-0.691532,0.327414,-0.643882
0.636452,-0.547499,-0.890661,-0.685894,-0.700220,-0.198094
0.752697,-0.533741,-0.938130,0.221626,0.373022,0.900964
0.344695,-0.427492,-0.974060,0.469265,-0.535578,-0.702101
0.451740,-0.420024,-0.972882,0.057463,-0.049064,0.997141
0.820483,-0.395811,-0.951318,-0.360228,0.100786,0.927404
0.563897,-0.431549,-0.975507,-0.168865,-0.131394,0.976842
0.727573,-0.423228,-0.946742,0.534929,-0.335937,-0.775240
0.820824,-0.416079,-0.951452,-0.419559,0.080903,0.904116
0.593872,-0.401358,-0.974262,-0.054887,0.273183,0.960395
0.743754,-0.392933,-0.951991,-0.371519,0.455621,0.808939
0.554445,-0.413305,-0.980317,0.283877,-0.103190,-0.953292
0.695724,-0.404881,-0.964371,0.386717,-0.210301,0.897900
0.830873,-0.396878,-0.948996,0.609523,0.097053,-0.786806
0.702790,-0.387705,-0.961108,-0.034408,-0.115947,0.992659
0.420743,-0.436132,-0.959930,-0.451142,0.788534,-0.417953
0.512886,-0.428560,-0.968374,-0.326631,0.006902,0.945127
0.758315,-0.412238,-0.952024,0.340460,0.104789,0.934402
0.347164,-0.441145,-0.961444,-0.195426,0.593773,0.780540
0.528386,-0.426105,-0.976751,-0.257919,-0.079517,0.962889
0.796979,-0.409145,-0.950813,0.269245,-0.081407,-0.959625
0.675968,-0.362528,-0.962992,-0.012930,0.304053,0.952568
0.837771,-0.352716,-0.936885,0.813715,0.149201,-0.561789
0.361216,-0.366265,-0.974867,-0.211954,0.222518,0.951610
0.470135,-0.358048,-0.974800,0.200237,0.134367,0.970490
0.678010,-0.359435,-0.959627,0.028439,0.292269,0.955913
0.577182,-0.306418,-0.981327,-0.272100,0.089696,0.958079
0.434964,-0.350476,-0.975069,-0.129199,0.101887,0.986370
0.349292,-0.502913,-0.476626,0.998588,0.051735,0.012043
0.339159,-0.497574,-0.530857,0.962547,-0.265331,0.055700
0.296068,-0.492561,-0.598377,0.206615,0.718715,0.663897
0.343588,-0.486272,-0.626468,0.951284,-0.304096,-0.050834
0.385401,-0.479871,-0.657352,0.977509,-0.176178,0.115922
0.422617,-0.473575,-0.690355,0.882377,0.072777,0.464881
0.359428,-0.545578,-0.624954,-0.002285,0.036665,0.999325
0.403029,-0.539178,-0.655031,0.949144,0.146611,0.278624
0.424574,-0.533416,-0.693248,0.932709,-0.218711,0.286739
0.472180,-0.527127,-0.721339,-0.662363,-0.650204,-0.372169
0.504370,-0.520830,-0.757067,0.422593,0.859518,0.287478
0.542181,-0.514645,-0.789667,-0.455761,0.436013,-0.775999
0.332348,-0.473790,-0.449544,0.978352,0.115653,0.171613
0.325448,-0.469200,-0.500209,0.906311,0.395827,0.148062
0.279206,-0.464831,-0.570723,0.967796,-0.240359,-0.074820
0.316762,-0.459069,-0.601607,-0.646415,0.439318,-0.623817
0.365390,-0.452884,-0.629160,-0.674042,0.735218,-0.071573
0.382506,-0.447441,-0.671414,0.909365,-0.283233,0.304687
0.320169,-0.487014,-0.444935,0.808107,0.557675,0.189635
0.348783,-0.476245,-0.528670,0.995978,0.087647,0.018577
0.274437,-0.472293,-0.612406,0.423231,0.499845,-0.755665
0.372796,-0.464721,-0.617452,0.879838,-0.421699,0.219215
0.394939,-0.459174,-0.655232,0.970123,-0.176979,0.165952
0.417591,-0.453626,-0.692945,0.768448,-0.137318,0.625005
0.424745,-0.597528,0.614056,0.537767,0.730092,-0.421630
0.347421,-0.482215,-0.476996,0.970739,0.237420,-0.036024
0.326300,-0.477521,-0.534154,0.997235,-0.049740,0.055205
0.287980,-0.472618,-0.599252,0.873246,-0.483519,-0.060417
0.372628,-0.465359,-0.610253,0.809127,-0.382226,0.446336
0.414186,-0.453626,-0.689850,0.808665,0.027974,0.587604
0.331921,-0.489260,-0.457147,0.954090,0.298623,0.023148
0.322384,-0.484670,-0.510739,0.849774,0.523936,0.058105
0.283380,-0.481363,-0.578326,0.994767,-0.100699,0.017299
0.322979,-0.475711,-0.608032,0.412378,-0.558547,0.719701
0.368285,-0.469949,-0.635215,0.870240,-0.394887,0.294529
0.392979,-0.464617,-0.673837,0.879075,0.111371,0.463490
0.315910,-0.484885,-0.527425,0.891812,-0.376803,0.250381
0.276397,-0.481363,-0.593364,0.993230,-0.023035,0.113855
0.404989,-0.463653,-0.682314,0.807952,0.053419,0.586822
0.326898,-0.421092,-0.578124,-0.104591,0.847554,0.520301
0.371775,-0.415226,-0.607898,-0.274089,0.958263,-0.081283
0.324341,-0.449466,-0.366649,0.988044,-0.123124,-0.092791
0.326812,-0.445201,-0.414421,0.907944,0.411553,0.079133
0.328002,-0.440826,-0.463068,0.908789,0.343303,0.237161
0.297006,-0.436985,-0.526416,0.871542,0.437920,0.220548
0.294280,-0.432935,-0.575500,0.877023,-0.480410,0.005991
0.383018,-0.425891,-0.581993,0.858445,0.495679,0.131817
0.387787,-0.421307,-0.629597,0.934732,-0.260024,0.242205
0.320424,-0.467071,-0.398307,0.990818,0.001674,0.135189
0.335752,-0.462377,-0.438442,0.948790,-0.093385,0.301788
0.300582,-0.458640,-0.503607,0.926612,0.375053,-0.026922
0.304329,-0.454271,-0.549596,0.958670,0.211363,-0.190468
0.315655,-0.449362,-0.594273,0.883695,-0.202562,0.421962
0.369987,-0.443177,-0.619168,0.833542,-0.413216,0.366688
-0.117212,-0.487014,0.109288,0.432650,0.624359,0.650376
0.337543,-0.420877,-0.297077,-0.368437,-0.928636,0.043474
0.306032,-0.418533,-0.359719,0.869209,0.432458,0.239700
0.313441,-0.414588,-0.403386,0.970840,0.208803,-0.117778
0.300922,-0.411385,-0.458022,0.889344,0.395686,0.229126
0.281847,-0.407869,-0.515853,0.692810,0.676198,0.250540
0.325874,-0.402322,-0.545491,0.843652,0.534950,0.045602
-0.178868,-0.514431,0.146597,0.987880,-0.107104,0.112350
0.323150,-0.437415,-0.333915,-0.647318,-0.762113,-0.012733
0.312420,-0.433892,-0.387474,0.890886,0.453787,-0.019982
0.319572,-0.429732,-0.433194,0.983674,0.175547,0.039598
0.288404,-0.426639,-0.494591,0.951612,0.112190,-0.286091
0.327748,-0.421307,-0.524263,0.872892,0.367950,0.320424
0.360109,-0.412238,-0.606989,0.096693,-0.980184,0.172885
0.329536,-0.441464,-0.336741,0.388588,0.914893,0.109405
0.325533,-0.437733,-0.385321,0.980077,0.196521,-0.028781
0.323319,-0.433892,-0.433395,0.994998,0.094722,0.031723
0.322212,-0.429843,-0.483051,0.935025,0.326281,-0.138812
0.335071,-0.424829,-0.524633,0.891143,0.349118,0.289795
0.322298,-0.380986,-0.214620,-0.514685,0.839277,-0.175256
0.296920,-0.378746,-0.274066,0.805607,0.544103,0.234413
0.274609,-0.376396,-0.330618,0.737462,0.675352,-0.007107
0.294792,-0.372131,-0.370114,0.966953,0.232194,0.105299
0.213806,-0.368186,-0.504784,0.287212,0.929595,-0.231003
0.326472,-0.359865,-0.501084,0.877365,0.446596,-0.175450
-0.032053,-0.483498,0.340006,0.174783,-0.969902,0.169530
0.093049,-0.474643,0.348652,-0.380285,0.834736,0.398245
-0.048657,-0.477313,0.243722,-0.310206,0.949655,0.043915
0.055579,-0.465893,0.196152,-0.578803,0.796743,0.173749
0.224193,-0.421092,-0.236454,0.118093,0.977460,0.175004
0.289427,-0.411280,-0.303671,-0.711495,-0.697484,0.085387
0.297346,-0.407439,-0.348987,0.822499,0.529820,0.206851
0.285423,-0.404450,-0.401200,0.882521,0.390469,-0.262090
0.274354,-0.401462,-0.453312,0.908409,0.377381,0.179934
0.270606,-0.397517,-0.504246,0.823371,0.522970,-0.220369
0.323660,-0.391865,-0.527695,0.879798,0.457358,0.129534
0.175738,-0.275166,0.206615,-0.709745,0.687712,-0.152690
0.179059,-0.268336,0.117597,0.702655,-0.566140,0.431001
0.213975,-0.263538,0.087959,-0.663421,-0.747788,-0.026194
0.212187,-0.256285,-0.006273,0.887391,0.441443,-0.132909
0.264304,-0.230040,-0.311913,-0.410730,0.901183,-0.138455
0.290194,-0.225346,-0.348987,0.432549,-0.866663,0.248591
0.182552,-0.226628,-0.444396,0.246681,0.964861,-0.090505
0.227941,-0.334369,-0.130380,0.473549,0.874733,-0.102929
0.266945,-0.329251,-0.160860,0.724286,0.676163,-0.134961
0.227686,-0.311112,-0.463371,0.505285,0.775496,-0.378540
0.295984,-0.304178,-0.481470,-0.251884,-0.910228,0.328692
0.051831,-0.043044,0.535703,0.923723,0.046799,-0.380190
0.094580,-0.037712,0.510505,-0.070762,0.996853,0.035735
0.275035,0.014986,0.048765,0.663371,-0.732869,0.151135
0.267285,0.018502,-0.001429,0.478674,0.838877,-0.259144
-0.170861,-0.147054,0.461724,0.578878,-0.417695,-0.700307
0.094751,-0.124865,0.438376,0.391150,0.856898,-0.335748
0.122429,-0.119637,0.404902,-0.282613,-0.935989,-0.209892
0.247955,-0.067369,-0.132062,0.998191,0.029621,-0.052321
0.155214,-0.210098,0.350503,0.527131,-0.836944,0.147165
0.153598,-0.200065,0.214252,0.865935,-0.379249,0.326077
0.248719,-0.161241,-0.203686,-0.487600,0.852653,-0.187694
0.262176,-0.157080,-0.245840,0.994909,-0.099458,-0.016245
0.266433,-0.153454,-0.289810,0.770402,-0.637498,0.008787
0.242079,0.094561,0.142728,-0.087727,-0.961655,0.259852
-0.197686,0.173497,0.830039,-0.659266,0.430058,-0.616781
0.141929,0.303322,0.556696,0.897491,0.098931,-0.429793
0.134010,0.457569,0.497789,-0.542824,0.837599,-0.061399
-0.236862,0.369458,0.611768,0.867965,0.337059,0.364729
-0.141480,0.372766,0.634309,0.571655,0.057939,0.818446
-0.187299,0.370845,0.573416,0.696705,0.637915,0.328125
-0.183806,0.352602,0.584585,0.753586,0.593079,0.283488
-0.217102,0.369029,0.566183,0.873746,0.443952,0.198680
-0.106908,0.513568,0.585897,-0.214498,-0.925912,-0.310930
0.311141,-0.430800,-0.983547,0.060724,0.159791,0.985281
0.303563,-0.552512,-0.973824,-0.054058,0.254394,0.965589
0.397665,-0.357306,-0.978063,-0.061331,0.087641,0.994262
0.391191,-0.463549,-0.975776,0.177499,0.480358,0.858924
0.384975,-0.565423,-0.976886,-0.118618,0.263228,0.957413
0.378844,-0.666652,-0.976078,0.498892,0.344899,0.795079
0.537326,-0.516247,-0.965851,0.318203,-0.234175,-0.918645
0.529576,-0.640199,-0.954783,-0.551738,-0.362689,0.751028
0.525745,-0.711030,-0.967870,0.049927,0.108652,-0.992825
0.519784,-0.810872,-0.969451,-0.031373,0.097515,0.994739
0.513055,-0.919147,-0.965044,-0.163572,0.093752,0.982067
0.473030,-0.372984,-0.978804,-0.303247,-0.001803,-0.952910
0.466559,-0.479871,-0.975843,0.137924,-0.143381,-0.980010
0.460342,-0.586329,-0.972782,0.316838,0.105627,-0.942580
0.453954,-0.691080,-0.972546,0.161804,0.120098,-0.979488
0.447655,-0.794231,-0.970393,-0.257750,0.038084,0.965461
0.593191,-0.949760,-0.960401,0.215341,-0.462203,-0.860231
0.529748,-0.573418,-0.847262,-0.091304,0.847627,-0.522677
0.544140,-0.405623,-0.968610,-0.117396,-0.215782,0.969359
0.613800,-0.551978,-0.863915,0.854157,-0.183714,0.486482
0.615843,-0.547075,-0.912663,0.957916,-0.286589,0.016261
0.616524,-0.558808,-0.954043,0.844263,0.319979,-0.429922
0.610991,-0.653533,-0.958114,-0.677502,0.731929,0.072601
0.605369,-0.747620,-0.960569,-0.250874,-0.004422,0.968010
0.599408,-0.846180,-0.960670,-0.001575,0.046766,0.998905
0.724678,-0.248713,-0.963564,-0.133928,0.244614,0.960327
0.718802,-0.348452,-0.965784,0.066281,-0.112279,-0.991464
0.707645,-0.514964,-0.935943,0.576652,0.751113,0.321408
0.702367,-0.606597,-0.941427,-0.283516,-0.422986,0.860640
0.697767,-0.689479,-0.950679,0.465622,0.524380,-0.712897
0.685589,-0.896105,-0.948727,-0.352331,0.270114,0.896048
0.804729,-0.374586,-0.952933,0.323144,-0.283073,-0.903021
0.797234,-0.494482,-0.945834,0.029145,0.106768,0.993857
0.790165,-0.607984,-0.939745,-0.545851,0.358119,-0.757494
0.783525,-0.717430,-0.937053,0.617510,0.000825,-0.786562
0.778158,-0.814291,-0.939879,0.402960,0.205253,-0.891905
0.970960,-0.742926,-0.914883,-0.142041,0.359172,0.922399
0.882565,-0.525102,-0.940149,-0.271672,0.101275,0.957046
0.875582,-0.643292,-0.934059,-0.277507,0.206537,0.938260
0.868427,-0.757328,-0.927398,-0.002089,0.251665,0.967812
-0.668110,0.030241,0.527494,0.343898,-0.178125,0.921957
-0.593169,-0.249247,0.534795,0.533024,-0.406200,0.742218
-0.527426,-0.139905,0.509496,0.963492,-0.009004,0.267584
-0.461937,0.263854,0.720904,0.615307,0.754132,0.229524
-0.455892,0.326572,0.365843,0.919181,0.113192,0.377220
-0.436304,0.212757,0.391311,0.917127,0.180128,0.355572
-0.467558,-0.285831,0.505997,0.779937,-0.307304,0.545218
-0.375841,0.305243,0.675083,0.929954,0.224188,-0.291419
-0.390574,0.060959,0.653989,0.886736,0.352545,-0.299018
-0.305160,0.501731,0.732544,-0.011182,-0.898047,0.439758
-0.306181,0.477303,0.667379,0.502404,-0.861895,0.068752
-0.331814,0.048692,0.604602,0.671017,0.518376,-0.530116
-0.335390,-0.010621,0.588824,-0.395713,0.591808,-0.702264
-0.345949,-0.202096,0.437232,0.469287,-0.163077,0.867857
-0.259001,0.545464,0.681341,-0.599234,0.076707,-0.796891
-0.265049,0.438473,0.609716,0.983920,-0.178507,0.006138
-0.273225,0.301720,0.622130,-0.667821,0.626263,-0.402256
-0.286168,0.047201,0.306566,0.890775,0.434504,0.133142
-0.281996,0.092002,0.094216,-0.069228,0.939572,-0.335280
-0.250402,0.689684,0.702401,-0.514155,-0.519050,-0.682811
-0.205010,0.604666,0.685680,0.188623,0.265081,0.945597
-0.216081,0.418953,0.643998,-0.650564,0.517456,-0.555883
-0.210545,0.497785,0.579404,0.118615,-0.786655,0.605892
-0.221531,0.320602,0.606453,-0.817370,0.186944,-0.544938
-0.227833,0.217445,0.606688,0.448511,0.087468,0.889487
-0.229707,0.183315,0.581659,0.075752,0.990712,0.112922
-0.241373,-0.003361,0.614493,0.202765,-0.153085,0.967187
-0.244185,-0.051046,0.596158,-0.222244,0.923857,-0.311603
-0.257554,-0.278155,0.531397,0.512874,-0.856184,0.062525
-0.250316,-0.173507,0.453717,0.276039,-0.055725,-0.959530
-0.178782,0.183849,0.951925,-0.286911,0.836307,-0.467196
-0.186618,0.013489,0.653518,-0.426363,0.653338,0.625591
-0.208843,-0.339382,0.746438,-0.132308,0.778116,0.614028
-0.197517,-0.182147,0.504382,0.614956,-0.766721,0.184303
-0.201688,-0.261403,0.457889,0.865340,0.295100,-0.405097
-0.203903,-0.299165,0.433666,-0.674885,-0.478253,-0.561964
-0.188489,-0.067473,0.269997,0.513224,-0.447157,-0.732565
-0.128964,0.119842,0.824623,-0.139001,-0.971676,0.191114
-0.129814,0.100642,0.794951,0.352852,0.921499,-0.162282
-0.104694,0.469405,0.514475,-0.594659,0.568539,-0.568458
-0.139950,-0.086992,0.681542,0.317058,0.438362,0.841019
-0.123938,0.152695,0.518983,0.810452,0.236751,0.535833
-0.128026,0.082613,0.507074,0.811747,0.226562,0.538272
-0.140545,-0.118250,0.544282,-0.613440,0.490102,-0.619266
-0.138926,-0.108439,0.467342,0.354501,0.934868,-0.018740
-0.149316,-0.291378,0.384279,-0.512193,0.039132,-0.857978
-0.066883,-0.100860,0.156152,0.876994,0.375832,0.299386
-0.071735,-0.226095,-0.073457,0.023440,-0.509282,0.860280
-0.058792,0.159421,0.810762,-0.275475,0.818040,-0.504900
-0.064328,0.069279,0.806725,-0.188772,0.974825,0.118665
-0.055557,0.186623,0.691803,0.072845,0.442415,0.893847
-0.068756,-0.029496,0.696480,-0.688691,-0.195602,-0.698172
-0.070287,-0.059582,0.671752,-0.668986,0.485958,-0.562408
-0.049255,0.247636,0.447628,-0.621852,0.173303,-0.763718
-0.063647,0.018294,0.495265,-0.053377,-0.446499,0.893191
-0.073609,-0.141292,0.517233,0.826282,0.218718,0.519057
-0.072842,-0.147158,0.444398,0.511451,0.844341,-0.159707
-0.073609,-0.165401,0.413817,0.381141,0.706327,-0.596518
-0.103586,-0.652999,0.448570,-0.243365,0.945669,0.215599
0.003544,0.016373,0.880772,0.929053,-0.057383,-0.365468
0.012401,0.133176,0.768339,-0.313088,0.918575,0.241241
0.011294,0.108748,0.740215,-0.590887,-0.445244,0.672763
0.008313,0.055626,0.724100,-0.034387,-0.485715,0.873440
0.010272,0.077919,0.678750,-0.715937,0.692565,-0.088250
0.010018,0.035462,0.508890,-0.153710,0.710341,0.686869
-0.011272,-0.297140,0.597369,-0.963801,0.175197,-0.200983
0.011892,0.044102,0.430571,0.814826,0.328042,0.477962
0.002863,-0.116434,0.376979,-0.046680,-0.972150,0.229665
-0.004970,-0.243589,0.388552,0.158424,-0.878989,0.449756
0.001842,-0.206575,0.061280,0.818563,-0.491117,0.297924
0.113827,0.807880,0.771199,0.845134,-0.532415,-0.047783
0.099435,0.579919,0.816616,-0.677723,-0.118082,-0.725774
0.072695,0.157604,0.895642,-0.454314,-0.393006,-0.799466
0.064776,0.029811,0.905163,-0.293157,0.782014,0.550011
0.088621,0.320491,0.506266,0.626728,-0.379069,-0.680822
0.081806,0.207952,0.510034,-0.499100,-0.085217,0.862344
0.070652,0.030983,0.539471,0.998202,-0.014850,-0.058064
0.065285,-0.062245,0.537957,0.854969,0.324220,-0.404857
0.060688,-0.141507,0.529446,-0.466058,0.073376,-0.881706
0.067754,-0.042940,0.455466,0.846493,-0.532185,0.015115
0.065966,-0.078248,0.430235,-0.816786,-0.540622,0.201466
0.061624,-0.153343,0.420210,-0.030811,-0.397331,0.917158
0.064604,-0.115581,0.367156,-0.271130,-0.870564,-0.410617
0.196858,0.929593,0.785160,-0.269006,-0.867167,0.419114
0.188256,0.791454,0.797205,0.574774,0.789094,0.216716
0.186299,0.751452,0.774630,-0.181982,-0.559881,0.808341
0.181104,0.664618,0.770291,0.013391,-0.985510,0.169089
0.170969,0.493091,0.759458,0.050656,-0.692282,0.719847
0.166797,0.415750,0.751888,0.001281,0.268206,0.963361
0.166117,0.396016,0.722014,-0.621173,-0.189222,-0.760486
0.153340,0.195152,0.757271,0.069975,0.995743,0.059994
0.163731,0.330413,0.635083,0.894916,0.132589,-0.426082
0.164071,0.325504,0.600835,0.987018,0.030571,-0.157676
0.169266,0.392285,0.538496,0.890415,-0.324159,-0.319502
0.168500,0.370949,0.509832,0.950405,-0.181099,-0.252852
0.163731,0.289024,0.502095,-0.021918,0.969150,0.245494
0.169521,0.364979,0.435382,-0.092519,0.984192,-0.151019
0.165605,0.292436,0.423977,-0.357515,-0.897525,-0.258133
0.143293,-0.059263,0.482851,-0.472920,0.686129,0.552787
0.147550,-0.005927,0.424213,0.887098,-0.330733,-0.321984
0.137586,-0.164333,0.447561,-0.357212,-0.779527,0.514525
0.147550,-0.048806,0.286112,0.536074,-0.702849,0.467577
0.143207,-0.122730,0.276725,-0.339883,0.529368,-0.777335
0.149679,-0.042302,0.207523,0.306538,-0.181619,-0.934371
0.137927,-0.227267,0.239988,-0.752984,-0.520744,-0.402296
0.133074,-0.419490,-0.123517,0.940385,0.137433,0.311109
0.251617,0.571813,0.705092,0.635384,0.748259,-0.190776
0.229048,0.227582,0.791687,0.660379,0.735167,-0.153066
0.221470,0.081865,0.735202,0.023229,0.998912,0.040430
0.235265,0.238038,0.530287,0.901485,0.070585,0.427017
0.250850,0.438902,0.380007,-0.399244,-0.466010,-0.789582
0.245995,0.354203,0.373009,-0.653649,-0.544543,-0.525563
0.247102,0.359106,0.332268,0.613463,0.503109,-0.608724
0.240374,0.238247,0.302966,-0.440023,0.759843,-0.478558
0.213039,-0.214147,0.321469,0.073906,0.263266,0.961888
0.223003,-0.169985,-0.011824,-0.025709,0.172777,0.984625
0.212358,-0.337780,0.016132,0.945952,-0.036946,0.322194
0.217891,-0.281566,-0.087351,-0.485132,-0.734889,0.473903
0.214913,-0.387386,-0.250180,-0.175875,-0.979882,-0.094339
0.218063,-0.358797,-0.302964,0.919576,0.332243,0.209749
0.326898,0.393887,0.351613,0.028841,0.392068,0.919484
0.285935,-0.235268,0.475551,-0.014070,-0.214602,0.976600
0.284147,-0.274313,0.453414,0.705238,0.680936,-0.197396
0.312589,0.102458,0.231712,0.847203,0.530185,-0.033931
0.291130,-0.522003,-0.412604,0.967983,0.250297,0.019000
0.292832,-0.533207,-0.495297,-0.692331,-0.528822,-0.490943
0.293939,-0.532140,-0.538023,-0.671707,0.738927,-0.052889
0.306117,0.255852,0.845784,-0.533916,0.818014,-0.213976
0.327579,0.474848,0.509866,0.016233,0.849781,0.526886
0.405670,0.592934,0.757843,0.380512,0.773295,-0.507174
0.414015,0.681370,0.651735,-0.048004,0.974498,0.219200
0.418784,0.734810,0.596461,0.870395,-0.109605,-0.479999
0.369561,-0.070676,0.632626,0.697035,0.562317,-0.444906
0.375011,-0.006564,0.572339,0.924265,0.380659,-0.028856
0.373480,-0.044646,0.548723,-0.564873,-0.803058,0.189780
0.370499,-0.100118,0.532911,0.597919,0.400198,0.694503
0.376204,-0.034405,0.469664,-0.440738,-0.256846,-0.860105
0.355254,-0.346101,0.549766,0.021050,0.305322,0.952016
0.380973,-0.016272,0.347946,-0.708039,0.619294,0.339345
0.375354,-0.559446,-0.619740,0.970474,-0.029499,-0.239396
0.374161,-0.593686,-0.649446,0.889709,0.242263,0.386945
0.441778,-0.117182,0.534492,0.742179,0.380647,0.551613
0.454212,0.040157,0.438006,0.922829,0.042809,0.382824
0.452166,-0.583660,-0.703307,0.701559,0.218684,0.678227
0.511439,-0.025869,0.684032,0.328777,-0.938196,-0.108143
0.526767,-0.593686,-0.792325,0.379224,-0.740989,0.554188
0.613545,-0.508994,-0.792930,0.096399,-0.993692,0.057302
0.277249,-0.471655,-0.982740,-0.122311,-0.071442,0.989917
-0.930146,-0.086569,-0.011286,-0.456594,-0.880512,-0.127359
-0.726190,-0.219056,0.596764,0.770416,0.125101,0.625147
-0.733256,-0.603609,-0.072616,-0.014490,-0.846309,0.532494
-0.583631,-0.374905,0.547276,-0.414700,0.189534,-0.890000
-0.643413,-0.003687,0.526250,0.480616,0.279246,0.831282
-0.595469,0.197183,0.787818,-0.206665,-0.952532,-0.223545
-0.588315,-0.457045,0.081768,-0.540504,-0.573944,-0.615178
-0.580651,-0.431763,0.120928,-0.369050,0.829438,0.419326
-0.609776,-0.310897,0.080355,0.883764,-0.018153,-0.467582
-0.702855,0.155150,-0.009032,0.459938,0.857380,0.230990
-0.483398,-0.388454,0.482616,-0.305154,0.212453,-0.928302
-0.489955,-0.284555,0.511985,0.734496,0.191160,0.651133
-0.499324,-0.218204,0.512894,-0.361931,-0.233939,0.902374
-0.521381,-0.116968,0.486619,-0.621553,0.028029,-0.782870
-0.502814,-0.125718,0.547343,-0.311032,-0.669401,0.674657
-0.511159,-0.062459,0.550573,0.977138,-0.211782,0.018692
-0.529128,0.029707,0.533786,0.948330,0.193456,0.251485
-0.588741,0.279636,0.451665,0.404704,0.705033,0.582360
-0.486888,0.199097,0.766960,0.169925,0.974243,0.148245
-0.496938,-0.476134,-0.031303,-0.580008,-0.341349,0.739643
-0.443713,-0.571179,0.109961,-0.035679,0.049134,0.998155
-0.430768,-0.561581,0.162072,0.839462,0.474673,-0.264553
-0.448142,-0.428990,0.168162,-0.494750,0.863543,0.097547
-0.359916,-0.495549,0.450286,0.637132,0.751491,0.171245
-0.344247,-0.453203,0.528470,0.418335,0.860846,-0.289724
-0.511331,0.043575,0.187270,-0.048956,0.994088,-0.096911
-0.379589,-0.275915,0.493650,0.965090,-0.210577,0.155752
-0.404200,-0.165610,0.462161,0.894002,0.311426,0.322139
-0.514312,0.179155,0.246380,0.038143,-0.840483,0.540493
-0.413652,-0.057342,0.485408,0.422492,0.806530,0.413533
-0.388189,-0.043689,0.583845,0.941888,-0.313995,0.119387
-0.474372,0.278998,0.441875,-0.507393,-0.790259,-0.343574
-0.337690,-0.025980,0.773924,0.133795,0.659130,0.740031
-0.342459,0.068212,0.806355,0.089330,0.992349,-0.085230
-0.335647,0.089228,0.841578,0.126826,-0.708241,0.694485
-0.323638,0.048796,0.615570,0.823167,-0.031174,0.566943
-0.337945,0.131256,0.606453,0.510346,0.027370,-0.859534
-0.345866,0.272916,0.653417,-0.313235,0.046988,-0.948513
-0.346547,0.316122,0.673367,0.796358,-0.352592,0.491419
-0.362896,-0.640948,0.111273,0.776064,0.627235,-0.065584
-0.402155,-0.495126,0.046208,0.225409,0.961431,0.157613
-0.501962,-0.231004,-0.176739,-0.295308,0.115192,0.948432
-0.252104,-0.724149,0.468520,-0.055841,0.882220,0.467514
-0.440647,-0.173078,0.075275,-0.256239,0.894829,-0.365543
-0.327557,-0.227377,0.456207,-0.426504,0.853839,-0.298418
-0.306010,-0.123797,0.589531,-0.289249,0.431599,0.854434
-0.345695,0.029596,0.525644,0.427147,0.105167,0.898045
-0.197686,0.150352,0.878854,0.299794,-0.548784,0.780358
-0.180742,0.139791,0.934431,0.861351,-0.490984,0.130420
-0.296644,0.517409,0.711921,0.496338,-0.752320,0.433201
-0.185594,0.230252,0.965819,-0.656299,0.746094,-0.112321
-0.273480,0.264492,0.910478,-0.406417,-0.323486,0.854507
-0.536709,-0.146409,-0.520697,-0.072392,-0.988686,0.131376
-0.275182,-0.701426,0.141752,-0.320250,-0.850764,-0.416703
-0.322190,-0.534699,0.058656,-0.178011,0.949373,0.258848
-0.284977,-0.545689,0.188381,0.249760,-0.588582,0.768890
-0.176568,-0.752633,0.474676,0.114163,-0.831002,-0.544428
-0.223745,-0.542805,0.414625,-0.344953,-0.445149,-0.826347
-0.226300,-0.410532,0.475248,0.619223,-0.569426,0.540663
-0.251764,-0.257672,0.463473,-0.279134,0.862868,0.421358
-0.244354,-0.237938,0.501254,0.592724,-0.804854,-0.029799
-0.283444,-0.047315,0.459705,0.030239,-0.850691,0.524796
-0.143440,-0.398688,0.785564,-0.137702,0.837648,0.528568
-0.269646,0.038770,0.556225,0.106827,0.541182,0.834093
-0.288382,0.132004,0.536679,-0.068585,-0.939376,0.335959
-0.303286,-0.578646,-0.105888,0.037487,0.978442,0.203091
-0.192917,-0.780688,0.191375,-0.393979,-0.885742,0.245444
-0.260366,-0.557955,0.063265,-0.073521,0.946251,0.314966
-0.264878,-0.416717,0.121702,-0.086723,-0.996155,0.012439
-0.119426,-0.725217,0.490959,-0.381893,0.893735,0.235365
-0.171373,-0.542596,0.398207,0.512028,-0.808531,0.290007
-0.204415,-0.369143,0.369410,-0.288701,0.244284,0.925731
-0.180656,-0.393252,0.443288,0.862608,0.268012,0.429043
-0.168732,-0.383974,0.492540,0.490498,-0.806192,0.330858
-0.338031,0.082932,0.120390,-0.184856,0.975865,0.116258
-0.207565,-0.235913,0.428553,0.831586,0.319084,0.454588
-0.209355,-0.188977,0.447258,0.517479,-0.185196,-0.835415
-0.187382,-0.046886,0.604636,-0.395621,-0.917380,0.043565
-0.162516,-0.077395,0.678817,0.641114,0.473734,0.603779
-0.210036,0.180008,0.642484,-0.436979,-0.470682,0.766491
-0.231069,0.279317,0.618732,-0.725842,0.274112,-0.630885
-0.162261,0.120591,0.785833,0.193497,0.941281,-0.276676
-0.154425,0.137551,0.824286,-0.179077,-0.952580,0.246012
-0.142078,0.140214,0.870679,-0.356157,0.900621,-0.249067
-0.125898,0.211156,0.968040,-0.658729,0.659845,-0.361497
-0.256618,-0.569369,-0.112583,-0.091676,0.966187,0.240993
-0.145909,-0.732040,0.206817,0.202439,-0.966678,0.156689
-0.176994,-0.563821,0.182561,-0.073680,0.788700,0.610347
-0.080932,-0.695026,0.465357,0.414884,-0.848615,-0.328212
-0.145995,-0.394743,0.387442,0.418936,0.555492,0.718277
-0.159621,-0.314316,0.379771,0.721762,0.083169,0.687126
-0.288382,0.082717,0.119582,-0.073954,0.967465,0.241954
-0.178610,-0.177134,0.383405,-0.167147,0.817420,-0.551258
-0.257045,0.164109,0.279215,-0.355350,-0.797409,0.487714
-0.182698,-0.003361,0.462430,-0.447443,-0.848866,0.281465
-0.141907,-0.076223,0.572844,-0.628776,-0.776916,0.032275
-0.181849,0.119419,0.530791,0.065688,0.991719,0.110357
-0.150423,0.070028,0.620078,0.958060,-0.257307,-0.126154
-0.162942,0.144590,0.614695,-0.584611,-0.795609,-0.158858
-0.158599,0.173712,0.645612,0.730832,0.442104,-0.520027
-0.115338,0.088057,0.759289,-0.309493,0.910095,-0.275575
-0.098646,0.080478,0.816044,-0.606401,-0.764224,0.219634
-0.103927,0.134882,0.826473,-0.085070,0.995532,-0.040976
-0.219488,0.510905,0.602550,0.304478,0.858405,-0.412837
-0.207565,0.554429,0.669566,-0.587869,-0.589068,0.554445
-0.213357,0.611600,0.679389,-0.173093,0.607844,0.774961
-0.305243,-0.218204,-0.213442,-0.437127,-0.209115,-0.874752
-0.158685,-0.562330,0.139128,-0.690047,0.458559,-0.559963
-0.065178,-0.644678,0.436963,0.814132,0.576672,-0.068110
-0.105034,-0.452025,0.394170,-0.660404,-0.458398,-0.594758
-0.142931,-0.224708,0.376811,0.739660,0.035430,0.672048
-0.224938,0.084319,0.242915,0.480441,0.812519,0.330135
-0.120874,-0.161241,0.491766,-0.507746,0.671647,0.539522
-0.151702,-0.033871,0.447460,-0.305929,-0.935779,0.175284
0.009592,-0.442643,0.818365,-0.100618,0.808367,0.580016
-0.073268,-0.172009,0.660550,0.076430,0.940590,0.330831
-0.078377,-0.118035,0.670272,0.328861,0.511835,0.793647
-0.147273,0.117706,0.544585,0.388527,0.895703,-0.216248
-0.115507,0.067573,0.633804,-0.440362,0.383199,0.811935
-0.079911,0.007199,0.731804,-0.682062,-0.670034,-0.292995
-0.165156,0.290411,0.572306,-0.563933,-0.705260,0.429637
-0.070799,0.061922,0.794412,0.173454,-0.968668,0.177752
-0.058707,0.064904,0.840771,0.413288,0.490600,0.767141
-0.171204,0.428127,0.622904,0.509020,0.286768,0.811580
-0.186446,0.513360,0.612374,-0.712905,-0.300944,-0.633402
-0.190108,0.562854,0.625864,0.834568,0.074504,-0.545844
-0.162261,0.522318,0.706370,0.501731,0.683162,0.530618
-0.043293,0.317717,0.928275,0.198070,0.832448,0.517492
-0.173332,0.696299,0.657656,0.171852,0.245839,0.953955
-0.200839,-0.580463,-0.120220,-0.118949,0.949084,0.291704
-0.162347,-0.548885,0.035645,0.221291,0.592965,0.774224
-0.135350,-0.533312,0.141719,0.526644,-0.831737,-0.175670
-0.238309,-0.170519,-0.039277,-0.300090,-0.928845,-0.217238
-0.025069,-0.697058,0.455466,-0.501644,-0.857312,-0.115625
-0.079825,-0.509521,0.356726,-0.700645,0.620132,-0.352891
-0.155533,-0.263857,0.211863,0.887601,-0.393846,0.238850
-0.100774,-0.328073,0.376575,-0.436009,-0.200217,-0.877388
-0.196070,0.060744,0.237431,0.808732,0.348326,0.473943
-0.028814,-0.359969,0.622433,-0.190291,-0.970654,-0.147035
-0.119169,-0.069289,0.447493,-0.523182,-0.847592,-0.088705
-0.108015,-0.058084,0.493718,0.792646,-0.185431,-0.580800
-0.093196,-0.017444,0.568908,0.388307,0.887327,0.248735
-0.113038,0.079417,0.548656,0.985037,0.172106,-0.009025
-0.066202,0.028529,0.691265,-0.089915,-0.990956,0.099611
-0.054704,0.034609,0.736716,0.222588,-0.932242,-0.285272
-0.056492,0.080478,0.754243,0.003928,-0.866476,0.499203
-0.014339,-0.001122,0.864152,0.625207,0.286027,-0.726158
-0.157747,0.532241,0.626403,0.984661,0.161355,-0.066392
-0.166858,0.636563,0.649650,0.384981,0.898483,-0.210990
-0.153744,-0.609475,-0.062086,0.281773,-0.945458,0.163443
-0.040226,-0.563717,0.372437,0.852582,0.389703,0.348188
-0.139950,-0.210202,0.199785,0.493958,-0.751017,0.438154
-0.133050,-0.184921,0.237599,0.238632,-0.540932,0.806503
-0.134414,-0.098197,0.278576,0.779734,0.609275,-0.144216
-0.165242,0.028320,0.235042,-0.659594,-0.532030,-0.530924
-0.016979,-0.335651,0.577251,-0.082849,0.915244,0.394291
-0.093025,-0.084648,0.435516,-0.555563,-0.826696,0.089014
-0.083913,-0.066939,0.477065,0.484271,0.693246,-0.533752
-0.079061,-0.038565,0.510001,0.966065,0.094710,0.240310
-0.018427,-0.166469,0.660415,0.409504,0.783846,0.466789
-0.029753,-0.095958,0.657185,0.946625,-0.029866,0.320951
-0.051469,0.005487,0.632929,0.579696,0.813907,0.038837
-0.035543,-0.000164,0.687968,-0.027912,-0.993271,0.112395
-0.129986,0.307157,0.509563,-0.512251,0.249433,-0.821817
0.007632,0.039089,0.863311,0.892917,-0.098362,-0.439345
0.006099,0.081442,0.880772,0.628253,-0.048436,-0.776500
-0.022174,0.241021,0.862975,-0.648772,0.756695,-0.080671
-0.013572,0.255533,0.902269,0.487049,-0.532343,0.692382
-0.164135,-0.552942,-0.139160,-0.154551,0.976813,0.148158
-0.080677,-0.549738,0.160323,0.043990,0.997087,-0.062315
-0.115081,-0.198678,0.222124,0.818604,-0.492249,-0.295938
-0.086808,-0.232390,0.304850,-0.651847,-0.755169,-0.069397
-0.085618,-0.192811,0.330553,0.024698,-0.965383,0.259665
-0.152383,0.030449,0.209811,-0.695865,-0.691649,-0.193372
-0.032648,-0.251591,0.489378,-0.458852,0.249431,-0.852783
-0.035288,-0.163585,0.526351,0.176361,0.975887,0.128610
-0.065349,0.001861,0.505156,-0.029662,-0.318792,0.947360
-0.010677,-0.107156,0.643695,0.404304,-0.309090,-0.860814
-0.020470,-0.038884,0.644839,0.874075,0.142049,0.464559
-0.015701,-0.011259,0.676933,0.119708,-0.985342,-0.121536
-0.104862,0.277611,0.509933,-0.664356,0.174430,-0.726778
0.041441,-0.013388,0.879224,0.896687,0.272270,-0.349029
0.034458,0.046453,0.885784,0.962101,-0.272133,0.017492
0.004737,0.209984,0.866776,-0.153516,0.823769,-0.545745
-0.000799,0.303641,0.895137,0.445946,0.779406,-0.440066
-0.050788,-0.144703,0.435113,-0.425696,-0.755357,0.498216
-0.039376,-0.090625,0.503474,0.653962,0.349555,0.670928
-0.047381,-0.027047,0.508958,0.767165,-0.308132,0.562595
0.009251,-0.140543,0.648640,0.656747,0.569230,0.494632
-0.008208,-0.053605,0.633199,0.844279,-0.224186,-0.486758
0.014446,-0.074726,0.702434,0.904159,-0.416519,0.094917
-0.097029,0.273027,0.490084,0.840175,-0.043194,0.540592
0.008996,0.021067,0.732981,0.303380,0.777839,-0.550389
0.075335,-0.043474,0.932884,-0.470516,0.762637,0.443846
-0.000541,0.288276,0.838147,-0.468717,-0.850025,-0.240336
-0.299027,-0.203802,-0.471579,-0.259452,-0.965492,-0.022599
-0.118660,-0.393571,0.065990,-0.605073,0.689131,-0.398730
-0.189767,-0.165720,-0.065786,-0.200323,-0.971854,-0.123975
-0.076675,-0.242202,0.292974,0.698269,0.715426,0.024183
-0.067564,-0.225027,0.334388,-0.156951,-0.984677,0.076007
-0.139950,0.009973,0.201131,0.778810,0.564567,0.273349
0.015041,0.283907,0.891436,0.465354,0.720710,-0.513832
-0.087575,0.616828,0.702401,0.108651,0.658959,0.744291
-0.263687,-0.215111,-0.449308,0.313567,0.940366,-0.131864
-0.090301,-0.211055,0.160155,-0.641608,0.626129,-0.443060
-0.069097,-0.181294,0.250821,0.998193,0.051208,-0.031429
-0.089706,-0.083476,0.229626,0.687596,0.137411,0.712973
-0.108184,0.009862,0.212738,0.803003,0.592491,0.064348
0.014956,-0.193560,0.538025,-0.269128,0.594012,0.758103
0.011125,-0.059152,0.594812,-0.255560,0.965716,-0.045616
0.031136,-0.030459,0.679658,0.827285,-0.493233,-0.268925
-0.076163,0.263854,0.456173,0.812586,-0.039900,0.581474
0.024410,0.027676,0.686589,-0.570844,0.818636,-0.063027
0.044676,0.011893,0.749029,-0.526518,-0.843175,-0.108786
0.031222,0.089762,0.742502,0.930424,0.309252,-0.196658
0.025174,0.146295,0.750240,0.574658,0.801839,-0.163773
0.000054,0.298094,0.741426,0.839398,0.123929,-0.529200
0.042974,0.218832,0.850258,0.189794,-0.674159,0.713785
-0.080423,0.687236,0.659944,-0.111333,0.989069,-0.096683
-0.255257,-0.230151,-0.511344,-0.006604,-0.837000,0.547163
-0.065349,-0.128381,0.202746,0.940554,-0.133361,0.312367
-0.089534,-0.021819,0.173073,0.859940,0.473965,0.189367
0.006951,-0.191959,0.420949,-0.106007,0.915385,-0.388371
0.021172,-0.186522,0.472624,0.489423,0.780352,0.389251
0.032584,-0.174041,0.519050,-0.070588,-0.913641,0.400346
0.045102,-0.084648,0.609077,-0.700221,0.517387,-0.491936
-0.051043,0.259264,0.451766,0.669937,-0.217666,0.709792
0.081297,-0.019046,0.768642,0.576602,0.817025,-0.000182
0.058643,0.084749,0.742872,0.875445,0.270150,0.400769
-0.049850,0.423862,0.540648,0.518782,-0.783876,0.341181
0.064776,0.187261,0.817323,0.014816,0.943711,-0.330439
0.071842,0.206461,0.852075,-0.261526,-0.618410,0.741062
0.072014,0.246887,0.872866,-0.142368,-0.985789,0.089167
-0.073268,0.737369,0.620381,0.173534,0.980925,0.087587
-0.207991,-0.249455,-0.513296,-0.398940,-0.916417,0.032037
-0.063561,-0.384183,-0.080555,-0.552367,-0.060058,-0.831435
-0.025919,-0.170630,0.159919,0.351093,0.070281,0.933699
-0.034776,-0.102891,0.163654,0.882210,0.270276,0.385560
0.104375,-0.424399,0.480900,0.992642,0.076259,-0.094055
0.110932,-0.357729,0.537453,-0.168379,0.641156,0.748710
0.054045,-0.166039,0.439183,-0.569101,0.814652,0.111648
0.082487,-0.199641,0.521136,-0.718931,0.085792,-0.689767
0.073376,-0.133720,0.522684,0.799264,0.331661,0.501177
0.071333,-0.086354,0.540581,0.938491,0.179364,-0.295065
0.070566,-0.041553,0.560430,0.991869,-0.063147,0.110491
-0.003608,0.201448,0.428149,0.848110,-0.022471,0.529343
0.095263,-0.025980,0.653922,0.182262,-0.975312,-0.124684
0.086833,0.036745,0.657387,0.460089,-0.887866,0.003383
0.082233,0.091364,0.669061,0.186448,-0.835156,0.517447
0.139546,-0.026513,0.807734,-0.595946,0.320169,0.736438
0.141505,0.008905,0.833000,-0.054572,0.875758,0.479655
-0.016213,0.443915,0.509092,0.412963,0.909681,0.044057
0.079592,0.221501,0.726825,-0.703121,0.597107,-0.386113
0.082999,0.253078,0.755219,-0.132355,-0.471353,0.871957
0.076528,0.351111,0.782133,0.684425,0.528909,-0.501815
0.088790,0.436663,0.869872,0.884786,0.303210,-0.353862
0.088875,0.477622,0.890427,-0.728436,-0.627231,0.275613
0.080359,0.243371,0.490824,0.855522,-0.227847,-0.464939
0.155812,0.119627,0.691534,-0.294296,0.722931,-0.625108
0.158281,0.152806,0.717035,-0.692948,-0.680686,0.237677
0.156748,0.196539,0.734529,0.543944,0.609039,-0.577232
0.153340,0.247421,0.748692,0.500220,0.616984,0.607545
0.153086,0.328278,0.789433,0.492693,0.757622,-0.428091
0.155214,0.363058,0.815035,0.293410,0.829875,-0.474572
0.158962,0.431858,0.863850,-0.130421,-0.983204,0.127671
0.156236,0.479328,0.878450,-0.543770,-0.812724,0.209272
0.066904,0.895776,0.781864,0.452732,0.529161,0.717650
0.099689,-0.273565,0.290922,-0.612575,-0.583246,-0.533457
0.100456,-0.233882,0.314304,-0.347912,0.918017,-0.190271
0.113656,-0.225242,0.364700,-0.109495,-0.991712,-0.067214
0.118084,-0.195696,0.395853,0.059124,-0.985496,0.159069
0.145250,-0.224923,0.475214,0.521475,0.851694,-0.051783
0.124386,-0.126571,0.453549,-0.177760,-0.821822,0.541305
0.135203,-0.113452,0.498731,0.132541,0.720699,0.680460
0.130348,-0.059263,0.509260,-0.535173,0.844693,-0.009181
0.072866,0.137122,0.410150,0.725949,0.502241,0.469843
0.053447,0.233129,0.391378,0.914785,-0.189467,0.356751
0.072440,0.222888,0.451968,0.861789,-0.415559,-0.290912
0.143122,0.818226,0.798281,0.209562,0.824621,0.525436
0.054726,-0.473256,-0.187605,0.253259,-0.897185,-0.361827
0.096285,-0.534913,-0.073087,-0.820781,0.526297,-0.222104
