0.537933,-0.339675,-0.037158,0.303147,0.450089,0.839954
-0.225406,-0.197139,0.331289,-0.371574,0.482006,0.793475
-0.357005,-0.214740,0.273772,0.600013,0.646992,-0.470517
-0.180927,-0.140888,-0.720335,0.284111,0.957753,0.044621
-0.477350,0.262077,-0.470011,-0.421191,-0.573820,-0.702374
-0.707515,-0.351809,-0.646682,-0.053125,-0.160819,0.985553
0.116960,0.738446,0.262717,-0.611907,0.169108,0.772640
-0.230254,-0.256984,-0.941934,-0.047060,0.166206,0.984967
-0.487689,0.384615,-0.218589,-0.580286,-0.776780,-0.244705
0.328909,-0.529698,-0.936738,-0.014692,0.186754,0.982297
0.026448,-0.390083,0.370610,0.053131,0.569874,0.820013
-0.209481,0.515093,0.446826,0.426786,0.840253,-0.334407
0.711816,0.345742,-0.666846,-0.676849,-0.591342,0.438395
0.193283,-0.266422,0.012714,0.637316,0.431478,0.638478
-0.017114,0.742042,0.288283,0.221450,-0.219352,-0.950181
0.375215,-0.007265,0.647368,-0.490434,0.685055,0.538678
-0.218999,0.167927,0.416385,0.753563,-0.647573,-0.113103
0.023611,-0.289417,0.440623,0.795680,-0.016919,-0.605481
0.689942,-0.011085,0.413891,-0.615781,-0.645557,0.451741
-0.025532,-0.032132,-0.778561,-0.705043,-0.709111,0.008743
0.380706,-0.639877,0.011753,-0.046570,0.114955,0.992279
0.320950,0.412404,-0.324697,0.195257,-0.880635,0.431690
0.129862,0.138866,0.522058,-0.301312,-0.039234,0.952718
-0.006496,-0.080443,-0.941407,0.268894,0.377927,0.885927
0.159880,-0.097596,0.640365,0.792712,-0.567308,-0.223089
0.038620,0.207325,0.064349,-0.672307,-0.444494,-0.591970
0.079803,-0.473972,0.384045,0.244971,0.932942,0.263835
-0.155942,0.173470,0.346555,-0.031898,0.918986,0.392998
0.448248,0.429256,-0.055285,0.709175,-0.036171,-0.704104
-0.555594,0.700846,0.110788,-0.720520,0.378875,0.580779
0.208202,0.526178,-0.034709,-0.186000,-0.284937,0.940327
0.642721,0.519886,0.079409,0.975370,0.194628,0.103794
-0.229891,0.203131,0.505991,0.004623,0.633523,0.773710
0.361396,-0.146881,0.275351,0.025985,0.506237,0.862003
0.378511,0.039248,-0.157571,0.989894,0.122772,0.070968
0.511395,0.306494,0.053065,0.811337,-0.045986,-0.582767
0.593578,0.090330,0.415218,0.894931,0.444327,0.040892
0.062231,0.446409,0.471224,0.252329,0.629201,-0.735143
-0.079529,0.478316,-0.124933,0.048328,-0.738682,0.672320
-0.151183,0.266272,0.699942,-0.778838,-0.612008,0.137322
-0.499682,-0.273013,0.247291,-0.489527,0.863054,0.124504
-0.163081,0.384540,0.483103,0.095673,-0.847734,0.521722
0.483846,-0.282451,0.286246,-0.285671,-0.828807,-0.481115
0.683078,0.330237,0.062403,-0.440677,0.134084,0.887595
0.720145,-0.346566,-0.313528,-0.273068,0.470120,0.839298
0.276655,0.305071,0.265029,-0.136186,-0.920932,-0.365155
-0.864647,0.624148,0.201813,0.986902,0.084554,-0.137387
0.945729,-0.187477,-0.342481,-0.397292,0.317518,0.861012
0.360117,-0.214516,0.290251,0.079645,-0.302558,-0.949797
-0.358927,-0.276983,-0.167573,0.569988,0.732297,-0.372633
-0.757479,0.397349,-0.225158,0.014710,0.182392,0.983116
0.048780,-0.295559,0.236121,-0.049461,-0.440464,0.896407
-0.493090,-0.060370,0.360333,0.208296,0.740699,0.638731
-0.170493,0.538536,0.471133,-0.316903,0.921616,-0.224047
0.077971,-0.459741,-0.099985,-0.243445,-0.167773,-0.955294
0.061683,0.262976,0.629173,0.825256,-0.554306,0.108156
0.245811,-0.491424,-0.938981,-0.055268,0.161827,0.985270
0.176811,-0.287844,0.333211,0.558263,0.650592,0.514852
-0.763428,-0.045914,0.371663,0.597883,0.747788,0.288702
-0.278487,0.065313,-0.664168,0.529670,-0.811888,-0.245536
0.152194,0.910494,-0.388325,0.302310,0.683149,-0.664768
-0.028001,-0.370759,0.182152,0.833392,0.292761,-0.468774
-0.713643,0.240506,0.237746,0.763915,0.350587,0.541778
-0.296696,0.242529,-0.444766,0.617370,-0.094148,-0.781019
-0.228880,0.392105,-0.282790,-0.251177,0.542226,0.801811
0.600621,0.578534,-0.259696,-0.169886,0.983845,0.056465
-0.626885,0.178189,-0.718916,-0.273831,0.088480,0.957699
-0.353526,0.378699,-0.972695,0.026917,0.043979,0.998670
-0.417957,0.176991,0.479487,0.982860,0.003229,-0.184326
-0.435892,0.096472,0.194374,0.897636,-0.367985,-0.242564
-0.679050,0.702270,-0.097765,0.998483,-0.044761,0.032064
0.536743,-0.133773,0.512628,-0.739464,0.397346,0.543423
-0.336232,-0.332709,0.358502,0.055890,0.421798,0.904966
-0.141486,0.059171,0.671332,-0.099638,0.309703,0.945598
-0.362407,0.835743,0.135324,0.915171,0.113173,-0.386850
-0.606754,-0.289716,0.267478,0.696024,-0.088220,0.712579
-0.922118,0.666917,0.133813,0.914010,-0.403560,0.041541
0.174520,0.162235,0.053271,-0.270664,-0.742441,-0.612798
0.265305,-0.068309,-0.282973,0.238280,0.952912,0.187565
-0.580121,-0.102090,-0.170182,0.496408,0.131828,-0.858021
0.464536,-0.449704,-0.026790,0.144541,0.277064,0.949918
0.691043,-0.511647,0.202087,-0.353628,-0.132964,0.925887
0.240231,-0.042618,0.607681,0.377114,0.887500,-0.264820
0.019126,-0.340798,0.183525,-0.533354,0.813604,-0.231477
-0.676855,-0.186653,-0.200211,-0.041909,-0.761617,0.646671
-0.126019,-0.317729,0.555131,0.847857,-0.520214,-0.102548
-0.193282,0.209797,0.617569,0.970291,0.108616,-0.216191
0.083920,0.349187,0.446963,0.885315,0.349320,-0.306910
0.752631,0.193918,0.069728,0.753277,0.062962,-0.654683
0.441568,0.043218,0.091082,0.497044,0.061611,0.865535
-0.010797,-0.312786,0.434467,0.938132,-0.197110,-0.284702
-0.181569,0.537188,0.446323,0.309183,0.951002,-0.000979
0.190082,0.254962,-0.117769,0.770786,0.147623,-0.619755
0.359296,0.498989,-0.092478,0.596449,0.675124,-0.434115
-0.025074,0.100217,0.546777,0.543626,0.046822,-0.838021
0.190082,-0.071830,0.593056,0.385532,-0.701749,0.599094
0.108173,-0.122762,-0.944451,-0.256012,-0.144041,-0.955882
-0.393793,-0.299978,0.103029,0.225774,0.796658,0.560680
0.727557,0.268819,0.069773,-0.712368,-0.177449,0.679002
0.325340,-0.489027,-0.003696,-0.525809,-0.491780,-0.694030
-0.124461,-0.203131,-0.626701,-0.150399,-0.953593,-0.260846
-0.167018,0.018575,0.656478,0.913142,-0.404543,-0.050166
0.161159,0.555090,0.250220,-0.492116,0.482106,-0.724842
0.290932,-0.523181,-0.138597,0.869863,0.492220,0.032535
-0.621579,-0.303948,0.528764,-0.716257,-0.377606,-0.586847
-0.211313,0.685717,-0.726469,0.468036,-0.068324,-0.881064
-0.486957,0.792001,-0.713514,0.113548,-0.232294,0.965995
0.356458,-0.558610,0.006283,0.251435,0.304614,0.918690
-0.118054,0.154071,-0.409313,-0.721539,-0.057407,-0.689990
0.342729,-0.055726,-0.130151,0.484357,-0.006002,0.874850
-0.538575,0.525579,-0.398991,-0.439083,-0.402855,-0.803066
-0.147614,0.347315,0.476237,0.001555,-0.666525,0.745481
0.755379,0.356527,0.074625,-0.463454,0.375540,0.802609
0.386381,-0.034829,0.547326,0.847402,-0.401900,0.346966
0.390956,0.353682,-0.505854,0.175665,-0.707985,0.684032
-0.187607,0.523107,-0.004200,-0.434134,0.169287,0.884799
-0.335227,0.448206,0.097170,0.948950,0.068592,0.307880
-0.416493,0.866152,-0.991028,0.006893,0.135624,0.990736
-0.210397,0.034380,0.647140,0.735105,0.397734,-0.549025
0.034961,-0.152797,-0.348638,-0.154047,-0.982059,0.108763
-0.431681,0.412478,0.123651,-0.530781,0.098313,-0.841788
-0.097376,0.106060,-0.954476,-0.008110,0.140500,0.990047
0.353805,-0.421167,0.343694,-0.084477,-0.600503,-0.795147
0.490800,0.064339,0.185952,0.672856,-0.727345,0.135032
-0.560996,-0.193094,-0.555589,0.619902,-0.357559,-0.698479
-0.202069,-0.084937,-0.932733,-0.373355,0.064308,0.925457
-0.083462,-0.118493,0.227607,0.793831,0.528661,0.300581
0.644553,-0.104561,0.262969,-0.556846,0.226060,0.799262
-0.049417,-0.267920,-0.005710,0.469338,0.441977,0.764447
-0.182301,0.152348,-0.961274,0.028586,0.245303,0.969025
0.339986,0.169800,0.206184,-0.036855,-0.061827,0.997406
0.488605,0.112950,0.355664,0.439495,0.888716,-0.130493
0.143955,0.456745,0.307165,0.023118,0.165891,0.985873
-0.495380,-0.394127,0.407070,0.222153,0.899628,0.375922
0.108263,-0.510748,-0.462619,-0.114738,-0.314443,-0.942317
0.056192,0.757171,0.252715,0.018627,-0.061424,0.997938
-0.589639,0.485731,-0.294302,0.058517,0.764854,0.641540
-0.431044,-0.121264,0.555200,0.829650,0.547254,-0.110426
0.330742,0.491873,-0.032123,-0.550585,0.471541,-0.688843
-0.373388,0.828327,-0.715253,-0.063039,-0.471644,0.879533
0.315548,-0.294884,0.519769,0.503120,0.100816,-0.858316
-0.278666,0.062317,-0.955781,0.060054,0.163093,0.984781
-0.261188,0.146356,0.473422,0.875509,0.372438,0.307853
-0.157685,-0.147180,0.492396,-0.247221,-0.968807,0.017182
-0.011529,-0.124410,0.192291,0.078477,0.487226,0.869743
-0.246269,0.368362,-0.427783,0.863369,-0.309066,0.398840
-0.712732,-0.309640,-0.661261,-0.223851,0.601870,0.766579
-0.094627,-0.259232,-0.939164,0.011158,0.010777,0.999880
-0.176994,0.113849,0.457949,-0.167118,-0.239288,-0.956459
0.539307,0.482510,-0.000149,0.903354,-0.398638,-0.158239
-0.329183,0.371658,-0.971253,0.103983,-0.002824,0.994575
0.298987,0.171598,0.206848,-0.249114,0.208404,-0.945786
0.103872,-0.465433,-0.279471,0.937783,0.081055,-0.337628
0.845611,0.218486,-0.168648,0.743289,0.290111,0.602792
-0.622036,-0.087484,0.476809,-0.529867,-0.847998,-0.011878
0.223943,0.524306,-0.020954,0.450207,0.221079,-0.865123
-0.006591,0.015804,0.679686,0.968577,0.190607,0.159774
-0.335042,0.399820,0.498072,0.600443,-0.691884,0.400954
0.181296,0.584601,0.254889,-0.542194,0.459071,-0.703761
0.048506,0.224627,0.334012,-0.116174,-0.989865,0.081672
0.174157,-0.088457,-0.296202,0.109949,-0.962207,0.249135
-0.235745,-0.048536,0.659980,-0.582575,0.630659,-0.512714
-0.268969,0.046663,0.518648,0.871596,0.126174,-0.473709
0.009792,-0.178339,0.690764,-0.514678,0.270955,0.813443
-0.369908,0.388735,0.321584,0.964376,0.172777,0.200319
-0.281140,-0.140214,-0.131273,-0.578031,0.301348,0.758334
0.454834,0.063141,0.605575,0.150416,-0.923791,-0.352114
-0.018489,-0.059321,0.816532,0.621695,-0.703668,0.344014
-0.824927,0.655082,0.368138,0.417187,-0.179454,-0.890927
0.581954,0.367538,-0.061740,0.912016,-0.130691,0.388775
0.517249,0.338926,0.287527,0.490257,0.765889,-0.416008
0.804886,0.238484,0.183319,0.459334,0.722738,0.516394
0.725635,-0.027788,0.098703,-0.230962,-0.235251,0.944094
0.073396,-0.113999,0.699942,0.638533,0.632885,-0.437873
0.667980,0.116770,0.184532,0.117060,0.902897,-0.413612
-0.214787,0.074152,0.637985,-0.177011,-0.064382,-0.982101
-0.334858,-0.080369,0.513635,0.680674,-0.388637,0.621002
-0.638604,0.290391,-0.635238,-0.416996,-0.297190,-0.858948
-0.120344,-0.004644,0.719144,-0.252165,0.947025,0.198890
0.173241,0.230395,-0.519655,-0.648841,0.542101,-0.533977
0.023153,-0.017377,0.551240,0.790604,0.292600,-0.537895
-0.189529,0.530372,0.457972,0.104853,-0.946309,0.305785
-0.323508,0.885027,-0.708410,-0.039528,-0.383791,0.922574
0.389314,0.147180,0.409862,-0.415618,0.863080,-0.286976
-0.055550,0.038724,0.662062,0.122401,-0.267409,-0.955777
0.332205,0.067335,0.204101,-0.048301,-0.008377,0.998798
-0.447421,-0.117519,0.113947,0.196163,-0.923287,-0.330244
0.018031,0.555015,0.260405,0.255486,0.044084,-0.965807
-0.046764,-0.104037,0.800785,-0.205738,0.963197,0.172983
-0.228517,0.050333,0.475344,0.549543,-0.507884,0.663367
-0.003111,0.291289,0.351865,0.857503,0.491264,-0.152803
-0.442757,0.377874,-0.547280,-0.433357,-0.471129,0.768271
0.237304,-0.468579,0.022785,0.425126,-0.077849,0.901780
-0.085383,-0.072354,0.741002,0.745963,-0.655305,-0.118800
0.279308,0.533518,-0.141687,0.461602,0.782801,-0.417309
0.434245,0.036402,0.537095,-0.461676,-0.747605,0.477432
-0.339707,0.886525,0.221107,-0.728140,0.670590,0.141850
0.151641,0.049809,-0.951775,0.051783,0.226032,0.972743
-0.227601,0.012134,0.697332,-0.636271,0.705497,-0.312143
-0.200879,0.520635,0.463237,0.078863,-0.914902,0.395898
0.054360,-0.130102,0.614639,-0.110619,0.992018,-0.060530
-0.414935,0.076025,0.635238,0.951426,0.092417,0.293679
0.038436,-0.156243,0.499308,-0.507400,0.846103,-0.163262
0.194746,0.014006,-0.138505,0.084123,0.473434,0.876803
-0.032308,0.050184,0.325887,0.884941,0.432391,0.172969
0.342270,0.423564,-0.337445,0.046320,-0.974953,0.217534
-0.083004,0.270916,0.662520,0.296167,0.945434,-0.135794
0.122540,-0.071605,-0.945870,0.203862,0.088957,0.974950
-0.554315,0.111977,-0.138917,0.695526,0.273916,-0.664240
-0.637867,0.722343,-0.390866,-0.336181,-0.668540,-0.663353
0.305025,0.056700,0.405811,-0.437674,0.433332,0.787823
0.255055,-0.753726,-0.285742,0.432752,0.474887,0.766295
-0.864920,0.280503,0.237975,-0.362000,0.883086,-0.298523
-0.445595,0.483185,-0.293181,-0.287781,-0.583141,-0.759690
-0.187792,-0.351210,0.545816,0.915909,-0.388811,-0.099682
-0.234555,0.230170,-0.963929,0.081833,0.150463,0.985223
-0.155210,0.675005,0.263701,0.829109,-0.329811,0.451446
0.087126,-0.333308,0.210190,0.965933,-0.131243,-0.223046
-0.351057,0.260355,0.489809,-0.348580,0.639962,-0.684793
0.806075,0.200884,0.186409,0.201188,0.694405,0.690887
0.249106,-0.194517,-0.945527,-0.098768,-0.069618,-0.992672
0.392241,-0.026665,0.657370,0.409763,-0.798535,-0.440950
0.183217,-0.206950,-0.228843,0.317437,0.461836,0.828216
0.132331,-0.149202,0.284872,0.934142,-0.029365,0.355691
0.424453,-0.424987,-0.015026,0.135687,0.279801,0.950421
-0.777889,-0.357651,-0.510752,-0.066443,0.519989,0.851585
0.072296,0.456520,0.251822,-0.172215,0.361596,-0.916291
-0.090327,0.078795,-0.325544,0.982434,-0.149611,-0.111533
-0.722798,-0.107857,-0.715711,0.021020,-0.292890,0.955915
-0.142765,0.241555,0.673552,-0.316275,0.930038,0.187083
0.512674,0.157591,0.202064,0.136892,0.103477,0.985167
-0.142676,0.190248,0.624366,0.722636,-0.065516,-0.688117
0.279677,0.252116,0.533204,0.875109,0.003953,-0.483911
-0.271527,-0.039997,0.685202,-0.640695,0.717329,-0.273767
-0.132242,0.446334,0.232917,-0.386432,-0.039442,0.921474
-0.493548,-0.335331,0.507616,-0.284092,-0.166433,-0.944241
0.393704,-0.144709,0.239921,-0.552375,0.050367,0.832073
0.273175,-0.081642,-0.608986,0.083597,-0.996486,-0.005264
-0.088952,0.081268,-0.551309,-0.305894,-0.257983,0.916446
-0.495012,0.136245,0.301969,0.992105,-0.006498,0.125239
-0.205364,-0.043293,0.662612,-0.534622,0.519681,-0.666417
0.050702,0.421167,0.483195,0.805679,0.252585,0.535801
0.371467,-0.489626,-0.932664,-0.014019,0.128544,0.991605
-0.311521,0.289417,0.167641,-0.322773,-0.724865,-0.608595
-0.534458,0.059171,-0.143312,0.673623,0.125586,-0.728327
0.430034,0.155419,0.284964,-0.354309,0.929095,0.106054
-0.024158,0.350536,0.183571,-0.738888,0.668424,0.085170
-0.329367,0.293836,0.301008,0.497562,0.554433,0.667111
0.670722,-0.215565,0.108499,0.394035,0.916376,-0.070653
-0.429575,-0.310089,0.121843,0.400913,0.519588,0.754518
0.689758,0.325744,0.070185,0.477590,0.039587,-0.877690
0.321408,-0.531495,-0.934038,-0.014692,0.186754,0.982297
-0.785117,0.552543,0.378415,-0.544721,0.282917,0.789453
-0.030565,-0.047113,0.755742,-0.471683,-0.869446,-0.146898
0.310426,-0.648116,-0.926690,-0.080446,0.018236,0.996592
-0.745492,0.603550,0.056819,-0.196639,-0.803739,0.561549
-0.400658,0.113025,0.462596,0.970029,0.173747,-0.169871
0.043652,0.070032,-0.955758,0.010797,0.331985,0.943223
-0.398463,-0.327092,0.133859,-0.205109,0.559723,0.802895
0.514048,-0.743016,-0.180985,0.227483,-0.032713,0.973232
0.086484,0.681522,0.267981,0.093445,-0.349409,-0.932299
-0.689395,0.256310,-0.703558,-0.503914,-0.783883,-0.362766
-0.335132,-0.325369,0.358617,0.102052,0.502405,0.858589
0.426922,0.325893,0.281187,0.803280,0.536590,0.258481
-0.009976,0.007415,0.653296,-0.731029,0.682267,-0.010441
0.225953,-0.386039,-0.939599,0.003143,0.025447,0.999671
-0.598973,-0.104262,-0.530870,0.722056,-0.042306,0.690540
-0.753089,0.439892,0.143037,0.131976,0.032742,0.990712
0.621763,0.107408,0.200645,0.391457,-0.765221,0.511076
0.210582,0.119392,0.341062,-0.385902,0.428907,0.816773
-0.174520,0.659276,-0.399906,-0.139462,-0.074375,0.987430
-0.246821,0.450079,0.410869,0.532605,-0.407698,0.741697
0.412098,-0.256610,0.294943,-0.213695,0.478762,0.851541
-0.574815,0.036252,-0.297323,-0.092559,-0.041182,-0.994855
-0.203532,-0.373680,0.179978,0.004728,0.107666,0.994176
-0.715385,0.618605,-0.720518,0.316702,-0.140471,0.938066
-0.693143,0.585499,-0.301260,0.071115,-0.502614,-0.861581
-0.267226,-0.272114,0.344037,-0.036972,0.685901,0.726755
-0.422621,0.969965,0.147386,0.267335,0.963552,-0.009941
-0.426559,-0.273238,-0.194718,0.428685,0.794365,-0.430365
0.139565,-0.044641,-0.945756,-0.214154,-0.087384,-0.972883
-0.050517,0.217736,0.335775,0.834059,0.265613,0.483524
-0.146061,-0.023519,0.542337,0.905999,0.375174,-0.195984
0.074955,-0.032732,-0.475596,0.804567,0.403355,-0.435863
-0.957995,0.653059,0.124521,0.969299,0.236511,0.067242
-0.442484,0.129878,0.115823,0.757903,-0.104255,-0.643982
-0.011439,-0.029586,0.690489,0.116907,-0.990772,0.068581
-0.982243,0.657329,0.147729,0.958869,-0.016240,-0.283384
0.444495,0.443862,-0.061328,0.647838,0.545294,-0.531941
0.217810,-0.126732,0.689917,-0.645619,-0.297834,-0.703186
-0.115216,-0.125085,0.728094,-0.495777,0.805965,0.323458
-0.161528,-0.041495,0.650481,0.946088,0.284394,-0.155039
0.623042,0.077672,0.431079,0.120134,0.978154,-0.169653
0.037519,0.482811,0.310598,0.143007,0.080171,0.986469
-0.211771,0.946446,0.244178,0.541620,0.754235,-0.371184
-0.671454,0.629691,-0.380337,-0.209422,-0.186536,0.959868
-0.418046,0.378324,0.126306,-0.434935,-0.275784,-0.857190
0.422532,0.314209,0.000469,-0.379345,0.764524,0.521153
0.181201,0.189124,-0.725416,-0.362222,0.037879,-0.931322
0.530247,0.014905,-0.544236,0.082020,-0.815466,0.572964
0.732679,-0.036552,-0.115938,-0.243034,0.369737,0.896788
-0.009429,-0.455247,0.380200,0.349270,0.635912,0.688205
0.328451,-0.008988,0.035396,-0.730962,0.339940,0.591723
-0.100945,0.569920,-0.421993,0.361336,0.210649,-0.908330
-0.509562,0.586473,-0.454745,0.574219,0.273142,-0.771794
0.148072,-0.424088,0.375302,0.599543,0.393083,0.697161
-0.559074,-0.101341,0.194237,0.123090,-0.120266,0.985081
-0.401848,0.104636,0.227813,0.845055,-0.524911,-0.101736
0.088405,0.249569,0.080920,0.657747,-0.165556,0.734819
-0.071017,-0.304172,0.213096,0.824129,0.125751,-0.552266
-0.073123,0.684293,-0.710127,-0.202116,0.267015,0.942259
-0.412466,0.891169,-0.998810,0.047631,0.125273,0.990978
-0.729841,0.235788,0.377224,0.067058,-0.217928,0.973658
-0.396815,0.311961,0.325635,0.818207,-0.114162,0.563476
0.531163,-0.451052,-0.022350,0.265464,0.323365,0.908275
0.829686,0.033481,-0.139169,-0.148364,-0.699484,0.699078
-0.162164,-0.370684,0.025302,-0.257854,0.461134,-0.849039
-0.851012,0.106210,-0.714887,-0.225143,0.028232,0.973917
0.526588,-0.041645,0.452754,-0.597245,0.676803,0.430392
-0.312527,-0.213242,-0.943147,-0.056748,0.074597,0.995598
-0.302003,0.424238,0.411190,0.069657,0.813320,-0.577632
-0.445321,0.065838,0.301832,-0.509386,-0.786190,-0.349902
0.311432,0.207325,0.328474,0.853399,0.284750,0.436609
-0.363870,-0.160438,-0.250312,-0.389617,0.737182,0.552053
-0.251212,0.180961,0.433757,0.795544,-0.135352,-0.590584
-0.601169,-0.071081,0.357106,-0.453623,-0.176261,-0.873589
-0.027454,0.889296,-0.429088,-0.615450,-0.028800,0.787650
0.554774,-0.344918,0.106966,0.198642,0.043332,0.979114
0.100118,-0.042319,0.804905,0.326333,-0.942317,0.074464
0.805801,-0.387686,0.224540,0.521312,0.023308,-0.853048
0.001005,0.091454,0.690375,0.917333,-0.301463,-0.260039
-0.630091,0.093926,0.184441,0.643100,0.268540,0.717153
0.032029,-0.434349,0.431766,0.002788,0.987313,0.158759
0.516975,-0.509175,0.438632,0.130009,0.990979,0.032524
0.662489,-0.345217,0.213348,-0.200155,0.290929,0.935574
0.195662,-0.132125,-0.939508,0.095568,0.089939,0.991352
0.233640,-0.443562,0.033885,0.348158,-0.201055,0.915622
-0.502608,-0.167478,0.202774,0.058648,0.121852,0.990814
0.300355,0.024867,0.420871,-0.407544,0.528912,0.744419
0.330468,-0.123436,-0.665793,0.288096,0.955659,-0.060973
-0.104330,0.235189,0.102022,-0.241469,-0.281653,-0.928636
0.713464,-0.071455,0.413753,0.153386,0.987714,0.029887
-0.411181,0.002322,0.306387,0.791058,0.517148,0.326781
0.052528,0.141263,0.715482,0.958104,0.198768,-0.206225
-0.746593,0.003445,0.368527,0.266016,0.845510,0.462978
-0.834540,0.099019,0.201126,-0.460833,0.075896,-0.884236
-0.386107,-0.244551,0.294508,0.759231,0.561612,-0.328877
-0.780543,0.051831,-0.668608,-0.760371,0.649037,-0.024228
-0.108536,0.958131,-0.441447,-0.498342,-0.154437,0.853114
0.510205,0.511273,-0.257773,-0.302722,0.904766,-0.299597
-0.180653,-0.225901,0.157960,0.568599,0.814797,-0.113143
0.396542,0.225002,0.275328,-0.348731,-0.169873,0.921700
0.567034,-0.059321,0.480425,-0.623131,0.677785,0.390276
-0.078245,0.571119,0.251525,-0.390779,0.434168,-0.811659
-0.380706,0.386787,0.119852,-0.297961,-0.218593,-0.929213
0.096823,0.173620,0.466670,0.919744,-0.385983,-0.071329
0.810287,0.230769,0.060984,0.700445,0.245428,-0.670180
-0.263199,-0.102389,0.318929,0.792341,0.117192,-0.598717
0.311616,-0.588645,0.018619,-0.009969,-0.105389,0.994381
0.576279,-0.050633,-0.102549,0.462754,0.231576,-0.855705
0.163176,-0.061793,0.233100,-0.509683,-0.849600,-0.135662
0.030202,-0.050184,-0.423252,-0.162136,-0.985909,0.041183
0.267048,0.494869,-0.025394,-0.404152,0.564620,-0.719628
0.214972,0.233690,-0.354680,-0.534438,0.810172,-0.240827
0.810102,0.149427,0.192429,0.163960,0.803000,0.572982
-0.693696,0.356228,0.192291,-0.144162,-0.924115,-0.353876
-0.246911,-0.067111,0.187439,-0.115093,-0.466775,-0.876855
-0.208839,0.488203,-0.971253,0.004650,0.268021,0.963402
0.095270,-0.151374,-0.729513,-0.246540,-0.652557,0.716510
0.246269,0.094375,0.353902,0.134493,-0.436235,-0.889725
-0.178089,-0.401019,-0.937082,-0.016047,0.071018,0.997346
-0.241968,-0.078496,0.393772,0.695254,0.717156,0.048060
-0.417499,0.525654,-0.467082,0.916791,0.292302,0.272129
0.638236,0.099019,0.439136,0.717010,0.193893,-0.669554
0.018668,-0.065239,-0.458705,-0.037022,0.943325,0.329800
-0.592388,0.667665,-0.520204,0.554506,0.659552,0.507458
-0.262741,0.130402,0.306066,-0.489019,0.633903,-0.599189
-0.806259,0.206726,0.408558,0.921135,0.296231,-0.252501
0.154389,0.123586,-0.572640,0.445331,-0.857192,0.258654
-0.461972,0.353606,0.118639,0.302064,-0.308453,-0.902006
-0.130320,-0.122463,0.535425,0.796993,0.513124,-0.318600
0.351241,-0.551719,-0.594017,0.213056,0.808657,-0.548344
-0.828865,-0.390757,-0.656913,-0.282725,-0.085011,0.955426
0.338975,0.099618,0.240173,0.880653,-0.383880,0.277643
0.460420,-0.577485,-0.180642,0.036272,0.313688,0.948833
-0.370366,0.562280,-0.328702,0.796441,-0.587655,-0.142626
-0.452912,0.371283,-0.372532,0.828499,0.431462,-0.356973
0.677039,0.002023,0.276610,-0.553372,0.151235,0.819089
-0.347761,0.463186,-0.081492,0.884922,-0.129360,0.447414
0.424727,0.092727,0.094332,0.177973,-0.071006,0.981470
0.170588,-0.591416,-0.929300,0.090018,0.009888,0.995891
0.772673,-0.460415,0.107698,0.501983,-0.857830,-0.110184
-0.560169,-0.038948,0.285925,-0.439493,0.553755,-0.707250
0.251302,-0.463187,0.011089,0.742513,-0.171365,0.647541
0.383454,0.316306,0.208793,0.701851,-0.109512,-0.703855
-0.713279,0.633061,0.374936,-0.379832,0.187476,0.905859
0.067174,0.131152,0.752812,0.925488,0.376138,-0.044626
-0.245721,0.255187,-0.519838,0.686223,0.702834,-0.187409
0.568956,-0.220433,-0.755147,-0.113442,-0.264484,0.957695
-0.533358,0.478391,-0.022831,-0.612084,0.132813,-0.779560
0.455750,-0.152124,0.053958,0.395643,0.705067,0.588512
-0.764254,0.274661,0.252006,0.848196,0.244737,0.469752
0.520913,-0.106134,0.509149,-0.685711,0.357799,0.633861
0.427380,0.091978,0.196205,0.081732,-0.270015,0.959381
0.180654,-0.349187,0.015529,0.490979,0.673610,0.552439
0.707878,0.222755,0.208793,0.314216,-0.551358,0.772834
-0.716664,-0.102913,0.208839,0.203865,-0.296866,0.932904
0.180011,0.141337,0.064967,-0.214203,0.665206,0.715275
-0.234555,0.533069,0.446757,-0.593843,0.775801,0.213266
-0.503525,0.605797,-0.452319,0.935747,0.231508,-0.266049
-0.147340,0.204703,-0.721777,0.216142,0.231635,0.948487
-0.317381,0.193244,0.642745,-0.002383,-0.358275,0.933613
-0.488421,0.231968,0.395512,0.181286,-0.601163,0.778292
-0.537659,0.024493,-0.141252,0.580190,0.134143,-0.803358
-0.709436,-0.035203,-0.709371,-0.201053,0.109037,-0.973493
0.477439,-0.710958,0.090006,0.815957,-0.546571,0.188347
0.423448,0.448656,0.336370,0.982700,-0.126440,0.135327
0.044111,0.633061,0.259558,0.647826,0.246347,-0.720857
-0.077055,-0.062917,0.772542,0.061816,-0.996196,0.061424
-0.560169,0.057599,0.489283,-0.573251,0.485507,-0.660050
-0.620205,0.897461,0.179634,0.063082,0.787237,0.613415
0.261646,-0.068309,0.240974,0.037767,0.161502,0.986149
-0.429123,0.754400,-0.729352,0.049574,0.332448,0.941818
-0.150272,0.240506,0.593674,0.511979,0.702773,0.493951
-0.141944,0.487904,0.448131,-0.555254,-0.619425,0.554983
0.021142,0.303498,0.452823,0.091159,0.805217,0.585931
-0.044384,-0.400195,-0.937104,-0.045795,0.031514,0.998454
0.130321,0.082616,0.318060,0.860891,0.074676,-0.503280
0.290290,-0.596959,-0.193230,0.882555,0.257910,-0.393166
-0.445684,0.096996,0.323484,0.986659,0.096997,-0.130754
0.184497,-0.334282,-0.940904,0.060209,0.057674,0.996518
0.256798,-0.436073,0.368596,0.100344,0.498424,0.861106
0.712548,-0.049360,-0.432659,-0.469307,0.793106,0.388243
-0.625332,0.933488,0.130723,-0.571000,0.808882,-0.140245
0.228791,-0.006142,-0.132097,0.029314,-0.037129,-0.998880
-0.046032,-0.048161,-0.643157,0.483629,0.874112,0.045070
-0.224032,0.027863,0.242393,-0.408446,-0.773527,-0.484591
-0.053813,0.146056,-0.532586,-0.321447,0.572170,0.754515
-0.050701,0.378174,0.393910,0.361938,0.088893,0.927954
-0.032308,0.040746,0.687010,0.953981,-0.265428,0.139529
0.496844,0.450079,-0.157296,-0.674234,0.512288,-0.531948
0.459872,-0.300952,-0.746038,-0.132912,-0.308389,0.941929
0.150820,-0.080144,0.659293,0.740620,-0.168255,-0.650517
0.003022,0.745712,0.268782,-0.644763,0.585092,-0.491882
0.195294,0.155868,0.505144,0.645372,0.484331,-0.590693
-0.068453,-0.411954,0.528352,0.707432,-0.130821,0.694569
0.428665,0.051083,0.193230,-0.181234,0.529100,-0.828980
-0.294228,0.872969,-0.704588,0.001878,-0.346232,0.938147
0.520360,0.212269,0.279448,-0.575842,0.401768,-0.712031
-0.453007,0.076174,0.096735,0.632837,0.220838,-0.742124
0.594399,-0.164482,-0.384983,-0.239580,0.935086,0.261183
-0.313716,0.282376,0.346898,0.928169,0.133346,-0.347450
-0.647664,0.091304,-0.631004,-0.130234,0.537307,0.833271
-0.355816,0.395776,-0.968552,0.035551,0.040183,0.998560
0.200237,-0.535391,-0.933465,0.016344,0.159762,0.987020
-0.344287,0.558160,0.109232,0.749263,-0.100196,0.654649
-0.844694,-0.410606,-0.657164,-0.282725,-0.085011,0.955426
-0.038893,0.967343,0.279242,0.158481,-0.909767,-0.383675
0.213414,-0.038649,0.392697,0.303689,-0.635678,-0.709709
-0.222658,0.926972,0.264800,0.105979,-0.868208,0.484750
0.293949,0.127631,0.357381,0.005624,0.975424,0.220262
0.098197,0.199610,0.612877,-0.000812,0.994098,0.108483
0.368993,-0.164108,-0.405651,0.059654,-0.950176,-0.305952
-0.086389,0.346566,0.473124,0.052921,-0.815303,0.576611
0.526767,0.402441,-0.045856,-0.652517,-0.706265,0.274612
0.186876,0.158939,0.512972,0.293805,0.628528,-0.720160
-0.133616,-0.456895,-0.121271,0.235855,0.090718,0.967545
0.680514,-0.302899,0.095797,-0.175501,0.143330,0.973990
0.510663,-0.071755,-0.017406,0.899931,-0.110524,-0.421792
-0.903082,0.450678,0.242118,0.960468,0.250969,0.120478
0.570514,0.133398,0.145852,0.112483,-0.491718,0.863459
0.039352,-0.283350,0.359967,0.037816,0.214545,0.975982
0.370641,0.701520,-0.023586,0.240349,-0.353561,0.904006
-0.066805,-0.087784,-0.307463,0.595768,0.802404,-0.034767
-0.371372,0.424687,-0.289450,0.588305,0.474629,0.654694
0.127394,0.049659,0.571724,0.116599,0.715755,-0.688549
0.479361,-0.266497,0.189659,0.094294,0.645171,0.758197
0.065252,-0.023294,0.570946,0.916763,0.091845,0.388729
-0.014093,0.651637,0.252257,-0.272506,-0.167476,0.947466
-0.640615,0.475620,0.148232,-0.226673,-0.141402,0.963652
-0.363686,-0.359898,-0.178879,-0.513805,-0.734341,0.443562
0.495381,-0.229870,0.198723,0.244386,0.509773,0.824868
-0.876455,0.186278,-0.713010,0.207784,0.020294,-0.977964
-0.325251,0.306269,0.518900,-0.134890,0.428275,0.893524
0.681799,-0.297431,0.189133,-0.044418,0.434878,0.899393
0.395441,-0.368512,-0.023311,-0.298700,-0.397375,-0.867682
0.228881,-0.078721,-0.220375,0.186554,0.975704,-0.114884
0.230439,0.377800,-0.496676,-0.615757,0.508720,-0.601704
-0.300908,-0.383716,-0.935090,-0.078843,-0.034137,0.996302
-0.008239,0.057074,0.687880,0.949930,-0.311394,0.025835
-0.535095,0.987267,0.248252,0.993140,0.089184,-0.075628
0.304199,0.110703,0.082316,0.181190,0.841083,0.509657
-0.294501,0.725639,-0.453280,0.574661,0.350331,-0.739616
-0.056740,-0.028762,0.737592,0.356629,0.821219,0.445438
0.232908,0.287319,-0.541215,0.798191,-0.184332,0.573509
-0.001279,0.307917,0.233329,0.942838,0.312063,0.116933
0.671733,-0.379972,-0.308653,0.442514,-0.189337,-0.876546
0.366155,-0.580481,-0.929254,0.024524,0.160884,0.986669
-0.054818,0.146206,-0.526224,-0.321447,0.572170,0.754515
-0.326256,0.208374,0.644073,0.099820,-0.584910,0.804933
0.548367,0.320426,0.179062,0.984507,0.157049,-0.077980
0.573167,-0.220283,0.178078,0.035706,0.799314,0.599852
-0.548456,0.626470,0.135232,-0.713318,0.590164,0.378000
-0.411640,0.834694,-0.112413,-0.625104,0.755343,0.196727
0.127394,-0.082016,0.557923,0.628413,0.643047,0.437707
0.279677,-0.674481,-0.930719,-0.048901,0.050964,0.997503
-0.134806,0.647143,0.241706,0.644424,-0.329938,0.689825
0.372014,0.023594,-0.002644,0.145329,-0.290493,0.945776
-0.942713,0.461014,0.081766,0.954909,-0.245953,0.166300
0.288642,0.232791,0.565385,0.248245,0.959720,0.131573
0.441199,0.524380,0.220672,-0.452340,-0.027693,0.891416
-0.089505,0.837016,0.298994,0.948748,0.125852,-0.289893
0.017573,0.759868,0.245849,0.048378,-0.162615,0.985503
-0.119976,-0.156767,0.508303,-0.550525,-0.834756,-0.010271
0.053718,0.745637,-0.420597,0.185408,0.140302,0.972594
-0.744945,-0.021347,0.369122,-0.481175,-0.786278,-0.387605
0.663952,-0.185005,0.073962,-0.216934,-0.248290,-0.944082
-0.031207,0.416074,-0.410778,-0.651220,0.524691,-0.548281
-0.429486,0.265823,0.382557,-0.428335,0.610318,-0.666364
-0.253776,0.402592,0.336942,-0.121012,0.983138,0.137096
0.150089,0.315332,0.487383,-0.515489,-0.603307,0.608516
-0.327809,0.335106,0.508737,0.826920,-0.376612,0.417573
0.124646,0.019699,0.733655,-0.028071,-0.566436,0.823628
0.838567,0.093626,-0.093966,0.533843,0.843980,-0.052053
0.227875,0.401618,0.513292,0.893579,-0.123658,-0.431539
0.388029,0.530148,0.367749,-0.628941,-0.206845,0.749432
-0.368261,0.283574,-0.961617,-0.096354,0.277106,0.955996
0.098566,0.586024,-0.404072,0.893716,0.395566,-0.211660
0.067263,-0.131676,0.473856,0.567217,-0.822597,-0.039989
-0.040909,0.328514,0.454699,0.068526,-0.689385,0.721146
0.676492,0.049734,0.452525,0.766349,0.059915,-0.639625
-0.176352,0.013482,0.777142,0.688510,0.686605,0.233510
-0.133705,0.057973,0.603035,0.264063,-0.888889,-0.374362
0.022790,-0.522657,-0.106737,0.058582,-0.014136,0.998183
0.072480,0.475845,-0.233352,0.180568,-0.887140,-0.424708
0.068727,0.063965,-0.698500,0.127460,0.329230,0.935608
-0.536469,-0.279754,0.192200,-0.095735,-0.172306,0.980380
-0.520455,0.021422,0.328268,-0.263280,0.428955,0.864107
-0.494464,0.831623,-0.712415,0.054388,-0.135881,0.989231
-0.158143,-0.087784,-0.522470,0.296771,0.938883,-0.174432
-0.195751,-0.215415,-0.214767,-0.608002,0.765799,0.209491
0.650407,0.105685,0.445132,0.780283,0.527472,-0.336052
-0.028828,0.527601,0.254798,0.506608,0.301403,-0.807777
-0.120802,0.625121,-0.421901,-0.303232,0.045817,0.951815
-0.447059,0.745937,-0.723424,-0.109818,0.077543,0.990922
0.910042,-0.239308,-0.338338,-0.470019,0.488325,0.735269
-0.122176,0.248970,0.680350,0.915595,-0.370820,0.155492
0.313717,0.027863,0.516290,-0.344597,0.774068,-0.531104
-0.529973,-0.148154,0.350720,0.364821,-0.535144,-0.761923
-0.483483,0.274137,-0.234290,0.187944,-0.075829,-0.979248
-0.426559,-0.138866,0.079821,-0.245566,0.608761,0.754392
0.203991,-0.384166,0.011135,-0.454229,-0.564552,-0.689171
-0.430676,0.218561,0.172814,0.915190,0.400711,0.043104
-0.087031,0.901131,0.271025,0.838880,-0.047446,-0.542244
-0.052349,0.442738,0.068606,0.943345,0.281343,-0.175917
0.248101,0.387836,0.489145,0.310745,0.930730,-0.192818
-0.098470,0.796944,-0.714155,0.140810,0.032047,-0.989518
0.005765,0.764587,-0.711225,-0.177254,0.242460,0.953831
0.248559,0.440416,-0.307897,-0.125933,-0.817976,0.561298
0.609955,0.262153,0.300299,-0.175841,0.983719,0.037110
0.192367,-0.102988,0.238296,0.629921,-0.238182,0.739235
-0.224401,-0.929294,0.112413,-0.158044,-0.524018,0.836915
-0.325156,-0.312786,0.362920,0.051337,0.603297,0.795862
-0.393061,0.040222,0.610702,-0.202537,0.978271,-0.044316
-0.424637,0.163359,0.473559,0.966822,0.064074,-0.247284
0.232908,-0.460490,0.024135,0.342568,-0.088226,0.935341
0.224122,-0.506854,0.026058,-0.007819,-0.273987,0.961701
-0.245174,0.019999,0.723768,-0.585597,-0.795578,-0.155346
0.114396,-0.028537,-0.944017,0.195426,0.108795,0.974665
0.006770,0.090330,0.704679,0.853811,-0.037805,-0.519208
0.065889,-0.007340,0.687788,-0.817330,0.337041,0.467306
-0.288642,0.621227,-0.304991,-0.815972,0.421656,-0.395470
0.338796,0.074751,0.271140,0.794219,-0.607598,0.006391
0.404227,0.099768,0.206322,-0.008215,-0.204570,0.978818
0.166471,-0.462512,0.177323,-0.638610,-0.476506,-0.604251
0.366155,0.166279,0.286200,-0.447485,0.889395,0.093455
0.303651,-0.452101,-0.228065,0.479326,-0.574352,0.663601
-0.702572,0.662048,-0.377888,-0.100125,0.472238,0.875766
-0.089779,0.656580,-0.424602,0.263079,-0.051438,-0.963402
-0.353162,0.088757,0.661399,0.775579,0.035602,0.630246
-0.050059,0.010711,0.705709,-0.313280,-0.923026,-0.223335
0.303377,0.128829,0.293524,0.530988,-0.251772,-0.809112
-0.773862,-0.147779,0.205200,-0.336898,0.161251,-0.927630
-0.130868,0.105760,0.460971,-0.429458,0.311300,0.847737
-0.239862,-0.024043,0.673758,0.768701,-0.549377,0.327540
0.286447,0.709160,0.288420,-0.109458,-0.748248,0.654327
-0.395899,0.752977,0.139077,-0.728263,0.479396,0.489706
0.823101,0.095649,-0.088289,-0.394447,-0.223014,0.891446
-0.945640,0.100967,-0.717062,-0.548168,0.011879,0.836284
0.438088,-0.772751,-0.925867,-0.125473,0.136717,0.982632
-0.355268,0.361321,0.500521,-0.636286,0.608500,-0.474202
0.267595,0.439967,0.537713,0.879683,0.185874,-0.437731
0.020500,0.418545,0.312910,-0.068759,-0.083061,0.994170
-0.413656,0.578234,-0.400455,0.343266,0.528959,0.776126
0.408624,-0.736574,0.014431,-0.030826,0.037970,0.998803
-0.380527,0.606771,-0.977867,-0.125026,0.272160,0.954095
0.129220,-0.114898,0.759381,-0.066537,0.996029,-0.059160
-0.272901,0.607370,-0.016399,-0.161389,-0.008232,0.986856
0.310058,0.028163,0.099390,0.523329,0.008206,0.852091
-0.603096,0.000749,-0.528787,-0.542639,-0.279125,-0.792233
-0.128583,0.276533,0.571358,-0.565520,-0.818052,-0.104773
-0.782464,0.309864,-0.644897,0.762842,-0.641323,-0.082326
-0.609865,-0.227548,-0.181076,-0.179303,-0.756603,0.628810
0.322687,0.068834,0.198036,0.115733,-0.343202,0.932104
-0.005306,-0.062168,0.315336,0.738846,-0.002482,0.673869
0.257803,0.735375,0.297644,-0.204342,-0.580160,0.788453
0.743845,-0.458992,0.150613,-0.722520,-0.663804,-0.193209
-0.258624,0.435398,-0.970154,-0.161855,0.187130,0.968909
-0.718586,0.011160,0.026676,0.124694,0.107901,0.986311
-0.107073,0.408583,-0.653937,0.918538,-0.287502,-0.271350
-0.205091,0.262527,0.390866,0.343575,0.210239,-0.915290
-0.090969,0.637405,0.279288,-0.118454,-0.488548,0.864459
-0.587355,-0.274287,-0.293844,-0.729688,0.421161,0.538683
0.061136,0.380796,0.253791,-0.256684,0.222030,-0.940647
0.127025,0.598158,-0.337926,-0.748947,0.643477,0.158162
-0.688752,-0.133923,0.025096,-0.457939,-0.236158,-0.857042
0.653244,-0.013407,0.436023,-0.282838,-0.840514,0.462103
-0.215519,0.087259,0.219299,-0.349203,-0.395646,-0.849424
-0.666605,-0.005018,0.509538,0.848142,-0.190147,0.494469
0.070285,0.519362,0.290068,-0.246287,0.847138,0.470851
-0.510568,-0.131001,0.041095,0.993067,0.091627,0.073631
-0.140844,-0.056175,-0.082384,0.593755,0.773111,0.223056
0.081356,0.018051,0.320715,0.196265,0.494628,-0.846654
-0.372104,0.232791,-0.252372,-0.625998,-0.770081,-0.122889
0.353710,-0.758969,-0.924127,-0.027960,0.195011,0.980402
0.083373,0.916111,-0.409038,-0.751803,0.019552,0.659098
0.687105,0.307543,0.054805,-0.576730,-0.027110,0.816485
-0.465084,0.790802,0.241454,-0.878715,0.153566,0.451971
-0.016657,-0.541907,0.208885,0.669881,0.010896,-0.742388
0.029197,0.235488,0.647025,0.180892,0.801912,0.569399
0.847806,0.329938,0.087534,-0.418499,-0.022160,0.907947
0.280867,0.035877,0.205406,-0.567115,-0.044980,-0.822410
-0.308684,0.641900,-0.978302,0.050624,0.303606,0.951452
-0.841494,0.671036,0.074465,-0.232468,-0.811375,0.536311
0.243068,0.350011,0.320371,-0.105839,-0.295366,0.949503
0.016657,0.006441,-0.103807,0.163314,0.884137,0.437757
0.398279,-0.030485,0.666342,0.425357,-0.881869,-0.203415
0.060309,0.193993,0.003330,0.198150,0.786236,0.585294
0.299261,-0.569321,-0.180390,0.717702,0.694721,0.047612
-0.331015,0.784361,-0.725828,-0.044555,-0.534909,0.843734
-0.135442,0.934012,0.240882,-0.125691,0.940662,0.315208
0.711174,0.272414,0.066935,-0.639332,-0.150177,0.754123
0.228244,0.064789,-0.229232,0.736594,0.101118,-0.668734
-0.040541,0.030934,0.706533,0.786182,-0.535024,-0.309303
-0.363960,0.390158,0.008846,0.455848,0.863436,0.216057
-0.096186,-0.476069,-0.936738,-0.026171,0.179201,0.983464
-0.676212,0.033031,0.507067,0.863421,-0.240805,0.443302
0.231260,-0.229870,0.499971,0.800944,0.506375,-0.319490
0.177911,0.632762,-0.439777,-0.488741,-0.240605,-0.838595
0.049054,-0.161111,0.355412,0.880710,-0.461992,0.104466
-0.011897,-0.005093,0.520937,-0.332048,0.534963,0.776891
0.800311,-0.378998,-0.300024,-0.174876,0.373193,0.911123
0.017662,0.044416,-0.944932,0.102170,0.353333,0.929902
-0.686099,0.594637,0.052379,-0.100531,-0.787222,0.608420
0.176352,-0.196839,0.499514,-0.559855,-0.487025,0.670350
-0.078702,0.531945,0.237655,-0.703555,-0.122853,0.699941
-0.325156,0.164782,0.537050,0.376500,0.923234,-0.076718
-0.453465,0.584226,-0.445705,0.979611,0.188312,0.070005
0.024253,0.913490,-0.424167,0.722572,0.059491,-0.688732
0.497576,0.195791,0.105181,0.177029,0.616864,-0.766903
0.501966,-0.453524,0.198425,-0.380613,-0.111595,0.917976
0.155305,-0.023893,0.773755,0.729034,-0.678879,0.087364
0.466916,-0.293386,-0.044963,-0.245716,-0.412848,-0.877029
0.752447,-0.052356,-0.086184,0.441251,0.108488,-0.890802
-0.492174,0.003820,0.481844,0.780582,0.003911,0.625041
0.550931,-0.305745,0.574059,-0.525139,-0.526987,0.668217
0.149815,0.109879,0.353146,0.142916,0.824018,0.548241
0.178274,-0.115797,0.675681,-0.618802,0.742960,0.255136
-0.504714,0.515018,-0.752148,-0.362233,-0.033256,0.931494
-0.435982,0.315856,0.121591,-0.643435,0.254325,-0.722019
0.112932,-0.297880,0.459712,-0.554858,0.275176,0.785119
0.317470,0.365890,0.196777,-0.665200,0.365135,0.651295
-0.333484,0.671934,-0.021801,-0.501213,-0.239593,0.831493
0.889174,0.247622,-0.197304,0.409039,-0.566155,0.715650
-0.478629,-0.235713,0.051257,0.846719,0.274096,-0.456003
0.125467,-0.352858,0.022052,0.481998,0.288375,0.827356
-0.016383,-0.152723,-0.934861,-0.308860,0.032384,-0.950556
-0.407886,0.320200,-0.247359,-0.637214,-0.760756,-0.123321
-0.204448,-0.062093,0.213485,-0.162528,-0.338641,0.926772
0.868400,-0.224028,-0.337400,-0.418498,0.434590,0.797490
0.613345,-0.135645,-0.267958,-0.017540,-0.497234,0.867439
0.307952,0.016928,-0.133996,-0.672188,0.616846,-0.409469
0.291480,0.291214,0.157273,0.835381,0.194693,0.514036
-0.876360,0.614710,0.097376,-0.152234,0.980852,-0.121465
-0.495654,0.636807,-0.468478,-0.172358,0.972539,0.156396
-0.242521,0.519362,0.469210,0.002491,-0.888471,0.458927
-0.524298,0.159988,0.333692,-0.339625,0.505868,-0.792939
0.119339,0.192420,0.650275,0.300667,-0.915129,0.268586
0.681430,0.209647,0.147958,-0.161220,-0.486838,0.858485
0.142402,-0.764887,-0.269652,0.456062,0.333334,0.825164
-0.293311,0.181559,0.499239,0.264593,0.885601,0.381708
-0.179737,-0.330987,-0.939027,-0.082161,-0.072871,-0.993951
0.755379,-0.246349,0.084513,0.100964,0.403341,0.909463
0.687289,-0.399296,0.207855,-0.379254,-0.127810,0.916423
-0.106709,0.087933,0.610290,0.532759,0.627137,0.568214
0.200969,0.421841,0.292334,0.966583,0.085634,-0.241630
0.071201,-0.035952,-0.013653,0.296023,-0.816913,0.494999
-0.122355,0.901206,0.243423,-0.675058,0.217032,0.705120
-0.188797,0.769231,-0.719625,-0.097368,-0.078721,0.992130
-0.033587,0.089582,0.508920,0.492235,0.516140,0.700931
-0.168482,0.505056,-0.980591,0.005525,0.267419,0.963565
-0.532257,-0.373380,-0.590515,0.875729,-0.223786,-0.427807
-0.634208,0.003371,0.479487,-0.455677,0.888624,-0.052019
-0.433882,0.550595,-0.427349,0.951363,0.160615,-0.262890
0.297886,-0.409033,-0.017063,-0.536548,-0.346057,-0.769650
-0.547087,0.308292,0.181534,-0.386190,-0.918827,-0.081326
-0.152741,-0.094524,0.645972,-0.566916,-0.798449,0.202697
-0.119517,0.870122,-0.450534,-0.349843,0.367298,0.861802
0.149172,-0.428432,-0.935090,0.020123,0.051968,0.998446
-0.085020,-0.416898,0.458842,0.368276,0.927012,0.070862
-0.921755,0.635084,0.100237,0.926953,-0.199294,0.317869
-0.939233,-0.001498,-0.717634,0.368585,-0.064134,-0.927379
0.782922,0.182383,0.069728,0.753277,0.062962,-0.654683
0.503983,0.096247,0.082934,0.920697,0.088402,-0.380134
0.101493,-0.582204,0.217102,-0.500814,-0.090124,-0.860850
-0.030018,-0.122313,-0.426616,-0.122101,0.991852,-0.036353
0.525030,0.099618,0.349393,0.429207,0.889929,-0.154295
-0.389218,0.840611,0.231017,-0.095420,0.932486,-0.348375
-0.820994,0.012283,-0.600792,0.367711,-0.602011,-0.708781
0.052076,0.544528,-0.316961,-0.772220,0.546273,0.324441
0.151183,0.517265,0.307096,0.755824,0.129263,-0.641889
-0.049512,0.020448,-0.425334,0.404119,-0.088744,-0.910391
0.046764,-0.020074,0.733999,-0.033862,-0.560879,0.827205
0.848538,-0.381994,-0.303755,-0.155421,0.412040,0.897812
0.700561,0.353157,-0.160226,0.106919,-0.472939,0.874584
0.072022,-0.382368,-0.329297,0.992201,0.065813,-0.105861
0.080898,-0.402292,-0.941636,0.052001,0.096590,0.993965
-0.399284,0.631263,-0.485232,0.764259,0.162203,-0.624178
-0.354442,0.292038,0.437854,0.908147,-0.033645,-0.417298
0.274276,0.784286,0.304830,-0.634962,-0.431054,0.641105
-0.188892,0.494645,0.401051,-0.364313,0.609069,-0.704493
0.202253,-0.041121,0.271208,0.790134,-0.264407,0.552971
-0.779079,0.099843,-0.629585,-0.326235,0.516040,0.792006
0.397821,-0.358774,0.171212,0.798093,0.329593,-0.504398
0.043837,0.096472,0.704473,0.821990,0.234226,-0.519106
0.055824,0.447007,0.309065,-0.038292,-0.056855,0.997648
-0.815046,0.625197,0.355092,-0.691658,0.089654,0.716639
0.132700,-0.149877,0.616172,-0.289316,0.950492,-0.113406
-0.084193,0.242903,0.531694,0.816930,0.451337,0.359056
0.599705,0.074901,0.014248,0.936643,-0.331509,0.113145
0.696349,-0.082990,-0.567536,0.591528,0.556817,-0.583137
0.570788,0.058497,0.385235,0.575332,-0.020542,-0.817662
-0.359295,0.201558,0.267363,0.039767,-0.445744,0.894277
-0.214329,0.140664,0.666136,0.861804,-0.024652,-0.506642
-0.059304,-0.103139,-0.620658,-0.707562,-0.146047,-0.691394
-0.244990,0.001872,0.234153,0.104916,-0.354391,0.929193
-0.179463,0.362295,-0.261893,-0.358255,0.759804,0.542541
0.586071,-0.709160,-0.187050,-0.208725,-0.085909,-0.974194
0.300355,-0.036702,-0.188195,0.408884,0.835496,0.367097
-0.074402,0.252640,-0.963677,-0.060050,-0.086757,-0.994418
0.594488,0.623100,-0.009922,0.716404,0.395809,-0.574544
0.173789,-0.396749,-0.940583,-0.103976,-0.065627,-0.992412
0.334948,-0.596135,-0.930147,0.000155,0.119966,0.992778
0.129862,0.810352,-0.413753,-0.065220,-0.179658,0.981565
-0.048959,-0.008688,0.665198,0.577443,-0.761024,-0.295637
-0.713922,0.633735,-0.404118,-0.445083,-0.886112,-0.129252
-0.323329,-0.108981,0.103144,-0.016414,0.419860,0.907440
-0.156037,-0.129653,0.568703,0.980300,0.162140,-0.112790
-0.193372,-0.394577,-0.938249,0.041718,0.049009,0.997927
0.387387,0.442439,0.324537,0.007465,-0.585944,0.810317
-0.277297,0.658153,-0.016514,-0.016456,-0.074471,0.997087
-0.103503,-0.120815,0.754323,-0.602191,0.797595,-0.034745
-0.735790,0.562055,0.382054,0.390728,-0.346074,-0.852974
-0.014824,-0.679350,0.223671,0.279651,-0.363906,-0.888464
-0.171046,0.555239,-0.978165,0.018349,0.182731,0.982992
-0.570056,-0.146206,0.032489,0.164155,-0.207153,0.964438
-0.197125,0.426710,-0.005596,0.726576,-0.223727,-0.649641
0.798937,-0.167853,-0.351178,-0.545046,0.175919,0.819743
0.272080,0.036851,0.089480,-0.432888,-0.797736,-0.419792
0.507183,0.103438,0.428790,-0.431654,0.744010,0.510024
0.372383,0.304696,0.250770,-0.219458,0.893052,0.392806
0.521829,-0.389109,0.076960,-0.062957,-0.841381,0.536764
-0.239130,-0.038649,-0.282103,0.663966,0.747614,0.014920
0.195662,0.187926,0.013515,0.788385,0.525431,-0.319955
-0.188613,0.021422,0.569138,0.560183,-0.134341,0.817403
-0.130683,0.014156,-0.113649,0.256253,-0.166215,0.952212
0.020868,-0.258857,-0.143357,-0.812470,0.001298,-0.583002
-0.253502,-0.441166,0.186066,0.218162,-0.264066,-0.939507
-0.236845,0.812599,0.184372,0.756102,0.472000,-0.453349
-0.029928,0.121264,0.541696,-0.197892,0.020945,0.980000
0.126019,0.261029,-0.015690,-0.042414,0.748096,0.662234
-0.394709,0.182458,0.665381,0.959250,0.094012,0.266461
0.033950,-0.340349,-0.502146,0.853726,0.159176,-0.495797
0.690859,-0.040297,-0.099939,0.227278,-0.170306,-0.958822
-0.052070,0.791701,-0.417461,0.267567,-0.357155,-0.894901
0.409171,0.565351,-0.237060,-0.334791,0.896984,-0.288677
-0.462888,0.325219,0.343442,-0.650867,0.220759,-0.726387
0.569140,0.375702,-0.678633,-0.700266,-0.327717,0.634216
0.756569,0.335705,0.082407,-0.429184,0.015653,0.903081
-0.821357,0.536589,0.140886,0.080743,0.151139,0.985209
0.104788,-0.474196,0.407368,0.135093,-0.948796,0.285547
0.243253,0.684368,-0.013607,0.420521,0.053610,-0.905697
-0.302919,-0.024717,-0.718527,-0.354415,-0.918998,-0.172720
-0.305025,-0.065164,0.430164,0.982067,0.058268,0.179303
-0.121349,-0.100741,-0.592873,-0.629543,-0.774350,-0.063698
0.164181,-0.351434,0.433116,-0.697029,0.597285,-0.396738
-0.389218,0.176316,0.116350,-0.625021,0.229110,-0.746229
0.640157,-0.370534,-0.750890,0.421230,0.575002,-0.701383
0.655440,-0.309790,0.137933,0.960501,-0.091213,0.262902
0.060035,0.473373,0.109827,0.923496,-0.066243,-0.377844
-0.347303,-0.320126,-0.940080,-0.195637,0.062948,0.978654
0.268969,0.065164,0.541238,0.646998,0.632591,-0.425701
0.269427,-0.205977,-0.729993,-0.080549,-0.386619,0.918715
-0.114027,-0.511347,-0.659293,0.931127,0.109359,-0.347913
0.430128,-0.791102,0.084055,0.892362,-0.415030,0.177313
0.803238,-0.411355,0.096941,-0.090870,0.375116,0.922513
0.163908,-0.026440,-0.016994,0.359383,0.057638,-0.931408
0.263931,-0.401693,0.019878,0.693164,0.280221,0.664078
-0.152926,0.543106,-0.979721,-0.074918,0.205918,0.975697
-0.415482,0.310763,0.385670,-0.647433,0.628349,-0.431287
0.155211,0.223204,0.047526,0.479144,0.838059,0.260918
0.316007,0.125758,0.024295,-0.409535,0.864238,-0.292188
-0.036151,0.958281,0.214744,-0.453538,0.879463,0.144387
0.123087,0.447607,0.309751,0.088032,0.106764,0.990380
-0.372746,0.404090,-0.408764,0.754596,0.497037,0.428415
0.376405,-0.414276,0.473193,-0.154788,-0.745488,0.648296
-0.134348,-0.320350,0.505785,0.796413,0.146460,0.586750
0.217625,0.046588,-0.740361,0.120609,0.353901,0.927474
-0.204353,0.454497,0.439227,0.276254,0.684315,-0.674831
0.391872,0.025242,0.095865,0.262734,-0.114007,0.958109
-0.375036,0.037750,0.631484,-0.093820,0.995589,-0.000168
-0.286631,0.732005,-0.729444,-0.089165,0.129418,0.987573
-0.114580,-0.325744,0.570626,0.742367,-0.664316,0.087034
-0.205912,-0.035203,0.720129,0.778242,0.616127,-0.121352
0.503430,-0.398697,0.140657,-0.179470,0.977894,0.107305
-0.329552,0.754850,-0.722234,0.096893,-0.144458,0.984756
-0.198958,0.157441,0.544831,-0.527032,0.718320,-0.454151
-0.350783,0.147779,0.012211,-0.636832,0.527097,0.562685
0.337148,-0.482585,0.371182,0.004002,0.381293,0.924446
0.446511,-0.255636,0.567399,0.602551,0.798062,0.005477
0.087489,0.064640,-0.949716,0.094701,0.324581,0.941105
-0.332847,0.215714,-0.016216,0.603018,-0.186131,-0.775709
-0.106067,0.700022,-0.420780,-0.684419,0.008214,0.729043
0.417588,0.056850,-0.133401,-0.061059,-0.706200,0.705375
0.392972,-0.718672,0.018253,-0.030826,0.037970,0.998803
-0.112474,-0.255786,0.545816,0.905089,-0.370014,0.209532
0.760870,-0.112576,-0.376378,-0.595727,0.403042,0.694742
-0.948293,0.022620,-0.456279,-0.777858,0.621088,-0.095850
0.266037,0.164033,0.380726,-0.418028,0.821980,0.386782
-0.229612,0.249045,0.426685,0.336072,0.103977,-0.936079
-0.274365,0.106958,0.398762,0.885005,0.454532,0.100825
-0.386291,-0.143435,0.343557,0.538694,-0.334253,0.773359
-0.259724,0.139915,-0.956490,-0.028855,0.203765,0.978595
0.206186,0.331511,0.511736,0.335412,0.668580,-0.663701
0.792898,-0.096397,-0.084467,0.369330,0.505743,-0.779628
-0.658735,-0.304472,0.206253,-0.305340,-0.804421,0.509582
-0.262741,-0.136169,-0.945344,-0.104463,-0.076184,0.991607
0.482841,-0.182009,-0.279471,0.114151,0.931192,-0.346194
