0.346265,-0.231553,0.377659,0.773577,0.507802,-0.379098
0.375817,-0.255698,0.369162,0.541739,0.597220,-0.591478
0.405126,-0.278073,0.371695,0.577360,0.786131,-0.220578
0.432874,-0.302571,0.354974,-0.603825,0.787486,-0.123534
-0.528388,0.421249,0.253016,-0.142479,-0.268674,-0.952635
-0.496674,0.397104,0.253833,0.235502,0.197932,0.951505
-0.467364,0.373899,0.252090,-0.138735,0.160226,0.977282
-0.529950,0.384793,0.044144,0.328528,-0.355562,0.875012
-0.402255,0.345137,0.370088,0.973331,-0.200735,0.111051
-0.497997,0.360288,0.044498,0.333910,-0.307217,0.891135
-0.381832,0.322763,0.334849,-0.545504,0.808499,0.220803
-0.363813,0.301580,0.293374,-0.602629,0.733839,0.313559
-0.330419,0.277197,0.302606,0.744693,-0.113290,-0.657722
-0.292216,0.252807,0.329566,0.913762,-0.067048,0.400679
-0.270235,0.229962,0.296261,-0.284369,0.389743,-0.875919
-0.245005,0.207241,0.278696,0.975223,-0.080336,0.206122
-0.222782,0.184628,0.247869,0.915847,0.395641,0.068508
-0.197076,0.160368,0.224204,0.834201,0.258707,0.487010
-0.171248,0.136693,0.203616,0.935171,0.170922,0.310226
-0.127282,0.112902,0.259388,0.372404,0.214306,0.902989
0.023839,0.097037,0.820457,0.696192,-0.204525,-0.688103
-0.105297,0.087927,0.215708,0.994363,-0.053892,-0.091312
-0.069740,0.064013,0.234525,0.853850,-0.224282,-0.469720
0.021558,0.048863,0.543177,0.550228,0.088981,-0.830260
-0.027936,0.042354,0.294300,0.872109,-0.446657,0.199810
0.046663,0.026965,0.528444,-0.556854,0.684393,-0.470659
-0.508328,0.469899,0.240734,0.357163,0.398104,0.844954
-0.474333,0.445040,0.249449,-0.587982,-0.372391,-0.718054
-0.504482,0.431898,0.046513,0.547102,-0.504822,0.667708
-0.383034,0.392011,0.346260,0.756254,-0.328649,0.565747
-0.468566,0.406215,0.056970,0.976729,0.031425,0.212160
-0.362131,0.370467,0.317012,0.543854,-0.833501,-0.097456
-0.330299,0.347384,0.324365,-0.194814,0.975123,0.105747
-0.305432,0.324424,0.302715,-0.504416,0.861535,0.057642
-0.272515,0.300988,0.313690,-0.038970,0.939719,0.339719
-0.243447,0.277313,0.306637,0.797901,-0.140882,0.586094
-0.226386,0.254230,0.251409,0.952451,0.304551,-0.009275
-0.197677,0.230317,0.240925,0.923525,0.337751,0.181729
-0.173892,0.207003,0.213938,0.636841,0.513440,0.575163
-0.226268,0.207949,-0.006536,0.064187,0.761654,0.644797
-0.143618,0.183920,0.215190,0.787923,0.489924,0.373030
-0.113828,0.159537,0.207402,0.869462,0.097929,0.484196
-0.075628,0.136454,0.244002,-0.556795,0.391117,0.732807
-0.042952,0.112541,0.250565,-0.446668,0.272895,0.852066
-0.000427,0.089819,0.307535,0.938913,-0.268929,-0.214756
0.073814,0.072538,0.530814,-0.188560,0.808541,-0.557411
0.106606,0.051702,0.556521,0.832094,0.542222,-0.116684
0.134479,0.030274,0.556439,0.980126,-0.188426,-0.062041
0.157542,0.006252,0.522589,0.034478,0.890425,0.453822
0.195382,-0.012452,0.581493,-0.680188,0.638110,0.360778
0.211359,-0.039089,0.500041,0.119254,0.971940,-0.202758
0.253643,-0.056371,0.586939,-0.453120,0.593907,0.664798
0.213881,-0.072937,0.322431,0.338369,-0.051287,0.939615
0.238029,-0.099574,0.277334,0.672065,0.144662,0.726224
0.263494,-0.125019,0.244819,-0.561264,-0.387352,-0.731396
0.251964,-0.173792,-0.077830,0.988299,-0.112603,0.102892
0.354191,-0.151888,0.485580,0.935081,-0.256193,-0.244925
0.368726,-0.184557,0.366003,0.920759,-0.327340,0.212254
0.428431,-0.232500,0.355519,0.916411,0.300457,0.264417
0.491259,-0.274403,0.392718,-0.722132,0.601440,0.341754
-0.477093,0.504108,0.242314,0.766240,-0.543126,-0.343351
-0.448143,0.480079,0.233381,-0.020337,0.044227,0.998814
-0.499680,0.489905,0.067754,0.821509,-0.438600,0.364352
-0.380871,0.450248,0.355110,-0.880888,0.465841,0.083843
-0.478655,0.467645,0.033223,0.684750,-0.375851,0.624383
-0.346514,0.425742,0.367746,-0.739935,0.672472,0.016674
-0.443219,0.441724,0.041774,0.839116,-0.237582,0.489326
-0.329935,0.404437,0.319245,0.812004,-0.579641,-0.068307
-0.308192,0.381831,0.286893,0.976046,0.208447,0.062329
-0.280085,0.359226,0.280575,0.948076,0.317875,-0.010353
-0.245489,0.335666,0.299039,0.699144,0.654389,0.288052
-0.231914,0.313176,0.233027,0.918360,-0.118455,0.377603
-0.302067,0.318739,-0.036437,0.155071,0.035272,0.987273
-0.203682,0.290093,0.224912,0.790527,-0.135537,0.597241
-0.174731,0.265833,0.214891,0.870421,0.448881,-0.202170
-0.143137,0.241565,0.214809,0.768287,0.508450,0.388861
-0.113469,0.217059,0.207238,0.486954,0.627465,0.607589
-0.082835,0.193623,0.208164,0.754670,0.393593,0.524936
-0.002348,0.147465,0.297432,-0.771321,0.636442,0.002558
0.033330,0.125444,0.327251,0.711704,-0.063824,-0.699575
0.108890,0.108517,0.557093,-0.736633,0.675893,0.023230
0.103124,0.079640,0.372158,-0.609173,0.718901,0.334797
0.141686,0.058096,0.417990,0.738710,-0.670751,-0.066334
0.194180,0.042115,0.554097,-0.111297,0.692002,0.713264
0.223131,0.020456,0.558182,-0.876034,0.481652,0.023995
0.225173,-0.011621,0.389423,-0.068884,-0.721269,0.689222
0.243554,-0.038374,0.318728,-0.606486,-0.162876,-0.778232
0.273824,-0.062403,0.314398,0.577002,-0.620361,-0.531244
0.324159,-0.075191,0.459846,0.841004,-0.244155,-0.482805
0.407769,-0.144432,0.433267,0.735998,0.287405,0.612948
0.438161,-0.167160,0.438496,0.705432,0.389201,0.592358
0.463867,-0.192252,0.409902,0.603418,0.793594,-0.078071
0.488374,-0.221728,0.350208,0.801010,-0.408271,-0.437832
0.521170,-0.242087,0.378230,-0.646236,0.683879,0.338657
-0.439135,0.528253,0.247951,0.642944,0.468079,-0.606238
-0.404535,0.504224,0.262003,-0.602475,0.127217,0.787933
-0.311316,0.451903,0.369326,-0.631585,0.770352,-0.087507
-0.311800,0.433675,0.266142,-0.598108,0.496631,-0.628987
-0.274198,0.408938,0.290079,0.987608,0.044944,0.150369
-0.251615,0.385971,0.259252,-0.208821,0.945584,0.249530
-0.228790,0.362657,0.227744,0.797124,-0.201583,0.569173
-0.266631,0.344191,-0.033550,0.178764,-0.109889,0.977736
-0.237317,0.319454,-0.044089,0.129377,-0.015843,0.991469
0.032490,0.173740,0.296724,-0.908580,0.408691,-0.086339
0.069008,0.151605,0.330438,-0.490285,0.407463,0.770451
0.140605,0.134677,0.540699,-0.319846,0.947287,-0.018613
0.101441,0.128283,0.340132,0.992734,0.061209,-0.103603
0.172437,0.113848,0.560796,-0.017479,-0.778134,0.627855
0.177602,0.085795,0.430108,-0.436297,0.849934,0.295392
0.211238,0.063774,0.450968,0.277654,-0.953351,-0.118454
0.265898,0.048978,0.600692,0.890861,-0.103528,-0.442322
0.294849,0.028620,0.610686,0.923732,0.030260,-0.381842
0.282234,-0.009852,0.347267,-0.171824,-0.546328,0.819758
0.309384,-0.035181,0.322350,-0.572001,0.743598,0.346234
0.360199,-0.046545,0.475150,0.971471,0.235551,0.027572
0.530658,-0.186573,0.428937,0.312655,-0.833243,0.456019
-0.453550,0.586960,0.226328,-0.380145,0.341229,0.859682
-0.414027,0.561276,0.251927,0.955607,-0.247737,-0.159502
-0.287292,0.484573,0.365567,-0.782838,0.620982,0.039312
-0.286090,0.465875,0.269110,0.313542,-0.184335,0.931510
-0.252697,0.441608,0.276844,0.869834,-0.265085,0.416076
-0.230231,0.419356,0.250075,-0.711382,0.696917,-0.090793
-0.312280,0.427758,-0.045614,-0.321182,0.449128,0.833742
-0.201882,0.395327,0.238991,0.617909,-0.476195,0.625642
-0.274198,0.401482,-0.028757,0.280975,-0.243888,0.928209
-0.243447,0.376030,-0.038207,0.334447,-0.235167,0.912602
-0.211971,0.350224,-0.045778,0.239292,-0.221004,0.945461
-0.179897,0.325248,-0.048092,0.120323,-0.037227,0.992037
0.098079,0.183212,0.342883,-0.640403,0.684283,0.348771
0.131594,0.161314,0.363743,0.166764,-0.564360,-0.808509
0.200427,0.146750,0.572615,0.830014,-0.445206,-0.335959
0.194543,0.116096,0.382697,-0.359262,0.920735,0.152243
0.227218,0.094667,0.402794,-0.190713,0.953276,0.234295
0.257969,0.071707,0.406988,0.580325,0.036109,0.813584
0.281395,0.046024,0.365949,0.100000,0.979272,0.176142
0.324042,0.027789,0.444187,-0.550336,-0.714812,-0.431479
0.407649,-0.041452,0.418425,0.834577,0.548714,0.048923
0.581953,-0.180895,0.392065,-0.809197,0.401067,0.429355
-0.414628,0.608034,0.251981,0.957153,-0.289431,-0.009382
-0.282006,0.510971,0.278969,0.301349,0.149964,0.941647
-0.253415,0.487535,0.270989,-0.497638,0.128551,-0.857806
-0.225667,0.464568,0.263664,0.715483,-0.345132,0.607428
-0.198278,0.441724,0.254732,0.947926,-0.261738,0.181463
-0.280206,0.449179,-0.039732,-0.166197,0.286536,0.943544
-0.245005,0.423380,-0.033006,0.149807,0.454837,0.877885
-0.215094,0.398643,-0.041611,0.230023,-0.121839,0.965528
-0.084756,0.346322,0.213121,-0.405766,0.170260,-0.897979
0.050388,0.251983,0.265243,0.221123,-0.970840,0.092595
0.081380,0.228900,0.270036,0.401286,0.139606,-0.905251
0.124027,0.206764,0.326434,-0.177635,0.963626,0.199676
0.159826,0.183920,0.351761,-0.413557,0.736366,0.535478
0.191900,0.160484,0.358677,-0.001886,0.613062,0.790033
0.220729,0.137755,0.355709,-0.581447,0.811533,0.057742
0.254724,0.116565,0.383296,-0.403076,-0.376605,0.834086
0.286201,0.093844,0.390376,-0.386944,0.911277,-0.140887
0.323198,0.074308,0.438169,0.317727,0.912602,0.257309
0.615108,-0.156627,0.408567,0.857700,-0.416465,-0.301509
0.645383,-0.176747,0.424743,-0.914472,0.403068,0.035748
0.516845,0.500553,0.340513,-0.580495,-0.813295,0.039695
0.550121,0.477594,0.356553,0.629403,0.537629,0.561077
0.788815,0.292347,0.353612,0.375720,0.907014,0.190159
1.000000,0.134207,0.382315,0.512618,0.845504,-0.149485
0.442846,0.489189,0.351815,-0.183270,0.604098,0.775550
0.502789,0.444686,0.362000,-0.178056,-0.570922,-0.801464
0.532341,0.421126,0.357670,-0.687867,-0.336859,-0.642935
0.588922,0.373783,0.338172,0.814502,0.177271,0.552414
0.708210,0.280744,0.334413,-0.468826,0.218567,0.855822
0.740402,0.258254,0.347948,-0.655968,0.413187,0.631651
0.768993,0.235056,0.341875,-0.311594,0.397851,0.862916
0.951590,0.097391,0.361510,-0.416643,-0.823430,0.385190
0.407890,0.512395,0.330193,-0.483369,0.783438,0.390615
0.404525,0.442316,0.364723,0.442601,-0.707668,-0.550736
0.525856,0.350224,0.372893,0.148376,-0.899090,0.411851
0.552284,0.326556,0.356227,0.939879,0.334693,-0.067876
0.674934,0.236472,0.380491,-0.343948,-0.915484,-0.208780
0.791338,0.142133,0.356635,-0.228378,0.052278,0.972168
0.300616,0.441962,0.311239,-0.687431,0.232244,0.688115
0.374614,0.396866,0.374472,-0.276838,0.707838,0.649866
-0.374386,0.807838,0.227036,-0.482569,0.834980,0.264452
0.227698,0.355555,0.287438,0.418172,0.206494,-0.884586
0.333170,0.288323,0.361074,-0.505108,0.412403,-0.758149
0.539431,0.125090,0.339043,0.042146,-0.250513,0.967195
0.230221,0.293409,0.294055,-0.268814,0.005878,0.963174
0.304821,0.250090,0.367337,0.422222,-0.263810,-0.867256
0.325240,0.225115,0.319436,0.503664,0.812227,-0.294295
0.637816,0.001513,0.407723,0.832242,-0.165084,0.529264
-0.397211,0.767005,0.241960,0.948378,-0.316887,-0.012734
0.200790,0.317554,0.300673,-0.420200,0.676503,0.604793
-0.442856,0.732796,0.218240,0.950717,-0.305513,-0.052903
-0.203322,0.498184,-0.040467,-0.000583,0.458572,0.888657
-0.167164,0.472262,-0.030201,-0.261721,-0.138092,-0.955213
-0.182540,0.448233,-0.216661,0.933394,0.350387,0.077491
0.093273,0.326079,0.252308,0.021513,-0.950769,0.309154
0.132437,0.302758,0.288119,0.115138,0.531372,-0.839278
0.163188,0.278852,0.286648,0.516747,0.493990,-0.699247
0.187094,0.254707,0.257891,-0.423051,-0.901434,-0.091897
0.223131,0.233040,0.290270,0.314454,0.018978,-0.949083
-0.375105,0.626501,0.268457,0.805651,-0.341503,-0.484048
-0.315521,0.580451,0.266687,-0.489404,-0.073048,0.868993
-0.254258,0.533223,0.266632,-0.401135,-0.206976,-0.892329
-0.219658,0.508840,0.277906,0.282151,-0.104163,0.953699
-0.196236,0.485642,0.251600,0.052706,-0.752973,0.655938
-0.246328,0.467884,-0.040549,0.070212,-0.360929,-0.929947
-0.213173,0.442908,-0.037009,0.056297,0.419903,0.905821
-0.179658,0.417694,-0.032788,0.181416,0.151734,0.971630
-0.082835,0.390826,0.212984,-0.397285,-0.089264,-0.913344
0.084265,0.272581,0.267721,-0.050588,0.924314,0.378265
0.117538,0.249852,0.283353,0.068076,-0.456845,0.886938
0.151775,0.226654,0.298739,-0.501199,0.519767,0.691839
0.189256,0.205341,0.338253,-0.004477,-0.999775,0.020752
0.225414,0.182974,0.366575,-0.215194,0.894810,0.391160
-0.074663,-0.264462,-0.975545,0.260018,-0.274624,-0.925728
0.631807,0.352478,0.330056,0.373291,0.822892,-0.428372
0.919274,0.209011,0.360584,0.509969,0.856740,-0.076990
-0.363454,0.849264,0.194276,0.821480,-0.415949,-0.390073
-0.447541,0.825120,0.189973,0.806891,0.155988,-0.569732
-0.366816,0.784640,0.201520,0.809894,0.228577,-0.540207
-0.332462,0.767474,0.218812,0.850250,0.104659,-0.515869
0.611985,0.295540,0.315705,-0.141105,-0.529668,0.836386
0.418339,0.393904,0.364505,0.310635,0.929060,-0.200881
0.527897,0.339220,0.372974,0.289573,-0.698187,0.654738
0.734998,0.235294,0.368754,-0.014395,0.751908,0.659111
-0.327655,0.693379,0.192805,0.898053,0.107473,-0.426557
-0.346876,0.703204,0.217559,0.995134,0.011809,0.097825
0.426268,0.315191,0.247597,-0.691501,0.663284,0.286148
0.471918,0.293763,0.333052,-0.039089,-0.907441,0.418358
0.452216,0.303943,0.357697,0.973954,0.159379,-0.161285
0.648865,0.205110,0.353830,0.271359,0.409989,0.870789
0.566339,0.247482,0.387762,0.575321,0.638688,0.510962
0.395514,0.287254,0.243158,-0.756587,0.647517,0.091097
0.445610,0.262040,0.259552,0.711217,-0.624823,-0.322129
0.553123,0.208419,0.312655,-0.551972,0.741001,0.382419
0.457983,0.256954,0.348520,-0.209249,0.975064,-0.073922
0.631206,0.170070,0.347676,-0.403634,0.597051,0.693260
0.086308,0.305128,0.206013,0.235774,0.113698,-0.965134
0.137962,0.279798,0.289535,0.503193,0.043687,-0.863069
0.324400,0.186051,0.286485,0.034405,0.945651,0.323359
0.406087,0.144741,0.298548,-0.453625,0.110257,0.884346
-0.157193,0.495583,0.269709,0.582470,-0.224458,0.781247
0.531740,0.220852,0.383731,-0.325493,0.821818,0.467621
0.391551,0.219191,0.263201,0.583875,-0.733044,-0.348906
0.268300,0.281929,0.302007,0.353780,0.514923,-0.780829
0.445247,0.192561,0.301217,0.186958,-0.966836,-0.173997
0.447172,0.191499,0.323139,0.905455,0.401097,-0.138823
0.484169,0.173148,0.341303,0.129823,-0.385447,0.913552
0.468314,0.181550,0.366384,0.191886,-0.336989,0.921747
0.470836,0.180727,0.389015,-0.623521,0.657468,0.423034
0.269260,0.166401,0.363498,-0.317123,0.190943,0.928964
0.341697,0.129945,0.375861,-0.799550,0.551764,-0.237225
0.410772,0.095259,0.389750,-0.277018,0.943905,0.179734
0.384344,0.155513,0.324501,0.816143,0.562080,-0.134076
0.415578,0.140002,0.343427,0.946308,-0.165646,0.277601
0.425909,0.135154,0.364097,-0.448904,0.860941,-0.239303
0.401882,0.147465,0.389287,-0.579547,0.416483,0.700476
0.457862,0.119050,0.404864,-0.666726,0.672826,0.320597
-0.137613,0.314953,0.299910,-0.479133,-0.824965,0.299772
-0.199957,0.403375,0.246235,0.886399,-0.450178,-0.107873
0.132796,0.235764,0.268784,-0.097120,-0.991985,-0.080831
0.076457,0.263817,0.299447,0.350219,-0.120051,-0.928943
-0.285371,0.446102,0.371123,-0.628342,0.769581,-0.113718
0.461946,0.069576,0.292666,0.902718,-0.046307,-0.427734
0.135799,0.175872,0.352768,-0.496436,0.702174,0.510395
0.237065,0.124975,0.362163,0.327361,0.396398,0.857732
0.327883,0.079163,0.373002,0.229080,-0.957430,0.175644
0.441405,0.022110,0.380082,-0.585847,0.226945,0.777997
0.202949,0.140240,0.567087,-0.767489,-0.095122,0.633966
-0.288495,0.325609,0.302416,-0.103711,-0.872293,0.477858
0.141445,0.108517,0.334985,0.884196,-0.125641,0.449901
0.166190,0.095498,0.353667,0.351266,-0.015415,-0.936149
0.273106,0.041639,0.361483,0.718882,-0.235067,0.654180
0.354312,0.000805,0.373655,0.135991,0.681362,0.719203
0.434799,-0.039675,0.385120,-0.456909,0.143929,0.877792
0.514681,-0.080631,0.420604,0.189384,0.398020,0.897616
0.291003,0.030751,0.494022,0.958440,0.004569,0.285257
0.239950,0.056080,0.544893,0.664454,-0.617136,0.421479
0.221690,0.064605,0.591215,0.937396,0.255059,-0.237138
0.254966,0.047324,0.609379,0.917949,-0.056933,-0.392593
-0.052920,0.114910,0.350481,0.192648,-0.978547,-0.073020
-0.308434,0.242866,0.407315,0.043176,-0.579042,0.814153
0.267581,-0.046899,0.375534,-0.309817,0.123500,-0.942741
0.170274,0.000682,0.455815,-0.615237,0.729654,-0.298477
0.139281,0.016309,0.481659,-0.616127,-0.231239,0.752939
0.299655,-0.064888,0.483565,0.931659,0.151743,0.330129
0.090029,0.040461,0.532148,-0.400168,0.906196,-0.136650
0.129431,0.020333,0.549658,-0.381586,-0.287704,0.878418
0.113454,0.027912,0.574113,0.795358,-0.065560,-0.602584
0.191779,-0.011621,0.586721,-0.672016,0.282178,0.684668
0.166791,0.000328,0.611285,-0.690547,0.684002,-0.235132
0.002818,0.080818,0.805016,0.912599,0.406190,0.046618
0.051348,0.055842,0.821138,0.730279,-0.187301,-0.656971
-0.132568,-0.000973,0.552790,0.678747,0.456193,-0.575492
0.101683,-0.119341,0.544375,0.250768,-0.904584,-0.344737
0.132675,-0.135083,0.562948,0.830758,0.527250,-0.178460
-0.008716,-0.064181,0.602462,0.621105,-0.009220,0.783673
-0.118634,-0.009497,0.638490,0.801988,-0.468031,0.371163
0.138321,-0.138753,0.628632,-0.656190,0.693842,0.296644
-0.195635,0.027789,0.734620,0.931756,-0.040554,0.360813
0.172199,-0.157335,0.733068,-0.535725,-0.761073,0.365742
0.193942,-0.168937,0.752512,0.317111,0.833975,-0.451581
0.016510,-0.080277,0.796138,0.461789,-0.390882,0.796218
-0.159235,0.093251,0.340160,-0.340717,0.817490,-0.464351
-0.297862,0.162853,0.380654,0.839748,0.540163,-0.055207
0.364162,-0.170477,0.361510,0.398996,-0.452060,-0.797774
-0.190829,0.107693,0.478064,0.772348,0.520724,-0.363766
-0.023252,0.022941,0.478881,-0.403122,0.913802,0.049595
0.146852,-0.062642,0.478364,-0.469914,-0.669611,0.575154
-0.060850,0.041284,0.527627,-0.198551,-0.748793,0.632366
-0.107702,0.064605,0.556085,-0.387847,-0.903438,-0.182685
0.140242,-0.060157,0.546935,0.982903,0.044249,0.178728
0.137481,-0.059326,0.568857,0.954022,-0.299717,0.003345
-0.006311,0.012993,0.608535,0.334684,-0.567820,0.752042
-0.110345,0.064721,0.643773,0.972404,0.086647,-0.216617
0.084024,-0.033050,0.640914,0.786548,0.581859,0.206837
0.222533,-0.103121,0.645952,-0.415339,0.128437,-0.900554
-0.169925,0.093490,0.738651,-0.783481,0.578450,-0.227053
-0.030338,0.022464,0.806923,-0.613810,0.165233,0.771969
0.089189,-0.199946,0.625773,0.134154,-0.667987,0.731981
-0.190708,-0.060034,0.704011,0.623567,0.778545,-0.070931
-0.172209,-0.069390,0.722965,0.880671,-0.102406,-0.462527
0.031167,-0.171892,0.720187,0.185731,0.936653,-0.296959
0.042579,-0.177816,0.740884,-0.196429,0.778811,0.595709
-0.101213,-0.106083,0.780289,0.428063,0.742876,-0.514682
0.031647,-0.173431,0.785327,-0.729912,0.683463,0.010304
-0.085959,-0.114486,0.820539,0.851164,-0.396056,-0.344469
-0.034664,-0.140762,0.836279,-0.750159,0.281473,0.598359
0.001014,-0.067374,0.468860,0.249120,-0.373771,0.893440
-0.251853,-0.104783,0.606165,0.931494,-0.146530,0.332939
-0.276360,-0.092588,0.630429,-0.402661,-0.881864,-0.245315
-0.187346,-0.137922,0.641350,0.733532,0.135348,-0.666042
-0.165603,-0.149525,0.659895,0.781873,-0.442873,-0.438791
-0.112984,-0.176155,0.675499,0.214431,-0.960633,-0.176644
-0.164400,-0.150941,0.703875,0.956006,-0.132108,0.261917
-0.068057,-0.199476,0.714387,-0.323488,-0.892634,0.313942
-0.128844,-0.169053,0.743063,-0.167153,0.985771,-0.017755
-0.336784,-0.065127,0.789385,-0.236644,-0.832166,0.501497
-0.060971,-0.203854,0.777974,0.074794,0.648819,0.757258
0.024682,-0.247650,0.788704,0.424950,0.091506,-0.900580
-0.018925,-0.143962,0.529071,-0.262506,0.371434,0.890577
-0.130886,-0.087856,0.587402,-0.739312,-0.373523,0.560266
-0.024212,-0.142423,0.618529,-0.103665,-0.955305,0.276849
-0.091242,-0.189412,0.824651,0.872737,-0.461702,-0.158627
-0.273838,-0.184557,0.419052,0.947316,-0.292288,-0.131000
-0.371263,-0.136506,0.498543,0.456328,-0.828988,0.323333
-0.392046,-0.126558,0.523733,-0.373189,0.846237,0.380280
-0.456311,-0.094365,0.554451,-0.362034,-0.376897,-0.852573
-0.266030,-0.190597,0.551374,0.950042,-0.301275,-0.081571
-0.350359,-0.148694,0.583563,-0.341934,0.850999,-0.398601
-0.398773,-0.124549,0.612047,0.163159,-0.206364,0.964776
-0.362732,-0.142893,0.628796,-0.414049,0.123611,-0.901823
-0.370541,-0.139107,0.651752,0.961005,0.017201,0.275995
-0.183141,-0.233923,0.650391,0.979712,0.173069,-0.101050
-0.210171,-0.220428,0.675880,0.112651,-0.829683,0.546750
-0.313600,-0.169053,0.709866,0.003287,-0.955459,0.295104
-0.170046,-0.241733,0.713243,-0.516963,-0.067705,-0.853326
-0.184582,-0.234631,0.737425,-0.616972,0.778936,-0.112265
-0.233956,-0.209894,0.764522,-0.558654,-0.200830,-0.804719
-0.131967,-0.261384,0.774135,0.032489,-0.859958,0.509329
-0.127040,-0.264462,0.795485,0.908234,-0.135491,-0.395921
-0.285610,-0.185150,0.836388,0.055212,-0.574547,0.816607
-0.362013,-0.146917,0.866398,0.292973,0.619983,0.727866
-0.180978,-0.238540,0.865772,-0.685509,0.726353,0.049886
-0.192031,-0.233208,0.888892,0.572419,-0.803063,-0.165606
-0.128722,-0.265054,0.902345,0.940278,0.136999,-0.311623
-0.141096,-0.259014,0.925492,-0.840576,0.208343,-0.500026
-0.164279,-0.247888,0.949783,0.896687,-0.439341,-0.054150
-0.207766,-0.319260,-0.160671,-0.677773,0.590645,-0.437906
-0.304831,-0.274995,0.426704,0.358359,-0.416047,-0.835754
-0.365617,-0.244334,0.457286,0.478224,-0.759132,0.441611
-0.381711,-0.236170,0.482068,-0.389274,0.920923,-0.019120
-0.446343,-0.204093,0.511969,0.791091,-0.590459,0.159793
-0.458954,-0.198176,0.535089,0.854693,-0.515727,0.059373
-0.550373,-0.152010,0.569266,0.004621,0.600470,0.799634
-0.285852,-0.285767,0.556711,-0.568083,0.365563,0.737323
-0.240203,-0.308850,0.573323,0.944588,0.046670,-0.324923
-0.408982,-0.224213,0.617004,0.951707,-0.157123,-0.263755
-0.358167,-0.249781,0.632908,-0.698942,-0.440625,0.563320
-0.152508,-0.353353,0.628414,0.985689,0.022629,0.167048
-0.246208,-0.306480,0.661447,-0.036601,-0.350669,0.935784
-0.315162,-0.271795,0.692165,0.618219,0.593270,-0.515593
-0.217737,-0.321276,0.701288,0.746884,-0.609437,-0.265989
-0.196354,-0.332518,0.720759,-0.179079,0.550401,0.815469
-0.396848,-0.228591,0.416165,0.288796,-0.957344,-0.009439
-0.214012,-0.323646,0.745023,0.886582,-0.329616,-0.324540
-0.181700,-0.339858,0.763133,0.779556,-0.491034,-0.388815
-0.133166,-0.364364,0.778437,0.208195,0.786965,-0.580811
-0.189388,-0.336311,0.806269,0.175082,0.668743,0.722585
-0.270953,-0.295354,0.838158,0.706821,0.539667,0.457344
-0.262664,-0.299971,0.858119,-0.160150,-0.366799,0.916412
-0.200199,-0.331810,0.872580,-0.342327,-0.900316,-0.268782
-0.219061,-0.322338,0.896599,-0.129736,0.974717,-0.181921
-0.195275,-0.334295,0.915552,-0.278527,-0.880452,-0.383702
-0.195756,-0.333941,0.936113,-0.709396,-0.517392,-0.478606
-0.168125,-0.348383,0.953623,0.876884,-0.438948,0.195958
-0.193714,-0.335834,0.978078,0.378259,0.858994,0.345036
-0.457275,-0.301979,0.450178,0.044850,0.153913,0.987066
-0.513735,-0.273333,0.501729,0.466584,-0.541324,0.699477
-0.572476,-0.243980,0.530895,-0.490170,-0.764350,-0.418931
-0.584247,-0.238063,0.554805,0.957258,-0.287227,0.034018
-0.495354,-0.283159,0.565671,0.108548,0.959539,0.259812
-0.343151,-0.360455,0.568421,0.211689,0.510510,0.833407
-0.379071,-0.342228,0.594455,-0.311075,0.331541,0.890681
-0.190469,-0.437274,0.592004,-0.036398,-0.880777,-0.472130
-0.134849,-0.465328,0.607445,0.952559,-0.077309,0.294372
-0.167164,-0.449347,0.632935,-0.476569,-0.746057,-0.465060
-0.205966,-0.430057,0.659977,-0.387722,0.918366,0.079214
-0.166684,-0.449939,0.677324,0.965107,-0.146952,-0.216735
-0.180018,-0.443430,0.701179,0.982673,0.185346,0.000651
-0.213052,-0.426741,0.726533,-0.134740,0.935973,0.325270
-0.295702,-0.384838,0.757768,-0.205949,0.012362,0.978485
-0.223023,-0.421532,0.771003,0.433296,-0.490469,0.756105
-0.105179,-0.481431,0.777811,0.837659,-0.019245,0.545854
-0.067339,-0.500844,0.795294,-0.345938,-0.515475,0.783972
-0.221704,-0.422832,0.835707,-0.675045,0.684988,0.274055
0.057115,-0.563929,0.824515,0.742873,0.668088,0.042403
-0.044151,-0.613642,0.665287,0.551130,0.833415,0.040922
0.044262,-0.658507,0.676970,0.423525,0.833796,-0.354134
-0.151188,-0.559551,0.722393,0.912924,0.103253,-0.394853
-0.339068,-0.464381,0.767436,0.096529,0.542162,0.834711
-0.333902,-0.466751,0.788867,-0.211335,0.946258,0.244814
-0.406218,-0.327077,0.376351,0.637260,-0.294903,-0.711992
-0.307115,-0.377498,0.385828,0.820655,-0.168367,-0.546056
-0.430366,-0.315236,0.424961,0.874874,0.209317,0.436785
-0.243927,-0.513270,0.358351,-0.204948,0.523950,0.826724
-0.361291,-0.454086,0.395850,0.778011,0.522516,0.348820
-0.699210,-0.283043,0.507285,0.954007,0.051742,0.295284
-0.389999,-0.439290,0.511887,0.840854,0.174186,-0.512468
-0.423397,-0.422125,0.537839,-0.103738,0.785094,0.610628
-0.465201,-0.401173,0.564718,0.532475,0.486983,-0.692328
-0.377869,-0.445091,0.575883,0.855321,0.513577,-0.068302
-0.462319,-0.402596,0.608017,-0.217369,-0.187939,-0.957826
-0.369221,-0.449470,0.618611,-0.762508,-0.431952,-0.481662
-0.258701,-0.504984,0.626998,0.799397,0.276532,-0.533380
-0.122597,-0.574109,0.632145,0.933763,0.298895,0.196845
-0.135692,-0.567130,0.655293,-0.324291,0.843899,-0.427399
-0.386037,-0.543809,0.497236,0.556719,0.822891,-0.113641
-0.504962,-0.483324,0.535225,-0.148451,0.576385,0.803581
-0.289694,-0.592105,0.573977,-0.418610,0.787536,-0.452275
-0.337385,-0.567600,0.602435,0.467991,0.881360,-0.064718
-0.429285,-0.520726,0.635767,-0.735162,0.657060,0.166761
-0.294379,-0.588197,0.771330,-0.717148,0.077293,-0.692622
-0.441536,-0.623236,0.515454,0.223152,0.865861,0.447759
-0.514813,-0.585711,0.569837,-0.573618,0.712138,-0.404750
-0.455592,-0.615181,0.583781,0.831621,0.423323,-0.359451
-0.395048,-0.645604,0.597533,0.874382,-0.043900,-0.483249
-0.332099,-0.676973,0.633398,0.835896,-0.245951,0.490699
-0.301466,-0.587489,0.329512,-0.667562,0.233442,0.707012
-0.474930,-0.701356,0.582092,-0.258719,0.584159,0.769300
-0.386638,-0.056371,-0.991367,-0.289889,0.184193,0.939168
-0.033582,-0.098743,-0.977642,-0.174012,0.065648,0.982553
-0.131967,-0.106914,-0.981536,-0.085149,0.098939,0.991444
-0.448623,-0.131890,-0.989461,-0.159694,0.103614,0.981714
-0.228189,-0.364125,-0.825631,0.981373,-0.131557,-0.140001
-0.274440,-0.379513,-0.868549,0.990380,-0.128812,0.050540
-0.353482,-0.416915,-0.981782,0.283370,-0.377619,-0.881536
-0.246208,-0.170592,-0.978732,-0.406106,-0.032971,0.913231
-0.477335,-0.685021,-0.976880,0.084346,0.028400,-0.996032
0.203191,-0.857488,-0.940416,-0.258485,0.233744,0.937310
0.132917,-0.865767,-0.951935,0.233155,-0.191447,-0.953408
0.006422,-0.874176,-0.950437,-0.071134,0.351237,0.933580
-0.067339,-0.882101,-0.959887,-0.029178,0.346356,0.937649
0.183849,-0.280674,-0.949429,-0.535046,0.078940,0.841127
0.118381,-0.288845,-0.961847,0.331236,0.016220,-0.943409
-0.087759,-0.305533,-0.968928,-0.027123,0.844857,0.534304
-0.269993,-0.322338,-0.982136,0.332006,-0.224981,-0.916054
-0.465681,-0.338442,-0.989516,-0.194710,0.315593,0.928703
0.226254,-0.778768,-0.954767,-0.145558,0.136975,0.979822
-0.425798,0.862167,0.186351,-0.476624,0.481938,0.735231
0.461708,0.389641,0.374935,0.419066,0.733158,-0.535597
0.432156,0.382662,0.357942,-0.538215,0.130945,0.832573
0.354312,0.362534,0.306555,0.580587,0.153044,-0.799685
0.451135,0.352239,0.245663,-0.691501,0.663284,0.286148
-0.365976,0.322409,0.347077,-0.518629,0.564166,-0.642449
0.614269,0.325248,0.360584,0.713240,0.450144,0.537269
0.460986,0.315430,0.364941,-0.726134,-0.077928,0.683123
0.446450,0.309036,0.346096,0.561436,-0.753213,0.342725
0.369207,0.300988,0.337436,0.050621,-0.985976,-0.159024
-0.413187,0.264886,0.410201,0.752539,0.351947,0.556614
0.232981,0.279205,0.295526,-0.365062,-0.242420,0.898867
0.211121,0.267010,0.255467,-0.005266,-0.982789,0.184659
-0.338466,0.229731,0.265924,0.257216,-0.778194,0.572934
-0.427840,0.209365,0.216824,0.183711,-0.531086,0.827162
0.566218,0.271627,0.393862,0.556089,0.566668,0.607991
0.502789,0.263579,0.382751,-0.507500,0.270801,0.817992
0.556727,0.258608,0.351080,0.510355,-0.529471,-0.677642
0.457741,0.250206,0.346886,-0.248549,0.244145,-0.937345
0.480327,0.244758,0.321614,0.244433,0.899086,-0.363176
0.477563,0.238372,0.299747,0.011985,-0.988539,0.150489
-0.395528,0.206526,0.410882,-0.509076,0.191408,-0.839169
-0.292099,0.202979,0.370524,0.437698,0.789836,-0.429627
0.151416,0.207003,0.269192,-0.421540,-0.374007,-0.826089
0.498705,0.200847,0.396721,-0.331398,0.587643,0.738141
0.430231,0.192915,0.386482,-0.577057,0.716029,0.392820
0.384106,0.185928,0.373247,-0.335356,0.907960,0.251286
0.419182,0.180604,0.344952,0.800750,-0.566464,0.194727
0.243074,0.170309,0.353585,0.490877,-0.777463,-0.393181
0.143607,0.161784,0.348929,-0.632457,0.495626,0.595276
-0.263988,0.146634,0.399771,0.793629,-0.049587,0.606379
-0.343753,0.138824,0.392909,-0.272915,0.953018,0.131434
-0.298826,0.134085,0.362844,-0.513207,-0.725822,0.458041
0.076336,0.136924,0.274366,-0.095012,-0.473483,0.875664
0.290402,0.134916,0.213420,0.478773,0.378810,-0.792009
-0.200199,0.113256,0.563138,-0.577927,0.552405,-0.600707
-0.256300,0.106270,0.551292,-0.086613,0.926602,0.365933
0.439363,0.117042,0.409793,0.523113,-0.743495,-0.416616
0.414496,0.109940,0.392010,-0.571481,0.792600,0.212590
0.374372,0.102954,0.377713,0.101445,0.994524,0.025111
-0.239242,0.082949,0.463740,-0.632789,-0.772618,0.051367
-0.252454,0.076562,0.444269,-0.558527,-0.682690,0.471149
0.133998,0.079401,0.355192,0.238563,0.109784,-0.964902
0.116340,0.072769,0.336129,0.827590,0.036295,0.560158
-0.467484,0.041999,0.375099,0.018608,-0.430878,0.902218
0.119822,0.049101,0.248223,0.320873,0.281738,0.904248
-0.623649,-0.057787,0.365377,-0.629833,-0.298336,-0.717152
-0.384475,-0.058856,0.300809,-0.252403,-0.966730,-0.041547
-0.202241,0.075847,0.734484,0.947285,-0.092756,-0.306671
-0.153948,0.054303,0.644835,0.735284,-0.675198,0.058870
0.159224,0.049687,0.549304,-0.018885,0.264355,0.964240
0.154778,0.043539,0.528444,-0.355973,-0.925389,0.130145
0.007023,0.034305,0.533210,0.216192,0.634107,-0.742408
-0.122237,0.025780,0.534653,0.385479,0.922495,-0.020216
-0.522621,0.010392,0.582201,0.162297,-0.702663,0.692766
-0.343874,0.009092,0.530841,0.401760,-0.818883,-0.409901
0.309986,0.017494,0.395632,-0.590259,0.403999,-0.698841
-0.148545,0.000805,0.453446,0.689809,0.544025,0.477703
-0.255457,-0.013637,0.429427,0.011884,-0.506736,0.862019
0.111291,-0.011621,0.343536,0.600237,-0.147859,-0.786037
0.122465,-0.017545,0.319327,-0.529381,-0.150201,0.834982
-0.096890,-0.028433,0.337028,-0.545724,0.230885,-0.805529
-0.005831,0.018202,0.812478,0.724864,-0.028204,-0.688314
-0.080313,0.010392,0.803845,-0.059452,-0.174956,0.982780
-0.392885,-0.008666,0.815065,0.823464,-0.008323,-0.567308
-0.393486,-0.014468,0.794559,-0.122897,-0.703113,0.700377
-0.189509,-0.015176,0.741020,0.912509,0.399502,0.087899
-0.206926,-0.021570,0.723020,-0.267849,-0.300013,0.915560
0.275987,-0.021686,0.600338,0.864757,0.036125,-0.500889
0.149612,-0.030088,0.600991,0.925950,-0.334956,0.174416
-0.128722,-0.042752,0.627298,-0.636987,0.746416,-0.192643
-0.469406,-0.056602,0.663707,-0.044441,-0.806136,0.590059
-0.344593,-0.059564,0.622287,0.050434,0.987596,-0.148694
-0.382074,-0.066550,0.607445,-0.192799,-0.650980,0.734202
-0.161156,-0.067497,0.548242,0.432751,0.275711,-0.858318
-0.154312,-0.073060,0.525530,0.930934,0.283047,-0.230753
-0.457033,-0.085370,0.557174,-0.604170,0.086331,-0.792165
-0.156592,-0.091049,0.462623,0.159900,0.756783,0.633807
-0.246328,-0.111293,0.413850,-0.625199,-0.362832,-0.690999
0.008705,-0.112239,0.346586,-0.041983,0.859597,0.509244
0.020356,-0.118040,0.323167,-0.715089,0.685618,-0.136291
-0.061092,-0.072229,0.817679,-0.432256,0.620285,0.654524
-0.224343,-0.093657,0.782740,-0.284536,-0.912274,0.294612
-0.322248,-0.101821,0.778083,0.414445,0.786502,-0.457874
-0.192511,-0.104545,0.736663,0.892016,-0.447357,0.064649
-0.195635,-0.110346,0.717137,-0.129977,0.390900,-0.911210
-0.159356,-0.115078,0.689987,0.947670,0.317579,0.032620
-0.450665,-0.127504,0.718662,-0.596675,-0.802155,-0.022937
-0.038268,-0.123719,0.628442,0.169720,0.897475,0.407105
-0.001508,-0.129282,0.600964,0.796718,0.255640,0.547621
-0.412106,-0.144555,0.649193,-0.770131,-0.619662,0.151388
-0.417029,-0.150472,0.629721,0.410719,-0.236823,-0.880468
-0.437933,-0.156627,0.613001,-0.212452,0.489110,-0.845952
-0.397211,-0.161597,0.584734,-0.140445,0.076758,0.987109
-0.245489,-0.164083,0.537976,0.908351,0.084321,0.409619
-0.273479,-0.170477,0.521309,-0.623351,0.680669,-0.384867
-0.559142,-0.182903,0.549440,-0.565721,0.434727,-0.700694
-0.652483,-0.191074,0.544375,0.963975,-0.226911,-0.138793
-0.048239,-0.140646,0.836143,0.614622,-0.260688,-0.744501
-0.304108,-0.153195,0.856867,0.850708,0.507579,0.136595
-0.301586,-0.158758,0.836715,-0.305788,-0.896437,0.320772
0.030929,-0.156504,0.762724,-0.264029,0.537450,0.800897
-0.162358,-0.167045,0.773481,0.727480,0.155689,0.668231
-0.240441,-0.174616,0.766319,0.195864,-0.381231,0.903494
-0.176656,-0.178994,0.734947,0.828015,0.315220,-0.463711
-0.158997,-0.184557,0.711173,0.464438,0.014606,0.885485
-0.284169,-0.193082,0.710956,0.036534,-0.833033,0.552015
-0.292216,-0.199122,0.692165,-0.277363,-0.918829,-0.280753
-0.307474,-0.204923,0.674546,0.293116,-0.702729,0.648271
-0.141576,-0.207525,0.625364,-0.418480,0.897770,0.137419
-0.300025,-0.216873,0.631846,0.290903,-0.941526,-0.170010
-0.401053,-0.225159,0.627761,-0.587873,-0.734134,0.339784
-0.353361,-0.230253,0.598322,0.326494,0.853351,-0.406441
-0.207887,-0.238655,0.531385,-0.524887,-0.032987,-0.850532
-0.449466,-0.249311,0.552545,0.504269,-0.515924,-0.692485
-0.489349,-0.256644,0.538003,0.952565,-0.199403,-0.229909
-0.192633,-0.220304,0.824379,-0.075948,0.026704,0.996754
-0.093166,-0.223621,0.787479,-0.131028,0.991369,-0.004309
-0.172451,-0.231438,0.779663,0.420728,0.625411,0.657152
-0.212693,-0.238179,0.766128,-0.508409,-0.824076,0.249840
-0.224585,-0.244103,0.747992,0.238288,0.964044,0.117637
-0.215457,-0.249897,0.725552,0.300737,0.951791,0.060422
-0.224706,-0.255698,0.706952,0.663242,-0.572332,-0.482230
-0.294141,-0.263038,0.697503,0.499875,-0.060537,0.863980
-0.370661,-0.270256,0.689551,0.890104,0.411740,-0.195411
-0.184223,-0.272510,0.636965,0.307051,0.825193,-0.474105
-0.232515,-0.279258,0.624820,0.832726,-0.040266,-0.552220
-0.186023,-0.284105,0.596443,0.937572,-0.092865,0.335164
-0.330537,-0.293223,0.599739,0.663379,0.233552,-0.710903
-0.530071,-0.326955,0.528935,0.998822,0.024389,0.041951
-0.149263,-0.191074,0.917486,0.873145,-0.433360,-0.223197
-0.188666,-0.197699,0.904197,-0.764520,0.606334,0.218789
-0.059050,-0.205039,0.843251,0.567028,-0.645233,-0.512009
-0.121875,-0.212611,0.833528,0.803749,-0.410947,-0.430243
-0.276119,-0.349445,0.687863,-0.457548,-0.809292,-0.368369
-0.217378,-0.353830,0.656927,-0.329402,-0.702096,0.631313
-0.180259,-0.359393,0.629476,-0.715029,-0.002860,0.699089
-0.429644,-0.388270,0.588492,0.158971,0.534087,-0.830349
-0.182060,-0.266947,0.956809,-0.022086,0.756698,0.653392
-0.219061,-0.273572,0.942376,-0.475348,0.680468,-0.557680
-0.191188,-0.278665,0.917568,0.838415,0.473339,-0.270204
-0.225307,-0.285413,0.902644,-0.699578,0.522508,-0.487417
-0.202483,-0.290145,0.879333,-0.586042,-0.783581,0.206292
-0.214255,-0.295708,0.861578,-0.671927,-0.534859,-0.512289
-0.294738,-0.303879,0.854007,-0.751657,0.352840,0.557240
-0.232273,-0.307903,0.824133,0.952510,-0.176311,0.248273
-0.176055,-0.312520,0.794178,0.384478,0.784431,0.486667
-0.164041,-0.318083,0.771439,0.325340,-0.838362,-0.437382
-0.197435,-0.324831,0.756161,-0.615164,0.133659,0.776987
-0.274319,-0.332286,0.748863,0.318175,-0.942290,-0.104184
-0.237919,-0.337257,0.722747,0.448270,-0.752607,0.482325
-0.224945,-0.342581,0.699545,0.751398,0.387067,-0.534397
-0.224226,-0.434197,0.643964,-0.159269,-0.987060,-0.018616
-0.085596,-0.437274,0.599303,-0.672291,0.224037,-0.705572
-0.354322,-0.449116,0.623676,0.156437,-0.841092,-0.517776
-0.318285,-0.465920,0.555432,0.888567,0.423534,-0.176262
-0.446944,-0.486994,0.513984,0.787018,0.394017,-0.474714
-0.160078,-0.327670,0.998148,0.198106,0.939847,0.278282
-0.165123,-0.333702,0.979521,0.184774,0.013145,0.982693
-0.171850,-0.339504,0.961167,-0.247279,-0.953832,0.170465
-0.184223,-0.345659,0.942894,-0.435981,0.741670,0.509750
-0.191188,-0.351460,0.924430,0.178728,0.980008,-0.087412
-0.168004,-0.356785,0.900384,0.376243,0.681240,0.627975
-0.182661,-0.362702,0.882274,-0.642382,-0.411963,0.646245
-0.097488,-0.366256,0.847989,-0.018551,0.153147,0.988029
-0.251373,-0.381761,0.833311,-0.227378,-0.060655,-0.971916
-0.052920,-0.383061,0.780262,0.233605,-0.194529,0.952674
-0.121515,-0.390401,0.771466,-0.126397,-0.322713,0.938019
-0.208246,-0.398450,0.764876,0.079354,0.276523,0.957726
-0.385318,-0.408513,0.773399,0.547596,0.674656,0.494953
-0.205365,-0.410406,0.722720,-0.252472,-0.360590,-0.897905
-0.191188,-0.415615,0.700199,-0.675004,-0.737791,0.005840
-0.181939,-0.421178,0.678359,0.924678,0.127695,-0.358698
-0.141216,-0.426149,0.650336,0.377044,0.851925,0.363403
-0.211370,-0.501429,0.611748,0.100996,0.162850,0.981468
-0.460996,-0.512678,0.633888,-0.156234,0.676250,0.719915
-0.273959,-0.514809,0.580540,-0.042938,-0.438742,0.897586
-0.181220,-0.518710,0.543122,0.513260,-0.856905,0.047726
-0.496314,-0.537415,0.555595,0.969522,0.200165,0.141286
-0.521423,-0.543809,0.539392,0.824391,0.341303,-0.451544
-0.432045,-0.548187,0.502138,-0.695004,-0.636322,-0.334758
-0.185183,-0.401765,0.954141,0.364237,0.931064,-0.021253
-0.290896,-0.438582,0.851012,0.788919,-0.139579,0.598435
0.046784,-0.436451,0.775360,0.871845,0.218838,-0.438173
-0.030697,-0.444022,0.767980,0.982827,-0.129151,0.131798
-0.164162,-0.453017,0.769887,-0.592824,0.752702,0.286355
-0.278762,-0.461658,0.767953,0.946976,-0.154138,0.281920
-0.202600,-0.465566,0.735301,-0.178790,-0.983398,-0.031022
-0.157193,-0.470298,0.706762,0.996098,0.071890,0.051191
-0.153589,-0.476222,0.685085,0.857950,0.464728,-0.218972
-0.102173,-0.480839,0.655320,0.967256,0.189115,-0.169265
-0.094127,-0.486872,0.633616,-0.537951,0.077544,0.839402
-0.073586,-0.492319,0.609678,0.635748,0.767054,0.086323
0.065404,-0.573755,0.588519,-0.704772,-0.514061,0.488915
0.080061,-0.579672,0.564527,0.151574,0.493915,0.856197
-0.259662,-0.592813,0.602162,0.962611,-0.223076,-0.153681
-0.227709,-0.598022,0.576183,-0.542421,-0.691072,-0.477702
-0.441056,-0.613880,0.571145,0.281588,0.908673,0.308255
-0.546168,-0.622644,0.568013,0.853604,-0.248430,0.457868
-0.422078,-0.632585,0.503091,0.408809,0.821931,0.396616
-0.109021,-0.632469,0.427112,0.803843,-0.240446,0.544080
-0.384955,-0.694016,0.280875,-0.233443,-0.605959,0.760472
-0.393607,-0.700410,0.260968,0.038391,0.851107,0.523587
-0.019527,-0.521673,0.790011,0.831821,0.479361,0.279798
-0.054123,-0.528536,0.774761,0.130910,0.657972,0.741576
-0.286933,-0.539900,0.792462,0.698066,0.715953,-0.010749
-0.332700,-0.546887,0.779282,-0.050449,-0.656401,0.752723
-0.152988,-0.548664,0.729501,0.974382,0.038513,-0.221575
-0.108182,-0.553157,0.701860,0.785023,0.524294,0.329931
0.088228,-0.554935,0.647885,0.886003,0.388190,0.253588
0.011345,-0.562152,0.640396,0.953525,0.195702,-0.229110
0.026244,-0.568430,0.616541,0.900800,-0.304258,0.309815
-0.457275,-0.699933,0.579342,-0.251253,0.647336,0.719603
-0.293297,-0.709404,0.508483,0.979996,-0.166629,0.108821
0.041139,-0.598846,0.805833,0.360744,0.927780,0.095334
-0.003671,-0.605955,0.793143,0.316864,0.019540,-0.948270
-0.465080,-0.628322,0.828082,0.882619,0.468840,0.034248
-0.310718,-0.630692,0.782822,-0.495240,0.401918,-0.770194
-0.112504,-0.632469,0.729174,-0.371405,0.704991,0.604191
0.052071,-0.635070,0.680782,-0.251589,-0.773324,0.581956
0.038976,-0.641226,0.661720,-0.179500,-0.834353,0.521185
0.053753,-0.646673,0.638627,-0.675853,0.736750,0.020539
-0.016884,-0.654483,0.629994,0.565337,0.824526,0.023487
-0.328015,-0.679574,0.619645,0.759934,-0.640155,-0.112703
-0.404777,-0.693192,0.590725,-0.559185,0.444108,0.700057
0.114895,-0.717575,0.669998,-0.094714,0.710029,0.697773
-0.538001,-0.780899,0.613273,0.986723,0.032162,0.159198
-0.317563,-0.789424,0.532339,0.913746,-0.226066,0.337583
0.569943,0.232332,0.393480,-0.428764,-0.720023,-0.545645
0.561174,0.212566,0.370387,0.191800,-0.970134,-0.148502
0.396958,0.296841,0.347022,0.822098,0.568243,0.035419
0.407769,0.235410,0.298167,0.501259,0.859630,-0.098871
0.404166,0.211142,0.274148,-0.472606,0.858364,0.199635
0.419420,0.062120,0.405109,-0.122746,-0.568994,0.813129
0.453657,0.004590,0.375262,-0.748063,-0.111336,0.654222
0.366083,0.051587,0.365295,0.749499,-0.020779,-0.661679
0.226734,0.142017,0.362517,-0.072084,0.696375,0.714049
0.154539,0.175395,0.349555,-0.303458,0.810629,0.500793
0.169313,0.134916,0.322704,0.531720,-0.155452,-0.832531
0.171718,0.104847,0.298630,0.677939,0.673439,0.294753
0.283436,-0.017900,0.257128,0.874867,-0.211435,0.435779
0.401882,0.186405,0.250647,0.747061,-0.580242,-0.324376
0.295208,0.085434,0.606792,0.934950,0.009801,-0.354645
0.246557,0.097275,0.590098,0.884770,0.206080,-0.417987
0.205475,0.103308,0.572288,0.837504,-0.142916,-0.527410
0.312266,-0.015176,0.533264,0.965708,-0.114482,0.233029
-0.228189,-0.098628,0.412407,0.108856,0.859250,0.499840
-0.141576,-0.204446,0.374255,0.501618,0.754225,-0.423703
-0.196955,-0.185388,0.359522,-0.385602,-0.922077,0.032950
-0.380149,-0.056248,0.365104,-0.340005,0.626719,-0.701156
0.221088,0.006368,0.499768,-0.071505,0.835018,-0.545556
0.156461,0.032882,0.486316,0.822804,0.430718,-0.370777
0.292085,-0.112116,0.441273,-0.352126,0.134273,0.926271
0.372931,-0.268601,0.356308,0.221420,0.974673,-0.031396
0.344102,-0.272156,0.337028,-0.756477,0.563543,-0.331906
-0.098812,-0.120757,0.464230,0.058375,0.925872,0.373300
-0.145660,-0.109631,0.448190,-0.548657,-0.824442,0.138821
-0.261224,-0.039913,0.441954,-0.555179,0.741200,0.377357
0.069128,-0.074244,0.808992,0.555614,0.824559,0.106751
-0.023009,-0.026186,0.798617,-0.254354,-0.336119,0.906823
0.070690,-0.136030,0.762125,0.800524,-0.516360,0.304193
0.135318,-0.221490,0.730209,0.330141,-0.916971,-0.223989
-0.385318,-0.138276,0.526102,0.022814,0.435252,0.900020
-0.444539,-0.118510,0.510852,0.926963,-0.369166,0.066748
0.166073,-0.033642,0.436372,0.920647,-0.387217,0.049713
0.174842,-0.089510,0.635604,0.752813,-0.452616,-0.477924
0.043180,-0.034943,0.608371,-0.002415,-0.632542,0.774522
0.093515,-0.107500,0.577817,-0.352696,0.031274,-0.935215
0.110694,-0.152364,0.551211,-0.504167,0.863562,-0.008757
-0.126200,0.021518,0.562975,0.886273,0.460923,0.045506
-0.238161,0.087688,0.555922,-0.198193,0.663519,-0.721431
-0.186503,0.014770,0.525122,-0.091007,-0.742141,0.664036
-0.088001,-0.099690,0.486833,0.198910,-0.966688,0.161088
0.064923,-0.190712,0.717682,-0.013967,-0.640802,0.767579
-0.164759,-0.024293,0.727322,0.969007,0.091557,0.229441
-0.171850,-0.047730,0.705700,0.905044,0.289946,-0.311169
-0.066375,-0.169530,0.666539,0.871990,0.477356,-0.108460
-0.081152,-0.187281,0.645053,-0.569656,0.818532,-0.074144
-0.087157,-0.212611,0.622096,-0.475752,-0.523292,-0.706984
-0.247769,-0.104191,0.623104,-0.376758,0.046502,-0.925144
-0.225905,-0.153195,0.596879,0.907646,0.026342,0.418909
-0.323931,-0.098982,0.587756,-0.105078,0.816989,-0.566998
-0.268911,-0.176632,0.556466,0.945072,-0.156488,-0.286969
-0.483461,-0.021093,0.565181,-0.491277,0.147582,-0.858409
-0.344471,-0.640041,0.394788,0.906862,0.418865,-0.046398
-0.148783,-0.291568,0.966014,-0.182851,0.855090,0.485166
-0.204884,-0.273926,0.951554,-0.285026,0.826506,0.485436
-0.351561,-0.248127,0.681109,-0.688764,0.701770,-0.181995
-0.195155,-0.415969,0.634188,-0.166696,0.959462,0.227256
-0.254738,-0.397033,0.619101,-0.513321,0.603218,0.610434
-0.252935,-0.431242,0.594782,0.248519,-0.486615,0.837523
-0.390601,-0.342112,0.592468,-0.127346,0.317954,0.939515
-0.523582,-0.320214,0.542605,0.908324,0.417115,0.031011
-0.179416,-0.328616,0.924975,0.322126,-0.726191,0.607356
-0.240203,-0.306957,0.911141,0.050410,-0.978054,0.202159
-0.089082,-0.226229,0.827592,0.882300,-0.467888,-0.051271
-0.073102,-0.270140,0.802729,0.185657,-0.224565,-0.956610
-0.072863,-0.301387,0.779472,-0.384046,0.778158,0.496970
-0.241163,-0.188227,0.780099,-0.317652,0.297112,0.900456
-0.235397,-0.225044,0.755807,-0.602400,-0.750746,0.271099
-0.220982,-0.268247,0.731080,0.071046,-0.990193,0.120295
-0.230711,-0.290622,0.709785,-0.927285,0.189918,0.322604
-0.359729,-0.210718,0.705019,0.729279,0.349377,0.588293
-0.478296,-0.523919,0.644590,0.406411,0.913510,-0.018167
-0.393365,-0.664901,0.584761,0.952817,-0.301543,0.034810
-0.524546,-0.582988,0.580594,0.077566,0.377452,-0.922775
-0.511810,-0.627853,0.554587,0.617937,-0.698169,-0.361544
-0.442376,-0.424371,0.505869,0.936302,0.075107,-0.343072
-0.203924,-0.371704,0.882928,0.055471,-0.910554,0.409652
-0.299665,-0.353830,0.849813,0.415810,0.410075,-0.811751
-0.276841,-0.470537,0.778220,0.918507,-0.360690,0.162011
-0.386037,-0.406974,0.771357,-0.525825,-0.657447,-0.539696
-0.436492,-0.593521,0.813131,0.307317,0.908916,0.281830
-0.357207,-0.240432,-0.986901,-0.136890,0.095194,0.986002
-0.276599,-0.233685,-0.987637,-0.366958,0.041972,0.929290
-0.216176,-0.229776,-0.977697,-0.178144,0.104158,0.978476
0.160306,-0.198884,-0.963999,0.257170,-0.269855,-0.927923
-0.111665,-0.290030,-0.974565,-0.225110,0.203773,0.952786
-0.054966,-0.286121,-0.964407,-0.055636,0.455336,0.888580
0.035251,-0.278311,-0.967811,0.074460,-0.129342,-0.988801
-0.304710,-0.468290,-0.969963,0.403166,0.245442,-0.881598
-0.028054,-0.447454,-0.947496,-0.133904,-0.128653,0.982608
-0.218338,-0.421532,-0.832003,0.990062,-0.093678,-0.104888
-0.427723,-0.540731,-0.981972,0.438984,0.045263,-0.897354
-0.555539,-0.610926,-0.976880,0.255338,-0.120777,-0.959278
-0.479978,-0.604532,-0.974020,-0.116756,0.171606,0.978223
-0.327413,-0.592459,-0.970153,-0.250142,0.222091,0.942393
-0.255937,-0.657560,-0.379919,-0.869503,0.392912,-0.299308
-0.144699,-0.916433,0.293837,0.514603,-0.839069,-0.176483
-0.148904,-0.923651,0.349473,0.142056,0.887788,-0.437781
0.071171,-0.908146,0.375562,0.351742,0.935069,0.043847
-0.249690,-0.850378,0.294355,-0.329717,-0.554253,-0.764258
-0.186023,-0.851563,0.351216,0.854756,-0.308424,-0.417453
-0.202483,-0.861150,0.410528,-0.130296,0.528763,0.838709
-0.269274,-0.798657,0.297868,0.264282,0.618550,0.739967
-0.294738,-0.811676,0.388661,-0.481345,-0.099926,-0.870817
-0.245848,-0.808837,0.397783,-0.002200,-0.586853,0.809691
-0.179775,-0.803505,0.399472,0.100643,0.664141,0.740802
-0.429164,0.962785,0.183628,0.864333,-0.501590,-0.036561
-0.381352,0.965386,0.192478,-0.876596,0.481122,0.010062
-0.375706,0.883834,0.173688,0.621589,-0.491867,-0.609667
-0.294738,0.464929,0.386237,-0.705620,0.705040,-0.070850
0.300616,0.509433,-0.074481,0.282760,-0.906896,0.312387
-0.489708,0.395797,0.255467,-0.074959,-0.235177,-0.969058
-0.278160,0.414024,0.257046,-0.564253,0.713965,-0.414576
-0.356485,0.395681,0.340187,-0.352279,0.694263,-0.627614
-0.306151,0.398643,0.348819,0.706522,-0.452660,0.543991
0.420021,0.460782,0.351733,-0.262893,0.685577,0.678875
-0.373305,0.317200,0.223115,-0.847653,0.200279,0.491296
-0.364415,0.314599,0.247842,-0.698010,0.712188,-0.074628
-0.355044,0.312114,0.271398,-0.155089,0.461972,0.873229
-0.356126,0.308328,0.299529,-0.719074,0.693283,0.047865
-0.354802,0.304658,0.326544,0.302780,0.884574,-0.354759
-0.276841,0.311637,0.324991,0.910635,-0.235200,0.339743
-0.431807,0.283938,0.434302,-0.229381,0.713183,-0.662385
0.263977,0.359579,0.315024,0.580849,0.046725,-0.812669
0.414735,0.365735,0.365322,0.380461,0.882675,-0.275925
0.468314,0.369405,0.373165,0.266562,0.958194,-0.103968
0.520089,0.372482,0.381471,0.246213,0.640161,0.727718
-0.403817,0.228070,0.200267,-0.751438,-0.324469,0.574509
-0.331380,0.230678,0.228044,-0.194978,-0.335360,0.921693
-0.390121,0.219191,0.278179,-0.087163,0.955911,0.280423
-0.337264,0.222745,0.286321,-0.217176,-0.244138,-0.945109
-0.290174,0.225346,0.295362,-0.134121,-0.158594,-0.978192
-0.214493,0.231978,0.293701,0.970966,-0.210518,0.113611
-0.443457,0.197647,0.405762,0.863365,0.459494,0.208486
-0.395887,0.200725,0.414068,0.831504,-0.079171,0.549848
-0.302547,0.209842,0.406525,0.186478,-0.192774,0.963361
0.123426,0.263109,0.277988,0.091863,-0.900312,0.425441
0.270341,0.279090,0.252036,0.024113,-0.912200,0.409036
0.230822,0.270326,0.292530,0.340730,0.266213,-0.901684
-0.258580,0.201909,0.494431,-0.542267,0.840112,-0.012615
0.417499,0.281221,0.332017,-0.744824,-0.612303,0.265183
0.435881,0.280275,0.352278,0.974029,-0.032269,-0.224111
0.528136,0.288793,0.346260,-0.237158,0.943872,0.229917
0.489096,0.280391,0.385501,-0.542365,0.289189,0.788803
-0.391323,0.149357,0.178753,-0.441399,-0.507978,0.739679
-0.370060,0.148288,0.199041,0.781488,0.264819,-0.564931
-0.411625,0.132546,0.296915,0.425217,0.171389,0.888716
-0.327655,0.140002,0.293129,-0.206409,0.659790,-0.722546
-0.310117,0.138701,0.313036,0.824872,-0.561554,0.065132
-0.384955,0.125328,0.368291,0.952028,-0.298052,0.069345
-0.305311,0.132546,0.366003,0.981275,0.144418,-0.127446
