0.625001,0.353337,0.554875,0.887984,-0.353978,-0.293570
-0.229682,0.153801,0.473011,-0.169382,-0.832453,0.527572
0.140454,-0.094534,0.341155,-0.572162,0.287355,-0.768152
-0.426172,0.239033,0.531908,-0.044504,-0.412004,0.910095
0.077671,0.381494,0.556167,-0.516970,0.509732,-0.687689
-0.488589,-0.285970,0.605389,-0.313327,-0.945870,-0.084600
-0.727854,-0.327810,0.130625,-0.195077,-0.524160,0.828976
0.063890,0.079894,0.653476,0.241115,-0.969118,-0.051705
-0.143662,0.659976,0.787366,0.792941,0.601052,-0.099906
0.267583,-0.496817,-0.964620,0.921168,0.256500,-0.292672
-0.706506,0.271111,0.433609,-0.591185,-0.805042,-0.049068
0.692736,0.238599,0.453120,-0.959687,-0.056697,0.275295
-0.368238,-0.101599,0.609615,-0.335884,-0.064410,-0.939699
-0.419292,0.342199,0.530818,0.599522,-0.666271,-0.443459
0.064086,0.400245,0.539928,0.666772,0.273889,-0.693109
-0.066499,-0.066466,0.547263,0.062187,-0.887789,0.456030
0.148626,-0.513955,0.554820,-0.659673,0.443997,-0.606381
-0.345539,-0.136297,0.694870,0.118677,0.319189,0.940231
0.446443,-0.574374,-0.974276,-0.512059,-0.739804,0.436447
0.516126,-0.566056,0.299554,0.973245,0.175878,0.147857
0.443132,-0.309491,-0.050227,-0.138276,-0.966433,0.216532
0.241062,-0.536136,-0.984704,0.285091,0.444369,-0.849270
0.154752,0.171149,0.400739,-0.466140,0.775329,-0.426120
0.094927,-0.166654,0.412554,0.892439,0.189794,0.409305
-0.805298,0.098201,0.432800,0.091063,0.959241,0.267514
0.617102,-0.410187,-0.927982,0.966644,-0.140769,-0.213969
0.628523,0.196814,0.485992,-0.390428,-0.385332,0.836113
-0.042808,0.074750,0.669491,-0.149778,-0.721583,0.675933
-0.527707,0.310604,0.618397,-0.185238,-0.898476,0.398031
0.185647,-0.439576,0.390793,0.745312,0.655266,0.123031
0.001981,0.399069,0.589945,-0.354861,0.886346,-0.297429
0.709068,0.275106,0.503131,0.810437,0.242916,-0.533089
0.556888,0.173646,0.375658,0.415086,-0.498597,-0.760989
0.227244,-0.223389,0.061520,-0.233237,0.948619,-0.213826
-0.573436,-0.245183,0.598435,0.731865,0.467484,0.495814
0.248018,-0.616428,-0.986137,0.363641,0.275863,0.889755
0.426892,-0.288847,-0.173559,-0.715108,-0.645943,-0.267168
0.072296,-0.148206,0.498761,-0.281513,0.360142,-0.889409
0.082313,0.467771,0.515853,0.789641,-0.590604,-0.166295
0.151434,0.541487,0.677235,-0.377669,0.464717,-0.800877
0.222709,0.491877,0.738989,-0.648022,0.473246,0.596746
-0.681160,0.173850,0.362061,-0.343758,0.752925,0.561190
-0.160848,0.179082,0.366221,-0.619621,-0.358493,0.698250
-0.118487,-0.337129,0.044017,-0.469547,0.326208,-0.820435
0.048065,-0.256199,0.403263,-0.009771,0.989721,0.142674
-0.230040,-0.139847,0.587927,0.864397,-0.352013,-0.359032
0.127629,-0.346427,0.373890,0.925104,0.205296,0.319429
-0.129227,0.546357,0.790378,-0.108700,-0.542224,0.833173
0.034906,-0.250189,0.401417,0.013920,-0.996584,0.081401
-0.530575,-0.152562,0.712100,0.377685,-0.895013,0.237287
0.848495,0.207194,0.682655,0.852706,0.518953,0.059829
0.415273,-0.194361,0.483338,-0.227380,-0.972169,0.056441
-0.314133,-0.328241,0.567903,0.217778,-0.928825,-0.299763
0.287387,0.205891,0.467847,0.191788,0.298076,0.935077
0.623824,0.094455,0.619519,0.944275,0.126077,-0.304054
-0.720026,0.249601,0.438613,0.978068,0.178748,0.106925
0.200060,-0.339546,-0.974079,0.872054,-0.216106,0.439114
0.615554,0.493748,0.706789,0.119969,0.678829,0.724430
-0.546454,0.245544,0.506207,0.373973,0.916491,0.142088
-0.091237,0.157535,0.750626,0.838073,0.076865,-0.540116
-0.516670,0.241555,0.457102,-0.173277,-0.975996,0.131936
0.025879,-0.138028,0.526311,0.268711,0.741790,0.614445
-0.480107,-0.008571,0.407300,0.142853,0.647045,-0.748950
0.223194,0.204315,0.339537,-0.055971,0.290822,0.955139
0.780676,0.309623,0.648042,0.964111,-0.228232,-0.135647
-0.656961,0.290887,0.478995,0.634099,0.620370,-0.461584
0.404134,-0.026448,0.445144,0.564812,0.782271,-0.262752
0.436509,-0.475152,-0.963757,-0.229822,0.411283,0.882059
0.260606,0.748455,0.881527,0.296185,-0.809450,0.507016
-0.508386,0.281707,0.527692,-0.603052,-0.191947,0.774264
0.323015,0.241857,0.420756,-0.276662,-0.159363,0.947661
-0.059945,-0.525084,0.474780,-0.651216,0.392938,-0.649244
0.417408,0.533893,0.660033,0.183002,0.489466,-0.852604
0.089139,0.499322,0.617642,0.423978,0.706010,-0.567268
-0.573321,-0.274910,0.618106,0.708130,0.679361,0.192408
0.307318,-0.226836,-0.027573,0.114110,0.961933,-0.248323
-0.738330,-0.417935,0.109337,-0.189074,0.376342,-0.906983
-0.534410,0.003096,0.404563,-0.285752,0.063375,0.956206
0.468542,-0.256943,0.466188,0.937727,0.116666,0.327196
0.219980,0.472516,0.614209,0.427864,-0.159389,0.889678
-0.498715,0.471488,0.649353,0.971756,0.140905,0.189306
-0.264335,0.681465,0.861415,-0.141261,-0.807124,0.573233
-0.546382,0.461246,0.712411,-0.416132,0.345617,-0.841061
0.382100,-0.339199,-0.972002,0.000260,0.510720,0.859747
0.484192,0.546274,0.732033,0.465434,-0.508780,-0.724233
-0.347186,-0.148382,0.655357,-0.447120,-0.817883,0.362148
-0.003449,-0.101446,0.493989,0.464292,0.264620,-0.845227
-0.425827,0.097994,0.410077,-0.191778,-0.622901,0.758429
-0.461947,-0.111754,0.746764,0.877391,0.361867,-0.315019
0.471264,-0.492283,-0.976030,0.828115,-0.388265,0.404321
-0.624177,0.503386,0.312382,-0.539709,0.637963,-0.549289
-0.728893,-0.570762,0.179123,-0.679615,0.724558,-0.114627
0.133071,0.104089,0.773999,0.875020,-0.135205,-0.464821
-0.745997,0.272631,0.517933,0.729166,-0.683636,-0.030963
-0.230923,-0.173438,0.579724,0.251176,-0.444093,0.860054
-0.259792,-0.014702,0.468169,-0.637236,0.672102,0.377107
0.356785,0.076974,0.798436,0.343610,0.770492,-0.536911
0.114352,0.068474,0.793859,0.943364,0.035806,-0.329821
0.178888,-0.462345,-0.949436,-0.331019,-0.233105,0.914379
0.145216,0.075107,0.632794,-0.494311,0.863018,0.104196
0.241563,-0.386185,-0.989157,0.750031,0.252230,-0.611420
-0.386432,-0.433755,0.640075,0.031987,0.499932,0.865474
-0.561621,-0.174592,0.652506,0.698382,-0.707828,0.106031
0.395145,0.431926,0.556332,0.906587,0.072222,-0.415794
-0.597177,0.281905,0.307357,-0.534623,0.838205,0.107661
0.219423,0.139247,0.698274,-0.457684,0.798739,-0.390565
0.505276,0.394974,0.509546,0.210628,-0.928223,0.306656
-0.233077,0.306563,0.598502,0.922047,0.385760,0.031912
-0.435935,0.129154,0.442465,-0.225400,0.965626,0.129466
-0.265106,-0.129582,0.580510,0.926581,-0.222894,-0.302928
-0.962702,-0.278216,0.165721,0.835412,0.316665,0.449233
-0.332139,0.324944,0.594067,-0.245651,0.787098,-0.565803
0.146812,-0.543883,0.533152,0.362852,0.790290,0.493740
-0.103912,-0.432108,0.513313,0.245999,0.558048,0.792507
0.206837,-0.284456,0.547679,0.211206,0.370922,0.904328
0.209373,0.529129,0.580792,0.521232,0.845515,0.115850
-0.413447,-0.417627,0.572141,0.533642,0.809371,-0.245246
0.098237,0.301528,0.547486,-0.041284,-0.054736,0.997647
0.035523,-0.265284,0.572216,0.109673,0.955245,0.274733
-0.304341,-0.096486,0.466836,0.953311,0.301632,-0.014686
0.333748,-0.536044,0.367390,-0.316370,0.472475,-0.822604
0.542980,-0.438006,0.424749,0.538066,-0.030918,0.842336
0.388641,-0.346748,-0.995701,0.369256,0.366941,-0.853818
-0.431470,-0.768291,0.213165,0.683180,0.630174,-0.368978
-0.384118,-0.196881,0.620689,-0.141980,0.093550,0.985439
-0.823284,0.282766,0.454259,0.744397,-0.136721,0.653590
-0.439089,0.173124,0.364105,-0.236279,-0.445542,-0.863519
-0.266113,-0.344004,0.590914,0.520483,0.213860,0.826657
0.171885,0.654781,0.855798,0.937719,0.168687,0.303689
-0.112121,0.540840,0.694827,0.831487,0.166618,0.529970
0.560352,-0.497639,-0.941768,0.457441,0.143035,0.877661
0.429440,-0.523345,-0.939205,0.516906,-0.183668,-0.836107
0.419967,0.043575,0.549475,0.044602,0.400464,0.915226
0.104677,0.148605,0.882522,0.470638,0.563452,-0.678986
0.666716,-0.484445,-0.929419,-0.023343,-0.288279,0.957262
0.301311,-0.149387,0.540369,-0.586982,-0.804364,0.091923
0.114872,-0.487792,0.544102,0.142806,0.337509,0.930427
0.259827,-0.665171,-0.943696,0.098584,0.904149,0.415686
0.554419,0.070779,0.451569,0.948331,-0.214369,-0.233910
0.502934,0.470521,0.663500,0.250599,-0.745100,0.618082
0.131377,0.679312,0.860552,0.842686,0.531308,-0.087133
-0.273144,0.237183,0.642025,0.840750,-0.522885,0.140463
0.065511,-0.249293,0.368647,0.919386,-0.186407,0.346385
0.724909,0.370318,0.545534,0.301650,0.921939,-0.242972
0.220550,-0.382157,-0.972977,0.028302,-0.995699,0.088219
0.734944,-0.034046,0.456375,0.357883,0.445409,-0.820689
0.417709,0.120976,0.514493,-0.243467,-0.871372,-0.425952
0.092910,-0.654631,0.217908,-0.633674,0.635231,0.441519
-0.481370,0.070220,0.472512,0.493760,0.170947,0.852630
0.125509,-0.305990,0.477512,0.941461,0.128900,0.311506
0.489172,0.384622,0.546310,0.948087,-0.146956,0.282018
-0.602392,0.283229,0.400610,0.921467,0.365688,-0.131038
-0.605491,0.174810,0.458553,0.608584,0.589743,-0.530875
0.390083,0.603199,0.754669,-0.581085,0.811471,0.062099
-0.288897,0.379962,0.515551,0.997562,0.069427,-0.007076
0.372587,-0.638008,0.377964,0.897356,0.208730,0.388824
0.327618,-0.249277,0.458684,0.615768,0.419801,0.666781
-0.095736,-0.224109,0.478889,-0.199261,-0.979814,-0.016093
-0.374042,0.268178,0.534811,-0.293863,0.472333,-0.830991
0.791725,0.276131,0.634815,0.920517,0.077139,0.383013
-0.387563,-0.411872,0.562893,-0.582996,0.748308,-0.316466
-0.187853,-0.819137,0.267825,-0.101880,0.307826,0.945972
-0.192367,-0.516278,0.605126,-0.211564,-0.945466,-0.247659
0.381557,-0.669600,-0.950473,0.485989,0.871611,-0.064105
-0.089936,0.261022,0.418746,0.807067,-0.236796,0.540899
0.320133,-0.242928,-0.152917,-0.282924,-0.956289,0.073927
0.377687,0.279038,0.380968,0.266459,0.960591,0.079153
0.329410,-0.241355,0.620736,0.834986,0.515448,0.192643
-0.327632,-0.354910,0.568965,0.748964,-0.377045,-0.544876
0.416856,-0.562324,-0.962098,-0.078698,0.894043,0.441015
-0.443841,0.353789,0.656247,-0.507917,-0.638136,0.578621
-0.170811,0.108588,0.420106,-0.378791,-0.924052,0.051433
0.072176,0.283138,0.498856,0.117037,-0.970515,0.210718
0.517577,0.272621,0.448055,0.953242,0.137217,0.269260
0.665375,-0.380406,-0.914078,0.876423,-0.390890,-0.281227
0.543789,0.340203,0.450437,-0.679449,-0.038848,0.732693
0.080290,0.561602,0.759550,-0.175493,0.361413,0.915742
-0.245301,0.445063,0.715478,0.630222,0.647258,-0.428809
0.179534,0.690912,0.397331,0.893574,0.313479,-0.321336
0.050923,-0.389289,0.409293,0.719806,0.583157,0.376573
0.528208,0.031193,0.517977,0.646066,0.458240,0.610422
-0.002005,0.254465,0.742639,0.080612,-0.811135,0.579277
-0.225609,0.318087,0.621949,-0.063493,-0.997728,-0.022505
-0.376328,0.280011,0.583049,-0.030037,-0.930162,0.365918
-0.081722,0.628660,0.878852,0.622172,0.573006,-0.533448
0.385925,-0.671386,-0.955996,0.838642,0.543765,-0.031615
0.032547,0.595235,0.842212,-0.278892,-0.483179,0.829914
-0.308448,0.219976,0.760091,0.776185,0.374022,0.507587
0.385790,-0.030730,0.536795,-0.561060,0.808450,0.177821
-0.509546,-0.423653,0.616065,0.527713,0.379537,-0.759915
0.338728,0.561119,0.693656,-0.012103,-0.503396,0.863971
-0.258298,0.339156,0.541185,0.835135,0.542422,-0.091260
-0.011389,0.588438,0.802069,-0.074037,-0.981951,0.174044
0.896333,0.502372,0.648048,-0.574979,0.765550,0.288673
0.552520,0.533240,0.746212,-0.333148,0.711821,0.618323
0.417995,0.311754,0.478315,-0.572240,0.191157,0.797496
0.684102,-0.165530,0.443581,0.400169,-0.364780,0.840714
0.134570,0.026886,0.717182,0.362116,0.902890,-0.231650
-0.927837,0.559961,0.834253,-0.511108,0.555075,-0.656247
-0.494009,-0.694375,0.153803,-0.611573,0.787955,0.071449
0.486615,0.471621,0.695558,0.952017,0.287764,-0.104189
0.506422,0.034601,0.545884,0.438662,0.459342,0.772386
-0.686310,0.449513,0.726625,0.222017,-0.688159,0.690757
0.368533,0.288827,0.377690,0.222784,0.768183,0.600219
0.299259,0.501867,0.614058,-0.284880,-0.953396,0.099396
-0.591648,-0.086165,0.726649,0.180124,-0.692690,0.698381
0.584253,-0.306011,0.526089,0.583714,0.240487,0.775528
0.141999,0.090045,0.791969,0.893337,0.146498,-0.424839
-0.281923,-0.081270,0.755335,0.555794,-0.795950,0.239909
0.096321,-0.501875,0.496227,0.222841,-0.959339,0.173234
-0.618716,0.114595,0.433157,0.810438,0.122723,-0.572825
0.126162,0.575388,0.807184,0.385180,-0.887333,0.253528
0.468584,-0.438195,-0.112269,0.939425,0.299846,0.166050
0.323189,0.521061,0.755396,0.175250,-0.536042,0.825801
-0.205370,0.381774,0.711115,0.226531,-0.867293,0.443269
-0.186798,-0.220281,0.560700,0.877616,-0.479155,-0.014145
0.612790,-0.370716,-0.938063,-0.724959,0.424976,0.542060
0.571049,-0.569581,-0.939924,0.512664,0.858575,0.004983
0.167327,0.537182,0.731539,-0.578098,0.086821,0.811335
0.390625,-0.566910,-0.956813,0.811908,0.326020,0.484269
-0.914357,-0.167902,0.127698,0.959761,0.270022,0.077120
-0.520594,0.122258,0.484376,0.970477,0.171247,-0.169848
-0.204679,0.397245,0.678972,0.215492,0.732682,0.645554
0.496584,-0.421454,-0.943573,0.451897,-0.236405,-0.860176
0.626420,0.031101,0.544889,0.847178,0.473040,-0.241915
-0.367390,0.268840,0.566355,-0.617645,0.159124,0.770191
0.831756,0.243924,0.672061,0.740024,0.294473,-0.604690
-0.138576,-0.623802,0.163646,0.813642,-0.557932,0.163399
0.326127,-0.305586,-0.060164,-0.329340,-0.935577,0.127399
0.444962,0.358849,0.408345,0.181154,0.020053,-0.983250
0.398731,-0.386757,-0.384027,0.007733,-0.945463,0.325637
-0.011577,-0.358136,0.504725,-0.566862,0.473763,0.673955
0.169183,-0.326235,0.477457,0.924180,0.320988,-0.207023
-0.559136,0.292432,0.356118,-0.335415,-0.657783,-0.674402
0.221415,-0.409949,-0.983404,0.888761,-0.035456,0.456997
0.570172,-0.439995,-0.962497,0.864853,0.011102,-0.501903
-0.554987,-0.163394,0.046322,-0.580246,-0.636765,-0.507784
-0.189017,-0.644009,0.258961,-0.550955,0.692424,0.465830
0.078490,-0.237793,0.455222,0.484582,-0.823860,-0.294000
-0.363775,0.051145,0.438727,-0.517758,0.583536,-0.625630
0.176314,0.652272,0.474042,0.988571,-0.105079,0.108097
0.292046,-0.294525,0.554784,0.504116,0.827559,0.247008
0.437719,-0.632626,-0.971503,-0.277005,0.274309,0.920882
0.287587,-0.528384,-0.964143,-0.731544,-0.004592,0.681779
-0.008203,-0.066930,0.568105,0.948232,-0.044103,-0.314500
0.503727,-0.392071,-0.995194,-0.231485,-0.020427,0.972624
-0.616533,-0.405413,0.117348,0.110634,0.954875,-0.275635
-0.380085,-0.143651,0.522650,-0.211633,0.003481,0.977343
-0.299067,-0.348673,0.584194,-0.216797,0.094194,0.971662
0.514381,-0.564190,-0.978423,-0.150527,0.165005,0.974738
0.140088,0.261548,0.478665,-0.273939,0.691739,-0.668173
0.366369,0.363101,0.483295,0.019804,0.667323,-0.744505
0.408692,-0.685771,-0.952191,0.369355,0.638927,-0.674796
0.433971,-0.311114,0.429769,0.859508,-0.243674,-0.449299
0.364462,-0.684432,0.277589,0.058636,-0.887660,0.456751
-0.318977,-0.207112,0.544490,-0.736878,0.006118,-0.675998
-0.205584,0.194403,0.570268,0.983884,-0.175022,-0.036594
0.356008,-0.343049,-0.961571,0.043142,-0.179155,0.982874
0.089747,0.468744,0.668609,0.084649,0.988019,-0.129050
-0.064627,-0.193233,0.632557,0.103534,0.083956,0.991076
0.453864,-0.475012,-0.946968,-0.463233,0.782379,-0.416291
-0.795026,-0.615781,0.165035,0.447427,0.746544,0.492424
-0.355397,-0.792223,0.243424,0.922994,-0.269792,-0.274396
0.103049,0.471488,0.764705,-0.168548,-0.934379,0.313889
0.430421,-0.325575,-0.444423,-0.550433,-0.829325,-0.096144
0.437508,0.370529,0.509233,-0.269765,-0.879022,0.393125
-0.320145,0.345152,0.654819,-0.601557,0.798785,0.008474
0.213191,-0.489800,0.454899,0.986820,0.071725,-0.145055
-0.100976,0.658881,0.853480,0.014107,0.924246,0.381537
0.358039,0.161279,0.730611,0.894772,-0.389023,0.219188
-0.844414,-0.145698,0.670981,-0.388836,-0.468442,0.793328
0.417508,-0.294607,-0.165901,0.638748,0.626266,0.446981
0.469971,-0.563839,-0.965498,-0.429601,0.314922,-0.846326
-0.181993,-0.140022,0.390479,-0.372036,0.883584,0.284375
-0.291832,0.361556,0.640514,0.120563,-0.861792,0.492726
0.505512,0.523792,0.662435,-0.396680,0.880044,0.261088
0.557691,-0.360981,-0.943197,-0.591060,0.361653,-0.721010
0.254481,-0.323916,-0.978386,0.494074,0.192076,-0.847937
-0.120893,0.406399,0.743043,-0.712008,0.680027,-0.174953
0.284215,0.519620,0.694062,-0.837378,0.174226,0.518115
-0.465641,-0.413270,0.125754,0.052833,0.408348,0.911296
0.279616,-0.132532,0.493960,0.779962,0.625791,0.006622
0.069279,-0.174691,0.508967,0.898593,0.433706,-0.066561
0.540320,0.068405,0.618660,0.067247,-0.909400,0.410450
0.126117,0.276255,0.482168,-0.161176,0.883614,-0.439601
0.147488,-0.332989,0.451300,0.880382,0.318698,0.351226
0.358577,0.551088,0.705803,-0.655030,0.212462,0.725117
0.287880,0.197171,0.341682,0.080609,0.159224,0.983946
0.145940,0.531804,0.779062,-0.037231,-0.315333,0.948250
0.784833,0.420631,0.714049,0.942883,0.331396,-0.033880
-0.401419,0.006761,0.797766,0.480979,0.360006,-0.799409
-0.004764,0.374178,0.559304,-0.386995,0.685539,-0.616661
-0.597682,0.384905,0.597727,0.264652,-0.934957,0.236252
0.149055,0.736788,0.903072,0.844090,-0.521886,0.123073
-0.443062,0.309753,0.414128,0.913652,0.271280,0.302734
0.512814,0.364560,0.561552,-0.333999,0.612415,-0.716514
0.253753,-0.491172,0.376530,-0.695224,0.081645,-0.714141
0.380563,-0.119141,0.672836,-0.860208,-0.342378,0.377915
0.352735,0.521049,0.644419,0.363684,0.529675,-0.766276
0.151635,-0.159085,0.491344,-0.197007,-0.932594,0.302418
0.074995,0.405371,0.601230,-0.309354,-0.763453,0.566957
0.655907,-0.218593,0.532614,0.156998,0.283898,0.945914
0.559287,-0.161719,0.489379,0.232972,0.776018,0.586106
-0.256924,0.420701,0.489584,0.687416,-0.229265,0.689128
-0.228181,0.323302,0.578144,-0.499991,-0.820140,-0.278171
-0.623552,-0.176840,0.721708,-0.438695,0.707959,0.553481
-0.309135,0.172021,0.464917,0.824110,-0.070328,-0.562046
0.484551,-0.105573,0.374303,-0.198616,0.702828,0.683070
-0.536472,-0.327792,0.080640,-0.096691,0.489478,0.866638
-0.556902,0.358109,0.664792,0.859904,-0.331639,0.388047
-0.095130,-0.099842,0.428991,-0.582892,-0.386971,0.714486
0.474592,-0.387565,-0.978983,-0.543163,0.548502,-0.635704
0.203044,0.790851,0.891454,0.283922,-0.954450,0.091725
-0.006525,-0.244124,0.426359,-0.079006,0.971836,0.222019
0.637905,-0.018965,0.426420,0.327614,0.933835,0.143598
0.075048,-0.112506,0.498699,0.431776,0.235396,0.870723
0.174029,-0.222878,0.405252,0.911865,0.235588,-0.336156
-0.316270,0.477749,0.728974,0.446475,0.071696,0.891919
-0.448152,-0.057883,0.431003,-0.553060,0.789603,0.265804
0.471185,-0.321138,-0.979648,0.247482,-0.333708,0.909611
0.009551,0.572238,0.844600,-0.434481,0.838244,-0.329505
0.004796,0.732508,0.928650,0.063417,0.087847,0.994113
0.491108,-0.367829,-0.831397,-0.770980,0.548371,-0.323849
-0.756185,0.274060,0.433956,0.460889,0.854898,0.238183
0.043292,-0.210489,0.617327,-0.282881,-0.841986,0.459389
0.415889,0.666464,0.928600,0.654322,0.752941,-0.070310
0.336503,-0.329885,-0.985932,0.266125,-0.815973,0.513192
-0.361783,0.430454,0.685686,-0.525185,-0.850980,-0.003658
0.939088,-0.240710,0.545074,-0.650573,0.396257,0.647870
-0.642840,0.027626,0.376447,-0.699883,-0.110677,-0.705630
0.140074,-0.155518,0.535144,-0.138761,0.990108,-0.020756
-0.746046,-0.076508,0.763347,0.109136,0.993685,-0.026051
0.344320,-0.440173,-0.982402,-0.077013,0.319375,0.944494
0.243572,-0.337757,-0.985794,-0.221589,0.379192,0.898394
0.026361,0.335539,0.495104,0.807887,0.478834,0.343565
0.386483,-0.070524,0.551120,-0.509706,0.860091,-0.021068
-0.598262,0.171243,0.535823,0.629197,0.085163,-0.772566
0.258337,-0.455408,-0.992702,0.818539,0.136869,-0.557907
0.091511,0.492911,0.706345,-0.631081,0.350801,-0.691863
0.000858,-0.326616,0.468234,0.620084,0.642080,0.450809
0.311283,-0.182450,0.088903,0.930834,-0.347791,0.112206
-0.468608,-0.006711,0.760448,0.240338,0.103318,0.965175
0.555165,0.011645,0.622310,0.983605,-0.177285,-0.033046
0.406831,0.646770,0.831323,0.807889,0.574257,-0.132455
-0.063872,0.030383,0.428286,0.971134,0.150106,-0.185385
-0.371826,-0.347935,0.562021,-0.440745,0.615412,-0.653462
0.114768,0.275647,0.494876,-0.196700,0.948497,-0.248320
0.141248,-0.470642,0.520597,-0.605682,0.590645,0.533187
0.144595,-0.163345,0.537011,-0.392525,0.911341,0.124020
-0.122135,0.119960,0.754162,0.770103,0.381212,-0.511487
0.203062,-0.253780,0.145789,0.820599,0.390407,-0.417373
0.623682,-0.296760,0.498859,0.847447,0.173872,0.501599
-0.656301,-0.904842,0.268166,-0.390357,0.912273,0.124014
0.626536,-0.405948,0.484780,-0.607384,0.673322,-0.421570
-0.206842,0.198038,0.743183,0.658481,0.670575,0.341661
-0.695774,-0.344881,0.143606,0.249624,-0.103288,0.962819
0.471149,-0.287492,-0.969934,0.815685,0.559931,0.145379
0.161945,0.086741,0.615375,-0.770617,0.622515,0.136469
0.448803,-0.475594,-0.965978,0.076240,-0.258962,0.962874
0.041171,-0.174833,0.491349,0.450003,0.832331,-0.323608
0.431977,0.211323,0.446849,-0.264620,0.783515,0.562210
0.422915,0.302846,0.456039,-0.705202,0.580267,0.407407
-0.654431,0.315168,0.385029,0.578085,0.728823,0.366925
-0.687428,0.129338,0.407924,0.198390,-0.702113,0.683871
0.240783,-0.468327,-0.953844,0.858616,0.293811,-0.420063
-0.056964,0.709008,0.914366,-0.383692,0.012711,-0.923374
0.638277,0.007846,0.407866,-0.550506,-0.834265,0.030742
0.086081,0.329108,0.412794,0.052937,0.922941,0.381283
0.205263,0.123042,0.768503,-0.541815,0.070675,0.837521
-0.103970,0.599169,0.810263,-0.007919,-0.805029,0.593183
0.408638,0.348994,0.407606,0.812034,-0.188394,-0.552366
-0.473243,0.316030,0.326472,-0.558915,-0.697403,0.448601
0.220388,-0.153250,0.231474,0.962303,-0.219098,0.161146
-0.479552,-0.044510,0.406023,0.057496,-0.995405,-0.076575
-0.606385,-0.208531,0.077271,0.669064,0.522505,0.528527
-0.724192,0.247403,0.441852,0.855309,0.315989,0.410606
0.263187,0.428899,0.740208,0.794670,-0.240535,0.557353
0.401016,0.637679,0.749565,0.018996,-0.929913,0.367288
-0.297299,-0.267486,-0.412027,0.512495,0.106626,-0.852044
-0.361222,-0.070273,0.656317,-0.031116,0.379247,0.924772
0.145640,-0.012771,0.620267,0.976291,0.205354,0.068459
0.383398,-0.399464,0.249437,0.845449,0.519651,-0.123203
0.056285,0.334098,0.513210,0.724072,-0.602189,0.336287
0.242974,0.346555,0.391966,-0.594929,0.353779,-0.721734
-0.240669,-0.068819,0.575134,0.034109,-0.189356,0.981316
0.289313,-0.758633,-0.103026,-0.461753,0.056737,-0.885192
0.385637,-0.634360,-0.973951,-0.082977,0.103337,0.991179
0.132272,0.650651,0.857424,-0.135749,-0.416593,0.898901
0.249561,-0.207345,0.187194,0.343852,0.556322,0.756487
-0.222423,-0.351023,0.080225,0.129102,-0.009452,0.991586
0.482773,-0.553132,-0.931621,-0.686027,0.358000,-0.633406
-0.460898,-0.414698,-0.410680,-0.274747,-0.047592,-0.960338
0.188074,-0.258641,0.340787,0.711034,-0.051430,0.701275
0.023649,-0.080530,0.504769,-0.416489,-0.907953,-0.046465
-0.618420,0.199777,0.443857,0.983184,-0.178619,0.037999
0.116755,-0.641687,0.200565,-0.720767,0.596415,0.353246
0.150708,-0.522160,0.582330,-0.328547,0.831800,-0.447398
0.101634,0.677863,0.870783,0.539265,0.711757,-0.450106
0.651915,-0.323999,0.524963,0.036186,0.896395,0.441776
0.162235,-0.154298,0.514657,-0.613371,0.738689,0.279490
-0.403256,0.319072,0.514650,0.858721,-0.462580,-0.220492
0.585421,-0.677583,-0.922284,-0.083311,0.983285,0.161893
-0.763992,-0.634570,0.153292,-0.139902,0.410210,0.901197
-0.073625,0.658604,0.851426,-0.210111,-0.928254,-0.306916
0.461688,-0.637946,-0.957991,-0.242203,-0.009134,0.970182
0.199165,-0.071560,0.490230,0.745171,0.434140,0.506204
0.208348,-0.152784,0.215388,0.991053,-0.099525,-0.088930
-0.369584,-0.378976,0.550202,0.890461,-0.190891,0.413086
-0.495581,-0.810336,0.170969,-0.041753,-0.343492,0.938227
0.047130,0.448597,0.568711,-0.307619,-0.050827,-0.950151
-0.130030,0.202784,0.719724,0.977123,0.150460,0.150311
0.102705,-0.263698,0.469728,0.260763,-0.597158,-0.758554
-0.093366,0.298036,0.501213,-0.305596,-0.910891,0.277288
-0.257721,0.420460,0.719097,-0.522533,0.350698,0.777155
-0.408525,0.260423,0.461782,0.317533,0.938215,-0.137572
-0.307351,0.222504,0.790501,-0.044929,0.222110,0.973986
0.601299,0.481770,0.707923,0.370735,0.890339,0.264294
-0.667063,-0.196953,0.708020,0.220280,-0.897115,0.382963
0.181964,-0.494811,-0.996868,0.482701,0.477872,0.733920
-0.330112,0.144890,0.492491,0.780762,-0.501190,0.373120
0.224504,-0.341836,-0.988755,-0.064379,-0.211316,0.975295
-0.451664,0.046799,0.408942,0.414427,-0.037842,-0.909296
0.703438,0.370940,0.610636,0.620394,-0.122200,-0.774712
-0.381935,0.438135,0.694858,0.725118,0.680825,-0.103350
-0.189886,0.394354,0.554899,-0.343267,0.344649,0.873719
-0.362693,-0.310017,0.574425,0.014677,-0.616570,0.787164
0.373934,0.174545,0.759063,-0.658773,0.745469,-0.101462
0.220373,-0.125048,0.498559,0.601448,0.587217,0.541698
0.436996,-0.440972,0.480297,-0.348542,0.009715,-0.937243
-0.556894,-0.716977,0.157560,-0.474258,0.767413,0.431459
0.288209,-0.386089,-0.970102,-0.605420,0.610469,-0.510680
-0.368530,0.379680,0.574788,0.782245,0.554452,0.284036
0.112001,0.294769,0.447293,0.455634,0.599131,0.658362
-0.309531,-0.250692,-0.414920,0.808149,-0.337172,0.482919
0.422652,-0.308824,-0.973113,0.057973,-0.036608,-0.997647
-0.428428,0.315247,0.652007,-0.661959,-0.056759,0.747388
0.433674,0.554290,0.725716,0.222928,0.431319,0.874224
-0.042363,-0.335362,0.490992,-0.609295,0.563965,-0.557407
-0.066077,0.668346,0.897895,-0.436199,-0.415096,0.798390
0.125878,-0.078506,0.359302,0.423051,0.356816,-0.832893
-0.039176,0.468354,0.734042,0.261477,-0.961057,-0.089437
0.408671,0.455347,0.670890,-0.240039,-0.610580,0.754701
0.588590,-0.676683,-0.949959,-0.185232,-0.752472,0.632040
0.104283,0.747892,0.898366,-0.563782,0.814900,-0.134487
0.375812,-0.221682,0.477260,-0.683523,0.145816,-0.715216
-0.279291,-0.320565,0.545911,0.811838,-0.536181,0.231147
0.278182,-0.101012,0.469479,-0.334511,-0.058208,0.940593
0.152520,0.055488,0.717942,-0.625366,0.355737,0.694528
0.643520,0.236884,0.493039,0.245498,0.221643,-0.943719
-0.524395,0.273989,0.510095,0.442299,0.719424,-0.535537
0.274863,0.564147,0.725059,-0.283314,0.861862,-0.420626
-0.638659,0.192671,0.498114,0.829801,-0.557483,-0.025354
-0.139471,0.319748,0.565049,-0.723359,0.635516,0.269948
0.205597,0.021866,0.754084,0.106705,-0.978075,0.178841
0.811680,0.441949,0.576905,0.988403,-0.066625,-0.136458
0.200397,-0.247768,0.117322,0.809424,-0.524872,0.263329
0.440100,-0.165494,0.431831,-0.324757,-0.929504,0.174800
0.421841,-0.299855,-0.172342,-0.698942,-0.638946,-0.321291
0.056458,0.023562,0.521215,0.336570,0.832329,0.440397
0.346981,-0.591830,-0.939513,-0.602327,0.155867,0.782884
0.493600,-0.478104,-0.158082,0.068339,-0.867326,0.493027
0.318423,-0.359716,-0.968619,-0.239345,0.010554,0.970877
0.612771,-0.315229,0.584463,0.166073,0.938948,0.301326
0.513976,0.256214,0.442572,0.975133,-0.050324,0.215832
0.447134,0.222880,0.421959,0.149084,0.735439,0.660987
0.131268,-0.288167,0.499894,0.814919,-0.529381,-0.235929
-0.033279,0.080127,0.794522,0.072815,-0.926261,0.369782
0.187143,-0.199285,0.473953,0.687217,0.479615,0.545621
-0.017040,0.306413,0.511529,0.963993,-0.151906,-0.218269
-0.297393,0.111570,0.409819,-0.326953,0.735150,-0.593848
0.245698,-0.405911,0.205729,0.950825,-0.259815,-0.168605
0.540350,-0.610398,-0.944636,-0.742019,-0.072595,0.666436
0.574429,-0.551019,-0.965722,0.008313,0.722943,0.690858
0.300504,-0.397458,-0.987440,0.096272,-0.205657,0.973877
0.920650,0.507706,0.664577,0.928229,-0.341584,-0.147350
0.341286,-0.296829,-0.152735,-0.258670,-0.965370,0.033925
-0.320686,0.414069,0.694966,-0.002893,-0.752413,0.658685
0.034408,-0.394326,0.046887,-0.061245,0.831042,0.552827
-0.048838,-0.440082,0.531256,0.597856,-0.216380,-0.771847
-0.570744,-0.476519,0.588690,0.570934,0.047564,-0.819617
-0.170104,-0.773036,0.270087,-0.200632,0.205661,0.957836
-0.543899,0.404693,0.672278,-0.397913,0.875777,0.273275
0.080309,-0.091436,0.325259,0.335290,0.485088,0.807633
-0.131795,0.035090,0.703238,-0.525910,0.831681,-0.178117
-0.376592,0.422272,0.748978,0.585843,-0.544524,0.600235
-0.243568,0.418166,0.724489,0.407160,-0.017486,-0.913190
0.056437,0.404634,0.560739,0.661770,-0.452302,0.597900
0.476024,-0.449496,-0.967649,-0.039863,-0.233294,0.971589
-0.059045,0.002628,0.559600,0.658249,0.454970,0.599759
-0.635569,-0.733497,0.162754,0.908388,-0.416934,0.031586
0.130625,0.060853,0.713402,-0.394791,0.523835,0.754809
0.517723,0.544180,0.671925,-0.189044,0.973343,0.129867
-0.401020,-0.119612,0.616454,0.448675,0.879958,-0.156095
0.432673,0.188016,0.754513,-0.126065,0.957292,0.260193
-0.654685,-0.263242,0.682854,0.472065,0.272400,0.838423
-0.244849,0.400551,0.740134,0.686902,0.123937,-0.716104
0.329160,-0.221119,0.187975,-0.479858,0.667954,-0.568836
-0.707507,-0.931962,0.314682,-0.293916,0.953736,-0.063251
-0.167017,0.379503,0.700569,0.885784,-0.458018,0.074870
-0.684577,-0.385117,-0.417100,-0.410650,-0.533105,-0.739706
0.099116,0.466851,0.504355,0.764457,-0.526694,-0.371750
0.226120,-0.416121,-0.994615,-0.053273,0.052862,-0.997180
0.138638,-0.009041,0.607551,0.976479,-0.099861,-0.191093
-0.859003,-0.590934,0.595570,-0.353967,0.679957,0.642157
0.415406,-0.254431,0.542387,0.042828,-0.919603,0.390508
0.507507,-0.413800,-0.903917,0.878218,0.048424,-0.475802
0.489020,-0.311014,-0.700048,-0.144525,-0.978312,0.148388
-0.383719,0.461347,0.704483,0.225069,0.690338,-0.687588
-0.096426,-0.414301,0.091582,0.203857,0.751648,0.627270
-0.306734,-0.406056,0.106256,0.556183,0.395339,0.731005
0.399103,0.329731,0.752774,0.437520,0.172011,-0.882603
0.503896,-0.509288,-0.945763,0.543806,-0.769373,-0.335172
-0.365648,-0.270135,0.059028,0.158610,0.265266,0.951040
-0.350702,-0.156072,0.619927,0.181270,-0.803441,0.567119
-0.413455,-0.214293,0.671722,-0.067628,-0.563551,0.823308
0.058349,-0.688774,0.211224,-0.558157,0.732610,0.389542
0.262623,-0.457941,-0.953426,0.910116,-0.308829,0.276251
0.495705,-0.043748,0.548157,0.347677,-0.697723,-0.626341
-0.671436,0.199094,0.521648,-0.514999,0.694985,0.501769
0.343240,-0.349650,0.626641,0.886580,-0.461461,-0.032102
0.066504,-0.554210,0.225351,0.772198,0.269132,0.575568
0.212371,0.643008,0.793793,0.233169,-0.921696,0.310014
-0.420115,-0.390808,0.569492,0.194790,-0.095464,0.976188
0.212003,-0.454420,0.524519,-0.148442,0.219770,0.964192
0.067402,-0.491814,0.592750,-0.633087,-0.216555,-0.743172
-0.310090,-0.411152,0.532267,0.413678,0.044799,0.909320
-0.635601,0.522685,0.714574,0.817402,-0.060404,0.572893
0.099043,-0.328198,0.497722,0.738460,-0.090755,-0.668162
0.592334,-0.426250,-0.979487,0.869825,0.129388,0.476091
0.305034,-0.300757,0.296733,0.096335,-0.700362,0.707257
0.497817,-0.487679,-0.979657,0.396627,-0.267507,-0.878138
0.470844,-0.445719,-0.944376,-0.549077,-0.154555,0.821357
0.524243,0.231713,0.590409,0.953676,0.300817,0.003360
-0.453758,-0.427933,0.566129,0.480377,0.717298,-0.504699
-0.398788,0.451538,0.676626,0.556526,0.788525,-0.261738
0.051165,-0.593668,-0.425614,-0.034167,0.531609,0.846301
0.232811,0.554312,0.632715,0.172927,-0.489106,0.854910
-0.717097,0.183723,0.447434,-0.362258,-0.889788,0.277571
-0.446644,0.173046,0.498758,-0.189370,0.920148,0.342735
-0.640655,-0.623997,0.573707,0.932654,-0.242781,0.266860
-0.007098,-0.391257,0.047737,-0.061245,0.831042,0.552827
-0.767352,0.103933,0.769665,-0.255472,-0.963635,-0.078370
0.225906,0.163128,0.517468,0.688527,0.443820,0.573545
0.564158,-0.456800,-0.946403,-0.046517,-0.024753,0.998611
-0.206977,0.030750,0.685179,-0.445376,0.749381,0.489967
0.009261,0.273395,0.507313,0.036396,-0.784013,0.619677
0.803803,0.468641,0.549773,0.755583,0.505856,-0.416177
-0.404115,0.426488,0.675951,0.660236,0.484062,-0.574258
0.403604,-0.392331,-0.957056,-0.291887,0.335228,-0.895781
0.904578,0.157937,0.673345,-0.794666,0.129768,0.593015
0.385572,0.665748,0.837449,0.814414,0.527576,-0.241646
0.183869,-0.247959,0.185728,0.912628,-0.092182,0.398263
0.523635,-0.380456,-0.959820,0.337781,0.582896,0.739010
-0.661438,-0.608273,0.538879,0.835142,0.076660,0.544666
0.340934,-0.448086,0.617015,0.708856,-0.616808,-0.342157
0.145539,-0.294868,0.441752,-0.616771,-0.267627,-0.740250
-0.320728,-0.282256,0.590761,0.401199,-0.235255,0.885265
0.851419,0.457042,0.650630,0.869260,-0.494098,-0.015971
-0.256137,-0.131065,0.564632,0.984407,-0.098008,-0.146071
0.478149,-0.276424,-0.344081,-0.781386,-0.613034,-0.116727
0.233132,-0.466173,0.452372,0.946685,0.308886,-0.091524
0.716660,0.449564,0.707791,-0.175206,-0.765956,0.618558
0.528245,-0.046625,0.303458,0.641448,0.193224,-0.742435
-0.693898,0.328128,0.371445,-0.466062,-0.852386,-0.237117
0.018399,0.428467,0.572781,0.290737,-0.040795,0.955933
0.104630,0.542745,0.702543,0.656400,-0.073393,0.750834
-0.406252,-0.118111,0.655065,0.674461,-0.479559,-0.561361
0.261350,-0.031381,0.581621,0.334178,0.903902,-0.266994
0.244096,-0.100493,0.490233,0.839017,0.522831,0.150659
-0.051853,-0.558774,0.143021,-0.073964,0.565509,0.821419
0.425176,-0.064447,0.704728,0.868118,-0.416852,0.269453
0.169104,0.639202,0.397034,0.931877,0.251738,-0.261216
-0.013608,-0.166976,0.476524,0.484078,0.791743,-0.372575
0.363196,-0.363668,-0.954653,0.429983,0.812696,0.393243
-0.731585,0.361771,0.606041,0.278349,0.898487,-0.339475
-0.350206,-0.571563,0.554932,0.465506,0.052236,0.883502
-0.647712,0.082556,0.404286,-0.648936,-0.354484,-0.673219
-0.137577,-0.459003,0.513656,-0.523452,-0.242301,-0.816877
0.406948,-0.533995,-0.956737,-0.313450,-0.013343,-0.949511
0.363197,-0.291111,-0.109666,-0.591623,-0.806134,0.011422
-0.430043,-0.433435,0.624425,-0.277960,-0.958910,-0.056825
0.530299,0.101211,0.425031,0.924783,0.149939,-0.349708
0.347993,0.498682,0.571376,-0.716326,0.623117,-0.314009
0.507199,0.408912,0.560035,-0.351118,0.713918,-0.605836
-0.317991,-0.808363,0.262576,0.494903,0.468255,0.731990
0.444104,-0.178857,0.536596,-0.683683,-0.667572,-0.294831
0.256141,-0.646194,-0.970176,0.215614,0.545547,0.809870
0.257939,-0.343294,-0.978836,-0.624722,0.262053,0.735562
0.262606,-0.309111,0.290964,-0.313085,-0.792733,0.523022
-0.142103,0.328550,0.627653,-0.739128,0.630847,0.236053
0.427884,-0.411245,-0.962107,0.179007,0.280683,0.942960
0.043380,-0.071233,0.495457,-0.030313,0.600556,0.799008
0.260891,0.166734,0.790009,0.253078,-0.949393,-0.186023
-0.039057,-0.343568,0.457142,-0.141086,0.702279,0.697782
-0.919244,-0.376944,0.722171,0.459025,0.270705,0.846177
0.311552,0.640164,0.721011,0.082985,-0.990738,-0.107483
-0.399000,0.012604,0.709639,0.906961,0.208134,0.366200
0.344757,0.440073,0.632223,-0.457547,0.246301,-0.854393
-0.574577,0.065969,0.360555,-0.670707,0.366531,-0.644831
0.625244,0.208108,0.430743,0.895473,0.321189,-0.308166
0.334296,-0.178934,-0.339748,0.911527,0.397688,0.104704
0.435772,-0.216370,0.481252,0.703076,0.694137,-0.154461
-0.071174,0.555122,0.752030,0.002266,-0.345328,0.938479
-0.393202,0.408213,0.665035,0.368520,0.250661,-0.895188
-0.531454,0.495892,0.711103,0.169171,0.636006,0.752913
-0.350170,0.198809,0.377517,0.299506,-0.948437,0.103748
-0.256763,0.271377,0.573072,-0.086256,-0.823304,0.561009
-0.093609,-0.504061,0.482449,-0.290747,-0.615872,0.732235
-0.375156,0.081989,0.487505,-0.441926,0.852540,-0.279064
0.262796,-0.540074,0.526779,-0.728146,0.107977,-0.676863
-0.004469,0.543934,0.478800,0.764328,-0.628271,0.145183
0.485957,-0.509143,-0.944077,-0.659505,0.557439,0.504296
-0.910795,-0.216519,0.158854,0.648679,0.334700,0.683514
0.439471,-0.379693,-0.440176,0.127010,-0.969716,-0.208612
-0.373684,0.183101,0.497294,0.295079,0.954836,0.034890
0.186006,-0.012179,0.580404,-0.366997,-0.902239,0.226447
0.416630,-0.567032,-0.947373,-0.517570,0.359972,0.776235
-0.875509,-0.253725,-0.369923,-0.414088,-0.484168,-0.770787
0.788939,-0.296548,0.540389,-0.236427,0.804493,-0.544879
-0.087149,0.616874,0.809990,-0.072295,-0.392855,0.916754
-0.478887,-0.419853,0.516337,0.382881,-0.909134,-0.163943
-0.037179,0.525275,0.605899,0.915255,0.080297,0.394792
-0.415182,0.226613,0.582238,0.111685,-0.400668,-0.909391
0.258933,-0.345363,-0.979616,-0.513136,0.498336,0.698822
0.028022,0.231168,0.805338,0.783014,0.583217,0.216208
0.290010,-0.275543,0.666073,0.929290,0.322799,0.179500
-0.147544,-0.073525,0.570001,-0.549167,0.798562,0.246402
-0.302607,-0.984054,-0.045164,-0.601924,0.779922,0.171488
-0.009140,-0.115953,0.574518,0.848270,0.003130,-0.529555
0.580091,-0.360025,-0.912349,0.292663,0.879972,0.374164
0.217102,-0.057228,0.555071,0.100790,-0.723130,0.683319
-0.002690,0.396426,0.567972,-0.458175,0.642092,-0.614649
0.503295,-0.342855,-0.987261,-0.314293,-0.045047,0.948257
-0.082233,0.576105,0.783699,0.053962,-0.988305,0.142622
0.844643,0.311434,0.678487,0.758484,-0.076967,-0.647131
0.360762,-0.153135,0.413293,0.447115,0.890311,-0.086223
0.235018,-0.091830,0.515116,0.986673,-0.161927,0.015976
-0.204395,0.339487,0.694386,-0.347958,0.724297,-0.595247
-0.240089,-0.277409,0.531702,0.882712,-0.249177,0.398411
-0.231826,0.345219,0.607785,-0.689685,0.723795,0.021341
0.423429,0.309034,0.439452,0.772811,-0.537708,0.337096
-0.301632,-0.378063,0.584591,-0.161694,-0.160214,0.973749
-0.103131,0.100676,0.421815,0.441327,-0.304995,0.843924
0.011587,0.117327,0.349552,-0.602420,0.278370,0.748064
0.306089,0.273784,0.483339,-0.230514,0.521039,-0.821816
0.106621,0.096912,0.766717,0.945711,0.175634,-0.273467
-0.157423,-0.105178,0.379746,0.271268,0.962106,-0.027668
0.625301,-0.330212,-0.954610,-0.044661,0.505390,0.861734
0.051410,0.590951,0.852708,-0.124410,-0.603859,0.787322
-0.309073,0.252086,0.550792,-0.055944,-0.838440,0.542114
-0.278603,0.225077,0.614535,-0.201740,-0.354786,0.912923
0.298830,0.009395,0.466688,-0.606042,-0.555497,-0.569329
-0.368116,-0.774384,0.264984,-0.165001,0.131327,0.977511
-0.353845,0.408017,0.688309,-0.280500,-0.846223,0.453020
0.323920,0.571101,0.753225,0.390766,0.760157,-0.519099
-0.401176,0.247053,0.536887,0.200221,-0.082727,-0.976252
-0.220917,0.083640,0.676706,0.918058,0.327325,0.223670
-0.638969,-0.646592,0.538240,0.905376,-0.251622,0.342025
0.545668,-0.557651,-0.952535,-0.494273,0.167941,0.852931
0.637019,-0.453114,-0.952765,-0.662964,0.726442,0.180997
-0.285447,0.185028,0.547383,-0.439314,-0.147211,-0.886190
-0.469043,-0.646979,0.129027,-0.820304,-0.027704,-0.571256
0.304006,0.514759,0.703959,-0.624021,0.695902,-0.355413
-0.525793,0.004327,0.760723,-0.202341,0.324705,0.923918
-0.586930,-0.719661,0.171573,0.474574,-0.809368,0.345981
-0.205040,0.207873,0.604003,0.665275,0.726237,-0.173173
-0.625612,0.410535,0.682551,-0.387704,-0.907937,0.159174
0.240847,0.553086,0.764510,0.034085,-0.873295,0.485998
-0.281050,0.026100,0.397126,0.526290,-0.399053,0.750850
0.685781,-0.045131,0.409106,0.883827,0.333819,-0.327742
-0.421317,0.248428,0.550146,0.201310,0.977717,-0.059524
-0.602248,0.467742,0.705925,0.365450,-0.495084,0.788250
-0.147237,0.452223,0.758274,0.883070,0.155146,-0.442851
-0.054774,-0.267948,0.457256,0.758853,0.591353,-0.272842
0.665186,0.414380,0.494743,0.768171,0.572427,-0.286776
-0.287866,-0.150405,0.553297,0.617266,0.739689,-0.268035
0.350196,-0.622950,-0.964431,0.359834,-0.084645,-0.929169
0.169886,0.182144,0.352809,0.408847,0.414918,0.812827
0.149262,0.402703,0.688546,0.829319,0.533496,-0.166170
0.386876,0.272038,0.446152,0.902864,-0.097602,0.418700
-0.555890,-0.069363,0.729851,0.945480,0.200902,-0.256333
0.310804,-0.278702,-0.053009,0.049428,-0.955791,0.289862
0.068496,0.401042,0.602222,-0.339024,-0.820795,0.459737
-0.406476,-0.317569,0.602191,-0.251374,0.088009,-0.963881
0.320772,-0.006987,0.642163,-0.646254,-0.683061,0.340269
0.260479,-0.554580,-0.986878,0.390471,-0.479936,-0.785616
-0.074105,0.766031,0.916362,0.213754,0.718177,0.662217
0.076434,-0.785807,0.306479,-0.524853,-0.569534,-0.632582
-0.532573,-0.892842,0.380178,-0.281924,-0.660368,0.696012
0.261706,0.006977,0.305719,0.878020,0.383715,-0.286083
-0.286869,0.330670,0.678328,0.875326,0.429665,-0.221793
0.514129,0.981631,0.773531,-0.946407,0.111835,-0.302997
-0.678382,-0.623976,0.567328,0.836488,-0.381878,0.393011
0.263042,-0.475965,-0.970270,-0.641267,0.446302,-0.624173
0.518604,-0.582789,-0.939457,-0.247298,0.824757,-0.508547
-0.451041,-0.058760,0.751902,-0.675873,0.310565,-0.668390
-0.152307,0.113166,0.440987,-0.331886,0.895674,-0.296005
-0.126133,0.538251,0.698600,0.821853,0.142817,0.551507
0.331371,-0.353990,-0.998377,-0.322176,0.407371,-0.854548
0.189131,0.092447,0.356309,-0.153490,-0.414594,0.896969
-0.296114,0.025146,0.737497,-0.046836,0.992391,-0.113869
-0.603251,0.292784,0.554435,-0.066843,-0.722556,0.688074
0.048858,0.648725,0.851470,-0.711083,0.652907,-0.260910
-0.064418,0.247993,0.413356,-0.459351,0.315242,-0.830433
0.073374,-0.530090,0.555942,-0.411724,0.709711,0.571658
0.407228,-0.655123,-0.958968,-0.492607,0.489497,0.719535
0.384176,0.604651,0.747876,0.778701,-0.622219,0.080427
0.472008,0.812225,0.977765,-0.566421,-0.547333,0.616112
-0.185689,0.039283,0.671395,0.464059,0.314798,0.827981
-0.352840,-0.153281,0.627373,-0.230079,-0.755093,0.613921
-0.759212,0.272464,0.488211,-0.454877,-0.172454,0.873697
0.629414,0.347216,0.486456,0.438733,0.885687,-0.151896
0.270381,0.582938,0.785973,0.851620,0.506304,-0.135644
-0.053025,0.055080,0.230402,0.658268,0.709693,0.251037
-0.619069,0.175410,0.448715,-0.531436,0.841135,-0.100336
0.304366,0.412354,0.620509,0.177854,0.979075,-0.098890
-0.589793,0.073802,0.411040,-0.675296,-0.483285,-0.557146
0.311277,-0.483782,-0.958994,-0.530159,0.290624,-0.796536
0.362121,-0.567347,0.350557,-0.573630,0.500366,-0.648523
0.620012,0.134917,0.485096,-0.685812,0.578064,0.442158
-0.312644,-0.861327,0.262435,0.403391,0.300204,-0.864380
-0.102912,0.421686,0.577914,-0.374875,-0.805222,-0.459442
-0.862747,-0.295398,0.146048,0.512218,0.689090,0.512628
-0.918655,-0.292834,-0.375062,-0.414088,-0.484168,-0.770787
-0.891469,0.547308,0.841181,-0.513299,0.495857,-0.700464
0.050628,-0.557840,0.328213,-0.469954,-0.880910,0.056038
0.275196,-0.557400,-0.400101,0.488511,-0.385867,-0.782601
0.441045,-0.012822,0.654072,-0.506884,-0.064638,-0.859588
-0.826005,0.118936,0.435118,-0.249508,0.961968,0.111190
-0.337558,0.481703,0.766226,0.688413,-0.176467,0.703524
0.078577,-0.111325,0.525882,-0.162994,0.273014,0.948101
0.571111,0.012990,0.530017,-0.186047,-0.786602,-0.588764
-0.213249,-0.078986,0.366889,0.827579,0.406642,-0.386982
0.565669,-0.104461,0.372317,0.824695,0.360252,-0.436001
0.484907,-0.073947,0.478609,-0.329068,0.178675,0.927248
0.188706,-0.231747,0.157395,0.992068,-0.122084,-0.029929
0.302021,-0.431719,-0.956022,-0.199610,0.708626,-0.676761
0.471320,-0.490106,0.435313,0.355806,-0.227424,0.906466
-0.861241,0.484180,0.801823,-0.538081,0.464028,-0.703667
-0.558629,0.588433,0.727539,-0.495277,-0.837722,0.230051
-0.899595,-0.696443,0.215309,-0.122788,0.749399,0.650633
-0.444720,0.306592,0.550134,0.461326,0.678722,-0.571415
0.620427,0.496972,0.573042,0.669058,0.307786,-0.676483
0.755919,-0.078674,0.465568,0.786172,-0.237584,-0.570516
0.521782,-0.218825,0.564759,0.038520,0.995014,0.091992
-0.334227,-0.117866,0.626674,-0.189482,-0.826164,-0.530613
0.563627,-0.074288,0.357886,-0.611379,0.340934,0.714129
-0.309168,0.131633,0.541133,0.270282,0.911088,-0.311233
-0.555661,0.148649,0.457967,-0.614363,-0.658181,0.435149
-0.053936,0.619037,0.821772,-0.135684,-0.079623,0.987547
-0.541154,0.279418,0.581315,-0.322408,-0.393348,0.861005
0.123543,-0.015710,0.329699,-0.582187,0.294153,-0.757979
0.126370,-0.217315,0.444332,-0.489047,0.870032,0.062266
0.307745,-0.477011,-0.941399,-0.117396,-0.020902,0.992865
-0.095713,0.498430,0.626191,-0.750511,0.393599,-0.530861
0.410267,-0.449634,-0.971247,0.043971,-0.033969,0.998455
0.583466,-0.508167,-0.944942,-0.157877,-0.275478,0.948255
-0.190366,0.169902,0.513905,-0.475099,0.872240,-0.116093
-0.547942,0.031980,0.370015,0.172177,0.873776,0.454829
-0.470108,0.347140,0.603404,0.609618,0.751775,-0.251395
-0.468445,-0.092757,0.631985,0.859615,-0.501414,-0.098213
0.427545,-0.340205,-0.468103,0.522908,0.850918,0.050057
-0.772300,-0.067633,0.732397,0.687629,0.461761,-0.560306
-0.305144,0.361875,0.675779,0.928261,0.315785,-0.196497
-0.662464,0.402386,0.350658,-0.263556,0.859616,0.437721
0.082074,-0.003883,0.519347,-0.432238,0.166416,0.886271
-0.262075,-0.982941,-0.007467,-0.601924,0.779922,0.171488
-0.088852,0.020008,0.589077,0.879757,0.446407,-0.163550
-0.583893,0.059822,0.756001,0.473880,0.517915,0.712181
-0.747972,0.310241,0.435712,0.930311,0.280645,-0.236134
0.392389,0.745528,0.824769,-0.250747,0.615278,0.747368
0.567433,-0.679404,-0.915996,-0.071581,0.974003,0.214927
-0.200147,0.466231,0.785711,-0.563813,0.635343,-0.527688
0.324566,0.095574,0.418796,0.753851,-0.402964,0.518969
0.448617,0.494860,0.655948,-0.292451,-0.037504,0.955545
-0.730109,0.349612,0.482466,0.914410,-0.394051,0.092621
-0.560295,0.217098,0.488991,-0.568363,-0.083779,0.818501
0.413199,-0.496232,-0.969518,0.323255,0.060307,-0.944388
-0.272087,-0.382601,0.604403,0.394053,0.072525,0.916222
0.520465,-0.372568,-0.588632,0.860427,0.504537,-0.071470
-0.352302,-0.411839,0.553101,-0.437372,0.822075,0.364552
-0.436019,-0.003306,0.740690,-0.705510,-0.142440,-0.694238
0.396970,-0.306498,0.292820,-0.358729,-0.660433,0.659653
0.220945,0.647749,0.715478,-0.008039,-0.999666,0.024564
-0.187895,0.391590,0.727363,0.716332,-0.618452,-0.323087
0.154369,-0.204791,0.337415,0.950451,-0.297017,-0.091784
-0.280776,0.429353,0.707928,-0.651488,0.563728,0.507714
-0.203760,0.270968,0.758187,0.155913,0.209831,0.965226
-0.218372,0.312031,0.588515,0.447120,0.682494,0.578174
0.820102,-0.470161,0.640815,-0.727177,0.654243,-0.207795
0.642642,0.321402,0.556700,0.819811,-0.568153,0.071499
0.645722,0.237473,0.509679,0.311005,0.331125,-0.890860
-0.443622,0.481475,0.774542,-0.119940,-0.757761,0.641415
0.143077,0.218482,0.314200,0.962395,-0.163975,-0.216583
-0.094352,0.169636,0.564677,-0.506307,0.634868,0.583606
0.689757,0.421982,0.397722,0.280624,-0.780053,-0.559256
-0.271056,0.190989,0.769450,-0.161905,-0.713415,0.681782
0.366330,-0.325280,-0.981011,-0.220193,-0.875538,0.430057
0.116262,-0.711607,0.216622,-0.044919,0.832464,0.552255
0.148635,0.009722,0.526751,0.526036,0.010735,-0.850394
-0.269334,-0.479035,0.528448,0.712741,0.362579,0.600447
0.277985,-0.620003,0.405238,0.897217,0.425044,0.119746
0.570192,0.179760,0.475444,0.499146,0.327524,-0.802236
-0.057348,0.125891,0.412666,0.391680,-0.209733,0.895879
-0.604511,-0.238480,0.067275,0.914635,0.382570,0.130706
0.242567,-0.553176,-0.984904,0.959254,-0.170331,-0.225429
0.642169,0.515653,0.713960,0.753953,0.621835,-0.211842
0.350411,0.015060,0.784033,-0.430224,-0.884056,0.182627
-0.233848,0.293723,0.570568,-0.579376,0.814600,-0.027395
0.383952,0.359921,0.340306,0.746684,-0.105788,-0.656713
0.155517,-0.257373,0.347520,0.807446,-0.563017,0.176190
0.143438,0.516811,0.628252,0.045306,-0.446052,0.893859
-0.357871,-0.368396,0.593232,-0.202084,-0.198632,-0.959014
0.008954,-0.698371,0.271120,-0.121827,0.980519,0.154078
0.432553,0.078966,0.471208,-0.691112,-0.008710,0.722695
0.725707,0.293175,0.585472,-0.434868,-0.608901,0.663422
0.560794,-0.289124,-0.930216,0.252372,0.777058,0.576619
-0.664760,-0.508068,0.566518,0.249557,-0.967976,0.027271
-0.464949,0.360995,0.637511,-0.448648,-0.611894,0.651384
-0.805766,0.234432,0.459664,0.315822,0.850577,0.420447
-0.690531,0.314721,0.493967,0.464787,0.868103,-0.174270
-0.483259,-0.144253,0.729028,-0.338635,0.699994,0.628756
0.135642,0.059194,0.760232,-0.689323,-0.720722,0.073440
-0.483373,0.314981,0.633657,-0.029741,-0.722438,0.690795
0.197808,0.495642,0.613180,0.873108,-0.455517,-0.173742
-0.548827,-0.498205,0.577593,0.835991,0.083762,-0.542313
-0.129528,0.197157,0.793857,0.884290,0.093395,-0.457503
0.646896,-0.455606,-0.926720,0.641207,0.642748,-0.419201
-0.010157,0.052688,0.621646,-0.381902,0.915251,-0.128321
-0.486220,0.407143,0.409053,0.835992,0.337995,0.432292
-0.555452,0.250550,0.478944,0.246673,-0.936401,0.249611
-0.455250,0.276476,0.567957,0.857642,0.449321,-0.250120
-0.385243,0.375390,0.676501,0.405634,0.787109,-0.464673
-0.342573,0.152347,0.567967,0.073844,0.993372,-0.088086
-0.504845,0.227008,0.517487,0.010166,-0.885594,0.464348
-0.361835,-0.856691,0.271908,0.749004,0.255383,-0.611369
0.212607,-0.558910,-0.432844,0.488511,-0.385867,-0.782601
-0.614253,0.027093,0.404228,0.507561,0.640729,-0.576063
0.406197,0.253622,0.387751,0.973369,-0.222523,0.055109
0.377729,0.368264,0.422396,-0.796520,-0.360192,0.485610
0.914889,0.388926,0.794355,-0.735741,0.076087,0.672976
-0.616972,-0.047891,0.800078,-0.288885,-0.207762,-0.934548
0.160282,0.035040,0.768443,-0.511809,-0.839517,0.182381
0.185665,0.273540,0.321407,0.962979,0.266829,-0.038383
0.795635,0.260118,0.675919,0.436550,0.886792,-0.151737
-0.101343,-0.191066,0.598320,0.513007,-0.852147,0.103296
0.006143,-0.316599,0.493578,-0.096913,0.982229,-0.160732
0.147086,-0.235387,0.343603,0.320570,-0.467037,0.824082
-0.807744,0.321161,0.577884,-0.232557,-0.750159,0.619015
0.449292,-0.351759,-0.960314,0.330720,0.817157,-0.472101
0.221169,-0.399394,0.532162,-0.245574,0.785946,0.567435
