0.025044,0.029902,0.793271,0.644248,0.154759,0.748996
-0.093150,-0.001491,-0.528491,-0.712062,0.287908,0.640373
0.020221,0.515294,0.325518,0.633738,0.276775,-0.722338
-0.755942,0.100402,0.451492,-0.346884,0.659838,0.666548
0.047891,0.055208,-0.956373,0.273260,-0.412060,-0.869216
-0.064913,-0.202164,0.581935,-0.541569,-0.483354,-0.687802
0.260165,0.519077,0.583114,-0.651827,0.673240,0.349099
-0.531889,0.444380,0.634858,0.114414,-0.158289,0.980742
0.155875,0.587413,0.212817,0.930079,-0.043746,0.364745
-0.294356,0.112990,0.301333,0.110015,0.570911,0.813607
0.381486,0.250471,0.407289,-0.552675,0.562258,-0.615156
0.144663,-0.216238,-0.524103,-0.054644,0.995531,-0.077026
-0.130754,-0.442490,0.688247,0.968972,0.078998,-0.234207
-0.199147,-0.072669,-0.690112,0.446050,0.647528,-0.617857
0.043491,0.471718,0.311671,0.170947,0.470715,-0.865566
0.115148,0.474832,0.619502,-0.567090,0.323852,-0.757317
0.744025,-0.441408,0.275666,0.912952,-0.367622,0.177123
0.599008,0.108117,0.676209,-0.631945,0.716778,0.294744
0.482230,-0.791745,-0.929006,-0.230447,0.327729,0.916236
-0.162253,0.807710,0.478227,0.033458,-0.639565,0.768008
0.526074,-0.235729,0.438521,0.855673,0.517502,-0.003839
0.191630,0.392827,0.535456,0.834931,0.416355,0.359916
-0.040793,0.052094,0.600801,0.520949,0.838798,-0.158212
-0.024615,0.204055,0.070418,0.653736,0.067518,-0.753704
-0.185667,0.472528,0.419573,0.549009,0.504116,-0.666675
-0.072863,0.112444,0.400625,0.847284,0.347602,-0.401599
-0.119119,0.023006,0.643633,-0.645505,-0.186431,-0.740653
-0.674069,0.216370,0.554404,0.452883,0.743123,0.492610
-0.520111,0.115153,0.531836,0.804515,0.468579,0.364951
0.003618,-0.171043,0.784825,0.836024,-0.547010,0.042933
0.361619,-0.062650,0.615224,0.822234,0.563519,0.079858
0.144945,0.247093,0.785894,0.059896,-0.350235,0.934745
0.167649,0.312580,0.682077,-0.043782,0.863582,0.502304
-0.141113,0.445471,0.030657,0.961661,-0.209317,0.177186
0.313800,-0.248713,0.816524,-0.692645,0.306640,0.652852
0.055694,-0.145333,0.790200,-0.180710,-0.113787,0.976932
0.346151,-0.002028,0.793792,-0.377357,0.730091,0.569710
-0.502092,-0.100139,0.720549,0.008511,0.913608,0.406507
0.147500,0.248580,0.731710,0.836256,-0.297188,0.460820
0.083083,-0.395132,0.665241,-0.617758,0.473980,-0.627470
-0.267682,-0.038162,0.355627,-0.578015,-0.815076,0.039362
0.494008,-0.470777,0.492240,0.832842,0.441680,0.333606
0.363320,-0.697029,-0.943677,-0.038852,-0.052489,0.997865
-0.343739,0.212182,0.589750,-0.247951,-0.739127,0.626268
-0.065909,-0.122868,0.799578,0.802183,0.282389,0.526080
-0.147071,-0.112048,-0.977076,-0.257008,0.232774,0.937957
0.364316,0.295401,0.415350,0.700732,0.304369,-0.645240
-0.188789,-0.017183,0.755018,-0.409723,-0.875325,0.256775
0.200996,0.559538,0.040995,-0.648497,-0.143587,0.747552
0.081944,0.020024,0.433695,-0.134296,-0.985733,0.101469
-0.473855,0.003382,0.471756,0.361313,0.868379,-0.339664
-0.147214,0.613669,0.459910,-0.133652,-0.684520,0.716637
-0.308547,-0.419893,0.220220,0.448466,0.893073,0.036036
0.202555,0.267931,0.650132,0.707020,-0.516131,-0.483458
0.062363,0.260895,0.650296,-0.366971,-0.904638,0.216708
0.303585,-0.126526,0.709362,0.743967,0.439479,-0.503361
0.135297,-0.105688,0.795629,0.298345,-0.086192,-0.950558
0.368430,-0.055886,0.726802,-0.622199,0.339929,0.705207
-0.448315,0.202296,0.573681,-0.180224,-0.944281,0.275412
-0.340474,0.375912,0.330838,-0.016397,-0.769633,0.638276
0.080385,-0.090533,0.954371,0.035798,0.812441,0.581944
-0.000777,0.084710,0.690057,0.574410,-0.763867,0.294212
0.212346,0.537214,0.509981,-0.550273,0.834805,-0.017325
-0.110463,0.144787,0.588735,0.745323,-0.299030,0.595882
0.111316,-0.000004,0.839229,0.022466,-0.949330,0.313478
0.182406,0.153311,0.949846,-0.578072,0.760743,0.295131
0.789289,0.444116,0.452150,0.884784,0.318062,-0.340580
0.550055,0.302026,0.512833,0.892620,-0.042110,0.448840
0.449593,0.550610,0.541159,0.517766,0.489893,0.701372
0.292659,0.159133,0.196090,-0.620852,0.225858,0.750687
0.369283,-0.435321,0.701958,0.956534,0.222657,-0.188324
-0.112165,-0.415424,0.670204,0.811261,-0.404627,0.422057
-0.131604,-0.019487,0.665350,0.239428,-0.294722,-0.925102
-0.567787,-0.162520,0.648733,-0.637311,-0.580522,0.506782
0.115573,0.124354,0.777092,0.368297,0.734062,0.570535
-0.164097,-0.089038,0.595755,0.777841,-0.474833,0.411700
0.079532,0.090120,-0.963255,-0.035751,0.556143,0.830317
-0.294785,-0.303793,0.510722,-0.152329,0.503684,0.850352
-0.083221,-0.329504,0.738401,0.888038,-0.438312,0.138820
0.155875,0.598108,0.527476,-0.715200,-0.219201,0.663657
-0.144945,-0.417184,-0.632335,0.729595,-0.522214,-0.441570
0.158001,0.441680,0.272431,0.792581,-0.578388,-0.193089
0.092445,0.003655,0.687973,0.103417,0.689729,0.716644
0.210925,0.553583,0.555693,0.255922,0.866487,0.428608
-0.249092,0.482001,-0.991582,0.064424,0.132489,0.989089
-0.091449,-0.356834,0.607464,0.391764,-0.657697,-0.643393
-0.432990,0.383494,0.282412,0.933974,0.058349,0.352546
0.264136,-0.093102,-0.956620,0.064307,0.139721,0.988101
0.343600,0.165765,0.604557,-0.153927,-0.783597,-0.601899
-0.003189,0.058727,0.938851,0.938119,-0.277465,-0.207233
0.168645,-0.437212,0.505347,0.675467,0.689295,0.261949
-0.076410,0.501080,0.311122,0.974293,-0.151342,-0.166880
0.885776,-0.405009,0.494242,0.573108,0.753540,-0.322064
0.048458,0.101897,0.700669,0.915009,-0.222781,-0.336344
0.138138,-0.416242,0.694444,0.027793,-0.998935,0.036826
-0.081376,0.022329,0.591724,0.569813,0.815819,0.098751
-0.209223,-0.033834,0.674537,-0.602035,-0.794585,-0.078671
-0.408299,-0.357106,0.042201,0.580689,-0.281828,-0.763788
0.456404,0.585794,0.539514,-0.595355,-0.493285,-0.634210
-0.156580,0.594722,-0.038006,0.330904,-0.258572,0.907548
0.374107,-0.114477,-0.954865,0.071254,0.213904,0.974252
-0.011135,-0.024897,0.726500,0.945131,0.309930,0.103301
-0.307837,-0.233293,0.571899,0.976290,0.210348,-0.051096
0.257467,0.404736,0.455906,0.257381,-0.786459,0.561460
0.151613,0.107580,0.777805,0.914551,0.218214,-0.340556
0.213341,-0.072941,0.639026,0.918327,-0.048697,-0.392817
0.194185,0.489442,0.704865,-0.613679,0.747966,-0.252872
0.524229,0.195127,0.512394,-0.623096,0.775103,0.104727
0.826040,0.452499,0.528408,0.486930,0.627806,0.607255
-0.048739,0.008255,0.651777,0.247128,0.936271,0.249650
-0.075842,-0.259681,0.731600,-0.564852,-0.048454,-0.823769
0.086344,0.042894,0.359192,0.993874,0.104015,0.037358
0.035688,0.256022,0.726829,0.979740,-0.028259,0.198271
0.094147,0.158729,0.723155,-0.013939,-0.905076,0.425022
-0.151895,0.518945,-1.000000,-0.130552,0.066102,0.989235
0.585672,-0.089038,0.793271,0.599032,0.545713,-0.585968
0.076696,0.427879,0.615910,-0.708499,0.256319,-0.657517
0.218166,0.020024,-0.966930,0.003634,0.183949,0.982929
-0.224687,-0.138701,0.604612,-0.204866,0.947531,-0.245387
-0.084637,0.493506,0.310985,0.307572,0.120183,-0.943904
-0.089604,-0.040870,0.548947,0.867777,-0.342522,-0.360058
0.218733,-0.274696,0.571871,-0.694860,-0.698042,-0.172938
0.618023,0.504466,0.517769,0.495165,0.762941,-0.415610
-0.176586,0.718535,0.469508,0.002561,-0.601719,0.798704
-0.001345,-0.123685,0.483054,0.949573,-0.306501,0.066096
0.278045,0.099593,-0.713283,0.938433,0.262730,0.224316
0.599151,-0.203519,0.619420,0.448192,0.122148,-0.885553
0.095142,-0.120704,0.956016,-0.152973,0.836122,0.526782
-0.348420,-0.050336,0.708073,0.663039,0.614030,0.428190
0.176023,0.157647,0.620407,-0.312862,-0.709774,0.631141
-0.182830,-0.423411,0.637874,0.133788,0.924421,-0.357136
-0.122808,0.297565,0.593836,0.259818,-0.479877,0.837981
0.619443,0.054258,0.526379,0.891618,-0.341219,0.297635
0.166939,-0.109199,0.626357,0.930683,0.365742,0.007874
0.315220,-0.538700,-0.944801,-0.087485,0.151646,0.984556
-0.298332,-0.033016,0.313151,-0.348252,0.647316,0.678013
0.246542,-0.262654,0.800071,-0.531269,0.159930,0.831971
0.260732,0.173744,0.564440,0.897194,-0.327644,-0.296128
-0.035969,-0.181731,0.800044,0.986204,-0.101258,0.130956
0.158425,-0.072396,0.747724,-0.546463,0.820257,0.168988
0.099256,0.057099,0.569074,0.200310,0.614970,0.762684
0.190352,-0.020702,-0.967561,-0.140573,0.259412,0.955481
-0.167363,0.289447,0.596139,-0.246519,-0.212394,0.945578
0.550055,0.362920,0.650790,0.919157,0.215658,-0.329610
0.594466,0.049253,0.802951,0.729901,-0.662337,-0.168978
0.761195,0.442894,0.456044,0.732087,0.435841,-0.523538
0.446756,0.127195,0.642947,0.126504,0.893741,0.430376
-0.122241,0.302975,0.595892,0.123496,-0.343944,0.930834
-0.067468,-0.278214,0.744242,0.793057,-0.518953,-0.318981
-0.246966,-0.063872,0.742514,0.096002,-0.977550,0.187560
0.110325,0.574421,0.323489,0.162597,-0.336706,-0.927465
-0.036680,0.408660,-0.984068,0.160462,-0.019480,-0.986850
-0.490882,0.382271,0.641055,-0.042883,0.124588,0.991281
0.123804,0.149660,0.624246,0.931034,-0.230844,-0.282642
-0.019791,-0.178213,0.794724,0.816268,-0.536316,0.214644
0.112737,0.742082,0.337556,-0.278602,-0.618646,0.734614
0.472721,0.066441,0.681255,-0.243833,0.856298,0.455301
-0.083359,-0.334369,0.668230,0.834341,-0.384100,0.395402
0.605820,0.108257,0.762723,0.536323,0.671705,-0.511048
-0.345298,-0.156565,0.591724,-0.568993,0.822265,0.011292
-0.798084,0.551964,0.370105,0.412571,-0.479856,-0.774289
-0.298899,0.096884,0.511489,-0.236110,0.830396,-0.504672
0.166514,0.390258,0.704645,0.549658,0.265084,-0.792216
0.072439,-0.771584,-0.347017,-0.464589,0.382935,0.798447
-0.038095,0.182003,0.004086,-0.522761,-0.819036,-0.236432
0.053849,0.190394,0.798289,-0.783638,-0.021277,0.620853
-0.450160,0.317594,0.589695,0.180841,0.582163,-0.792706
-0.221283,-0.098784,0.669217,0.973507,-0.112421,-0.199112
0.285138,-0.010015,0.708073,0.748605,-0.135518,0.649019
-0.241289,0.497834,-0.452589,0.122685,0.566823,0.814653
0.346294,0.230311,0.595536,-0.284607,0.267586,0.920541
-0.311388,-0.087279,0.625672,-0.699340,0.708486,-0.094722
0.217313,-0.324358,0.715422,0.557084,0.824112,0.102457
-0.038381,-0.108117,0.773418,0.920338,-0.352539,-0.169394
0.625401,-0.078888,0.791214,0.248183,0.928671,0.275635
0.410572,-0.046148,0.752029,-0.489878,0.864909,-0.109323
0.244983,-0.224761,0.668614,0.035525,0.570344,0.820638
-0.031713,0.093911,0.817895,-0.697259,0.707761,0.113596
-0.026746,-0.028284,0.426813,-0.665598,0.551139,0.503215
-0.339197,-0.030043,0.365800,-0.714555,-0.102537,-0.692025
0.121250,0.396618,0.689673,0.662826,0.149642,-0.733668
-0.491735,0.094183,0.386448,-0.137467,0.976918,-0.163503
-0.074422,0.052640,0.750027,0.155629,-0.928634,0.336776
0.378507,0.023815,0.772732,-0.240604,-0.943204,-0.229076
0.172334,0.336805,0.662718,-0.316432,0.948615,0.000346
0.529196,-0.151287,0.529368,0.759653,-0.642124,-0.102977
-0.234334,-0.154401,0.397170,-0.080301,0.257193,-0.963018
-0.156013,0.234779,0.597236,-0.643016,0.099595,-0.759349
-0.089461,0.041944,0.379045,-0.547299,0.065164,-0.834396
0.098122,0.219211,0.561067,-0.310403,-0.309637,-0.898763
0.207665,0.197564,0.636065,-0.665822,-0.024118,-0.745720
-0.463497,-0.585927,-0.285703,0.778789,-0.594228,-0.200951
0.197588,0.068605,0.943540,0.547635,-0.818427,-0.173993
0.018518,-0.214619,0.772623,0.878297,-0.316706,0.358178
0.044911,0.047494,-0.103844,0.959218,0.046588,0.278800
-0.656757,0.221515,0.547110,0.748774,0.661336,0.044408
0.808585,0.448171,0.523007,0.441959,0.751229,0.490232
0.212631,0.460354,0.704206,-0.219575,0.923516,-0.314490
0.183969,-0.417861,-0.948091,-0.147964,0.364957,-0.919192
0.169636,0.239107,0.341176,0.868475,-0.494904,-0.028649
-0.564526,0.367116,0.378880,-0.698130,0.416640,-0.582260
-0.386449,-0.132209,0.656521,0.181379,-0.896779,0.403595
-0.084213,0.389713,0.425359,-0.383186,-0.382920,0.840560
-0.469313,-0.045735,0.712652,-0.536836,0.564574,-0.626947
-0.337776,-0.268469,-0.963886,0.287801,0.035966,-0.957015
0.641294,-0.326118,0.449408,0.622348,-0.144694,-0.769250
0.716497,0.209068,0.606559,0.185072,0.487455,0.853309
0.165094,-0.112717,0.664884,0.912400,-0.159179,-0.377078
-0.509471,-0.090393,0.719316,-0.218610,0.966657,0.133353
0.047891,0.410824,-0.035401,0.249919,0.373663,0.893262
0.111602,0.293370,0.614264,0.072153,0.299371,0.951405
0.315644,0.043439,0.768647,0.212990,-0.948641,-0.233912
-0.230788,0.498379,-0.467506,0.119792,0.224469,0.967090
0.228805,-0.079565,0.792476,0.818552,0.393974,-0.418039
-0.343029,0.075509,0.363524,0.487809,0.871533,-0.049717
-0.362043,-0.405546,-0.971262,-0.054340,0.138987,0.988802
0.231360,0.022329,-0.694965,0.792704,-0.594003,0.137041
0.060946,0.181458,-0.201711,-0.412190,-0.022410,0.910822
0.828877,-0.294047,0.622902,0.335316,0.737299,-0.586475
-0.488184,-0.204601,0.331743,0.233764,0.313783,0.920269
0.926927,0.213669,0.487167,0.706554,0.606981,-0.363808
0.590495,-0.544796,-0.935395,-0.439813,-0.025314,0.897733
-0.073430,0.086874,0.825930,0.272424,0.865611,0.420123
0.663430,0.284442,0.494461,0.752461,-0.364439,-0.548622
0.482940,-0.448312,-0.936575,0.047911,0.240689,0.969419
0.175452,-0.043299,0.975293,-0.588996,0.806864,-0.045324
-0.600138,0.362111,0.638313,-0.163918,-0.153551,0.974450
0.082230,-0.063600,-0.209060,0.150341,-0.982041,0.113991
-0.203689,0.031124,-0.740951,0.586476,0.676793,0.444969
-0.024191,-0.474832,0.687178,0.647061,-0.761312,0.041421
-0.101807,-0.306907,0.833854,0.960002,0.183380,0.211587
0.494857,0.028820,0.746435,0.752451,0.523601,0.399573
-0.098970,-0.131804,0.711747,0.719010,0.588127,-0.370312
-0.316211,-0.155888,0.600993,-0.067492,0.907351,0.414919
0.184675,-0.051558,0.810217,0.886947,0.345252,0.306800
0.672511,0.619624,0.525940,0.104931,-0.041873,-0.993598
-0.008866,-0.212314,0.580948,-0.310595,-0.572457,-0.758831
-0.100815,0.073882,0.825107,-0.019304,0.957977,0.286195
0.092021,0.012450,0.857683,0.624087,0.731433,-0.274811
-0.023909,0.055753,0.581085,-0.715445,0.579460,0.390338
-0.367859,-0.365902,0.359493,0.981591,0.029731,-0.188667
-0.363177,-0.248713,0.594302,0.986442,0.139992,0.085645
-0.449874,0.420974,0.314879,0.867182,0.451502,-0.210101
0.116569,0.038839,0.665981,0.487735,0.455700,0.744615
0.547500,-0.631939,-0.942196,0.208400,-0.017533,-0.977886
-0.819510,0.077400,0.462049,-0.325179,-0.941504,0.088485
-0.340331,-0.226256,-0.969645,-0.380215,-0.175645,0.908067
-0.538844,0.573479,0.373752,0.563928,-0.595527,0.572130
0.167506,0.093506,0.808106,0.916988,-0.101717,0.385728
0.356795,0.207714,0.669381,0.336842,0.718128,0.608958
0.572191,-0.153179,0.581332,0.747881,-0.271731,-0.605670
-0.086768,0.152369,0.359877,-0.665003,-0.636029,0.391456
-0.460942,0.046140,0.694170,0.809726,-0.274570,-0.518609
0.106778,0.297020,0.292695,0.953948,0.163335,-0.251604
0.256051,0.012715,0.763573,0.679114,0.720519,-0.140202
-0.179422,-0.091475,0.671328,0.592329,0.787560,0.169986
-0.018090,-0.080787,0.762257,0.948883,-0.315581,0.005430
0.151046,-0.035725,-0.057667,0.256953,-0.909022,-0.328108
0.122813,-0.509339,-0.187479,0.994815,0.062913,0.079910
0.202698,-0.433289,0.445404,0.267579,0.557482,0.785885
0.379212,-0.820165,-0.935724,-0.053300,0.274529,0.960100
0.063783,0.511775,0.783536,0.946471,-0.018867,0.322236
0.005463,0.037484,0.789295,0.162778,-0.918097,0.361388
0.331255,-0.389581,0.686931,-0.432529,-0.059064,0.899683
0.025473,-0.229097,0.145744,0.848657,-0.003063,0.528935
0.218304,-0.132886,0.785483,0.826170,0.371811,0.423320
-0.092869,0.109744,-0.974937,0.310376,-0.140815,-0.940127
-0.470590,0.070496,-0.691428,0.573586,0.781173,0.246513
0.341189,0.566038,0.546452,0.158469,0.781833,0.603012
0.078398,0.100947,0.877591,0.312292,0.887141,-0.339786
0.041079,0.041275,0.937452,0.186010,0.847828,-0.496577
0.282158,0.010286,-0.179664,-0.480489,-0.700540,-0.527612
0.306707,-0.136405,0.694856,0.840806,0.469111,-0.270150
0.563249,-0.132614,0.576176,-0.364126,0.926917,0.090760
-0.063640,0.049931,0.857848,-0.150773,-0.986333,0.066451
0.467615,0.355619,0.815016,0.752869,-0.604384,-0.260591
0.301454,0.107844,0.673001,-0.028522,0.880712,0.472793
-0.114295,-0.277677,0.844987,0.731531,0.478898,0.485303
0.232213,0.533018,0.538691,-0.396328,-0.751648,0.527209
-0.327137,-0.003250,0.689920,0.085150,0.794818,0.600844
0.341756,0.049253,0.652983,0.924860,0.307864,-0.223280
-0.090457,-0.069423,-0.520374,-0.176592,-0.946211,0.271107
0.048177,0.146274,-0.318169,0.981555,0.113349,-0.153957
0.302307,0.138568,0.631266,0.267281,0.947005,0.178163
0.057682,0.269418,-0.043106,0.271008,0.389247,-0.880364
0.082654,-0.065227,0.785456,0.825032,-0.296328,0.481156
-0.020644,0.331667,0.746134,-0.699445,0.610325,-0.371859
0.701315,0.157647,0.549550,0.770720,-0.551630,-0.318896
0.211778,-0.250208,0.623012,0.821491,0.010234,-0.570130
0.000500,-0.086602,-0.108917,0.796075,-0.379480,0.471444
0.212770,-0.384303,0.575601,0.751508,0.519811,0.406241
0.444201,-0.136000,0.448859,-0.700436,-0.713589,-0.013418
0.175738,0.852094,0.110535,-0.239225,0.200411,0.950056
-0.067896,0.684978,-0.992487,-0.066978,-0.011880,0.997684
0.136717,0.097024,0.697324,-0.293854,0.677913,-0.673857
0.230507,0.556565,0.715806,-0.760361,0.617023,-0.202814
0.022918,-0.060486,0.772266,0.837967,0.300055,-0.455827
-0.161118,0.571175,0.600033,-0.548904,-0.812274,0.197270
-0.129477,-0.192558,-0.326505,0.237689,-0.888279,-0.393020
0.057114,0.426252,0.623231,0.951796,-0.162977,-0.259853
-0.254769,0.695261,0.624739,0.274251,-0.096636,0.956790
0.058535,-0.060486,0.890260,-0.744430,-0.117164,0.657340
-0.177578,0.094860,0.804596,0.034158,-0.975007,0.219534
0.000925,-0.294180,0.755046,0.877492,-0.427364,-0.217640
-0.168783,-0.288093,0.849073,0.752899,0.605195,0.258616
0.336927,0.016910,-0.653340,0.488068,0.725098,0.485821
-0.011135,0.493911,-0.043271,0.105190,0.117138,0.987529
0.169069,-0.207310,-0.949298,0.229666,-0.311953,-0.921921
0.103513,0.329363,0.794669,0.943486,0.189384,-0.271969
0.346294,0.251017,0.601294,-0.358105,0.074039,0.930741
0.141823,0.340596,0.051031,0.868091,-0.137674,-0.476932
0.117561,0.229766,0.850883,-0.618469,0.651213,0.439793
-0.348563,0.105275,-0.474361,-0.128629,-0.062982,-0.989691
-0.205248,0.418405,0.601925,0.533914,0.815514,-0.223323
-0.337637,0.516648,0.346413,0.903279,-0.379260,-0.200623
0.129053,0.180649,0.646128,0.775499,0.626253,-0.080052
-0.213618,-0.213669,-0.711775,-0.326872,-0.419214,0.847003
-0.096702,0.402300,-0.030026,-0.027355,0.887686,0.459637
-0.321178,-0.412451,0.569266,0.970301,-0.221323,0.097631
-0.122384,0.055481,0.775748,-0.385770,0.922328,0.022192
-0.032561,0.509471,-0.979132,0.152286,-0.150356,-0.976833
-0.100105,0.120835,0.837172,0.146412,0.491387,-0.858547
-0.086200,-0.441548,0.775200,0.773458,0.383405,0.504741
0.150622,-0.312854,0.624904,0.142775,0.164118,-0.976053
-0.070876,0.110826,0.596934,0.821205,0.515145,-0.245455
0.237461,0.198778,0.677251,-0.063425,0.468651,-0.881104
0.196878,-0.105821,0.650187,0.997896,-0.061091,0.021729
0.545231,0.233829,0.664966,0.816703,-0.562270,0.129801
0.136860,0.054258,-0.968493,-0.041996,0.388199,0.920618
0.906635,0.202436,0.599183,0.979554,-0.198092,0.035115
0.336789,-0.101625,0.453686,0.585022,0.758769,-0.286390
-0.513018,0.417051,0.636311,-0.056406,-0.181456,0.981780
0.198298,-0.354397,0.628770,0.986636,-0.146457,-0.071409
-0.024334,0.701620,-0.285840,0.906471,0.270224,-0.324482
0.008728,0.106630,0.567813,-0.204026,0.268049,0.941553
0.087621,0.272532,0.785812,-0.170925,-0.446224,0.878447
-0.000210,-0.036807,-0.959773,-0.575634,0.444643,0.686249
-0.589499,0.101897,0.481326,0.311078,0.838219,-0.447905
0.520258,-0.029638,0.610288,0.976305,-0.209543,0.054044
-0.149769,0.135454,0.029231,0.137161,-0.002378,0.990546
0.233204,0.830720,0.354448,0.841824,-0.441157,0.310986
-0.049731,-0.123008,0.631019,0.849287,0.394128,0.351246
0.010997,-0.071587,0.027997,-0.449134,-0.818229,0.358860
0.172049,-0.000136,0.773363,0.466900,-0.074426,0.881173
0.003761,0.445198,0.407151,0.639699,0.124681,0.758446
0.021074,-0.001623,0.407590,0.928599,0.369960,0.028857
-0.014968,-0.161570,0.804980,0.633282,-0.667688,-0.391340
0.091735,-0.119895,0.829796,0.853354,0.517798,-0.060594
0.001492,0.580921,-0.988181,-0.205633,0.226840,0.951976
-0.264560,-0.117590,-0.282467,-0.048871,0.998784,-0.006463
0.514014,0.192691,0.576752,0.404605,0.573588,-0.712244
0.033557,0.064409,0.837995,0.295885,0.891748,0.342401
0.020506,-0.028689,0.016233,0.957339,-0.218752,0.188812
0.155732,0.236398,0.671328,0.675016,-0.581764,0.453766
0.225826,-0.222870,0.777284,0.941126,0.245316,0.232599
-0.104219,0.402432,0.340874,0.609839,-0.739634,-0.284671
0.022208,0.014614,0.965010,-0.572929,0.646526,0.503743
0.217455,0.542219,0.523144,0.776166,-0.484331,0.403720
0.180419,-0.198918,0.786991,-0.650976,0.582862,-0.486314
-0.593045,-0.383222,-0.629977,0.918890,0.248252,0.306614
-0.051861,0.351011,-0.982149,0.279527,-0.010589,-0.960079
0.236041,-0.160621,0.782906,0.860971,0.202816,0.466471
-0.366014,-0.371452,0.074559,-0.234922,0.049239,0.970766
-0.504219,0.013805,-0.530136,-0.723886,0.689193,-0.031673
0.275914,-0.342355,0.491225,-0.566562,0.263607,-0.780717
0.208656,0.046957,0.790940,-0.523871,-0.054565,-0.850048
0.056123,0.221647,0.564769,0.245366,0.942100,0.228566
0.632923,-0.249795,0.616376,0.467005,0.215561,-0.857578
-0.293222,-0.355075,0.405342,0.210807,0.888020,-0.408633
-0.066190,-0.146960,0.510256,0.343939,-0.503075,0.792856
0.099681,-0.021651,0.780493,-0.533824,0.579553,-0.615752
0.097698,0.145869,0.580427,-0.218586,0.867525,0.446790
-0.395243,-0.047090,0.783536,0.057046,-0.826377,0.560220
-0.534587,-0.220838,0.627290,0.848584,-0.072568,0.524060
0.003194,0.308393,-0.486372,-0.074843,-0.995485,-0.058383
-0.034549,-0.041812,0.712241,0.852977,-0.514342,-0.088783
0.419510,-0.307444,0.826780,0.398928,-0.789166,-0.466984
0.724444,0.486064,0.565619,0.638945,0.726752,0.252150
0.427599,0.216370,0.484891,0.191454,-0.967194,0.166975
0.205963,0.066978,0.956044,-0.469447,0.871341,-0.142771
0.423200,0.307171,0.609411,-0.758635,-0.646389,0.081574
0.131465,0.187413,0.615060,0.793588,-0.018594,-0.608172
-0.703013,0.070636,0.459992,-0.570529,0.765121,-0.298474
-0.517131,-0.242626,0.631129,0.580394,-0.592750,0.558382
0.312522,0.053581,0.683174,0.270822,-0.879926,0.390367
-0.086339,-0.189850,0.777120,0.986784,0.062298,-0.149584
0.765733,0.319213,0.598168,0.540902,0.829385,0.139803
-0.187936,0.315289,-0.983712,-0.011522,0.209635,0.977712
0.040655,-0.327604,-0.186794,0.618684,0.630990,-0.468062
-0.240579,0.398377,-0.170725,-0.237908,-0.900170,-0.364820
0.395248,0.183085,0.350773,0.988415,0.129840,-0.078592
-0.417947,-0.271987,0.333525,0.365634,0.738479,0.566534
0.231927,-0.109339,0.962405,-0.290245,-0.896582,0.334512
0.139411,0.536941,0.578644,-0.486205,-0.138003,-0.862879
0.178292,-0.100271,0.970412,0.668553,0.719516,0.187970
-0.109895,-0.452367,0.655726,-0.518372,-0.847089,-0.117180
0.194895,-0.147224,0.888148,-0.316518,0.461033,0.829014
0.038100,0.163461,0.454645,-0.617758,0.476433,0.625610
0.226679,0.384840,0.565016,0.810699,0.536318,0.234797
-0.092016,0.165088,0.786580,-0.773283,0.234451,-0.589123
0.096845,-0.022733,0.777531,-0.498681,0.280246,-0.820232
0.241437,-0.126931,0.696775,-0.466519,-0.803447,0.369909
0.146651,0.517590,0.489525,-0.757845,0.648071,-0.075324
-0.270661,-0.049394,-0.387490,-0.235275,-0.947674,0.215776
-0.074846,-0.096216,-0.949654,-0.571669,0.239113,0.784869
0.330687,-0.201223,0.660607,0.432243,-0.510053,-0.743647
-0.058673,0.092556,0.817100,0.896208,0.389303,0.212728
0.128629,0.227065,-0.013930,0.459117,0.596331,0.658483
-0.144659,0.308253,0.399556,0.671324,0.014826,-0.741016
0.051437,0.027201,0.592492,-0.690344,0.401005,0.602180
-0.082649,0.410419,0.424016,0.506826,0.335459,-0.794100
0.132175,0.256294,0.687699,-0.743806,0.439183,-0.503857
0.551046,0.018133,0.790584,0.740427,0.424597,-0.521042
0.557858,0.059404,0.814879,0.827844,0.374715,0.417447
0.244130,-0.056291,0.577410,-0.536202,-0.566001,0.626203
0.013551,0.607037,-0.992404,-0.163697,0.194279,0.967191
0.208799,0.186058,0.738182,-0.360729,0.402030,0.841574
0.094147,-0.081324,-0.335527,0.890374,0.442932,-0.105095
0.421074,-0.274019,0.797686,-0.050661,0.917372,0.394795
-0.492726,-0.133828,0.394949,-0.260445,-0.960316,0.099812
0.244273,0.227602,0.661484,-0.028753,-0.274094,0.961273
0.069174,0.095397,0.528683,-0.231247,-0.623066,0.747204
-0.198722,0.341810,-0.478008,-0.393357,-0.002897,-0.919381
0.090033,0.076451,0.799303,0.722045,0.484056,-0.494308
-0.490029,-0.048172,0.412937,0.061129,0.307289,0.949651
-0.413833,0.560761,0.358341,0.946928,0.294879,0.127959
-0.297907,0.280783,0.603790,0.914882,-0.067906,0.397969
-0.509185,0.562784,0.650214,0.291569,-0.638324,0.712411
-0.117131,0.017323,0.035593,0.047276,0.378363,0.924449
-0.336784,0.129227,0.704234,-0.045205,0.916828,0.396715
0.201706,0.184976,-0.044450,0.410993,0.631412,-0.657573
-0.514152,0.422733,0.353104,-0.179971,0.799631,-0.572888
0.797660,0.241948,0.564358,0.515253,-0.836082,0.188363
-0.069174,0.116376,0.509460,-0.028356,-0.756954,0.652853
0.059950,-0.016374,0.079385,0.907313,-0.409711,-0.094448
0.026464,0.246821,-0.043216,0.261674,0.521325,-0.812248
0.010997,-0.278082,0.754909,0.835577,-0.332873,-0.437044
0.561547,0.052499,0.806268,0.824861,-0.554078,-0.112256
-0.068602,-0.433966,-0.545519,0.766425,-0.585198,0.264832
-0.106916,-0.213669,0.471208,0.309980,0.943641,-0.115992
0.108480,-0.108934,0.861851,0.640334,0.768005,-0.011873
0.174603,-0.097702,0.828096,0.890289,-0.446918,-0.087462
-0.365303,-0.182953,0.577520,0.485510,0.795409,-0.362774
0.215611,-0.002168,-0.049413,0.567694,-0.547652,-0.614655
0.264989,-0.243171,0.630827,0.946226,0.224054,-0.233359
0.281872,0.115963,0.084924,-0.009739,0.365833,0.930629
0.777368,0.231798,0.415268,0.949809,0.125989,-0.286339
0.428452,0.382544,0.806899,0.390739,-0.818719,-0.420740
-0.090457,-0.519085,0.618076,0.141450,0.838486,0.526244
0.121250,0.011773,0.890397,0.791647,0.335983,-0.510304
-0.293365,0.258995,0.611495,0.947734,0.220797,-0.230322
0.353391,0.488088,0.186876,-0.275263,-0.872714,0.403238
0.235760,0.284169,0.589640,-0.739951,0.109276,0.663725
-0.041504,-0.434776,0.696528,-0.262760,-0.250801,0.931695
0.397517,0.463054,0.417517,0.787327,0.235427,-0.569816
0.050021,0.692965,0.341642,0.833540,0.357158,-0.421484
-0.205534,0.266172,0.606751,-0.599562,0.047877,-0.798895
0.473292,0.023138,0.765520,0.030099,-0.913401,0.405946
0.244273,-0.210555,0.749698,0.983369,-0.101373,-0.150695
-0.514720,-0.262786,-0.303910,0.982422,-0.183406,-0.034772
0.558854,-0.065227,0.786772,0.850392,0.499602,-0.165017
-0.082511,0.387277,0.584046,-0.240166,0.953901,0.179982
-0.798227,0.079837,0.430322,0.636042,0.171084,0.752450
0.328700,-0.050608,-0.958704,-0.361893,-0.052031,0.930767
0.601278,0.030307,0.688905,0.301014,0.826392,-0.475885
0.010430,-0.339382,0.464133,0.953889,0.247353,-0.170036
0.619724,0.208391,0.628880,0.855922,0.507456,0.099426
0.048883,0.283352,-0.979105,-0.303731,0.083986,0.949049
0.034554,0.128550,0.570829,0.097333,0.554762,-0.826296
0.162825,-0.195400,0.883761,-0.642597,0.110456,0.758201
0.031999,-0.689315,-0.952205,-0.093888,0.115563,0.988853
0.354240,-0.318271,0.687946,0.430932,-0.326646,-0.841190
0.002484,0.270227,0.438192,-0.726491,-0.579061,-0.370000
0.582831,-0.046148,0.502276,0.868625,0.243028,-0.431773
0.234907,0.360897,0.689481,0.996685,0.050163,0.064051
-0.075556,0.284301,0.588077,0.359126,-0.285996,0.888389
-0.087049,-0.018810,-0.586021,-0.573014,-0.522385,0.631482
0.158854,0.475914,0.571049,0.841422,-0.120642,0.526740
-0.087759,0.514749,-0.988044,0.283346,-0.200441,-0.937837
0.054135,-0.038971,0.381156,0.936591,0.293973,0.190729
-0.041504,0.475510,-0.317210,0.930866,0.272847,-0.242988
0.223414,-0.226661,0.665707,0.826524,0.442438,0.348004
0.155303,-0.126659,0.887902,-0.514337,0.051754,0.856025
0.200853,0.170093,0.849046,-0.759654,-0.260075,0.596059
0.909047,-0.189990,0.177443,0.846185,0.528711,-0.066602
0.514438,0.030984,0.476801,-0.541835,0.225833,0.809577
0.458249,0.066309,0.664226,0.476945,-0.629368,0.613531
0.176448,0.422056,0.700258,0.895141,0.041718,-0.443826
0.067758,0.130037,-0.970769,-0.041369,0.502310,0.863698
-0.075699,0.447089,0.408413,-0.439568,-0.260220,-0.859689
-0.622842,-0.084305,0.636531,0.953711,0.287796,0.087225
0.121960,-0.288902,0.711610,0.054722,0.989019,0.137284
-0.088326,-0.344387,0.641960,-0.367883,0.672095,-0.642613
-0.354807,-0.694997,0.063700,-0.331369,0.637650,-0.695411
0.152891,0.455613,0.695733,-0.650023,0.759032,-0.036622
-0.087902,0.054531,-0.561479,0.782468,0.491791,0.381948
0.501811,0.177130,0.674783,-0.671569,0.376618,0.638086
-0.120821,0.453722,-0.345755,0.822558,0.465075,-0.327268
0.319191,-0.054267,-0.965669,-0.153549,0.144131,0.977573
0.113022,0.021924,0.951547,0.029506,0.560364,0.827721
0.001916,0.394454,0.602281,0.187239,0.962323,-0.197171
-0.007732,-0.307716,-0.786306,0.947169,0.103695,0.303512
-0.026889,0.031661,-0.158824,0.865733,0.196780,0.460200
0.113022,0.274018,-0.980366,-0.128858,0.125243,0.983722
0.083932,0.092152,0.607135,0.929407,-0.262126,0.259794
-0.144377,-0.332478,0.841861,-0.518908,-0.839028,-0.163604
0.567792,-0.237753,0.608451,-0.231051,0.936658,0.263224
0.013409,-0.191204,-0.645223,0.775453,0.557240,-0.296912
0.058249,0.408387,-0.981573,-0.076095,0.109633,0.991055
-0.209362,0.205409,0.604201,-0.428889,0.131750,-0.893698
0.043634,0.008387,0.400022,0.902745,0.380295,-0.201062
-0.415535,-0.143574,0.616513,0.504197,0.372968,0.778897
-0.523943,0.080374,0.427690,-0.511383,-0.819503,-0.258654
0.156580,0.054935,0.940194,-0.693726,0.720239,-0.000763
0.345445,-0.380653,-0.947159,-0.022689,-0.071828,0.997159
0.577158,0.228684,0.653532,0.837863,-0.366375,-0.404666
0.091310,0.062650,-0.002468,0.732758,0.460056,0.501412
-0.295920,0.526658,0.413897,0.386584,0.915524,0.111214
0.249950,-0.133423,0.688357,-0.648477,-0.758280,0.066996
-0.061652,-0.042630,0.747340,0.118538,-0.672522,0.730522
0.039377,0.282815,0.654848,-0.123299,-0.843617,0.522598
0.145088,-0.023279,0.803910,0.765946,-0.384985,-0.514891
-0.630078,0.695534,0.405287,0.359834,-0.159001,0.919368
0.249097,0.372534,0.697680,0.782398,-0.090046,0.616235
0.159846,0.608119,0.617034,-0.877416,-0.005119,-0.479704
0.425187,0.087956,0.677141,0.250754,0.872262,0.419859
-0.033981,0.106085,0.487277,0.222674,-0.968960,-0.107389
-0.104362,0.484982,0.426950,0.475275,0.398688,-0.784322
-0.053282,-0.208391,0.805556,-0.060086,0.972622,0.224491
-0.517985,0.558324,0.642399,-0.610257,0.629098,-0.481480
0.670947,-0.009065,0.597510,0.884988,-0.441836,0.146893
0.134448,0.057240,0.461226,0.764686,0.395148,-0.509032
-0.259026,-0.040458,-0.982642,-0.194958,0.096909,0.976012
-0.426603,-0.172935,0.693375,-0.444610,-0.732990,0.514827
0.632637,-0.090261,0.593397,0.785892,-0.070618,-0.614319
0.239449,0.389309,0.456345,0.298280,-0.897203,0.325661
0.268678,-0.610151,-0.938631,-0.228243,0.264977,0.936852
0.742605,-0.204196,0.596578,0.144383,0.681103,0.717811
0.325011,-0.364275,0.691922,-0.312979,0.382669,0.869257
0.165804,0.325440,0.719041,0.910506,0.370899,0.182790
0.143810,0.324358,0.659044,0.831288,-0.371506,0.413453
0.145798,0.144928,0.644675,0.833194,-0.255712,-0.490305
0.160837,-0.138024,-0.548070,-0.394265,0.918858,-0.015978
0.130616,0.240866,-0.974224,-0.161648,0.134728,0.977608
0.040655,0.101352,0.408440,-0.384871,0.185574,0.904122
0.412560,-0.053590,0.490403,0.031893,0.844845,0.534060
-0.589356,0.616510,0.403340,0.183857,-0.808910,0.558445
-0.395810,0.606492,0.423522,0.608254,0.661699,-0.438386
0.616321,0.243707,0.692168,0.782343,0.617869,0.078594
-0.283149,0.694584,-0.479187,0.138213,-0.961650,0.236910
0.011425,-0.241271,0.495311,0.266559,0.613166,0.743622
0.109047,0.335590,0.488209,0.831525,0.152964,-0.534011
0.018376,-0.022733,-0.940797,-0.508965,0.431061,0.745078
-0.390986,0.393777,0.619694,0.151286,-0.371626,0.915973
0.307698,0.133150,0.753647,0.535034,-0.182696,0.824840
-0.352677,0.130177,0.546698,0.183446,0.956605,-0.226394
0.197874,0.485387,0.575875,0.361394,-0.137652,0.922196
-0.296201,-0.019083,0.772266,0.125953,-0.940256,0.316315
0.121960,0.068332,0.790282,-0.572368,0.570758,-0.588753
0.079818,0.102162,0.696446,0.896037,0.441044,0.050968
0.290390,0.121785,0.643797,-0.236562,-0.949092,-0.207998
0.192483,-0.394182,0.728694,0.758524,0.391931,0.520607
-0.188503,0.419487,0.611056,-0.398980,-0.562676,0.724024
0.114157,-0.027739,0.757294,-0.508975,-0.768001,0.388740
-0.034406,0.250067,-0.313837,0.893266,0.441236,-0.085942
0.057967,-0.017324,0.699188,0.781129,0.467255,0.414138
0.079532,-0.013401,-0.109246,0.128485,0.969422,-0.209078
-0.831003,0.124627,0.462734,-0.236952,-0.971512,0.004268
0.196878,0.371857,-0.470988,0.938650,0.070725,-0.337542
0.924515,-0.391208,0.492953,0.543918,0.833505,-0.097070
0.114724,0.054671,0.977515,0.539597,-0.805210,-0.245912
0.160270,-0.015565,0.779012,-0.211779,0.960658,0.179681
0.365451,-0.360352,0.814879,-0.147789,0.932007,0.330939
-0.172611,0.107307,-0.979708,-0.079427,0.215932,0.973172
0.148634,0.506357,0.572008,0.184758,0.436860,0.880351
-0.362892,-0.076319,0.321652,0.272125,-0.354309,-0.894658
0.470876,-0.407578,0.711281,0.893156,0.377429,-0.244581
-0.116988,0.074832,0.791077,0.229749,0.958597,0.168248
-0.429158,0.218542,0.611742,-0.479423,-0.877489,-0.012923
-0.180843,0.703520,0.472167,0.018582,-0.606653,0.794750
-0.103508,0.187008,0.024624,-0.269579,-0.726176,0.632452
0.155732,0.411501,0.474032,-0.861935,0.175590,-0.475643
-0.097836,-0.456563,0.692854,-0.364700,0.184237,0.912716
-0.126641,0.733559,0.471592,0.363149,-0.382887,0.849424
-0.235898,0.003927,0.672782,0.743334,-0.049663,0.667074
-0.449592,-0.056836,0.709718,-0.351902,0.738044,-0.575722
-0.041217,0.379703,-0.086871,0.948281,0.220020,0.228812
0.089042,-0.247094,0.657864,0.068552,0.996374,-0.050388
0.157148,-0.115972,-0.311451,0.842883,0.531053,0.086783
0.151900,-0.591477,-0.946803,-0.054800,-0.092431,0.994210
0.037108,0.057099,0.708374,-0.163888,0.692910,0.702151
-0.055408,-0.046413,0.622025,-0.392946,0.365649,0.843738
0.617170,0.078887,0.670341,0.656817,0.753866,0.016636
0.343600,0.267791,0.779286,-0.751174,0.658450,-0.046708
-0.123800,0.005818,0.870571,0.600763,0.774599,0.197684
0.081095,-0.044389,0.827712,0.979736,0.156403,0.125125
0.217880,-0.211233,0.680295,-0.735480,0.592126,-0.329327
0.233629,0.009205,0.785702,0.678609,-0.704032,0.209352
0.110181,0.000946,0.946007,-0.541793,-0.730772,0.415251
0.149912,0.277669,0.555391,0.681881,-0.495629,-0.537950
-0.019791,-0.126526,0.758446,0.561680,-0.822984,-0.084930
0.745584,-0.307039,0.498656,0.428010,0.870210,0.244014
-0.171476,-0.322062,-0.960486,-0.113658,0.487534,0.865675
0.219581,-0.259540,0.593808,0.938521,-0.300134,-0.170582
-0.161829,0.174421,0.590189,0.309794,0.164895,-0.936396
-0.335226,-0.490797,0.625096,-0.551224,0.535692,0.639676
0.807736,0.445603,0.565345,0.850208,0.517198,0.098246
0.291525,0.343305,0.569321,-0.713684,0.252802,0.653258
0.044769,0.017992,0.810053,0.454819,0.822213,-0.342206
0.153601,0.077805,0.730202,0.318314,0.736603,-0.596735
0.302025,-0.178080,0.667352,-0.169649,-0.183650,0.968242
0.175881,-0.330851,0.591642,0.936168,0.179685,0.302162
-0.140260,0.103921,0.834677,-0.206689,0.371802,0.905010
-0.390848,0.251281,0.617089,-0.341191,-0.559911,0.755042
-0.019934,0.106498,0.398980,0.212771,0.976983,0.015243
-0.439091,0.386740,0.309395,0.976304,0.158631,-0.147195
0.081095,0.113939,0.616595,0.920546,-0.308501,-0.239629
0.559846,0.106903,0.795108,0.062118,-0.821996,0.566096
0.396244,0.305280,0.630690,0.358421,-0.340055,-0.869423
0.081662,-0.094184,0.774021,-0.083808,-0.301179,0.949877
0.324444,-0.290529,0.679582,0.623001,0.642086,0.446761
0.584961,-0.126659,0.589448,-0.603263,0.356843,0.713258
0.584818,-0.141005,0.590463,-0.563436,0.637664,0.525285
0.150479,0.138700,0.641275,-0.287967,-0.317897,-0.903336
-0.111173,0.900815,-0.996326,0.025125,0.050078,0.998429
0.731255,0.425037,0.544093,0.161858,0.579581,0.798679
-0.156580,-0.403523,-0.703576,0.927532,-0.151382,-0.341714
-0.256900,-0.164552,0.604174,-0.016617,0.876181,0.481695
-0.208795,0.592013,0.612674,0.685637,0.716038,-0.131118
0.042357,0.652776,0.327849,-0.341817,-0.449365,0.825368
-0.369846,-0.075237,0.669875,-0.495610,0.850475,-0.176245
-0.006311,0.219211,0.042229,0.505476,0.821263,-0.264614
0.009438,-0.459950,-0.955989,-0.138723,0.054457,0.988833
0.719901,0.222869,0.597867,-0.521557,-0.832775,0.185647
0.480099,0.292692,0.600910,0.705713,0.465791,-0.533861
0.108480,0.757511,0.244735,0.988973,0.148039,0.004013
0.180419,0.377398,0.687507,0.887432,-0.449021,-0.104139
0.053000,0.171043,0.750082,0.804604,-0.517446,-0.291311
-0.469174,0.185381,0.673029,-0.464148,-0.884069,-0.054671
0.490743,-0.039921,0.744050,0.717532,-0.673964,0.175842
0.804895,0.509066,0.513381,0.973150,0.189561,0.130557
0.379642,0.422733,0.551936,-0.275449,-0.114697,0.954449
-0.160127,0.240189,0.523198,0.221204,-0.810198,0.542814
0.265413,0.206227,0.777970,-0.694923,0.157695,0.701580
-0.235898,0.518945,0.416118,0.434955,0.898986,-0.051360
-0.754097,0.158184,0.442251,-0.562381,-0.790815,0.241533
-0.098970,-0.016506,0.389190,-0.675133,0.004235,-0.737684
-0.121107,0.326250,0.601760,-0.404995,0.154296,-0.901206
0.161833,0.338432,0.689509,0.970909,-0.013907,-0.239044
0.009719,0.123412,0.739443,0.577916,-0.393609,-0.714902
0.013551,-0.375508,0.713996,-0.095042,-0.868546,0.486410
0.075419,-0.059404,0.966244,-0.352594,0.022150,0.935514
0.072439,0.069414,0.942772,-0.693269,-0.584200,-0.422005
-0.050727,0.212587,0.566606,-0.622740,0.772248,0.125810
0.434129,0.141269,0.603543,0.015793,0.570743,0.820977
0.630368,-0.183763,0.350115,0.937860,0.262715,-0.226713
-0.378216,0.031529,0.781699,0.410184,-0.655598,0.633987
-0.087192,-0.082819,0.282439,-0.189637,0.872381,0.450544
0.080385,-0.054672,-0.144812,0.974713,0.061516,-0.214825
-0.341608,-0.014483,0.632417,0.505522,-0.320616,0.801032
-0.343171,0.542896,0.398733,0.505141,0.851183,-0.142544
0.401774,-0.034371,0.749781,-0.491319,0.649988,-0.579760
-0.217594,0.416646,-0.991911,-0.117306,0.164959,0.979300
-0.356080,0.076591,0.304843,0.003639,0.571728,0.820435
-0.335083,0.260490,0.301744,0.585757,0.652198,-0.481172
0.114438,0.179567,0.087556,0.898558,-0.142498,-0.415075
0.259598,-0.182681,0.800565,-0.553626,-0.796033,-0.244602
0.232637,-0.499594,0.641960,0.768489,0.606136,-0.204997
-0.005744,0.609878,0.325984,-0.663591,0.467717,0.583857
0.272792,-0.223143,0.080673,0.229171,-0.492773,0.839438
-0.043062,-0.175239,-0.169052,0.213307,-0.828146,0.518338
-0.159131,0.112312,0.483931,-0.024350,-0.963137,0.267908
0.127208,0.017183,0.889437,0.767754,0.406340,-0.495421
-0.132032,0.042894,0.794752,0.124392,0.024571,0.991929
-0.493293,0.237885,0.589750,-0.419729,-0.881209,0.217481
-0.566085,-0.043844,0.638121,0.804943,0.573928,0.150578
-0.119968,-0.159134,0.395936,0.035960,0.145263,0.988739
0.415115,0.155888,0.507705,-0.152539,0.982301,0.108700
0.172334,0.692825,0.561369,0.980069,-0.107450,0.167091
0.213623,-0.130177,0.114758,-0.415361,0.585249,0.696390
-0.235474,0.350606,-0.981929,-0.160287,0.262119,0.951631
0.743458,0.563874,0.548618,-0.759557,-0.518315,-0.392967
0.765166,-0.964007,-0.925058,-0.070139,0.124463,0.989742
0.056971,-0.104334,0.704673,0.806169,-0.527283,0.268447
0.835121,0.151420,0.606888,0.860251,0.272209,0.431126
-0.032847,0.141673,0.577630,-0.408270,0.184730,-0.893974
0.137428,-0.071587,0.956153,0.972633,0.087836,-0.215103
0.014405,-0.185794,0.493940,0.751977,0.597116,-0.279253
-0.457253,0.153724,0.512806,-0.659586,-0.748833,0.064782
0.164388,-0.079978,0.788280,0.420552,0.531073,0.735594
0.177868,0.072123,-0.015932,0.732682,-0.250747,0.632695
0.122951,-0.090120,0.749671,0.591314,0.755345,-0.282491
0.933738,-0.435048,0.467808,-0.720632,-0.589999,0.364130
-0.464064,0.349251,0.303636,0.950465,-0.310829,-0.000990
0.193899,0.010014,0.922508,0.913960,0.399032,-0.073821
0.617031,0.262514,0.604996,-0.396323,0.134170,0.908255
-0.023338,-0.056431,0.108013,0.983411,-0.159866,0.085703
0.179284,0.493101,0.530904,-0.701133,0.535037,-0.471326
0.364741,-0.320031,0.681913,-0.622562,-0.443153,-0.645005
0.195886,-0.331263,0.647307,-0.684069,-0.714651,-0.146026
-0.543382,0.559679,0.363140,0.847921,-0.254970,0.464780
-0.194037,0.384171,0.376631,-0.547842,0.831922,0.088173
-0.266547,0.509066,0.431995,-0.319164,-0.649534,0.690101
-0.015111,0.160488,0.630772,-0.005745,0.681142,0.732128
-0.405320,0.056835,0.366924,-0.265373,0.902000,-0.340548
0.023628,0.077268,0.906219,-0.678085,0.734983,-0.001100
0.452715,0.003927,0.673632,0.048980,0.919076,-0.391024
-0.532457,0.357106,0.606203,-0.204922,-0.855925,0.474763
0.638739,0.510553,0.519579,0.680418,0.720313,-0.134832
0.230936,-0.307716,0.719809,-0.206226,-0.756032,0.621198
0.127070,0.397699,0.760338,0.769819,-0.394122,0.502042
-0.181124,-0.534645,-0.607656,0.200599,-0.975729,0.087819
0.181982,0.106762,0.680131,0.153648,0.987271,0.041082
0.132318,-0.061841,0.948777,0.442507,0.437789,0.782642
-0.762753,0.439780,0.387737,0.610571,0.659105,0.439071
0.068893,-0.143028,0.721125,-0.620333,0.635812,0.459272
0.205963,-0.043167,0.943594,0.830968,-0.357337,-0.426383
0.104081,-0.020974,-0.973621,0.259573,-0.163085,-0.951854
0.217313,-0.022056,0.947516,0.986487,-0.163382,0.012208
0.385175,0.315289,0.616979,-0.538240,0.006368,0.842768
0.035831,-0.237753,-0.963365,-0.205375,0.301114,0.931210
0.052715,0.211910,-0.656658,0.591827,0.214592,0.776975
0.352963,-0.345874,0.830015,0.923572,0.275042,0.267146
0.807308,0.487419,0.493474,0.906479,0.305814,-0.291160
0.759207,0.201486,0.601596,-0.635382,-0.722976,-0.271285
0.624977,0.341273,0.602748,-0.120484,0.992691,0.006988
0.129339,0.334368,0.678184,0.877188,-0.108438,-0.467742
0.132318,0.171043,-0.007705,0.380028,0.775217,0.504596
0.323309,0.077946,-0.040556,-0.858048,0.503861,0.099390
0.376376,0.308525,0.637600,0.472740,-0.841184,0.262539
0.276057,-0.621383,-0.942168,0.085024,0.019482,-0.996188
0.227671,0.171721,-0.031809,0.290283,0.946797,-0.138967
-0.012555,-0.249663,0.746189,0.576960,-0.575952,-0.579134
-0.133877,0.098379,0.609274,0.372557,0.782722,0.498545
0.635903,-0.617865,-0.925606,-0.658550,-0.146160,0.738207
0.024477,-0.423683,0.633953,0.754748,-0.610134,0.241024
0.736927,-0.306230,0.457525,-0.613939,0.753737,0.234432
-0.723590,0.442761,0.396567,0.491902,0.701807,0.515266
-0.153597,0.478887,0.063535,0.972093,-0.233813,0.019151
-0.350407,0.001350,-0.397088,0.468332,0.878841,-0.091125
0.125507,0.121108,0.085774,0.786046,-0.377125,-0.489804
-0.024758,-0.139923,-0.675551,0.900846,0.434101,0.005700
-0.023909,0.008255,0.740074,0.373231,-0.327532,0.867998
-0.169493,-0.060081,0.034907,0.193692,-0.176298,-0.965092
-0.471300,0.001896,0.306680,0.246129,0.485932,0.838624
0.041790,0.325308,-0.514917,0.970373,0.231370,-0.069607
0.014262,0.108389,-0.972880,0.241929,-0.054218,-0.968778
0.070452,0.421106,-0.486262,0.926594,-0.084369,-0.366478
0.494714,-0.435725,-0.944417,-0.015846,0.206743,0.978267
-0.344730,0.220706,0.293106,0.366717,0.461948,-0.807541
-0.395386,0.253585,0.296507,-0.540664,0.194837,0.818365
0.368430,0.408792,0.431995,0.961020,0.060347,0.269812
-0.278464,-0.156161,-0.159756,0.319296,-0.918585,0.232920
0.169779,-0.180112,0.003702,0.948578,0.313621,-0.042927
0.107913,0.437079,0.574257,-0.669671,0.537275,-0.512715
0.087054,0.056835,0.786415,0.230216,-0.127538,0.964746
0.357505,0.456968,0.597730,0.756952,0.279668,-0.590601
0.283579,-0.271855,0.443594,0.917423,-0.331688,-0.219813
0.545231,-0.661440,-0.940194,-0.308487,0.235696,0.921566
-0.045193,-0.465087,0.622381,-0.321922,-0.007929,0.946733
-0.018090,0.097156,0.763711,0.423300,0.745720,0.514508
0.244273,0.567525,0.733712,0.973818,-0.078093,-0.213494
0.031146,-0.017324,0.769743,0.494191,-0.202591,-0.845418
-0.602551,-0.102707,0.740896,0.308871,-0.490595,0.814810
0.480666,0.005686,0.695048,0.804468,-0.565105,-0.182997
0.075275,0.284029,0.609521,-0.042285,0.684921,0.727390
-0.156862,0.271987,-0.982012,0.003780,0.127754,0.991799
-0.083503,-0.351424,-0.365581,-0.415946,0.906045,0.077926
0.296773,-0.406223,0.587584,0.739108,0.582175,0.338808
-0.353387,0.096075,0.573407,0.150305,-0.985444,0.079431
0.132032,0.106630,0.729763,0.467031,0.144168,-0.872409
0.333243,0.034907,0.634639,0.940618,-0.135416,0.311288
0.053139,0.483628,0.596441,0.907244,-0.416817,0.056323
-0.362892,-0.259813,0.575930,-0.176607,-0.980865,0.081935
0.309261,0.079837,0.707031,0.885380,0.464702,0.012426
-0.120678,-0.386872,0.780739,0.944933,0.194720,0.263031
-0.252214,-0.024625,0.412745,0.347374,0.879655,-0.324867
0.128629,0.061973,0.901064,0.934905,0.049953,0.351364
0.077406,0.168466,0.759159,0.579904,0.813801,-0.037946
0.598584,0.268873,0.530822,0.402315,-0.819305,0.408512
-0.188079,-0.510421,-0.957250,0.281408,0.064341,-0.957429
-0.024901,0.133423,0.394812,-0.220551,0.852162,-0.474527
0.145798,0.212446,0.059861,0.954603,-0.201284,-0.219587
0.073292,-0.041003,0.992486,0.969136,0.187138,-0.160485
0.205534,-0.069150,0.774240,0.877958,0.456475,-0.144295
0.288684,0.000268,0.709609,0.854295,-0.435804,0.283295
-0.092726,-0.353720,0.365444,0.423942,-0.772756,-0.472357
-0.527065,-0.034239,0.391275,0.937175,0.215467,-0.274369
0.166233,0.318676,0.616870,-0.131580,0.789126,0.599972
-0.489604,0.482678,0.633268,0.281825,-0.138327,0.949442
0.327280,-0.391340,0.471976,0.937719,-0.194353,0.287941
-0.295352,0.332609,0.611577,-0.404491,-0.274852,-0.872263
0.047891,0.276323,-0.562466,0.635059,0.545468,-0.546959
-0.484356,-0.105548,0.648212,-0.099428,0.441240,0.891864
-0.129053,0.855613,-0.996051,0.230220,0.039621,0.972332
-0.235755,0.603791,0.614813,0.639324,0.052135,0.767168
0.608089,0.546687,0.526078,0.473699,0.805062,0.357049
0.183259,-0.045603,0.064605,0.825945,-0.509757,-0.240753
-0.491735,0.034643,0.409153,0.092943,0.639776,0.762921
-0.374246,0.375912,0.620763,0.899510,0.245990,-0.361070
-0.085205,0.362656,0.007952,0.964439,0.219914,0.146611
0.356509,0.566038,0.585225,0.283898,0.944640,0.164492
-0.387297,0.707311,0.280383,-0.664258,-0.685685,-0.297652
-0.069455,-0.025575,0.576094,0.995348,0.077872,-0.056730
0.080952,0.168334,0.653943,0.712244,0.075490,0.697860
-0.109328,0.122867,0.344631,-0.668240,0.629320,-0.396752
-0.096840,0.259540,-0.975019,-0.210834,0.223123,0.951717
-0.596025,0.447089,0.622080,0.905424,0.147052,-0.398225
0.157715,0.090260,0.802868,-0.707295,-0.491121,-0.508463
0.357786,0.497834,0.424619,0.972750,0.182125,0.143486
0.849593,-0.318676,0.475814,-0.579515,0.486354,0.653929
0.737357,0.477946,0.519634,0.418331,0.408600,0.811200
0.734377,-0.203519,0.269524,0.895362,0.445214,0.010549
-0.500248,0.622060,0.375590,0.870466,-0.308174,0.383819
0.070876,-0.102839,0.397362,0.931840,0.213467,-0.293439
-0.135011,-0.405009,-0.031946,0.435353,-0.392988,-0.809956
0.075842,0.417456,0.538801,0.787243,-0.613047,-0.066498
0.141966,0.483223,0.576862,0.362817,0.074174,0.928904
-0.221426,0.092556,0.585856,0.014328,-0.907035,0.420811
0.051723,0.299052,0.370654,0.045433,0.290797,0.955706
0.212488,0.072932,0.244461,0.072700,0.832555,0.549151
0.513590,-0.635317,-0.937233,-0.016844,0.037632,0.999150
-0.098260,0.223002,0.419710,0.363713,0.562744,-0.742315
0.012274,-0.071991,0.142207,0.894470,0.441954,-0.067820
0.299328,0.459949,0.452890,-0.322899,0.911638,-0.254270
-0.097550,0.892696,-0.994022,0.025125,0.050078,0.998429
0.201988,0.454672,0.701437,0.127244,-0.893525,0.430606
-0.025183,-0.055754,0.292530,-0.308754,0.751935,-0.582465
0.765166,0.097966,0.606916,0.460173,-0.876016,-0.144350
0.215468,-0.262522,0.667051,-0.055935,0.457907,0.887239
0.042924,-0.215156,0.572557,0.421600,0.880695,-0.215937
-0.146222,0.023815,0.653669,0.968346,0.016100,0.249094
0.403480,-0.610828,-0.936136,-0.061843,-0.103120,0.992745
-0.129620,0.853185,-0.988702,0.230220,0.039621,0.972332
0.047610,0.173744,0.695158,-0.748681,0.640218,0.172036
-0.014258,-0.215156,0.665213,-0.488944,-0.209135,0.846874
0.064069,-0.174289,0.100088,0.856174,0.477725,-0.196840
0.037676,-0.284442,0.689646,0.945240,-0.320624,0.061013
-0.256757,-0.243303,0.614319,-0.083884,0.432798,0.897580
0.063359,0.330040,0.749068,-0.161900,0.931322,-0.326233
-0.468463,0.530581,0.633322,0.596087,0.521463,0.610538
0.029444,0.091070,0.746024,0.594912,-0.339272,0.728680
0.272935,-0.007578,0.645196,-0.256828,0.686007,0.680760
0.166233,-0.005687,0.819184,0.939031,0.329996,-0.096563
-0.124368,-0.560629,-0.953356,-0.132248,0.030392,0.990751
0.354950,0.662381,0.274597,-0.530155,-0.805435,0.264972
-0.145794,-0.405009,0.692717,0.762374,-0.313154,-0.566323
0.257753,0.108662,0.958237,-0.479687,0.801303,0.357512
-0.531604,0.598786,0.397554,-0.134235,0.822659,-0.552462
0.155303,0.192418,0.780301,-0.299833,-0.304092,0.904228
0.769283,-0.400541,0.472277,0.743438,0.044185,-0.667344
0.252643,0.290933,0.802594,0.548911,0.468481,0.692258
0.057682,-0.471586,-0.622930,-0.476013,0.843476,0.248918
-0.257748,0.374557,-0.986317,0.003629,0.221388,0.975179
