0.185029,-0.257315,0.752746,-0.255906,-0.378387,0.889570
0.106297,-0.292538,0.733688,0.652670,-0.609754,0.449690
-0.045986,-0.358274,0.722050,0.545656,0.836812,-0.044778
0.071608,-0.323529,0.550299,0.684624,0.363648,-0.631704
0.081395,-0.321178,0.521931,0.814457,-0.468475,0.342332
-0.725366,0.112852,0.701392,0.133584,-0.490325,0.861242
-0.704642,0.158554,0.574652,0.239268,0.745561,-0.622004
-0.687656,-0.022699,0.491584,0.313820,0.887918,0.336330
-0.625189,0.137585,0.740468,-0.163261,0.642188,-0.748959
-0.614536,0.104397,0.680269,0.043174,-0.912706,0.406329
-0.609213,0.082330,0.651202,0.530753,0.847521,-0.002996
-0.601583,0.102515,0.606104,0.015785,0.024184,0.999583
-0.593808,0.134289,0.557573,0.856599,-0.247906,0.452527
-0.544584,0.169512,0.737762,-0.423291,0.528588,-0.735812
-0.541993,0.089685,0.730430,-0.308763,-0.782396,0.540853
-0.537385,0.061513,0.705611,-0.359927,-0.928383,0.092502
-0.531486,0.060262,0.670318,0.186669,0.051071,0.981094
-0.528319,-0.007824,0.658011,-0.141420,0.868688,0.474744
-0.520114,0.028173,0.608316,0.769262,0.638755,0.015091
-0.454624,0.072155,0.728888,-0.202179,-0.739423,0.642167
-0.443397,0.041480,0.665954,0.808123,0.512478,0.290352
-0.439365,-0.008608,0.647158,0.919488,-0.293904,-0.261079
-0.436057,-0.066834,0.633192,0.919613,0.306664,-0.245497
-0.429868,-0.073722,0.599412,-0.400341,0.772905,-0.492286
-0.385534,-0.141024,0.830140,0.977121,0.211686,0.020591
-0.380640,-0.169827,0.805787,-0.158759,0.927121,0.339474
-0.367972,-0.032242,0.719170,0.255348,0.135710,-0.957278
-0.358330,0.035376,0.656556,-0.428524,0.894787,0.125395
-0.355738,-0.039761,0.648613,0.189339,-0.693161,0.695470
-0.343360,-0.055724,0.579016,0.934132,0.225725,-0.276489
-0.239581,-0.069652,-0.020178,-0.155378,-0.908545,-0.387820
-0.232816,-0.078260,-0.058991,0.070606,-0.953471,0.293099
-0.221733,-0.015649,-0.127628,0.296411,0.737838,0.606412
-0.172220,-0.149011,0.016133,-0.615061,0.739373,-0.273912
-0.321481,-0.087182,0.885160,-0.264539,0.917532,-0.296908
-0.305219,-0.127564,0.792723,-0.216139,-0.846640,-0.486297
-0.281178,-0.019412,0.642066,0.511287,0.102849,0.853234
-0.275855,-0.037563,0.612418,-0.548469,0.794460,-0.260798
-0.268514,-0.015811,0.566127,0.255917,-0.539843,0.801920
-0.264912,-0.079512,0.553674,0.505548,0.181492,0.843494
-0.258868,-0.222418,0.531154,-0.028091,-0.998459,-0.047852
-0.245629,-0.089217,0.440114,-0.572147,-0.351081,0.741208
-0.227923,0.129446,0.315992,-0.592525,-0.796887,-0.117838
-0.203166,-0.024418,0.845473,0.403336,0.828711,0.388019
-0.189922,0.124277,0.754550,-0.379802,0.716712,-0.584872
-0.192944,-0.069652,0.790948,-0.664529,-0.090141,-0.741806
-0.188916,-0.110187,0.770319,-0.412216,-0.888228,-0.202801
-0.184023,-0.148696,0.747829,0.832278,-0.320912,0.452028
-0.172795,-0.048205,0.674159,0.693079,0.632981,-0.344931
-0.168333,-0.091099,0.652774,0.344141,0.927794,-0.144098
-0.169773,-0.253408,0.676399,0.766535,0.204082,0.608913
-0.155669,-0.100175,0.580122,0.925637,0.109868,-0.362112
-0.147749,-0.078260,0.534645,0.824818,0.014556,0.565211
-0.146743,-0.183441,0.537875,0.135797,0.990667,0.011732
-0.141129,-0.210046,0.509216,-0.804318,0.398470,-0.440788
-0.132638,-0.169827,0.455797,-0.705800,-0.558376,0.435961
-0.128321,-0.228360,0.438514,0.429761,0.889872,-0.153079
-0.120260,-0.208957,0.390768,0.671087,-0.244356,-0.699951
-0.076646,-0.051024,0.126027,0.747020,0.385116,0.541892
-0.069306,-0.051969,0.083810,0.683221,-0.724140,0.093966
-0.045125,-0.023319,-0.056984,0.938763,-0.050220,0.340884
-0.049588,-0.235716,-0.011013,0.938805,-0.036762,0.342482
-0.036630,-0.148849,-0.091753,0.775050,0.604898,-0.182748
-0.023391,-0.183909,-0.165336,0.988107,-0.081276,-0.130534
-0.016481,-0.200971,-0.203102,0.996003,-0.070091,0.055370
-0.141850,-0.018314,0.935204,0.010971,0.254878,0.966911
-0.137532,-0.051024,0.912917,0.338274,-0.930352,0.141476
-0.124863,-0.045550,0.840527,0.187269,-0.814299,-0.549407
-0.115508,0.025201,0.779572,-0.133881,0.699259,0.702219
-0.118675,-0.175454,0.817280,-0.495976,-0.417097,0.761602
-0.108022,-0.083734,0.746287,-0.174828,0.914983,0.363651
-0.102843,-0.117237,0.721614,0.757228,0.358813,-0.545764
-0.101258,-0.211460,0.721061,0.992811,0.109609,0.048083
-0.099246,-0.298796,0.718180,0.687986,0.223772,0.690363
-0.095069,-0.345597,0.698250,0.826383,-0.340885,0.448206
-0.096079,-0.491474,0.717744,0.068481,0.917115,0.392696
-0.067721,-0.061045,0.513900,0.874063,0.244122,0.420022
-0.067865,-0.198936,0.528041,0.765805,0.569832,-0.298052
-0.061966,-0.214746,0.494988,0.868854,0.476190,0.135412
-0.056638,-0.240416,0.466998,0.814919,0.492936,-0.304830
-0.048147,-0.203636,0.414132,0.771481,-0.273909,-0.574274
-0.007700,-0.116138,0.175141,0.670386,-0.720098,-0.179004
0.001942,-0.064484,0.113545,0.802522,0.593812,0.057848
-0.012738,-0.733609,0.263969,0.878587,-0.179124,-0.442717
0.021664,-0.107368,0.004961,-0.740703,-0.230453,-0.631071
0.021519,-0.247925,0.019363,0.438927,0.794561,-0.419542
0.033753,-0.162940,-0.060271,0.625411,0.777736,-0.063145
0.040953,-0.172168,-0.100918,0.884424,0.444098,-0.143428
0.047857,-0.188924,-0.137142,-0.803177,-0.584181,-0.116783
0.056928,-0.160121,-0.193122,0.929800,0.343483,-0.132255
0.048578,-0.709191,-0.092189,0.732131,0.610510,-0.302095
0.106872,-0.077945,0.027539,0.071726,-0.980937,0.180603
0.105435,-0.235247,0.050757,-0.394611,0.871260,0.291872
0.118820,-0.126159,-0.036791,0.889959,0.346274,-0.296761
0.120401,-0.234149,-0.035831,0.913883,-0.001053,-0.405975
0.140554,-0.153549,-0.157887,0.547281,0.708842,-0.445002
0.119109,-0.666307,0.014941,0.931523,0.362671,0.027114
0.145878,-0.335738,-0.171242,0.355976,0.164243,-0.919949
0.139834,-0.570517,-0.114098,0.846136,0.237071,-0.477338
-0.057358,0.008760,0.956589,0.225815,0.960637,-0.161816
-0.050738,0.020663,0.918416,0.207597,0.834948,0.509672
-0.047137,-0.030522,0.901308,0.608292,0.778058,0.156865
-0.046276,-0.145409,0.907825,0.808898,0.282932,-0.515397
-0.035048,-0.045387,0.835203,-0.011618,0.375344,0.926813
-0.031451,-0.094692,0.818589,-0.196412,-0.778582,0.596013
-0.024251,-0.074505,0.776022,-0.286425,-0.942819,0.170451
-0.019218,-0.099544,0.748294,0.972140,-0.134293,-0.192116
-0.016191,-0.167477,0.737645,-0.709942,-0.294850,-0.639567
-0.014895,-0.280329,0.742941,0.213893,0.373930,0.902456
-0.013169,-0.379243,0.743057,0.799887,0.376525,-0.467344
-0.008566,-0.416968,0.719751,-0.514306,0.453030,0.728185
0.012449,-0.122558,0.570287,0.216516,0.976102,-0.018572
0.014610,-0.212549,0.568164,-0.138980,0.968984,-0.204341
0.018352,-0.272028,0.552336,-0.552793,-0.651602,0.519456
0.021950,-0.329633,0.537119,0.841338,0.523297,0.135319
0.027994,-0.342778,0.502931,0.920823,0.389813,0.011425
0.028569,-0.462671,0.510525,0.981807,0.155780,-0.108572
0.076501,-0.084212,0.199377,0.910929,-0.384348,-0.149947
0.082836,-0.097041,0.164055,-0.494707,0.757551,-0.425890
0.090606,-0.097041,0.121576,0.668814,0.732366,-0.127778
0.038646,0.156366,0.934535,0.999001,-0.012577,-0.042889
0.036920,-0.009706,0.959004,0.813005,0.574666,-0.093711
0.038936,-0.096258,0.956444,0.939277,-0.343119,-0.005258
0.049588,0.004538,0.885422,0.779572,0.005558,0.626289
0.045986,-0.202853,0.925457,0.974840,-0.029632,-0.220928
0.059085,-0.060577,0.838985,-0.090146,-0.925532,0.367784
0.065564,-0.056345,0.801015,-0.007851,-0.551090,0.834409
0.068296,-0.132570,0.792752,-0.706730,0.535085,-0.462835
0.073479,-0.154953,0.764180,0.505650,0.667154,-0.547013
0.077222,-0.209263,0.748527,-0.052657,-0.708833,0.703408
0.081110,-0.265302,0.733834,0.618327,0.733824,-0.281379
0.084997,-0.315705,0.715329,0.325234,-0.909755,-0.258009
0.098812,-0.168098,0.622572,0.187441,-0.784868,0.590634
0.102124,-0.232592,0.608868,0.060928,0.865896,0.496500
0.102409,-0.369700,0.623154,0.361537,0.401621,0.841422
0.104570,-0.457818,0.618615,0.843437,0.250577,0.475210
0.112631,-0.427763,0.569502,0.613493,0.057058,-0.787636
0.110759,-0.588200,0.594786,-0.619558,0.781608,0.072370
0.117814,-0.714828,0.568135,-0.212796,-0.399144,-0.891853
0.123713,-0.735481,0.536799,-0.647659,-0.732085,-0.211163
0.128751,-0.769921,0.510525,0.153658,0.987327,-0.039672
0.160273,-0.576774,0.312763,-0.832358,0.144378,0.535104
0.198273,-0.021132,0.042931,-0.294732,0.955059,0.031534
0.201150,-0.099391,0.033329,0.738709,-0.630038,0.239502
0.208780,-0.105649,-0.007812,-0.873696,0.466633,0.137508
0.218857,-0.064016,-0.069291,0.301322,-0.393203,0.868675
0.223174,-0.253714,-0.077292,-0.146666,0.942541,-0.300176
0.231235,-0.251679,-0.121401,0.218282,0.975884,0.001908
0.237855,-0.274846,-0.157043,0.047742,-0.935425,0.350287
0.218281,-0.740182,-0.001498,0.877776,0.464133,0.118702
0.258438,-0.538896,0.335137,0.160961,-0.957324,0.240048
0.291400,-0.083266,0.107726,0.088768,0.872320,0.480809
0.309968,0.113005,-0.015872,-0.841884,0.429931,-0.326175
0.299746,-0.200350,0.071299,-0.580522,0.367953,0.726364
0.300612,-0.318991,0.078864,-0.574656,-0.164229,0.801747
0.324793,-0.031143,-0.084828,0.978184,-0.042197,-0.203411
0.333283,-0.154953,-0.121314,0.586657,0.781033,-0.214058
0.140985,0.168881,0.928832,-0.573486,-0.438107,-0.692226
0.138252,-0.014559,0.960983,0.472363,-0.877080,-0.087199
0.144582,-0.011894,0.924671,0.366680,0.892202,0.263669
0.149335,-0.045865,0.901250,0.254811,-0.068665,0.964550
0.151492,-0.133038,0.897205,-0.620567,-0.752849,0.219352
0.164160,-0.002971,0.814981,0.990372,0.132961,-0.038528
0.166176,-0.086552,0.810966,0.908062,0.280020,0.311468
0.170205,-0.136639,0.792985,0.790672,0.477643,-0.383007
0.171645,-0.234464,0.794062,0.983474,-0.082922,-0.160943
0.182152,-0.155268,0.726676,-0.698481,0.490758,-0.520846
0.186470,-0.210361,0.710033,0.510708,0.639215,-0.574963
0.190643,-0.257010,0.689899,-0.770060,0.637305,0.029144
0.198558,-0.228828,0.642648,0.065453,0.997735,-0.015495
0.201010,-0.306935,0.635811,0.914686,-0.360983,-0.181770
0.203742,-0.383628,0.627257,0.466946,-0.287314,-0.836309
0.205613,-0.478328,0.627024,0.998172,0.022159,0.056222
0.221879,-0.298796,0.517886,0.824976,-0.555159,0.105893
0.212522,-0.606360,0.599354,0.305630,-0.769271,-0.561081
0.230084,-0.665839,0.506830,-0.889214,0.416318,-0.189678
0.256277,0.048052,0.925108,0.921448,-0.038973,-0.386542
0.273984,0.150099,0.817658,-0.602180,0.744415,-0.288489
0.283485,-0.059163,0.784722,0.069274,-0.740386,0.668603
0.295143,0.041318,0.711663,0.974929,-0.056572,-0.215203
0.288519,-0.211613,0.770640,0.909406,0.408610,-0.077572
0.301187,-0.105181,0.693129,0.995831,-0.057465,-0.070837
0.298020,-0.290188,0.726996,-0.219442,-0.684538,0.695164
0.300322,-0.377208,0.722370,0.886649,0.251704,-0.387941
0.304499,-0.426512,0.703400,0.827156,0.513161,-0.229083
0.321195,-0.239948,0.593099,-0.187710,-0.686878,0.702114
0.315727,-0.474727,0.646896,-0.651897,-0.410801,0.637396
0.313996,-0.631084,0.670580,0.502906,0.864022,-0.023489
0.316442,-0.714197,0.664412,0.970754,0.230244,0.068004
0.326233,-0.656133,0.604300,0.573554,-0.389621,-0.720577
0.326233,-0.786352,0.616433,0.962135,-0.018516,-0.271944
0.370854,-0.379405,0.334439,-0.880617,0.035385,0.472505
0.403240,-0.200350,0.139440,-0.642537,-0.710156,-0.287794
0.411441,-0.465174,0.119830,-0.704864,0.664085,-0.249315
0.460669,0.105964,-0.205313,-0.354523,0.154440,-0.922205
0.456061,-0.775557,-0.098852,-0.748869,0.375148,0.546314
0.359771,-0.233060,0.848994,0.693745,0.460847,-0.553478
0.369988,-0.291440,0.796855,0.887750,0.212935,-0.408116
0.395035,0.060099,0.628130,-0.101149,-0.992788,-0.064351
0.385103,-0.258567,0.712536,0.895293,-0.152790,0.418456
0.384813,-0.391930,0.725600,-0.182291,0.588001,0.788052
0.385248,-0.508373,0.733834,-0.767270,-0.115083,0.630914
0.418786,-0.013776,0.504677,0.988815,-0.096742,0.113519
0.413312,-0.247772,0.556060,0.497654,-0.746610,-0.441490
0.396616,-0.685872,0.687863,0.778187,0.033976,-0.627113
0.404101,-0.673816,0.646082,0.995908,0.041943,-0.080049
0.445554,0.087335,0.347154,0.502675,0.864470,0.003117
0.452178,0.077792,0.311832,-0.113853,0.943553,0.311039
0.450162,-0.353736,0.362807,0.950078,-0.283216,-0.130923
0.494351,-0.109250,0.098503,0.939840,0.205691,-0.272749
0.474774,-0.074037,0.670493,0.332343,0.892445,-0.305108
0.464987,-0.516828,0.765170,0.957605,0.281732,0.060160
0.503132,0.077629,0.499818,-0.261540,0.028627,0.964768
0.519683,-0.016126,0.419340,-0.393985,0.919027,0.012817
0.533788,0.110186,0.329609,-0.321769,0.932486,0.164117
0.537821,0.048674,0.313170,0.554300,-0.816160,-0.163201
0.629076,0.158401,-0.196235,0.693730,-0.407955,0.593558
0.609499,0.037410,0.506859,-0.089234,0.385106,0.918548
0.623893,0.047116,0.426817,-0.628228,0.775183,0.066487
0.640299,0.080141,0.334846,-0.501984,0.852982,0.142943
0.717882,0.109098,0.518905,-0.460532,0.836630,0.296582
0.746381,0.085616,0.371216,-0.601901,0.798561,0.003808
0.786397,0.154800,0.733921,-0.657027,0.753368,-0.027416
0.790425,0.098608,0.717657,0.662193,-0.748513,0.035057
0.828571,0.123026,0.519690,0.735231,-0.602308,-0.310904
0.844691,0.140088,0.436332,-0.368430,0.819704,0.438571
-0.817057,0.284867,0.614687,-0.103422,-0.909587,0.402436
-0.810868,0.288000,0.575816,0.901077,0.273381,-0.336636
-0.714284,0.213963,0.627926,0.655270,0.335109,0.676995
-0.709105,0.191580,0.598568,0.387315,0.794745,-0.467297
-0.526592,0.838790,0.566592,-0.527093,0.388256,-0.755930
-0.437063,0.722651,0.562315,0.280170,0.597463,0.751361
-0.456351,0.172483,0.727258,-0.352444,0.152672,-0.923295
-0.371284,0.703707,0.666099,-0.637852,-0.475072,-0.606178
-0.371859,0.559875,0.682800,0.497467,0.338163,0.798857
-0.368547,0.497110,0.669038,-0.428232,0.733956,0.527187
-0.360346,0.536393,0.617510,0.364624,0.925852,-0.099234
-0.353147,0.551888,0.574244,-0.736705,-0.374362,0.563133
-0.290535,0.865080,0.608665,0.718839,0.526845,-0.453547
-0.290390,0.726406,0.623445,0.982029,0.127773,-0.138897
-0.279167,0.840977,0.545876,-0.708405,0.667395,0.229664
-0.291110,0.440756,0.655247,-0.639963,0.469626,0.608193
-0.281613,0.514946,0.591877,0.866120,0.355529,0.351334
-0.276285,0.349035,0.577969,-0.601273,-0.505370,0.618929
-0.267794,0.394738,0.522716,0.883283,0.120609,0.453062
-0.192514,0.880890,0.695486,0.847299,0.439145,-0.298724
-0.176108,0.830488,0.606337,-0.359335,-0.536288,-0.763723
-0.196111,0.259818,0.777623,0.049947,-0.996409,0.068367
-0.166462,0.894198,0.546138,-0.337594,0.852134,0.399871
-0.091761,0.940216,0.552248,-0.179788,-0.983398,-0.024580
-0.120401,0.181559,0.793509,0.812665,0.412366,-0.411739
0.000360,0.850531,0.542996,-0.608100,0.128585,-0.783378
0.041813,0.367349,0.894150,0.934539,-0.129660,-0.331398
0.286072,0.919399,0.679658,0.054707,-0.936781,-0.345613
0.294998,0.966822,0.627693,0.701762,0.673908,-0.231036
0.301908,0.841446,0.600518,0.988795,0.075959,0.128513
0.289098,0.316956,0.719286,-0.405480,0.755005,-0.515319
0.294853,0.293942,0.690743,0.830467,-0.433704,-0.349606
0.433320,0.458601,-0.088552,0.517191,-0.634252,-0.574663
0.363368,0.900455,0.722166,0.840596,0.541391,0.017123
0.367972,0.852871,0.702847,0.990118,0.120494,-0.071744
0.372870,0.682108,0.691034,-0.033284,-0.689162,0.723842
0.375027,0.593989,0.687630,-0.171543,0.111108,0.978891
0.377618,0.517449,0.679949,-0.267444,-0.560667,0.783662
0.373876,0.305683,0.721235,-0.439066,0.108765,0.891847
0.404822,0.921902,0.494145,-0.605404,0.543334,0.581613
0.375457,0.210830,0.720828,-0.330062,0.778279,-0.534174
0.391292,0.253714,0.630108,0.933049,0.097317,0.346338
0.464987,0.172483,0.233594,-0.424503,0.884739,0.192442
0.478516,0.287054,0.147936,0.814408,0.540328,-0.211625
0.517092,0.562062,-0.091287,-0.557724,0.801624,0.215274
0.483844,0.501954,0.566534,-0.615429,-0.454076,0.644253
0.486146,0.417283,0.561414,-0.027871,-0.698673,0.714898
0.510472,0.749887,0.397664,0.465538,0.309845,0.829018
0.463691,0.778375,0.650097,0.822323,0.501324,-0.269183
0.461100,0.588983,0.682044,-0.560831,-0.027440,0.827475
0.457932,0.381278,0.720828,0.419343,-0.687849,-0.592465
0.458943,0.274693,0.724581,-0.058095,-0.690251,0.721234
0.475349,0.472998,0.615211,-0.775830,0.437607,-0.454519
0.569487,0.748636,0.653908,-0.310381,0.922354,0.230060
0.560130,0.434651,0.733223,0.872417,-0.478402,-0.100102
0.568331,0.455000,0.688823,0.265069,0.872417,0.410643
0.584312,0.633749,0.585621,0.142037,-0.617561,0.773592
0.589926,0.609484,0.556787,-0.567391,-0.733020,-0.375166
0.610940,0.740650,0.433364,0.150252,-0.950829,-0.270830
0.618855,0.754263,0.388935,0.895503,0.444981,-0.008155
0.618424,0.477230,0.416809,0.334202,-0.530722,0.778873
0.611800,0.219284,0.476047,0.003952,0.985296,0.170812
0.639869,0.199719,0.326903,-0.525694,0.810424,0.258572
0.703346,0.774143,-0.067109,-0.613853,0.681920,0.397705
0.679451,0.846929,0.653705,0.376389,0.926414,-0.009442
0.673837,0.610736,0.704069,0.672094,0.262022,0.692556
0.678445,0.560963,0.686321,0.855429,-0.289758,0.429279
0.721338,0.694794,0.447912,-0.397128,-0.460453,0.793897
0.723930,0.610898,0.442093,-0.425149,-0.677071,0.600685
0.717596,0.231645,0.509507,0.801911,-0.463270,-0.377252
0.729830,0.185007,0.450850,-0.139110,0.986236,-0.089367
0.756457,0.391146,0.290621,-0.643465,0.729226,0.232770
0.809573,0.635937,-0.011129,-0.480832,0.869100,0.116045
0.786542,0.552671,0.695253,0.183414,-0.374294,0.908990
0.784526,0.372364,0.724581,0.126744,0.510603,0.850423
0.784381,0.244953,0.736132,0.222234,-0.241602,0.944585
0.834039,0.617156,0.447359,-0.370189,-0.642861,0.670589
0.837637,0.545631,0.435226,0.428910,0.697450,-0.574108
0.835190,0.368295,0.463536,0.821726,0.259592,0.507325
0.839798,0.187978,0.457513,0.200187,-0.935088,0.292465
0.915219,0.485207,0.675293,0.962875,0.268327,-0.029545
0.910470,0.271091,0.717278,-0.612045,-0.675789,-0.410743
-0.910040,0.117858,-0.995403,-0.022755,0.326778,0.944827
-0.806115,0.117074,-0.992639,-0.036739,0.234561,0.971407
-0.811874,0.015963,-0.992842,0.316090,0.395073,0.862557
-0.688521,0.155268,-0.985598,0.163093,-0.017103,-0.986462
-0.694421,0.055408,-0.987140,0.418309,-0.522145,-0.743225
-0.700465,-0.038031,-0.983037,0.417835,-0.126006,-0.899742
-0.780352,0.134920,-0.336185,0.146735,0.948953,0.279209
-0.661028,0.104550,-0.987984,0.427572,-0.202678,-0.880968
-0.667507,0.019250,-0.979808,0.465036,0.024899,-0.884942
-0.673406,-0.077009,-0.979459,-0.271315,0.121971,0.954731
-0.614536,0.132416,-0.980040,0.268781,-0.506204,-0.819459
-0.620151,0.031927,-0.982019,0.102887,-0.084353,-0.991110
-0.626484,-0.060099,-0.977276,0.113541,-0.162366,-0.980176
-0.737459,0.102993,-0.311948,-0.059282,0.875161,0.480186
-0.575530,0.110349,-0.981321,0.256455,-0.305800,-0.916906
-0.581719,0.011426,-0.980273,0.070974,0.097857,0.992666
-0.587334,-0.084680,-0.979953,-0.098656,0.331158,0.938404
-0.694710,0.073407,-0.316603,-0.059282,0.875161,0.480186
-0.543434,0.117389,-0.984259,-0.124347,0.391190,0.911871
-0.549623,0.025517,-0.981437,0.008259,-0.121710,0.992531
-0.555953,-0.069652,-0.978207,-0.118936,0.321802,0.939307
-0.571788,0.096573,-0.979924,0.198425,-0.219491,-0.955223
-0.577546,-0.003602,-0.981466,0.037516,0.141291,0.989257
-0.583591,-0.096258,-0.977131,-0.070889,0.380789,0.921941
-0.671390,0.115040,-0.331849,0.146735,0.948953,0.279209
-0.677438,0.073254,-0.307380,-0.059282,0.875161,0.480186
-0.512198,0.166846,-0.986878,0.222329,-0.335189,-0.915543
-0.518818,0.087966,-0.975094,0.234440,-0.309973,-0.921387
-0.525007,-0.016126,-0.976665,-0.065599,0.346390,0.935794
-0.530620,-0.114571,-0.977364,-0.022340,0.269296,0.962798
-0.380640,0.117074,-0.974600,-0.042902,0.259493,0.964792
-0.386399,0.019097,-0.973116,-0.122955,0.041953,0.991525
-0.392443,-0.075289,-0.971661,0.040736,0.083370,0.995686
-0.398487,-0.166379,-0.966191,0.489794,-0.138017,-0.860844
-0.483554,0.135550,-0.980331,-0.158469,0.274136,0.948545
-0.489743,0.032557,-0.981350,-0.258873,-0.168785,0.951050
-0.495787,-0.059631,-0.976607,-0.272199,0.341314,0.899674
-0.501976,-0.158707,-0.975589,-0.457513,-0.522177,0.719731
-0.300897,0.156519,-0.977451,0.195085,-0.131551,-0.971924
-0.306511,0.064169,-0.974861,0.945307,-0.014775,-0.325847
-0.313135,-0.002503,-0.958917,0.848395,-0.464130,-0.254577
-0.319468,-0.086246,-0.949112,0.971910,-0.075336,0.222968
-0.324792,-0.197532,-0.956386,-0.424324,0.538836,-0.727739
-0.331127,-0.299426,-0.956648,0.165626,0.058320,0.984463
-0.225191,0.162624,-0.962525,-0.409719,0.531225,0.741572
-0.231810,0.082797,-0.951498,0.980098,-0.195942,-0.031847
-0.237854,0.007041,-0.940005,0.841392,-0.394680,0.369172
-0.242892,-0.138521,-0.965609,0.456999,0.088334,0.885070
-0.249082,-0.220851,-0.955687,-0.137612,-0.308705,0.941150
-0.254551,-0.329471,-0.961419,-0.318808,-0.110171,0.941395
-0.268370,0.036159,-0.721526,0.332629,0.871235,-0.360981
-0.260885,-0.429645,-0.960692,-0.202221,-0.236090,0.950457
-0.231235,0.155889,-0.961099,0.503625,-0.424242,-0.752583
-0.237569,0.063548,-0.956328,0.375398,0.577375,-0.725062
-0.243323,-0.014559,-0.946755,-0.709330,0.607918,-0.356773
-0.249227,-0.138990,-0.959121,-0.309593,-0.191326,-0.931422
-0.260454,-0.367044,-0.972126,0.059818,0.009275,0.998166
-0.271822,0.046954,-0.709452,0.335815,0.727228,-0.598638
-0.266643,-0.451560,-0.965260,-0.326564,-0.295374,0.897836
-0.286072,0.147597,-0.966453,-0.622894,0.336093,0.706431
-0.292406,0.055724,-0.961856,-0.632888,0.314833,0.707342
-0.298310,-0.029739,-0.955629,0.448844,-0.706893,-0.546664
-0.303778,-0.124899,-0.954495,0.387292,-0.138272,0.911530
-0.309677,-0.244486,-0.963922,0.038995,-0.081487,0.995911
-0.315291,-0.329003,-0.957055,0.047455,-0.032384,0.998348
-0.304354,0.063232,-0.978906,0.976543,0.122531,-0.177058
-0.310398,-0.019250,-0.970992,0.814535,-0.435056,-0.383743
-0.316157,-0.068716,-0.944282,0.996351,-0.054389,0.065783
-0.322056,-0.197999,-0.958859,0.068808,-0.407983,0.910393
-0.327814,-0.307087,-0.962729,0.172195,0.106180,0.979324
-0.331412,0.034592,-0.736481,-0.413847,-0.904323,0.104552
-0.336306,0.117858,-0.978091,0.031575,0.083261,0.996027
-0.342209,0.025670,-0.975269,-0.419173,-0.281159,-0.863275
-0.347248,-0.027389,-0.952080,0.930668,-0.260221,-0.257180
-0.353292,-0.117074,-0.945911,0.898050,-0.053213,-0.436664
-0.359626,-0.251526,-0.965231,-0.073012,-0.073115,0.994647
-0.303778,0.079511,-0.977713,-0.446267,-0.036835,0.894141
-0.309102,-0.002971,-0.969741,0.927436,-0.270612,-0.258132
-0.314861,-0.072308,-0.952778,0.984577,-0.156278,0.078648
-0.319899,-0.139457,-0.937037,0.999361,-0.032761,-0.014268
-0.312700,0.166225,-0.975560,0.206397,-0.081287,-0.975086
-0.318603,0.075289,-0.970002,0.624738,-0.399801,-0.670717
-0.324362,-0.025201,-0.971661,0.758171,-0.588148,-0.281529
-0.328965,-0.072002,-0.942944,0.995940,-0.088791,-0.014852
-0.335155,-0.191895,-0.952603,-0.288472,0.349541,-0.891406
-0.341633,-0.310374,-0.961448,0.103216,0.058142,0.992958
-0.289528,0.104865,-0.972359,0.815173,-0.122779,-0.566055
-0.295143,0.015963,-0.965784,0.831013,-0.228316,-0.507238
-0.300611,-0.055409,-0.950188,-0.731337,0.327036,-0.598492
-0.305360,-0.123179,-0.932469,0.988327,0.024357,0.150387
-0.176968,0.079827,-0.958888,0.329232,-0.124095,0.936059
-0.206478,-0.426675,-0.962059,-0.242629,-0.270669,0.931595
0.817919,0.113788,-0.910880,-0.689159,0.646697,0.326870
0.639008,-0.009706,-0.908000,0.339287,0.080440,-0.937237
0.474343,-0.014091,-0.930985,-0.003974,0.446201,0.894924
0.469305,-0.096421,-0.920947,-0.520440,-0.231948,-0.821792
0.464701,-0.160904,-0.901599,0.999346,-0.035037,-0.008951
0.453474,-0.371266,-0.909658,0.991724,0.058993,0.114034
0.447715,-0.466588,-0.906370,0.954185,0.198234,0.224129
0.442677,-0.557678,-0.902792,0.782714,-0.479013,0.397373
0.435912,-0.694479,-0.920482,-0.262983,-0.127248,0.956372
0.412451,-0.375335,-0.244185,0.392697,0.908511,0.142815
0.328246,-0.459853,-0.933546,0.462178,-0.171485,-0.870049
0.322491,-0.551573,-0.928250,0.685575,-0.076273,-0.723995
0.318173,-0.604163,-0.905236,0.902563,-0.388627,-0.185337
0.312269,-0.723435,-0.915768,0.185930,-0.508937,0.840484
0.355594,0.042731,-0.932236,-0.756706,0.032878,0.652929
0.345521,-0.132417,-0.919871,0.460998,0.291195,-0.838264
0.339618,-0.256847,-0.933924,0.810516,-0.012438,-0.585584
0.333574,-0.358589,-0.934128,0.614821,-0.087073,-0.783845
0.232961,0.088434,-0.930171,0.890699,0.012768,-0.454415
0.226342,-0.052590,-0.951701,0.856861,0.428433,0.286767
0.221303,-0.137423,-0.942769,-0.650064,-0.025787,-0.759442
0.215835,-0.237445,-0.942013,-0.058735,0.081476,0.994943
0.210362,-0.327130,-0.937852,-0.061109,0.162103,0.984880
0.204172,-0.440756,-0.945853,-0.023891,-0.014292,0.999612
0.199138,-0.523563,-0.935961,-0.566520,-0.062069,0.821707
0.193090,-0.630931,-0.940674,0.337648,-0.227213,-0.913437
0.188197,-0.712946,-0.930171,-0.436647,0.225199,0.870991
0.111625,0.092819,-0.970061,0.299149,0.444192,-0.844513
0.107017,0.020969,-0.953680,-0.244470,0.289484,0.925437
0.085138,-0.348883,-0.940354,0.024575,-0.069673,0.997267
0.091616,-0.077476,-0.748934,-0.137740,0.988531,-0.061928
0.086578,-0.065268,-0.641630,0.886172,-0.462514,-0.027942
0.001656,0.128032,-0.966598,-0.181513,-0.090767,0.979191
-0.008996,-0.051492,-0.955658,-0.519266,0.312006,0.795622
-0.023821,0.092819,-0.969217,-0.381080,0.537369,-0.752338
-0.118099,0.073559,-0.966075,-0.180797,0.184135,-0.966130
-0.904136,0.217249,-0.996014,-0.063155,0.232235,0.970607
-0.800071,0.213332,-0.992813,-0.092951,0.083619,0.992153
-0.682042,0.240568,-0.991824,0.239400,-0.087774,-0.966946
-0.813170,0.175454,-0.336912,0.146735,0.948953,0.279209
-0.654839,0.204725,-0.988362,-0.123729,0.099405,0.987325
-0.607627,0.217717,-0.988216,-0.194513,0.129973,0.972251
-0.569342,0.199089,-0.987896,0.171120,-0.299250,-0.938705
-0.538251,0.237913,-0.974338,-0.229452,0.163203,0.959540
-0.566029,0.180622,-0.986703,0.175440,-0.246404,-0.953156
-0.477365,0.223201,-0.985423,0.192627,-0.076049,-0.978321
-0.591076,0.187663,-0.223789,0.946356,-0.308688,0.095513
-0.374451,0.202069,-0.980972,0.139685,-0.103892,-0.984731
-0.295143,0.286901,-0.961594,0.435231,0.723456,-0.535897
-0.219432,0.265770,-0.961274,0.593321,0.441699,-0.672958
-0.225906,0.271091,-0.951294,-0.530468,-0.796280,0.290762
-0.280318,0.251210,-0.965056,-0.614292,-0.337842,0.713098
-0.298740,0.172483,-0.974745,-0.208964,0.125309,0.969862
-0.330551,0.221634,-0.976636,-0.157335,-0.052308,0.986159
-0.297734,0.180622,-0.975822,-0.208964,0.125309,0.969862
-0.306080,0.293627,-0.959092,0.365290,0.752608,-0.547855
-0.283915,0.196748,-0.974861,-0.499397,0.156141,0.852187
-0.165166,0.281733,-0.956851,0.106445,0.992449,-0.060943
-0.170924,0.180775,-0.956968,0.289906,0.731386,-0.617275
0.827850,0.267805,-0.934651,0.205211,-0.025649,-0.978382
0.244474,0.290809,-0.928076,0.188818,-0.896339,-0.401154
0.008276,0.248087,-0.954407,-0.060034,-0.389952,0.918876
-0.018207,0.201754,-0.962379,0.045757,-0.079108,0.995815
0.103995,-0.011426,0.914808,0.393526,-0.135509,0.909272
0.033467,0.014396,0.901250,0.362517,-0.845690,-0.391650
0.092477,-0.004853,0.872329,0.893868,0.311131,0.322795
0.107737,-0.008292,0.849081,-0.666668,-0.258503,0.699093
0.147174,-0.020196,0.822226,0.898307,-0.157797,-0.410054
0.128321,-0.012839,0.801830,-0.301683,0.480262,-0.823612
0.046561,0.016899,0.788708,-0.456880,0.883961,-0.099362
-0.036054,0.047422,0.776604,-0.547221,-0.353782,0.758543
-0.036344,0.048836,0.755015,-0.478689,0.792772,0.377319
0.158401,-0.016747,0.709626,-0.685496,0.134926,0.715465
0.119395,-0.002503,0.692314,0.425201,0.878307,0.218589
0.088594,0.009544,0.673199,0.416602,-0.906863,0.063575
-0.008421,0.044604,0.661851,-0.604142,0.513785,0.609128
-0.016191,0.048674,0.640001,-0.171304,0.283501,0.943548
-0.135516,0.091405,0.632319,0.481698,-0.579642,-0.657253
-0.069592,0.070435,0.602409,0.985733,-0.133256,0.102825
-0.017346,0.054310,0.573401,-0.675648,0.711466,0.193173
-0.034183,0.060883,0.553354,0.844651,0.512225,-0.155535
-0.140839,0.099229,0.543432,-0.162489,0.977112,0.137295
-0.160848,0.107683,0.522804,0.099597,-0.883679,0.457375
-0.000505,0.053526,0.479917,-0.514186,0.855962,0.054233
-0.067435,0.078107,0.465660,-0.530206,0.496849,0.687039
-0.126880,0.100643,0.450734,0.850643,0.170390,-0.497367
0.021089,0.051339,0.408982,0.834755,-0.548734,0.045560
-0.065419,0.082176,0.397227,-0.405405,0.546057,0.733122
-0.251673,0.148227,0.397314,0.353042,0.577915,0.735782
-0.262035,0.154800,0.351693,0.566384,0.813380,0.132748
-0.062682,0.087020,0.303656,0.375683,0.917465,0.130847
-0.212667,0.140871,0.300252,-0.691809,-0.699025,0.181010
0.166897,-0.036780,0.973581,-0.313457,-0.568227,-0.760830
0.113061,-0.017377,0.957317,0.288113,-0.827911,0.481201
0.171645,-0.036312,0.928658,0.148553,0.549594,0.822119
-0.776751,0.068238,-0.108425,-0.404022,-0.914525,0.020270
-0.884417,0.051960,0.479597,-0.053811,-0.951618,0.302534
-0.732706,0.045387,-0.111625,0.399311,0.832723,0.383566
-0.838212,0.052437,0.488384,0.116824,0.982573,-0.144580
-0.692839,-0.082330,-0.174472,0.498223,0.857937,-0.125372
-0.796328,0.049304,0.484136,-0.053811,-0.951618,0.302534
-0.804534,0.044136,0.495629,0.116824,0.982573,-0.144580
-0.696867,-0.020196,-0.219715,0.978694,-0.107407,0.174990
-0.710831,-0.005169,-0.124427,0.420738,0.904300,0.072254
-0.641885,-0.008139,-0.205953,0.981440,0.126949,0.143732
-0.741346,0.083896,0.480877,-0.040831,0.983322,-0.177230
-0.703056,0.058695,0.488704,0.274447,0.926434,0.257681
-0.729974,0.133821,0.700927,0.133584,-0.490325,0.861242
-0.514355,0.025517,-0.111683,0.098521,0.993351,-0.059565
-0.574520,-0.116291,0.232634,0.245676,0.968015,-0.050892
-0.580279,-0.060414,0.295538,-0.052665,0.991035,0.122787
-0.586468,-0.053689,0.337552,-0.108148,-0.833343,-0.542074
-0.593092,0.121306,0.452945,0.078628,0.977756,0.194449
-0.598271,0.069968,0.468424,-0.316388,-0.854768,-0.411424
-0.604175,0.121306,0.526819,-0.625574,0.740896,-0.244396
-0.625333,0.038346,0.635578,0.321079,0.945607,0.052298
-0.630802,0.080925,0.689463,0.698251,-0.318923,0.640886
-0.494636,-0.127096,0.210492,-0.135543,-0.978846,-0.153257
-0.506870,-0.014712,0.337989,0.136643,0.988390,0.066434
-0.512918,0.075289,0.415266,-0.228922,0.951256,-0.206654
-0.518242,0.038977,0.437641,-0.345615,-0.318431,-0.882696
-0.529900,0.121306,0.548757,-0.000343,-0.471600,0.881813
-0.535084,0.027857,0.544422,-0.172531,-0.691282,0.701686
-0.546166,0.132102,0.660251,-0.211636,0.925932,0.312828
-0.550629,0.001251,0.639535,-0.425678,-0.682099,-0.594592
-0.556243,-0.007509,0.671773,-0.234530,-0.532989,0.812969
-0.375601,-0.015963,-0.014417,0.441328,0.106504,-0.891003
-0.416909,-0.086084,0.237987,-0.163187,0.962278,-0.217696
-0.435047,0.071372,0.421929,-0.524147,-0.822107,-0.222283
-0.440085,0.055255,0.451607,0.858868,-0.386456,0.336153
-0.451457,0.080141,0.537643,0.670224,-0.565601,0.480515
-0.467578,0.100327,0.653472,0.956927,0.188772,0.220579
-0.472757,0.067617,0.675730,0.355442,0.824474,0.440345
-0.477795,0.024571,0.691936,-0.045618,0.892927,-0.447885
-0.370278,-0.032710,-0.017181,0.441328,0.106504,-0.891003
-0.408708,0.025354,0.292280,0.253127,0.822691,0.509025
-0.424254,0.060729,0.423210,-0.633239,-0.741995,-0.220117
-0.434471,0.149316,0.536159,-0.509367,-0.176016,-0.842356
-0.439510,0.117705,0.558300,0.832021,0.365608,-0.417220
-0.454479,0.051491,0.638575,0.855096,0.403939,-0.325030
-0.459228,0.103461,0.696504,-0.366878,0.128760,0.921315
-0.464411,0.016594,0.695748,0.051797,-0.836324,0.545783
-0.442387,-0.060414,0.254339,-0.110795,-0.854381,0.507699
-0.451312,0.010021,0.361236,-0.724730,0.581286,0.369964
-0.455055,0.087182,0.433771,-0.763905,-0.308667,-0.566722
-0.459517,0.066987,0.461616,-0.257081,0.966346,-0.009247
-0.468874,0.014865,0.514511,-0.214823,-0.866282,0.451006
-0.472757,0.092503,0.585039,0.101697,0.668515,0.736712
-0.476214,0.161688,0.649748,0.670644,0.292137,0.681830
-0.481397,0.056975,0.640088,0.052622,-0.600859,0.797621
-0.485140,0.110970,0.699065,-0.422550,0.802934,0.420416
-0.490174,0.013776,0.692489,0.207914,0.871142,-0.444841
-0.440516,-0.113167,0.216078,0.126636,0.974391,0.185810
-0.447860,-0.029271,0.331384,-0.374258,-0.912570,-0.164761
-0.450447,0.077008,0.416721,0.019650,0.911023,0.411887
-0.455055,0.047116,0.441889,-0.694570,-0.251818,-0.673914
-0.461244,0.131949,0.551143,0.854476,0.205533,0.477103
-0.466858,0.011426,0.536595,-0.505463,0.838730,-0.202582
-0.473478,0.096726,0.645616,0.900055,0.319702,-0.296128
-0.478946,0.001404,0.641485,0.295387,0.827965,-0.476677
-0.480962,0.114419,0.724989,0.263978,-0.237211,0.934904
-0.455630,-0.106432,0.197981,-0.027989,0.930775,0.364520
-0.462109,0.091090,0.401184,-0.174307,0.664263,0.726892
-0.466137,0.067617,0.427894,0.057357,0.941364,0.332482
-0.477220,0.019250,0.520971,-0.015364,-0.868714,0.495076
-0.479236,0.077476,0.581693,-0.007233,0.791889,0.610622
-0.480677,0.165595,0.654461,0.573883,0.606665,0.550106
-0.487011,0.009859,0.624783,0.575902,0.774302,-0.262286
-0.488302,0.115040,0.703807,0.447114,-0.882653,-0.144956
-0.493200,0.042263,0.709044,0.949275,0.293959,-0.111648
-0.416049,-0.013613,0.294665,-0.359618,-0.795510,-0.487688
-0.424829,0.027704,0.428709,-0.680001,-0.574122,-0.456051
-0.430584,0.058695,0.517741,-0.341508,0.909661,-0.236410
-0.434471,0.030207,0.541425,0.306551,-0.876137,0.372036
-0.435622,0.104244,0.608577,-0.003473,0.934077,0.357054
-0.447285,-0.136324,0.578231,0.161308,-0.985297,0.056292
-0.444547,0.110349,0.718820,-0.300738,-0.372591,0.877914
-0.411876,0.022536,0.279885,0.386222,-0.921187,0.047415
-0.422813,0.029423,0.437903,0.494635,0.645062,0.582435
-0.427562,0.058380,0.523211,-0.341508,0.909661,-0.236410
-0.434041,-0.079196,0.501622,-0.071610,-0.711823,0.698699
-0.440085,-0.017845,0.636858,-0.610356,-0.778659,0.145450
-0.439365,0.096420,0.721032,-0.189829,0.964823,0.181885
-0.390141,0.067617,0.554110,0.296705,0.940172,-0.167461
-0.395320,0.055877,0.623183,0.050888,0.959010,0.278767
-0.400503,-0.023950,0.625918,0.067616,-0.783933,0.617153
-0.400648,0.035060,0.685215,-0.092305,-0.854936,0.510455
-0.380350,0.088902,0.415616,-0.547849,-0.307104,-0.778171
-0.384238,0.027857,0.425857,-0.559461,-0.791657,-0.245526
-0.388411,0.044136,0.507936,0.195093,-0.801431,0.565373
-0.280893,0.148533,0.606890,0.853570,-0.255401,-0.454081
-0.284776,0.096573,0.619983,-0.148437,0.582374,0.799254
-0.290104,0.007509,0.618761,-0.562471,0.358724,-0.744945
-0.293416,-0.024265,0.640350,0.308137,0.522970,0.794704
-0.294132,0.038031,0.702469,0.287528,0.957691,0.012452
-0.297444,0.020195,0.730982,0.303081,0.846293,0.438097
-0.307090,-0.078575,0.792810,-0.744013,0.659671,0.106203
-0.311408,-0.135073,0.804303,-0.150326,0.885224,0.440206
-0.312414,-0.097195,0.852427,-0.345421,0.803135,-0.485446
-0.315006,-0.101264,0.884811,-0.264539,0.917532,-0.296908
-0.218567,0.110034,0.625889,0.246943,-0.153857,-0.956738
-0.223319,0.028325,0.627664,-0.438978,0.471842,0.764633
-0.227777,-0.038977,0.635811,-0.631277,0.375308,-0.678699
-0.226196,0.082176,0.722894,0.363420,0.762596,0.535139
-0.231665,-0.015495,0.716376,-0.488075,-0.841869,-0.230304
-0.233251,0.008454,0.760514,0.861751,-0.401696,-0.309881
-0.237569,-0.061198,0.766828,-0.464875,-0.619331,-0.632708
-0.238719,-0.032242,0.812246,-0.344940,-0.607119,0.715838
-0.244334,-0.142123,0.802121,0.158044,-0.977340,-0.140815
-0.244764,-0.080925,0.861447,-0.500911,0.499385,-0.706897
-0.248361,-0.129752,0.875354,-0.543536,0.628994,-0.555820
-0.177544,-0.001098,0.828947,-0.476624,-0.520096,-0.708752
-0.185029,-0.171547,0.792519,-0.282570,-0.954482,-0.095486
-0.185319,-0.112222,0.851176,0.858343,-0.069019,0.508413
-0.185319,-0.059478,0.906487,-0.112130,0.985392,-0.128179
-0.159121,0.117237,0.633105,-0.517489,0.568621,0.639433
-0.164015,0.024102,0.628712,0.093903,0.834892,-0.542345
-0.171069,-0.131318,0.599441,0.252860,0.606502,-0.753802
-0.163729,0.165127,0.760340,0.206248,-0.758710,0.617916
-0.169629,0.055877,0.750098,-0.582690,0.679242,0.446210
-0.172795,0.018629,0.768545,-0.334931,0.305640,0.891294
-0.177544,-0.060099,0.769738,0.082209,-0.357317,-0.930358
-0.108888,0.111601,0.657371,0.902146,0.408111,-0.139924
-0.111624,0.084985,0.682451,-0.060275,0.580256,0.812201
-0.111335,0.136639,0.738460,0.782208,-0.586691,0.209631
-0.112340,0.165280,0.784518,0.781093,0.584140,-0.220625
-0.118675,0.036627,0.766275,0.697823,-0.707596,0.111129
-0.123428,-0.043515,0.766828,-0.565785,-0.176015,-0.805547
-0.128031,-0.117705,0.771280,0.867349,0.430540,0.249682
-0.131628,-0.173266,0.783471,0.707387,0.554073,0.438871
-0.133214,-0.167477,0.820451,0.235851,-0.171580,0.956522
-0.131773,-0.082798,0.887575,0.226340,-0.972922,0.046828
-0.132638,-0.051024,0.932935,0.101284,0.230158,0.967868
-0.070027,0.138206,0.621467,-0.092966,0.342189,0.935021
-0.073479,0.093755,0.639128,0.846557,0.234736,-0.477744
-0.074485,0.107216,0.679978,-0.771778,0.268600,0.576379
-0.074920,0.133984,0.727287,-0.612352,0.701615,-0.364365
-0.075926,0.147912,0.768923,0.201483,0.671768,0.712834
-0.082115,0.034745,0.756994,0.305596,0.639916,0.705066
-0.089745,-0.122243,0.725832,0.831317,-0.181502,-0.525328
-0.088019,-0.038815,0.794265,0.137415,-0.919316,-0.368747
-0.094208,-0.151667,0.782685,-0.587100,0.081820,0.805369
-0.098956,-0.241037,0.780125,0.504740,0.843499,0.183704
-0.094493,-0.087182,0.877100,0.081553,-0.993831,0.075162
0.042244,0.154484,0.529205,-0.003544,0.923571,0.383411
0.031737,0.164974,0.751233,0.309990,0.935219,0.171090
0.029435,0.139305,0.774597,0.184722,-0.283077,-0.941140
0.021805,0.027704,0.798688,0.894156,0.444491,0.053968
0.017777,-0.026768,0.811141,0.694940,-0.712110,-0.099788
0.021230,0.114419,0.902181,0.850774,0.237742,-0.468682
0.005684,-0.267021,0.779718,-0.409283,-0.858225,0.309736
0.015475,0.039130,0.938288,0.861046,-0.288109,0.419038
0.012884,0.010490,0.959121,0.424863,0.658005,0.621708
0.009286,-0.039283,0.972388,0.943548,-0.320580,0.083338
0.002662,-0.162940,0.956822,0.098810,-0.808464,0.580192
0.155524,0.168413,0.639041,0.120261,-0.431365,0.894126
0.148905,0.087966,0.677825,-0.426612,0.889651,-0.162858
0.148615,0.129914,0.731739,0.226997,0.620820,0.750370
0.145878,0.100490,0.753648,-0.482494,-0.874093,0.056226
0.146168,0.164659,0.814487,0.838264,-0.529211,-0.131336
0.140554,0.061981,0.806893,-0.332678,-0.021696,-0.942791
0.135661,-0.032242,0.801539,0.171094,-0.335751,0.926282
0.133790,-0.029424,0.837501,0.880731,0.231453,0.413209
0.132349,-0.023788,0.874336,0.484421,-0.865639,-0.126508
0.130623,-0.024886,0.908029,-0.360062,0.028096,-0.932505
0.129757,0.002503,0.951498,0.364488,0.929388,0.058184
0.123713,-0.122711,0.933488,0.861033,0.371450,0.347342
0.253690,-0.103146,0.717366,0.629029,0.184421,0.755189
0.248797,-0.186259,0.718471,-0.578593,-0.601768,-0.550550
0.246926,-0.188293,0.751582,0.171531,-0.284514,-0.943202
0.239581,-0.353105,0.717802,0.646108,-0.124895,-0.752958
0.245054,-0.128032,0.844077,0.372671,-0.341206,-0.862957
0.223895,-0.719833,0.637527,0.989887,-0.130328,0.056013
0.236129,-0.287685,0.846550,-0.713216,0.700795,0.014469
0.238720,-0.147759,0.936601,-0.680380,-0.630794,-0.373071
0.271392,0.059946,0.571888,0.842891,-0.287189,0.455035
0.265923,-0.042264,0.563858,0.881890,-0.122865,0.455164
0.268946,0.125844,0.670871,0.182219,0.867226,-0.463374
0.266069,0.091090,0.692402,0.254881,0.204611,0.945077
0.258438,-0.022852,0.715154,0.227312,0.218633,0.948962
0.385534,0.011741,0.536799,0.901697,0.020926,0.431861
0.382222,-0.015495,0.561006,-0.309510,-0.553442,0.773244
0.380495,0.079358,0.675177,0.240231,-0.556382,0.795442
0.374161,-0.060099,0.652657,-0.556267,-0.826764,-0.083835
0.364810,-0.295509,0.588618,-0.447648,-0.888466,0.101192
0.368407,-0.110349,0.700752,0.786845,0.049127,-0.615193
0.361783,-0.185475,0.739886,0.980070,0.040815,0.194415
0.356749,-0.281418,0.735870,0.279816,0.954610,0.102095
0.354013,-0.290809,0.767119,0.997667,-0.003428,0.068178
0.352141,-0.275944,0.807678,0.820443,0.571692,0.006449
0.337892,-0.678821,0.678290,-0.659700,0.370816,0.653675
0.333859,-0.745035,0.685361,0.525425,0.685032,-0.504639
0.549048,0.089217,0.434557,-0.002383,-0.992534,0.121947
0.542999,0.072155,0.502844,-0.325453,-0.010509,0.945500
0.532061,-0.051024,0.562985,0.964314,-0.199924,0.173574
0.523136,-0.093755,0.651842,-0.053432,-0.974654,0.217244
0.519829,-0.129131,0.671860,0.304223,-0.952389,0.020081
0.708240,0.137270,0.445817,-0.365790,0.807525,0.462711
0.681612,0.017377,0.689318,-0.749487,0.582549,0.314492
-0.322491,0.174202,0.382883,0.897532,-0.150879,-0.414332
-0.399207,0.211613,0.230626,-0.158342,-0.935822,0.314903
-0.448000,0.229926,0.213285,-0.557649,-0.708923,0.431806
-0.617704,0.290035,0.212878,-0.681963,-0.609212,0.404706
-0.754300,0.640007,0.210550,0.315239,-0.172665,-0.933173
-0.819789,0.478319,0.526993,-0.788612,0.606326,-0.102276
-0.670669,0.293159,-0.171446,0.921292,-0.358137,0.151519
-0.714859,0.646742,0.209939,-0.304325,0.220192,0.926770
-0.725081,0.489907,0.217940,-0.542561,-0.109373,0.832866
-0.729684,0.363910,0.200687,-0.449730,-0.267683,0.852108
-0.805254,0.241505,0.604038,-0.147411,-0.965470,0.214796
-0.720908,0.702771,0.209270,-0.304325,0.220192,0.926770
-0.726232,0.634370,0.218668,0.438730,-0.238698,-0.866337
-0.736163,0.453127,0.213489,0.568029,0.162295,-0.806848
-0.747966,0.231645,0.582159,-0.572958,-0.679053,0.458918
-0.625764,0.275791,-0.200658,0.967428,-0.246455,0.057818
-0.663905,0.688059,0.208513,-0.413870,0.241655,0.877676
-0.669233,0.622477,0.219279,-0.413870,0.241655,0.877676
-0.674412,0.537797,0.221083,0.609014,-0.021800,-0.792860
-0.679740,0.438568,0.216107,0.426484,0.066552,-0.902043
-0.637852,0.506501,0.224632,0.568351,0.164859,-0.806101
-0.642746,0.401473,0.217649,-0.321497,-0.262530,0.909790
-0.709105,0.244170,0.604446,0.492519,0.245304,0.835015
-0.470745,0.702618,-0.135513,0.800852,-0.598259,0.026881
-0.478085,0.758963,-0.062308,0.859588,0.051092,-0.508426
-0.542713,0.411332,0.232430,0.774263,0.560182,-0.294470
-0.561856,0.560963,0.420998,0.525501,0.118647,-0.842479
-0.566750,0.488187,0.425712,0.291413,0.618142,0.730054
-0.574520,0.742369,0.576776,-0.075299,-0.150134,0.985794
-0.609643,0.195019,0.594204,-0.111689,0.414969,0.902954
-0.489457,0.844894,0.569764,-0.634429,0.279464,-0.720694
-0.494781,0.750040,0.565341,-0.503715,0.451204,-0.736672
-0.524576,0.205040,0.547768,0.817223,-0.558066,0.143904
-0.540697,0.180938,0.644656,-0.288214,0.954289,0.079146
-0.390141,0.715295,-0.153057,-0.368717,0.511931,0.775870
-0.395465,0.626393,-0.151399,-0.334719,0.467228,0.818328
-0.396185,0.324149,0.263737,0.525147,0.818850,-0.231746
-0.409284,0.515891,0.428767,-0.631061,-0.666425,0.397038
-0.430874,0.404129,0.530048,-0.730234,0.163695,-0.663297
-0.446129,0.182657,0.544567,0.756112,0.404286,0.514633
-0.387835,0.291907,0.255299,0.676317,0.636670,-0.370469
-0.399062,0.496164,0.426061,0.574828,0.412342,-0.706786
-0.419360,0.432310,0.548379,-0.587720,0.734858,-0.338481
-0.345086,0.750356,-0.165510,-0.025432,0.349409,0.936625
-0.419936,0.651901,0.418147,0.833668,-0.122064,0.538608
-0.429433,0.510570,0.431182,-0.581655,-0.719890,0.378730
-0.442246,0.649560,0.607094,0.904044,0.232981,-0.358364
-0.462825,0.190328,0.552830,0.599812,0.664046,0.446394
-0.419071,0.296445,0.242119,0.329610,0.782395,-0.528408
-0.429723,0.429645,0.419602,-0.446744,-0.251105,0.858700
-0.455775,0.267957,0.574332,0.209731,0.540559,0.814745
-0.378338,0.659256,-0.162164,-0.368717,0.511931,0.775870
-0.441236,0.475978,0.420358,-0.477871,-0.365590,0.798739
-0.448576,0.633587,0.602816,0.904044,0.232981,-0.358364
-0.470886,0.179218,0.552685,0.741703,0.648605,-0.170845
-0.384238,0.564881,0.321113,0.836372,0.273334,0.475153
-0.399928,0.449210,0.425712,0.063260,0.365332,-0.928725
-0.406262,0.595403,0.603602,-0.461476,-0.658602,0.594377
-0.412161,0.611519,0.683935,-0.609417,-0.714495,-0.343668
-0.418205,0.483019,0.664703,0.514631,0.734207,0.442826
-0.393163,0.517296,0.424781,-0.667425,-0.621209,0.410663
-0.407413,0.591486,0.683440,0.727844,0.479880,0.489856
-0.413457,0.471278,0.666478,0.477745,0.834816,0.273573
-0.344941,0.591333,0.329725,0.844040,0.530382,0.079320
-0.357179,0.691661,0.606046,-0.135161,-0.037292,0.990122
-0.370133,0.569265,0.698308,-0.324319,0.944422,0.053698
-0.264052,0.376424,0.558388,0.902967,0.300111,0.307545
-0.263041,0.514325,0.656178,0.007338,0.352798,0.935671
-0.266929,0.457034,0.668165,-0.025591,-0.978299,0.205611
-0.274414,0.283931,0.630050,-0.002378,0.860317,0.509754
-0.183303,0.815623,0.715445,0.826641,0.537032,-0.168110
-0.195396,0.488025,0.608432,0.724447,-0.443468,0.527744
-0.202590,0.329786,0.576223,0.148712,-0.988708,0.018455
-0.206763,0.340428,0.652308,0.944866,-0.042712,0.324660
-0.211802,0.249338,0.649922,0.943169,0.325260,-0.068110
-0.133500,0.504619,0.580675,0.821069,-0.338237,0.459827
-0.140264,0.356859,0.553267,0.905379,-0.415908,0.085498
-0.144872,0.288621,0.561268,0.904449,0.143266,0.401805
-0.149045,0.223669,0.570666,0.767617,0.411388,0.491451
-0.149621,0.275791,0.628886,0.466248,0.233089,0.853395
-0.153938,0.215530,0.638313,-0.304106,0.419388,0.855355
-0.087873,0.383007,0.555536,0.236915,0.648303,0.723584
-0.093343,0.273909,0.543927,-0.054091,-0.922843,0.381359
-0.096510,0.239164,0.565021,0.775175,0.393825,0.493969
-0.098381,0.240253,0.603369,0.991491,-0.000338,0.130177
-0.101693,0.205355,0.623969,0.643363,-0.410747,0.646043
-0.103564,0.213495,0.664208,0.754093,0.656290,-0.025049
-0.052034,0.393964,0.548320,-0.352995,0.022685,0.935350
-0.060670,0.205508,0.503630,-0.546907,0.122610,-0.828166
-0.062827,0.190644,0.535169,0.027535,-0.248282,0.968296
-0.062542,0.247771,0.597725,0.910701,0.404420,-0.084072
-0.061391,0.327130,0.667321,0.715133,0.345408,-0.607682
0.040662,0.325248,0.748614,0.905238,-0.131938,0.403901
0.035914,0.236346,0.745472,0.849661,-0.374142,0.371610
0.032312,0.274224,0.865986,0.269714,0.217793,-0.937988
0.050019,0.221319,0.446428,-0.439235,0.801129,0.406528
0.044980,0.183287,0.505288,0.352422,-0.935404,-0.028616
0.053471,0.524499,0.727113,0.743293,-0.003736,-0.668956
0.046707,0.383790,0.702702,0.785176,0.463931,-0.410203
0.049013,0.501801,0.789523,0.913639,0.308368,-0.264903
0.197698,0.915330,0.635462,0.983696,-0.088938,0.156307
0.170780,0.285335,0.467842,0.500575,-0.586380,-0.636854
0.167182,0.231645,0.482855,0.126090,0.959626,-0.251435
0.170059,0.377839,0.585301,-0.592135,0.804711,-0.042607
0.166897,0.335107,0.602787,0.829290,-0.557543,-0.037741
0.162144,0.251994,0.602642,0.852634,-0.395838,-0.341069
0.159697,0.244170,0.636102,-0.797869,-0.485539,-0.357290
0.153508,0.173897,0.677970,0.711959,-0.179045,-0.679012
0.326954,0.969477,0.484456,-0.354809,0.805543,0.474563
0.313710,0.958998,0.708782,-0.317852,-0.921921,0.221429
0.295718,0.442485,0.514570,0.884617,-0.436890,0.163033
0.292406,0.409459,0.536886,0.901436,-0.218777,-0.373564
0.285642,0.252156,0.505725,-0.392525,0.915402,-0.089232
0.288233,0.398339,0.606395,-0.151731,0.918713,-0.364615
0.287658,0.443889,0.663655,0.279949,0.441629,-0.852404
0.280893,0.301461,0.638866,0.236747,-0.695745,-0.678151
0.267504,0.199566,0.772618,0.142124,-0.943761,0.298523
0.418786,0.515729,0.456175,0.898534,-0.430170,-0.087125
0.418641,0.771325,0.684284,0.867014,0.149128,-0.475444
0.406117,0.414150,0.563858,-0.543714,-0.416504,-0.728628
0.409860,0.626231,0.695020,0.574730,0.394289,-0.717092
0.404101,0.496632,0.673781,-0.052982,-0.757259,0.650962
0.395035,0.263582,0.608257,0.974601,0.223905,0.004466
0.387405,0.234149,0.704680,0.180363,-0.896238,0.405248
0.434762,0.853817,0.495017,0.951359,-0.115648,-0.285554
0.611660,0.532638,-0.100714,-0.724598,0.553751,0.410266
0.590356,0.799497,0.407062,0.078402,0.980130,0.182203
0.576251,0.560648,0.414917,-0.584425,0.146575,-0.798100
0.570923,0.666459,0.578464,0.952906,0.302516,-0.021306
0.566174,0.594304,0.584457,0.623962,-0.260390,0.736797
0.558979,0.388165,0.529612,0.857943,-0.442952,-0.260244
0.562001,0.638134,0.676283,-0.302550,-0.792133,0.530083
0.559120,0.630148,0.709975,0.275324,0.633804,-0.722834
0.549188,0.423388,0.692925,-0.276973,-0.015436,-0.960754
0.547317,0.453910,0.742766,0.786625,-0.225337,-0.574843
0.541273,0.321026,0.722137,0.756077,-0.374944,-0.536437
0.736739,0.645328,0.443314,-0.571474,-0.668674,0.475702
0.729254,0.427763,0.384018,0.529061,0.168402,0.831706
0.724651,0.351385,0.387742,0.851852,0.077524,0.518014
0.728388,0.719203,0.591091,0.141604,0.921727,-0.361065
0.716155,0.214584,0.403919,0.928616,-0.365482,0.064001
0.712847,0.197053,0.433451,-0.520694,0.770218,0.368296
0.713709,0.575991,0.676952,0.895598,-0.140300,0.422162
0.709681,0.527002,0.692518,0.204505,0.927025,-0.314330
0.704207,0.406794,0.675730,0.765500,0.617544,0.180690
0.689527,0.244801,0.749371,0.759187,0.634124,-0.146702
0.934221,0.395836,0.391641,-0.286219,-0.883317,0.371255
0.916949,0.197531,0.458823,0.348608,-0.923461,0.160289
0.908169,0.419003,0.667001,0.888898,-0.129970,-0.439282
0.904281,0.388328,0.689172,-0.174848,0.865493,0.469414
