-0.172969,0.225454,0.236245,-0.220943,0.919464,0.325224
-0.072995,0.769207,-0.046177,0.463644,0.652966,-0.598890
0.106785,-0.395741,0.279661,-0.836030,0.430255,0.340491
-0.030839,-0.653660,0.529065,0.975680,-0.011638,0.218889
-0.482113,-0.733010,-0.297939,-0.242000,0.810550,0.533334
-0.369267,-0.732400,-0.642028,-0.079305,0.954060,0.288931
0.332260,-0.291185,0.271568,-0.499931,0.488980,-0.714820
0.220380,-0.198124,0.772412,-0.382789,-0.452628,-0.805357
-0.697721,-0.477109,-0.345885,0.044616,-0.977328,0.206977
-0.162029,-0.384147,0.671267,-0.437253,0.747312,-0.500335
-0.209655,-0.367513,0.311044,-0.748216,0.542825,0.381462
-0.255993,-0.833030,0.204272,0.165037,0.703365,0.691405
-0.145936,-0.447465,0.662638,-0.279183,0.648269,0.708382
0.861519,0.528740,-0.402058,-0.543559,-0.415117,-0.729535
-0.063770,0.290385,-0.106397,0.011437,-0.927184,0.374431
0.430518,0.154166,0.336585,0.063720,-0.942712,0.327466
-0.100136,-0.533572,0.135636,-0.272659,-0.268491,0.923888
0.129954,-0.090941,0.007906,0.219166,-0.748322,0.626084
0.334083,-0.360657,-0.969689,-0.170595,-0.066643,0.983085
-0.200860,-0.123009,0.401951,0.429395,0.809622,-0.400164
0.058192,-0.499294,0.408732,0.273444,-0.049419,0.960618
0.024082,-0.298040,0.485783,0.813782,-0.471213,0.340173
-0.412605,0.083285,0.088119,-0.404080,-0.809103,-0.426699
-0.121479,0.933254,-0.509286,-0.709152,0.469249,-0.526222
-0.675517,-0.076528,-0.660896,0.439446,0.820977,0.364531
0.358864,0.423175,-0.009407,-0.593238,0.582667,0.555489
0.479539,0.211035,0.367057,-0.669268,-0.579533,0.464997
-0.127703,0.310244,-0.232493,0.200520,0.411890,-0.888897
0.346954,-0.255190,-0.185512,0.073515,-0.534226,0.842139
0.236040,-0.286348,0.918527,0.795443,0.097538,0.598128
0.219951,-0.447465,0.731113,0.170815,0.486698,-0.856708
0.231536,0.053339,0.516549,0.835237,-0.527738,0.154506
0.182731,-0.187133,-0.015464,0.300770,0.542596,0.784300
0.587985,0.078848,-0.440651,0.067443,0.900529,0.429534
-0.260072,-0.288970,0.482111,0.572366,-0.802541,-0.168298
0.210726,-0.325062,0.302013,0.083051,-0.980689,0.177061
0.452078,-0.187435,-0.444135,-0.636912,0.698389,0.326490
-0.483936,0.366811,-0.709217,0.938491,0.224622,-0.262259
0.653954,-0.673015,0.360062,-0.557866,0.387874,-0.733716
-0.523949,-0.151643,-0.126390,-0.225818,-0.929319,0.292187
0.375061,-0.375377,-0.110444,-0.672894,-0.688594,-0.270280
-0.355966,0.182093,-0.707448,-0.479142,0.856731,0.190878
0.590991,0.147815,-0.450513,-0.492211,0.378390,0.783932
0.105927,-0.248433,0.842870,-0.059426,0.404943,0.912409
-0.188093,-0.512703,-0.472382,0.134046,0.334039,0.932979
0.636041,0.175139,-0.087423,-0.244849,-0.787059,0.566204
0.435451,-0.749946,0.373355,0.402660,-0.652306,0.642154
-0.009495,-0.760838,0.263554,0.893669,-0.355647,-0.273626
0.221561,-0.563923,0.117198,0.989884,0.025453,-0.139576
0.218019,0.028939,0.492349,0.764098,-0.622975,0.167498
-0.127703,-0.729982,0.456597,0.933031,-0.357929,0.036605
0.232285,-0.398664,0.558063,0.790755,0.173041,-0.587166
-0.193563,-0.341500,0.543457,-0.084206,0.832062,-0.548253
-0.251380,0.017246,0.342186,0.141483,-0.719671,0.679747
0.118478,0.037105,0.078230,-0.538280,0.790548,-0.292042
-0.041566,-0.137224,-0.733149,0.213268,0.960729,0.177530
0.278305,-0.389593,-0.336666,0.871950,0.449626,-0.193753
0.237222,-0.192580,0.726824,-0.247381,-0.456112,-0.854848
0.491445,-0.197620,0.716346,-0.505619,0.861913,0.038141
0.151193,-0.382534,0.711012,0.970610,0.218251,-0.101404
-0.063341,-0.825368,0.276070,0.926550,-0.142758,-0.348032
0.034809,-0.266181,-0.337657,0.253245,-0.928089,0.272980
0.259963,0.083691,0.496154,0.895996,-0.414229,0.160017
0.039098,-0.161822,0.436363,0.515880,-0.850677,0.101075
0.257066,-0.183096,-0.529762,-0.567103,0.217562,-0.794393
-0.192813,-0.014822,0.324096,0.085849,-0.674811,0.732980
-0.465166,-0.765374,0.209310,-0.342142,-0.665116,-0.663747
0.575006,-0.573702,0.138048,-0.248820,0.561816,-0.788956
0.436417,0.180081,0.218476,-0.048130,-0.950470,0.307066
0.437491,0.785140,-0.452764,-0.545514,0.654409,0.523606
0.130704,-0.281708,0.839305,-0.176439,0.959499,-0.219616
0.525556,-0.033272,0.325570,0.608290,0.598858,-0.520914
0.072029,-0.725446,0.365771,-0.054460,-0.849910,0.524105
-0.024402,-0.540427,0.413716,-0.596900,-0.001541,-0.802314
0.220167,0.456345,0.247581,0.965153,0.259659,0.032500
0.879753,-0.255092,0.393509,0.725086,0.681092,0.101802
0.454438,0.407643,-0.344009,-0.779281,0.541967,0.314630
0.640012,0.669291,-0.389596,0.694134,-0.599975,-0.397755
-0.540467,0.064534,0.114437,0.443651,0.870209,-0.214264
0.785465,0.256205,-0.467076,0.041479,0.936685,0.347708
-0.424727,0.572797,-0.198724,0.882138,0.071678,0.465505
-0.103888,0.302883,-0.027095,0.077384,-0.433131,0.898003
0.141432,-0.181385,-0.015276,0.007486,0.844747,0.535113
-0.129955,0.259830,-0.349824,0.840244,0.188880,0.508247
-0.318422,-0.370337,0.386728,0.883786,0.460826,-0.081007
-0.127703,0.288569,0.296760,0.226434,0.191697,0.954976
0.246984,-0.162228,-0.132983,-0.301409,0.934139,0.191147
-0.270691,0.529848,-0.368692,0.455748,-0.039067,-0.889251
0.122982,-0.640552,-0.114437,0.917680,0.378270,0.121556
-0.234649,-0.148111,0.291426,-0.317976,0.882791,-0.345792
0.406166,-0.253578,-0.101386,0.968523,0.047207,-0.244408
0.703728,0.174031,-0.421086,0.407820,0.640190,0.651030
-0.349423,0.436585,0.029963,0.943648,-0.266629,-0.196053
0.666504,0.268200,-0.210650,0.920848,0.386444,-0.051964
-0.491338,0.373968,-0.283735,0.910044,-0.414083,0.018867
-0.369267,-0.349968,0.387693,0.868114,0.383533,-0.315088
0.225529,-0.470253,0.723635,0.931783,0.333720,-0.142868
0.012281,0.551929,-0.160936,0.936209,0.300634,-0.182020
0.399838,0.054552,0.564441,0.785483,0.189059,-0.589299
0.067096,0.158702,-0.096776,0.995318,0.086812,0.042491
0.340306,-0.328189,0.320880,0.161985,0.532215,-0.830968
0.075784,-0.220408,0.776673,-0.684294,0.725686,0.071565
0.273048,-0.642263,0.072388,-0.581374,-0.368477,0.725416
-0.001665,0.166062,0.194838,0.778877,0.607405,-0.156236
0.701368,-0.402295,0.365556,0.901639,-0.411595,-0.132799
0.094984,0.352694,-0.293785,0.834554,0.508514,0.211976
-0.015394,-0.081568,0.317155,-0.419021,0.410298,0.809986
0.178223,0.267498,-0.462171,0.978474,-0.132547,-0.158179
-0.266399,-0.741884,0.191086,0.181522,0.764370,0.618699
-0.336980,0.478425,0.154316,0.031120,0.909594,-0.414332
0.124056,-0.189650,0.222014,0.439693,-0.859497,-0.260641
0.207400,-0.140751,0.121968,-0.729432,-0.627493,0.272363
0.623385,-0.049506,0.607751,-0.363112,0.036121,0.931045
0.606435,-0.397962,-0.157291,-0.684448,0.728832,0.018297
0.081575,0.062312,0.195508,-0.148336,-0.574439,0.804995
0.052077,-0.367408,0.483987,-0.070091,-0.545189,-0.835378
0.116009,-0.194894,0.386675,0.850812,0.223028,-0.475791
0.017109,-0.065937,0.728593,0.192340,0.944271,-0.267129
-0.280345,0.235836,0.226945,-0.573299,0.705459,0.416720
0.300938,0.129464,0.404363,-0.025285,-0.981637,0.189078
-0.239903,0.483164,0.170450,0.550180,0.630111,-0.547961
0.566963,-0.832624,0.343017,-0.392820,-0.798503,-0.456164
0.115044,-0.265677,0.386755,-0.618257,-0.750014,0.235027
0.188738,0.030551,0.510707,0.713362,-0.651755,0.257548
-0.407027,0.241583,-0.250127,0.573126,-0.315866,-0.756145
0.516010,0.499602,-0.630933,0.818911,-0.561588,0.118336
-0.120514,-0.515220,0.124970,0.816814,0.456751,0.352411
0.237651,0.032065,0.450245,0.962633,0.254058,-0.093763
-0.344277,0.089032,-0.746362,0.897158,0.416507,-0.147071
0.527808,-0.610804,0.303728,-0.247558,0.470031,-0.847222
0.519657,-0.101427,-0.973762,0.311714,-0.208140,-0.927099
0.632931,0.557073,-0.361349,0.480316,-0.839441,-0.254236
0.312203,0.240476,0.017393,0.910979,-0.187702,-0.367268
-0.107321,-0.758013,-0.335299,0.923763,-0.379107,-0.054224
0.338158,0.074817,0.796050,0.764687,-0.541201,0.349793
-0.002414,-0.710221,-0.021869,-0.758522,-0.629314,0.169138
-0.292895,-0.884145,0.209203,-0.131911,-0.762548,-0.633340
-0.209655,-0.298748,0.198724,-0.546785,0.605211,-0.578573
0.186269,-0.048496,0.570579,-0.744878,-0.212200,-0.632557
0.001877,-0.214857,0.432905,0.817258,-0.574366,-0.046821
0.379778,-0.174124,0.386782,-0.596791,-0.388606,0.702016
0.217270,0.102140,0.447002,-0.211414,-0.294800,0.931878
0.507751,-0.272735,0.367111,-0.433936,0.881598,0.185702
0.596140,0.629364,-0.389489,-0.768702,0.605793,0.205211
-0.459479,0.164856,-0.684292,-0.506618,0.444667,0.738654
0.373130,0.135514,0.052127,-0.552792,0.537764,-0.636578
0.431268,0.028736,0.682792,-0.479550,0.857469,-0.186492
0.741806,0.549812,-0.731541,-0.641383,-0.460065,-0.613978
-0.337838,-0.365900,0.467317,0.956232,0.264160,0.125859
0.486617,0.198530,-0.123737,0.800760,-0.468441,-0.373292
0.488335,-0.223430,0.686088,0.323480,-0.868749,0.375015
0.139392,-0.154462,0.402809,0.870821,0.477981,-0.114914
0.148084,-0.306108,0.603114,0.328169,0.746045,0.579415
0.047789,0.042047,0.371533,0.638846,-0.488710,-0.594170
0.288279,0.513411,-0.516120,0.878537,-0.165375,-0.448134
-0.265113,-0.262852,-0.684721,0.075437,0.900698,0.427846
0.175329,-0.280699,0.987967,0.730814,0.680854,0.048461
0.286564,0.113531,-0.354354,0.801972,-0.596181,-0.037543
0.198499,-0.507965,0.682711,0.896698,-0.202162,-0.393782
-0.522554,0.838175,-0.437703,0.782239,0.399792,-0.477774
0.252133,0.376386,0.172594,0.766868,-0.594517,-0.241791
0.379245,0.362780,0.011953,0.798676,-0.414808,-0.435948
-0.240227,0.501417,-0.381261,0.567766,0.574569,-0.589501
0.452294,0.310446,0.376544,-0.874447,0.188624,0.446948
-0.325611,-0.345937,0.496395,-0.539236,-0.830074,0.142136
-0.307698,0.704683,-0.599094,0.863645,0.447662,-0.231769
-0.204290,0.467231,-0.371774,0.623873,0.619466,-0.476491
-0.147655,0.094676,0.530673,-0.700222,-0.006981,0.713892
0.196352,-0.430628,-0.364055,0.033006,0.573096,0.818823
-0.349852,0.279898,-0.466620,-0.654763,-0.369742,0.659224
0.100991,-0.171404,-0.585185,-0.315044,-0.935550,0.159665
-0.052938,0.400892,-0.072656,0.974722,-0.106009,0.196668
-0.495416,0.577535,-0.437033,-0.726015,-0.409936,0.552136
-0.049504,0.284033,0.248975,0.998603,-0.013077,-0.051194
0.234433,-0.712136,0.249993,-0.637453,-0.657914,-0.401002
-0.116867,0.417932,-0.545252,-0.725105,-0.577089,0.375755
-0.026871,-0.708708,0.497494,0.242926,0.963167,0.115311
-0.180799,0.234125,0.103771,-0.513240,-0.816371,0.264808
0.151943,-0.218691,-0.755635,-0.022505,0.998670,0.046395
0.311774,-0.097802,0.244312,0.013000,-0.981431,0.191376
-0.353931,-0.800863,-0.424597,-0.004048,0.797144,0.603776
0.124805,-0.471164,0.067430,-0.542062,-0.017367,0.840159
-0.121696,-0.036398,0.402916,-0.577446,0.537932,-0.614154
-0.525235,-0.215663,-0.206845,0.692329,0.721506,0.010486
0.416036,-0.491731,0.522928,0.881427,0.432482,-0.189856
-0.562134,-0.138837,-0.622866,-0.666317,-0.704760,0.243588
-0.076642,-0.233817,-0.411358,-0.061424,-0.992889,-0.101978
0.369159,-0.323351,0.259615,-0.219546,0.310531,0.924862
0.054437,-0.411268,0.405489,-0.601566,0.100699,-0.792451
0.008205,-0.546279,0.452389,0.861219,-0.508179,0.007498
0.204719,-0.429822,0.701632,0.829927,0.425188,-0.361158
0.512576,0.144991,-0.087396,0.090426,-0.150215,0.984509
0.443603,-0.748838,0.093587,-0.452317,0.888151,-0.081229
0.290211,0.698732,-0.461609,0.893496,-0.313006,-0.322012
-0.229821,-0.762955,-0.217699,0.824072,-0.539624,-0.172369
0.511935,-0.808931,0.347546,0.626672,0.011688,0.779196
-0.273372,0.088731,0.160239,-0.335247,-0.583264,0.739873
0.118049,-0.203164,0.680326,0.807147,0.587495,-0.057995
-0.436954,-0.514617,0.211830,0.360937,-0.236190,0.902185
0.458406,-0.112215,0.599282,-0.192368,0.608252,-0.770081
-0.122553,0.399882,-0.554391,0.760874,0.619412,-0.193390
0.326897,-0.070577,0.729987,-0.696220,-0.130967,0.705780
0.452723,0.310951,0.386166,-0.108940,-0.960122,0.257485
-0.110431,-0.219097,0.416236,0.984396,0.163182,0.065848
0.363368,0.165256,-0.365717,0.927312,-0.373713,0.020788
0.211047,-0.450591,-0.305282,0.336590,-0.586343,0.736824
0.109253,-0.290785,0.849355,-0.641639,0.710366,0.289275
0.642477,-0.151945,0.114973,-0.541081,-0.831725,0.124359
0.473532,-0.229276,0.669472,-0.160214,0.986995,-0.013158
-0.569644,-0.664547,-0.448342,-0.418832,0.258653,-0.870447
-0.393511,0.163342,0.296117,-0.130403,0.720706,0.680866
-0.401557,-0.366202,0.259909,0.952316,0.244921,-0.181958
0.841672,-0.272735,0.422292,-0.441518,0.870395,0.217887
-0.034272,-0.629358,0.531530,0.949519,-0.226076,0.217494
0.533278,-0.272735,0.397636,0.036834,-0.938379,-0.343638
0.688496,-0.164345,0.239112,0.038579,-0.538744,0.841586
0.475356,-0.209312,0.570766,0.833811,0.520978,-0.182595
-0.083078,0.409360,0.354515,-0.442518,0.839568,0.315123
-0.108071,-0.117458,0.498673,0.663983,0.641758,-0.383761
-0.143579,-0.087919,0.588401,-0.161776,0.976791,-0.140383
-0.171037,0.124929,0.440222,-0.720910,0.631937,0.284508
-0.391042,-0.123710,-0.024388,0.826413,-0.422775,0.371892
-0.330007,-0.052324,0.425401,0.043365,0.920871,0.387447
0.305443,-0.351278,0.009166,0.451227,0.585295,0.673665
-0.002627,-0.193890,0.261598,0.443018,0.130111,-0.887021
0.696647,-0.555049,0.395117,0.839886,0.153263,0.520674
0.682273,-0.345734,0.340016,0.736654,-0.291482,-0.610229
-0.506140,0.185521,0.162088,0.876272,-0.476332,0.072493
-0.005845,-0.313370,-0.086619,0.607685,-0.174099,0.774860
0.159024,-0.537707,0.514566,0.978659,0.175552,0.106807
0.629176,-0.210223,0.229250,0.316876,0.655326,-0.685665
0.422472,-0.115243,0.610511,0.144022,-0.926892,0.346596
-0.413463,0.376792,-0.460081,0.908078,0.402212,-0.116702
-0.292358,-0.547486,-0.368826,-0.102767,0.499949,0.859936
-0.104853,-0.253879,0.274355,0.110072,-0.654034,0.748414
0.346741,-0.248839,0.727334,-0.078059,0.906988,-0.413859
0.795764,-0.116252,-0.127891,-0.492978,-0.821414,-0.286795
0.527487,-0.341598,0.409187,0.405396,-0.797649,0.446554
0.281844,0.378005,-0.029641,0.915882,-0.254024,-0.310855
0.038132,-0.342201,-0.010533,-0.221438,-0.163836,0.961313
0.309197,-0.835449,0.148903,0.576685,0.687812,0.440851
0.312523,-0.452911,-0.232359,0.269237,-0.114041,0.956298
0.261679,0.232002,0.123201,-0.683523,0.595100,-0.422673
-0.033094,-0.025505,0.146330,-0.596675,0.739728,0.311095
-0.254598,0.189053,0.053199,0.337481,0.698056,-0.631525
0.500241,-0.566643,0.564629,0.714311,0.672052,-0.195207
-0.319283,0.085303,0.100903,-0.650815,-0.732107,-0.201145
-0.045108,0.115550,-0.750034,0.997255,0.011745,-0.073110
-0.126845,-0.256501,0.474044,-0.219328,0.121541,0.968051
-0.468383,0.478425,-0.451585,0.753919,0.533459,-0.383442
0.370986,0.148825,0.307534,0.872867,-0.484385,-0.058936
0.613087,-0.089734,0.023691,-0.394758,0.891061,-0.224002
0.414105,-0.276163,-0.196205,0.147411,0.776428,-0.612723
-0.411319,-0.462290,-0.082411,-0.670696,-0.021996,-0.741406
-0.331297,0.214660,-0.089969,0.795735,0.578635,0.178848
0.337838,0.582477,-0.474902,0.977236,-0.005467,-0.212084
0.172753,-0.168481,0.603382,-0.638971,0.339532,-0.690242
-0.146797,0.665660,-0.522633,-0.061073,-0.505792,0.860491
0.381497,0.653562,-0.433254,-0.801741,0.592393,-0.079258
0.154732,-0.390904,0.673304,-0.545150,0.825661,-0.145241
-0.135425,-0.190659,-0.105459,0.487770,0.834842,-0.255185
0.139821,-0.414695,0.282636,0.407273,-0.243660,-0.880204
-0.101743,-0.376688,-0.628387,0.879187,0.475505,0.030415
-0.616305,-0.550311,-0.409777,-0.304588,0.494798,-0.813880
0.033307,-0.689347,0.299708,0.471126,-0.781494,0.409033
0.392437,-0.027924,0.761236,0.866128,0.488495,0.105805
0.009491,-0.137828,0.460108,0.137028,0.913419,0.383261
0.668115,-0.773337,-0.415298,0.569058,0.819292,-0.070241
0.151943,-0.128449,0.767615,-0.607261,0.364139,0.706142
-0.272727,0.459773,0.137566,0.307767,0.814256,-0.492205
0.110647,-0.042650,0.756331,0.028749,0.228794,0.973050
-0.002951,-0.186832,0.028489,0.338307,-0.940982,0.010053
-0.019040,0.435975,0.057085,0.973879,-0.215596,-0.071256
-0.245910,0.280101,0.259454,0.131639,0.390630,0.911087
-0.020543,-0.146498,0.324364,-0.347811,0.911584,-0.219184
0.403165,0.342613,-0.576635,0.920903,-0.300083,0.248771
0.750602,0.296532,-0.055852,0.644311,-0.239516,-0.726289
0.265646,-0.617764,0.592689,0.993621,-0.098922,-0.054146
0.368838,0.239971,-0.668936,0.912045,-0.385362,0.140246
-0.007564,0.258519,-0.166430,0.972097,-0.074187,0.222538
-0.299544,-0.221312,0.487122,0.032931,0.952024,0.304247
0.625101,-0.119680,-0.050438,0.880146,0.223269,0.418921
-0.076966,0.147409,0.397556,0.955330,0.273085,-0.112999
0.195494,-0.377796,0.160802,0.224794,0.914452,0.336519
0.696435,-0.439705,0.423606,-0.320946,0.041256,0.946199
0.080505,0.440819,0.314877,0.469583,0.673495,-0.570874
0.402199,-0.231497,0.083644,-0.448306,0.560298,-0.696482
-0.199465,0.486087,-0.361938,0.381311,0.147019,-0.912681
0.419575,0.352694,0.234449,0.801934,0.029870,-0.596666
0.127378,0.064934,0.431914,-0.108002,-0.885243,0.452416
0.006702,0.587216,-0.793879,-0.431625,0.499781,0.750945
-0.161813,-0.142972,0.705250,0.106954,-0.108002,-0.988381
0.372913,0.455336,-0.015464,-0.655277,0.528844,0.539385
-0.042852,0.084196,0.070378,0.650493,0.702467,-0.288788
0.194957,-0.100621,0.369415,0.994558,-0.070885,-0.076350
-0.476322,0.130978,0.197465,-0.310472,-0.452802,-0.835809
-0.510324,-0.324663,-0.577788,0.979297,0.202256,0.008321
-0.321748,0.112024,0.275936,0.525441,-0.550598,0.648655
0.363152,-0.419440,0.508616,0.698158,0.529991,0.481337
-0.050041,-0.667470,0.267360,0.996866,0.046845,0.063751
0.522659,0.192986,0.199528,-0.493414,0.582266,-0.646149
0.885331,0.425593,-0.047115,-0.174199,0.636112,0.751675
-0.390293,0.161625,0.136440,-0.338708,-0.722732,0.602442
-0.529098,-0.393224,0.048562,0.203717,0.904497,0.374679
-0.375382,0.723132,-0.651891,0.986222,0.154625,0.058805
-0.029339,0.283228,-0.116983,0.056781,0.912207,0.405777
0.345992,0.083383,-0.361000,0.919138,0.177459,-0.351701
0.154195,-0.495060,0.649988,0.852569,-0.012849,0.522456
-0.264896,0.326884,-0.634310,0.978823,-0.100300,-0.178453
0.305335,-0.323752,-0.070780,-0.639397,-0.765884,-0.067766
-0.208153,-0.753275,0.359848,0.284768,0.860087,0.423270
0.247521,-0.219294,0.699327,-0.130208,0.707826,-0.694282
-0.101743,0.542045,0.205505,0.842568,0.285558,-0.456657
0.147868,-0.229079,-0.645191,0.355818,0.934371,-0.018559
-0.185091,-0.848354,-0.294428,0.921547,-0.317246,0.223847
0.146473,-0.333937,-0.581808,0.945422,-0.283258,0.161063
0.366478,-0.234015,0.537319,-0.038716,-0.942368,0.332331
-0.033523,-0.320730,-0.198966,0.736544,-0.562729,0.375285
0.604611,-0.108086,0.607563,-0.180960,-0.177030,0.967426
0.430194,0.330410,-0.030445,-0.503392,0.166061,-0.847950
0.387075,0.019560,0.706483,-0.175092,0.984549,-0.002598
0.224026,-0.259221,-0.636883,0.313617,0.949548,-0.001574
0.352320,0.128252,0.310080,0.834252,-0.124337,-0.537181
0.854009,-0.266181,0.058612,0.343906,0.585347,0.734233
0.313597,0.460376,0.144695,-0.397928,0.917411,-0.003208
0.105282,-0.007960,0.527698,0.595640,-0.571792,0.564151
0.221990,-0.244101,0.728674,-0.189024,0.205801,-0.960165
-0.025797,0.473084,-0.179830,0.932238,0.335456,0.135654
-0.156127,0.283529,-0.215367,0.969065,0.245617,0.024199
0.164815,0.070478,0.535872,-0.606499,0.637888,-0.474613
0.208690,0.170801,0.221558,0.193020,0.016761,0.981052
0.241082,-0.042447,0.535417,0.571403,0.095325,-0.815114
-0.356611,-0.296225,0.499531,0.985962,-0.166554,0.011742
-0.372380,0.299055,-0.464208,-0.736294,-0.415327,0.534205
0.331294,-0.298748,0.315842,0.165800,-0.977754,0.128481
-0.089192,-0.180881,0.635596,-0.422663,0.234012,0.875554
0.231965,-0.637426,0.117653,0.984598,0.171307,-0.034926
0.167928,-0.244605,0.322381,0.927229,0.211974,0.308729
-0.120193,-0.687335,-0.316726,0.881611,-0.459251,-0.108864
0.037811,-0.051217,0.186182,0.148822,-0.415478,0.897346
0.453793,0.061204,0.096883,0.719859,0.637749,0.274005
-0.179621,-0.056158,-0.522231,0.432561,0.817210,-0.380865
-0.282597,0.116055,-0.081687,0.898554,0.332752,0.286141
-0.436525,-0.493343,-0.993595,0.247533,-0.291065,-0.924126
-0.141324,0.734123,-0.045855,-0.513007,-0.232780,0.826218
0.550870,-0.307216,0.399164,0.900909,-0.023411,0.433376
0.388145,-0.087008,-0.743843,-0.197993,0.795651,0.572484
-0.087585,0.176751,0.444671,0.975104,-0.208303,-0.076039
0.243337,-0.232704,-0.170450,-0.613689,-0.783341,-0.098806
-0.058408,0.183607,0.325061,-0.839624,0.531979,-0.109677
0.788575,-0.602841,0.090773,0.891134,-0.409083,-0.196296
0.348244,-0.022484,0.041112,0.206259,-0.893133,0.399713
-0.149262,0.492340,0.183931,-0.582739,-0.594697,0.553851
-0.645698,-0.564225,-0.418674,-0.400601,0.194873,-0.895290
0.166962,-0.308828,-0.856565,0.408493,0.908654,-0.086495
-0.339448,-0.475595,-0.037279,-0.825977,0.182090,0.533484
0.031696,-0.074005,0.520757,-0.369028,0.202368,0.907119
0.799410,-0.195601,0.062391,-0.511507,-0.643878,-0.569018
-0.461839,0.230192,0.037118,-0.012226,-0.793518,0.608424
-0.029660,-0.656079,0.446708,0.962560,-0.270213,0.021517
-0.280557,0.462394,0.156943,-0.301327,-0.889310,-0.343991
0.185412,-0.277775,0.798113,0.657590,0.590718,0.467576
0.227673,-0.081162,0.830542,0.805569,0.148743,-0.573528
0.304264,-0.440609,0.257256,0.821860,-0.510974,0.251898
-0.016360,-0.710628,0.326615,0.911929,-0.205990,-0.354900
-0.411319,-0.455736,0.345295,0.813288,-0.580539,-0.039222
0.140145,-0.339481,0.699622,0.843619,-0.366711,-0.392212
0.187772,-0.236538,-0.585828,0.991734,0.109741,-0.066486
0.014857,0.174228,0.604776,0.882490,-0.224122,0.413499
-0.105177,0.074411,0.383084,0.879275,0.342836,0.330663
0.241727,0.164351,0.539812,0.521718,0.363797,-0.771662
-0.468704,0.368423,-0.730603,0.934301,0.336436,0.117865
0.156451,-0.230082,0.686972,0.921044,0.386786,0.045538
0.906033,0.340693,-0.036582,0.255417,-0.720647,-0.644538
-0.208366,0.680381,-0.534881,0.439033,0.112025,-0.891460
-0.222311,-0.265775,0.448637,0.292004,-0.840526,0.456343
0.289353,-0.024299,-0.689090,0.759635,-0.470825,-0.448640
-0.025905,-0.614133,0.335406,-0.525699,0.823272,0.214158
0.113112,-0.339887,0.472731,0.798788,0.400301,0.449108
-0.041782,-0.630066,0.492724,0.922145,-0.249916,0.295282
-0.212016,-0.138634,0.557634,0.909244,0.394022,-0.134249
-0.132960,0.116055,0.426634,0.985768,-0.140893,0.091712
-0.043605,-0.013911,-0.580173,0.849939,0.459841,-0.257197
-0.032020,0.101636,0.594726,-0.449470,0.627725,-0.635562
0.502710,-0.296730,0.428483,-0.617086,0.081351,0.782680
-0.082436,0.224543,0.355345,0.933598,0.358300,0.003957
0.391792,-0.355211,0.656152,0.416129,-0.875964,-0.243975
-0.138106,0.197521,0.094149,-0.150201,0.767592,-0.623091
0.069669,-0.229781,0.517407,-0.208645,0.582535,-0.785570
0.115689,0.113433,-0.038994,-0.142547,0.115383,-0.983040
0.132207,-0.084190,0.276016,0.375271,0.356361,-0.855674
0.322606,0.374879,0.022137,0.798676,-0.414808,-0.435948
-0.230786,0.559892,0.048643,-0.096423,0.952254,0.289680
0.398765,0.372959,0.228312,-0.090959,-0.489537,0.867225
0.392329,-0.442831,-0.066733,0.467611,0.879564,0.087790
0.032233,0.319222,0.215930,0.785777,0.113520,-0.608003
0.086295,-0.143274,0.000295,0.229062,-0.890858,0.392304
0.147439,-0.349463,0.198161,0.731874,0.609027,-0.305690
0.188201,-0.261541,0.868839,0.873833,-0.484335,-0.042844
0.633789,-0.125827,0.176507,-0.659908,0.750813,-0.028308
0.414534,-0.225448,0.704205,-0.181815,0.916625,-0.356009
-0.043068,0.383550,0.330046,0.210305,0.715948,0.665725
0.084472,-0.197515,0.302254,-0.379014,0.910243,-0.166754
0.125555,0.701760,0.110417,-0.609800,0.791973,0.030375
0.135209,-0.573702,0.543055,0.870219,0.486958,0.074764
0.278305,0.004840,0.722349,0.707471,0.679527,0.194237
0.078144,-0.305197,0.873342,0.021981,-0.985029,0.170980
0.339985,-0.463195,0.484389,0.864017,0.081059,-0.496895
0.828371,0.111821,-0.003698,-0.743063,0.519292,0.422130
0.230999,0.456948,-0.487364,0.818896,-0.555619,-0.143866
0.208795,-0.271018,0.075711,-0.236205,0.562409,0.792404
0.759293,0.298348,-0.049179,0.611275,-0.221291,-0.759851
0.405845,0.710326,-0.437354,-0.663447,0.535846,0.522213
0.563745,-0.319819,0.323346,0.847453,-0.452302,-0.277932
0.178439,-0.109698,-0.084501,0.974339,0.207330,0.087619
-0.172969,0.445255,-0.366280,-0.142940,0.236353,0.961096
-0.293108,0.084799,0.390588,0.364278,0.911693,-0.190048
-0.053688,0.540335,0.230054,0.720289,0.469619,-0.510531
0.294286,-0.192075,0.760164,-0.431004,-0.069826,0.899644
-0.483402,0.133095,0.288559,0.221890,0.764243,-0.605555
-0.262861,-0.771829,0.210195,0.099889,0.454234,0.885265
0.510111,-0.736536,0.372605,-0.179222,-0.944618,0.274911
0.225850,-0.238857,0.508804,-0.274380,0.961040,0.033431
0.088548,-0.261443,0.669338,0.846140,-0.334610,-0.414830
0.026763,-0.100221,0.504489,0.579182,0.195620,0.791379
-0.195818,0.044570,-0.130276,0.797775,-0.601632,-0.039936
-0.237867,0.278790,0.112159,0.737376,0.428830,-0.521903
0.122124,-0.254384,-0.974030,-0.078139,0.629677,0.772917
-0.028157,-0.678867,0.517139,0.906422,0.377519,-0.189418
0.002519,-0.392615,-0.891459,0.930389,-0.288349,-0.226344
0.345347,-0.304699,-0.966526,-0.033795,0.025787,-0.999096
0.246768,-0.662836,0.155683,0.916347,0.400368,0.003733
-0.590025,0.134000,0.188969,-0.432727,-0.718229,-0.544880
0.155806,-0.280095,0.944041,-0.501897,-0.862804,-0.060568
0.209976,-0.239258,0.728165,-0.031534,-0.274370,0.961107
-0.348244,0.344127,0.244204,0.075572,-0.990268,0.116868
0.712416,0.600428,-0.752419,0.032330,0.790486,0.611626
0.443818,-0.317702,0.281859,-0.596072,0.140088,0.790616
-0.106572,0.096596,-0.377777,0.737567,0.587053,-0.333713
0.217054,-0.045973,0.003511,0.889015,-0.456247,0.038614
0.174792,-0.501509,0.499879,0.971852,0.071757,-0.224399
-0.218344,-0.196309,0.496208,0.711334,-0.500467,0.493494
-0.283455,0.497884,0.061239,-0.294626,0.842071,0.451788
0.172432,-0.230691,0.783668,0.236867,0.971535,-0.003636
-0.065485,0.007062,0.582156,-0.446356,0.575373,-0.685355
0.190990,-0.405021,0.575564,0.835491,0.536929,0.116884
0.304801,-0.312361,0.379144,-0.706431,-0.695978,-0.128726
0.144113,-0.198426,-0.618310,-0.260695,0.963539,0.060258
0.362082,-0.549904,0.428591,0.698352,-0.635245,-0.329800
0.223493,-0.744001,-0.183529,-0.170899,0.934902,0.311050
-0.209331,0.148621,-0.115322,0.722913,-0.158327,0.672554
0.130812,-0.593364,0.557848,-0.790881,-0.611198,0.030748
0.109895,-0.685015,0.442339,0.386009,0.768754,0.509917
0.901744,0.220008,-0.400209,-0.651295,0.748652,0.123834
0.032770,-0.253473,-0.536864,-0.307418,0.908717,-0.282361
0.129634,-0.059992,0.483906,-0.572637,0.152471,-0.805506
-0.191311,0.656386,-0.357838,0.786601,-0.292068,-0.544018
-0.018504,0.554550,-0.306917,0.680948,0.685371,-0.258025
0.129634,0.510488,-0.809048,-0.385161,0.607198,0.694954
0.226711,-0.321235,0.091121,-0.549113,0.835602,0.015626
0.367015,0.039629,0.788679,0.780906,-0.397936,0.481490
0.627461,0.236340,0.179884,-0.323651,0.904966,-0.276202
-0.371522,0.923376,-0.668239,0.989599,0.116711,0.084093
-0.127486,-0.329598,0.744968,-0.402199,0.905500,-0.135296
-0.247413,-0.333432,0.133814,0.623820,-0.755598,0.199798
0.322177,-0.315179,0.274408,0.636179,0.043828,0.770296
0.268435,0.044767,0.722938,-0.008418,-0.700688,0.713418
-0.303835,-0.837467,0.195321,0.305871,0.611449,0.729776
0.195923,-0.081968,0.761316,0.417030,-0.276803,-0.865717
0.202038,-0.611512,-0.213893,0.931837,0.203724,0.300293
-0.058192,-0.043654,0.517996,0.093880,-0.995258,0.025468
0.173719,-0.732505,-0.116581,0.935868,0.336553,0.104320
0.208474,-0.353094,-0.964168,-0.207811,0.207274,-0.955956
0.058513,-0.175736,0.165251,0.374027,0.281518,0.883658
-0.012605,0.500506,-0.094176,0.995432,-0.090637,0.029998
0.056261,-0.117156,-0.028167,0.035378,0.939932,0.339523
0.381173,0.130775,-0.355479,0.904775,0.178584,-0.386640
-0.467846,0.155477,0.146169,-0.139360,-0.949946,0.279609
0.280128,-0.116553,0.685766,-0.424168,0.317693,-0.848029
0.031591,-0.252365,0.095758,0.948600,0.316427,-0.005750
0.219738,0.221318,0.129901,-0.673810,0.623160,-0.397054
0.330436,-0.313265,-0.974754,-0.021351,-0.003608,-0.999766
-0.405741,0.106879,0.125720,0.852821,0.084308,0.515353
0.391900,-0.745712,0.404819,-0.766332,0.521255,-0.375537
-0.005845,0.456647,-0.089191,0.999408,0.011148,-0.032553
-0.144545,-0.279991,0.429823,0.019724,0.516895,0.855822
0.081575,0.329204,-0.186155,-0.640463,0.307067,-0.703930
0.765513,-0.657993,0.104253,-0.217924,0.912420,-0.346408
-0.099704,-0.201447,0.237129,0.988837,-0.105916,0.104798
0.296005,-0.325567,0.381181,-0.198682,0.445586,0.872914
0.120730,0.488709,0.017125,0.451772,0.084081,-0.888162
-0.330115,0.286957,-0.226114,0.943799,0.329532,-0.025518
0.643979,0.900989,-0.452470,-0.132637,0.487761,-0.862842
0.041350,-0.827787,-0.020958,0.529118,0.840029,-0.119938
-0.059695,0.424683,0.155629,-0.133299,-0.534964,0.834293
-0.184875,-0.046884,0.606223,-0.296398,-0.765204,0.571498
0.196139,-0.023794,-0.544100,0.952398,-0.254579,-0.167712
-0.561384,0.656786,-0.138182,-0.543326,0.687451,-0.481880
0.273264,0.130270,0.555222,0.710248,0.586067,0.389965
0.287209,-0.803282,-0.144454,-0.550191,-0.818602,-0.164867
0.600107,0.381937,-0.098464,-0.718134,0.512332,0.470956
-0.059911,-0.891308,0.305711,0.993591,0.109106,-0.029542
0.197426,-0.012902,0.371533,-0.863615,0.374574,0.337438
0.370986,0.284938,0.305738,0.982321,0.111496,0.150380
-0.153662,0.241885,0.452898,0.434626,-0.722302,0.537940
0.120301,-0.220303,-0.905797,0.506037,0.859832,0.067938
-0.259106,-0.613727,-0.701471,-0.239054,0.711241,0.661052
0.077071,-0.306711,0.631013,-0.499348,0.626685,-0.598262
0.272190,-0.434357,0.427411,0.841554,0.538733,0.039414
0.224563,0.119883,-0.566585,0.789500,-0.613600,0.013622
-0.286352,0.124221,0.173130,-0.488016,-0.472304,0.734009
0.184875,-0.251861,0.582880,-0.572501,-0.808680,0.135199
-0.261571,0.271430,0.227856,-0.383279,0.921873,-0.056986
0.221990,-0.603247,0.054941,0.779267,0.610193,-0.142854
-0.259963,-0.522482,-0.991478,-0.261831,-0.062249,0.963104
-0.341164,0.005548,0.315198,-0.454049,-0.683347,0.571731
0.487262,0.196112,0.342374,0.521567,0.633142,-0.571926
0.000483,0.188850,0.737598,0.194630,0.373063,0.907162
-0.211050,-0.313167,0.240265,-0.120400,0.934935,-0.333766
-0.568894,0.134806,0.106183,0.963837,0.244391,0.106265
0.028157,-0.689150,0.556642,0.110529,0.988261,0.105465
-0.120730,0.289880,0.243079,-0.431649,-0.728696,0.531679
-0.042852,0.332225,-0.021011,-0.585062,-0.453025,0.672659
-0.253420,0.453317,0.168360,-0.458690,-0.619300,0.637237
0.057871,0.341303,0.000295,0.003002,-0.793894,0.608049
-0.029015,-0.570576,0.506419,0.826148,0.454761,-0.332674
-0.222956,0.189256,0.506043,-0.171083,0.973643,0.150832
0.212120,-0.071888,0.621070,0.057370,-0.998345,-0.003957
-0.061305,-0.000600,0.681827,-0.160979,-0.727253,0.667225
-0.390077,0.950497,-0.637981,0.990849,0.131176,0.031806
0.247733,0.198124,0.275990,0.026969,-0.825760,0.563376
0.062697,-0.035185,0.689679,0.827641,0.380035,-0.413018
-0.309414,0.640250,-0.540348,0.737498,0.672650,0.060325
-0.253956,-0.294108,-0.120762,0.434299,0.122485,0.892403
-0.483723,-0.571683,0.187227,0.910161,0.010023,0.414134
0.269188,-0.384553,0.394581,-0.626883,0.359340,0.691297
-0.182731,0.212851,-0.230241,0.756859,0.120620,-0.642352
0.231857,-0.710523,-0.163750,0.915561,0.400863,0.032518
0.677661,-0.138332,-0.334468,0.956825,0.175438,0.231748
0.381817,-0.156277,-0.973896,-0.143215,0.175528,0.974002
0.561705,-0.166868,0.731032,-0.192644,0.966240,0.171078
0.280986,-0.247731,0.628360,0.999091,-0.025001,-0.034517
0.164602,-0.376885,-0.289202,0.947903,-0.090079,-0.305557
0.803915,-0.164948,0.200761,0.620520,-0.533395,-0.574843
0.427405,-0.046380,-0.769732,-0.342480,0.799243,0.493881
-0.311453,0.007966,0.047865,-0.727547,-0.583610,-0.360658
0.319067,-0.170801,0.831372,-0.122996,0.079651,0.989206
0.443818,-0.052127,-0.048535,0.814328,0.395940,0.424384
-0.393619,-0.291991,-0.062847,-0.572357,0.570784,-0.588738
0.091766,-0.248433,-0.935813,-0.723880,0.688615,0.042503
0.225100,0.149428,0.495136,0.754076,0.073637,0.652647
0.323143,0.103150,-0.383620,0.937536,-0.195444,-0.287799
0.235399,-0.341900,-0.471578,0.891918,0.450173,0.042731
-0.034056,-0.428111,0.306140,0.193101,-0.196347,0.961332
-0.422259,0.338380,-0.243052,-0.326794,-0.475178,0.816952
0.580692,0.333235,-0.514807,-0.524577,0.840109,-0.137972
0.388682,-0.399273,0.651381,0.272891,0.922278,0.273740
0.257924,-0.300459,-0.380511,0.849095,0.415633,0.326016
-0.183909,-0.295419,0.742824,-0.554340,0.796711,0.240747
-0.069348,-0.022182,-0.259722,0.642806,0.686098,-0.340691
0.262965,-0.105765,-0.980650,0.080258,0.157225,0.984296
0.161813,-0.716978,0.497816,-0.054424,0.996486,-0.063661
-0.147226,0.218592,0.108729,-0.103455,-0.743201,0.661021
0.005737,-0.823245,0.395626,0.984940,-0.148350,0.088795
0.172432,-0.181989,0.067778,-0.698770,-0.686781,-0.200130
-0.147439,-0.353998,0.586766,0.241081,0.900940,0.360815
-0.184554,0.120190,0.357355,-0.469195,0.778311,-0.417238
0.237006,0.264876,-0.530914,0.801606,-0.431004,0.414324
0.084793,-0.290582,0.651194,-0.493016,-0.516416,0.700178
0.015607,-0.369328,0.650899,-0.173334,0.205075,0.963275
0.558595,-0.321130,0.042961,0.022969,-0.057678,0.998071
0.854867,0.573301,-0.396484,0.505492,0.507285,0.697954
-0.094234,0.328293,-0.540348,0.617624,0.101575,-0.779887
0.320137,0.652349,-0.428591,0.886904,-0.420222,-0.191873
0.313273,-0.845831,0.290837,0.783935,0.517726,0.342646
-0.339020,0.764167,-0.557500,0.925123,0.003189,-0.379654
-0.218772,-0.078743,0.293812,0.296114,-0.561288,0.772834
0.288279,0.090343,0.404363,0.168111,-0.833145,0.526885
-0.013891,-0.067248,-0.993246,-0.168242,0.600779,0.781511
0.245694,-0.323549,0.534103,0.734122,0.130224,0.666413
-0.180586,0.078343,-0.574867,0.522309,0.282089,-0.804748
0.713919,0.233313,-0.466245,-0.182134,0.907849,0.377673
-0.474282,-0.566643,-0.088789,-0.597086,-0.230137,-0.768456
0.553767,-0.069168,0.072414,-0.761893,-0.647672,-0.006306
0.592277,-0.595179,0.335058,-0.588399,-0.057924,0.806494
0.197854,-0.352085,0.737223,0.607289,0.250861,-0.753836
-0.167928,0.569369,-0.371131,-0.356527,0.118134,0.926786
0.664468,0.881936,-0.447806,-0.144825,0.512146,-0.846600
0.018933,0.557270,0.026774,-0.771027,0.634258,-0.056866
0.143255,-0.281203,0.924772,0.549589,0.784653,0.286829
0.034485,-0.076122,-0.527752,0.133256,-0.634518,0.761334
-0.073424,-0.085500,0.217806,0.769230,-0.010168,-0.638891
0.223598,-0.721108,0.431378,0.911186,0.384999,0.146685
0.559132,-0.119378,0.604079,-0.291700,0.692611,0.659698
0.188413,0.568667,-0.786830,0.758987,-0.386804,-0.523757
0.697292,0.897967,-0.448584,0.016702,-0.523135,0.852086
0.400588,-0.342509,0.566961,0.492171,-0.840531,-0.226439
0.342987,0.030853,0.786402,-0.413986,0.694739,-0.588178
0.083078,0.683205,0.075309,0.813440,-0.303574,-0.496143
-0.007456,0.287560,-0.158551,0.967733,-0.227226,0.108905
0.610298,-0.080054,0.040308,0.541540,-0.840281,-0.025720
0.179834,-0.279794,0.917509,0.167661,0.459979,0.871957
0.225316,-0.262957,0.516067,-0.410548,0.849848,0.330466
-0.046286,0.007062,-0.382655,0.280730,-0.103129,0.954230
-0.479539,0.606274,-0.012141,0.746668,0.352751,-0.563963
0.351354,0.126135,0.299520,0.620505,-0.705212,0.343000
-0.356291,0.160517,0.039423,0.344268,0.711680,-0.612365
-0.488656,0.377900,-0.874655,-0.329915,0.476728,0.814792
0.445642,-0.457348,0.374079,0.889792,0.289864,0.352490
0.592706,0.208611,-0.075068,-0.739514,-0.126215,0.661203
-0.274658,0.478124,0.163133,0.436106,0.733991,-0.520643
-0.083402,-0.293406,0.733766,-0.205931,0.976003,-0.070784
-0.035775,-0.527824,-0.972798,-0.303911,-0.151684,0.940548
0.206971,-0.722622,-0.204540,-0.732995,0.346584,0.585318
-0.277663,-0.335346,-0.099697,-0.682052,0.230799,-0.693929
0.160847,-0.294311,0.407901,0.999019,0.042115,0.013710
0.033198,-0.221516,0.879399,0.772642,0.633810,0.036178
-0.273156,-0.619278,-0.369174,0.089503,0.608654,0.788371
0.563208,-0.115747,-0.966473,0.305156,-0.147874,-0.940751
0.493161,0.408756,-0.753973,0.759005,-0.630685,-0.161707
-0.331189,-0.465416,-0.129043,0.487165,-0.596535,0.637821
-0.331831,0.134806,-0.094069,0.774528,0.624589,-0.099979
0.109357,-0.172715,0.421971,0.709250,0.692726,0.130745
0.179297,-0.055352,-0.302415,-0.678096,0.583543,-0.446837
-0.093163,0.566649,0.033259,0.419148,0.358304,-0.834226
0.424083,-0.544261,0.335272,0.823921,-0.152199,0.545884
-0.052614,-0.734924,0.298368,0.988924,0.036251,0.143930
0.345455,0.393427,-0.023477,-0.547623,0.542641,0.636907
0.207724,-0.305905,0.433870,-0.760959,0.449874,0.467498
0.298686,0.462093,-0.252218,0.059663,0.838280,0.541966
-0.450683,-0.387174,-0.315627,-0.495042,0.645014,-0.582143
0.471064,-0.310644,0.371720,0.682199,-0.731080,-0.011216
0.802841,0.302988,-0.498057,0.008371,0.916303,0.400399
-0.306304,-0.327179,0.044033,-0.473325,0.205451,-0.856594
-0.148833,0.474395,0.180286,-0.639279,-0.503830,0.580929
-0.023974,-0.632484,0.530780,0.925133,-0.072735,0.372611
0.073211,-0.273843,0.847212,-0.218622,0.429387,0.876260
0.297613,-0.419741,0.667354,-0.272656,-0.907034,-0.320857
-0.032986,-0.154770,0.004663,0.012465,0.464793,0.885332
-0.031267,-0.783626,0.336183,0.983960,-0.114507,-0.136788
0.296218,-0.465213,0.476295,0.839882,0.046328,-0.540789
-0.233255,-0.388990,-0.992844,-0.234598,0.248452,0.939806
-0.173185,-0.165453,0.582049,-0.729082,-0.500797,0.466521
0.028907,0.038115,0.354917,-0.430396,0.590484,0.682707
-0.387504,-0.554144,-0.986600,-0.144721,0.167822,0.975137
0.356503,-0.438591,0.515531,-0.445155,0.180542,0.877064
-0.355430,-0.478118,0.408249,0.748287,-0.453978,0.483705
0.636686,0.612527,-0.387586,-0.180712,0.795074,0.578965
0.637864,-0.124320,0.015866,-0.536311,0.762777,-0.361306
0.326789,0.015529,0.329885,0.891206,0.361952,0.273390
0.545508,-0.308933,0.425562,0.865819,-0.312632,0.390665
0.559024,-0.661624,-0.297564,0.548437,0.822759,-0.149281
0.209548,0.126843,0.450272,0.172767,-0.546448,0.819479
-0.153662,0.022791,0.320773,-0.624337,0.172661,-0.761834
-0.408959,0.367014,0.110283,-0.614619,0.769460,-0.173708
0.245589,-0.575720,0.729076,0.772050,0.017412,-0.635323
-0.243337,0.532673,0.171817,0.528188,0.749789,-0.398539
-1.000000,-0.471361,-0.354032,-0.470792,-0.848759,0.240755
0.530168,-0.170598,-0.963927,0.338519,-0.075837,-0.937898
0.044139,0.384756,-0.763970,0.683099,-0.240820,-0.689479
-0.090911,0.186229,-0.377107,0.948478,0.273735,0.159556
0.038885,-0.380818,-0.942889,0.579383,0.661023,-0.476827
0.106035,0.693587,0.124997,0.925956,-0.281096,-0.252170
0.277555,-0.217380,0.014419,0.685074,0.706173,-0.178866
0.250843,-0.077636,0.509849,0.998389,0.056096,-0.008549
0.028049,0.351789,-0.232412,-0.610771,0.465347,-0.640633
0.247626,0.400787,0.208506,0.414667,-0.405125,0.814816
-0.047681,0.065438,0.363386,0.074442,0.446004,0.891930
0.521264,0.242894,0.124434,0.766874,0.520694,-0.375209
0.107430,-0.402701,0.648702,0.506157,-0.152716,-0.848812
0.046715,-0.196407,0.729049,-0.000368,-0.655391,0.755289
0.490159,-0.324158,0.087235,-0.507580,-0.840211,-0.190809
-0.056585,-0.031758,0.282181,-0.675109,0.211287,-0.706814
-0.047036,-0.332219,0.561949,0.378107,0.479841,0.791699
-0.139396,-0.125526,0.429395,0.720798,0.124711,-0.681834
0.113437,-0.169385,0.693672,0.938148,0.016088,0.345860
0.332688,0.668688,-0.479860,0.915107,0.100254,-0.390548
0.377205,-0.255898,0.280760,-0.078731,-0.900726,0.427194
0.426655,-0.700037,-0.431726,0.669815,0.687794,-0.279798
0.470743,-0.103852,-0.967277,-0.330451,0.212061,0.919691
0.261463,0.069875,0.563557,-0.332780,-0.859847,-0.387196
-0.081041,0.167274,-0.616702,0.913087,0.370106,-0.171152
0.585304,0.520469,0.025299,0.217228,-0.006023,-0.976102
0.101743,-0.153459,-0.005682,-0.163809,-0.976574,0.139537
0.200323,-0.150837,0.065929,0.797815,0.545627,0.256480
0.307374,-0.235731,-0.559832,-0.109469,0.981569,-0.156646
0.149262,-0.193687,0.756278,-0.689816,0.107131,-0.716015
-0.339556,0.042348,0.158363,0.039381,-0.934775,0.353051
0.574148,0.503331,-0.723394,0.483452,-0.783351,-0.390687
-0.251276,-0.008668,0.347627,0.318461,-0.879843,0.352788
-0.536175,0.701150,-0.459947,-0.750310,0.498187,-0.434563
0.236901,-0.776567,0.417897,-0.407516,-0.894252,0.185052
0.557414,-0.386972,0.142685,0.780498,0.525910,-0.337997
0.125984,-0.145791,-0.984590,-0.009745,0.124223,0.992206
0.463126,0.465016,0.253397,0.970436,0.239522,0.029724
-0.050791,0.303696,0.385040,0.792541,0.032781,-0.608937
0.429981,-0.273541,0.339212,-0.624913,0.693472,0.358582
0.742988,-0.050817,-0.226570,-0.870307,0.090320,0.484157
0.380210,-0.762752,0.416182,0.559219,-0.608698,0.562815
0.568249,-0.024699,0.369469,0.792861,0.546310,-0.270031
0.220596,0.147514,0.095543,0.883824,-0.027644,0.467003
-0.053580,-0.165453,0.070163,0.343696,0.937680,0.051280
-0.137248,0.555258,-0.539437,0.873330,0.232067,-0.428299
0.210726,-0.133895,0.755501,0.219584,-0.647021,0.730169
-0.335801,0.602244,-0.369844,-0.013624,-0.017514,0.999754
0.793616,-0.573099,0.072120,0.958892,0.237844,0.154780
-0.710272,-0.127846,-0.281832,-0.441753,-0.822379,0.358535
0.276265,-0.338072,0.391499,-0.301457,0.514047,0.803044
-0.094021,0.871751,-0.505695,0.642395,-0.162053,0.749045
0.027620,-0.533172,-0.717552,0.523863,-0.771827,-0.360348
-0.351354,-0.437687,0.400236,0.803172,-0.594920,0.031376
0.006811,-0.551824,0.484550,0.946709,0.319862,0.037828
0.330224,-0.174530,-0.976898,-0.139067,0.204469,0.968944
0.307482,0.674128,-0.494064,0.876559,0.087559,-0.473262
-0.024940,-0.254482,0.027256,0.122728,-0.976326,-0.178116
0.192921,-0.548396,0.185914,0.750988,0.654093,-0.090440
0.043605,-0.317499,0.437917,0.281665,-0.947508,0.151306
0.159774,-0.319419,0.724413,0.843065,0.006844,0.537769
-0.153125,0.294619,0.345831,0.319218,0.926299,0.200176
-0.186269,-0.305604,0.266368,0.568053,-0.820557,0.063258
0.112042,-0.391507,0.499209,0.849733,-0.108359,-0.515958
0.238188,0.074011,0.485113,0.882522,-0.465014,-0.070125
0.120838,-0.638835,0.480556,-0.170738,0.089682,-0.981227
-0.345671,0.363383,0.257524,-0.004564,-0.978138,0.207906
-0.489514,0.138541,-0.481870,0.060858,0.512814,0.856340
-0.062376,0.285345,0.213116,0.960489,0.224714,0.164210
-0.574256,0.093266,0.231983,0.012388,0.999429,0.031443
-0.483723,-0.013105,0.007236,0.310651,-0.439607,0.842758
0.370554,-0.409052,0.564066,-0.021817,-0.432548,0.901347
0.417110,-0.294108,0.700775,-0.486933,0.868652,0.091318
-0.316386,0.051826,0.091577,0.576736,0.548275,0.605616
-0.192385,0.466832,-0.353014,0.381311,0.147019,-0.912681
0.296542,0.145902,-0.021306,-0.771716,0.515489,-0.372459
0.233468,-0.379408,0.727575,0.787862,0.255623,-0.560295
-0.422259,0.158400,0.261812,0.321386,0.901226,0.290695
0.120838,-0.502919,0.370461,-0.379071,0.870593,0.313645
0.045641,0.286151,0.177847,0.044277,-0.975625,0.214932
0.230033,-0.384147,0.373382,-0.097407,0.670375,0.735601
-0.427408,-0.746419,0.199528,-0.297544,-0.704662,-0.644142
-0.281202,0.390608,-0.025648,0.182233,-0.873426,0.451573
-0.004558,0.059487,0.755152,-0.393190,0.179538,0.901758
0.200857,-0.746924,-0.175622,-0.337643,0.892201,0.299958
-0.202791,-0.189552,0.587570,0.965476,0.036886,0.257868
0.520835,-0.448979,-0.067456,0.789023,0.581848,-0.197217
-0.474282,-0.821030,-0.318200,0.004012,0.803491,0.595304
0.292142,-0.220906,-0.134296,0.583004,0.812420,-0.008970
-0.479324,-0.747625,0.203548,-0.384743,-0.603476,-0.698419
0.359613,-0.463299,0.399887,-0.560666,-0.798065,-0.220784
-0.063233,-0.342811,0.285423,-0.014406,0.900638,0.434331
-0.346850,0.095285,0.383244,0.885357,-0.423567,0.191659
0.156664,-0.617660,0.642323,0.762487,0.565457,0.314440
0.656422,0.544163,0.020315,-0.475657,0.053241,0.878018
0.173827,0.396048,-0.483344,0.910349,-0.388140,-0.143571
0.339985,-0.812359,0.250261,0.853666,-0.160234,-0.495560
-0.129847,0.164554,-0.378045,0.948478,0.273735,0.159556
0.409279,0.779497,-0.453166,-0.545090,0.537100,0.643740
0.566534,-0.543153,0.313698,-0.582919,0.751490,0.308979
0.132207,-0.318108,0.462198,0.727612,0.643224,-0.238419
0.077928,-0.221011,-0.071101,0.693869,0.576257,-0.431826
0.139071,-0.128554,0.758985,-0.223935,0.271957,-0.935891
0.200427,-0.079648,-0.339667,0.719691,-0.686838,0.101484
-0.076537,0.067352,0.238228,0.912817,0.010701,-0.408228
-0.212658,0.057875,-0.649318,0.727673,0.493417,-0.476478
0.252775,-0.142363,0.198590,0.686384,-0.727214,0.006040
0.271116,0.027124,-0.353416,0.893350,-0.414591,-0.173321
-0.501315,0.655679,-0.178946,0.869685,0.369235,0.327588
0.038348,-0.260833,-0.910353,0.936996,0.184040,-0.296930
0.165030,-0.248033,0.767132,-0.697569,0.590275,-0.406168
0.140358,-0.273240,0.395546,0.804758,0.581093,-0.121224
0.285814,-0.380621,0.168172,-0.165486,-0.970574,-0.174929
-0.307698,0.181995,-0.464583,-0.636382,-0.458962,0.619977
0.001449,0.184013,0.207917,0.805451,-0.121948,0.579981
0.123624,-0.559689,0.402380,-0.080958,0.067206,0.994449
-0.124485,-0.712437,-0.325302,0.877086,-0.457354,-0.146789
-0.458621,0.351383,0.164795,0.838690,-0.378531,-0.391553
0.260068,-0.339075,0.083510,-0.128008,0.657994,0.742063
0.330436,-0.675938,-0.364699,0.801208,0.598325,0.008533
-0.382891,0.018656,0.377053,0.711143,-0.640488,0.289914
0.430302,0.386978,-0.573178,0.876726,-0.478404,0.049806
0.122553,-0.447465,0.664380,-0.807810,-0.010358,-0.589351
0.139179,-0.405120,0.655482,0.955236,0.276593,0.104978
0.594313,0.941722,-0.442634,-0.030131,-0.321598,0.946397
0.797479,0.351383,-0.053922,-0.426422,0.441992,0.789182
0.431055,-0.196007,-0.975451,-0.200108,0.062451,0.977781
-0.342450,0.236039,-0.733257,0.752689,0.564236,0.339259
0.146260,0.288268,0.506928,0.628392,0.452843,-0.632501
0.016681,-0.198826,-0.771179,0.539263,0.842127,-0.004249
0.079647,0.494961,-0.174577,-0.317257,0.081076,0.944868
0.294074,-0.352491,-0.967411,-0.213609,0.159148,-0.963869
-0.364226,0.102140,0.399298,0.887099,-0.366082,-0.281139
-0.008634,0.328293,-0.776110,-0.684210,0.355885,0.636555
0.133385,0.075217,0.560073,-0.555477,0.782578,0.281099
-0.270583,0.019665,0.158309,0.983638,0.151827,-0.096978
-0.225853,-0.247024,0.402675,0.590819,-0.796747,0.126992
-0.481579,0.718394,-0.474473,-0.665454,0.537999,-0.517424
-0.346529,-0.427705,0.397020,0.905351,-0.399747,0.143323
0.148617,-0.149219,0.371854,-0.790867,0.072324,-0.607700
-0.133922,-0.073199,0.276713,0.173115,-0.302840,0.937187
0.469778,-0.343315,0.395653,0.335372,0.616794,-0.712103
0.712524,-0.273640,0.336585,0.670168,0.479776,-0.566295
0.263502,-0.329906,0.092488,0.074298,0.518745,0.851694
0.450575,-0.739459,0.373972,-0.128024,0.980285,-0.150503
0.095736,-0.057771,0.737813,0.341789,-0.936046,-0.083649
0.382247,-0.057469,0.631254,0.746378,-0.587033,0.313548
0.271012,-0.001210,0.532442,0.838397,-0.191511,-0.510307
-0.398231,0.044065,-0.327419,0.582611,-0.810390,-0.061908
-0.877180,-0.444240,-0.319594,0.237974,0.968226,0.076857
0.375919,0.187841,0.293330,0.743297,-0.571870,0.347093
0.289461,-0.361968,0.841503,-0.033707,0.558913,0.828541
0.677448,-0.051623,-0.117948,0.520964,0.844760,-0.122377
-0.388898,0.311253,-0.089513,0.792162,0.593883,-0.140648
0.132636,-0.282009,0.893442,0.094793,-0.973244,0.209309
-0.332796,0.014120,-0.044087,0.934965,-0.310647,-0.171284
-0.322393,-0.324558,0.639161,-0.589279,0.694800,0.412315
-0.181015,-0.690763,-0.215662,0.808832,-0.578391,-0.106085
0.066451,-0.434560,0.263367,0.844316,-0.358055,-0.398657
0.197318,-0.843818,-0.129097,-0.230700,-0.944995,0.231866
0.514828,-0.022484,-0.721759,0.249476,0.953386,-0.169753
0.141648,0.469151,-0.161365,-0.430259,0.112598,-0.895656
-0.664685,0.132590,-0.411197,-0.668104,0.654203,-0.354480
-0.217162,-0.568255,0.005440,-0.168873,-0.238979,0.956227
-0.530921,-0.226051,-0.169298,0.248796,-0.968114,0.029262
-0.040816,-0.249848,0.752955,-0.730187,0.668295,0.142160
-0.024619,-0.267591,0.062606,0.976306,0.203477,0.073647
0.315849,-0.052023,0.725511,0.866742,-0.275386,-0.415838
-0.064523,-0.130369,-0.519122,0.110111,0.017960,0.993757
0.018716,0.535898,-0.043443,0.897279,-0.390074,0.206721
-0.013571,-0.643777,0.325490,0.973552,-0.117524,-0.195918
0.606327,-0.119477,0.233672,0.023998,0.839866,-0.542263
-0.276590,-0.344928,0.592206,-0.264157,-0.922643,-0.280983
-0.288924,-0.255289,0.458607,0.410467,0.254491,0.875643
0.252991,-0.364386,0.641251,0.942191,0.242337,-0.231408
0.683455,-0.199835,-0.121191,-0.759996,-0.437529,0.480598
0.168249,-0.263455,-0.060944,0.359262,0.844590,-0.396987
0.645482,-0.087617,-0.003806,0.203259,-0.815449,0.541967
0.203216,-0.186124,0.459518,-0.736744,0.656547,0.161723
0.419575,-0.513307,0.156567,-0.311095,0.223513,-0.923722
0.190561,-0.116049,-0.644628,0.387037,0.882987,0.265587
0.473208,-0.409655,0.310857,-0.460162,0.434782,-0.774090
0.412926,-0.472370,0.026613,-0.291154,-0.004186,0.956667
0.632073,-0.112719,0.018787,-0.321780,0.850698,-0.415656
0.698687,-0.515522,0.374240,0.347896,0.522670,0.778322
0.144542,-0.585093,0.698148,0.953194,0.138589,0.268726
-0.070851,0.257916,0.389462,-0.227367,0.752413,0.618206
0.212978,-0.338269,0.278482,-0.236644,0.406424,0.882507
-0.050149,-0.285234,0.258087,0.196787,0.980086,0.026567
0.146581,-0.228771,0.617077,0.934785,-0.000747,0.355214
