0.549880,0.028900,0.557896,-0.444637,0.297702,-0.844791
-0.323040,-0.023900,0.241060,0.468264,0.409751,-0.782837
0.110204,-0.247093,-0.065388,-0.709758,0.684427,0.166741
0.302261,0.658369,0.529287,-0.403510,-0.775850,-0.485012
0.136493,-0.207707,-0.158731,0.769966,0.540819,0.338626
0.214096,0.332861,0.788697,0.465519,0.428487,-0.774397
-0.405694,0.097682,0.668598,0.502314,0.802162,-0.322826
0.233039,-0.456437,0.411851,0.748566,0.466250,0.471445
0.008037,-0.162754,0.751005,0.486353,-0.133037,-0.863575
0.348179,0.490981,0.522292,0.780261,-0.390589,0.488500
0.516360,0.281628,0.585017,-0.684860,0.659506,-0.309870
0.101250,-0.629112,0.373297,-0.229557,-0.103064,0.967823
-0.528528,-0.001210,0.517332,0.921098,-0.246665,-0.301221
-0.634714,-0.128933,0.197651,-0.338634,-0.321695,-0.884217
0.183333,-0.495249,0.482772,0.915847,0.066786,-0.395935
-0.084262,-0.254079,0.529496,-0.701946,-0.630631,-0.331023
0.272300,-0.131068,0.576481,-0.281613,0.782851,-0.554831
-0.143266,-0.322008,-0.204960,-0.409247,0.911679,-0.036864
0.140628,0.630828,0.681806,-0.524771,0.660618,-0.536842
-0.306738,-0.497531,0.240642,0.367552,0.763681,0.530751
0.549880,0.094834,0.579692,-0.188512,0.591047,0.784300
0.190333,-0.293186,-0.491856,0.979215,-0.184537,0.084169
-0.063712,0.215842,0.848630,-0.331573,0.133651,-0.933915
-0.315462,0.875849,0.333072,-0.625970,-0.013304,-0.779734
0.025830,-0.291758,0.408013,0.736323,-0.143240,0.661294
-0.026633,-0.636812,0.583477,0.311618,0.426070,-0.849328
0.220871,-0.769386,0.415714,-0.757550,0.643528,-0.109502
-0.681322,-0.248234,0.504072,0.813285,-0.547004,0.198379
0.192172,0.367395,0.600131,-0.802731,0.591804,-0.073418
0.716681,0.642674,0.331324,0.359405,0.336692,0.870326
-0.026058,0.245526,0.815114,0.449479,0.886022,-0.113726
0.184135,-0.543058,0.479744,-0.167843,-0.160188,0.972712
-0.591206,-0.246805,0.488097,-0.536937,0.494199,-0.683714
0.169901,0.634251,0.366745,-0.497892,0.589545,-0.636035
0.170360,-0.424898,0.672357,-0.090809,0.993375,0.070433
-0.509585,0.912526,0.402245,0.046567,-0.944599,0.324906
-0.071289,-0.427328,0.762960,-0.814787,-0.337901,-0.471110
0.232923,-0.002778,0.569773,0.873858,0.134435,-0.467224
-0.107104,-0.581303,0.640251,0.941734,0.074171,-0.328079
0.166917,-0.174591,-0.173401,0.798341,0.602012,0.015250
0.447481,0.151484,0.578570,0.509940,0.856455,0.080290
0.058316,-0.156753,-0.462490,0.982959,0.031118,0.181173
-0.133050,-0.466140,0.258705,-0.399713,0.621581,0.673696
0.580647,-0.020189,0.579379,0.870890,-0.354431,0.340483
-0.003559,0.543067,0.819185,-0.237304,0.962172,-0.133838
-0.038572,0.393795,0.728635,0.740671,0.167361,-0.650690
0.848582,0.541638,0.402088,0.891898,-0.434466,-0.125530
0.277005,0.198291,0.475150,0.788845,0.016659,-0.614366
0.141661,-0.138488,-0.100313,0.667791,-0.739951,-0.080795
0.043392,-0.038742,0.884834,0.580521,0.740335,-0.338967
0.211458,-0.242093,-0.800470,0.876754,-0.479728,0.034114
0.097694,-0.036312,0.801357,0.826387,-0.417763,0.377570
-0.030651,-0.199711,0.585252,0.378013,0.738547,-0.558260
0.113879,0.031757,0.959306,0.590993,0.740355,-0.320313
0.147515,-0.000923,0.955286,0.382525,0.893685,0.234525
0.019517,0.121661,0.461890,0.957850,-0.263188,0.115130
0.706921,-0.067850,0.577160,0.971548,-0.227508,0.065840
-0.667316,-0.255934,0.517228,-0.627876,0.278438,-0.726804
0.060615,0.400641,0.668912,-0.260099,-0.764257,0.590136
-0.458388,0.198430,0.595145,-0.137207,-0.891966,0.430779
0.311216,0.449304,0.529287,-0.146722,-0.373049,0.916137
-0.111697,0.075280,0.745523,-0.044368,-0.904807,0.423505
0.104582,0.052016,0.951501,-0.223412,-0.940089,-0.257526
-0.326599,0.098257,0.642104,-0.029069,-0.992681,0.117213
0.380438,0.171891,0.901775,0.578653,-0.574741,-0.578648
-0.372633,0.264792,0.316001,-0.223702,-0.762474,0.607117
-0.220297,0.164331,0.422057,-0.575587,0.794175,0.194901
-0.052004,0.285487,0.673271,0.858268,0.489541,0.154032
-0.488807,0.203282,0.619081,0.461009,0.584413,0.667781
-0.307082,-0.176882,0.458862,-0.171820,-0.890413,-0.421477
0.181953,-0.152903,0.870321,-0.285113,0.687679,0.667689
-0.405462,0.064576,0.599635,0.199816,0.805334,-0.558131
0.453794,-0.200138,0.819499,-0.524815,0.834799,0.166371
-0.362761,-0.046877,0.520178,0.547462,0.123399,0.827682
-0.652623,-0.329141,0.242234,0.546625,0.268095,-0.793301
-0.150269,0.839031,0.382616,0.646294,0.396218,-0.652162
-0.001720,0.302889,0.822657,-0.073039,0.033809,0.996756
0.273677,0.058008,0.647507,0.643055,0.365501,-0.672971
0.158190,-0.213551,0.851945,0.091943,0.707435,-0.700773
0.120308,0.052730,0.800313,-0.360549,-0.834342,0.416986
0.194810,-0.127078,0.872592,0.674142,0.738588,0.004500
-0.120652,0.721874,0.443305,0.188842,0.319999,0.928407
-0.198485,0.225832,0.791073,-0.430441,0.701382,-0.568141
0.758582,-0.093110,0.504881,0.627175,-0.426508,-0.651723
0.621398,-0.073704,0.262125,0.742133,-0.295551,-0.601571
0.364712,0.449739,0.782459,-0.593675,-0.804685,-0.005703
0.675811,0.007778,0.271626,0.742133,-0.295551,-0.601571
-0.081278,-0.484405,0.688515,0.552816,-0.793122,0.255640
-0.163242,0.022481,0.446150,-0.257631,0.955700,0.142353
-0.003559,0.200286,0.767632,0.737728,-0.663441,-0.124915
0.149697,0.332007,0.559410,0.402702,0.386582,-0.829690
0.509585,0.210276,0.541269,0.916280,0.201383,-0.346231
0.240960,-0.165751,0.704699,-0.019633,-0.910551,-0.412930
-0.198370,-0.146484,0.651866,-0.490737,-0.770336,0.407136
-0.076226,-0.829320,0.593814,-0.786184,0.303848,-0.538137
-0.128457,0.692329,0.585696,-0.607496,0.205965,-0.767155
-0.123637,-0.317017,0.328948,-0.624660,-0.019344,-0.780657
-0.182068,-0.127357,0.393422,-0.483949,-0.788175,-0.380229
0.221215,-0.396356,0.378726,-0.008614,-0.580714,0.814062
0.288370,-0.077414,0.748917,0.282232,0.954601,0.095303
0.521756,0.007639,0.578517,-0.671246,-0.656376,0.344383
0.307085,0.068713,0.796868,0.887244,-0.449413,-0.104051
-0.054757,-0.081412,0.681728,0.025291,-0.641639,0.766590
0.092986,-0.062146,-0.145602,0.591385,-0.794414,0.138455
-0.054414,-0.367534,0.754816,-0.145083,0.839097,0.524277
0.167950,0.174461,-0.982563,0.290661,-0.172059,-0.941229
1.000000,0.117376,0.559097,0.809697,-0.533776,-0.243870
-0.324073,-0.024475,0.451918,0.295754,0.638774,-0.710280
0.223625,0.159044,0.714435,-0.139292,-0.878037,-0.457875
-0.234874,-0.125223,0.670243,0.481147,0.875997,-0.033561
0.008495,-0.830888,0.607361,-0.504536,0.862311,-0.043174
0.125013,-0.008919,0.987862,-0.364922,0.734878,-0.571653
-0.879692,-0.402209,0.230671,0.413984,-0.875036,-0.250856
0.284814,0.011776,0.863038,0.066197,-0.028405,0.997402
-0.030192,-0.172031,0.446072,0.644871,0.746107,-0.165729
0.181035,-0.704741,0.471966,-0.460373,0.739977,-0.490398
0.553668,0.056441,0.523936,0.890610,0.395979,0.223640
0.120767,0.187447,0.908953,-0.376441,0.926421,-0.005939
-0.821719,-0.042879,0.479274,0.824644,-0.235820,0.514151
-0.017104,0.183162,0.571652,-0.385836,-0.670160,-0.634048
0.210309,-0.148906,0.480841,0.214531,-0.654833,0.724687
0.128113,0.070856,0.944088,-0.374012,-0.927315,0.014213
-0.242221,0.824477,0.632968,0.626807,0.463640,0.626220
-0.113190,-0.230535,0.604307,0.840326,-0.076409,0.536669
0.017566,0.273066,0.654503,0.284249,0.040067,-0.957913
-0.045344,-0.591720,0.605221,-0.316266,0.926354,-0.204560
-0.754220,0.142208,0.443696,-0.114407,0.932339,0.343009
-0.026976,-0.682626,0.467685,0.585854,0.549756,0.595435
0.638389,0.121513,0.546985,0.761304,-0.431034,-0.484382
0.257950,-0.284764,0.591595,-0.502742,0.230742,-0.833072
0.042474,-0.672636,0.560768,0.863800,-0.500239,-0.060082
-0.302604,0.425900,0.531141,0.403611,-0.596206,0.694001
0.147515,0.180027,0.911250,-0.576705,0.602601,0.551619
0.018942,0.007499,0.798068,-0.663781,-0.410392,0.625278
0.220065,0.156336,0.305769,-0.159441,-0.599432,0.784385
0.104809,0.323723,0.646933,0.524275,0.099954,0.845663
-0.266215,0.285051,0.348838,0.518094,0.768134,-0.376231
0.511883,0.187735,-0.955469,-0.365788,0.125698,0.922171
0.150843,0.012777,0.871235,0.063096,0.905487,0.419658
0.447481,-0.133637,0.831506,-0.192260,-0.979630,0.057975
-0.447941,-0.207846,0.461446,-0.058761,0.413412,0.908646
0.496843,-0.170602,0.649021,0.487864,-0.802042,-0.344554
0.115715,0.425334,0.590185,0.853924,-0.407552,0.323596
-0.275285,0.100966,0.423466,0.025254,0.584487,0.811010
-0.588453,-0.558326,0.031480,0.618893,0.699688,0.356943
-0.727013,-0.083694,0.456643,0.415573,0.594230,-0.688614
-0.260015,-0.192716,0.571182,0.895984,0.324905,0.302738
-0.688553,-0.061005,0.461315,0.418370,0.420968,-0.804831
-0.656067,-0.300459,0.503315,0.312843,-0.921222,0.231254
0.280106,0.617842,0.584156,0.770896,-0.159203,0.616744
0.097694,0.089547,0.958079,0.496392,0.002495,-0.868095
0.572494,-0.069418,0.558183,0.827999,-0.553951,0.086932
0.365860,-0.315301,0.639650,0.042403,0.674660,0.736910
-0.199060,-0.388935,0.600653,-0.620174,-0.147661,-0.770442
0.187005,0.073852,0.965309,0.886635,-0.018761,0.462088
0.309148,-0.297175,0.485957,0.945394,-0.230020,-0.230912
0.196190,0.057581,0.598773,0.972051,0.128996,0.196157
-0.215589,0.222122,0.334169,0.919184,0.055626,0.389880
0.397657,-0.195434,0.738423,0.281555,0.456984,-0.843737
0.559521,-0.047165,0.490733,-0.720862,0.686394,-0.096029
0.060155,-0.311729,0.497572,-0.586717,0.729591,0.351369
0.154977,0.230257,0.653641,-0.621948,-0.685797,0.377972
0.592471,-0.308882,0.277813,-0.784338,0.472953,0.401409
-0.373092,0.180166,0.546802,0.434848,0.733900,0.521822
-0.741363,-0.107237,0.451736,-0.384968,-0.575110,0.721837
0.372405,0.542065,0.385983,0.623817,0.596411,0.505119
0.114681,0.052730,0.858027,-0.688297,-0.712085,0.138499
0.483527,-0.527928,0.534926,0.997821,-0.052216,0.040323
0.118816,0.121086,0.621587,0.124635,-0.849850,0.512074
-0.452877,-0.007918,0.231402,0.043016,-0.835323,0.548074
0.403399,0.123229,0.787914,0.414671,0.897551,-0.149832
0.151075,-0.141485,0.820543,0.845549,-0.527570,-0.081958
0.038687,0.016767,0.655469,0.911877,0.409543,-0.027480
-0.017794,0.324011,0.327173,-0.044307,-0.721340,0.691162
-0.152452,0.034753,0.639389,0.047244,0.294428,0.954505
0.967629,0.124509,0.547325,0.809697,-0.533776,-0.243870
0.199519,0.153199,0.669486,-0.533158,-0.742592,0.405338
0.454485,-0.313158,0.767476,0.605494,-0.741364,-0.289406
-0.131098,-0.378805,0.599791,-0.617257,0.654487,0.436624
0.359316,-0.194432,0.732916,-0.216429,0.418603,-0.882003
-0.007462,0.096114,0.755234,0.504870,-0.152962,0.849534
-0.680061,-0.031033,0.474915,-0.063901,-0.366797,0.928104
-0.121801,0.041033,0.573949,0.170772,0.840088,-0.514868
0.306051,-0.097108,0.623388,-0.030763,-0.989693,0.139863
0.397314,-0.156753,0.838945,0.467846,-0.883390,0.027234
-0.579039,0.036747,0.457739,-0.809976,0.307830,-0.499179
0.907246,0.024187,0.527434,-0.642482,0.657063,0.394316
0.282400,-0.090967,0.810624,0.090234,0.979845,0.178218
0.365630,-0.209274,0.825529,-0.087280,-0.995856,-0.025567
-0.337046,0.127366,0.576690,-0.059985,0.938735,-0.339378
0.002294,-0.051014,0.683059,-0.788164,0.538786,0.297503
0.083919,-0.533494,0.511903,-0.225438,0.971303,0.075822
0.023420,-0.578873,0.534221,-0.731944,0.237848,0.638504
0.275628,-0.261221,0.624484,-0.419168,0.808639,0.412797
-0.355873,0.064863,0.394049,0.882924,0.469205,0.017078
-0.100104,-0.336710,0.361812,-0.694709,0.347550,0.629752
0.163473,-0.231110,-0.494597,0.883866,0.292743,0.364803
0.287452,0.463431,0.758288,-0.209509,0.663148,0.718569
-0.191367,-0.114231,0.184495,-0.401167,0.864470,0.302915
-0.473196,0.747272,0.347090,-0.438834,-0.622028,-0.648465
0.307544,0.078851,0.489481,0.966888,0.182054,-0.178842
0.557343,0.524654,0.186896,0.394886,0.749870,-0.530811
0.637355,0.114527,0.407335,-0.193236,-0.170685,-0.966192
-0.082423,0.410919,-0.266066,0.223865,-0.627626,0.745634
0.325681,0.088267,0.800418,-0.801249,-0.112936,0.587576
-0.115372,-0.530358,0.662046,0.881239,0.120220,-0.457126
0.435083,-0.026609,0.554294,0.151968,0.342953,-0.926979
0.303753,0.230971,0.540120,-0.317493,-0.399526,0.859987
0.526692,0.147913,0.552388,0.769206,0.626200,0.127266
0.727931,-0.015051,0.493239,-0.114353,0.788047,0.604901
0.483068,0.084556,0.579457,-0.215506,0.801446,0.557890
-0.212835,0.474136,0.537092,-0.033487,-0.704197,0.709214
0.016875,0.517947,0.826442,-0.235866,0.930887,-0.278956
0.421308,-0.369956,0.783085,-0.676918,0.432787,0.595380
0.057055,-0.513374,0.545523,0.920613,0.166863,0.353026
0.745496,0.104964,0.472331,0.692164,0.672693,-0.261520
0.807369,0.220693,0.453667,0.966752,0.228208,0.115377
0.582598,0.006785,0.552937,0.938187,-0.332937,-0.094653
-0.109977,-0.760250,0.557348,0.341418,0.931267,0.127183
0.044425,-0.106671,0.947455,0.460916,-0.249023,0.851789
-0.009529,0.098109,0.361029,0.845354,0.036568,-0.532953
0.635978,0.084983,0.462543,-0.177769,-0.283230,0.942433
0.152567,-0.402209,-0.659123,0.934122,0.212763,-0.286614
0.015614,-0.208273,0.716314,-0.490712,0.324709,0.808558
-0.201239,0.201287,0.588410,0.204117,0.977096,0.060165
-0.690964,-0.490397,0.222240,-0.211702,0.239147,0.947624
0.540351,0.244385,0.774498,0.171542,-0.680341,-0.712537
0.118357,0.142069,0.875829,0.947779,0.267507,0.173655
-0.090919,0.720585,0.323179,0.881140,0.472517,0.017895
0.351854,-0.363110,0.772383,-0.092405,0.227327,0.969424
-0.362645,-0.051441,0.654999,-0.488946,-0.798009,-0.352297
0.278845,-0.229682,0.369146,-0.310936,-0.645996,0.697143
0.034441,-0.335995,0.518977,0.636773,0.758938,0.136134
0.013432,-0.289755,-0.745080,0.877447,0.472518,-0.082539
0.166111,0.076996,0.786400,-0.246662,0.607575,0.754990
0.443347,-0.054585,0.532811,0.077170,0.991399,-0.105705
0.377341,-0.165176,0.622005,0.015115,-0.950306,-0.310949
0.298933,-0.123647,0.687157,0.319387,-0.856744,-0.404946
-0.265298,-0.078416,-0.480214,0.291197,0.951871,-0.095635
0.281367,0.069715,0.551344,-0.512604,0.822228,-0.247342
0.240732,0.030189,0.732837,0.842413,0.465100,0.272070
0.742970,0.096541,0.446254,-0.615791,-0.187550,-0.765262
-0.288027,0.001498,0.660350,-0.045467,0.826042,0.561771
-0.006085,0.518086,0.821248,-0.310802,0.892471,-0.326951
-0.518767,-0.177161,0.448421,-0.314671,-0.511961,0.799299
0.081046,-0.231110,-0.675046,-0.614551,-0.777666,0.132524
-0.254276,-0.534923,0.228061,-0.507839,0.749484,0.424705
0.004362,0.282917,0.775542,-0.689492,-0.278424,0.668641
0.243829,0.625262,0.606865,-0.676139,-0.712521,-0.187484
0.126737,-0.690474,0.476351,-0.615041,-0.657325,0.435487
-0.085867,0.107246,0.665675,0.790883,-0.592948,-0.151382
0.451959,0.335290,-0.961133,-0.288610,0.059287,0.955609
-0.866376,-0.474414,0.275281,0.113142,0.983642,-0.140170
0.140396,-0.684621,0.280449,-0.565721,0.824490,-0.013274
-0.816667,-0.351830,0.248160,-0.587352,0.798568,-0.131555
0.229826,0.531787,0.591934,-0.374437,0.708968,0.597630
-0.310525,0.027332,0.438267,-0.174807,0.679153,0.712877
0.165193,-0.103953,0.224667,0.990507,-0.131730,-0.039273
0.126162,-0.166744,0.003080,-0.350636,0.934341,-0.063737
-0.307541,0.047452,0.444662,0.011924,0.782298,0.622790
-0.679140,-0.574884,0.244479,-0.337730,0.716721,0.610122
-0.682584,0.729721,0.372044,-0.054064,0.953533,-0.296400
0.002067,-0.239097,-0.721691,0.947730,0.090525,0.305963
0.183561,-0.019475,0.592978,0.810801,0.254124,0.527279
-0.374812,0.085271,0.242339,-0.025379,-0.453018,0.891140
-0.038113,-0.812623,0.573297,-0.148706,-0.157793,0.976211
-0.033520,-0.271638,-0.617150,0.247198,0.968831,-0.016141
0.444840,0.100391,-0.966458,-0.289811,0.101936,0.951640
0.000918,0.372822,0.738084,0.886807,0.410928,-0.211453
0.356906,0.453449,0.600235,0.030828,0.989240,0.143018
0.157730,0.283632,-0.991830,-0.216060,0.039908,0.975564
0.161749,-0.680057,0.586296,0.434993,-0.871263,-0.227339
0.000343,-0.737708,0.584051,0.469010,0.555235,-0.686836
0.000918,0.228541,0.775933,-0.405133,-0.887185,-0.220837
-0.058660,-0.547482,0.348108,-0.577352,-0.739416,0.346308
-0.003213,-0.610124,0.566040,-0.628584,0.316551,-0.710406
0.336243,0.247956,-0.011068,0.936727,-0.314745,-0.153224
-0.068764,0.567036,0.448760,0.907753,0.187378,-0.375333
0.114338,0.095827,0.869460,0.044736,-0.210929,0.976477
0.543795,-0.031182,-0.955547,0.254940,-0.048304,-0.965750
0.095396,-0.321293,-0.468546,-0.701910,-0.693331,-0.163141
0.196302,0.134073,0.654659,-0.221812,-0.402882,0.887967
0.081277,-0.072423,0.797625,0.189791,0.979184,-0.071965
-0.665712,0.175315,0.436387,-0.231839,-0.753032,-0.615788
-0.061876,-0.575023,0.506186,-0.575056,-0.171047,0.800033
0.297672,-0.229821,0.590551,-0.262755,0.129289,0.956161
-0.259212,-0.410196,0.341112,-0.243350,0.803055,0.543951
0.384915,0.005923,0.764787,-0.388027,0.466235,-0.795022
0.515096,-0.130641,0.817202,0.925105,-0.182306,0.333083
-0.204455,0.072711,0.661342,-0.520970,-0.165540,0.837369
0.188038,0.380809,0.714096,-0.152677,-0.940779,0.302694
0.217081,0.175889,0.793265,-0.080698,0.794598,0.601749
-0.972334,-0.250803,0.047377,-0.639634,-0.751389,-0.162118
0.353003,-0.230962,0.526181,-0.187468,0.982269,-0.001590
-0.785214,0.054585,0.466510,-0.522885,0.121422,-0.843711
0.035012,-0.400214,0.294414,0.108706,-0.939204,-0.325698
0.074158,0.284773,0.624798,0.018865,0.350428,0.936400
0.141661,-0.298038,0.393239,0.210565,-0.937491,0.277081
-0.119390,-0.093824,0.208483,-0.040898,0.977198,-0.208353
0.298358,0.240387,0.488750,0.902903,-0.260583,-0.341851
0.194810,0.339428,-0.990316,-0.287238,0.070485,0.955262
0.342784,0.132644,0.804490,-0.549088,-0.753858,0.360833
0.326371,0.426614,0.560663,0.952515,-0.065519,-0.297360
0.660428,0.036896,0.564866,-0.621202,0.705350,0.341451
0.287452,0.569040,0.591073,0.751945,-0.307355,0.583190
-0.333487,0.783096,0.330697,-0.338496,0.413719,-0.845137
0.559178,0.107960,0.448108,0.995333,-0.057139,-0.077763
0.155436,-0.086403,0.938345,-0.346469,0.841670,-0.414188
0.112846,0.167754,0.866849,0.362314,0.871332,-0.330923
0.145907,-0.176734,-0.151188,0.873318,-0.414199,0.256426
0.508899,0.159758,0.510650,0.906254,0.250287,0.340677
0.247619,-0.259505,0.725894,0.999577,0.016473,-0.023973
-0.159108,0.366115,0.451423,0.736204,-0.326676,-0.592694
-0.970958,-0.377237,0.162229,0.929679,-0.320259,-0.182020
0.018024,0.152625,0.857139,0.510842,-0.837302,0.194847
0.370107,-0.031033,0.724641,0.347005,0.937281,0.033032
-0.176789,0.029901,0.640068,-0.229331,-0.961085,-0.154021
0.199634,0.234394,0.745106,0.889004,-0.214103,-0.404761
-0.187580,0.157050,0.408405,0.015195,0.642177,0.766406
0.305130,0.417773,0.796842,0.013602,0.816010,0.577878
0.092526,0.031757,0.776586,0.285034,0.894477,-0.344481
0.880266,0.751270,0.292639,0.121801,-0.548711,0.827092
0.043739,-0.800211,0.567606,0.655550,0.720449,0.226292
0.258637,0.435464,-0.982616,-0.328634,0.199437,0.923160
0.691541,0.016767,0.528008,-0.196061,-0.959514,0.202220
0.127427,-0.058295,0.751344,0.491813,0.792996,-0.359551
-0.143154,-0.133925,0.618377,0.854007,0.389807,-0.344563
-0.819768,-0.148479,0.520334,-0.449591,-0.859258,-0.244015
-0.106533,0.255376,0.491699,0.970143,-0.141364,0.197077
-0.046377,-0.859578,0.604803,0.486339,-0.797109,-0.357900
0.302608,-0.482123,0.495301,0.805309,0.284224,-0.520283
-0.025483,-0.776093,0.559645,-0.002119,-0.984109,0.177553
0.455977,-0.319151,0.764474,0.604914,-0.756966,-0.247147
0.286535,-0.264217,0.731088,0.493202,0.221979,-0.841117
0.306279,-0.174025,0.647847,0.117848,0.055226,0.991495
-0.068420,0.682339,0.571887,0.719157,0.317670,0.617980
-0.133281,0.320588,0.757087,-0.779024,0.600604,0.179989
0.061876,-0.218977,0.669851,-0.696410,0.647641,-0.309151
0.343358,0.674639,0.445523,-0.602976,0.141021,-0.785196
-0.018021,0.484840,0.647298,0.754097,0.612218,-0.237756
0.336930,-0.153191,0.741843,-0.129517,-0.275014,0.952676
0.106417,-0.429889,0.362960,0.015594,0.248047,0.968622
0.216737,-0.037888,0.907622,0.447208,0.721862,0.528129
0.156010,-0.044447,0.555051,0.369271,0.004224,0.929312
0.768685,0.578882,0.321065,0.121801,-0.548711,0.827092
-0.603261,-0.289903,0.262047,-0.794747,-0.468552,0.385794
0.509242,-0.025041,0.565988,-0.690851,-0.574700,-0.438686
-0.482721,0.144916,0.674263,-0.396194,-0.900622,0.178635
0.409369,0.050022,0.811172,0.347041,-0.495981,0.795968
-0.012858,-0.149481,-0.303289,0.912586,0.336181,-0.232742
0.802433,0.081847,0.658262,-0.782146,0.328478,0.529480
-0.537941,0.195434,0.619995,0.122534,-0.947590,0.295057
0.203880,0.334289,0.769068,0.930548,-0.193027,0.311161
-0.426588,0.189581,0.546307,0.124750,0.937995,-0.323423
0.392952,0.287194,0.665936,-0.303457,0.221313,0.926787
-0.127883,0.809060,0.611172,-0.233673,-0.963416,-0.131250
0.096429,-0.237103,-0.090107,-0.340778,0.938059,-0.062573
0.303753,-0.535210,0.342156,-0.289493,0.876150,-0.385428
0.852485,0.041172,0.673610,-0.782146,0.328478,0.529480
0.033751,-0.166317,-0.265100,0.889659,0.381222,0.251349
-0.465619,0.265358,0.269982,-0.788287,-0.012292,0.615184
0.397198,-0.047016,0.731767,0.172172,0.976373,-0.130588
0.240042,0.247093,0.613313,0.875238,0.062931,-0.479581
0.340605,-0.342415,0.742234,0.472473,0.815927,0.333216
-0.069566,1.000000,0.405090,0.102212,0.994417,-0.026237
-0.126853,0.105103,0.716889,0.894429,0.326739,0.305350
0.352197,0.024336,0.811329,-0.327608,0.877182,-0.351034
-0.087706,0.007064,0.560715,0.911570,-0.229616,-0.341052
0.055678,0.096402,0.610833,-0.607339,0.154354,0.779304
-0.477786,0.059585,0.591752,-0.388397,-0.898389,-0.205050
-0.309380,-0.352693,0.292274,0.992467,-0.056790,0.108553
0.121916,-0.214553,0.851658,-0.041951,-0.812518,0.581425
-0.110436,0.202141,0.530514,0.482010,0.484621,0.729937
0.695213,0.107246,0.623727,0.656249,0.692309,-0.300075
-0.469405,-0.750695,0.092326,-0.247559,-0.784379,-0.568739
0.334863,0.688619,0.466040,0.950181,-0.178721,0.255372
0.416484,0.274068,0.684495,0.930073,-0.335489,0.149705
-0.532199,0.061013,0.246776,0.220648,-0.778422,0.587685
0.562507,-0.081125,0.520621,0.922350,-0.312484,0.227210
0.180576,0.613705,0.354372,-0.494089,0.838176,-0.230947
-0.784296,0.098823,0.487131,0.525628,0.354165,0.773487
0.255884,-0.220406,0.376299,-0.127701,0.979064,0.158515
0.132591,0.290338,0.644061,0.914962,0.234431,0.328460
-0.102399,-0.567742,0.604333,0.957756,-0.190295,0.215617
-0.116749,-0.709732,0.561498,0.898305,-0.257877,-0.355734
0.166569,0.020765,0.917463,0.258164,-0.924376,0.280858
0.606246,-0.163748,0.584338,0.718734,0.491763,0.491519
-0.125588,-0.453153,0.634847,0.968615,-0.245576,-0.038431
0.592929,0.174748,0.430619,0.909183,-0.406117,-0.091953
0.293306,0.392793,0.496163,0.524611,-0.800292,0.290373
-0.060268,-0.454434,0.360611,0.109446,0.230082,0.966997
0.337736,0.195147,0.374550,-0.494223,-0.510793,0.703444
0.119047,0.735147,0.529601,-0.307559,0.950271,0.048912
0.185971,-0.117942,-0.538058,-0.522818,-0.846805,0.097889
-0.013891,0.451159,0.801070,0.060798,-0.793618,0.605371
0.325908,-0.087831,0.743383,0.509796,0.774099,-0.375339
0.251063,0.042026,0.933542,0.096569,0.570226,0.815792
-0.056597,-0.021758,0.061211,0.342036,0.937372,0.065926
-0.245896,0.114379,0.313678,0.646793,0.021471,-0.762363
-0.511194,-0.654223,0.067006,0.037533,0.872551,0.487079
-0.646769,-0.280626,0.493187,-0.447454,0.881930,-0.148271
-0.645392,0.269217,0.429731,0.267627,0.622847,0.735144
0.673058,-0.221547,0.501592,-0.279237,0.959863,-0.026263
-0.758238,0.415770,0.354451,-0.467278,-0.153114,-0.870751
-0.048788,0.056867,0.877734,0.144064,0.963761,-0.224520
-0.090460,-0.344558,0.332707,0.880624,-0.338595,-0.331444
0.250716,0.462151,-0.988123,-0.210975,0.281961,0.935942
0.022614,0.277491,0.759958,0.714069,0.624446,-0.316499
-0.228446,0.040170,0.569564,-0.682416,-0.172669,-0.710278
-0.254276,-0.327721,-0.050117,-0.664447,0.744796,-0.061557
0.156238,-0.133071,0.919186,-0.003823,-0.763072,0.646302
0.108369,-0.181733,0.709214,0.288583,0.892196,-0.347429
0.206522,0.516379,0.585878,0.988329,-0.063973,0.138254
-0.331076,0.209135,0.287053,0.825551,0.216831,-0.521008
0.084721,0.374241,0.731480,0.340703,0.885543,0.315808
0.051660,0.063435,0.685382,0.809741,-0.041551,-0.585315
0.234647,0.629113,0.623545,0.066596,0.989568,-0.127750
0.449317,-0.043594,0.808118,-0.445414,-0.465515,-0.764789
-0.452071,0.136642,0.384860,-0.444864,-0.892832,0.070342
-0.195844,0.209989,0.541269,-0.575185,0.757476,-0.308857
0.175756,-0.238096,0.839937,0.164017,-0.955632,-0.244675
0.288717,0.430752,-0.996815,-0.407507,0.249357,0.878498
-0.042247,0.307601,0.695275,0.152746,0.939992,-0.305096
-0.192631,0.341283,0.365492,0.637037,-0.045352,-0.769498
0.097004,0.251666,0.744610,-0.378777,0.804399,0.457679
0.502354,-0.056719,0.819185,0.887325,0.414270,-0.202571
0.203880,-0.652795,0.574654,0.818924,0.354240,-0.451528
0.388590,0.432040,0.774367,-0.039637,0.911538,0.409301
0.162782,0.217270,0.733360,-0.580368,-0.783634,-0.221566
-0.032487,-0.164035,0.649439,-0.057095,0.213102,0.975360
0.013316,-0.189581,0.712373,-0.257827,0.521007,0.813681
0.367353,-0.021758,0.778726,-0.750515,0.451332,0.482729
0.014122,-0.053583,0.034195,-0.386555,-0.922042,0.020358
-0.107795,-0.084835,0.642391,0.297024,0.325469,0.897690
-0.363678,-0.164035,0.450848,0.351524,0.752474,0.556969
0.005052,-0.375948,0.462307,-0.327167,0.543936,0.772720
0.119275,-0.111662,0.508353,-0.538165,0.829829,0.147523
0.089198,-0.338417,0.429522,0.142883,0.978405,-0.149361
0.290321,-0.588864,0.453250,0.590111,-0.786572,0.181861
0.307428,0.493542,0.568259,0.841845,0.118670,0.526512
0.226953,0.633964,0.357740,-0.405012,0.873046,-0.271580
0.392609,0.432894,0.609554,-0.425835,0.875394,-0.228800
-0.056597,0.492688,0.699661,0.998501,-0.010365,-0.053739
-0.008037,-0.413767,0.595406,-0.163558,-0.392457,-0.905111
0.279416,-0.297036,0.901488,-0.054906,-0.931251,0.360219
0.630352,-0.222400,0.516262,-0.508495,-0.854711,-0.104418
-0.182068,0.202001,0.576534,-0.182515,0.755813,0.628836
0.253589,0.174034,0.712529,0.025096,0.945946,0.323353
0.275744,0.392515,0.741373,-0.169644,-0.749188,0.640265
0.267133,-0.110094,-0.024641,0.268922,0.923091,0.274926
0.189530,0.417626,0.649987,-0.282858,0.635538,-0.718389
0.210309,-0.273772,-0.174863,0.888825,0.333738,-0.314022
0.090116,0.072850,0.849856,-0.359171,-0.891551,-0.275920
0.179199,0.021052,0.959958,0.818021,-0.146056,0.556336
0.126506,-0.302027,0.574863,-0.240224,-0.907419,-0.344796
0.123408,-0.159323,0.064317,0.089835,0.971205,0.220659
0.645276,-0.261499,0.476664,-0.707985,0.706077,0.014565
0.261394,-0.252511,0.702375,-0.581918,-0.401323,-0.707326
-0.212488,0.089547,0.755338,0.356607,-0.568360,0.741484
0.602112,0.000357,0.536570,0.946546,0.113093,0.302093
-0.099646,0.308176,0.693605,0.403911,-0.906778,0.120871
0.313051,0.062154,0.661159,-0.739538,0.039194,0.671972
0.124095,0.132505,0.757975,-0.089431,0.643060,0.760576
0.109286,-0.186010,-0.136727,-0.052511,-0.997702,0.042819
0.046493,0.644808,0.527356,-0.640823,0.742206,-0.196156
0.057055,-0.414342,0.594127,-0.144165,-0.474287,0.868486
-0.529446,0.227261,-0.211407,0.210061,0.723675,0.657396
0.430490,-0.620829,0.536387,0.656221,-0.715385,0.239997
0.143956,-0.275914,-0.759071,0.734070,0.555715,0.390286
0.298933,-0.040457,0.653093,0.760772,-0.000521,-0.649019
0.068304,-0.207558,0.650091,-0.349470,-0.066245,0.934603
0.442198,0.161048,0.383268,0.494363,0.238036,-0.836029
0.103089,0.162040,0.789089,-0.598139,-0.254914,-0.759769
0.098612,0.194293,0.690238,0.011095,0.817647,0.575613
0.135919,0.064576,0.267006,-0.531054,0.747475,-0.399078
0.328550,-0.431744,0.786009,-0.274234,0.530566,0.802057
-0.486513,0.111383,0.707022,0.723972,0.679828,-0.117040
0.102858,-0.129073,0.857113,0.483265,-0.234603,-0.843455
-0.022730,-0.332999,0.496894,0.476362,-0.878853,0.026414
0.261854,0.406643,0.740825,0.187275,-0.768778,0.611481
-0.077259,0.340569,0.710285,0.695910,0.279826,-0.661368
-0.130867,0.239672,0.776246,0.536578,0.750462,0.385864
-0.018711,-0.244802,0.672957,0.850573,-0.517682,-0.092363
-0.228446,0.065577,0.652728,-0.340869,-0.775031,-0.532105
-0.342441,-0.531352,0.246332,0.368186,0.074022,-0.926801
0.256574,0.476279,-0.032185,0.535232,0.175483,-0.826276
-0.138102,0.322304,0.519421,-0.223803,0.809191,-0.543252
0.045231,-0.228680,0.608379,-0.641783,0.590879,0.488852
0.211458,0.394083,0.748290,0.816199,-0.576777,0.033869
0.313742,0.442170,0.773845,0.703035,0.565715,0.430939
0.266446,0.327294,0.726468,0.948452,-0.296620,-0.111607
0.052234,-0.056867,0.641686,0.788651,0.452897,-0.415830
-0.009988,-0.165176,0.715714,0.548490,0.323162,0.771184
-0.080244,-0.665354,0.659097,0.932203,0.124576,0.339820
-0.398922,0.075846,0.532681,0.689634,0.638294,-0.342031
0.199862,-0.119936,0.816236,-0.532907,0.782410,-0.322250
0.254623,-0.200712,0.472566,0.357945,0.887063,-0.291538
0.044885,0.108675,0.813521,0.950939,0.304767,0.053211
0.488232,-0.128786,0.778309,-0.712392,0.615503,0.337127
-0.081162,0.078276,0.670243,0.890736,0.282744,-0.355871
0.501780,-0.162606,0.817071,-0.719270,-0.502155,-0.480096
0.175640,-0.210703,0.718168,-0.167047,-0.884058,0.436505
0.081964,-0.330003,0.491099,-0.755307,0.503667,0.419321
0.132934,0.046171,0.848525,-0.599993,-0.779367,-0.180543
-0.061645,0.211278,0.703837,0.458872,-0.469614,-0.754254
0.350134,0.298752,0.552623,0.405561,0.906039,-0.120890
0.008037,-0.820192,0.549413,-0.260866,0.750080,0.607725
-0.358970,-0.130075,0.485226,0.331516,-0.803577,0.494330
0.328322,0.337999,0.758261,0.255865,-0.199868,0.945825
0.078636,-0.189154,0.703785,0.305064,-0.831744,0.463830
-0.164503,0.682060,0.581728,0.346329,-0.841847,0.413945
0.218689,-0.243522,-0.924276,0.369239,-0.816177,-0.444430
0.258178,0.010922,0.814487,0.046888,-0.380973,0.923396
0.136840,-0.352832,0.693526,0.217147,0.966060,-0.139915
0.814144,0.138637,0.437171,-0.091468,0.728377,0.679044
0.209391,-0.062573,-0.203994,0.359772,0.861722,0.357770
0.055104,0.694611,0.559123,0.944144,-0.205598,-0.257529
0.172427,0.300320,0.710624,-0.694914,-0.560481,0.450506
0.308346,-0.259078,0.645628,-0.511097,-0.353824,-0.783319
0.496843,0.035467,-0.954659,0.249529,-0.018835,-0.968184
0.140053,-0.656366,0.466614,-0.018057,-0.500479,0.865560
0.172770,0.028185,0.940929,0.110528,0.796629,-0.594277
-0.081046,0.649947,0.473636,0.437156,0.855047,-0.278908
0.520491,-0.121364,0.850874,0.280301,0.853163,0.439936
0.250947,-0.502818,0.368128,0.594184,0.548941,-0.587885
0.330386,-0.183014,0.527512,-0.129441,0.897451,0.421695
0.132016,-0.324438,-0.594022,0.601568,0.795525,0.072502
0.792448,0.120372,0.414200,-0.578511,-0.258548,0.773613
-0.767077,0.066291,0.466119,0.913295,-0.129796,0.386063
0.387213,0.445027,0.577734,0.600951,0.101533,-0.792811
-0.066122,0.280627,0.500653,0.956997,-0.055658,-0.284710
0.253701,-0.189433,0.835944,-0.758944,0.449630,0.470994
-0.700493,-0.071709,0.465805,-0.601933,-0.115774,0.790110
0.211458,-0.254366,0.650039,-0.243205,0.401082,-0.883167
0.002757,-0.018761,0.579431,-0.072095,0.100602,0.992311
0.094478,-0.330430,0.699165,0.318163,0.946425,-0.055252
0.015499,0.024475,0.734482,-0.682104,0.004437,0.731242
0.272875,-0.175166,0.698173,0.627195,0.528850,0.571790
-0.096086,-0.807632,0.580214,0.033790,0.972339,0.231119
0.010215,-0.263929,0.719734,0.889910,-0.375757,-0.258587
-0.045918,-0.388795,0.756591,-0.206534,0.861660,0.463557
0.095168,0.092543,0.834325,0.166569,-0.962387,0.214630
-0.097004,0.202001,0.519447,0.600852,0.414981,-0.683204
0.236941,-0.280914,0.737223,-0.320485,0.675977,0.663585
-0.056940,-0.921079,0.578387,0.346993,-0.937414,0.029181
0.070028,-0.076700,-0.061289,-0.171892,-0.578243,0.797552
0.130755,-0.182012,0.106839,-0.158213,0.959338,-0.233751
-0.684076,-0.055578,0.181128,-0.101117,-0.990281,-0.095497
0.045806,-0.256509,0.438632,0.822322,0.527166,-0.214201
-0.039833,-0.705455,0.566928,0.846302,-0.284098,0.450623
0.343590,0.404787,0.559410,0.833728,0.333820,-0.439842
-0.048560,-0.407914,0.616784,0.039851,0.111896,0.992921
0.101940,-0.168033,0.198147,0.958558,-0.280540,-0.049636
0.017793,0.225257,0.640747,0.194793,0.896990,-0.396818
-0.106074,-0.459721,0.687810,-0.868835,0.142209,-0.474239
0.354723,0.034753,0.782250,0.765691,0.432098,0.476454
-0.002179,-0.426179,0.614957,-0.760118,0.202555,0.617408
-0.145676,-0.783514,0.597442,0.397596,0.081202,-0.913961
0.389049,0.425622,0.750639,0.681454,-0.363639,0.635128
-0.146023,0.100679,0.597729,-0.540179,0.519572,0.662006
0.487661,0.081560,0.585643,0.516036,0.832860,-0.200128
-0.085524,0.281062,0.744479,-0.293134,0.499977,0.814920
0.052119,-0.257650,0.652728,0.633815,-0.000460,-0.773485
0.200780,0.067006,0.770086,-0.554129,0.136763,0.821119
-0.814029,-0.270061,0.275777,-0.292134,0.953206,-0.077814
0.193776,0.115233,0.905325,0.878489,0.202078,-0.432922
0.360465,-0.033464,0.483790,-0.401734,-0.909706,0.105089
0.202045,-0.262213,0.635839,0.665837,-0.735946,-0.122655
-0.048676,0.042174,0.318063,0.893581,-0.323042,0.311701
-0.774883,-0.301313,0.228791,-0.514763,0.545264,0.661594
0.457697,0.093972,0.826442,-0.445993,-0.818326,0.362538
0.694179,-0.187299,0.513782,-0.292954,0.875613,-0.384030
0.423259,0.538781,0.485304,-0.523639,-0.656265,0.543249
0.002067,-0.128219,-0.627565,-0.738561,0.635150,-0.226078
0.077028,0.074854,0.805508,-0.469178,0.330893,-0.818768
-0.409022,0.518086,0.351188,0.081945,-0.609224,0.788753
-0.093445,-0.524793,0.476716,-0.474157,-0.598731,-0.645521
-0.727931,0.112672,0.468442,-0.154365,0.878983,0.451176
0.362876,0.325300,-0.972305,0.406769,0.045276,-0.912408
0.066353,0.405353,0.526520,0.256346,0.114542,-0.959774
0.558145,-0.105669,0.539911,0.278817,-0.920376,0.274171
0.138445,-0.165463,0.150848,0.602503,-0.797879,-0.019482
0.160488,0.010635,0.918559,-0.262634,-0.444488,0.856419
-0.608082,-0.107812,0.499608,-0.325874,-0.831748,-0.449445
-0.188841,0.370104,0.808327,0.088140,-0.811207,0.578078
-0.078636,-0.002212,0.719917,0.812858,0.524331,-0.253649
0.111585,-0.283910,-0.143487,0.017619,-0.985020,0.171536
0.500977,-0.100391,0.809554,0.828596,0.557286,0.053487
0.199977,-0.213838,0.707204,-0.290923,-0.950793,-0.106567
-0.112041,-0.516231,-0.118063,-0.339284,0.909918,-0.238612
0.509126,-0.053871,-0.943540,-0.191813,-0.015838,0.981304
0.205145,0.083268,0.759802,-0.277863,-0.449338,0.849051
0.253589,-0.227400,0.588280,0.108329,0.238621,0.965052
0.102514,0.631543,0.587079,0.375246,0.910463,-0.173915
-0.441281,-0.095827,0.499060,-0.574878,0.799150,-0.175711
0.139937,0.202568,0.767554,0.535432,0.810548,0.237329
-0.404892,0.258799,0.340068,-0.054769,-0.845355,0.531390
0.067043,0.030189,0.917854,-0.496046,0.588034,0.638870
0.215361,0.241955,0.584417,0.986990,0.154964,-0.042861
0.806451,0.107960,0.652571,0.903574,0.188624,-0.384676
0.009757,0.335290,0.794179,0.865707,0.339086,-0.368200
0.045343,-0.273493,0.527303,-0.011664,0.081865,0.996575
-0.493169,-0.057434,0.197129,-0.156068,0.974414,0.161741
0.109286,0.321441,0.648943,0.686413,0.113692,0.718270
0.131329,-0.503811,0.463326,-0.152346,-0.018240,-0.988159
-0.713697,-0.132923,0.459306,0.509837,-0.079064,-0.856630
0.207324,-0.185871,-0.488541,0.599709,0.135448,-0.788672
0.775114,0.096968,0.415505,0.910227,-0.033662,-0.412740
0.117207,0.308315,0.643487,0.993890,-0.020429,-0.108470
0.106533,0.196149,0.887914,-0.653409,-0.744992,0.134324
0.268397,-0.199850,0.863273,0.904335,0.330194,-0.270462
0.063711,-0.134351,-0.063195,0.567627,0.615865,-0.546360
-0.547814,0.229255,0.426207,0.301148,0.931873,0.202295
0.201697,-0.196288,0.645993,-0.247980,-0.276766,0.928389
0.309380,0.445881,0.575385,-0.383201,-0.538510,-0.750442
-0.651474,-0.542204,0.253981,0.185581,-0.963220,-0.194337
0.427849,-0.595143,0.526285,0.901137,-0.432943,-0.022622
0.133281,0.659371,0.538606,-0.209928,0.973252,0.093337
-0.099414,-0.416624,0.577003,0.896014,0.236417,0.375853
-0.350247,0.070429,0.616497,-0.274225,0.888256,0.368513
0.334979,0.277491,0.662177,-0.107845,-0.281166,0.953580
0.116290,-0.070568,0.906056,-0.685618,0.315361,-0.656106
-0.105041,0.028612,-0.115427,-0.100162,0.121522,0.987522
0.324647,-0.150195,0.513730,0.436470,0.898215,0.052001
-0.437378,0.160473,0.531271,-0.554176,0.628876,0.545348
-0.121801,0.200007,0.585304,0.150080,0.972864,0.176098
0.189762,-0.699314,0.463769,0.200130,0.386775,-0.900196
-0.067846,-0.410631,0.581441,0.995142,-0.063277,-0.075422
-0.206291,-0.366394,0.439206,0.252752,0.952039,0.172450
0.644359,0.407635,0.443331,0.453897,-0.287409,-0.843430
0.236255,-0.640096,0.428061,0.804561,-0.463989,0.370669
0.253358,-0.269208,0.626025,0.426987,-0.810394,-0.401178
-0.490990,0.095113,0.385173,-0.160598,-0.986827,0.019512
-0.711858,-0.129213,0.503341,0.486303,0.747099,0.453158
-0.089770,-0.465426,0.712581,0.079587,-0.996772,0.010564
-0.015268,-0.330857,0.740381,0.978458,0.040534,0.202428
0.147171,0.216695,0.653015,0.646663,0.669852,-0.364864
0.076226,-0.420186,-0.734064,0.572911,0.811525,-0.114889
0.388015,-0.057861,0.772696,-0.277634,-0.895802,-0.347070
0.377110,-0.360828,0.086296,0.681700,0.707181,0.187566
0.141202,-0.208412,0.669825,0.236255,-0.539310,0.808287
-0.280681,0.589299,0.619655,0.589971,-0.746982,0.306517
-0.265872,-0.392646,0.616888,0.425403,0.847667,0.317005
-0.645851,0.200861,0.372174,-0.230999,-0.956880,0.176126
0.189187,0.545636,-0.994936,-0.005474,0.198265,0.980133
-0.874756,-0.129073,0.517620,0.508175,0.827122,0.240058
-0.173689,-0.069566,0.642965,0.082924,0.488582,0.868568
-0.033061,-0.022045,0.641947,0.174966,-0.384067,0.906576
0.791527,0.517947,0.395067,-0.641430,-0.256327,0.723094
-0.018368,0.306600,0.791673,0.238344,-0.261243,0.935385
-0.113533,0.168468,0.701436,0.808118,-0.205104,-0.552157
0.230285,0.052016,0.636283,0.898443,0.421997,-0.121321
0.101250,0.247093,0.709580,0.191795,0.323263,0.926669
0.232923,-0.186437,0.536779,0.828983,-0.450548,-0.331351
-0.224774,0.203857,0.416001,-0.219483,0.921496,0.320426
-0.216163,0.637108,0.575542,0.519673,-0.771187,0.367710
0.126393,0.138071,0.989637,-0.559242,-0.665196,-0.494735
-0.116633,0.207280,0.510546,0.987549,0.134002,-0.082410
-0.026517,-0.481269,0.671939,0.834968,-0.537178,0.119451
0.095855,-0.523652,0.257818,-0.075206,0.424208,0.902436
0.538057,0.106959,0.776377,0.880870,-0.174912,-0.439856
0.314890,0.225693,0.463221,0.108342,-0.871005,0.479180
0.319827,0.189869,0.517228,0.976019,-0.212246,0.048362
-0.118010,0.515804,0.390864,0.864621,0.476515,-0.159260
-0.516589,-0.177161,0.480005,0.479266,0.593455,0.646618
0.041329,-0.632535,0.573793,-0.288576,0.820071,-0.494174
0.311216,0.007351,0.675176,0.655935,0.654853,0.375388
-0.176442,0.272213,0.512921,-0.242353,-0.685486,0.686567
0.384229,0.176168,0.873584,0.148693,-0.973892,-0.171538
0.083919,0.059724,0.904411,0.297732,0.570124,0.765712
-0.167604,-0.736280,0.536857,0.913232,0.395431,-0.098190
0.172770,0.640958,0.623440,0.112754,0.949419,0.293069
0.156354,-0.288047,-0.485826,0.871835,0.466218,0.150150
0.284467,0.128933,0.774863,0.884173,0.466994,0.012425
-0.141889,-0.112803,0.222631,0.804097,-0.594186,-0.019254
0.382389,-0.042879,0.758627,-0.215011,0.656365,0.723157
0.164618,0.093684,0.314096,-0.258563,0.832631,-0.489766
0.288486,0.151196,0.853798,0.901445,-0.302194,-0.309960
0.210999,-0.246945,0.625450,-0.386177,0.832841,0.396539
-0.078752,0.177030,0.641817,0.995044,0.058853,-0.080143
-0.001720,-0.707023,0.586453,-0.549352,-0.310215,-0.775873
0.248306,-0.253939,0.373166,-0.127599,0.043337,0.990879
-0.911376,-0.266211,0.092613,-0.579785,-0.807724,-0.106913
-0.042706,-0.061432,0.479614,0.961097,0.256745,0.101853
-0.087934,-0.410910,0.301906,-0.220261,0.972506,0.075606
0.016991,-0.251657,0.618141,-0.372368,0.847815,0.377561
-0.109746,-0.442022,0.330410,0.401504,0.432523,0.807291
0.226610,-0.390224,0.476821,-0.226247,0.866689,0.444592
0.034669,-0.282481,0.634247,0.193644,-0.980919,-0.017320
-0.388818,0.027332,0.521561,-0.367259,-0.715734,0.594008
-0.031684,0.331719,0.763900,-0.114439,0.902421,-0.415380
0.603604,-0.044874,0.539703,0.997373,0.058852,-0.042241
0.677878,0.252659,0.400940,0.329723,-0.778666,0.533819
0.190795,0.330439,0.764813,0.919098,-0.265231,0.291394
0.588568,0.086699,0.563639,0.254122,0.751621,-0.608677
0.030882,-0.571174,0.552049,0.898568,0.346156,0.269726
0.000918,0.626264,0.544793,0.525969,-0.829970,-0.185762
-0.090232,0.097116,0.428426,-0.241764,0.664646,0.706962
-0.642292,0.110530,0.463143,0.688785,0.525102,0.499844
-0.127998,0.776529,0.411616,0.381681,0.666770,0.640107
-0.357708,-0.268781,0.438632,-0.529129,-0.847020,0.050793
0.297440,0.176455,0.795328,0.678463,0.678916,-0.280643
-0.177591,0.402784,0.328113,0.746566,0.177734,0.641132
0.192974,-0.341701,0.540381,-0.682517,0.697718,-0.217623
0.359891,-0.064001,0.754659,-0.020788,-0.816350,0.577184
0.436575,-0.111810,0.830540,0.148438,0.987851,-0.046006
-0.471931,-0.047870,0.483790,0.597184,-0.218108,-0.771881
0.285273,-0.436317,0.368337,0.860194,-0.105442,-0.498947
-0.088852,-0.335421,0.631323,0.960115,-0.204908,-0.190242
0.274710,-0.011340,-0.948682,-0.252259,0.289363,0.923382
-0.036161,0.302889,0.655599,-0.288063,0.220169,-0.931958
0.539777,-0.127357,0.532576,0.147385,0.943587,0.296515
0.284009,0.083703,0.934795,0.467598,0.814564,-0.343276
0.000574,-0.413628,0.545419,0.693190,0.717519,0.068223
0.301115,0.378387,0.617176,0.000995,0.229161,0.973388
0.113764,0.050309,0.921404,0.812398,0.108105,-0.572994
0.192056,-0.131503,-0.415557,-0.692822,0.684043,0.228218
0.039262,0.214988,0.814565,0.884137,0.465361,0.041714
-0.328778,0.902248,0.304490,-0.436090,-0.322199,0.840246
-0.182871,0.689333,0.437849,0.755139,0.329878,0.566520
0.193090,0.097682,0.830593,0.470904,-0.845936,0.250281
-0.085755,0.026330,0.877604,-0.324576,0.923653,-0.203756
0.060040,-0.541342,0.519003,-0.074616,-0.983140,0.166940
-0.253358,0.074854,0.559984,-0.324607,-0.945849,0.000176
0.261510,-0.212270,0.726259,0.860079,-0.220162,-0.460209
0.074505,-0.735139,0.590786,-0.270421,0.958269,-0.092700
0.648030,-0.152903,0.556121,-0.294155,0.931050,0.215913
0.091493,-0.629252,0.560715,0.773685,0.606574,-0.182975
0.074390,-0.325866,0.502349,0.683556,-0.696249,-0.219064
0.230859,-0.039883,0.506212,0.850931,-0.209016,-0.481902
0.149582,-0.035885,0.060245,-0.023323,0.965535,0.259226
-0.864540,0.094834,0.478126,-0.631727,0.111474,-0.767134
0.338881,0.000218,0.846150,-0.705728,-0.394608,-0.588416
0.097922,-0.166744,0.163900,-0.289433,0.928723,0.231736
0.116290,-0.215694,0.733673,-0.411601,0.365139,-0.835020
0.019517,0.177596,0.840355,0.896394,-0.440298,-0.051139
-0.353690,-0.523652,-0.038371,0.135430,-0.973078,-0.186489
0.429572,0.239672,0.379666,-0.259676,0.960480,-0.100236
-0.250832,-0.060717,0.440642,-0.107482,-0.312401,0.943850
0.297784,-0.287333,0.875542,0.018223,0.884371,0.466429
-0.262771,-0.076134,0.549360,-0.513294,-0.668140,0.538627
-0.563884,-0.126216,0.187027,0.334220,0.941330,-0.046855
0.052462,-0.291331,0.580684,-0.121158,0.969962,-0.210936
0.473423,0.221555,-0.962934,0.338387,-0.120380,-0.933275
0.046724,-0.284337,0.199034,0.999527,0.004599,-0.030406
0.297784,0.089835,0.769747,0.331847,-0.480437,-0.811824
-0.105269,-0.548623,0.641634,0.872138,0.481522,-0.086675
-0.468029,-0.077414,0.212529,0.046397,-0.922432,0.383362
0.503962,-0.093972,0.543670,-0.188710,0.947503,-0.258120
0.458387,-0.016906,0.764108,0.436827,-0.272061,-0.857417
-0.144989,-0.446020,0.584782,0.873150,0.180799,0.452683
0.053264,0.226259,0.772749,0.502639,-0.243330,0.829545
0.111812,0.541925,0.652075,0.276119,0.284742,-0.917976
0.210540,0.621552,0.595380,-0.470208,-0.833175,0.291074
-0.555160,0.932071,0.404203,0.046567,-0.944599,0.324906
0.042015,0.303891,0.862647,0.999427,-0.031599,0.012165
0.262428,-0.003205,0.698825,0.697485,0.712044,-0.080668
0.245437,-0.237956,0.729888,-0.497950,0.373119,0.782833
0.451384,-0.121652,0.521691,-0.547736,0.715361,-0.433871
0.432214,-0.084547,0.657531,0.991421,0.100503,-0.083572
0.115372,0.498393,-0.988541,-0.114193,0.153195,0.981576
0.052347,0.163469,0.908536,-0.603651,0.623727,0.496558
-0.245665,-0.681198,0.550196,0.579978,0.770072,0.265734
-0.112503,0.396791,0.405351,0.978300,0.205745,-0.024455
0.364484,-0.037174,0.790029,0.474375,0.814372,0.334314
0.276431,0.271359,0.470869,-0.615860,0.749663,-0.242326
-0.038341,-0.141206,0.619629,0.363137,0.602134,-0.711032
0.156126,-0.009773,0.811381,0.304977,-0.024697,0.952039
0.084949,0.076848,0.793109,0.959656,0.257222,0.113570
0.119159,0.443886,0.606395,0.920400,-0.352622,0.168886
0.451728,-0.170881,0.471626,-0.614294,0.700731,0.362792
0.330960,0.738858,0.456408,0.868752,-0.453919,0.198058
0.783378,0.228114,0.430619,-0.513251,0.705628,0.488531
0.171852,0.009206,0.990916,-0.297643,0.627382,-0.719584
0.011480,-0.271917,-0.694492,-0.708681,0.484136,0.513209
0.028356,-0.694184,0.571052,0.948890,-0.091176,-0.302151
0.313398,0.374241,0.561525,0.815943,0.411330,-0.406257
0.237631,-0.297602,0.890316,0.069439,-0.989881,-0.123749
0.277580,0.142783,0.581128,-0.544032,0.831220,0.114461
0.263574,-0.360114,0.146019,0.818107,0.575065,0.000871
0.308574,0.568326,0.549152,-0.581991,-0.768040,0.267212
0.077602,-0.189294,0.368102,0.086356,0.257835,0.962322
0.189874,-0.145195,0.003315,-0.226233,-0.949978,0.215317
-0.132016,0.132931,0.888567,-0.005233,-0.803775,0.594911
-0.836986,-0.497679,0.296763,-0.514142,0.716323,-0.471741
0.405119,-0.378379,0.782276,-0.670773,0.469360,0.574251
0.037310,0.221555,0.776794,0.134284,-0.610866,0.780263
0.124901,-0.179164,-0.230880,0.882800,0.397121,-0.250917
0.213868,-0.214979,-0.518951,0.981479,0.156247,0.110841
0.201585,0.099398,0.960115,0.918902,0.084013,0.385437
0.426587,-0.234673,0.730253,-0.296421,0.781006,0.549695
-0.080703,0.123368,0.777238,-0.303526,-0.793482,0.527502
-0.154518,-0.195713,0.631089,-0.395681,-0.902961,0.167624
-0.563082,0.742995,0.366562,0.283656,0.677414,-0.678712
-0.052347,-0.890115,0.586296,-0.010197,-0.821145,0.570629
0.321894,0.058008,0.779849,0.231854,0.714098,0.660536
-0.092068,0.674779,0.429835,0.271040,0.549301,0.790447
0.292963,0.460008,0.769773,0.050905,-0.976142,-0.211082
0.796351,0.095113,0.663691,-0.782146,0.328478,0.529480
0.719207,-0.010626,0.526703,-0.435794,-0.743406,0.507376
0.576856,0.069575,0.385826,0.937821,-0.174660,-0.299975
-0.776719,-0.153618,0.221874,0.402510,0.408041,0.819444
0.359660,0.686764,0.296659,0.066932,0.771647,0.632519
0.212835,-0.670780,0.518455,0.113552,0.958285,-0.262289
0.802779,0.235535,0.458575,0.983515,0.054781,0.172329
0.059924,0.026617,0.699243,-0.757056,-0.488360,0.434016
0.417058,-0.413628,0.792091,0.740321,-0.491390,-0.458760
-0.233039,-0.203134,0.318690,0.391430,-0.662607,-0.638541
-0.029848,-0.365243,0.734560,0.897583,-0.185607,0.399868
0.246355,-0.212697,-0.120439,-0.042162,-0.979746,0.195756
-0.689703,0.765258,0.360350,-0.122533,-0.969311,-0.213124
-0.221331,0.099398,0.689950,0.018520,-0.974889,0.221922
0.185285,0.493403,0.588619,0.899419,-0.009062,0.436994
0.081736,0.090549,0.797781,0.780685,0.464489,0.418068
0.388818,-0.378945,0.777134,-0.457618,0.508850,0.729149
0.252555,-0.114806,0.802375,-0.162556,-0.965982,-0.201131
0.341866,-0.035031,0.471600,0.502043,0.393835,-0.769965
0.406499,0.185731,0.680788,-0.545748,-0.826867,-0.135833
-0.030308,-0.448015,0.372070,-0.321525,-0.033049,0.946324
0.520838,0.003641,0.560480,-0.175222,-0.934944,0.308509
0.145907,-0.563038,0.369851,0.559299,0.500142,0.661093
0.304559,-0.402070,0.340903,0.910440,-0.077298,0.406355
0.124901,-0.252371,-0.504777,0.778796,0.622300,0.078869
0.819424,-0.043733,0.526990,0.344365,-0.674884,0.652644
-0.469178,0.123516,0.251919,-0.131039,0.769583,-0.624957
-0.834692,-0.086690,0.500627,-0.495018,-0.788545,-0.364902
0.471129,-0.018334,0.786688,-0.355401,0.903549,-0.239350
-0.843989,-0.041163,0.474472,0.853882,0.052748,0.517786
-0.038572,-0.897536,0.574732,-0.585943,0.781439,0.214532
0.043049,-0.362683,0.309240,-0.036921,0.914251,0.403462
-0.392952,-0.335708,0.192378,0.960681,0.218216,0.171681
0.178397,0.484266,0.591516,0.572253,-0.609115,0.549095
-0.222133,-0.470277,0.294675,0.000517,-0.990839,0.135047
-0.107451,0.295469,0.501853,0.826577,-0.344952,0.444723
-0.846400,-0.495397,0.274576,0.278956,-0.958670,-0.055984
-0.129722,-0.366820,0.244114,-0.608598,0.485456,-0.627648
-0.056022,0.511528,0.427121,0.987369,0.068648,-0.142793
0.501895,0.329577,0.391725,0.361447,0.719579,0.592927
-0.290781,0.072999,-0.255077,-0.293736,-0.278614,-0.914382
-0.021927,-0.624400,0.349256,0.521250,0.812750,-0.260263
-0.303410,-0.190295,0.417985,-0.470788,0.839445,-0.271460
-0.660201,-0.121077,0.266640,0.898414,-0.259689,0.354138
0.122028,-0.183589,0.021222,-0.483408,0.842550,-0.237543
0.326830,-0.083267,0.757922,0.774511,-0.631314,-0.039695
-0.501205,-0.092822,0.477186,0.060325,0.177020,0.982357
0.118357,-0.234673,-0.531506,-0.679924,-0.693531,0.238155
-0.594075,0.656801,0.363299,-0.308394,-0.543135,0.780959
-0.179658,-0.138349,0.438319,-0.102053,0.068032,-0.992450
-0.015036,-0.601563,0.371026,-0.549985,-0.660210,0.511506
0.815178,0.338287,0.416706,0.852516,-0.469748,-0.229247
-0.456320,0.037888,0.452989,0.483646,0.462340,0.743188
0.295604,-0.275061,0.729261,-0.665372,-0.383352,0.640564
0.354380,0.212985,0.896293,-0.471229,0.867441,0.159651
