0.258490,-0.095623,0.500870,0.972946,0.039694,-0.227598
-0.494287,0.591861,0.591542,0.915712,0.400867,0.027872
-0.918085,0.513983,0.388370,-0.122324,-0.980658,0.152794
0.372667,-0.325674,0.630700,0.284790,0.045034,-0.957532
-0.174823,0.167385,0.585501,-0.623938,-0.709695,-0.327162
-0.259692,0.165122,0.917956,-0.395885,-0.507569,-0.765277
-0.346530,0.236357,0.807518,0.866516,0.050535,0.496585
-0.912835,0.701902,0.215479,0.833044,0.518290,0.193427
0.001477,-0.290583,-0.951594,0.207561,-0.018554,-0.978046
0.134575,-0.361421,0.581199,0.083498,0.986957,-0.137639
0.269535,0.093230,0.193526,0.261901,0.963206,-0.060341
0.511018,0.525014,0.068619,-0.569180,0.816510,-0.096672
-0.153606,-0.137616,0.360400,0.533017,-0.613523,-0.582651
0.379449,-0.161805,0.342126,0.499833,-0.794203,0.345554
-0.230818,0.631072,0.416563,0.994600,0.002856,-0.103746
-0.447040,-0.406870,0.335563,0.928766,0.178627,0.324785
0.035597,0.658449,0.026205,-0.325636,-0.463547,0.824067
0.251271,-0.075425,0.587092,-0.125351,0.920627,0.369775
-0.372561,0.463083,0.535354,0.561303,0.827465,-0.015513
0.295892,0.122066,0.667620,-0.385983,-0.243983,-0.889657
-0.505551,-0.411388,0.289096,0.082218,-0.971766,-0.221157
-0.374637,-0.251510,0.685769,-0.832087,0.138110,-0.537175
-0.128781,-0.898736,0.195639,0.976600,0.160037,0.143671
-0.489254,-0.144130,0.597907,0.458318,0.835481,-0.303176
-0.159183,0.334304,0.918080,0.269260,-0.408691,0.872050
0.038772,0.510130,0.599921,-0.318594,-0.746595,0.584032
-0.106358,-0.014159,0.674457,0.478766,0.763998,-0.432539
-0.581015,0.316629,0.421163,0.218677,0.805055,-0.551423
0.376278,-0.306798,0.637587,-0.188665,-0.407259,0.893614
-0.182042,-0.644229,0.177763,0.976318,0.176743,0.124764
-0.083502,-0.335902,0.684302,-0.696719,0.079400,0.712937
-0.758407,0.201673,0.363433,-0.211162,0.318189,0.924211
-0.417181,-0.339755,0.702029,-0.450252,0.642509,-0.620045
-0.401214,-0.030504,-0.145492,0.965432,0.082837,-0.247140
-0.243178,-0.469069,0.198349,0.912184,0.311985,0.265679
-0.691257,-0.492990,0.511188,0.008566,0.939299,0.342992
-0.111829,-0.068514,0.708791,-0.489179,0.430355,-0.758616
-0.706129,0.722108,0.478743,0.960257,0.265628,0.085724
-0.111719,0.332576,0.945552,-0.478086,-0.852467,0.211503
-0.210258,0.284735,0.700885,-0.488431,0.813596,0.315431
-0.118170,-0.288458,0.101686,0.949024,0.185854,0.254582
-0.251161,0.008302,0.652081,0.911149,-0.300550,-0.281916
-0.068630,-0.105194,0.825692,0.987812,-0.032974,-0.152117
-0.095204,0.103856,0.705559,0.502446,-0.139605,-0.853263
0.005632,0.352514,0.916812,-0.058002,-0.906177,0.418902
-0.920819,-0.201413,0.035379,-0.708639,0.676426,0.200695
-0.555533,0.211374,0.447367,0.978000,0.178822,-0.107422
-0.163559,0.350787,0.808513,-0.562090,0.635057,-0.529866
-0.193744,0.023584,0.808115,0.934870,0.186699,-0.301929
-0.350576,0.393177,-0.766595,0.975557,-0.195674,-0.100005
0.296766,-0.331919,-0.939362,-0.272678,0.002280,0.962103
-0.351233,0.111700,0.604744,-0.700643,0.453898,0.550522
0.669599,-0.055617,0.110909,-0.158786,-0.430009,0.888752
0.188931,0.333241,0.560315,0.320091,-0.940383,0.114987
-0.173622,0.114223,0.768137,0.961259,0.204060,0.185313
-0.484988,-0.294841,0.540351,0.317061,-0.849944,-0.420795
-0.609996,-0.065586,0.333996,0.760517,-0.606654,0.231483
-0.378248,-0.063599,0.644001,0.766177,-0.495472,-0.409244
-0.159620,0.702835,0.648551,0.727447,0.162951,0.666534
0.284627,-0.399959,0.585128,-0.655212,0.187420,0.731827
-0.385794,0.620965,0.666824,-0.389783,-0.668748,0.633124
-0.271067,-0.048048,0.628363,0.358347,-0.550548,-0.753979
-0.089517,0.942189,0.138556,0.229566,-0.960150,0.159408
-0.399245,-0.280622,-0.706728,-0.492855,0.826167,0.273025
-0.108328,-0.006980,0.361021,0.672695,0.345727,-0.654183
0.010445,0.926242,0.626349,-0.402105,0.891367,0.209228
-0.064144,-0.289261,0.346054,0.924926,0.258159,0.279045
-0.073877,0.167653,0.910323,0.538881,-0.016455,-0.842221
0.166292,0.768619,0.659266,0.752197,0.638885,0.161324
-0.440805,-0.301087,0.166377,-0.389082,0.678955,0.622604
-0.496363,-0.168188,0.583014,0.938829,-0.329073,0.101544
-0.229290,0.319290,0.681045,-0.185731,-0.799631,0.571047
-0.414338,0.648747,0.500423,-0.409187,-0.588476,-0.697324
0.235521,0.643694,0.595122,0.569845,0.816992,-0.088320
-0.299720,0.596785,0.658023,-0.323161,-0.607255,0.725816
-0.530050,-0.079010,0.350231,0.960501,0.277582,-0.019629
0.554327,-0.065318,0.395530,-0.209206,-0.949547,0.233653
-0.389729,-0.642899,0.226841,0.223897,0.192600,-0.955393
0.482255,-0.419499,0.469196,-0.468815,-0.119597,0.875162
-0.283316,0.520228,0.626796,0.994664,-0.103170,0.000233
-0.149450,0.325398,0.794839,0.714181,0.699930,0.006559
-0.261004,0.592924,0.699021,-0.152614,-0.390522,0.907856
0.061190,-0.018279,0.435781,0.756438,0.210264,-0.619347
-0.632855,0.646622,0.453235,0.888260,0.455640,-0.058186
0.045550,0.741778,0.253866,0.283729,0.408584,-0.867500
0.353639,0.107449,0.427527,0.077394,-0.987933,0.134159
-0.003446,0.155558,0.578514,-0.065904,0.443384,0.893905
-0.027617,0.076349,0.815052,0.769621,0.573186,-0.281321
0.120576,-0.658984,0.341331,-0.672817,-0.031900,0.739121
0.109422,0.805835,0.562553,0.921506,0.374128,-0.104192
-0.317003,0.564752,-0.689548,0.900814,0.329619,0.282640
-0.862744,0.180007,0.527249,0.401966,0.648310,0.646620
0.507190,-0.033821,0.457983,0.056586,-0.700766,0.711143
0.032754,0.736189,0.606086,0.303591,0.262325,0.915979
-0.191011,0.594651,0.574934,-0.392769,-0.701351,0.594844
-0.633947,0.030633,0.260057,0.325378,-0.886129,0.330008
-0.457647,0.483816,0.549227,0.280962,0.537001,0.795418
0.271504,0.024249,0.337129,0.239865,0.927438,-0.286920
-0.301362,0.330451,0.400801,0.643945,-0.483011,-0.593325
-0.567344,0.810880,0.575407,0.829469,0.541792,-0.135799
0.068189,0.215892,0.131843,0.256846,-0.899589,-0.353227
-0.052553,0.249652,0.295709,0.421060,0.897797,0.129105
-0.260567,0.765302,0.463254,0.770673,-0.528534,0.355969
-0.576312,-0.189449,0.622719,0.287222,-0.310372,0.906186
-0.080111,0.101333,0.898861,0.957736,-0.287559,0.007179
-0.288019,0.116486,-0.749515,0.984791,-0.083453,0.152389
0.033411,-0.254171,0.549600,0.945037,0.313830,0.091738
-0.208510,0.112633,0.641341,-0.002807,-0.988806,0.149182
-0.499754,0.085118,0.601760,0.523676,-0.279726,0.804684
0.214851,0.478900,-0.263065,0.787450,-0.434859,0.436829
-0.959752,-0.240884,0.293571,-0.332240,0.915258,-0.227859
-0.161373,0.213231,-0.461538,0.851811,-0.522579,-0.036457
0.180400,0.663632,0.576650,0.867628,-0.063350,-0.493161
-0.125062,0.098673,-0.936776,-0.489147,0.299645,-0.819114
-0.528734,0.877200,0.555641,0.840945,0.482425,-0.245106
0.393010,0.048170,0.457138,0.057718,0.761168,0.645981
-0.449663,0.312776,0.617150,-0.042262,0.892216,0.449627
0.145512,-0.531130,0.640247,0.979545,0.007647,-0.201079
-0.396622,-0.277029,0.689399,0.988057,0.073691,0.135329
-0.093565,0.517973,0.614838,0.733006,-0.512315,0.447477
-0.319626,0.127914,0.488464,0.405369,0.892122,-0.199488
-0.465851,0.268787,0.662324,0.803673,-0.112618,0.584317
-0.110734,0.532858,0.800731,0.242331,-0.958214,0.151992
-0.622792,0.643029,0.331958,0.323157,0.920484,-0.219723
-0.156887,0.347461,0.687509,0.537558,0.533328,-0.653141
0.594028,-0.072764,0.459823,-0.179055,-0.364816,0.913700
-0.090722,0.256158,0.950127,0.235565,-0.355254,0.904601
0.075298,0.261746,0.845358,0.758045,0.232028,-0.609533
0.304313,0.405540,0.684302,0.332412,0.822378,-0.461732
0.044022,0.315039,0.691835,-0.468958,0.299169,-0.831009
-0.814074,0.748949,0.156258,0.283244,0.920191,-0.270224
0.559250,-0.125392,0.281562,-0.266921,0.397573,0.877889
-0.561657,-0.479038,0.596987,0.292293,0.568991,0.768644
-0.103955,-0.069439,0.342250,0.453703,-0.334873,0.825841
-0.450431,0.122196,0.576028,-0.015030,-0.999066,0.040513
-0.423633,-0.104927,0.559470,0.975570,-0.156753,-0.153919
-0.345873,0.231312,0.827507,0.998721,0.014982,0.048285
-0.240881,0.227986,-0.852220,-0.468155,-0.864854,0.181269
-0.447914,-0.369265,0.361568,0.956002,-0.225447,-0.187707
-0.146059,0.826965,0.239322,-0.267051,0.646586,0.714570
-0.777438,-0.097886,0.362787,-0.007147,-0.959761,0.280727
-0.250287,0.100668,-0.428198,-0.124373,-0.987835,-0.093341
0.082955,-0.499373,0.563001,0.175247,0.934732,-0.309135
-0.105047,-0.925715,-0.945204,0.442023,-0.149876,-0.884394
-0.715645,0.601165,0.116777,-0.492503,-0.576645,0.651860
-0.104393,0.331116,0.962508,-0.011572,0.070167,0.997468
0.129108,-0.445684,0.645070,0.861767,0.108214,-0.495628
0.042379,-0.033691,0.727960,0.529186,0.761322,-0.374633
-0.541531,0.303075,0.767267,0.694215,-0.420416,-0.584223
-0.519660,0.546680,0.240714,-0.070108,-0.615143,0.785292
0.756767,-0.096555,0.467928,0.341575,0.863582,-0.370882
-0.514737,-0.331522,0.568619,0.092024,0.195564,0.976364
-0.370812,0.193967,0.557605,0.061981,0.584631,0.808928
0.147918,0.019869,0.187261,-0.285080,-0.944284,0.164489
-0.555859,0.222674,0.622520,0.751867,-0.639952,0.158610
-0.029146,0.014021,0.723187,-0.543799,-0.835393,-0.080007
-0.581779,-0.512790,0.487942,-0.315496,-0.926364,0.205701
0.195056,0.384806,0.545174,-0.678200,0.692180,-0.246844
-0.234540,-0.218691,0.764482,0.328264,0.891330,0.312689
-0.256194,0.074622,0.412461,-0.512739,0.822404,-0.246476
-0.352218,0.306133,0.714659,0.257590,0.582873,0.770653
-0.750312,0.323272,0.341704,0.883279,0.053720,-0.465760
0.571389,0.038736,0.061036,-0.102483,-0.990376,0.093022
-0.066551,0.379355,0.691761,0.835923,0.537504,-0.111001
-0.468804,0.073162,0.603774,0.638160,-0.197424,0.744161
0.471975,-0.063193,0.294167,-0.187197,-0.974798,-0.121353
-0.116311,0.698187,0.260877,-0.142642,0.294821,0.944846
-0.097173,0.174296,0.568594,-0.443635,0.471388,-0.762221
-0.584296,0.555051,0.177689,0.436673,0.868832,-0.233342
-0.495378,0.155558,0.413306,0.926289,0.348018,0.144475
-0.126811,0.268519,0.910795,0.272926,-0.122402,-0.954217
-0.270519,-0.257626,-0.967108,0.252750,-0.171030,-0.952295
-0.275880,0.224133,0.902889,0.987729,0.143661,-0.061267
-0.145075,0.356765,-0.499925,0.986186,-0.142131,-0.085067
-0.133046,0.479565,0.037492,0.815664,-0.174884,-0.551460
0.002678,0.165787,0.562105,-0.655634,0.677029,0.334328
-0.204571,0.518768,0.700811,0.928939,0.217454,-0.299644
0.289440,0.147715,-0.356944,0.016724,-0.397186,0.917586
-0.071911,0.213102,0.504923,-0.111798,0.526731,0.842648
-0.407339,-0.290583,0.525409,0.946565,-0.292497,0.135871
-0.464756,0.105721,0.595296,-0.684840,0.189750,-0.703555
-0.454038,0.222674,0.667868,-0.713708,-0.554635,-0.427787
0.031225,-0.416044,0.620108,0.996520,0.053866,-0.063607
-0.090939,-0.013096,0.834021,0.977158,0.194055,-0.086626
-0.536281,0.499901,0.452588,-0.441346,-0.574114,0.689643
-0.362170,0.087909,0.685819,0.434253,-0.582385,0.687206
0.365778,-0.327264,0.635523,0.273512,0.036784,-0.961165
-0.274568,0.049371,0.310626,0.834293,-0.207931,0.510608
0.350465,-0.090042,0.470762,-0.470985,-0.231373,-0.851258
-0.368295,0.522362,0.531798,-0.225179,0.103689,0.968784
0.256301,-0.283810,0.428373,0.296023,0.916580,0.268795
-0.390167,0.324870,0.824549,0.857815,0.132890,0.496481
-0.136217,-0.635193,0.405226,-0.680870,0.196636,0.705514
-0.487722,0.363806,0.413505,-0.188141,-0.975576,0.113373
-0.423743,0.523684,0.676769,-0.870444,0.312714,-0.380181
0.491002,-0.213240,0.489707,0.984866,0.127732,-0.117145
-0.507521,0.707750,0.513276,0.563201,0.788844,0.246029
-0.015148,0.299749,0.477624,-0.710040,0.117237,-0.694333
0.144200,0.722108,0.561907,0.905261,0.375888,-0.198016
-0.187947,-0.692476,0.103550,0.207430,0.855010,0.475322
0.042816,-0.140942,0.570186,0.501756,-0.785424,-0.362423
-0.873351,0.819657,0.182040,-0.528031,-0.849086,-0.015359
-0.399135,0.248849,0.441624,-0.366108,-0.911959,-0.185191
0.158091,0.742176,0.454329,0.922609,0.158483,-0.351675
-0.492535,-0.411526,0.514495,-0.716233,0.569586,0.403214
-0.890413,0.723170,0.242106,0.508992,0.056245,-0.858932
-0.015368,0.194762,0.671921,0.492822,0.710144,0.502814
0.679772,-0.066121,0.091542,0.289983,0.658917,0.694074
-0.217805,0.723300,0.475909,0.944531,-0.327647,-0.022527
-0.464539,0.170841,0.379444,-0.052629,0.491013,0.869561
0.246785,0.627478,0.532619,0.739245,0.657259,-0.146725
-0.347188,-0.462296,0.223286,0.770245,0.616720,-0.162415
0.030568,-0.169916,0.678410,-0.728230,0.564161,0.389106
0.076283,0.400226,0.930660,0.936312,-0.002898,0.351159
-0.183464,0.286990,0.537418,0.771164,0.575268,-0.272713
-0.030131,0.220808,0.656059,0.023298,0.721618,0.691899
0.175698,0.011896,0.183084,0.269734,0.903275,-0.333673
-0.551594,0.122196,-0.992044,0.207261,-0.127920,-0.969886
0.105811,0.087909,0.942867,0.487690,-0.761054,0.427732
-0.156780,-0.128320,0.357043,0.486766,-0.576944,-0.655893
-0.721112,0.032361,0.622794,0.114341,-0.761344,0.638186
-0.163669,-0.222008,0.369847,0.284961,0.536470,0.794353
0.442117,0.176689,-0.122495,0.116823,0.878214,-0.463781
-0.681958,0.584820,0.146388,-0.576156,-0.673835,0.462591
-0.582981,-0.037682,0.258267,-0.600133,0.544765,-0.585723
-0.631870,0.562359,0.439635,0.789332,0.536546,-0.298452
-0.169793,0.014548,0.717742,0.390232,-0.862089,-0.323299
-0.491880,0.745096,0.563821,0.745902,0.665978,0.010177
-0.563623,0.174158,0.367112,-0.629441,-0.331258,0.702902
-0.237383,-0.629742,-0.585575,0.731729,-0.470046,0.493588
0.122108,-0.616983,0.309855,0.679583,0.727835,-0.091778
-0.668618,0.703232,0.225374,0.801292,-0.278949,0.529263
-0.349264,0.269720,0.623490,-0.327582,0.470550,0.819312
-0.653194,0.343608,0.329695,-0.175263,-0.965760,-0.191284
0.178324,-0.164197,0.595943,-0.395296,0.782747,0.480675
0.701864,-0.023722,0.045746,-0.520886,-0.850158,-0.076872
0.117843,-0.388935,0.586992,0.806229,-0.372560,0.459558
0.147044,0.202605,0.863234,0.754517,0.572434,-0.320972
-0.390497,0.289123,0.824101,0.750314,0.484130,0.450163
-0.515721,-0.475185,0.379121,0.363709,-0.925377,0.106737
0.395306,-0.408736,0.466486,-0.278039,-0.335082,0.900230
0.092360,0.208584,0.714037,-0.020106,0.815711,0.578110
-0.095531,-0.008172,0.424917,0.434759,0.132304,0.890775
-0.317657,-0.044455,0.436900,0.959263,-0.282018,-0.016776
-0.181058,0.303740,0.607578,0.947591,-0.110567,0.299744
-0.182152,0.188783,0.962110,0.122324,0.211817,0.969624
-0.618306,-0.365006,0.518199,0.685893,-0.724148,0.071835
-0.595777,-0.341483,0.622520,0.848193,-0.405535,0.340750
-0.076720,0.347996,0.821914,-0.149069,0.084895,0.985176
-0.158202,-0.826040,0.407066,0.500618,-0.796175,-0.339834
-0.558156,0.207919,0.740838,-0.769853,0.454851,-0.447701
0.060206,-0.380556,0.641589,0.865258,0.469266,-0.176401
-0.428993,-0.312249,0.454304,-0.417284,0.840129,0.346493
0.038661,0.192369,0.720949,-0.639947,-0.375953,0.670169
0.093782,0.316629,0.068022,-0.365653,0.925115,0.102280
-0.197572,0.727291,0.718040,0.014984,-0.921121,0.388988
-0.648055,-0.299222,0.636120,0.887337,-0.311266,0.340217
-0.402416,-0.631607,0.012332,0.876515,-0.069952,0.476266
0.013836,0.597710,0.840461,-0.018957,0.998592,0.049540
-0.368185,0.363408,0.827209,0.978647,0.098136,0.180610
-0.449226,0.060135,0.423624,0.276174,-0.178854,0.944319
-0.184339,0.780981,0.712968,0.259375,-0.837379,0.481166
-0.024990,0.543354,0.825295,0.611459,-0.597006,-0.519328
-0.343687,0.297494,0.403038,-0.142072,0.971064,0.191966
0.312190,-0.085921,0.362215,0.712360,0.308610,-0.630319
-0.217478,0.267060,0.953608,-0.741241,0.585719,-0.327865
0.222618,0.271042,0.358809,-0.696632,0.302909,-0.650346
-0.074097,0.446867,0.678634,0.790240,0.395133,0.468392
-0.528191,0.616585,0.528989,0.804336,0.211369,-0.555307
-0.273253,0.072627,0.565860,0.580504,-0.208075,-0.787223
-0.473944,0.669480,0.196460,0.944062,-0.329277,-0.017984
0.069064,-0.447808,-0.241137,-0.439974,-0.333094,0.833949
-0.273583,0.401816,0.189623,0.387576,0.775078,0.499037
-0.465740,-0.353983,0.398662,0.395686,-0.260093,0.880786
-0.566467,0.316629,0.686764,0.857128,-0.502057,0.115202
-0.471538,0.236357,0.410025,-0.276598,-0.793668,0.541835
-0.205993,0.116347,0.621824,-0.742380,0.669929,0.008155
-0.587794,-0.473854,0.361543,0.079015,-0.887191,0.454586
-0.543390,-0.387735,0.328676,0.783031,0.093400,-0.614931
0.089737,0.212039,0.672791,0.933827,-0.068813,-0.351043
-0.574123,-0.347071,0.585774,-0.243063,-0.929171,-0.278499
-0.224150,0.179747,0.959649,0.070105,0.220837,0.972788
-0.658444,0.452189,0.063771,-0.327496,-0.910306,-0.253158
0.298188,-0.389592,-0.937497,0.340769,-0.059473,-0.938264
-0.479194,-0.306668,0.702576,0.425841,-0.602364,-0.675143
-0.204134,-0.019204,0.419422,0.475956,0.084587,-0.875392
-0.899164,-0.006583,0.396450,0.250124,0.708975,0.659388
0.753266,-0.186529,0.355328,-0.343250,0.873330,-0.345651
0.463444,-0.343478,0.077197,-0.480557,0.441996,0.757433
0.137855,0.194226,0.844264,0.731305,0.443800,-0.517914
-0.046865,-0.656859,0.407016,0.798039,0.268987,0.539240
-0.387980,-0.650743,0.018100,0.876515,-0.069952,0.476266
-0.875650,0.472119,0.338099,-0.168898,-0.976339,0.135042
0.343029,-0.278756,0.599150,0.901548,0.430835,-0.039908
-0.869306,0.027308,-0.376237,0.065059,0.246918,0.966850
0.063924,0.356367,0.725598,-0.002838,0.397461,0.917615
-0.107564,-0.549876,0.397171,0.353415,0.641305,0.681047
0.652103,-0.422160,0.088012,0.644736,0.662588,-0.381173
0.214741,-0.153304,0.685123,-0.383809,0.888921,0.250019
-0.719146,0.655520,0.321615,-0.394957,-0.808845,0.435635
0.263300,-0.006315,0.193725,0.407006,0.912707,-0.036222
0.287581,-0.065854,0.246457,-0.460128,-0.873274,0.160232
-0.234429,0.694861,0.118567,0.023700,-0.273865,0.961476
-0.162357,0.228254,-0.961613,0.199098,0.539546,0.818077
-0.807950,0.241411,0.314803,0.913154,0.385734,0.131753
-0.067862,-0.107717,0.060589,0.159432,-0.600878,0.783279
-0.035491,0.261341,0.935781,-0.644271,0.397773,-0.653216
-0.278286,0.297226,0.659912,0.281140,-0.944151,-0.171869
-0.858806,0.499763,0.474143,-0.504938,-0.861778,0.048751
-0.568219,0.261081,0.658048,0.405451,-0.802034,0.438579
-0.467162,0.225723,0.748446,0.175287,-0.560140,0.809641
0.031442,-0.510405,0.336035,0.666579,0.235813,-0.707153
-0.102534,-0.391985,0.670926,0.156806,0.912418,0.378029
0.308578,0.559301,0.490503,0.331751,-0.890277,-0.312008
0.004100,0.372712,0.758366,-0.262418,0.587148,-0.765764
-0.200964,-0.260416,-0.960693,0.374854,-0.067483,-0.924625
0.667413,-0.422955,0.087117,0.644736,0.662588,-0.381173
0.153606,0.277158,-0.330739,0.006369,-0.369777,0.929099
-0.124078,0.940859,0.574785,0.137461,0.858094,-0.494751
-0.085251,0.714264,0.623067,0.996237,0.023395,0.083449
0.109532,0.016543,0.653921,0.837895,0.442102,-0.320121
-0.450320,-0.327401,0.714659,-0.403534,0.904961,0.134932
0.130309,-0.027575,0.654667,0.118594,0.432611,0.893747
-0.126047,0.210709,0.630476,0.776663,-0.166435,-0.607531
-0.241866,0.255095,-0.794416,0.896622,0.441203,0.037531
0.118280,0.051496,0.246159,-0.135115,-0.977802,0.160144
-0.870180,0.482485,0.472776,0.877465,0.433250,0.205790
0.186307,0.530335,0.320720,0.593999,0.788163,0.161131
-0.216383,-0.729952,0.260529,0.829308,0.090021,0.551493
0.397059,-0.392123,0.641937,0.276726,0.483444,0.830485
-0.068520,-0.793343,0.377356,-0.695128,0.431823,0.574740
-0.341280,0.733139,-0.335463,-0.333612,-0.368488,0.867709
-0.238912,0.686223,0.258466,0.092687,-0.499325,0.861443
-0.273036,0.191306,0.524763,0.953932,0.298612,-0.029046
-0.251598,-0.728751,0.256104,-0.590510,-0.195514,-0.782990
-0.179088,0.955874,0.459376,0.479915,-0.668884,0.567693
-0.626837,-0.469069,0.128711,0.391727,0.913310,0.111422
-0.683710,-0.468801,0.519417,-0.391780,0.853238,0.344229
-0.340626,-0.028241,0.654940,-0.721862,0.577682,-0.381048
0.130092,-0.365144,-0.589628,0.116599,-0.627702,0.769672
-0.481597,0.593329,0.490851,0.618729,0.747660,-0.241204
-0.195603,0.074354,-0.940605,-0.412917,0.389396,-0.823329
-0.334719,0.587611,0.853762,0.993151,-0.101795,-0.057344
-0.459505,0.244331,0.413505,-0.021981,-0.690568,0.722933
-0.305408,0.336827,0.804087,-0.260705,-0.791259,-0.553120
0.104062,0.925707,0.795808,0.921035,0.216729,0.323608
-0.619511,-0.196895,0.648501,0.369074,0.608346,0.702637
0.033084,0.153295,0.661031,0.307471,0.346718,0.886143
0.302454,-0.321553,-0.936826,-0.272678,0.002280,0.962103
-0.084924,0.328058,0.247452,-0.369822,-0.552903,-0.746680
0.645431,-0.105989,0.457163,-0.468380,0.852696,0.231364
-0.315143,0.034616,0.620183,0.352834,-0.671123,-0.651999
-0.218462,0.324473,0.570733,0.584345,0.226435,-0.779274
-0.169793,0.417099,0.929442,0.755914,0.352125,0.551908
-0.480506,0.464810,0.580478,-0.496633,-0.825612,0.267807
-0.585280,0.114360,0.497738,0.519211,0.750083,0.409628
-0.502377,-0.411258,0.467729,0.121059,0.622522,0.773183
0.121781,-0.542032,0.651012,-0.735912,0.473388,0.484084
-0.393668,-0.241014,0.254910,-0.057076,0.489583,0.870087
-0.017554,-0.055487,0.124111,-0.387069,0.919836,-0.063863
0.384699,-0.198355,0.451196,-0.368018,0.826502,0.425977
0.303986,0.491392,0.556835,0.949239,0.232618,-0.211742
-0.059769,0.176421,0.705907,-0.340414,0.248342,0.906887
0.027614,0.385342,0.731242,0.283360,0.119211,-0.951575
-0.611091,0.025053,0.370046,0.400896,-0.294686,0.867434
-0.367748,0.370319,0.571826,-0.146108,-0.810199,0.567654
-0.098375,0.679311,0.585650,0.878078,-0.414152,-0.239702
-0.045550,-0.035687,0.690170,0.506776,0.785650,-0.354869
-0.564390,0.542024,0.451867,-0.494995,-0.556953,0.666920
0.083392,-0.079010,0.841306,0.740730,0.488711,-0.460955
-0.491771,0.676521,0.245438,0.428238,0.297656,0.853237
-0.575982,-0.352912,0.498384,-0.621607,0.614768,0.485453
0.125169,-0.483686,0.562777,0.142081,-0.501981,0.853128
-0.147371,0.208316,0.863333,0.741459,0.660746,0.116845
0.340516,-0.305606,0.466138,0.951751,0.303768,-0.043537
0.024116,-0.337630,0.686714,0.346848,0.907462,0.237084
-0.106252,-0.780722,0.384615,-0.422795,0.372487,0.826134
-0.083502,0.466140,0.663095,0.911219,-0.346179,-0.223248
0.768686,-0.100676,0.471384,0.414216,0.713163,0.565529
-0.750970,0.085783,0.639899,-0.888833,0.300157,-0.346239
-0.483677,-0.179617,0.441823,-0.669648,0.582019,0.461331
-0.102534,0.959864,0.567799,-0.255811,0.815831,-0.518633
0.407118,-0.087251,0.259908,0.263524,0.941333,0.210824
0.054518,-0.124994,0.536373,-0.222786,0.367685,0.902870
-0.372123,-0.162607,0.677639,0.625590,-0.739445,-0.248714
-0.331111,0.300285,0.537069,-0.548940,0.671785,-0.497363
-0.612075,0.529929,0.105887,0.222400,0.741133,-0.633450
0.168261,-0.097083,0.077719,-0.184132,-0.265492,0.946366
-0.899381,0.371650,0.116454,-0.101446,-0.694388,0.712415
0.379339,0.405142,0.544279,0.113338,-0.977199,0.179547
-0.337999,-0.036620,0.677018,-0.844851,0.447422,0.293326
-0.440585,0.765829,0.494456,-0.644498,-0.472004,-0.601527
-0.138186,0.396771,0.424047,0.108025,-0.388837,0.914952
-0.500411,-0.716397,0.371463,-0.671122,-0.186223,-0.717577
-0.193307,0.255630,-0.184402,-0.080971,0.704188,-0.705381
-0.065456,0.410593,0.140645,-0.762414,-0.468980,0.445850
0.108327,-0.431058,0.600492,-0.131420,-0.963196,0.234483
-0.487722,-0.270783,0.386952,-0.739522,-0.152895,-0.655538
-0.828840,-0.204869,0.285888,-0.099903,0.977524,-0.185650
-0.181715,-0.735135,0.361867,0.994950,0.045051,0.089690
0.430415,-0.004985,0.454975,0.598259,0.712878,0.365912
0.243178,-0.059340,0.488887,0.323227,0.938973,0.117704
-0.689615,0.238620,0.106857,0.419933,-0.077519,0.904238
-0.101766,-0.039669,0.738825,-0.199967,0.816263,0.541967
-0.652868,0.652867,0.324201,-0.124445,-0.975301,0.182485
-0.250397,0.547612,-0.003356,0.701068,-0.284821,-0.653743
-0.781266,0.210839,0.121103,0.824293,0.017570,0.565890
-0.657353,0.112097,0.615807,0.230370,0.887161,0.399844
-0.285722,0.278756,0.206529,0.969604,0.227400,0.090324
-0.188057,-0.817402,-0.953309,-0.302555,0.101578,0.947704
0.118938,-0.199418,0.727488,0.911901,0.372544,0.172187
-0.422979,-0.298029,0.704490,-0.369631,0.212096,-0.904648
0.238802,-0.561702,-0.936328,-0.103836,0.242005,0.964703
0.054628,0.891022,0.773930,0.986182,0.065143,0.152318
-0.257396,-0.353715,-0.207573,0.965140,-0.257498,0.046905
-0.261224,0.077680,0.439759,0.280266,-0.955041,0.096682
-0.556517,-0.350657,0.491000,0.400929,-0.716619,-0.570713
-0.077815,0.038209,0.373328,0.612467,0.674347,-0.412480
0.065783,-0.237161,0.545274,-0.001863,0.073811,0.997270
-0.231149,0.478900,0.853041,0.927969,0.358611,0.101351
0.370808,-0.261349,0.458804,-0.349284,0.688542,0.635540
0.006180,-0.060540,0.072846,-0.211721,-0.685505,0.696604
0.389181,0.521558,0.018721,-0.365860,0.922424,-0.123609
-0.798107,-0.096555,0.343643,-0.143550,-0.941510,-0.304880
0.188277,0.347599,0.072324,-0.390410,0.893559,-0.221659
-0.068410,0.060403,0.749913,0.921403,0.329132,0.206614
-0.465413,-0.251250,0.530232,-0.152382,0.845885,0.511134
-0.075409,0.167782,0.841654,-0.580122,-0.544855,-0.605468
-0.225461,0.392253,0.563348,-0.145022,0.591486,-0.793167
-0.039756,0.108374,0.952638,-0.108502,0.977460,-0.181108
0.014053,-0.117548,-0.942817,0.269044,0.086935,-0.959196
0.424290,0.430661,0.508205,-0.584606,0.797290,-0.150217
-0.667523,0.362216,0.445105,-0.165392,0.867722,-0.468727
-0.756330,0.745493,0.457088,0.555903,-0.141559,0.819105
0.047957,0.360220,0.928248,0.819003,-0.563024,0.110623
-0.199432,0.257885,0.628661,0.506163,0.765683,-0.396899
0.115216,0.342943,0.725548,-0.091723,0.602384,0.792919
0.070816,0.264269,0.620009,0.948993,0.078841,-0.305281
-0.184886,0.164992,0.671821,0.895878,-0.304624,-0.323429
-0.814074,0.793602,0.184327,-0.604429,-0.793663,-0.069024
-0.610653,-0.120079,0.591865,0.726346,0.655273,0.207456
-0.734129,0.240478,0.343966,0.916229,0.355920,0.183969
-0.212992,0.157287,0.899557,0.761852,0.360149,0.538399
-0.229179,0.157546,-0.717294,0.964964,-0.247616,0.086776
-0.670150,0.454046,0.064964,-0.277544,-0.936411,-0.214720
0.767484,-0.128718,0.289145,-0.036144,-0.999078,-0.023151
0.164323,0.100141,0.335041,0.140192,0.989349,0.039179
0.587466,-0.569408,0.460072,-0.412568,0.140704,-0.899995
0.571499,-0.095752,0.081498,-0.498761,0.193626,0.844835
0.327389,0.448863,0.704490,0.408826,0.908367,-0.087920
-0.158309,0.044455,0.809831,0.589750,-0.411752,-0.694734
0.162794,-0.171246,0.670752,0.274355,0.869578,-0.410564
0.107016,-0.670145,-0.935110,0.398938,-0.176920,-0.899749
-0.321705,0.455247,0.583263,-0.268599,-0.652384,0.708695
-0.103735,0.519701,0.562628,0.157601,-0.985556,0.061984
0.010882,0.549998,0.649098,-0.583197,-0.259019,-0.769929
-0.059769,-0.500963,0.380165,0.844228,0.276179,0.459353
0.055613,0.642233,0.620705,0.723606,0.551034,0.415639
0.458410,-0.352117,0.081125,0.304321,0.356127,-0.883494
0.153606,-0.330054,-0.593307,0.065129,-0.591631,0.803574
-0.395964,0.508272,0.046542,-0.426092,0.386513,-0.817957
-0.846994,0.421089,0.372905,0.389278,0.825062,0.409555
0.017991,-0.121669,0.745512,0.911844,0.409239,0.032609
-0.136437,0.261479,0.813063,-0.201813,0.925965,0.319155
-0.742002,0.314504,0.332977,0.137717,0.932410,0.334136
0.086236,-0.349457,0.548133,0.842827,0.529515,0.096209
-0.101549,0.207254,0.915494,0.716839,0.653453,0.243187
-0.043691,0.352644,0.969992,-0.338189,0.691122,0.638732
-0.172964,-0.343746,-0.945751,-0.217235,0.013941,0.976020
-0.010555,0.303205,0.896723,0.013914,-0.819726,0.572587
-0.072017,-0.114498,0.606235,0.528283,0.780560,0.334131
0.044348,0.409125,0.366814,0.583718,0.537193,0.608848
0.391371,-0.172568,0.518920,0.564334,0.817178,-0.117251
-0.367311,0.468136,-0.324549,0.971048,0.188451,-0.146805
0.073549,-0.279154,0.675054,0.552224,-0.528258,-0.644975
0.033848,0.436371,0.801800,-0.563236,-0.159096,-0.810836
-0.726909,0.379096,0.108299,-0.397176,-0.798399,-0.452560
0.212445,-0.154634,-0.568669,0.054573,-0.685604,0.725926
0.129218,0.401816,0.748571,-0.739406,0.050677,-0.671349
-0.665006,0.889821,0.582716,0.704982,0.639288,0.307102
0.024443,-0.226794,0.582741,-0.422494,-0.853376,-0.305367
-0.774594,0.332308,0.317737,-0.726304,0.687209,0.015051
0.042816,-0.057880,0.826115,0.832636,0.537722,-0.132561
-0.686334,0.014288,0.279747,-0.557891,0.780874,-0.281057
-0.390276,0.280346,0.362762,-0.454075,0.669224,-0.588180
-0.584403,0.108909,0.495177,0.519211,0.750083,0.409628
-0.288019,-0.298695,-0.336756,-0.282128,0.504006,0.816322
-0.513425,0.315169,0.542191,0.677445,-0.369883,0.635810
0.515721,0.548675,0.529138,-0.692757,0.716756,0.079683
0.250176,-0.275966,0.450972,0.550582,0.833313,0.049482
-0.165091,-0.069576,0.333300,0.348423,-0.286765,0.892394
-0.032100,0.113963,0.636642,-0.611828,-0.778041,0.142545
-0.004648,0.179082,0.948362,-0.392157,0.374855,0.840058
-0.360421,0.629207,0.671274,0.345266,0.888880,-0.301137
-0.121999,0.294971,0.743548,0.993399,0.091745,0.068857
0.121124,-0.523821,0.650515,-0.733290,0.417797,0.536406
-0.037240,0.310651,0.675924,0.885196,-0.051463,0.462362
-0.882977,-0.053630,0.403511,0.064000,0.908233,0.413541
-0.151310,0.115690,0.908011,0.206239,0.676448,-0.707025
-0.059004,0.116753,0.102804,0.915607,-0.038096,-0.400265
-0.421884,0.846895,0.473025,0.629854,0.759090,0.164520
0.205666,-0.148380,0.685844,-0.703678,0.382439,0.598814
-0.395089,0.373377,0.773507,-0.752058,0.264245,0.603808
-0.838136,0.570731,0.250783,0.890615,-0.294544,-0.346480
0.035928,-0.081930,-0.946547,-0.240792,-0.056333,0.968941
-0.096846,0.184127,0.861270,0.666048,0.729388,0.156118
-0.118170,0.072359,0.505619,0.824011,0.543403,-0.160368
-0.058130,0.525411,0.821715,-0.742639,0.618715,0.256282
-0.291300,0.294834,0.433096,0.399142,-0.843627,0.359136
-0.198994,0.256823,-0.736487,0.954351,-0.294333,-0.050810
0.185323,-0.607946,-0.937571,-0.264316,0.391186,0.881539
0.494066,0.189449,0.141987,0.349394,0.923965,0.155604
-0.025538,0.522094,0.855751,-0.074616,0.765413,0.639199
-0.132278,0.255760,0.856820,0.608324,0.750154,0.259251
-0.456555,0.785231,0.489011,0.714854,0.496537,0.492376
-0.028492,-0.046986,0.339789,-0.723953,0.658581,-0.205337
-0.151637,0.724760,0.261921,-0.485106,0.226708,-0.844557
-0.513645,0.563560,0.600542,0.471156,0.073368,-0.878993
-0.042053,0.273305,0.930735,-0.727663,0.640411,-0.245724
-0.363265,0.458434,0.489483,0.867937,0.452720,-0.204281
0.275222,-0.174702,0.442171,0.618951,0.619154,-0.483268
-0.387106,0.270117,0.452638,0.045052,0.987898,0.148417
0.039973,-0.126990,0.594774,-0.477188,0.278835,0.833392
-0.789686,0.087381,0.663045,-0.289928,-0.848184,-0.443312
-0.333080,0.639305,0.564716,0.204072,0.442226,0.873379
-0.253678,0.324076,0.920864,-0.035161,-0.792635,0.608682
-0.951221,-0.108382,0.157949,-0.696341,0.674068,-0.246459
0.168482,0.012423,0.146785,-0.681608,0.544936,-0.488320
-0.832779,0.084988,0.657650,-0.364262,-0.929649,-0.055379
0.027834,0.374707,-0.531177,-0.280217,0.959911,0.007025
-0.425055,-0.454314,0.110263,-0.145226,0.398221,0.905720
-0.060643,0.149313,0.994356,0.895262,-0.155645,0.417469
0.020067,-0.307731,0.697330,0.735906,0.154327,-0.659261
0.227427,0.066778,0.296181,0.522758,0.789328,0.322004
-0.584076,0.671070,0.340709,-0.807625,-0.148216,0.570766
0.076940,-0.025320,0.129332,0.263455,0.953405,0.147002
-0.179419,0.192904,0.661902,0.970024,0.031171,0.241001
-0.067208,0.933810,0.341480,0.442130,-0.885222,0.144577
-0.741785,0.097213,0.646015,0.869119,0.249403,0.427120
0.130529,-0.389195,-0.946174,-0.159878,0.036859,0.986448
-0.221960,0.499633,0.654642,-0.080144,-0.106018,0.991129
0.491113,-0.471997,0.469171,-0.239030,-0.198741,0.950456
0.057582,0.280614,0.686490,-0.305724,-0.912064,0.273261
0.244710,-0.097618,0.673984,0.362722,0.920668,-0.144233
-0.526985,-0.165658,0.606981,0.954288,0.016504,0.298434
-0.068957,-0.833876,0.430710,-0.530596,0.658345,0.533901
-0.192212,-0.561970,-0.073592,0.954358,0.044328,0.295357
-0.285612,0.321415,0.495749,0.860698,0.230719,-0.453837
0.289550,0.048973,0.461737,-0.070530,0.881475,0.466935
0.304096,-0.206329,0.503754,0.625106,0.564567,-0.538987
-0.130529,-0.411923,0.386505,0.085957,0.170026,0.981683
-0.210041,-0.031436,0.243051,0.328291,0.752353,0.571130
0.051347,0.522223,0.800333,-0.479261,0.741091,-0.470206
-0.402199,0.832944,-0.057531,0.297401,-0.945903,-0.129689
0.368839,0.441027,0.080677,-0.278385,0.714347,0.642036
0.581996,-0.055089,0.253220,0.559977,0.820514,0.114814
-0.352108,0.246197,0.667943,0.196891,0.664607,-0.720785
-0.423306,0.425737,0.573567,-0.275467,-0.850005,0.449008
0.194619,-0.132968,0.453781,0.670086,0.534171,0.515409
0.292174,-0.357697,-0.938168,-0.292974,0.075264,0.953153
-0.094219,0.310919,0.891154,-0.464234,-0.680844,0.566514
-0.588999,-0.314909,0.437597,0.216546,-0.868339,0.446201
-0.236506,-0.296569,0.179802,0.960936,-0.273442,0.042804
0.024006,-0.347331,0.628238,0.991508,0.015736,-0.129093
0.298408,-0.244071,0.455224,0.072030,0.673616,0.735564
-0.142778,0.422549,0.814778,0.092011,0.126473,0.987694
-0.422321,0.477570,0.379668,-0.667533,-0.567259,-0.482304
0.117078,-0.069706,0.655587,-0.604671,-0.230663,-0.762344
-0.237600,0.275301,-0.152006,0.023184,0.991190,-0.130403
0.120029,-0.296034,0.523370,-0.456447,0.843970,0.281728
-0.049161,0.145192,0.937373,0.959320,0.282214,-0.007788
-0.510144,0.750814,0.200487,0.801600,0.556071,-0.219594
-0.669272,0.393713,0.091642,0.207284,0.755160,0.621906
-0.154917,0.037277,0.455945,0.521514,0.816455,0.247839
-0.027287,-0.228919,0.661902,0.941965,-0.003223,0.335696
-0.053644,-0.220151,0.329297,0.558046,0.254892,0.789693
0.103735,0.866833,0.622545,0.934259,0.229991,-0.272514
0.014710,-0.383217,0.570186,0.813424,0.565881,0.134614
-0.412478,0.358363,0.740068,0.643777,0.747873,0.161980
-0.396511,-0.118749,0.643901,0.674202,-0.638272,-0.371563
-0.075956,0.319558,0.901472,-0.553785,-0.494413,-0.669983
0.123857,-0.063599,0.484113,-0.134817,-0.836030,0.531864
0.029803,0.317562,0.929790,0.777794,-0.620880,-0.097691
-0.880243,0.540564,0.474442,-0.715158,0.589714,-0.375215
-0.607262,-0.363148,0.482199,0.816638,-0.483707,-0.314850
-0.160935,0.257756,0.341057,0.952708,-0.295394,0.071349
0.161699,0.478770,0.748247,-0.503700,-0.039634,-0.862969
-0.701536,-0.197690,0.659739,-0.644950,-0.486393,-0.589459
-0.520207,0.623496,0.627766,0.750343,0.656855,-0.074336
-0.346751,-0.453916,0.248421,-0.506296,-0.130401,-0.852443
-0.618416,-0.508142,0.488912,0.355109,0.903904,-0.238443
-0.134685,0.198347,0.562876,-0.016787,-0.293671,0.955759
0.060753,-0.157554,0.570882,0.513844,-0.418607,-0.748821
-0.046098,0.199150,0.700139,0.400971,-0.037605,0.915319
-0.309126,-0.088047,0.523843,-0.516344,0.855040,0.047903
0.181495,-0.112633,0.395033,-0.705099,0.486722,0.515691
-0.032100,0.939131,0.828030,0.853150,0.137433,0.503237
-0.021600,-0.267725,0.701880,0.734149,0.491352,-0.468612
-0.511566,-0.233705,0.413903,-0.465448,0.544948,-0.697416
0.134358,0.307058,0.728184,-0.016781,0.484343,0.874717
-0.340296,0.303075,0.460370,-0.566446,0.619229,0.543778
-0.162794,0.159144,0.685993,0.974918,-0.190664,-0.114815
0.138076,-0.121272,-0.006713,0.332365,-0.923372,-0.192138
-0.732159,0.027308,0.641390,0.761504,-0.153678,0.629678
0.182806,-0.549210,-0.940257,0.393381,-0.134625,-0.909466
-0.969378,0.741113,0.096291,0.968677,0.227047,0.100575
-0.039209,0.905509,0.385013,-0.175260,0.934090,0.311064
-0.041395,0.063858,0.645866,-0.609142,0.135598,-0.781383
0.445835,-0.378163,0.638979,0.879796,-0.124176,-0.458845
-0.342048,0.662829,0.671076,0.181888,-0.514439,0.838015
-0.034723,-0.175627,0.592213,0.355065,0.476983,-0.804000
-0.100781,0.458962,0.412411,-0.105696,-0.256910,0.960638
0.270956,0.608473,0.561384,-0.639475,-0.752804,0.156070
0.212445,-0.177752,0.615385,0.560521,0.615454,-0.554106
0.265159,-0.533791,-0.937149,-0.130950,0.158060,0.978708
0.384152,-0.390257,0.635200,-0.352970,0.237362,0.905026
-0.374309,0.366734,0.552832,-0.640115,-0.726626,0.249534
0.371903,-0.262144,0.471061,0.565229,-0.824282,-0.032791
-0.198230,0.585088,0.823679,0.452807,-0.181124,0.873018
-0.438288,-0.344411,0.518025,-0.687737,-0.012267,0.725857
0.152184,-0.170313,0.623564,-0.108375,-0.991649,0.069904
-0.640945,0.406075,0.090274,0.469589,0.734400,0.490044
-0.564170,-0.316370,0.327333,0.891383,-0.198490,-0.407477
-0.015695,0.525282,0.659614,0.575304,0.360813,0.734056
-0.499534,0.192239,0.479986,-0.124370,0.988026,0.091310
0.740907,0.044852,0.108299,0.642824,0.663825,0.382250
-0.445508,0.381748,0.135001,0.503736,0.815890,-0.283856
-0.476894,0.403017,0.761822,0.982589,-0.048523,-0.179346
-0.328157,-0.233170,0.677639,0.815589,-0.560228,-0.144773
0.016239,0.866566,0.313883,0.975297,0.161056,0.151182
0.049815,-0.035419,0.733181,0.907058,0.200906,-0.369977
-0.498990,0.370587,0.415270,0.182350,0.775893,-0.603936
0.553890,-0.097618,0.456591,-0.108902,0.059880,0.992247
-0.639086,-0.279024,0.449381,-0.721468,0.692195,-0.018695
-0.658007,0.362613,0.448362,0.015716,-0.823463,0.567152
-0.548203,-0.472395,0.598304,0.397677,0.399904,0.825791
-0.248648,-0.308793,-0.961762,-0.231916,0.095476,0.968039
-0.274131,-0.202338,0.663965,0.449360,-0.880590,-0.150456
-0.079347,0.046581,0.387499,0.777487,0.615161,0.130735
0.164106,-0.462158,0.564293,0.595945,0.546609,-0.588276
-0.091486,-0.305070,-0.037019,0.095846,-0.891046,0.443679
-0.184776,0.483686,0.658272,0.662078,-0.134452,-0.737276
-0.353530,-0.537376,0.129805,0.961546,-0.251172,-0.111094
-0.106141,0.108642,0.954876,-0.115097,-0.964017,0.239632
-0.482365,-0.211382,0.456616,0.467371,-0.862789,-0.192767
-0.049052,0.169243,0.457660,-0.885204,0.377504,0.271852
-0.555639,0.303342,0.397395,0.336657,0.940370,-0.048657
-0.689178,0.483686,0.451121,-0.436995,0.821457,0.366393
-0.377043,0.118481,-0.068023,0.969329,-0.041634,0.242213
-0.293269,-0.045120,-0.774129,0.934930,0.342017,0.094501
-0.439273,0.275163,0.378350,0.211829,-0.389302,0.896422
-0.192649,0.428933,0.930387,0.527574,0.725643,0.441711
0.023569,-0.171109,0.612625,-0.817490,0.530927,-0.223217
-0.204024,0.601563,0.429118,0.957749,0.242847,0.154083
0.289988,0.418826,0.580453,0.054155,-0.964956,0.256763
-0.838683,0.091097,0.660509,-0.279035,-0.943342,-0.179570
0.356483,-0.301882,0.451320,0.464429,0.830751,0.306853
-0.372123,-0.203668,0.659316,0.941265,-0.235293,-0.242194
-0.551704,-0.426411,0.383099,-0.628557,0.777165,0.030499
-0.048941,0.637448,0.650192,-0.547003,-0.007105,0.837100
0.418276,-0.189586,0.447243,-0.567332,0.333664,-0.752863
-0.217258,0.207919,0.065735,-0.371006,0.868864,-0.327767
-0.108001,0.215097,0.377405,-0.689514,0.633675,-0.350751
-0.025428,0.904974,0.637015,-0.540159,0.726922,0.424044
0.095314,0.025312,0.694222,0.946072,-0.081010,0.313663
-0.315143,0.303740,0.744692,-0.119063,-0.098175,0.988021
0.442006,-0.222146,0.514867,0.015069,-0.204425,0.978766
-0.541204,0.876137,0.222565,0.279740,0.244214,-0.928496
-0.078473,0.258550,0.636269,-0.526004,0.777510,0.344670
-0.184339,0.410187,0.543906,-0.627675,0.773556,-0.087377
-0.072892,0.233567,0.821367,-0.016117,0.917222,0.398049
-0.433259,-0.253643,0.548730,0.840458,-0.499997,0.208889
0.453271,-0.083261,0.446969,0.026884,-0.340523,0.939852
-0.099907,-0.039004,0.911939,0.998663,0.042515,0.029419
-0.786406,0.797723,0.166874,-0.061852,-0.979604,0.191180
-0.184449,0.739782,0.725747,0.253358,0.873714,-0.415252
-0.520207,0.814336,0.220824,0.758377,0.650915,0.034253
-0.266801,0.265729,-0.530705,0.135845,-0.989629,-0.046688
-0.151420,0.771142,0.656382,0.218250,0.752199,-0.621742
-0.448024,0.174961,0.206628,-0.530234,0.674341,-0.513923
-0.593264,0.770217,0.567177,0.779771,0.576813,-0.243399
-0.299283,0.227451,-0.598652,0.973860,-0.095199,0.206237
-0.437304,-0.624826,0.233703,-0.370098,-0.015978,0.928855
0.239676,0.411120,0.065362,-0.294700,0.955368,-0.020601
-0.391261,0.589874,0.660161,0.603583,0.726638,-0.328154
-0.077268,-0.743376,0.138158,0.921911,0.317772,0.221588
-0.650024,0.747488,-0.223037,0.174884,0.847205,0.501656
-0.452944,0.547077,0.601437,-0.522050,-0.638538,0.565449
-0.559688,0.217888,0.365596,0.242375,0.835671,-0.492857
0.520534,0.553323,0.542962,-0.652190,0.754567,-0.072641
-0.440805,-0.117686,0.412709,-0.577151,0.790085,-0.206548
-0.035491,0.557176,0.813659,0.815079,-0.476931,0.328913
0.118390,0.914545,0.522028,-0.559228,-0.827366,-0.052241
-0.750753,0.245929,0.357889,0.387876,0.341550,0.856093
-0.644337,-0.468542,0.542738,-0.565857,0.817307,0.108700
-0.321595,0.753864,0.511287,0.698552,-0.350886,0.623621
-0.295565,0.184395,0.600965,-0.073238,0.899999,0.429695
-0.724066,0.729546,0.216076,0.151910,0.943888,-0.293254
-0.690052,0.057076,0.631247,0.811634,-0.373134,0.449468
-0.728114,0.370319,0.427304,-0.322009,-0.942988,-0.084165
0.074644,0.670940,0.446248,0.753254,-0.651770,0.088345
-0.519549,-0.196092,0.620705,-0.672805,0.678517,-0.294870
0.106906,-0.193439,-0.010939,0.380905,-0.914945,-0.133369
-0.454586,0.422282,0.758093,-0.003587,-0.999922,0.011978
-0.542079,-0.030374,0.600070,0.987979,0.152242,-0.026846
-0.290535,0.561029,0.514992,0.170026,0.972108,0.161548
0.305734,-0.195694,0.084804,0.495985,-0.068325,0.865639
-0.078690,0.001529,0.565810,-0.375344,0.175384,0.910141
-0.196261,-0.209119,0.352891,0.494313,-0.281359,-0.822491
-0.500518,0.764231,0.499254,0.006255,0.738920,0.673764
0.354951,0.558506,-0.314181,0.307334,-0.460246,0.832898
-0.150215,0.020664,0.772214,0.978852,0.170245,-0.113423
0.182259,-0.069844,0.667247,0.439929,0.894988,0.073879
-0.382951,0.863378,0.602084,-0.404678,0.912428,-0.060920
-0.226883,0.199012,0.589454,0.288421,0.955049,-0.068512
-0.455787,-0.211244,0.343742,0.243200,0.949209,-0.199639
0.527970,-0.031169,0.084630,-0.645407,-0.763559,0.020697
0.076393,-0.452724,0.626473,0.043338,0.720276,0.692332
0.372450,-0.414584,0.448983,0.527433,0.729068,0.436204
-0.407559,0.445805,0.676396,0.162637,0.921423,-0.352887
0.453491,0.524089,0.523718,-0.557786,0.829531,-0.027437
-0.107126,0.073957,0.920367,0.624060,-0.606394,-0.492784
-0.726035,0.736595,0.486251,0.963305,0.164535,0.212064
-0.125062,-0.170176,0.846428,0.463032,-0.311456,-0.829817
-0.004648,0.269850,0.492442,0.971919,-0.220216,0.082939
-0.158966,0.229447,0.750261,0.903888,-0.363874,0.224906
0.044896,0.004847,0.429939,-0.508431,-0.369058,0.778007
0.122873,0.177354,0.921014,-0.028153,0.799311,0.600257
-0.660197,0.023325,0.312839,0.126948,-0.936644,-0.326469
-0.282658,0.224531,0.889290,0.337443,-0.437862,0.833312
0.018208,0.183462,0.489384,0.992096,0.089710,0.087735
-0.169466,-0.288725,0.295087,0.803505,0.553153,-0.220003
0.467272,0.478770,0.065437,0.386161,-0.653429,-0.651084
-0.699567,-0.061068,-0.992417,-0.198824,0.036442,0.979357
0.018208,0.203401,0.613371,0.946300,-0.210538,0.245337
-0.723849,0.874807,0.361643,-0.190460,-0.821369,0.537660
-0.633619,-0.314909,0.450574,0.799432,-0.600082,0.028474
0.382403,-0.060403,0.350704,-0.338554,0.652282,-0.678167
0.025318,-0.010435,0.832007,0.768325,0.089847,-0.633722
0.143763,0.862445,0.553329,0.934152,0.322190,-0.153470
0.348389,0.478632,0.700463,0.463000,0.858855,-0.219088
-0.068190,0.195556,0.515141,-0.604300,0.542339,0.583686
-0.259692,0.402481,0.665034,0.391367,0.253893,0.884517
-0.174059,0.209249,0.822063,0.619357,-0.782863,0.059355
0.076610,-0.310124,0.546418,0.919481,0.286227,-0.269498
-0.022694,-0.086457,0.502337,0.919339,-0.390955,0.044388
0.144200,-0.083658,0.418950,0.811162,0.548288,0.203459
0.373545,-0.293511,0.515862,0.396932,0.637991,-0.659858
-0.519549,0.353577,0.391030,0.005288,-0.897675,0.440627
0.004757,0.861382,0.653473,-0.263345,0.889466,0.373496
-0.273146,0.373110,0.558873,-0.354425,-0.740859,0.570536
-0.430852,-0.262014,0.662101,-0.048569,0.922017,0.384091
-0.684038,0.175091,0.106932,0.434020,0.125992,0.892049
-0.192322,0.128847,0.970762,0.059714,0.572589,0.817665
-0.460711,0.188646,-0.364079,0.041909,0.955056,0.293448
-0.057910,0.004847,0.329646,0.844708,-0.271405,0.461312
-0.396732,0.622295,0.686142,0.368175,0.884691,-0.285952
-0.708319,0.456310,0.419273,0.786195,0.476726,-0.393230
-0.295675,0.341751,0.368580,-0.359711,0.900502,-0.244345
-0.672663,0.522491,0.121650,0.028554,-0.796465,0.604010
-0.218025,0.423880,0.816220,0.873695,0.380717,-0.302839
-0.277738,0.446210,0.652056,-0.667919,-0.720783,-0.185354
-0.402309,-0.162470,0.360748,0.533852,0.235800,-0.812035
0.434570,-0.208186,0.063672,0.788653,0.454867,0.413670
-0.216056,-0.280354,-0.296007,0.999693,-0.020505,-0.013936
-0.180183,-0.175359,0.131868,0.929264,0.147064,0.338883
-0.618964,-0.014159,-0.988887,0.273232,-0.222792,-0.935793
0.284738,0.417504,0.596763,0.900507,-0.364360,-0.237338
-0.386011,-0.541764,-0.003058,0.585014,0.549501,0.596496
-0.600917,-0.035419,0.583959,0.859219,-0.409644,-0.306487
-0.162137,-0.192636,0.751206,-0.153450,-0.977945,-0.141690
-0.181278,0.237153,0.899483,0.998302,-0.055583,0.017419
-0.280582,-0.179480,0.369300,0.662025,0.746280,0.069209
0.059658,0.880656,0.336632,0.997769,0.058846,-0.031541
0.138950,-0.306936,0.509100,-0.066059,0.910897,0.407311
-0.173401,-0.662302,0.247676,0.933023,0.317061,-0.170118
-0.613497,-0.369524,0.531649,-0.747606,0.578063,0.326999
-0.393557,0.403682,0.761474,0.202475,0.953481,-0.223335
-0.065676,0.216290,0.920640,0.346138,0.933226,-0.096322
-0.649039,-0.160344,0.625553,0.627192,0.712453,0.314706
-0.548203,0.111829,0.603376,-0.043855,0.844688,0.533459
0.351013,-0.220678,0.638084,0.714889,0.265030,-0.647064
-0.474051,-0.776860,0.184352,0.443310,0.896354,-0.005168
0.356263,-0.262679,0.636642,0.489521,0.510867,-0.706671
0.423085,0.032491,0.169733,0.297834,0.802951,0.516300
-0.076830,-0.105859,0.844364,-0.749902,-0.096053,-0.654539
0.590417,-0.079278,0.365472,-0.053045,-0.805263,0.590540
-0.273694,0.164197,0.737184,0.339848,-0.792000,0.507188
-0.742222,0.203133,0.352320,0.006936,0.731458,0.681851
0.065566,0.886504,0.578887,0.825883,0.543949,0.148446
-0.058457,0.530197,0.827433,0.453207,-0.866317,0.209999
-0.248100,0.264666,-0.181617,-0.449804,-0.634677,0.628380
-0.038882,-0.183470,0.661902,-0.506130,-0.439733,0.741935
-0.078690,0.241808,0.981801,0.898772,0.394092,0.192097
-0.650681,0.573391,0.456889,0.299305,-0.129648,0.945309
-0.756768,-0.011368,0.399732,-0.572911,0.483483,-0.661829
-0.300925,-0.545617,-0.964945,-0.337698,0.004582,0.941243
-0.092033,-0.919867,0.435980,0.723790,-0.506131,-0.468998
-0.483019,0.011490,0.387649,-0.662305,0.384893,0.642814
-0.124952,-0.407405,0.384790,0.254918,0.158336,0.953911
-0.418056,-0.075425,0.367660,-0.222079,0.965252,0.137727
0.345763,0.280614,-0.079335,0.061215,-0.915636,0.397321
-0.564063,0.852476,0.218363,0.454972,0.375224,0.807593
0.763546,-0.175627,0.456119,0.281581,0.930823,-0.232984
-0.250177,-0.677851,-0.150365,0.995305,-0.013086,-0.095901
-0.760813,0.220945,0.108523,-0.522775,-0.106438,-0.845800
-0.473176,0.659779,0.549600,-0.333337,0.725177,-0.602498
-0.685786,0.377230,0.104545,0.344700,0.431522,0.833649
-0.113798,0.088712,0.440505,0.394146,0.864996,0.310534
-0.643899,0.530197,0.225822,0.427670,0.868310,-0.251270
0.336250,0.579507,0.052757,-0.390592,0.898358,0.200972
-0.398480,-0.111708,0.407314,-0.538640,0.818486,0.199870
-0.229617,0.029571,0.684774,0.287025,-0.950541,-0.118693
-0.412478,0.657516,0.689996,0.363629,0.875112,-0.319300
-0.449336,0.121401,0.595843,-0.726806,-0.090554,-0.680848
-0.083282,-0.895540,0.437174,0.784031,-0.430096,-0.447564
-0.045333,0.149572,0.459202,0.802589,-0.342394,-0.488486
0.056925,-0.009373,0.733106,0.571563,0.816240,0.084076
-0.556297,0.341085,0.545125,-0.293679,0.866908,-0.402770
-0.046318,0.801714,0.609294,0.282553,0.156470,0.946404
-0.152621,0.142264,0.714336,0.950056,0.123218,0.286723
0.511672,0.065318,0.160062,0.032703,0.545054,0.837763
-0.004868,-0.071702,0.750286,0.728043,0.388266,0.564981
0.272816,0.020129,0.219805,-0.716562,-0.695600,-0.051760
-0.775358,0.889821,0.506042,0.269300,0.797072,-0.540512
-0.064144,-0.314244,0.356646,0.902746,0.320231,0.287230
0.159183,-0.008043,0.360251,-0.873866,0.051277,-0.483455
-0.031552,-0.422955,0.295759,0.976214,0.113390,-0.184792
-0.432164,-0.065456,0.389836,0.423635,-0.901716,0.086267
-0.209494,0.439161,0.832181,0.873467,0.308846,0.376389
-0.565592,-0.169519,0.608573,-0.404796,-0.453975,-0.793755
-0.177557,0.574851,0.697802,0.632649,0.400802,-0.662656
-0.306392,0.428666,0.530605,0.001823,0.150932,0.988542
-0.390714,-0.385480,0.336507,-0.230184,-0.554053,0.800025
-0.300595,-0.333380,0.352121,-0.132919,-0.609400,0.781642
-0.303332,-0.207789,0.409154,0.632845,-0.050420,0.772635
0.795264,-0.045258,0.460345,-0.529384,-0.436219,-0.727644
-0.271941,0.212169,0.975710,0.774960,-0.153227,0.613155
-0.131404,0.430125,0.725896,0.773524,0.468760,-0.426526
-0.212665,-0.085792,0.150415,0.096307,0.983284,-0.154524
0.269535,0.447671,0.705758,-0.076212,0.989848,-0.119968
-0.784547,-0.024120,0.440083,-0.308396,0.938511,-0.155206
-0.471755,-0.330589,-0.013575,0.966558,-0.203845,0.155604
-0.094987,0.523286,0.794018,-0.211443,0.927789,0.307406
-0.460380,0.463083,0.580105,-0.496633,-0.825612,0.267807
-0.204682,0.668150,0.435110,0.863745,0.395023,0.312893
-0.426477,-0.258956,0.165705,-0.389082,0.678955,0.622604
0.101986,0.310383,0.555964,-0.312146,0.924243,-0.219862
-0.140703,0.731809,0.626448,-0.442544,0.831538,0.335708
-0.026633,0.527009,0.794143,0.197729,0.892019,-0.406455
0.596872,-0.077680,0.102133,-0.081239,-0.051969,0.995339
