0.141408,-0.042696,0.788873,-0.313280,0.524855,0.791444
0.175635,-0.063879,0.827278,0.816362,0.577282,-0.017285
0.208122,-0.097604,0.805684,0.984439,0.161883,0.068366
0.240463,-0.124984,0.811568,0.957461,-0.003668,-0.288541
0.274689,-0.152353,0.823915,0.789245,0.281840,-0.545581
0.307902,-0.181682,0.825336,0.398896,0.904356,-0.151729
0.341408,-0.209221,0.834988,-0.671016,-0.569035,-0.475327
0.374329,-0.298023,0.576673,0.866939,0.482015,-0.126804
0.406237,-0.280758,0.773249,0.752956,0.594325,0.282553
0.443367,-0.357994,0.582064,-0.131103,-0.354570,0.925793
0.479045,-0.402967,0.525253,0.654154,0.248541,-0.714360
0.512546,-0.419099,0.584412,-0.374354,0.827283,-0.418881
0.551123,-0.469770,0.512355,-0.517816,-0.855410,0.011844
0.588541,-0.509691,0.483660,-0.161888,0.979900,-0.116571
0.622480,-0.536087,0.498790,0.674147,-0.189911,0.713764
0.661930,-0.586440,0.431950,-0.149101,-0.753953,0.639784
0.709788,-0.661886,0.288590,0.326658,-0.194019,-0.925014
0.745325,-0.691871,0.296184,-0.545216,0.294514,0.784858
0.782451,-0.723150,0.303372,0.763125,0.026128,-0.645722
-0.609428,0.539021,0.658961,-0.040559,0.970484,0.237730
-0.791878,0.516207,-0.161780,0.971421,0.008840,-0.237200
-0.592604,0.505614,0.576006,-0.387098,0.512838,0.766259
-0.666860,0.493720,0.229576,0.230896,-0.882762,0.409168
-0.552288,0.475311,0.600064,0.744927,0.488040,0.454862
-0.527776,0.441417,0.546383,0.945609,-0.314317,0.083839
-0.673968,0.404589,-0.194186,0.665690,0.189695,0.721715
-0.488034,0.412904,0.574847,0.139741,0.987213,-0.076705
-0.424224,0.393351,0.739163,-0.319254,0.776071,-0.543866
-0.386948,0.364509,0.757192,-0.695500,-0.696403,-0.176925
-0.355766,0.334852,0.748612,0.859628,-0.114355,0.497959
-0.322699,0.304220,0.741134,-0.501149,0.848384,0.170569
-0.286874,0.275210,0.753945,-0.729040,-0.122246,0.673466
-0.250909,0.246537,0.768061,0.578620,0.250611,0.776140
-0.202612,0.230077,0.885016,0.127244,-0.054974,0.990347
-0.171430,0.201892,0.883364,0.502550,-0.864468,0.011722
-0.140974,0.170116,0.860089,0.980390,-0.188387,-0.057836
-0.111966,0.138500,0.834118,-0.187018,-0.703637,0.685507
-0.076433,0.112592,0.859161,0.014425,-0.730618,0.682634
-0.037710,0.092393,0.921392,0.425309,0.520630,0.740308
-0.001306,0.070553,0.968058,0.636951,0.692947,0.337812
0.021466,0.026236,0.860176,-0.634909,0.326063,-0.700409
0.056707,0.006515,0.911711,0.914839,0.076328,-0.396539
0.091225,-0.016290,0.946957,-0.661645,-0.734691,-0.149849
0.118056,-0.059473,0.859857,0.131706,-0.126240,0.983218
0.150977,-0.089130,0.856176,-0.450702,0.819142,-0.354787
0.182451,-0.127420,0.809307,0.148704,0.059712,0.987077
0.215518,-0.162129,0.785220,0.319011,-0.714761,0.622373
0.248005,-0.193905,0.771395,0.244174,0.958043,0.150112
0.281218,-0.208077,0.839365,0.330899,0.025172,0.943330
0.314431,-0.236113,0.846611,0.745137,0.080185,-0.662073
0.346485,-0.265761,0.840147,0.182411,0.835038,0.519074
0.380565,-0.307800,0.787742,-0.298523,0.917425,0.263088
0.414504,-0.341535,0.770061,-0.159765,-0.466224,0.870121
0.456707,-0.438164,0.506297,0.170201,0.869777,-0.463162
0.488906,-0.453311,0.566412,-0.741041,-0.658154,0.133010
0.524147,-0.489493,0.543137,0.944719,0.166008,-0.282750
0.562002,-0.532506,0.502239,-0.397720,-0.915607,-0.059013
0.593476,-0.548638,0.553166,0.250720,0.821130,0.512724
-0.778684,0.659112,0.525775,-0.250294,0.820314,-0.514235
-0.736478,0.628480,0.556325,-0.803259,0.070442,0.591450
-0.676867,0.599639,0.662961,0.866132,-0.365256,0.341180
-0.636258,0.569335,0.687657,-0.739131,-0.176700,-0.649972
0.634665,-0.601269,0.480210,0.208844,0.101155,0.972703
0.686295,-0.689097,0.291141,0.561173,-0.010756,-0.827629
0.723567,-0.720872,0.297228,0.737415,0.248123,-0.628215
0.759391,-0.751345,0.303024,0.673785,0.202129,-0.710745
-0.823786,0.644283,0.525137,-0.228083,-0.020209,0.973432
-0.784049,0.613005,0.542586,-0.690271,0.587750,0.421990
-0.746777,0.582363,0.554383,0.736644,-0.416705,-0.532647
-0.698046,0.551572,0.611136,0.697638,0.625254,-0.349800
-0.658597,0.520771,0.631194,-0.554685,0.821398,-0.132781
-0.644526,0.487046,0.532673,-0.095164,0.226432,0.969367
-0.794782,0.467494,-0.171258,0.971421,0.008840,-0.237200
-0.671069,0.446310,0.235692,-0.842156,0.484718,0.236266
-0.567513,0.428060,0.575223,0.457980,0.845525,0.274485
-0.634085,0.413878,0.237576,-0.884273,0.449520,0.126464
-0.537491,0.395141,0.544992,-0.203963,-0.923822,0.323963
-0.678465,0.358642,-0.199751,0.665690,0.189695,0.721715
-0.501232,0.365653,0.555630,0.144456,-0.954902,0.259413
-0.576795,0.342181,0.139143,0.232758,-0.888362,0.395774
-0.427703,0.347403,0.773655,0.959277,-0.189374,0.209581
-0.392024,0.318392,0.784090,0.051317,-0.606764,0.793224
-0.360117,0.287432,0.773249,-0.258860,0.729680,-0.632897
-0.328790,0.258272,0.765192,0.001068,-0.534235,0.845335
-0.282236,0.184457,0.615281,-0.217789,-0.633338,0.742597
-0.216390,0.182339,0.875306,-0.024489,0.997889,-0.060142
-0.258592,0.145998,0.534499,0.506141,0.573013,0.644575
-0.198694,0.138341,0.744496,0.900345,0.413054,0.136984
-0.163742,0.109658,0.753830,0.841379,0.443260,-0.309195
-0.123567,0.087500,0.816727,0.998923,0.025040,-0.039058
-0.093837,0.055396,0.789278,-0.418405,-0.522094,0.743206
-0.058158,0.032592,0.830553,-0.576898,-0.322041,0.750652
-0.025817,0.000975,0.818061,0.953926,-0.116159,0.276644
0.008989,-0.020696,0.859248,-0.503090,0.227438,0.833770
0.040755,-0.053934,0.836002,-0.010114,0.367235,0.930073
0.072950,-0.088643,0.806756,-0.508604,0.283355,0.813038
0.108482,-0.110643,0.848553,0.816306,-0.495425,-0.296983
0.141262,-0.133457,0.877248,0.793461,-0.215889,-0.569045
0.173023,-0.159524,0.888146,0.930063,-0.100559,0.353371
0.157506,-0.278968,0.271924,0.700458,-0.024225,0.713282
0.203917,-0.215089,0.757801,-0.695889,0.252947,-0.672128
0.195357,-0.315468,0.258358,0.918582,0.216812,0.330453
0.236258,-0.242787,0.761685,-0.252787,0.254642,-0.933411
0.270051,-0.255497,0.841394,0.150980,0.429676,0.890272
0.269617,-0.376403,0.281547,0.657181,0.459335,-0.597599
0.304424,-0.313667,0.712091,-0.680757,0.699363,-0.217856
0.307761,-0.413231,0.266329,-0.689173,-0.458051,0.561453
0.337491,-0.328665,0.779510,0.829705,-0.542281,-0.132365
0.376360,-0.420232,0.515804,0.742921,0.572963,-0.346094
0.409715,-0.441744,0.551949,0.808144,0.569044,0.151962
0.079479,-0.177614,0.777424,0.132180,0.969633,-0.205770
0.107177,-0.237088,0.613629,0.961842,0.021216,-0.272782
0.147932,-0.214114,0.890262,0.975776,-0.215722,0.036406
0.142422,-0.266576,0.622382,0.591117,-0.287119,0.753753
0.178826,-0.274403,0.737627,-0.354171,0.573966,0.738326
0.213052,-0.303732,0.741163,-0.575668,0.419123,0.702098
0.211601,-0.389929,0.330676,0.605179,0.560322,0.565506
0.247717,-0.436205,0.264561,0.427705,0.509612,-0.746568
0.279625,-0.382271,0.648643,-0.684648,0.728495,-0.023494
0.284555,-0.470586,0.255083,0.247120,-0.608579,0.754031
0.322407,-0.502521,0.263373,-0.440075,-0.619884,0.649675
0.358085,-0.526479,0.298068,0.712350,0.695495,0.094040
0.396663,-0.565425,0.276532,0.612242,0.782740,-0.111702
0.426397,-0.553690,0.454935,0.749156,0.468334,-0.468432
0.456707,-0.722990,-0.212040,-0.412421,0.904720,-0.106728
0.462943,-0.586112,0.454211,0.508312,0.745623,-0.430888
0.498334,-0.619031,0.447428,0.574306,0.657111,-0.488240
0.546046,-0.698058,0.273866,0.169715,0.371554,0.912768
0.584483,-0.732438,0.271112,-0.241874,0.058974,0.968514
0.604497,-0.708978,0.464616,-0.809722,0.058255,0.583916
0.697028,-0.831346,0.274793,0.570267,0.326713,-0.753694
0.768239,-0.889029,0.299343,0.835054,0.055500,-0.547361
0.446412,-0.480691,0.522905,0.776066,0.568577,-0.272840
0.481652,-0.514585,0.509514,0.281611,0.959511,0.005799
0.515011,-0.535440,0.551253,0.773018,0.569556,0.279372
0.550689,-0.564769,0.560615,0.290638,0.780614,0.553328
0.590718,-0.612835,0.502326,0.836248,0.395153,0.380189
0.627703,-0.651622,0.474645,0.011225,-0.075629,0.997073
0.680059,-0.739450,0.281663,-0.597366,-0.334040,0.729089
0.717477,-0.771385,0.287489,0.799684,0.215464,-0.560429
0.752721,-0.800714,0.295778,0.812162,0.069099,-0.579326
-0.846558,0.587903,0.528645,0.143679,0.499979,0.854036
-0.809866,0.556296,0.531369,-0.649551,0.098345,0.753931
-0.764180,0.524521,0.573311,-0.385261,-0.847347,0.365481
-0.738217,0.493889,0.535978,-0.289660,-0.348881,-0.891279
-0.690066,0.464719,0.599484,0.498104,0.792106,-0.352790
-0.683396,0.429851,0.463428,0.484557,-0.182846,0.855436
-0.697174,0.390258,0.221489,-0.498114,0.735886,-0.458643
-0.603484,0.368746,0.509340,-0.751705,0.087514,-0.653667
-0.546339,0.342998,0.624121,-0.778232,0.587122,0.222808
-0.585354,0.332077,0.412298,0.095221,0.875021,-0.474628
-0.506309,0.313509,0.651425,-0.417268,0.907035,-0.056339
-0.476434,0.282708,0.630150,-0.124156,-0.986895,0.103066
-0.455259,0.247024,0.552441,0.521566,0.833711,0.181368
-0.394344,0.228774,0.719192,0.983447,-0.145865,0.107500
-0.368965,0.195368,0.666701,0.909728,-0.409914,-0.066071
-0.307181,0.127749,0.605977,0.866599,0.071526,-0.493853
-0.252068,0.115039,0.775510,0.810701,-0.563710,-0.158100
-0.219289,0.086684,0.778177,-0.683257,0.728381,-0.051200
-0.190864,0.053278,0.739511,0.842101,-0.342805,0.416353
-0.150110,0.032263,0.810698,0.313496,0.171694,-0.933939
-0.122845,-0.005211,0.747743,-0.216417,0.126572,-0.968062
-0.092243,-0.041711,0.704265,0.663170,-0.735299,-0.139786
-0.053953,-0.063710,0.759366,-0.664321,-0.249799,-0.704470
-0.016678,-0.085063,0.813887,0.973887,0.135583,0.182102
0.013924,-0.118131,0.785829,0.753465,0.243108,-0.610892
0.045973,-0.146814,0.783568,0.505098,0.750889,-0.425490
-0.049457,-0.146655,0.770960,0.611302,0.050523,0.789783
-0.013199,-0.163273,0.843104,0.809913,-0.121328,0.573864
0.017116,-0.203682,0.779974,0.897908,-0.366186,0.244272
0.050904,-0.234154,0.775916,0.090242,-0.127483,0.987727
0.084263,-0.267879,0.755221,-0.638553,0.769302,0.020580
0.116750,-0.298193,0.748351,-0.432386,-0.901538,-0.016491
0.149963,-0.326219,0.754728,0.013556,-0.665323,0.746433
0.183902,-0.379665,0.644730,-0.094888,-0.822707,0.560491
0.217549,-0.414375,0.621831,0.801241,-0.326156,0.501633
0.220302,-0.491611,0.268793,0.427705,0.509612,-0.746568
0.258738,-0.528270,0.255025,-0.556769,-0.417228,-0.718282
0.296882,-0.561348,0.258532,0.512904,0.758813,-0.401413
0.335025,-0.597360,0.247054,0.574627,0.704437,-0.416620
0.351703,-0.718595,-0.255257,0.337946,-0.926794,-0.163846
0.371138,-0.625873,0.263953,0.693079,0.443884,-0.567986
0.390572,-0.743358,-0.209403,0.270244,-0.957024,0.105228
0.407250,-0.655690,0.273547,-0.274408,0.006617,0.961591
0.434085,-0.795502,-0.274213,-0.163205,0.971453,0.172171
0.445106,-0.689256,0.273547,-0.240834,0.037796,0.969830
0.472808,-0.816358,-0.210330,-0.405089,0.863928,0.299218
0.474982,-0.694795,0.373227,0.271816,0.960370,0.061696
0.519942,-0.756228,0.269344,0.267017,0.163704,-0.949686
0.592024,-0.810162,0.315024,-0.195565,0.934779,0.296552
0.627703,-0.840963,0.319169,-0.501784,0.684510,-0.528827
0.715157,-0.878606,0.507543,0.899619,0.434341,0.045102
0.752141,-0.912172,0.502703,0.906381,0.421721,-0.024992
-0.842353,0.500572,0.516761,0.950885,-0.263913,-0.161761
-0.803917,0.468797,0.527891,0.957542,0.031104,-0.286611
-0.766933,0.438483,0.538963,-0.539097,0.512313,-0.668513
-0.742134,0.405574,0.487283,0.920384,-0.142108,0.364277
-0.711820,0.372654,0.458413,0.403140,0.696682,-0.593390
-0.676288,0.340233,0.453457,-0.423972,0.740962,-0.520791
-0.637276,0.310406,0.474558,-0.124708,0.816352,0.563931
-0.594490,0.281733,0.518413,0.924547,-0.367183,-0.101931
-0.551995,0.252404,0.556528,-0.433358,-0.620934,0.653178
-0.521539,0.220142,0.530499,0.066750,-0.140268,0.987861
-0.480930,0.190485,0.560760,0.403252,0.891529,-0.206311
-0.449311,0.156750,0.533253,0.851315,-0.127258,-0.508987
-0.377959,0.147630,0.788496,0.920629,-0.078273,-0.382513
-0.371576,0.100539,0.594035,0.099954,0.489511,0.866249
-0.309355,0.094342,0.823075,-0.276928,-0.960086,-0.039305
-0.276141,0.064685,0.822205,-0.318804,-0.940419,-0.118224
-0.250909,0.029330,0.759627,-0.471964,0.114343,0.874172
-0.216243,0.000160,0.768119,0.732006,0.439310,-0.520744
-0.179840,-0.026395,0.792988,0.172182,-0.850186,0.497531
-0.156779,-0.074302,0.664874,-0.385585,-0.625499,0.678289
-0.122119,-0.100866,0.684961,0.865187,0.094562,0.492452
-0.082816,-0.116182,0.775800,0.647990,-0.694944,-0.311708
-0.903410,0.452009,0.493341,0.631909,-0.764348,0.128307
-0.856273,0.420233,0.541021,0.029586,0.783645,0.620504
-0.828283,0.388298,0.505717,-0.141567,0.907491,0.395498
-0.819727,0.354564,0.385313,0.968884,-0.160011,0.188839
-0.784195,0.323116,0.384936,0.993153,-0.020450,0.115016
-0.729369,0.293956,0.474500,0.588450,0.482710,0.648627
-0.692823,0.263315,0.483022,-0.150462,0.553596,0.819081
-0.649749,0.233498,0.520442,0.853330,-0.487117,0.185862
-0.610446,0.202707,0.538470,0.567598,0.099577,0.817262
-0.575493,0.170932,0.533920,-0.467419,0.170729,-0.867393
-0.526470,0.099395,0.401574,0.116606,-0.981543,0.151580
-0.468892,0.079683,0.548760,0.589013,0.778339,-0.217374
-0.394489,0.078052,0.847857,-0.392864,0.556611,0.732012
-0.361131,0.048554,0.848234,0.211477,-0.963615,0.163475
-0.333866,0.013854,0.799539,-0.265624,-0.452154,0.851470
-0.303411,-0.018737,0.771192,0.568022,0.694483,0.441639
-0.270197,-0.046763,0.779163,-0.652253,-0.348788,-0.672989
-0.238436,-0.076589,0.771452,-0.852605,0.497640,-0.159435
-0.208268,-0.112273,0.728844,-0.563617,-0.547600,-0.618442
-0.173749,-0.138340,0.749540,-0.390003,-0.904390,0.173136
-0.192604,-0.174024,0.505254,0.134170,-0.531579,0.836314
-0.138071,-0.164735,0.773423,-0.241897,-0.938386,0.246816
-0.156926,-0.206943,0.497543,-0.483220,-0.715789,0.504127
-0.109647,-0.209221,0.683106,0.821235,0.496116,0.281855
-0.066426,-0.212483,0.846437,0.886422,0.186816,0.423505
-0.034665,-0.241971,0.840118,0.965396,-0.248735,-0.078364
-0.003917,-0.275865,0.807713,-0.607958,-0.178605,-0.773619
0.029004,-0.310734,0.780119,0.821757,0.054750,0.567201
0.017257,-0.393191,0.346328,0.576616,0.651901,0.492482
0.059172,-0.362718,0.663135,-0.618872,0.310785,-0.721395
0.093544,-0.395469,0.651367,-0.633084,0.435874,-0.639702
0.128210,-0.433758,0.616527,-0.160577,0.553505,0.817219
0.196955,-0.489811,0.638092,0.537607,0.325230,0.777948
0.200726,-0.553849,0.354560,-0.176239,0.517990,-0.837034
0.230894,-0.525176,0.614382,-0.796674,0.302056,-0.523519
0.236404,-0.584809,0.358386,0.257534,0.670720,0.695565
0.274256,-0.620821,0.345401,-0.351193,0.224889,0.908894
0.291951,-0.763070,-0.246127,-0.346958,0.937754,-0.015412
0.361130,-0.760465,0.051898,-0.015958,0.973167,0.229547
0.456127,-0.776109,0.372212,0.237015,0.969096,0.068390
0.288327,-0.709465,0.489515,0.802950,-0.590070,0.084199
0.323133,-0.741081,0.486239,0.709852,-0.704351,0.000234
0.421321,-0.802504,0.601571,-0.716710,-0.084861,-0.692189
0.163162,-0.461625,0.631078,-0.131554,0.643699,0.753887
0.164755,-0.519308,0.368096,0.333712,0.304412,0.892171
-0.960555,0.323116,0.165896,-0.454655,0.854666,0.250668
-0.921973,0.290207,0.171432,-0.382130,0.820892,0.424397
-0.804935,0.268208,0.543514,0.799461,0.438210,0.410894
-0.783323,0.233827,0.474326,0.366491,0.720276,-0.588970
-0.731980,0.205472,0.551803,-0.407922,-0.834857,-0.369612
-0.801598,0.188366,0.191490,0.401505,0.339992,-0.850411
-0.699347,0.174681,0.543166,0.595608,0.557589,0.578226
-0.668892,0.143224,0.521282,0.959301,0.235507,0.155814
-0.639016,0.108355,0.482123,0.575024,0.781720,0.241376
-0.633067,0.063710,0.301865,-0.595077,0.132746,0.792629
-0.586222,0.035197,0.360473,0.407477,-0.759291,0.507385
-0.504716,0.030145,0.667512,0.023025,0.949579,0.312682
-0.466860,0.002119,0.693425,0.958321,0.029785,0.284137
-0.433647,-0.027051,0.693917,0.579394,0.635336,0.510539
-0.400146,-0.055724,0.698758,-0.202467,0.783494,0.587490
-0.358524,-0.078379,0.762119,0.790809,-0.611171,0.033037
-0.323133,-0.103800,0.789887,0.877789,0.391839,-0.275588
-0.287746,-0.131170,0.806611,0.520602,-0.789642,0.324713
-0.224365,-0.196998,0.762815,-0.146714,0.932467,0.330122
-0.215230,-0.277984,0.427747,0.303984,-0.093902,-0.948038
-0.163308,-0.265443,0.696120,-0.892686,0.443324,-0.081083
-0.128643,-0.296721,0.692613,-0.670859,0.135829,-0.729039
-0.088326,-0.298521,0.848060,0.692052,-0.584147,0.424071
-0.055259,-0.328665,0.843828,0.878929,-0.436889,0.191343
-0.023932,-0.371520,0.773307,0.903445,-0.393040,0.171193
-0.032634,-0.429203,0.473051,0.917932,-0.046804,0.393968
0.008848,-0.411272,0.724178,-0.470060,0.882090,-0.030989
0.040317,-0.460651,0.624208,-0.241051,0.919172,0.311477
0.030022,-0.624570,-0.167780,-0.354468,-0.858169,0.371346
0.073968,-0.488995,0.631397,0.807683,0.579650,0.107950
0.108775,-0.519468,0.634179,0.592205,-0.454713,-0.665229
0.109788,-0.580085,0.360212,0.965844,-0.252611,0.057739
0.142422,-0.547663,0.640846,-0.120071,0.386572,0.914410
0.145467,-0.607783,0.377487,-0.122514,0.611839,0.781437
0.177228,-0.579111,0.638179,-0.024361,0.379984,0.924672
0.183030,-0.647217,0.348734,0.309842,-0.070483,0.948172
0.212765,-0.609901,0.640092,0.613712,0.424663,0.665597
0.220302,-0.674755,0.373227,0.373066,0.890411,0.260749
0.257287,-0.705715,0.381226,0.427316,0.841109,0.331566
-0.168964,-0.373310,0.700033,-0.521076,0.587193,-0.619422
-0.135318,-0.405901,0.687135,-0.372259,-0.268157,-0.888547
-0.107035,-0.460651,0.554151,0.810479,0.014534,-0.585588
-0.070923,-0.478413,0.617803,-0.354218,-0.928158,0.114246
-0.081798,-0.553531,0.240475,-0.145835,0.982736,-0.113854
-0.032921,-0.478901,0.766554,0.987090,0.129739,-0.093924
-0.043074,-0.581876,0.267692,0.077236,-0.980698,0.179627
0.000000,-0.506111,0.773366,0.918411,0.153512,0.364630
0.031328,-0.664332,0.192997,0.023735,-0.996569,0.079285
0.068165,-0.595729,0.643483,0.720678,-0.508732,-0.470972
0.069325,-0.666123,0.334473,0.310057,0.792144,-0.525712
0.106743,-0.698714,0.337256,0.379935,0.816383,-0.434934
0.136477,-0.652597,0.660469,-0.741370,0.140724,0.656176
0.170124,-0.682900,0.656672,-0.670903,0.175067,-0.720583
-0.999279,0.241484,0.170563,0.801895,-0.399633,-0.444136
-0.906022,0.215418,0.422385,0.228292,0.888635,-0.397757
-0.959683,0.207431,0.174881,-0.764737,0.475586,0.434736
-0.868166,0.184776,0.434443,0.097747,0.983342,-0.153245
-0.844672,0.151051,0.377081,0.054981,-0.996948,-0.055425
-0.792316,0.122538,0.455457,0.358184,-0.901143,0.244223
-0.768239,0.088156,0.395603,0.290272,0.912001,-0.289821
-0.738797,0.052303,0.352618,0.349975,0.839398,-0.415848
-0.711240,0.014988,0.294735,-0.096898,-0.686331,0.720806
-0.685569,-0.024764,0.218736,0.898159,0.420588,0.128127
-0.573316,-0.012551,0.715395,-0.400584,0.524137,-0.751540
-0.649603,-0.058011,0.212098,0.828613,0.535527,0.163128
-0.540536,-0.041711,0.714844,-0.556788,0.028538,-0.830164
-0.654387,-0.119116,-0.078796,0.420807,-0.894934,-0.148372
-0.510806,-0.075446,0.680410,-0.528537,0.390566,-0.753729
-0.473388,-0.101353,0.712352,0.027519,0.518047,0.854909
-0.516897,-0.139643,0.371313,0.995595,0.044543,0.082503
-0.442353,-0.134919,0.686091,-0.483962,-0.875081,-0.003762
-0.404351,-0.161155,0.718149,0.098258,0.854759,0.509639
-0.345179,-0.233826,0.627715,0.454326,0.343705,0.821860
-0.319941,-0.278152,0.530152,-0.572035,-0.547757,0.610522
-0.284409,-0.310903,0.524731,-0.380050,-0.238271,0.893750
-0.239016,-0.315627,0.682410,0.856520,-0.353686,-0.375873
-0.257291,-0.358482,0.419342,0.806121,0.102565,-0.582795
-0.202612,-0.342181,0.707482,0.944039,-0.062575,0.323842
-0.220015,-0.389770,0.427545,0.820930,-0.243880,-0.516329
-0.923717,0.102001,0.365603,0.380343,-0.847683,0.369827
-0.901091,0.065183,0.292735,0.521699,0.852172,0.040403
-0.856565,0.033894,0.328039,0.641991,0.751305,-0.152934
-0.821612,-0.000328,0.312966,0.720758,0.666806,0.189413
-0.789559,-0.034550,0.285894,0.655816,0.748872,-0.095370
-0.754753,-0.067618,0.276097,-0.668965,-0.727588,0.151988
-0.725890,-0.106564,0.219344,0.793856,0.592414,0.137252
-0.612619,-0.089946,0.723714,0.418213,0.011826,0.908272
-0.678319,-0.132473,0.288039,-0.288307,-0.768829,0.570773
-0.579985,-0.121234,0.713685,0.606751,0.348169,0.714585
-0.590431,-0.188853,0.380038,0.979775,0.116741,-0.162521
-0.550110,-0.218510,0.406443,0.937208,0.182234,0.297375
-0.494709,-0.227958,0.578064,0.884009,0.462500,-0.067984
-0.454241,-0.250285,0.635541,-0.048319,0.816399,0.575463
-0.421321,-0.284338,0.614585,-0.235718,0.148938,0.960341
-0.391732,-0.320679,0.569455,0.413745,-0.896144,-0.160441
-0.354753,-0.349352,0.587745,0.483886,0.760045,-0.433803
-0.319800,-0.381296,0.582702,0.440230,0.780399,-0.444043
-0.275854,-0.391232,0.708584,0.804428,-0.593507,0.025404
-0.296302,-0.442232,0.409400,0.985320,-0.130386,-0.110201
-0.243366,-0.422520,0.697309,0.496484,0.697536,0.516669
-0.209140,-0.447940,0.717511,-0.591137,0.089664,-0.801572
-0.176361,-0.484112,0.686613,0.018222,0.967631,0.251710
-0.149238,-0.546847,0.517717,0.858403,0.502519,0.103050
-0.112546,-0.572914,0.546180,0.924645,-0.355704,-0.136040
0.027118,-0.673452,0.644556,0.903296,-0.035294,-0.427564
0.062075,-0.707506,0.631455,0.915303,-0.095108,-0.391377
-0.704283,-0.221772,0.341256,-0.021337,0.367734,0.929686
-0.656419,-0.244090,0.426124,-0.701046,0.610742,0.368141
-0.623060,-0.276193,0.414588,-0.635138,0.707582,0.309722
-0.589705,-0.312205,0.386936,0.949233,-0.305194,0.076241
-0.523713,-0.307969,0.647773,0.126419,0.570131,0.811769
-0.493111,-0.344300,0.609542,0.568965,0.450194,0.688189
-0.456419,-0.373310,0.623802,-0.110877,0.903644,-0.413682
-0.422339,-0.406220,0.610875,-0.212339,-0.948388,-0.235528
-0.401452,-0.461785,0.456674,0.897799,-0.389574,0.205401
-0.368093,-0.496335,0.434182,0.389500,-0.224742,0.893186
-0.331108,-0.527454,0.440994,-0.372301,0.357481,0.856504
-0.290646,-0.544073,0.520847,0.559855,-0.117558,-0.820209
-0.244234,-0.535281,0.729859,0.348549,0.548589,0.759976
-0.218275,-0.605346,0.531282,0.609893,-0.769043,-0.191319
-0.233359,-0.677361,0.174215,-0.282087,0.959331,-0.010494
-0.182305,-0.636306,0.533630,-0.353570,0.924847,0.140163
-0.148516,-0.672965,0.505283,-0.332480,0.938215,0.095968
-0.680350,-0.322957,0.413632,0.946540,-0.318961,0.048238
-0.611459,-0.322957,0.665889,-0.216918,-0.867975,-0.446729
-0.576940,-0.353758,0.663657,-0.594310,-0.618655,-0.513869
-0.542280,-0.384717,0.662961,-0.573934,-0.506832,-0.643212
-0.522265,-0.434574,0.529543,-0.643026,0.724213,-0.249065
-0.488472,-0.466349,0.521137,0.478970,0.762921,-0.434212
-0.459898,-0.512466,0.434530,-0.670615,0.591578,-0.447560
-0.423786,-0.541796,0.444443,0.743880,0.667754,0.027317
-0.387094,-0.573571,0.447747,0.203428,0.577848,0.790385
-0.348078,-0.597847,0.489283,-0.249401,0.942318,-0.223239
-0.313997,-0.636625,0.454182,-0.453747,0.880144,0.139497
-0.277447,-0.661229,0.484413,0.048861,0.942753,-0.329894
-0.240463,-0.679320,0.544905,-0.443772,0.853421,0.273386
-0.653374,-0.450875,0.429342,-0.759749,0.409480,0.505083
-0.621466,-0.489980,0.385893,0.747615,0.320923,0.581446
-0.573023,-0.501875,0.509833,-0.578776,0.787892,0.210345
-0.550256,-0.555808,0.372937,0.017065,-0.618330,0.785733
-0.513271,-0.589046,0.370850,0.900944,0.106712,-0.420609
-0.471649,-0.612020,0.426559,-0.248421,0.495478,-0.832339
-0.433939,-0.636953,0.460124,0.131184,-0.350110,-0.927477
-0.397973,-0.665148,0.474587,-0.751907,0.600616,0.271840
-0.362728,-0.700832,0.454732,0.601637,-0.694707,0.394228
-0.650329,-0.540323,0.470326,0.983344,0.154538,0.095671
-0.585208,-0.613820,0.405255,0.826919,0.132269,-0.546543
-0.557072,-0.659439,0.320532,-0.596674,0.204121,-0.776089
-0.510514,-0.671990,0.435805,0.725976,0.504205,0.467691
-0.527922,-0.711911,0.211634,0.324782,-0.935249,-0.140806
-0.475420,-0.705228,0.425921,0.896107,0.426130,-0.124119
-0.436984,-0.732279,0.454037,0.492791,0.846965,-0.199516
-0.399421,-0.761121,0.469950,0.533148,-0.793694,0.292921
-0.608414,-0.701648,0.358995,0.607881,-0.743483,-0.278773
-0.569257,-0.730649,0.380821,-0.593068,0.796953,0.114616
-0.534592,-0.770082,0.343865,0.668503,-0.742853,-0.035687
-0.506022,-0.823200,0.232881,-0.545773,0.821089,0.167170
-0.634085,-0.768451,0.371719,0.803433,-0.591413,-0.068743
-0.599420,-0.802673,0.357371,-0.615260,0.774103,-0.149063
-0.569111,-0.854976,0.254996,-0.550447,0.834761,-0.013545
-0.667298,-0.816845,0.398095,0.874980,-0.475860,0.089256
-0.633067,-0.851385,0.380386,0.815718,-0.576442,0.048150
-0.713851,-0.874529,0.361198,0.801933,-0.592900,-0.073299
-0.677447,-0.910053,0.347633,0.707605,-0.706359,0.018770
-0.082816,0.366627,0.428791,0.650897,0.753758,0.090451
-0.549242,0.640375,0.507137,-0.498910,-0.799867,0.333620
-0.680931,0.721360,0.570673,-0.256784,0.523908,-0.812147
-0.456711,0.485575,0.494268,-0.055953,0.290304,0.955297
-0.310660,0.402799,0.500993,0.880619,0.472465,-0.035857
-0.493111,0.510836,0.546093,-0.732473,-0.346392,-0.586085
-0.016536,0.250774,0.683367,0.986598,-0.071766,0.146540
-0.062509,0.280103,0.712584,0.055959,-0.991363,0.118611
-0.141696,0.328010,0.745076,0.526275,0.010941,0.850244
0.019722,0.236433,0.751830,0.220336,-0.795962,0.563824
0.020882,0.237407,0.774728,0.616407,0.570063,0.543204
0.039011,0.229262,0.795916,-0.137567,0.574203,0.807073
0.071936,0.211987,0.816466,0.533148,-0.571864,0.623478
-0.050036,0.284498,0.852176,0.472350,0.729994,-0.493959
0.112254,0.192603,0.859103,0.832917,0.539430,-0.123551
0.036692,0.338432,0.868842,0.004328,-0.274693,0.961522
0.249744,0.217039,0.870466,-0.053870,-0.797218,0.601284
0.316463,0.180539,0.886581,-0.635735,-0.589256,0.498617
0.125018,0.296075,0.953856,-0.467274,0.671240,0.575406
0.115883,0.386995,0.874581,0.936489,0.154983,-0.314594
0.170991,0.357498,0.891741,-0.568155,-0.348537,0.745468
-0.070485,0.446798,0.368879,0.464913,0.534633,-0.705708
0.127483,0.340879,0.443196,-0.247652,-0.896882,0.366431
0.079766,0.370536,0.472384,-0.188075,-0.973441,0.130541
-0.503844,0.712558,0.563166,-0.314495,-0.029657,-0.948796
-0.022913,0.434903,0.533050,-0.304328,0.882740,-0.357988
-0.372302,0.641031,0.596788,-0.136768,-0.438344,0.888341
-0.003337,0.447941,0.792467,-0.538625,0.766062,0.350761
0.101379,0.389273,0.804438,0.194522,-0.380171,0.904230
-0.476287,0.503337,0.567600,-0.711194,-0.660320,0.241206
-0.308341,0.408180,0.572963,-0.594869,0.220095,0.773103
-0.059898,0.266089,0.569571,0.881836,-0.442602,-0.162691
-0.093257,0.287273,0.597571,0.715884,0.236788,0.656843
-0.346192,0.438652,0.672178,-0.428983,-0.710402,0.557945
-0.232487,0.374127,0.683657,0.402983,0.873050,-0.274571
0.030022,0.246865,0.938059,0.229953,-0.335171,0.913664
0.108482,0.203682,0.952812,-0.141783,0.989854,-0.009278
-0.035245,0.354733,0.592354,-0.221694,0.393638,-0.892133
-0.149817,0.423167,0.629281,-0.287808,-0.502154,0.815480
-0.225817,0.469931,0.661947,-0.486519,0.730355,0.479459
-0.264395,0.494217,0.690236,0.251174,0.662340,-0.705845
0.082524,0.294772,0.675570,-0.201965,0.925698,-0.319833
0.157939,0.252563,0.690642,0.094926,0.979022,0.180291
-0.112400,0.412416,0.744004,-0.530544,-0.716378,-0.453129
0.067586,0.310088,0.747772,0.706177,0.003581,0.708026
0.078173,0.223076,0.979536,0.976046,-0.199407,0.087017
0.100507,0.385524,0.757453,-0.653151,-0.717443,-0.242218
-0.396229,0.765359,0.454906,-0.168636,-0.545629,0.820884
-0.553734,0.861331,0.521891,0.194496,-0.979894,0.044483
-0.407255,0.780346,0.551861,0.823716,-0.411796,0.389764
0.165627,0.449244,0.511456,-0.477539,0.856918,-0.194032
-0.221466,0.661558,0.410095,-0.558541,-0.429833,-0.709419
-0.111240,0.621310,0.662208,-0.685169,0.334052,-0.647266
0.041189,0.534456,0.668613,-0.218849,-0.141076,0.965506
0.162870,0.465534,0.679541,-0.667188,-0.196733,0.718441
-0.436112,0.816359,0.767714,-0.105470,0.775469,0.622515
0.228716,0.432128,0.719917,0.352691,0.100437,-0.930334
0.253227,0.420233,0.741424,0.362960,-0.783074,-0.505030
-0.166061,0.423983,0.535659,-0.187781,0.874412,-0.447372
-0.196955,0.444510,0.562673,0.699523,0.554603,-0.450647
-0.237276,0.469771,0.591513,0.864637,-0.293542,0.407721
0.077447,0.306169,0.770670,0.870889,0.208230,-0.445189
-0.002178,0.355061,0.803191,-0.229051,0.048399,0.972210
0.132560,0.278472,0.812930,0.229039,0.887787,0.399219
0.178534,0.476286,0.890175,0.835423,-0.268630,-0.479486
-0.318348,0.735373,0.613571,0.141394,-0.918971,0.368103
-0.316463,0.736676,0.637628,0.604308,-0.385168,0.697465
-0.246699,0.697899,0.653947,0.279909,0.817098,0.503985
0.355040,0.366956,0.800872,-0.722285,0.521915,0.453772
0.182158,0.463416,0.773076,0.312959,0.824947,-0.470658
0.001885,0.570637,0.815307,0.920428,0.231269,0.315162
-0.349822,0.630439,0.617600,-0.543351,0.534285,0.647541
-0.311532,0.609902,0.636498,-0.657877,0.625397,-0.419615
-0.097462,0.487046,0.636904,0.448012,0.540248,-0.712332
-0.185642,0.540980,0.669918,-0.724250,0.498087,-0.476834
0.194051,0.321654,0.652498,0.355081,0.767947,-0.533080
-0.025671,0.454783,0.724815,0.496644,0.842945,-0.206854
0.027557,0.425613,0.742178,0.717313,0.696733,0.005017
0.182884,0.688122,0.686410,-0.713131,0.315132,0.626208
0.328063,0.589046,0.502384,-0.592407,-0.757879,0.273264
0.473242,0.511810,0.560006,0.897075,-0.202505,-0.392744
0.173023,0.688122,0.616672,0.822963,-0.504957,-0.260288
0.176361,0.569494,0.594672,0.961877,-0.063424,-0.266027
0.190864,0.562810,0.616382,0.907145,-0.404213,-0.117050
-0.096302,0.732280,0.672295,0.399997,-0.290897,0.869127
0.132994,0.600454,0.671338,-0.121747,-0.112494,0.986166
0.022480,0.656506,0.587426,-0.090883,-0.271368,0.958175
0.241481,0.539677,0.683744,0.484390,-0.053089,-0.873240
-0.351995,0.886752,0.771134,-0.769953,0.317326,0.553604
0.111094,0.621796,0.768235,0.782732,-0.549495,-0.292208
0.331108,0.495679,0.767800,-0.741800,0.667393,-0.065731
0.008989,0.685189,0.825973,0.642397,0.260076,-0.720893
-0.276579,0.319864,0.762873,-0.682185,-0.130010,-0.719528
0.014066,0.152682,0.755627,-0.521110,-0.105674,-0.846923
-0.025817,0.177446,0.782873,-0.447925,0.796910,-0.405337
0.004059,0.162289,0.803742,0.949823,0.202081,0.238746
0.036404,0.145183,0.824321,-0.592898,-0.115503,0.796951
-0.146772,0.253866,0.867422,0.044662,-0.421024,0.905949
-0.037130,0.192434,0.878784,0.677851,0.680216,-0.278971
0.048005,0.144696,0.892842,-0.706694,-0.613166,-0.353002
0.021174,0.162459,0.919363,-0.026825,0.996845,0.074708
0.014066,0.168326,0.942841,0.369828,0.277945,0.886551
0.043508,0.153328,0.963537,-0.330340,-0.920597,0.208270
0.044814,0.154960,0.987014,0.868943,-0.450439,-0.205042
-0.319654,0.328497,0.578354,0.945354,-0.325041,-0.025584
-0.053081,0.177446,0.596296,0.163020,-0.142327,0.976303
-0.180565,0.253220,0.633715,0.266750,0.941236,-0.207170
-0.200872,0.267392,0.660208,-0.673560,0.644528,-0.361802
-0.032053,0.170932,0.665860,-0.143075,-0.534680,0.832855
0.005944,0.151210,0.686005,0.999426,-0.016700,0.029464
-0.203337,0.275051,0.731917,0.479630,0.662994,0.574799
-0.159825,0.057027,0.664701,0.078615,0.318956,0.944503
-0.193618,0.078868,0.692613,-0.121236,0.294365,0.947972
0.185642,-0.139156,0.675657,-0.583375,-0.775721,-0.240688
-0.115011,0.037475,0.732352,0.682814,0.726140,0.080540
-0.142568,0.054909,0.758409,0.070783,0.812226,-0.579032
0.040029,-0.049697,0.761858,-0.483188,0.801220,-0.352953
-0.139377,0.056540,0.805075,0.911952,-0.352587,-0.209823
0.014066,-0.031288,0.811829,0.891592,-0.292078,0.346055
0.063961,-0.056539,0.854466,0.781216,0.474320,-0.405860
0.149091,-0.103800,0.869509,-0.561811,0.773751,0.292708
0.151269,-0.102984,0.892233,0.784577,0.301854,-0.541593
-0.278607,0.211987,0.622527,0.585530,0.257129,-0.768791
-0.192170,0.164089,0.637281,0.732256,0.391296,0.557395
-0.019868,0.067132,0.664845,-0.399730,0.806085,0.436398
-0.100945,0.116342,0.697888,0.406822,0.295117,-0.864524
-0.248877,0.204498,0.737076,0.568650,0.318513,0.758410
-0.308775,0.241644,0.767568,-0.144045,-0.801609,0.580235
-0.057286,0.097117,0.764496,0.123618,-0.177339,0.976355
-0.127776,0.140459,0.796148,-0.285014,0.284709,-0.915264
0.005802,0.064198,0.804843,0.294385,0.063816,0.953554
0.070197,0.028513,0.821075,-0.519137,-0.834837,-0.183152
-0.061783,0.107381,0.858872,-0.462888,0.874249,-0.146368
0.029150,0.056709,0.872234,-0.293117,-0.114088,0.949245
-0.032779,0.096460,0.926204,0.370887,0.538089,0.756904
0.016097,0.069737,0.944928,0.105096,0.993820,0.035723
0.052790,0.050672,0.964000,0.399680,0.915849,-0.038432
-0.122987,0.024933,0.517253,0.927750,0.211704,0.307346
-0.333286,0.149261,0.565426,0.559495,0.806138,-0.192633
-0.325744,0.146974,0.589020,-0.626009,0.697838,-0.348043
-0.160263,0.052303,0.593890,0.930938,0.293544,-0.217226
-0.445106,0.113248,0.397052,0.264373,0.892910,-0.364443
-0.151269,-0.046932,0.509079,0.255616,-0.458485,0.851148
-0.266426,0.022000,0.545630,0.818280,0.280099,0.501958
-0.265412,0.022646,0.568934,-0.773431,-0.288944,0.564195
0.066426,-0.166535,0.579832,-0.274082,0.774114,0.570637
-0.158665,-0.033734,0.629078,-0.348400,-0.857122,-0.379421
-0.255405,0.023789,0.663947,-0.101001,-0.160208,0.981902
-0.089340,-0.070552,0.670034,-0.075748,0.563781,0.822443
0.314431,-0.303563,0.649396,0.240436,-0.182285,0.953395
-0.143873,-0.035525,0.722323,0.881630,0.466867,-0.069027
-0.210008,0.004884,0.753569,0.350150,-0.078344,0.933412
-0.093983,-0.061105,0.764206,-0.569143,0.684365,0.455764
0.003479,-0.115526,0.777858,-0.577843,-0.548791,0.604091
-0.303990,0.064039,0.834350,-0.370149,-0.895590,-0.246798
-0.331835,0.081473,0.861045,0.220068,-0.949231,0.224792
0.044668,-0.132801,0.867422,-0.282550,0.356813,0.890421
0.131834,-0.181523,0.882378,-0.641271,0.404825,0.651834
-0.369110,-0.053118,0.267460,0.855734,-0.233410,0.461779
-0.208414,-0.135575,0.395023,-0.609637,0.661406,0.436905
-0.140536,-0.171419,0.436791,-0.737467,0.656576,0.158273
-0.167946,-0.150891,0.511804,0.670756,-0.581894,0.459875
-0.093257,-0.192115,0.526992,0.094356,-0.985791,-0.138970
-0.158231,-0.152522,0.558818,0.781394,0.309165,0.542070
-0.203771,-0.124655,0.588325,-0.083540,-0.133961,0.987459
-0.306309,-0.153656,0.505108,-0.575449,0.817759,-0.011333
-0.291079,-0.160826,0.527862,0.394325,-0.907482,-0.144862
-0.332273,-0.132960,0.580499,-0.585305,0.379207,-0.716673
-0.376794,-0.105918,0.608701,0.999686,0.011035,0.022489
-0.194781,-0.209549,0.612904,0.762102,-0.636807,0.116949
0.053515,-0.352285,0.608846,0.727545,-0.378540,-0.572176
-0.365481,-0.108037,0.679106,-0.503169,-0.389271,0.771550
-0.357218,-0.111129,0.702294,-0.587597,-0.550551,-0.592979
-0.108341,-0.253379,0.699512,0.490515,-0.598439,-0.633456
0.051776,-0.344300,0.705511,-0.340094,0.596317,0.727147
-0.081364,-0.265930,0.742960,-0.042873,0.362507,0.930994
-0.271790,-0.154313,0.787336,0.423667,-0.813599,0.398199
-0.172735,-0.209878,0.799829,-0.614402,-0.578599,-0.536408
-0.100799,-0.250285,0.816147,-0.375923,0.227149,-0.898379
-0.073388,-0.262508,0.861045,-0.137960,0.033093,0.989885
-0.235099,-0.105102,0.616092,0.999848,-0.014841,0.009189
-0.311094,-0.058986,0.647773,-0.582888,-0.805416,0.107454
-0.408414,-0.001302,0.681628,0.253246,0.800606,-0.543043
-0.283542,-0.071696,0.692236,0.333483,0.776964,0.533963
-0.017695,-0.223890,0.686497,-0.024090,0.366861,0.929964
-0.086441,-0.182826,0.718120,0.099079,-0.850724,0.516190
-0.206816,-0.110970,0.755163,0.270852,0.869347,-0.413370
-0.180131,-0.125143,0.776322,-0.337290,-0.923472,-0.182854
0.007250,-0.231877,0.779481,0.626414,0.102024,0.772785
-0.046846,-0.199117,0.808321,0.879180,-0.360114,0.312025
-0.038436,-0.202050,0.831452,0.923072,0.105264,-0.369942
-0.050763,-0.193577,0.855625,0.511065,-0.620375,-0.594935
-0.238436,-0.200747,0.376821,0.827038,-0.448479,-0.338932
-0.205948,-0.217694,0.396907,-0.675453,0.716892,-0.172712
-0.201018,-0.219326,0.420124,0.228214,-0.721758,-0.653440
-0.427703,-0.084734,0.494471,0.328157,0.261769,0.907629
-0.270923,-0.232852,0.779916,0.086959,-0.898362,0.430562
-0.010587,-0.381943,0.776177,-0.481169,0.256656,-0.838215
-0.100799,-0.327034,0.831771,0.935530,0.300295,-0.186029
-0.092965,-0.329968,0.854785,0.660516,-0.584792,0.470889
-0.746339,0.085551,0.313865,-0.152850,0.294707,-0.943284
-0.849603,0.071528,0.318503,0.542699,0.836078,-0.080320
-0.230748,-0.278152,0.391313,0.959985,-0.276491,0.044510
-0.259898,-0.260062,0.419574,0.667243,-0.129528,-0.733491
-0.261642,-0.256313,0.469051,-0.513756,0.854091,-0.081139
-0.328643,-0.216392,0.500297,0.761246,0.644673,0.070008
-0.319216,-0.220300,0.522731,-0.522498,0.852474,0.016852
-0.327196,-0.213945,0.548151,0.703482,-0.681069,0.203121
-0.402757,-0.167341,0.604411,0.922414,-0.383825,-0.042781
-0.364760,-0.187709,0.624498,-0.684469,-0.319185,-0.655457
0.023932,-0.411759,0.605832,0.732305,-0.411977,-0.542221
-0.277306,-0.236432,0.662208,0.223086,-0.448038,-0.865733
-0.382309,-0.173865,0.696961,-0.510690,-0.858549,-0.045708
-0.182163,-0.287929,0.699367,0.805370,-0.226076,0.547968
-0.887601,0.039106,0.306938,-0.481339,-0.876519,0.005318
-0.498914,-0.358810,0.433544,0.286526,0.946186,0.150448
-0.391878,-0.419427,0.445921,-0.220531,0.882270,0.415891
-0.213925,-0.521586,0.450211,0.367667,-0.395342,-0.841740
-0.256419,-0.317586,0.403052,0.999954,-0.002943,-0.009120
-0.253954,-0.318391,0.426501,-0.691279,-0.157467,0.705221
-0.359245,-0.253866,0.510442,0.846230,-0.097029,-0.523908
-0.396667,-0.230733,0.539137,-0.084997,0.820998,0.564569
-0.424657,-0.212314,0.590991,0.707605,-0.673631,-0.213348
-0.418129,-0.215576,0.613513,0.576002,-0.735026,0.357713
-0.405803,-0.221285,0.635483,-0.371601,-0.342371,-0.862957
-0.157072,-0.364180,0.632382,0.396218,0.322566,-0.859629
0.030456,-0.471073,0.635222,0.235258,0.959605,0.154314
0.025959,-0.467165,0.660063,0.386833,-0.570655,0.724371
-0.167513,-0.354732,0.705250,0.814126,0.471329,0.339186
-0.042786,-0.423167,0.762612,0.907836,0.415922,-0.053325
-0.471069,-0.269838,0.654034,-0.229628,-0.033267,0.972710
0.077447,-0.585793,0.618121,0.995185,-0.076781,-0.060920
0.107469,-0.601756,0.639281,0.584931,-0.716486,-0.380137
-0.155766,-0.448587,0.691280,-0.291919,-0.112135,-0.949847
-0.166061,-0.441417,0.715598,0.657716,-0.740924,0.135796
0.015810,-0.543755,0.767568,0.995187,0.030701,-0.093061
-0.424078,-0.397587,0.545774,0.963892,-0.056599,0.260208
-0.345325,-0.441914,0.560383,0.282410,0.743114,-0.606652
-0.474982,-0.366140,0.623397,-0.054117,-0.933918,0.353367
-0.554461,-0.319048,0.656353,0.453431,0.649705,0.610150
0.136331,-0.714846,0.651831,-0.128682,0.517597,-0.845892
-0.277885,-0.474823,0.719917,0.520533,-0.725286,-0.450562
-0.242933,-0.494376,0.740206,0.903543,0.206866,-0.375255
-0.208414,-0.429034,0.431921,-0.037214,0.583462,0.811288
0.192750,-0.660096,0.410849,0.611664,0.785028,0.097972
-0.322987,-0.360272,0.518761,-0.021602,0.805379,0.592366
-0.407255,-0.310416,0.551746,0.946190,0.279476,-0.163146
0.275128,-0.702950,0.498993,0.815198,-0.569340,0.106325
-0.474694,-0.269679,0.607078,0.508413,-0.858978,0.060614
-0.464541,-0.274234,0.629194,0.360894,0.496826,0.789252
-0.352429,-0.532019,0.519688,-0.158917,-0.597214,0.786181
-0.569837,-0.405573,0.568644,-0.320767,0.830919,-0.454624
-0.890938,0.155934,-0.998870,-0.263461,0.219344,0.939402
0.053228,-0.333220,-0.939479,-0.369518,0.175692,0.912463
0.492239,-0.579926,-0.917682,-0.228783,0.193878,0.953976
-0.127050,0.903202,0.521862,-0.035399,0.970747,-0.237480
-0.332126,0.868502,0.482558,0.047854,0.998847,0.003786
-0.545905,0.854807,0.491688,-0.232765,0.972502,0.007804
-0.284263,0.927489,0.770090,-0.152441,0.977094,-0.148493
-0.359245,0.896200,0.714410,0.459771,-0.853504,0.245235
-0.561856,0.851873,0.652932,0.055342,-0.984752,-0.164926
-0.030168,0.840963,0.530731,-0.038576,-0.999144,-0.014927
-0.562002,0.810978,0.562673,0.427937,-0.806160,-0.408626
-0.670198,0.799083,0.556296,-0.064272,0.732425,0.677808
-0.066280,0.798437,0.443602,-0.597666,0.017820,-0.801547
-0.640175,0.778387,0.505080,-0.372260,0.860452,0.347915
-0.735752,0.766333,0.495978,-0.628007,0.615794,0.475820
-0.279045,0.818308,0.764670,0.771670,-0.635610,0.022939
-0.443367,0.805439,0.765974,-0.178904,0.632575,0.753553
-0.032053,0.792241,0.662469,0.596162,0.274006,0.754660
-0.253520,0.767477,0.648933,0.983276,-0.037139,0.178296
-0.535898,0.742216,0.644440,-0.377347,-0.403495,0.833547
0.226397,0.746124,0.512065,-0.639118,0.030292,0.768512
0.392750,0.737651,0.464356,-0.733732,-0.679434,0.002415
-0.492097,0.711743,0.569919,-0.470397,-0.142457,-0.870881
-0.654967,0.698386,0.570557,0.942000,-0.150905,0.299771
-0.499493,0.680455,0.503051,0.919273,0.343824,0.191632
-0.695434,0.666769,0.508819,0.468142,-0.782634,-0.410277
-0.331980,0.662374,0.432153,0.930778,-0.263403,0.253518
0.054675,0.647386,0.326532,0.251170,-0.701287,0.667165
-0.087893,0.633860,0.323952,0.073824,-0.407564,0.910188
-0.590285,0.573730,0.283837,-0.617790,0.578606,0.532495
-0.613053,0.562482,0.263286,0.714523,-0.153701,-0.682519
0.400292,0.703439,0.631947,0.732927,0.417817,-0.536886
0.030456,0.685835,0.661048,-0.352966,0.099362,0.930345
-0.053520,0.673940,0.650874,-0.301662,0.633208,-0.712775
-0.256419,0.659599,0.656730,-0.073395,-0.718790,-0.691343
-0.255405,0.649007,0.633658,0.923480,-0.365451,0.116749
-0.546631,0.633860,0.652614,-0.645173,-0.120574,-0.754462
0.233647,0.637113,0.517630,0.850213,0.136422,-0.508455
0.396955,0.630111,0.471370,0.661966,-0.713091,0.230871
-0.572882,0.592140,0.566992,-0.150050,0.109948,0.982546
-0.516316,0.582363,0.535456,0.304929,0.647156,0.698718
-0.360551,0.574218,0.489109,0.844778,-0.412507,0.340865
-0.662076,0.558574,0.510384,0.202970,0.242845,0.948593
-0.268745,0.554178,0.429371,-0.586507,-0.757212,0.287470
-0.274548,0.543586,0.407487,0.686929,0.441150,0.577507
-0.167079,0.534784,0.367545,0.920949,-0.139300,-0.363935
-0.246558,0.523546,0.356647,0.899603,0.208102,-0.383938
-0.194343,0.512785,0.324763,0.919358,0.243402,0.309090
-0.485135,0.475968,0.298039,-0.270088,0.708564,0.651912
-0.737057,0.451681,0.289894,0.838653,-0.524749,-0.145947
-0.426977,0.433600,0.194186,-0.106532,0.964517,-0.241574
-0.572735,0.420561,0.192649,-0.311971,0.772893,-0.552549
-0.194781,0.599479,0.674410,-0.083805,0.723503,0.685215
-0.041335,0.591980,0.630411,0.615997,-0.137051,-0.775735
-0.414217,0.574546,0.660845,0.859000,-0.184144,-0.477714
-0.463381,0.564113,0.645831,0.653124,0.744743,-0.137063
-0.243946,0.557271,0.591136,0.931159,0.126666,0.341903
-0.499059,0.531692,0.581832,0.346070,-0.930159,-0.122633
-0.707328,0.517837,0.590180,0.666031,0.740297,-0.091445
-0.562002,0.510180,0.546615,-0.414221,0.619267,0.667030
-0.424657,0.501706,0.502993,-0.505930,0.562836,0.653644
-0.262222,0.483128,0.432820,-0.416554,-0.801037,0.429910
-0.331401,0.471233,0.419574,-0.379449,0.242815,-0.892782
-0.786080,0.453799,0.464211,0.086085,-0.830488,0.550344
-0.273968,0.451521,0.364299,0.907215,-0.420667,-0.000405
-0.075274,0.443535,0.311227,0.134557,-0.103586,0.985477
-0.787674,0.400681,0.349082,0.764350,-0.344053,0.545341
-0.760989,0.390258,0.321169,0.853893,0.033510,0.519369
-0.386948,0.363853,0.192447,0.155548,0.974351,-0.162617
0.008701,0.685019,0.824061,0.642397,0.260076,-0.720893
-0.033505,0.674109,0.808206,0.958220,0.226439,-0.174758
0.042061,0.614139,0.662816,0.455536,0.376375,-0.806739
0.151415,0.535441,0.663280,-0.748200,-0.457493,0.480518
-0.101379,0.519956,0.676005,0.976949,-0.034584,-0.210651
-0.156492,0.508548,0.660903,-0.601557,0.384759,-0.700064
-0.253228,0.496495,0.651744,0.364933,0.929725,0.049358
-0.011167,0.490955,0.594846,-0.201262,0.896171,0.395439
-0.230602,0.477270,0.604179,0.932527,0.359132,-0.037647
-0.249311,0.466996,0.583745,-0.327114,0.809781,-0.487085
-0.544453,0.440601,0.581310,-0.283373,-0.827844,-0.484122
-0.480497,0.431313,0.548731,-0.679551,0.246730,-0.690894
-0.498626,0.420561,0.528094,0.915954,-0.384331,0.115403
-0.744165,0.406220,0.542036,-0.482145,-0.661698,-0.574188
-0.369398,0.402312,0.463950,-0.432830,0.236929,0.869783
-0.149238,0.395300,0.407545,0.981318,-0.147479,-0.123554
-0.772010,0.375101,0.478181,0.821477,-0.348520,0.451342
-0.785642,0.364837,0.456674,-0.439827,-0.847302,0.297711
-0.725164,0.355707,0.424066,0.353755,-0.626136,0.694846
-0.783615,0.322957,0.363748,0.951546,-0.177760,0.250922
-0.768239,0.312525,0.337517,0.696649,0.003059,0.717406
-0.592750,0.304548,0.287489,0.066732,0.498172,0.864507
-0.013778,0.592140,0.820292,0.902653,0.151026,-0.402999
-0.008122,0.581876,0.796872,0.870851,0.338121,-0.356782
0.046553,0.572915,0.766641,0.814669,-0.484120,-0.319283
0.341116,0.569007,0.703830,0.972866,-0.099684,-0.208793
0.319941,0.559230,0.684758,0.854894,-0.371154,-0.362493
-0.344307,0.448260,0.682787,0.041591,-0.903495,0.426576
0.204785,0.449403,0.581339,0.980199,-0.140588,0.139448
-0.084843,0.433918,0.599687,-0.384926,0.815695,0.431825
-0.175780,0.422351,0.589368,0.367030,0.689322,0.624599
-0.197389,0.411601,0.570209,0.893132,0.437981,0.102415
-0.069471,0.404430,0.529166,-0.366714,0.546521,-0.752885
-0.360697,0.388627,0.548383,-0.530795,-0.651343,0.542226
-0.469905,0.376732,0.542036,0.298189,-0.839857,0.453569
-0.353009,0.368746,0.501456,-0.702150,-0.656131,-0.276548
-0.269763,0.359944,0.465602,-0.147012,-0.623676,0.767734
-0.146485,0.351799,0.423660,0.237315,-0.929608,-0.281976
-0.201452,0.340879,0.409139,-0.683486,0.502899,-0.529093
-0.693111,0.322957,0.460153,-0.303682,-0.748261,0.589816
-0.699785,0.313022,0.437602,0.351831,0.918102,0.182492
-0.176940,0.290038,0.287604,0.873700,-0.070419,-0.481342
-0.690066,0.261525,0.319227,0.503137,-0.341234,0.793985
0.007542,0.533322,0.811365,-0.730937,-0.596761,0.331070
0.075415,0.525336,0.780322,0.709904,-0.645355,-0.282051
-0.093837,0.502193,0.758467,0.270975,0.962502,0.012746
-0.011167,0.494704,0.724149,-0.041949,-0.462203,0.885781
0.179259,0.488508,0.675367,-0.584943,-0.002449,0.811071
0.178680,0.478732,0.653454,-0.512756,0.184190,-0.838543
-0.152287,0.461954,0.677483,-0.201449,-0.027523,-0.979112
-0.039450,0.494704,0.732700,0.139574,-0.474748,0.868984
0.191732,0.490139,0.677309,-0.473736,0.112698,0.873426
0.177374,0.479876,0.656121,0.683738,0.209876,-0.698895
-0.170558,0.462442,0.683222,0.418028,-0.128937,0.899237
-0.320668,0.449731,0.682613,-0.545042,0.829934,-0.118904
0.145467,0.451034,0.592875,0.926342,-0.375150,0.033941
-0.022334,0.437836,0.594586,0.389751,0.874077,-0.289972
-0.152721,0.425772,0.590180,0.412631,-0.587421,-0.696184
-0.190719,0.414534,0.572383,0.932414,0.278583,0.230208
-0.027990,0.408180,0.525398,-0.239145,0.635292,-0.734312
-0.333140,0.392207,0.547601,0.699640,0.590040,-0.402936
-0.434519,0.380641,0.540007,0.025905,-0.757031,0.652865
-0.334446,0.372813,0.501862,0.898290,0.413008,0.149998
-0.240321,0.365325,0.465370,0.009756,0.256553,0.966481
-0.155766,0.357010,0.429139,-0.671164,-0.127992,0.730176
-0.181437,0.347075,0.409226,-0.663368,0.477617,-0.576043
-0.698767,0.327353,0.463167,0.935428,0.250600,0.249346
-0.686733,0.317577,0.438762,0.908292,0.416071,-0.043482
-0.125890,0.298840,0.283778,0.899114,-0.434440,0.053436
-0.689920,0.268865,0.322531,0.627670,-0.171443,0.759367
0.097315,0.534297,0.802409,0.954055,-0.111039,0.278298
0.072083,0.524680,0.784351,0.620264,-0.733982,-0.276665
0.018417,0.514416,0.769134,-0.568610,0.568300,0.594741
-0.074836,0.503009,0.760322,0.688711,0.604477,-0.400356
-0.052936,0.491442,0.775742,-0.175829,0.943363,0.281337
-0.114144,0.480522,0.762496,0.225818,0.541195,-0.810009
-0.145759,0.470427,0.744178,0.138502,-0.648277,0.748702
0.209574,0.470427,0.671976,-0.285251,-0.327122,0.900901
0.172151,0.460154,0.654237,-0.782904,-0.167555,0.599155
-0.165628,0.442233,0.679135,-0.262650,0.241793,-0.934105
-0.317189,0.429691,0.677773,-0.110229,-0.204013,0.972743
-0.069037,0.426757,0.620034,0.274351,-0.927290,0.254687
-0.068165,0.418284,0.597687,-0.490994,0.771359,0.404883
-0.141116,0.406548,0.584992,-0.681929,0.146226,0.716652
-0.180131,0.396444,0.568267,0.955461,-0.265616,-0.128616
-0.033647,0.390576,0.523572,-0.344564,0.668182,-0.659400
-0.317189,0.374286,0.541630,0.708306,0.646886,-0.282562
-0.411167,0.362550,0.532094,-0.344381,0.681170,-0.646072
-0.343147,0.355061,0.499601,0.832895,0.485583,0.265510
-0.210441,0.348865,0.457370,0.836305,-0.501876,0.220713
-0.149384,0.341048,0.424588,-0.627140,-0.485073,0.609426
-0.195941,0.331431,0.408994,-0.683486,0.502899,-0.529093
-0.680059,0.310734,0.458037,-0.303682,-0.748261,0.589816
-0.715303,0.300312,0.439776,-0.013486,0.875129,0.483701
-0.253954,0.291182,0.323198,0.926725,-0.338992,0.162067
-0.690212,0.254195,0.319749,0.503137,-0.341234,0.793985
0.184044,0.514904,0.787307,0.354602,0.830968,0.428661
0.056273,0.502691,0.782293,0.950873,-0.021177,0.308855
0.211021,0.462113,0.781626,-0.390028,-0.437851,-0.810040
-0.092677,0.444679,0.800872,-0.169818,0.773084,0.611149
-0.044380,0.437021,0.771510,0.593418,0.756797,0.274069
-0.088034,0.426757,0.754844,-0.593422,0.790480,-0.151631
-0.229734,0.414207,0.752902,0.192596,0.831954,-0.520345
0.200434,0.417299,0.670353,-0.236191,-0.619727,0.748433
0.160843,0.407036,0.652903,0.985623,0.058140,-0.158643
