0.519808,-0.210266,0.497398,0.835679,-0.383488,-0.393164
-0.832171,-0.270555,0.396627,0.276067,0.033471,0.960555
0.085476,-0.200138,0.938178,0.599268,0.447684,0.663669
0.275864,-0.260055,0.955685,0.171474,-0.296628,0.939472
0.407054,-0.501900,0.788066,0.849429,0.518183,-0.099784
0.219149,-0.105499,0.832261,0.746417,0.655688,-0.113731
0.156054,0.290438,0.522019,0.864774,0.134221,0.483891
0.105686,0.088229,0.751609,-0.338219,0.771860,0.538368
0.039744,-0.542476,0.692875,-0.061771,0.996357,-0.058800
-0.102348,0.299551,0.581661,-0.230447,0.965292,-0.122904
0.121080,0.018618,0.860105,-0.622165,0.028428,-0.782370
-0.227582,-0.560023,0.654524,0.049634,-0.542705,0.838456
0.295947,0.384264,0.504787,0.459583,0.879248,-0.125327
-0.090499,-0.620755,-0.003113,-0.610004,0.789445,0.068349
0.222078,-0.499937,0.762659,0.438051,-0.885575,0.154496
0.242729,-0.037354,0.751246,-0.797802,0.582658,0.154987
0.275183,-0.342842,0.925404,-0.592883,0.374783,0.712761
0.477414,0.136020,0.697902,-0.508662,0.055507,0.859175
0.316662,-0.179323,0.739500,0.743252,-0.645165,0.177027
0.344689,0.249167,-0.296079,-0.347848,0.322947,-0.880175
0.156414,-0.258027,0.901912,0.210692,0.977545,0.003886
-0.256442,-0.048881,0.572839,0.836458,0.354254,0.418141
0.613033,0.196954,0.580891,0.669124,-0.726577,0.156075
0.002721,-0.216609,0.823053,-0.717842,0.050600,-0.694365
-0.486478,-0.276063,0.375816,0.772146,0.385918,-0.504834
0.489676,-0.499459,-0.944953,0.155198,-0.115127,-0.981152
0.081516,0.004594,0.742865,0.215140,-0.811904,0.542703
0.284232,-0.499543,0.690111,-0.790029,0.234387,0.566495
0.305481,-0.423100,-0.532781,0.919282,0.228650,0.320376
0.429669,-0.295207,0.946960,0.070350,-0.409032,0.909804
0.308016,-0.187098,0.825147,0.702065,-0.678593,0.215907
0.485781,-0.428120,0.746166,-0.190863,0.981161,0.029896
0.321047,-0.394804,0.817490,0.791093,-0.600414,-0.116940
-0.286928,0.594058,0.440134,-0.641731,0.475037,-0.602097
-0.366060,0.426375,0.599302,-0.189507,0.182363,0.964796
0.123069,0.009800,0.626361,0.271995,-0.923521,0.270420
0.030182,0.186731,0.289884,0.988515,0.144586,0.043959
0.135317,-0.285026,0.765565,0.127433,-0.141244,0.981739
0.608375,-0.355033,0.616471,0.987335,0.137688,-0.078816
-0.126481,-0.134376,0.854136,-0.445970,0.883128,0.145586
0.517692,0.247907,0.674178,0.185844,-0.751123,0.633464
-0.038447,-0.224916,0.848819,0.705209,0.708436,0.028277
0.128041,-0.227395,0.992281,0.830309,-0.276053,-0.484129
0.102569,-0.425627,-0.658776,0.847468,0.460026,0.264905
0.271079,0.258107,-0.956226,-0.362496,-0.851690,0.378446
-0.365881,-0.356648,0.364385,-0.061757,0.291838,-0.954472
-0.198731,0.245543,-0.978247,0.924368,-0.345708,-0.161337
0.051325,-0.487707,0.785775,0.782950,-0.618746,-0.064372
0.256371,0.319168,0.732870,0.843356,0.537355,0.000710
0.004045,0.067359,0.708438,0.771136,-0.542004,-0.334037
0.159550,0.721680,0.644243,0.876491,-0.370180,-0.307782
-0.383138,0.011975,0.344688,-0.474318,-0.116227,-0.872648
0.071078,-0.430991,0.762595,0.964853,-0.197174,0.173726
0.573668,0.438306,0.714716,0.314622,-0.463689,0.828254
0.316617,0.030123,-0.980363,0.340460,-0.257191,0.904400
-0.395422,-0.442030,0.689769,0.138597,-0.824543,0.548561
0.599879,-0.195325,0.735165,0.521845,0.806927,-0.276670
0.282143,-0.331017,0.829203,-0.503733,0.728601,0.464106
-0.084171,-0.292330,0.718401,0.778984,0.303716,0.548581
-0.401912,-0.116943,0.766624,-0.342885,-0.881569,0.324448
-0.075016,0.448711,0.686132,-0.209126,-0.894839,-0.394372
-0.226849,-0.067699,0.750015,0.946756,-0.045109,-0.318775
-0.050330,0.171059,0.694708,-0.183933,-0.923194,0.337464
0.148484,-0.539846,0.734588,-0.609577,0.788199,-0.084608
0.029498,-0.133489,0.667596,0.707325,0.487873,-0.511539
-0.083564,0.416633,0.555003,0.875365,0.124096,0.467265
0.215800,0.560255,0.614117,0.874073,-0.450646,0.181425
0.274205,-0.421245,0.827961,0.531242,-0.760753,0.372877
-0.268014,0.732048,0.433026,0.849876,0.440958,0.288560
-0.484282,0.109082,0.495590,0.140531,-0.748020,0.648627
-0.064555,0.449131,0.678779,-0.079620,-0.978567,0.189912
-0.098680,0.030877,0.618033,0.984053,0.014809,0.177260
0.235924,0.014909,0.825150,0.859558,-0.510950,-0.009482
0.332204,-0.160317,0.754979,-0.812100,0.562284,-0.155986
0.038697,-0.211390,0.789088,-0.763978,-0.539828,0.353445
0.128770,0.332146,0.670930,0.066395,0.896543,0.437952
0.496044,0.254320,0.668772,0.848668,-0.216784,0.482460
0.137103,-0.124670,0.842821,0.037509,0.561714,0.826481
-0.622837,0.105721,0.314906,-0.645020,0.635245,-0.424749
-0.070799,-0.086957,0.718641,0.913253,-0.005532,0.407356
-0.426680,-0.535353,-0.092854,0.785304,-0.474018,0.398253
0.586119,0.171336,0.697766,-0.125528,0.649919,0.749565
0.466243,0.172667,-0.928593,-0.369781,-0.795190,0.480557
-0.210712,0.250384,0.577762,-0.370504,0.780074,0.504195
-0.351525,0.338987,0.400146,-0.330795,-0.902715,0.275099
-0.084883,0.144051,0.470308,-0.596593,0.358481,-0.718031
-0.058384,-0.206908,0.669660,-0.145619,-0.244758,0.958587
0.128035,0.073504,0.759276,0.774616,-0.238668,-0.585669
-0.047285,0.176934,0.566554,0.161256,0.908536,-0.385433
0.496590,-0.211111,-0.970191,-0.066296,0.265241,0.961900
0.181805,-0.193038,0.893668,-0.349495,0.752502,0.558205
0.351055,0.285180,0.788828,-0.400111,-0.845602,0.353367
-0.406613,0.140400,0.591974,-0.790954,0.288559,-0.539561
0.199218,-0.277500,0.980988,-0.005466,-0.936956,0.349404
0.614676,0.125027,0.425200,-0.193705,-0.815027,0.546085
0.051973,0.184668,0.670112,0.793410,-0.195466,-0.576449
-0.061545,-0.147391,0.852252,-0.126357,-0.701463,0.701416
0.077968,0.456585,0.602560,0.795457,0.600988,-0.077853
-0.010979,0.228117,0.765768,0.720392,-0.558193,0.411650
0.348646,0.011562,0.558031,-0.709167,0.524653,0.470980
0.281269,0.624138,0.626207,-0.669810,0.664113,-0.332127
0.127159,-0.542877,0.665904,-0.226641,0.973913,-0.011267
-0.392492,0.539610,0.417692,-0.457956,-0.542074,0.704580
0.091831,-0.159904,0.920889,0.752831,0.640642,0.151073
0.306631,0.437952,0.608045,-0.001421,-0.016996,0.999855
0.391578,0.106263,0.750853,0.485487,0.414663,-0.769647
0.346018,-0.747820,0.770896,-0.393749,0.205865,0.895869
0.598432,0.207016,0.567044,0.088130,-0.951279,0.295468
-0.513542,0.086846,0.571625,0.295274,0.946827,-0.127794
0.108055,-0.041254,0.754613,0.836701,0.204740,-0.507950
0.356750,-0.166655,0.782450,0.839694,0.453868,0.298192
0.255109,0.041029,0.744465,0.405955,0.684687,0.605313
-0.118071,-0.229487,0.846648,0.346382,-0.807039,0.478235
-0.023653,0.008439,0.636776,0.567886,0.804883,0.172248
-0.613687,0.172428,0.607292,0.896087,0.443703,-0.012453
-0.482991,-0.219987,0.376017,0.758791,0.461181,-0.459943
0.157403,-0.152560,0.914573,0.747626,-0.455126,-0.483649
-0.302241,-0.544441,0.006695,-0.775799,0.623048,0.099734
0.048641,-0.183077,0.820283,-0.322328,0.735433,0.596022
0.269687,-0.682958,-0.950226,-0.102211,0.471667,0.875833
-0.194114,-0.229202,0.641011,0.929361,-0.366912,0.040782
0.300534,-0.694567,0.793959,-0.452333,-0.716324,0.531296
-0.724202,-0.548714,0.631402,-0.608424,-0.772127,0.183412
0.265278,0.327989,0.808007,-0.010746,0.307747,0.951408
-0.652459,-0.071101,0.607847,0.923305,0.325652,0.203616
0.644828,-0.273431,0.685582,0.525553,0.850756,0.002764
0.023623,0.243213,0.681389,-0.163854,0.819642,-0.548943
0.542506,0.305916,0.597814,-0.004364,0.739840,0.672769
0.453382,-0.353335,0.813137,0.326578,-0.919343,0.219442
0.535246,0.001858,0.666774,-0.289788,-0.571609,0.767650
0.363571,-0.187825,0.828656,0.581316,0.774083,0.250734
0.216107,0.678096,0.622800,0.234539,0.902669,-0.360806
0.307744,0.600052,0.650026,0.830810,-0.535307,0.152319
0.189560,-0.180672,0.939404,0.201888,0.421599,0.884022
-0.308454,0.231607,0.323027,0.351095,0.180516,-0.918775
0.027855,0.410083,0.755739,0.979632,-0.094745,-0.177044
-0.018538,-0.460630,-0.980230,-0.279510,0.181609,0.942811
0.059204,0.275206,0.696778,0.404153,-0.614827,0.677236
0.287299,-0.164052,0.166399,0.886951,0.428405,0.172589
0.633994,-0.260547,-0.942388,-0.568394,-0.101010,0.816532
-0.154326,0.346178,0.714255,-0.136849,-0.854795,0.500598
-0.324464,-0.134297,0.757507,-0.177804,0.836648,-0.518078
0.174815,0.052915,0.837271,-0.434026,0.881789,0.184577
0.333654,0.525443,0.552926,0.350131,0.788133,-0.506217
-0.933405,0.156040,0.537529,-0.534425,-0.686528,0.493020
-0.170185,-0.225160,0.651029,-0.190381,0.799683,0.569441
0.169549,0.107803,0.629924,0.805828,-0.266530,0.528775
-0.009321,-0.127692,0.628228,0.894331,-0.378222,0.238999
0.577915,0.142188,0.750697,-0.717839,-0.631131,0.293907
-0.033082,-0.373058,0.773200,0.467459,-0.857779,-0.213769
-0.160295,0.379097,0.584443,0.424546,0.037700,-0.904621
0.491178,0.231711,0.609270,-0.353771,0.759514,0.545880
-0.192265,-0.146102,0.413919,-0.501516,0.758882,-0.415427
-0.388473,0.212650,0.597436,-0.663483,0.216506,-0.716181
-0.679244,-0.512737,0.651651,-0.479573,-0.833793,0.273495
0.483875,-0.871051,-0.941939,0.186559,0.241041,0.952415
-0.221452,-0.626382,0.812692,0.436466,0.899712,0.004009
-0.523020,-0.337285,0.316537,-0.409034,0.622825,0.666918
0.089099,0.621564,0.362866,0.386669,-0.832098,0.397619
0.177286,0.242920,0.779666,-0.222449,-0.636016,0.738918
0.047845,-0.081089,0.816925,0.950582,0.117015,0.287580
-0.157054,0.303927,0.583059,0.495091,0.863963,0.091938
0.211651,-0.063810,0.802874,0.990245,0.116380,-0.076615
-0.222579,-0.754341,0.743450,-0.523057,0.830463,0.191685
0.650263,-0.678036,0.602286,-0.038931,0.823916,0.565373
-0.282680,-0.472569,0.749323,0.777232,-0.627094,-0.051611
-0.291400,-0.444512,0.499737,-0.186019,0.293587,-0.937658
-0.111198,-0.028092,-0.983786,-0.032104,0.146126,0.988745
-0.469274,-0.594372,0.366782,-0.581666,-0.051486,0.811797
-0.385172,-0.490630,0.656926,0.121463,0.668941,0.733324
0.173471,-0.054894,0.827678,-0.145327,-0.244158,-0.958784
-0.372098,-0.060692,0.742949,0.381714,-0.895460,-0.229011
-0.074967,0.364564,0.593594,0.061222,-0.314948,0.947132
0.105871,0.194152,0.768286,0.859454,-0.251151,-0.445267
0.317324,-0.280008,0.827705,0.449954,0.695473,-0.560231
0.101042,-0.816347,-0.090949,-0.086125,-0.524429,0.847087
-0.001327,0.326146,0.775397,-0.022204,0.962206,0.271414
0.068635,-0.317246,0.897331,0.362087,-0.771001,-0.523881
0.486888,0.290961,0.577731,0.021486,0.634866,0.772324
-0.182069,-0.121919,0.906693,0.326140,0.910909,-0.252741
0.478071,-0.470751,0.735441,0.158156,-0.901418,0.403028
0.153799,-0.207420,0.913085,-0.427550,0.579175,0.694087
0.478786,0.242849,0.685918,0.035014,0.841242,0.539524
-0.289192,-0.318065,0.804315,0.134279,-0.382346,0.914210
0.234815,-0.214954,1.000000,0.428372,0.439683,0.789415
0.081774,-0.069251,0.857709,-0.869990,0.306256,-0.386426
0.350478,0.718110,0.369095,-0.640844,-0.731468,-0.232967
-0.141002,-0.087833,-0.046921,-0.219463,-0.413902,0.883471
0.218623,0.753644,0.650024,0.636797,0.417833,0.648001
0.376000,-0.315047,0.822921,0.440487,-0.047284,-0.896513
0.127083,-0.281679,0.897852,-0.145534,0.836017,0.529051
0.226820,-0.049353,0.899997,-0.519279,0.838609,0.164573
-0.310380,0.569663,0.358345,-0.418474,0.904800,-0.078841
0.120874,-0.235000,0.812408,0.063122,0.486979,0.871130
0.350692,0.576539,0.575976,0.681120,0.227504,-0.695929
0.245904,0.283210,0.673495,-0.039398,-0.794275,0.606280
-0.378811,-0.268574,0.654604,-0.580765,-0.773681,-0.253237
-0.373180,-0.291722,0.656966,-0.502994,-0.696522,-0.511717
-0.286100,-0.145992,0.542282,0.680995,-0.426781,0.595066
0.657839,0.151979,0.780438,-0.651653,0.306215,-0.693961
-0.354644,-0.110844,0.478602,0.042992,-0.117585,0.992132
0.815331,-0.384897,0.700961,0.563675,-0.724198,-0.397251
0.112342,0.499251,0.536511,0.322861,-0.946304,0.016444
0.167580,0.145450,0.888787,-0.752510,0.552141,0.358982
0.052270,-0.205402,0.805273,0.913987,-0.342090,-0.218178
-0.050553,0.178056,0.584683,0.953524,0.072835,0.292381
0.157392,0.018471,0.778193,0.848533,0.310909,0.428167
-0.414208,-0.111352,0.593142,-0.324234,0.371402,0.870019
-0.225371,0.596295,0.421321,0.222997,-0.257317,0.940245
0.386249,-0.506843,0.785463,-0.822502,-0.501431,0.268436
0.663287,-0.467662,-0.955595,-0.001928,-0.178124,0.984006
0.148380,-0.044308,0.767456,0.567687,0.031470,0.822643
0.324475,0.013019,0.747194,0.174343,0.983927,-0.038637
0.572390,0.497802,0.497113,0.117104,-0.651457,0.749593
0.693181,0.369907,0.669521,0.900338,-0.398354,0.175232
-0.561038,-0.221574,0.371546,0.282824,0.665148,-0.691078
0.263131,-0.365240,0.682786,0.895841,-0.281831,-0.343571
0.439456,-0.580502,-0.945715,-0.301209,-0.407651,0.862029
0.036284,-0.100142,0.900901,-0.753439,0.286213,-0.591956
-0.613792,-0.526212,0.651246,0.286515,0.955975,0.063407
0.345943,0.014252,0.657000,0.840269,-0.467916,-0.273866
0.080473,-0.006073,0.811055,0.836205,0.027707,-0.547717
0.209181,0.103031,0.675705,0.002576,0.806756,0.590879
0.596914,0.068110,0.764452,0.189739,0.249056,-0.949721
0.776608,-0.557571,0.600584,-0.435293,0.552411,0.710888
-0.335028,-0.099954,0.796909,-0.114454,-0.826329,0.551436
0.018901,-0.152351,0.942080,-0.426872,-0.230843,-0.874352
0.790776,0.406027,0.621256,-0.501247,0.844760,-0.187435
-0.544648,-0.297883,0.488516,0.865991,0.475138,-0.155896
0.305556,-0.602609,-0.654828,0.931318,0.361208,-0.046637
-0.221008,-0.460960,0.717093,0.922419,0.076096,-0.378619
-0.031740,-0.193575,0.379784,0.287415,0.460047,-0.840089
-0.258597,0.400894,0.432729,0.802697,0.428735,-0.414565
0.208052,-0.213295,-0.237315,-0.246507,0.968690,0.029565
-0.643391,0.099605,0.500112,0.384872,-0.657666,0.647572
0.133032,-0.273996,0.944299,0.987567,0.102264,-0.119389
-0.033572,0.256689,0.636703,0.940935,0.328008,0.083982
0.135501,-0.249028,0.858745,0.036580,0.707509,0.705757
0.273881,0.425696,0.571876,0.031549,-0.453035,0.890935
0.396705,-0.299101,0.756941,0.744773,-0.353142,0.566218
0.182509,0.011108,0.601975,-0.100089,0.981396,-0.163842
0.142337,0.676689,0.583758,0.864724,-0.467130,-0.184503
0.150625,0.767370,0.384288,-0.308410,0.822536,-0.477825
0.767597,0.293328,0.611854,-0.729150,0.662165,-0.172849
0.422054,-0.769299,0.781890,0.354088,-0.856534,0.375461
0.113262,-0.212867,0.911201,-0.412562,-0.482134,-0.772877
-0.199021,-0.192439,0.483840,0.532154,0.663502,-0.525907
0.557450,0.072297,0.413297,-0.622937,0.778533,-0.076399
0.277683,-0.392915,0.920183,-0.537652,0.650885,-0.535983
0.359070,-0.173249,0.800175,0.122614,0.799471,0.588057
-0.088130,-0.225837,0.730973,-0.124911,0.797652,0.590040
0.150181,0.611179,0.620084,0.428967,-0.222473,0.875496
0.279776,0.999714,0.642622,0.851298,-0.315545,-0.419195
0.503883,-0.554575,-0.944931,0.920451,-0.347240,-0.179426
-0.109262,-0.318376,0.830791,0.006483,-0.914613,0.404278
0.229397,0.283932,0.596576,0.819511,0.564045,0.101271
0.764331,0.369891,0.586802,0.869383,-0.311305,-0.383748
-0.137170,0.210221,0.741129,0.810217,-0.536365,0.236348
0.405301,0.486256,0.596595,0.930434,0.309618,0.196033
-0.260624,-0.241974,0.562020,0.828717,0.517213,-0.213820
0.134412,0.319570,-0.941580,0.276177,0.955157,-0.106773
-0.375726,-0.244182,0.614810,0.731726,-0.194026,0.653399
-0.727762,-0.255645,0.387249,0.349441,0.063276,0.934819
0.333006,-0.645514,0.763602,0.408818,-0.416623,-0.811968
0.239524,-0.158325,0.729030,0.960866,-0.274367,0.038202
0.594164,0.053727,0.467630,-0.626095,0.078010,-0.775835
0.040397,-0.267948,0.641597,0.120593,0.301512,0.945806
-0.133845,-0.363793,-0.063113,-0.149945,0.930314,0.334711
0.268832,0.215452,0.781037,-0.523637,0.055338,0.850142
0.019363,-0.359249,0.744355,0.325543,-0.931133,0.164357
-0.739535,-0.072537,-0.070262,0.811528,0.310913,-0.494728
-0.273866,0.213246,0.381164,0.979160,-0.085431,0.184246
-0.018455,-0.096497,0.557218,-0.634797,-0.364273,-0.681424
-0.358578,0.618069,0.408754,0.119334,0.331987,0.935705
0.073666,0.131662,0.759313,0.769784,-0.333619,0.544179
0.689395,0.036814,0.777719,0.784584,0.245519,-0.569340
-0.048499,-0.254829,0.372503,-0.140250,-0.051628,0.988769
-0.124747,-0.033158,0.484894,0.616019,-0.410134,-0.672540
0.551410,-0.006242,0.776208,0.372424,0.538222,-0.756054
-0.244919,-0.198475,0.762726,0.777323,0.263896,0.571076
0.391195,-0.383702,0.802084,-0.125029,0.768596,-0.627397
-0.379990,-0.621035,0.720990,-0.598609,0.795282,-0.095887
0.691118,-0.471795,-0.941876,-0.273644,0.606287,0.746683
0.686896,0.506160,0.561837,0.326581,0.944939,-0.020857
0.207554,-0.203874,0.017484,0.902095,-0.396516,0.170290
0.723948,-0.042529,0.773065,-0.431556,0.886642,-0.166207
-0.026672,0.460019,0.494151,0.395389,0.630239,-0.668182
0.656524,-0.520952,-0.945392,0.863488,-0.056402,-0.501207
0.197741,-0.225918,0.888996,0.208716,0.973499,0.093475
0.603101,-0.045386,0.756235,0.123126,0.992204,0.019269
0.079581,-0.300811,0.830442,-0.276744,0.954074,0.114701
-0.070689,0.099346,0.663385,0.930817,-0.062534,0.360096
-0.023962,0.195565,-0.977021,0.505562,-0.084803,-0.858612
0.599960,-0.010348,-0.948766,0.456540,0.397520,-0.795958
0.251985,-0.224287,0.787116,0.737680,0.620453,0.266207
0.469453,-0.012704,0.495819,0.598040,0.796982,0.084669
-0.422628,0.260717,0.325957,-0.435533,0.044061,0.899094
0.191356,0.670111,0.637093,0.067962,-0.938967,0.337228
-0.365923,0.267033,0.592546,0.165179,-0.068572,0.983877
0.381108,-0.463787,0.732338,0.458402,-0.760473,0.459945
-0.077373,0.466618,0.591385,-0.241877,0.800169,0.548839
0.154978,-0.203026,0.686837,0.956043,0.035782,-0.291036
0.195208,-0.035639,0.826419,0.733017,-0.580695,-0.354231
-0.313042,-0.190003,0.591848,-0.724349,-0.633405,0.272245
0.144248,-0.250013,-0.538332,0.862658,0.497985,0.088499
0.059109,-0.087440,0.851363,0.474165,0.073012,-0.877403
0.371856,0.251913,0.595629,-0.096532,-0.872841,0.478362
-0.379089,0.005818,0.788132,-0.448126,0.084378,-0.889980
0.223631,-0.244863,0.935276,0.894367,-0.294439,0.336768
0.053884,0.175801,0.464362,-0.318370,0.111286,0.941412
0.708466,-0.110577,0.705343,0.248554,0.934160,-0.256057
-0.196342,-0.230565,0.847968,-0.011811,-0.914532,0.404341
0.350564,-0.619773,-0.644149,0.944969,0.325707,-0.030812
-0.319334,-0.276607,0.526010,0.971304,0.225536,-0.075512
0.161961,-0.012443,-0.955652,-0.458156,0.598664,0.657034
-0.569382,0.101890,0.524934,-0.679119,-0.267341,0.683612
0.249209,0.424074,0.636791,0.713314,0.128404,0.688981
0.510268,-0.155117,0.792833,0.897854,-0.393722,0.197081
-0.055619,0.341985,0.683545,0.926074,-0.072672,0.370278
-0.513291,0.165349,0.534434,-0.377831,0.910349,0.168842
-0.135549,-0.360339,0.749945,0.316891,0.379594,-0.869189
0.111103,-0.142752,-0.329537,-0.627607,0.586460,-0.512030
0.476991,-0.436103,0.426285,0.783692,-0.025238,-0.620637
0.517732,0.014941,0.813579,0.818235,-0.407492,0.405514
0.468750,-0.133126,0.718078,-0.727604,0.255214,0.636757
0.082926,0.155705,0.759184,0.975552,0.204137,-0.081400
-0.369536,-0.221369,0.316435,-0.301716,-0.208639,0.930289
0.436982,0.156636,0.401072,-0.605965,0.680772,0.411528
0.545811,-0.395707,0.526469,0.877123,0.480179,0.009168
0.268719,0.295471,0.610849,-0.641283,-0.068154,0.764272
-0.587649,0.531731,0.428096,0.860422,-0.241706,0.448612
0.973087,-0.146169,0.753912,-0.489540,0.595492,-0.636978
0.354651,-0.657266,-0.948054,0.003972,0.157966,0.987437
0.192230,0.436770,0.608719,-0.694768,0.417883,0.585382
0.030510,0.037194,0.641066,-0.061356,-0.634238,0.770699
0.321182,-0.198023,0.832179,0.396339,0.255452,-0.881850
0.348663,-0.386529,0.773202,-0.015163,-0.986095,0.165491
0.381222,-0.460687,-0.973692,-0.384650,0.349641,0.854281
0.512800,0.165483,0.778008,0.220048,0.869739,-0.441738
0.558073,0.343726,0.685554,-0.425661,0.877737,0.219979
-0.102120,-0.018015,0.554804,-0.199088,0.236873,-0.950923
0.011308,-0.244425,0.533825,0.764396,0.642868,-0.049196
0.302386,0.187941,0.793441,-0.735915,0.177334,-0.653438
-0.181740,0.350529,0.587020,0.766185,0.355831,-0.535111
0.014967,0.106491,0.589409,-0.225050,0.676200,0.701503
0.064051,0.093976,0.663887,-0.492999,-0.830895,0.258004
0.081253,-0.594238,0.750962,-0.273304,0.952896,0.131508
0.620747,0.376670,0.688122,-0.320759,0.907333,-0.271772
0.206674,-0.400029,0.653090,-0.384671,0.181113,-0.905111
0.206123,-0.049725,0.750008,0.816078,0.408622,-0.408711
-0.031158,0.127232,0.758541,0.984527,-0.140385,-0.104876
-0.236302,0.493855,0.417012,0.858022,-0.178475,0.481606
0.262201,0.863882,0.616642,0.923205,0.356303,0.144014
0.244998,-0.334348,-0.215128,-0.009759,0.969278,0.245776
0.309446,0.642081,0.631111,-0.240211,-0.724629,0.645919
-0.110235,-0.177953,0.747512,0.177193,-0.737276,0.651941
0.188500,-0.062041,0.845029,0.389930,-0.430436,0.814051
0.660338,0.446134,0.709847,-0.187348,-0.940557,0.283291
-0.037415,-0.158344,0.720246,0.237628,0.334944,0.911781
0.001350,0.363413,0.675760,-0.692497,0.140671,-0.707573
0.373193,0.220656,0.743325,0.298931,0.939481,0.167381
0.360897,-0.285546,0.781168,-0.444642,0.802508,-0.397837
0.215771,-0.008382,0.561633,0.439168,0.826862,0.351327
0.476298,-0.376329,0.546515,0.821435,0.439963,0.362873
0.314710,-0.285160,0.873948,0.310740,-0.327519,0.892285
0.121080,0.115797,0.634757,0.823416,0.429010,0.371398
0.137352,0.139805,-0.954143,0.196300,0.375466,-0.905810
-0.235010,0.538865,0.420181,-0.029099,-0.429234,0.902724
0.393290,0.142169,0.774796,0.022694,-0.518898,0.854535
0.191550,-0.047619,0.917556,0.978095,-0.184132,-0.097090
-0.327080,-0.339803,0.648970,0.465826,-0.634451,0.616829
0.383182,-0.067723,0.462633,-0.000567,0.999893,0.014626
-0.516649,-0.426349,0.355363,0.633849,0.401851,-0.660871
0.204359,-0.217575,0.942227,-0.131107,-0.067669,0.989056
-0.249374,0.312550,0.426894,0.625637,0.749594,-0.216071
0.103877,-0.074756,0.551099,-0.261607,0.739650,0.620065
-0.335989,-0.246368,0.331351,0.975035,-0.143986,-0.169041
0.244546,-0.043508,0.841109,0.020429,0.850216,0.526037
-0.110140,-0.116323,0.843890,0.920990,0.387710,-0.038187
-0.387734,-0.328343,0.461744,0.756732,-0.648448,0.082892
0.292465,-0.640687,0.787806,0.530954,-0.164677,0.831246
0.058552,-0.056198,0.893952,-0.698849,0.517273,-0.494002
0.307786,0.095629,0.826190,-0.743168,0.063243,-0.666109
-0.292337,-0.137020,0.774500,-0.060579,-0.953689,0.294632
0.422060,-0.014284,0.458026,0.058465,-0.997369,-0.042858
0.025391,0.071315,0.697625,0.975339,0.198132,0.097253
0.201985,0.090261,0.854940,0.100915,-0.142780,0.984596
0.354337,-0.164788,0.690543,-0.136879,0.173830,-0.975217
-0.044269,-0.141502,0.376817,0.264051,0.323241,0.908731
0.071495,-0.112790,0.858613,-0.569003,0.822268,0.010513
0.434278,-0.313416,0.854194,-0.634894,0.418345,0.649535
0.018072,-0.255326,0.964607,0.700832,0.323309,-0.635850
0.080715,-0.309215,0.796189,0.173177,-0.868086,0.465227
0.244719,-0.066168,0.671028,-0.304070,0.574109,-0.760224
-0.476644,-0.521127,0.660822,-0.761958,0.524754,-0.379545
0.092762,0.598134,0.578407,-0.685757,0.695016,0.216081
0.191372,0.185855,0.776386,0.853316,0.075384,-0.515915
0.258052,-0.043251,0.587122,0.096894,-0.709031,0.698489
0.110204,-0.202277,0.884109,-0.520944,-0.596277,0.610796
0.307275,-0.209093,0.870389,0.763279,0.416759,0.493677
-0.266150,-0.426114,0.663062,-0.167905,-0.242083,0.955617
0.061625,-0.146828,0.383075,0.726041,0.497594,-0.474620
0.097449,-0.240969,0.666471,-0.006756,-0.704700,0.709473
0.403476,-0.770400,-0.942448,-0.083292,-0.004976,0.996513
-0.038473,-0.108048,-0.956507,0.821071,0.004376,-0.570810
0.352112,0.084055,0.577163,-0.176400,-0.481739,0.858377
-0.691664,0.128058,0.645104,0.212610,0.335598,-0.917699
-0.381606,-0.498847,0.771419,-0.604707,-0.292516,0.740786
0.538052,-0.464689,0.522227,0.886341,0.459741,0.055128
0.333699,-0.662845,-0.960406,-0.180659,-0.402992,0.897195
0.128563,0.393184,0.776443,0.268701,0.518680,-0.811647
-0.036358,-0.177862,0.845309,-0.608414,0.758353,-0.233952
0.291953,-0.300972,-0.942193,-0.373683,-0.865069,-0.334688
0.023398,0.139397,0.843483,-0.616772,0.713211,0.333049
0.127797,-0.088541,0.773914,-0.388124,-0.142633,-0.910503
-0.006399,0.115854,0.758756,0.006547,-0.090483,0.995876
0.281785,0.443836,0.582874,0.262649,0.880366,-0.394931
0.288272,0.130359,0.574200,-0.539253,-0.801322,-0.259015
0.170518,-0.268751,0.940778,0.109480,-0.924066,0.366219
0.588640,0.276635,0.657577,0.736931,0.206481,0.643660
0.133179,-0.074232,0.440793,0.106804,-0.955234,-0.275899
-0.321075,-0.420919,0.669079,0.968778,-0.247154,0.019593
-0.473854,-0.712849,0.687085,-0.730159,-0.212633,0.649350
0.480363,0.239641,-0.906740,-0.431165,-0.648871,0.626947
0.785271,0.420625,0.616712,0.839007,-0.542427,-0.042890
0.274891,-0.088279,0.775591,-0.228844,0.919985,0.318211
0.443771,-0.331509,0.656074,0.263657,0.898715,-0.350422
-0.218048,-0.153535,0.755500,0.141786,0.616009,0.774874
0.588521,0.140579,0.665519,-0.697659,0.293033,-0.653761
0.517566,0.028652,-0.950889,0.152050,-0.582296,0.798632
-0.002039,-0.039976,0.838567,0.875500,0.414596,-0.248214
0.018439,0.175047,0.402566,0.509385,0.843906,0.168373
-0.247457,-0.121018,0.758872,0.664264,-0.591889,0.456530
0.013907,-0.469793,0.749123,0.093305,0.703724,0.704321
-0.039346,-0.054902,0.781753,0.831154,-0.459939,-0.312471
0.206383,-0.147414,0.573034,-0.141540,0.868298,0.475422
0.169500,-0.454114,0.641883,-0.677146,0.735205,0.030776
-0.586730,0.128818,0.525627,-0.442636,0.060510,0.894657
0.358760,0.441036,0.359984,0.876513,0.469781,-0.105030
0.357789,-0.252343,0.670466,0.192997,-0.974032,0.118380
0.283944,-0.225293,0.729252,0.411284,0.911361,-0.016325
0.263993,-0.117908,0.734415,-0.590161,-0.807150,-0.014807
0.190449,-0.172836,0.920690,0.358084,-0.836294,-0.415196
0.469164,-0.638783,0.794138,0.272911,0.951340,-0.143079
-0.186792,-0.103588,0.769217,-0.559548,-0.386630,-0.733092
0.210572,0.188402,0.569626,0.617671,0.776754,0.123027
-0.230859,0.402602,0.407014,0.104432,-0.367133,0.924288
-0.317352,-0.262687,0.691879,0.634476,0.766953,-0.096035
-0.501717,-0.321577,0.651682,0.708303,-0.516710,-0.480955
-0.183274,-0.342959,0.393735,-0.294706,0.799539,0.523340
-0.068974,0.434230,0.559156,0.860507,0.053582,0.506614
0.656579,-0.704989,-0.949534,-0.568062,0.503814,-0.650751
0.062674,-0.277907,0.778642,0.804014,-0.454362,0.383559
-0.039587,0.029392,0.330429,0.453554,-0.662250,-0.596417
0.327843,-0.247532,0.928508,0.999582,-0.017530,0.023007
0.135796,-0.350260,0.836669,0.575707,0.808444,-0.122392
-0.564319,-0.400113,0.414700,0.300465,-0.830479,-0.469069
0.196711,0.068211,0.801979,0.932904,-0.264883,-0.243982
0.195182,0.139760,0.843054,-0.004437,0.941042,0.338259
0.255632,-0.114482,0.791030,0.087234,0.973687,0.210533
0.035469,-0.240350,0.954589,0.021303,0.942324,0.334023
0.152219,0.163447,0.745624,0.232083,-0.809097,0.539907
0.294244,0.454122,0.487802,0.258079,-0.764482,0.590731
-0.056810,-0.400460,0.624426,0.928525,-0.281748,0.241785
0.499974,0.397562,0.721588,0.087518,-0.595364,0.798675
-0.274651,0.331361,0.390985,0.392553,-0.497972,0.773257
-0.048890,-0.302143,0.815118,0.455124,0.775395,-0.437749
0.752335,0.412590,0.507360,0.091517,0.677919,-0.729418
0.100928,-0.104310,0.437115,0.566043,0.745711,0.351441
-0.316658,-0.590926,0.781668,0.178442,0.919821,-0.349412
-0.165066,0.158411,0.651961,-0.540923,-0.171246,0.823454
-0.549027,0.559963,0.435516,0.824846,-0.561484,0.066062
0.430009,-0.439601,0.702252,-0.707801,0.413441,0.572786
0.211145,-0.198378,0.844459,0.877925,0.053634,0.475785
0.300848,0.016928,0.744112,0.443597,0.853897,0.272179
0.811748,0.073357,0.800151,0.189234,0.597664,-0.779095
0.145155,-0.540936,0.742603,-0.478680,0.856635,0.192462
-0.256257,0.396848,0.595585,0.750083,-0.313642,0.582241
-0.038236,-0.088000,0.763161,0.024979,0.933825,0.356858
-0.035862,-0.215988,0.890571,-0.255820,-0.322276,-0.911425
-0.220926,-0.210084,0.522881,-0.296933,0.938267,0.177443
0.772100,0.446868,0.628464,-0.824711,0.369476,-0.428182
-0.350525,-0.464213,0.674955,0.205422,-0.744280,0.635491
-0.298708,-0.196479,0.327542,-0.651255,-0.673346,0.349960
0.038226,-0.158375,-0.475252,0.543709,0.832760,-0.104359
0.017841,0.343941,0.745908,0.870586,0.239622,-0.429722
-0.058796,0.136914,0.256083,-0.111536,-0.932565,0.343341
-0.420377,0.039046,0.592407,0.780084,-0.467865,-0.415417
0.072855,0.170396,0.794204,-0.451895,-0.709255,0.541062
0.256043,-0.289312,0.953043,-0.292104,0.776763,-0.557955
-0.314924,0.517870,0.419683,-0.734646,0.190380,0.651191
0.231973,0.171603,0.841792,0.970540,0.096625,-0.220717
-0.748720,0.084815,0.545711,-0.462257,0.178560,-0.868582
-0.014205,-0.003157,0.405388,0.691165,0.278183,-0.667012
-0.052534,0.269506,0.375446,-0.779628,0.119547,-0.614726
-0.075277,0.569740,0.372456,0.433100,-0.831088,0.348879
0.150927,-0.189898,0.929403,0.848782,-0.520492,-0.093044
-0.540947,-0.437399,0.660222,0.946158,0.281082,0.160556
0.132059,-0.156004,0.937739,-0.507208,0.232335,-0.829916
0.107794,0.010414,0.230111,-0.620007,-0.768474,0.158237
0.268355,0.785381,0.558791,-0.798332,0.580608,-0.159876
-0.065809,0.129159,0.625589,0.656932,-0.385840,-0.647740
0.149519,-0.483262,0.752233,-0.503313,-0.573118,-0.646692
0.242746,0.225103,0.780080,0.200038,-0.441621,0.874617
0.397993,-0.294613,0.685722,-0.615390,0.788151,0.010643
0.466618,-0.410510,0.744052,0.193634,0.966764,-0.166953
0.114521,-0.250591,0.921002,0.012015,0.920731,0.390014
0.007943,0.665630,0.543843,0.158521,-0.535060,0.829808
0.729687,-0.199958,0.602447,0.860420,-0.405176,-0.309046
0.280175,-0.371986,0.824986,0.724283,-0.486845,0.488258
-0.220506,0.088832,0.593623,-0.267294,0.333274,-0.904147
0.674819,-0.445387,-0.952730,-0.321073,0.743697,-0.586367
0.088910,-0.259559,0.838930,0.586627,-0.686355,0.429867
0.448303,0.154693,0.672632,0.505706,0.501086,-0.702264
0.626526,-0.330893,0.875199,0.515106,0.848176,-0.123543
0.684879,-0.358732,0.693376,0.195784,0.811917,0.549963
-0.200565,-0.108280,0.765727,-0.518828,0.853678,0.045284
0.190222,0.126334,0.636881,-0.700720,0.514193,-0.494567
0.123746,-0.112266,0.700392,-0.368385,0.233863,-0.899778
-0.077190,0.229791,0.420587,-0.608071,-0.493927,0.621519
0.194898,-0.208981,-0.647675,0.979762,0.182719,-0.081729
0.359536,0.622936,0.637922,-0.196806,-0.979862,0.033743
-0.379312,-0.104328,0.779290,-0.426596,-0.891657,-0.151541
0.244016,-0.312058,0.934423,-0.061817,0.411631,0.909252
0.114915,-0.057816,0.688496,0.164438,0.986318,-0.011724
-0.008587,0.131989,0.678634,0.725072,0.669273,-0.162311
-0.136782,0.316975,0.601287,0.873029,-0.362819,-0.325858
0.186391,-0.196698,0.920063,0.083649,-0.882282,0.463230
0.576575,0.218623,0.584915,0.720626,-0.681319,0.128462
0.361847,-0.291048,0.389973,-0.510028,0.188931,0.839152
0.459526,-0.583038,0.774173,0.775858,0.571116,0.268088
0.192171,-0.154270,0.917759,-0.412195,0.433446,0.801386
-0.867957,0.146600,0.558033,0.927239,-0.221271,0.302104
0.495706,-0.446943,0.720052,0.733972,-0.530386,-0.424235
0.555581,-0.169712,-0.964467,0.610079,0.555065,-0.565426
0.385876,-0.206696,-0.957230,0.153966,-0.203100,0.966977
0.221153,-0.389167,0.834614,-0.040426,-0.831200,0.554502
0.611237,-0.188092,0.689141,-0.590831,-0.776181,-0.220139
0.511444,-0.472510,0.755903,0.246287,0.609651,0.753438
0.199309,-0.180213,0.699121,-0.452092,-0.874012,0.178090
-0.514247,-0.176460,0.616699,0.109281,0.827878,0.550160
0.228698,-0.205096,-0.779667,-0.562538,-0.823286,-0.075836
0.155591,0.209648,-0.951749,-0.046068,-0.620769,0.782638
0.538039,-0.089262,0.565243,-0.684859,-0.680658,0.260142
-0.139667,0.068759,0.401593,-0.658355,-0.569739,0.491901
-0.027354,-0.183849,0.839489,-0.432332,0.792103,-0.430884
-0.171834,0.277521,0.330343,-0.011113,-0.380829,0.924579
-0.075221,0.005018,0.723474,-0.744972,0.661550,-0.085839
0.130131,-0.324500,-0.383373,0.907638,-0.380457,-0.177333
0.267287,0.194620,0.774445,0.832564,0.467503,-0.297116
0.249831,-0.112686,0.954860,0.264064,0.918377,-0.294709
0.209886,-0.262918,0.926708,-0.570893,0.581696,0.579405
-0.319380,-0.314335,0.580833,-0.021434,0.717523,0.696205
0.358578,0.459462,0.625995,0.964520,0.119022,0.235660
-0.331453,-0.109938,0.512541,0.906121,-0.377377,-0.191130
-0.514233,0.019997,0.489155,0.229854,-0.454493,0.860583
0.065470,-0.229669,0.729819,0.577916,-0.809883,-0.100517
0.750623,-0.039649,-0.942104,0.856882,0.491997,0.153924
0.391088,-0.200775,0.602301,0.883955,0.130905,-0.448874
-0.133418,-0.106473,0.919959,-0.157268,0.885901,0.436402
0.308996,-0.104259,0.834079,0.994479,0.071654,-0.076658
0.204530,0.000518,0.843650,0.191729,0.039598,0.980649
0.065586,0.043267,0.873914,0.997183,-0.054928,-0.051073
0.172862,-0.117328,0.911163,0.551850,-0.479976,-0.681971
-0.271418,-0.362668,0.702147,0.160002,0.970043,-0.182800
-0.281289,0.455024,0.413569,-0.143286,-0.738171,0.659222
0.027477,-0.050055,0.822967,-0.131435,0.959803,-0.247998
0.656105,0.349285,0.607588,-0.149167,-0.550944,0.821103
0.591124,-0.219428,-0.973157,0.676822,0.357511,-0.643505
-0.080796,-0.008057,0.636215,-0.591076,-0.692993,-0.412783
-0.580191,0.007362,0.599721,0.430846,-0.123959,0.893871
0.145594,-0.208101,0.783123,-0.148270,0.758674,0.634374
0.019009,0.424911,0.581417,-0.218091,-0.223237,-0.950053
0.270821,-0.240519,0.827905,0.740844,-0.302470,-0.599719
-0.085331,0.380803,0.630960,0.666208,0.263902,0.697512
0.203993,-0.117603,-0.331879,0.484476,0.134815,-0.864354
0.052460,0.315759,0.759887,0.905716,0.222224,0.360963
-0.447295,-0.006873,0.339714,0.055054,0.260005,0.964036
0.115022,-0.424400,0.748342,-0.306736,0.252469,-0.917700
0.159622,0.261817,0.834958,0.021880,0.876671,0.480593
0.077228,-0.527424,0.800946,-0.691482,0.718725,-0.072714
0.611733,-0.361993,-0.956847,0.541772,-0.525034,-0.656371
0.174985,-0.263399,0.785488,-0.357831,0.392165,0.847445
0.119761,-0.145303,0.844190,-0.018893,0.607837,0.793837
0.201047,-0.347206,0.649823,0.216679,0.014565,0.976134
0.370107,-0.209174,0.837718,0.012428,-0.977006,0.212851
0.111941,-0.392732,0.920784,0.916703,0.364346,-0.164034
0.531166,-0.678356,0.785275,0.659861,-0.296814,0.690279
0.564460,0.150984,0.646925,-0.475739,0.876991,-0.067517
0.271769,-0.296544,0.231141,0.819213,0.570004,-0.063136
0.608446,0.129052,0.611172,-0.656059,0.732167,0.183079
0.112029,0.082320,0.355047,0.257134,0.857636,0.445357
0.207688,0.580004,0.586796,0.792184,-0.092972,0.603159
0.058583,0.397105,0.592693,0.331499,0.628437,-0.703687
0.114824,-0.156440,0.882205,0.747051,0.637491,-0.188467
-0.305038,-0.021221,0.606583,-0.576862,-0.379637,0.723261
0.452200,-0.436784,0.631532,0.101185,0.945882,0.308333
-0.054537,0.212800,0.570454,-0.284470,0.862913,-0.417682
0.365557,0.165611,0.779798,0.283386,-0.851232,0.441697
0.195949,0.604371,0.522294,0.805391,-0.466446,-0.365750
-0.237149,-0.586159,0.776195,0.496642,0.867766,-0.018131
0.242481,0.043919,0.762020,0.891909,0.221372,-0.394326
0.018167,-0.115083,0.645771,0.240359,0.402869,0.883133
0.241740,-0.054193,0.568243,0.270716,0.668032,0.693143
0.448092,-0.218897,0.692230,0.763500,-0.099494,0.638098
0.163801,-0.311253,0.587493,-0.070592,0.313983,0.946801
-0.041443,-0.219844,0.858295,0.795851,0.002370,0.605488
-0.096626,-0.439114,0.749528,0.310062,0.131479,0.941581
0.319025,-0.548375,0.787429,-0.380808,0.064463,-0.922404
0.586868,-0.707148,0.799013,0.441921,-0.791300,0.422552
0.166939,-0.217161,0.803980,-0.627987,-0.774240,-0.078642
0.342915,-0.117492,0.948834,0.665508,0.657904,0.352509
0.158212,0.194797,0.592506,-0.376569,0.925823,0.032349
0.340215,0.375202,0.600027,0.099661,0.752763,0.650704
0.514901,0.522884,0.543914,0.298905,0.953970,0.024438
0.185094,0.248611,0.653338,0.273571,0.050298,0.960536
0.216085,0.438458,0.645410,0.862509,0.491402,0.120839
0.415606,0.160891,0.580967,-0.619235,0.779442,0.094960
0.254704,-0.850363,-0.950475,0.148203,0.700972,0.697621
-0.558323,-0.493360,0.642699,-0.636024,0.732478,-0.242795
0.708927,0.402405,0.630274,0.764515,-0.630965,0.131909
0.281797,-0.120588,0.763574,0.847122,-0.182064,-0.499237
0.511743,0.247887,0.669319,0.801109,-0.591046,0.094278
0.215309,0.125388,0.657934,-0.334629,0.858503,0.388581
-0.174224,0.716601,0.583168,-0.582098,0.606363,-0.541743
0.605883,0.341240,0.707249,0.576554,-0.813218,0.079132
-0.224010,0.449110,0.593926,-0.567807,0.369766,-0.735437
-0.091865,-0.175542,0.635743,-0.196088,0.868442,-0.455365
-0.408134,-0.264267,0.476934,-0.680069,0.661231,-0.316671
0.345504,0.087821,0.863423,-0.363914,-0.740500,0.565002
0.114354,0.061633,-0.963239,0.511429,0.068474,-0.856593
0.432046,-0.262560,0.830423,0.726375,-0.324141,0.606063
-0.173244,-0.157820,0.746822,0.359888,0.744365,0.562496
0.237858,-0.617660,0.786350,0.838941,0.498558,-0.218215
-0.428843,-0.071855,0.817411,0.349028,0.890141,0.292965
-0.221685,0.282273,0.575038,-0.618202,0.719387,-0.316715
0.052085,-0.195317,0.929288,0.933542,0.076651,-0.350176
0.593933,-0.262982,0.638337,0.181572,0.526236,-0.830727
-0.002904,0.092430,0.769475,-0.572415,0.395016,0.718542
0.230201,-0.264996,0.802858,0.721206,0.691430,-0.042260
0.080711,-0.174975,-0.552538,0.749181,0.558186,-0.356589
-0.086740,0.395940,0.727459,0.710115,0.584286,-0.392869
0.110540,-0.445491,0.824292,0.287716,-0.432032,-0.854733
-0.312495,-0.165394,0.790289,0.216994,0.958436,0.185238
-0.162036,0.235200,0.683800,-0.295191,0.442675,-0.846700
-0.049785,-0.549866,0.570749,0.849722,0.520523,-0.083836
-0.047574,0.369588,0.595119,-0.120375,-0.429199,0.895153
0.139431,0.978431,0.598259,0.840851,0.539641,0.041925
-0.069180,-0.022423,0.621595,0.882717,0.460511,-0.093493
0.963200,-0.048569,0.761941,0.779217,0.249934,0.574764
0.453505,-0.700458,0.792172,-0.744129,0.355621,-0.565514
-0.155919,-0.341401,0.734202,-0.572545,-0.269649,-0.774262
0.577774,-0.233624,0.661906,0.226043,-0.643703,0.731130
-0.130569,0.128874,0.587533,-0.425723,0.297657,-0.854494
-0.170589,-0.307590,0.796739,0.816881,0.053467,0.574323
0.266536,-0.426805,0.823934,0.184147,-0.749199,0.636232
0.514935,0.137850,0.389961,0.211301,-0.977264,0.017523
0.144535,0.237135,0.823483,0.286684,0.929314,0.232784
0.706455,0.469181,0.722308,0.914904,0.399851,-0.055405
0.199889,-0.334013,0.844252,0.488870,0.357390,-0.795788
-0.258660,-0.365592,0.684965,0.876013,0.478856,-0.057428
0.355205,0.097585,0.639902,0.789976,0.123567,-0.600557
0.354956,0.086894,0.560540,-0.645600,-0.497729,-0.579195
0.392997,-0.037059,0.567445,0.381492,0.244808,-0.891366
0.540973,-0.371416,0.856739,-0.337003,-0.801314,-0.494292
0.105137,0.598464,0.593322,0.668107,-0.624527,-0.404475
0.235064,0.242022,0.779642,-0.044296,-0.444330,0.894768
0.361764,-0.348379,0.841531,0.867806,0.294906,-0.399930
-0.417115,0.043571,0.582833,0.048029,-0.920094,0.388741
-0.354714,-0.061671,0.738382,0.549978,0.069783,-0.832259
0.247680,0.318607,0.744944,0.938745,0.091087,0.332357
0.439489,0.292071,0.651144,-0.617469,0.719635,-0.317581
0.790593,-0.498135,0.760456,0.770682,-0.093843,-0.630272
-0.464914,-0.169832,0.587325,0.644521,0.748933,0.153922
0.156715,0.107506,0.737684,0.798109,0.316210,0.512868
-0.308916,-0.035898,0.776944,-0.175424,-0.619809,0.764894
0.261634,-0.258638,0.953264,0.491394,0.594300,-0.636663
0.303791,-0.116912,0.726449,0.430577,0.864512,-0.259274
0.141433,0.081205,0.465503,0.126700,0.529114,0.839038
-0.191761,-0.235570,0.828801,0.271389,0.962208,-0.022438
0.609169,-0.534283,-0.931084,-0.238758,0.086374,0.967230
-0.004527,-0.414524,-0.406224,0.918040,0.235699,0.318825
-0.053643,-0.296096,0.496783,0.880916,0.447889,0.152912
0.426139,-0.272600,0.744510,0.892296,-0.224841,0.391477
-0.450862,-0.442402,0.686180,-0.546473,0.769545,-0.330407
0.021731,0.560875,0.731686,0.746401,0.582343,0.322122
-0.021069,0.201160,0.757765,0.739619,-0.479007,-0.472774
0.032405,-0.040904,0.635778,0.164600,-0.134534,0.977143
0.607856,-0.021986,0.741466,0.210265,0.689027,0.693563
0.178883,-0.404738,-0.570442,0.819128,0.572182,0.040472
0.444488,-0.746964,-0.951502,0.345559,-0.388495,-0.854202
0.536087,0.346486,0.661824,0.940528,0.318968,-0.116905
-0.088928,-0.306925,0.783217,-0.348164,-0.376693,0.858420
0.120976,0.164742,0.856748,0.044918,0.492341,0.869243
0.558060,0.114848,0.429643,0.824896,-0.551305,-0.124940
-0.243168,-0.084010,0.607464,0.981064,0.192034,-0.025222
0.274866,0.632143,0.590514,0.326349,-0.249845,0.911633
-0.069604,0.205106,0.394021,0.094187,0.851709,0.515481
0.669797,0.166893,0.559725,0.052513,-0.962935,0.264574
-0.022715,0.377114,-0.941750,0.734827,0.629846,-0.251641
0.525307,-0.730370,-0.945244,0.541197,0.041746,-0.839859
-0.320630,-0.479611,0.747679,0.082515,0.970197,0.227835
-0.372299,-0.327537,0.497653,-0.233863,0.123653,0.964374
-0.158900,0.008044,0.652439,-0.300320,0.779826,-0.549253
0.102390,-0.201313,0.808032,0.784193,-0.558733,-0.269923
-0.293090,0.065031,0.580665,0.357564,-0.847665,0.391935
-0.131308,-0.519354,0.730851,-0.366189,0.848928,0.381086
0.144207,0.175495,0.480564,-0.634826,-0.555772,-0.536763
-0.488119,-0.025280,0.486971,0.088937,-0.714471,0.693989
0.204375,0.485726,0.613565,-0.160649,-0.582171,0.797037
0.259592,0.135153,0.835767,0.863254,0.183621,0.470187
-0.212874,-0.286932,0.567796,0.752474,0.644493,0.135692
0.258284,0.160127,0.861739,-0.891585,0.372592,0.257394
0.301781,-0.808858,-0.944315,-0.116040,-0.143744,0.982788
0.151927,-0.766756,0.726361,0.798964,0.240420,-0.551231
0.128470,-0.367823,0.951515,0.881902,0.148980,0.447274
0.778320,0.001611,0.605761,0.775536,0.165687,-0.609172
0.402145,0.340530,0.343389,0.833037,0.506334,0.222881
-0.197413,-0.214106,0.631259,0.203318,0.930996,-0.303164
-0.202899,0.224157,0.383932,0.883100,-0.332651,-0.330875
-0.156045,-0.367690,0.667334,0.006538,0.257506,0.966255
0.753893,0.456030,0.637477,0.897677,-0.369058,0.240775
-0.583434,0.740756,0.440771,-0.626558,-0.016698,0.779196
0.708591,-0.043903,0.546550,0.846536,-0.368247,0.384410
0.138223,-0.114918,0.950845,0.594555,0.563845,-0.573221
0.778212,-0.313858,0.705200,0.837197,0.213012,-0.503714
0.261161,-0.024662,0.781676,0.839345,0.358286,0.408816
-0.508092,-0.054794,0.796012,0.898440,0.411362,0.153580
0.201419,-0.371519,0.805929,0.232029,-0.828523,0.509620
-0.350707,-0.300103,0.628491,-0.249806,0.688390,0.680967
-0.653026,0.162740,0.632926,-0.428915,-0.852644,-0.298379
-0.257581,0.349500,0.560871,0.875864,-0.205767,0.436488
0.429293,-0.533171,0.850153,0.639745,-0.112468,-0.760314
0.258042,-0.359031,-0.546766,0.870829,0.457167,-0.180707
0.090139,0.097127,0.575861,-0.624533,0.235333,-0.744700
0.226091,-0.078427,0.900795,0.147422,-0.973287,-0.176009
0.605136,0.029439,0.736569,0.394199,0.907476,-0.145239
0.016136,0.187414,0.672587,0.480355,0.812613,0.330030
-0.529272,0.017131,0.600338,0.859533,0.466616,-0.208501
0.663922,0.410384,0.701921,-0.370849,0.920521,-0.122932
-0.328785,-0.237370,0.372522,-0.122394,0.058033,0.990783
0.704255,-0.309798,0.680378,-0.209063,0.539884,0.815364
-0.296546,-0.379646,0.734326,0.879626,-0.474952,0.026055
-0.658136,0.120381,0.628305,-0.039216,-0.980539,0.192365
0.070866,-0.094749,0.842373,-0.614294,0.421089,-0.667328
0.206154,-0.214766,0.705572,0.190371,0.959810,0.206212
0.085066,-0.274958,0.795912,0.150820,0.939430,0.307775
0.204171,-0.241389,0.655563,0.603328,0.159202,-0.781441
0.483428,0.021671,0.489103,0.558230,0.801936,0.212784
0.270434,0.760386,0.622671,-0.353713,-0.729529,0.585384
0.565861,-0.541656,-0.941949,-0.093197,-0.438761,-0.893758
0.533085,0.129081,0.777530,0.871080,0.490034,0.032974
-0.220018,0.371843,0.709835,0.913917,0.015290,-0.405612
0.207103,-0.254601,0.642035,0.151677,-0.972912,0.174463
0.321634,-0.042847,0.686124,-0.093301,0.972939,-0.211385
0.168381,0.265568,0.571779,0.150197,-0.580640,0.800186
0.237979,0.674861,0.602702,0.982123,-0.088659,0.166054
0.184358,0.166430,0.848643,-0.139981,0.988948,-0.048850
0.408878,-0.166695,0.769217,0.285135,0.713099,0.640459
-0.324174,-0.025890,0.592954,0.953146,0.238818,0.185685
-0.221697,-0.451407,0.688333,0.442533,0.058227,-0.894860
0.462896,-0.037508,0.805495,-0.470561,0.558043,-0.683492
0.232985,-0.273849,0.757425,0.447442,0.525126,0.723905
0.129113,-0.186143,0.778947,0.809548,0.525774,0.261140
0.133922,-0.012801,0.613961,-0.489809,0.863811,-0.117970
0.490900,-0.106544,0.682994,-0.143444,-0.901875,0.407487
0.256594,-0.415337,0.634603,-0.412964,0.887781,-0.203239
0.211844,-0.008882,0.806874,-0.762463,-0.430143,-0.483349
0.402060,-0.520547,0.760022,0.767956,0.276246,0.577869
-0.580198,-0.055829,0.592324,0.642894,0.255543,0.722070
-0.309512,-0.099486,0.787745,-0.080766,-0.559313,0.825013
0.139737,0.059842,0.849529,0.018448,-0.396709,0.917759
0.149770,0.143042,0.778858,-0.020394,0.438486,0.898507
0.399229,-0.423472,0.938186,0.815743,-0.447251,-0.366782
0.016950,0.602731,0.726134,-0.498912,-0.773174,-0.391521
-0.437568,-0.540992,0.709104,0.407540,0.867682,0.284673
0.663430,-0.364677,-0.948883,-0.076687,-0.080984,0.993761
0.375253,-0.212708,0.819560,-0.598274,-0.681526,-0.421415
0.522795,0.059283,-0.937618,-0.033242,-0.956012,0.291439
-0.070096,-0.273017,0.529938,-0.323415,-0.939215,-0.115226
-0.658301,-0.167085,0.394013,-0.005294,0.626008,0.779799
-0.240054,0.294987,0.566254,-0.838312,-0.152279,-0.523492
-0.080853,0.235975,0.602397,0.932052,0.290369,0.216715
0.252255,-0.111694,0.814276,-0.573419,-0.753860,0.320758
-0.667979,0.184385,0.330189,0.716119,-0.691237,0.096776
0.106233,0.174596,0.846284,0.201731,0.978832,-0.034541
0.610649,0.194772,0.672351,0.892730,-0.095685,0.440316
0.392669,-0.706513,-0.952643,-0.315402,-0.899629,-0.301977
0.174750,0.293138,0.766847,0.959110,-0.264742,0.100096
0.526193,-0.140986,0.576380,0.410923,0.467672,-0.782576
0.283840,-0.197911,0.948084,0.874043,0.110599,-0.473093
-0.097360,0.475588,0.736282,0.583162,0.348419,-0.733843
0.492223,-0.070736,0.487841,-0.620835,-0.782055,0.054359
0.595720,-0.104399,0.509770,0.602153,0.104484,-0.791515
0.112132,0.151498,0.780883,-0.762945,0.212882,0.610407
0.038725,0.107534,0.652374,0.551807,0.827486,-0.103809
0.749840,0.038485,0.793775,0.422116,0.510947,-0.748833
0.608323,0.020236,0.478004,0.030417,0.830208,0.556623
-0.122227,-0.252577,0.835884,-0.179298,-0.495383,0.849970
-0.617624,0.199404,0.529225,0.002599,0.886394,0.462924
-0.577022,-0.009102,0.336198,0.371473,0.915948,-0.151809
0.124075,0.024236,0.604283,-0.482537,-0.850464,0.209447
-0.352474,0.007743,0.582882,0.064986,-0.946830,-0.315104
-0.060836,0.026499,0.692341,0.971349,0.188892,-0.144227
0.435905,-0.217982,0.868777,0.768641,0.539368,-0.343908
0.016014,-0.017169,0.768627,0.931534,-0.175261,-0.318635
-0.118283,-0.042063,0.765512,-0.227701,-0.851376,0.472559
0.131308,-0.192671,0.799616,0.390385,-0.919742,0.040920
-0.179415,0.370843,0.348871,-0.639674,0.595541,0.485951
0.389872,-0.743349,-0.958710,-0.459113,0.373673,0.805968
0.504158,-0.330486,0.659789,0.896308,-0.326240,-0.300333
0.586058,-0.392682,0.594561,0.924758,0.143815,-0.352334
0.087796,0.195978,0.832075,0.458716,-0.733777,-0.501150
0.168646,-0.178396,-0.954441,0.812965,0.576016,0.085401
0.230212,0.189552,0.646248,-0.455736,0.826202,0.331203
-0.003361,-0.377364,0.805063,-0.669937,0.642141,0.372612
0.308423,-0.208356,0.770894,-0.482346,-0.389414,-0.784665
0.614387,-0.386911,-0.945865,0.026643,0.178435,0.983591
-0.109774,0.396868,0.592777,0.096371,-0.059367,0.993573
0.166239,-0.201769,0.944827,-0.118242,-0.029060,0.992560
-0.263021,0.295952,0.583079,0.643353,-0.715515,0.272278
-0.279134,-0.028962,0.759155,0.683006,-0.728768,-0.048988
0.203367,-0.422343,0.924195,0.232731,-0.763888,0.601923
0.328589,0.134891,0.561528,-0.164963,0.982463,-0.086909
0.426167,0.064671,0.657930,0.120790,0.366187,-0.922668
-0.484353,-0.609411,0.646689,0.642197,0.618483,0.452836
-0.132334,-0.650345,0.420264,-0.397015,0.175391,-0.900898
0.034959,-0.099954,-0.948506,0.643989,-0.627381,-0.437803
0.279923,-0.268664,0.745102,0.967838,0.130577,0.215033
-0.554502,0.041974,0.633895,0.765407,-0.459391,0.450680
-0.124738,0.311989,0.576215,0.130141,0.990831,0.036303
0.236073,0.875535,0.602612,0.931917,0.286601,-0.222239
0.117221,0.345379,0.772440,0.054283,-0.042902,0.997603
0.000261,-0.231335,0.910819,0.387012,-0.614197,0.687738
0.084359,-0.035403,0.564380,0.670620,0.470793,-0.573256
0.436422,0.223580,0.439643,0.448027,-0.660996,0.601960
0.516760,-0.534621,0.598234,-0.245475,0.622773,0.742897
0.211556,-0.072973,0.685572,0.810158,-0.486974,-0.326343
0.541937,0.297697,0.677531,-0.602369,0.671296,-0.431871
0.182196,-0.243918,0.986527,0.048769,-0.982305,0.180829
-0.058785,0.082975,0.664557,-0.497867,0.603459,-0.622869
0.013132,0.211834,0.635508,-0.381232,-0.852846,-0.356814
-0.279716,0.017703,0.246520,-0.202530,0.906411,-0.370676
0.602972,-0.029219,0.776859,-0.151375,-0.743863,0.650964
0.167357,0.042992,-0.947497,0.818374,0.044676,-0.572947
0.767080,-0.511173,-0.943934,0.889986,-0.064614,0.451386
0.548542,-0.475823,0.591567,-0.736416,0.224648,0.638142
-0.291464,-0.059547,0.601262,0.867256,0.399135,-0.297588
0.022924,0.275694,0.674277,-0.130561,0.219428,0.966853
-0.847450,0.125908,0.556764,-0.658032,0.118096,-0.743672
0.230779,-0.230770,0.941436,-0.502253,0.718485,-0.481167
0.032327,0.178402,0.848795,0.348125,-0.926748,-0.141237
0.601333,0.262288,0.582428,0.662534,-0.728762,0.173075
