0.268113,-0.503280,-0.175489,0.480872,0.116981,-0.868952
0.448264,-0.380141,0.346158,0.568968,0.688461,-0.449776
0.079888,-0.362751,0.759814,-0.697397,0.338343,-0.631792
0.010877,0.529358,-0.493350,0.964704,-0.101862,-0.242840
-0.578764,-0.451745,0.038662,-0.512444,0.830971,-0.216538
0.036295,-0.397426,0.312692,0.249779,0.958869,-0.134837
0.306292,-0.367364,0.197028,0.812235,0.152821,-0.562957
0.662093,-0.248845,-0.434225,0.755063,0.001816,-0.655649
-0.571421,-0.053467,0.302595,0.727207,0.685048,-0.043346
0.087047,-0.460014,0.690001,0.436036,-0.472642,0.765821
-0.121554,0.007299,0.438802,-0.036207,0.796098,-0.604084
0.622264,0.182824,-0.984492,-0.075900,0.586456,0.806417
-0.117882,-0.146432,0.792472,0.170877,0.912994,0.370463
-0.269306,0.126677,0.319046,0.949452,0.310266,-0.047697
-0.283531,-0.682237,0.046955,0.191943,0.867965,-0.458033
0.028680,-0.094255,0.015185,0.408002,0.608900,0.680276
-0.315467,0.186257,0.403532,0.499640,-0.866159,0.011364
0.392925,-0.133982,-0.967153,-0.435802,0.164255,0.884928
0.275179,-0.534194,0.496177,-0.761925,0.646437,-0.039874
-0.041435,-0.583146,0.450945,0.642447,0.705618,-0.298942
-0.036755,-0.366722,-0.368128,0.791223,0.480724,-0.377984
-0.242784,0.005687,0.243202,-0.785807,0.017387,-0.618227
-0.176525,-0.446700,0.185074,0.189329,-0.442094,0.876760
0.180012,-0.604618,0.683835,0.384717,0.916751,0.107521
-0.012711,-0.579929,0.528943,-0.734233,0.136352,-0.665064
0.556188,0.166718,-0.010473,-0.447224,0.097024,0.889144
-0.071444,-0.297909,0.613914,-0.731159,0.682183,-0.005805
0.112743,0.046699,0.140057,0.090250,-0.652806,0.752129
-0.253247,0.241225,0.213020,-0.617772,0.692350,0.372840
-0.294543,-0.214707,0.366432,0.113464,0.679015,-0.725304
-0.220115,-0.237791,-0.168112,0.344718,0.785052,0.514648
0.212500,0.604074,-0.274487,0.329280,-0.719858,-0.611048
0.875280,0.039721,-0.945964,-0.073016,0.318203,0.945206
-0.384573,-0.455716,0.595821,-0.053124,0.977255,0.205305
-0.092734,-0.554486,0.585294,0.937752,-0.342991,-0.054581
0.125041,-0.488674,0.640919,-0.349990,0.666717,0.658024
0.523885,-0.505959,-0.152550,-0.079763,-0.101729,0.991609
0.300419,0.116153,-0.466938,-0.535932,0.523943,-0.662013
-0.531592,-0.404830,0.419848,0.815884,-0.363218,-0.449895
-0.348688,-0.229954,-0.344219,-0.023863,-0.972721,0.230747
-0.411737,0.417713,-0.359243,0.075443,0.760486,0.644957
-0.305099,-0.028345,0.423940,-0.669220,0.564126,-0.483639
-0.198917,-0.287386,0.353185,-0.167035,-0.982294,0.084840
-0.299593,-0.079978,0.680362,0.339203,0.940172,0.031917
0.013812,-0.360713,0.341500,-0.288762,-0.931513,-0.221134
-0.306015,0.267526,0.283453,0.336365,-0.938698,-0.075527
0.301794,-0.683633,0.393624,-0.379533,0.916627,-0.125501
-0.114028,-0.191093,0.694954,-0.292519,0.378626,-0.878109
-0.100630,-0.566398,0.097302,0.834536,-0.153993,0.528996
0.360620,-0.158134,-0.244225,0.919442,-0.062364,-0.388249
-0.429815,0.256570,0.225055,0.165911,0.380049,-0.909965
-0.139814,-0.323031,0.742071,-0.192092,-0.913766,0.357955
-0.190840,-0.218894,0.510500,0.819235,0.203012,0.536321
-0.256916,0.141813,-0.210301,-0.443478,-0.056736,0.894488
-0.501216,0.037676,-0.263745,0.588294,0.802443,-0.099976
0.645023,0.072246,-0.008669,0.481759,-0.102570,-0.870280
-0.274078,-0.374454,0.249475,-0.040508,-0.995891,0.080998
-0.152479,-0.369729,0.323031,0.941223,-0.251099,-0.225941
-0.078510,-0.395277,0.664450,0.945234,-0.160464,0.284224
0.651173,0.250025,0.002935,0.722421,0.276352,-0.633828
-0.597484,0.272139,0.119595,-0.427344,0.887428,-0.172766
-0.332537,0.048737,0.466238,0.713072,-0.309606,0.629025
-0.130639,0.143208,-0.265414,0.833393,0.021961,0.552245
-0.208369,0.160494,-0.090248,0.943868,0.098525,0.315288
-0.330703,-0.074723,-0.653815,0.628398,0.639718,0.442580
-0.124581,-0.378745,0.924425,-0.091404,0.312058,0.945656
-0.164594,-0.283952,0.540332,-0.567328,-0.821375,0.059002
-0.245904,-0.784545,0.455468,-0.490597,0.526145,0.694612
-0.238563,-0.325822,-0.346858,0.334218,-0.894621,0.296567
-0.129536,-0.372842,0.919767,0.226726,0.666891,0.709825
0.145964,-0.488137,0.305180,-0.467949,0.692060,0.549615
-0.341255,-0.317232,0.444779,-0.345671,0.897091,-0.275208
0.344561,-0.145141,0.293899,-0.345015,0.920780,0.182013
0.024457,0.047773,0.391578,-0.241533,0.883523,-0.401308
-0.568760,-0.411704,0.375747,0.320366,0.651461,-0.687724
-0.115403,-0.121631,0.746917,-0.003802,0.834303,0.551293
-0.169915,-0.272145,0.499031,0.791612,0.478543,0.379931
-0.487633,-0.274288,-0.561440,-0.318716,-0.941549,-0.109109
-0.607947,-0.641868,0.432098,0.832015,-0.552196,-0.053202
-0.180379,-0.681267,0.695951,0.990567,0.115242,0.074137
-0.302346,-0.904565,0.195789,0.069217,-0.990401,0.119642
-0.170008,-0.240150,0.760056,-0.575708,0.147721,0.804201
-0.474509,0.553838,0.039147,0.084130,-0.926921,0.365705
0.210206,-0.659048,0.430591,-0.651114,0.215905,-0.727623
0.279495,-0.143536,-0.978380,0.257995,-0.270218,-0.927589
-0.395311,0.493503,0.007054,-0.345317,-0.453846,0.821450
-0.312991,-0.287602,0.406521,0.757118,-0.318379,0.570444
-0.216354,-0.265809,0.662350,0.653315,0.755782,-0.044420
-0.464048,-0.037145,-0.298395,0.362106,0.673303,-0.644626
-0.372276,0.507349,0.206370,0.162476,-0.976013,-0.144916
-0.302435,0.081911,0.445803,0.988966,0.115548,-0.092712
0.141466,0.384649,0.007485,-0.659687,0.734291,0.160091
0.620520,0.081157,-0.964326,0.365677,-0.218747,-0.904671
-0.174873,-0.107465,0.726374,0.452632,0.587748,-0.670579
-0.192033,-0.843910,0.335496,0.609119,0.793076,0.002327
-0.241957,0.275684,-0.607937,-0.704173,0.696974,0.135526
-0.082366,-0.288356,0.831000,-0.010748,0.825142,0.564823
0.081540,-0.440364,-0.034893,-0.142887,0.989624,-0.015118
-0.146239,-0.189802,0.080071,0.158536,0.937510,-0.309745
-0.300968,-0.438110,-0.968795,0.897450,-0.022536,-0.440541
-0.087228,0.043475,0.284099,-0.432406,-0.434238,0.790229
-0.272152,-0.697478,0.526897,-0.542408,-0.588061,-0.599981
-0.652089,0.603544,-0.054978,0.227906,0.972967,0.037332
0.914652,0.322382,-0.962361,-0.121382,0.344988,0.930725
0.024916,-0.030920,0.549028,0.677960,0.243234,-0.693692
-0.023723,-0.281377,0.739648,-0.216059,0.631810,-0.744403
-0.124948,-0.346967,0.720747,-0.732422,0.145101,0.665209
-0.162667,0.072463,-0.107749,0.953496,-0.084940,0.289188
-0.187904,-0.273324,-0.537370,0.752342,0.640106,-0.155710
0.165973,-0.639830,0.528943,0.767377,0.462519,-0.444083
-0.129168,-0.767044,0.364978,-0.047619,-0.673197,0.737928
0.683935,0.272892,0.017581,0.894671,-0.040871,-0.444852
-0.173954,-0.119698,0.685181,0.935337,0.310392,-0.169712
0.009866,-0.291684,0.772872,0.363899,0.235614,0.901146
-0.327398,0.136984,0.441899,-0.819224,0.138100,0.556597
-0.160556,-0.132587,0.390286,0.661427,0.517042,-0.543307
0.076034,-0.671282,-0.232809,0.723400,0.557651,-0.407086
0.234892,-0.306388,0.328873,0.201570,0.660769,0.723017
-0.640250,0.096189,-0.692047,0.428104,0.163398,-0.888835
0.145964,-0.202684,-0.377820,0.556254,-0.610570,-0.563725
0.555087,-0.255286,-0.565317,0.867684,0.415517,-0.272892
0.376037,-0.015352,-0.977169,0.545684,-0.186067,-0.817073
-0.119993,-0.417823,0.364681,0.160968,-0.381439,0.910271
-0.390629,0.603648,0.018443,-0.077619,-0.992982,-0.089235
-0.045473,-0.744609,0.056378,-0.653074,0.713650,-0.253373
-0.471115,-0.514438,0.341850,-0.132515,0.902959,0.408785
-0.002065,-0.745251,0.134726,0.973718,0.128040,0.188357
-0.261966,0.559846,-0.021754,0.820951,-0.491199,0.291141
-0.439178,-0.518841,0.379328,0.975462,0.172609,-0.136675
0.010877,-0.343854,0.546659,-0.541327,0.745199,-0.389414
0.492957,-0.190123,-0.149588,-0.587027,-0.673492,-0.449231
-0.666131,-0.362967,-0.206505,-0.475970,-0.879388,0.011400
-0.612994,0.315509,-0.232298,0.688940,0.433777,-0.580688
-0.291149,0.126140,0.391471,-0.203372,0.333143,0.920682
-0.541411,-0.439833,0.273168,0.879949,-0.245857,-0.406501
-0.134033,0.434565,-0.752167,0.665797,-0.391661,-0.635072
0.067683,0.422974,0.190539,0.332536,-0.942519,-0.032821
0.523059,-0.018143,0.013193,-0.735933,-0.103035,0.669168
-0.429082,-0.104025,-0.511658,-0.171975,-0.617722,0.767361
-0.126508,-0.001612,0.540789,-0.573998,0.728511,-0.373895
0.227276,-0.914977,0.373890,0.322414,-0.708596,0.627647
0.040978,0.487488,-0.444510,0.917767,-0.060300,-0.392515
0.366585,-0.193026,-0.970222,0.360799,-0.087846,-0.928497
-0.278484,-0.380141,0.272091,-0.266419,0.961866,0.061923
-0.112743,-0.237680,0.813850,0.858685,-0.196320,-0.473411
-0.160189,-0.653033,-0.253514,-0.293721,0.870388,0.395161
-0.389528,-0.443692,0.001885,0.140280,-0.601515,0.786449
-0.171294,0.047662,0.062975,-0.410172,-0.664427,-0.624737
-0.204423,0.184220,-0.081094,0.663854,0.047390,0.746359
0.300142,-0.249598,-0.073098,0.613787,0.755460,0.229230
0.048593,-0.150619,-0.119945,0.809802,-0.480800,0.336233
-0.240857,-0.818572,0.318965,0.854754,-0.411746,-0.316008
0.293627,-0.199355,0.014270,-0.276207,0.955670,-0.102003
-0.290415,-0.315299,-0.679958,-0.111454,0.867023,0.485643
0.945947,0.293827,-0.962065,-0.011979,0.234353,0.972078
-0.194603,-0.255502,0.422864,-0.765425,0.614697,0.190451
0.629148,0.177025,-0.976899,-0.137923,0.614101,0.777083
-0.549029,0.199998,0.215901,-0.063388,-0.685511,0.725298
-0.361630,-0.520348,0.642238,-0.144256,0.946565,0.288453
-0.407424,0.018353,-0.574309,0.968015,0.096536,-0.231575
-0.031800,-0.486741,-0.132249,-0.560871,-0.827715,-0.017650
0.345202,-0.246165,0.075225,0.676003,0.699845,0.230732
0.261599,0.521842,0.001427,-0.298890,0.551858,0.778536
0.023908,-0.414174,-0.206370,-0.309217,-0.940532,0.140659
-0.155324,-0.638756,0.276883,-0.676592,0.336450,-0.655000
-0.034183,0.288244,0.152065,0.839939,-0.541912,-0.028872
0.488000,-0.097800,-0.973372,-0.112355,0.138320,0.983994
0.002158,-0.904670,0.132680,-0.556017,-0.807064,-0.198726
-0.564172,0.754805,-0.647892,0.983709,0.035402,-0.176249
-0.143393,-0.292864,0.682623,0.443728,0.836743,0.320884
-0.358510,0.411271,-0.545447,0.902136,0.367325,-0.226326
-0.258935,-0.103815,0.713236,-0.747870,-0.333148,0.574198
0.460929,0.083628,0.005304,-0.289942,0.586149,0.756546
-0.000046,-0.400106,-0.383232,0.633903,0.739469,0.226610
-0.754599,0.048953,0.205589,0.037317,0.755332,0.654279
-0.249668,-0.278265,0.024016,0.560137,-0.781167,0.275725
-0.709906,0.664841,-0.426391,0.945387,-0.295631,-0.137277
-0.290964,-0.214924,0.545986,0.776357,0.610416,-0.157042
-0.068783,-0.455290,-0.973211,-0.070361,-0.349489,-0.934295
-0.518286,0.102630,-0.225998,0.667717,0.018173,-0.744193
0.056026,-0.954376,0.260137,0.849799,-0.331482,-0.409832
-0.100904,-0.369945,0.955011,0.179759,0.983084,0.035117
-0.113291,-0.324315,0.685531,-0.239829,0.291714,0.925951
-0.300234,0.560278,-0.180389,0.999365,0.033716,-0.011491
-0.507364,0.195057,-0.249313,-0.275922,0.611006,-0.741983
-0.156795,-0.401292,0.033897,0.077273,0.238304,0.968112
-0.111275,-0.263122,0.306715,0.972649,0.156958,0.171224
-0.024642,-0.440364,0.079290,0.635389,0.058944,-0.769939
-0.153123,-0.768545,0.700716,0.952924,0.119289,0.278757
-0.133941,-0.407196,0.085725,-0.445795,0.446799,0.775653
0.290507,-0.706068,0.152684,0.113073,-0.742628,0.660089
-0.338043,-0.053467,0.424721,0.066398,-0.410168,0.909590
-0.188271,-0.193668,-0.567552,0.937492,-0.251849,0.240170
-0.520487,-0.603976,0.684939,-0.706018,0.605573,-0.367179
0.745057,0.096935,-0.955064,-0.302721,0.014935,0.952962
-0.089799,-0.187332,0.000512,0.912136,0.399033,0.093707
-0.093653,-0.307037,-0.416213,-0.624190,-0.780210,-0.040730
-0.125866,-0.315411,-0.619407,0.633495,0.773739,-0.003532
-0.362457,-0.084276,-0.139411,-0.416291,0.724537,-0.549316
0.683294,-0.203870,-0.624603,0.966498,0.064497,0.248440
-0.199009,-0.004403,0.744467,0.473370,0.545001,0.692022
-0.533245,0.069776,0.002235,0.967919,0.120743,0.220349
-0.061442,-0.227917,0.704324,0.367701,0.331738,-0.868761
-0.454686,-0.290826,0.528351,0.915356,-0.041461,-0.400505
-0.530399,0.003650,-0.628372,0.934489,-0.345602,0.085378
-0.420271,0.269243,0.237575,0.225671,-0.973792,-0.028302
-0.341900,-0.418466,0.312207,0.284126,-0.894086,0.346241
-0.592989,0.098010,-0.236202,0.318912,0.035243,-0.947129
0.525537,-0.058938,0.010931,0.635143,0.107440,0.764885
-0.385033,-0.281594,0.691401,0.362813,0.014797,0.931745
-0.247282,-0.265056,-0.735044,0.096082,-0.991275,-0.090229
-0.018951,-0.181107,-1.000000,0.055384,0.057875,0.996786
-0.482860,-0.011381,-0.725594,-0.364242,-0.698231,0.616280
-0.044554,-0.500272,-0.157584,0.887923,-0.316491,0.333806
-0.043361,0.051744,0.206882,0.737605,0.236886,-0.632316
-0.707338,-0.249278,-0.172096,-0.004188,-0.951261,0.308359
0.699260,0.279654,-0.494050,0.135999,-0.930164,0.341026
0.491764,-0.177457,0.307980,-0.753198,0.643849,-0.134727
-0.078969,-0.191630,0.747160,0.084425,0.526907,0.845720
-0.422108,0.001284,-0.251575,0.873324,0.090235,-0.478709
-0.354564,0.235210,-0.157288,-0.718345,0.693636,0.053378
-0.266553,-0.598498,0.487992,0.789685,-0.590587,-0.166147
0.168174,0.606119,0.000054,-0.303307,0.107620,0.946796
-0.319413,0.376059,-0.654488,-0.256101,0.708471,-0.657633
-0.612168,-0.002686,0.363739,0.157916,0.984758,-0.072897
-0.321799,0.272034,0.224921,-0.668962,-0.741053,-0.057707
-0.545265,0.092323,0.164181,-0.090665,0.987445,-0.129351
-0.134493,-0.330330,-0.290157,0.404403,0.903819,0.139891
0.356124,-0.715943,0.447445,0.910577,-0.391791,0.131716
-0.026751,-0.104674,0.713936,0.945982,-0.285785,0.153118
-0.100996,-0.324852,-0.654730,0.856878,0.513246,-0.048365
0.716790,0.111967,-0.965295,0.099727,-0.078289,-0.991930
-0.081815,-0.037683,0.358274,0.170998,-0.919812,0.353137
-0.084568,-0.374342,0.569679,0.770521,0.518850,0.370259
0.342634,-0.146648,-0.969953,0.125699,-0.238634,-0.962940
-0.178267,0.390016,0.311722,-0.255302,-0.849668,0.461395
0.218281,-0.267205,-0.620053,0.156221,-0.978137,0.137272
-0.169549,-0.619328,0.461122,0.921383,-0.000642,-0.388656
-0.256641,-0.729257,0.450406,0.971890,0.232457,-0.037327
-0.582066,0.085344,0.178450,-0.303468,0.850398,-0.429802
0.048134,-0.492756,0.258144,0.347099,-0.399247,0.848601
-0.254530,0.713899,-0.047009,0.433624,0.027361,-0.900678
-0.192769,-0.535373,0.419687,-0.708813,0.069444,-0.701970
-0.355480,-0.060655,-0.587610,0.986346,0.031314,0.161683
-0.253247,-0.268063,-0.984465,-0.337947,0.827906,-0.447620
0.892350,0.044654,-0.953368,-0.149715,0.307336,0.939750
-0.164961,0.101555,-0.039443,0.011441,-0.551630,0.834010
0.051806,-0.648525,0.445291,-0.171406,0.899602,0.401666
-0.472582,0.426191,0.211486,0.430292,-0.560815,-0.707344
0.041527,-0.719055,0.131038,0.211028,0.931742,-0.295507
-0.583718,-0.509393,0.222847,-0.641100,0.733842,-0.224646
-0.116871,-0.264951,-0.484869,0.617008,0.663512,0.423146
0.051713,-0.438647,0.191751,-0.293981,0.955810,0.001765
0.515992,-0.399359,0.054117,0.360823,-0.052944,0.931130
-0.253706,-0.210520,0.560875,-0.218243,0.011398,0.975828
-0.242968,-0.395926,0.099375,0.513569,-0.012743,0.857954
0.104943,0.086956,-0.055005,0.697894,0.274771,0.661396
-0.108978,0.080404,-0.276453,0.831440,-0.125712,0.541205
-0.246363,-0.265593,0.708470,0.629923,0.438021,-0.641353
-0.007387,-0.143857,0.268725,-0.749826,0.268252,0.604815
-0.406691,-0.165008,0.582467,0.430315,-0.285994,0.856175
0.245170,0.268384,-0.135534,0.871523,-0.163322,-0.462356
-0.120268,-0.203654,0.301142,0.998600,-0.043857,0.029576
-0.203874,-0.153410,0.707501,0.739524,0.663967,0.110684
-0.024549,-0.396994,0.373916,0.687229,0.676936,-0.263579
-0.284264,0.323457,0.401998,0.510391,0.762436,-0.397734
-0.260773,0.111220,0.240886,0.849889,0.074600,-0.521655
0.179645,-0.483629,0.182866,0.260444,0.954597,-0.144618
-0.543338,0.086524,-0.237682,-0.749461,-0.177703,0.637754
-0.318772,-0.408054,0.578860,-0.282692,-0.481692,-0.829492
0.056763,-0.225014,0.272952,0.228802,-0.184215,0.955884
-0.089799,-0.229843,-0.029051,0.809584,-0.438353,0.390410
-0.278758,0.271713,-0.769829,-0.699785,0.457246,0.548841
0.737988,0.230060,-0.452184,0.679888,-0.704557,-0.203350
-0.180931,-0.368439,0.459291,0.987178,-0.025234,0.157615
-0.210296,-0.026950,0.715417,0.265775,-0.960471,0.082820
0.365759,0.291462,-0.535862,0.472989,0.880320,0.036292
0.176618,-0.479763,-0.037801,-0.070913,-0.588753,0.805196
-0.182306,-0.314015,0.775645,0.588892,-0.740275,-0.324345
-0.060706,0.043154,0.541839,0.026351,0.040135,0.998847
-0.210114,-0.262264,-0.561332,-0.699513,0.690320,0.184771
-0.192677,-0.214707,0.514081,0.966265,0.252071,-0.052840
-0.503784,-0.510900,0.572640,-0.059988,0.995155,0.077903
-0.139357,-0.549867,-0.370147,0.526976,-0.667592,-0.525944
-0.019318,0.111004,0.531178,0.714025,0.088844,-0.694460
0.685221,0.305956,0.007323,0.786808,0.162066,-0.595540
0.327308,-0.226626,0.081013,0.603483,0.771523,0.201395
-0.001699,-0.583146,-0.455387,0.887137,0.239022,-0.394786
0.772862,0.345571,-0.981126,0.337067,-0.077377,-0.938296
-0.500482,-0.723353,0.355581,0.786668,0.040239,0.616064
-0.571238,0.488563,-0.214528,0.573017,-0.427572,0.699166
-0.127519,-0.520879,0.279333,0.854394,-0.480448,-0.197943
-0.572799,0.286528,-0.529455,-0.507723,-0.822372,-0.256750
-0.441747,-0.917126,0.108960,0.837689,0.297937,-0.457724
-0.390629,0.265056,-0.221690,0.162232,-0.727927,-0.666186
0.137705,-0.528722,0.665769,0.370532,0.837696,0.401212
-0.098792,-0.349011,-0.324242,0.640170,0.759321,0.116677
-0.247648,0.050237,0.278337,-0.693286,-0.512401,-0.506755
0.104299,-0.581324,0.520327,0.786985,0.602740,0.131757
0.080347,0.413742,0.165473,-0.571017,0.813997,0.106527
-0.455879,-0.392807,0.436837,0.876513,-0.260537,0.404779
-0.116137,-0.710039,0.532982,-0.269275,-0.260886,-0.927054
-0.481760,-0.114011,0.348716,0.457832,0.838073,-0.296687
0.064104,-0.104562,0.723171,0.619907,0.607988,-0.496050
-0.167896,0.878153,-0.541759,0.371813,-0.531179,0.761317
-0.291423,0.410950,-0.110468,0.960160,0.054820,0.274021
-0.225898,-0.915946,0.359835,0.903468,-0.423902,-0.063658
-0.160648,-0.243158,0.654677,-0.211324,-0.976702,0.037342
-0.279218,-0.088889,0.675704,-0.005794,0.995040,0.099304
0.395219,-0.341600,0.356631,0.427453,0.876581,-0.221109
0.035013,-0.269242,-0.961203,-0.095337,0.207387,0.973602
0.439727,-0.235321,-0.354127,0.681150,0.302916,0.666541
-0.583170,0.660116,-0.674816,0.972915,0.104864,-0.206010
-0.795990,-0.009448,0.212616,-0.368407,-0.682207,-0.631561
-0.393015,0.203647,-0.169108,0.884241,-0.415718,-0.212828
-0.040334,-0.269570,0.765710,0.359614,-0.355351,-0.862788
0.189282,-0.863554,0.369716,-0.337399,0.669845,-0.661415
0.422660,-0.826729,-0.406844,-0.452757,0.883401,-0.120887
-0.197908,-0.574025,0.303403,0.852985,-0.467313,0.232453
-0.251502,-0.320777,-0.720990,0.872067,0.486844,-0.049826
-0.196715,-0.590878,0.754968,0.588336,-0.088560,0.803753
-0.109256,-0.076328,0.718647,0.248461,0.933668,0.257937
-0.095398,-0.068171,0.415056,0.909937,-0.373232,0.180864
-0.656035,0.092749,-0.492004,0.844028,0.261685,-0.468121
-0.511310,-0.390232,-0.032820,0.994470,0.041157,-0.096619
-0.150462,0.047773,0.240025,-0.610268,-0.599013,-0.518418
-0.420548,-0.186473,0.410290,0.142883,0.013469,-0.989648
0.163309,-0.383253,0.340181,0.547015,-0.692839,0.469839
-0.215160,0.466881,0.193339,0.494814,0.849544,-0.182852
-0.038956,-0.025875,0.395078,0.943859,-0.273366,0.185475
-0.569771,-0.303059,-0.278149,0.313781,-0.775670,0.547611
-0.686047,0.294790,0.116903,0.094001,-0.988753,0.116328
-0.080714,-0.337092,-0.972592,-0.095983,0.751866,0.652292
-0.497362,0.229627,0.221986,0.087069,0.675620,-0.732090
-0.080806,-0.033817,0.173927,-0.176329,0.982212,0.064556
0.146331,-0.152984,0.333262,0.342148,0.913562,-0.219862
-0.068416,-0.471605,0.095768,-0.080594,0.279267,0.956825
-0.074564,-0.840686,0.098352,0.845671,0.481707,-0.229783
-0.102739,0.025653,0.581309,0.364078,-0.027739,0.930955
0.153857,-0.754162,0.281999,0.041860,0.816652,0.575611
0.272337,-0.547187,0.340046,0.496517,-0.235206,-0.835553
-0.079796,-0.717875,0.669135,0.863578,0.499653,0.067671
-0.549763,-0.204617,-0.032012,0.071185,-0.762663,0.642867
-0.071903,-0.283199,-0.109445,0.684578,0.726538,-0.059120
-0.248015,0.036497,0.323704,0.649141,-0.303891,0.697328
-0.266920,-0.412883,-0.217813,-0.217766,0.753163,0.620744
-0.161749,0.629412,0.094448,0.277381,0.958954,-0.058877
-0.130454,-0.787979,0.043563,0.471445,0.799275,-0.372692
-0.076583,-0.298125,0.282026,0.936251,0.349698,-0.033846
-0.121369,-0.233925,-0.989607,-0.122379,0.126268,0.984418
-0.384663,0.362856,0.076759,-0.540353,0.558102,-0.629715
-0.479374,0.345355,0.204809,-0.683080,0.229338,0.693402
-0.372458,0.592700,-0.527785,0.387888,0.263368,-0.883278
-0.254989,-0.875577,0.368316,-0.773574,-0.513940,-0.370742
-0.548111,0.547934,-0.359512,-0.488505,-0.704915,-0.514254
-0.335934,-0.027913,0.562113,-0.504262,0.739888,-0.445292
-0.038315,-0.258510,0.595256,-0.263753,0.867061,0.422658
-0.297848,0.258615,0.043401,0.928850,-0.332885,0.162556
-0.237829,-0.049280,0.689570,-0.643842,-0.185023,0.742452
0.251780,-0.889213,0.343869,-0.079717,-0.908176,0.410929
-0.625017,0.185399,0.202709,0.928273,-0.061488,-0.366780
-0.719268,-0.049706,-0.603145,0.008410,0.875875,0.482466
0.124948,0.118729,0.245140,0.562069,0.812125,-0.156628
-0.590877,0.182391,-0.061467,0.783410,0.618305,0.062990
-0.240672,-0.838969,0.408136,0.890713,-0.429730,0.148200
-0.167073,-0.535805,0.054844,-0.894748,0.290071,0.339537
0.222137,0.006441,-0.472807,0.033966,0.115514,0.992725
-0.292524,-0.059797,0.371601,0.590798,0.790414,0.161874
-0.138254,-0.285990,-0.321765,0.450193,0.857407,0.249359
-0.228651,-0.198287,0.054278,0.983285,-0.177953,0.038500
-0.264352,-0.655608,0.520920,-0.746881,0.661338,-0.069284
-0.291056,0.369939,0.281783,0.476485,-0.559302,0.678339
0.395219,-0.765649,0.062275,0.815416,-0.520943,0.252418
-0.365576,0.203005,-0.547413,0.619046,0.174334,-0.765761
-0.108796,-0.343212,-0.391363,0.610438,0.790984,-0.041353
-0.280870,-0.897691,0.399951,0.929474,-0.215527,0.299376
-0.050428,-0.326038,0.647273,0.362253,0.596443,0.716260
0.196715,-0.773269,0.486296,-0.492522,-0.849496,-0.189154
0.099711,0.117444,0.241559,0.660490,0.729182,-0.179014
-0.641536,-0.109824,-0.265872,-0.602955,0.144315,-0.784613
-0.346302,-0.134729,0.502800,0.037822,-0.954037,0.297293
-0.367044,-0.207519,0.289726,-0.365877,0.358084,-0.859017
-0.809571,0.040363,-0.416644,0.866344,-0.143292,0.478451
-0.454137,-0.153947,0.453530,-0.028638,0.323762,0.945705
-0.270225,0.043259,0.399036,0.792182,-0.540453,-0.283474
-0.376037,0.319480,0.273060,-0.015030,-0.884004,0.467238
-0.203415,0.302843,0.313580,-0.051379,-0.746978,0.662861
-0.081633,-0.265056,0.314953,-0.712077,-0.642917,-0.282140
-0.036662,-0.289961,-0.190943,0.039029,-0.950059,0.309621
0.270959,-0.172412,-0.972834,-0.129715,0.299902,0.945110
-0.588950,0.299194,-0.236821,-0.595413,-0.364914,0.715766
-0.452759,-0.426735,-0.071105,0.867334,-0.287469,0.406316
0.656494,-0.082343,-0.407302,0.913254,0.261811,-0.312124
0.321158,-0.285027,-0.339319,0.744267,-0.298688,0.597372
-0.062725,-0.490718,0.920548,0.485693,0.867359,0.108581
-0.302161,-0.137842,0.696139,-0.151534,0.855550,0.495047
-0.167255,0.357595,-0.757148,0.714636,-0.310419,-0.626846
0.321892,-0.143320,-0.326208,0.904221,0.028230,0.426131
-0.058690,-0.533872,0.740806,0.466427,0.543136,-0.698176
0.538751,-0.271929,-0.031555,0.901860,-0.392809,0.179861
-0.106870,-0.352228,0.917021,0.617098,0.604663,-0.503560
-0.067775,-0.210199,0.057913,0.875081,0.465975,-0.130769
0.049512,-0.344287,0.726078,-0.523659,0.316335,-0.791021
-0.463956,0.728713,-0.532658,0.673790,0.049334,-0.737275
0.294269,0.133544,-0.203139,0.592320,0.742534,0.312730
0.628597,-0.008269,-0.731975,0.708207,0.660095,0.250434
0.161382,0.394740,-0.368962,0.481291,-0.653743,-0.583934
0.012070,-0.300379,0.785176,-0.292685,0.831861,0.471533
-0.057678,-0.159425,0.510958,0.947410,-0.291437,0.132211
-0.162849,-0.109607,0.768591,-0.614369,-0.784096,0.088000
0.133207,0.024047,0.352566,-0.224617,-0.142973,0.963902
0.453403,0.068492,-0.976899,-0.113613,0.332055,0.936393
-0.270225,0.044982,-0.543913,0.816751,-0.012552,-0.576854
-0.173495,-0.298767,-0.442653,-0.344732,-0.936400,0.065681
-0.271692,-0.446916,0.309434,-0.471990,0.162738,-0.866454
-0.071721,-0.459477,0.925987,-0.627190,-0.778229,-0.031495
-0.139080,-0.267100,-0.656534,-0.473700,-0.859520,0.191921
-0.079521,-0.275258,0.195170,-0.394662,0.918824,-0.001919
-0.633184,0.201288,-0.738625,-0.453641,0.218197,0.864060
0.084935,-0.061834,-0.458457,-0.132569,0.238079,0.962156
0.003718,-0.381216,-0.977438,-0.028940,0.349097,0.936640
-0.162023,-0.251532,-0.562005,0.581247,0.720130,0.378899
-0.317212,-0.228985,-0.044882,0.429378,-0.902817,-0.023587
-0.114944,-0.278691,-0.222794,0.709180,0.537843,-0.455840
-0.077042,-0.286639,0.156615,0.519101,0.672040,0.528106
-0.646493,-0.078582,-0.546120,0.869214,0.275565,-0.410526
-0.111642,-0.214924,0.429460,0.672984,0.717273,0.180590
0.358326,-0.255718,0.490523,-0.543580,0.527191,-0.653138
-0.112925,-0.334406,0.344839,-0.667167,-0.677457,-0.309743
-0.111824,0.401607,0.128480,-0.201490,0.874855,0.440489
-0.338962,0.113474,0.504039,-0.702972,0.590604,-0.396254
0.434406,-0.100270,0.206155,0.695679,-0.661275,-0.280616
0.108337,-0.118519,0.288757,0.046873,-0.814799,0.577845
-0.029322,-0.393560,0.807684,0.023581,-0.997639,0.064508
0.618044,-0.059371,-0.970707,-0.420259,0.146628,0.895479
0.237463,-0.345145,-0.080340,0.110698,0.604613,-0.788790
0.337309,-0.699090,0.330408,0.645033,-0.535469,0.545165
-0.287662,0.131938,-0.555409,-0.713188,0.020757,0.700665
0.341166,-0.690716,0.325346,0.939056,-0.091850,0.331268
0.566833,-0.122817,-0.949330,-0.182168,-0.300888,0.936099
-0.296103,-0.778531,0.476496,0.929866,0.061690,0.362690
-0.147432,-0.297050,0.911017,0.496117,-0.808774,0.315837
-0.201762,-0.261838,0.477923,0.920123,-0.122632,-0.371935
-0.147617,0.312508,0.223924,-0.590900,0.445300,-0.672715
-0.009406,-0.264518,0.712724,0.763921,0.002719,-0.645303
-0.185151,0.121310,-0.104814,0.942462,0.049730,0.330595
-0.110723,-0.114764,0.135992,-0.293675,0.001518,0.955904
0.195797,-0.525931,0.128399,0.303914,-0.932707,0.194147
-0.099067,-0.354915,-0.357224,0.891415,0.448639,-0.064055
-0.362546,-0.257651,-0.621937,-0.148690,-0.945239,0.290543
-0.013537,-0.159851,-0.537478,0.936868,-0.103638,0.333973
0.644289,0.150508,-0.969253,-0.158076,0.539687,0.826891
0.109808,-0.168978,-0.758818,-0.286703,0.896477,0.337833
-0.190750,-0.241441,-0.334796,-0.278041,0.951013,0.135155
0.042168,0.539665,-0.482634,0.989874,-0.042295,-0.135498
-0.460195,0.270101,0.112164,0.929745,-0.126304,-0.345863
0.728628,0.090069,-0.964918,-0.225274,0.062970,0.972258
-0.090626,-0.266779,0.022804,-0.653856,-0.753098,-0.072908
0.558941,-0.043160,-0.012708,-0.503723,0.223845,-0.834360
-0.331803,0.409876,0.092671,0.146555,-0.958653,0.243938
-0.150736,-0.247987,0.434925,-0.690027,0.527015,0.496103
-0.175332,0.817819,-0.525658,0.452661,-0.612069,0.648436
-0.251595,-0.294043,-0.507431,-0.395688,0.764118,0.509465
0.080073,0.022114,0.725297,-0.253344,0.849432,-0.462907
-0.203230,0.658505,-0.068063,0.979656,0.174888,-0.098428
-0.300875,0.033922,0.728394,0.078449,-0.322650,0.943262
-0.520395,-0.045840,0.325454,0.643929,0.716164,-0.269190
-0.260405,-0.389694,0.553632,0.860836,0.024339,0.508301
-0.407791,-0.176383,0.302461,0.411710,-0.565889,0.714328
-0.364932,0.263012,0.231840,-0.049078,0.985311,-0.163563
-0.119442,-0.408480,-0.028001,0.157075,0.700297,0.696356
0.041894,0.186152,-0.558047,0.529602,-0.616221,-0.582918
-0.298948,0.122169,-0.008535,-0.693719,-0.708320,0.130523
0.411278,0.013419,-0.970545,-0.166535,0.252680,0.953110
-0.043179,-0.695329,0.237036,-0.509797,0.158333,-0.845599
0.200018,0.126140,0.195843,-0.567368,0.732393,-0.376422
-0.313450,0.483301,0.142938,0.345853,0.679630,-0.646907
-0.121186,-0.362214,0.869420,-0.504252,0.848418,0.160987
-0.409443,0.463769,-0.625949,0.506047,0.793008,-0.339197
-0.144312,-0.165112,0.401459,-0.092519,0.715626,0.692329
0.547744,0.028771,-0.976307,-0.381592,0.065503,0.922007
-0.063644,-0.644980,0.623230,0.954878,0.105588,0.277596
-0.306841,0.649384,-0.153519,0.954989,0.296067,-0.018434
-0.650439,-0.281803,-0.458053,-0.644690,-0.741368,-0.186409
-0.055934,-0.498123,0.578213,0.805485,-0.425836,0.412137
0.805717,0.071709,-0.959991,-0.165257,0.296314,0.940685
-0.153490,-0.285781,0.685477,0.443728,0.836743,0.320884
-0.172669,-0.254323,0.635076,-0.526368,-0.842463,-0.114860
-0.169549,-0.368550,-0.909698,0.968285,0.114248,0.222198
-0.414675,-0.031884,-0.135480,-0.411907,0.795411,-0.444584
-0.393751,-0.189913,0.420467,-0.430419,-0.819814,0.377683
-0.121643,-0.478695,0.455630,-0.488707,-0.864934,0.114256
-0.038315,-0.343749,-0.980561,0.163717,0.470929,0.866846
-0.168266,-0.232314,0.703355,0.186974,-0.321976,0.928101
0.473134,-0.181539,0.302461,-0.565337,0.731719,-0.380764
0.926306,0.324741,-0.963895,-0.166055,0.299436,0.939555
-0.122010,-0.670751,0.629288,0.963897,0.115011,0.240156
-0.342449,-0.015673,0.351004,0.920575,-0.110376,-0.374646
0.029781,0.384754,0.274460,-0.652467,-0.692895,0.306895
-0.326205,0.244658,0.231140,-0.420326,-0.875249,-0.239300
-0.232046,0.238538,-0.556782,0.893077,0.011730,-0.449752
0.644566,-0.753946,-0.610603,0.723857,-0.629761,-0.281836
0.026109,0.029519,-0.377982,0.874061,0.467612,0.131740
0.425228,-0.313477,0.390286,0.902622,-0.388627,-0.185049
-0.100719,-0.034138,0.524662,0.603871,-0.792439,0.085907
0.092827,-0.443909,-0.315357,-0.754688,0.031907,-0.655308
0.606847,0.032421,-0.958026,-0.066387,0.155181,0.985653
-0.060065,-0.406763,0.251575,-0.036059,-0.996686,0.072916
0.023449,-0.067633,0.221394,0.879578,-0.418150,-0.226921
-0.490478,-0.305962,0.368478,-0.014154,0.146643,0.989088
-0.267105,-0.302738,0.318211,0.829368,-0.303584,0.469026
-0.314918,0.218678,-0.198212,0.547853,-0.085959,-0.832147
-0.057037,-0.414711,0.686393,0.240526,0.849217,0.470082
-0.018217,-0.301775,0.820769,-0.029595,-0.220040,0.975042
0.125226,-0.110466,-0.989607,0.478191,-0.111638,-0.871132
0.244344,-0.234358,-0.972457,-0.093259,0.213840,0.972407
0.045748,0.417280,0.292041,0.765500,0.607655,0.211577
-0.160097,-0.242732,-0.010312,-0.566667,0.789297,-0.236430
-0.350708,-0.608372,0.496204,-0.421824,0.274297,0.864191
0.791310,0.396241,-0.377120,0.830589,0.022671,-0.556424
-0.276465,0.155769,0.335389,-0.484873,-0.872876,0.054641
-0.637497,-0.056901,-0.802138,0.810420,0.468340,0.351963
-0.218465,0.256682,0.296053,0.055164,-0.562600,0.824887
-0.806269,-0.286206,-0.028108,-0.486307,-0.639547,-0.595387
-0.120360,0.374663,-0.308599,0.468796,0.814382,0.342069
-0.253429,-0.039078,0.094233,0.414988,-0.082669,-0.906064
-0.041435,-0.259584,0.624549,0.758458,-0.624625,0.185971
-0.189924,-0.059371,0.533008,0.355600,-0.701382,0.617747
-0.297022,-0.238650,-0.437322,-0.351989,0.839835,0.413256
-0.110998,-0.272145,-0.119757,-0.455711,-0.869456,0.190717
-0.525260,-0.178853,-0.025362,0.244396,-0.891474,0.381504
-0.683935,0.614172,-0.017743,-0.661382,-0.715848,0.223911
-0.425780,0.219858,0.007027,-0.527745,0.836857,0.145452
-0.241591,-0.228559,-0.965242,-0.043302,-0.990699,-0.129001
0.045291,-0.092650,0.302865,0.885640,0.295951,-0.357848
-0.343916,0.342243,0.257525,0.219606,-0.949593,0.223712
-0.280318,0.097800,0.280760,0.558186,-0.737437,0.380282
0.333274,-0.343854,0.328254,0.195657,0.958517,0.207276
0.254622,0.049811,-0.091487,-0.044365,-0.278066,0.959537
0.166339,-0.367580,0.262129,-0.166363,0.611181,0.773809
-0.254899,-0.330972,0.210086,-0.598431,0.774965,0.203249
-0.110357,-0.902848,-0.186285,0.797993,-0.575286,-0.179589
-0.127242,-0.440796,0.698239,0.322414,0.740481,0.589692
0.611619,0.280192,0.002692,0.774277,0.106985,-0.623738
0.071536,-0.083097,0.682893,-0.576471,0.786197,-0.222657
-0.147524,-0.310686,-0.856820,0.381381,0.920708,-0.082741
0.084935,0.426191,0.166685,-0.458955,0.880203,0.120840
0.046025,-0.680304,-0.339589,-0.165821,-0.330639,0.929075
-0.006101,0.108428,-0.174762,-0.377733,0.312101,0.871729
-0.249023,0.038213,0.582763,0.188826,-0.701708,0.686987
-0.541963,-0.253143,-0.175219,-0.324427,0.899562,-0.292465
0.214520,-0.502526,0.495585,-0.616077,0.400871,-0.678050
0.079888,-0.423511,0.103064,0.715178,-0.479285,-0.508731
-0.542423,-0.464738,0.248613,0.891823,-0.445065,-0.081052
0.308771,-0.204191,-0.334931,0.729879,-0.204365,0.652313
-0.114944,-0.463880,0.652954,-0.501610,0.567395,0.653032
-0.318220,-0.703814,0.485757,0.963428,0.216591,0.157782
0.387601,-0.173486,-0.213586,-0.663331,-0.119070,0.738793
0.216079,-0.230708,0.620941,-0.592359,0.426440,-0.683564
-0.535539,0.279759,-0.478569,0.847565,0.417603,-0.327476
0.242694,0.058401,-0.296672,0.567706,0.541869,-0.619748
0.499015,-0.012240,-0.571590,0.837361,-0.015193,-0.546440
-0.095213,-0.278049,0.376474,0.743002,-0.084913,-0.663881
-0.170283,-0.419973,0.475095,0.814651,-0.369637,-0.446892
0.298492,-0.672035,0.273706,-0.312924,0.621853,-0.717898
-0.466342,0.414384,0.165231,-0.200323,-0.979542,-0.019214
0.117882,-0.323457,0.723790,-0.079360,-0.992613,0.091767
0.278210,-0.163501,0.072667,-0.558636,-0.815550,-0.151007
-0.390172,-0.250994,-0.028620,-0.684897,-0.391849,0.614305
0.202681,0.257645,-0.128480,0.929212,-0.267613,-0.254851
-0.083467,-0.718413,0.532416,0.796335,-0.097239,0.596988
-0.326849,-0.341063,-0.995531,-0.345701,0.046381,0.937198
0.284264,0.440469,0.014431,-0.326044,0.519628,0.789736
0.185611,-0.069140,-0.397825,-0.673146,0.733460,-0.094399
-0.195063,-0.150193,0.704162,0.849348,0.518993,0.096197
-0.203230,-0.888354,-0.094798,-0.396918,0.905575,0.149633
0.169918,-0.325711,-0.261402,-0.571795,0.805400,-0.156144
-0.558941,0.314009,0.207339,0.690035,-0.655341,-0.307215
0.843252,0.298977,-0.973642,-0.334656,0.149328,0.930433
0.715323,0.004397,-0.960126,-0.068678,0.326999,0.942526
-0.120175,-0.370267,-0.662592,-0.645785,0.749157,-0.147398
0.258201,-0.219753,0.603279,-0.447292,0.652325,-0.611883
-0.524619,0.289424,0.084540,-0.262973,-0.569148,0.779048
-0.283897,-0.156202,0.712832,-0.402982,-0.571600,0.714758
-0.462581,0.159956,0.116714,-0.702531,-0.692412,-0.164367
0.893084,0.226731,-0.959722,0.457562,-0.004719,-0.889165
-0.457072,-0.436072,-0.230709,0.102697,0.608192,0.787119
-0.122836,-0.399785,0.624038,-0.573570,-0.120736,-0.810210
0.703943,0.255712,-0.982634,-0.198560,0.335866,0.920743
0.350067,-0.196459,-0.959345,-0.159181,0.140409,0.977214
-0.309961,-0.170374,0.214205,0.748956,0.015969,-0.662428
-0.222594,0.288349,0.413898,0.471818,0.876460,-0.095950
0.179004,-0.092434,-0.984977,0.237398,-0.279128,-0.930446
0.053550,0.472890,-0.303026,0.919986,-0.391595,0.016717
-0.036295,-0.167046,0.649669,0.433197,-0.755180,0.491980
-0.384022,-0.784329,-0.338135,0.862617,-0.477806,-0.166114
-0.718442,0.022114,0.260568,-0.537713,-0.787913,0.300097
-0.361079,0.232523,-0.366728,0.990410,0.133768,0.034559
0.604920,-0.100591,-0.959588,-0.336207,0.497630,0.799581
0.078146,-0.225446,0.407840,0.825792,0.295239,0.480522
-0.085668,-0.345466,-0.628157,0.662885,0.746847,-0.052947
-0.321158,-0.486420,-0.612487,0.930110,0.354294,-0.096803
-0.157251,-0.557703,-0.112676,-0.765004,0.630718,-0.130243
0.195156,-0.429847,0.275322,-0.127937,0.650299,0.748828
0.209654,-0.074723,-0.983146,-0.199405,0.381032,0.902803
0.012803,-0.618791,0.087852,-0.136696,0.137669,0.981000
0.613546,0.082553,-0.967234,0.339808,-0.241367,-0.908995
-0.440828,-0.368117,-0.220505,0.360664,0.653774,0.665207
-0.598402,-0.227917,-0.136772,0.096471,-0.702250,0.705364
0.146975,-0.212348,0.007108,-0.099051,0.902160,-0.419877
-0.433580,-0.117444,0.416240,-0.589044,-0.231540,0.774220
0.743587,-0.007732,-0.953072,0.207616,-0.357856,-0.910404
0.548847,-0.537843,-0.334958,0.962588,0.267874,-0.040840
-0.634837,0.211058,-0.760648,0.947084,0.236501,0.217022
-0.265178,0.053887,0.405256,0.822159,-0.567852,-0.039982
-0.014178,-0.310575,0.237252,0.889039,0.404074,0.215252
-0.427340,-0.441333,0.381105,0.677490,-0.139407,0.722200
-0.617033,0.232418,-0.515454,0.895431,0.006364,-0.445154
-0.489193,-0.419757,-0.032039,-0.637996,0.649806,0.413176
0.009866,-0.454111,0.578510,-0.699923,0.557910,-0.445918
-0.190658,-0.228880,-0.591406,-0.287504,0.943280,-0.166025
-0.264259,-0.372737,0.565263,-0.371827,0.250012,-0.894002
0.095306,-0.338062,0.739567,0.164317,0.866330,0.471669
-0.152848,-0.035323,0.727559,0.772271,0.635054,0.017451
0.174966,-0.623299,0.027354,-0.427138,-0.014939,0.904063
-0.377138,0.129573,-0.786387,-0.561933,0.172134,0.809074
-0.112009,-0.227917,0.479996,0.433422,-0.900747,-0.028304
0.717891,0.283841,-0.480857,0.204245,-0.972681,-0.110343
0.176433,0.267310,-0.542297,-0.526931,0.561932,0.637634
0.176341,0.071493,-0.092994,-0.479773,0.517571,-0.708476
-0.253521,0.226836,-0.163885,0.352272,0.819222,0.452526
-0.454137,-0.390553,0.415163,0.765348,0.637830,0.086110
-0.137797,-0.308432,0.600264,0.884611,0.414460,0.213744
-0.073463,-0.092539,-0.156104,0.925663,-0.005576,-0.378308
-0.095398,-0.619865,0.418798,-0.307851,-0.337396,0.889602
0.131373,0.063335,-0.046201,0.651022,0.424456,0.629292
-0.210848,0.329039,-0.113214,0.958883,0.268306,-0.092495
-0.297022,0.097584,0.178181,0.870567,0.412693,0.267952
-0.136971,-0.215356,0.492192,-0.162816,-0.962451,-0.217209
-0.073555,-0.328613,-0.427144,0.684318,0.724415,-0.083251
0.413023,0.016748,-0.972134,-0.166535,0.252680,0.953110
-0.156795,-0.298230,0.929083,-0.279206,0.849817,0.447051
-0.310694,0.283304,0.266114,0.026512,0.938441,0.344421
-0.557106,-0.409345,0.267137,0.914913,-0.290842,-0.279902
-0.687148,0.091248,-0.254617,-0.097515,0.504083,0.858132
0.125959,-0.759633,0.051774,0.258897,0.495454,0.829155
-0.266094,0.229844,0.002046,-0.706061,-0.659833,0.257095
0.225714,-0.096837,0.355285,0.551053,0.699168,-0.455526
-0.629330,-0.561785,0.035432,0.537856,0.711645,0.451964
-0.257742,-0.812989,0.262156,0.931773,-0.269056,0.243736
-0.133482,-0.542030,-0.088471,-0.569015,0.094547,-0.816874
-0.735142,0.659579,-0.036185,0.446125,0.856033,0.261111
0.260406,-0.182719,0.066555,0.395431,0.904821,0.157904
0.840409,0.210520,-0.967584,-0.153171,0.178833,0.971883
-0.233973,-0.507139,-0.838377,0.693821,-0.671046,0.261362
-0.120635,-0.323247,-0.652765,-0.687811,-0.716558,0.116019
0.140184,0.251741,0.383340,0.801359,0.369777,-0.470201
-0.144953,-0.220080,0.787895,0.984100,-0.104481,0.143638
0.630616,-0.769941,-0.587448,0.818127,-0.553335,-0.156490
0.012618,-0.341600,0.410856,-0.593354,0.100082,-0.798696
0.147157,0.140633,0.368558,0.700801,0.553225,-0.450355
-0.160097,-0.486420,-0.912229,0.962865,-0.033414,-0.267907
0.687607,-0.800324,-0.795622,0.974873,-0.078926,0.208309
-0.144220,-0.438326,0.748425,0.217909,-0.841204,0.494866
-0.207910,0.183250,0.242986,0.686304,0.161152,-0.709237
0.399258,0.629733,-0.398767,-0.049375,0.818638,0.572184
-0.483779,-0.446595,0.590329,0.143274,0.921022,0.362203
-0.156977,-0.321635,0.787249,0.828110,-0.442562,-0.344055
-0.677877,0.351580,0.128291,0.232017,-0.927934,0.291732
-0.143393,-0.283952,0.512142,-0.134148,-0.986072,-0.098322
-0.103565,0.267847,0.185074,-0.083722,0.236264,-0.968076
-0.628689,-0.121743,-0.563648,0.725429,0.679643,0.108800
0.111275,0.084807,0.311238,0.816385,0.416474,-0.400081
-0.349514,0.016853,-0.776103,0.446068,0.429693,0.785103
-0.237462,0.066880,0.186204,0.682459,0.720643,0.122160
-0.182398,0.985395,-0.457757,0.630890,0.678013,-0.377196
0.733586,0.143746,-0.966238,0.189536,-0.396181,-0.898397
-0.278117,-0.198608,-0.026520,-0.486436,-0.090951,-0.868969
-0.307026,0.518304,0.017850,0.377988,0.158261,-0.912183
-0.254348,-0.332047,0.763287,0.090795,-0.979439,-0.180156
-0.625751,-0.728077,0.127538,0.753796,0.580881,0.307196
-0.308401,0.192698,0.235125,-0.713769,-0.506069,0.484177
-0.170193,-0.749759,-0.109256,0.994695,0.102867,-0.000820
0.447712,0.193131,-0.473965,0.167494,-0.983479,0.068665
-0.265727,0.025548,0.403802,0.851622,-0.342229,-0.397014
0.131373,0.392053,-0.752060,0.642060,-0.749600,-0.160805
-0.424769,0.255607,-0.220720,-0.229704,0.918246,0.322585
-0.154957,-0.193884,0.443729,-0.326656,0.760572,0.561093
0.594916,-0.023510,-0.959103,-0.423109,0.230145,0.876363
0.179461,-0.032637,0.689731,-0.639654,0.750768,0.164894
-0.126326,0.391516,-0.241559,-0.282902,0.946291,-0.156522
-0.257375,-0.329793,-0.440741,-0.027103,0.997255,-0.068906
-0.156150,-0.313687,-0.481611,-0.068910,0.883290,0.463735
-0.460561,-0.218252,0.541112,0.924115,0.154169,-0.349633
0.299593,0.341273,-0.099564,-0.724714,0.524325,0.447071
-0.229385,-0.766186,-0.052528,0.925066,0.087217,0.369658
-0.043821,-0.605260,0.573044,-0.246735,0.547422,0.799657
0.087231,0.370581,-0.579290,0.890436,-0.437932,0.123853
-0.560593,0.228336,0.067632,0.005217,-0.847880,0.530163
-0.653833,0.644332,-0.403640,0.308608,0.932912,0.185572
-0.470655,0.451418,0.155888,0.691748,0.572208,0.440525
-0.110998,-0.219969,0.401675,0.224397,-0.732115,0.643159
0.088147,-0.873323,0.402079,0.555525,-0.732818,0.392899
0.511313,-0.478695,-0.402967,-0.680731,-0.633382,-0.368012
-0.020603,0.124744,0.310457,-0.075908,-0.569296,0.818621
-0.556188,-0.413853,0.225028,0.790248,-0.560809,0.246985
0.070620,-0.471717,0.055732,0.774440,0.281303,0.566667
-0.108430,0.647451,0.119999,0.903819,0.427374,-0.021506
-0.658698,0.292111,0.085967,-0.043533,-0.969878,0.239671
-0.058871,-0.702202,-0.582198,0.887317,-0.459319,-0.041155
0.333641,-0.258077,0.201605,-0.619317,0.690876,-0.373010
0.349425,-0.732264,0.104195,0.070612,-0.932652,0.353799
-0.233331,-0.250031,0.751871,-0.208560,-0.120128,-0.970604
0.138624,0.350505,-0.737898,-0.641999,0.740076,0.200312
-0.452669,0.454537,-0.387620,-0.273064,-0.325624,0.905210
-0.868948,0.563391,0.074202,0.674955,0.447980,0.586302
-0.116048,-0.298014,-0.235152,0.528368,0.767331,-0.363361
-0.296103,-0.061946,0.047951,0.832924,0.500675,0.235714
-0.242691,0.318949,-0.608987,0.527263,0.827212,0.194201
-0.240398,-0.792055,0.206774,0.991340,0.127004,0.033397
-0.559949,0.338481,0.112110,-0.306783,0.895811,-0.321570
-0.533886,-0.724637,-0.129880,0.184518,-0.949202,0.254891
-0.184599,-0.127862,0.725001,-0.421300,-0.872734,0.246662
0.203781,-0.632957,0.320284,-0.686006,0.719250,0.109890
0.084108,0.253674,-0.609149,0.905047,-0.417939,0.078848
0.049052,-0.134513,0.720290,0.534150,0.785746,-0.311909
0.202588,-0.176815,-0.976065,-0.223927,0.264077,0.938147
0.524344,0.154911,-0.406656,-0.223792,0.015480,-0.974514
0.063185,0.669133,-0.469011,0.867307,-0.279708,-0.411756
-0.194603,-0.263339,0.519331,0.732146,0.667315,-0.136577
-0.624283,0.132148,0.204297,-0.286233,-0.626497,0.724964
-0.271510,-0.300058,0.497765,0.706978,-0.668465,0.230948
0.341256,0.629845,-0.417775,-0.006384,0.722907,0.690916
-0.056852,-0.454320,0.014350,0.826832,0.227578,-0.514351
-0.375762,0.630054,-0.371143,-0.730475,0.219115,0.646834
-0.549122,0.193989,-0.248236,-0.068502,-0.319460,0.945121
0.256460,0.530216,0.015400,-0.245646,0.538376,0.806107
0.098244,0.364036,0.014404,-0.662550,0.499058,0.558541
-0.413849,-0.784329,-0.212859,0.938198,-0.141079,0.316041
-0.309961,-0.156306,0.011900,-0.450177,0.015091,0.892812
0.501031,-0.600864,-0.176673,-0.155490,-0.986750,0.046330
0.080714,-0.034249,-0.832077,-0.275651,0.654798,0.703745
-0.123021,-0.300805,-0.648727,0.532514,0.833018,-0.150033
-0.038040,-0.661840,0.581256,0.029264,0.994309,-0.102436
-0.774607,-0.449065,0.087960,0.929767,0.202684,0.307332
-0.579223,0.229522,-0.806688,0.717051,0.171238,0.675659
-0.292434,0.347504,-0.077594,-0.395927,-0.170374,-0.902339
0.346947,-0.634569,-0.050267,0.334756,0.717293,0.611089
-0.204056,-0.808481,0.496042,0.814875,0.350741,0.461475
-0.075115,-0.781643,-0.185935,0.982923,0.156020,-0.097575
0.061258,0.111429,0.307199,0.935490,0.074160,-0.345482
-0.371542,0.157807,0.109418,0.542756,0.746019,-0.385839
0.262240,-0.345682,0.312746,-0.612437,0.645158,0.456828
-0.444407,0.353087,0.151823,-0.294696,-0.590340,0.751434
0.017576,0.356520,0.195197,-0.683740,0.468473,-0.559494
-0.110539,-0.704240,0.084513,-0.560420,-0.652311,0.510313
-0.019777,-0.299200,-0.588337,0.191075,-0.931024,-0.310940
-0.152112,-0.223298,0.489607,-0.276199,-0.944548,0.177605
0.109808,0.148358,0.222444,0.975206,0.036814,-0.218215
-0.380535,-0.225126,0.360455,-0.413004,0.863876,-0.288351
0.471941,0.035959,-0.971272,0.126935,0.283418,0.950559
0.281422,-0.119056,-0.980346,-0.010931,0.055332,0.998408
0.590421,0.184324,-0.985757,-0.188031,0.574852,0.796360
-0.502224,-0.024263,0.364439,-0.212859,-0.888795,0.405876
-0.284816,-0.886526,0.578159,-0.527473,-0.552361,-0.645499
-0.102739,-0.111003,0.654407,-0.382230,-0.832885,0.400254
0.622264,0.249704,-0.989500,-0.069001,0.158506,0.984944
-0.530766,-0.434034,0.207312,0.658750,-0.704842,0.263146
-0.295277,-0.040474,0.454930,0.494427,-0.856462,0.148376
-0.315651,0.218141,-0.782241,0.592086,-0.210052,-0.778018
-0.707886,0.178100,-0.719401,0.903507,0.282883,0.321952
-0.470381,-0.083627,0.120349,0.256453,0.871867,-0.417230
-0.016290,-0.393777,0.012573,0.744457,0.345277,-0.571461
-0.237462,-0.415458,0.704916,-0.179938,0.631515,0.754195
-0.089892,-0.453783,-0.504685,-0.763966,-0.514776,0.389052
-0.283164,-0.442192,0.460907,0.404744,0.892497,-0.199078
0.422016,-0.386798,-0.251387,-0.472837,-0.532954,0.701701
0.191758,-0.252495,-0.974019,-0.243283,0.022473,0.969695
0.250861,-0.333875,-0.332588,-0.660211,-0.374108,0.651279
0.139357,-0.094255,-0.975499,0.431917,-0.246882,-0.867466
-0.176340,-0.266451,0.556755,0.120302,-0.981662,-0.147878
-0.668425,0.376275,-0.738302,0.911778,0.247250,-0.327916
-0.126967,-0.747610,-0.142265,0.825004,0.126427,0.550804
0.314366,-0.458835,0.347989,-0.249655,0.126475,0.960040
0.240490,-0.671714,0.114803,0.699321,0.162904,0.695997
-0.363283,0.414810,-0.549136,0.858477,0.393146,-0.329322
0.334374,-0.353624,0.280141,-0.479658,0.877424,-0.007383
0.531410,-0.228775,-0.009881,0.944393,0.143987,-0.295617
0.304914,0.507139,-0.375182,-0.193641,0.757782,0.623113
-0.201762,-0.104674,0.744656,0.842554,0.514663,0.158820
-0.503051,-0.154590,-0.020489,-0.500737,0.810055,-0.305078
-0.117148,-0.216103,0.766545,0.840451,0.046738,-0.539868
-0.291423,0.168330,0.446153,0.914731,-0.315322,-0.252664
0.001699,-0.866456,0.061171,-0.283676,-0.956422,0.069166
-0.160189,-0.301238,0.372839,-0.515925,0.110802,0.849438
-0.489560,0.439289,0.161434,0.067464,-0.957075,0.281880
0.610334,0.143746,-0.716951,0.708207,0.660095,0.250434
0.259946,-0.280729,0.717974,0.185594,-0.982007,-0.034884
-0.234984,-0.074507,-0.206666,-0.778661,-0.389770,0.491698
0.643647,0.230164,-0.988854,-0.330278,0.115221,0.936825
0.196531,-0.135588,0.043616,-0.483253,0.874578,0.039749
-0.015189,-0.050459,-0.359647,0.908820,-0.416672,-0.020765
-0.140458,-0.719592,0.688520,0.959894,0.130142,0.248326
-0.509383,-0.020719,-0.712886,-0.356348,-0.703047,0.615419
-0.119257,-0.650563,-0.343519,0.174004,0.657823,0.732797
-0.409536,0.001933,0.368262,-0.112275,-0.572006,0.812529
-0.335567,0.389695,-0.539578,0.937408,0.319908,-0.137567
0.298582,-0.211706,0.011335,-0.332650,0.937424,-0.102865
0.036573,-0.564465,0.489231,0.978411,-0.062370,-0.197033
-0.118982,-0.326681,0.398229,0.967513,-0.141026,-0.209836
-0.137979,-0.557166,-0.606349,0.631370,-0.030844,-0.774868
-0.352912,-0.749975,0.542970,0.242569,0.661317,0.709803
-0.128986,-0.314978,0.764983,0.103075,0.754687,0.647938
-0.090900,-0.185078,-0.509746,0.836295,0.044591,0.546463
-0.169549,-0.582288,0.742744,0.725931,0.021249,0.687439
0.454504,0.119587,-0.349254,-0.714840,0.536380,-0.448664
0.176707,-0.307895,0.782914,0.363489,0.871211,-0.329949
-0.115678,-0.408054,0.432960,0.976794,-0.164577,0.137071
0.061992,0.143746,0.284395,0.789909,0.612194,0.035527
-0.121554,0.673641,0.078133,0.420424,-0.903510,-0.083152
-0.326482,0.166823,0.350870,0.621922,0.730662,-0.281683
-0.622079,0.265160,-0.522724,0.894382,0.091562,-0.437832
-0.079521,-0.314120,-0.492865,0.375769,0.905626,0.196569
-0.070069,-0.836715,0.415137,0.971559,0.228767,-0.061148
-0.222412,-0.038757,0.351947,-0.372721,-0.859805,-0.349020
-0.026661,-0.699411,-0.090787,0.152907,-0.089557,0.984174
-0.112101,-0.372625,0.505035,0.922811,0.122528,-0.365249
0.324188,0.542777,0.001077,-0.484483,0.237544,0.841932
0.003166,-0.410629,0.049190,0.246473,0.963633,0.103263
0.231772,-0.022225,-0.836815,-0.623837,0.729376,0.280781
0.077776,0.828447,-0.781837,-0.149836,0.246737,0.957429
0.390539,0.641220,-0.416348,-0.124973,0.644460,0.754356
0.530492,0.069239,-0.965538,-0.312883,0.054403,0.948232
0.358326,-0.396673,0.552017,0.504273,0.862017,0.051332
0.107144,-0.522065,0.139142,0.303594,0.920245,-0.246941
-0.338687,-0.381641,0.674654,0.576405,0.072197,-0.813969
-0.226080,0.251316,-0.249987,-0.593624,-0.282881,-0.753385
-0.091359,-0.363177,-0.483819,0.831396,0.552329,0.060937
-0.191299,-0.227484,0.821577,0.043898,0.465445,0.883987
-0.455604,-0.071283,0.143719,0.473234,0.740920,-0.476538
-0.092093,-0.349974,-0.722471,0.641122,0.765972,-0.047424
-0.274538,-0.463664,0.527408,0.221600,-0.246650,0.943429
