0.090018,-0.102356,0.732556,0.851439,0.291636,0.435889
-0.557080,-0.402418,0.667411,-0.124030,-0.809022,0.574543
0.254548,-0.291373,0.603203,0.931551,-0.299719,0.205865
0.089494,0.189668,-0.017095,0.992273,-0.042244,-0.116658
0.012536,0.225535,-0.049707,0.864629,-0.307580,0.397255
-0.591596,-0.448094,0.609685,0.802304,0.407293,-0.436373
0.294491,-0.578227,0.009351,0.899496,0.225057,0.374508
0.365305,-0.405372,-0.960337,0.115335,0.353158,0.928427
0.017507,0.170831,0.510826,0.336739,0.936170,0.100961
-0.099271,-0.293964,-0.527845,-0.068789,-0.792603,0.605845
0.697785,0.112411,-0.048884,0.577631,-0.811599,-0.087459
0.090145,-0.261069,0.599329,0.052902,0.777738,0.626359
-0.060140,-0.264223,0.618134,0.145034,-0.114607,0.982767
0.071553,-0.397701,0.809369,-0.603662,0.795245,0.056372
0.187345,-0.485089,0.861305,-0.524185,0.149596,-0.838362
-0.075043,-0.193847,0.555564,0.900149,0.301266,-0.314595
0.138101,-0.289011,0.823028,0.242338,0.456395,0.856140
0.121122,-0.509493,0.885735,-0.513093,0.058735,-0.856321
-0.157765,0.038754,0.357226,0.196244,0.819846,0.537904
-0.062166,-0.287641,-0.259694,-0.429504,0.856419,-0.286484
-0.757873,-0.072602,0.580800,0.836117,-0.097489,-0.539818
0.006875,-0.096677,0.582483,0.345667,-0.043765,-0.937336
0.427497,0.369811,-0.588770,0.812426,-0.578796,-0.070417
-0.100829,0.211741,0.635934,0.705367,0.636452,0.312067
0.102231,-0.282947,0.601349,0.256867,0.596088,0.760722
0.598225,0.323167,0.696622,0.890269,-0.394288,0.227945
-0.694216,-0.159466,0.582909,-0.583330,0.427038,0.690916
-0.227939,0.026510,0.708401,0.948950,0.314520,-0.023880
-0.605440,-0.484589,0.590623,0.974053,-0.033551,-0.223817
0.115443,0.396234,-0.315028,0.033587,0.845467,0.532970
0.164313,-0.018621,0.553254,-0.551265,-0.133027,-0.823657
0.422661,0.305884,0.691954,-0.609519,0.780786,0.137330
0.189622,-0.418071,0.883421,0.997843,-0.004382,0.065496
-0.676499,-0.060859,0.176201,0.686979,0.406914,-0.602064
0.007135,-0.205357,0.642002,-0.163821,-0.803437,0.572409
-0.188890,-0.294663,0.692859,0.168500,-0.975577,-0.140915
0.559237,-0.218257,-0.891865,0.798482,-0.386791,0.461323
0.053064,0.068498,0.315575,0.549857,0.485626,-0.679577
0.423067,0.258771,0.701881,0.614029,-0.767688,0.183367
0.105004,0.068834,-0.246970,0.963855,-0.239223,0.117284
0.146009,-0.054825,0.583261,0.622040,0.759630,0.189811
0.233730,-0.534116,0.791574,0.026183,-0.105022,0.994125
-0.085016,-0.175626,0.421991,0.989227,0.095293,0.111125
0.177555,-0.360288,0.778131,-0.591391,0.292408,-0.751501
-0.265213,0.358195,0.294841,0.825713,-0.564044,0.007174
0.215516,-0.307956,0.942897,-0.587829,0.510824,0.627308
-0.175257,-0.246173,0.532623,0.369576,0.539930,-0.756234
0.337243,-0.396537,0.486582,0.919371,0.354070,0.171439
-0.035623,-0.606122,0.824815,0.913725,-0.066818,-0.400801
0.179446,0.043862,0.377412,-0.386032,0.910759,-0.146618
-0.162281,-0.462538,0.614006,-0.740385,0.667947,0.075344
0.300679,-0.505424,0.851289,0.538906,0.271540,0.797400
0.210978,-0.409597,0.895199,0.606197,-0.773143,0.186483
-0.189736,-0.172576,0.674813,0.968037,0.247959,0.037708
0.041278,-0.169631,0.094368,-0.432514,-0.183212,0.882817
0.097370,-0.292389,0.762324,0.658895,-0.751505,0.033131
-0.204140,0.014208,0.375404,0.920333,0.356113,0.161774
0.043957,-0.056251,0.759937,0.609544,0.789205,0.074909
0.096973,-0.370115,-0.784296,0.038481,0.994190,-0.100530
-0.083540,0.394422,0.646102,-0.175131,0.842463,-0.509496
0.192245,-0.184000,0.284676,-0.596841,0.034702,-0.801609
0.150207,-0.233620,0.201150,0.906408,0.136330,-0.399799
0.160690,-0.237108,0.624907,-0.026685,-0.943856,0.329278
0.019145,0.234077,0.580978,-0.637278,0.299540,-0.710037
-0.139746,0.023903,0.703549,-0.349859,-0.764843,0.540939
0.270319,-0.393940,0.576116,0.886281,-0.064252,0.458670
0.109839,-0.519936,-0.180895,0.949361,0.004397,0.314156
-0.009461,-0.028933,0.703496,0.371173,0.430781,0.822592
0.475157,0.180798,0.778269,-0.732066,0.616478,0.289886
0.484054,0.418243,0.743413,0.116577,-0.861594,0.494031
0.238762,-0.325849,-0.743859,-0.464284,0.653596,-0.597706
-0.099390,0.022013,-0.414812,-0.025438,0.710555,0.703181
0.027833,-0.249953,-0.086770,0.876231,-0.467012,0.118823
-0.017304,0.076403,0.741499,0.660169,0.743022,-0.109975
-0.361756,-0.426236,0.183876,0.561021,0.815379,-0.142874
-0.175119,-0.151348,0.350324,-0.479139,-0.159762,0.863077
0.069195,-0.154012,0.816470,0.879880,0.473301,-0.042389
0.270412,-0.417188,0.734066,-0.506068,-0.436826,0.743692
0.005618,-0.408031,0.658350,0.531329,0.847131,0.007668
0.582261,-0.140188,0.720208,0.363269,-0.844310,-0.393924
0.327269,-0.070974,-0.206908,-0.229595,-0.112828,0.966724
-0.546847,-0.369161,0.643892,-0.284197,-0.171208,-0.943356
-0.575709,-0.501494,0.604457,-0.693892,-0.719362,0.032143
-0.313138,-0.291453,0.635332,0.273169,0.906299,-0.322491
0.206197,-0.270147,0.090409,0.869678,-0.492700,-0.030115
0.387223,-0.040144,0.446516,0.363293,-0.619476,0.695894
-0.061160,0.284550,0.618518,-0.604192,0.775218,-0.184365
0.174283,-0.189954,0.938243,-0.083491,-0.761289,-0.643015
-0.041401,0.086552,0.538165,0.988432,-0.106615,-0.107864
0.167719,-0.254137,-0.364096,0.964146,0.079817,-0.253085
0.490767,0.511154,0.739437,0.536374,-0.654748,0.532548
0.013639,0.212121,0.515895,-0.009005,-0.454106,0.890902
-0.038042,-0.041464,0.704483,0.446417,0.618652,0.646515
-0.330084,-0.227980,0.531093,0.504460,0.801131,-0.322039
0.020659,-0.286311,0.404329,-0.460685,-0.615465,-0.639510
0.105526,-0.169010,0.195259,0.617866,0.735528,-0.277921
0.060565,0.343063,0.678261,0.602826,-0.085012,-0.793331
-0.005134,-0.588060,0.813974,-0.719046,0.625024,-0.303840
0.049827,-0.572344,0.803924,-0.216226,-0.593812,0.775005
-0.084462,-0.453783,0.797383,0.012141,-0.062776,0.997954
0.276544,0.526031,0.756653,-0.145821,-0.855789,0.496348
0.482281,0.299245,0.655438,0.069855,-0.949033,0.307339
-0.069851,0.101544,0.595494,0.818527,0.573793,-0.027832
-0.004968,-0.025886,-0.991754,0.616602,0.034489,-0.786519
0.169981,-0.244072,-0.348219,0.976458,-0.189803,-0.102492
-0.470844,-0.349435,-0.174909,-0.166406,0.972573,0.162512
0.135123,-0.289240,-0.343750,0.902493,-0.385557,-0.191970
0.244441,-0.185843,-0.979987,0.227736,0.327675,0.916933
0.291787,-0.195274,0.829376,0.922992,-0.381299,0.051924
0.459804,0.079013,-0.972347,-0.354171,-0.091270,0.930716
-0.542242,-0.286421,0.686160,0.768840,-0.522346,-0.368836
0.035383,-0.215664,-0.258303,0.770605,-0.481835,0.417136
0.410814,-0.213673,0.798990,-0.492092,0.830380,0.261372
0.028974,0.303712,0.723469,0.942337,0.172930,-0.286525
0.627127,-0.678044,0.674514,0.384204,0.511304,0.768737
-0.126212,-0.254133,0.595507,-0.414580,0.314684,0.853872
0.639321,-0.027885,-0.974140,-0.116320,0.140933,0.983162
-0.370147,0.148286,0.147164,0.801552,0.586357,-0.117048
0.489187,0.233855,0.576336,-0.491571,0.867650,0.074445
-0.060990,-0.315036,0.118446,-0.027716,0.715333,0.698234
-0.595274,-0.281988,0.673574,0.744708,0.317823,0.586855
0.148622,-0.339617,0.894520,-0.759983,0.635928,-0.134246
-0.186869,0.064077,0.730738,0.975555,-0.205269,-0.078474
-0.084611,-0.371552,0.660159,0.500520,0.798068,-0.335511
0.214795,-0.047209,0.586074,0.673962,0.730575,0.109712
-0.305336,-0.311127,0.684488,-0.034748,0.284759,0.957969
-0.146788,0.257235,0.584221,0.107505,0.981144,-0.160622
0.285375,-0.601872,0.781390,-0.526409,0.841000,0.124948
0.042748,-0.398267,0.753450,0.820937,0.570335,0.027945
0.193117,0.351392,0.628171,-0.520684,-0.834827,0.178750
-0.132966,0.026234,-0.004689,0.339821,-0.892482,0.296645
0.174696,-0.362993,0.907177,0.965085,0.213196,-0.152178
0.254920,-0.508282,0.730850,-0.698716,0.658797,-0.278896
-0.191718,-0.118897,0.414498,0.507244,0.765983,-0.394934
0.155174,-0.145689,0.260527,-0.663233,-0.494685,0.561613
0.246422,-0.370949,-0.785989,0.316153,-0.946072,-0.070674
0.241100,-0.237304,0.768935,-0.808378,0.406566,-0.425711
-0.154142,0.004580,0.666086,0.917501,-0.160309,0.363997
-0.414750,-0.405590,-0.239641,-0.272520,0.933090,-0.234685
0.021622,0.325849,0.637493,0.969707,-0.038183,-0.241270
0.326261,-0.248264,-0.975757,-0.074716,0.224423,0.971623
0.012522,-0.247547,-0.416143,-0.609903,-0.705296,0.361353
-0.188699,-0.847435,0.694467,0.795279,0.490913,-0.355719
-0.337396,-0.401369,-0.233257,0.274642,-0.955625,0.106553
-0.503175,-0.468499,0.543891,-0.761297,-0.493658,0.420391
-0.069039,-0.180880,0.597254,0.059587,-0.524627,0.849244
-0.026401,0.000581,0.793917,-0.068735,-0.180069,0.981249
-0.099593,0.151342,0.818769,0.909813,0.094232,-0.404179
-0.022641,-0.129006,-0.408820,-0.064272,-0.038708,0.997181
0.134604,-0.540414,0.451825,0.911366,-0.389964,0.131680
0.104963,-0.086314,0.764630,0.946706,-0.316560,-0.059472
0.231473,-0.539884,-0.146214,-0.201862,-0.845117,0.495003
-0.308958,-0.015857,-0.095170,-0.028486,-0.500202,0.865440
0.527321,-0.090705,-0.980606,0.197411,0.166448,-0.966087
-0.144051,-0.118590,0.571646,-0.094545,0.240410,0.966056
0.214908,-0.420016,0.850248,0.968337,0.201487,-0.147397
0.849708,-0.129960,0.723970,0.983993,-0.176765,-0.022630
-0.612179,-0.235946,0.115817,0.869791,0.402178,0.285862
-0.327795,-0.211631,0.553868,-0.019403,0.859956,0.510000
0.392933,-0.351334,0.808852,-0.554268,-0.676271,0.485226
0.159671,0.004798,0.721818,-0.160331,-0.488189,0.857884
-0.031338,0.443702,0.673132,-0.034664,-0.997217,0.066010
-0.052652,0.172354,0.594120,0.585380,0.590984,-0.555039
0.083627,-0.245759,0.608306,0.759529,0.453445,0.466373
0.454389,0.054496,-0.028938,-0.264904,0.895689,-0.357165
-0.432702,-0.268449,0.646972,0.948221,0.137295,-0.286403
-0.026724,0.372101,0.570458,-0.446158,0.879741,-0.164315
-0.111458,-0.296459,0.071764,0.883602,0.464786,0.056760
0.041426,0.530041,0.719188,-0.052812,-0.843113,0.535137
0.040057,-0.561638,0.784204,0.908681,-0.255877,0.329887
-0.049412,-0.044797,0.707340,0.462029,0.635948,0.618142
-0.245229,-0.150010,0.547826,0.101973,-0.927732,0.359047
-0.146210,-0.336756,0.693022,-0.101210,0.985971,-0.132735
-0.495055,-0.188103,-0.404275,-0.142898,0.382465,0.912853
-0.013296,-0.139089,0.345315,0.708743,0.410306,-0.573875
0.439382,-0.292578,0.889752,0.874623,0.253728,-0.413107
0.200704,-0.109735,-0.446367,0.966341,0.134550,-0.219275
-0.218961,-0.375118,0.583806,0.543469,0.296595,0.785285
-0.002781,-0.299691,0.790806,-0.164613,-0.868147,0.468213
0.222510,-0.647188,-0.197676,0.877006,0.256889,0.406041
-0.251838,0.230269,0.691999,-0.422973,-0.862276,0.278522
-0.086844,0.128595,0.684631,0.766470,0.256815,0.588702
-0.259977,-0.382850,-0.288691,0.521519,-0.853240,0.000467
-0.048167,-0.161625,0.147000,0.545284,0.720885,-0.427773
0.203203,-0.312297,0.910913,-0.599192,0.704642,0.380064
0.059973,-0.438621,0.909325,0.066795,-0.755700,0.651503
-0.527274,-0.489328,0.592085,0.115658,0.021932,0.993047
-0.009139,-0.519639,0.544036,0.637718,0.770154,0.013329
0.171299,-0.264670,0.873047,0.948181,0.117234,0.295310
0.144353,-0.289914,0.261305,-0.639828,0.496362,0.586724
0.424586,-0.190788,0.704503,-0.211732,0.870002,0.445271
0.047423,-0.125507,0.902247,0.370769,-0.775332,-0.511265
0.577586,-0.045301,-0.969193,0.301264,0.166991,-0.938804
0.085747,0.374766,-0.080652,0.371589,-0.799481,0.471966
0.246489,-0.252896,0.934235,0.932540,0.299036,0.202352
-0.232076,-0.326230,0.636624,0.303766,-0.867513,0.393888
0.110948,-0.587432,0.114957,-0.420850,0.811228,0.405949
-0.288235,0.335953,0.250279,-0.108223,-0.192173,0.975375
-0.163960,-0.335305,0.821157,0.218713,0.969586,-0.109856
0.079035,-0.498659,0.703129,-0.136879,-0.928109,-0.346234
0.258508,0.350589,0.656492,0.486884,0.811687,0.322658
0.489837,-0.262454,0.352866,0.961832,0.037154,0.271106
0.187168,-0.405469,0.827217,0.492001,0.579642,0.649577
0.000454,0.061312,0.312941,-0.698476,-0.313590,0.643267
-0.141544,-0.333981,0.815293,-0.468046,0.726259,0.503469
-0.304414,-0.015044,-0.482626,0.675495,-0.072951,0.733747
0.112655,-0.301431,0.873128,-0.620824,0.546905,-0.561670
-0.222035,-0.337332,-0.444311,-0.216120,-0.952357,0.215192
0.529127,-0.374030,0.787965,-0.143670,-0.983408,-0.110759
0.191264,-0.281918,0.608189,-0.174098,0.107839,0.978806
0.060077,-0.274273,0.098815,-0.394036,-0.738825,0.546694
0.295916,-0.358620,0.809720,0.407972,-0.507897,0.758683
-0.014916,-0.365553,-0.061469,0.994700,0.006497,0.102610
0.087082,-0.174323,-0.458769,0.271333,-0.889616,0.367372
-0.121472,-0.293436,0.657583,0.598002,0.512579,-0.616163
-0.010353,-0.197513,0.595791,0.828154,-0.548526,-0.115238
0.056927,-0.468554,0.225188,-0.614538,0.776983,-0.136528
0.261043,-0.621131,-0.021566,0.711206,0.699403,-0.070867
-0.634409,-0.134858,0.577674,0.249136,-0.139664,0.958345
-0.003321,-0.308046,-0.592795,-0.208059,0.937193,0.279966
0.168730,-0.255066,0.849979,0.626077,0.405163,0.666236
0.292054,-0.185352,0.764245,0.934980,-0.220348,0.277954
-0.062734,-0.591298,0.635312,0.704463,0.231750,-0.670838
-0.584688,-0.119304,0.578247,0.668784,0.271491,0.692113
-0.003176,-0.016300,0.575167,0.475588,-0.739862,-0.475837
0.050117,-0.294448,-0.785397,0.376546,-0.923502,-0.073198
-0.033350,0.235628,0.684010,0.899877,0.236962,0.366157
-0.125543,-0.092376,0.432992,-0.514064,-0.836643,-0.189122
0.306171,-0.477593,0.773597,-0.638855,0.620299,0.455075
0.032482,-0.363991,0.791944,-0.120554,-0.929385,0.348871
0.177113,0.354624,0.722654,0.890970,0.438642,0.117325
-0.081137,-0.063343,0.640604,0.280155,0.762526,0.583153
0.382463,0.573772,-0.112736,0.860816,-0.100591,-0.498876
-0.002829,0.170178,0.601134,0.404176,-0.037278,0.913921
-0.037813,0.369755,0.695862,0.968747,-0.015901,-0.247540
-0.251370,-0.209179,0.586476,0.352638,0.007698,-0.935728
0.108565,-0.260026,0.713406,0.291367,0.945820,-0.143281
0.178636,-0.734834,0.808889,0.278099,-0.193322,0.940897
-0.305188,-0.329774,0.660324,-0.574963,-0.782764,0.238113
-0.038953,0.131398,0.613503,0.997657,0.058747,-0.035070
-0.075196,-0.181069,-0.371388,0.822758,-0.458585,-0.335811
-0.144359,0.082435,0.270938,0.305161,0.312795,-0.899465
-0.407302,-0.408787,0.705095,-0.074986,0.699821,0.710372
-0.230548,-0.318376,0.655967,-0.623625,-0.258959,-0.737586
0.127957,-0.538123,0.807295,-0.684733,0.702350,0.194536
0.299849,-0.092114,0.730360,-0.474330,-0.849473,-0.231100
-0.260290,-0.373373,0.871270,-0.657902,0.604177,-0.449596
0.168596,-0.408553,0.900463,0.415267,-0.543986,-0.729131
-0.073508,0.070297,-0.536457,-0.605900,-0.789999,-0.093736
0.035968,-0.502921,0.745001,0.436673,-0.860293,0.263083
0.101796,-0.329954,0.846584,-0.089557,-0.833327,0.545478
-0.114513,-0.316316,0.785786,0.387023,0.823730,-0.414346
-0.011929,-0.216020,-0.109640,0.290492,-0.237186,0.927015
0.033503,0.402922,0.712325,-0.722508,0.647663,-0.241897
0.394043,0.265604,-0.177666,0.845574,-0.341608,-0.410254
-0.359950,-0.373950,0.661601,-0.124570,0.495775,0.859470
0.038467,-0.027098,0.728480,-0.327258,-0.359722,0.873786
0.195779,-0.344113,0.930580,0.909583,0.063464,0.410648
0.400690,0.362812,-0.329457,-0.673962,0.653763,0.344049
0.045803,-0.267876,-0.156515,0.713111,-0.535764,0.452140
0.335868,-0.263781,0.624994,-0.575484,0.815454,0.062078
0.227375,-0.538574,0.871107,0.444704,0.704946,-0.552530
0.553647,-0.637588,0.721288,0.388118,-0.771184,0.504618
0.203029,-0.198884,0.929892,0.324848,0.445892,0.834059
0.357610,-0.499770,0.792421,0.319418,-0.239521,-0.916843
-0.374227,-0.264981,0.562051,0.021852,0.481507,0.876170
-0.140439,-0.228397,0.673281,-0.420827,-0.651089,0.631655
-0.546965,-0.145403,0.556038,0.889778,-0.455054,0.034932
-0.139760,-0.259968,0.881654,-0.420564,0.869525,0.258944
-0.059914,-0.188545,0.437041,0.611703,0.789871,0.043864
-0.229087,0.039581,-0.094798,0.000366,-0.612276,0.790644
0.239042,-0.413773,0.021952,0.970357,0.210944,-0.117940
0.004358,-0.133580,0.431315,-0.558025,0.476822,0.679153
-0.015880,-0.418727,0.829138,0.994175,-0.106164,-0.018606
0.312026,-0.328438,0.808565,-0.522880,-0.715377,0.463500
0.251574,-0.188915,0.800907,0.695517,0.037048,0.717554
-0.032407,-0.176889,-0.407490,-0.217899,-0.119656,0.968609
-0.074230,0.125728,0.694599,-0.403238,-0.899127,-0.170204
0.086201,-0.237375,0.097132,-0.663349,-0.236972,0.709797
0.113558,-0.084167,0.508957,0.983885,-0.131531,0.121118
-0.005005,0.753524,-0.280881,0.890906,0.010545,0.454066
0.089317,0.089645,0.346379,0.798461,-0.140430,-0.585440
0.234233,-0.311781,0.448158,0.803855,0.476859,-0.355559
0.141809,-0.365867,0.796128,-0.096942,0.701794,-0.705753
0.299378,-0.197928,0.673819,-0.534159,0.742575,0.404050
0.439106,-0.239817,0.808737,-0.253460,0.171506,0.952021
0.250901,-0.243849,-0.035930,0.922262,0.270849,-0.275815
-0.425530,-0.412634,0.552220,0.992637,0.043785,-0.112937
-0.305784,0.178168,0.659283,0.144041,0.943414,-0.298699
0.206977,-0.096937,0.717340,0.437649,0.001578,-0.899145
-0.131471,0.046739,0.554871,-0.014866,0.830911,0.556207
-0.332014,-0.464544,0.135687,0.465738,0.659221,0.590352
-0.104927,-0.203522,0.610653,0.684404,-0.534724,-0.495642
0.234485,-0.457628,0.796144,0.882625,-0.454576,-0.119722
-0.157163,-0.264756,-0.679548,-0.219921,0.974628,-0.041652
-0.329846,-0.349598,0.799458,0.638140,0.476858,0.604470
0.912764,-0.055457,0.698257,0.527380,0.829379,-0.184393
0.293144,-0.164382,-0.953502,0.154562,0.897450,0.413151
-0.031473,-0.304905,0.798830,0.540430,0.841164,-0.019450
0.301672,-0.325350,0.923291,0.396998,-0.424624,0.813687
0.366287,-0.221358,0.859214,0.155208,0.813112,0.561035
0.403592,-0.124488,0.055135,-0.300022,0.410885,-0.860907
-0.047993,-0.206071,0.630810,0.000965,0.696554,0.717504
-0.042285,0.109504,-0.039550,0.766174,-0.292835,-0.572036
-0.072840,-0.078753,0.261564,0.645495,-0.232770,-0.727430
0.075032,-0.342596,0.090634,0.769379,0.111777,-0.628937
-0.425434,-0.274285,0.804233,0.680610,0.566405,-0.464710
0.132602,0.298792,0.735380,0.252591,0.719403,0.647037
-0.184192,0.400675,0.712324,-0.616361,0.714368,0.331326
0.458349,0.383240,0.697152,0.806335,-0.444767,0.389880
-0.014506,-0.229340,0.793503,-0.088225,0.106036,0.990441
-0.083694,-0.026114,0.789453,-0.274290,-0.846239,-0.456776
-0.235966,-0.265306,0.778305,0.169651,0.979914,0.104816
-0.329604,-0.407371,0.869753,0.903918,-0.259566,0.339938
-0.078881,0.127540,0.033490,0.869612,0.406860,-0.279714
0.311674,0.124565,-0.674073,0.338224,0.909288,-0.242486
-0.011664,-0.207744,0.596136,0.850769,-0.525523,-0.004225
-0.193864,0.263154,0.720025,-0.302028,-0.810250,0.502268
-0.065794,-0.428959,0.795213,-0.285256,0.015274,-0.958330
-0.060096,-0.041847,0.481786,0.058794,0.997371,-0.042369
0.479006,-0.440092,0.723027,0.456607,-0.882715,-0.111010
0.287961,-0.301260,0.230283,0.745024,0.652747,-0.137336
0.161578,-0.011506,-0.499465,0.894537,0.262521,0.361781
0.200921,-0.280394,0.984633,0.790985,-0.450511,-0.413984
-0.214108,-0.372275,-0.256698,-0.313558,0.946917,-0.070923
-0.209717,-0.120123,-0.414311,0.408245,-0.230165,-0.883380
-0.074038,-0.247464,0.760214,-0.025671,-0.951156,0.307641
-0.466314,-0.257941,0.658214,0.566089,0.216861,0.795308
0.025854,-0.227522,0.798262,0.258147,0.964953,0.047174
-0.053705,0.369151,0.623696,0.955337,-0.203493,-0.214295
0.139632,0.355404,-0.317706,0.021566,0.700639,0.713190
0.027259,-0.563111,-0.163676,-0.126762,-0.666796,0.734380
-0.125001,-0.155951,0.405204,0.807674,0.451138,0.379654
0.237452,-0.281227,0.327734,-0.504323,0.852404,-0.138079
0.536872,0.249553,0.807239,0.737762,-0.467312,0.487162
-0.187222,-0.376611,0.615349,0.404226,0.758449,0.511229
0.130564,-0.280301,0.754591,-0.257362,-0.936690,-0.237438
0.025069,0.244650,0.748599,0.389879,0.074065,0.917883
0.034171,-0.133314,0.796445,-0.425819,0.848005,0.315540
0.509883,-0.106107,0.696788,-0.386843,0.915709,0.108762
0.335113,-0.162837,0.745355,-0.363779,0.850470,0.379955
-0.042936,0.306690,0.315349,0.944956,0.071084,0.319381
-0.098421,-0.375484,0.716344,0.903036,0.419032,0.094537
-0.164116,0.028875,0.653343,0.960365,0.071197,-0.269500
0.533001,0.297850,-0.189701,0.354333,-0.735173,-0.577900
0.070432,-0.025191,0.333535,0.223142,-0.472749,-0.852476
-0.058889,-0.121256,-0.632386,0.452187,0.716220,0.531559
0.101140,-0.223847,0.776345,0.345236,0.873375,-0.343553
0.178465,-0.332060,0.867125,-0.160976,0.869261,0.467409
0.110332,-0.317098,0.547758,-0.026430,-0.958522,0.283791
-0.216708,-0.386623,0.795697,-0.303805,-0.657893,0.689114
0.240623,-0.240456,-0.085678,0.748939,0.396588,0.530856
0.086430,-0.217864,0.591588,0.287860,0.954582,-0.076876
0.168866,0.087339,0.845684,-0.666293,0.572516,-0.477787
0.019095,-0.138846,0.793714,-0.400842,0.802447,-0.442045
0.116628,-0.305214,0.792603,-0.191893,-0.887273,0.419433
0.512846,-0.173776,-0.970681,0.064952,0.339728,0.938278
0.625538,0.239078,0.482893,0.873134,-0.425646,0.237619
-0.053985,-0.138535,0.711134,-0.195234,0.333406,-0.922347
0.214038,-0.353425,0.917576,-0.483470,0.517178,0.706247
0.242885,-0.243331,0.941241,0.924488,-0.380645,-0.020776
-0.565362,-0.086072,0.544256,0.092169,0.231546,0.968448
-0.281468,-0.314674,0.627507,0.540107,0.777368,-0.322466
0.230508,-0.051377,-0.974027,0.329720,0.182791,-0.926214
-0.141505,0.122996,0.689204,0.280121,0.459568,0.842810
0.073067,-0.011194,0.793457,-0.276767,-0.475020,0.835318
0.263196,-0.263619,0.929677,-0.647017,0.041071,-0.761369
0.293494,-0.393651,0.927273,0.982974,-0.177527,0.047395
-0.009312,0.307612,0.523366,0.977128,0.191135,-0.093214
0.211189,-0.357809,0.948227,-0.355367,0.511960,0.782056
-0.055826,-0.153685,0.390631,0.886734,0.093915,0.452641
-0.093510,-0.059953,0.050479,0.203573,0.145037,0.968257
0.218868,-0.005538,0.444716,-0.484131,0.763367,0.427655
0.190109,-0.485080,0.791918,-0.135825,-0.383588,0.913462
0.115572,0.232789,0.755662,0.962182,0.202449,0.182264
-0.128318,0.341232,0.679601,0.816671,-0.307356,0.488447
-0.150689,-0.282781,-0.654045,0.295659,0.915494,-0.272866
0.117452,0.083887,-0.447085,0.775132,0.626125,0.084487
0.190260,-0.418157,0.738217,0.025742,0.945285,0.325229
0.411357,-0.448866,-0.123522,0.598226,0.796215,0.090372
0.151510,-0.172337,-0.084057,-0.706316,-0.626021,0.330476
0.214909,-0.362606,0.645269,0.958054,-0.261354,-0.117589
-0.208085,0.077948,0.725222,0.825141,-0.447921,-0.344253
0.510947,-0.428868,0.207059,-0.567688,-0.811832,-0.136596
-0.016834,-0.149901,0.755410,0.632430,-0.590887,-0.500884
-0.305968,-0.251603,0.043071,-0.130320,-0.965495,0.225468
0.135529,-0.335401,-0.456612,-0.153146,0.986464,-0.058617
0.210017,0.133589,0.841472,0.538387,-0.784730,0.307146
0.307502,0.327485,0.734149,-0.083254,-0.053173,0.995109
-0.298357,0.181852,0.257593,0.031823,-0.116469,0.992684
-0.340979,-0.268949,0.633452,-0.439904,-0.830321,0.342128
0.208511,-0.400807,0.450434,0.989513,-0.007456,0.144252
-0.019118,-0.545918,0.817125,0.755909,-0.633744,-0.164223
-0.255304,-0.330884,-0.517849,-0.361755,-0.329682,-0.872034
-0.639976,-0.439953,-0.471467,-0.325055,0.944209,0.052993
0.288019,0.302844,0.604079,-0.003850,-0.966714,0.255831
-0.322165,0.100117,0.165692,0.577440,0.791322,0.200930
0.179809,-0.621984,0.543989,-0.753695,0.569387,0.328241
-0.241215,-0.498831,0.629374,-0.816123,0.005150,0.577855
-0.240479,0.075396,0.541174,-0.333041,-0.908867,0.251087
0.188339,-0.521399,-0.187637,0.973628,0.016861,0.227519
0.078754,0.222710,-0.306338,0.989808,-0.059105,0.129560
-0.211981,0.214011,0.582083,-0.629539,-0.163619,0.759546
0.008195,-0.123263,0.782878,0.782437,-0.605800,0.144220
0.196349,-0.280258,0.330782,-0.776007,0.629391,0.040992
0.285926,-0.373511,0.957488,-0.692762,0.653301,0.305416
-0.007490,-0.404890,0.647945,0.737698,0.587298,0.332989
0.176265,-0.396965,-0.612260,-0.285965,-0.919277,0.270468
-0.191108,0.186076,0.676934,0.982395,0.186125,0.016026
0.003742,0.125510,-0.432675,-0.164870,0.877402,0.450537
-0.119654,0.279542,0.621299,0.872261,-0.407866,0.269826
0.023917,0.153332,0.678190,0.787875,0.271535,0.552739
0.037067,-0.244305,0.254976,-0.484166,-0.682661,-0.547317
0.213758,-0.456310,0.785358,-0.449475,0.553190,0.701394
0.514338,0.075328,0.832077,0.611682,0.574020,0.544376
0.047547,-0.372050,0.799027,0.080179,0.954019,0.288824
0.421608,0.118741,-0.422912,0.104862,-0.090702,0.990342
0.062749,-0.306104,0.620218,-0.072308,-0.957547,0.279061
0.081512,-0.306069,0.800897,0.248177,0.183593,0.951158
0.593928,-0.120764,0.641215,0.619417,-0.779790,-0.090830
-0.038396,0.158068,0.595146,0.799403,0.046096,-0.599024
-0.564300,-0.229191,0.676043,-0.267059,-0.253931,-0.929623
0.657364,-0.104504,0.719336,0.399478,-0.463264,0.791078
-0.052666,0.050497,0.370344,-0.019174,-0.103210,0.994475
0.311147,-0.254753,0.305587,-0.177764,0.920407,-0.348210
0.406885,0.443483,0.727203,0.040770,-0.730678,0.681504
0.412321,-0.247291,0.859927,0.743801,-0.399438,0.535920
-0.033968,-0.613809,0.803871,-0.817501,0.166658,-0.551287
0.235100,0.135654,0.832351,0.359799,0.150024,0.920889
-0.339927,-0.416779,0.666027,-0.291425,0.304210,-0.906933
-0.482634,-0.379181,0.122868,-0.449793,-0.385724,-0.805545
0.149125,-0.286560,0.725545,-0.182420,-0.976105,-0.118079
-0.628440,-0.391521,0.654275,0.771804,-0.623475,0.124894
-0.381655,-0.303959,0.607574,0.796035,0.463992,-0.388639
0.312807,-0.400025,0.793941,-0.787844,-0.517762,0.333504
0.228592,-0.526355,0.924329,-0.697592,-0.713851,0.061503
-0.180154,0.253224,0.686878,-0.064698,0.672381,0.737372
-0.442065,-0.415213,0.570205,0.756602,0.653799,-0.009967
0.096871,-0.319165,-0.296156,0.395428,0.895691,-0.203409
0.541394,-0.235044,0.356922,0.893036,-0.313100,0.323196
-0.094484,-0.224858,0.566703,-0.659184,0.692696,0.292657
-0.135082,-0.150194,0.803233,0.578327,-0.572538,0.581152
-0.179897,0.166852,0.674692,0.917411,0.105695,0.383647
-0.389235,-0.223503,0.545084,0.798253,0.596500,0.083552
-0.246729,0.168038,0.719393,-0.488265,0.052366,0.871123
0.235562,-0.562704,0.694990,0.097732,-0.934847,0.341336
0.196068,-0.357430,0.685535,-0.268513,0.012157,-0.963199
0.561808,-0.167311,0.654334,0.496393,-0.857662,-0.134198
-0.224448,0.201437,0.691908,0.384397,0.203790,0.900393
-0.358474,-0.205076,0.583901,0.786303,-0.042007,0.616411
-0.549512,-0.438998,0.699197,0.507061,0.711436,-0.486567
0.146058,-0.327435,0.606234,0.201177,-0.139218,-0.969611
-0.071923,-0.312084,0.524232,-0.497872,0.059874,-0.865181
0.408393,-0.375394,0.748435,0.496916,-0.595215,-0.631502
0.180286,-0.291511,0.057529,0.954769,0.109009,-0.276647
0.156316,-0.295074,0.906786,0.099905,0.755061,0.647998
0.079784,0.114600,0.597003,-0.100411,-0.234819,0.966839
0.263900,0.240983,-0.079994,0.862900,0.453043,0.223952
0.315925,0.383523,0.767914,0.965158,-0.007488,0.261559
0.147404,-0.288635,-0.740587,-0.335261,0.583809,-0.739437
0.185082,-0.455726,-0.157320,0.016598,0.132517,0.991042
-0.593408,-0.385802,0.688088,0.983744,-0.108165,0.143344
0.260329,-0.149543,0.260182,0.938476,0.035059,0.343559
-0.558656,-0.331932,-0.462718,-0.544762,0.837386,0.044932
-0.032030,-0.022163,0.071726,0.385266,-0.920718,-0.062028
0.222780,-0.491859,0.927636,0.749709,0.606447,-0.264875
0.023622,-0.285215,0.562262,0.036034,0.889906,0.454719
-0.292751,0.219343,0.696379,0.994847,0.100978,-0.009080
0.171889,-0.273387,0.737340,0.143881,0.988209,-0.052356
0.140593,-0.257880,0.106494,0.706484,-0.617067,0.346567
-0.121869,0.163720,0.514378,0.051918,0.946078,-0.319753
0.574362,-0.070550,-0.944232,-0.038961,0.568355,0.821860
-0.570933,-0.413884,0.730123,0.378405,0.793299,0.476954
0.445209,-0.104188,0.553238,0.836279,0.256521,-0.484597
0.492202,-0.180790,0.272000,0.843862,-0.093283,-0.528390
-0.074975,0.034598,-0.438776,-0.226230,0.858531,0.460156
0.058676,-0.126280,-0.321765,0.965870,0.020769,0.258193
-0.657868,-0.472259,0.653101,-0.024440,-0.998421,0.050570
0.151391,-0.397997,0.792245,0.579566,0.279717,-0.765416
0.324546,0.459931,0.754060,-0.045401,0.985846,-0.161390
-0.300340,0.105431,0.694410,0.685366,0.568381,0.455210
0.177544,-0.024069,0.868068,0.981344,0.092104,-0.168760
-0.052127,0.075164,0.718025,-0.629589,-0.271340,-0.728006
0.228474,-0.027224,-0.975765,-0.272095,0.173306,0.946535
-0.125642,-0.011684,0.451469,0.882829,-0.060278,-0.465810
-0.436631,-0.628342,0.266771,0.660078,-0.220722,0.718038
0.104449,-0.036793,0.562837,-0.655508,-0.735729,-0.170329
-0.159401,-0.192227,0.345538,0.091758,-0.522236,-0.847850
-0.028358,0.039247,0.552890,-0.308876,-0.734591,0.604128
0.558221,-0.464688,0.797722,-0.759496,0.615730,0.209863
-0.101287,-0.130075,0.711001,0.161488,-0.352732,0.921684
-0.187145,-0.124717,-0.230222,-0.682480,0.164208,-0.712219
-0.221355,-0.824715,0.668665,0.984790,-0.033787,0.170434
-0.197310,-0.024066,0.149060,-0.627309,0.323993,-0.708175
0.285891,-0.059822,0.784782,-0.378761,0.747422,-0.545802
-0.118764,-0.061030,0.616745,0.968961,0.246988,0.010588
-0.148191,-0.137818,0.433815,0.583198,0.805563,0.104639
0.144717,-0.152120,-0.120898,-0.242048,0.930219,0.275870
-0.138869,-0.370663,0.292431,0.191562,0.974933,-0.113179
-0.695442,-0.287217,0.593073,0.832745,0.246226,-0.495893
0.169710,-0.443873,0.905355,-0.362377,0.699843,0.615550
-0.133931,0.416638,0.603440,0.270657,-0.813056,0.515447
0.554681,-0.255493,0.783729,-0.323528,-0.252573,0.911886
0.119178,0.047454,-0.986290,-0.016480,0.086946,0.996077
-0.113871,-0.119763,0.670730,-0.019291,0.966111,0.257405
-0.491331,-0.565266,0.740195,-0.371720,-0.653756,-0.659111
0.348491,0.517784,0.762634,-0.206512,-0.926321,0.315090
0.171005,-0.103147,0.749007,-0.422166,-0.745853,0.515247
-0.115474,-0.284801,-0.458813,0.297071,-0.837262,-0.459066
-0.101102,0.235999,0.697005,0.807621,-0.405893,0.427783
0.487214,-0.276132,-0.939211,0.888345,-0.427597,-0.167345
0.030230,-0.330322,-0.642523,-0.380461,0.863203,0.331859
0.085124,-0.069957,0.803393,0.915477,0.265641,0.302218
0.034071,-0.121200,0.434298,-0.586435,0.681625,0.437586
-0.098715,-0.118653,0.578965,0.691081,0.127222,-0.711493
-0.026762,0.592533,-0.029391,0.993036,0.027616,0.114533
-0.115581,-0.172881,0.044578,-0.409075,0.897056,-0.167176
0.509091,0.259345,-0.143860,0.673421,0.732058,0.102934
-0.232502,0.277520,0.681019,0.143951,0.970762,0.192090
-0.087219,-0.234216,0.638214,0.583483,0.513808,0.628927
-0.056408,0.024807,0.591804,0.937591,-0.317141,0.142633
0.282718,-0.373659,0.742089,-0.873259,0.416619,0.252682
0.273078,-0.084706,0.776944,0.154305,-0.360114,0.920059
0.125038,-0.229156,-0.090976,-0.148063,-0.910871,0.385217
-0.156277,0.220305,0.659325,-0.425758,0.844041,0.326075
0.183120,-0.394176,0.951342,-0.715357,0.649546,0.257594
-0.242002,-0.151283,0.129268,-0.590167,0.643950,-0.486858
-0.507844,0.324064,0.170467,0.798362,0.598210,0.069013
-0.404853,-0.339620,0.653975,-0.658902,-0.373939,0.652701
0.011925,-0.316805,-0.800340,-0.475677,0.848836,-0.230673
0.151595,0.014169,0.537742,0.042625,0.997048,0.063859
-0.418995,-0.343206,0.679970,0.132350,-0.421578,0.897082
0.007884,0.299821,0.082402,0.948381,0.076712,-0.307715
0.321158,-0.630152,-0.078603,-0.481623,-0.681279,-0.551269
0.219307,-0.224208,0.925839,0.236471,0.285793,0.928657
-0.076746,-0.300865,-0.454377,-0.198128,0.838444,0.507697
0.144726,-0.271397,0.694081,-0.231596,0.972777,0.008274
-0.025234,-0.679036,0.701748,-0.260307,-0.142250,0.954990
0.138752,-0.282144,0.641759,0.916547,0.327822,0.229071
-0.190440,0.175976,0.582543,0.726580,-0.188916,-0.660600
0.148960,-0.508774,0.793804,-0.781953,0.558850,0.276110
-0.182489,0.198752,0.709053,-0.300981,-0.746805,-0.593037
-0.193440,-0.436034,0.644778,-0.722850,-0.613660,0.317663
-0.301700,-0.014456,0.099908,0.467232,0.524134,0.712024
-0.036090,-0.650307,0.692980,0.044341,0.667314,0.743455
-0.426933,0.170420,0.503315,-0.147906,0.987843,-0.047851
-0.501635,-0.649052,0.605706,0.933559,0.141161,0.329455
0.009989,0.153396,0.576657,-0.474175,0.089885,-0.875831
0.059445,-0.266791,0.351031,0.392417,0.858720,-0.329557
0.223323,-0.321193,0.349855,0.894822,0.279958,0.347731
-0.053745,0.098987,0.781715,0.996797,0.035857,0.071485
0.301750,-0.587268,0.840995,0.946870,0.218107,-0.236360
-0.569952,-0.252878,0.620632,-0.425527,-0.904942,0.002533
-0.218034,-0.290345,0.274849,0.809662,-0.584895,-0.048428
0.733442,0.113599,-0.063325,-0.702887,0.647459,0.294527
0.362243,-0.228750,0.748602,0.857302,-0.243449,0.453614
-0.561494,-0.325053,0.552357,0.423279,0.891449,0.161722
-0.070745,-0.320788,0.860724,-0.509870,-0.194297,-0.838022
-0.106462,-0.281204,0.864334,-0.309965,0.536595,-0.784848
-0.043854,0.174451,0.615807,0.739081,0.612078,-0.281282
-0.711342,-0.395027,-0.181010,-0.166966,0.984541,0.052928
0.987209,-0.063699,0.673827,0.175639,0.285306,0.942205
0.161071,-0.369612,0.313774,-0.114060,0.993438,0.008457
0.229108,-0.418099,0.861944,0.915315,-0.336720,0.220947
0.548552,-0.539872,0.688884,0.229273,0.498447,-0.836053
0.126517,-0.277469,0.949872,-0.472455,0.468250,0.746678
-0.225277,0.127956,0.258233,-0.679252,-0.353334,0.643251
-0.043934,-0.122729,0.685376,-0.344646,-0.835668,0.427643
-0.350434,0.150666,0.584686,0.928138,-0.367334,0.060214
-0.260994,-0.013801,0.033922,-0.215679,0.966296,-0.140548
-0.041880,-0.114520,0.718229,0.405574,0.466900,0.785821
0.144332,-0.441796,-0.066678,0.913092,0.155161,0.377079
-0.150155,0.421623,0.699478,0.763323,0.199661,0.614389
0.082646,-0.491683,0.844156,-0.728611,0.665468,0.162107
0.378276,-0.217807,0.867724,-0.000328,0.906181,0.422889
-0.149516,-0.293784,0.867907,0.424084,0.061915,0.903504
0.033676,-0.054176,0.654786,-0.693117,-0.705994,0.145471
0.056662,0.009829,0.483197,-0.718640,0.567194,0.402302
0.249946,-0.403021,0.805930,0.796933,-0.579958,0.168956
0.240133,-0.226866,0.242138,-0.666827,-0.743724,-0.047076
-0.451482,-0.431518,0.644364,0.214090,-0.597177,0.773011
-0.240322,-0.123705,-0.402995,-0.000164,0.922944,0.384934
-0.016687,-0.124113,0.706728,0.750880,-0.309353,0.583506
0.177091,-0.018837,0.307466,0.478196,-0.876947,-0.047887
0.571123,0.505306,0.708536,0.866438,-0.277515,0.415055
0.089836,-0.626424,0.842629,0.325241,0.844118,-0.426243
0.206315,-0.491010,0.656769,0.674543,0.738075,-0.015384
0.304882,-0.517005,0.704802,-0.178961,-0.894224,0.410288
0.253795,0.125365,-0.589967,-0.738896,0.591828,0.322136
-0.123278,-0.276259,0.657255,0.793279,0.425740,-0.435263
-0.431400,-0.415048,-0.203799,-0.155842,0.987573,0.020298
0.025810,0.006347,0.046323,0.949108,-0.287432,0.128752
0.333329,-0.358757,-0.958408,-0.428403,-0.448251,-0.784565
0.535789,-0.570173,0.725616,-0.638381,0.368013,-0.676044
0.161317,-0.266576,0.714643,0.180086,0.975503,-0.126341
0.453968,0.488588,0.741572,0.718916,-0.422260,0.552138
0.354129,-0.018220,-0.603730,0.903532,-0.402213,0.147834
-0.507876,-0.162921,0.558817,0.805655,0.586959,0.079989
0.257887,-0.448578,0.925389,0.923565,-0.301514,0.236890
0.099227,0.023567,-0.241345,0.945291,0.229881,0.231473
0.190670,-0.068003,-0.516706,0.997360,0.068280,0.024724
0.023370,-0.285964,-0.232504,-0.010598,0.916531,0.399822
-0.267492,-0.349132,0.614329,0.292122,0.948674,0.121174
0.333400,-0.502521,0.746300,0.213957,0.634515,0.742706
-0.254080,-0.061183,0.147530,-0.051884,-0.609471,0.791109
0.604139,-0.362382,0.736903,-0.333542,0.729142,-0.597580
0.101406,-0.255610,0.796920,0.686448,0.634636,0.355002
0.124131,-0.190817,-0.072831,0.802997,-0.403119,0.438966
0.101204,0.179043,-0.988980,-0.666806,-0.470468,-0.577953
0.059685,-0.331042,0.818025,0.566067,0.100491,-0.818211
0.267071,-0.595817,0.012495,0.650236,-0.315129,0.691294
0.132709,-0.243711,0.768027,-0.266567,0.950790,-0.157927
0.142758,-0.369331,-0.418016,0.582608,0.800258,-0.141966
-0.469290,-0.056335,0.512319,0.824018,-0.516810,0.232168
-0.223347,0.149295,0.688725,-0.079162,0.184258,0.979685
-0.434864,-0.272732,0.562399,0.016699,0.235282,0.971784
0.252659,-0.301649,0.750594,-0.731665,-0.681527,-0.013709
-0.293202,-0.255671,0.683350,0.210896,-0.324171,-0.922191
0.716378,0.351761,-0.202271,0.617204,-0.728546,-0.297120
-0.016871,-0.079547,-0.991238,0.818187,-0.409096,-0.403994
0.185457,-0.340087,0.795641,0.621578,0.546361,0.561365
0.311805,0.474721,0.328843,-0.401243,0.887705,0.225798
0.177586,0.438381,-0.062349,0.988138,-0.095879,0.119958
-0.011763,0.450161,0.013247,0.989436,-0.122930,-0.076843
0.021632,-0.136374,0.737350,0.684960,0.379445,0.621974
-0.164965,-0.023713,0.639244,0.969824,0.167849,-0.176827
-0.110068,-0.361584,0.647439,0.063305,-0.558895,0.826819
-0.230798,-0.113591,-0.306561,0.806621,0.164045,-0.567848
-0.049523,0.011093,-0.039986,0.877470,0.434702,0.202682
-0.077138,-0.155358,0.637184,-0.842808,0.524002,0.122866
0.635401,0.388101,-0.170562,0.465951,-0.792193,-0.394107
0.067197,0.511919,0.729235,0.085155,-0.993576,0.074539
-0.153019,-0.572376,0.156448,0.126282,0.966012,-0.225551
-0.266112,-0.313310,0.827335,-0.337731,-0.889686,0.307241
-0.342451,-0.282351,0.566509,-0.095261,0.651642,0.752521
0.133396,-0.159490,0.750882,0.859257,0.173034,0.481390
-0.507010,-0.522029,0.748181,-0.618812,0.268086,0.738378
-0.157413,-0.104141,0.471785,0.803767,0.451581,-0.387342
0.865395,0.109505,0.718711,0.901356,0.022513,-0.432494
-0.038944,-0.642935,0.766156,-0.439340,0.778920,-0.447508
-0.023728,-0.527426,0.835261,0.770403,-0.380879,-0.511283
-0.296515,0.370213,0.280120,0.449424,0.860796,-0.238846
-0.033342,0.285830,0.337442,-0.600661,0.273892,-0.751126
-0.518299,-0.579527,0.738843,-0.093047,0.968595,0.230579
0.890495,-0.149384,0.735971,-0.294010,0.728640,0.618580
-0.037109,0.040418,0.691558,0.504390,-0.862208,-0.046774
-0.177630,-0.188956,0.576753,0.251884,-0.708808,0.658897
-0.784476,-0.225215,0.575246,0.900891,0.069673,-0.428417
0.022182,-0.206602,0.577734,-0.025762,0.605899,0.795125
0.094060,-0.307364,0.733961,0.103486,0.575349,0.811335
-0.169433,-0.276561,0.076680,-0.075177,-0.783186,0.617226
0.539260,-0.729842,0.789138,0.217683,-0.211637,0.952798
-0.158448,0.023161,0.126351,0.992257,-0.023498,0.121962
0.125347,-0.170418,-0.342003,0.932421,-0.047706,0.358211
-0.318803,-0.275986,0.261217,-0.438952,0.204766,-0.874867
0.108004,-0.245726,0.093846,0.240752,-0.212934,0.946941
0.404343,-0.110653,-0.980460,-0.183913,0.105917,0.977219
-0.081018,0.150120,0.594739,0.604500,0.351879,-0.714676
-0.184823,-0.645945,0.462800,0.085095,-0.325987,-0.941537
-0.321403,-0.322092,-0.245089,0.449709,-0.853087,0.264584
0.025006,0.293948,0.688228,0.510261,-0.446537,-0.735009
0.089637,0.097687,0.842661,-0.103068,0.991465,-0.079834
-0.177843,-0.331253,0.609348,-0.221427,0.971901,-0.079867
0.312029,0.220933,-0.236735,0.835286,-0.337582,-0.433976
-0.081922,0.222552,0.661854,0.937872,-0.330839,-0.104606
-0.182334,0.407542,0.271576,0.358069,-0.933269,0.028216
0.346463,-0.443938,0.425649,0.968033,-0.191117,0.162436
0.104843,0.182363,0.099835,-0.785966,0.380063,-0.487657
0.124551,-0.292025,0.939567,-0.225608,-0.909531,-0.349076
0.708047,-0.210301,-0.950506,-0.545710,0.753510,0.366638
0.176454,-0.192134,0.961755,0.013300,0.979901,0.199039
0.230776,-0.090030,-0.648113,0.993187,-0.116339,-0.006631
0.285302,-0.171490,-0.975496,-0.242900,0.030554,0.969570
-0.079874,-0.159514,0.627105,0.932266,0.332854,0.141735
0.216116,0.256940,-0.128464,0.801389,-0.552231,0.229819
-0.271592,-0.337956,0.890431,-0.382204,-0.243903,0.891309
0.041941,-0.433332,0.388938,-0.670359,0.675630,-0.306827
0.061038,-0.452059,0.807579,-0.343104,-0.695482,0.631335
-0.318866,-0.514111,0.547567,-0.294800,0.948075,0.119363
0.080816,-0.670745,0.709520,0.722930,0.479088,-0.497842
-0.400460,0.118710,0.187653,0.365257,0.714923,0.596215
-0.051112,0.340456,0.700431,-0.501284,0.261978,-0.824671
0.413837,-0.204805,0.919677,-0.380924,0.531814,0.756354
-0.329118,-0.268396,0.597989,-0.441313,-0.736519,-0.512623
0.064477,-0.611546,0.849070,-0.794441,0.318459,0.517154
0.529642,-0.419900,0.810231,0.195558,0.732967,-0.651549
-0.279668,0.306007,0.584727,0.461558,0.771857,-0.437266
-0.108043,0.018063,0.351104,0.800653,0.452281,0.392934
0.074966,-0.163855,0.310436,0.679316,0.243174,-0.692384
-0.214376,-0.453412,0.713921,0.304270,-0.749983,-0.587320
0.122415,-0.203020,0.055106,-0.443345,-0.740970,0.504389
-0.027410,-0.163052,0.797084,0.963237,-0.198532,0.180994
0.220931,-0.255904,0.883457,-0.290596,-0.762091,0.578594
-0.100287,-1.000000,0.709186,-0.274452,-0.018368,0.961425
-0.434003,-0.211190,0.824652,0.840427,-0.451928,0.299071
0.064984,0.385473,-0.044701,-0.333882,0.825030,0.455905
0.330649,0.278413,0.728303,-0.232156,0.088600,-0.968635
-0.096971,0.199274,0.659804,-0.713675,0.187879,0.674810
0.209165,-0.285439,0.927437,0.090686,0.858789,-0.504239
-0.083398,-0.004406,0.687686,0.708516,-0.691747,-0.139612
0.173609,-0.277369,0.664596,-0.547289,-0.747188,0.377073
0.319485,0.058406,-0.976438,0.043615,0.066261,-0.996849
-0.032402,-0.367740,0.767474,0.825317,0.547770,-0.137111
-0.049534,0.364234,0.650166,0.677866,0.688106,-0.258858
0.082805,-0.168006,0.561441,0.128111,0.510504,0.850278
0.265261,0.378788,-0.348976,-0.516792,0.773420,0.367080
0.887589,-0.072665,0.688772,0.094136,0.657171,0.747840
0.167175,0.553627,0.641958,-0.794675,0.241583,0.556892
-0.211470,-0.527128,0.126846,-0.439268,-0.790927,-0.426002
-0.160046,-0.395033,0.684888,0.491061,0.866040,-0.093985
0.051379,-0.189319,0.514259,-0.733236,0.039443,-0.678830
0.037404,0.070834,0.517079,0.894879,0.197588,0.400188
0.300271,0.016067,-0.076141,0.150322,-0.946696,-0.284905
-0.362451,-0.744033,0.688875,0.949589,0.281881,-0.137196
0.088435,-0.741721,0.811272,-0.428848,-0.335339,-0.838831
0.162666,0.148339,-0.986737,0.835871,0.548548,-0.020337
0.101735,0.067662,0.329313,0.891359,0.432335,-0.136258
-0.039419,-0.689712,0.740509,0.928548,0.371211,-0.000605
0.050725,0.049642,-0.152875,0.610166,-0.427449,0.667072
-0.360838,-0.360127,0.680203,-0.686206,0.043451,0.726108
-0.176137,0.003004,0.142508,0.827507,-0.166079,0.536329
-0.791074,-0.196512,0.583033,-0.629847,0.299699,0.716571
0.114800,-0.224610,0.769659,-0.708651,-0.491315,-0.506383
0.018590,0.307405,0.621705,0.659001,0.613100,0.435689
0.023969,-0.219591,0.864844,-0.365353,0.742330,-0.561661
0.329407,0.030539,-0.981578,0.353725,0.008849,0.935308
0.108875,-0.580101,0.818293,-0.744256,0.665300,-0.058819
0.566946,0.402926,0.683561,0.799444,-0.505257,0.324969
-0.025897,-0.283011,0.688117,-0.388216,0.913161,0.124197
-0.197341,0.406802,0.324023,0.757012,-0.646640,0.093751
-0.024970,-0.271272,0.701752,-0.429013,0.427521,-0.795722
0.023825,0.463811,0.721231,0.173447,0.311898,0.934150
0.198478,-0.345183,0.888053,0.221284,0.868290,-0.443966
0.471708,-0.409787,0.723226,-0.072189,0.824508,0.561227
0.845583,-0.203257,0.711736,0.728060,-0.455436,-0.512354
-0.061584,-0.217845,0.588167,-0.128147,0.946377,0.296563
0.301438,0.517906,-0.118973,0.783545,-0.033493,-0.620431
0.001434,0.222668,0.308257,0.987075,-0.025787,0.158171
0.017114,-0.385977,0.612642,-0.077019,0.782367,0.618038
0.612100,0.442532,0.687461,0.893399,-0.327181,0.307882
0.283859,-0.250592,0.955415,0.945356,0.218045,0.242399
-0.542436,-0.131486,0.529819,0.329638,-0.611611,0.719215
-0.346084,-0.191872,0.548898,0.248038,0.861015,0.443994
-0.242636,0.327871,0.610089,0.291588,0.927283,-0.234784
-0.282092,-0.350450,0.778829,0.877242,-0.197223,0.437663
-0.042734,-0.218898,0.655644,0.552375,0.720302,0.419579
-0.010610,-0.098794,0.702921,0.987584,-0.157054,0.003558
0.133442,-0.471399,0.537635,-0.528817,0.254423,0.809705
0.417978,0.124109,-0.193670,0.865597,-0.494695,0.077582
0.904652,-0.159189,0.742827,-0.255934,0.724762,0.639702
-0.040053,-0.258760,-0.951175,0.847502,-0.170875,-0.502536
0.264628,-0.339390,0.522727,-0.097540,0.819305,0.564999
-0.210809,-0.367945,-0.312833,0.295783,-0.949541,-0.104324
-0.102230,-0.381673,0.902999,0.391684,0.839727,-0.376088
0.066207,-0.288674,-0.320975,-0.057500,-0.987452,0.147077
0.317214,-0.593219,0.777748,-0.645255,0.143089,0.750448
-0.050702,-0.399119,0.791730,0.869636,0.133784,0.475221
0.195794,0.246426,0.579115,-0.278219,0.485595,-0.828729
-0.437908,-0.092446,-0.464411,0.806178,-0.298478,0.510869
0.097415,-0.552017,0.772821,0.349828,0.400532,0.846873
0.270499,-0.430248,0.554792,-0.209401,0.977825,-0.002925
0.314650,-0.366708,-0.313165,0.325228,0.945356,-0.022988
-0.125265,-0.117221,0.123821,-0.559954,0.435749,0.704680
-0.034303,-0.210964,0.661209,0.893391,0.211981,0.396127
-0.641485,-0.215773,0.607530,0.890148,-0.071845,-0.449972
-0.097083,0.011037,0.737650,0.829951,0.460893,-0.314259
-0.323981,-0.064924,0.173586,-0.103496,0.607248,0.787742
-0.082050,0.387191,0.688348,0.771990,-0.140031,-0.620019
-0.142595,-0.593643,0.816427,0.949038,-0.315063,-0.007898
0.100340,-0.251167,-0.978837,-0.113367,0.714261,0.690636
0.204025,0.524632,-0.130693,0.929348,-0.113007,-0.351486
0.152251,-0.509767,0.573487,0.789533,-0.558448,0.254505
0.295291,-0.283112,-0.169769,0.218737,0.945083,-0.242843
-0.347884,-0.453351,0.140751,0.404885,0.633902,0.658967
0.281168,0.178009,0.804205,-0.720614,-0.594454,-0.356847
0.006675,-0.420563,0.791618,0.280862,0.241785,0.928793
0.052598,-0.005622,0.537722,-0.296413,-0.954999,0.010778
-0.123785,-0.445739,0.780602,0.307832,-0.410649,0.858258
0.202285,-0.054562,0.451694,-0.385167,0.649145,-0.655940
0.183468,-0.316657,0.894230,-0.639397,0.759759,-0.118064
-0.084656,-0.308529,-0.150762,0.743059,-0.223226,-0.630899
0.080829,-0.275974,-0.743420,0.830012,-0.546409,0.111879
0.217623,-0.553747,0.637899,0.001024,0.922515,0.385961
0.269872,-0.127950,-0.765406,0.965460,-0.258085,-0.035776
-0.477399,-0.263001,0.796551,-0.441929,-0.871773,-0.211448
0.075601,-0.160393,0.684117,0.728305,0.683595,-0.047634
0.003552,0.070549,0.659076,0.577967,-0.372506,-0.726080
-0.264581,-0.325886,0.103842,0.953974,-0.051368,-0.295456
-0.126316,-0.518930,0.727681,-0.495928,-0.290921,-0.818182
0.498308,-0.112240,0.810182,-0.475224,0.794003,-0.379106
0.094606,0.193848,0.579734,-0.289522,0.314458,-0.904043
-0.570229,-0.370054,-0.524644,-0.166078,0.984820,0.050471
0.044316,-0.194737,-0.254728,0.851609,-0.432026,0.296842
0.137779,0.380188,0.225711,-0.660611,0.070329,-0.747427
-0.035367,-0.584796,-0.521978,0.874807,-0.089255,-0.476179
-0.402584,-0.473647,0.725282,0.821673,0.128765,-0.555223
0.155900,-0.271784,0.924990,0.718618,0.693539,0.050904
0.343005,-0.045508,-0.350709,0.997714,-0.066760,0.010444
0.167875,-0.313354,0.903622,-0.439725,-0.203894,-0.874682
0.039203,0.211695,0.653999,0.785066,0.330681,0.523757
0.061141,-0.316577,0.377804,0.742062,0.662247,0.103794
-0.110695,-0.147958,0.642964,0.053350,-0.109260,0.992581
0.495511,-0.315189,0.728590,0.914859,0.093718,0.392746
0.292813,-0.486882,0.716067,0.968833,0.196335,0.151049
0.274620,-0.383315,0.661135,0.896087,-0.096495,-0.433263
-0.281699,0.112026,0.170343,-0.675466,-0.735143,0.057540
0.266102,0.374855,-0.104322,-0.757564,0.408961,0.508771
-0.248476,-0.128537,-0.607414,-0.844982,-0.052468,-0.532215
0.577616,-0.249331,0.788569,-0.065365,-0.148941,0.986683
0.435139,0.350356,0.670465,0.104438,-0.989709,-0.097820
0.337464,-0.459107,0.791157,0.913149,-0.187874,-0.361749
-0.170988,-0.284795,0.593422,0.556036,-0.620915,-0.552530
0.273988,-0.529289,0.692168,0.702255,-0.706053,0.091254
-0.081331,0.017334,0.064489,-0.874472,0.452291,-0.175308
0.025554,0.043733,0.667291,0.247673,-0.930475,0.269954
0.130704,-0.396971,0.728052,-0.223144,0.769450,0.598459
-0.326616,0.016578,0.158074,-0.705053,0.425753,-0.567128
0.050421,-0.006989,0.356901,0.991143,-0.108427,0.076673
-0.055924,-0.252337,0.890635,-0.444671,-0.842309,0.304604
-0.151070,-0.189879,0.546701,0.323644,-0.561422,-0.761617
0.550513,-0.612405,0.787218,0.220210,0.228515,0.948308
0.354303,0.054960,0.554925,0.655866,0.541696,-0.525743
0.091259,-0.191189,0.900921,-0.263504,-0.393427,0.880784
0.136012,0.164092,0.543847,0.518362,-0.318310,0.793713
-0.113551,0.424975,0.349472,0.442028,0.600578,-0.666271
0.062659,-0.033911,0.101557,0.977116,-0.030942,0.210442
0.235388,0.390259,-0.348958,0.260059,-0.956218,0.134227
0.114950,0.450788,0.715277,-0.193649,-0.654434,0.730901
0.245307,0.466529,-0.118710,0.832651,-0.238571,-0.499776
0.039676,0.116861,-0.298770,0.950963,0.250153,0.181916
-0.129927,-0.210939,-0.372662,-0.434044,-0.826508,-0.358455
-0.132485,-0.721721,0.676974,0.715684,-0.452536,-0.531985
0.052667,0.503330,0.714049,0.170370,0.670892,-0.721719
0.328120,-0.479597,0.772656,0.790115,-0.292957,-0.538418
-0.009363,-0.551392,0.187065,0.447782,0.879745,-0.159812
0.200331,-0.139948,-0.074749,0.642293,0.464851,-0.609404
0.134952,-0.276689,0.902244,-0.522861,0.371653,0.767131
-0.177636,-0.430400,0.672977,-0.376934,0.485723,0.788666
-0.060329,0.038269,-0.630052,0.948378,0.235970,0.211890
-0.065464,-0.377650,0.552859,-0.512239,0.824583,-0.240153
0.069747,-0.076447,0.423368,0.273400,0.032392,0.961355
0.654266,-0.361978,0.830759,-0.680660,0.730695,0.052789
0.082608,-0.325888,-0.177835,-0.601060,-0.798851,0.023733
0.189307,-0.211595,0.765777,0.298203,0.716869,-0.630217
-0.369973,-0.390382,-0.033082,0.775849,0.332466,0.536214
-0.179514,-0.392447,0.884717,-0.167098,0.946433,-0.276300
0.377122,0.486310,0.755037,-0.240000,0.969396,-0.051686
-0.171854,0.331403,0.634324,-0.361770,-0.770924,-0.524212
