-0.378352,-0.143432,-0.280876,0.984736,-0.081382,-0.153858
-0.375375,-0.150290,0.440945,0.524650,-0.840937,-0.132544
-0.534453,0.215173,0.397680,0.878199,-0.302279,0.370668
-0.709714,0.504867,0.637660,0.583341,0.119981,0.803317
0.174572,0.141292,0.598930,-0.702568,-0.077401,0.707395
-0.646285,0.159120,0.316665,-0.312432,-0.529873,0.788429
0.009036,0.374761,0.587041,-0.195105,-0.784233,0.588993
-0.405420,-0.135203,0.347551,-0.294477,0.952334,-0.079644
-0.468196,-0.306619,0.765290,-0.421001,-0.664915,-0.616965
0.087776,-0.518405,0.813703,-0.613016,0.465286,0.638530
-0.344316,-0.251252,-0.045103,0.669948,0.634019,-0.386250
-0.661380,0.152864,-0.568575,0.136813,-0.131256,0.981863
0.697885,-0.383330,0.122932,0.454214,0.890642,-0.021117
0.259916,-0.920977,0.215018,0.919316,-0.096828,-0.381422
-0.641714,-0.256222,-0.969931,-0.046147,0.583800,0.810585
0.318916,-0.451895,0.094334,0.309075,0.928361,-0.206441
-0.890489,0.503496,0.313601,-0.594811,0.617458,-0.514729
0.570522,0.090639,0.345222,0.641881,0.371944,-0.670557
-0.016291,0.262913,0.394738,-0.708262,-0.094924,-0.699539
0.070286,0.681937,0.267067,0.343613,0.277446,-0.897192
0.530389,-0.011527,0.221392,-0.069126,-0.754087,0.653126
-0.239523,-0.447354,-0.406586,-0.234290,0.972025,-0.016618
0.437498,-0.620570,0.922540,-0.241695,-0.548155,0.800693
0.001778,-0.594425,-0.536830,-0.271973,-0.058038,0.960553
-0.849413,0.587315,0.667361,0.632420,0.605035,0.483712
-0.379295,0.415130,0.217715,0.782391,0.612186,-0.114424
-0.416161,-0.472548,-0.937819,0.159673,-0.227368,-0.960629
-0.493304,0.568975,0.087429,0.945112,0.314606,-0.088241
0.281179,0.261882,0.691792,0.739358,-0.214979,-0.638070
-0.545845,0.043668,0.733301,-0.588611,0.457442,-0.666546
-0.121375,-0.464325,0.601790,0.794301,0.431412,0.427750
0.294025,-0.217652,0.557462,-0.226400,-0.924205,0.307551
-0.628941,0.415298,0.448339,0.385898,0.859998,-0.333895
-0.422402,0.288195,0.110512,-0.696222,0.507484,-0.507675
-0.248738,0.205746,0.430976,0.396554,0.894115,0.208097
-0.638956,0.423699,0.456674,-0.307833,-0.889721,0.337099
-0.751297,0.347078,0.360420,-0.527176,-0.747013,0.405039
-0.152219,-0.130830,0.258529,-0.483237,0.852300,-0.200167
0.585325,-0.137259,0.116844,0.029650,-0.423326,0.905492
-0.364707,0.095268,0.704008,0.980509,0.189148,0.053159
-0.752385,0.521664,0.658537,0.735510,0.018022,0.677274
0.014043,0.140089,-0.171467,0.281772,-0.764641,0.579594
0.705867,0.090895,0.413123,0.888401,0.003656,-0.459054
0.181757,0.104522,0.350574,0.611687,-0.758137,-0.225983
-0.024275,-0.350588,-0.366834,0.452830,0.871682,-0.187390
0.772271,-0.612938,0.060588,0.022235,0.886609,0.461985
-0.384666,-0.011182,0.491931,-0.745580,0.155822,-0.647943
-0.661816,0.307650,0.699228,0.234922,0.911236,0.338321
-0.122538,-0.164430,0.300731,-0.466492,0.525279,0.711665
-0.020792,-0.160146,0.417903,0.424313,-0.159921,-0.891282
-0.531333,0.432613,0.482780,0.824296,-0.503314,0.259250
-0.150549,0.400472,0.594517,-0.086589,0.968376,0.233989
0.143728,-0.150290,0.702987,0.543415,0.458586,-0.703135
-0.383722,-0.191083,0.292969,0.979624,0.040827,-0.196648
-0.046046,-0.279877,0.631409,0.682385,-0.436557,0.586318
-0.383286,-0.024725,-0.229971,0.770992,-0.636389,0.024083
-0.451286,-0.366956,-0.945255,0.193371,0.041150,-0.980262
-0.056351,-0.360187,-0.542754,0.224086,0.790656,-0.569779
-0.273702,0.469038,0.314785,0.823842,0.440549,-0.356652
-0.336478,-0.311505,-0.468481,0.051133,-0.995718,-0.077010
0.576543,-0.553375,0.104384,-0.040286,0.621009,0.782768
-0.498821,0.117548,0.638600,0.597911,-0.400248,0.694482
-0.170652,0.779133,0.362912,0.912422,-0.402871,0.071982
-0.035958,-0.327534,0.167218,-0.157585,-0.807815,0.567981
-0.020865,-0.531948,0.736161,0.518052,0.814483,-0.261227
-0.484742,0.592374,0.528496,-0.506831,-0.653373,0.562340
-0.365723,0.371758,0.498468,0.405789,-0.810047,0.423273
-0.409557,0.085836,0.621400,0.755868,0.546006,0.361304
-0.216443,-0.215084,0.302652,-0.189807,0.747710,0.636320
-0.435031,0.066894,0.290681,0.346366,-0.112461,0.931334
0.540550,-0.901690,-0.291947,0.301628,0.148370,0.941810
-0.422765,-0.360443,-0.937125,-0.180086,0.345740,0.920887
-0.746000,0.299421,0.514279,0.552257,-0.800408,-0.233150
0.026309,0.128779,0.553867,0.467011,0.884131,-0.014596
0.104468,-0.375870,-0.283736,0.674880,0.734201,0.074068
0.031170,-0.114718,-0.137067,0.333041,-0.625638,0.705451
0.205558,0.084979,0.320668,-0.266457,-0.927094,0.263624
0.280017,0.161433,0.395024,0.197617,-0.094316,0.975732
-0.412024,-0.038096,-0.265024,0.926921,-0.335995,0.167104
-0.144744,-0.170001,-0.421947,0.075445,-0.820859,0.566126
-0.378569,-0.222627,0.258120,0.708676,-0.568064,0.418427
0.472404,-0.113860,0.405891,0.294660,0.942714,-0.156414
-0.566675,0.455499,0.501123,0.972714,0.231851,-0.008550
-0.402736,0.015388,0.263023,0.955768,0.282418,0.082147
-0.395405,0.056269,0.580913,0.921762,0.309966,-0.232973
-0.102435,0.038358,0.532990,-0.101495,-0.867373,0.487198
-0.356798,-0.485234,-0.845528,0.997901,0.060442,0.023262
0.046192,-0.411270,0.685174,-0.351475,0.449620,-0.821162
0.124642,0.229229,0.197083,0.470908,-0.285580,-0.834679
0.252151,0.067496,0.281366,0.215601,0.968328,-0.125926
-0.338002,-0.199829,0.254402,0.359231,0.844268,-0.397698
0.209332,0.206944,-0.155983,0.976731,0.207976,-0.052360
-0.377481,0.009560,-0.098868,0.925567,-0.119633,-0.359185
0.241047,-0.359842,0.481922,-0.520841,0.122625,-0.844801
0.070069,-0.102377,-0.234792,0.380434,0.771575,-0.509846
-0.633005,-0.200598,-0.969808,0.306957,-0.348385,-0.885667
-0.661597,0.555776,0.633452,0.266967,-0.592897,0.759738
-0.236546,-0.098266,0.359848,0.650323,0.686712,-0.324817
0.196416,0.154747,0.598031,0.477316,0.380703,-0.791981
-0.899851,0.440925,0.333334,0.607369,0.426676,-0.670112
0.197359,-0.031667,0.759203,-0.393295,-0.702673,0.592933
-0.389963,-0.051295,0.490052,0.624257,-0.446035,0.641370
-0.266301,-0.406985,-0.929035,-0.078274,0.191790,0.978310
0.403026,0.165120,0.755199,-0.751616,0.267153,0.603077
-0.482635,0.296507,0.411366,0.063499,-0.741484,0.667959
0.206721,-0.376984,0.727418,0.751782,-0.645737,-0.133591
-0.102218,-0.139576,-0.418311,0.400507,0.373203,-0.836848
0.265067,-0.552857,0.881971,-0.779049,0.118597,0.615643
-0.694982,0.311505,0.036034,-0.103238,-0.499796,0.859969
-0.336622,0.267281,0.464518,0.921669,-0.176847,0.345327
-0.327187,-0.303789,-0.147077,0.903343,0.408094,0.132023
-0.171015,-0.159973,0.342689,-0.074891,-0.841910,0.534396
-0.700206,0.237887,-0.221269,0.358131,-0.025399,0.933326
0.077180,0.017956,0.284839,0.662708,-0.574217,0.480722
0.264560,-0.337991,0.689872,-0.529835,0.711013,0.462316
0.063828,0.059011,-0.283164,0.154676,0.710404,-0.686587
-0.579084,0.687854,0.637578,0.110100,-0.618864,0.777744
0.065132,-0.568713,0.745353,-0.362249,0.908949,0.206370
-0.231975,-0.360616,-0.919230,-0.419765,0.330181,0.845445
-0.288654,-0.089691,0.298975,0.890754,0.341898,0.299436
-0.293515,-0.331734,0.782245,-0.260802,-0.725598,0.636781
0.026016,0.164603,0.185113,-0.034957,-0.406287,0.913076
-0.391270,-0.382126,-0.942640,-0.229910,-0.152253,0.961229
-0.183424,0.125865,0.525922,0.429742,-0.820033,0.377979
-0.300773,-0.232137,-0.017077,0.991205,-0.074723,-0.109219
0.322253,-0.256996,0.076848,0.089125,-0.895309,0.436439
0.374651,-0.509234,0.088328,0.150158,0.255643,0.955039
0.373271,-0.244650,0.469175,0.162285,0.052399,0.985352
0.358468,-0.057038,0.468930,0.481767,-0.721114,0.497891
-0.444899,-0.272506,0.723291,-0.535682,0.843596,-0.037292
-0.607388,0.718707,0.684929,-0.535931,0.619948,-0.573099
-0.496280,-0.498950,-0.937533,0.099986,-0.010925,-0.994929
-0.044086,-0.228883,0.417984,0.736856,0.276107,-0.617096
-0.395405,0.590658,0.036688,-0.631619,0.235504,-0.738644
-0.283500,-0.023271,0.713731,0.760771,0.419257,0.495430
0.376031,0.080354,0.642726,0.462822,0.709887,-0.530901
-0.279582,-0.086176,0.736365,-0.182210,-0.851129,0.492320
-0.159620,0.389414,0.439229,-0.246501,-0.657166,0.712299
-0.104248,0.122005,0.119418,-0.135089,-0.260358,0.956015
-0.542291,0.355562,0.219553,0.166404,-0.832549,0.528368
-0.176530,-0.558088,-0.904196,-0.153373,0.184251,0.970839
-0.434811,-0.560228,-0.935204,-0.111650,0.120693,0.986391
-0.711455,0.549347,0.632104,-0.393126,0.130708,-0.910147
0.358468,-0.591772,0.915431,0.554187,-0.101941,-0.826126
0.365216,-0.482236,0.102913,0.169247,0.005356,0.985559
-0.308684,-0.087808,0.724926,-0.060273,0.833277,-0.549560
-0.293079,-0.016068,-0.213588,0.069325,-0.938150,0.339217
0.640407,-0.327701,0.110961,0.495188,0.822349,0.280234
-0.285533,-0.282279,-0.939944,-0.012734,0.130344,0.991387
0.215139,-0.090037,0.583487,0.986224,0.067201,-0.151147
-0.314925,-0.316647,-0.423418,-0.007290,0.996808,0.079505
-0.549039,-0.227597,0.820076,0.918170,0.156166,0.364110
0.044959,0.086093,0.588144,-0.042107,0.908023,0.416798
0.264343,-0.794298,0.140132,0.935411,-0.303531,-0.181313
-0.450633,-0.414440,-0.946521,-0.010550,0.173695,0.984743
-0.226387,-0.206342,0.294603,-0.281118,0.947062,0.155070
-0.169999,-0.006212,0.700903,0.868657,-0.161149,-0.468473
0.296272,-0.427983,-0.290027,0.017837,-0.140197,0.989963
0.285897,-0.103408,0.490583,0.813879,-0.334256,0.475263
-0.148952,-0.446664,0.359031,0.308334,-0.832952,-0.459479
0.248087,0.217145,0.675124,0.484337,0.874852,-0.007185
-0.182481,-0.356243,0.284594,-0.725152,0.658760,0.200475
-0.502958,-0.375786,-0.940638,-0.022768,0.085077,0.996114
-0.176023,-0.228026,-0.611962,0.437696,-0.304414,-0.846023
0.557313,0.128607,0.328104,0.696879,0.038000,-0.716182
-0.078558,-0.118406,0.321486,-0.453527,0.499938,0.737818
-0.279436,-0.107174,0.678883,-0.619083,0.712243,0.330827
0.216953,0.021126,0.585652,-0.252922,0.825275,-0.504927
0.326900,0.082839,0.636720,0.260042,0.747314,-0.611473
0.162088,0.076237,0.576623,-0.674777,-0.099748,0.731250
-0.754562,0.305510,0.021490,0.096208,-0.225160,0.969560
-0.546428,0.014101,0.741431,0.779795,-0.372127,0.503430
-0.132696,0.357618,0.706745,-0.211691,-0.795148,0.568266
-0.456657,-0.482147,-0.931691,-0.284168,0.177646,0.942173
0.079574,0.199913,0.189198,-0.253181,-0.521421,0.814874
-0.459051,0.483010,0.461617,0.046403,-0.995329,-0.084656
-0.280597,-0.241826,0.048944,0.151321,-0.980000,-0.129238
-0.656663,0.597087,0.636720,-0.508486,0.698067,-0.504127
-0.650132,0.254684,0.150468,0.093913,-0.822571,0.560855
0.041112,0.310993,0.590718,-0.029499,-0.317653,0.947748
-0.725533,0.559977,0.290763,0.552183,-0.523132,0.649174
-0.102435,0.377073,0.214446,0.979930,0.099450,0.172762
-0.321529,0.345963,0.253953,0.795990,0.534495,-0.284105
-0.517254,0.689737,0.659517,0.318540,0.858369,-0.402164
-0.121375,-0.273710,0.712628,0.366034,-0.709431,0.602269
-0.306723,-0.149087,0.932631,-0.231069,-0.819095,0.525062
-0.626908,0.568201,0.606038,-0.239178,0.787387,-0.568168
0.702239,-0.393870,0.120726,0.281518,0.575455,0.767854
-0.196633,0.409303,0.549087,-0.381915,0.915387,0.127312
0.830544,-0.507602,0.136046,-0.079036,-0.607484,0.790390
-0.286404,-0.455667,-0.931037,0.077984,-0.279142,-0.957078
0.067309,-0.565030,0.816440,-0.608949,0.255610,0.750896
0.686054,-0.368499,0.125261,-0.361929,-0.481914,0.797977
-0.117311,0.208058,0.402255,-0.218005,0.533033,-0.817527
-0.199173,-0.098778,0.804960,0.569173,0.483643,-0.664929
-0.071230,-0.319389,0.609756,-0.517739,0.728545,-0.448519
-0.400268,-0.088148,0.286024,0.963113,0.248889,0.102311
-0.187851,-0.531430,-0.914369,-0.098794,0.344341,0.933632
-0.780905,0.362415,0.778813,-0.392550,-0.863298,-0.317207
0.308467,0.218944,0.701965,-0.477029,0.338257,0.811188
-0.473203,0.065267,0.619439,0.527783,0.843880,-0.096500
-0.194456,-0.099291,0.813907,-0.650063,-0.551734,0.522502
-0.244384,-0.165628,-0.182253,-0.277416,0.692413,-0.666036
0.445335,-0.398668,0.963149,-0.720028,-0.212107,0.660735
-0.651872,-0.487807,-0.949790,-0.021802,0.270318,0.962524
-0.481258,0.711248,0.687666,-0.134381,-0.916418,0.376988
0.651511,-0.856267,-0.300200,0.327108,0.245241,0.912610
0.278566,-0.580284,-0.309638,-0.262102,-0.089046,0.960923
-0.719365,0.302079,0.727050,0.354581,0.852113,0.384936
-0.529299,0.662912,0.139887,-0.495267,-0.702373,0.511256
-0.341556,-0.084466,0.459574,0.844378,-0.486684,0.223974
-0.219493,-0.099118,0.083425,0.397856,0.203097,-0.894686
-0.096411,0.203000,0.132247,-0.453754,-0.188364,0.870991
-0.346710,-0.610024,-0.894105,-0.476147,0.163099,-0.864108
0.141551,0.233769,0.227030,0.753042,-0.517425,-0.406447
-0.410064,-0.170430,0.404175,0.073790,0.993064,-0.091539
-0.576400,0.658884,0.121624,0.241025,0.793000,-0.559515
-0.587212,-0.211824,-0.954978,0.233797,0.109966,-0.966047
-0.035597,0.280312,0.199943,0.726816,0.641904,-0.244330
-0.472694,0.304134,0.679209,0.861299,0.456689,-0.222708
-0.735041,0.268395,0.327369,-0.430468,-0.639835,0.636639
-0.403243,0.184057,0.235446,0.643443,-0.182375,0.743452
0.006423,-0.182770,-0.390366,0.237550,0.933962,-0.266994
-0.630609,0.447015,0.613883,-0.487284,-0.641397,-0.592591
-0.346493,-0.253224,-0.139641,0.959720,0.252589,0.123031
-0.317319,0.014357,0.689913,0.177459,0.964211,-0.196989
-0.392214,-0.038353,-0.157862,0.862149,0.415435,-0.290020
-0.516963,0.738675,0.181926,-0.757083,-0.336057,0.560260
0.777858,-0.247993,0.150672,0.410828,0.220870,-0.884555
-0.469937,-0.144719,-0.318380,0.634831,0.772137,-0.028164
-0.170579,-0.694618,-0.899416,-0.014470,-0.060163,0.998084
0.111579,0.179260,0.311844,-0.154849,0.835171,0.527742
-0.348451,-0.198542,-0.469625,0.853789,0.504836,-0.127222
-0.428716,-0.542489,-0.922049,-0.377161,0.372320,0.848014
-0.240610,-0.125860,0.273849,-0.065359,-0.805746,0.588644
-0.241190,-0.657251,-0.903256,-0.071074,0.115032,0.990816
-0.598750,0.133236,0.433141,0.772539,-0.072629,0.630800
0.629304,-0.307305,0.110716,-0.495598,-0.848841,-0.183988
-0.735912,-0.312620,-1.000000,-0.354345,0.284222,0.890875
0.018832,-0.015811,0.191241,-0.805260,0.419699,0.418819
-0.724807,0.275080,0.013686,-0.248417,-0.513270,0.821488
-0.388003,-0.295048,-0.948237,-0.071349,-0.213787,0.974271
-0.313328,-0.291794,-0.492626,0.828154,0.542002,-0.142811
-0.544541,-0.124233,0.667443,0.869347,0.442281,0.220507
-0.684240,0.033216,0.459574,-0.451559,-0.257512,-0.854273
-0.496643,0.637885,0.549455,-0.669257,0.663550,-0.334359
-0.126021,-0.662137,-0.897863,-0.234858,-0.197857,0.951680
-0.216009,-0.398668,0.263472,0.360469,-0.920570,0.150377
-0.374432,0.367301,0.132002,0.807434,-0.455406,0.375041
0.773431,-0.596915,0.054133,0.065375,0.938610,0.338730
-0.498531,0.203774,0.674143,-0.405521,0.565011,-0.718551
-0.373998,-0.203685,0.286882,0.994800,0.030823,-0.097072
-0.597300,-0.272506,-0.958328,0.565428,-0.010905,-0.824726
-0.493014,0.690422,0.582547,0.922752,-0.316618,0.219729
-0.019122,-0.424384,0.646934,-0.248487,-0.740566,0.624353
-0.317029,-0.161600,0.549863,-0.363972,0.929207,-0.064014
-0.268405,-0.070666,0.605466,0.537641,0.220165,-0.813922
-0.112957,-0.291878,0.372105,0.203068,0.979163,0.001998
0.104685,0.468865,0.244760,-0.224288,-0.637688,0.736919
-0.684676,-0.436468,-0.953671,0.420587,-0.357654,-0.833780
-0.335898,-0.146602,0.310128,-0.398623,0.911707,0.099448
-0.266664,0.340047,0.525023,-0.002021,-0.619669,0.784860
-0.439674,-0.193311,0.380521,0.421370,0.906599,-0.022917
0.219347,-0.272679,0.065980,-0.036587,-0.315676,0.948161
-0.487716,-0.287850,-0.949626,-0.018557,-0.020532,0.999617
0.250191,-0.415041,0.760837,0.833886,-0.270406,-0.481159
0.158024,-0.659992,0.657924,-0.230972,-0.757648,0.610427
-0.375594,0.054726,-0.059403,0.929323,0.099825,0.355519
-0.962478,0.632743,0.699882,0.533221,0.301632,0.790375
-0.429370,0.271827,0.488295,0.680896,0.182672,-0.709234
0.247215,-0.081290,0.734363,-0.640042,-0.417247,0.645175
0.217606,0.461411,0.261756,0.091070,-0.463200,0.881562
0.129069,-0.226828,0.194591,-0.251805,0.072807,0.965035
0.075730,-0.352560,0.691180,0.622457,-0.782513,-0.014838
-0.538734,-0.337044,-0.948687,-0.121944,0.078110,0.989459
-0.210202,-0.059267,0.671120,-0.697745,0.715697,0.030495
0.000762,-0.348615,0.389999,0.435642,0.380449,-0.815766
-0.432490,0.099636,0.288189,0.660466,-0.070936,0.747498
-0.497078,-0.055751,-0.344487,0.872868,0.376373,0.310557
-0.197067,-0.149003,0.098909,-0.547799,-0.088006,0.831968
0.052216,-0.181573,-0.290885,-0.772781,0.594423,-0.222422
-0.025436,-0.301048,0.208808,-0.029289,0.978926,0.202103
0.334882,-0.428496,0.876987,0.061152,-0.877893,0.474936
-0.336042,-0.298218,-0.367406,0.206578,0.976311,-0.064353
-0.085018,-0.363702,0.028190,0.245368,0.325774,-0.913053
-0.050183,0.072554,-0.200637,0.175072,-0.711967,0.680039
-0.627127,0.035957,0.436859,-0.784542,0.270451,-0.557987
-0.456728,-0.235480,0.687012,0.966267,-0.170245,-0.193250
-0.005913,0.339361,0.560935,0.647113,0.581845,-0.492647
0.267463,0.177116,0.634024,0.868223,0.268530,-0.417228
-0.037991,-0.337300,0.143237,0.022249,-0.777238,0.628813
-0.156790,0.067752,0.336316,-0.550249,0.506105,-0.664141
-0.323923,-0.400640,0.360951,0.686640,0.717521,-0.116997
0.275445,0.215769,0.668015,0.799931,-0.570160,-0.187160
-0.716245,0.326247,-0.244352,0.773572,0.530598,0.346485
-0.279653,-0.333016,-0.559546,0.422173,0.895608,-0.140200
-0.006277,0.145148,-0.170813,-0.048154,-0.560042,0.827063
-0.381906,0.009900,0.070556,0.921075,0.165665,0.352386
-0.605282,0.144546,-0.281816,0.866191,0.049241,0.497281
-0.651438,-0.444864,-0.953957,0.268045,0.013371,-0.963314
0.314125,0.235658,0.698288,-0.520632,0.299021,0.799705
-0.030516,-0.292479,0.646117,0.499919,-0.428113,0.752861
-0.386190,-0.201713,0.345263,-0.694498,-0.717907,-0.047771
-0.631842,-0.417270,-0.952527,0.104003,-0.028225,0.994176
0.052870,0.450184,0.235282,-0.177835,-0.405056,0.896830
0.254399,0.046670,0.322344,-0.461686,-0.840235,0.284344
-0.591059,-0.008441,0.216326,-0.247099,-0.730142,0.637052
-0.670234,0.569576,0.616538,-0.280075,0.765945,-0.578694
-0.891650,0.548835,-0.157086,-0.278867,-0.732488,0.621043
-0.346057,-0.348359,-0.200392,0.964265,-0.192916,-0.181595
-0.559200,-0.308502,-0.953671,0.150369,0.250750,0.956302
0.204325,-0.536918,-0.506353,-0.391313,-0.316062,0.864279
-0.740266,0.309449,0.454999,0.645003,-0.479274,0.595203
-0.417758,-0.152173,0.415860,-0.410086,0.666712,0.622354
0.010413,-0.314759,0.604568,-0.625790,0.563857,0.538936
-0.341049,-0.278679,0.764350,-0.587296,-0.799708,-0.124702
0.283646,-0.378616,-0.266454,-0.364271,-0.533993,0.762993
-0.532710,0.072638,0.064755,0.431902,0.675638,-0.597473
-0.786349,0.284167,0.329289,0.269742,0.650565,-0.709933
-0.785767,0.519435,0.655350,-0.189338,-0.194259,-0.962504
-0.075220,-0.328046,-0.355231,0.319309,-0.632061,0.706074
0.167748,0.124066,0.579197,0.781041,-0.546213,-0.302699
-0.600637,-0.507179,-0.940352,0.141193,-0.129155,-0.981521
0.049023,0.387185,0.597827,-0.342777,-0.506669,0.791069
-0.405783,-0.362332,-0.938228,-0.048767,-0.320205,-0.946092
-0.064262,-0.229312,0.390612,0.855686,-0.480627,-0.191833
-0.236909,-0.299850,-0.926870,0.306122,-0.164021,-0.937756
-0.606588,0.090209,0.256077,0.406002,0.784116,-0.469388
0.219566,-0.406383,-0.302733,0.205102,0.439791,0.874367
-0.016801,-0.307561,0.605017,-0.622496,0.381941,-0.683096
-0.143365,-0.378700,0.374842,0.351664,-0.197644,0.915024
0.114046,0.038185,0.555583,-0.142172,-0.700220,0.699627
-0.327407,-0.273108,-0.136128,0.902046,0.390978,0.182890
-0.404840,0.060381,0.321281,-0.690103,-0.711588,0.131912
-0.560507,0.620654,0.613597,0.317274,-0.886910,0.335749
-0.336695,-0.119091,-0.349389,-0.333659,0.880389,-0.337027
-0.637722,-0.347417,-0.952568,0.499966,0.000986,-0.866045
-0.323777,-0.540172,-0.895085,0.945967,-0.051563,0.320136
0.225227,-0.535029,0.471463,0.090201,-0.084630,0.992321
-0.514423,-0.251592,-0.949504,-0.106058,0.186558,0.976703
-0.351281,-0.338587,-0.669159,0.953012,0.267425,-0.142312
0.187851,0.292307,0.623728,-0.539195,-0.371238,0.755944
0.423565,-0.080176,0.458186,-0.317355,-0.938044,0.139135
0.185167,0.093981,0.347224,-0.320289,0.946564,0.037825
0.658333,0.168463,0.383217,-0.732406,-0.223466,0.643152
0.960303,-0.418813,0.135760,-0.273196,0.770448,-0.575999
0.435684,0.206342,0.292029,-0.202235,-0.319624,0.925711
-0.178707,-0.215084,0.721902,0.578509,0.813731,-0.056289
-0.609202,0.077696,-0.239245,0.863109,0.484147,0.143681
0.674152,-0.364560,0.115578,0.508184,0.786537,0.350869
-0.205921,-0.159544,0.106835,-0.097071,-0.775067,0.624379
-0.565948,-0.365073,-0.945868,-0.063873,-0.109749,0.991905
-0.200987,-0.135287,0.773869,0.622118,0.782916,0.003441
0.215936,-0.536489,0.438698,0.060767,0.391088,0.918345
-0.187705,-0.192030,0.687298,0.429553,0.903022,0.005903
0.217460,-0.543258,0.837072,-0.449881,-0.207682,0.868605
-0.293152,0.312363,0.596560,-0.328612,-0.741951,0.584400
-0.423419,-0.052325,0.282388,0.972333,0.227388,0.053517
0.266301,0.032012,0.575438,-0.537698,-0.688567,0.486576
-0.033781,-0.437326,0.629857,-0.742927,0.265586,0.614429
-0.065059,-0.161087,-0.177963,0.274012,0.696998,-0.662655
-0.460938,0.263509,0.111901,0.568755,-0.680213,0.462416
-0.288798,0.244227,0.237693,-0.861018,0.356743,0.362468
-0.580897,0.496465,0.651469,-0.666139,0.278553,-0.691858
0.053160,0.327534,0.605262,-0.058354,-0.281988,0.957642
0.574730,-0.313645,0.103689,0.412820,0.910277,-0.031232
-0.057948,-0.152429,-0.395351,0.586859,0.216562,-0.780191
0.125948,0.051985,0.568044,-0.230648,0.969593,-0.081798
-0.278783,-0.389586,-0.918658,0.213020,-0.379517,-0.900327
-0.580464,-0.064320,-0.238019,-0.639529,-0.354865,-0.681963
-0.300046,-0.543943,-0.917269,-0.297877,-0.140693,-0.944180
-0.679306,-0.310475,-0.967030,-0.620693,-0.120405,0.774754
-0.214485,-0.041094,0.764391,0.896685,-0.258085,-0.359649
-0.474147,-0.237452,0.544552,0.911773,0.280945,0.299565
0.061722,0.480353,0.642889,0.342023,-0.742071,0.576499
-0.206357,-0.020525,0.869755,0.639381,0.705612,-0.305456
0.222757,-0.429270,-0.285819,0.239307,0.498548,0.833176
-0.088792,-0.170085,0.435184,-0.247235,0.967449,-0.054014
-0.400412,0.039472,-0.121706,0.947745,-0.045140,-0.315820
-0.504262,-0.041010,0.552641,0.929086,-0.191890,0.316194
-0.157951,0.240884,0.125955,-0.114380,0.341874,0.932759
-0.357595,-0.166575,0.539895,-0.298117,0.806922,-0.509905
0.261003,0.137264,0.618009,-0.671805,-0.465662,0.576053
-0.648391,0.207457,-0.266413,0.840571,0.341591,0.420424
-0.313182,0.658627,0.265801,0.818062,-0.486808,0.306256
-0.462389,-0.215769,-0.954161,-0.004487,0.205677,0.978610
-0.244021,-0.197941,0.332925,0.859935,0.424519,-0.283365
-0.269277,-0.499034,-0.922335,-0.022827,0.249005,0.968233
-0.702383,-0.333105,-0.973322,-0.258797,-0.111150,0.959515
0.156500,-0.399185,0.141888,-0.201756,-0.940519,0.273346
-0.300192,-0.221942,0.024268,-0.386823,0.914697,-0.117040
-0.125222,0.201373,0.398333,0.158782,-0.604591,0.780549
-0.349831,-0.254339,0.366998,0.372726,0.898910,-0.230297
-0.176023,0.774933,0.355313,0.036033,0.604950,0.795447
0.371674,0.102806,0.629612,-0.462621,-0.487581,0.740436
0.192422,-0.363273,0.162969,0.238282,0.811594,-0.533419
-0.083131,-0.300964,0.739838,0.378123,0.650644,0.658548
0.209768,-0.196743,0.442415,-0.808506,0.561702,-0.175524
-0.402662,-0.009298,0.263145,0.260855,0.467947,0.844382
-0.185674,-0.015471,0.461740,-0.343163,-0.885372,0.313618
-0.281830,-0.341590,0.747518,-0.240390,-0.896056,0.373225
-0.391124,-0.216198,0.160886,0.300429,0.930979,-0.207412
-0.298305,-0.051122,-0.237284,0.461343,0.642782,-0.611550
0.341049,-0.486091,0.097234,0.329014,0.199588,0.922992
0.337639,0.181573,0.350247,0.151676,-0.229761,0.961355
0.229218,0.390188,0.257139,0.316453,-0.200902,-0.927090
-0.226677,-0.031924,0.409568,-0.247666,-0.586529,0.771132
-0.495844,-0.456007,-0.941660,0.175480,-0.194087,-0.965162
-0.435754,0.284251,0.537607,0.780877,0.394300,0.484519
-0.031750,-0.352131,0.594436,-0.538171,0.505749,0.674234
-0.257446,-0.147114,0.248969,-0.766151,0.490511,-0.415224
-0.364200,-0.286992,-0.940352,-0.199797,-0.018462,0.979663
-0.620740,0.658967,0.638886,0.423663,-0.443393,0.789882
0.108242,-0.427125,0.710013,-0.503817,0.855451,-0.119884
-0.337712,-0.232137,0.087225,-0.633255,-0.765475,0.114178
-0.497007,0.230427,0.505005,-0.177107,0.740069,0.648791
-0.014768,-0.343389,0.380521,0.186313,0.958779,-0.214545
-0.735041,0.094065,-0.566573,0.136813,-0.131256,0.981863
-0.401792,0.084126,0.025820,0.960122,0.063313,0.272319
-0.252368,-0.178999,0.085836,-0.173521,-0.276983,0.945077
0.635328,-0.338074,0.109777,-0.554278,-0.793817,-0.250261
0.141261,-0.380416,0.710300,-0.677399,0.462618,0.571939
0.239087,0.250912,0.655513,0.681562,-0.247945,-0.688475
-0.401066,-0.024124,0.240798,0.947511,0.196668,0.252080
-0.463259,-0.257336,-0.945704,-0.080476,0.348016,0.934028
0.413258,-0.116863,0.144135,0.223674,-0.657995,0.719036
0.121521,-0.321706,0.944438,-0.094352,-0.909869,0.404024
0.411953,0.147889,0.762308,0.767428,-0.032909,-0.640290
-0.610652,0.362415,0.503983,-0.374272,-0.926224,0.045037
0.348743,0.144635,0.697104,0.852902,0.420786,-0.309025
-0.102798,-0.319132,0.371982,-0.626880,-0.766216,0.141187
-0.205921,0.541035,0.192671,0.038641,0.282567,-0.958469
0.189955,0.185517,0.603751,0.902972,0.051519,-0.426601
-0.440545,-0.297789,-0.946603,0.104518,0.124509,-0.986698
0.075730,-0.366443,0.878989,0.259747,0.885351,-0.385597
-0.506585,0.399442,0.504474,0.964248,-0.256217,-0.067665
-0.292064,-0.154318,0.630837,0.099582,0.940127,-0.325953
0.406873,0.175661,0.770724,-0.680340,0.219421,0.699280
-0.316738,-0.188687,0.493361,-0.669405,0.673287,-0.313976
0.231685,-0.528945,0.765249,0.408008,0.678420,-0.610962
-0.364200,-0.027126,0.364587,0.946902,0.290948,0.136842
0.215865,-0.555431,0.791927,-0.410203,-0.764818,-0.496776
-0.395914,0.578145,0.315521,0.142884,-0.541637,0.828380
-0.222684,-0.039210,0.812109,0.867537,0.408451,-0.283809
-0.351935,0.418640,0.235241,-0.442197,-0.831403,0.336497
-0.346710,-0.277738,-0.551620,0.773605,0.598087,-0.209350
-0.498821,0.680138,0.626670,-0.482860,0.872985,-0.068878
-0.675822,-0.072465,-0.019978,-0.625071,-0.246614,-0.740586
0.056351,-0.022497,0.444295,0.810016,-0.578866,0.093743
-0.771254,0.333790,0.028108,-0.151953,-0.453830,0.878037
-0.535977,0.542489,0.309392,-0.458216,0.506980,-0.730075
-0.258609,-0.057122,0.683540,-0.613048,0.763357,0.203614
-0.579374,-0.229998,-0.959309,0.366908,-0.047961,-0.929020
-0.367610,-0.427638,-0.762471,0.088394,-0.995242,0.040989
-0.729161,0.300023,0.475467,0.047765,0.400356,-0.915114
0.076744,-0.608826,0.840462,-0.697965,0.324494,0.638396
-0.107225,0.350075,0.408506,0.867474,-0.490256,-0.084489
0.816757,-0.204972,0.149528,0.365564,0.341175,0.866004
0.159984,-0.137944,0.665359,0.688817,0.162419,-0.706507
-0.306433,-0.118835,0.568616,-0.223755,0.974383,-0.022622
-0.352081,-0.259737,-0.594517,-0.486671,-0.872941,0.033560
-0.423199,0.064927,-0.119949,0.475295,0.486759,-0.732912
0.198303,0.035957,0.244025,-0.349785,0.935460,0.050646
-0.374361,0.024814,0.507334,0.814263,-0.150650,0.560607
0.094234,-0.365674,0.657760,0.093501,0.727486,0.679722
0.255415,0.276707,0.630919,0.179871,0.954271,0.238776
-0.292281,0.108467,0.800793,-0.695143,-0.579554,0.425317
0.693022,0.175918,0.411162,-0.730738,-0.281742,0.621806
-0.382706,0.070927,-0.085059,-0.175984,-0.974730,0.137593
-0.527269,0.506666,0.287535,0.449384,-0.216736,0.866648
-0.593090,-0.024725,0.751481,0.924787,-0.208191,0.318473
-0.416307,0.513095,0.062467,0.836341,-0.301373,0.457938
0.010923,0.096466,0.154798,0.593236,-0.080393,-0.801005
-0.087556,0.339189,0.445929,0.509081,0.464974,-0.724317
0.568272,0.070666,0.235854,-0.206059,0.894015,-0.397840
-0.212672,-0.214482,0.730890,0.058620,0.997012,0.050300
-0.166951,0.263253,0.645055,-0.377711,-0.596857,0.707882
0.417324,-0.307132,0.180619,0.031641,-0.732722,0.679792
-0.068616,-0.082405,0.126527,-0.211944,-0.621018,0.754597
-0.526252,0.606001,0.368182,0.767525,-0.628097,-0.128063
0.097644,-0.483779,0.732688,0.115191,0.890951,0.439246
-0.496787,-0.380672,-0.948891,0.053330,0.005098,0.998564
-0.265793,-0.221424,-0.202394,0.195478,-0.563211,0.802859
-0.452664,0.601544,0.303060,0.322532,0.601327,-0.731013
0.091332,-0.344158,0.156351,-0.213525,-0.959987,0.181196
-0.378642,-0.073919,-0.124362,0.972155,0.219760,-0.081363
-0.368554,-0.077780,-0.116068,0.930468,0.296041,-0.215843
-0.319642,-0.156714,0.299343,-0.456438,0.763927,-0.456157
-0.615733,0.730018,0.667607,0.553186,-0.656412,0.512941
0.173629,-0.535976,0.815786,-0.544813,0.660272,0.516933
-0.323413,0.132635,0.415860,0.940802,-0.337892,0.026847
-0.404912,0.091068,-0.080402,-0.140120,-0.936374,0.321822
0.182408,-0.455238,0.795196,-0.601456,-0.767018,-0.223458
0.190175,0.102377,0.350533,-0.509913,0.804161,0.305473
-0.671322,0.679369,0.653225,0.629841,-0.319362,0.708032
0.097427,0.660254,0.256731,-0.327195,-0.278911,0.902858
-0.588955,-0.238996,-0.956163,0.380860,-0.034032,-0.924006
-0.580607,0.581571,0.566614,0.775131,-0.398375,0.490376
-0.146631,-0.218766,0.385260,0.575365,-0.636591,0.513524
-0.060415,0.386500,0.437881,-0.727784,-0.667255,0.158434
-0.255559,-0.249364,0.813335,0.217467,-0.860496,0.460711
0.172975,-0.537174,0.826940,-0.126936,0.967608,-0.218225
-0.163611,0.027215,0.621645,-0.905422,-0.124523,0.405840
-0.397002,-0.394901,0.669690,0.603816,0.794917,-0.059279
-0.643383,-0.233424,-0.968256,0.286606,-0.127997,-0.949460
0.643674,0.144808,0.385587,-0.732406,-0.223466,0.643152
-0.034000,-0.335930,0.866283,0.309801,0.890966,-0.331968
0.536194,-0.299761,0.171998,-0.303699,-0.951380,-0.051408
-0.605064,-0.265648,-0.965764,-0.318975,0.357897,0.877590
-0.538154,0.110266,0.514892,-0.264095,-0.506760,0.820639
-0.086976,-0.303277,0.736120,0.378123,0.650644,0.658548
-0.450923,0.198459,0.325285,0.971906,0.000553,0.235368
0.488806,-0.359245,0.161049,0.181193,-0.847482,0.498942
0.255052,-0.088750,0.761164,0.150902,0.731715,-0.664697
-0.700496,-0.334559,-0.970544,-0.252876,-0.102480,0.962056
0.268261,-0.553030,0.876496,-0.399878,0.374033,0.836778
-0.142058,0.163405,0.350697,0.782934,-0.424799,0.454489
-0.314562,-0.286735,-0.472484,0.160365,0.979200,0.124298
0.275228,0.005270,0.244801,0.331935,0.742937,-0.581261
-0.307521,-0.092778,0.725171,-0.060273,0.833277,-0.549560
-0.105772,0.293594,0.429056,0.247409,-0.739078,0.626541
-0.313618,-0.269420,-0.929362,0.122926,-0.036210,-0.991755
0.097064,-0.442207,0.817993,0.463819,0.375613,0.802363
-0.309481,-0.224510,0.891449,0.028371,-0.926409,0.375447
-0.699406,0.231541,0.108388,-0.024392,-0.931284,0.363476
-0.373127,0.006557,-0.195367,-0.414059,0.879714,-0.233789
-0.469429,0.682879,0.444622,0.956481,-0.275805,0.095263
0.308974,-0.194426,0.606651,0.933648,0.207699,-0.291825
-0.035668,-0.409470,0.778445,0.039271,-0.900556,0.432964
-0.006567,0.461923,0.654860,-0.556122,0.675687,-0.483917
-0.380892,0.436986,0.279119,-0.013104,0.996262,0.085381
-0.100692,0.278083,0.308780,0.769153,-0.634801,0.073694
0.118618,0.068097,0.548924,-0.411528,0.308666,0.857537
-0.190972,-0.324447,0.166728,0.120194,0.498748,-0.858373
-0.574366,0.118751,-0.310945,0.732333,0.383795,0.562485
-0.616240,0.137861,-0.590677,0.140689,-0.148612,0.978837
-0.767263,-0.417610,-0.970544,-0.079106,0.049074,0.995658
-0.733515,-0.186626,-0.981656,-0.051976,0.130807,0.990044
-0.298305,-0.084549,0.619806,0.497780,-0.163755,0.851704
-0.547661,0.353847,0.427381,-0.687205,0.699809,-0.194980
-0.353097,-0.336531,-0.938759,0.311509,-0.000453,-0.950243
-0.398525,-0.148914,0.271030,0.961044,0.256641,-0.102615
0.726550,-0.389754,0.121747,0.358467,0.474897,-0.803725
-0.027540,0.011699,0.323079,0.386115,0.027250,-0.922048
-0.493813,-0.081552,0.629285,-0.833923,0.295171,-0.466312
-0.009543,0.359763,0.224333,0.361074,-0.091185,-0.928068
-0.437642,0.003989,0.545737,0.407724,-0.473258,0.780889
-0.400632,-0.287766,-0.301467,0.869912,0.484475,0.092397
-0.629958,0.370905,0.485395,-0.183887,0.770388,-0.610482
-0.481838,0.710562,0.683662,-0.134381,-0.916418,0.376988
-0.601437,-0.476236,-0.953017,-0.101415,0.258857,0.960577
-0.616313,-0.198542,-0.962046,-0.412839,0.304569,0.858372
0.083785,-0.296078,0.424235,-0.026067,-0.874152,0.484952
0.209841,-0.120378,0.198799,0.408157,0.254724,-0.876655
-0.786783,0.213284,0.368387,0.859507,0.494640,-0.128759
-0.250915,-0.581059,-0.914042,-0.219358,0.272362,0.936857
0.157373,0.385386,0.603056,0.189655,0.189494,-0.963391
-0.380602,0.051038,-0.100829,-0.664036,0.709981,-0.234486
-0.478428,0.625629,0.519672,-0.175604,-0.755205,0.631529
-0.343226,-0.222025,0.260285,0.202097,0.945005,-0.257142
-0.576907,0.307739,0.419782,0.177944,-0.844925,0.504419
-0.468630,0.303282,0.387262,0.386939,0.729817,-0.563600
-0.639173,0.771674,0.701434,0.144446,-0.445867,0.883368
0.141188,0.303282,0.213793,0.531767,0.123732,-0.837803
0.290104,-0.532372,0.785636,0.294838,0.928793,-0.224530
0.142858,-0.385302,0.669731,-0.356977,0.854681,0.376946
0.337349,0.412384,0.812191,0.677418,0.564841,-0.471231
0.131536,-0.403297,0.848102,0.719858,-0.468307,0.512341
-0.373344,-0.005872,-0.243004,-0.127780,0.983706,-0.126467
-0.678506,-0.481033,-0.942803,-0.119723,0.444375,0.887805
-0.496280,0.333706,0.419782,0.187389,-0.249783,-0.949997
-0.317536,-0.248338,-0.003799,0.955020,-0.294338,-0.036074
-0.083421,0.387274,0.192262,0.845872,-0.393340,0.360255
-0.343807,-0.343389,-0.935327,-0.315960,0.006837,0.948748
-0.618127,0.260684,0.135842,0.076964,-0.785659,0.613853
-0.378278,-0.206086,0.258283,0.666825,-0.536840,0.516862
-0.345113,-0.187228,0.310414,-0.252216,0.907623,0.335571
-0.177836,0.344849,0.670017,0.640839,0.488545,-0.592157
0.347654,0.146864,0.653961,-0.553623,-0.708291,0.437978
-0.334155,-0.089775,0.633084,0.839934,0.378813,0.388602
-0.404476,-0.043668,0.266250,0.953171,0.030708,0.300868
-0.391560,0.025154,0.337909,-0.705550,-0.698708,0.118350
0.266230,-0.536829,0.868612,-0.520371,0.472474,0.711325
-0.579447,-0.315104,-0.955387,0.013672,0.005090,0.999894
-0.020501,-0.359245,0.390653,0.138360,0.941520,-0.307240
-0.687215,-0.066721,0.704090,0.082097,-0.948558,0.305774
-0.727421,0.701565,0.657393,-0.545109,0.331525,-0.770031
-0.329004,-0.478893,-0.856518,0.799826,-0.098050,0.592170
0.206865,-0.300017,0.192507,-0.148381,-0.546814,0.824001
-0.102435,0.346988,0.209421,0.877617,0.099840,0.468850
0.523058,-0.603856,0.106958,-0.226324,0.367625,0.902014
-0.025146,-0.094232,0.442660,-0.618537,0.696180,-0.364344
0.698899,-0.093547,0.157699,0.256538,-0.798512,-0.544580
-0.328131,0.372705,0.281203,0.310263,0.915141,0.257399
-0.383722,-0.513864,-0.928627,0.646329,-0.304984,-0.699460
-0.350628,0.170775,0.806022,-0.617989,-0.615689,0.488894
0.047643,0.050782,0.326674,-0.697956,0.621975,-0.354971
0.132262,-0.156457,-0.373861,0.427687,0.431172,-0.794465
0.256866,-0.096806,0.536136,0.581559,0.254710,0.772601
-0.031823,-0.340130,0.028067,0.230391,0.428293,-0.873777
0.072246,-0.384873,0.898640,0.306121,0.877505,-0.369154
0.342212,0.325561,0.788128,0.735707,0.552945,-0.391135
0.143294,-0.198626,0.678106,-0.605235,0.086927,0.791286
-0.248158,-0.509318,-0.910120,0.128854,-0.168294,-0.977279
-0.411154,-0.558429,-0.906892,-0.704283,0.690803,0.163635
0.167748,0.400729,-0.021122,0.698577,0.210457,-0.683884
0.120651,-0.340047,0.150223,0.007240,-0.957999,0.286680
-0.381979,0.181489,0.478980,0.058825,-0.047952,0.997116
-0.601218,0.634972,0.619602,-0.515962,0.685756,-0.513344
-0.477628,0.685364,0.622462,0.554674,-0.823495,-0.119132
-0.019049,-0.169828,-0.384933,0.370388,0.841387,-0.393548
-0.216226,-0.164859,-0.180047,-0.311474,0.629324,-0.711994
-0.353822,-0.483863,-0.922907,-0.316646,0.554174,0.769822
-0.782502,0.591600,0.644564,0.238406,0.883551,-0.403113
0.091403,0.207117,0.207624,0.290374,0.783051,-0.550013
-0.247141,-0.131688,0.333129,0.909119,0.269419,-0.317673
-0.170725,-0.104260,0.808433,0.820467,0.392138,-0.416006
-0.649985,0.216800,0.313968,-0.080196,-0.439333,0.894737
-0.476104,0.585772,0.105650,0.964319,0.226969,0.136286
-0.066149,-0.232310,0.653593,0.492434,-0.572466,0.655585
-0.194309,-0.288791,-0.919067,0.374121,-0.042501,-0.926406
-0.370078,-0.180369,0.421702,-0.018719,-0.578285,0.815620
-0.068326,0.168463,0.247007,0.785075,0.552173,0.280647
-0.197140,-0.183628,0.465457,-0.132359,-0.874623,0.466385
0.343373,-0.282707,0.707562,-0.561252,0.587430,0.583028
-0.363836,-0.020441,-0.216039,0.276261,-0.845335,0.457262
-0.464059,0.131949,0.315153,0.896894,0.136733,0.420576
0.592075,-0.298903,0.102218,0.500057,0.854112,0.142956
0.095323,0.078895,0.346121,0.034097,-0.971713,0.233689
0.631845,-0.355044,0.176084,-0.493047,-0.796483,-0.350029
0.305926,-0.001499,0.576460,0.686567,0.719767,-0.102769
-0.433360,0.522951,0.298771,-0.331646,-0.168455,0.928242
-0.736202,0.602146,0.375005,-0.645195,0.763120,0.037026
-0.308684,-0.162118,0.527148,0.210168,-0.969424,0.126671
0.092056,-0.374845,0.869674,0.225411,0.907505,-0.354436
-0.403823,0.095608,0.447318,-0.459645,-0.649752,0.605433
0.043435,0.039556,-0.286064,-0.049944,0.967622,-0.247413
-0.508182,0.097235,0.079176,0.061620,-0.633794,0.771043
0.240466,-0.346387,-0.306655,0.648849,0.296151,-0.700921
-0.697666,0.456268,0.499163,-0.745781,-0.641344,0.180245
-0.156356,-0.518745,0.744536,0.833196,0.551687,-0.037757
-0.532929,0.163405,0.533399,0.264936,-0.241249,0.933599
-0.782429,0.396016,-0.206806,0.122014,-0.398591,0.908976
-0.113900,-0.261537,0.723659,-0.665872,0.566264,0.485758
-0.557530,0.076237,0.087143,0.165970,-0.537964,0.826467
-0.514930,0.337651,0.649181,0.422964,0.888652,0.177197
-0.549112,0.697024,0.176533,0.461956,0.618933,-0.635231
-0.101491,-0.207969,0.426727,-0.076828,-0.992985,0.089883
-0.101928,-0.171800,0.745761,0.037734,-0.847960,0.528715
-0.256359,-0.171973,0.076112,-0.071260,-0.175739,0.981854
-0.636416,0.258885,0.140050,0.154621,-0.907753,0.389971
0.083275,0.457984,0.626506,-0.095039,0.664516,-0.741205
-0.776042,0.121837,0.073620,0.509800,-0.293491,0.808682
-0.392938,-0.186971,0.327246,-0.286369,-0.948119,-0.138071
0.491346,-0.613796,0.101075,-0.005152,0.505672,0.862711
-0.481984,0.364047,0.406096,0.386010,0.471727,-0.792761
0.315505,0.213886,0.652245,0.899350,0.070884,-0.431446
-0.726260,0.292568,0.341708,-0.127161,-0.479847,0.868088
-0.668274,0.466469,0.626506,0.638191,0.385990,0.666126
-0.052287,-0.029439,0.146096,-0.172322,-0.255192,0.951411
-0.727421,0.358131,0.249295,0.897458,0.074704,0.434729
-0.269348,-0.454380,-0.925318,-0.125690,0.274586,0.953312
-0.277912,-0.093547,0.425461,0.427557,0.135620,0.893757
-0.086323,-0.317249,0.028067,-0.049441,-0.183011,0.981867
-0.776841,0.391386,0.368019,0.736561,0.648162,-0.193298
-0.689684,0.348448,0.443600,-0.504982,0.391554,-0.769207
-0.150405,-0.210627,0.404993,-0.624945,0.761580,-0.171578
-0.318406,-0.124406,0.575888,-0.749360,0.613699,0.248664
-0.306723,0.387018,0.221106,0.631420,0.775311,-0.014200
-0.321890,-0.305934,0.066716,0.582330,0.796008,-0.165117
0.234079,0.017444,0.813499,0.480826,0.766072,-0.426544
-0.352444,0.060637,0.732974,0.926785,0.364135,-0.092056
-0.216009,0.550378,0.197042,-0.013038,-0.371056,0.928519
-0.396858,0.439215,0.183724,-0.618778,0.590180,-0.518460
-0.421022,-0.005956,0.542183,0.781030,-0.009822,0.624416
0.284081,0.438268,0.262083,0.373628,0.011015,-0.927513
-0.516817,0.277482,0.361973,-0.291539,0.848552,-0.441547
-0.370804,-0.004496,-0.099154,0.969421,0.224068,-0.100083
-0.971189,0.666165,0.705806,0.533221,0.301632,0.790375
-0.374361,0.311076,0.137885,-0.653226,0.627838,-0.423220
0.640553,-0.083948,0.363157,-0.509602,-0.696465,-0.505215
-0.597227,-0.183545,-0.955714,-0.146299,0.862033,0.485279
-0.504989,0.031327,0.579238,0.839508,-0.419121,0.345779
0.190755,0.328737,0.240430,0.677318,-0.133248,-0.723523
0.659493,-0.357613,0.114516,0.537333,0.799427,-0.268680
0.391633,-0.534088,0.924909,0.524047,-0.220960,-0.822527
-0.539243,0.306023,0.166156,-0.028427,0.817038,-0.575882
-0.295475,-0.297789,-0.519671,-0.621729,-0.783197,0.007490
-0.309554,0.148919,0.499694,-0.047781,-0.206982,0.977177
-0.717986,-0.172569,-0.979082,-0.033158,0.121282,0.992064
-0.153236,-0.512917,-0.907219,-0.164644,0.327773,0.930300
-0.606734,0.098349,-0.293459,0.858413,0.223928,0.461501
0.356072,-0.280819,0.468235,0.115997,0.981785,0.150478
-0.339816,-0.241396,-0.032602,0.871433,0.433587,-0.229362
-0.369787,-0.594341,-0.882829,0.080592,-0.862886,0.498931
-0.320076,-0.216538,0.276872,-0.121729,0.981287,-0.149190
-0.602017,-0.433298,-0.948932,-0.033178,-0.216032,0.975822
0.067819,-0.395670,0.655881,0.934232,0.356467,-0.011940
-0.168982,-0.177372,0.689137,0.450278,0.892370,0.030410
-0.347944,0.010245,0.679209,0.289825,0.807471,-0.513802
0.349758,-0.496465,0.907832,0.481436,0.205295,-0.852099
0.046482,-0.147287,-0.265310,0.082267,-0.858894,0.505504
0.060778,0.060637,0.604445,-0.090666,-0.995809,-0.011969
0.432780,-0.065864,0.427340,-0.437375,-0.898966,0.023746
0.088212,0.094923,0.239163,0.893962,0.293366,0.338775
-0.155193,0.033216,0.720105,0.956863,-0.246948,0.153068
-0.076381,0.131264,0.197737,0.629342,0.610906,-0.480336
-0.297143,0.353847,0.191649,0.939914,0.240660,-0.242167
-0.427773,-0.226911,0.504229,0.460590,0.870792,-0.171986
-0.483725,0.543263,0.506966,-0.261725,0.576889,-0.773756
0.084438,0.224515,0.185971,0.153850,-0.662880,0.732749
0.079721,0.083095,0.565102,0.149403,0.908625,0.389974
-0.078848,-0.359930,-0.563549,0.224086,0.790656,-0.569779
-0.429079,-0.365674,-0.937411,-0.207331,0.372587,0.904540
-0.654342,0.561091,0.626425,0.308210,-0.822864,0.477390
-0.241917,-0.254935,0.537648,0.871062,-0.419041,-0.256233
-0.442722,-0.110779,0.571435,-0.563575,0.670233,-0.482878
-0.521171,0.336537,0.633125,0.593351,0.791916,-0.144233
-0.660437,-0.309962,-0.979777,-0.278321,0.085066,0.956714
-0.580534,0.697108,0.665033,0.286568,-0.694415,0.660050
0.193585,-0.078978,0.743555,0.573385,0.631637,-0.521789
0.081388,0.067668,-0.277853,-0.121305,-0.689791,0.713774
-0.757248,0.354621,0.040569,0.641028,0.234209,0.730909
-0.321383,-0.108288,0.718757,0.029000,-0.871682,0.489213
-0.577270,0.147978,-0.303142,0.922092,0.117517,0.368695
-0.340905,-0.408696,-0.936430,-0.013489,0.264012,0.964425
-0.018615,0.238828,0.164563,0.584827,0.791961,-0.175426
0.080374,-0.336787,0.081342,0.010610,-0.895246,0.445445
0.078631,0.209345,0.570168,-0.419944,-0.612816,0.669406
-0.769874,0.650142,0.719124,-0.341177,0.707599,-0.618791
-0.191189,0.781529,0.286800,-0.005329,-0.930751,0.365615
-0.712542,-0.463466,-0.968174,-0.225710,0.407936,0.884671
-0.242207,-0.456096,-0.924787,-0.126841,0.444341,0.886833
-0.790121,-0.261966,-0.988030,-0.098217,0.177735,0.979165
-0.735548,0.348019,0.027046,0.297499,0.652929,-0.696547
-0.521971,0.243542,0.411039,-0.411457,0.379325,-0.828744
-0.476904,-0.295906,-0.945745,0.059541,-0.047683,-0.997086
-0.651582,0.170603,-0.004780,-0.544186,0.008879,-0.838917
-0.369207,-0.009382,-0.208114,0.486038,-0.838435,0.246564
-0.475960,0.088923,0.076766,-0.197270,-0.579555,0.790696
0.243370,0.022926,0.815010,0.492876,0.758454,-0.426405
-0.526179,0.614314,0.031050,-0.181216,0.183757,0.966123
-0.465582,0.683224,0.655595,-0.262982,0.951354,-0.160515
-0.379149,-0.064236,0.244025,0.925647,0.119046,0.359174
0.261366,0.212002,0.676472,0.879274,-0.265178,-0.395673
0.109836,0.023528,0.272337,-0.501968,-0.851226,0.153111
0.773068,-0.668221,0.124689,0.425957,-0.586253,-0.689107
-0.058457,-0.379642,0.825265,-0.334678,-0.801162,0.496115
0.050836,-0.114634,0.475712,0.454678,0.524251,-0.720020
-0.018397,-0.106489,0.453160,0.802167,-0.510349,0.309956
0.183787,-0.273448,0.439964,-0.131915,-0.834978,0.534238
-0.008453,-0.260077,0.167831,-0.575966,0.554046,-0.601079
-0.745490,0.484721,0.647588,-0.710698,0.304526,-0.634170
-0.679523,0.842039,0.142338,0.758478,0.631432,0.161259
-0.418121,0.107520,-0.070842,0.967156,0.206860,-0.147713
-0.207372,-0.365758,0.064142,0.720025,0.130495,0.681568
-0.553756,-0.322904,-0.948033,0.035599,0.191029,0.980939
0.244457,-0.600854,-0.305062,-0.317567,-0.091274,0.943833
0.371674,-0.616709,0.942558,-0.240925,-0.388832,0.889250
0.043508,-0.417955,0.838951,-0.269978,-0.952552,-0.140561
-0.210712,-0.529976,-0.909180,-0.233227,0.166156,0.958122
-0.757248,-0.422668,-0.973771,-0.043910,0.015336,0.998918
-0.242787,-0.316731,-0.025738,0.381538,0.713617,-0.587520
0.670961,-1.000000,-0.292724,0.314170,0.262029,0.912490
-0.309481,-0.297020,-0.171712,0.965851,0.244498,0.085753
-0.335172,-0.289994,-0.411611,0.702768,0.710549,0.035168
-0.268334,-0.490977,-0.919230,-0.021557,0.257269,0.966099
-0.556514,0.682712,0.650406,-0.064587,-0.733622,0.676481
-0.171449,-0.376388,0.026025,-0.249052,0.668530,-0.700743
-0.024129,0.242856,0.179066,0.449301,0.787422,-0.422013
-0.065642,-0.317505,0.865425,0.023045,-0.863376,0.504034
0.285387,-0.014953,0.590391,0.585113,0.810197,0.034993
-0.647954,0.229401,0.609838,0.910193,0.180426,-0.372821
0.207374,-0.069206,0.534093,0.801512,0.493980,0.336991
-0.459631,-0.236427,-0.953671,-0.033909,0.091327,0.995244
-0.208969,0.301566,0.356498,0.432078,0.896023,-0.102232
-0.272832,-0.155087,0.308903,-0.812655,0.194569,0.549304
-0.311658,-0.646025,-0.910814,0.030521,-0.249692,0.967844
-0.549619,0.805530,0.071169,0.856757,0.498330,-0.132795
0.434231,-0.304046,0.457899,-0.005173,-0.049018,0.998785
0.288581,-0.556200,0.880378,-0.767938,0.100032,0.632665
-0.054900,-0.291533,0.182661,0.274518,-0.954734,-0.114553
0.292791,0.255882,0.675287,0.905678,-0.175252,-0.386050
-0.731194,0.233168,0.312048,-0.252185,-0.710850,0.656578
-0.150042,-0.530316,0.755362,0.453562,0.853127,-0.257790
0.339672,0.115665,0.655595,0.537887,0.715937,-0.445098
-0.386043,-0.044609,-0.191404,0.862953,0.218288,0.455701
0.245183,-0.273537,0.792826,0.898461,0.123197,-0.421415
0.088865,-0.460035,0.714344,0.070620,0.776916,0.625632
-0.424579,0.464152,0.029375,-0.620289,0.472223,-0.626296
-0.476904,0.457037,0.264575,0.597832,0.275421,0.752822
-0.265574,-0.150201,0.702496,0.257733,-0.115557,-0.959281
-0.225588,-0.070922,0.099604,-0.353250,0.518910,-0.778426
-0.562101,-0.237023,-0.949953,-0.157878,-0.020322,0.987250
-0.468703,-0.294446,0.689096,0.841921,0.424030,0.333719
0.006930,0.009471,-0.323324,-0.313592,-0.733219,0.603366
-0.607532,0.736703,0.659558,0.613390,-0.635531,0.468885
0.218477,0.098522,0.603587,0.680634,-0.530239,0.505553
-0.282774,0.079836,-0.046819,-0.045465,-0.925601,0.375760
-0.157300,0.266166,0.657434,-0.398888,-0.553366,0.731215
0.220437,0.121921,0.605753,-0.180295,-0.981718,0.061027
0.268478,0.250054,0.597091,0.790852,-0.611900,-0.011488
-0.476033,-0.546428,-0.935981,0.358788,-0.194287,-0.912975
0.116296,-0.489261,0.834375,-0.382508,-0.167189,0.908700
0.111216,0.124751,0.569678,0.234334,-0.043302,-0.971191
-0.339816,-0.206086,0.195081,0.561302,0.746977,-0.356322
-0.012664,-0.418980,0.772766,0.088337,0.936291,-0.339934
0.279873,-0.260768,0.074846,0.064091,-0.938395,0.339570
-0.393591,-0.270791,-0.946317,-0.111684,0.106290,0.988043
-0.479807,0.724362,0.591739,0.768197,-0.450846,0.454545
0.258972,-0.521062,0.876456,-0.677519,0.460754,0.573301
-0.687578,0.384789,0.631654,-0.794060,0.306969,-0.524632
0.512827,-0.529291,0.078400,-0.070376,0.124729,0.989692
-0.299393,-0.045896,0.647016,-0.566438,-0.804525,0.178570
-0.167895,0.141549,0.588144,0.947564,-0.070856,0.311613
-0.188578,-0.442808,-0.411121,-0.233460,0.790394,-0.566369
-0.385536,-0.139231,-0.013605,0.664927,0.666909,-0.336311
-0.300263,-0.166229,0.476121,0.988110,-0.149608,0.035442
-0.332777,-0.314591,-0.523308,0.985508,0.004433,-0.169569
-0.324794,-0.330704,-0.635862,-0.671839,-0.699385,0.243910
-0.674879,0.278936,0.156147,-0.110865,0.946732,-0.302335
-0.195399,0.326592,0.662500,-0.656154,-0.418435,0.627992
-0.702963,-0.432095,-0.962455,-0.402943,0.108143,0.908814
-0.388584,0.193489,-0.010295,-0.790920,-0.545598,0.277070
-0.250625,-0.215084,0.283327,0.358522,0.929752,-0.083804
-0.729090,0.302937,0.509090,-0.602558,0.796708,0.046694
-0.483362,0.323595,0.664665,0.777506,0.595929,-0.200881
-0.143365,0.284769,0.675328,-0.598102,-0.620206,0.507562
0.238289,0.390444,0.256649,0.316453,-0.200902,-0.927090
-0.474000,-0.287766,0.699432,0.869572,0.492192,0.039893
-0.078268,-0.453611,0.595294,0.858737,-0.145316,-0.491379
-0.125005,0.245597,0.158312,-0.689034,0.125626,-0.713758
-0.158967,-0.090806,-0.280508,0.866909,-0.440181,-0.233901
-0.120070,-0.244310,0.664665,-0.659655,-0.497723,-0.563140
0.577850,-0.245854,0.459983,0.486413,0.856039,0.174930
-0.411951,-0.029182,-0.157004,0.989864,0.032470,0.138259
0.344606,0.074265,0.252033,-0.536264,0.121333,0.835284
0.259479,0.039383,0.286677,0.037074,-0.992091,0.119919
-0.553903,0.335077,0.423132,-0.611000,0.764655,-0.204894
-0.153596,-0.245336,0.409691,-0.498447,0.752267,-0.430866
0.271164,0.367474,0.255260,-0.268566,-0.002281,0.963259
0.279073,-0.148318,0.376067,-0.202901,0.976228,0.076219
-0.231105,-0.185082,-0.324018,-0.106612,-0.573614,0.812158
-0.060634,-0.317333,0.760959,0.848020,0.302160,0.435386
