-0.613266,0.140441,0.669795,0.978953,0.025974,0.202426
0.436813,0.018946,0.777383,-0.469664,0.675470,-0.568468
-0.781283,0.138977,0.672690,-0.759446,0.361992,-0.540558
0.626069,-0.738148,0.396914,-0.389355,0.312948,0.866294
-0.987379,-0.776530,0.820585,-0.860756,0.448765,-0.240228
0.366833,-0.291535,0.838618,-0.740251,-0.667395,-0.081313
-0.660090,0.155078,0.121849,-0.173941,-0.984386,-0.027005
-0.522058,0.278523,-0.689377,0.146627,0.942178,0.301333
-0.691488,0.418881,0.478367,-0.517445,-0.721964,0.459367
-0.438569,-0.445554,0.506915,0.726602,-0.665846,-0.169407
0.120583,-0.033261,0.732250,0.700651,0.564851,0.435926
0.290185,0.396436,0.658112,0.728231,-0.342659,-0.593519
-0.451200,0.526550,0.530408,0.003422,-0.828780,0.559563
0.631154,0.167765,0.496247,-0.098567,-0.901748,-0.420875
-0.432959,0.171343,0.774843,-0.638635,-0.143013,-0.756104
0.929143,-0.129055,0.461121,0.357584,-0.767287,0.532357
-0.008511,0.233795,0.807810,0.999312,0.027172,0.025244
-0.288086,0.844188,0.460334,-0.345985,0.935572,0.070709
-0.265284,0.380824,0.656435,0.456999,-0.343181,-0.820597
0.050250,-0.296903,0.558067,0.544679,0.833096,-0.096317
0.170394,0.384564,0.698902,-0.654292,0.737771,-0.166120
-0.134264,0.174433,-0.960658,0.228020,0.243357,0.942754
-0.248798,0.370902,-0.970538,-0.027368,0.356230,0.933997
0.580112,-0.121087,0.573916,0.975653,-0.099881,-0.195257
0.527850,-0.382125,0.808470,-0.588986,0.268098,0.762377
0.582039,0.065950,0.660474,-0.376682,0.920096,-0.107398
-0.441555,-0.562006,0.059902,-0.179028,0.847743,0.499281
0.698158,-0.589168,0.628599,-0.554204,0.484447,-0.676882
-0.114791,0.357240,0.800394,0.941887,-0.305522,-0.139659
0.245811,-0.689030,-0.269033,-0.446485,-0.894754,-0.008112
-0.592562,0.114582,0.371820,0.987381,-0.110495,0.113443
0.349298,-0.002359,0.885986,0.901190,-0.257637,-0.348539
-0.464357,0.407008,0.509810,-0.400264,0.600583,-0.692162
-0.118827,-0.716840,0.851597,-0.650402,0.708025,0.275096
0.682893,-0.016507,-0.013626,-0.084182,0.513315,0.854061
0.055517,-0.290721,-0.474151,0.902531,-0.334527,-0.271161
-0.282991,-0.004960,0.592888,-0.100268,0.635242,-0.765777
-0.385771,-0.242092,-0.251533,-0.188654,-0.981783,0.022637
0.224766,-0.277709,0.394120,0.003853,0.981599,0.190917
-0.382795,-0.195252,0.503384,0.832942,-0.537712,0.130665
0.129533,0.151988,0.782945,-0.740201,-0.482968,-0.467808
0.322632,-0.133934,0.932415,0.891871,0.354398,0.281014
0.189867,-0.476946,0.509429,0.986014,0.129522,-0.104883
-0.700609,0.104659,0.690749,-0.398675,-0.901769,-0.166946
0.213012,-0.564771,0.341342,-0.426182,-0.870606,-0.245793
0.241080,-0.084819,0.918623,0.874032,0.424860,0.235717
-0.420852,0.120272,0.751451,0.283241,-0.778777,0.559715
0.513815,-0.198667,0.790768,-0.073848,-0.996333,0.043206
0.159700,-0.308775,0.759909,0.555336,0.821288,0.130722
-0.077259,-0.311701,0.687015,0.625430,-0.141913,0.767267
-0.205828,0.646905,0.538815,-0.635821,0.262367,-0.725876
-0.276857,0.071968,0.739260,0.682918,0.620246,0.385900
0.005353,0.058145,-0.961166,0.188617,0.088772,0.978030
-0.403145,-0.228755,0.439533,-0.670671,0.460771,0.581283
0.412084,0.206635,0.885555,-0.482341,0.860065,0.166239
0.056213,0.527525,-0.978005,0.005158,0.199176,0.979950
0.309486,0.392860,0.683485,-0.724096,-0.609764,0.322292
0.597476,-0.281288,0.408216,-0.505782,0.731648,-0.457029
0.188282,0.000080,0.940771,0.920058,0.370809,0.126469
0.013413,-0.268440,0.806261,0.441146,0.894440,-0.073257
0.492769,0.582175,0.156518,-0.474380,0.880307,-0.004706
-0.021314,0.221272,0.774055,-0.718770,0.693879,0.043611
0.034813,-0.456291,0.647825,-0.115382,0.820621,0.559703
0.538544,-0.149060,0.757521,-0.339945,-0.915947,-0.213256
0.385782,-0.633405,0.397498,-0.102187,-0.778081,0.619797
0.656932,-0.488818,0.731056,0.950164,0.240521,0.198336
0.593622,-0.788241,0.677186,-0.678420,0.515959,0.523004
0.146543,-0.167440,0.535361,-0.032177,0.897404,0.440035
0.261420,0.068390,0.241399,0.645604,0.763510,-0.015747
0.494343,-0.355451,0.281529,-0.412510,-0.064465,0.908669
0.200914,-0.304058,0.722090,0.677698,-0.709354,0.193756
0.627997,-0.434496,0.671573,0.299162,0.926409,-0.228623
0.060077,-0.477596,-0.520325,0.934286,0.252120,-0.252082
0.051653,-0.323738,0.799048,-0.075369,0.858200,0.507752
0.984575,-0.490283,-0.270582,-0.646396,-0.627405,-0.434206
-0.128654,-0.121737,-0.051343,0.983281,0.148154,0.105869
0.904596,0.174269,0.627786,0.913431,0.402790,0.058338
-0.292293,0.510612,0.544479,-0.152335,-0.640396,0.752786
0.610462,-0.014721,0.613588,0.871820,-0.235176,0.429676
0.625888,-0.391885,0.686380,0.481762,0.764205,-0.428831
0.013949,-0.447344,-0.245489,0.094086,-0.233068,0.967898
-0.083051,-0.302107,0.801943,-0.471295,-0.819204,-0.326781
-0.060067,0.061071,0.798667,0.069293,0.540810,0.838286
-0.209682,-0.709035,0.879992,-0.040387,-0.992417,0.116092
0.243360,-0.081402,0.883243,-0.202731,0.582815,0.786909
-0.295622,0.837195,0.424573,0.196689,-0.876524,0.439339
0.206706,-0.288282,0.886926,0.825741,-0.530741,0.190960
0.953348,0.176222,0.603175,0.966287,0.251862,0.053440
0.703596,-0.689516,0.698165,0.797551,0.402938,-0.448948
0.572051,-0.327316,0.717239,0.653517,0.756470,-0.025855
0.004475,-0.265023,-0.439177,0.434216,0.832247,-0.344704
-0.368065,-0.657802,0.919462,-0.503984,-0.856680,-0.109998
-0.189160,-0.318695,0.461502,-0.101428,0.956061,-0.275063
0.555383,-0.340003,0.671217,0.776521,0.615523,0.134706
0.042360,0.987149,-0.981078,-0.283550,0.084445,-0.955232
0.426643,0.642676,-0.121697,0.868409,-0.458940,0.187723
0.318425,0.034886,-0.178995,-0.690778,0.674187,-0.261337
0.774625,-0.677483,0.749038,0.860344,0.497963,0.108813
-0.839872,0.229241,0.715791,-0.266955,0.789101,-0.553222
0.417876,0.316580,0.628395,-0.307599,0.194101,-0.931508
0.172856,-0.042530,0.179630,-0.733953,-0.662496,-0.149709
0.100243,-0.525250,0.359172,0.835156,0.524562,-0.165373
-0.502585,-0.539075,0.393028,0.979331,-0.123204,0.160408
0.110766,-0.349597,-0.422541,0.381389,0.924227,-0.018626
0.293000,0.352850,-0.468411,-0.679641,0.649033,0.341824
0.312986,-0.233470,-0.955299,-0.072142,0.689670,0.720522
0.840751,-0.112467,-0.336364,0.337145,0.938558,-0.073776
0.321765,-0.357730,0.781472,-0.259344,0.941112,0.216906
0.964930,0.094737,0.481643,0.940785,0.272328,0.201893
-0.491184,-0.059282,0.617601,-0.607213,0.745141,-0.275787
-0.446115,-0.027079,-0.666417,-0.252592,-0.293586,0.921957
0.027630,-0.612100,0.286126,-0.714846,0.598878,0.361027
0.286331,0.059932,0.661693,-0.754214,-0.161991,0.636333
-0.100757,-0.413027,0.341063,0.130506,-0.724763,0.676526
0.344385,-0.184191,0.796762,-0.562788,0.692748,-0.450966
0.562395,-0.827273,0.450251,0.088144,0.114845,0.989465
-0.427521,0.758803,-0.214528,0.863364,-0.450322,0.227624
-0.195476,-0.535497,0.708070,-0.593078,0.278082,0.755598
0.615718,-0.261122,0.713175,-0.625720,-0.742616,-0.238738
-0.405950,-0.172808,-0.568887,0.903417,0.428233,0.021334
0.899853,-0.050174,0.646682,-0.546175,-0.825708,0.141066
0.264760,-0.309912,0.710229,0.745540,0.542934,0.386513
0.749018,-0.673254,-0.078062,-0.527434,-0.843962,0.097677
-0.184428,-0.162397,0.858810,-0.392040,-0.104268,0.914020
-0.050945,0.348621,0.705073,0.126976,0.314662,-0.940673
-0.082697,-0.384239,-0.854467,0.568289,-0.803862,-0.175652
0.672198,-0.289257,0.824954,0.857098,0.507574,0.088044
-0.543275,-0.480361,0.530307,-0.511127,0.856544,-0.071285
-0.296329,-0.451737,-0.474329,-0.451433,-0.841510,0.296765
-0.734812,-0.372692,0.267153,-0.673287,0.453539,0.583941
0.044640,0.915426,-0.988291,0.253312,-0.025611,0.967045
-0.089013,0.084329,0.315080,0.803132,0.035169,0.594762
0.215473,-0.123851,0.944403,0.887311,-0.124519,0.444044
0.809181,-0.518420,0.747362,0.423482,-0.376335,0.824036
0.735508,-0.649020,0.248486,-0.791425,0.065301,0.607768
-0.806023,-0.542976,-0.604242,-0.056975,0.992996,-0.103499
-0.157590,0.099781,0.778983,0.559280,0.390113,-0.731449
0.430326,-0.113604,0.809232,-0.197152,-0.954556,0.223504
0.430679,0.758964,-0.985243,-0.134870,0.260443,0.956023
-0.909670,-0.793606,0.822440,-0.779401,0.442188,-0.443852
-0.385246,0.763031,0.559464,-0.116029,0.950906,0.286907
0.436117,-0.163700,0.890482,-0.693588,-0.019053,-0.720120
-0.625534,-0.389771,0.548162,-0.263706,-0.028364,-0.964186
0.650092,0.072782,0.678456,0.034778,0.994774,0.095998
0.015694,-0.036026,-0.329075,0.848466,0.222397,-0.480256
-0.882843,-0.692120,0.823786,0.982063,-0.029362,0.186251
0.225472,0.055706,0.892692,-0.704936,0.315240,0.635365
0.152152,0.409611,-0.972443,0.048891,0.300596,0.952498
-0.202841,0.204196,-0.965077,0.191565,0.385626,0.902549
-0.264760,0.803367,-0.988037,0.228616,0.156628,0.960834
-0.771991,-0.707407,0.838441,-0.683308,0.705094,0.189559
0.402964,0.418395,0.699943,-0.429373,0.136079,-0.892816
0.003597,-0.187932,0.806058,0.899032,0.339291,0.276810
-0.003415,-0.333171,0.350918,0.865414,-0.496383,0.068285
0.259846,0.145481,0.726052,0.684418,0.059932,-0.726623
0.491013,-0.719279,0.625602,-0.650774,0.745903,-0.141855
-0.344556,0.063349,-0.392190,0.102620,0.985596,0.134426
-0.088489,-0.414817,-0.750765,-0.613415,0.717412,0.330215
0.231606,0.561681,0.636345,-0.177002,0.972441,0.151752
0.116900,-0.239653,0.759909,0.076474,-0.966746,-0.244035
0.603792,-0.116857,0.480399,0.339717,-0.938209,0.066009
0.587477,-0.225340,0.801943,0.247963,0.918063,0.309313
-0.606768,-0.530292,0.873973,0.311261,-0.950321,0.002754
-0.143556,0.113279,0.692222,0.410655,-0.802230,0.433348
0.526448,-0.753924,0.526776,-0.708628,-0.425205,0.563069
0.400683,-0.015045,0.884818,0.614261,0.628184,0.477565
0.841447,-0.300643,0.692527,-0.457126,-0.142939,-0.877841
-0.132679,-0.477760,0.885910,-0.177075,0.214961,-0.960435
0.810583,0.292184,0.835621,0.101567,0.805241,0.584184
-0.281246,-0.506709,0.865947,0.719861,0.448033,0.530157
0.419803,-0.050663,0.863737,0.997537,0.042304,0.055951
0.191965,0.534032,-0.977624,-0.034200,0.095838,0.994809
0.643433,-0.607220,0.705251,-0.527424,-0.617091,0.583971
-0.033764,-0.312027,0.608712,0.597102,0.556783,0.577462
-0.179686,-0.340489,0.411188,0.837123,-0.525291,-0.152626
0.555030,0.067089,0.659966,0.271256,-0.834121,0.480273
-0.090769,0.005773,0.721151,-0.492946,-0.453943,0.742253
0.356835,-0.244368,-0.235482,0.101251,0.247655,0.963543
0.521887,-0.943075,0.126218,0.483773,0.870510,-0.090419
0.283879,0.255915,0.681123,-0.518094,0.834712,-0.186642
0.759188,-0.257054,0.648028,0.296164,0.455551,0.839500
-0.547664,0.661867,0.546155,-0.059432,-0.763536,0.643024
-0.298952,0.308611,0.654988,0.975624,-0.186220,-0.116107
0.189342,-0.115718,0.906762,0.671736,0.320962,-0.667648
0.515217,-0.037815,0.653819,-0.381136,0.457689,-0.803278
-0.322279,0.713914,0.559921,0.799750,0.230329,0.554391
-0.524692,-0.470277,0.469249,-0.618558,0.567377,-0.543571
0.318778,-0.109703,0.245971,0.941955,-0.191734,-0.275608
-0.059542,-0.010817,-0.377256,0.770472,0.347033,0.534735
-0.361395,-0.081402,-0.740428,-0.468107,0.208541,-0.858712
0.067089,-0.307961,-0.560582,0.714928,-0.418843,-0.559865
0.598707,0.272016,0.613995,0.922074,-0.364022,-0.131404
0.193549,0.039929,0.883650,-0.755164,0.649503,0.088733
-0.502767,-0.076522,0.407378,0.876742,-0.476004,0.068878
-0.535557,-0.008052,0.442860,-0.276990,0.547230,0.789820
0.385600,-0.123040,0.829449,0.801350,-0.566363,-0.192538
0.527668,0.404894,0.203048,0.839331,0.003471,0.543610
0.791989,0.064160,0.453857,-0.072228,-0.267897,0.960736
-0.385075,0.088883,-0.645438,-0.000865,-0.905263,0.424850
0.408230,-0.756525,0.628370,0.818420,-0.548333,0.171810
-0.053579,0.809221,0.535209,-0.799196,0.107436,-0.591391
0.586075,0.206310,0.748327,0.097254,-0.952076,0.289988
-0.777430,-0.658617,0.500260,0.934319,-0.153880,-0.321511
0.586428,-0.309751,0.585777,0.827348,-0.532091,0.179929
0.245116,0.749206,-0.983313,0.054897,0.232705,0.970997
-0.312290,-0.301944,0.696387,0.140951,0.696894,-0.703187
0.123569,-0.084819,-0.233780,-0.298987,-0.194600,-0.934204
-0.208632,0.143694,0.705607,0.517981,0.403435,0.754279
0.098659,0.076847,-0.539806,0.939087,-0.285810,0.190860
0.752348,-0.143531,0.638860,-0.118953,0.595028,0.794853
-0.099536,-0.071643,0.248816,0.983517,-0.025707,0.178981
0.691135,0.216882,0.635761,0.980410,-0.122326,-0.154379
0.395598,0.190859,-0.970563,0.017873,0.140852,0.989869
-0.358419,0.727086,0.565611,0.166024,0.086863,0.982289
0.754809,0.422623,0.620420,0.854320,0.204409,0.477865
-0.163553,0.938195,-0.988342,0.010772,-0.168096,0.985712
0.003072,0.440839,0.768569,0.955350,-0.266001,-0.128642
-0.290366,-0.683176,0.316172,-0.419887,0.907568,-0.003937
-0.329654,-0.369927,0.879053,-0.579160,0.714860,-0.391853
0.239496,-0.214443,0.953927,0.979451,-0.200377,0.022893
-0.828289,-0.676993,0.821500,0.947843,0.252567,0.194433
0.705694,-0.357080,0.790437,-0.439540,0.747392,0.498207
-0.055859,0.055867,0.838949,-0.397207,0.886918,-0.235802
-0.702011,0.539236,0.414160,-0.399688,-0.173840,-0.900016
0.697452,-0.478410,0.703372,0.964934,-0.149075,-0.216051
-0.457859,-0.688380,0.695803,0.601770,0.487886,0.632330
-0.423132,0.760264,0.552429,0.184066,-0.968594,-0.167168
0.511706,-0.679433,0.413550,0.781433,0.492533,0.383110
0.201439,-0.097992,0.891269,0.824447,-0.560417,-0.078868
-0.044105,0.994957,-0.981993,-0.202592,0.128699,-0.970769
0.498025,-0.231684,0.726510,-0.092003,-0.947288,0.306888
-0.110231,-0.066275,-0.521849,0.842199,-0.415522,-0.343572
-0.452603,0.209400,0.770931,0.296209,0.667591,0.683068
0.599231,-0.772790,0.666772,-0.640232,0.640226,0.424516
-0.297025,-0.280313,-0.116820,-0.380026,-0.155515,-0.911809
-0.304744,-0.200781,0.651051,0.899505,-0.215191,0.380242
-0.092342,0.120597,0.878468,0.159477,-0.986638,-0.033365
-0.188635,-0.389932,0.855965,-0.598950,0.513342,0.614604
0.301243,0.175247,0.627278,-0.435767,0.375426,-0.818023
0.298610,0.135398,-0.435139,0.836461,-0.532069,0.131287
0.228801,-0.097666,0.022490,0.887140,0.231785,0.399073
0.885477,-0.100595,0.491447,0.991071,0.000609,0.133333
0.379112,0.264211,0.713988,-0.201148,-0.794209,-0.573386
-0.720425,-0.112954,-0.250721,0.437525,0.804683,-0.401320
-0.375076,0.299667,0.608381,-0.554744,0.797569,0.236946
-0.752701,0.137512,0.694152,0.874558,-0.308942,0.373768
0.571516,-0.438725,-0.074481,-0.057989,-0.652471,0.755592
0.313169,-0.271366,0.042758,0.986782,0.004139,0.161998
0.942300,-0.166951,0.601676,0.643416,0.072756,-0.762051
0.013949,0.745141,-0.980494,0.195589,0.096077,0.975968
0.325790,-0.436936,0.426859,0.385254,-0.189520,0.903140
0.117071,0.246156,0.811061,-0.580149,0.773408,0.255474
-0.097609,-0.225827,-0.367071,0.255829,-0.519600,0.815210
-0.426643,0.223225,0.774335,-0.377033,0.342706,-0.860464
0.288611,-0.595673,0.494698,0.479478,-0.751736,0.452763
-0.249676,0.826461,0.585320,0.775629,-0.498974,-0.386554
0.321059,-0.413677,0.759477,-0.331176,0.793618,-0.510386
0.016229,-0.035051,0.924541,-0.692967,0.708257,0.134796
-0.044105,-0.610799,0.655546,0.183060,0.928996,0.321645
0.454177,0.429128,0.692552,0.200425,0.541961,0.816155
0.731130,-0.276245,0.812153,0.920092,0.301886,0.249589
0.364907,0.049199,0.521011,-0.260180,0.497166,0.827727
0.130753,-0.362934,0.609042,0.008644,0.963852,0.266299
0.260724,0.018135,-0.476132,0.794635,-0.606922,0.014178
0.019034,0.644627,0.749063,0.858666,-0.487316,-0.158796
-0.017974,-0.465073,0.805067,0.493158,-0.737146,-0.461964
-0.423656,-0.634383,0.681250,0.730411,0.521000,0.441655
0.526265,0.367326,0.617576,-0.323798,-0.292413,0.899805
-0.012365,0.339674,0.766639,0.646146,-0.268729,-0.714339
0.100243,0.412540,0.109658,0.927831,-0.227024,-0.295956
0.273527,-0.622185,0.781167,-0.017979,-0.998030,0.060106
-0.181966,-0.037815,-0.299689,0.009542,0.999748,0.020304
0.473820,-0.593397,0.456854,0.966069,-0.006175,0.258210
0.451725,0.474831,0.699257,0.503926,0.307622,0.807110
0.336667,0.316744,-0.100362,0.765533,-0.546425,-0.339675
-0.647811,-0.090673,0.269414,0.872930,-0.011650,0.487706
-0.600109,0.194763,0.715233,0.202397,0.736441,0.645515
0.259675,-0.166789,0.898635,-0.465934,0.329577,-0.821148
-0.141629,0.904854,0.738421,0.819370,0.492024,-0.294186
-0.211608,-0.258844,-0.214376,-0.623175,0.767912,-0.148203
-0.307901,0.510124,-0.976303,-0.139757,0.191929,0.971407
-0.846713,-0.441490,0.271065,-0.852973,0.159206,0.497082
0.349117,0.144995,0.803518,0.635993,0.488145,-0.597685
-0.071650,-0.249736,0.669820,-0.658532,-0.749909,-0.063023
-0.137240,-0.588355,0.713328,-0.308259,0.067510,0.948904
0.565028,-0.209239,0.541406,0.981437,0.173056,-0.082656
-0.039202,-0.207775,-0.156670,0.405520,0.700095,0.587724
-0.843897,0.091484,0.432523,0.456501,0.599026,0.657856
-0.248263,0.434982,-0.971401,0.026726,0.247619,0.968489
0.201268,0.375620,0.753838,0.880560,0.356894,0.311836
0.315802,-0.057167,0.855686,0.602027,-0.758063,0.250806
0.285806,0.037651,0.661871,-0.498416,-0.197551,0.844130
0.095683,-0.473692,-0.096171,-0.552339,0.627715,0.548540
-0.980881,-0.721883,0.840650,0.787645,-0.614071,0.050317
-0.011487,0.371880,0.643177,0.040645,-0.300590,0.952887
0.151103,0.522971,0.734155,0.783455,0.586890,0.204351
-0.074626,0.488818,0.537545,0.744554,-0.603750,-0.284824
0.488915,-0.515978,0.374589,0.602408,-0.717603,-0.349500
-0.111462,0.698787,0.689504,0.456355,0.883466,-0.105962
-0.491537,-0.438236,0.665223,-0.148300,0.111098,0.982682
-0.499256,-0.703017,-0.157229,0.225037,0.806878,0.546174
0.110413,-0.190209,0.875217,-0.188403,0.971824,-0.141642
-0.109353,-0.068554,0.818782,-0.329634,-0.866898,0.373938
0.507499,-0.078312,0.714344,-0.470108,0.773903,-0.424349
0.022192,-0.009028,0.757699,0.806781,-0.123211,0.577861
-0.056042,0.145645,0.684399,0.756653,-0.183516,-0.627534
-0.572222,0.167765,0.658950,-0.523637,0.160468,-0.836693
-0.213536,-0.301782,0.727195,0.877856,0.456256,0.145601
0.688331,0.130682,0.659509,-0.125943,0.676607,0.725494
0.368942,0.108399,0.348098,0.769991,-0.388224,0.506356
0.080246,0.560216,0.683993,0.660857,0.703420,-0.261666
0.542227,0.492396,0.684704,-0.652157,0.151445,-0.742802
0.260724,-0.258354,0.713201,-0.750861,0.465686,-0.468342
0.070076,-0.246646,0.832243,0.837572,-0.089343,-0.538973
0.122510,-0.513538,0.674875,0.372157,-0.916910,-0.144138
0.189160,0.151988,0.636117,0.419980,0.906289,0.047512
-0.340873,0.062860,0.741571,-0.214755,-0.976662,0.003379
0.315802,-0.118647,0.850810,0.690995,0.715916,0.099953
0.856359,0.295438,0.568303,-0.626961,-0.761760,0.163225
0.418925,0.188745,0.862493,-0.131484,-0.936186,0.325988
-0.112340,-0.314630,0.390310,-0.122273,-0.976807,0.175778
0.133033,-0.372367,0.587885,0.196992,0.964911,-0.173611
-0.518375,0.215093,0.761686,0.466452,-0.589981,0.659049
0.590989,-0.041880,0.635609,0.832316,-0.214487,0.511122
0.888978,0.230544,0.552175,0.874089,0.372585,-0.311688
0.007451,0.147435,0.774868,0.911583,0.121517,-0.392746
0.114974,0.299178,0.775656,0.814254,0.580505,0.002082
-0.564504,0.027729,0.658112,0.079061,-0.936648,0.341234
0.462602,-0.192974,0.748581,0.157736,-0.712711,0.683493
0.373856,-0.359030,0.677516,0.016417,0.213511,0.976803
0.412084,-0.400340,0.649121,-0.216176,0.868606,-0.445860
0.587831,-0.377734,0.555375,-0.674436,0.703912,-0.222809
-0.002537,0.070017,0.836993,-0.245023,0.917714,-0.312673
0.377014,-0.138977,0.858962,0.920608,0.111430,-0.374250
0.580637,-0.874602,0.422922,-0.710435,-0.403470,0.576623
0.929678,-0.047084,0.461325,0.909522,-0.413855,0.038640
0.764626,-0.420834,0.644904,0.949049,-0.314802,-0.014352
0.420681,-0.049363,0.666925,0.884294,-0.135391,0.446872
-0.511888,0.125151,0.630808,0.913379,-0.071718,0.400744
-0.357359,0.202732,0.785790,-0.629611,0.548171,-0.550544
0.980357,-0.070505,0.640028,0.915631,0.097425,0.390035
0.765504,-0.373180,0.682799,-0.306103,0.950553,-0.052434
0.578357,0.394974,-0.006946,0.283014,-0.790724,0.542825
0.299306,-0.204032,0.878113,0.834227,-0.510375,0.208766
0.155311,0.239813,0.707181,0.905122,0.310955,0.289932
-0.011658,-0.104821,0.828815,-0.622266,0.698182,-0.354014
0.777782,0.213954,0.831354,-0.770312,0.479359,0.420517
-0.387708,-0.414491,0.451800,0.149480,-0.809548,0.567704
-0.152323,-0.540051,-0.229234,0.920686,0.376075,0.104426
0.637471,0.321784,0.641349,0.703840,-0.446987,-0.552098
0.589415,-0.603806,0.274062,0.653772,-0.077314,0.752732
0.270198,0.240302,-0.973966,0.041511,0.145348,0.988509
0.068845,-0.013418,0.814972,0.808637,0.360559,-0.464869
0.964052,-0.153778,0.642111,0.995061,0.000644,-0.099268
0.810230,-0.473367,0.717925,-0.507037,0.129254,0.852178
0.113571,0.084654,0.700248,0.781400,-0.472894,-0.407167
0.438397,0.453686,-0.591669,0.847188,-0.295910,0.441259
0.758834,0.249085,0.617271,-0.218803,-0.880221,-0.421112
0.325094,-0.552248,0.514483,-0.800162,-0.013564,0.599630
0.961590,-0.152314,0.655140,0.977058,0.203141,0.063970
0.370516,-0.269577,0.667712,0.831973,0.023811,0.554305
-0.223887,-0.667236,0.848498,-0.119492,-0.964026,-0.237437
-0.075332,-0.341465,0.478011,-0.157996,0.975982,-0.149989
0.516267,-0.591608,0.455788,0.966069,-0.006175,0.258210
0.549774,-0.351711,0.810121,0.126903,-0.390789,-0.911690
-0.092171,0.027404,0.692679,0.024533,0.143746,0.989311
0.067260,-0.302757,0.754118,-0.290403,-0.420041,0.859786
-0.525216,-0.357404,0.543717,0.201924,-0.300574,0.932138
-0.480843,-0.640237,0.367706,0.136367,-0.720509,0.679905
0.140933,0.131820,0.824217,0.387967,0.093542,-0.916914
0.462773,0.335121,0.678024,-0.654356,0.662888,-0.363866
-0.430326,-0.770675,0.362144,-0.163069,-0.804096,0.571697
0.869333,0.005448,0.681199,0.275745,0.797283,0.536939
0.068663,-0.094902,0.022338,-0.655803,-0.283570,-0.699651
0.718851,-0.581036,0.713226,0.922168,-0.308239,-0.233655
-0.115316,0.050174,0.730396,-0.644525,0.491831,-0.585396
-0.400683,-0.705782,0.683434,0.864161,0.431008,0.259725
0.662199,0.038790,0.649756,0.562644,0.795122,-0.226302
0.567833,-0.109864,0.760950,0.795630,-0.021482,0.605402
-0.460664,-0.157193,0.535615,0.490644,0.871149,-0.019188
0.082173,0.039929,0.127208,0.835159,-0.000855,0.550008
0.847066,-0.352687,0.664969,-0.639324,-0.410783,0.650017
0.346493,-0.388632,0.608229,0.865875,0.492189,-0.089502
-0.400158,-0.478735,0.528453,0.701708,-0.628850,0.334893
0.362798,-0.065625,0.743196,0.373806,-0.844866,0.382715
-0.402610,0.302107,-0.415836,0.099374,0.208479,0.972965
-0.043409,-0.397415,0.881415,-0.313848,0.375583,-0.872030
0.006584,0.112953,-0.063280,0.399911,0.633229,-0.662640
0.695171,-0.503781,0.522382,0.723265,0.486203,-0.490403
0.053408,-0.215908,-0.302457,0.914835,-0.386354,0.117506
0.017631,0.046270,0.817258,0.689556,0.414723,0.593731
-0.254761,0.474181,-0.207289,0.921826,-0.125468,0.366735
-0.378940,0.368463,-0.460944,0.534683,0.836628,-0.119028
-0.588708,-0.554363,0.830440,0.441172,0.837535,-0.322340
-0.436641,-0.325852,-0.537063,0.158083,0.986764,-0.036139
-0.162504,0.178823,-0.236675,-0.668102,-0.375266,-0.642506
0.171100,0.037815,0.158143,-0.156462,0.960570,0.229836
0.568358,0.226477,0.827392,-0.428235,-0.281129,0.858826
0.332630,0.181101,0.020433,0.458896,-0.179515,-0.870166
-0.425937,-0.002684,0.481719,-0.449755,0.875462,0.176881
-0.041129,0.904040,0.578107,-0.514141,0.856661,0.042304
0.884074,-0.284216,0.328161,-0.194691,-0.642281,0.741330
0.394549,-0.150688,0.888983,-0.398283,0.902869,0.161856
-0.675698,0.367976,0.438644,0.298106,0.953867,0.035640
-0.134617,0.876391,0.640815,0.231213,0.706980,0.668371
-0.135838,-0.386842,0.697479,0.919917,-0.054843,0.388259
0.397879,0.457591,0.618312,0.469140,0.375962,0.799100
-0.054286,-0.194924,-0.168074,-0.523480,-0.837673,-0.155796
-0.734812,0.595673,0.470773,-0.132128,0.967778,0.214353
-0.246861,0.792956,-0.988495,0.173126,0.195878,0.965225
0.761822,0.180776,0.653464,0.286208,0.585158,0.758733
-0.628167,0.504919,0.161344,0.787159,-0.153575,0.597324
0.327021,0.278359,-0.379135,0.778612,0.617516,0.111527
0.599938,0.563470,0.581612,-0.171529,-0.979896,0.101891
-0.754274,-0.741724,0.114712,0.003851,0.988190,0.153186
-0.339118,-0.629503,0.680488,-0.176875,0.262152,0.948679
-0.570991,-0.361144,-0.543006,-0.042026,-0.941376,0.334730
-0.036398,-0.465885,0.804000,0.798427,-0.562582,-0.214513
0.109706,-0.306822,0.883701,-0.785732,-0.139798,0.602562
-0.011487,-0.096527,0.829551,0.509079,-0.835270,0.207759
0.924411,0.202081,0.621843,0.904901,0.369888,0.210564
-0.062528,0.904204,-0.988774,-0.117781,0.134348,-0.983910
-0.137775,0.334634,0.695016,-0.189242,0.730696,0.655951
-0.364381,-0.433846,0.468538,-0.642328,0.764157,-0.058974
0.414193,0.131008,-0.557940,-0.322667,-0.036217,-0.945819
0.297903,0.067739,0.919309,0.933489,0.049543,0.355168
0.065162,-0.091323,0.790971,0.194153,0.239578,0.951266
0.246690,-0.404083,0.018147,0.202242,-0.583593,0.786459
0.355432,-0.351875,0.719093,0.766239,0.506546,-0.395335
-0.587649,-0.210215,0.555908,-0.291041,0.486128,0.824000
0.519254,0.124339,0.795568,0.175511,-0.595003,0.784326
-0.492244,-0.772301,0.345762,0.687289,0.664649,0.293044
0.288611,-0.072619,0.867598,-0.067403,0.886884,-0.457048
0.502767,-0.242578,0.771008,-0.822669,0.382753,0.420375
-0.194952,0.082540,-0.961902,-0.121267,-0.256250,-0.958974
-0.695696,-0.374320,0.551768,0.427677,0.717353,0.549997
0.628168,-0.575018,0.652422,-0.405748,-0.835790,-0.369898
0.420862,-0.809221,0.140796,0.646189,0.568385,-0.509293
0.585722,-0.756038,0.448524,0.454304,0.373416,0.808807
-0.210206,-0.482964,0.715436,0.406191,0.289536,-0.866705
-0.229497,-0.505895,0.696387,-0.636731,0.742257,0.208872
-0.481892,0.657802,0.541787,0.180981,0.879478,-0.440186
0.100586,-0.308775,0.783783,-0.006369,-0.560182,0.828345
0.074102,-0.163211,-0.576024,0.943133,-0.327016,0.059677
-0.447689,-0.086119,0.405727,-0.642380,-0.490363,0.588975
0.607646,-0.882410,0.384799,0.213221,-0.588260,0.780056
-0.034289,0.671300,-0.982907,-0.267574,0.002445,-0.963534
0.566078,0.311701,0.825665,-0.306562,0.430155,0.849109
-0.259664,0.405544,0.652600,0.545044,-0.178472,-0.819192
-0.117424,0.030658,0.693238,0.787980,0.468181,-0.399868
0.214071,-0.115882,0.959591,0.696831,0.702818,0.143085
0.035691,0.108238,0.836104,-0.010272,-0.999903,-0.009425
-0.074807,-0.532568,0.816903,0.314320,-0.392921,-0.864185
-0.563980,-0.130844,0.423557,0.291470,0.721994,0.627510
-0.376832,-0.551109,0.328694,0.901353,0.218709,-0.373803
0.971771,0.013581,0.631951,0.964921,0.030583,0.260754
-0.746213,0.580547,0.483904,-0.032290,0.964794,0.261017
-0.520827,0.005285,-0.381116,-0.052342,0.784790,0.617548
0.662199,-0.276409,0.399759,-0.544796,0.805039,-0.234753
0.333337,-0.154917,0.896755,0.658719,0.241382,-0.712618
0.096903,-0.052127,0.877503,0.866448,0.401631,0.296582
0.568893,0.445229,-0.407886,0.777239,0.006464,0.629172
-0.773222,0.315605,-0.438568,-0.552361,0.458667,-0.696077
-0.394549,0.261283,0.424929,-0.120986,0.478405,0.869765
0.080246,-0.076848,-0.219100,-0.009041,0.987002,0.160451
0.158115,0.073432,0.851140,-0.173391,-0.290121,0.941151
0.832154,0.000894,-0.142701,-0.678540,0.329932,-0.656299
0.339128,0.133122,0.864804,-0.625141,0.739198,-0.250571
-0.566784,0.472066,0.263445,0.913323,-0.045892,-0.404643
-0.192672,0.232984,0.659763,0.858203,0.430308,0.279862
-0.198805,-0.218508,0.675611,-0.803220,0.595456,0.016434
-0.267907,-0.174758,0.721557,0.883660,0.232762,0.406161
-0.030777,-0.086119,0.799784,-0.328788,0.376450,-0.866132
-0.057968,-0.439864,-0.556848,0.996564,0.010819,0.082122
0.789184,0.341953,0.606324,0.799502,0.574641,0.174885
0.502767,-0.822559,0.146612,-0.683254,-0.689044,0.241624
0.037618,-0.008377,-0.964087,0.140416,0.273892,0.951455
-0.298952,-0.027893,0.829526,0.963636,-0.240381,-0.116718
0.630630,-0.411076,0.657502,0.770053,0.403770,0.493952
0.598536,0.151013,0.803314,-0.027144,-0.995603,0.089650
0.191622,-0.251200,0.731945,0.776152,0.471984,-0.418114
0.379294,0.371552,0.633551,0.984426,0.068447,-0.161926
-0.131630,-0.357080,0.627634,0.583786,-0.811859,-0.008813
-0.214413,-0.355290,0.707512,0.977597,0.206131,-0.042595
0.663077,-0.768886,0.643914,0.112454,-0.930475,-0.348668
-0.217218,-0.405383,0.722497,-0.552261,-0.621198,0.555986
0.493818,0.684962,-0.983999,0.156179,-0.210582,-0.965020
0.668515,0.120761,-0.125100,-0.191283,0.063622,-0.979471
0.606779,-0.672765,0.538815,0.786966,-0.465632,-0.404810
0.369820,0.093762,-0.055330,0.060600,0.976601,0.206343
0.255114,-0.195739,0.210185,0.868950,0.396904,-0.295622
-0.134264,0.082865,0.803924,0.464213,-0.243898,0.851481
-0.462602,0.117346,0.656715,0.812972,0.405817,-0.417599
0.255993,0.091973,0.889974,-0.356360,0.903901,0.236581
-0.306499,-0.470277,0.662379,0.949725,-0.061810,-0.306922
-0.468564,-0.449784,0.307740,0.694142,0.111567,-0.711140
-0.234411,-0.449947,0.706013,0.834210,-0.373568,0.405636
-0.459444,-0.630965,0.846746,0.420378,0.903872,0.079363
0.195648,-0.017646,0.844790,0.887222,0.364010,0.283433
-0.127423,0.130358,0.804381,0.771015,0.074385,0.632458
0.566260,0.464909,0.668601,0.013690,-0.830508,0.556838
-0.251945,-0.401155,-0.775325,0.150700,0.985594,-0.076772
-0.679209,0.184191,0.684069,0.822425,0.010865,0.568769
-0.126545,0.178987,0.814541,-0.649744,0.715930,-0.255495
0.923886,-0.283891,0.688133,0.789606,-0.245904,-0.562186
0.099536,0.307961,0.623189,0.640698,0.703025,-0.308644
0.301939,0.579735,0.148263,-0.857605,0.465385,0.218930
0.770064,-0.072619,0.540009,0.292380,0.871227,0.394306
0.712182,-0.255104,0.575973,0.968636,-0.159737,0.190339
0.431386,-0.548833,0.484996,-0.325091,0.750532,-0.575341
-0.232484,-0.433846,-0.690749,-0.173362,-0.969424,0.173677
0.211266,0.229894,0.695701,0.402331,0.826307,0.394140
-0.155664,0.201593,0.444308,0.812992,-0.217461,-0.540143
-0.469613,-0.309751,0.555400,-0.523270,0.075833,-0.848786
-0.534155,-0.057982,0.587682,0.422203,-0.761102,0.492412
-0.545384,0.118321,0.636345,0.822924,-0.543585,0.165260
0.369467,-0.750996,0.413398,0.884941,0.331334,-0.327258
-0.113742,0.920955,0.624560,0.958787,0.107518,0.262998
0.035166,-0.244693,-0.381878,0.995248,0.055649,-0.079909
0.029910,0.915426,-0.994260,0.250582,-0.085613,0.964302
0.214071,-0.219323,0.816496,-0.575727,0.568551,-0.587612
0.318950,-0.146134,0.539806,0.749314,0.136671,0.647958
0.039031,0.692608,0.728465,0.686088,0.626303,0.370173
-0.838813,0.375295,0.478291,-0.386512,-0.605230,0.695920
0.380868,-0.396275,0.648282,-0.457488,0.885734,-0.078615
0.358591,-0.403758,0.647216,-0.198518,0.011949,0.980024
0.189867,-0.143856,0.836586,0.754344,0.580745,-0.306105
0.993513,0.078311,0.612267,0.954790,-0.067217,-0.289583
0.523107,-0.888917,0.380684,-0.661350,-0.663558,0.349725
0.640275,-0.458080,0.683434,-0.538137,0.754831,0.375017
0.327192,-0.412865,0.694457,-0.773433,0.632675,0.039029
0.171625,-0.157193,0.873262,0.281985,-0.766860,0.576549
-0.349641,0.147596,-0.481161,0.768915,0.439636,-0.464210
-0.018498,-0.111979,0.592025,0.868529,0.362396,-0.338122
0.003597,0.294461,0.817639,0.863939,-0.501946,0.040743
-0.657810,-0.527689,0.475319,-0.078973,0.474922,0.876477
0.086209,-0.590469,0.830618,-0.127425,0.776676,0.616877
-0.370516,0.590630,0.491752,0.819630,0.570561,-0.051643
-0.867053,0.317394,0.414388,-0.599987,-0.457531,0.656264
0.322460,-0.604295,0.502165,-0.433820,0.874811,-0.215654
0.172503,0.157028,0.201854,0.847025,-0.480762,0.226751
0.232484,-0.120111,0.905213,-0.502921,-0.841347,0.198005
-0.683417,-0.325852,0.549813,0.288113,0.667964,0.686160
0.173199,-0.107263,-0.123805,0.420398,-0.293090,-0.858699
-0.163029,0.190370,0.601346,0.700818,0.414027,0.580893
-0.555554,-0.106450,-0.398337,-0.500303,-0.791889,-0.350155
-0.526972,-0.245020,0.290088,-0.372595,-0.905872,0.201418
0.330886,0.453686,-0.371973,-0.682068,0.156577,-0.714330
-0.846885,-0.562981,0.934116,0.868304,-0.437519,0.233721
0.028326,0.410587,0.754803,0.859020,-0.456531,0.231656
-0.070943,0.006749,0.786171,-0.135074,-0.297825,0.945016
0.873369,0.313165,0.578742,0.762205,0.646300,-0.036603
-0.425070,0.722696,0.556772,-0.511149,-0.014815,0.859365
-0.108304,-0.694559,0.895689,0.085066,-0.928391,0.361738
-0.678685,-0.331706,0.267357,0.769419,0.019320,-0.638452
0.649921,-0.573879,0.644219,0.152900,0.738025,0.657222
0.200743,-0.337399,-0.096171,0.832909,0.462097,-0.304514
-0.347361,-0.080265,0.725240,0.824633,0.462586,0.325567
0.603792,-0.231845,0.775808,-0.175661,0.874106,0.452861
0.097085,0.813125,-0.991949,0.076042,0.242064,0.967276
-0.061651,0.141416,0.702178,0.110133,0.307403,0.945185
-0.348067,0.605756,0.572493,-0.562845,0.674665,-0.477527
0.590282,-0.301457,0.692654,0.848479,0.490592,-0.198501
0.518900,-0.340489,0.426706,0.345798,-0.651550,-0.675208
0.521180,-0.776205,0.395111,0.442192,0.039500,-0.896050
-0.746909,0.062535,0.321430,0.832679,-0.281904,-0.476630
-0.073223,-0.166951,0.816369,0.709268,-0.427924,-0.560197
0.630983,-0.580711,0.638555,0.020951,-0.968259,0.249069
0.187758,-0.186306,0.823532,-0.058583,-0.834745,0.547511
-0.421911,0.147109,0.666112,-0.362693,0.928178,0.083302
-0.183904,0.543954,0.665782,-0.086164,-0.675121,0.732658
0.118303,-0.365698,0.814287,-0.331886,0.943250,-0.011437
0.548896,-0.552248,0.644625,0.908491,0.340164,-0.242760
-0.014998,-0.311865,0.801486,-0.287946,0.928917,0.232811
0.602561,0.357240,0.591720,-0.811549,0.507550,-0.289451
-0.402085,-0.088884,0.820916,0.825724,-0.456843,0.330869
0.586600,-0.510937,0.817614,0.435816,-0.044729,-0.898923
-0.055335,-0.494837,-0.575084,0.938209,0.245564,-0.243850
-0.403670,-0.628690,0.929900,-0.127298,-0.986368,-0.104273
-0.077966,-0.280313,0.789879,-0.577875,-0.796859,0.176287
-0.473820,-0.263398,0.329913,-0.637215,-0.765835,0.086338
0.846360,-0.142881,0.629335,-0.367267,-0.927581,0.068624
0.060602,0.350247,-0.131831,0.023493,-0.549070,0.835446
0.531885,-0.123365,0.649603,0.857177,-0.415893,0.303776
0.355261,-0.215582,-0.055178,0.944170,-0.289636,0.157014
-0.059189,-0.256243,0.812077,0.826578,0.491199,-0.274758
0.865126,-0.136212,0.525405,0.980934,0.145829,0.128461
-0.004475,0.381474,0.721354,0.948633,0.231754,-0.215372
0.227227,-0.203546,0.329634,-0.830643,0.472403,-0.294733
0.600634,0.103195,-0.139755,-0.125813,0.510189,0.850811
0.017278,0.064813,-0.965509,0.213802,0.135475,0.967437
-0.451543,0.569814,0.520681,0.847828,0.268334,0.457368
-0.528899,-0.248110,0.548848,-0.469607,-0.502231,-0.726108
-0.081648,-0.203871,-0.485860,0.249922,0.353911,-0.901269
-0.029557,-0.473042,0.708020,0.104702,0.713556,0.692730
0.069894,0.228916,-0.540618,0.733789,0.086147,0.673893
0.616767,0.252011,0.804534,0.967225,0.182360,-0.176695
-0.635361,0.364884,0.423252,-0.107187,0.792581,-0.600272
0.659919,-0.379035,0.738015,0.873217,0.372802,0.313864
-0.066907,-0.357566,0.813804,0.869271,-0.393148,-0.299672
-0.431032,-0.239002,-0.666798,0.957046,0.289795,-0.008986
-0.431032,0.047084,-0.532923,-0.481173,-0.288016,-0.827961
-0.536788,-0.615028,0.067446,-0.692697,0.720663,-0.028567
-0.371747,0.099130,0.738472,-0.297567,-0.886443,-0.354503
0.644129,-0.279662,0.839202,0.719000,0.436332,0.540975
0.002195,0.157192,0.823201,-0.531136,0.191912,0.825266
-0.255457,0.170854,0.360671,0.153968,0.013849,0.987979
-0.679905,-0.311215,0.555248,0.799353,0.520004,0.301050
-0.127948,-0.481336,-0.534116,-0.005343,-0.912666,0.408672
-0.107426,-0.092299,0.786196,-0.627658,-0.652784,-0.424168
0.074636,-0.067904,-0.615137,0.822837,0.551807,-0.135823
0.003426,-0.384889,-0.518547,0.919102,-0.356832,-0.167101
-0.372100,-0.236238,-0.328846,-0.103647,0.926504,0.361730
-0.681318,0.164025,0.694685,0.862512,-0.469047,0.189914
0.146896,0.099455,-0.061096,-0.001516,0.891484,0.453050
0.451201,-0.174594,0.657680,0.189667,0.375665,0.907140
0.166540,-0.295439,0.784088,0.603576,0.474667,0.640614
-0.555201,0.277059,0.803924,0.962700,-0.022777,0.269612
0.239678,0.094576,-0.055432,-0.097010,0.846848,0.522913
0.947909,-0.177686,0.642746,0.984274,-0.123965,-0.125849
0.641506,-0.407172,0.443012,0.962781,0.141118,0.230519
0.589233,-0.363259,0.808318,-0.379216,0.923947,-0.050181
0.312291,-0.194600,0.720008,0.592656,-0.756836,0.275606
-0.096207,-0.126291,0.681529,0.899053,0.134844,0.416558
0.563626,-0.029358,0.462772,0.478715,-0.470423,-0.741306
-0.642030,0.201593,0.717188,0.297937,0.779908,-0.550433
-0.341227,-0.248435,0.733367,0.813083,0.577904,-0.070166
0.343154,-0.122387,0.903003,-0.676706,0.689084,-0.259293
0.028679,-0.663657,0.904807,-0.428320,0.896082,-0.116529
-0.203890,-0.692609,0.857337,0.958086,0.156301,-0.240086
0.583441,-0.630479,0.662201,0.970479,0.055442,-0.234726
0.766907,0.171829,0.837933,0.201734,-0.978499,0.042923
-0.063407,-0.122226,-0.043647,0.214383,0.630926,-0.745635
-0.177588,-0.373667,-0.448498,0.318916,0.814416,-0.484788
0.501536,-0.327152,0.477351,0.936084,0.345776,-0.064701
-0.125668,-0.228916,0.684475,0.493709,-0.130953,-0.859711
-0.157419,0.016832,0.833818,0.120754,-0.362355,0.924185
-0.353677,0.073432,0.648867,-0.029448,-0.999084,-0.031042
0.205303,-0.292836,0.046238,0.785902,-0.530071,0.318408
-0.554152,0.713100,0.536936,0.788892,-0.571559,0.225764
0.427703,0.127754,0.767553,0.462262,0.852332,0.244630
0.217925,-0.156868,0.888577,0.897757,0.433298,0.079280
0.013242,0.521670,0.649451,0.213242,0.959235,-0.185461
-0.209328,-0.430104,-0.368392,0.543774,0.778479,-0.313495
0.831630,-0.681223,0.450124,0.774404,-0.618172,-0.134766
-0.109353,-0.342117,0.641171,-0.049362,0.082126,0.995399
-0.674820,0.020249,-0.390768,-0.078664,0.987131,-0.139226
0.668334,0.215093,0.621868,0.960234,-0.085576,-0.265759
0.367894,-0.357730,-0.076360,0.807895,0.575387,-0.127419
0.292465,-0.308937,0.593015,-0.563820,0.003164,0.825892
0.349823,-0.056356,0.774157,0.833718,0.402811,0.377700
-0.332983,0.483614,0.671903,0.754927,0.636055,0.159744
0.208633,-0.138977,0.881186,-0.334064,0.865997,0.372090
0.112511,-0.047084,0.860055,0.448561,0.590411,-0.670975
0.485403,0.212979,0.838415,0.358771,-0.879254,0.313362
0.367187,0.385053,-0.554003,0.776447,0.022664,0.629775
-0.848287,0.312676,0.420560,0.437326,0.526855,-0.728814
0.245287,-0.001870,-0.967008,0.088884,0.222262,0.970927
0.184782,-0.366837,-0.222630,0.100049,-0.916954,0.386245
0.478917,0.225665,-0.094901,0.959975,-0.268887,-0.078408
-0.522058,-0.778644,0.399835,-0.654461,0.741373,-0.148481
-0.167064,-0.741074,0.875116,0.419446,-0.906366,-0.050655
-0.246861,-0.651623,0.840117,-0.051284,0.880896,-0.470524
-0.806719,-0.480849,0.202819,0.897481,-0.371296,0.238050
0.732361,0.218347,0.844003,0.709787,-0.695300,-0.112963
0.858810,-0.541351,0.699257,0.354490,-0.569607,0.741542
0.668334,-0.861429,0.687498,-0.463759,-0.047355,0.884695
-0.038495,-0.057982,0.530738,0.163192,0.365982,0.916202
0.227046,-0.184355,0.783402,-0.343674,0.847534,-0.404443
0.449092,-0.633894,0.682113,0.644367,0.180050,0.743218
0.839701,0.200292,0.467801,0.046986,-0.548266,0.834983
0.429972,0.222086,0.868258,-0.352556,-0.837680,0.417130
-0.123559,-0.329431,-0.579935,0.495804,0.390163,0.775855
0.217401,0.246156,0.508667,-0.345089,-0.023803,0.938268
0.079015,-0.287631,-0.505696,0.971427,-0.143786,-0.188827
0.918802,-0.265676,0.342130,0.896845,0.440153,0.043989
0.478038,-0.066114,0.849159,0.909901,-0.399002,-0.113480
-0.310535,-0.389443,-0.810020,0.914350,0.397541,0.076971
0.458919,0.753599,-0.983821,-0.134870,0.260443,0.956023
0.542751,-0.538423,0.658416,0.795345,0.341112,0.501068
-0.498731,-0.087745,-0.674036,0.894012,0.391748,-0.217431
-0.314570,-0.212165,-0.213131,0.130530,-0.884727,0.447459
0.348592,-0.279012,0.815226,0.618218,0.622282,-0.480178
0.827241,-0.482314,0.729507,0.343465,-0.375805,-0.860698
0.654310,-0.382450,-0.088272,0.755170,0.653474,-0.051855
-0.556957,0.130030,-0.206705,-0.742344,-0.547268,0.386553
0.416473,-0.545580,0.295625,-0.492591,0.800675,-0.340989
0.624485,0.200131,0.805550,0.921311,0.320959,-0.219480
-0.080417,0.007888,0.829373,0.159738,-0.960723,0.226924
0.183904,-0.027568,0.910115,0.869935,-0.063806,-0.489022
0.700438,0.471578,0.749952,0.913525,-0.399342,-0.077442
0.234936,-0.401155,0.638428,0.099604,-0.976305,-0.192116
0.263004,0.732941,-0.977116,-0.075176,-0.177195,-0.981300
-0.380161,-0.663332,0.447482,0.758510,-0.643906,-0.100243
-0.032704,-0.605431,0.909505,-0.329661,0.925621,0.185876
-0.197756,-0.189559,0.821703,0.094862,0.550107,0.829689
0.177235,0.014231,0.877884,-0.697898,-0.712961,0.068015
0.049201,0.273644,0.781142,0.367469,-0.862912,-0.346914
-0.614486,-0.776205,-0.131653,0.369398,0.892842,-0.257640
-0.387355,-0.157518,-0.404610,0.882855,0.448202,0.140294
0.427874,-0.044320,0.222960,0.467522,-0.876588,-0.114091
0.050250,-0.277709,0.688666,0.268015,0.199797,-0.942470
0.259140,0.274945,-0.580596,-0.295263,0.410838,0.862573
0.384379,-0.020900,-0.359274,-0.223567,0.925264,0.306437
0.393147,-0.413352,0.487180,0.921468,0.386634,0.037564
0.829703,-0.128569,0.417004,-0.604337,0.784678,-0.138046
0.235117,0.066275,0.859953,-0.296194,-0.894048,-0.336076
0.338422,-0.128244,0.914331,-0.264218,0.964399,0.011085
-0.258444,0.276245,0.733824,-0.237260,0.315667,0.918728
0.836543,-0.598763,0.708096,-0.518941,0.539581,-0.662988
0.502414,0.234448,0.767223,-0.721153,0.671236,-0.171409
0.225825,-0.419370,0.472576,0.962415,0.143604,-0.230509
0.443311,-0.731641,0.228548,0.412898,0.803425,0.428980
0.112169,-0.175084,0.940339,0.276823,0.920507,0.275744
0.246165,-0.068554,0.886012,-0.032861,0.747400,0.663561
-0.606425,-0.664146,0.050149,0.602520,-0.788323,-0.124564
0.629398,0.065789,0.815226,0.544799,0.523278,-0.655267
0.330179,-0.502969,-0.093987,-0.135735,0.591540,0.794768
-0.003415,0.414491,-0.972900,0.053689,0.259480,0.964255
0.218803,-0.531918,0.428332,0.442920,0.828009,-0.343836
0.132691,-0.405219,0.788583,-0.381900,0.303237,-0.873040
0.562931,-0.290235,0.696438,0.588728,0.761712,-0.270543
0.133033,0.041880,-0.012661,0.795735,0.572414,0.197859
-0.202670,-0.246157,0.611582,0.716149,-0.608119,-0.342522
0.373856,-0.145482,0.760899,-0.494570,0.603127,0.625810
-0.002537,-0.376595,-0.493936,0.888513,0.457280,-0.037947
0.313693,0.070993,0.836637,-0.177928,-0.964914,0.193088
0.309304,0.556963,0.629183,0.539270,0.499908,0.677702
0.229326,-0.170366,0.332123,-0.830643,0.472403,-0.294733
0.274930,-0.111328,-0.017614,0.930560,0.265351,0.252283
-0.325790,0.394650,0.525278,-0.021624,0.350571,0.936286
0.160920,0.318369,0.701340,0.840380,0.251224,0.480258
0.220558,0.105146,0.888120,0.217452,-0.858998,0.463506
0.760419,-0.041880,0.672944,0.060744,-0.985232,0.160089
-0.730776,0.110678,0.329405,0.924865,-0.367401,-0.098186
-0.125143,-0.093602,-0.199009,0.670710,-0.676812,0.303437
0.198281,0.287956,0.852333,0.677934,0.700971,-0.221459
0.035520,0.253801,-0.526116,0.964855,0.259033,0.044232
-0.062175,-0.021876,0.024243,-0.448195,-0.860839,-0.240994
0.537324,-0.333335,0.804991,0.324730,0.689255,0.647671
0.317375,-0.241278,0.794958,-0.077693,-0.411734,0.907986
0.287208,-0.128569,0.895130,-0.374211,0.891079,-0.256797
0.149348,0.161421,0.085885,-0.884180,0.395005,0.249394
0.447165,-0.432707,0.814845,-0.001116,0.271479,0.962444
-0.044812,-0.635195,0.099600,0.433358,-0.796905,-0.420885
0.316669,-0.680733,-0.049032,0.199196,0.920723,0.335545
-0.624132,0.001383,0.611353,0.744929,-0.634366,0.206542
0.002548,0.095552,-0.044054,0.461756,-0.288238,0.838869
-0.322814,-0.557777,0.431608,0.858214,-0.497339,0.126975
-0.241251,-0.043181,0.585904,-0.013229,-0.727854,0.685605
0.414718,-0.469627,0.788558,0.688612,0.692934,0.213673
-0.722009,-0.117996,0.452689,0.381420,0.647214,0.660025
0.017803,0.051152,0.694787,0.350612,0.701706,-0.620226
0.376479,0.236887,-0.615849,-0.348833,-0.680794,0.644077
-0.482246,0.337560,0.413321,-0.607482,-0.531290,-0.590505
0.062700,-0.289582,-0.251229,-0.402006,0.240053,0.883609
-0.254761,-0.295275,0.554054,-0.171403,-0.976896,-0.127657
0.455590,-0.707896,0.632815,-0.445705,0.635797,-0.630166
0.070418,0.237212,0.844282,0.405226,0.103190,0.908374
-0.468564,-0.357566,0.542320,-0.852512,0.432498,-0.293546
-0.369285,-0.461170,0.443419,-0.077522,0.833826,-0.546557
-0.131106,-0.745628,0.849590,-0.255178,0.912428,0.319935
-0.057968,0.858175,0.595022,-0.675783,0.737037,0.009671
-0.834252,-0.559892,0.264436,-0.811269,0.037020,0.583500
-0.425594,-0.578433,0.669998,-0.044842,0.940950,-0.335563
-0.076381,-0.104335,-0.950575,0.181623,0.451684,0.873496
-0.000086,0.043669,0.706089,-0.039088,0.889013,-0.456211
-0.620973,0.562331,0.427189,-0.074273,0.586873,0.806265
-0.762346,0.454337,0.484869,-0.101574,-0.406653,0.907918
-0.126021,-0.324713,0.443266,-0.376205,0.903763,-0.204163
-0.679038,-0.537286,0.464042,0.118453,0.953529,0.277039
-0.120058,-0.461170,-0.729024,0.892910,-0.275061,-0.356447
-0.068845,-0.034237,-0.597816,0.542702,0.838804,0.043396
0.127777,0.435635,0.363236,-0.457819,-0.870568,0.180313
0.644482,-0.382450,0.695955,0.835929,0.509058,-0.205139
-0.098134,0.735544,0.699613,0.432368,0.770027,-0.469165
0.701134,-0.455801,0.841285,-0.648571,-0.539172,-0.537261
0.823033,0.177848,0.850860,-0.136986,0.980396,0.141627
0.409279,-0.266162,0.855178,0.600243,0.370260,-0.708954
0.057797,-0.328291,0.710229,0.645966,0.105069,-0.756101
-0.139348,-0.618443,-0.270176,-0.381352,0.924206,0.020367
0.796902,-0.414491,0.729151,-0.116068,0.172593,0.978131
-0.377356,-0.278849,-0.812636,0.956316,-0.263762,0.126054
0.752529,0.304707,0.576049,0.261539,0.959909,-0.100852
-0.040776,0.167114,-0.965992,-0.209643,-0.116597,-0.970801
-0.154261,-0.033098,0.807200,0.716950,0.100437,-0.689852
-0.052359,-0.441326,0.819925,-0.307826,0.105398,0.945587
-0.359468,0.203871,0.734434,-0.539425,0.289042,-0.790870
0.546263,-0.517117,0.586691,-0.475560,0.823234,0.310045
-0.766382,-0.082215,-0.367274,0.115952,0.828171,0.548350
0.888978,-0.380174,0.711550,-0.867589,-0.125531,-0.481178
-0.600463,-0.552412,0.867344,-0.193548,0.956677,-0.217505
-0.196707,-0.386028,0.833539,0.898524,0.148150,0.413166
0.532763,-0.245182,0.668169,0.915952,-0.098522,-0.389004
0.126374,-0.155893,0.490076,-0.153793,-0.983440,0.095886
0.332813,-0.150525,-0.055153,0.824509,-0.484327,-0.292596
0.511706,-0.819468,0.387059,-0.600550,0.057615,0.797509
0.220034,-0.264537,0.677999,0.839323,-0.404030,0.363726
-0.968431,-0.787427,0.914229,0.825307,-0.503352,0.255939
-0.802683,-0.542815,-0.266849,0.952216,-0.159270,-0.260611
0.038849,-0.389443,0.306902,0.877607,0.034933,0.478106
-0.228276,-0.252500,0.786171,0.820695,0.466722,-0.329590
0.408402,0.662192,0.663902,-0.522977,0.491266,0.696529
-0.321936,-0.405872,0.399098,0.483674,-0.179497,-0.856645
-0.292646,-0.232820,0.543692,0.480855,0.472305,0.738719
0.343336,0.323574,-0.007023,0.381659,-0.459347,-0.802083
-0.508730,-0.601527,0.864245,-0.256924,-0.965377,0.045138
0.800585,-0.628690,0.745304,0.950296,-0.310758,0.019147
-0.135838,0.332031,0.529519,0.911217,-0.026608,-0.411066
-0.106195,-0.059771,-0.176481,0.762392,0.646976,0.013440
0.368589,-0.410751,0.686812,-0.488478,0.755459,-0.436659
0.776905,-0.014721,0.651889,-0.072051,-0.989132,0.128164
0.874600,-0.101896,0.500870,0.965083,0.052345,0.256661
-0.091465,0.425549,0.749724,0.456083,0.030967,-0.889398
-0.702536,-0.301293,0.541761,0.832783,-0.134913,0.536909
0.682893,0.585264,0.787009,0.659773,-0.728297,-0.185156
0.668686,-0.455640,0.533761,-0.574278,0.586826,-0.570825
0.536789,-0.008538,-0.728440,-0.209318,0.509750,0.834470
-0.501365,0.240139,0.348327,0.673696,-0.722575,-0.154980
0.655712,0.154264,0.799886,0.924945,0.368156,-0.094539
0.041311,-0.213629,0.061629,0.149656,-0.269760,0.951227
-0.237044,-0.231356,-0.454111,0.405536,0.908246,-0.103103
-0.184428,-0.125151,-0.344517,0.871703,-0.456130,0.179107
-0.165834,-0.394325,0.688539,-0.678026,0.426081,0.598946
-0.126717,-0.527364,0.843571,0.198442,-0.196993,0.960112
0.097256,0.213793,0.730573,0.889460,0.051081,0.454149
0.427350,0.221762,0.764734,-0.517087,0.798036,0.309450
0.367711,-0.545905,0.476335,0.544132,-0.823744,0.159265
-0.561871,-0.601691,0.473795,-0.713412,0.259303,-0.651004
0.687978,0.443929,0.451445,0.618418,0.740795,0.262263
0.425070,0.112792,0.815176,0.622856,0.779855,-0.062258
0.094623,0.523135,0.652118,-0.174889,-0.970453,-0.166237
0.169698,-0.038952,0.977599,0.974966,0.185140,-0.123147
-0.641324,-0.165650,0.441742,0.972248,-0.074772,0.221684
-0.040776,-0.503455,0.707766,0.209570,0.775305,0.595805
0.218107,-0.172319,0.855077,0.944081,-0.280821,0.172771
0.564504,-0.584289,0.483751,0.644070,0.276460,0.713263
0.032533,0.543465,0.667103,-0.678170,-0.682478,0.272598
0.052884,0.110028,-0.085377,0.069134,-0.992447,0.101336
0.381392,0.231031,0.511385,0.394727,0.543448,-0.740847
-0.061469,0.230544,0.815658,0.906726,0.280371,0.315024
-0.552397,-0.023501,0.405524,-0.528984,0.364932,-0.766159
-0.528899,0.643977,0.548721,-0.371431,-0.776626,0.508814
0.157066,-0.436122,0.695422,0.173157,0.443530,-0.879374
0.123217,0.164025,0.667992,-0.157964,0.956635,0.244738
0.711657,-0.036837,-0.303804,-0.363085,-0.917957,-0.159762
0.780234,-0.453362,0.812661,0.185871,0.677631,0.711525
-0.109706,0.057656,0.596571,0.496364,0.274816,-0.823468
0.798305,-0.593722,0.730116,-0.542681,0.304187,0.782922
0.212144,-0.090184,-0.361661,-0.421265,0.903101,-0.083335
