0.030997,0.200145,-0.966209,-0.150275,0.265195,0.952412
0.319883,0.523666,-0.981023,0.049451,0.112999,0.992364
0.831341,-0.159452,0.462578,0.330901,-0.909861,0.250313
0.042279,-0.556854,0.366253,0.433776,-0.877344,0.205195
0.022338,-0.534776,0.619686,0.899810,0.125469,0.417852
0.052650,0.405773,-0.157418,0.735952,0.667646,-0.112351
0.538004,0.033910,0.607329,0.989293,0.124080,-0.076837
0.603080,0.335210,0.643025,-0.222409,-0.761316,0.609042
0.331736,0.242856,0.150576,0.895968,-0.360551,-0.259315
-0.150314,0.289610,0.731510,-0.624892,-0.333937,0.705689
0.207634,-0.431025,-0.945217,0.290476,-0.048920,0.955631
0.132876,-0.654112,-0.945726,0.134671,0.238705,0.961709
0.125809,0.694516,0.522874,0.000071,0.211726,0.977329
-0.111682,-0.829438,-0.945749,-0.007919,0.079399,0.996811
0.053450,-0.558008,-0.946147,0.098260,-0.108862,0.989189
0.167862,0.087734,0.784345,0.924115,-0.276292,0.263958
-0.152477,-0.063491,0.648494,0.525527,-0.022997,0.850466
0.113846,0.751082,0.551063,0.985657,0.146067,-0.084523
0.349403,0.378787,0.700709,0.904485,0.172833,-0.389918
-0.247177,-0.635355,0.432418,0.402112,0.398671,0.824237
0.581539,-0.166810,-0.760562,0.121865,-0.946386,0.299168
-0.328891,0.169263,0.488685,-0.094754,0.720407,0.687048
0.201479,0.238239,0.697343,0.993253,0.109730,-0.037527
-0.505980,0.246608,0.640700,0.215202,0.960875,-0.174375
-0.698692,0.362626,0.354451,-0.580743,0.723383,-0.373436
-0.097437,-0.377633,0.419774,-0.287293,0.683248,-0.671294
-0.010485,-0.757577,0.653986,0.802294,0.192512,0.565035
0.181196,0.078788,0.783105,0.403128,-0.469451,-0.785559
0.098119,-0.121213,0.778167,0.684303,0.599844,-0.414627
0.521255,0.075036,0.627834,-0.610070,0.112964,0.784254
0.124675,-0.297979,-0.936935,0.271727,0.068983,0.959899
-0.457549,-0.799134,0.546678,0.872886,0.224316,0.433304
0.057776,-0.058585,0.894243,0.891100,0.268539,-0.365825
-0.089571,-0.670274,0.706842,-0.447008,0.793533,-0.412904
0.824274,0.756709,-0.988397,-0.015389,0.109104,0.993911
-0.316010,-0.726119,0.432374,0.750362,-0.587055,0.303848
0.365930,0.169698,0.631045,0.537326,0.823171,0.183497
-0.343365,-0.062483,0.620815,0.981101,-0.136858,0.136786
0.477379,0.529726,0.446656,0.997176,-0.074748,-0.007324
0.174359,-0.398846,0.629495,0.867280,0.486484,-0.105632
0.056413,-0.111399,0.937135,0.944267,0.328749,-0.016821
0.069058,0.052670,0.819863,0.937235,-0.245655,0.247474
0.177093,0.361617,0.769376,0.844342,0.341382,-0.412971
0.278859,-0.238529,0.668180,0.342080,-0.097579,-0.934591
0.155328,0.194951,0.789504,0.499248,0.102837,0.860335
-0.107467,-0.356277,0.672564,0.497064,0.205763,0.842964
0.628037,0.261616,0.647298,0.945753,0.324027,-0.023630
-0.259718,0.796248,-0.975930,0.024058,0.019230,0.999526
0.044783,-0.134776,0.855558,0.087723,0.677308,0.730451
0.353389,-0.196392,0.635673,0.124196,-0.737335,0.664013
0.774931,-0.444012,-0.962777,0.070480,-0.196148,-0.978038
0.632251,-0.152525,0.498428,0.563082,-0.083815,-0.822140
-0.521825,-0.576334,0.539991,-0.474822,-0.640640,-0.603427
0.791569,0.424530,0.535651,-0.513992,-0.834431,0.198841
0.411509,0.050651,0.658304,0.841953,-0.387636,-0.375305
0.533218,-0.340838,0.579739,0.522534,0.828631,-0.200823
0.523647,0.538383,0.615988,0.006771,-0.755459,0.655161
0.498572,-0.638672,0.279694,-0.031366,0.076387,-0.996585
-0.407524,0.190188,0.525886,0.006804,-0.629472,0.776994
-0.042738,-0.671718,0.658547,-0.520718,-0.701529,-0.486529
0.252081,0.191198,0.623981,0.630356,0.756705,0.173345
-0.298801,0.210102,-0.966453,-0.007602,0.263277,0.964690
0.103363,-0.412120,0.613065,-0.634945,0.541561,-0.550960
0.254244,-0.338094,0.178189,0.318952,0.436724,0.841155
0.093674,0.269985,0.710208,-0.591008,0.788223,0.171504
0.016071,-0.222368,0.709632,-0.441762,0.285242,-0.850578
-0.389745,-0.896392,0.572498,0.396518,0.446294,0.802244
0.293675,-0.338817,-0.950000,0.257832,0.123150,0.958309
0.006493,-0.536798,0.631466,0.849406,0.167522,0.500445
0.308720,-0.699712,-0.943534,-0.022884,0.148313,0.988676
0.537892,0.176334,0.616962,0.720013,0.154430,-0.676560
0.110653,-0.108514,0.722808,-0.115219,-0.933962,0.338288
-0.549286,0.345310,0.408902,-0.188605,-0.370465,0.909497
-0.401939,0.287157,-0.971413,0.056405,0.232065,0.971063
-0.229628,-0.036507,0.712799,-0.711181,0.001543,0.703007
0.352707,-0.074315,0.652391,0.424148,0.293908,0.856573
-0.224272,-0.570417,0.393933,-0.441479,-0.580947,0.683811
0.075555,0.894373,-0.974003,0.192177,0.180138,0.964686
0.015382,0.001298,0.886537,-0.257601,0.437885,0.861335
0.309513,-0.531169,0.314017,0.961952,0.158409,0.222610
0.196693,-0.002020,-0.297431,0.979540,-0.146189,-0.138309
0.015612,-0.352959,0.644663,0.317545,0.932788,-0.170507
0.002619,-0.725397,0.641630,0.978844,-0.152980,0.135876
-0.293104,-0.628859,-0.945106,0.010011,0.094707,0.995455
-0.109971,-0.278356,-0.198915,0.451077,-0.879456,0.151943
0.052421,-0.129725,-0.945283,-0.089551,0.136679,0.986559
0.181196,0.001444,-0.593977,0.847706,-0.133458,0.513404
0.614362,-0.487014,0.547852,-0.346614,0.221398,-0.911505
0.132646,0.530591,0.660961,-0.047680,0.732639,0.678945
-0.398065,-0.839827,0.539504,-0.659685,-0.748363,-0.069057
-0.535270,0.337375,0.676041,0.749639,0.559450,0.353634
0.351907,-0.116162,0.594508,0.772185,-0.535136,-0.342578
-0.081940,-0.574603,0.645062,-0.220477,0.554475,0.802464
-0.227465,0.290909,0.659566,0.292907,0.617049,-0.730380
0.341195,0.438816,0.522055,0.130900,0.961928,-0.239915
0.761139,-0.579654,-0.957994,-0.029138,0.200582,0.979244
0.824045,-0.223665,-0.970616,-0.226898,-0.229126,-0.946582
-0.346781,-0.865223,0.325554,0.355303,0.778178,-0.517879
0.316350,-0.410535,0.602081,-0.715516,-0.519096,0.467521
0.556471,-0.454257,-0.959079,-0.007092,0.094924,0.995459
-0.290601,0.497691,0.713663,0.928603,-0.046064,0.368205
0.272252,-0.585859,0.434721,0.842619,-0.362033,-0.398654
0.271452,0.898702,0.358304,0.907847,0.416471,-0.048633
-0.023020,0.832035,0.586603,0.774403,-0.602801,-0.192175
0.343247,0.127849,0.604185,0.002513,0.886936,0.461886
0.567523,-0.291919,0.336027,-0.176338,-0.219954,0.959440
0.525240,-0.088455,0.475930,0.294517,-0.000864,-0.955646
0.840453,-0.156277,0.426395,0.968109,0.020598,-0.249682
0.574812,-0.125975,0.733924,-0.280199,0.921443,0.269130
0.905981,-0.132757,0.459942,-0.604566,0.737779,-0.300302
0.118179,-0.235209,0.639260,0.317823,0.912744,0.256685
-0.378345,-0.064070,0.424668,0.286916,-0.341215,0.895126
-0.063591,0.415729,0.549026,-0.610740,0.213355,0.762546
-0.033850,0.181673,0.803454,-0.484821,-0.870529,0.084427
0.234413,-0.510245,0.816763,-0.665095,0.685182,0.296940
0.451170,-0.416017,0.406488,0.878818,0.434464,0.197280
0.449800,-0.197834,0.488596,-0.591110,-0.553478,-0.586729
0.910885,0.474025,-0.984787,0.034714,0.193537,0.980479
-0.303023,-0.674603,0.441275,-0.713871,-0.122381,-0.689500
-0.330032,0.548485,0.480492,-0.442454,0.563350,0.697761
-0.225754,0.035643,0.688375,0.057320,0.709278,0.702595
0.421769,0.187158,0.387932,-0.012996,-0.323692,0.946073
0.282963,0.250360,0.648649,0.951937,0.129903,-0.277381
0.739827,0.412843,0.396856,-0.506855,0.774886,-0.377691
0.254014,-0.328859,0.521236,0.882596,0.469722,-0.019647
-0.421651,0.387302,-0.972298,-0.023521,0.183549,0.982729
-0.345070,0.349351,0.710518,-0.228638,0.826039,-0.515154
0.042850,-0.629726,0.342006,-0.494309,0.137319,-0.858372
-0.129572,0.161760,0.721368,0.659209,0.657422,-0.365020
-0.101200,0.469697,0.524446,-0.720505,0.524345,-0.453800
0.623133,0.162337,0.472542,0.942015,0.206942,0.264163
0.385753,-0.232612,-0.119243,0.943966,0.229955,-0.236745
-0.387353,-0.190476,0.629052,-0.494534,0.097838,-0.863634
-0.147810,0.607504,0.337400,-0.125058,-0.984080,0.126285
0.714077,0.787302,0.445461,-0.200162,0.937508,-0.284630
0.066554,0.469842,0.676705,0.092034,0.955495,-0.280284
-0.078289,-0.374749,0.556953,0.063683,0.714166,0.697073
0.304046,-0.228572,0.658702,-0.416738,0.761578,0.496314
-0.910315,0.079076,0.415611,-0.634721,0.739662,0.223673
0.155669,-0.088455,0.963596,-0.634272,0.725953,-0.265879
0.913048,-0.084992,-0.973251,0.108008,0.147123,0.983203
-0.317380,-0.484416,-0.439504,-0.864513,0.502361,0.015837
0.259029,-0.586436,0.331798,0.648220,0.084932,0.756701
-0.211968,0.602453,0.554872,0.996141,0.082946,-0.028679
0.221538,-0.133188,0.798295,0.818807,0.425562,0.385295
0.555330,-0.138384,0.729960,-0.280199,0.921443,0.269130
-0.340855,0.722079,0.496723,-0.320675,0.599923,0.732981
-0.493335,0.328138,0.475266,0.949686,0.202095,-0.239278
-0.388716,-0.619193,0.534212,0.048656,0.423927,0.904389
-0.082052,-0.031313,0.405890,-0.341847,-0.649019,0.679643
-0.134817,0.704042,0.474712,0.577926,0.161151,0.800020
0.053562,-0.274316,0.798317,-0.678754,-0.523552,0.514963
0.636808,0.555556,0.539460,-0.587425,-0.513625,0.625397
-0.400687,0.512122,0.453764,-0.591218,0.741593,0.317021
0.620399,-0.072582,0.632484,0.849100,-0.150076,0.506464
0.278059,-0.621212,0.728698,0.600311,-0.799731,-0.007482
-0.148373,-0.382684,-0.946413,-0.065249,-0.225783,0.971990
0.156469,0.467389,0.804030,0.930411,-0.162624,0.328464
0.093904,0.447330,0.678122,0.024090,-0.930395,0.365765
-0.604102,-0.384271,0.332551,0.423908,0.862349,-0.276868
-0.206153,-0.483694,0.570704,-0.555568,0.825429,-0.100053
0.226324,-0.358153,0.458813,0.503133,0.771742,-0.388936
-0.352707,0.295526,0.606621,-0.074455,0.975243,0.208224
0.324557,0.321213,0.480004,0.459101,-0.702937,0.543237
0.289342,0.144878,0.829539,0.846104,-0.523130,0.102190
0.891514,0.413565,0.595549,0.254518,0.539470,0.802616
0.116697,0.006783,0.849579,0.073328,0.386229,0.919483
-0.497098,-0.616883,0.539947,-0.525880,-0.683708,-0.505957
0.265414,-0.688745,0.632374,0.259878,0.911506,0.318778
0.449570,-0.178500,0.653277,-0.619343,-0.751181,-0.228344
0.062110,0.033044,0.829539,0.891500,-0.453013,0.002797
0.509061,-0.649352,0.542360,-0.544677,-0.797638,0.259039
0.624162,0.434776,-0.981554,0.111995,0.148075,0.982614
0.199656,-0.071284,0.876107,0.762909,0.532481,-0.366652
0.055043,0.252524,-0.231222,-0.292035,-0.452746,0.842459
-0.418917,-0.065946,0.641829,-0.778441,0.025094,-0.627216
0.787465,-0.054979,0.233725,0.774045,0.245316,0.583673
0.408887,-0.221645,-0.264947,0.148581,0.988043,0.041160
0.042168,0.007792,0.810961,0.928137,-0.346300,-0.136525
0.367752,0.172727,0.670416,0.504176,0.841661,0.193426
0.779035,-0.449063,0.333016,-0.073214,0.090247,0.993225
0.028716,0.108947,0.902657,0.868687,0.447074,0.213326
-0.116579,-0.182829,0.726262,0.215925,-0.673289,0.707148
0.414584,-0.636508,0.283171,0.097812,-0.331824,0.938257
0.567753,0.508802,0.524911,0.112007,0.989461,-0.091768
0.568775,-0.239538,0.531488,0.256416,0.966526,0.008816
-0.189404,-0.166956,0.614703,-0.243478,0.886062,0.394478
0.298349,0.283117,0.741298,-0.461870,-0.405049,0.789057
0.009004,0.440260,0.727613,0.331737,-0.601370,-0.726846
-0.649801,0.311545,0.393623,0.813252,-0.220594,-0.538479
0.075555,0.008225,-0.945505,-0.003104,0.626853,0.779131
0.093563,-0.678642,0.422985,-0.041861,0.631575,0.774184
0.817548,-0.088167,0.516829,-0.036140,0.736543,0.675425
-0.314076,-0.506348,0.567294,0.929783,0.070171,0.361358
0.168892,-0.711833,0.619464,-0.456362,0.648735,0.608996
0.476926,0.386724,0.595970,0.538514,0.471974,-0.698028
0.142676,-0.311976,0.792803,-0.216706,-0.719472,0.659847
-0.002048,-0.052092,0.891519,0.713141,0.679735,0.171437
0.231339,-0.302453,0.806333,-0.658632,0.378861,0.650130
-0.396812,-0.825107,0.571103,-0.398408,-0.272986,-0.875643
0.129120,-0.346032,0.808326,0.134731,0.979886,-0.147210
0.114645,-0.599711,0.408237,0.109499,-0.802172,-0.586967
0.045695,0.034489,0.684876,0.777769,0.503698,-0.375983
0.267007,-0.125253,-0.288043,0.849269,0.013353,-0.527792
0.328661,0.048052,-0.968933,0.304263,0.163449,0.938461
-0.545982,-0.128140,0.370195,0.925418,0.378327,0.021675
-0.350996,-0.432902,-0.445926,0.791121,-0.382666,-0.477172
0.189404,-0.324388,0.793091,0.422881,0.898928,-0.114456
-0.089911,0.142857,0.733060,0.827727,-0.137669,0.543982
0.403420,0.020635,0.632905,0.852660,-0.115096,0.509631
0.216864,-0.445743,0.583326,0.819046,-0.307466,0.484385
-0.236695,0.320922,-0.969287,0.024811,0.164859,0.986005
0.423820,0.025541,0.603233,0.969031,-0.217092,0.117686
0.482394,-0.131313,0.497298,0.419838,-0.761265,0.494178
0.066213,0.126984,0.892803,-0.576787,0.000825,-0.816894
-0.218576,0.429438,0.618911,0.272276,-0.796307,0.540149
0.259599,-0.252238,0.764703,0.124571,0.276155,-0.953006
-0.094134,0.126841,-0.965124,-0.226164,0.372755,0.899947
0.243080,-0.728860,0.283282,-0.812356,0.036693,-0.582006
0.104156,0.364790,0.761293,-0.698482,-0.225863,0.679050
0.446837,-0.044012,0.591120,-0.571460,0.533498,0.623549
0.106897,-0.220634,-0.318446,-0.357957,-0.655479,0.664992
-0.361367,-0.159595,0.421435,-0.331550,0.360423,-0.871877
-0.581198,0.271141,0.657817,0.878965,-0.218026,0.424129
0.706669,0.360318,0.653322,0.416787,0.890036,0.184727
0.669631,0.356854,0.672055,0.825068,-0.131946,-0.549411
0.650371,-0.408947,0.280359,0.472799,0.791124,-0.388052
-0.386212,0.386724,0.703632,0.295094,0.610231,-0.735212
-0.300512,0.097113,0.672830,0.506003,0.683016,0.526735
0.646156,-0.049928,-0.972343,0.017207,0.195321,0.980588
0.106097,0.046465,0.815877,-0.538589,0.633480,0.555540
0.146550,-0.002308,0.588729,-0.113973,0.192608,0.974634
-0.523077,0.289179,0.259012,0.740101,0.503216,0.446121
-0.375841,0.340405,0.495239,0.839142,0.206731,0.503094
0.282963,-0.309523,0.543180,0.690085,0.723678,-0.008461
0.666549,-0.639395,0.273671,0.817234,-0.333714,0.469855
-0.022220,-0.277345,0.843999,0.986303,-0.011773,-0.164523
-0.149173,0.755699,-0.974801,0.028829,0.073338,0.996890
0.694928,-0.509523,0.035341,-0.722402,0.376441,-0.580024
0.596583,0.728139,0.383237,-0.370234,0.910082,0.186218
0.143246,0.079076,0.874513,-0.666224,-0.745554,0.017167
-0.479431,0.069408,-0.965478,-0.210184,-0.156537,-0.965049
0.281252,-0.534631,0.454141,0.810485,-0.160530,-0.563333
0.343929,0.636363,0.628654,0.104884,-0.937347,0.332236
0.053902,0.660317,0.613353,-0.561961,0.526611,0.637872
0.611169,0.737807,0.396568,0.425025,0.800419,0.422710
0.711337,0.800577,0.580890,0.468735,0.774741,-0.424340
0.137438,-0.056709,0.696568,-0.379994,-0.676031,-0.631337
0.427347,-0.651082,0.448361,-0.674977,0.654709,0.340239
0.327069,-0.285281,0.777702,0.017633,0.999685,-0.017847
-0.448318,-0.810679,0.504030,0.353890,0.848612,-0.393217
0.404783,-0.364934,0.511647,0.340218,-0.643238,-0.685927
0.330824,-0.206494,0.608193,0.706875,-0.140114,0.693322
-0.155440,-0.884848,-0.941829,0.085503,0.188950,0.978257
0.193048,-0.432179,-0.721878,0.448775,-0.879091,0.160624
0.266096,0.008802,0.684234,0.267949,-0.785138,0.558356
0.086037,0.232902,0.846058,0.738200,0.530195,0.417077
-0.556353,0.117172,0.286537,0.772034,0.416193,0.480361
-0.431110,-0.895093,0.576971,0.517565,0.380824,0.766225
0.731967,0.442425,0.416386,0.223149,0.852594,-0.472533
0.046613,-0.779655,0.647919,-0.215257,-0.000889,-0.976557
-0.575161,-0.453103,0.330403,0.592149,0.767275,-0.246270
-0.118749,-0.451227,0.484145,0.382672,0.779813,-0.495433
0.605925,0.116739,0.478809,-0.709305,-0.069248,0.701492
-0.569345,0.418759,0.518667,0.992719,-0.007765,-0.120201
0.760345,0.039826,0.332595,0.018900,0.198436,0.979932
-0.320684,-0.573881,0.402524,0.307990,-0.821295,0.480225
-0.309513,0.135498,0.715035,0.865432,-0.327467,0.379201
-0.475445,-0.325108,-0.932684,0.126866,0.244147,0.961404
0.275326,-0.397692,0.251373,0.474185,0.642671,0.601766
0.749856,0.624242,0.560208,0.772477,0.347745,-0.531368
0.531055,-0.384560,0.539703,0.472316,-0.563464,-0.677810
0.037035,-0.015874,0.869641,0.995583,-0.093872,-0.001816
0.501313,-0.555844,0.437777,0.836087,-0.396455,0.379186
-0.268259,-0.132757,0.597653,-0.239188,-0.849150,-0.470886
0.641482,-0.423953,-0.959035,-0.098045,-0.246170,-0.964255
0.517492,-0.109957,0.709500,0.516830,0.005472,-0.856071
-0.884558,-0.033478,0.482795,0.048622,0.997203,-0.056761
0.682735,0.237231,0.620151,0.990481,-0.079965,-0.112036
0.106438,0.092351,0.900797,0.278027,-0.852090,-0.443445
0.228605,0.022222,0.717228,0.009355,-0.993528,0.113205
0.332077,-0.147186,0.580824,-0.328799,0.252542,0.910008
0.257777,-0.249206,0.698804,0.838225,-0.287962,0.463096
-0.033391,-0.094517,0.698893,0.776967,0.113722,-0.619185
0.870772,-0.035354,0.515168,0.900171,-0.432615,-0.050369
-0.071229,0.690621,0.640323,0.826935,0.077514,-0.556929
0.880113,-0.254979,0.138950,-0.537147,-0.748969,0.387968
-0.540626,-0.702742,0.495328,0.997749,0.039614,-0.054104
0.663934,-0.336940,-0.964593,-0.045067,0.067244,0.996718
0.174018,0.329149,0.772188,-0.260465,0.946484,-0.190596
-0.128772,0.546753,0.410230,0.061769,-0.992534,0.105171
-0.515440,0.302308,-0.969486,-0.161450,-0.255993,-0.953101
0.095615,0.781386,-0.981953,0.167081,0.172704,0.970699
0.690825,0.400722,0.499801,-0.366425,-0.544169,0.754727
0.419147,-0.226263,0.514194,0.305834,0.946043,0.107090
-0.146210,-0.117460,0.649358,0.620666,0.761166,-0.188148
0.672594,-0.325973,0.575310,-0.734350,0.675847,-0.062939
-0.579946,-0.495238,-0.945948,-0.024029,0.168139,0.985470
0.319313,-0.219912,-0.250111,0.261743,0.754188,-0.602238
-0.267348,-0.470853,0.173716,-0.680234,0.174878,-0.711828
-0.110312,0.494227,0.661581,0.291478,-0.887918,0.355867
0.272822,-0.260173,-0.754916,-0.146726,-0.892037,-0.427483
0.004559,0.412121,0.554207,0.595026,-0.328469,-0.733520
-0.517151,0.560750,0.504739,-0.130020,0.991323,0.019304
0.137438,-0.249351,0.773583,-0.436949,-0.756101,0.487223
-0.411169,0.357719,0.663729,0.481242,0.876429,-0.016654
0.736523,0.660605,0.421568,-0.537028,-0.002513,0.843561
-0.152024,0.401010,0.524114,0.836015,-0.112079,0.537137
-0.351796,0.082394,0.717405,0.993648,-0.072328,0.086209
0.815844,-0.227993,-0.967604,-0.210884,-0.246964,-0.945799
-0.483194,0.373016,0.529517,-0.162748,0.164938,-0.972784
-0.365812,-0.914575,-0.436625,0.839929,-0.441889,-0.315047
0.765813,0.533044,0.398627,-0.615693,0.038807,-0.787030
0.892995,0.003319,-0.253144,-0.676734,0.629333,0.382061
0.197263,-0.172007,-0.261138,0.054981,-0.997459,-0.045315
0.383819,0.542858,0.720217,0.887700,-0.144262,0.437238
0.119660,-0.164215,0.620682,0.032975,0.922391,0.384847
0.224390,-0.212411,0.653609,0.970933,0.234101,0.049850
-0.005130,0.113852,0.717870,0.393536,0.152746,-0.906531
-0.367522,-0.389466,0.427812,0.678174,0.241260,-0.694172
0.399546,-0.354835,0.598738,-0.076823,-0.083415,0.993549
0.096067,-0.010966,0.966740,0.780062,-0.353084,0.516561
-0.572308,0.018616,0.442626,-0.189937,-0.149635,0.970326
-0.672023,0.269985,-0.278410,0.895932,0.420123,-0.144228
0.346210,-0.644444,0.146523,-0.536950,-0.695815,-0.476997
-0.308149,0.267820,0.647719,-0.089101,0.961215,-0.261011
-0.108379,0.194517,0.801284,0.852213,0.376976,0.362796
-0.322847,0.491920,0.493091,0.966617,0.056658,-0.249883
0.539826,-0.586724,0.526484,-0.559302,-0.613973,-0.556972
0.103475,0.043001,0.882152,-0.292047,-0.438263,0.850079
0.556012,-0.289178,0.276904,-0.065187,0.753279,0.654463
0.187581,-0.294227,0.488419,0.107284,-0.720625,0.684974
0.885699,0.493074,0.341475,0.976737,-0.165933,-0.135837
0.089689,0.544012,0.619508,0.349162,-0.431933,-0.831577
-0.423702,-0.710389,0.551860,0.428144,0.695157,0.577452
0.070088,-0.078211,0.770018,0.410026,-0.907876,0.087401
-0.484898,0.401010,0.388663,-0.233156,0.777395,0.584205
-0.577435,0.491052,0.369088,0.204585,-0.920386,0.333218
-0.017212,-0.079076,-0.952081,-0.420345,0.496115,0.759724
-0.038857,0.793218,0.552281,0.142822,-0.965626,-0.217181
-0.449689,0.380086,0.562245,0.607110,-0.159460,-0.778454
-0.128661,0.581240,0.426284,0.494664,-0.861146,-0.117196
0.041027,0.181962,0.888973,0.599691,0.796885,0.073101
0.319091,-0.487591,0.386625,0.358178,-0.912326,-0.198421
-0.297438,0.286292,0.677104,0.783814,-0.176126,-0.595495
0.405583,-0.391630,0.322077,-0.208326,0.753040,-0.624124
0.203079,0.037807,0.793866,0.932024,-0.165080,-0.322614
-0.681024,-0.055267,-0.956067,-0.052101,0.012937,0.998558
0.276126,-0.069987,0.617383,0.866204,0.215049,-0.451048
-0.432140,-0.564358,0.526572,0.548449,0.740213,0.388959
-0.192026,-0.350361,0.316143,-0.086131,0.351760,0.932119
-0.021879,-0.335642,0.299624,0.008980,0.935204,0.353995
-0.324106,0.113998,0.504429,-0.444927,-0.577237,-0.684717
0.442392,-0.288022,-0.961227,0.262406,0.120521,0.957402
0.016071,-0.039249,0.602037,-0.429646,0.028438,-0.902549
0.275556,-0.708081,0.626794,0.372312,-0.735682,-0.565823
0.015612,-0.273160,-0.244996,0.044490,0.994436,0.095482
-0.268489,-0.722655,-0.944841,0.069053,0.196253,0.978119
-0.046613,0.588167,0.625620,-0.723767,0.249683,-0.643288
-0.126838,-0.113563,0.640833,0.845746,0.530090,-0.060978
0.064273,-0.204473,-0.596324,0.664420,-0.421987,0.616824
-0.022449,0.010535,0.609876,-0.722330,0.660954,-0.203418
0.070658,0.096971,0.880868,0.960365,-0.255242,0.112029
0.478631,-0.288313,0.502126,0.633889,0.397719,-0.663328
-0.019034,0.505772,0.686205,-0.248655,-0.773762,0.582634
-0.025871,-0.853535,-0.942183,-0.055772,0.206051,0.976951
0.033161,0.099855,0.840146,0.052524,0.997651,-0.043974
0.218575,-0.474170,-0.942471,0.141127,-0.153807,0.977971
0.584043,0.019192,0.625221,0.512650,0.037971,0.857758
0.266555,-0.656999,-0.947985,-0.011654,0.129664,0.991490
0.826437,-0.302453,0.428078,-0.776978,0.628249,-0.040099
-0.420169,-0.763924,0.502414,0.390619,0.766552,-0.509721
0.486497,0.669697,-0.987998,0.038453,0.232002,0.971955
-0.121824,-0.477489,0.710784,-0.211565,0.849170,0.483891
-0.227695,0.830304,0.413552,-0.354580,0.783041,0.510999
-0.045583,0.325973,0.756134,-0.503162,0.681524,-0.531369
0.091511,0.060750,0.919287,0.525844,0.757050,0.387766
0.325698,-0.348630,0.368534,0.798503,-0.589493,-0.122028
0.189515,-0.322512,0.791408,0.422881,0.898928,-0.114456
0.244332,0.164935,0.713574,0.631818,0.745203,-0.213256
-0.058917,0.560461,0.553322,-0.754290,0.632233,0.176997
0.751227,0.550504,0.033614,0.827244,-0.560093,-0.044305
0.340514,0.112121,0.477901,0.443600,0.030245,0.895715
0.567182,-0.436942,0.545571,0.233929,-0.623233,-0.746229
0.740627,0.301731,0.669376,-0.578504,-0.069132,-0.812745
0.000115,-0.598700,0.627768,0.951797,0.092421,-0.292475
0.047176,-0.510388,0.348804,0.904139,0.069610,0.421529
0.193389,-0.671718,0.613840,0.455961,0.087158,-0.885722
-0.593391,-0.180808,0.680270,0.275567,0.749817,0.601529
0.216524,0.765224,0.318158,0.091729,-0.991134,0.096122
-0.235554,0.345022,0.690279,0.763522,0.575082,0.293794
0.254926,0.539105,0.511670,0.525552,-0.043532,0.849647
0.153506,0.515729,0.475775,-0.652879,0.366824,-0.662714
0.243762,-0.726408,-0.945394,-0.036954,0.110994,0.993134
0.318291,-0.560029,0.598893,-0.641852,0.762180,-0.084299
-0.469060,0.193506,0.527170,0.500857,-0.712413,0.491539
-0.618688,0.198846,0.543202,-0.514370,-0.779232,-0.358079
-0.358063,0.316451,0.723406,0.904134,-0.138004,0.404348
0.649571,0.424964,0.411470,0.173055,-0.501831,0.847477
0.042509,-0.199710,0.592338,0.258181,0.347375,0.901484
-0.218576,-0.683405,0.611935,-0.216432,0.771061,0.598851
0.263022,0.083550,0.685740,-0.111596,-0.914779,-0.388233
-0.210827,0.159307,-0.587821,-0.152136,-0.984798,-0.083833
0.119090,-0.557865,-0.952081,-0.050613,-0.160767,0.985694
0.064843,0.123666,0.906621,-0.538239,-0.824329,-0.175445
0.243191,-0.169840,0.428299,-0.276958,0.292984,-0.915126
-0.368204,-0.605196,0.583127,0.975118,0.125737,0.182582
0.168433,-0.756421,-0.944021,-0.010927,0.242824,0.970009
-0.495268,0.453392,0.417183,0.750641,-0.294934,-0.591229
0.086607,-0.051949,-0.828255,-0.636110,-0.769551,-0.056177
0.134357,0.098267,0.742693,0.718093,0.067867,0.692630
0.927405,0.961038,0.341165,0.661135,-0.750192,0.010591
0.788606,-0.409379,0.421213,0.909366,-0.404678,-0.096384
0.243873,-0.036076,0.736360,0.725013,-0.629165,0.280191
-0.478631,0.261616,0.652547,0.688540,-0.573138,0.444326
-0.475668,0.584272,0.419309,0.975350,-0.211601,0.062594
0.535270,-0.562482,0.278565,0.129296,0.807359,-0.575721
0.318402,0.378210,0.753366,0.819203,-0.390927,0.419622
0.344277,-0.272583,0.407152,-0.559607,-0.341564,-0.755099
-0.310772,0.179366,0.510363,-0.470353,-0.255533,-0.844672
-0.064162,-0.298413,0.652391,-0.199102,0.973800,0.109872
0.609917,0.104763,0.614570,-0.380532,-0.611480,0.693749
0.860401,0.118326,0.324159,0.306409,-0.911808,0.273349
-0.076696,-0.285714,-0.698561,-0.594121,0.802726,0.051483
0.237606,-0.719192,-0.206798,-0.756109,-0.652738,-0.047250
0.754760,-0.216451,0.502857,-0.033483,-0.209070,0.977327
-0.095726,-0.678642,0.680514,0.928180,0.371764,0.016560
0.688661,-0.031025,0.500199,0.011477,0.310706,0.950437
0.019827,0.020346,0.725841,-0.615444,0.204939,0.761071
0.917152,0.423522,0.589017,0.241207,0.488028,0.838837
-0.432710,0.175180,0.708725,0.343718,0.908467,-0.237793
0.030538,0.589900,0.626019,0.203780,0.048139,-0.977832
0.821882,-0.088744,0.434987,0.606081,0.711590,0.355395
-0.421539,0.485136,0.493091,0.249892,0.190508,-0.949348
-0.004441,0.426840,0.886891,0.989757,0.120721,0.076202
0.185300,0.507505,0.793091,0.941438,-0.332720,0.054701
0.220627,-0.583549,0.597321,0.491093,0.871022,0.012199
0.656978,0.044012,0.624469,0.411026,-0.713279,0.567706
0.944731,-0.261472,0.429052,0.833368,-0.531328,0.152276
0.696869,-0.009812,0.598361,-0.623501,-0.661782,0.416283
-0.548945,-0.042569,0.439194,0.487909,-0.072023,0.869918
0.324557,-0.035931,0.579097,0.070780,0.075124,0.994659
0.252762,0.018470,0.700664,0.927126,-0.307554,-0.214121
0.910085,0.434055,0.409655,-0.110022,0.914659,0.388965
0.349632,0.615873,-0.988906,0.030789,0.193045,0.980707
0.221079,-0.725397,0.730735,0.215311,-0.941195,0.260369
0.037946,-0.384993,0.619774,0.643489,-0.360226,0.675395
0.296867,0.458152,0.684123,0.825067,-0.420025,-0.377947
0.707921,0.194660,0.649491,0.856027,0.472938,-0.208682
0.702106,0.085858,0.421081,0.048836,-0.989600,0.135306
0.686380,0.478788,0.542693,0.431278,0.775004,-0.461918
0.099712,0.515440,0.805270,-0.441880,0.768449,-0.462849
-0.149291,-0.719192,-0.943136,0.036489,0.069455,0.996918
0.647637,-0.237519,0.254097,-0.698024,-0.587469,-0.409442
-0.712025,0.019481,0.427724,-0.139520,0.313037,0.939437
-0.553960,-0.095671,0.499823,0.257180,-0.851677,0.456623
0.780287,0.096825,0.310629,-0.348282,-0.920115,-0.179134
0.035554,0.467098,0.665035,0.124930,-0.990739,0.053185
0.526040,0.101588,0.610474,0.938666,0.343684,-0.028069
-0.365930,0.204040,0.529495,0.764305,0.599010,-0.238800
-0.076466,-0.696825,0.666696,0.936548,0.204690,0.284569
0.346892,-0.236219,0.770682,-0.722057,0.401338,0.563526
0.003648,0.384272,0.778299,0.336283,0.368145,-0.866823
0.115216,-0.061327,0.795483,0.989595,0.118558,-0.081516
-0.596695,0.353968,0.523605,0.984221,0.169146,0.051947
0.041138,-0.205915,0.795394,0.778132,0.051721,0.625968
0.052880,0.532178,0.508282,-0.098112,0.926960,-0.362105
0.913048,0.931025,-0.994907,-0.001505,0.084262,0.996443
0.186100,-0.414719,0.830425,0.463092,0.834984,0.297231
-0.002278,0.771572,0.520859,-0.374258,0.408371,-0.832565
-0.973332,0.005339,0.648229,-0.043513,-0.825521,0.562691
-0.409798,-0.616161,0.408857,0.939676,0.264567,-0.216826
-0.423821,-0.502020,0.320815,-0.049924,0.566319,0.822673
-0.135269,-0.116884,0.603809,0.666403,-0.744853,0.033165
0.286038,0.304330,0.671368,0.357141,-0.622776,0.696133
0.018234,-0.599856,0.619730,-0.263894,0.815355,0.515321
-0.172537,-0.253535,0.563618,0.834343,0.550031,-0.036569
-0.293104,0.350938,0.624336,0.052266,0.189036,0.980578
0.411968,-0.330881,-0.508215,0.033665,0.966198,0.255594
0.406153,0.235643,0.596612,-0.368195,0.026277,0.929377
-0.053902,0.703751,0.449690,-0.613783,0.752670,-0.238240
-0.496980,-0.501299,0.408437,0.848740,-0.361736,0.385730
0.488890,-0.524820,0.284544,0.199608,-0.204611,-0.958275
-0.172537,-0.126264,0.498339,0.525312,0.294787,-0.798216
-0.146099,0.696104,0.548494,-0.719585,0.626829,-0.298801
0.019827,-0.691920,0.644973,0.892711,0.119559,0.434479
0.125698,0.309524,-0.123096,0.947828,0.226356,0.224467
-0.020627,0.046753,0.786138,0.889416,-0.424538,0.169428
0.500624,-0.096105,0.702391,0.859422,0.004940,-0.511243
-0.046954,-0.154546,-0.107551,0.815139,-0.574830,0.071550
-0.817548,0.000578,0.482108,0.624744,0.776370,-0.083330
-0.689002,0.331747,-0.455934,-0.290380,-0.908378,0.300879
-0.294245,-0.502308,0.505757,0.156121,-0.651867,-0.742088
0.137779,-0.340115,0.441054,0.476369,-0.862674,0.169902
0.135728,-0.215872,0.706776,-0.174381,0.441045,0.880381
0.040568,0.682972,0.565478,0.123303,0.153465,0.980431
-0.554989,-0.030880,0.617183,-0.403007,-0.180939,-0.897132
-0.223250,-0.849640,0.503742,-0.067278,-0.950965,0.301894
0.349632,0.189611,0.722719,-0.579431,-0.632733,0.513720
0.127638,0.562337,0.540434,0.159547,0.981096,0.109527
-0.156469,-0.227562,0.680912,-0.303881,0.056134,0.951055
-0.841142,0.029726,0.488463,0.740002,-0.417455,-0.527379
0.809118,0.104618,0.291209,0.448414,0.840902,-0.302999
0.457319,-0.218036,0.698406,0.797530,0.487796,-0.354965
-0.269400,0.460174,0.622431,0.326640,-0.720180,0.612083
-0.663935,0.417172,0.136426,0.942006,0.329285,0.064774
-0.021997,-0.419047,0.485828,0.540758,0.555306,0.631836
-0.134246,0.583838,0.450332,0.822316,-0.562223,0.087761
0.659601,-0.404907,0.334920,0.498591,-0.055412,-0.865065
-0.491394,-0.151083,0.651838,-0.000528,0.898563,0.438845
-0.017552,-0.536652,0.710850,0.602725,0.210628,0.769648
0.392138,0.500866,0.607905,0.418329,0.645735,-0.638770
0.364789,-0.284704,0.513441,-0.637316,0.567720,0.521078
-0.137439,0.052092,-0.963906,-0.004808,0.566034,0.824368
-0.210257,0.413565,0.598428,0.776634,-0.561627,0.285333
0.377893,-0.117315,0.650930,0.906278,0.102141,-0.410155
0.721596,0.339827,0.398051,-0.154320,0.874441,-0.459932
0.228946,-0.430158,0.683769,0.985392,0.117521,0.123250
0.160684,-0.642713,0.617028,0.101959,0.258089,-0.960726
0.061310,-0.352814,0.403942,-0.644781,-0.172963,0.744541
-0.009345,-0.445888,0.681289,0.048396,0.593175,0.803618
0.259259,-0.361617,0.773760,-0.873838,0.104663,-0.474819
-0.256414,0.295526,0.616585,0.897500,-0.425063,0.117537
0.235213,-0.704761,0.624889,-0.033355,0.930657,0.364370
0.354300,0.224099,0.729451,0.513963,0.819982,0.251937
0.076584,-0.239971,-0.221988,0.510924,-0.851632,-0.116959
0.283193,0.269553,0.583525,0.543760,0.284969,-0.789379
-0.452311,-0.157576,0.629606,-0.071059,0.466173,0.881835
0.135387,-0.157288,-0.259854,-0.001292,0.999511,0.031253
0.194989,-0.411112,0.607684,0.469950,0.371229,0.800835
0.770257,0.850506,0.602325,0.531227,0.752634,-0.389025
-0.193278,-0.137805,0.583193,0.028004,-0.983321,0.179709
0.327409,-0.161183,0.766541,0.763272,-0.144141,-0.629794
0.098348,-0.307359,0.737400,0.983958,0.108210,-0.141834
-0.058917,0.272583,0.732329,-0.173389,0.967057,-0.186379
0.184389,-0.200290,0.669774,0.804369,0.581289,-0.122858
0.104504,0.921646,0.565478,0.181770,-0.961930,0.204083
0.088318,0.022656,0.574535,-0.479703,-0.044258,-0.876314
-0.267807,-0.657864,0.520593,0.101760,0.149260,0.983548
-0.065755,-0.168255,-0.387312,0.813422,-0.201378,0.545702
0.354988,-0.339682,0.600952,0.142560,0.147846,0.978682
-0.031679,-0.041270,0.769088,0.910967,0.230705,0.341928
0.054813,-0.092065,0.809920,-0.164333,0.406908,-0.898566
0.514528,-0.066812,0.684145,-0.717714,0.194572,0.668602
-0.356129,-0.758873,0.274978,0.860163,-0.335406,0.384217
0.396924,0.105483,0.727702,0.903107,0.263622,-0.338971
-0.082163,0.670851,-0.973494,0.105051,0.115296,0.987761
-0.327291,-0.943723,-0.937666,0.071861,0.152151,0.985741
0.373900,0.444012,0.498074,0.069378,-0.616957,0.783933
-0.332077,0.713419,0.543756,0.923989,0.316954,-0.213973
0.313046,0.060896,0.650354,-0.494176,0.786257,-0.370930
0.207064,0.698413,0.479473,0.959189,-0.238545,0.151830
-0.332536,-0.707647,0.537245,0.550948,0.668605,0.499424
-0.241028,0.332900,0.691519,0.877788,0.277262,0.390658
-0.329573,0.187158,0.549579,-0.717104,-0.604367,0.347135
0.218234,0.318615,0.533658,0.980129,-0.182774,-0.077071
-0.839431,-0.025109,0.478034,0.231465,-0.957256,0.173450
0.780509,-0.186002,0.128432,0.392526,0.766883,-0.507755
0.759086,-0.264647,-0.957285,0.093022,0.259230,0.961325
0.693906,-0.510534,0.338950,0.425136,0.811455,0.400999
-0.271222,-0.358875,0.444575,0.666122,-0.355594,-0.655618
0.658578,0.431457,-0.979938,0.131676,0.134715,0.982096
0.183818,-0.618614,0.307329,0.796931,0.353117,0.490112
0.874647,0.426118,0.595682,-0.323309,-0.448313,-0.833359
0.382790,0.161905,0.518733,0.909791,-0.085757,-0.406111
0.192708,-0.332323,0.777015,0.426646,-0.896659,0.118221
0.156469,0.126407,0.886647,-0.581256,-0.605701,0.543386
0.491624,-0.439106,-0.962267,0.135862,0.116789,0.983820
0.664957,-0.229726,0.341408,-0.199836,-0.527944,0.825434
0.816866,-0.184417,0.105868,0.420647,0.800090,-0.427682
0.716240,0.243578,0.670062,-0.488997,-0.047658,0.870983
0.223020,0.208657,0.648494,0.311969,0.943290,-0.113487
-0.185530,0.265368,0.716475,0.764014,0.343021,-0.546460
0.041938,-0.041270,0.933437,0.926684,0.217527,-0.306494
-0.138802,-0.309957,-0.932396,-0.363591,0.059795,0.929638
0.090029,-0.140692,0.781621,0.811222,0.113174,-0.573681
0.225872,-0.389322,0.132086,-0.114733,0.671559,0.732015
0.069399,0.830592,0.539061,-0.498886,0.850521,0.166514
-0.203079,-0.370996,0.690523,-0.340459,-0.541631,-0.768586
0.268830,-0.338962,0.738950,0.680876,-0.680103,0.271787
0.270089,-0.254257,-0.943313,-0.361122,-0.000793,-0.932518
0.455837,-0.126552,0.729650,-0.094208,0.995552,-0.000413
0.088207,-0.136075,0.711847,0.161636,0.980386,-0.112767
-0.457096,0.057287,0.587821,-0.288395,-0.227764,0.930028
-0.005811,-0.693796,0.643977,0.882924,0.071423,0.464052
0.201256,0.226840,0.817493,-0.494838,0.296666,-0.816777
0.215383,0.139105,0.581244,0.067205,0.522315,0.850100
-0.405813,-0.897403,-0.404473,0.851406,-0.391779,-0.348735
0.328091,0.100723,0.821435,-0.736982,0.641038,-0.214305
0.063021,-0.461184,0.685562,0.014432,0.316761,0.948396
-0.082963,-0.600576,0.737976,-0.664942,-0.561215,-0.492839
-0.099030,-0.700866,0.648716,0.868343,0.482637,0.114199
0.109519,-0.634775,-0.947653,0.057668,0.128572,0.990022
-0.172078,-0.154401,0.578233,0.554003,0.715173,-0.426154
-0.535270,0.262481,0.544486,-0.411748,-0.622564,0.665490
-0.315328,-0.578498,0.389393,0.225123,0.398824,-0.888965
-0.311794,-0.373592,0.455469,0.061729,-0.992035,0.109802
-0.325128,-0.036507,0.569818,0.718419,0.694898,0.031496
0.852082,0.389466,0.593313,-0.102920,0.800252,0.590766
0.167292,-0.281674,0.744420,0.992367,0.031730,-0.119169
-0.063821,0.106494,0.732617,0.482791,0.189713,0.854940
0.656408,-0.365080,0.271811,0.754140,0.651426,0.083172
-0.534929,0.498556,0.376838,-0.667975,0.398020,0.628800
0.635555,0.339105,0.399956,-0.489755,0.614580,-0.618410
-0.202397,0.643002,0.569841,-0.773481,-0.419255,0.475344
0.258807,-0.675613,0.428919,0.807473,0.559606,-0.186626
-0.459371,-0.000721,0.593136,-0.323344,-0.879412,-0.349405
0.042620,0.197692,0.622653,-0.455931,-0.817142,-0.352713
0.703476,0.100577,0.647011,0.819586,0.220665,-0.528758
0.341654,0.027562,0.651572,-0.741781,0.642588,-0.191943
-0.278630,0.408080,0.502724,0.453747,-0.295987,-0.840539
0.597947,-0.682683,-0.951927,0.012148,0.361689,0.932220
0.188493,-0.285281,-0.945992,-0.217389,-0.031228,-0.975585
-0.667690,0.060173,0.436227,-0.230732,0.200812,0.952070
-0.442392,-0.080231,0.605536,0.137569,0.582221,0.801308
0.186893,0.314429,-0.304694,-0.274812,-0.269851,0.922854
-0.084103,-0.645023,0.661913,0.761863,0.552156,0.338656
0.302675,0.699710,0.480779,0.015227,0.459906,0.887837
0.327632,-0.399422,0.588264,-0.391944,0.280541,0.876171
0.352707,0.522944,0.545926,-0.590221,-0.398281,-0.702147
0.039087,-0.609380,0.705912,0.462006,0.651907,0.601305
-0.447067,0.288888,0.649181,-0.726466,0.685654,0.046105
0.721825,0.062049,0.254008,0.945500,-0.054764,-0.320983
-0.450029,0.607938,-0.509477,-0.031838,0.955897,-0.291973
-0.284216,-0.539393,0.552679,-0.512038,0.854646,-0.086008
0.140624,0.155700,0.790456,0.191006,0.740357,-0.644506
-0.614133,0.418614,0.268534,0.967178,-0.237866,0.089367
0.679090,0.748917,0.576196,-0.470106,-0.185552,0.862885
-0.450600,-0.715874,0.348295,-0.708545,0.603693,0.365401
0.187804,-0.138240,0.821767,0.988321,0.132285,-0.075639
0.273615,-0.565369,0.304628,0.977652,-0.156319,-0.140575
-0.454926,-0.638239,0.356842,0.789783,-0.384880,-0.477608
0.065414,0.058440,0.775664,-0.560101,-0.781352,-0.275275
0.185071,0.626118,0.546856,-0.442313,-0.677967,-0.587128
0.681024,0.381962,0.650376,0.279100,0.936275,0.213287
0.370937,0.323232,0.394531,0.145008,-0.244145,0.958836
-0.294357,0.062915,0.682529,0.540226,0.788045,0.295197
0.228946,-0.524531,-0.951307,0.104383,-0.102909,0.989199
-0.443304,-0.218470,-0.955625,0.119689,0.234893,0.964624
0.568886,-0.372584,0.536515,-0.638186,0.245168,0.729802
0.329684,0.094806,-0.966873,-0.317618,-0.326258,-0.890323
0.345410,0.300866,0.705337,0.974433,-0.000790,-0.224675
0.066095,-0.144156,0.897830,-0.478379,-0.437092,-0.761646
0.406953,0.635786,-0.991563,0.072557,0.120352,0.990076
0.238747,-0.635209,0.412799,0.875838,0.329596,-0.352526
0.835327,-0.004473,0.501705,-0.591898,0.529659,0.607551
-0.445926,0.461473,-0.974889,-0.029706,0.225534,0.973782
0.276926,-0.014718,0.755647,-0.228508,-0.248078,0.941404
0.454926,-0.489467,0.454805,0.598367,0.051817,0.799545
-0.415154,0.241702,0.521856,0.004007,-0.500050,0.865987
-0.394072,0.184271,0.713419,0.853873,0.013442,-0.520308
0.299371,-0.401732,0.429473,0.361319,0.863293,0.352383
0.278978,-0.251659,0.609566,-0.094329,-0.250486,0.963514
0.329002,-0.402743,0.429384,0.509261,-0.129415,-0.850826
-0.341314,-0.382972,0.507706,0.909791,0.405450,0.088830
0.307009,-0.206349,-0.951085,0.224753,0.162144,0.960830
-0.436237,0.166522,0.627857,0.998049,-0.037839,-0.049673
0.616414,0.113564,0.455868,0.958490,0.022196,0.284260
-0.480571,0.044012,0.602059,0.831776,0.471448,0.293062
-0.467578,-0.593075,0.529473,0.458603,0.612512,0.643826
-0.294927,-0.054690,0.639083,0.090401,0.978082,0.187574
-0.089459,-0.177632,0.651661,0.801779,0.575607,0.160706
0.668831,-0.209812,0.344154,-0.232091,-0.557952,0.796758
-0.029405,-0.839250,0.331444,-0.530573,0.803014,-0.271407
0.172989,-0.514574,0.606200,-0.536678,-0.226689,-0.812766
0.129572,-0.028861,-0.548738,0.884210,0.257983,0.389380
-0.474527,-0.325685,0.440700,0.770320,0.316568,0.553527
0.246954,0.680953,0.622077,0.122276,0.991216,-0.050390
-0.136639,-0.882395,0.390855,0.893841,-0.401203,0.200212
-0.285245,-0.107504,0.659500,0.739784,0.604852,-0.294744
0.128890,-0.322943,0.671391,-0.404446,0.889142,-0.214126
0.592591,0.134054,0.406953,-0.142752,0.434888,0.889098
-0.037265,-0.204039,0.697653,0.904570,-0.384058,0.185072
-0.286156,-0.056566,0.695128,0.964542,0.260148,0.044516
0.275215,0.135498,0.703477,0.850388,0.213846,-0.480739
-0.315098,-0.455411,0.565035,0.829796,-0.323241,0.454921
0.410939,0.523087,-0.985275,0.083986,0.005428,0.996452
0.399657,-0.455556,-0.487489,-0.208517,0.894842,0.394688
0.267007,0.246753,-0.964260,0.048796,0.316378,0.947377
-0.014360,0.199279,0.829052,0.726950,-0.077161,-0.682342
0.459830,0.449928,0.408547,0.674936,0.269266,-0.686992
-0.007634,-0.811689,-0.944508,-0.067003,0.194080,0.978695
-0.033161,0.063926,0.673738,-0.600915,-0.698461,0.388655
-0.321365,0.237519,0.677879,-0.738154,0.570954,0.359362
-0.009234,0.476047,0.608924,0.520725,0.025911,0.853331
-0.305416,0.190619,0.549756,-0.625158,-0.752244,0.208100
0.058806,0.455557,-0.974911,0.055839,0.101344,0.993283
-0.459259,0.287157,0.672033,0.564419,-0.607556,0.558844
0.521706,-0.018470,0.625930,0.106953,0.567601,0.816327
0.903018,-0.148918,0.353277,0.891111,-0.450697,0.052847
-0.272593,-0.406638,0.435983,-0.702234,0.711676,-0.019631
0.650830,0.765512,0.568977,-0.633054,-0.623302,0.459062
0.686721,-0.184271,0.600244,0.453393,-0.567277,-0.687482
0.295497,-0.088312,0.631333,0.821204,0.553948,0.136987
0.374930,0.585569,0.483547,0.382869,-0.157775,0.910230
0.189515,-0.341846,0.782418,-0.046990,-0.998717,0.018896
0.136750,0.337375,0.768091,-0.358766,-0.722807,0.590625
0.657778,0.316882,0.496678,-0.665543,0.337656,0.665613
-0.446726,0.006495,0.617050,0.880704,-0.367397,0.298964
-0.144728,-0.250071,0.552104,0.129619,-0.454111,0.881466
0.318632,-0.046610,0.578144,0.792963,0.135213,-0.594077
0.015160,-0.499278,0.314593,0.013183,0.735394,0.677511
-0.073732,-0.197115,-0.648118,-0.260802,0.952805,0.155388
-0.485698,-0.424964,-0.940899,0.240509,-0.032247,0.970111
-0.369456,0.328860,0.656023,0.382710,0.879902,-0.281612
0.658690,0.811399,0.440678,0.234292,-0.939490,0.249930
0.272822,-0.392207,0.590368,0.375389,-0.371887,-0.848989
-0.345529,0.683261,-0.360695,0.693348,0.395583,0.602315
-0.027923,-0.136652,0.676373,-0.316313,-0.946138,0.069064
0.338121,-0.705195,0.150266,-0.536950,-0.695815,-0.476997
-0.647178,0.018036,-0.091342,-0.284956,-0.936838,-0.202820
0.878750,0.178644,-0.979495,0.052030,0.135420,0.989421
-0.401368,0.550793,0.515235,0.003771,0.632714,0.774376
-0.404331,0.541847,-0.982662,-0.147500,0.041970,0.988171
-0.451282,0.560318,0.405957,0.781369,-0.507557,-0.363110
-0.382679,0.087879,0.431045,0.329175,0.188983,0.925165
-0.383820,-0.533046,0.417582,0.911696,0.022231,-0.410264
0.856068,0.354690,-0.980624,0.065497,0.111354,0.991620
-0.001367,-0.114862,0.800354,0.850428,0.222926,-0.476525
0.563760,-0.495672,0.458924,0.987407,0.109206,-0.114463
-0.241481,0.572006,-0.978565,0.039812,0.027858,0.998819
0.573108,0.686147,0.425022,-0.265773,0.707351,-0.654995
-0.033391,-0.590476,0.708747,0.575302,-0.193398,0.794748
0.306327,-0.088889,-0.340345,0.268601,0.897735,0.349177
0.103475,-0.386147,0.411182,-0.583070,-0.396865,0.708892
-0.247636,-0.908802,-0.425642,0.851406,-0.391779,-0.348735
0.439888,0.669552,-0.014349,0.305328,-0.946853,0.101210
0.240799,0.838673,0.386094,-0.175401,-0.953143,-0.246481
0.151906,0.047764,-0.949579,0.239936,0.668200,0.704230
0.349062,0.076912,0.676196,0.341120,0.582435,-0.737839
0.680913,0.662481,0.558658,0.677385,0.371102,-0.635164
0.237606,0.694805,-0.977325,0.188879,0.153574,0.969917
0.478971,0.656711,0.631466,-0.320227,-0.402448,0.857607
-0.029287,0.249783,0.736426,0.266842,0.741931,-0.615089
0.430769,0.095383,0.722321,0.937857,-0.003776,-0.347001
0.683758,-0.522222,0.596058,-0.680977,0.142416,-0.718323
-0.012419,-0.612554,0.613043,-0.642288,0.691817,0.329932
0.719544,-0.133045,0.604473,0.728966,0.503400,0.463894
-0.514306,-0.408947,-0.947254,-0.080939,-0.165077,-0.982954
-0.436696,-0.895527,0.303144,0.867371,0.494851,0.052812
0.701084,-0.423376,0.288928,0.602842,0.797005,0.036959
-0.267696,-0.881818,0.556687,0.900041,0.417176,0.126057
0.332877,-0.698844,0.476639,-0.219258,0.687210,-0.692581
-0.608658,0.253247,0.565257,-0.428629,-0.878578,0.210661
0.117490,-0.397835,-0.944796,0.042172,0.233560,-0.971427
-0.286267,-0.339970,0.719708,0.330996,0.681830,0.652342
-0.194301,0.101154,0.448539,0.950680,-0.120542,-0.285791
-0.161025,0.246899,0.727148,-0.603509,-0.587139,0.539486
0.875787,-0.423810,-0.441585,-0.351094,0.910533,0.218318
0.487520,-0.128716,0.664570,0.530933,0.847266,0.015796
0.511224,0.568687,0.462267,0.923264,-0.375347,-0.081843
-0.135610,-0.407214,0.543778,-0.716854,0.224709,-0.660020
-0.361367,0.127849,0.694774,-0.629451,-0.772562,-0.083307
-0.251169,0.296537,0.606909,0.763736,-0.615671,-0.194051
-0.459600,-0.209090,0.658105,0.644083,0.465339,0.607138
0.578235,-0.084704,0.490213,-0.517348,0.107663,0.848976
0.208546,-0.737952,0.388729,0.373443,-0.869176,0.324151
-0.207405,-0.396538,0.451284,-0.364872,0.930910,-0.016604
0.572761,-0.178355,-0.965102,0.026412,0.187016,0.982002
-0.139943,0.233478,0.734012,0.200472,0.212760,-0.956318
0.022567,-0.755700,0.338707,0.344947,-0.675283,0.651924
-0.241251,-0.252670,0.012622,0.827406,-0.526015,0.196742
-0.522847,-0.125830,0.645173,-0.143110,0.475546,0.867972
-0.103245,0.541124,0.386205,-0.087069,0.895559,0.436340
0.524329,0.121356,0.474225,-0.016252,0.101836,0.994668
0.276126,0.139539,0.680425,0.317782,0.947153,-0.043771
-0.168203,0.140838,0.482883,-0.772908,-0.525323,0.355876
0.358974,-0.141846,-0.950731,0.414977,0.212164,0.884749
-0.070999,-0.598846,0.393822,-0.402667,0.833432,-0.378484
0.227465,0.569407,0.505713,-0.292954,-0.212548,-0.932202
0.232709,-0.293218,0.795992,-0.212867,0.395602,0.893413
0.518743,-0.139393,0.466608,0.157542,-0.790955,0.591245
0.232020,0.207503,0.652502,0.393382,0.885927,0.245731
0.474075,0.640838,0.609145,-0.517468,0.808857,-0.279244
0.340284,-0.247906,-0.956222,-0.344569,-0.197511,-0.917748
-0.601480,0.420058,-0.969442,0.161954,0.271462,0.948725
0.443303,0.604328,-0.984832,0.023576,0.099176,0.994791
-0.764901,0.004762,0.326484,0.834196,-0.139199,0.533610
0.096408,-0.702885,0.615434,0.758888,0.016848,0.651003
-0.373789,-0.188312,0.625864,-0.760877,0.093675,-0.642099
-0.159091,0.184560,-0.425066,0.970812,0.183869,-0.153998
0.445244,0.478066,0.475930,-0.744042,-0.215751,-0.632339
0.268607,0.264936,0.809234,0.683256,0.728337,0.051837
-0.262333,-0.397546,0.699491,0.261114,-0.827109,0.497705
0.318972,0.100432,0.014858,0.103752,-0.470406,0.876330
0.823133,0.724387,-0.995505,-0.015389,0.109104,0.993911
0.200345,0.097402,0.890700,0.537713,0.712080,-0.451450
-0.159432,-0.147908,0.604185,-0.230384,0.969874,0.079170
-0.715218,-0.014286,0.439083,0.099967,0.122578,-0.987411
-0.412310,0.377922,0.417604,-0.246654,0.009701,0.969055
0.665416,0.293796,0.639283,0.906317,0.393754,0.153452
-0.162055,0.040548,0.651616,0.117277,-0.506019,0.854512
-0.098237,-0.322655,0.489283,-0.618705,0.283214,-0.732799
0.207523,-0.139681,0.733658,0.885223,0.447037,0.128598
-0.254932,-0.557865,-0.938773,-0.134280,-0.049799,0.989691
-0.293675,-0.787156,0.517228,0.801826,0.596855,0.028955
-0.048658,-0.852813,0.350155,0.652066,-0.754814,0.071167
-0.566494,0.386868,0.684721,0.475605,0.675493,0.563479
0.038176,-0.433478,-0.943911,0.006717,-0.187152,0.982308
-0.778465,0.176046,-0.962135,-0.057287,0.197182,0.978692
-0.242510,0.170706,0.692936,-0.041547,0.701338,0.711617
0.133217,-0.457721,0.343733,-0.321712,0.909902,-0.261876
-0.239658,0.092063,0.743003,0.074538,0.960279,-0.268903
-0.429518,-0.270130,0.653942,0.866839,-0.052008,0.495868
0.216983,0.134922,0.700731,-0.702646,-0.359043,0.614310
0.430088,-0.295526,0.680580,0.205556,-0.740908,-0.639376
-0.265296,-0.642713,-0.201749,-0.566530,0.332642,-0.753918
0.154869,-0.347186,0.788751,0.022225,0.992642,0.119031
-0.385412,-0.858009,0.572631,-0.358014,-0.210369,-0.909709
-0.339143,-0.860751,-0.940390,0.061868,0.172268,0.983105
-0.206153,-0.405773,0.550443,0.870786,-0.292672,0.395063
-0.494698,0.252524,0.599734,-0.572547,0.806351,-0.148285
0.249569,-0.372293,0.794265,-0.378763,0.920603,-0.095023
0.327632,-0.632611,0.439061,0.452831,0.812265,-0.367655
-0.168892,0.621935,0.426129,0.775945,-0.549438,-0.309882
-0.025183,-0.160751,-0.783105,0.130767,0.955605,-0.264045
-0.196123,-0.273305,0.665500,0.081821,0.995881,0.039068
0.238976,0.180086,0.722697,0.461525,-0.644864,0.609217
0.084903,-0.618182,0.367604,-0.735411,0.602398,-0.310303
-0.189286,0.467678,0.475332,0.447040,-0.894156,0.025291
-0.756471,0.189466,0.338065,0.067591,0.984890,-0.159446
0.905870,0.962049,0.340833,-0.660114,0.751066,0.012187
0.616636,0.409813,-0.979606,-0.055960,-0.120294,-0.991160
0.469060,-0.043723,0.606532,-0.462094,0.877949,-0.125200
0.272822,-0.592207,0.324646,0.744393,0.094639,0.661001
0.507010,-0.301588,-0.960651,0.138624,0.114045,0.983757
-0.158973,0.068254,-0.951041,-0.220181,-0.531285,-0.818081
0.678861,0.282106,0.635895,-0.047882,-0.223293,0.973575
0.229746,0.728715,0.507972,0.541129,-0.230213,0.808814
0.575612,-0.142425,0.731798,-0.280199,0.921443,0.269130
0.165699,0.523232,0.785850,0.928559,-0.370034,0.029197
-0.109742,-0.407214,0.705934,-0.585243,0.632518,0.507358
-0.017434,-0.525542,0.162334,-0.643679,0.269469,-0.716284
0.699943,-0.626263,0.018623,0.746316,-0.348867,0.566837
0.379256,-0.226696,0.499269,0.019482,0.654492,0.755818
0.568316,0.125830,-0.975066,0.160787,0.120151,0.979649
0.354189,-0.316596,0.559677,0.552428,0.245526,-0.796581
-0.119660,0.143868,0.728787,0.311150,-0.890303,-0.332485
0.511683,0.013565,0.323981,-0.003843,0.418810,0.908066
-0.184841,-0.532323,0.413840,-0.001583,-0.121417,0.992600
0.103815,-0.058154,-0.707484,0.199348,-0.946359,-0.254292
0.113164,0.043289,0.971878,0.832863,0.544922,0.096946
-0.012989,0.375035,0.633680,0.629740,0.527002,-0.570698
-0.724448,0.060316,0.451661,0.798049,-0.482137,0.361472
0.406612,-0.169986,0.666342,-0.518538,-0.503037,0.691427
0.245354,-0.462192,0.834278,0.994033,0.071465,0.082413
-0.434873,0.409236,0.665810,-0.343954,-0.908311,-0.238049
0.245473,0.711831,0.616165,0.171444,0.900278,-0.400133
0.846497,0.371717,0.351816,0.853389,-0.520759,0.023201
-0.366041,-0.477923,0.397453,0.974190,0.105549,-0.199531
-0.364448,-0.782685,0.425022,0.303147,0.805704,0.508865
0.386782,-0.358730,0.341032,0.086264,-0.868417,0.488273
-0.376982,-0.521356,0.394597,-0.528212,0.025366,-0.848734
