0.618726,-0.280502,-0.940870,-0.142504,-0.014953,0.989681
0.152853,-0.015920,0.295774,0.784533,-0.318458,-0.532065
-0.139419,0.696500,0.631200,0.117730,-0.336321,0.934360
-0.659513,-0.011530,0.387325,-0.232628,0.821289,0.520930
0.277111,0.393975,0.729893,0.998517,-0.010175,-0.053485
-0.380620,0.518972,0.645646,0.512540,-0.388482,0.765757
-0.295422,-0.194300,-0.579342,0.516956,0.808631,-0.280841
-0.168075,-0.123353,-0.670959,0.293170,0.463860,0.835994
0.140428,-0.347119,0.316310,-0.610383,-0.777820,-0.149763
0.506243,-0.083087,-0.957680,0.243367,-0.171613,-0.954631
0.043937,-0.362493,-0.045497,-0.793026,-0.594458,-0.133151
0.271164,0.463153,0.759359,0.249882,-0.806041,0.536523
0.450771,0.090594,0.845362,-0.729185,-0.589073,-0.348258
-0.069203,-0.290995,0.311828,0.793599,-0.608417,-0.005383
0.291437,0.441803,0.733849,0.667065,-0.056952,0.742819
0.090072,-0.048195,-0.012189,-0.341678,0.551365,0.761087
-0.028061,-0.102673,0.601668,0.859800,-0.315196,-0.401741
-0.360049,-0.708944,0.594658,0.641881,-0.677946,0.358299
0.260640,0.351635,0.489744,-0.630485,-0.007846,0.776162
0.455470,-0.374754,-0.947978,-0.206869,0.207227,0.956171
-0.187932,-0.280137,0.005902,-0.327983,-0.928567,-0.173755
-0.091378,0.287398,-0.266553,-0.469176,-0.087784,-0.878731
-0.104758,-0.313995,-0.497066,0.005367,0.998795,0.048774
0.412604,-0.431247,-0.089097,-0.241027,-0.123140,0.962675
-0.302378,0.423867,0.671091,0.582050,0.231364,-0.779544
0.426930,-0.107309,0.660273,0.111533,-0.081428,0.990419
0.562663,0.667889,-0.986802,0.237123,-0.271078,-0.932893
0.371995,0.459370,0.475479,-0.315564,0.417205,0.852267
0.071638,-0.302281,-0.523922,0.509240,-0.392009,-0.766162
-0.076279,0.441498,0.689345,-0.271231,-0.501846,0.821331
0.131389,0.025258,-0.018624,0.257553,-0.699599,-0.666504
0.781391,0.044963,-0.936733,-0.272351,0.229638,0.934394
0.068666,-0.462360,0.916476,-0.379087,-0.841989,0.383859
-0.266113,0.236092,0.181273,0.077305,0.815046,0.574215
-0.482700,0.628297,0.650095,0.931033,-0.296739,0.212424
0.023721,-0.282517,-0.193946,-0.328361,0.087256,0.940513
-0.553569,-0.196255,0.605394,0.608987,0.101530,-0.786656
-0.144946,0.020436,-0.450510,-0.330129,-0.130963,0.934807
-0.854162,0.525317,0.341607,-0.572401,0.179141,0.800166
0.277822,-0.640737,-0.943480,-0.083120,0.150113,0.985169
0.346609,-0.527450,-0.948930,-0.213211,0.241369,0.946722
-0.383353,-0.574731,-0.780880,0.256640,-0.947739,-0.189545
-0.348100,-0.111393,-0.648683,0.823667,-0.557644,-0.102983
0.448274,-0.284956,0.638259,0.242664,0.241452,0.939582
-0.064627,0.188812,0.592541,-0.835882,-0.195527,-0.512904
0.024672,-0.461627,0.961078,-0.559025,0.492654,-0.666921
0.374020,0.005125,-0.223888,0.162391,0.399107,0.902410
-0.478658,0.039411,0.341820,0.732028,0.562054,-0.385007
0.473661,0.193388,0.125541,0.444049,0.366992,0.817397
-0.165934,0.240974,0.705498,0.905944,0.157022,0.393203
-0.019323,0.243353,0.574237,0.718075,-0.287415,0.633846
-0.409215,-0.255916,0.737329,0.549121,-0.822948,0.145683
-0.423008,0.481760,0.654560,0.380075,-0.232398,-0.895284
0.002377,-0.601145,0.953412,-0.358812,0.694505,0.623631
0.030913,-0.115359,0.915688,-0.920932,0.200335,0.334291
-0.443103,-0.044777,0.233459,0.076819,0.289113,0.954208
0.175325,0.009824,-0.535446,0.425909,-0.250078,-0.869519
-0.009155,-0.571436,0.958418,0.059828,-0.597420,-0.799694
0.739476,0.426857,0.154006,-0.404302,-0.754202,-0.517416
0.349225,0.290448,-0.983059,-0.216450,0.160206,0.963059
0.258917,-0.069117,-0.238531,-0.520146,0.305745,0.797476
0.775919,-0.050879,0.574500,-0.303685,0.430861,0.849785
0.048632,0.245546,-0.981171,-0.008953,0.176558,0.984249
-0.404164,-0.360114,0.506702,0.046071,0.927044,0.372111
0.633648,0.033737,-0.948175,0.433075,-0.110315,-0.894582
0.234840,0.206014,0.979103,-0.537380,0.321931,-0.779476
0.761237,0.212545,-0.947009,0.077247,0.424446,0.902152
0.234245,-0.289103,0.251763,0.193250,0.755810,0.625625
0.236680,0.155382,0.481602,0.135508,-0.225415,0.964793
0.838703,0.238595,0.168748,0.213446,-0.776035,0.593473
0.420569,0.304723,-0.976640,-0.314596,0.184694,0.931084
0.108561,-0.143910,0.687704,-0.104810,0.658424,-0.745314
0.639653,-0.157453,-0.941691,-0.232007,0.068976,0.970266
0.222771,0.481030,-0.990249,-0.094995,0.034035,0.994896
-0.366944,-0.381952,-0.469750,-0.167859,-0.923012,0.346225
-0.329905,-0.130856,0.813958,-0.412116,0.866194,-0.282610
-0.003629,-0.303439,0.232966,-0.535532,-0.841310,0.073509
-0.225329,0.195339,0.434817,0.914746,-0.210864,-0.344640
0.469738,-0.387690,-0.368234,-0.040311,-0.743088,0.667978
-0.338941,-0.145437,0.811611,-0.583161,0.758759,-0.290187
0.719736,0.383665,0.176397,0.468792,0.686739,0.555538
-0.192925,-0.416848,0.316409,0.711913,-0.698570,0.071975
0.320391,-0.157393,-0.965083,-0.093659,0.157469,0.983073
-0.489239,0.522937,0.648273,0.278055,0.486784,-0.828086
-0.052261,0.469558,0.576601,-0.057262,-0.628214,0.775931
0.090308,-0.324547,0.565274,0.909159,0.272956,-0.314525
0.275028,0.118047,-0.746029,-0.633464,-0.281989,-0.720559
-0.216290,-0.662091,0.669236,0.351919,0.368827,0.860302
0.008085,-0.419533,-0.322088,0.718121,-0.657627,0.227657
-0.783057,0.150378,-0.017672,0.320772,0.082479,-0.943558
-0.351191,0.006164,0.237743,-0.339337,0.499789,-0.796907
-0.224437,-0.741520,0.438247,0.673343,-0.020685,0.739041
-0.072237,-0.136408,0.847102,-0.302619,0.953082,-0.007568
0.684896,0.162152,-0.316162,-0.267662,0.900190,-0.343533
-0.589835,0.414715,0.377722,0.603207,0.648990,-0.463631
-0.019203,-0.889763,0.624798,0.519325,0.329367,0.788555
-0.183236,0.459858,0.779436,0.866193,-0.150339,0.476558
0.021047,-0.382257,-0.366953,0.916533,0.346786,0.199266
-0.347918,0.045633,0.366740,0.388553,-0.577325,-0.718138
0.155172,0.161117,0.685323,-0.199522,-0.878267,0.434555
-0.534366,-0.665751,0.785428,-0.022652,-0.996042,0.085944
-0.584780,-0.295389,-0.764793,0.847102,0.509115,-0.152379
-0.108622,-0.278365,-0.182274,-0.522386,-0.824653,0.216935
0.330972,-0.165506,0.070761,-0.052816,0.250667,0.966632
-0.177706,-0.426731,0.527353,0.896763,-0.380675,0.225617
-0.014388,-0.292458,0.101951,0.923115,0.357718,0.141055
0.392211,0.077781,0.871037,0.700963,0.505159,0.503453
-0.077052,-0.475232,-0.239139,0.851562,-0.519818,0.068062
0.359690,-0.213822,0.893608,-0.170320,-0.711864,0.681353
0.149583,-0.299842,0.417186,-0.369031,0.804147,-0.466008
0.030855,-0.557160,-0.523495,-0.184733,-0.298065,0.936499
0.279724,0.283433,0.719961,0.399096,0.487920,-0.776309
0.171047,-0.517080,0.941133,-0.407018,0.235148,-0.882633
0.508678,-0.064545,0.652377,-0.337123,-0.348470,0.874595
-0.445959,0.201319,0.956711,0.883585,0.165622,0.438003
-0.405234,0.253541,-0.347632,0.146339,0.073147,-0.986526
0.346848,0.242314,-0.981187,-0.171068,0.166903,0.971020
-0.101426,-0.460286,0.645170,0.781697,0.430965,0.450798
-0.677229,-0.130551,0.557854,0.893024,0.148666,-0.424742
0.209454,0.089131,0.957171,0.452524,-0.870461,0.193701
-0.103568,0.866644,0.642823,-0.400832,0.416160,-0.816177
0.054935,0.294901,0.432042,0.867784,-0.494728,0.046856
0.235969,-0.226940,0.900651,-0.376244,-0.801214,-0.465293
-0.290371,-0.411114,0.281361,-0.627696,0.713566,-0.311162
0.087634,-0.392568,0.427495,0.963181,0.176488,-0.202817
0.660642,0.114387,0.719140,0.154054,-0.317403,0.935694
-0.161772,-0.391532,-0.705433,-0.387987,0.771262,0.504600
0.409153,0.285935,-0.977412,-0.107444,0.162389,0.980860
0.950595,0.388055,-0.952082,-0.326781,0.222409,0.918558
0.164566,0.031785,0.887502,0.801687,0.443419,-0.400846
0.399345,0.015924,0.870282,0.739085,-0.237372,0.630403
-0.207193,0.265251,-0.017787,0.168923,0.134022,0.976475
-0.592984,0.408552,0.361060,0.679035,0.572398,-0.459644
-0.272354,-0.131161,0.915310,-0.235988,0.263538,-0.935338
-0.403569,0.149890,-0.010301,0.062619,0.709994,0.701418
-0.245897,-0.183197,0.687638,-0.284820,-0.953618,0.097421
0.111057,-0.762629,0.384354,0.611184,-0.023786,0.791131
0.181033,-0.479991,0.085617,0.033353,0.212467,0.976599
-0.027350,-0.307773,0.208704,-0.667508,-0.734482,-0.122350
-0.074911,-0.304232,0.352425,0.885658,0.458573,0.072946
0.154994,-0.161969,0.742188,0.960458,0.083833,-0.265504
0.307846,-0.621825,-0.579670,0.733567,0.110213,0.670621
-0.659455,-0.019215,0.208080,0.889913,0.439929,-0.120487
0.684602,0.356029,-0.963196,0.170009,-0.123230,-0.977707
0.545183,-0.074244,0.688492,0.295061,-0.009965,-0.955426
0.374078,0.375916,-0.982205,-0.201243,0.042933,0.978600
0.618371,0.048441,-0.950884,-0.554102,0.149880,0.818845
0.066112,0.010431,-0.435424,-0.206069,-0.224415,0.952457
0.022948,-0.392996,0.818440,0.889815,0.074965,0.450122
0.309037,-0.252989,0.345547,0.764660,0.281056,0.579916
0.001604,0.302772,0.443451,-0.182191,0.880425,0.437789
0.162781,0.712362,0.617033,0.469210,0.407291,0.783554
0.547204,0.056919,0.713821,0.816843,-0.177480,-0.548879
-0.461595,0.396414,0.645482,0.703495,0.085050,-0.705592
-0.368965,0.012569,0.241568,0.063527,-0.921830,0.382354
-0.230322,-0.490361,0.567096,-0.061882,0.915509,0.397510
0.651247,-0.022328,0.701115,0.129836,-0.596484,0.792054
0.204043,0.156176,0.285366,0.287633,0.530551,0.797360
0.146016,-0.079122,0.694763,-0.110092,-0.643215,0.757730
0.352081,0.359079,-0.984848,-0.157425,0.106132,0.981811
0.052617,-0.438139,-0.769882,0.973034,0.230554,0.007059
0.358024,0.212664,0.504715,-0.212406,0.443512,0.870736
0.535552,-0.410567,-0.942511,-0.174448,0.158073,0.971895
-0.112070,-0.582904,0.622122,0.123871,0.938718,0.321659
-0.564568,0.407577,0.610319,0.621739,-0.764057,-0.172211
-0.213558,0.905807,0.641838,-0.449297,0.194588,-0.871933
-0.577170,-0.224497,0.762905,0.267638,0.586595,0.764380
-0.191618,-0.003170,0.257656,-0.124814,0.597725,0.791926
0.121225,-0.033979,0.279900,0.889810,-0.456299,-0.005350
0.235907,-0.166970,0.921450,0.738484,-0.408543,0.536409
-0.036266,-0.354320,-0.118662,-0.350181,0.922039,-0.164978
0.592092,0.167398,0.142383,0.189080,-0.378644,-0.906023
-0.408859,0.123476,0.960963,0.770372,-0.049084,0.635703
-0.486684,-0.075890,0.036008,-0.279465,-0.909204,0.308623
0.344707,-0.035747,-0.739020,0.818013,0.171740,-0.548962
0.652971,0.102855,-0.949587,0.413700,-0.200554,-0.888049
-0.850892,0.481149,0.336288,0.748398,-0.044014,-0.661788
-0.016289,-0.375488,-0.213300,0.614988,-0.763739,0.196196
0.451366,-0.083270,-0.151117,0.153504,0.739914,0.654953
0.067062,-0.073082,0.854325,0.301069,0.680880,-0.667653
0.048335,-0.402878,-0.678035,0.963275,0.252257,0.092023
-0.421581,0.212910,0.514828,-0.215997,0.952455,-0.214883
-0.030859,0.013909,-0.090542,0.362447,0.753394,0.548662
0.336205,-0.060333,-0.966298,-0.104695,0.084445,0.990913
-0.404222,-0.123048,-0.312797,0.026577,-0.995788,0.087745
0.150712,-0.388360,0.366772,0.952284,0.136269,-0.273103
-0.178479,-0.451804,0.532229,-0.484897,0.816899,0.312332
-0.015041,0.721938,0.432978,0.532648,0.188008,0.825190
-0.087039,-0.551977,-0.756552,0.987283,-0.134501,-0.084740
0.212603,0.393606,0.714084,-0.055392,-0.460763,0.885793
0.161057,0.031175,0.720765,-0.312220,0.668129,-0.675368
-0.114269,0.164959,0.832820,0.885478,0.258489,-0.386150
0.843754,0.027697,-0.934008,-0.414284,0.269351,0.869378
-0.123663,0.837362,0.638177,-0.289026,0.744031,-0.602397
-0.554342,-0.033185,0.044233,-0.122344,-0.109558,0.986422
-0.148335,-0.220472,0.550450,0.354971,-0.923472,0.145587
-0.053865,-0.603160,0.124227,0.400807,0.014215,0.916052
0.238048,-0.160748,0.913226,0.904442,-0.329396,0.271077
-0.499824,0.612495,0.628245,-0.636710,0.332015,0.695964
-0.460823,0.538863,0.651605,0.282837,0.478484,-0.831298
0.539417,-0.181797,0.237760,-0.764857,0.434635,0.475486
0.191615,0.111456,0.726462,-0.293250,0.142691,0.945327
0.052914,0.597731,0.432781,0.016545,-0.490385,0.871349
-0.184484,-0.380306,0.775151,-0.542108,0.633371,0.552232
-0.601664,-0.698510,0.851863,-0.671312,-0.634034,-0.383850
-0.581986,0.406419,0.626128,0.550867,-0.514798,-0.656908
0.198393,-0.116885,0.779337,0.838681,0.518967,0.165187
0.115934,0.453513,-0.307905,-0.039170,0.139796,0.989405
-0.502676,-0.098644,0.778484,0.369625,-0.595423,0.713336
0.149881,-0.122679,-0.132879,-0.179233,0.206101,0.961976
0.349225,-0.294532,-0.952985,-0.180233,0.101690,0.978353
0.548572,-0.122377,-0.294214,0.573600,-0.306126,-0.759783
0.662126,-0.310089,0.564650,-0.703177,0.431300,-0.565263
-0.124912,-0.039836,0.789384,0.857092,-0.330022,-0.395573
0.787691,0.150929,0.125491,-0.388554,0.761236,0.519177
-0.423900,-0.403548,0.697471,0.180112,0.825250,0.535277
0.462187,0.025683,-0.635961,-0.061743,0.393935,0.917062
0.159156,0.332970,0.732716,0.369837,0.217624,0.903250
-0.209276,-0.285808,0.037798,-0.444955,-0.887181,-0.122168
-0.306123,-0.181979,0.154580,0.174311,-0.883298,0.435202
-0.167422,0.140008,-0.668743,-0.097507,-0.801898,0.589450
-0.276041,0.941251,0.656727,0.534346,0.403973,0.742482
0.250117,0.257078,-0.513055,0.128116,-0.181098,0.975085
0.458500,-0.287882,-0.951179,-0.157342,0.090338,0.983404
0.137336,-0.277635,0.638965,0.976961,-0.213357,0.005094
0.757964,0.119082,0.164069,0.909516,-0.367655,0.193934
-0.345364,-0.123841,-0.345399,0.051100,-0.101935,0.993478
-0.554875,0.531967,0.640344,0.799465,0.049093,-0.598704
0.247087,0.026111,-0.228140,-0.639880,0.310542,0.702935
0.508798,-0.133295,-0.954823,-0.241515,0.217203,0.945776
-0.044412,-0.209615,0.911994,0.413957,-0.667284,0.619170
-0.452023,0.000184,0.312239,-0.744682,-0.641471,0.184294
0.096731,-0.320094,0.971075,-0.316139,0.944240,0.092014
0.025862,-0.344069,-0.277372,0.950149,-0.299727,-0.085915
-0.149108,0.193935,0.222904,-0.173021,0.984918,-0.001111
-0.151786,-0.384760,0.760869,-0.389231,0.908718,-0.150770
-0.003034,-0.138664,0.699195,-0.238204,-0.331431,0.912914
-0.260227,0.353281,-0.023631,0.150731,0.382198,0.911704
-0.021761,-0.333394,0.185492,-0.756346,-0.650058,-0.073246
-0.029429,0.427710,0.563534,0.055821,-0.166792,0.984411
0.533709,0.028795,0.212824,0.608255,0.033133,-0.793050
0.406123,-0.105477,-0.348058,-0.632154,0.561288,-0.534169
0.404933,-0.260857,-0.771097,-0.590707,0.030400,0.806313
-0.123721,-0.301916,0.446078,0.988036,-0.123783,-0.091995
0.163732,-0.282029,-0.330986,-0.652424,0.449914,-0.609853
-0.013913,-0.433868,-0.290028,0.892140,-0.451476,0.015976
0.571343,0.142935,0.488201,0.786683,0.308300,0.534865
-0.426281,0.290448,0.651113,-0.285820,-0.622789,0.728314
0.620214,0.064668,-0.951770,-0.447212,0.106720,0.888038
-0.187874,0.215472,0.200709,-0.220383,0.759084,0.612554
0.053865,-0.349010,-0.446718,0.808287,-0.558649,0.185967
0.071163,0.187471,0.668201,0.103498,0.638565,-0.762576
-0.695543,0.180821,0.155303,0.936328,-0.055977,-0.346635
0.041201,0.657090,0.627523,0.025062,-0.235783,0.971483
0.463675,-0.250670,-0.953297,-0.170148,0.048999,0.984199
-0.354399,-0.816496,0.835431,-0.650466,-0.577641,-0.493178
-0.566172,-0.399828,0.440546,0.149157,0.169110,0.974245
-0.256895,0.100294,-0.190564,-0.013622,0.162017,0.986694
0.400771,-0.098707,-0.960503,0.261941,-0.116570,-0.958018
0.567895,-0.380489,0.598844,-0.836418,-0.121764,-0.534395
0.072175,-0.283246,-0.595578,0.307716,-0.899512,-0.310144
0.013495,-0.401902,-0.779912,0.974303,0.197297,-0.108658
-0.097859,0.356699,0.756076,0.395077,0.849411,-0.349879
0.064744,0.425576,0.406121,0.245031,0.394504,0.885622
0.045065,-0.350291,-0.673159,0.985421,-0.168651,-0.022426
0.186564,0.292339,0.707107,0.133664,0.840121,-0.525671
-0.317241,-0.255428,-0.288272,0.425252,0.151064,-0.892379
-0.017124,-0.276291,0.891195,-0.482693,0.553473,-0.678730
0.337515,-0.250610,0.873433,0.957136,-0.226599,-0.180400
-0.257966,-0.238163,0.093809,0.490437,-0.762807,0.421423
0.683945,-0.069851,0.573383,0.231273,0.792132,0.564836
-0.174259,-0.400621,-0.486559,-0.277268,0.543930,0.791999
-0.214806,-0.145009,0.854768,0.968911,0.209777,-0.131166
0.254101,-0.192777,0.780634,0.824409,0.479822,-0.300202
-0.498931,-0.284405,0.606511,0.804254,0.459840,-0.376461
0.137990,0.226088,0.274138,0.042329,0.640093,0.767130
-0.629134,0.384700,0.356693,-0.669162,-0.410727,0.619295
0.110879,-0.678866,0.266964,0.934818,0.329931,-0.131379
-0.066409,-0.449120,-0.764120,-0.755402,0.590381,0.284284
-0.368312,0.031175,-0.461673,-0.155346,0.110581,0.981651
-0.303986,-0.210955,0.157634,0.560507,-0.736752,0.378190
-0.204638,0.244329,0.682073,0.632488,0.189387,-0.751060
0.632639,0.469193,-0.968875,0.108359,-0.110038,-0.988003
-0.099347,-0.272754,0.897778,-0.546019,0.167852,-0.820786
-0.406185,-0.672643,0.785937,-0.106641,-0.992242,0.063908
-0.557016,0.120303,0.016408,0.204775,0.900983,0.382488
-0.446910,0.036544,0.877390,0.625519,0.780194,0.004784
0.015219,-0.378597,-0.804569,0.961384,-0.261774,0.084944
0.011594,-0.456321,0.922369,-0.696091,0.381793,0.608022
0.106659,0.733958,0.609203,0.313047,0.544225,0.778345
-0.395484,0.001770,0.356562,0.292302,0.125273,-0.948086
0.194946,0.287703,0.261973,0.147774,-0.645033,-0.749730
0.608856,0.117801,-0.221278,-0.265393,0.657184,0.705461
0.092507,0.325281,-0.294280,0.043125,0.286958,0.956972
0.077346,-0.377197,0.024698,0.582237,0.807215,0.096971
-0.388230,-0.722426,0.763758,0.120441,-0.989353,0.081695
0.133472,-0.277818,0.603506,0.777085,0.567995,-0.271146
-0.334663,-0.676244,0.452644,0.836952,0.545984,0.037598
-0.216232,-0.572475,0.639687,-0.189741,0.946777,0.260021
0.606599,0.277453,-0.250975,-0.264364,0.340723,0.902230
0.061412,-0.075525,0.832426,-0.495988,-0.862114,0.103712
-0.124378,-0.237433,0.450543,0.989268,0.079502,0.122590
-0.085968,0.621219,0.602801,-0.006484,-0.435850,0.899996
0.354280,0.264581,0.141316,-0.042166,-0.083771,0.995593
-0.206126,-0.153122,0.738774,0.085998,0.995590,-0.037477
0.707489,0.093766,0.234214,-0.407160,-0.450306,-0.794636
0.056361,-0.199304,-0.725296,0.937061,0.182525,-0.297660
0.593757,0.115727,0.129316,-0.070002,0.342864,0.936773
-0.116765,0.332177,0.684913,0.841456,-0.320900,0.434713
0.403209,0.370793,-0.421782,-0.539215,0.640842,0.546415
-0.254994,0.428320,0.787003,0.181708,-0.648923,0.738838
-0.377053,-0.563751,0.425837,0.810579,0.362697,0.459797
0.157371,-0.051121,0.073749,-0.415502,0.195162,-0.888409
0.748573,0.175024,-0.941543,-0.542323,0.416052,0.729922
-0.575980,0.403917,0.611649,0.693650,-0.697184,-0.181064
0.504041,-0.283004,0.908120,0.416364,0.870596,-0.262114
0.722174,0.132747,-0.939015,0.430223,0.004929,-0.902709
-0.088287,-0.715225,0.543949,-0.442822,-0.866235,-0.231399
-0.416113,-0.030683,0.227483,-0.027731,-0.029026,-0.999194
-0.084186,-0.698268,0.405399,-0.380024,0.053783,-0.923412
-0.593579,-0.227063,0.589339,0.466695,0.093256,-0.879488
0.627882,-0.275498,0.274121,-0.084094,0.947658,0.308013
0.217538,0.688446,0.410275,-0.560563,0.573357,0.597521
-0.581213,0.378843,0.620842,-0.166168,0.641021,0.749320
0.654281,-0.164590,-0.945351,0.208484,-0.042101,-0.977119
-0.251369,-0.271231,0.888076,-0.549623,0.740207,0.387309
-0.683590,0.282639,0.326028,0.547685,0.550928,-0.629698
0.204874,-0.031782,-0.654790,0.438306,0.884662,0.158937
-0.384601,-0.017692,0.905756,0.723649,-0.630578,0.280543
0.611651,-0.216447,0.575829,0.419550,0.161289,0.893288
-0.459512,-0.728648,0.737362,-0.295688,0.869813,0.394961
0.211475,-0.389578,0.745685,0.738035,-0.504476,0.448116
-0.352854,0.671426,0.777975,-0.173660,0.415961,0.892647
0.372292,0.108284,0.858101,0.365797,0.778640,0.509816
-0.315100,0.625854,0.791386,-0.158124,0.486181,0.859433
-0.239953,-0.515066,-0.178663,-0.618933,-0.384821,-0.684715
-0.291916,0.147999,0.199659,-0.029367,0.783441,0.620772
-0.052083,0.370182,0.476267,-0.632179,0.000818,0.774822
-0.316468,-0.118412,0.187429,-0.102118,-0.980997,0.164976
-0.170035,0.094131,-0.373963,-0.530441,-0.463820,-0.709579
0.752318,0.409897,-0.961899,-0.046985,0.130881,0.990284
0.029904,-0.431735,-0.336124,0.899554,-0.420575,0.117979
0.011532,-0.407089,-0.365689,0.847503,0.429837,0.311414
0.779668,0.447902,-0.961340,-0.129072,0.150651,0.980125
0.245541,-0.085284,-0.238991,0.569532,-0.383258,-0.727149
0.246372,-0.413981,0.815304,-0.474635,0.591225,0.652054
0.651664,-0.297645,-0.088572,0.056327,-0.072607,0.995769
0.103684,-0.376769,0.382007,0.313097,0.887868,0.337136
-0.164744,-0.853954,0.634812,0.278840,-0.087496,0.956343
-0.545187,-0.233467,0.759967,-0.271893,-0.871212,0.408735
0.265576,-0.168861,-0.961817,-0.003801,0.200602,0.979665
0.454102,0.336935,-0.977543,0.263811,-0.190410,-0.945594
-0.206064,-0.691801,0.877258,0.033425,0.342768,0.938825
0.133055,-0.426548,0.548628,-0.690624,0.714563,0.111528
0.155527,-0.215654,0.803255,0.986319,0.010529,0.164509
-0.521999,-0.417518,0.425541,0.295876,0.175221,0.939018
-0.186564,-0.560701,0.736032,-0.334060,-0.084847,-0.938725
0.453209,-0.333454,-0.065573,0.245732,-0.093356,-0.964832
0.122771,-0.369266,0.541405,0.934284,0.303059,-0.187801
0.370808,0.218462,-0.571577,-0.097900,0.994224,0.043987
-0.698635,0.332359,0.627359,0.339127,0.372351,-0.863914
0.169737,-0.228768,0.893576,-0.238737,0.772007,0.589076
0.214683,0.160200,0.978249,0.770246,-0.296705,0.564524
0.360880,-0.128476,-0.964115,-0.088153,0.081849,0.992739
0.926159,0.409956,-0.955004,0.204362,-0.240217,-0.948964
0.343459,0.271842,-0.134848,0.116865,-0.245835,0.962241
-0.635792,0.209250,0.352606,0.860778,0.246082,-0.445538
-0.346612,-0.077536,-0.572677,0.669020,0.731930,-0.129194
-0.194946,-0.183197,0.644842,-0.551118,-0.701839,-0.451321
0.441496,-0.326562,0.496672,0.329322,0.604881,-0.725029
0.060284,-0.337419,0.888782,-0.264072,0.265889,0.927129
0.042449,0.525257,0.410242,-0.221451,0.361604,-0.905650
0.407905,-0.391469,-0.951048,0.246627,-0.291292,-0.924297
0.170154,0.004638,-0.119139,-0.001543,-0.179748,0.983711
-0.395422,0.349256,0.078854,-0.455439,0.242615,0.856570
-0.223544,-0.757014,0.890358,0.750339,-0.221330,-0.622900
-0.081690,-0.291729,0.351079,0.880444,0.468424,0.073465
-0.529964,-0.075220,0.825466,-0.591869,-0.660843,-0.461495
0.167658,0.163313,0.661471,0.356772,0.654088,-0.666996
0.028536,-0.374572,-0.735507,0.851108,0.520284,0.070141
0.512009,-0.016776,-0.961340,0.106953,-0.125299,-0.986337
0.822712,0.308689,-0.952886,-0.247265,0.107296,0.962989
0.163137,0.054357,0.292835,0.916453,-0.369646,-0.153219
-0.157610,0.067535,0.561859,0.095002,-0.714896,0.692747
-0.549229,0.466691,0.631955,0.833536,0.086943,-0.545582
-0.607612,-0.138604,-0.311385,-0.660621,0.357606,0.660074
-0.557252,0.317290,0.629082,0.228542,0.660949,0.714783
0.467597,-0.326256,0.495982,0.367267,0.598736,-0.711779
-0.186088,-0.123964,-0.012960,0.083961,0.048805,0.995273
0.479249,-0.140861,0.859463,-0.762633,0.362351,-0.535810
-0.341917,-0.044166,0.225169,-0.401896,0.355425,-0.843891
0.770926,0.127382,-0.931775,-0.320393,-0.307389,0.896025
-0.663436,-0.071560,-0.045628,-0.301366,-0.230688,0.925182
0.671045,-0.295936,0.526270,-0.365533,-0.776680,0.512985
-0.107849,-0.343217,0.802106,0.629641,0.305917,-0.714120
0.002852,-0.441494,-0.274843,0.937711,-0.332208,-0.101661
-0.185079,-0.667460,0.657187,0.892956,0.389062,0.226408
0.086919,-0.461750,0.910993,0.966674,-0.255764,-0.011216
0.022055,-0.410749,-0.421306,0.955367,0.291360,0.048814
-0.280145,-0.444544,0.562056,-0.016967,0.941049,0.337843
0.595659,-0.052585,-0.952886,0.363572,0.034623,-0.930922
0.109392,0.376344,0.425558,-0.515252,0.853861,0.073739
-0.164806,-0.758782,0.408633,-0.420103,0.080157,-0.903929
-0.638586,0.227003,0.355511,0.761984,0.160588,-0.627369
0.307549,-0.080466,0.047959,0.074694,0.261641,0.962271
0.037096,-0.226270,-0.730057,0.995432,-0.022137,0.092867
-0.530799,0.249758,0.360912,0.141022,0.133307,-0.980990
-0.258801,0.270620,0.733668,0.945040,0.322795,0.051979
-0.447803,-0.097609,0.254406,0.999421,-0.022417,-0.025586
0.145243,-0.261468,0.630002,0.969570,0.202930,-0.136942
0.554338,0.425941,-0.416299,-0.573142,0.532858,0.622552
-0.041857,0.543923,0.590423,0.816587,-0.193607,0.543784
0.158619,-0.486518,0.093349,0.033353,0.212467,0.976599
0.318845,-0.107614,-0.344824,-0.850842,0.493572,-0.180155
-0.453093,0.218949,0.961111,0.883585,0.165622,0.438003
0.603388,0.318571,-0.964886,-0.046944,-0.131230,0.990240
-0.348513,0.045998,0.934320,0.633832,-0.172679,0.753949
-0.551784,-0.319911,0.371632,-0.283330,0.561082,0.777761
0.301246,0.188629,-0.976345,-0.072395,0.151009,0.985878
-0.368965,-0.127013,-0.356151,0.119727,-0.213481,0.969583
-0.571462,0.352306,0.366395,0.680562,0.444964,-0.582102
-0.642571,0.324063,0.610598,0.150551,-0.643171,0.750776
0.098095,0.309300,-0.299894,0.178744,0.258670,0.949284
-0.299050,0.100659,0.533131,0.367933,0.929388,0.029373
0.032640,0.068570,0.499462,-0.559590,-0.168446,-0.811471
-0.321283,-0.279951,0.430417,0.696162,0.097709,-0.711204
0.685789,0.029834,0.150756,0.618800,0.542603,-0.568040
0.688285,-0.213885,-0.944941,-0.126780,-0.017174,0.991782
0.391198,0.308384,-0.407451,-0.578244,0.627973,0.520849
0.188407,-0.168251,0.812809,-0.545586,-0.725446,0.419600
0.331927,0.202965,-0.121141,0.426373,-0.040202,0.903654
-0.522652,0.403917,0.395336,-0.549765,-0.645742,0.529882
-0.217716,-0.189054,0.530800,0.407576,0.904828,-0.123158
0.197682,0.768426,0.390116,-0.214132,0.858773,0.465464
-0.597919,-0.155747,-0.301536,-0.308104,0.647607,0.696906
-0.479253,0.179600,0.357612,-0.236299,-0.477946,0.846008
-0.259987,-0.444666,-0.472984,-0.322518,-0.931326,0.169159
0.452614,0.675879,-0.989855,-0.169957,0.223507,0.959770
0.692985,0.375306,-0.965674,0.162959,-0.183493,-0.969420
0.941556,-0.002988,-0.686505,-0.536521,-0.746486,-0.393579
-0.536623,0.203452,0.238022,0.077453,0.154982,0.984876
0.118369,0.082603,0.748951,-0.534064,-0.083091,-0.841351
0.175743,0.267325,0.708453,0.173847,0.798017,-0.577015
0.051604,0.130856,0.486773,-0.614949,-0.414731,0.670699
0.569379,0.064727,0.197442,0.454240,-0.425256,-0.782831
0.090606,-0.227000,0.192173,0.744837,-0.552589,-0.373985
-0.419738,0.487982,0.663950,0.948198,-0.215121,-0.233759
-0.132104,0.033677,0.491960,0.577236,0.543587,-0.609354
0.877705,0.098648,-0.927852,-0.328034,0.353331,0.876100
-0.129607,0.380798,0.800645,-0.506899,-0.786096,-0.353703
0.367063,-0.038067,-0.228994,-0.493083,0.778265,-0.388809
-0.173722,0.301428,-0.400442,0.904967,-0.396849,-0.153445
-0.181748,-0.934783,0.429596,0.127182,0.358952,0.924650
0.379666,-0.437711,-0.950243,0.355409,-0.273868,-0.893689
0.199703,-0.017323,-0.663753,0.927000,-0.156482,-0.340858
0.337156,-0.218763,0.632037,0.195871,-0.944727,0.262917
-0.460227,-0.095959,0.216780,0.885291,0.459252,0.073128
0.374020,0.308507,0.733209,0.156740,-0.286929,0.945042
0.922530,0.110422,-0.927573,-0.349864,0.377136,0.857533
-0.247624,-0.017506,0.798577,-0.114562,0.392492,0.912593
0.214980,0.045510,-0.123489,-0.424735,0.223821,-0.877214
0.454995,0.352488,-0.978544,0.263811,-0.190410,-0.945594
0.066409,-0.183137,0.341492,-0.610270,-0.592346,0.526020
0.087216,-0.436311,-0.377853,0.150774,0.986026,-0.070851
0.095838,-0.349621,-0.716481,0.979045,0.012791,-0.203244
-0.160763,-0.531479,0.616442,0.907365,0.377064,0.185773
0.266229,-0.179659,0.058908,0.002868,0.227878,0.973685
0.282935,0.472611,0.733291,0.846669,-0.036053,0.530897
0.117182,-0.366701,0.974605,-0.476633,0.776172,-0.412768
-0.255647,0.105298,-0.037141,0.634303,0.335140,-0.696664
0.134840,-0.379878,0.508819,0.975387,0.219458,0.021415
0.041676,-0.010979,0.949915,-0.034667,-0.784277,0.619441
0.478716,0.277393,0.122619,-0.431390,0.334538,-0.837847
-0.623545,-0.112678,0.802155,0.096401,0.598252,0.795488
0.231629,-0.095595,0.752760,0.878788,-0.005938,0.477176
0.037633,-0.389030,-0.704760,0.928571,0.343939,0.139507
-0.375743,0.014643,0.371287,-0.381692,0.018457,0.924105
-0.066707,-0.074669,0.930019,0.071427,-0.743849,0.664520
0.227289,0.729810,0.427823,-0.715532,0.375328,0.589189
-0.148632,-0.469130,0.125524,-0.060846,0.064151,0.996084
0.131628,-0.355601,0.492617,-0.707470,-0.632430,-0.315465
-0.150356,-0.432282,0.729088,0.747500,0.407593,0.524510
0.106184,-0.098890,0.835053,-0.090832,-0.712501,0.695767
0.182877,0.082603,-0.070465,-0.115590,0.987858,0.103808
-0.266708,-0.411602,-0.512004,-0.221236,-0.973223,0.062381
0.410761,0.739811,-0.998999,0.181649,-0.186905,-0.965438
0.177764,-0.373168,-0.944728,-0.230054,-0.081651,-0.969747
0.094826,0.023854,-0.645777,0.208006,0.899094,0.385180
-0.047921,0.431858,0.562138,-0.040848,-0.438480,0.897812
0.029904,0.791728,0.607495,0.140688,0.623226,0.769283
-0.236030,-0.293497,0.057825,-0.104997,-0.993626,0.041032
0.328418,0.012691,-0.971912,-0.131886,0.184102,0.974019
0.682697,0.314360,-0.961472,-0.254789,0.492070,0.832436
-0.028834,-0.785811,0.415741,0.500731,0.448221,0.740518
0.771579,0.431370,-0.960930,-0.058988,0.173338,0.983094
0.092093,-0.039102,-0.284151,-0.634888,0.122480,0.762834
0.462604,-0.244083,0.917559,-0.254076,-0.870695,0.421112
0.575207,0.099623,0.492141,-0.648587,-0.202501,-0.733709
-0.251369,0.213826,0.509148,-0.257853,-0.761587,-0.594556
-0.009395,-0.604381,0.383188,0.863943,0.335825,0.375265
0.196728,0.379517,0.715020,0.174928,-0.376356,0.909811
0.525029,0.038983,0.502105,0.489465,0.204120,0.847797
-0.492686,-0.264517,0.038783,0.563360,-0.711983,-0.419173
-0.374970,-0.616825,0.662423,0.120499,-0.971637,-0.203473
0.522173,0.011105,-0.961866,-0.123558,0.175899,0.976623
-0.135315,-0.478219,0.578521,0.366773,0.912437,0.181484
0.498928,0.018731,-0.962276,0.005607,0.276505,0.960996
0.453627,0.013604,-0.162083,-0.296785,-0.727871,-0.618161
-0.152675,-0.661663,0.827124,-0.310063,0.737103,0.600449
0.387040,0.355660,0.482685,0.399875,-0.353066,-0.845839
-0.145541,-0.202719,0.707977,0.813364,0.010389,-0.581662
0.341082,0.211752,0.132124,0.170715,-0.378656,0.909657
-0.336209,-0.185945,-0.260299,0.341354,-0.160914,-0.926059
-0.282046,-0.640618,0.711425,-0.148110,-0.934598,-0.323404
0.619619,0.101757,-0.954019,0.409088,-0.210755,-0.887823
-0.091201,-0.622682,0.935994,-0.474372,0.837517,-0.271178
0.670450,0.364936,-0.259068,0.487107,-0.330093,-0.808558
0.320511,-0.577658,-0.371057,0.336866,0.479176,-0.810501
0.481151,0.038741,-0.964115,-0.040086,0.243414,0.969094
0.137572,0.230418,0.679873,-0.169262,-0.618030,0.767717
-0.619322,0.013790,0.372912,-0.002592,0.812935,0.582349
0.811891,0.295083,-0.953428,-0.124356,0.164083,0.978577
0.354457,0.055638,0.862878,0.228709,0.576686,0.784299
-0.308148,-0.105477,0.809313,0.664753,-0.720092,0.198927
0.032343,-0.320645,-0.715167,0.841670,-0.471596,-0.263037
-0.436387,-0.800876,0.836596,0.308668,0.788569,0.531868
-0.051963,-0.096875,-0.440611,0.408782,0.340330,-0.846801
-0.426575,-0.025683,0.257836,0.931892,-0.362108,-0.021322
-0.151902,-0.472671,-0.516436,-0.526397,-0.762543,0.376077
-0.448989,-0.013239,0.934730,0.400689,-0.867882,0.293649
0.790902,0.450159,-0.962260,-0.092392,0.178161,0.979654
0.252022,0.081505,0.966938,-0.686255,-0.606298,-0.401816
0.881983,0.468340,-0.960273,-0.133055,0.247961,0.959589
0.177466,-0.105235,0.705269,-0.663965,-0.032297,0.747066
-0.463258,-0.147634,0.848875,-0.255190,0.837518,0.483159
0.279608,-0.041239,0.876027,-0.119032,-0.675763,0.727444
0.072890,0.115850,0.395123,0.803654,-0.072497,0.590665
0.044173,-0.389090,0.264518,0.790194,0.608417,-0.073634
-0.384126,0.389030,0.187938,0.636732,0.372263,0.675272
-0.401250,-0.333029,0.490335,0.847541,0.106737,0.519887
0.157251,-0.003904,-0.682861,0.852497,-0.240765,-0.463983
-0.023246,0.474745,0.423046,-0.345339,0.116921,-0.931166
-0.228181,-0.727609,0.399571,-0.218383,-0.030066,0.975400
0.416944,-0.205281,-0.953543,-0.159506,0.270325,0.949464
-0.174556,0.370059,0.762560,-0.728265,0.656913,0.195179
-0.126755,-0.033126,0.546297,0.937589,0.345623,-0.038365
0.079070,-0.176487,-0.532770,0.885905,-0.214469,-0.411310
0.534184,0.196806,0.484393,-0.414031,-0.424696,0.805116
-0.477823,-0.279039,0.750199,-0.505998,-0.509156,-0.696223
-0.431985,-0.012383,0.300846,0.954612,-0.004503,0.297818
-0.131570,0.929723,0.646812,0.151561,0.172188,0.973335
-0.378657,0.189240,0.508458,0.218304,0.840491,0.495902
-0.077172,-0.703757,0.607184,0.829923,0.368122,0.419181
-0.342689,-0.695033,0.774544,-0.140342,-0.968936,0.203637
0.492806,-0.039713,0.660191,-0.237122,-0.501086,0.832277
-0.134901,-0.352670,0.490155,0.991800,0.063908,0.110677
-0.232939,0.363532,0.781389,-0.078222,-0.849794,0.521278
0.401605,0.087362,-0.968399,-0.194743,0.158101,0.968029
-0.442806,-0.715043,0.793438,-0.147086,-0.983029,-0.109635
-0.370986,-0.017446,0.910878,-0.299635,0.952788,-0.049135
0.858440,0.124023,-0.941100,0.213889,-0.328261,-0.920052
0.168014,-0.873778,0.299041,-0.207146,0.744474,0.634704
0.419677,0.003111,-0.959190,-0.299600,0.071526,0.951380
0.037158,-0.382444,0.904656,-0.335032,0.887124,0.317434
0.801901,-0.138422,0.247905,0.007671,0.495480,0.868585
-0.294710,-0.180575,0.727955,-0.386073,-0.479795,0.787873
0.622235,0.008115,-0.947994,0.465145,-0.134469,-0.874962
-0.224614,0.271354,0.102296,0.631362,0.262423,0.729737
-0.390785,-0.064176,0.235938,0.332050,0.394027,0.857021
-0.670454,0.364507,0.228600,0.553689,0.495414,-0.669323
-0.502437,-0.294409,0.604262,0.532044,0.648356,-0.544577
-0.132401,0.472306,0.699868,-0.149580,0.407387,0.900923
0.251249,0.238654,0.984980,0.318475,-0.421975,0.848829
-0.303866,-0.538494,0.368841,0.386760,0.777120,0.496489
-0.171998,-0.216872,0.478713,0.974875,0.009299,0.222558
-0.140428,0.549903,0.405990,-0.336342,0.118289,0.934281
0.042568,-0.288493,-0.069283,0.913184,0.252931,-0.319563
-0.182166,0.273670,0.638817,-0.168203,0.852249,-0.495358
-0.179430,0.354685,0.755255,-0.080156,-0.996709,0.012069
0.961176,0.455956,-0.957007,-0.304478,0.205115,0.930172
0.077883,-0.413858,0.911469,0.107349,0.842876,0.527292
-0.059751,0.580957,0.425426,-0.282160,0.426991,-0.859106
-0.388825,-0.146230,0.884432,-0.539571,-0.057333,-0.839986
-0.722591,-0.010491,0.366658,-0.113738,0.873406,0.473524
0.509691,-0.111456,0.843474,-0.474733,0.487414,-0.732841
0.107788,0.812106,0.604376,0.123812,0.569713,0.812464
0.694233,-0.282271,0.217929,0.292257,-0.955721,-0.034387
0.159453,-0.418498,0.940427,0.932989,0.016809,0.359512
0.842746,0.178684,0.164282,0.727975,-0.595135,0.340392
0.117299,0.127013,0.729482,-0.278243,-0.520283,-0.807395
-0.673128,0.427952,0.340080,0.605345,0.192776,-0.772267
0.674554,-0.042092,-0.943858,0.363182,-0.076272,-0.928591
-0.090250,-0.543130,0.819031,-0.289184,0.679675,0.674103
0.378240,-0.114446,-0.962999,-0.211970,0.032893,0.976722
0.341975,-0.068447,-0.765925,-0.354590,-0.426025,0.832327
0.112661,-0.483040,0.932202,-0.617744,0.314010,0.720965
0.313137,-0.006466,-0.970796,0.148347,-0.164879,-0.975094
0.059809,0.020805,0.952197,-0.486267,0.713331,-0.504680
-0.330798,-0.318690,-0.564666,0.351996,0.705998,0.614545
0.092982,-0.401720,-0.337027,-0.092034,-0.479025,0.872963
0.125206,0.045145,-0.015062,0.257553,-0.699599,-0.666504
-0.126338,0.367315,-0.407911,-0.315627,0.946982,-0.060047
-0.314567,-0.079368,0.879967,0.517462,0.730758,-0.445225
0.630676,0.548075,-0.973094,-0.176214,0.196449,0.964550
0.187097,0.002135,-0.668415,0.901196,0.433402,0.002996
0.071163,-0.563263,0.258493,0.970724,0.230294,0.068264
-0.485672,-0.017141,0.800661,-0.643779,0.535138,-0.546970
0.484957,0.550149,-0.981483,-0.050208,0.077621,0.995718
0.014210,-0.380247,-0.754155,0.999820,0.017112,-0.008174
-0.152377,-0.042215,-0.754451,0.979168,-0.176360,-0.100632
0.037456,-0.283857,0.006230,0.011119,0.993097,0.116765
-0.323664,0.018426,0.370121,-0.575252,0.458269,0.677550
0.160879,-0.565460,-0.074931,0.437359,0.846245,-0.304282
0.319382,-0.470533,-0.593657,-0.160728,-0.082199,0.983570
0.053389,-0.424351,0.807507,0.609117,0.694418,0.383092
0.496134,-0.060579,-0.959781,-0.167582,0.198820,0.965602
0.654517,0.286847,0.185016,0.270622,0.356145,0.894385
-0.399051,0.551061,0.649274,-0.628440,0.350444,-0.694444
0.064207,-0.318266,0.845608,0.974912,-0.222234,-0.012607
-0.038584,-0.099988,-0.711819,0.497416,0.686368,-0.530543
0.109333,-0.050269,0.508311,0.431609,-0.331664,0.838876
0.375148,0.015007,-0.968449,-0.263852,0.142333,0.954004
0.338404,-0.459981,-0.330165,-0.131447,0.328032,0.935477
0.037989,-0.309966,-0.192271,-0.557473,0.256170,-0.789684
0.107788,0.239507,0.585465,-0.223005,0.331275,-0.916802
-0.122357,-0.451376,0.563632,-0.656835,-0.620871,-0.427887
0.334481,-0.243778,-0.959830,-0.137529,0.114516,0.983856
0.613196,-0.087541,-0.952656,-0.389846,0.136067,0.910772
-0.574971,0.349014,0.356250,-0.663817,-0.411571,0.624465
0.018844,0.580164,0.612470,0.576401,0.461136,-0.674622
-0.289895,-0.615726,0.676869,0.064006,0.992735,0.101885
-0.400299,-0.141349,0.030099,0.139335,0.504254,0.852241
0.016112,-0.831866,0.593246,-0.518482,0.111191,0.847828
0.822116,0.004150,-0.539960,0.266261,0.282952,-0.921436
-0.008205,0.026844,-0.092758,0.362447,0.753394,0.548662
0.077288,-0.350168,-0.251024,0.768560,0.543379,0.337720
-0.034781,-0.146290,0.630133,0.845315,-0.531376,0.055524
-0.096553,0.016411,0.748016,-0.387859,0.531853,-0.752794
0.435969,0.640800,-0.991923,-0.169942,0.263371,0.949608
-0.387218,-0.000181,0.124835,0.548790,0.652016,0.523167
-0.506185,-0.334429,-0.466992,0.263705,0.030288,0.964128
-0.432997,-0.078575,0.240862,-0.441209,0.727817,0.524993
-0.244057,0.425208,0.692513,-0.568321,0.407753,0.714667
0.259334,-0.082722,0.376474,0.743276,-0.209055,0.635481
-0.148219,-0.042643,-0.162312,0.708508,0.368721,-0.601716
0.004162,-0.345410,0.144386,0.973016,0.193270,0.126039
0.081926,-0.346508,0.342264,-0.703503,-0.641101,-0.306715
0.701723,0.181249,-0.813729,-0.224874,0.632769,0.740969
0.547324,-0.177526,0.573416,0.221142,0.321769,0.920631
0.354457,0.052711,0.875502,0.859807,-0.445252,0.249965
-0.741559,0.023549,0.382663,0.247601,0.871942,0.422388
0.111594,-0.709126,0.267325,0.934818,0.329931,-0.131379
0.204221,-0.388114,0.733126,0.755070,-0.573624,0.317529
-0.198397,-0.342118,0.626210,0.953024,0.280942,0.113210
-0.856720,0.523917,0.321087,0.758096,-0.238517,-0.606960
-0.217956,-0.034161,0.504239,-0.344348,0.131710,0.929557
0.091259,-0.240542,0.198821,0.809236,-0.541934,-0.226813
0.007551,0.453026,-0.310581,-0.086367,0.221035,0.971434
-0.603330,-0.505735,-0.821411,-0.411785,0.420810,-0.808302
0.492806,0.232369,0.482882,-0.434356,0.453430,-0.778290
0.222829,0.152333,0.988197,0.356755,0.349904,0.866195
0.835136,-0.054781,-0.742861,-0.471782,0.299181,0.829405
-0.024316,0.056372,-0.099193,0.162795,0.711411,0.683661
0.048868,-0.780929,0.593115,0.843161,0.145405,-0.517627
-0.171225,-0.235906,0.548464,-0.773368,0.633859,0.011163
0.507194,-0.070461,-0.957581,0.242626,-0.173383,-0.954500
-0.423545,-0.491642,0.410373,0.697468,0.453774,0.554642
0.233410,-0.671180,0.335878,0.296260,0.391418,0.871219
-0.587516,0.406724,0.619725,-0.264365,0.790595,0.552332
0.171936,0.100353,-0.674669,0.597622,-0.204318,-0.775308
-0.291259,-0.077718,0.825499,-0.037045,-0.981287,0.188955
-0.661476,0.345537,0.226778,0.553689,0.495414,-0.669323
-0.088468,0.394340,0.770620,0.515372,0.717900,-0.467986
-0.431332,-0.269216,0.747392,-0.762868,0.523817,-0.379010
0.055291,-0.464371,0.552026,-0.460911,0.816729,0.347153
0.384899,-0.357917,-0.952098,0.185546,-0.159490,-0.969606
0.027110,-0.831625,0.593000,-0.518482,0.111191,0.847828
0.057192,-0.318630,-0.659731,0.989602,-0.143802,-0.003105
-0.163793,-0.066924,0.680136,0.319483,-0.942322,-0.099795
0.012007,-0.346326,0.067740,0.749095,0.659066,0.067003
-0.528778,-0.280137,-0.671304,-0.045685,-0.453331,0.890171
-0.381571,-0.488775,0.416316,0.834723,-0.198524,0.513640
0.245955,0.061860,0.968301,0.519976,0.814362,0.257759
-0.310227,0.648303,0.785854,-0.150619,0.423978,0.893060
0.257788,-0.068692,0.382203,-0.608810,-0.040056,-0.792304
-0.127052,0.375306,0.409142,0.154915,-0.985808,0.064685
0.107015,-0.359749,-0.566653,-0.381731,0.915445,0.127446
0.488107,-0.293434,0.506012,0.367967,0.655355,-0.659629
-0.167836,0.209980,0.231505,-0.421188,0.876126,-0.234528
-0.130322,-0.268665,0.498100,0.981267,0.192632,-0.002719
-0.527765,0.125673,0.314997,0.820070,0.567448,-0.074074
0.733768,0.102308,-0.942380,-0.142660,0.142445,0.979468
0.010879,-0.406114,0.810774,-0.304151,-0.951237,-0.051381
0.043755,-0.109442,-0.695583,-0.394586,0.916063,0.071629
0.064624,-0.441069,-0.720913,0.640137,0.755148,-0.141336
0.219857,0.247866,-0.537038,0.441559,0.526808,-0.726291
-0.574257,-0.471084,0.801827,-0.342632,-0.609806,-0.714661
-0.177884,-0.383661,0.896284,-0.332092,-0.149591,-0.931309
0.051724,-0.367252,-0.097223,-0.630060,0.436591,0.642194
-0.068848,-0.046791,-0.791879,0.846050,0.118371,0.519796
0.219977,-0.007505,-0.685225,-0.530541,0.409259,0.742316
-0.439003,0.050027,0.642708,-0.063309,0.373721,0.925378
-0.649465,0.020436,0.370269,-0.143415,0.788177,0.598506
0.024254,-0.356148,-0.347057,0.953317,-0.209427,-0.217546
-0.458801,-0.245975,0.763414,0.506098,0.564568,0.652018
-0.098872,0.342241,-0.264961,-0.386825,-0.369723,-0.844790
-0.193759,0.517814,0.092561,-0.150632,0.503603,0.850702
-0.607194,0.353404,0.353180,0.687930,0.360400,-0.629972
-0.221998,0.014643,0.915310,-0.642535,-0.366417,0.672969
-0.591141,-0.393971,0.779288,-0.146499,0.382410,0.912305
0.086861,-0.072289,0.849795,-0.033266,-0.723825,0.689182
0.221639,0.674233,0.608152,0.418932,0.345561,0.839692
-0.098335,-0.301000,0.798922,0.944028,0.273132,0.184959
0.401783,-0.135555,-0.111686,-0.008754,0.578041,0.815961
-0.429786,0.099136,-0.359254,0.508555,0.201853,-0.837035
0.686086,0.002381,0.706434,0.354194,-0.522474,0.775607
0.192863,-0.178807,0.782226,0.865218,0.489079,-0.110452
0.435908,0.586140,-0.987409,0.244819,-0.193383,-0.950088
0.248335,-0.461016,-0.592294,-0.113538,-0.026428,0.993182
0.347443,0.029894,0.650193,0.060726,0.307207,0.949703
0.180558,0.185334,0.727578,0.467141,0.158122,0.869929
-0.087158,0.224136,0.507424,0.267378,-0.943599,-0.195269
0.381034,-0.141594,-0.097059,-0.031192,0.533874,0.844989
0.229785,-0.270557,0.799233,-0.363570,0.907758,0.209269
-0.699705,0.275930,0.583183,-0.179899,0.949030,0.258801
0.197087,-0.299719,-0.100917,0.225843,-0.362084,-0.904373
-0.561356,0.464006,0.579079,0.141967,0.972727,0.183436
-0.376992,0.245181,0.489482,0.076642,0.946080,0.314734
0.145896,-0.274586,-0.362422,-0.783760,0.620640,-0.022956
-0.428182,-0.548927,0.430909,0.779732,0.516377,0.354080
0.428121,0.227245,0.503960,0.225567,0.107665,0.968260
0.034480,-0.273852,-0.748656,0.851608,-0.456476,0.257669
-0.071225,0.389823,-0.452053,-0.224616,0.880709,-0.417013
-0.159515,-0.907148,0.739824,0.848468,0.526311,0.055665
-0.563617,0.384395,0.629132,-0.101921,0.454044,0.885131
0.033769,-0.365483,-0.422767,0.938944,0.320166,0.126011
-0.435792,0.111274,0.233869,-0.099072,-0.166173,0.981107
-0.201844,0.381222,0.760557,-0.208898,0.159254,-0.964883
-0.427054,0.008540,0.871168,0.725109,0.667069,0.170988
0.019737,-0.026416,-0.086323,0.943617,-0.062045,-0.325173
-0.073543,-0.928502,0.640032,0.352408,0.715595,0.603102
0.033294,0.627440,0.430942,-0.579966,-0.435678,0.688349
-0.069976,-0.045328,0.689017,0.095225,-0.883019,0.459576
0.158738,-0.468824,-0.344644,-0.163353,-0.478498,0.862760
-0.400237,-0.275744,0.503566,-0.321171,0.532891,0.782865
0.118191,0.189974,0.504354,-0.490402,-0.050902,0.870009
-0.091320,-0.658613,0.397914,-0.659946,-0.269119,-0.701460
0.523186,0.123111,-0.324140,-0.008828,-0.197031,0.980358
0.041139,-0.450341,-0.398603,0.628394,0.775380,0.062510
-0.499051,-0.100595,0.829619,0.475722,0.829949,0.291329
0.715218,-0.053013,-0.938982,0.293958,-0.028756,-0.955386
0.319680,0.303502,0.266143,0.357915,0.446374,0.820151
0.035670,0.361581,0.574696,-0.399228,-0.000160,0.916852
0.398572,-0.278551,0.494915,0.316180,0.634048,-0.705700
-0.155113,0.042461,-0.696092,-0.221537,-0.550940,0.804603
-0.253448,0.105905,-0.041130,0.665584,0.174930,-0.725533
-0.080202,-0.452720,0.976558,0.499795,-0.672763,0.545523
0.026990,-0.805575,0.385273,0.852029,0.517783,-0.077120
0.162661,0.065885,-0.679939,0.834015,-0.127117,-0.536899
0.057548,-0.465592,0.936552,0.835576,-0.488000,0.252328
-0.067480,-0.893483,0.320151,-0.160609,-0.806782,0.568601
-0.106779,0.281295,0.669301,0.826865,-0.560287,0.048712
0.264980,-0.524036,-0.578669,0.129102,0.060246,0.989799
0.374673,-0.219374,-0.575632,-0.045049,-0.300951,0.952575
-0.120274,-0.415080,-0.809887,0.094965,-0.642154,0.760671
-0.171762,0.333763,0.831294,0.360596,0.673654,0.645105
0.077466,-0.455222,-0.397602,0.472674,0.881130,-0.013744
0.018133,-0.326990,0.031806,0.926801,0.373887,-0.035336
0.053208,-0.361153,0.290521,0.911676,-0.134213,-0.388373
-0.239833,0.033677,0.446603,0.049989,0.806536,0.589068
-0.694353,0.306797,0.326816,-0.296628,-0.693081,0.657001
0.033232,-0.357124,0.972782,-0.589038,0.739078,-0.326800
-0.175627,-0.575465,0.603851,0.962806,0.004762,-0.270151
-0.028478,0.193634,-0.117595,0.071281,0.208582,0.975404
-0.081153,0.347916,0.683616,0.854405,-0.465843,0.230180
0.008382,-0.361030,0.979710,0.766831,-0.609149,0.202255
-0.133889,-0.512810,-0.723966,0.336732,-0.278024,0.899619
0.502970,0.297828,0.499380,0.312875,0.843035,0.437494
-0.038526,0.033003,0.745865,-0.658475,0.729608,-0.184615
-0.313260,0.405931,-0.222345,0.336703,0.381711,0.860771
-0.720512,0.013790,0.372223,0.048578,0.870489,0.489785
0.320986,-0.360114,0.831983,0.913098,-0.367834,-0.175928
0.234183,0.480237,-0.507112,-0.609095,0.316946,0.727013
0.625803,0.023184,0.704399,0.054768,-0.718817,0.693039
-0.282699,-0.665811,0.571463,-0.522290,-0.018571,-0.852566
0.168609,0.376344,0.550335,-0.517934,-0.685908,-0.511150
-0.820273,0.522878,0.341311,-0.125723,0.277602,0.952434
-0.146078,0.478282,0.089688,0.142532,-0.270945,-0.951984
-0.792510,0.395438,0.327982,-0.236630,-0.377141,0.895417
0.410343,-0.447351,-0.091773,0.435929,0.037280,-0.899209
0.674493,-0.054722,0.239336,-0.336496,-0.387384,0.858315
0.441380,-0.047279,0.174821,0.736252,0.199362,-0.646675
-0.547919,-0.268178,0.028194,0.790756,-0.329312,-0.516003
0.523066,0.268792,0.109470,-0.502385,0.353386,-0.789131
0.212425,-0.644096,-0.210854,0.524277,-0.113408,0.843962
0.023481,0.308019,0.493750,-0.104853,0.404725,0.908407
0.437453,-0.287517,-0.081283,-0.296779,0.009960,0.954894
0.171936,0.396961,0.401131,0.187046,0.504507,0.842904
0.065636,-0.300940,0.429235,0.972314,0.120796,-0.200034
0.098455,-0.093215,0.845083,0.201654,0.472770,-0.857802
0.128834,-0.367557,-0.938178,0.611680,0.222867,0.759064
-0.760642,0.348404,0.341377,0.255839,0.585619,0.769153
-0.268373,-0.021535,0.912470,-0.166732,-0.542502,0.823342
-0.126457,-0.046608,0.504469,-0.184664,-0.704047,0.685723
-0.879370,0.552833,0.315588,0.758096,-0.238517,-0.606960
0.313315,-0.252867,0.808475,-0.811990,0.259469,0.522827
0.158796,-0.033673,0.882084,-0.690600,-0.689320,0.218882
-0.196016,-0.110235,-0.316195,0.603948,0.726399,-0.328012
0.292210,0.626037,0.740284,0.907582,0.407616,0.100720
-0.329132,-0.094254,0.437492,0.989634,0.142825,0.015038
0.123424,0.185703,0.673487,-0.040275,-0.823304,0.566170
-0.538049,0.229383,0.638407,-0.202874,-0.006550,0.979183
0.134005,-0.314907,-0.584283,-0.156586,0.965111,0.209860
0.132819,-0.884881,0.304392,-0.605903,0.795535,-0.002551
-0.044709,-0.693324,-0.722981,0.522759,0.698215,-0.489100
0.102138,-0.669594,-0.743698,0.687919,0.372517,0.622895
-0.000240,-0.367129,0.094449,0.925866,0.255833,0.278068
-0.273602,0.067106,-0.697011,-0.248550,0.743344,-0.621018
0.709927,0.020559,0.140233,-0.370920,0.486815,0.790841
-0.017244,-0.554293,0.930216,0.833116,-0.386889,0.395265
-0.166410,-0.800694,0.875912,0.911345,-0.206268,0.356235
0.199939,0.271231,1.000000,0.204293,-0.291416,0.934527
-0.353568,0.464498,0.637996,0.994585,0.040149,0.095861
0.237990,0.078515,0.941773,0.356383,0.623868,-0.695543
0.025800,-0.404464,-0.562467,0.869566,-0.481560,0.109335
0.091974,0.016471,0.374570,0.852541,0.417012,-0.315078
-0.482878,0.406173,0.672880,0.978035,-0.207390,0.020886
-0.127172,-0.180516,0.918676,-0.095696,0.206316,0.973795
-0.400535,-0.360054,0.866325,-0.218395,-0.790831,0.571742
0.448928,0.329980,0.503566,-0.028242,0.279141,0.959835
-0.156837,0.482918,0.774396,0.892733,-0.033843,0.449314
-0.145185,-0.222424,0.545837,-0.918244,0.113750,0.379326
-0.551130,-0.176182,-0.294657,-0.034709,0.958639,0.282500
-0.629014,0.035933,0.360879,-0.025398,0.781493,0.623397
-0.196851,0.150259,-0.187002,-0.031491,0.328886,0.943845
0.186324,-0.469740,0.666724,0.790532,0.597788,-0.133075
0.424136,0.551671,-0.978889,-0.297121,0.137971,0.944819
-0.490487,-0.713028,0.780257,-0.194461,-0.972729,0.126424
-0.284782,0.122742,0.092364,-0.064282,-0.140324,0.988017
0.688942,0.323572,0.159686,0.864917,0.477022,-0.156104
0.230141,0.271231,0.704530,0.669066,0.601726,-0.436207
-0.289002,-0.462297,0.769471,0.570917,0.030727,-0.820433
-0.127648,0.404650,0.571249,0.364955,-0.227839,-0.902717
0.053865,-0.370789,0.799529,0.244038,-0.924561,0.292630
-0.314745,-0.217911,0.097535,0.824464,-0.458649,0.331513
-0.265340,-0.299656,-0.196145,0.031428,-0.008659,0.999469
0.038704,-0.420449,-0.478877,0.787008,0.597444,-0.153884
0.515812,0.485297,-0.980104,0.241886,-0.141920,-0.959870
