-0.063234,-0.156740,-0.953449,-0.254505,0.091292,0.962753
0.739120,-0.104550,-0.331617,0.372685,0.296110,0.879446
-0.227789,-0.053559,0.158539,0.407880,0.450204,0.794324
0.274640,0.094468,0.211271,-0.585139,0.404087,-0.703083
-0.152319,-0.028350,-0.980388,-0.153064,0.272249,0.949975
-0.162270,0.603778,-0.435440,0.233417,0.299217,-0.925195
-0.154987,-0.184203,0.784569,0.835687,-0.021687,0.548778
-0.191268,-0.663085,-0.037813,0.521503,0.708254,0.475827
0.302449,-0.042014,-0.149191,-0.418749,0.262627,0.869296
-0.190553,0.764405,0.091842,-0.344890,0.866071,0.361901
-0.050423,-0.003098,-0.963980,-0.227097,0.028511,0.973455
0.005189,0.061606,0.833829,0.941434,0.327376,-0.080794
0.188219,-0.000444,-0.032662,0.942799,-0.298299,-0.148823
0.164412,-0.527974,0.217147,0.455075,0.863546,0.217244
0.053614,-0.032197,-0.611645,0.394484,0.329084,-0.857955
-0.534093,-0.556145,-0.527816,0.125333,0.517229,0.846620
-0.398154,0.499269,0.095734,0.400487,-0.021574,0.916048
0.153223,-0.729203,0.087988,-0.172794,0.460434,0.870714
-0.644321,-0.546106,0.537545,0.839102,0.488425,0.239475
-0.165318,0.053249,0.818567,0.011989,-0.857520,0.514311
-0.149320,0.806907,0.290369,0.798718,0.572039,0.186606
0.348776,0.511343,0.474435,0.773044,-0.025296,0.633848
-0.189315,-0.240282,-0.368055,0.125468,0.426763,-0.895618
-0.169652,-0.179250,0.806242,0.910962,-0.312502,0.269241
-0.205078,-0.638054,-0.063263,-0.370916,0.772125,0.515988
-0.512332,-0.284597,0.274572,0.781406,0.479085,0.399852
-0.222026,-0.441114,0.310592,0.115837,-0.469666,0.875212
-0.235883,-0.297068,0.081120,-0.294877,0.955486,-0.009716
-0.005334,0.163947,0.925824,-0.196427,0.894568,-0.401453
-0.478146,0.060767,0.283082,0.811196,0.360871,0.460144
0.518522,0.296315,0.276518,0.905967,-0.143154,-0.398410
0.034233,-0.165893,0.496642,0.834992,-0.308602,-0.455580
0.440910,0.683295,0.241720,0.903522,-0.122146,-0.410766
0.266261,-0.306222,-0.891331,-0.090711,0.018904,0.995698
-0.331254,-0.039496,0.187233,0.870240,-0.284720,0.402017
-0.743883,0.050506,0.466880,0.701288,0.194637,0.685792
0.474479,0.435583,0.555937,0.952548,-0.036713,0.302166
0.279926,-0.057938,-0.131983,-0.356530,0.265528,0.895757
0.095704,0.446332,0.650260,0.664083,0.423701,-0.616012
0.382249,0.191942,0.738629,0.010452,-0.831436,0.555523
-0.348206,0.501658,0.264881,-0.466580,0.623187,-0.627648
0.003904,0.377779,-0.489087,-0.124793,-0.618151,0.776090
0.014236,0.902391,0.428266,0.436828,0.455843,-0.775492
0.420959,0.510593,0.605387,0.647989,0.689601,-0.323359
0.018092,-0.143823,0.476725,0.927389,-0.358069,0.108338
-0.391345,-0.486933,0.000229,0.408177,0.066388,0.910486
-0.169079,-0.723364,-0.434982,-0.092111,0.333350,0.938293
-0.024047,-0.109503,-0.940934,-0.231803,-0.018979,0.972578
-0.134083,-0.642654,0.326465,-0.730446,0.673132,0.115504
-0.098515,0.580822,0.440285,-0.100345,0.774124,-0.625030
0.214075,0.709965,0.244162,0.329717,0.678782,-0.656157
-0.057613,-0.047410,0.698145,-0.385415,0.794066,-0.470016
0.033806,0.544338,0.113095,0.223982,-0.514845,0.827506
-0.317590,0.523285,0.499046,0.752373,0.050525,0.656797
0.047282,-0.273363,-0.478251,0.796982,-0.387792,-0.463074
0.129082,-0.746849,0.114354,-0.063053,0.553951,0.830158
-0.076945,-0.058909,-0.965201,0.118289,-0.095927,-0.988335
0.133702,-0.178056,-0.925634,0.356896,-0.107169,-0.927976
0.127512,-0.101057,-0.939026,0.379008,-0.211023,-0.901012
-0.084184,-0.183938,-0.963141,0.294029,-0.202638,-0.934069
0.169745,0.093008,0.988553,0.620052,0.719812,-0.312100
0.127416,-0.144266,-0.932234,-0.193924,0.411411,0.890581
0.000667,-0.330238,-0.926702,-0.183176,0.124254,0.975196
-0.676937,0.023175,0.426587,0.646605,0.040511,0.761749
0.397532,0.097829,0.288270,0.544916,-0.832223,-0.102329
-0.044997,0.034672,-0.971268,0.145102,-0.059641,-0.987618
-0.649511,-0.183760,0.027281,0.275280,0.161222,0.947749
-0.107277,-0.009862,-0.198718,-0.675699,0.077988,-0.733041
0.140558,-0.229004,-0.659264,-0.279892,-0.310105,0.908568
-0.512904,-0.350848,0.059218,-0.314332,0.537511,-0.782482
0.259737,0.074741,0.482257,0.182105,-0.921481,0.343090
-0.039996,-0.840654,0.086309,-0.515145,0.693145,0.504158
-0.347349,0.491708,-0.157166,-0.148033,-0.554687,0.818784
0.510998,-0.383353,0.566163,-0.331865,-0.388728,0.859509
0.311969,0.369290,0.669299,0.968922,0.090685,0.230145
-0.449483,0.530714,0.308417,0.240368,-0.626743,0.741226
-0.802497,-0.084075,0.493590,0.281673,0.306377,0.909282
0.116847,-0.189378,-0.931738,-0.186048,0.131108,0.973754
0.252120,-0.412056,-0.889347,-0.148137,0.031598,0.988462
-0.059089,-0.303393,-0.945818,0.200468,0.014466,-0.979593
0.095228,-0.296229,-0.911325,0.273154,0.043850,-0.960970
-0.082708,-0.427801,0.142323,-0.499796,0.569685,-0.652428
-0.768928,-0.194552,0.496299,-0.530291,0.751529,-0.392423
-0.517856,-0.267481,0.309791,0.927578,-0.204908,-0.312429
-0.062469,0.054310,0.816048,0.779377,-0.353367,0.517401
0.129750,-0.055638,0.773848,0.294699,0.943644,-0.150625
0.283355,-0.399495,-0.886600,-0.001941,-0.045361,0.998969
0.025332,-0.330945,-0.343788,-0.045437,0.964009,0.261959
0.064518,0.025961,-0.961806,0.183565,0.066320,-0.980768
-0.264689,-0.621202,-0.391827,-0.715791,0.613437,0.333673
-0.665605,-0.159215,0.527816,0.599936,-0.712800,-0.363309
0.033710,-0.213790,0.576923,0.040609,0.915509,0.400243
-0.093420,-0.026361,-0.976152,-0.333271,0.160369,0.929092
0.020664,-0.019107,-0.961157,-0.051023,0.032789,0.998159
0.344538,0.045021,0.625877,0.640330,-0.184892,-0.745515
0.240928,-0.401531,0.375648,-0.089190,0.948826,0.302942
-0.087660,-0.279244,-0.947993,-0.162074,0.078608,0.983643
0.109038,0.390253,-0.373779,-0.571150,-0.178907,-0.801112
-0.080755,-0.398038,0.614316,0.854575,-0.503373,0.127735
-0.679032,-0.443768,0.486874,0.737682,0.499142,0.454624
0.222215,-0.404095,0.394727,-0.505555,0.862729,0.010635
0.345442,0.066252,0.577152,-0.799817,0.507633,0.320314
-0.061231,0.335942,0.350389,-0.872650,-0.050019,0.485777
-0.106323,-0.024458,-0.975924,0.299111,-0.214162,-0.929875
-0.539711,-0.486358,0.109890,-0.328012,-0.035569,-0.944004
-0.260786,-0.907083,-0.351305,0.073206,0.287792,0.954891
-0.454197,0.491930,0.120002,0.389430,0.072484,0.918200
0.214075,-0.589006,0.473939,-0.699414,0.238416,0.673779
-0.024521,-0.161250,-0.953984,-0.280106,0.114419,0.953126
-0.159032,0.245014,0.220887,0.817596,0.507013,-0.272901
-0.236598,0.386096,0.324557,0.816676,-0.263193,0.513586
0.375013,0.073416,0.537813,0.562898,0.009358,-0.826473
0.020188,-0.456417,0.458219,-0.784932,0.308109,-0.537541
-0.063946,-0.033257,-0.970849,0.255114,-0.181781,-0.949669
-0.168556,-0.048914,-0.146024,0.759217,-0.411773,0.504017
-0.651653,-0.251514,0.347375,0.491574,0.305198,0.815603
-0.043091,-0.074698,-0.962034,-0.193651,0.139009,0.971172
-0.054042,-0.309407,0.702762,0.828161,0.559882,0.026105
-0.789164,-0.407016,0.559600,0.858305,0.392731,0.330264
0.126655,-0.752598,0.354853,-0.087055,0.719202,0.689326
-0.094466,-0.002388,-0.242026,0.671919,-0.260774,0.693197
0.044614,-0.504447,0.475198,0.090276,0.371280,0.924122
0.131796,-0.052056,-0.566659,0.347150,0.316822,-0.882672
-0.085277,0.116800,0.090926,0.627579,0.470232,-0.620505
0.077991,0.005351,0.589247,0.311465,0.309584,0.898414
0.153415,-0.041839,-0.943643,-0.137276,0.045982,0.989465
0.023094,0.543673,0.109279,0.223982,-0.514845,0.827506
0.262547,-0.074787,0.805479,-0.714156,-0.698943,-0.038206
-0.174935,-0.647297,-0.068872,0.443770,-0.650474,-0.616403
0.065849,-0.362611,0.290293,0.232746,-0.090397,-0.968327
-0.448768,-0.858743,-0.361493,-0.092058,0.385151,0.918251
-0.187934,0.005130,-0.105770,0.962124,-0.015105,0.272194
-0.146033,-0.610059,0.508776,-0.807731,0.351299,-0.473456
-0.023951,-0.361640,-0.932158,-0.206923,0.150671,0.966685
0.146225,-0.209987,-0.917277,0.224438,0.036138,-0.973818
0.362156,0.252135,0.438225,0.786441,0.352867,-0.506947
-0.032521,-0.333202,-0.921703,-0.296037,0.111844,0.948606
0.443005,0.149440,0.524649,0.147731,0.903779,0.401696
0.220361,0.332713,0.220428,-0.661373,-0.381015,-0.646075
-0.260452,0.830216,0.310211,0.338536,-0.536472,0.773040
-0.227455,0.751713,-0.084478,-0.421662,-0.440444,0.792597
-0.022617,-0.327406,0.288957,0.777189,-0.414286,0.473651
0.212407,-0.219716,0.516789,0.902595,0.396158,-0.168466
0.125178,0.139048,0.607334,-0.482619,0.261651,-0.835834
0.049043,-0.256556,-0.905754,-0.026323,-0.702563,0.711135
0.353920,0.553977,0.563835,0.389250,0.892756,-0.226873
-0.738312,-0.184246,0.561698,0.481554,0.259094,-0.837243
0.004762,-0.092965,-0.950168,0.115818,0.056163,0.991681
-0.159032,0.021097,-0.995650,0.263814,-0.112992,-0.957933
0.206313,-0.404141,0.389728,-0.430834,0.900508,0.058886
0.346823,0.287116,0.433646,0.982488,-0.038139,-0.182378
-0.687506,-0.378090,0.414949,0.379468,0.633544,0.674259
0.392534,0.266020,-0.145605,-0.669095,0.215406,0.711275
-0.146986,0.810224,0.300061,0.810867,0.565034,0.152419
0.197647,-0.436382,0.630189,-0.193393,-0.481459,-0.854866
0.201122,-0.522046,0.504387,-0.552275,0.002168,0.833659
0.139797,-0.058688,0.697459,0.113568,0.983906,-0.137952
0.165173,-0.320110,-0.917392,-0.423377,0.042369,0.904962
-0.093467,-0.383753,-0.562462,0.085091,-0.279381,0.956403
0.318732,0.400027,0.353594,0.901155,0.342774,-0.265376
0.170413,0.117332,0.609584,0.644962,0.234725,0.727275
0.081136,-0.250939,0.512210,-0.627500,-0.412923,0.660105
0.465194,0.531024,0.703449,0.428492,0.870285,-0.242897
-0.060612,-0.365929,-0.938568,-0.319717,0.044316,0.946476
0.195790,-0.229800,-0.909837,0.064855,0.080348,0.994655
-0.296447,-0.617355,0.247138,-0.189282,-0.095704,0.977248
0.420578,0.578790,0.253243,0.403638,0.059338,-0.912993
-0.116227,-0.082615,-0.961081,-0.006708,0.062286,0.998036
0.353966,0.744770,0.388850,0.835535,0.549433,-0.002102
0.147605,0.177257,-0.537813,0.678795,0.187811,-0.709905
0.021092,-0.046703,-0.958867,0.247860,-0.225271,-0.942241
0.140035,0.255671,0.702419,-0.152367,0.729707,-0.666567
0.337110,0.678695,0.449481,0.913798,0.204280,0.351059
0.134368,0.310911,0.122023,-0.439241,0.721962,0.534639
-0.161651,-0.536067,-0.055327,0.432443,-0.065412,0.899286
-0.115228,0.302772,0.310477,0.420006,0.555084,-0.717967
-0.277307,-0.158772,0.672848,0.700376,-0.372579,-0.608817
-0.024190,0.127813,0.877442,-0.385351,0.801805,-0.456743
0.140654,-0.145505,0.266636,0.150227,-0.887054,0.436539
0.428960,0.301889,0.498168,-0.056709,-0.752200,0.656491
0.007857,-0.110921,0.551129,-0.538588,0.818860,-0.198475
-0.548900,0.597407,0.165140,0.418040,0.107249,0.902076
0.256214,0.170979,0.141560,0.623263,0.442151,-0.645016
-0.308589,-0.721507,-0.061126,-0.083841,0.473191,0.876961
-0.723455,0.204899,0.464438,-0.795423,-0.164236,-0.583378
-0.035855,-0.178631,-0.952457,-0.240899,0.164401,0.956525
-0.559615,0.170093,0.376678,0.902683,0.394915,0.170893
-0.264546,-0.507100,-0.566812,-0.010153,0.642443,0.766266
0.071420,0.158462,1.000000,0.239220,0.812364,-0.531826
0.365585,0.072220,-0.132250,0.782538,0.319360,-0.534457
0.475763,0.328160,-0.298535,0.507424,0.763188,-0.400082
-0.095373,-0.365397,-0.268887,-0.620569,0.094079,-0.778488
-0.174081,-0.000223,0.670635,0.253139,-0.701516,0.666181
0.499809,-0.098050,0.176816,-0.466886,0.544398,0.696885
0.255688,-0.547212,0.511065,0.947906,-0.201550,-0.246681
-0.217551,-0.215912,0.822458,-0.627586,0.690133,-0.360350
-0.464194,0.503693,0.135722,0.363316,-0.083759,0.927893
0.130654,0.485913,0.055479,0.090345,-0.642177,0.761214
0.345919,-0.761487,0.189980,-0.032155,0.497846,0.866669
0.163985,0.075052,0.439713,0.893372,-0.158897,0.420283
0.391342,-0.396267,-0.092491,0.774622,0.455599,-0.438624
0.111514,-0.337005,-0.267476,0.091885,-0.972432,-0.214320
-0.407867,-0.640086,0.243055,0.953318,-0.262136,0.149896
-0.142081,-0.198531,0.775106,0.822034,0.128208,0.554818
-0.667890,-0.396181,0.414377,0.404850,0.826280,0.391608
-0.238501,-0.482066,0.451580,0.000533,0.925095,0.379736
0.117466,-0.173368,-0.931013,-0.193352,0.095898,0.976432
0.128701,-0.158286,-0.931052,-0.169629,0.306509,0.936631
-0.201410,-0.071559,0.110234,-0.675253,-0.359005,0.644321
-0.199934,-0.277344,0.077953,0.141939,0.931256,0.335581
0.194220,-0.710097,0.327838,-0.233962,0.652663,0.720620
0.039711,-0.186238,-0.947802,0.149296,-0.285591,-0.946651
-0.476528,0.018001,0.303953,-0.639611,-0.307775,-0.704395
0.292353,-0.598206,0.527014,0.473429,-0.096787,-0.875498
-0.038712,-0.367254,-0.925366,-0.057546,0.365602,0.928991
0.140892,-0.406927,-0.027397,-0.642099,0.686782,0.340644
-0.050566,0.837069,0.308646,-0.012031,-0.577500,0.816302
0.020903,-0.040071,-0.277587,0.373687,-0.607462,0.700962
0.098753,-0.164036,-0.933608,-0.234725,0.296287,0.925807
-0.470099,-0.295829,-0.321390,-0.215512,-0.026459,-0.976143
0.152177,-0.114989,0.558150,-0.604756,-0.698401,0.382761
-0.499143,0.023529,0.326923,0.330432,0.048455,0.942585
0.745975,0.042589,-0.431739,-0.226202,0.495827,0.838444
-0.069185,0.734599,0.299374,-0.374768,0.897465,-0.232606
0.025901,-0.115210,0.402663,0.997492,-0.012558,0.069660
0.470526,0.211844,0.390033,-0.607527,0.002394,-0.794296
0.204836,-0.158904,-0.917697,0.211073,-0.239427,-0.947694
-0.153938,-0.303746,0.683264,0.228937,-0.150109,0.961798
0.111514,0.000266,0.801663,0.843131,0.308222,-0.440601
0.162223,0.568529,0.507936,0.202652,-0.763053,0.613744
-0.512762,-0.261820,0.325778,0.935418,-0.316593,-0.157361
0.176745,-0.168015,-0.928610,-0.198829,0.257857,0.945504
0.109323,0.874885,0.275908,0.174620,0.590284,0.788082
0.094705,0.006987,-0.954441,0.279846,-0.063427,-0.957947
-0.418771,0.853654,-0.058837,0.400795,0.390561,-0.828750
0.399247,-0.302950,0.386752,-0.120427,0.908495,0.400167
0.480907,0.091947,0.545978,0.409699,-0.023662,0.911914
-0.241073,0.355180,0.124733,-0.435524,-0.371718,-0.819844
-0.014000,-0.633011,-0.018430,-0.772457,0.311469,-0.553441
0.182648,0.008801,-0.949023,-0.050240,0.051887,0.997388
-0.197269,-0.381453,-0.165980,0.567622,0.769556,0.292555
0.237406,0.894873,0.373016,0.262918,0.815230,-0.516017
-0.136321,-0.065544,0.674030,-0.015573,0.910948,0.412228
0.565233,-0.045288,0.174870,-0.466886,0.544398,0.696885
0.050089,-0.223033,-0.644383,0.891910,-0.162349,0.422066
0.027901,-0.879660,0.118284,-0.056688,0.435138,0.898577
-0.081232,-0.072223,-0.963332,0.207942,0.040251,-0.977313
0.148794,-0.377604,-0.909761,-0.126461,0.122820,0.984339
0.364013,0.635840,0.471039,-0.414091,-0.794418,0.444329
-0.049662,0.625048,-0.252442,-0.680434,-0.732747,0.009537
-0.095992,-0.651939,-0.037279,-0.101287,0.523812,0.845791
-0.947579,-0.241564,0.131105,0.434690,0.184121,0.881558
0.050566,-0.425326,-0.619887,0.289287,0.191620,0.937867
0.216740,0.363851,0.173000,-0.414730,-0.602721,0.681708
0.142081,-0.333024,-0.913156,-0.131867,0.199410,0.971003
-0.015238,0.007209,0.131906,0.931862,0.027765,-0.361750
0.131511,-0.241607,0.546169,0.152803,0.630576,-0.760937
-0.322588,0.571669,0.299221,0.630757,-0.482671,0.607597
0.147652,0.168590,0.601953,-0.563804,0.375628,-0.735547
0.179317,-0.226262,-0.914110,-0.127108,0.148525,0.980706
0.101418,-0.312017,-0.342987,-0.660551,0.718544,0.217640
0.116370,-0.125470,-0.940591,-0.259389,0.039203,0.964977
-0.042472,-0.293397,-0.933112,-0.272320,0.006157,0.962187
0.480239,-0.427183,0.517055,-0.617093,0.359397,0.700021
-0.031283,0.003937,0.791475,-0.710078,0.517671,-0.477290
-0.322684,0.455442,-0.200969,-0.185603,-0.644656,0.741600
-0.000002,0.049400,0.764499,0.743200,-0.403941,0.533372
0.027139,-0.081333,-0.523008,0.761700,-0.143342,-0.631876
0.115751,0.453982,0.641750,0.709881,0.489042,-0.506860
0.212218,-0.148069,-0.925099,0.250831,-0.162195,-0.954346
0.355347,0.299544,0.409302,0.986666,-0.089816,0.135732
-0.102467,-0.085004,-0.970429,0.051894,0.070564,0.996156
0.047375,-0.383264,-0.592682,0.601540,0.188881,0.776192
0.191840,-0.152404,0.253167,-0.401514,-0.672460,0.621759
-0.008714,0.145991,0.881601,0.161855,-0.869457,0.466742
0.052519,-0.249746,-0.814904,0.950572,0.310242,-0.012759
0.267880,0.293130,0.715965,0.054541,0.998278,-0.021583
-0.706219,-0.054842,0.430441,0.830052,0.415865,0.371577
0.067233,0.356287,0.533234,0.809316,0.402418,-0.427863
0.219170,-0.048606,0.829136,-0.530841,-0.759050,0.376896
-0.144321,-0.506922,-0.372673,0.937469,-0.307328,0.163407
-0.199745,0.106232,-0.229701,0.667469,0.698778,0.257282
0.063423,-0.295875,0.455433,0.998308,0.019593,-0.054754
-0.348253,0.220601,-0.244582,0.333979,-0.526024,0.782149
-0.065710,0.014905,0.825244,0.873940,-0.272596,0.402393
0.097277,0.000706,-0.963217,0.263940,-0.062691,-0.962500
0.097372,-0.396888,-0.907471,-0.096264,0.116533,0.988511
-0.129796,-0.602627,0.466307,-0.671343,-0.333123,-0.662063
-0.277880,-0.095972,-0.069788,0.484074,-0.872183,0.070494
-0.255165,-0.711158,-0.419643,0.201060,0.607334,0.768583
0.283306,0.318385,0.244276,-0.608709,-0.163000,0.776469
-0.241216,-0.229622,0.163881,-0.833879,0.422597,-0.355046
0.329636,0.162311,0.632898,-0.726308,-0.473821,0.497966
0.211980,-0.122110,0.426664,0.769739,0.168666,0.615673
-0.174604,0.198045,0.131449,0.520595,0.672982,-0.525429
-0.107373,-0.767194,0.581082,-0.122328,-0.047775,0.991339
0.093705,0.144266,-0.147245,-0.200981,-0.550889,0.810018
-0.575041,-0.384150,0.351420,-0.418905,-0.639097,-0.645038
0.041711,-0.120385,0.384539,0.839358,0.492670,0.229681
0.200791,0.585732,0.506601,-0.117865,0.685610,-0.718364
-0.191552,-0.330060,-0.374847,0.432680,0.054308,0.899910
-0.182651,0.472956,-0.143048,-0.275169,-0.277198,0.920567
0.021618,0.772101,0.264576,-0.232336,-0.795702,0.559355
0.086134,-0.233914,0.257097,0.800964,0.142599,0.581482
-0.417341,0.092743,0.203068,0.900529,0.335370,-0.276720
0.590086,-0.094644,0.236454,0.864658,0.003012,-0.502351
0.171889,0.664853,0.240079,-0.235325,-0.868502,0.436264
-0.533808,-0.088629,0.288957,0.880883,-0.472457,-0.028820
0.100276,-0.259477,-0.911401,-0.104763,-0.232666,0.966898
-0.782308,-0.378311,0.551854,0.771688,0.566563,0.288972
0.205647,-0.276327,-0.904495,-0.051889,0.083415,0.995163
0.335015,0.190039,0.676892,0.545636,0.767638,-0.336174
0.124275,-0.153951,-0.936508,-0.242757,0.527698,0.814005
-0.377680,0.696695,0.428304,0.426537,-0.719978,0.547447
-0.217932,-0.082926,-0.136562,0.768104,-0.391553,0.506657
-0.413914,0.511786,0.289110,-0.183235,0.624784,-0.758993
-0.009571,-0.619876,0.571581,-0.125610,0.849411,0.512565
0.230262,0.083412,0.045711,0.841762,-0.532715,0.087479
0.460003,0.041528,0.499771,0.211736,0.183090,-0.960024
0.029046,-0.066295,-0.953907,-0.147185,0.097097,0.984332
0.141700,0.496837,0.134692,-0.897446,0.358158,0.257514
-0.311304,0.322496,0.376221,0.429360,-0.562302,0.706729
-0.044948,-0.460971,0.428800,-0.466072,0.692934,-0.550109
-0.644082,0.018441,0.403465,0.542760,-0.001863,0.839886
-0.509382,0.535181,0.135035,0.333809,-0.077314,0.939465
0.258737,0.165583,0.529113,-0.352035,-0.501458,0.790324
-0.179556,0.505815,0.451007,0.638748,-0.545269,0.542847
-0.611513,-0.530053,0.401938,-0.475833,0.111433,-0.872448
0.147937,-0.217904,-0.921131,-0.148228,0.184639,0.971564
0.051804,-0.134006,-0.356303,0.892943,0.425123,-0.148061
0.251786,-0.124631,0.075549,-0.198102,-0.170205,0.965291
0.128989,-0.147494,-0.937882,0.262858,-0.403299,-0.876502
-0.029046,0.119675,0.863667,0.299606,-0.781196,0.547694
0.108846,-0.150547,0.168574,-0.657752,-0.731948,-0.177807
-0.688317,-0.239442,0.361264,-0.579254,-0.146324,-0.801907
-0.130511,-0.403698,-0.210890,-0.528790,-0.696126,-0.485581
0.050185,-0.234797,-0.863134,-0.945291,0.248777,0.211035
-0.478050,-0.085754,-0.026977,0.146670,0.455765,0.877933
0.133749,-0.007298,-0.950054,0.034084,0.175047,0.983970
0.041807,-0.036707,-0.959860,-0.193879,0.020053,0.980820
0.066137,-0.011366,0.739354,0.908825,0.402577,-0.109404
-0.029569,-0.180885,-0.940781,-0.259144,0.110080,0.959545
0.077279,0.117332,-0.215583,0.630196,-0.499274,0.594625
0.182601,0.227633,0.649076,-0.208713,0.946522,-0.246037
0.557612,0.417673,0.306624,-0.255133,0.721700,0.643472
-0.050139,0.800010,0.265338,0.423166,0.653894,-0.627179
0.084707,-0.446596,0.403770,0.219448,-0.302600,0.927510
0.435626,-0.265802,0.619086,-0.115901,0.090815,0.989100
-0.081516,-0.128610,0.688225,-0.581186,0.376188,-0.721600
-0.076137,-0.270399,0.696276,-0.583062,-0.193852,0.788962
0.385390,0.112821,0.594666,-0.349904,-0.864779,0.360173
-0.572280,-0.108753,0.417926,-0.633440,-0.559654,-0.534361
0.345062,0.271284,0.462950,0.713124,0.434660,-0.550022
-0.015143,0.097033,0.806013,-0.647303,0.649586,-0.398794
0.143368,0.683163,0.309524,-0.576928,-0.719783,-0.386092
0.105228,-0.336738,-0.322840,-0.794919,0.573645,0.197574
0.060232,0.102296,-0.194215,0.840322,-0.458109,0.289819
0.237882,-0.190263,0.568567,-0.718640,0.607153,-0.339001
-0.171128,-0.225732,0.025946,0.967146,0.185653,0.173671
-0.149843,-0.285969,0.114697,-0.363624,0.575058,0.732861
0.134560,0.100482,0.583867,-0.017325,-0.752159,0.658753
0.097611,-0.040289,0.188759,0.150559,0.132638,0.979663
-0.388392,0.524611,0.098291,-0.383415,0.018615,-0.923389
0.301065,-0.327674,-0.212416,0.000444,-0.957432,0.288660
0.202979,0.010216,0.913614,-0.657394,-0.694674,0.291995
0.062850,-0.030650,0.726725,0.923767,0.321371,-0.208267
0.052138,-0.155633,0.286859,0.415799,0.896123,-0.155162
-0.346776,-0.418159,-0.318987,-0.752654,0.387512,-0.532303
0.503904,0.261553,-0.193262,0.982311,0.170210,0.078061
0.086611,-0.367697,-0.909799,-0.051445,0.177618,0.982754
-0.274023,0.518907,-0.517247,0.291771,0.451210,-0.843374
-0.420912,-0.685905,-0.446505,-0.122044,0.624584,0.771362
-0.284974,0.448497,0.504273,-0.428554,0.756742,-0.493643
-0.513761,-0.054752,0.311012,-0.648969,0.490054,-0.581968
0.058517,-0.018044,0.740499,0.938893,0.332580,0.088718
-0.460622,0.158729,0.321848,0.925422,0.190957,0.327307
-0.059566,-0.008844,0.802312,0.826414,-0.486565,0.283361
0.322161,0.284066,0.318414,0.889197,0.178890,-0.421103
0.375870,0.149087,0.290865,0.456583,-0.889069,-0.032979
0.214552,-0.208173,-0.908310,0.047584,0.054613,0.997373
0.403103,0.529964,0.618704,-0.488739,-0.743351,0.456687
-0.038427,-0.234001,-0.102526,0.193734,0.868918,0.455466
0.011952,-0.279112,-0.637134,0.882294,-0.098891,0.460194
0.018142,-0.302729,-0.916552,0.238690,0.102858,-0.965633
-0.137512,-0.100968,0.771405,0.819380,-0.414940,0.395527
-0.134987,-0.066562,-0.970009,0.178268,-0.048023,-0.982809
0.092228,0.227676,0.219704,-0.555278,-0.071021,0.828627
0.205124,0.546327,0.467605,0.131003,-0.757698,0.639321
-0.845445,-0.235150,0.013584,0.915367,-0.172180,0.363946
0.307924,0.688559,0.264308,0.175015,0.630180,-0.756467
-0.287927,-0.523110,-0.029953,0.235934,-0.024058,0.971471
-0.229551,0.356330,0.372558,0.814524,-0.267745,0.514649
0.300734,0.119367,0.268467,0.780317,-0.538693,-0.317673
0.158033,0.247889,0.269307,-0.196172,-0.514874,0.834519
-0.055280,-0.781301,-0.085737,0.821905,0.531530,0.204813
-0.545377,-0.396756,0.340049,-0.497969,-0.592875,-0.632872
-0.385870,-0.526560,-0.302465,0.212903,0.069253,0.974616
-0.035712,-0.318517,-0.940056,0.346053,-0.231213,-0.909279
0.475287,0.000177,0.541629,0.389946,-0.874359,-0.288857
0.134176,0.043429,-0.963675,-0.185012,0.019416,0.982545
-0.223075,0.461767,0.439675,-0.686422,0.650958,-0.324158
-0.168794,-0.230551,0.803876,0.799725,-0.239468,0.550540
-0.209265,-0.193003,0.060630,0.769328,0.251106,0.587436
0.100895,-0.445182,0.739698,0.510278,0.851840,0.118258
0.298209,0.542124,0.538118,0.308860,0.862043,-0.401856
0.147509,-0.510550,0.400984,0.955731,-0.263402,0.131142
0.036709,-0.062491,-0.959936,-0.325650,0.245413,0.913085
-0.260452,-0.305693,0.094933,0.481213,-0.869279,-0.113081
-0.056329,-0.918226,0.117826,-0.271155,0.524660,0.806974
0.425626,-0.362965,0.489240,-0.193405,-0.953797,-0.229925
-0.582135,0.176950,0.360539,0.948210,0.188903,0.255369
0.401246,0.555969,0.687042,0.450487,0.843042,-0.293839
0.141700,0.293044,0.762477,0.244184,0.809401,-0.534083
0.177603,0.672903,0.359890,0.059768,-0.799087,0.598237
-0.033998,-0.370925,0.701503,-0.097423,-0.857068,0.505909
-0.155368,0.580247,-0.432425,0.114071,0.483258,-0.868015
0.145368,-0.138694,0.241873,0.123172,-0.991135,-0.049801
-0.267688,-0.288754,0.039949,0.006276,-0.999598,0.027656
-0.176984,-0.028439,-0.125229,0.400634,-0.613123,0.680861
0.495810,-0.185264,0.406708,-0.658805,0.690595,-0.298419
0.122703,-0.181196,-0.929792,-0.248955,0.123503,0.960608
0.270118,0.067267,-0.469132,-0.764740,0.644328,0.003711
-0.085515,-0.324002,-0.947879,-0.482892,-0.006438,0.875656
-0.196839,0.038254,0.852983,-0.162090,0.934580,-0.316683
0.108846,-0.718678,0.329632,0.918275,-0.336800,0.208176
0.260356,0.394720,-0.444177,0.282982,-0.291180,0.913858
0.021237,-0.262616,-0.695360,0.977425,-0.200178,0.067594
-0.190602,0.057052,-0.581426,-0.043247,-0.004078,0.999056
-0.469718,0.031003,0.301129,0.696726,0.316484,0.643748
-0.025285,-0.215958,-0.946581,0.066675,0.262161,0.962718
-0.113752,-0.456017,-0.388889,0.744683,-0.260981,-0.614277
-0.538998,0.393082,-0.632784,0.877134,-0.096972,-0.470353
-0.433958,0.482817,0.118284,-0.475553,-0.069145,-0.876965
0.139416,-0.012119,-0.952877,0.009223,0.103863,0.994549
-0.601086,0.209366,0.162164,0.798234,-0.392759,-0.456686
0.062231,-0.194242,-0.433570,0.866181,0.426885,-0.259808
-0.655414,-0.217194,-0.035676,-0.366278,0.802160,-0.471571
-0.422008,-0.224051,0.025793,0.900896,0.132123,0.413436
-0.354254,-0.337580,-0.614126,-0.152720,0.072687,0.985593
0.252451,0.097254,0.096039,-0.795068,-0.307034,0.523066
0.141223,0.278580,0.717796,0.143095,-0.813875,0.563143
-0.025428,0.408563,0.442537,0.777291,0.201333,-0.596057
0.168649,-0.220866,-0.918078,-0.344091,0.148939,0.927048
0.380868,0.469682,-0.053152,0.317909,0.947968,-0.017060
0.065660,0.209987,0.661439,-0.360617,0.483414,-0.797663
0.115989,-0.027818,-0.949481,0.252351,-0.079917,-0.964330
0.021998,0.110343,0.678113,0.946880,0.279069,-0.159808
-0.226740,-0.538234,0.459859,0.101392,0.708347,0.698545
0.205455,-0.071027,-0.939255,0.234905,0.000717,-0.972018
-0.708837,-0.363319,0.441659,0.828939,0.440935,0.344146
-0.618133,0.270442,0.368017,0.751545,0.349446,0.559524
0.030138,0.459200,0.550252,0.812731,0.187695,-0.551579
0.008380,0.002166,-0.958257,0.273961,0.031992,-0.961209
-0.476432,-0.266595,-0.288461,0.221230,0.031817,0.974703
0.078468,0.705233,0.182883,-0.706052,0.645494,-0.291251
-0.696268,-0.305736,0.025488,-0.215952,0.624108,0.750903
0.063992,-0.262306,0.462263,0.979212,0.165292,0.117573
-0.189364,-0.558180,0.494925,-0.593622,-0.485955,0.641451
0.470956,0.387510,0.539262,0.818749,-0.066316,0.570309
-0.277642,-0.527221,-0.537660,-0.077321,0.630782,0.772098
-0.025474,-0.200655,-0.945398,0.143593,0.139385,0.979772
0.401915,-0.483084,0.486760,0.329412,0.443207,-0.833700
-0.029569,-0.084383,-0.959096,0.188701,-0.219842,-0.957111
-0.219219,-0.273716,-0.012897,-0.596558,0.082218,0.798348
0.691743,-0.452613,-0.422924,0.703727,-0.360396,0.612277
0.085039,0.130378,-0.170291,-0.794621,0.578030,-0.185631
-0.049043,0.708858,0.230807,0.183839,-0.605606,0.774238
0.178222,-0.004026,-0.193796,-0.696410,-0.214576,0.684814
-0.384394,-0.725578,-0.055174,-0.272033,-0.115479,-0.955334
-0.629607,-0.294415,0.363362,-0.485776,-0.205794,-0.849512
-0.722648,-0.408741,0.520833,0.785816,0.321693,0.528211
-0.163366,-0.333245,0.239926,-0.383196,-0.909349,0.162003
0.165411,0.064791,0.452342,0.404135,0.623682,-0.669100
0.126463,0.375525,-0.068567,-0.561029,0.776161,-0.287786
0.404914,0.211577,-0.348482,0.577044,0.325686,-0.748965
-0.041138,-0.042149,-0.967605,0.343650,0.354912,0.869450
0.066279,-0.062491,0.689026,0.150232,-0.985503,0.078828
-0.064661,-0.135112,0.715659,-0.649996,0.366867,-0.665517
-0.075137,0.040996,-0.987370,-0.272951,0.299271,0.914294
0.472192,0.386671,0.486607,0.047841,-0.994738,-0.090599
0.014428,-0.860600,-0.069559,0.771931,0.424469,0.473232
0.043187,-0.060680,0.644078,0.091661,-0.922152,0.375810
-0.013381,0.334263,-0.504808,-0.300091,-0.413640,0.859562
-0.567708,-0.327452,-0.249962,-0.267446,-0.048664,-0.962343
0.049139,-0.133255,-0.948489,0.160052,-0.113148,-0.980602
0.209408,-0.404449,-0.908921,-0.204449,0.120169,0.971473
0.047805,0.122463,0.928915,-0.308207,-0.916463,0.255154
-0.376916,-0.590157,0.219856,0.925092,-0.356002,0.132161
0.308351,0.176861,0.612713,0.518633,0.691407,-0.502967
0.085658,0.123346,0.967414,0.280517,0.822494,-0.494787
-0.041853,-0.309453,0.397321,-0.709167,0.202532,0.675325
0.279783,-0.290126,-0.899878,0.047994,0.142138,0.988683
-0.230835,-0.730796,-0.441392,0.153609,0.573368,0.804769
-0.440578,-0.297465,0.028998,-0.527814,-0.123418,-0.840345
-0.276880,0.732253,-0.082647,-0.240012,-0.536850,0.808818
-0.368918,0.454557,0.097375,0.573747,0.237582,0.783817
-0.478385,-0.297111,0.236683,0.674505,0.437734,0.594502
-0.318447,0.278448,0.072344,-0.592716,-0.615723,0.519204
0.207981,0.037460,0.020833,-0.899192,0.035702,0.436096
0.086562,0.074566,0.840850,-0.398947,-0.869480,0.291282
0.024186,0.062402,0.815438,0.264727,0.901677,-0.341903
-0.076279,0.478174,-0.466346,0.426845,0.315111,-0.847648
-0.556566,-0.595992,-0.490308,0.114344,0.480026,0.869770
-0.279687,0.375568,-0.278655,-0.339122,-0.285737,0.896299
0.139509,0.270577,0.257097,0.135067,-0.962099,0.236903
-0.173889,-0.591749,0.529495,-0.503500,-0.362657,-0.784199
0.916294,-0.028571,-0.462912,-0.201677,0.174247,0.963828
0.242977,-0.161868,-0.914911,-0.067059,0.238436,0.968840
0.269545,0.130513,0.136294,0.717465,0.293545,-0.631724
-0.240405,-0.694708,-0.030334,0.756255,-0.196894,-0.623948
0.206074,0.023615,-0.945780,0.029756,0.202427,0.978845
0.097277,-0.201584,-0.927312,-0.207144,0.259901,0.943156
0.042853,-0.193667,-0.185402,0.399718,-0.913133,0.080091
0.070708,-0.513999,0.281593,-0.489972,-0.769324,-0.409961
0.455289,-0.232764,0.369200,-0.526950,0.202120,-0.825513
-0.062615,-0.035557,0.797848,-0.707136,0.530612,-0.467344
-0.791686,-0.222723,0.070742,0.633683,-0.380275,0.673674
0.180791,-0.328556,-0.903083,0.392644,-0.183728,-0.901152
0.006096,-0.111363,-0.952915,0.048021,0.018726,0.998671
-0.063376,-0.802221,0.557578,0.001025,-0.039190,0.999231
0.024332,-0.050285,-0.936470,-0.083110,0.260501,0.961890
-0.194601,-0.177921,0.856685,0.665907,-0.597739,0.446404
-0.270118,0.678652,0.170215,-0.419798,-0.560945,0.713520
-0.297877,-0.462031,-0.576999,0.185383,0.102630,0.977292
0.054803,-0.232497,-0.755266,0.971372,0.237134,-0.014250
0.275878,-0.235018,0.553190,0.130932,-0.676724,0.724501
0.026235,-0.800628,-0.071619,0.157504,0.231591,0.959978
-0.019045,0.778294,0.277663,-0.256624,-0.687412,0.679418
0.373536,-0.579896,-0.273886,-0.614086,-0.156895,0.773487
0.160317,0.807349,0.321352,0.240333,0.545638,-0.802819
0.075469,-0.288665,-0.918460,-0.206403,0.123705,0.970616
-0.002620,0.112378,0.858631,0.055990,-0.754688,0.653690
0.172840,-0.050639,-0.577877,-0.001010,-0.537661,0.843161
-0.065852,-0.388485,-0.935287,0.443149,-0.139728,-0.885491
0.443482,0.191542,0.256029,-0.720599,0.652474,0.234552
-0.167033,-0.177214,0.794147,0.934721,-0.119647,0.334636
-0.178268,0.148555,0.060668,0.615029,0.639396,-0.461423
0.383964,0.331167,0.534989,-0.022663,-0.646955,0.762191
-0.501619,-0.278006,0.080738,0.202561,-0.443299,-0.873187
-0.241120,-0.196542,0.889652,0.700705,-0.465055,0.541051
0.086800,0.285701,-0.050901,-0.818939,0.315176,-0.479587
0.055280,0.097165,-0.190019,0.849638,-0.471037,0.237148
-0.286689,0.680377,-0.096192,0.349481,-0.431552,0.831641
0.357204,0.400910,0.283692,-0.616097,-0.077307,-0.783868
0.409628,0.687719,0.220352,-0.151387,-0.410449,0.899229
0.025805,-0.058291,-0.614088,0.370374,0.234101,-0.898899
0.044756,-0.000398,-0.960089,0.121201,0.118189,0.985567
-0.183697,-0.312325,-0.392895,0.787870,0.614750,0.036637
0.098230,0.879349,0.438110,-0.265255,-0.712335,0.649784
0.389869,-0.156208,0.671932,-0.736804,0.123206,0.664785
0.205743,0.637876,0.195322,-0.461397,-0.676796,0.573637
-0.289211,0.015212,0.091728,0.918494,0.002466,0.395428
-0.149271,-0.091682,0.794299,0.774846,-0.602588,0.191055
0.322492,0.118881,0.500877,0.152750,0.619398,-0.770074
-0.523950,0.089955,-0.580395,-0.207710,-0.181917,0.961126
-0.106181,0.539959,0.427617,0.195516,-0.755452,0.625353
-0.633036,-0.263456,0.050328,-0.271326,0.222929,0.936314
-0.155653,0.030825,0.787126,-0.176554,-0.911792,0.370761
-0.615896,-0.412809,0.404037,-0.606184,-0.672661,-0.424345
0.199504,0.595639,0.160142,0.514334,0.396852,-0.760243
0.185031,-0.022069,0.823298,0.288594,0.936043,-0.201338
-0.119799,-0.044492,-0.976763,-0.068678,0.194481,0.978499
0.221169,0.035468,-0.196391,0.198740,-0.143105,0.969548
0.147033,0.211002,-0.535867,0.755696,0.068988,-0.651278
-0.080613,-0.197602,-0.952343,0.226170,-0.118712,-0.966827
0.304399,0.429923,-0.110043,0.988663,-0.117992,0.092868
0.244930,-0.517403,0.491491,0.822270,-0.511112,-0.250274
-0.071470,0.015080,-0.969361,0.005074,0.055728,0.998433
0.071897,-0.212109,-0.395719,0.877177,0.440796,-0.190421
-0.014619,0.142894,0.927007,-0.360891,0.816907,-0.449912
0.068087,0.098404,0.916475,0.308327,0.925181,-0.221301
-0.139892,0.787890,0.068643,0.323334,-0.891997,-0.315905
-0.697745,-0.479059,0.530792,0.645421,0.427334,0.633101
-0.033663,0.033036,0.784226,-0.587455,0.663272,-0.463645
0.354681,-0.370086,0.232715,0.919457,0.393189,-0.001010
-0.095181,-0.568087,-0.091461,-0.354292,0.268054,-0.895893
0.476193,-0.266066,0.591079,-0.584759,-0.114777,0.803046
0.125986,0.383486,-0.389690,0.648240,0.076796,0.757554
-0.156987,-0.250410,0.037622,0.941187,-0.229193,0.248271
-0.641749,-0.390696,0.403693,-0.630414,-0.690085,-0.355474
-0.034329,-0.259785,-0.947650,-0.131537,0.172097,0.976258
0.194982,0.082348,-0.154113,0.438151,-0.269800,0.857457
0.381679,0.170933,0.685325,-0.296665,-0.856355,0.422666
0.550280,0.206802,0.478709,0.476114,0.128733,-0.869910
0.040711,0.450532,0.580204,0.609406,0.545483,-0.575389
0.226406,-0.163504,-0.913194,-0.009551,0.132627,0.991120
0.081563,-0.093318,-0.948146,-0.121666,0.043015,0.991639
0.187030,0.672195,0.250152,-0.150142,-0.915841,0.372415
0.441052,0.124188,0.568758,0.918530,-0.021244,0.394781
-0.669224,-0.425944,0.468635,0.438420,0.604128,0.665445
0.089325,0.877846,0.426396,-0.350588,-0.685625,0.637971
-0.096469,-0.384903,0.559142,-0.701565,0.219753,-0.677875
-0.219074,0.214630,0.389995,-0.390216,0.013322,-0.920627
-0.292449,0.486355,0.550633,0.883524,0.435213,-0.173132
0.050089,-0.187210,0.429449,0.930940,0.179200,0.318180
0.009284,0.107824,0.887324,0.452263,0.802605,-0.388952
-0.647750,-0.388042,0.440094,-0.449766,-0.712070,-0.539135
-0.112894,0.033522,-0.987561,-0.333764,0.240074,0.911573
-0.067183,-0.334573,-0.943109,0.246552,-0.155035,-0.956649
0.043853,-0.208394,-0.452686,0.977172,0.211216,-0.022843
-0.068898,-0.108135,-0.958944,0.072145,0.450682,0.889765
-0.027284,0.842511,0.317231,0.261612,0.596359,-0.758891
0.414103,-0.312193,0.466384,0.316410,0.906221,0.280442
-0.001713,-0.802928,0.085623,-0.580522,0.801307,0.144575
0.074707,-0.010394,-0.958219,-0.224275,0.018529,0.974350
0.171840,-0.369290,0.615613,0.132130,0.397698,0.907953
-0.069040,-0.271109,-0.948603,0.206572,-0.091593,-0.974135
0.525950,0.331474,0.515110,0.845486,0.533926,0.008731
0.777783,0.014108,-0.373970,0.123502,0.577634,0.806899
0.201410,0.104196,-0.151862,0.248192,-0.459625,0.852729
0.481146,0.609748,0.324176,0.341897,0.851881,-0.396745
-0.057186,-0.245324,-0.942689,0.262621,0.035278,-0.964254
-0.492953,0.616338,-0.448108,0.002473,0.278884,0.960322
-0.704504,-0.374022,0.473100,0.751217,0.356802,0.555306
-0.006238,0.009994,-0.640263,0.807251,0.361136,-0.466826
0.167030,-0.041528,-0.942346,-0.002496,-0.087592,0.996153
-0.107277,-0.863429,0.112981,-0.449533,0.732044,0.511891
-0.036331,0.168193,0.745001,0.740020,0.584762,0.332301
0.360203,0.690726,0.479052,-0.366985,-0.163231,0.915793
-0.317543,-0.330635,0.157585,-0.300751,-0.892359,-0.336519
0.250213,0.551191,0.571161,0.740825,0.634784,-0.219609
0.080944,0.857900,0.396863,0.098478,-0.846490,0.523218
0.148175,0.022908,-0.950893,0.424745,-0.115157,-0.897959
-0.044472,-0.423158,-0.578068,0.159065,-0.105853,0.981577
-0.556186,-0.149883,0.283654,0.246611,0.076209,0.966113
0.029949,0.055327,-0.973786,0.135346,-0.129866,-0.982251
-0.274593,-0.112335,0.270643,0.180906,0.910659,-0.371448
-0.128085,0.798285,0.265415,-0.611200,-0.080718,-0.787349
0.224691,0.542170,0.438759,0.002639,-0.709591,0.704609
0.000905,-0.079829,0.331540,0.783854,0.606554,-0.132908
-0.643606,0.030207,0.403197,-0.537347,0.045603,-0.842128
-0.131703,-0.111317,-0.963446,0.363729,-0.067172,0.929080
-0.182125,0.160098,0.914835,-0.012673,-0.339447,0.940540
-0.584991,-0.679581,-0.473825,0.123660,0.502012,0.855974
-0.157794,-0.098447,0.788309,0.828746,-0.167547,0.533956
0.052184,0.257307,-0.503434,-0.324393,-0.609964,0.722989
0.190744,-0.015215,0.920024,-0.657394,-0.694674,0.291995
-0.257641,0.671000,0.160027,0.579527,0.652080,-0.488815
-0.580661,0.350184,0.326656,-0.624989,-0.236821,-0.743845
0.393153,-0.005926,0.280067,0.913890,0.309356,-0.262876
0.250975,0.117731,0.120268,0.826588,0.202705,-0.525036
-0.406437,0.048870,0.193223,0.218894,0.887146,0.406272
0.162032,0.606077,0.514080,-0.316672,0.679517,-0.661798
-0.226598,-0.020786,-0.616110,-0.030412,-0.596402,0.802109
-0.042806,0.525231,0.155219,-0.339937,0.172447,-0.924503
-0.156176,-0.036532,-0.976801,0.043820,0.303435,0.951844
0.060281,-0.223433,-0.511599,0.995680,0.025318,-0.089329
-0.456339,-0.497722,-0.564370,-0.040185,0.346728,0.937105
-0.107561,-0.231569,0.687270,-0.489236,-0.142444,-0.860441
0.417245,0.576886,0.310096,-0.173191,0.958737,0.225452
0.307970,0.358676,0.318109,-0.123741,-0.566464,0.814743
-0.446149,-0.779311,-0.392552,-0.033703,0.468349,0.882901
-0.240454,0.298129,0.131143,0.792548,0.566534,-0.225625
0.182982,0.849897,0.335203,0.243087,-0.832165,0.498408
0.011713,0.253725,0.612332,0.919675,0.384609,-0.079214
0.227740,-0.062095,-0.928686,-0.282515,-0.017942,0.959095
0.330920,0.826588,0.401633,0.343167,0.855799,-0.387098
0.094420,0.844279,0.379960,-0.226394,0.819974,-0.525727
0.070563,-0.700015,0.114278,0.330385,0.467905,0.819702
-0.373966,0.017955,-0.101076,-0.075695,0.540488,0.837940
0.199457,-0.113175,-0.174374,-0.479339,0.860217,0.173955
-0.321400,-0.368318,-0.312385,0.879231,-0.232296,0.415923
0.112514,0.071734,0.910218,-0.611552,-0.690804,0.385738
0.024713,0.395870,0.515644,-0.794862,-0.372178,0.479248
-0.298496,-0.759984,-0.058875,-0.165656,0.495984,0.852383
0.224122,-0.313653,0.522627,0.804469,-0.227280,0.548793
0.254404,-0.274558,-0.594666,0.164295,0.875157,0.455090
-0.078517,0.013269,-0.971879,0.284495,0.100827,0.953361
0.200030,0.118085,0.237103,-0.445012,-0.176520,0.877955
-0.206077,-0.736810,-0.067232,0.150291,0.011427,0.988576
-0.370871,-0.425987,0.268124,-0.246762,0.702559,0.667472
-0.190410,-0.024989,-0.102564,0.674639,-0.528797,0.515011
0.039043,-0.174960,-0.941316,-0.117931,0.201379,0.972388
-0.085945,-0.151165,0.677617,-0.746984,0.307098,-0.589666
0.532759,-0.260449,0.619543,0.364970,0.907579,0.207602
0.124036,-0.628280,0.400488,0.839845,0.437266,0.321651
0.413769,0.478749,0.548420,0.857073,0.329190,-0.396307
-0.137655,-0.378975,-0.228022,-0.615332,-0.488275,-0.618833
0.009807,0.085091,0.793651,-0.075899,-0.583618,0.808473
0.290161,-0.038567,0.589667,0.607844,0.062865,-0.791564
-0.126082,-0.154394,-0.967796,-0.116440,-0.022172,0.992950
-0.021664,-0.858743,0.113705,-0.208040,0.514372,0.831950
-0.026093,-0.116892,-0.954937,0.090076,0.306127,0.947720
0.249594,-0.274070,-0.901214,-0.107891,0.160636,0.981099
0.097753,-0.404009,0.587606,-0.029893,-0.648668,-0.760484
0.481096,0.399717,0.425786,-0.287672,0.678811,0.675619
-0.508475,0.242228,0.317117,-0.641433,-0.725915,0.248216
-0.269260,-0.478263,-0.040560,0.229717,0.179472,0.956567
-0.269164,-0.828890,-0.387248,-0.051714,-0.358953,-0.931922
0.002951,-0.069877,-0.948489,-0.094846,0.024622,0.995187
0.074515,-0.330635,-0.382822,0.098814,-0.956822,-0.273362
-0.398297,0.079252,0.244505,0.773724,0.397868,-0.493004
0.143700,0.005705,-0.956044,-0.168675,0.101553,0.980426
-0.065852,0.073327,-0.974435,0.259100,0.012431,-0.965770
-0.116562,-0.100660,-0.972413,0.129711,-0.075492,-0.988674
-0.375059,-0.436115,0.273046,0.232175,-0.661490,-0.713110
0.067468,-0.123613,-0.945742,-0.145886,0.139246,0.979453
-0.077898,-0.797446,0.570780,-0.086731,-0.021361,0.996003
-0.100563,-0.729778,-0.005686,0.244469,0.561790,0.790333
-0.151319,-0.033125,-0.984737,0.020644,0.279709,0.959863
0.016761,0.275131,-0.527625,-0.237664,-0.523363,0.818295
-0.457481,0.194639,0.361988,0.269926,-0.570030,0.776019
-0.307732,-0.348637,-0.379045,0.726732,-0.213373,0.652941
0.053184,-0.736988,0.142857,0.017030,-0.112686,0.993485
0.482288,0.098358,0.604624,0.338848,0.916528,0.212504
-0.111514,-0.231304,-0.956654,-0.605521,-0.046978,0.794442
0.274212,0.230108,0.662088,0.375180,0.816653,-0.438540
-0.646131,0.633098,-0.443491,-0.176304,-0.479071,-0.859888
-0.197362,-0.697936,0.221535,-0.620555,-0.783882,-0.021007
0.141749,0.150237,0.612103,-0.357533,0.269319,-0.894225
-0.045425,-0.144619,-0.954289,-0.104996,-0.016989,0.994328
0.030903,-0.621777,-0.050824,-0.514829,0.343997,0.785250
0.270449,0.062535,0.549756,-0.486949,0.169729,0.856781
0.186839,-0.728893,0.334974,0.226222,-0.605837,-0.762749
-0.259786,-0.303525,0.148199,-0.633757,-0.438855,-0.636992
0.487336,0.514350,0.684180,0.345772,0.831106,-0.435550
0.104847,0.402149,-0.389118,-0.555507,-0.343977,-0.757028
0.047758,0.104286,-0.195017,0.849638,-0.471037,0.237148
-0.767879,-0.401220,0.541934,0.796405,0.464087,0.387767
0.223264,0.318253,-0.616873,0.776477,-0.626903,0.063850
-0.124702,-0.105614,-0.970238,0.130160,0.151984,0.979775
-0.122179,-0.690683,0.532242,-0.385149,0.521445,0.761416
-0.200887,-0.581929,0.276709,0.693410,0.718999,-0.047140
-0.800829,-0.385210,0.586920,0.894569,0.261188,0.362667
0.072231,0.128699,0.610920,0.907411,-0.059636,0.415992
0.264497,0.209323,0.682425,0.447819,0.682327,-0.577830
-0.159701,-0.685241,-0.376183,0.911040,-0.259797,0.320175
0.384583,0.743178,0.372634,0.518331,0.851961,0.074132
0.145557,-0.592589,0.462836,0.419803,0.293771,0.858757
0.042234,-0.123127,0.256944,0.928736,0.311818,0.200548
-0.414437,0.181196,-0.607066,0.130990,-0.075305,0.988520
0.303303,-0.436690,-0.888393,-0.061432,-0.079874,0.994910
0.176888,-0.371279,-0.901748,-0.208433,-0.124668,0.970058
-0.022094,-0.342444,0.242483,0.697932,-0.713855,0.057473
0.559231,0.397460,0.307082,0.832087,-0.161787,-0.530525
-0.045329,-0.358190,-0.932349,0.173374,-0.271474,-0.946701
0.205075,0.029497,0.014080,-0.779995,-0.310677,0.543220
-0.116562,-0.103843,-0.280792,0.791521,0.564440,0.234313
0.268165,0.045464,-0.474626,-0.523737,0.796812,-0.301315
-0.084611,0.267656,-0.191392,-0.492117,-0.446790,0.747128
-0.153081,-0.567026,0.478670,0.761862,0.038698,0.646583
-0.780878,-0.265048,-0.025183,-0.335576,-0.927221,-0.166285
0.165365,0.393703,0.375038,0.260211,-0.962271,0.079529
0.331920,-0.306135,0.491567,-0.040310,-0.639995,0.767321
-0.481860,-0.199816,0.328106,0.964162,-0.209550,0.162727
0.282164,-0.363186,0.274229,0.892061,0.392647,-0.223731
0.348061,0.420723,0.278998,-0.450973,-0.031353,-0.891987
0.492334,0.064084,0.574786,0.945576,0.321200,-0.052117
0.107942,0.189817,0.644727,-0.282041,0.582715,-0.762166
-0.048662,-0.008758,-0.964324,-0.094781,-0.052873,0.994093
0.313876,0.099243,0.301625,0.792643,-0.499914,-0.349002
-0.065803,-0.171111,-0.336539,0.399140,-0.684611,0.609914
0.347587,0.084605,0.559715,0.431204,-0.451956,0.780896
0.153889,-0.238954,-0.911592,-0.340265,0.144695,0.929130
-0.340824,-0.302775,0.083486,0.252468,0.951337,-0.176688
0.020664,-0.322188,0.643467,0.983961,0.018111,-0.177461
0.135272,-0.263855,-0.862103,0.004006,-0.906688,0.421784
0.497952,0.384503,0.391674,-0.313964,-0.945371,-0.087745
0.478669,0.297951,0.259119,0.925850,0.175907,-0.334452
0.142604,0.016362,-0.955929,-0.349007,0.119380,0.929485
-0.379061,0.459732,-0.184753,-0.113788,-0.586955,0.801583
-0.469288,0.388042,0.184066,-0.583819,-0.575736,-0.572436
0.309400,0.737296,0.370688,-0.310623,-0.833689,0.456591
-0.191698,-0.020476,-0.118323,0.830423,-0.309896,0.462992
0.189838,0.105214,0.608898,0.761058,-0.040677,0.647407
0.166745,0.360930,-0.410753,0.551897,-0.069903,0.830978
0.788591,0.146123,-0.469857,-0.255434,0.187549,0.948461
-0.079517,0.027861,-0.975198,0.028722,0.332642,0.942616
0.117178,0.480606,0.055059,0.043868,-0.643003,0.764606
-0.140462,0.022422,0.806013,0.388071,0.896724,-0.212806
0.069563,0.151608,0.654647,0.605193,0.293883,0.739847
0.193601,-0.029675,0.437767,0.980788,0.160683,0.110616
-0.587232,0.060456,0.387820,0.576488,-0.202183,0.791697
-0.586944,0.199017,0.383318,0.878552,0.278944,0.387733
0.399151,0.335988,0.555555,0.199118,-0.725775,0.658485
-0.041807,-0.028526,0.357753,0.664353,0.414571,-0.621905
0.372964,0.721418,0.409798,0.964041,0.068137,-0.256869
-0.005285,-0.073327,0.658157,-0.378344,0.540091,-0.751769
0.281733,0.260978,0.546207,-0.604179,0.366029,-0.707807
0.449099,0.161293,-0.042888,-0.536185,0.374701,0.756376
0.071182,-0.157315,-0.631983,-0.150771,-0.258681,0.954124
0.055091,-0.240768,-0.531937,0.999198,0.033197,-0.022383
-0.115609,-0.080626,0.826694,0.669291,-0.665828,0.329731
0.169887,-0.443722,0.408730,-0.756358,0.482493,0.441727
0.234264,0.182653,0.632250,0.902331,0.295978,-0.313361
-0.268261,-0.714740,-0.302694,0.557216,0.324471,-0.764349
0.243596,-0.381364,0.376336,0.468916,-0.863401,-0.186161
-0.161651,-0.642608,-0.046780,0.205632,0.645438,0.735612
0.312112,0.553534,0.127404,-0.550192,0.344091,0.760848
0.052995,-0.389103,-0.598291,-0.516495,-0.122910,-0.847423
-0.381345,-0.496130,-0.329442,0.307875,-0.023327,0.951141
0.897011,0.063066,-0.444101,-0.127843,-0.148444,0.980622
0.143272,-0.044182,-0.949443,-0.111428,0.041948,0.992887
-0.033283,-0.105214,-0.959631,-0.285114,0.259804,0.922611
-0.029426,-0.375525,-0.936966,0.131456,-0.054923,-0.989799
-0.525665,0.095086,-0.581693,-0.207710,-0.181917,0.961126
0.757213,0.041264,-0.445017,0.246735,-0.454635,-0.855821
0.060612,0.045332,-0.956464,0.208159,-0.022678,-0.977832
0.301638,0.547874,0.467453,-0.293866,-0.469847,0.832398
-0.099752,-0.171732,0.664949,0.872030,-0.181436,0.454581
0.029188,-0.142012,0.417964,0.977029,0.175674,-0.120636
0.159794,0.546416,0.094131,0.576236,0.347309,-0.739816
0.190410,0.010040,-0.939751,0.075197,0.059981,0.995363
-0.018380,0.710672,0.221344,0.194593,-0.622660,0.757911
0.047851,-0.102607,-0.624657,-0.405117,-0.334739,0.850782
-0.063138,-0.353987,-0.556052,0.167961,-0.347008,0.922699
-0.824636,-0.222458,0.060172,-0.632202,0.201338,-0.748187
0.043187,-0.261731,-0.654495,-0.547397,-0.229892,-0.804678
0.426864,0.105257,0.602831,-0.829241,0.367466,-0.421104
-0.570757,-0.479988,0.115957,0.387853,0.119862,0.913894
-0.737074,-0.405731,0.505571,-0.715410,-0.576447,-0.394837
0.248644,-0.304632,-0.891713,-0.117672,-0.050205,0.991783
0.157890,-0.073991,-0.215163,-0.748173,0.599688,0.283922
-0.029046,-0.070098,-0.961462,-0.142859,0.215655,0.965963
-0.715600,-0.393260,0.485805,0.726725,0.454517,0.515058
-0.067947,-0.755384,-0.128129,-0.423269,-0.714075,-0.557621
0.100418,-0.068595,0.211004,0.231680,0.038711,0.972022
0.051281,-0.156251,-0.374924,0.841525,0.352307,-0.409531
-0.019284,-0.058556,0.303075,-0.537787,-0.679444,0.499140
0.001763,-0.331520,-0.925138,-0.183176,0.124254,0.975196
-0.296639,0.191899,0.098596,0.574130,0.637344,-0.513972
-0.565517,-0.685951,-0.428648,0.114284,0.518297,0.847530
0.202552,-0.008491,-0.934066,-0.195326,0.062527,0.978743
0.229739,-0.719960,0.130456,-0.561968,0.489038,0.667108
0.118227,-0.217637,-0.921665,-0.073161,0.270425,0.959957
-0.095231,-0.058024,-0.963828,-0.013515,0.223490,0.974613
-0.462767,-0.068287,0.240499,-0.661910,0.215260,-0.718010
-0.065710,-0.211534,0.582723,-0.653372,-0.499836,-0.568568
0.211123,-0.228429,-0.908921,-0.137324,0.094770,0.985982
0.104466,0.804785,0.316163,0.011539,-0.764718,0.644261
0.395533,-0.201848,-0.246795,0.278158,0.125287,0.952329
-0.049377,-0.395295,-0.932769,-0.278325,0.198986,0.939649
0.218216,-0.241875,0.666857,-0.519841,0.735510,0.434500
0.209361,0.841183,0.343368,0.151960,0.631899,-0.760008
-0.651653,0.677413,0.210889,-0.569526,-0.106027,-0.815107
-0.081232,-0.086815,0.739850,0.448108,-0.888549,0.098386
-0.199219,-0.620980,0.564598,0.368882,0.499141,0.784082
-0.456243,0.472116,-0.526023,0.240943,-0.501319,0.831039
0.459765,0.519261,0.653006,0.390585,0.854201,-0.343196
0.069374,-0.409094,-0.911020,-0.189306,0.037999,0.981183
-0.180556,0.088629,-0.003739,0.999295,-0.004706,0.037244
0.353774,-0.844943,0.376221,-0.528900,-0.661287,0.531944
-0.773023,-0.378932,0.545635,0.796405,0.464087,0.387767
0.126751,-0.010216,-0.954556,-0.334639,0.130974,0.933200
-0.077326,0.042721,0.894879,0.854570,-0.327709,0.402886
0.352443,0.353544,-0.154571,0.980420,-0.187268,0.060892
