0.631929,0.792037,0.365042,-0.202412,0.946834,0.250070
-0.176445,-0.336866,0.311891,0.838577,0.259607,0.478949
0.561253,-0.224291,0.377127,-0.431055,0.386042,0.815576
-0.382429,0.264203,0.302582,0.593068,-0.140682,-0.792766
-0.390997,-0.059487,0.668916,-0.150370,0.760340,0.631879
0.428963,0.393679,0.597674,0.789326,-0.607463,0.089185
-0.393332,-0.003055,0.601718,-0.253894,-0.581015,0.773278
-0.356440,-0.080874,0.504200,-0.542510,-0.669500,-0.507398
-0.365977,-0.524682,0.577261,0.826653,0.549073,-0.123145
0.861186,0.144180,0.308996,0.763868,0.065090,-0.642081
0.628815,0.667718,0.241846,-0.570551,0.648830,-0.503479
0.395863,0.376683,0.550985,0.529854,-0.785143,0.320633
0.174205,-0.231834,0.547395,-0.685834,0.627048,-0.369381
0.052907,-0.118686,0.820088,0.849297,-0.364801,0.381595
-0.469069,0.374105,0.472779,0.143399,-0.851194,0.504882
-0.410854,0.355868,0.374830,0.925972,0.299214,0.230318
0.660062,0.811516,0.446048,0.027100,-0.426678,0.903998
0.942758,-0.150196,0.552804,-0.805620,0.090226,0.585522
0.034898,0.224100,0.872999,0.946861,0.316783,-0.055693
0.130106,-0.113912,-0.536842,0.775716,0.587773,-0.229757
0.439670,0.589038,0.319812,-0.687033,0.723839,0.063578
-0.297832,-0.082116,0.649532,-0.698379,-0.695617,-0.168474
0.013288,0.567555,0.154785,0.648563,0.547457,-0.528826
-0.259384,0.951304,0.348123,-0.687475,0.725800,0.024333
0.299876,0.436743,0.642066,0.849920,-0.501775,-0.160803
-0.123678,0.401413,0.305382,0.965333,0.260124,-0.021620
-0.268921,-0.031223,-0.158949,0.806626,-0.161109,0.568682
-0.492141,0.220663,0.252758,0.589437,-0.053218,-0.806060
0.454079,0.221236,-0.986048,0.104743,0.173500,0.979248
0.158335,-0.394538,0.466700,-0.108475,-0.686309,0.719175
0.298515,-0.574906,0.461340,0.229017,0.965251,0.125865
-0.126797,0.343359,0.513772,0.013637,0.552600,0.833335
-0.243027,-0.000763,0.715581,0.880523,-0.288939,-0.375757
0.332198,0.337630,0.444899,-0.247580,0.888643,0.386029
-0.548699,-0.323403,0.577404,0.577868,0.680431,-0.450646
-0.313215,0.177504,0.375954,0.189374,-0.377461,0.906455
0.078610,-0.355772,0.541795,-0.541534,-0.685501,-0.486651
0.006669,-0.426334,0.556465,-0.449743,0.779946,0.435218
0.122804,-0.106751,-0.133295,0.925328,-0.120334,0.359565
0.635435,0.744008,0.380381,-0.325961,0.788504,0.521547
0.515111,-0.516089,0.531553,-0.657885,0.368160,0.656997
0.450769,0.595245,0.390313,0.153503,0.706040,0.691335
0.606814,0.295713,0.378132,0.820732,-0.098361,-0.562782
-0.176053,0.120310,0.640367,-0.234595,-0.913850,0.331427
0.514820,-0.133868,0.749874,0.500981,0.865361,-0.012954
0.219664,0.379739,0.753177,-0.067232,0.181337,0.981120
0.163884,0.405042,0.452222,0.964730,0.137442,-0.224514
0.033050,0.417741,0.611482,0.866316,0.275116,-0.416902
-0.080845,0.460614,0.338479,-0.778655,0.460361,0.426337
0.267072,-0.186097,0.770599,0.985582,-0.169135,-0.004601
-0.437722,-0.087368,0.505899,-0.571747,0.642766,-0.509861
0.093013,-0.425857,-0.957977,0.047891,-0.017907,0.998692
0.318372,0.318533,0.850264,0.770507,-0.592574,0.234895
-0.077927,-0.621790,-0.167827,0.910257,-0.365359,-0.194793
0.109661,0.205004,0.645560,0.943904,-0.026100,-0.329186
-0.179268,0.450301,0.585900,0.623525,0.445859,-0.642205
0.689949,-0.067984,0.584009,-0.515633,-0.696723,0.498697
0.899634,0.302587,0.466485,0.281425,0.836161,-0.470781
-0.539840,0.181801,0.135808,0.518665,0.837320,0.172864
-0.407740,-0.308221,-0.108407,-0.460600,0.885464,0.061647
0.273008,-0.149240,0.436475,0.564181,0.785924,0.253029
0.080167,-0.038480,0.201857,0.112154,0.277310,0.954212
-0.171769,0.801490,0.166320,-0.550046,-0.463653,0.694605
0.659284,0.714600,0.338718,-0.515370,0.777276,0.360881
0.419225,-0.169770,0.352885,0.299677,0.951819,0.065076
-0.565538,0.171871,0.405533,-0.162511,0.847079,-0.506010
-0.228131,-0.248544,0.485079,0.490105,0.561655,-0.666589
0.306982,-0.155924,0.332065,0.628754,0.773337,-0.081352
-0.360819,0.890194,0.331898,0.489073,0.088676,-0.867724
0.205547,-0.201852,0.721444,0.928015,0.366158,0.068680
0.294427,0.279767,0.371742,-0.716697,-0.074680,0.693375
0.221708,0.704670,0.310647,0.073816,-0.860607,0.503892
0.239717,-0.191445,0.839902,-0.127956,-0.763514,-0.632988
-0.282747,-0.004774,0.209132,-0.315059,0.837528,-0.446414
0.035290,0.172634,0.950008,0.566389,0.822418,0.053227
0.078123,-0.102454,0.618015,0.204630,-0.518734,0.830085
0.032367,0.016137,0.751597,0.747102,0.241051,-0.619462
-0.283430,-0.321971,0.501615,0.737572,0.674161,-0.038667
0.212267,0.348038,0.445162,0.951891,0.056113,0.301255
0.352156,0.277189,0.311006,0.442028,0.438396,-0.782573
0.090190,0.440466,0.743724,-0.279574,0.527385,0.802311
-0.137112,0.303352,0.589561,0.547454,0.392768,0.738937
0.262693,0.315669,0.767942,-0.700812,0.712494,-0.034854
-0.032367,-0.253891,0.589585,0.972177,0.034002,0.231766
0.764712,0.119928,0.568095,0.843056,0.079223,0.531960
0.377170,-0.073236,-0.245124,-0.241055,-0.922669,-0.300956
0.232320,-0.095865,-0.792256,0.901270,0.387647,-0.193501
-0.208471,-0.248353,0.010051,0.465829,-0.786476,-0.405535
0.885226,0.323212,0.478546,0.459342,0.365797,-0.809443
0.740767,0.229925,0.545146,0.701559,0.671428,-0.238744
-0.185007,0.280818,0.520401,0.600434,0.715051,0.358023
0.360332,0.134250,0.790150,0.246440,-0.185030,-0.951331
0.543636,-0.749069,0.154163,0.991586,-0.018450,-0.128126
-0.152495,0.022629,0.417259,0.901688,-0.382505,0.201613
0.092336,-0.173016,-0.424462,0.887034,-0.457228,0.064130
0.131859,-0.018046,-0.455046,-0.444656,0.893547,0.062081
-0.374836,-0.242910,-0.730801,0.000813,-0.875171,0.483813
-0.431103,-0.133486,0.695599,0.474495,-0.861248,0.181949
0.140522,0.141316,0.441142,-0.270193,0.949553,0.159202
-0.110345,-0.107419,0.626128,0.484685,0.529355,-0.696321
0.565442,-0.150960,-0.078110,0.375127,0.279868,-0.883716
0.000924,-0.471689,-0.075167,0.985981,-0.083587,-0.144409
-0.454857,0.031223,0.324024,-0.315653,0.615073,-0.722529
-0.251013,0.167192,0.414938,0.380233,0.919982,0.095162
0.740375,-0.229352,-0.062723,0.333526,0.374866,-0.865006
-0.130303,-0.566886,0.254002,0.650123,0.117675,-0.750661
0.890389,0.174831,0.364515,0.680567,0.596783,-0.425062
0.302508,0.375824,0.532773,0.861817,-0.382125,-0.333544
0.660942,-0.200802,-0.281619,-0.584471,-0.771649,-0.250902
-0.487566,-0.307362,-0.393854,0.354352,0.108003,0.928854
0.391484,0.457653,0.275397,0.950395,0.242148,0.195227
0.158727,0.692066,0.184388,0.879430,-0.007465,-0.475970
-0.040935,-0.008688,0.624237,0.512756,0.251509,0.820868
0.558045,0.434260,0.475914,0.542728,0.578336,-0.609076
0.299977,0.317770,0.255869,0.293573,-0.325890,0.898672
0.254221,-0.200611,0.866083,0.775891,0.271106,-0.569644
-0.085907,0.104650,0.770168,0.264096,0.954152,-0.140881
0.836552,-0.236513,0.460526,0.974099,-0.219657,0.053690
-0.390414,0.411631,0.335296,-0.515560,-0.855942,0.039516
0.049989,-0.196887,0.473808,0.817712,0.190257,-0.543276
0.570213,0.169579,0.517218,-0.461447,0.821397,0.335223
-0.310001,-0.406856,0.490009,-0.590357,-0.665978,0.456017
-0.564177,0.249403,0.398617,-0.212375,0.713651,0.667532
0.467026,-0.438270,0.510924,0.841900,0.265836,-0.469613
-0.010175,0.105510,-0.439012,0.828513,0.553119,-0.087324
0.441132,-0.183805,0.754517,-0.054036,-0.982418,-0.178706
0.173325,-0.009739,-0.655108,-0.410721,0.911418,-0.025002
0.481725,0.097489,0.560437,-0.298287,0.809432,0.505812
0.104991,0.103695,0.526384,-0.401511,0.150360,0.903427
-0.020003,-0.166810,0.522076,0.566479,0.823875,-0.018193
0.590070,0.013272,0.498720,0.808444,0.365894,-0.461020
0.132732,0.327795,0.734726,-0.146337,0.850678,-0.504909
0.535948,0.050893,-0.327087,-0.172548,0.972510,-0.156373
-0.240692,0.015755,0.769761,0.864353,-0.499039,0.062074
-0.428571,-0.095865,0.671261,-0.179483,0.736364,0.652345
-0.000051,0.383654,0.502549,-0.548974,0.665241,-0.506045
0.612167,-0.138833,0.102616,-0.317973,-0.942139,0.106149
0.282645,0.020339,-0.959605,0.197439,0.448286,0.871813
-0.009688,0.035425,0.034054,0.793378,0.546713,-0.267687
0.507517,0.303447,0.529638,-0.291657,-0.657871,0.694365
0.226574,-0.132436,0.310695,-0.080090,0.854293,-0.513585
0.056805,-0.025398,-0.166655,-0.759762,-0.620386,-0.194634
-0.004335,-0.178554,0.251825,0.634102,0.645876,-0.425158
0.043561,0.720711,0.173906,-0.138407,0.327898,-0.934519
0.167776,0.092237,0.537536,0.845813,0.127738,0.517961
0.487660,-0.179795,0.463206,-0.498049,0.675468,-0.543774
0.075592,-0.511983,0.587767,0.971132,0.216258,-0.100671
0.686734,0.061014,0.257831,-0.650771,0.626462,-0.429002
-0.097398,-0.033992,-0.500371,-0.189627,-0.952451,-0.238492
-0.333072,-0.295427,0.361835,0.077709,0.279379,0.957031
0.153564,0.119164,0.781535,0.968696,-0.240500,0.061543
0.137700,-0.619784,0.307847,0.836311,-0.546990,0.037234
0.500899,0.731978,0.301457,-0.696517,0.652316,0.298912
0.775811,0.205386,0.552947,0.316328,0.414654,0.853228
0.013288,0.019956,0.294661,-0.430941,0.429470,-0.793628
0.070138,0.558484,0.446024,0.861439,0.505664,-0.047198
-0.111902,0.122314,0.014933,0.251736,0.627425,0.736863
-0.568657,0.448296,0.509225,-0.489985,-0.323757,0.809380
0.133707,0.064547,0.636322,0.904891,0.403876,-0.134373
0.350695,-0.131576,0.450260,-0.422711,0.883600,0.201410
-0.136821,-0.164614,0.527820,0.320220,-0.840690,0.436691
-0.030519,-0.058913,0.014430,0.637622,-0.682580,-0.357103
0.117546,-0.342213,0.606935,0.970328,0.080057,-0.228153
-0.062348,-0.470161,0.655132,0.506681,0.545093,0.667944
0.441613,0.457844,0.450044,-0.660402,-0.554995,0.505816
0.177704,-0.129380,0.441142,-0.088661,-0.976302,-0.197417
0.784278,-0.369044,0.422332,0.657097,-0.746942,-0.101497
0.130885,0.009644,0.640582,-0.283620,0.725719,0.626811
-0.371140,0.098062,0.211956,-0.237087,0.762981,0.601373
-0.254126,-0.480473,-0.387321,0.109490,-0.352708,0.929306
-0.092045,-0.179986,0.299782,-0.483552,0.872849,0.065667
-0.532930,0.596200,0.125063,-0.104416,-0.122924,0.986908
0.269509,0.584265,-0.012612,0.506156,-0.806798,-0.304767
0.275735,0.114676,0.785771,0.203500,0.543529,-0.814349
0.073447,0.141793,0.619642,-0.708250,-0.416648,0.569900
0.319448,-0.064643,-0.961519,-0.558087,-0.123883,-0.820483
0.137890,-0.091378,0.544500,0.993791,-0.016205,-0.110080
0.147723,0.144753,0.355206,-0.285674,0.235210,0.929014
0.126405,-0.228588,0.379089,0.933745,0.236701,0.268501
0.703965,0.464528,0.292699,-0.689377,-0.198033,0.696809
-0.263763,0.045737,0.635198,0.154439,-0.542448,0.825771
0.393914,0.369426,0.375452,0.315166,-0.938498,-0.141040
0.193379,0.404373,0.724101,-0.426679,-0.703240,0.568682
-0.229106,0.804354,0.319023,0.732195,0.140236,-0.666502
-0.221221,0.018238,0.331802,-0.099480,-0.692247,0.714771
0.711172,-0.303255,0.402230,-0.661253,0.558476,0.500849
0.577320,0.101690,0.494364,0.900683,-0.020858,-0.433975
0.279146,0.196792,0.827267,0.491398,0.277212,-0.825640
0.061184,-0.357586,0.377199,0.986930,-0.161137,-0.001983
-0.063228,-0.031701,0.629095,-0.210149,0.047906,-0.976495
-0.328693,-0.333810,0.507790,-0.205693,-0.976491,-0.064466
0.138377,0.387472,0.741786,-0.711390,0.022355,-0.702442
-0.312728,0.043445,0.177328,0.182073,0.982777,0.031602
-0.072865,0.551800,0.282576,0.493325,-0.175519,0.851953
0.365976,-0.368758,-0.662167,-0.277773,0.339851,-0.898523
-0.148312,0.866132,0.304736,-0.419911,0.468345,-0.777385
-0.172452,0.302492,0.272405,-0.403828,0.291759,-0.867064
0.691119,0.088132,0.259100,0.486626,-0.784743,0.383892
0.213336,0.641268,0.630699,-0.646144,0.475719,-0.596816
-0.483573,0.367230,0.489028,0.156250,0.964423,0.213249
-0.398590,0.890003,0.327662,-0.432685,-0.874043,0.220980
-0.284208,-0.199943,0.361309,0.254503,-0.584435,0.770496
0.799078,0.115535,0.264125,-0.726293,0.680701,0.095625
-0.216064,-0.030364,0.487305,-0.036272,0.278849,0.959650
0.367824,0.384894,0.366502,0.488685,0.866384,-0.102792
-0.014067,-0.191063,0.539259,0.863365,0.274246,0.423544
-0.149964,0.142844,0.752387,-0.286927,0.949043,0.130345
0.639427,0.307171,-0.015220,-0.220855,0.949964,0.220889
-0.228232,0.232694,0.325604,0.418654,0.741227,0.524702
-0.178976,0.391006,0.776940,0.592988,0.700272,0.397472
0.058748,-0.244247,-0.249479,0.770451,-0.636820,-0.029443
0.377854,-0.193067,0.331060,0.759799,0.611632,-0.220481
0.082793,-0.142747,-0.598224,0.965895,0.247525,-0.076010
0.100606,-0.415258,0.534903,-0.671494,0.699253,0.245239
0.259087,0.361311,0.620265,0.752558,0.658173,-0.021547
0.745342,0.302587,0.448202,-0.612315,-0.788626,0.056020
0.111123,-0.106464,-0.552397,0.848828,0.504865,0.156849
0.413967,0.128807,0.766817,-0.046918,0.997251,0.057346
0.299686,0.243293,0.071218,-0.058756,0.105822,0.992648
0.464590,0.313569,0.527676,0.056472,-0.684388,0.726927
-0.405500,-0.346510,0.353914,-0.775423,0.586139,0.234861
-0.044440,-0.007925,0.619355,0.913052,0.270154,0.305537
0.226283,0.201089,0.811879,-0.700352,0.392273,0.596346
0.574105,0.097011,0.284682,0.184304,0.974445,-0.128410
0.265029,0.234890,-0.192644,-0.781445,0.607813,0.141092
0.584426,-0.233457,-0.183334,0.305726,0.859405,0.409823
-0.222291,-0.176931,0.469859,-0.215341,-0.752467,0.622433
-0.230567,0.291893,0.288176,-0.390402,-0.846920,-0.360989
0.257530,-0.265253,-0.949554,-0.518344,0.664042,-0.538858
0.100802,-0.379452,0.351712,0.888113,-0.216497,0.405443
-0.655101,-0.149336,0.552540,0.868306,-0.207802,0.450403
0.231441,0.198988,-0.183095,-0.681694,0.701322,-0.208427
0.564860,-0.142652,0.211047,0.715396,0.643994,-0.271072
0.005113,0.237755,0.612296,-0.659376,0.053418,0.749913
0.306792,0.095674,0.707301,-0.128088,0.956673,-0.261479
0.564373,0.158025,0.760093,0.096794,-0.994748,0.033284
0.053394,0.396544,0.105870,0.807701,0.437688,-0.395030
-0.173813,-0.235558,0.480843,0.008759,-0.998542,-0.053256
0.162619,0.045737,0.986335,0.904749,-0.172976,0.389240
0.569821,0.101499,0.248044,0.828734,0.503612,-0.244078
0.106548,-0.526783,0.617824,0.488501,0.158847,-0.857983
0.634169,0.249786,0.474191,0.952125,-0.299422,0.061677
-0.596594,0.496516,0.516453,-0.087517,-0.524373,0.846979
-0.005499,0.059677,0.337091,0.603981,0.551976,0.574917
0.255290,0.780770,0.301290,0.027007,-0.811449,0.583799
0.529424,0.148191,0.345036,-0.009812,-0.942154,0.335037
0.566512,0.087941,0.330964,-0.102091,-0.953597,0.283250
-0.260549,-0.230593,0.482686,-0.222392,0.969140,0.106348
0.186373,0.394825,0.711298,-0.751258,-0.579256,0.316343
0.237382,-0.287788,-0.945126,-0.302955,0.680632,-0.667052
0.006182,-0.706865,0.304425,0.217155,-0.878849,0.424815
0.393237,0.484007,-0.082131,-0.616794,0.779591,-0.108639
-0.021565,0.101117,-0.125517,-0.085395,-0.697202,0.711770
0.118912,-0.123747,0.746309,0.918658,0.276927,0.281742
0.675641,0.080779,0.587838,0.590298,-0.360751,-0.722085
0.116571,0.764920,0.199536,-0.204847,-0.868026,0.452292
0.183450,-0.165664,0.413406,0.222926,-0.811066,0.540811
0.623462,-0.771508,0.385144,0.921732,0.387826,-0.001366
-0.138187,-0.140647,0.615287,0.788416,0.180672,0.588012
0.124456,-0.186862,0.820542,-0.089771,-0.893068,0.440876
0.653443,0.013272,0.526480,0.603890,0.796980,-0.011848
-0.246241,0.425284,-0.048891,0.886688,0.406154,-0.220962
0.228618,0.230975,0.828894,-0.676507,-0.663592,0.319349
0.103529,0.106560,0.936822,0.174660,0.941964,0.286703
-0.086299,0.051275,0.453490,-0.246449,0.967314,0.059726
0.718765,-0.152105,0.499198,-0.639411,-0.454321,0.620279
0.097005,0.247494,0.630770,0.911052,-0.408792,-0.053599
0.199029,-0.107037,0.686242,-0.717456,-0.338725,-0.608706
-0.618400,0.022917,0.290689,0.050661,-0.638988,0.767547
0.367634,0.469876,0.598200,0.958405,-0.281777,0.045400
0.242736,-0.327700,0.084955,0.392453,-0.240673,-0.887726
-0.301243,0.076865,-0.464953,-0.088828,-0.666493,0.740200
0.143927,0.201948,0.435255,0.779334,-0.090062,-0.620103
0.217228,0.356632,0.624118,-0.015051,-0.820855,0.570938
0.420883,0.550750,0.398114,-0.791006,0.313560,0.525348
0.085812,0.629619,0.703089,0.978656,-0.104754,-0.176800
-0.488540,-0.286356,0.535286,0.836798,0.496011,0.231822
0.376297,-0.071230,0.707804,0.709888,0.661562,-0.241650
0.237964,-0.038575,0.675736,0.213634,0.823054,0.526254
0.891363,0.029791,-0.033096,-0.490861,0.505205,-0.709805
-0.648578,-0.210733,0.227104,0.430414,-0.029861,0.902138
0.254417,0.495083,-0.405030,0.967274,-0.236126,0.092870
0.346316,0.529553,0.688228,-0.669463,0.733342,-0.118444
0.603896,-0.283204,0.696700,0.606933,0.009990,-0.794690
-0.019521,-0.490977,0.650274,-0.172923,0.728119,0.663279
0.312728,0.398644,0.774547,0.886637,-0.443958,0.129524
0.492337,0.071804,0.445665,-0.647022,0.726137,0.232567
0.085229,0.010885,0.566660,0.089945,0.481861,0.871619
0.151032,-0.085648,-0.341374,0.697549,0.453010,-0.555164
0.765395,-0.386422,0.601048,-0.556986,0.829177,-0.047250
0.136529,0.107705,0.986934,0.943285,0.326166,-0.061877
0.391870,0.550177,0.254457,-0.032728,-0.640762,0.767042
0.132929,-0.026640,0.788882,-0.001959,-0.287616,0.957744
0.233972,-0.057195,0.091320,0.371456,0.926033,0.066963
0.499734,-0.207199,0.458037,0.139432,0.002837,0.990228
0.066537,0.825266,0.312681,-0.088099,-0.683837,0.724297
0.440253,-0.039053,0.264412,-0.515210,0.822386,0.241329
0.064006,0.412967,0.643406,0.469314,0.040496,0.882102
0.151425,0.324931,0.621366,0.448146,-0.024884,0.893614
0.275248,0.678316,0.494364,-0.565381,0.822046,-0.067712
0.025356,0.143894,0.506114,-0.442640,-0.896010,0.035160
0.478511,0.418123,0.411611,0.576317,0.582683,-0.573009
0.474910,0.517713,-0.348027,0.312595,0.865004,0.392494
0.433633,0.143226,0.527269,-0.240458,0.881421,0.406543
-0.030228,-0.346319,0.125709,0.870486,0.149878,0.468818
0.292966,-0.223432,0.865915,0.801097,0.294771,-0.520915
-0.648381,0.483816,0.392778,-0.180179,-0.945597,0.270890
0.202826,-0.225151,0.847106,0.931287,0.241169,-0.273024
-0.132346,-0.285019,0.775983,0.991870,-0.127129,0.005698
-0.249551,0.268118,0.404743,0.283580,0.944942,0.163304
0.010953,0.221905,0.886017,0.960454,0.231538,-0.154653
-0.099638,0.803209,0.312561,0.843435,-0.442991,0.303936
-0.068872,-0.279098,0.624668,0.790646,-0.499530,0.354047
0.660258,0.791369,0.495130,-0.062100,-0.917114,0.393758
0.450472,0.269073,0.344844,-0.657783,0.493610,0.568921
0.267363,-0.160222,0.827339,-0.016804,0.715765,0.698139
0.249259,0.435310,0.695695,0.850415,-0.521143,0.072135
0.078800,0.180082,0.743820,-0.852054,0.523362,0.009815
0.147432,0.315860,0.594324,0.034679,0.363129,0.931093
0.230371,-0.376874,0.797042,0.927803,0.348398,-0.133420
0.164663,-0.289888,-0.948213,0.017664,-0.395905,0.918122
0.009492,-0.147618,0.632733,0.780222,-0.086186,0.619536
0.857092,-0.236513,0.589657,-0.466112,0.877641,-0.111737
0.215089,-0.424139,0.458205,-0.184102,0.431098,0.883324
-0.128936,0.357682,0.785412,-0.472588,-0.876910,-0.087691
0.248576,0.778573,0.535597,0.335315,0.674353,-0.657884
-0.479871,0.525065,0.128892,-0.039951,0.188081,0.981341
0.554926,-0.474458,0.529423,0.776681,-0.251564,-0.577480
0.373083,-0.510360,0.500371,-0.372014,0.231578,0.898876
0.163397,-0.113625,0.602436,0.843294,-0.066529,-0.533319
0.276906,0.454979,0.634384,-0.714259,0.582135,0.388528
0.874032,0.094147,0.327710,0.676491,0.256016,-0.690519
0.237673,0.318247,0.770216,0.885896,0.270304,-0.376993
0.405304,-0.255132,0.133080,-0.676780,0.239670,0.696080
0.567094,0.569082,0.474047,-0.215425,0.748613,-0.627034
0.044731,-0.271173,0.266016,0.989378,-0.118831,-0.083726
0.755366,0.699895,0.453586,-0.215948,-0.947348,-0.236427
0.414068,0.267164,-0.566061,0.889254,-0.439787,0.125754
0.130885,0.506922,0.662024,0.858703,0.087048,0.505026
-0.678951,-0.083166,0.562017,0.338359,-0.641443,0.688523
-0.514142,0.437029,0.330940,0.403276,0.812430,-0.421102
-0.599904,0.435788,0.409266,-0.398400,-0.683082,0.612108
-0.110054,-0.167096,0.266877,-0.522921,0.846542,-0.099601
-0.259872,0.158789,0.675162,-0.727352,-0.052909,-0.684222
-0.112680,0.142367,0.598535,-0.189325,0.649108,0.736760
0.052616,0.080207,0.315672,0.156715,-0.427530,0.890314
0.781551,0.221045,0.553952,0.835273,0.434527,0.336906
0.066537,-0.512556,0.607677,0.912271,-0.014401,-0.409335
-0.208666,0.127853,0.627923,0.695079,0.049760,0.717209
-0.441809,-0.034374,0.512815,0.560578,0.764728,0.317716
0.217424,-0.572807,0.481178,-0.682021,0.525458,0.508666
-0.098854,0.152297,0.682724,0.852918,-0.484726,0.193836
0.354295,0.449537,0.596430,-0.365005,0.920327,-0.140607
0.620931,-0.078678,0.451432,0.702200,0.267226,-0.659928
0.792554,0.350903,0.429655,-0.428458,-0.542542,-0.722545
0.513459,-0.247398,0.345275,0.410129,0.596310,-0.690079
0.737749,-0.116586,0.141312,0.939195,-0.341573,-0.035232
-0.311367,0.967250,0.363702,-0.568831,0.811676,-0.132715
0.642445,0.774563,0.293058,0.568237,0.734807,-0.370359
0.330249,-0.036665,0.812597,-0.497340,0.768039,0.403446
0.658018,0.782202,0.323593,-0.698332,0.711892,0.074446
0.486977,-0.270696,-0.191758,-0.117641,0.484419,0.866890
-0.228815,-0.291607,0.524541,0.821409,-0.348682,0.451341
0.187639,0.626755,0.649700,0.932846,-0.204974,0.296284
0.351277,-0.209777,0.135951,-0.366945,-0.412162,0.833950
0.001019,-0.016518,0.737646,-0.566949,-0.069706,0.820798
-0.389048,0.704192,0.134037,-0.304338,0.488981,-0.817481
-0.211875,0.240905,0.216383,-0.748095,-0.163660,-0.643094
0.251594,-0.173398,0.606337,0.903879,0.426488,-0.033330
0.136137,-0.004583,0.987580,-0.853267,0.456619,0.251861
0.311854,-0.074573,0.694020,0.546391,0.827609,-0.128530
-0.338134,0.275661,0.343911,0.689343,0.402266,0.602485
0.096619,0.642127,0.447005,0.907134,0.387138,-0.165024
-0.176148,-0.510456,0.243928,-0.526879,0.732817,0.430555
0.272230,0.104268,-0.977289,0.098668,0.379846,0.919773
0.444340,0.555047,0.454113,0.447565,0.269250,-0.852754
0.520274,-0.336866,0.263048,0.386770,0.759298,0.523332
0.946751,0.101690,0.345945,0.627164,0.440143,-0.642604
0.034803,-0.272415,0.206189,0.301714,-0.624747,-0.720181
0.168263,0.159554,0.535501,-0.002186,0.233181,0.972431
0.081433,0.126325,0.921770,-0.200937,0.953121,-0.226242
0.198346,-0.121169,0.637591,-0.433705,-0.847644,-0.305613
0.085717,0.234890,0.570249,0.840951,-0.039085,-0.539698
-0.018351,-0.683567,-0.086390,0.999307,0.034259,-0.014571
-0.280216,-0.377160,0.613516,0.905783,0.419168,0.062087
-0.253151,0.458990,0.572427,0.507497,0.642849,-0.573753
0.731320,-0.284255,-0.296839,-0.132085,-0.972929,-0.189637
0.382821,0.156976,0.066456,-0.361553,0.715800,-0.597420
0.064202,-0.156211,0.471702,-0.642344,0.683234,0.347253
0.243609,-0.168338,-0.734080,0.963952,0.147932,0.221164
0.131562,-0.323499,0.483308,0.964352,0.251836,0.081262
-0.637675,0.213884,0.405222,-0.326359,-0.941230,0.087041
-0.396445,-0.347370,0.513509,-0.184790,-0.814497,-0.549952
0.472379,-0.110951,0.120301,-0.248130,0.707239,0.662000
0.569922,0.027786,0.550267,-0.679672,0.576336,0.453743
0.066733,-0.097011,-0.056381,0.824610,-0.560418,0.077134
-0.343197,-0.353958,0.373226,-0.672093,0.737371,-0.067635
0.238648,-0.028836,0.859813,0.866965,-0.339660,-0.364694
-0.115793,0.136828,-0.079929,-0.544483,0.471733,0.693547
0.562519,-0.220472,0.679996,0.232810,-0.856473,-0.460709
-0.025843,-0.290366,0.456099,-0.019460,-0.659166,0.751746
-0.189095,0.145708,0.633331,-0.099883,-0.821262,0.561739
-0.052230,-0.093764,0.579678,0.953617,-0.300071,0.023923
0.533417,0.748878,0.538469,0.161718,-0.972614,0.166943
-0.206325,0.090996,0.455213,-0.008752,0.793987,0.607872
0.489704,0.196888,0.354416,0.016341,0.998412,0.053920
0.140130,-0.018429,0.740781,-0.785722,0.067586,-0.614876
0.625114,0.547694,-0.011941,0.876421,0.371616,0.306247
0.115306,-0.183710,-0.698614,0.448371,0.814511,0.368150
-0.145875,0.088609,-0.314428,-0.065609,0.816686,0.573341
0.699877,-0.385085,0.397181,-0.366916,0.917856,0.151372
0.252955,0.317196,0.837246,0.388072,-0.910963,-0.139811
0.352637,0.441898,0.785795,0.873220,-0.485572,0.041317
0.441423,0.464432,0.488166,-0.415341,0.827269,-0.378310
0.591431,0.171297,0.524302,-0.358281,0.721228,0.592845
0.118615,-0.214170,-0.162347,0.920961,-0.235354,-0.310548
-0.215577,-0.342595,0.356618,0.170246,0.315420,0.933556
0.217911,-0.141029,0.626343,0.864896,0.501939,0.003364
0.450282,-0.321589,0.478666,-0.027456,0.996928,0.073351
0.282259,0.020530,-0.701390,-0.909576,0.287361,-0.300158
-0.401020,-0.072854,0.687104,0.279343,0.187719,-0.941663
0.049794,-0.847035,0.441740,-0.827864,-0.201217,-0.523596
-0.094380,0.691206,0.298753,0.793461,-0.086369,0.602461
0.638257,0.761005,0.422261,0.074956,-0.582982,0.809020
-0.129715,0.590853,-0.496327,0.901878,-0.186318,-0.389747
0.727429,0.280818,0.433412,0.518654,0.854625,-0.024776
-0.391092,0.263440,0.374925,0.288294,-0.627202,-0.723536
0.183159,0.504441,0.609639,-0.202353,-0.978635,0.036418
0.374449,0.165855,0.744921,-0.162125,-0.984476,0.067242
0.630081,-0.320061,0.541030,-0.295593,0.656138,0.694340
0.119590,0.229256,-0.106851,0.175651,-0.358584,0.916823
0.288391,-0.213692,0.260703,0.644134,0.672521,0.364427
0.289751,-0.064069,0.591643,-0.552566,-0.804646,0.217294
-0.302799,0.177886,0.632158,0.707805,-0.278256,0.649296
0.154734,-0.740857,0.253356,-0.082249,0.989186,0.121433
0.418447,0.566791,0.609568,-0.612378,0.788923,-0.050938
-0.195910,-0.232312,0.176801,0.749412,-0.581820,-0.316016
0.099537,0.124129,0.292603,-0.491908,-0.870318,0.023952
-0.141300,-0.117158,0.649700,0.990020,-0.048800,-0.132205
0.859237,0.168528,0.347859,-0.547844,-0.756376,0.357439
-0.424876,-0.260193,-0.391198,0.084612,-0.475874,0.875434
0.542757,0.042968,0.553521,-0.146602,-0.911630,-0.383977
0.288783,-0.057672,-0.954172,0.422533,0.490840,0.761933
0.112971,0.029601,0.836935,0.935033,-0.015360,0.354229
0.009396,0.381076,0.611338,0.935455,0.244683,-0.255057
0.416795,0.386231,0.414124,0.818273,-0.565817,0.101392
-0.474423,0.814189,-0.518702,0.857508,0.507999,0.081345
0.166612,0.028072,-0.205231,0.983392,-0.030921,-0.178839
0.536726,0.645661,0.472539,0.657466,-0.454934,-0.600644
0.586761,-0.275183,-0.668509,-0.617225,0.784305,-0.062443
0.392066,0.632102,0.335703,0.917122,-0.390378,-0.080581
-0.093310,0.138069,0.489195,-0.477871,0.719186,-0.504392
-0.096519,-0.213692,0.726326,0.875824,-0.088357,-0.474474
0.008909,0.517521,0.645775,-0.571470,0.634071,0.520937
0.227162,0.264299,-0.704334,0.931915,0.262550,0.250203
0.149185,0.004774,-0.075023,0.993933,-0.000765,-0.109987
-0.199320,0.110283,0.746524,0.066858,0.536079,0.841516
0.290726,0.316337,0.478355,0.855079,0.382768,-0.349757
-0.105282,-0.218084,0.537464,-0.428428,-0.612771,0.664049
0.066828,0.524683,0.199871,0.844813,0.437020,-0.308716
-0.363446,0.131959,0.371192,0.092533,-0.901762,0.422212
-0.329668,-0.285591,0.585469,0.570408,0.622447,-0.535905
-0.249159,-0.252077,0.348601,-0.131468,0.210164,-0.968786
0.166219,-0.396639,0.078733,-0.116885,0.345204,0.931221
-0.017377,-0.431681,-0.059827,0.984493,-0.167102,-0.053382
0.397033,0.129953,0.821356,0.323796,0.867111,-0.378516
-0.563202,-0.111620,0.323929,0.385810,-0.248534,-0.888471
0.104403,0.523728,0.580994,-0.497790,-0.044484,0.866156
0.665226,0.678507,0.483141,-0.621996,0.595392,0.508557
0.484642,-0.146950,0.186876,0.319259,0.942558,0.098272
0.002385,-0.158789,0.278460,0.479557,0.848016,-0.225597
-0.313215,-0.202998,0.455142,-0.051846,-0.900602,0.431541
-0.552496,0.251886,-0.330916,0.199186,-0.312856,0.928680
-0.186760,0.272224,0.413813,-0.599632,-0.799145,0.042519
0.172838,-0.129953,0.042453,0.497247,0.548180,-0.672491
0.081528,-0.069702,0.187235,0.894483,-0.169468,-0.413741
-0.598347,0.231357,0.326346,0.871187,0.069406,-0.486021
0.140617,0.142558,0.730801,0.536502,0.198330,-0.820262
-0.262010,-0.361596,0.033551,-0.270654,0.912785,0.305891
0.519787,0.380312,0.349798,0.769041,0.297121,-0.565946
0.149476,0.604412,0.473114,0.850310,0.443083,-0.283988
-0.132346,0.191541,0.827458,0.420095,0.029517,-0.907000
0.238065,0.391006,0.425084,0.981763,-0.017820,0.189270
0.299199,0.832141,0.543231,-0.297908,-0.860133,0.414031
0.043270,-0.268404,0.533443,-0.452463,-0.045159,0.890639
0.264345,0.443139,0.372939,0.493657,-0.818217,0.294660
0.141395,0.640409,0.632230,-0.262076,0.323009,0.909385
0.438892,0.454979,0.558810,0.768456,-0.599090,0.224871
0.436747,0.438175,0.399311,0.987333,0.020104,-0.157383
-0.454269,0.500143,0.121378,0.563581,-0.566416,0.601290
0.701434,-0.200992,-0.285424,-0.584471,-0.771649,-0.250902
0.757511,0.093096,0.273865,0.304720,-0.950161,0.065881
0.137504,-0.045259,-0.040204,0.976041,-0.158800,0.148753
0.081819,-0.142461,0.277168,0.120875,0.770279,-0.626146
-0.175762,-0.320634,0.593390,-0.017298,0.857793,0.513704
-0.217425,0.081353,0.145093,-0.148472,0.869103,-0.471822
0.415720,0.838919,-0.077775,0.837819,0.064454,0.542130
0.390996,0.874917,0.475794,-0.264647,0.906546,0.328842
-0.293845,-0.435501,0.599876,-0.202071,0.971976,-0.120126
0.250424,-0.095293,0.882380,0.869279,0.385759,0.309101
-0.390510,-0.141889,0.389930,0.259764,0.589597,0.764786
0.182381,-0.158693,0.834781,-0.581772,-0.801566,0.137961
0.219272,0.385468,0.693828,0.965078,-0.245758,-0.090700
0.127866,0.003533,-0.062747,0.970939,-0.032215,0.237147
-0.171187,0.759859,0.307249,0.863389,-0.397974,0.310122
-0.298908,0.807314,0.021418,0.918545,-0.350153,-0.183487
0.042396,0.009835,-0.328068,0.799488,0.596109,0.073978
-0.470234,0.195360,0.376720,0.859034,0.072227,0.506797
0.220639,0.457844,0.478522,0.571150,0.388992,-0.722823
0.896717,-0.190777,0.544260,-0.808962,0.339636,0.479820
0.287904,-0.266686,0.746811,-0.047158,0.576600,0.815665
0.513946,0.533468,0.430445,0.873767,-0.439131,-0.209036
-0.374349,-0.112193,0.684735,0.571809,-0.659855,0.487469
0.255486,-0.520672,0.477924,-0.679001,0.438292,0.588946
0.286543,0.345174,0.874889,0.764151,-0.629590,0.140323
0.147723,0.443235,0.591069,-0.807227,0.483352,0.338756
-0.503335,-0.365225,0.329002,0.864254,0.491089,-0.109073
0.286739,0.857062,-0.356881,0.959077,0.003605,-0.283121
0.177027,-0.048219,0.278484,-0.484084,0.097027,-0.869625
0.700269,-0.420510,0.446861,0.594499,0.800205,-0.079010
-0.502069,0.409052,0.494197,-0.568983,-0.821827,-0.029298
0.346411,0.536809,-0.588101,0.922138,-0.298860,-0.245651
0.071403,-0.680512,0.284203,0.081651,-0.963142,0.256300
0.440157,0.664853,0.629502,0.329755,-0.776658,0.536716
-0.255195,-0.076100,0.090698,-0.527835,-0.800763,-0.283140
0.031588,-0.272319,-0.455213,-0.889443,0.429448,-0.156417
0.535069,-0.315955,0.680953,0.883650,0.047031,-0.465779
0.861477,-0.239760,0.584727,0.473007,-0.870733,0.134490
0.340374,0.120882,0.443176,-0.133758,0.930271,0.341620
0.305134,0.336389,0.306076,-0.580811,0.564779,-0.586245
-0.158240,-0.308507,0.425778,-0.034469,0.928475,0.369793
0.479871,0.264012,0.000335,-0.300164,0.919623,0.253368
-0.138966,-0.160126,0.718310,0.920245,0.175717,-0.349674
-0.425458,0.343359,0.460215,-0.547971,-0.836497,0.000805
-0.016111,-0.171488,0.170795,-0.462320,0.583921,0.667306
-0.384182,0.172539,0.688396,0.865073,-0.298091,0.403474
-0.094089,0.171775,0.616053,-0.701851,-0.420028,-0.575310
-0.043858,-0.746204,0.293560,0.911567,0.399126,0.098712
0.519882,0.511220,0.440089,0.848446,0.039226,-0.527826
-0.003259,0.150673,0.478881,0.804323,-0.408885,0.431136
0.259871,0.183042,0.543255,0.943999,-0.300029,-0.137293
0.212754,0.439225,0.733554,0.539056,0.676350,-0.501966
0.202338,0.232216,0.415033,0.911534,0.390341,-0.129382
0.237768,-0.142939,-0.620217,0.783752,0.566522,0.254530
0.614407,-0.090232,0.173475,-0.018352,-0.999471,0.026863
0.231541,-0.104459,-0.909063,0.252844,-0.925623,-0.281587
0.196884,0.324645,0.699165,0.945049,-0.173480,0.277105
0.114920,0.143130,0.985689,0.927967,-0.371990,0.022398
-0.646047,0.209396,-0.303731,0.071846,-0.431914,0.899049
0.342519,0.744199,0.537009,0.175199,-0.722695,0.668593
0.478706,0.067889,0.818077,0.884665,0.252591,-0.391874
0.549768,0.409148,0.271687,0.835545,0.540352,-0.099424
-0.773862,0.343359,-0.441357,-0.483748,0.863737,-0.141231
-0.053103,-0.152774,0.638668,-0.480994,0.172077,-0.859671
0.668434,0.118973,0.583483,-0.202153,-0.386426,-0.899894
0.627550,-0.155734,0.248881,0.921466,0.365786,-0.130775
0.266003,-0.193546,0.209228,0.636821,0.012747,-0.770906
-0.732782,0.100926,0.257496,0.963086,-0.247255,-0.106444
0.806476,0.289698,0.467873,0.013249,-0.668778,0.743344
0.781063,-0.086031,0.536459,-0.697960,-0.688887,-0.195670
0.111414,0.316337,0.481442,-0.667497,0.550988,-0.500859
-0.121634,-0.482861,0.614497,0.991992,-0.065888,-0.107751
0.146167,0.432064,0.731424,-0.279386,0.873472,-0.398737
-0.158240,0.143321,0.341757,0.596664,0.483241,-0.640679
0.517838,-0.668672,0.429847,0.868976,0.410706,0.276044
0.368020,0.399122,0.582837,-0.374247,0.802248,-0.465121
0.104599,-0.078583,-0.722162,0.889155,-0.425354,0.168755
0.415625,0.526688,0.120803,-0.485446,0.737529,-0.469460
-0.044048,-0.067603,0.639577,-0.528365,0.438533,0.726993
0.662106,0.635826,0.412257,0.855192,0.518253,0.007747
0.147141,-0.518476,0.362266,-0.257160,0.598090,0.759050
0.666099,0.368472,0.488286,-0.326604,-0.015089,0.945041
0.538574,0.245202,0.392778,-0.103093,-0.901290,0.420770
0.538378,-0.794901,0.029890,0.983993,0.139089,-0.111407
0.018838,0.186480,0.904276,0.942163,-0.003132,-0.335141
0.445315,0.569656,0.312202,0.834862,-0.546196,-0.068380
0.595132,0.566218,0.444636,0.968812,-0.039692,0.244595
-0.155317,-0.128330,0.649149,-0.094222,0.546682,0.832022
0.588222,-0.492218,0.534137,0.976154,0.017674,-0.216359
-0.207110,0.756708,0.304090,0.012095,-0.366448,0.930360
0.342032,-0.059964,-0.228827,-0.190220,-0.964862,-0.181269
0.120077,-0.280435,0.438534,0.923580,0.380591,0.046374
-0.033829,-0.194214,0.635604,0.924677,-0.010273,0.380614
0.754005,0.791273,0.373944,0.530067,0.832084,0.163293
0.222487,0.245011,0.798263,0.919969,-0.390389,0.035402
-0.193189,0.936981,0.337473,0.294533,-0.634964,0.714193
-0.233194,0.914543,0.335894,0.290871,-0.591668,0.751879
0.483573,0.352812,0.335391,-0.607169,-0.578019,0.545198
-0.202238,0.187626,0.422572,0.645691,0.589749,0.485056
0.542567,-0.691206,0.099600,0.988124,0.097855,0.118474
-0.383695,-0.083739,0.684471,0.826528,-0.497697,0.262962
0.214798,0.310322,0.694450,0.978084,-0.204276,-0.040295
0.350790,0.633630,0.279273,-0.159216,0.168896,-0.972689
0.139257,0.039530,0.706631,0.655894,-0.376781,-0.654094
0.166707,-0.067603,0.813746,0.658291,0.363520,0.659171
0.609149,-0.669436,0.173643,0.994917,-0.099176,-0.017463
0.059722,0.161749,0.922536,0.116262,0.857444,0.501272
0.059431,-0.594195,0.335966,0.911393,-0.296256,-0.285650
-0.073548,-0.539578,0.663292,0.365548,0.771607,0.520574
-0.084938,-0.139406,0.639122,0.238985,0.512957,0.824476
-0.412119,0.048506,0.348529,0.178106,0.771112,-0.611282
0.276709,-0.260288,-0.952282,-0.518344,0.664042,-0.538858
-0.400438,0.375920,0.062029,0.732403,-0.442238,0.517699
0.542662,0.124415,0.291670,-0.102395,-0.979673,0.172498
0.489996,-0.153538,0.483284,-0.456090,0.208724,0.865110
0.265414,0.147427,0.462010,0.323244,0.742615,0.586545
-0.142471,0.348993,0.566683,0.760058,0.601691,0.245520
-0.142952,-0.191540,0.632661,-0.617611,0.661099,0.426032
0.282645,0.192878,0.879532,0.624486,0.643619,0.442462
0.055052,0.360069,0.103525,0.871975,0.345438,-0.346889
-0.213729,0.168624,0.778783,-0.330631,-0.936703,-0.115201
-0.088634,-0.405423,0.619738,-0.677486,0.701020,0.222675
-0.117938,-0.246252,0.639385,0.681632,0.149641,0.716230
0.289948,-0.322162,0.473042,0.456701,0.541069,-0.706164
0.173908,0.060919,0.763706,0.304835,-0.837770,-0.453008
-0.118134,-0.241192,0.770646,-0.618704,0.785397,-0.018884
-0.541302,-0.146662,0.333214,0.691142,-0.126766,-0.711514
-0.536435,0.221808,0.420561,0.169814,-0.716192,0.676929
0.652760,0.140361,0.589370,-0.379174,0.735414,0.561599
-0.488243,-0.177886,0.514275,0.801960,0.040406,0.596010
-0.019224,0.053089,0.475722,0.660385,-0.735316,-0.152322
0.103333,0.231644,0.651758,0.995486,-0.024575,-0.091666
0.174496,-0.201661,0.785125,0.436300,0.787348,-0.435575
-0.429546,0.749165,0.148587,0.159847,-0.489318,0.857331
-0.608371,0.491168,0.321583,-0.324180,0.479309,0.815580
0.034607,0.083453,0.726973,-0.256649,0.060877,0.964586
0.618691,0.724148,0.388183,0.499765,-0.573994,-0.648664
0.558532,-0.372959,0.356618,0.806800,-0.068802,-0.586804
0.137016,0.059582,0.949171,-0.905812,0.376366,0.194558
0.490875,0.528789,0.346687,-0.641286,0.657794,0.395043
0.007448,0.238518,0.486180,0.796807,-0.370230,0.477524
-0.225600,-0.305929,-0.746069,-0.357228,0.915792,-0.183612
0.314873,-0.235462,0.619307,-0.432286,-0.822436,0.369768
-0.023021,-0.511124,0.651279,-0.172923,0.728119,0.663279
0.735509,0.337249,0.452581,-0.776491,0.560764,0.287412
0.357218,0.230307,0.250054,0.346817,-0.345121,0.872129
-0.500316,-0.087272,0.698854,0.968482,-0.049142,0.244187
0.169725,-0.144276,0.257544,-0.065724,-0.996780,0.045942
0.185690,0.000000,0.638213,0.741622,0.625802,0.241596
0.573131,-0.553996,-0.123077,0.498689,0.793533,-0.348733
0.721006,0.167192,0.594060,0.842065,-0.308430,-0.442490
-0.154829,-0.202807,0.655419,0.788036,-0.019220,0.615329
-0.063424,0.805978,0.174456,0.313143,0.798850,-0.513595
-0.468291,0.453643,-0.643980,0.465478,0.624802,-0.626859
-0.145680,-0.218466,0.758825,0.465259,-0.862914,-0.197266
-0.192796,0.116395,0.353699,-0.375335,0.897936,-0.229857
0.098954,-0.026735,-0.235504,0.967260,0.034013,-0.251499
-0.245950,-0.271556,0.010936,-0.538917,0.669228,0.511567
0.199807,0.294567,0.822935,-0.644966,0.572219,-0.506541
0.011144,-0.269550,0.041807,0.673895,0.457357,0.580249
0.317594,0.682517,0.467227,-0.707827,0.400386,-0.581955
0.028861,-0.220758,0.198267,-0.330178,0.806764,0.490015
0.047168,0.173589,0.782014,0.457709,0.884169,-0.093525
0.133998,-0.031318,-0.493910,-0.569228,-0.813558,-0.118759
0.187639,-0.077151,0.774810,0.602042,0.755219,-0.259209
0.211001,0.293326,0.842224,-0.699173,0.713387,-0.047288
0.131271,-0.073617,0.818652,0.560693,0.235837,0.793728
0.293744,-0.189726,0.820853,0.746082,0.657340,-0.106139
-0.133998,-0.244629,0.641156,-0.204169,0.878372,0.432178
0.163005,0.268022,0.034006,0.914828,-0.322025,-0.243698
-0.402583,-0.287310,0.374686,0.934885,-0.326776,0.138594
0.212558,0.190681,0.345179,0.596302,0.265013,-0.757755
0.320226,-0.208727,0.237538,0.763072,0.637600,-0.105772
0.480947,0.036857,0.448345,-0.230562,-0.264896,-0.936307
0.707470,0.599829,0.407423,0.720145,0.138970,0.679763
-0.110927,-0.224005,0.369062,-0.398388,0.780165,-0.482317
0.600682,0.149814,0.781631,-0.564964,-0.814814,-0.129979
0.456901,-0.399503,0.524493,0.387767,0.814978,-0.430636
0.312532,-0.041249,-0.959844,-0.557775,-0.264562,-0.786698
0.270477,0.128617,0.760260,-0.281843,0.899801,0.333051
-0.676028,0.413731,0.404695,0.860975,-0.508450,-0.014194
-0.005499,0.120692,0.867686,0.536333,0.801604,-0.264153
0.183646,-0.095101,0.880561,0.844050,0.522457,0.120905
-0.157070,-0.345555,0.356187,0.836122,-0.172210,0.520810
0.521439,0.568319,0.436475,-0.541966,0.716486,-0.439228
-0.327136,-0.550940,0.567306,0.362828,0.807966,-0.464270
0.182767,0.021675,0.639792,0.350617,0.889789,0.292135
0.832952,-0.222573,0.385239,-0.655700,0.673936,0.340395
0.120178,-0.390814,0.614904,0.997798,-0.045356,0.048396
0.284208,-0.149814,-0.784718,0.945816,0.322547,0.037344
-0.243128,0.372863,0.345036,-0.135992,0.128596,0.982329
0.325288,0.408862,0.082825,0.997889,0.026444,-0.059316
-0.360237,-0.173111,0.480173,0.767638,-0.048845,0.639019
0.108105,0.440370,0.784167,0.937814,-0.188980,0.291189
-0.100802,0.757759,0.175509,0.738865,0.204807,-0.641975
0.069846,-0.273751,-0.068323,0.911950,0.028991,-0.409276
0.521736,0.647474,0.327135,-0.719239,0.689565,0.084826
0.660550,-0.327700,0.363606,-0.233003,0.907757,0.348836
-0.554736,-0.050415,0.219757,-0.481014,0.725833,0.491723
-0.127183,0.161654,0.816953,0.073279,-0.959655,0.271462
0.403456,-0.167001,-0.185369,0.528534,0.774960,-0.346539
0.710002,-0.213023,0.488166,0.870679,0.082333,-0.484911
0.587634,-0.071517,0.483739,0.474832,0.096977,-0.874717
0.543345,0.097203,0.264771,0.137385,0.898289,0.417375
-0.017572,0.205386,0.866178,0.867074,-0.496552,0.040229
0.187734,-0.381839,0.776222,0.514620,0.778012,0.360366
-0.565443,0.652153,0.042166,-0.731159,-0.047222,-0.680570
0.255777,0.074000,0.687965,0.615943,-0.516615,0.594746
0.079876,0.027977,0.085074,-0.261835,-0.317911,0.911249
0.236313,0.067889,0.419844,-0.679700,0.345513,0.647015
-0.084641,-0.197842,0.320554,0.649986,-0.735454,0.191376
-0.126797,0.189631,0.533539,0.743193,0.574735,0.342556
0.364324,0.199370,0.837174,0.356956,0.901892,-0.243256
0.887371,0.192782,0.339603,0.894487,-0.205236,-0.397203
0.407348,-0.445049,0.627253,-0.354528,0.004078,0.935037
0.170599,-0.041535,0.731615,0.071389,-0.701953,0.708636
0.098366,0.069608,0.292986,-0.364157,-0.916611,-0.164968
0.181115,-0.167096,0.554215,0.984622,-0.138688,-0.106235
0.481238,-0.268213,0.311939,0.858360,0.508372,-0.069110
0.247216,-0.221236,0.735300,-0.041810,-0.271244,-0.961602
0.476467,0.476846,0.450044,-0.553088,0.147809,-0.819906
0.213140,0.545021,0.485917,0.761901,0.623731,-0.174547
-0.298611,0.519050,0.586331,0.750304,0.349032,-0.561444
0.140908,0.691015,0.491804,-0.726841,0.225664,0.648674
0.610123,-0.147904,0.149305,0.048895,0.998349,0.030148
-0.236503,-0.139788,-0.120492,0.822654,-0.251822,0.509731
0.861863,-0.220185,0.560318,0.581727,-0.785212,-0.212216
0.001120,0.198606,0.857444,-0.745709,0.656238,-0.115189
-0.703383,0.241573,0.412951,-0.315199,-0.625269,0.713925
0.006473,-0.077055,0.706416,0.951835,-0.295811,-0.080653
0.186956,-0.222190,0.782636,0.536529,0.639106,-0.551071
-0.486104,0.191827,0.403618,-0.538335,-0.842675,-0.009685
0.580142,-0.376109,0.340369,0.430138,0.900296,-0.066691
-0.280899,0.004584,0.460574,0.271258,-0.833233,-0.481810
0.302021,-0.054044,0.678393,0.982912,0.179409,-0.041197
0.418251,-0.043827,0.431426,0.872310,0.062427,-0.484951
-0.578781,0.432541,0.274344,0.612662,0.088016,0.785429
0.681773,0.342118,0.491421,0.442189,-0.894474,0.066220
0.461375,0.603266,0.613181,0.122708,-0.882418,0.454182
0.413289,0.119068,0.464379,0.253288,-0.847396,0.466654
-0.154051,-0.014131,0.742695,0.641059,0.514875,-0.569163
0.775128,0.135300,0.323091,0.886340,0.173266,-0.429396
0.133220,0.661797,0.643526,0.094182,-0.592913,0.799740
0.101195,0.563545,0.213344,-0.286518,0.957866,-0.020016
0.351378,0.111239,0.709910,-0.102965,0.994025,0.036238
0.181501,-0.065979,0.849738,0.931691,0.346527,-0.108957
0.135264,-0.431872,-0.955417,0.047891,-0.017907,0.998692
0.021078,-0.094242,-0.695982,0.344632,-0.935964,0.072118
0.656070,0.027309,0.509225,0.892759,0.320529,-0.316611
-0.182476,0.352621,0.791610,-0.676091,-0.733691,0.067811
0.220443,0.380884,0.465480,0.680804,0.432893,-0.590854
-0.186564,0.201280,0.815134,0.159938,-0.983020,-0.089954
0.047946,-0.045832,0.708689,-0.470723,0.783489,0.405665
-0.202143,-0.166906,0.667265,-0.308347,-0.465490,-0.829603
0.250234,0.479041,0.766698,-0.332011,-0.824324,-0.458540
0.418738,-0.068653,0.460095,0.304106,0.151908,0.940449
0.751183,-0.183901,0.483308,0.985133,0.032825,-0.168629
0.144027,0.487158,0.766794,0.265210,-0.953642,0.142235
0.766560,0.140552,0.299304,-0.260257,0.930497,-0.257763
0.767439,0.168624,0.615909,-0.645097,0.189025,0.740351
0.280506,0.778764,0.312490,0.062088,-0.845864,0.529773
-0.344076,-0.495847,0.565176,0.904260,0.420258,0.075480
0.212754,0.371431,0.566181,-0.065554,-0.190605,0.979476
0.133124,-0.230879,0.603705,0.679254,-0.290993,-0.673748
-0.217038,-0.127661,0.364396,0.147576,-0.908311,0.391398
0.157652,-0.114866,0.591691,0.968707,-0.187133,-0.163056
-0.396932,0.401986,-0.632039,0.629360,0.537836,-0.560927
-0.021078,0.913778,0.227056,-0.554587,-0.760986,0.336651
0.612363,-0.835196,0.446933,0.932892,0.352734,-0.072735
0.116280,0.614629,0.717879,0.901650,0.280002,-0.329586
0.126209,0.106083,0.584991,0.906358,0.331573,-0.261868
0.053489,-0.104077,-0.167612,0.926734,-0.261447,0.269834
0.398685,0.447245,0.578649,-0.660661,0.740848,-0.121125
-0.354492,-0.020147,0.129801,-0.612956,-0.719283,0.326981
0.358092,-0.258951,0.322541,0.816478,0.569925,-0.092465
0.264054,-0.247685,0.269390,-0.093729,-0.892364,0.441476
0.706787,0.021961,0.585373,0.968618,0.116645,-0.219484
0.079092,0.565741,0.630842,0.440276,-0.844499,0.304924
-0.016307,-0.121455,0.692560,0.959704,-0.256315,0.115198
0.641370,-0.255514,0.471415,0.223865,-0.263909,-0.938209
0.611193,-0.125179,0.433293,-0.744047,0.432121,0.509574
-0.228327,0.116108,0.741475,-0.404132,-0.832579,-0.378801
0.345828,0.261434,0.538493,-0.653528,0.503172,-0.565437
0.264250,0.030650,0.755666,-0.739653,0.367009,0.564108
0.324896,0.731978,0.524278,-0.313077,0.888034,-0.336717
0.410758,-0.180082,-0.198004,0.557268,0.829700,0.032406
-0.462254,0.627614,-0.480508,0.335421,0.728896,0.596828
-0.055729,0.244916,-0.098404,0.724746,-0.359930,0.587532
0.577706,0.268787,0.409242,-0.150295,0.776867,-0.611465
-0.382625,0.222382,0.703185,0.779217,-0.468707,0.416094
-0.068385,0.006398,0.486036,0.831694,-0.176891,-0.526303
-0.068973,-0.263534,0.595042,0.852794,0.381095,-0.357084
-0.293941,-0.221808,0.409170,0.213228,-0.756174,-0.618655
0.364028,-0.043445,0.440903,0.570559,-0.344336,-0.745584
0.720417,-0.427480,0.527580,-0.721151,0.609756,-0.328843
-0.014845,0.371527,0.608874,0.654522,0.679196,-0.332104
0.160284,-0.046405,0.771723,0.897065,0.360346,-0.255785
0.241862,-0.081733,0.678201,0.600429,0.642881,0.475593
0.084059,0.112098,0.322349,-0.353336,0.639969,-0.682344
0.301629,0.338586,0.834063,0.039608,0.996048,0.079491
-0.067898,0.618925,0.191471,0.820980,0.488262,-0.295960
-0.034221,0.273179,0.880082,0.909924,0.306436,-0.279526
0.297642,-0.214743,0.264700,-0.516812,-0.826091,-0.224673
0.082110,-0.377351,0.479934,0.741394,-0.407247,0.533372
0.299977,0.239283,0.251442,-0.754246,0.587321,-0.293542
0.506840,-0.196696,0.421997,0.445803,-0.894272,0.039208
0.114920,-0.052038,0.750018,0.751181,0.658678,0.043260
0.133707,-0.206531,0.487376,0.879741,0.284413,-0.381006
-0.406570,0.284160,0.279226,-0.165025,0.718697,0.675456
0.065468,-0.110188,-0.208821,0.937903,-0.317438,-0.139900
-0.538479,-0.279003,0.538971,0.693185,0.642682,0.326273
0.621804,0.069513,0.507694,0.849347,-0.365946,-0.380385
0.255682,-0.163849,-0.206021,0.219312,0.921404,-0.320806
-0.208369,-0.283299,0.610668,0.166956,0.742309,-0.648925
-0.189000,0.554473,0.289971,0.498992,-0.252086,0.829132
-0.082597,0.097489,0.703831,0.880682,-0.361602,0.306011
0.658018,0.180273,0.548424,-0.511005,0.837309,0.194392
-0.315164,-0.401222,0.603346,0.701732,-0.266459,0.660736
0.255682,-0.542347,0.495345,-0.560792,0.674384,0.480332
0.557849,-0.385754,-0.185943,0.509435,0.439005,0.740102
-0.362572,0.219039,0.314332,-0.235411,-0.801758,0.549331
-0.296181,-0.262962,0.485988,-0.025066,0.684286,0.728782
0.393724,-0.368089,0.264628,0.747825,-0.135900,-0.649838
0.415137,0.323117,0.557925,-0.494426,0.662036,-0.563250
0.012896,-0.066552,0.693015,-0.645109,0.762347,-0.051589
0.196498,-0.305643,-0.646373,-0.187800,-0.165892,0.968097
-0.505575,0.217321,0.317204,-0.348821,0.936391,0.038660
0.294915,-0.129475,0.642209,0.852168,0.488269,0.188157
-0.157557,0.235845,0.564745,0.958096,0.103926,0.266929
-0.300660,-0.428530,0.593749,-0.243495,0.964824,0.099126
0.649064,0.158217,0.539689,-0.395811,0.881463,0.257599
0.708736,-0.191731,0.505947,0.998603,0.010643,-0.051762
0.218203,0.141889,0.511260,0.916771,0.077293,-0.391863
0.375519,0.571660,0.211693,0.985616,-0.159578,-0.055633
0.622393,0.037238,-0.346806,0.325367,0.944898,0.036103
-0.484744,0.420701,0.371240,0.824194,0.458821,0.331945
0.148894,0.104078,0.039438,-0.656586,0.739202,-0.149917
0.483573,0.123747,0.742001,0.264446,0.867488,-0.421345
-0.075978,0.009453,0.298969,-0.758428,-0.180891,0.626151
0.144027,0.401890,0.739847,-0.202916,0.191681,-0.960252
-0.344462,0.150005,0.714433,0.867157,0.455825,0.200653
-0.148894,0.766065,0.309235,-0.488795,0.242537,-0.838007
-0.222588,0.228301,0.582358,0.822476,0.436676,0.364483
-0.064689,-0.147904,-0.682078,-0.309230,0.907529,-0.284198
0.730346,-0.245107,0.522363,0.949962,-0.305690,0.064225
0.198928,0.222764,0.576112,-0.163455,0.986324,0.021143
-0.062158,-0.080874,0.302415,0.802577,-0.351462,-0.482021
-0.152495,0.488686,0.544787,-0.278536,-0.822794,0.495406
0.676420,-0.396161,-0.090770,0.284325,0.393821,-0.874108
0.478706,0.620834,0.456506,-0.657206,-0.095744,0.747605
0.050281,0.101404,-0.115778,-0.191031,-0.638369,0.745648
-0.763352,0.041727,0.193051,0.941778,0.310915,-0.128011
-0.078902,0.237086,0.343480,0.964690,-0.206358,-0.163676
0.095645,0.549413,0.648647,0.802478,0.505226,0.317451
0.503240,-0.222954,0.475770,-0.263853,0.250262,0.931531
0.262105,0.117732,0.708043,-0.137158,0.354442,0.924964
0.012801,0.005252,0.948333,0.953598,-0.183703,-0.238547
-0.182381,0.332283,0.568598,0.824106,0.372055,0.427112
-0.785543,0.058818,0.041831,0.284069,0.858268,-0.427411
0.576250,-0.734173,0.588484,0.951845,0.269878,0.145456
0.165732,0.519336,0.274057,0.955798,-0.000784,-0.294024
-0.038891,-0.174926,0.158064,0.452610,-0.672107,-0.586017
0.177027,-0.002196,0.321272,0.949741,0.077857,0.303200
0.085420,0.627806,0.690167,0.992350,-0.121247,-0.023267
