-0.292902,-0.449054,-0.532943,0.125946,-0.886084,-0.446086
-0.470544,-0.690889,-0.501060,0.049536,0.616803,-0.785557
0.388643,-0.591089,0.668105,-0.667340,0.694463,0.269032
0.086995,0.369748,0.421654,-0.704518,0.081675,-0.704970
0.573963,0.007440,0.399676,0.811726,0.238624,-0.533067
0.079695,0.185119,0.515180,-0.384102,0.921117,0.063319
0.059667,-0.077924,0.842934,0.708506,0.670467,-0.220213
0.519306,-0.740699,0.465012,-0.425820,-0.339061,-0.838877
-0.841736,0.250880,-0.982936,0.044202,0.041497,0.998160
0.559453,0.423212,0.494300,-0.194568,0.923477,-0.330657
-0.358790,-0.355758,0.701135,0.471058,0.838246,0.274680
0.372734,0.458944,0.255657,-0.778014,-0.161880,-0.607033
-0.251064,-0.658098,0.206736,-0.392422,-0.149971,-0.907476
-0.398007,-0.402896,-0.369166,-0.607887,0.019880,-0.793775
-0.439565,0.002540,0.265236,-0.465440,-0.260348,-0.845922
-0.344566,0.466607,0.141898,-0.072030,0.766042,0.638742
-0.718283,0.203386,-0.368791,0.846096,0.507165,-0.164030
-0.580703,0.467677,-0.133042,0.738278,0.471483,-0.482337
0.408300,-0.446291,-0.382063,-0.021643,-0.964300,0.263927
0.084185,0.618356,0.071249,0.875988,-0.051604,-0.479565
-0.421125,0.079438,-0.106524,-0.589499,-0.557932,0.584126
-0.428705,0.617465,-0.429862,0.063027,0.741917,0.667523
-0.400908,-0.164536,-0.953324,-0.112891,-0.091919,0.989346
0.570592,-0.869280,0.406935,0.235123,-0.862087,0.448913
0.627312,-0.463132,0.149133,-0.273145,0.459433,0.845170
-0.248631,0.060548,0.500162,0.851974,0.503813,-0.142523
0.468858,-0.376075,0.552027,0.938438,-0.340868,-0.056068
-0.656137,-0.498686,0.522240,0.743262,0.374953,0.554050
0.195002,0.206060,0.924735,0.700397,0.494854,-0.514357
-0.311336,0.028113,0.735088,-0.000868,-0.982026,0.188744
-0.115729,0.431053,0.749358,0.385078,0.922741,-0.016247
-0.881700,0.110358,-0.010478,-0.071155,-0.954880,0.288341
0.414476,0.354689,0.457253,0.382059,0.862122,-0.332830
0.567599,-0.346848,0.664189,0.354974,0.883042,0.306969
0.422530,0.241881,0.571236,0.212262,-0.942692,0.257442
-0.256400,-0.180931,0.776625,0.705643,0.631867,0.320642
0.132479,-0.295255,0.483897,-0.418364,-0.514822,-0.748285
-0.571900,-0.232346,0.370887,0.251229,0.786585,0.564063
-0.433104,0.205971,0.534714,0.815288,-0.001402,0.579054
0.093639,-0.120249,0.506374,-0.257586,0.797217,-0.545980
-0.780806,-0.031499,0.162779,-0.006479,0.862390,0.506203
0.548879,-0.330274,0.716028,0.897753,0.233213,-0.373698
-0.717255,-0.474449,-0.605214,0.839809,-0.040818,-0.541345
-0.837520,0.106705,0.330597,-0.059075,0.998153,-0.014178
0.543075,-0.081131,0.764550,-0.716146,0.406248,0.567537
-0.808038,0.186189,-0.981614,-0.028433,0.074377,0.996825
-0.653235,-0.393985,0.319920,0.739361,0.603020,0.299520
-0.476810,-0.059034,-0.380267,0.315476,0.798224,-0.513140
0.773220,0.185208,0.201796,-0.332063,0.834167,-0.440342
-0.499649,-0.232880,0.100886,0.829993,-0.310962,-0.463049
0.404930,0.040321,0.695223,0.951408,0.208726,-0.226398
-0.870932,0.225930,0.005014,-0.590740,-0.282468,-0.755803
0.718843,0.127022,0.397979,-0.559920,0.818385,0.129362
0.393608,0.343551,0.291131,0.659624,-0.282175,-0.696616
-0.816087,-0.120963,-0.239466,0.974294,-0.206519,0.090005
-0.289155,-0.118735,0.339229,0.831369,-0.504810,0.232365
-0.148673,-0.539408,0.600698,0.380521,0.815765,0.435581
-0.217092,-0.162041,0.449121,0.383165,0.923679,0.001225
-0.673171,0.495656,0.327604,-0.084550,-0.994911,0.054810
-0.493194,0.091468,0.579643,-0.765139,-0.035890,-0.642864
0.344566,-0.428291,0.595684,-0.165115,0.697914,0.696888
-0.083814,0.100111,0.533342,0.496069,-0.063801,-0.865936
-0.312273,0.668791,0.462168,0.520510,-0.844475,0.126219
-0.259581,-0.083983,0.019533,0.741545,-0.463482,-0.485073
0.613459,-0.314680,0.539254,-0.837801,0.150187,0.524913
-0.796904,0.177456,0.309542,-0.564540,-0.213133,-0.797414
-0.664283,0.256404,0.413446,-0.537726,-0.437608,-0.720659
-0.041507,-0.762442,0.421205,0.025563,0.870095,0.492220
0.431887,-0.381332,0.408382,0.112327,0.454163,0.883809
-0.613927,0.108220,-0.977847,-0.138398,0.134732,0.981169
-0.112639,-0.311294,0.731670,0.087051,0.955509,0.281823
0.092702,-0.733660,0.437396,-0.586949,0.689369,0.424572
0.206512,0.165516,0.902208,0.840122,0.475384,-0.261162
0.105058,-0.298285,0.350854,0.652800,-0.165150,-0.739309
0.121248,0.949387,0.479855,0.363980,0.779740,-0.509435
0.119380,0.109022,-0.249121,0.978267,0.087044,-0.188194
0.388741,0.370461,0.427142,0.300436,0.624396,-0.721019
0.057702,0.264068,0.085718,0.466350,-0.884599,-0.001681
0.045254,0.125328,0.883448,0.630433,-0.756143,-0.175504
0.584816,-0.595990,0.527953,0.771509,0.479738,-0.417883
-0.014178,-0.271196,0.392790,-0.173956,0.984616,-0.016462
0.327531,-0.519448,0.587526,0.110085,0.806441,0.580978
0.153820,-0.909913,0.327479,-0.489756,-0.819517,-0.297541
-0.003885,0.204455,0.551428,0.737278,0.632162,-0.238310
0.234875,0.120517,0.571261,0.132568,-0.348557,-0.927865
-0.803827,0.143150,0.436123,0.940833,0.326158,0.091943
-0.365719,-0.415460,-0.548559,0.209161,0.974387,-0.082594
0.119471,0.908754,0.109891,-0.292691,-0.169803,0.941009
0.378350,-0.439697,-0.306574,0.402390,0.899880,-0.168220
-0.342972,0.141278,0.514557,0.346639,0.594540,0.725509
-0.677381,-0.364580,0.413970,0.164643,0.130345,0.977703
-0.060507,0.065271,0.931221,-0.540765,0.815448,0.206442
0.085030,-0.142704,-0.914207,0.284406,0.864572,-0.414281
-0.633955,0.556427,-0.858650,0.914333,0.357438,-0.190348
-0.602508,0.339273,-0.284570,0.033575,0.991988,0.121790
-0.662781,0.308711,0.423350,0.756628,0.531412,0.380939
-0.206981,0.778213,0.068105,0.841849,0.086963,-0.532661
-0.396321,0.209000,0.283972,0.699617,0.694339,0.168611
-0.559361,-0.483538,0.471174,-0.679762,0.173181,-0.712693
-0.139128,0.497082,0.479581,0.043956,-0.860673,0.507257
0.425426,0.174872,0.756542,-0.271399,-0.829162,0.488706
0.558613,0.453776,0.668879,-0.499027,0.731721,-0.464280
-0.285973,0.067320,0.745042,-0.340236,0.921390,-0.187827
-0.772003,0.146982,0.006661,0.482882,0.845918,0.226378
0.126863,-0.712453,0.440664,0.414116,-0.433771,-0.800219
-0.954700,-0.267187,-0.171186,0.179282,0.537549,0.823953
0.540173,0.089864,0.727180,-0.328790,-0.823264,0.462747
0.438062,0.382757,0.488936,-0.555355,-0.724364,0.408506
-0.563760,0.307997,-0.258326,0.386072,0.892447,0.233424
-0.313867,-0.203653,0.374704,-0.383195,-0.870106,0.309964
-0.313678,0.059567,0.739928,-0.134248,0.983234,-0.123400
-0.479809,-0.369749,0.075714,-0.367978,0.801962,0.470584
0.331462,-0.402896,0.563029,0.232490,0.590994,0.772447
0.573494,-0.017153,0.059523,-0.047395,-0.904714,0.423375
0.429362,0.385787,0.606137,-0.246166,0.847708,0.469887
-0.021388,0.106438,0.746065,-0.120507,-0.967154,-0.223811
-0.520425,0.116596,0.438144,0.372262,0.916765,-0.144788
-0.193128,-0.737937,0.204615,0.617952,-0.117565,0.777376
0.637514,-0.164358,0.542223,0.413517,-0.050920,-0.909071
-0.058919,-0.850568,-0.448297,-0.406180,0.116717,-0.906308
-0.488041,0.155358,0.107846,-0.222452,0.207352,0.952639
-0.518460,0.527824,-0.775203,0.649492,0.099864,-0.753782
0.584068,0.486835,0.351279,0.740542,-0.192943,-0.643716
-0.637982,-0.588416,0.526332,0.543616,0.346959,0.764265
0.057702,0.377589,0.080404,0.923295,0.380772,0.050392
-0.212505,0.030965,0.388998,0.725063,-0.132735,-0.675770
-0.032430,-0.202941,0.692054,0.512544,0.595530,0.618581
0.109177,0.881667,0.118024,-0.317967,-0.149100,0.936305
-0.158499,-0.251682,-0.273544,0.745514,0.240865,-0.621445
-0.090834,0.744174,0.369016,0.940272,0.080464,-0.330779
-0.038422,0.069191,0.559810,-0.031241,0.552383,0.833005
-0.634892,0.170417,0.434676,0.492492,-0.071890,0.867343
-0.041415,0.026331,0.592865,-0.594784,0.733096,0.329852
-0.485145,0.578169,0.130697,0.870166,-0.403485,0.282862
0.125275,0.581288,0.117750,0.732606,-0.553252,-0.396486
-0.285973,-0.635821,-0.365848,0.940430,0.052430,0.335920
-0.489823,0.325997,-0.981240,-0.236058,0.134374,0.962403
0.039450,0.493963,-0.011775,-0.784302,0.329672,-0.525534
-0.381440,0.517933,0.120918,0.972490,-0.169589,0.159697
-0.544201,-0.000223,0.611351,0.914379,-0.195915,0.354298
0.625529,-0.330630,0.132244,-0.251282,0.018146,-0.967744
-0.168050,0.171040,0.406112,0.325643,-0.205303,-0.922934
0.192660,0.086122,0.901385,0.202026,0.352211,-0.913856
0.220456,0.718155,0.161257,0.807196,-0.452959,-0.378499
0.767513,-0.413856,-0.011376,-0.463028,0.763850,0.449598
0.535683,-0.058944,0.169390,0.555768,0.103389,-0.824883
0.615795,0.130586,0.721991,-0.047395,-0.853930,0.518225
-0.911554,-0.022054,0.351279,0.914616,-0.151022,-0.375059
-0.552249,-0.369035,0.045678,0.526427,-0.831612,0.176909
-0.113387,0.897795,0.096171,-0.601667,0.782346,0.161031
-0.550187,-0.418401,-0.518573,-0.695548,0.530409,0.484644
0.886379,-0.074270,-0.005139,0.311187,0.155110,-0.937605
-0.182554,0.513032,0.425321,-0.467289,-0.806985,-0.361131
0.765737,0.200535,0.374804,0.338446,0.940675,0.024169
0.184896,0.684562,0.220631,-0.662906,0.748474,0.018493
0.030185,0.503141,0.493751,-0.031938,0.927851,0.371581
-0.228511,-0.324393,-0.278583,0.687008,-0.122324,-0.716280
-0.402782,0.621385,0.444929,0.197233,-0.531931,0.823498
-0.333427,0.645801,0.548759,-0.397936,-0.746095,0.533844
0.814499,-0.117933,0.214419,-0.070491,-0.298450,0.951819
0.050304,-0.070350,0.862742,0.997529,-0.069808,0.007914
-0.253406,0.085320,0.788948,0.690053,0.712885,-0.124985
0.142498,0.245801,0.437545,0.376845,0.338449,0.862230
0.122750,0.141100,0.979743,-0.704611,-0.709394,-0.016841
-0.374231,0.162932,0.512386,0.747857,0.663735,-0.012847
0.291966,-0.455825,0.363652,0.119600,0.835141,0.536875
-0.133792,-0.120695,0.580866,-0.165891,0.914237,0.369662
0.060415,0.741590,0.475115,0.959108,-0.006882,-0.282957
-0.073988,-0.408154,-0.247599,0.017170,-0.758990,0.650876
0.437691,0.452083,0.194686,0.884236,-0.349719,0.309553
-0.192379,-0.780709,-0.441088,0.777835,-0.158649,-0.608114
0.531376,0.391223,0.340452,0.403876,0.364361,-0.839122
0.490852,-0.020004,0.368741,-0.546606,-0.402004,0.734585
0.119191,-0.466161,0.381564,0.827680,-0.437596,-0.351363
-0.164491,0.889241,0.279431,-0.177299,0.749848,0.637411
-0.495627,0.140922,-0.744144,-0.578173,0.747638,0.326732
0.059387,0.685988,0.397630,0.434395,0.498803,-0.749997
-0.021199,0.788639,0.417014,0.855712,0.409571,-0.316242
0.300763,-0.750323,0.331246,0.250186,-0.916292,0.312754
-0.617669,-0.032925,-0.666209,-0.760132,0.369883,0.534215
-0.499277,0.862775,0.313584,-0.772180,0.606357,-0.189919
0.258644,0.281444,0.456779,0.037447,0.765507,0.642337
0.129673,-0.045756,0.501609,0.352877,-0.906311,0.232546
-0.924561,0.090577,0.352526,-0.242860,-0.803207,0.543946
0.321539,-0.462152,-0.006287,0.438842,0.474636,-0.762979
0.065471,0.273869,0.883847,0.956741,0.256840,-0.136673
0.034675,-0.779906,0.406037,-0.028710,-0.999067,0.032259
-0.499649,0.194921,0.319371,0.433188,0.901288,0.005257
-0.590620,0.055291,0.599426,0.931061,-0.317143,-0.180405
0.161029,-0.557942,0.392815,0.486928,-0.437783,-0.755809
0.055360,0.078280,0.774180,-0.282060,0.957225,-0.064512
0.754038,-0.071240,0.219259,0.321251,-0.064285,-0.944810
-0.258273,0.662642,0.411825,0.570470,-0.303040,0.763368
0.651361,-0.473825,0.356018,0.177674,0.287889,0.941038
0.297392,-0.943417,0.359960,0.223649,0.949399,0.220507
0.051710,-0.006371,0.782462,0.205844,0.750091,0.628484
-0.512656,-0.808242,-0.504977,-0.540458,-0.214074,0.813681
-0.193128,-0.551526,0.232755,-0.551782,0.690898,-0.467115
0.327623,-0.153754,0.009131,0.847431,0.150779,0.509045
0.168044,0.593496,0.549782,0.929937,-0.295349,-0.219058
0.930176,0.021520,0.475639,0.783628,0.484086,-0.389343
0.189855,0.753353,0.125259,-0.738513,0.081284,0.669322
-0.330336,-0.532190,0.027067,-0.063847,0.910039,0.409576
0.278204,-0.523101,0.596133,0.672540,0.714481,-0.192890
0.296084,0.766273,0.086815,0.406237,0.750031,0.521943
0.088869,0.165427,0.927180,0.836869,-0.446356,-0.316886
-0.224575,-0.746313,0.415966,0.682545,0.547359,0.484282
-0.608500,0.040232,-0.746514,0.851003,-0.296541,-0.433426
-0.307783,0.808064,0.493202,0.080769,-0.880343,0.467411
0.217932,-0.262909,0.387452,0.570507,0.704804,-0.421632
0.182925,-0.118735,0.496595,-0.532353,-0.784557,0.317917
0.015584,-0.766273,0.413496,0.139358,-0.840455,-0.523655
-0.773877,0.079082,-0.322141,-0.129357,-0.890873,-0.435445
0.141184,0.161951,0.832157,-0.126208,-0.851703,0.508601
0.725024,-0.565338,0.363078,0.836178,-0.506412,-0.210604
0.679815,-0.236178,-0.118723,0.607083,-0.729741,0.314529
-0.471195,-0.348095,0.384608,0.103948,0.779880,0.617237
-0.566285,-0.628692,0.149158,-0.648234,0.530115,-0.546599
-0.298889,0.442994,0.638269,0.606825,-0.566526,0.557505
-0.177316,0.171219,0.766870,-0.133558,0.975798,-0.173148
-0.252749,-0.188060,0.478358,-0.181684,0.904010,0.386985
-0.875616,0.022945,0.326781,0.107262,0.920190,-0.376491
-0.162994,-0.282691,0.503530,0.911688,-0.331162,0.243222
-0.498152,-0.401827,0.483672,-0.229992,-0.672949,-0.703025
-0.412607,0.506438,0.656505,-0.123886,-0.948303,0.292188
-0.064814,0.498329,0.372508,-0.085373,0.268835,0.959395
-0.779304,-0.254266,0.450368,-0.771197,-0.617847,-0.153365
0.386216,0.125150,0.445528,-0.743668,-0.651374,-0.150565
0.592962,-0.284562,-0.628240,-0.074253,0.993272,-0.088865
-0.021856,0.235999,0.102956,-0.770068,0.633972,-0.071241
0.150638,-0.667900,0.307447,0.420651,0.446921,0.789503
-0.460433,-0.195456,0.495123,0.770198,-0.247507,0.587823
-0.844449,0.168545,0.321492,-0.735743,0.218519,-0.641040
-0.568067,0.101626,0.372508,-0.351365,-0.931631,-0.092769
-0.249287,0.110537,0.566446,0.129568,-0.682899,0.718930
0.279518,-0.098151,0.578146,0.871131,0.235040,0.431146
-0.219245,0.158120,0.766920,-0.121126,-0.985384,0.119775
-0.386776,0.827668,-0.465935,0.769026,0.219089,-0.600499
-0.910245,-0.108398,-0.211551,0.779457,-0.551454,-0.297231
-0.429545,0.552238,-0.448048,0.843638,0.137358,-0.519044
0.048339,0.667899,0.337059,0.497605,0.409508,0.764652
-0.436286,0.025975,0.006860,-0.495443,-0.761426,-0.418050
-0.804016,0.519358,0.191468,0.786470,-0.492677,0.372469
-0.707052,-0.266830,0.375702,-0.649593,0.087556,-0.755224
-0.663437,0.397193,-0.991743,0.061224,0.231377,0.970936
0.344937,-0.810292,0.344318,0.492313,-0.755483,-0.432288
-0.617766,-0.123101,0.212947,-0.254428,0.930113,0.264871
0.061444,0.413767,0.760708,-0.326009,0.932218,-0.157121
-0.694696,0.214881,0.467781,0.868800,-0.171720,0.464434
-0.000514,0.126933,0.742372,0.533305,0.658109,0.531486
0.194533,-0.513566,-0.123064,0.729710,-0.287767,0.620253
0.256679,0.079617,0.896196,-0.213901,0.905526,-0.366427
-0.361412,0.959189,0.360309,0.029287,0.989835,0.139173
0.012773,0.549743,0.416690,-0.903947,0.196112,-0.380026
-0.468950,0.322076,0.367544,0.170607,-0.891076,0.420567
0.702277,-0.436490,0.332918,0.681941,0.339368,0.647909
0.140813,-0.276186,-0.026968,0.384584,0.519560,-0.762989
0.120317,-0.956961,0.372982,0.255179,0.797553,0.546619
-0.657354,-0.272978,0.377348,-0.543278,0.837996,0.051103
-0.162714,0.054489,0.761656,-0.340668,-0.926228,-0.161389
0.212876,-0.745244,-0.172683,0.836032,-0.216485,-0.504167
0.145583,-0.882112,0.356018,-0.753198,0.351477,0.556019
-0.301791,-0.184228,0.602445,-0.011369,0.689038,0.724636
0.450041,-0.437558,-0.356842,0.957558,0.061804,0.281536
0.031122,0.711027,0.393115,0.775228,0.410965,-0.479719
0.652863,0.105368,0.782961,0.789676,0.232999,0.567559
-0.174597,0.100735,0.709867,0.947321,-0.057635,0.315058
-0.532593,0.603742,-0.695747,-0.539734,-0.775207,0.328239
-0.281763,0.079617,0.543445,-0.092198,0.742672,-0.663278
0.740933,0.117754,0.423799,-0.299451,0.643195,0.704720
0.119848,0.992248,0.111837,-0.408664,-0.641619,0.649091
-0.069304,-0.107953,0.692204,-0.403667,0.629214,-0.664186
0.619074,0.003787,0.399800,0.820212,0.386927,-0.421356
-0.290560,-0.628692,-0.346564,0.812337,-0.406524,0.418146
0.016241,0.050568,0.843782,-0.050219,0.418682,0.906743
0.434789,-0.327155,-0.598403,-0.825056,0.202431,-0.527546
0.587907,-0.016262,0.572159,-0.149376,-0.763147,0.628724
0.172352,0.055113,0.863615,0.815216,-0.128650,-0.564687
-0.317986,0.177545,0.506299,0.362273,0.550820,0.751902
-0.383405,-0.663978,0.204041,0.801724,-0.173755,-0.571882
0.284853,-0.278325,0.529026,0.628704,-0.519594,-0.578579
0.300671,-0.636980,-0.355944,-0.085388,0.067471,0.994061
-0.439188,0.213187,0.354896,0.612118,0.595325,0.520480
0.224107,0.053776,0.933791,0.748775,-0.567214,0.342936
-0.465397,0.495210,-0.082525,-0.413755,0.058630,0.908499
-0.644346,-0.135486,0.280753,0.804290,-0.079883,0.588844
-0.260986,0.435776,0.103979,0.646155,0.484227,0.589922
-0.798212,-0.333660,0.412548,0.983865,0.154098,0.090900
0.698815,0.298463,0.610029,-0.328291,-0.163723,-0.930279
-0.294959,0.467677,0.525808,0.933816,0.355046,0.043926
-0.446768,0.018044,-0.969814,0.018751,0.344007,0.938780
0.177127,-0.116240,0.663415,-0.135526,-0.986705,0.089701
0.003885,-0.491290,0.455707,0.799756,0.542003,-0.258114
0.079603,-0.461974,-0.930747,0.250214,0.674948,0.694146
0.509383,0.056806,0.682101,-0.615192,-0.053060,0.786589
0.152135,0.657742,0.574479,0.420909,0.697364,-0.580102
-0.552152,-0.389619,-0.078907,0.898897,-0.326126,-0.292618
0.538488,0.503052,0.308894,-0.745248,0.284165,0.603205
0.250687,-0.685721,-0.158613,0.141131,-0.639012,0.756139
0.562543,-0.900467,0.359810,-0.678543,-0.719738,0.146823
-0.319014,-0.754511,0.468829,0.747262,0.171256,0.642084
0.534655,-0.117665,0.316677,-0.316308,0.484224,0.815767
-0.821142,-0.308086,0.008906,0.130877,-0.233602,0.963484
0.350833,-0.455825,0.569315,0.343738,0.709312,0.615402
0.155129,0.134417,0.572059,0.145287,0.639680,0.754785
-0.314427,0.198128,0.594487,0.663871,-0.187286,0.724016
-0.367867,-0.459122,-0.443158,-0.699746,0.346596,0.624681
0.170387,-0.913388,0.366396,-0.084432,0.514925,0.853067
0.490852,0.005391,0.380267,0.386310,0.317640,-0.865950
-0.676822,0.586723,-0.768941,0.510242,0.806389,0.298981
0.191728,0.106082,0.910016,0.799089,0.115722,-0.589970
0.023073,0.112408,0.682924,0.175885,-0.531484,0.828607
-0.500306,-0.309690,0.054958,0.572064,-0.735951,-0.362104
0.606067,0.434796,0.355569,0.833862,-0.036606,-0.550758
-0.696570,0.339631,-0.062567,0.752755,0.209926,0.623932
-0.094764,-0.486300,0.610627,0.203936,0.704183,0.680100
0.047122,-0.272533,0.739254,-0.392368,0.823058,0.410638
-0.674668,0.466963,0.362555,0.796035,0.540523,0.272328
-0.919231,0.095300,-0.002370,0.375363,-0.136635,0.916752
0.569095,0.218177,0.789023,-0.418130,-0.786938,-0.453756
-0.268007,0.286879,-0.990670,0.163599,0.246464,0.955244
0.041507,-0.117130,0.684994,-0.391743,0.298195,-0.870412
-0.681129,-0.095211,0.110864,-0.082397,-0.056586,0.994992
-0.496279,0.640187,0.466559,0.638154,0.311522,0.704070
0.881695,-0.132368,0.374305,0.427331,-0.094390,0.899154
-0.853618,0.193406,-0.983884,-0.029001,0.051962,0.998228
-0.865414,0.136021,-0.982986,-0.057165,0.000303,0.998365
-0.374516,0.251503,0.301734,-0.614103,-0.788745,0.027526
-0.327063,0.770818,0.486067,-0.550124,0.436146,-0.712137
-0.184708,-0.541011,0.538356,0.785045,0.597249,0.164310
-0.526606,-0.069815,0.236722,0.667472,0.014458,-0.744495
0.272686,-0.216752,0.340152,-0.001474,0.260065,0.965590
-0.376202,0.465716,-0.072546,0.137675,0.506118,0.851405
-0.549536,-0.064469,0.143146,0.354405,0.219185,0.909041
0.547285,-0.478548,-0.429587,-0.128626,-0.991042,0.035945
-0.857365,0.404589,0.317151,0.874284,-0.122028,-0.469826
0.013990,0.517398,-0.695921,-0.141599,-0.449804,0.881831
-0.075388,0.328759,0.703380,0.367109,0.928029,-0.063197
-0.063974,-0.149477,0.603967,0.173348,-0.774601,-0.608230
-0.685619,0.153486,-0.404540,0.686451,0.649164,-0.327675
0.088681,0.103587,0.842684,0.652108,0.758057,0.010222
0.583417,0.154288,0.353374,0.176290,-0.782989,-0.596532
-0.598578,0.196792,0.051241,-0.518604,0.801152,-0.298673
0.511256,0.046023,0.363078,-0.082528,0.433969,0.897140
0.339322,0.400757,0.659174,-0.315988,0.614718,-0.722685
-0.061352,0.363600,0.803792,0.971840,-0.231050,0.046292
0.353643,-0.329917,0.166796,0.897604,0.250387,0.362786
-0.313770,-0.201247,0.398428,-0.107982,-0.778028,0.618880
-0.334552,0.002628,-0.343620,0.768162,0.588465,-0.252261
0.243575,0.402629,0.652613,-0.595725,0.456343,-0.660956
0.406147,-0.372065,0.013995,0.127333,0.838565,-0.529712
-0.324538,0.605792,0.519072,-0.651032,-0.658234,0.378000
0.100471,-0.100735,0.596408,0.038591,0.691728,0.721126
-0.692171,0.336511,-0.083248,0.783669,0.493572,0.377159
0.341567,0.129071,0.686042,0.022900,-0.843121,0.537236
-0.546257,0.735442,-0.105376,-0.452978,0.434078,0.778709
0.635360,-0.346491,-0.128302,-0.616821,0.631729,-0.469521
-0.386307,0.073914,0.373207,-0.608753,-0.330096,0.721426
-0.833869,0.468479,-0.088437,0.997441,-0.069051,0.018513
0.663626,-0.345779,0.142198,0.078164,-0.211431,0.974262
-0.679815,0.162308,0.357016,0.540876,0.437402,-0.718423
0.268939,0.637247,0.254534,0.807199,0.344586,-0.479260
-0.515838,0.048073,0.577149,0.855889,-0.272550,0.439512
-0.603725,-0.320026,0.401871,0.243295,0.744987,0.621130
0.069681,0.114814,0.565698,-0.697496,0.245119,0.673362
0.293182,-0.520249,-0.748559,-0.388052,0.918454,-0.076542
0.557019,-0.310671,0.725932,0.943281,0.061212,-0.326303
0.476530,-0.118913,0.475065,0.924760,0.154302,-0.347865
0.109645,-0.047271,0.674167,0.140788,0.246452,0.958874
-0.598389,-0.336334,0.414070,-0.001576,0.830667,0.556768
0.657354,0.083003,0.380167,-0.367575,0.842200,0.394446
-0.228602,0.093251,-0.270700,0.818021,0.296066,0.493140
0.512285,0.519626,0.516652,0.599897,0.636595,-0.484634
0.185736,-0.646692,0.285144,-0.457437,-0.324287,-0.828003
-0.645283,0.514636,-0.310889,0.939141,0.173934,-0.296246
-0.097855,-0.207664,0.430011,0.107053,-0.407748,0.906797
-0.679912,0.493607,0.331595,-0.494657,0.756844,-0.427202
0.618886,-0.094676,0.353274,-0.627048,-0.642942,0.439814
-0.119191,-0.446559,-0.084496,0.709614,-0.069069,-0.701197
0.526886,-0.351571,-0.003742,0.082432,-0.539867,0.837704
-0.732416,0.231098,0.431034,0.843344,-0.530952,0.082833
-0.713793,0.282870,0.447649,0.846418,0.241312,-0.474706
0.274651,-0.670395,-0.175327,0.589485,-0.756024,0.284492
0.028871,-0.003342,0.565598,0.801089,-0.179738,-0.570920
-0.390615,0.429450,-0.396283,0.038822,0.921827,0.385652
-0.377790,-0.155446,0.415492,0.887100,-0.386108,0.252930
0.447328,0.531744,0.543295,-0.511100,0.191775,0.837854
-0.275679,-0.164269,0.594287,-0.232683,0.647478,0.725693
0.242547,-0.067053,0.574754,-0.031393,0.466922,0.883741
0.265665,-0.639653,0.416690,-0.560574,-0.743697,-0.364242
-0.560298,0.679305,-0.531970,0.884636,-0.456996,-0.092591
0.372831,0.169971,0.726481,-0.449929,-0.884736,-0.121680
-0.277924,-0.140923,0.600748,0.023294,0.855106,0.517930
-0.430579,0.251949,0.136435,-0.548037,-0.316151,0.774405
0.293274,-0.120784,0.592691,0.206472,0.690955,0.692785
0.630962,-0.597505,0.402220,0.839587,0.168454,0.516446
-0.584165,0.490488,0.289185,0.907337,0.182165,0.378887
0.465208,-0.601070,0.470026,0.691168,-0.111939,-0.713973
-0.050773,0.375451,0.391293,-0.295760,0.047117,-0.954100
-0.641067,0.125685,-0.982986,-0.080790,0.132061,0.987944
0.406615,-0.539497,0.503630,-0.520861,-0.785020,-0.335333
0.098975,-0.397371,-0.713858,0.571940,0.491375,0.656837
-0.224393,-0.543506,0.209555,-0.751342,0.627558,0.204100
0.887687,-0.010738,-0.207210,0.601765,-0.189720,0.775812
-0.618326,0.070617,-0.978546,-0.058468,0.266555,0.962045
-0.732696,-0.327511,0.398453,-0.681561,-0.149048,-0.716421
0.105898,0.075072,0.750605,0.139956,0.980818,0.135676
-0.917729,-0.281800,0.008158,0.164091,-0.272279,0.948123
-0.391266,-0.155803,0.069053,-0.636188,-0.312161,0.705564
-0.423279,0.838806,-0.200075,-0.583205,0.787863,0.197849
-0.648179,-0.255513,-0.654534,-0.405891,0.387005,0.827937
-0.744583,0.302918,0.439117,0.895474,0.391589,-0.211624
-0.531753,0.482290,0.134764,-0.175715,-0.006882,0.984417
-0.356916,0.514636,0.663515,0.238267,0.921666,-0.306204
0.651270,0.128269,0.730972,0.022183,-0.992222,0.122489
0.110017,0.339541,-0.222153,0.986325,-0.144054,-0.080072
0.186393,0.176743,0.922939,0.779607,-0.625077,-0.038630
-0.738500,-0.394787,0.407434,-0.562956,-0.731701,0.384310
0.576864,0.258454,0.185830,0.708621,0.568839,-0.417466
-0.369650,0.278592,0.278533,0.553397,0.832578,-0.023799
0.833681,0.047717,0.413272,0.392503,0.888528,0.237612
-0.214847,-0.424460,0.190745,0.258385,-0.246003,-0.934195
0.329588,0.019826,-0.662592,-0.485260,0.015288,0.874236
0.238056,0.777055,-0.705950,-0.392087,0.014698,-0.919811
-0.527726,-0.237157,-0.118299,0.803298,-0.253334,-0.539012
0.074737,0.096191,0.944318,-0.169940,0.820036,0.546499
0.134449,0.692404,0.593140,-0.478175,-0.697048,0.534296
-0.704807,-0.576387,-0.512935,0.404906,0.700050,0.588201
0.567970,0.515705,0.218411,0.656923,0.714900,0.239521
0.247694,0.417599,0.269028,-0.261177,0.638029,0.724365
0.095233,0.836489,0.469901,0.846857,0.322498,-0.422881
-0.130142,-0.337848,0.762580,0.900351,0.392278,0.188377
-0.225141,-0.186545,0.389073,0.097216,0.475466,-0.874346
0.320979,-0.441836,0.378970,0.777805,0.474328,-0.412350
-0.744960,0.092092,0.403243,0.676836,-0.729414,0.099236
0.747205,0.048697,0.441636,-0.489245,0.340396,0.802976
-0.039639,-0.567655,-0.364027,0.035572,-0.967648,0.249784
-0.630025,0.162486,0.404041,-0.420408,0.688034,0.591496
0.269875,-0.637603,-0.145591,-0.181896,0.772223,-0.608758
-0.528754,0.262821,0.538930,0.930806,0.064463,0.359783
0.115261,0.569971,0.386279,0.343825,-0.360355,0.867138
0.369553,-0.720917,0.430460,-0.228482,-0.319226,0.919723
0.054520,-0.007619,0.583161,0.655263,0.666259,0.355991
0.533341,0.399866,0.650493,-0.766259,-0.334321,0.548704
0.527914,0.160437,0.250318,0.103765,-0.986815,-0.124214
0.555991,-0.169704,0.622951,-0.760683,0.638982,-0.114296
-0.570221,-0.356471,0.280679,-0.611239,0.112083,-0.783469
-0.476907,-0.545288,-0.488537,0.909272,-0.212352,-0.357953
0.481677,-0.516863,-0.954646,0.118314,0.268239,0.956059
0.463803,-0.394965,0.341674,-0.440230,0.104391,-0.891796
-0.335672,-0.774560,0.459224,0.839922,0.489135,0.235113
-0.424678,-0.425885,-0.378072,-0.340275,-0.574210,-0.744645
0.625906,-0.240098,-0.376824,-0.340078,0.885865,-0.315579
-0.707143,0.492092,0.345640,0.029399,0.920759,0.389022
0.152883,0.711294,0.514407,0.730727,0.561335,-0.388511
0.461089,-0.629405,0.482824,0.733218,-0.115923,-0.670040
0.195190,0.314859,0.105326,-0.433711,0.867460,-0.243740
-0.449110,0.746848,-0.645828,-0.151439,-0.951428,0.268050
0.203707,0.060281,0.738131,-0.637840,0.533647,-0.555320
-0.438531,-0.239652,0.487414,-0.657715,0.062945,-0.750632
0.496187,-0.715661,0.450992,0.008770,0.770595,0.637265
-0.086059,-0.384807,0.464238,-0.497178,-0.718494,-0.486396
0.514718,-0.193584,0.626618,-0.454726,0.889952,-0.034770
-0.165240,-0.053152,0.416814,0.613279,0.361983,-0.702038
0.126303,0.535131,0.549457,0.714625,0.344008,0.609073
0.277833,0.709067,0.160708,0.944996,-0.201266,-0.257825
0.331833,0.189218,0.401297,0.210630,0.918910,0.333526
-0.795219,0.652394,0.138605,0.294487,-0.936328,0.191224
0.449859,-0.374025,0.537757,-0.173806,0.982056,0.073200
-0.144086,-0.741323,-0.438543,0.673492,-0.068963,-0.735971
-0.587250,0.048518,0.624523,0.895358,0.366601,0.252860
-0.260707,-0.323680,0.673070,0.713819,0.499521,0.490858
0.084750,0.108844,0.969415,0.204907,-0.692369,0.691836
-0.378727,-0.603921,-0.487988,0.218042,0.739003,0.637442
-0.564606,-0.566406,0.463789,0.347233,0.322744,0.880491
-0.422245,-0.712274,0.484470,0.237493,0.848665,0.472615
-0.761521,0.076498,-0.984009,-0.057173,0.043535,0.997415
0.648276,0.314680,0.215991,0.583426,0.612310,-0.533565
-0.655108,-0.087815,0.284870,-0.646464,-0.063589,-0.760290
0.106367,0.525774,-0.270725,0.858365,0.454215,-0.238535
-0.390238,0.393183,-0.467781,0.432632,0.366742,-0.823608
-0.032338,-0.212564,0.570538,-0.717479,0.044382,-0.695164
-0.036926,0.771352,0.426618,0.808378,0.519521,-0.276810
-0.456314,0.145556,0.556966,0.796199,0.530010,0.291816
-0.459124,-0.407173,0.276338,-0.462042,-0.191976,-0.865830
0.078849,0.065894,0.956218,-0.703571,0.709805,-0.034128
-0.552718,0.669236,0.147536,0.536071,0.335827,0.774498
-0.679627,0.183783,0.077386,0.740353,0.629412,-0.236045
-0.308532,-0.317086,0.691580,-0.451784,-0.685113,-0.571412
-0.229351,0.806549,0.082475,0.805198,-0.517617,-0.289361
0.609997,0.303096,-0.494250,-0.040455,0.940566,0.337194
0.304133,0.341323,0.546314,-0.882994,0.304893,-0.356879
-0.029339,0.372421,-0.430386,0.650952,0.578178,-0.491906
-0.686927,-0.380976,-0.182562,0.898629,-0.139421,-0.415966
0.120596,-0.101181,0.729425,0.407090,0.909265,-0.086690
-0.404279,-0.368679,-0.536934,0.056681,0.975002,0.214845
0.140625,-0.063934,0.708993,-0.552750,-0.798502,0.238457
0.320791,-0.488528,0.579543,0.163357,0.904432,0.394103
-0.359447,0.600445,0.125783,0.623079,0.380085,0.683599
0.070052,0.712898,0.582562,0.333219,-0.941609,0.048340
0.110297,-0.694008,0.347561,-0.738870,0.620579,0.262589
0.472411,-0.365560,0.554247,0.963309,0.090619,0.252633
-0.647808,0.074360,-0.785206,0.874635,0.381364,-0.299292
-0.479244,-0.360392,-0.161806,0.130479,-0.513161,0.848317
-0.546725,0.002361,0.268130,-0.470368,0.747116,-0.469651
-0.617389,-0.585654,0.516403,0.125028,0.730714,0.671137
0.234126,-0.855647,0.306399,0.685852,-0.262692,0.678675
-0.020639,-0.516240,0.359087,-0.086415,0.762800,0.640835
-0.139968,-0.259613,-0.232980,0.756939,0.538205,-0.370647
-0.451076,0.256493,0.398553,0.423335,0.354168,0.833878
0.140156,-0.500646,0.380990,0.999616,-0.023152,0.015243
0.363937,-0.360303,-0.106449,-0.042313,-0.885174,0.463333
-0.276616,-0.068568,0.247773,-0.303315,0.177483,-0.936216
0.358042,0.140566,0.174903,-0.533019,-0.001724,-0.846101
-0.891149,-0.058409,0.348734,0.964310,-0.238640,-0.114702
0.241707,-0.244464,0.717525,0.925511,-0.175816,0.335438
0.126023,-0.728313,0.416091,0.482680,0.733412,0.478672
-0.279050,-0.753174,-0.326656,0.996238,-0.007737,0.086308
0.268287,0.057964,0.874192,0.177570,-0.692534,0.699190
-0.568627,-0.276454,0.532294,0.963823,-0.160971,0.212447
-0.519865,0.614881,0.150755,0.667818,0.035772,0.743464
-0.563571,0.630029,-0.103231,0.268595,-0.091735,-0.958875
-0.365999,-0.138249,0.577373,0.399876,0.776150,0.487534
0.426552,0.184673,-0.610478,0.819382,-0.506155,0.269108
-0.463523,-0.221831,0.481651,-0.762230,0.511839,0.396266
-0.249287,-0.329917,0.410253,0.366365,-0.431152,0.824551
-0.262952,-0.684384,-0.496720,0.542340,-0.372328,0.753153
-0.194065,0.606862,-0.687414,-0.106503,-0.296567,0.949055
0.627494,-0.590376,0.508943,0.830756,0.353854,-0.429689
-0.410831,-0.086032,0.448696,0.969462,-0.244686,0.016495
-0.604193,0.100467,0.628065,0.878646,-0.264042,0.397823
-0.360475,-0.468122,-0.467307,-0.743995,0.655353,0.130325
-0.637514,-0.498329,0.530348,0.747884,0.466781,0.472001
0.319762,-0.167476,0.792666,0.309202,0.802523,0.510246
-0.104030,-0.452618,0.250293,0.351547,0.506023,-0.787627
0.063317,0.615237,0.407808,0.395304,-0.411006,0.821468
-0.550004,0.364491,0.279107,0.274695,0.738562,-0.615686
-0.816835,-0.167922,-0.179968,-0.800255,0.429169,0.418815
-0.196967,0.102962,0.328502,0.579146,0.767232,0.275582
-0.089338,0.104478,0.682175,0.169185,-0.597107,0.784117
0.273714,0.915527,0.280978,0.912903,-0.285242,0.291966
0.315455,0.124349,0.573930,-0.610548,0.620667,0.491938
-0.945155,-0.033549,0.342647,0.920065,-0.192986,-0.340935
0.210351,-0.375540,0.517899,0.797309,-0.219172,-0.562371
-0.354112,0.063667,0.268504,-0.036291,-0.684297,0.728299
-0.457439,0.006460,0.552676,-0.071433,0.653976,0.753136
0.104219,-0.095834,0.637795,-0.470126,-0.846814,-0.248771
-0.504327,-0.213633,0.287140,0.821961,0.545251,0.164564
-0.466985,-0.127734,0.257603,-0.525423,-0.196156,-0.827921
0.915952,-0.212207,0.190595,-0.664556,0.632387,0.398060
0.107680,0.446914,0.730348,-0.470978,0.483985,0.737522
-0.819834,-0.227266,-0.190121,0.202390,-0.172938,0.963914
0.247791,-0.958031,0.364176,0.179168,0.981229,0.071341
-0.161401,-0.568723,0.376650,0.917693,0.173981,0.357170
0.188918,-0.769035,0.414744,0.349048,0.935323,-0.057759
0.211756,-0.031499,0.774305,0.820982,0.001283,0.570952
0.385090,-0.347293,0.008033,-0.074511,-0.038491,0.996477
-0.614487,0.207663,-0.775253,-0.316724,0.896711,0.309185
-0.654828,-0.404856,-0.180716,0.930437,-0.155990,-0.331593
-0.110583,0.117487,0.463914,0.109560,0.970343,0.215478
0.033087,0.078726,0.930099,-0.380172,-0.758816,-0.528837
-0.382565,0.215148,-0.981464,0.034430,0.146209,0.988654
0.234309,-0.454756,0.552651,0.825379,-0.433221,-0.362035
0.250407,0.024727,0.594137,0.987199,0.021337,-0.158060
-0.216344,-0.629584,0.208033,-0.661886,-0.008569,-0.749556
-0.532033,-0.419737,0.486915,-0.663327,0.289587,-0.690026
-0.065094,0.330452,0.772084,0.843921,0.474622,0.250062
0.209603,-0.010738,0.761656,0.857756,0.266401,-0.439642
-0.835932,0.467855,-0.993065,0.019839,0.149513,0.988561
-0.099352,-0.464201,0.596383,0.555336,0.810868,0.184650
-0.123498,-0.544576,-0.385306,0.245514,0.969348,-0.009370
0.435069,-0.063489,0.110166,0.133712,0.803673,0.579855
-0.504425,0.603475,-0.087639,0.116676,0.536042,0.836090
0.205107,0.483716,0.761332,-0.043302,0.943505,0.328515
-0.271189,-0.189753,-0.329001,0.865134,-0.136795,-0.482524
-0.731479,-0.281176,0.015592,-0.483481,0.556563,-0.675636
0.232813,-0.367966,0.417338,-0.097907,-0.911237,0.400076
0.098135,-0.903765,0.347087,0.706855,0.598736,-0.376658
-0.276993,-0.667543,0.418411,0.677943,0.260178,0.687533
-0.302636,-0.390778,0.218985,-0.166825,-0.985957,0.007592
-0.059199,0.501181,0.443108,0.177760,0.843447,0.506951
0.291120,-0.334818,-0.070326,0.580527,0.805448,0.119341
-0.461558,0.713611,-0.508594,-0.720225,0.102159,0.686178
0.680283,-0.155357,0.580342,-0.489502,0.268308,0.829698
0.803827,0.081132,0.443707,-0.571523,0.298462,0.764384
0.127708,-0.082379,0.464338,0.524234,0.360359,-0.771570
0.207826,0.786144,-0.724985,-0.494564,0.187425,-0.848692
0.087653,0.596347,0.463690,0.939881,0.153490,-0.305065
-0.488887,-0.518467,-0.582263,0.131962,-0.313056,0.940522
0.294210,-0.173535,0.665286,-0.262834,0.826583,0.497674
-0.723710,0.072310,0.417687,-0.366700,0.926485,-0.084598
-0.480741,-0.084429,-0.957016,-0.027592,0.144960,0.989053
-0.169449,0.545200,0.497193,0.938492,-0.345291,0.002673
0.786884,-0.367610,-0.431758,0.245133,-0.797855,0.550760
-0.329588,-0.025262,0.382338,-0.850224,0.264682,0.455041
0.453789,-0.023747,0.540227,0.346519,0.896666,-0.275525
-0.556460,0.312987,0.324635,-0.581301,-0.787389,-0.205200
0.624598,0.132546,0.365423,0.961177,-0.032105,0.274059
0.122933,0.101002,0.764625,-0.542413,0.479116,0.690099
0.598578,0.333571,-0.494799,-0.017435,0.935103,0.353947
-0.218400,0.927734,-0.100836,0.845205,-0.513219,0.149116
0.036640,0.571664,0.347561,-0.333007,-0.279877,-0.900430
-0.365902,0.186278,-0.345142,-0.614674,0.259402,-0.744907
0.532593,0.059211,0.682624,-0.368793,-0.676400,0.637554
0.518089,-0.792292,0.293476,-0.581999,0.811438,0.053343
0.430670,-0.079617,0.733342,-0.700501,-0.711667,0.053188
-0.441901,-0.699443,0.439616,0.449661,0.877270,0.167936
-0.093828,-0.258454,0.735936,-0.235532,-0.696967,-0.677320
-0.227945,0.109022,0.294300,0.964664,0.228932,-0.130438
-0.318266,-0.103408,0.096096,-0.575878,-0.490874,0.653764
0.489166,0.163021,0.203243,0.045206,-0.760783,0.647430
0.470823,-0.731343,0.245927,-0.066338,0.982662,0.173135
-0.113296,-0.268790,0.500536,0.990704,0.135029,0.016513
0.404090,0.039697,0.641936,0.179436,0.926563,-0.330580
-0.018577,-0.233148,0.119745,-0.380439,-0.593304,-0.709406
0.076416,0.876677,0.471897,-0.244627,-0.526109,0.814473
-0.359350,0.474270,0.404266,-0.135144,0.889925,-0.435625
0.126863,0.264068,0.695372,0.958895,-0.267867,0.093639
0.867002,-0.218980,-0.617513,-0.410254,0.905484,0.108582
0.550187,0.391491,0.337458,-0.696220,0.007389,0.717790
-0.745143,-0.408331,0.403742,-0.542216,-0.785827,0.297454
-0.079415,-0.495924,0.587502,0.631995,0.754676,0.176197
0.457062,-0.338383,0.661095,0.910527,0.001602,-0.413446
-0.362252,-0.720294,0.219509,0.460102,-0.482853,-0.745090
-0.213910,-0.200089,0.724186,0.899472,0.187892,0.394521
-0.133324,-0.107150,-0.952002,0.471948,-0.057309,-0.879762
-0.571900,-0.575318,0.489809,0.663246,0.747934,0.026444
-0.017177,0.943150,0.134664,0.274907,-0.935012,-0.224007
-0.437971,-0.137180,0.195609,0.821007,0.570918,0.000897
0.387055,-0.560615,0.456081,0.794769,-0.490433,-0.357517
0.798869,-0.205436,0.620382,-0.798073,0.283763,0.531562
-0.334363,-0.746670,0.453087,0.800634,0.537742,0.264232
0.497684,0.231009,-0.314157,-0.187050,-0.778413,0.599238
0.449013,-0.607039,0.412274,0.859420,0.455255,-0.232681
0.617389,0.390777,-0.514557,-0.135140,0.883093,0.449314
0.146708,0.038985,0.940526,0.905260,0.217976,0.364680
-0.813184,0.300780,0.505476,0.843601,0.527188,0.102034
-0.181897,-0.008153,0.712586,0.955726,0.220089,-0.195316
0.480837,0.412609,0.335462,-0.529455,-0.067554,0.845644
-0.205393,-0.201871,0.736310,-0.648703,-0.453652,-0.611052
0.895644,-0.206594,0.208557,0.564385,0.475081,-0.675106
-0.468293,0.182535,0.512037,0.812462,0.487752,0.319378
0.522019,0.419826,0.513434,-0.084591,0.934766,-0.345046
-0.589501,-0.140565,-0.630660,0.877888,-0.302890,-0.370904
-0.397350,0.129339,0.307347,0.853948,0.518807,-0.040139
-0.549719,0.088795,0.401671,0.412869,-0.384704,0.825555
-0.817303,0.378125,0.449620,0.993164,-0.024961,0.114031
-0.152603,0.576921,0.485793,0.991147,-0.131902,-0.015170
0.345035,0.530675,-0.359885,0.490876,-0.215167,-0.844242
0.011373,-0.730808,0.429512,-0.373376,0.725658,0.577937
0.475873,-0.312541,0.526980,-0.661952,0.705280,-0.253770
0.174317,0.012787,0.724161,0.912224,0.377559,-0.159047
-0.363286,0.502963,0.660796,-0.169758,-0.877091,0.449326
0.094484,0.701136,0.520968,0.940579,-0.332113,0.070789
-0.146799,0.023926,0.351229,0.805764,-0.592030,-0.015612
-0.227106,-0.489864,0.250443,0.125384,-0.496050,0.859193
-0.203239,-0.584585,0.200200,0.906503,-0.133229,0.400627
-0.775471,0.646781,0.318473,-0.627995,-0.339316,0.700347
-0.086527,-0.228247,-0.957540,0.014042,0.044385,0.998916
-0.461929,-0.486300,0.448522,0.869005,0.019573,0.494416
-0.015207,0.136824,0.912062,0.396724,0.862612,-0.313865
0.305253,0.277968,0.449470,-0.226316,0.221501,0.948535
-0.310685,-0.206950,0.099289,0.122904,-0.225416,-0.966479
0.690109,0.166050,0.222602,0.050027,-0.758324,0.649956
-0.465111,0.699265,-0.677660,0.054804,-0.770427,0.635169
0.373111,-0.593584,0.676463,-0.667340,0.694463,0.269032
-0.182086,-0.203832,0.368991,-0.223187,-0.452291,0.863493
0.188826,-0.966050,0.336784,0.383486,0.870205,0.309326
-0.074171,0.260236,0.458575,0.256057,0.308598,0.916080
0.757968,-0.171575,0.219159,0.132283,-0.301788,0.944153
0.122282,0.948140,0.030735,0.225066,-0.874516,0.429614
-0.122470,0.426509,0.753748,0.568202,0.808936,-0.150892
-0.009500,0.502428,0.450069,-0.366014,0.908472,0.201774
-0.622165,0.605435,-0.789423,0.576861,0.797236,0.177893
-0.276239,0.497260,0.493327,0.848341,0.323910,0.418807
0.780709,-0.429717,-0.207983,-0.599163,0.798315,0.060809
0.223359,0.021876,0.431982,-0.786665,-0.288110,0.546032
0.019234,-0.555714,0.242385,0.554558,0.766746,-0.323365
-0.380132,-0.359769,-0.345216,0.926740,-0.030134,-0.374492
-0.660164,-0.323769,0.373057,0.981931,-0.069744,-0.175921
-0.658662,0.282245,-0.360709,-0.018291,-0.437939,0.898819
-0.354580,0.400757,0.379843,0.168353,-0.717783,0.675606
-0.022696,-0.005035,0.521941,-0.663800,-0.634622,0.395758
-0.443209,-0.089062,-0.963478,0.034021,0.228281,0.973001
-0.189575,0.536645,0.512710,0.093296,-0.197211,0.975912
0.113856,-0.860192,0.338032,-0.469700,0.691001,0.549454
0.501425,-0.530051,-0.456680,-0.020102,0.999721,0.012442
-0.046751,0.034796,0.814394,-0.478337,-0.858889,-0.183038
-0.570592,-0.158298,0.261370,-0.674314,-0.608071,-0.418988
-0.029716,-0.209000,0.653337,-0.705781,-0.523292,-0.477534
-0.453132,0.888528,-0.238219,-0.716555,0.697460,0.009925
0.618137,0.128626,0.723837,0.208079,-0.941517,0.265043
0.377042,-0.321809,0.611725,0.915954,0.207824,-0.343273
-0.184428,-0.298552,0.638568,0.724940,0.303565,0.618312
0.352238,-0.314146,0.402570,-0.641866,-0.379109,0.666547
-0.117318,-0.442905,0.191543,-0.642401,0.689694,-0.334131
-0.751135,0.532636,-0.995385,-0.094239,0.119657,0.988333
-0.899946,0.192604,-0.002220,-0.658980,-0.069869,-0.748908
0.305253,-0.531299,-0.588175,-0.779370,-0.087282,-0.620455
-0.539236,-0.488349,-0.107696,0.987075,0.090232,-0.132442
-0.056857,0.037737,0.752202,0.184161,0.573225,0.798434
0.164211,-0.204277,0.330498,0.124909,-0.281289,0.951459
-0.531753,-0.764402,-0.532469,0.735100,0.639990,0.223697
0.277273,-0.807440,-0.150081,0.636841,0.151294,-0.756005
-0.684962,0.177456,-0.336834,0.374858,0.823362,0.426096
-0.305350,0.758788,-0.132494,0.841069,-0.387596,-0.377321
0.151764,0.144220,-0.004166,0.441915,-0.086939,0.892834
-0.027751,0.440232,0.096320,0.713894,-0.605199,-0.352262
0.004542,0.704612,0.389797,0.843519,0.360302,-0.398319
0.664563,-0.213366,0.569240,0.933878,0.122234,-0.336051
0.145303,0.210514,0.661145,-0.754603,0.054310,-0.653931
-0.630493,0.142704,0.099164,-0.346935,-0.630320,0.694502
0.213253,0.309423,0.289834,0.119704,-0.744283,-0.657049
-0.205581,-0.744888,0.200649,0.617952,-0.117565,0.777376
-0.272406,0.007084,0.377747,-0.541024,0.751260,-0.378023
-0.630493,-0.535843,0.496495,0.851424,0.407374,0.330339
-0.073331,0.213633,0.750705,0.869532,-0.480358,0.114758
-0.258085,-0.318155,0.677386,0.859356,0.345256,0.377235
-0.720996,0.133972,0.472396,0.392739,-0.449454,0.802339
-0.601102,-0.422766,0.302208,0.800339,0.392416,0.453285
-0.414293,-0.191356,-0.669378,-0.065761,0.386972,0.919744
0.605221,0.173535,0.760210,-0.404418,-0.870545,0.280353
-0.585753,0.566852,-0.108968,0.652514,0.500216,-0.569218
-0.555431,-0.592070,0.518773,-0.585502,-0.603309,-0.541484
0.836400,-0.213812,0.630785,0.902039,0.431437,-0.013673
-0.034584,0.860369,0.410503,0.874957,0.179010,-0.449896
-0.478027,-0.199287,-0.113384,0.856820,-0.416013,-0.304620
-0.361504,-0.330363,0.725134,-0.140017,-0.946526,-0.290660
-0.246666,-0.190020,0.113683,0.671756,0.740637,-0.014190
0.374979,-0.502785,0.421654,0.845188,-0.075881,-0.529055
0.377510,-0.250434,0.133391,-0.281770,-0.931535,0.229889
-0.297301,0.090845,0.541350,-0.038481,-0.770725,0.636005
-0.126583,0.146001,0.765224,-0.485855,-0.845363,-0.222051
-0.212128,-0.737314,-0.448871,0.739508,-0.075165,-0.668938
0.202114,-0.191356,0.586753,0.277109,0.856654,-0.435149
-0.621416,-0.268701,0.379119,-0.450233,0.866549,0.215367
0.737374,-0.153843,0.582437,0.675362,0.160479,-0.719814
0.191443,0.050479,0.810278,0.202730,-0.954625,0.218154
0.172163,0.113121,0.629587,0.782463,0.321156,-0.533489
0.029619,-0.024371,0.843383,-0.042219,-0.010587,0.999052
0.091485,0.106973,0.970862,-0.327989,0.643475,-0.691638
-0.194813,0.465271,0.465785,-0.017346,-0.460518,0.887481
0.348399,-0.019559,0.211975,0.954395,-0.266393,0.134779
0.659319,-0.617376,0.519296,0.840957,0.180267,-0.510191
-0.454817,-0.537536,-0.331321,0.699419,-0.593686,-0.397933
-0.558893,-0.497616,0.313060,-0.476862,-0.582244,-0.658479
0.592585,-0.169882,0.354821,0.813872,0.167229,-0.556460
-0.276708,0.738561,0.580317,0.942934,0.280833,0.178908
-0.530256,0.031410,-0.961008,-0.041426,0.318044,0.947170
-0.150267,0.141100,0.593738,-0.104702,-0.355788,0.928683
-0.660164,-0.258543,0.405089,-0.634949,-0.535626,-0.556726
-0.479621,-0.131833,0.342422,0.510038,0.117883,-0.852035
0.231128,-0.105458,0.749058,-0.069527,0.872247,0.484098
0.047122,-0.202316,-0.238493,-0.156319,-0.903036,0.400113
-0.390238,-0.141813,-0.599077,0.952073,-0.263771,0.154859
-0.048527,-0.023213,0.841786,0.037881,-0.383953,0.922575
-0.547194,-0.316552,0.401297,0.273351,0.913041,0.302713
-0.611214,-0.447449,0.325583,0.755264,0.539978,0.371483
0.121813,0.200089,0.635624,0.239368,-0.890726,0.386407
-0.443307,0.096814,0.424623,0.552923,0.708200,-0.439009
0.172260,-0.963823,0.333217,-0.403735,-0.875524,-0.265437
0.324629,-0.044509,0.691081,0.544502,-0.090299,-0.833885
0.297672,-0.189040,0.594212,-0.304200,-0.808214,0.504235
0.357105,0.511607,0.245204,0.874216,0.153304,0.460700
-0.687396,-0.463399,0.538206,0.833930,0.347917,0.428387
-0.846134,-0.045400,0.155445,-0.199455,-0.783987,-0.587863
-0.268378,-0.334551,0.687838,0.823956,0.407015,0.394253
0.156254,0.260949,0.565174,-0.411461,0.902212,0.129278
-0.540270,-0.092805,-0.178371,-0.243056,0.920498,0.305952
0.764611,-0.242504,0.624972,-0.465139,0.783786,0.411492
-0.274931,-0.534329,0.129151,-0.243153,-0.879480,0.409136
-0.325286,0.045311,0.749557,-0.599667,0.798597,0.051414
-0.327720,-0.014569,-0.373456,0.379876,0.732974,-0.564308
0.057702,-0.066785,0.602220,-0.411904,-0.289086,-0.864155
-0.571249,0.652573,0.149308,0.137195,0.061606,0.988626
0.441901,-0.142259,0.373681,-0.541186,0.718808,0.436387
0.342224,0.541724,0.227317,0.398243,0.085559,0.913281
-0.457439,0.202941,0.505052,0.730783,0.469080,-0.495904
-0.206889,-0.078280,0.570014,-0.678564,0.156178,-0.717746
0.713884,0.033192,0.653337,0.848528,0.515990,-0.117278
-0.776311,0.338650,0.440414,0.891462,0.304360,0.335649
0.494690,-0.699087,0.435674,0.229280,0.961114,0.153917
-0.737471,0.242504,-0.813471,0.958501,-0.227881,-0.171308
-0.470075,0.304344,-0.271024,0.382597,0.862148,-0.332146
-0.097478,0.037915,-0.098441,0.052809,-0.021509,0.998373
-0.794653,-0.385342,0.060521,0.192431,0.836274,0.513436
-0.287007,0.313166,-0.979619,0.159714,0.256886,0.953153
-0.047688,-0.419113,0.278708,0.591271,0.215285,-0.777207
-0.415132,-0.237781,0.300911,0.181304,0.860800,-0.475555
-0.295896,-0.426153,0.467008,0.522519,0.843176,-0.126604
-0.225701,0.142794,0.788325,0.556159,0.823260,0.113712
-0.480741,-0.325730,0.546514,0.672009,0.708016,0.217064
-0.474377,0.106794,-0.340751,-0.138349,-0.231278,0.963001
0.337825,-0.451816,0.427492,0.888099,0.255721,-0.381951
0.461741,0.535576,0.543645,-0.497420,0.178935,0.848855
0.708172,0.146268,-0.529001,0.647494,0.750739,-0.130927
0.090549,-0.637870,0.300761,0.439744,-0.674796,-0.592685
0.127708,0.658008,0.602170,0.265996,-0.729189,0.630500
0.858582,-0.035330,0.225945,0.271278,-0.456271,0.847482
-0.790352,-0.227266,0.163627,0.576807,0.117076,0.808447
0.462586,-0.294720,0.367893,-0.233942,0.939448,0.250418
-0.594928,-0.275830,-0.127953,0.896009,-0.213533,-0.389321
-0.692360,0.117131,0.397181,-0.010683,0.433460,-0.901109
-0.689081,-0.134952,-0.674617,-0.249298,0.618418,0.745258
-0.557585,-0.279305,0.520968,-0.437374,0.240158,-0.866619
-0.685247,0.478281,0.356892,-0.470721,-0.871187,-0.139482
0.408489,0.318155,0.200973,-0.143016,0.061816,0.987788
0.363097,-0.571397,0.599177,0.180839,0.945283,0.271545
0.217275,-0.794253,0.322614,-0.606105,0.268240,-0.748789
0.697878,-0.260058,-0.047599,-0.471894,0.835312,0.282082
0.312833,0.863489,0.282550,-0.693092,-0.354852,0.627458
-0.203610,0.533437,-0.299164,0.695852,-0.649887,-0.305673
-0.521550,-0.325195,0.021978,0.356800,0.927099,0.114809
0.132295,0.674939,0.222203,-0.723005,0.501155,0.475508
0.408489,0.277522,0.308494,0.401059,-0.147742,-0.904060
0.186484,-0.474984,0.377348,0.108049,0.175176,0.978590
0.149422,-0.113923,0.690857,0.013972,-0.990871,0.134090
-0.761618,-0.286077,0.422078,0.575585,-0.682217,0.450867
-0.127709,0.455647,-0.747487,-0.435096,-0.445590,0.782394
-0.800086,-0.254088,-0.182537,0.254066,-0.197339,0.946841
-0.052178,-0.679305,-0.436473,0.441096,-0.412872,0.796851
0.441713,-0.619336,-0.350056,0.361997,0.918709,-0.157897
0.315552,0.103320,0.706549,0.034814,0.977908,0.206114
0.410454,0.305235,0.491580,-0.233194,0.021509,0.972192
0.522019,-0.540833,0.493900,0.907297,0.167898,-0.385515
-0.094953,0.317710,0.793040,0.902381,0.428602,0.044816
-0.707892,-0.332234,0.480978,0.926479,0.369974,0.068966
0.450138,-0.167476,0.648497,-0.343374,-0.887314,-0.307845
0.095793,-0.348630,0.246801,0.709863,-0.704268,0.010035
-0.277924,0.661395,0.555993,-0.479558,0.717282,-0.505499
-0.498244,0.141457,-0.737907,-0.716926,0.654345,0.240520
-0.183399,-0.334106,0.533067,-0.760562,0.555610,0.335921
0.002388,0.064468,0.925658,0.018170,-0.962743,0.269808
-0.294770,-0.763689,-0.481851,-0.322031,0.545883,0.773504
0.861478,-0.099665,0.210977,0.023562,-0.415323,0.909369
0.210911,0.785609,0.117101,-0.614024,-0.289975,-0.734090
-0.710423,0.284117,-0.295821,0.892502,-0.441399,-0.092771
0.277924,0.129517,0.849520,0.796753,0.211495,-0.566086
0.088115,0.327868,0.891755,0.756805,0.645341,-0.103831
0.004073,0.739898,0.414120,0.630076,0.706048,-0.323265
-0.475691,0.057786,0.384782,-0.297092,0.081450,-0.951369
-0.777996,0.370996,0.292079,0.073647,-0.660549,0.747162
-0.632082,0.193228,0.436448,-0.569304,-0.094054,-0.816729
0.413356,-0.322521,-0.673494,0.537936,-0.808683,0.238027
-0.167582,0.134863,0.727629,0.899578,-0.402897,-0.168625
-0.227666,-0.177278,0.753150,-0.722131,-0.603927,-0.337342
0.091765,0.989218,0.446451,-0.181464,-0.983245,0.017330
0.189295,0.162843,0.910141,0.671671,0.536095,-0.511332
0.516872,0.464201,-0.007285,0.990879,0.049244,-0.125432
