-0.317917,-0.333572,0.398735,-0.538887,0.681218,0.495523
0.837433,0.652134,0.237922,-0.333465,0.942363,-0.027453
-0.140704,-0.649777,0.519682,0.935072,0.329849,-0.129769
-0.508803,0.273221,0.559501,-0.127174,-0.978451,0.162668
-0.233194,0.603259,0.810436,0.857779,-0.402038,0.320281
-0.278128,0.037656,0.412179,0.843759,0.533567,0.058109
0.586313,0.345766,0.429770,0.261611,0.817476,-0.513121
-0.804743,0.162970,0.561458,0.903013,-0.081913,0.421732
0.280417,0.647933,0.710971,-0.729113,-0.248744,0.637590
-0.197442,0.440648,0.744568,0.915807,0.246592,0.317000
0.312125,0.306830,-0.961230,0.128842,0.167714,0.977380
0.047013,0.409499,0.347010,-0.718179,0.232523,0.655860
-0.100688,0.220043,0.871900,0.135876,0.972988,0.186635
-0.380560,0.107229,0.325039,-0.618825,0.074868,0.781953
-0.250249,-0.703673,0.529002,-0.400119,0.898531,0.180409
-0.217340,-0.589528,0.560130,-0.562595,-0.782485,0.266841
0.312339,-0.168810,0.500297,-0.012024,0.453892,0.890976
0.528367,0.652032,0.314041,0.950055,-0.292976,0.107518
0.392257,-0.244326,0.410524,0.793747,-0.207909,-0.571612
-0.597243,-0.064809,-0.941705,0.002544,0.463706,0.885986
0.169016,0.716276,-0.974627,0.211691,0.214974,0.953401
0.682406,0.884626,-0.254255,0.992180,0.117955,0.040823
0.123648,-0.153338,0.542283,0.613828,0.779403,-0.125481
-0.430412,-0.052001,-0.939678,-0.097155,0.292689,0.951259
-0.401006,0.551002,-0.056140,0.645377,-0.757884,0.095395
-0.302397,0.063682,0.575647,-0.711598,0.232074,-0.663151
-0.539084,0.337979,0.637997,-0.652608,0.732978,-0.191953
-0.523229,-0.641067,-0.341092,-0.454785,0.636757,-0.622664
0.690607,-0.272196,0.290229,0.996754,0.071522,0.036959
0.311358,0.283672,-0.960694,0.120151,0.270209,0.955275
0.076092,0.419233,-0.237177,0.761114,0.319512,-0.564462
0.308295,-0.277012,0.532357,0.655545,0.712893,0.249086
-0.475239,-0.553051,0.454467,0.646226,0.235962,-0.725751
-0.059364,0.073621,0.920339,-0.476943,0.311807,-0.821768
-0.002626,0.044316,0.918848,0.352628,0.809959,-0.468637
0.095770,-0.042062,-0.924091,-0.364422,0.837448,0.407280
-0.145729,-0.704800,0.505190,0.422612,0.809154,-0.408251
-0.031926,0.165942,0.898531,0.428794,-0.903099,-0.023422
0.179405,-0.173933,0.517445,0.225311,0.303297,0.925876
-0.124195,0.859829,0.395054,-0.258701,-0.239175,0.935879
-0.337595,-0.315641,0.158657,-0.676280,0.666659,-0.313386
-0.098172,-0.777140,0.515046,0.415437,0.882055,-0.222241
-0.104077,-0.659203,0.179277,-0.055041,0.997548,0.043229
0.589375,0.593320,0.478232,0.805237,-0.252242,-0.536626
-0.491307,-0.144013,0.519799,0.589133,0.594514,-0.547243
-0.501803,0.168093,-0.956104,0.082010,0.245197,0.965998
-0.346016,-0.271479,0.426275,0.971892,-0.234824,-0.016817
0.448562,0.219428,-0.959599,-0.214830,0.140268,0.966526
-0.145842,0.780522,0.534384,-0.695682,-0.521712,0.493805
0.364926,0.938624,0.334964,0.403425,0.512836,0.757791
0.299988,0.938829,-0.988211,0.048353,0.252287,0.966444
0.452058,0.099340,0.851047,-0.819162,0.157288,0.551574
0.347984,0.325171,0.085754,0.813161,-0.477581,-0.332694
0.204982,0.631026,0.656194,0.111580,-0.777974,0.618309
0.377498,0.916799,-0.124850,-0.836903,0.266084,-0.478323
0.356399,0.609202,-0.971715,-0.096561,0.146281,0.984519
-0.139503,0.358369,0.572712,-0.598983,0.799710,0.041018
0.415218,0.274246,-0.687368,0.876844,-0.479589,0.033749
0.179512,-0.546595,0.598784,-0.642213,0.463441,0.610561
0.761451,0.661766,0.259195,-0.583717,-0.720562,-0.374253
-0.016398,0.323737,0.726698,-0.379884,-0.544052,0.748128
0.469334,-0.098109,0.364881,0.928746,-0.348145,0.127386
-0.087569,0.323326,0.807220,0.730231,0.096730,-0.676317
0.123535,-0.003534,-0.763558,0.903595,-0.381663,0.194551
-0.053245,-0.194220,0.876629,0.885370,-0.396526,-0.242666
0.138735,-0.128029,0.768404,-0.614938,-0.769827,0.170928
0.068986,-0.026385,0.757080,-0.716185,0.164152,0.678331
-0.224993,-0.259901,-0.521174,-0.497084,0.733142,0.464124
-0.564560,-0.408985,0.135032,-0.406546,-0.315838,-0.857302
0.382856,0.026282,0.834318,0.564247,0.465194,-0.682070
-0.438286,0.815155,0.552907,0.601810,0.535417,-0.592582
-0.214497,-0.816384,0.565139,-0.639564,0.563689,0.522697
0.392151,0.248425,0.714023,-0.125093,-0.792586,0.596791
-0.058270,0.369333,0.555074,0.341331,0.851438,0.398179
0.074010,-0.050874,0.852258,-0.708373,0.201237,-0.676544
0.636165,0.731134,0.051270,0.197574,-0.093490,0.975820
-0.348091,-0.574055,0.502837,0.873904,0.485982,-0.010597
0.027989,0.181004,0.855217,0.284037,0.821162,0.494991
-0.058930,-0.618628,0.519333,0.603898,0.284462,0.744573
-0.808901,0.005380,0.157026,-0.479398,0.803463,0.353023
-0.707883,-0.582662,0.391931,0.993507,0.038604,0.107019
0.183122,-0.559096,0.002901,-0.082057,-0.757835,0.647265
0.038919,0.772837,0.359941,-0.318257,-0.110987,0.941485
-0.000657,0.853681,-0.313226,-0.675936,0.698142,0.236025
-0.133925,0.709206,0.580960,-0.274179,0.746530,0.606234
0.606424,-0.434397,0.461969,0.912201,-0.231358,0.338177
-0.354103,0.171782,0.459779,-0.388995,0.475132,0.789261
0.325791,-0.454788,0.555330,0.926716,0.322741,-0.192446
0.269593,0.702342,0.729330,0.153245,0.975402,0.158449
-0.104732,-0.142271,-0.267815,-0.581320,0.644094,0.497202
-0.764948,-0.064091,0.186291,0.841664,-0.446436,0.303805
-0.141251,-0.725088,0.509757,-0.459530,-0.784451,0.416495
0.027001,0.009888,-0.294423,0.852935,-0.501816,-0.143816
-0.566195,-0.255084,0.117464,-0.151996,0.634175,0.758102
-0.438286,-0.094728,0.534268,0.704359,0.571521,-0.421001
0.165192,0.329166,0.885879,0.923122,0.282127,-0.261248
0.471302,-0.309390,0.544193,0.480309,-0.644059,-0.595392
-0.091947,-0.005789,0.910763,-0.100493,-0.627904,0.771776
0.208264,0.414930,0.402300,-0.782385,0.446686,0.433988
0.250029,-0.616476,0.608989,0.722443,0.624569,-0.296631
-0.022304,0.075977,0.829122,-0.578397,0.560397,-0.592801
0.187166,-0.600594,0.433218,0.857951,0.344746,-0.380880
0.065816,0.738409,0.429164,0.784519,-0.291223,0.547467
0.190989,0.082023,0.677210,0.953754,-0.291492,0.073387
0.501256,0.603054,0.447710,-0.649890,0.390860,0.651822
0.179732,0.315949,0.760948,0.250553,-0.729511,0.636424
0.249916,-0.562887,0.233682,-0.137111,0.984912,-0.105591
-0.393572,-0.011527,0.721082,0.379247,0.924706,-0.033008
-0.560403,-0.052410,0.693030,-0.412741,0.888808,-0.199161
0.013883,-0.612890,0.546756,-0.154785,0.642611,0.750395
-0.305673,0.310620,0.844942,0.688388,-0.649534,0.322842
0.616487,0.458886,0.406587,0.525963,0.713738,-0.462537
-0.500496,0.484502,0.571337,0.421677,0.047477,0.905502
0.163658,-0.183974,0.827235,-0.320069,0.321505,0.891174
0.249369,0.218813,0.698622,-0.159230,0.867576,-0.471124
-0.284574,0.387162,0.735202,0.324082,0.102705,0.940437
0.252979,0.046468,0.676604,0.910497,-0.046715,-0.410869
0.212202,0.455403,0.402952,0.614222,-0.434302,-0.658873
-0.306988,0.580205,0.540325,0.944128,-0.183388,0.273844
0.147590,-0.271479,0.498550,-0.261230,-0.522972,0.811332
0.212962,0.522517,0.596710,0.613643,0.788856,-0.033895
-0.135673,-0.030073,-0.441489,-0.112962,0.844228,0.523945
0.340438,-0.476920,-0.508545,-0.657561,0.753029,-0.023706
-0.280530,0.622727,0.548573,0.700338,-0.624179,0.346306
0.357386,0.266766,0.852235,0.606508,-0.725461,0.325352
0.016071,-0.736769,0.554631,0.068798,-0.944692,0.320661
-0.280203,0.005073,0.748855,-0.657523,-0.080494,0.749122
-0.237565,-0.735744,0.348734,-0.197466,0.702982,-0.683245
0.182461,0.939342,-0.985415,0.259872,0.250171,0.932674
-0.346016,0.622010,0.572455,-0.025017,-0.865974,0.499462
0.294082,-0.204877,0.808665,0.973499,-0.222894,0.051168
-0.019354,0.240433,0.870082,0.091966,0.937796,0.334785
-0.212635,-0.078948,0.692913,-0.408994,0.894028,-0.182861
0.318684,-0.508581,-0.677070,0.515006,0.856794,-0.025948
-0.267846,0.249757,0.611132,0.148735,-0.159783,0.975883
-0.053679,0.306522,-0.697667,0.929140,0.362770,0.071396
0.199297,-0.004354,0.493820,0.987602,-0.023264,0.155242
-0.347110,0.024438,0.897156,-0.402436,-0.915213,0.020725
0.290913,-0.588298,-0.007095,0.272173,-0.960822,0.052365
-0.584999,-0.576310,0.465022,0.905997,0.303659,-0.294892
0.515469,-0.160510,0.468959,0.482984,0.588859,-0.648052
-0.328854,0.236641,0.820338,0.845884,-0.280552,0.453619
0.026127,-0.081203,-0.240462,0.933167,-0.272527,-0.234370
-0.617254,0.138071,0.527418,-0.178961,-0.610777,0.771314
0.299333,-0.211947,0.752840,0.154983,-0.943798,0.291936
-0.764187,-0.113786,0.468726,-0.099569,0.827383,0.552742
0.303157,-0.213586,0.782523,0.761770,0.557900,-0.329324
0.540064,0.562478,0.466396,-0.735168,0.327381,0.593590
0.256148,0.602132,0.662415,0.000239,-0.230500,0.973072
-0.252545,0.208976,0.577954,0.937097,0.347207,0.036014
-0.441349,0.548235,-0.103484,0.853289,-0.521276,0.013017
0.304358,-0.507249,-0.483219,-0.769288,0.634029,0.078756
0.134578,0.485322,0.372756,0.596069,0.637981,-0.487527
0.286429,-0.240125,0.809947,0.989417,0.143769,-0.019597
0.113039,-0.045954,0.770337,0.186857,-0.160068,0.969259
-0.221056,0.270660,0.864211,0.197755,0.459644,-0.865806
0.197768,-0.311235,0.504002,-0.393687,-0.155928,0.905923
-0.092707,0.778575,0.413297,0.276365,-0.860038,-0.428902
-0.030064,0.163482,0.825883,0.685175,0.485316,0.543142
-0.651251,-0.483375,0.497990,0.856767,0.361812,-0.367480
-0.279436,-0.091346,0.756125,-0.206765,-0.915201,-0.345912
0.053785,0.028946,0.907851,-0.260902,0.864864,0.428883
-0.032473,0.136432,0.069304,-0.397502,0.908743,-0.127199
-0.166173,0.369025,0.728189,-0.524671,0.646493,-0.553865
0.370938,-0.528561,0.569823,0.960061,0.245853,-0.133562
-0.219742,0.294124,0.826116,-0.079487,-0.926892,0.366814
0.030611,0.367181,0.728958,-0.353957,0.841056,0.409071
-0.628952,-0.538808,0.375785,-0.034578,-0.681850,0.730674
-0.251671,0.078232,0.838512,0.929779,0.357243,-0.088815
-0.314968,0.282853,0.720290,0.450169,0.577216,-0.681299
-0.024599,-0.571289,0.087850,0.144251,-0.975201,0.167855
0.399364,0.103438,-0.636226,0.982943,-0.183869,-0.003994
0.044824,-0.172703,0.889887,-0.449276,0.578242,0.681019
-0.297913,0.324249,-0.560922,0.427002,0.900279,0.084655
0.337922,0.007019,0.114342,-0.476378,-0.870597,0.122984
0.094235,-0.461960,0.601626,0.145432,0.053553,-0.987918
0.609487,0.712793,0.424085,-0.366854,0.928521,0.057148
0.179732,0.577540,0.658314,0.022522,0.718994,-0.694651
-0.539197,-0.674266,0.130931,0.621963,-0.490200,0.610627
0.063734,-0.172191,0.521103,0.222327,-0.243801,0.943998
-0.168689,0.165736,-0.075665,0.994667,0.069764,-0.075965
-0.423526,0.599980,0.450762,-0.034359,0.239877,0.970195
-0.031158,0.232031,0.852584,0.523454,-0.116251,0.844086
-0.374442,0.161330,-0.952073,-0.014092,0.264368,0.964319
0.184870,0.240228,-0.011661,0.463444,-0.870171,-0.167400
-0.125837,-0.401506,0.487972,0.036745,0.516203,0.855678
0.169783,0.283775,0.830916,0.767500,-0.248203,0.591049
0.264242,-0.293304,0.747224,-0.199458,-0.853291,0.481779
-0.524544,0.514935,0.504398,0.412629,0.882856,0.224282
-0.018480,0.142170,0.874672,0.883520,0.342189,0.319843
-0.357386,0.598546,0.458172,-0.180910,-0.008996,0.983459
-0.579427,0.167479,0.561109,-0.418174,0.838392,-0.349613
0.348745,0.533583,0.642447,0.717222,0.499011,-0.486395
-0.630593,0.109893,-0.626627,0.470456,-0.408680,0.782082
-0.687111,-0.368922,0.283496,-0.606925,0.598660,-0.522731
-0.346997,0.596189,0.566770,0.031544,-0.935474,0.351986
0.298019,-0.291255,0.534151,0.695927,0.256671,-0.670676
-0.074017,-0.060095,0.715584,-0.711149,-0.000330,0.703041
-0.459712,-0.202418,0.804331,0.479029,-0.877747,-0.009519
0.054993,0.185409,0.898694,0.814430,0.389924,0.429725
-0.054119,-0.323326,0.778259,0.253284,-0.875752,-0.410980
0.306440,0.256622,-0.940587,0.206371,0.129029,0.969929
-0.221384,0.302936,0.751162,0.699322,-0.382728,-0.603712
0.197221,0.046160,0.751558,0.977117,-0.203702,-0.061213
-0.487918,-0.048926,0.526439,0.972790,0.216682,0.082030
0.209686,0.011835,-0.134496,0.079079,-0.950167,-0.301545
0.742427,0.547826,0.517981,0.720852,0.573721,0.388866
-0.480925,-0.212254,0.551859,-0.663807,0.747674,0.018563
-0.550561,0.172806,0.528350,-0.210147,0.845469,-0.490938
-0.330382,-0.790460,0.518401,0.919830,0.314073,-0.235097
-0.326992,-0.430298,0.096098,-0.611435,0.404022,-0.680378
0.312779,0.768943,0.555307,-0.460028,0.722686,-0.515848
-0.306333,0.514730,0.533336,-0.600623,0.028903,0.799010
-0.449216,0.427327,0.565326,0.370722,0.489521,0.789262
-0.174922,-0.000563,0.843521,0.007610,0.895204,0.445592
-0.894171,-0.003534,0.509594,-0.207321,-0.941587,0.265390
-0.430526,0.329371,0.488135,-0.692196,0.720703,0.038110
-0.368643,-0.498335,0.499668,0.395723,0.202453,0.895777
0.459165,0.127518,0.609874,0.041477,-0.107688,0.993319
0.934294,0.776936,0.246590,-0.314130,0.914442,-0.255184
0.155457,-0.159178,0.782849,-0.120230,-0.973729,-0.193380
-0.244017,0.910036,0.556146,0.348039,-0.924241,0.156996
0.311358,0.485117,0.790678,-0.444302,-0.685387,0.576923
0.170004,-0.285824,0.533755,-0.095379,0.912084,0.398754
0.337708,0.227113,0.716772,0.677282,0.587670,-0.442644
0.567616,0.150059,0.358403,0.420038,-0.181646,0.889142
-0.789330,-0.031507,0.454747,0.758641,0.455452,0.465861
-0.628291,-0.522516,0.416652,-0.947249,0.240500,-0.211848
0.661201,0.057739,-0.940890,-0.039248,0.442898,0.895713
0.015197,0.213075,0.944128,0.906341,-0.108514,-0.408377
0.240080,0.162355,0.457100,-0.606787,-0.265222,-0.749311
-0.562592,0.080896,-0.325388,-0.397184,0.643152,-0.654676
-0.571994,-0.059173,0.489952,0.390446,0.722349,-0.570757
-0.354437,0.354578,-0.161850,-0.273832,-0.225192,0.935042
-0.231333,-0.412265,0.477883,-0.452080,0.710820,0.538849
-0.468567,0.050669,0.255979,0.970940,0.239273,-0.004975
0.048100,0.305293,0.596337,0.104122,0.096408,0.989881
0.614298,-0.336441,0.549669,0.860130,0.201306,0.468670
-0.098172,-0.354372,0.486131,-0.038336,0.526662,0.849210
0.681752,0.736770,0.275691,0.457242,-0.269158,0.847634
-0.204442,0.193402,0.914491,0.982166,-0.019870,0.186962
0.289932,-0.270659,0.831708,-0.375468,0.914490,-0.150771
-0.073143,0.248732,-0.107981,0.536024,0.208032,0.818169
0.073796,-0.690660,0.584851,0.431505,-0.891717,-0.136545
0.076419,-0.326912,0.592959,0.921018,0.222255,0.319888
-0.108455,0.785850,-0.113550,0.965004,0.234225,0.117922
-0.544549,0.543829,0.574110,-0.720370,0.298674,-0.625988
0.455121,0.377838,0.797178,-0.496953,0.853948,0.154307
-0.355745,-0.470874,0.386619,0.556116,0.521306,0.647283
-0.124303,-0.569137,0.547292,-0.145340,-0.630140,0.762758
0.112278,0.269738,0.617680,0.861275,-0.409089,-0.301416
0.201378,0.773657,0.620476,0.570185,0.552125,-0.608316
-0.216025,-0.110097,0.706450,0.114446,0.712901,0.691863
-0.287743,-0.627542,0.541700,0.010854,-0.756503,0.653900
-0.571553,0.322814,0.568238,0.229803,-0.077587,0.970140
-0.175028,0.481428,0.613043,-0.538506,0.688997,-0.485072
-0.611783,-0.703468,0.436690,-0.622865,-0.664844,0.412337
0.329508,0.299349,0.732942,0.741961,0.217691,-0.634117
-0.346997,-0.126082,0.788861,0.608211,0.444467,0.657669
0.641956,0.233977,0.689861,0.838677,0.294953,-0.457846
-0.654535,0.549055,0.519659,0.465015,0.863544,0.195071
-0.369851,-0.033966,0.461224,0.265013,0.901409,0.342389
-0.541819,0.000974,0.261688,0.969745,-0.235764,0.063321
0.167595,0.265639,0.785203,0.018180,0.451028,0.892325
0.337595,-0.440442,-0.273780,-0.580179,0.814488,0.001113
-0.104952,0.737691,0.663207,-0.025089,-0.865823,0.499721
0.519513,0.779600,0.291045,0.794676,-0.539544,0.278177
-0.120479,0.529689,-0.969082,-0.064654,0.278937,0.958131
0.127365,-0.083355,0.705868,0.276872,-0.598287,0.751927
-0.683941,0.199345,0.424993,-0.613429,-0.665121,-0.425816
0.176449,0.402839,0.522129,-0.538063,-0.754961,0.374864
0.262601,-0.528152,-0.705029,0.759978,0.646859,-0.063291
0.191756,-0.419540,-0.692378,0.882009,0.457626,-0.112425
0.249695,0.435217,0.841424,-0.170481,0.966292,-0.192916
-0.141905,-0.656744,-0.094374,-0.048354,0.911663,0.408085
0.072809,0.116144,0.768264,0.998533,0.051416,-0.016951
-0.056087,-0.145960,0.695360,0.613333,-0.765614,0.194058
-0.087349,0.072186,0.771992,-0.098675,-0.992900,0.066423
-0.660767,0.217276,0.520102,-0.233615,0.712290,0.661866
-0.215812,-0.605922,0.521010,-0.285264,-0.465371,0.837886
-0.367882,0.556433,0.814723,0.903157,-0.380897,0.198050
-0.596589,-0.183462,0.388134,-0.608801,0.750255,-0.257833
-0.021863,0.132333,0.920712,-0.543739,-0.308271,0.780587
-0.350607,0.655618,0.585387,0.114481,-0.744689,0.657519
-0.403081,-0.006198,0.628421,-0.003370,0.867569,0.497306
-0.523016,0.313387,0.692145,-0.097975,-0.826888,0.553767
0.109762,0.592295,0.676487,0.334896,0.628065,-0.702409
0.253959,0.034172,0.716912,0.955124,-0.204678,-0.214113
0.583143,-0.348942,-0.047939,0.141331,-0.984303,0.105708
0.183336,0.444541,-0.954939,-0.222180,-0.255314,-0.940984
0.083525,0.104975,0.905963,0.143335,-0.907916,-0.393883
-0.861922,-0.086326,0.187386,0.914525,-0.291248,-0.280748
0.033013,0.381014,0.434872,0.737185,0.095770,-0.668870
0.154149,-0.331830,0.377509,-0.339640,-0.914821,0.218513
-0.564120,-0.139402,0.601137,0.969091,-0.082831,0.232384
0.250576,0.429889,0.418143,0.552025,-0.141161,-0.821792
0.149772,0.480712,0.741446,0.254949,0.892914,-0.371087
0.252871,0.448025,0.820408,0.108940,-0.731009,0.673616
0.097298,0.600083,0.400762,0.718404,-0.478119,0.505270
-0.270254,-0.773246,0.556728,-0.587835,0.377262,0.715628
-0.171532,0.112762,0.511690,0.903155,-0.003504,-0.429300
0.369303,-0.424253,0.598108,-0.363538,0.342566,0.866307
0.069746,-0.661356,-0.009029,-0.129382,0.991568,-0.007312
0.045478,-0.054972,0.564161,0.726033,0.671198,0.149565
-0.174701,-0.305087,0.691888,0.918036,0.169062,-0.358646
0.434242,-0.050258,0.402719,0.979570,-0.042529,-0.196555
-0.112932,0.917517,0.455026,0.722228,0.664120,0.193213
0.515029,0.353963,0.371847,-0.532238,0.643149,-0.550529
0.067671,0.138276,0.484896,0.705345,0.675913,0.213613
0.498961,0.330703,0.787369,-0.287630,0.954018,-0.084367
0.066470,0.808597,-0.980335,-0.126510,0.142014,0.981747
-0.807586,0.002306,-0.334592,0.449890,-0.763207,0.463803
-0.597903,0.626518,0.478792,-0.841684,0.535133,-0.072117
-0.072923,0.622010,0.617516,-0.758314,0.596820,-0.262232
-0.434463,0.276705,-0.961300,-0.105066,0.079640,0.991271
0.539737,-0.299246,-0.516467,0.886007,-0.459635,0.061060
-0.555919,0.100365,0.291371,0.431154,-0.235255,0.871069
-0.765715,0.121471,0.543075,0.786430,-0.307549,0.535669
-0.131082,0.805626,-0.303114,-0.479671,0.874805,0.068064
0.639007,0.085199,-0.103345,0.955470,0.230006,-0.184865
-0.645460,-0.120241,0.419588,0.539273,-0.627639,0.561474
-0.202032,0.349249,0.869477,-0.500918,-0.383364,0.775959
0.042415,-0.230595,0.660061,0.462942,-0.481612,0.744133
0.219742,-0.464727,0.498759,0.075817,-0.369278,0.926221
-0.721222,-0.210717,0.096961,0.171447,-0.480687,0.859968
-0.343280,0.005482,0.699927,-0.535698,0.777088,0.330397
-0.661201,-0.378861,0.414206,0.781202,0.053802,-0.621956
0.103423,0.241765,0.867147,0.965387,0.021637,-0.259923
0.177544,0.208259,0.711180,-0.259783,0.964790,0.041147
0.633755,-0.247809,0.438833,0.979140,0.179002,0.096143
0.288731,0.059686,0.790888,0.940115,0.049920,-0.337182
0.145841,0.935960,0.630914,0.460648,0.725182,-0.511775
-0.168582,-0.341564,-0.614092,-0.417994,0.379131,-0.825555
-0.260852,-0.124955,0.078857,0.156487,0.531478,0.832492
-0.181047,-0.011117,0.898112,0.318649,0.874481,-0.365713
-0.280857,-0.820688,0.456005,-0.550101,0.832843,0.061331
0.199410,0.421487,-0.965587,0.226098,0.244124,0.943018
0.387340,0.270352,0.869616,-0.363666,0.879398,0.307257
-0.646988,0.219837,0.503839,0.746048,-0.472919,-0.468785
0.239640,0.445873,0.828842,0.099137,-0.850128,0.517160
-0.298787,0.053333,0.874323,-0.267471,0.956404,-0.117263
0.325571,0.700190,0.716609,-0.051423,-0.907796,0.416249
0.060458,-0.127926,0.845199,-0.665266,0.686190,-0.294219
0.086041,-0.244633,0.612624,-0.274659,-0.024184,-0.961238
0.222804,0.652749,0.551439,-0.659154,0.687541,-0.304638
-0.117523,0.736257,0.364834,0.536834,0.612316,-0.580412
-0.690060,-0.299144,0.282634,0.723482,-0.686498,0.072762
0.116429,-0.081920,0.743963,-0.234318,-0.824579,0.514941
-0.184543,-0.361340,0.668239,0.343677,0.890309,0.298724
-0.051490,0.839644,0.459919,-0.056902,-0.152284,0.986697
-0.161583,0.563298,0.338296,-0.630542,-0.580073,0.515686
0.487263,-0.369024,0.548993,0.064594,0.898274,0.434663
-0.627750,-0.175265,0.620569,0.747209,-0.543363,0.382669
-0.171972,0.152416,0.110008,0.003516,-0.742964,0.669322
-0.367008,0.018188,-0.392188,-0.487458,-0.392104,0.780154
0.065816,0.267893,-0.565955,0.654664,0.629837,-0.417996
-0.188147,-0.056816,0.478838,-0.376016,-0.926551,0.010754
-0.224119,0.489728,0.752327,-0.285089,-0.869015,0.404397
-0.623700,-0.126185,0.574855,0.896500,0.241875,0.371194
-0.093802,-0.409191,0.556006,-0.436816,0.890433,0.127751
0.017165,-0.191454,0.046890,0.960524,0.067879,-0.269789
-0.712914,-0.600696,0.421918,0.986618,-0.010566,-0.162707
0.006449,0.601722,0.441443,0.865082,-0.398972,0.304064
0.016838,0.399047,-0.614837,0.384234,-0.708879,0.591485
-0.640649,-0.266765,0.402952,-0.189483,-0.874440,0.446600
-0.491747,0.396691,0.384639,0.854933,0.481659,-0.192597
-0.077733,-0.021261,0.819662,0.022036,-0.812251,0.582892
0.373781,0.399765,0.777723,0.972291,0.121846,-0.199507
0.258223,-0.005072,0.693845,0.975007,-0.008017,0.222028
0.391604,-0.352733,0.370845,0.904995,0.398365,-0.149297
-0.109542,0.167376,0.715840,0.340155,0.481460,0.807769
-0.511205,0.545366,0.502813,0.371072,0.882639,0.288536
-0.344595,0.458989,0.518843,0.190882,-0.808493,0.556690
-0.322181,-0.440955,0.334918,0.211949,0.837322,0.503953
-0.278782,-0.093088,0.747760,0.231440,-0.418423,0.878269
-0.129227,-0.574978,0.546919,-0.383388,-0.639163,0.666697
-0.058383,0.429070,0.613509,0.771684,0.096914,-0.628579
0.103857,0.695784,-0.972623,0.086315,0.193113,0.977373
-0.718486,0.191147,0.521290,0.369148,-0.858385,-0.356237
0.053458,0.239510,0.698575,0.408526,0.894171,0.183208
-0.570352,0.374866,0.707499,0.283750,-0.903914,0.320040
-0.142779,0.359291,0.873461,-0.151156,-0.928683,0.338674
-0.292121,0.449153,0.641911,0.254507,-0.575990,0.776828
-0.525858,-0.181412,0.589045,0.856131,0.032230,0.515752
-0.217994,-0.122496,0.431121,0.454788,0.751266,-0.478296
-0.140590,-0.123110,0.517539,0.836944,0.432473,-0.335398
-0.002406,0.319125,-0.954520,0.017255,0.205845,0.978432
0.489012,0.677750,0.387178,0.431339,0.846559,0.311904
-0.656610,-0.041344,0.443773,0.585811,-0.138652,0.798499
-0.012902,0.443517,0.159939,0.940380,0.283988,-0.187182
-0.000551,0.295354,0.902841,0.146184,0.962250,-0.229578
-0.315622,-0.501819,0.553560,-0.256027,0.847229,-0.465460
0.160595,0.326811,0.785319,-0.041792,0.002238,0.999124
0.242049,0.428045,0.720686,-0.571391,-0.363334,0.735867
0.158300,0.029254,0.925046,0.950472,0.272916,-0.148731
-0.256695,-0.157334,0.743007,0.347894,-0.014459,0.937422
0.425167,-0.055382,0.533242,0.708344,0.141911,-0.691455
0.138515,-0.563604,-0.146169,0.731334,-0.682019,-0.000583
-0.110416,-0.091244,0.534687,-0.555201,0.098832,0.825823
-0.775117,-0.051283,0.461550,0.878575,-0.121057,0.462007
-0.739258,0.005687,0.490302,0.323937,-0.935079,0.143845
0.081337,-0.078641,-0.533592,-0.645984,0.750211,0.141025
0.205202,0.740458,0.622736,0.844131,-0.405913,-0.350253
0.644252,-0.065935,0.562297,0.683766,0.685032,0.251385
-0.498200,-0.717198,0.533708,0.895946,-0.206149,0.393425
0.119598,0.181516,-0.296613,0.937507,-0.304987,0.167523
-0.714222,0.067473,0.529491,-0.458881,0.309927,-0.832690
0.272436,-0.510835,-0.719498,-0.237214,-0.971412,0.009414
-0.432928,0.775296,0.522758,0.493282,0.830517,-0.258677
0.471409,0.298017,-0.964492,-0.142262,0.133563,0.980776
0.307861,0.684718,-0.976421,0.034576,0.270912,0.961983
-0.112718,-0.245350,-0.675346,0.678193,-0.458284,-0.574482
0.286542,-0.271889,0.835692,-0.296697,0.931181,-0.211832
0.242155,-0.073416,0.740584,0.817356,0.349072,0.458343
0.595601,0.270147,0.694405,0.868920,0.112301,-0.482044
-0.343394,0.162150,0.278137,-0.492525,0.606832,-0.623838
-0.952551,-0.216455,0.080441,0.902588,0.363300,-0.230973
0.267078,-0.551923,0.621384,0.370584,0.898814,-0.234096
-0.027221,0.379067,0.053507,-0.779448,-0.261764,0.569158
0.056414,-0.228341,0.637601,0.918387,-0.323780,-0.227445
0.506834,-0.282135,0.290509,0.920109,0.391657,0.001950
-0.099159,0.256622,0.835995,0.213389,0.887161,-0.409158
-0.226742,0.284185,0.626720,0.883330,-0.466069,-0.050077
0.601833,-0.150161,0.413204,0.861368,0.231201,-0.452317
0.102002,0.618321,-0.049243,0.009366,-0.989147,0.146628
-0.524984,0.638302,0.362248,0.038231,-0.114586,0.992677
-0.156011,0.067678,0.526253,-0.650129,-0.403531,0.643812
0.019134,0.133153,0.798367,0.575236,0.117809,-0.809459
0.221163,-0.068702,0.675229,0.858884,-0.184548,-0.477766
0.214824,0.333265,0.653770,0.962572,0.265770,0.053125
0.158633,-0.065321,-0.845828,-0.081565,0.961232,0.263400
0.197876,0.396281,0.488577,0.438568,-0.874837,0.205715
-0.537335,-0.443824,0.138643,-0.656948,0.222041,-0.720498
-0.338803,0.880014,0.561272,0.435266,-0.799264,0.414392
0.124956,-0.000153,0.716073,-0.131821,-0.382900,-0.914336
0.476440,-0.395358,0.535689,0.796793,0.537363,0.276335
-0.884115,0.070445,0.221776,0.272107,0.754319,-0.597462
-0.089865,0.386034,0.879332,-0.477884,0.547991,-0.686536
-0.023398,0.486757,-0.956663,-0.047475,0.175624,0.983312
0.233628,-0.374455,0.349573,-0.293426,-0.030774,0.955486
0.444191,0.679698,0.523130,0.039059,-0.721419,0.691396
-0.301302,0.810236,0.536947,-0.442881,0.318873,-0.837959
0.167595,-0.358061,0.454001,0.794594,0.378316,0.474865
0.093908,-0.241149,0.523573,-0.441455,0.807188,-0.391873
-0.620858,-0.588400,0.419355,-0.349874,0.384863,0.854089
-0.107687,0.315335,0.636715,-0.045897,0.997940,0.044829
0.057068,0.446488,0.504840,-0.268235,0.364110,-0.891893
-0.346783,0.297198,0.546989,0.903077,-0.237953,-0.357534
0.064281,0.304268,0.849183,-0.015394,-0.759201,0.650674
-0.387233,0.173729,0.722364,0.996427,0.060865,-0.058550
0.593640,0.004150,0.475367,0.805599,0.390382,0.445660
0.267518,0.204160,-0.956547,0.194804,0.063023,0.978815
0.262053,-0.308673,0.544706,-0.294271,0.704355,0.645979
-0.237671,0.640863,0.555889,0.763794,0.081285,0.640321
-0.463102,-0.342076,0.357681,-0.557504,0.740988,0.374335
0.317370,0.496082,0.659991,0.282588,0.922065,0.264461
-0.569478,0.357856,0.528023,0.953321,-0.167590,-0.251183
0.254726,0.453251,0.855311,-0.417207,-0.858934,0.296936
-0.634964,0.171065,0.448829,0.957730,0.271911,-0.093899
0.629278,0.572519,0.490395,0.732851,-0.265989,-0.626242
-0.103644,0.341258,0.420380,-0.177852,0.365370,0.913714
-0.035315,0.093295,0.857664,0.494307,0.392812,-0.775473
0.453700,0.024540,-0.544822,-0.081664,0.318060,0.944547
0.285995,-0.482453,0.510665,0.783547,-0.225454,-0.578985
0.160488,-0.177212,0.570125,-0.661354,-0.558993,-0.500138
0.506501,0.073108,0.650508,-0.486680,-0.694586,0.529805
0.270468,-0.257441,0.756125,0.247258,-0.966024,0.075237
-0.201813,0.946412,0.405538,-0.009910,-0.917189,0.398330
0.055427,0.292177,0.591817,0.267189,0.945782,0.184680
-0.254620,0.177520,0.133051,0.293082,0.945797,0.139898
-0.587628,0.592295,0.289181,0.271195,0.880023,-0.389887
-0.854382,-0.016137,0.159100,-0.642152,0.630154,0.436517
-0.585873,0.006405,-0.539883,0.735038,0.656205,-0.170630
-0.575930,0.459809,0.083144,0.202275,-0.815930,-0.541612
-0.316937,-0.672831,0.477161,-0.517712,-0.060439,0.853418
0.406691,0.035299,0.845432,0.917461,-0.114424,-0.381015
0.069639,-0.059787,0.834527,0.955770,0.255460,0.145756
-0.540285,0.282546,0.661226,-0.045018,-0.945474,0.322573
-0.005248,-0.002100,0.834038,0.769503,0.129351,0.625407
-0.371379,-0.411445,-0.353767,0.507903,-0.543325,-0.668456
-0.150980,-0.671602,-0.003064,0.207174,0.847074,0.489432
-0.329401,0.489728,0.453791,0.592590,0.511045,0.622631
0.525638,-0.527639,-0.271357,0.706721,0.698424,-0.112912
0.340764,0.322814,0.587274,0.440097,-0.264588,-0.858084
0.097411,0.309084,0.757872,-0.160845,-0.922103,-0.351930
-0.754018,-0.264409,0.091788,0.067071,-0.353507,0.933024
0.325350,-0.201290,0.515535,-0.331100,0.765895,0.551160
-0.082872,0.386137,0.854681,-0.026895,0.958022,0.285429
0.223678,0.307854,0.824835,-0.700305,0.046008,-0.712359
-0.198970,0.268918,0.838838,0.390968,0.856793,0.336229
0.196454,0.072699,-0.453442,-0.715917,0.695827,-0.057332
-0.050616,0.387879,0.601114,-0.446769,0.556962,0.700136
-0.233408,0.289410,0.797342,0.759181,-0.522789,0.387732
-0.293215,0.484708,0.817053,0.762311,0.352461,-0.542819
-0.269160,0.560326,0.818940,-0.640421,0.430213,0.636222
0.398269,0.113480,0.587111,-0.151078,-0.975826,0.157920
0.239092,0.566781,0.703538,0.046697,-0.773693,0.631838
-0.123542,-0.159383,0.673971,0.841068,0.374519,0.390308
0.222037,0.433476,0.723063,-0.480455,-0.117600,0.869099
0.260959,0.952559,-1.000000,0.138916,0.213398,0.967039
-0.653874,-0.328654,0.095027,-0.531771,0.332793,0.778761
0.132503,0.722630,-0.976631,-0.119354,-0.091404,-0.988635
-0.093254,0.843333,0.449504,0.736949,0.434584,-0.517729
0.124082,-0.110917,0.301017,0.562424,-0.517348,0.645004
-0.444078,0.375276,0.386246,0.864756,0.492067,-0.100335
-0.277247,0.854398,-0.081793,0.860948,0.124588,0.493200
0.004921,-0.003534,-0.334056,0.909409,-0.221479,-0.352027
0.104844,0.357345,0.788767,0.360755,-0.835213,0.415061
-0.420030,-0.550796,0.418167,-0.615185,0.380148,0.690677
0.579533,0.673651,0.283659,-0.582108,0.802966,-0.128047
-0.276159,0.004355,0.743357,-0.382005,-0.191143,-0.904177
-0.081010,0.272505,0.855404,0.602807,0.365112,-0.709448
0.361756,-0.113684,-0.069561,0.697351,0.419111,0.581419
-0.664043,0.201804,-0.615070,0.593578,-0.570754,0.567366
0.113919,0.171167,-0.339741,0.825656,-0.549541,-0.127655
0.491414,-0.290230,0.307354,-0.010576,0.976449,0.215490
-0.679350,-0.205799,0.618425,0.733951,-0.530976,0.423533
-0.274518,0.718531,0.517282,-0.648506,-0.706620,0.283069
0.251450,-0.143091,0.821992,0.369910,0.549982,0.748790
0.618782,-0.043906,0.575717,-0.019565,0.910383,0.413305
-0.555372,-0.052410,0.413740,0.906427,-0.330331,-0.263193
-0.030938,0.747119,0.459290,0.859391,0.241633,-0.450622
0.322621,0.599058,-0.974977,-0.054440,0.135045,0.989343
-0.047233,0.852144,-0.311968,-0.675936,0.698142,0.236025
-0.371272,0.037246,-0.943965,-0.216621,0.228491,0.949140
0.208592,0.394846,0.411014,0.619428,-0.346365,-0.704514
-0.019020,0.097803,0.914724,0.510815,-0.128223,0.850075
-0.466605,0.844254,-0.027365,0.968159,0.086871,0.234780
-0.769325,0.243711,0.291022,-0.098140,-0.919904,0.379664
-0.250683,0.247093,0.709386,-0.821600,0.132614,-0.554426
-0.177437,-0.023925,0.675416,0.948915,0.297599,-0.104858
-0.239533,0.777243,0.524016,0.350620,0.572342,-0.741276
0.668414,-0.244224,0.292396,0.879008,-0.294692,0.374835
-0.305346,0.239510,-0.952702,0.133547,-0.043766,-0.990076
-0.292995,0.606025,0.582917,0.678089,0.710397,-0.188498
0.296711,-0.204159,0.817076,-0.696057,-0.285694,0.658699
0.310263,0.226907,0.849229,0.128729,-0.888515,0.440420
0.022190,0.113275,0.836811,-0.635606,0.142923,-0.758668
0.039906,-0.210615,0.526066,-0.222170,0.670671,-0.707701
0.185084,0.713510,0.370915,0.908977,0.229411,-0.348040
-0.138081,0.048722,-0.237596,0.384797,-0.394444,0.834473
0.215151,-0.444643,0.564068,-0.643362,0.509414,-0.571474
0.092487,-0.567703,0.588555,0.330093,0.793194,0.511743
0.511532,0.557765,0.459197,0.676651,-0.141984,-0.722484
0.240841,0.724576,0.568098,0.768123,-0.159238,0.620186
0.041761,0.147498,0.869546,0.114143,-0.776177,0.620097
-0.089978,-0.483990,0.669870,0.477629,0.867551,-0.138661
-0.585219,0.159384,-0.482380,-0.910134,-0.360032,0.205022
-0.591891,0.247400,0.504281,0.069378,0.521170,0.850628
0.109436,0.250986,0.725137,-0.523457,0.621782,-0.582563
-0.096644,-0.657462,0.567726,0.729433,0.629350,-0.268042
-0.352682,0.927762,0.157120,0.238648,0.969884,0.048702
0.253959,-0.034581,0.394098,-0.247659,-0.703017,0.666658
0.371599,0.081408,0.833036,-0.774838,0.180431,0.605864
0.341532,0.351811,-0.311013,-0.199861,0.659159,-0.724959
-0.183122,0.153134,0.564277,0.982119,0.133034,0.133206
0.138408,-0.549054,0.592912,0.367713,-0.472844,-0.800753
0.308295,0.639633,0.689465,0.959075,0.068278,-0.274795
0.199844,-0.004662,-0.208169,0.893025,-0.443007,-0.079065
-0.613751,-0.294943,0.415161,-0.858934,0.301200,-0.414139
-0.031485,-0.597315,0.579492,-0.220787,-0.409108,0.885372
-0.080790,0.138891,-0.546547,0.982696,-0.185016,-0.008837
-0.506394,-0.188380,0.363017,0.753924,-0.312346,0.577960
-0.981416,-0.051078,0.117883,-0.271263,-0.656744,0.703636
-0.351921,0.205698,-0.953424,-0.034750,0.230782,0.972385
-0.078821,0.759517,0.391931,0.239181,0.784509,-0.572135
-0.083085,0.045853,-0.444891,0.027964,0.973799,0.225685
0.586420,-0.161944,0.564627,0.552449,0.067028,-0.830847
0.266864,-0.444131,0.428092,-0.433917,0.874466,0.216854
0.601286,-0.163481,0.435991,0.927635,0.236797,0.288827
0.081230,0.105282,0.934016,0.587780,0.743564,0.318791
-0.744289,-0.121061,0.435897,0.925577,0.009366,0.378443
0.103089,0.041960,0.959739,0.729532,0.676969,-0.097443
0.044603,-0.168297,0.617866,-0.352980,0.093000,-0.930997
-0.282058,0.307649,0.473736,0.612643,0.356150,-0.705568
0.274952,0.209284,0.465348,-0.637638,-0.641806,-0.426032
0.648302,0.388596,0.153788,0.832188,-0.138500,-0.536917
-0.144968,-0.289103,0.636739,0.241940,0.933592,0.264331
-0.356732,-0.513090,0.382192,0.615088,0.746487,0.253819
-0.115228,0.284902,0.860436,0.669074,0.671451,-0.318580
0.178091,0.741176,0.573364,-0.302982,-0.948234,-0.095158
0.336614,0.319843,0.846480,-0.703987,0.487066,0.516884
0.190442,0.416979,0.640420,0.906442,-0.421512,0.026276
-0.656063,0.115938,0.518541,-0.632953,0.489497,-0.599803
0.211541,0.108869,0.662345,0.989113,-0.024797,-0.145054
-0.532197,-0.266048,0.327112,-0.814628,0.558803,0.155308
0.182575,0.101286,0.762416,-0.469857,-0.741134,0.479536
0.739585,0.663405,0.391978,0.924441,0.191957,0.329487
-0.029844,0.644347,-0.973252,-0.082897,0.269586,0.959401
0.177323,0.380501,-0.961882,-0.105532,-0.209043,-0.972195
-0.610695,-0.611045,0.385594,0.249458,0.649455,0.718317
0.153709,-0.061734,0.713254,-0.624513,0.031724,0.780370
-0.093475,0.053333,0.754540,-0.494581,0.856042,-0.150272
0.155790,0.108972,-0.639861,0.606399,-0.787958,0.106785
-0.867280,0.018905,-0.313645,-0.474538,0.709480,-0.521011
-0.154476,-0.252215,0.614767,-0.163202,-0.606285,-0.778321
0.194379,0.826733,0.601067,0.445527,0.840788,-0.307540
-0.731057,0.373842,0.405305,0.882183,-0.404102,-0.241775
0.613751,0.606538,0.470404,0.685977,0.148539,-0.712300
-0.603475,0.206107,0.541048,-0.615229,0.775380,-0.142408
-0.023945,0.344024,-0.961323,0.049101,-0.164085,-0.985223
-0.692796,0.039808,0.469891,-0.053495,0.925168,0.375770
0.417400,-0.371893,0.444821,0.894161,-0.028121,-0.446861
0.323822,-0.300885,0.349084,0.292286,0.715129,-0.634948
0.408546,-0.225985,0.791913,0.900023,0.408320,0.152427
0.277360,0.810339,-0.991636,0.054883,0.088705,0.994545
0.161689,0.345766,0.780939,0.260358,-0.005363,0.965497
0.210667,0.893438,0.626207,-0.467688,-0.712233,0.523443
-0.306113,0.552232,0.648202,0.854856,-0.460213,-0.239634
-0.517331,-0.464418,0.401368,0.232950,-0.967601,0.097382
-0.442770,-0.593933,0.445054,-0.523363,0.829586,-0.194621
0.318244,0.411548,-0.965191,0.106718,0.285456,0.952432
0.069860,-0.249346,0.590978,0.928530,-0.371197,-0.006707
0.199190,0.876941,0.617982,-0.658151,-0.482441,0.578003
-0.415439,0.150777,-0.948369,-0.116163,0.180079,0.976769
0.276920,0.016036,0.775673,0.790375,0.304628,-0.531516
0.185197,-0.561555,0.542050,0.697404,-0.713928,0.062728
-0.578987,-0.619242,-0.342583,-0.169802,-0.664524,0.727719
0.575597,0.250372,0.624716,0.835150,0.303572,-0.458659
0.022083,0.212050,0.845665,0.762133,0.327737,0.558338
0.415105,0.235720,0.385151,0.111120,-0.765710,0.633514
0.281291,-0.315641,0.511527,0.938467,0.297387,-0.175615
0.532744,-0.275885,0.443586,-0.753727,0.645992,-0.120791
-0.533072,-0.554177,-0.341768,0.465788,-0.640796,0.610263
-0.661968,0.217276,0.428139,-0.613429,-0.665121,-0.425816
0.231659,-0.630616,0.343142,0.543028,0.819437,-0.183421
-0.112605,-0.020954,0.722411,-0.449255,0.836058,0.314924
0.559308,0.659922,0.461131,-0.685507,0.610881,0.396112
-0.420030,0.288796,0.646315,0.412778,-0.445768,0.794295
0.461133,0.179978,0.635550,0.968638,0.237598,-0.072717
0.116648,0.360214,0.788441,0.360755,-0.835213,0.415061
0.255381,-0.436447,0.555097,0.555247,0.393846,0.732521
-0.245545,0.300579,0.819849,-0.610164,0.397654,-0.685252
0.176776,0.266254,0.650835,0.871503,-0.184443,-0.454383
-0.048321,0.082228,-0.584152,0.128904,0.788437,0.601457
-0.238766,-0.049848,0.803912,-0.663604,0.747621,-0.026315
-0.607412,-0.165121,-0.896900,-0.229483,0.802332,0.551000
0.239860,-0.276397,0.827142,-0.074538,0.989580,0.123193
-0.198096,-0.217582,-0.378185,-0.606772,0.672880,0.423154
-0.316496,-0.243096,0.451252,0.920821,-0.296583,0.253235
0.640862,0.599775,0.518238,0.903369,0.381021,0.196843
0.090632,0.263385,0.441629,-0.224580,0.414378,0.881961
0.020555,0.321585,0.935134,0.980157,-0.173677,0.095540
-0.812838,0.006814,-0.952213,0.029032,0.222058,0.974601
0.276593,0.397921,0.541817,-0.321527,0.520878,0.790764
-0.109763,-0.053742,0.584571,0.199406,0.308526,0.930080
-0.006236,0.300374,0.884877,0.807650,0.544732,-0.225764
0.049962,0.178544,0.200037,0.917443,-0.028156,0.396871
-0.360009,0.568318,0.279185,0.724270,0.585016,-0.364951
0.429978,-0.168195,-0.144631,-0.718931,-0.294553,0.629584
0.078714,-0.035606,0.785412,0.718531,0.647755,-0.253234
0.237451,0.433168,0.738347,0.748752,-0.658138,0.078900
-0.967204,-0.137865,0.067557,0.962884,0.265388,-0.049232
-0.075438,0.970799,0.452580,0.737785,0.499857,0.453670
-0.096097,0.095343,0.876886,0.917125,-0.201266,-0.344055
-0.547064,-0.490548,0.410711,0.015750,-0.871122,0.490815
-0.421124,0.608587,0.450296,-0.034359,0.239877,0.970195
0.059911,-0.299862,0.344820,-0.651231,-0.208851,0.729574
-0.829012,-0.267380,0.094071,0.204590,-0.710053,0.673771
-0.217994,0.047800,0.865539,-0.512754,-0.674630,-0.530997
0.029623,-0.276397,0.620639,0.775177,0.630072,-0.045941
0.431947,0.419848,0.662345,0.932813,0.338266,0.124242
0.344374,-0.219324,0.821876,-0.682167,-0.730763,-0.025178
-0.531210,-0.707157,0.544147,-0.799309,-0.352441,-0.486715
0.102656,-0.280291,0.497082,-0.240975,-0.706661,0.665252
0.498520,-0.012449,0.455492,-0.528619,0.793867,0.300561
-0.546084,-0.532967,0.449015,0.870164,0.008527,-0.492688
0.163331,0.116656,0.787859,-0.537459,0.704071,-0.464136
-0.571880,-0.230493,0.563252,0.859002,-0.485909,0.161268
0.379906,0.006712,0.420030,0.989508,-0.047385,0.136486
0.289385,0.359906,0.815911,0.993406,0.040786,0.107152
0.122988,0.185000,0.702839,0.230525,-0.156581,0.960386
-0.057175,-0.625185,0.540092,0.473965,0.167407,-0.864484
0.207277,0.566474,0.645686,-0.454589,-0.722130,0.521418
0.442223,0.013269,-0.118792,-0.298235,0.497144,0.814803
-0.114140,0.083047,0.604399,0.150508,0.558281,0.815886
-0.089978,0.237769,-0.950605,0.032476,0.362681,0.931347
0.300314,0.420770,0.809527,-0.147988,0.880055,-0.451223
-0.854709,0.022594,0.502441,-0.443205,-0.786475,-0.430147
0.181040,-0.035094,0.473619,0.334883,0.608824,0.719157
-0.093695,-0.104667,-0.133331,0.891003,-0.428844,0.149019
-0.338363,0.302936,0.293608,0.375159,-0.254809,0.891251
-0.169783,0.691378,-0.382635,0.554635,-0.715653,0.424524
-0.011480,0.300579,0.905101,0.863181,-0.450575,0.227816
-0.097738,-0.667810,0.533825,0.758510,0.367674,-0.538033
0.447574,0.956863,-0.993034,0.082822,0.264742,0.960756
0.217887,0.038271,-0.945642,-0.282838,-0.505486,-0.815160
0.153275,0.598238,-0.966286,-0.032273,0.126533,0.991437
-0.311251,-0.856857,0.525204,0.943868,-0.316507,-0.094529
0.154803,0.944055,-0.984459,0.227742,0.176168,0.957653
-0.195253,0.463702,-0.276692,-0.132164,0.037681,0.990511
-0.016292,0.194427,0.879891,0.851356,-0.145653,-0.503963
-0.367989,-0.516573,-0.086662,0.870890,-0.158916,-0.465077
0.286215,-0.373430,0.317746,-0.780854,0.455263,0.427787
0.344921,0.594345,0.704307,-0.042485,0.996509,0.071861
0.092814,0.821712,0.007933,0.245698,-0.168725,0.954549
-0.008638,0.099544,-0.855078,-0.061282,0.968466,0.241491
-0.241935,0.119730,-0.090017,-0.600645,-0.257452,0.756931
-0.221056,0.411855,0.725300,0.272998,-0.536924,0.798239
0.329067,0.481839,0.493074,0.814953,-0.574487,0.076262
-0.144968,-0.023207,0.705915,-0.368759,-0.774301,0.514271
0.451838,0.392080,0.798110,0.892064,0.338807,-0.299052
-0.097518,0.009991,0.717494,0.297634,0.410440,-0.861947
-0.245325,0.131513,0.488787,0.776121,0.567345,0.275237
0.768010,0.619448,0.227181,0.300707,-0.819003,0.488681
-0.760577,0.172397,0.529771,-0.304721,0.923684,0.232276
0.389855,-0.533890,0.585433,0.610265,0.501192,-0.613501
0.302937,0.461346,0.736973,0.042223,-0.942163,0.332484
-0.356072,-0.951432,0.492934,0.850940,-0.519009,-0.080811
-0.335413,0.628772,0.558942,0.652824,-0.499715,0.569304
0.070293,0.145039,0.977469,0.772420,0.629471,-0.084463
-0.539958,-0.573543,-0.337807,-0.454785,0.636757,-0.622664
0.189568,0.304985,0.557567,-0.664442,-0.640289,-0.385418
-0.735655,0.189406,0.493307,0.874419,-0.470563,-0.118161
-0.278235,0.300374,0.279954,-0.462863,0.221181,-0.858392
0.017926,-0.153133,0.588043,0.891536,-0.145853,0.428826
-0.532965,0.287771,0.642191,-0.235264,-0.886896,-0.397576
0.344595,0.093397,0.800836,0.944139,-0.309237,-0.113907
-0.591344,-0.475280,0.413017,-0.129828,0.977807,0.164433
0.284133,-0.549157,-0.829542,0.984244,0.141000,0.106692
-0.635731,0.099544,0.518913,-0.352225,-0.864937,0.357521
0.602821,0.544650,0.132702,-0.708454,0.556612,0.433907
0.361103,0.766382,-0.985252,0.057297,0.263705,0.962900
0.227502,-0.558071,0.322616,0.782663,0.336087,-0.523912
0.201158,0.919567,0.366512,-0.050389,0.996446,0.067498
-0.346890,0.441570,0.738767,0.985279,-0.136975,0.102289
-0.387120,-0.054870,0.623108,-0.019635,0.742679,0.669360
0.061659,0.041140,0.799555,0.171688,0.983909,0.049455
-0.197882,0.428147,0.625881,-0.698426,0.699601,-0.150860
0.497319,0.183975,0.637041,-0.100242,0.136378,0.985572
0.129767,0.314003,0.668169,0.569814,-0.784108,0.245940
0.431286,0.549055,0.445963,0.743187,0.033883,-0.668225
-0.344375,-0.004047,-0.133517,-0.069240,0.432325,0.899055
-0.805731,-0.111942,0.473969,0.984406,-0.149556,0.092612
-0.084293,0.001998,0.849113,0.340502,0.739672,0.580469
-0.296818,0.568729,0.816191,-0.501587,0.747417,-0.435635
-0.096317,0.544342,0.455492,-0.062433,-0.938362,0.339969
0.266317,0.169425,0.599925,-0.658916,0.319209,0.681128
0.413904,0.340848,0.775510,0.980717,-0.192991,-0.030793
-0.068332,0.663098,0.441047,-0.542399,-0.148832,0.826833
0.078167,0.099033,0.926956,0.578318,0.782167,-0.231869
0.567616,0.182131,0.660993,0.942066,0.276168,0.190374
-0.750081,0.282340,0.420729,0.592014,0.650909,0.475224
0.343827,-0.270556,0.828633,0.381734,-0.801372,0.460524
0.602381,-0.226189,0.416932,0.994140,0.099213,-0.042933
0.455668,0.376403,0.797947,-0.501316,0.829645,0.245706
-0.667653,-0.487883,0.406657,0.169495,-0.900886,-0.399595
0.482893,-0.485014,0.617656,-0.179687,0.718798,0.671597
0.318904,-0.249859,0.854309,0.777896,0.585300,0.228696
-0.487371,0.399047,0.675788,0.898551,-0.392531,0.196279
0.203674,-0.277115,0.585992,0.926413,0.270708,0.261680
-0.148031,0.978073,0.537413,0.937584,0.015814,0.347400
0.029410,-0.362774,0.038339,-0.083471,0.158649,0.983800
-0.784846,-0.095548,0.489929,-0.370613,-0.494300,0.786329
0.055320,0.471694,-0.152343,-0.393869,0.861042,0.321673
-0.317043,0.570778,0.838279,0.814587,0.522358,-0.252170
-0.402207,0.529280,0.514626,0.331442,0.943168,-0.024089
-0.040233,0.241765,0.827817,0.777357,0.597762,0.195952
-0.331910,0.565860,0.556286,-0.130365,-0.972694,0.192020
-0.145729,0.031406,0.776885,0.714374,-0.593017,-0.371484
0.650050,-0.180388,0.593774,0.883288,-0.093134,-0.459488
-0.363839,-0.408268,0.449900,0.925625,-0.323582,-0.196247
-0.329181,-0.025053,-0.659805,-0.723523,0.304994,-0.619268
-0.535367,-0.049439,0.560270,0.296450,0.818297,0.492451
0.239420,0.129976,0.690444,0.992560,-0.083901,-0.088229
-0.192083,0.281316,0.527091,-0.169883,0.128987,-0.976986
-0.303378,0.665044,0.004998,0.774834,0.632025,0.013304
0.315949,-0.582457,0.493983,0.952475,0.213652,-0.217127
0.304578,0.526104,0.816307,0.938139,-0.333955,-0.091485
0.172185,0.427020,0.626487,-0.534491,0.512379,-0.672151
0.532197,0.426713,0.424085,0.290383,-0.503618,0.813662
-0.572320,0.066551,-0.942614,0.210399,0.432352,0.876814
0.423853,0.134075,-0.123732,0.274461,0.091840,-0.957202
-0.415325,0.784313,0.473596,-0.156602,-0.625264,0.764539
-0.474692,0.469031,0.535502,-0.306217,-0.944879,0.115907
0.450203,0.020135,-0.927632,0.109805,-0.596252,-0.795252
0.693890,0.567704,0.533895,0.744401,0.657116,-0.118599
0.312012,-0.214201,0.808479,0.973499,-0.222894,0.051168
-0.605117,0.261028,0.526090,0.947900,-0.162775,-0.273844
-0.215919,0.047492,0.504211,0.863656,0.056830,-0.500868
-0.168469,-0.334904,0.344214,0.787836,-0.401199,0.467283
-0.175248,-0.137045,0.734177,-0.043061,-0.993729,0.103191
0.156118,0.255700,0.495940,-0.413584,0.126963,0.901570
-0.191209,0.464010,-0.964422,0.074406,0.279402,0.957287
0.302283,0.576311,0.797342,0.242164,-0.902324,0.356605
-0.033894,-0.022286,-0.263109,0.831167,-0.555976,0.007226
0.034107,0.289923,0.940284,0.980373,-0.148112,0.130120
-0.668854,-0.618115,0.360361,0.345531,0.892464,0.290027
-0.360336,-0.275065,0.360058,-0.586732,0.144320,-0.796817
0.384170,0.210718,-0.734596,-0.426769,0.710643,-0.559335
-0.066797,-0.355295,0.796386,0.857376,0.326345,0.398002
0.031812,0.167991,0.984529,-0.764692,0.610553,0.206085
0.401659,0.258876,0.878657,-0.363666,0.879398,0.307257
-0.884335,-0.068702,-0.946574,0.154435,-0.490686,-0.857541
-0.010493,-0.143501,0.886625,0.762255,-0.603342,-0.234404
0.238332,0.751115,0.567003,-0.598719,0.535250,-0.595855
-0.181808,0.476306,0.725253,-0.339351,-0.927831,0.154823
0.396088,-0.339003,0.843428,-0.184731,-0.982381,0.028321
-0.021757,-0.492597,0.592027,-0.313843,0.135586,0.939744
0.228269,0.302014,0.769266,0.368019,0.449708,-0.813834
-0.407345,-0.132435,0.785272,0.458809,0.870932,0.175987
-0.196895,0.346689,0.731730,0.577150,-0.534561,0.617368
-0.057289,0.050772,0.069724,-0.309811,0.760186,-0.571082
0.642617,-0.279163,0.370123,-0.498017,-0.866765,0.026408
0.515796,-0.053025,0.550391,0.784219,-0.211248,-0.583416
0.307534,-0.224243,0.694684,0.012479,0.811767,0.583848
-0.159727,0.768943,0.546523,0.903297,0.246932,0.350825
0.556686,0.204878,0.688114,-0.610803,-0.513725,0.602500
-0.125397,-0.405604,0.486411,0.240458,-0.523764,-0.817222
0.024158,0.038373,0.743683,0.707256,0.617768,-0.343732
-0.377391,-0.037552,0.631613,0.460035,-0.829719,-0.316125
-0.096210,0.315949,0.731381,0.530535,0.836601,-0.136496
0.026127,0.160921,-0.258729,0.854862,0.435326,0.282316
-0.180280,-0.023412,0.589371,-0.041073,0.996016,-0.079152
-0.090412,0.594242,0.639115,-0.557289,0.731015,-0.393759
0.223572,0.369128,0.852538,0.597554,-0.039225,-0.800869
0.397289,0.628465,0.439392,-0.486904,0.179942,0.854719
0.337268,-0.182335,0.791097,0.635694,0.733578,-0.240324
0.477421,0.139608,0.646245,0.806943,0.295871,-0.511178
0.177216,-0.315948,0.377765,0.295233,0.771092,-0.564140
0.259317,0.190430,0.590349,-0.648658,-0.748263,-0.139088
-0.270141,0.169323,0.795687,-0.374598,-0.896555,-0.236359
-0.258664,0.654081,-0.710085,0.958789,0.277865,-0.059289
0.012575,0.086122,-0.711530,0.864149,0.502561,-0.026039
-0.107361,-0.267790,0.771572,0.135443,-0.890885,-0.433566
-0.019681,0.166044,0.916681,-0.040162,0.379907,0.924152
0.742207,0.462370,0.491886,0.774405,0.526410,-0.350983
0.107687,0.153646,0.578909,-0.713516,0.583120,-0.388415
-0.036736,0.117579,-0.207144,0.243315,0.967394,-0.070339
-0.087569,-0.619447,0.039714,-0.441238,0.897385,0.003111
-0.390730,0.664532,0.460082,-0.215062,0.119524,-0.969259
0.367662,-0.504380,0.592353,0.741893,0.318239,-0.590185
-0.283266,0.460218,0.800254,0.316908,0.921492,0.224549
-0.271675,-0.139197,0.627768,0.184614,0.264107,0.946660
-0.393132,0.053743,0.735528,-0.435139,-0.276709,0.856788
-0.659886,-0.633997,0.439113,0.727290,0.049988,-0.684508
-0.104845,0.472617,-0.962837,-0.151529,0.304383,0.940420
0.405816,0.124238,0.403395,0.915214,0.300396,0.268600
0.448889,-0.120754,0.063945,0.493789,0.843938,-0.209623
0.162563,0.297915,0.618239,0.949944,-0.254858,-0.180705
-0.302944,-0.744146,0.513088,0.776721,-0.552388,0.302608
0.297692,-0.349659,0.735761,-0.368933,-0.915025,-0.163147
-0.094789,0.173012,0.694009,-0.250898,0.066737,0.965710
0.551221,-0.336031,0.578257,-0.252759,0.714808,0.652045
0.070186,0.546903,-0.962278,0.153336,0.255701,0.954518
-0.520827,-0.468927,0.274689,0.998263,-0.039879,-0.043366
-0.335300,0.408679,0.546430,-0.436458,-0.828661,-0.350465
0.943916,0.712691,0.237712,0.418048,-0.906057,-0.065555
0.318024,-0.472923,-0.613812,-0.262778,0.961240,0.083459
-0.193505,0.183053,0.913885,0.982596,-0.096994,0.158424
0.054773,0.119525,0.951258,-0.667525,-0.723841,0.174543
-0.058930,-0.099134,0.730239,0.068842,-0.322128,0.944190
