0.091336,0.021491,0.828754,0.759279,0.649337,-0.043102
0.102552,0.046235,0.860333,0.997002,-0.055723,0.053679
-0.253059,-0.043490,-0.147309,0.091079,0.299188,0.949837
-0.315548,0.329065,-0.158506,0.554052,0.832156,0.023287
-0.161598,-0.155615,0.010229,-0.355940,0.888150,0.290683
-0.160463,-0.085917,0.035382,0.315111,0.907005,-0.279369
-0.106071,-0.209653,0.110679,0.992043,-0.103580,-0.071568
-0.112745,-0.111174,0.128010,-0.551882,-0.758202,-0.347210
-0.083204,-0.004947,0.224695,0.909134,-0.411889,-0.061829
-0.081783,0.059366,0.248971,0.916737,0.377951,-0.129405
-0.055228,0.035291,0.296810,-0.422004,0.901251,0.098280
-0.041594,0.058698,0.332641,0.984572,-0.056712,0.165535
-0.017735,0.042700,0.377981,-0.150207,-0.903877,0.400555
0.018624,-0.021275,0.433480,0.492951,-0.851100,0.180635
0.045464,-0.052419,0.480508,-0.020579,0.946463,0.322156
0.071880,-0.079351,0.527796,0.876197,-0.296497,0.379958
0.062081,0.024019,0.541265,-0.700021,0.080668,-0.709551
0.087500,0.001958,0.586864,-0.377701,-0.918491,0.117117
0.115194,-0.029012,0.634541,0.851684,0.450358,0.267977
0.115052,0.040511,0.657585,0.291097,0.944211,0.154038
0.115619,0.105164,0.680141,-0.000972,-0.494001,0.869461
0.147999,0.050786,0.731064,0.939922,0.035603,-0.339526
0.131668,0.182599,0.738788,-0.336917,0.906861,-0.253159
0.174415,0.090511,0.798473,0.779899,-0.453103,-0.431805
-0.122544,-0.042658,-0.071428,-0.183247,-0.535445,-0.824451
-0.095704,-0.066220,-0.021544,-0.098520,0.969292,0.225314
-0.079368,-0.054434,0.017045,-0.457902,0.887889,0.044479
-0.042304,-0.118582,0.075432,0.322551,-0.944561,0.061364
-0.011914,-0.154105,0.127458,0.783730,0.583125,-0.213851
-0.019156,-0.055954,0.143199,-0.126698,-0.830941,0.541743
-0.057075,0.154660,0.131970,0.796767,0.536560,-0.277968
0.025437,-0.074306,0.232744,0.344413,-0.938083,-0.037142
0.035522,-0.038609,0.266238,0.955537,0.294338,0.017699
0.043332,0.003479,0.295967,0.908192,0.152814,0.389661
0.069323,-0.021100,0.342248,-0.423300,0.444030,-0.789718
0.105253,-0.082721,0.399077,-0.335317,-0.932720,-0.132649
0.107385,-0.019929,0.423095,-0.395903,-0.627985,0.669997
0.129397,-0.031037,0.466423,0.703712,0.671121,0.233208
0.173847,-0.125477,0.530489,-0.744164,0.634996,-0.207364
0.145160,0.051290,0.527503,-0.622097,0.225893,-0.749645
0.201685,-0.021275,0.622500,0.196260,-0.979126,-0.052862
0.220573,-0.021942,0.662648,0.682707,-0.389058,0.618502
0.192024,0.151115,0.658980,0.523438,0.804541,-0.280583
0.128400,-0.020771,0.302685,0.279884,-0.796825,-0.535477
0.162912,-0.076824,0.358249,0.174338,-0.964812,-0.196837
0.171715,-0.036760,0.389536,0.029814,0.964709,0.261627
0.160780,0.077379,0.402810,0.879916,0.273794,-0.388309
0.194724,0.020310,0.456556,0.021127,0.999757,-0.006329
0.201685,0.062398,0.485409,-0.413809,0.696908,-0.585731
0.270136,0.016940,0.616204,-0.419065,0.713144,0.561970
-0.071845,-0.087767,-0.143739,0.071596,0.864742,0.497087
-0.116862,0.146913,-0.163212,0.467434,0.758227,0.454530
-0.062046,0.023002,-0.088175,0.449477,-0.862835,-0.231269
-0.030941,-0.015377,-0.034235,-0.020101,0.181322,0.983218
0.005981,-0.079012,0.023990,0.395292,0.918325,0.020593
0.032397,-0.100899,0.073517,0.205032,0.465838,-0.860788
0.044329,-0.068911,0.108407,-0.555954,0.604002,-0.571049
0.057678,-0.045011,0.145017,0.048161,0.774067,0.631269
0.065063,-0.000056,0.174551,0.998955,0.028523,0.035720
0.099146,-0.055954,0.229498,0.247762,0.934716,0.254793
0.129254,-0.094672,0.281102,0.705386,0.220487,-0.673658
-0.040601,-0.046522,-0.146141,0.779339,0.551724,0.297037
0.033676,-0.165716,-0.028522,0.357647,-0.865653,0.350332
0.027994,-0.072117,-0.009374,-0.383475,-0.920725,-0.072190
0.040068,-0.042144,0.026360,0.501392,0.853850,-0.139807
0.064920,-0.059489,0.072414,0.086458,-0.808134,0.582619
0.070316,-0.007465,0.100390,0.610803,-0.727074,0.313500
0.093464,-0.018069,0.145925,-0.687454,0.707550,-0.163647
0.109656,-0.007803,0.184028,0.613305,0.135128,-0.778201
0.143171,-0.056797,0.239072,0.479293,0.854317,0.201048
0.178532,-0.112017,0.295025,-0.445577,-0.301646,-0.842894
0.177964,-0.038784,0.318264,-0.551520,0.661273,0.508473
0.163337,0.155493,0.349388,0.339586,-0.739427,0.581316
0.213755,0.041518,0.419265,0.698181,0.075242,-0.711956
0.323674,-0.295011,0.542011,0.351013,0.813128,0.464342
0.219861,0.157856,0.470771,-0.676702,0.720869,-0.149739
-0.009357,-0.054772,-0.164835,0.070720,-0.987920,0.137889
0.068326,-0.255451,-0.067469,0.956865,0.190884,-0.219026
0.057110,-0.144507,-0.054617,0.738120,0.661444,0.132927
0.056967,-0.072621,-0.031411,-0.462561,-0.828236,-0.316325
0.075854,-0.066220,0.010651,0.887699,0.347024,0.302597
0.093039,-0.055780,0.049565,-0.267254,0.819871,0.506347
0.110223,-0.042483,0.089323,0.140491,-0.930999,0.336901
0.128968,-0.036421,0.130704,0.696092,-0.116516,0.708435
0.127975,0.039330,0.153909,-0.501227,0.848707,-0.168727
0.251816,-0.267905,0.313623,0.130465,-0.022689,-0.991193
0.162487,0.128725,0.255008,-0.117954,-0.966920,0.226169
0.346541,-0.470607,0.446073,0.035673,-0.883302,0.467445
0.203245,0.124523,0.337932,0.736874,0.307939,0.601822
0.379774,-0.378519,0.545776,0.476160,0.729010,0.491748
0.238325,0.207517,0.439744,0.834388,-0.075286,-0.546012
0.148142,0.057353,0.132424,-0.167675,0.685463,0.708538
0.243295,-0.140294,0.266335,-0.034340,-0.825872,0.562812
0.238606,-0.051238,0.285873,-0.576762,0.467716,-0.669767
0.218865,0.094724,0.291066,-0.532447,0.448728,-0.717735
0.200120,0.302133,0.318945,0.018308,0.135223,0.990646
0.480319,-0.579187,0.618671,-0.153884,0.872705,0.463363
0.304362,0.135466,0.482390,-0.178094,0.980721,0.080434
0.039496,-0.218747,-0.182491,-0.003958,-0.030113,0.999539
0.047449,-0.173464,-0.151756,-0.393955,-0.903082,-0.171005
0.081537,-0.219251,-0.095316,0.971185,-0.238307,0.003149
0.092471,-0.185075,-0.062081,0.792511,0.028188,0.609206
0.104399,-0.078509,-0.002136,0.990732,0.123119,0.057382
0.111216,-0.027501,0.027918,-0.026006,-0.308050,0.951015
0.141892,-0.066558,0.079651,0.084370,-0.216328,0.972668
0.134650,0.029742,0.096204,0.395905,0.450220,0.800351
0.107953,-0.269086,-0.096744,-0.518927,0.853823,-0.041240
0.104117,-0.181376,-0.075842,0.861633,-0.472010,0.186536
0.096021,-0.077841,-0.060296,-0.231572,0.561014,-0.794757
0.115762,-0.075652,-0.018526,-0.548528,-0.828958,0.109302
0.116612,-0.003426,0.006237,0.884286,-0.453563,0.110990
0.146439,-0.037438,0.057095,0.249540,-0.881755,-0.400297
0.164191,-0.026495,0.097437,0.426686,-0.121243,0.896236
0.176972,0.000612,0.133170,-0.072270,-0.583702,0.808745
0.171715,0.094549,0.151735,0.149361,-0.135267,0.979487
0.373806,-0.556972,0.358736,-0.527967,-0.737908,-0.420408
0.215172,0.080750,0.236736,0.272109,0.959875,-0.067793
0.220004,0.281757,0.311156,0.255154,0.502381,-0.826142
0.334471,-0.058482,0.437699,0.678919,-0.649405,0.342553
0.306209,0.186638,0.457497,0.933318,-0.351544,0.073042
0.038929,-0.103262,-0.201347,-0.619204,0.647240,-0.444598
0.083383,-0.185075,-0.136664,-0.195056,0.892040,-0.407699
0.105820,-0.188445,-0.091616,-0.688620,0.725096,-0.006165
0.108377,-0.124471,-0.065327,0.498800,0.154112,0.852905
0.118034,-0.081375,-0.032774,-0.682232,0.625499,-0.378563
0.121444,-0.016394,-0.005869,0.840779,-0.541084,0.017870
0.129254,0.031253,0.025483,0.235811,-0.860759,0.451094
0.168876,-0.037263,0.085007,0.964793,0.156088,-0.211687
0.207930,-0.104105,0.143329,0.682707,-0.667009,-0.298346
0.198698,0.149605,0.204442,0.289457,0.639555,-0.712169
0.248405,0.190686,0.318718,0.861176,-0.379161,0.338544
0.335038,0.023505,0.441886,-0.023196,-0.440180,0.897610
0.319982,0.149944,0.450519,0.974264,0.087934,0.207553
0.071170,-0.057465,-0.206865,0.044363,-0.428099,0.902643
0.099713,-0.080533,-0.156040,-0.414284,-0.870632,-0.265272
0.117609,-0.067062,-0.114984,0.783821,0.592440,-0.186116
0.140475,-0.072117,-0.071169,0.908330,0.201619,0.366452
0.153681,0.030585,-0.011938,0.824180,-0.547732,0.143936
0.183361,-0.001741,0.038271,-0.424894,-0.757069,0.496297
0.232218,-0.098546,0.106849,0.680716,0.518896,-0.517081
0.197281,0.175026,0.122330,-0.806517,0.462006,0.368891
0.255223,0.115090,0.219632,0.367861,0.866583,0.337214
0.097585,-0.041815,-0.214265,0.104882,-0.803342,0.586210
0.129111,-0.073967,-0.160843,0.603232,0.737564,-0.303499
0.151410,-0.076998,-0.117288,0.833513,0.482629,-0.268933
0.166180,-0.052081,-0.079445,-0.581263,-0.040253,-0.812720
0.156095,0.136977,-0.040596,0.302584,-0.139946,0.942793
0.254798,-0.061174,0.094873,-0.429755,0.535773,0.726814
0.251955,0.096409,0.138688,0.874754,0.107268,-0.472545
0.312458,0.032938,0.239884,0.739397,0.659347,-0.136214
0.178532,0.304989,-0.099340,0.965919,-0.118553,-0.230101
-0.209034,-0.155615,-0.774445,0.282062,-0.959182,0.020270
-0.175515,-0.115048,-0.974857,-0.265973,0.109172,-0.957779
-0.172958,-0.224810,-0.978070,0.633343,0.471380,0.613741
-0.172533,-0.359828,-0.968528,0.785652,-0.351831,-0.508887
-0.148107,-0.194168,-0.379430,0.289171,0.715555,0.635894
-0.127797,-0.035578,-0.508473,0.094456,0.988296,0.119786
-0.115016,0.008020,-0.585554,0.213338,-0.924597,-0.315605
-0.111042,-0.074974,-0.600127,-0.095090,-0.993088,-0.068809
-0.092011,-0.103765,-0.702426,0.420339,0.838154,-0.347582
-0.048978,0.208863,-0.973202,0.274961,0.875138,0.398158
-0.045997,0.105493,-0.980147,-0.110060,0.171251,0.979061
-0.043864,-0.010999,-0.982127,0.127220,-0.180628,0.975289
-0.044294,-0.158307,-0.966873,0.359984,-0.330677,-0.872390
-0.044575,-0.314370,-0.948957,0.024737,0.719313,0.694245
-0.040315,-0.405287,-0.964504,-0.244324,-0.357332,-0.901454
-0.038612,-0.530708,-0.963011,0.317477,0.286133,0.904067
0.079690,-0.355451,-0.963433,-0.649399,0.570796,0.502468
0.080969,-0.484068,-0.959668,0.747605,0.607960,0.267340
-0.008360,-0.260835,-0.490265,-0.547498,-0.762698,-0.344292
0.013085,-0.097538,-0.624014,-0.270681,0.759204,-0.591896
0.024301,-0.090798,-0.683570,0.988204,-0.094444,0.120555
0.029697,-0.161338,-0.707457,0.393409,0.912368,0.113197
0.067477,0.064247,-0.935845,-0.487508,-0.362802,-0.794173
0.074719,0.015090,-0.971579,-0.008072,-0.271240,0.962478
0.076422,-0.110332,-0.969631,0.154140,-0.799140,-0.581048
0.076141,-0.254444,-0.955741,-0.592449,0.317989,-0.740194
0.069466,-0.110671,-0.258242,0.363248,0.929176,-0.068432
0.078979,-0.121439,-0.307022,0.401853,0.907833,-0.119810
0.087643,-0.141312,-0.352362,-0.727172,0.619748,0.295182
0.099432,-0.120432,-0.415650,0.063948,0.997859,0.013676
0.106956,-0.154269,-0.453136,0.495355,-0.838217,0.228072
0.118034,-0.142822,-0.514802,0.035850,-0.757033,0.652393
0.128543,-0.137099,-0.572280,-0.256923,-0.909796,-0.325977
0.137918,-0.154773,-0.620996,0.505258,0.805622,-0.309336
0.148428,-0.159324,-0.676137,-0.162501,0.787566,-0.594418
0.156806,-0.192658,-0.718297,-0.273181,-0.953631,0.126329
0.164473,-0.234746,-0.754095,0.809619,0.586571,0.021241
0.173990,-0.247036,-0.805148,0.427615,-0.894368,-0.131346
0.186771,-0.228180,-0.875413,0.946636,-0.089277,0.309692
0.194299,-0.271439,-0.912056,0.973166,-0.226766,-0.039041
0.202391,-0.313199,-0.952592,0.107259,-0.604417,0.789414
0.204380,-0.435928,-0.951586,-0.503306,0.208125,0.838670
0.206795,-0.553098,-0.953631,0.135645,0.060307,0.988920
0.209919,0.161216,-0.457128,-0.696009,0.535921,-0.477870
0.215172,-0.056961,-0.464333,0.994137,-0.086703,-0.064608
0.236617,0.090511,-0.591234,0.833858,0.273695,-0.479344
0.238606,-0.021778,-0.591656,0.645997,-0.116867,0.754340
0.247270,-0.042144,-0.637094,0.677000,0.622538,-0.392578
0.247556,-0.183400,-0.625864,0.083323,-0.951572,0.295918
0.263887,-0.112685,-0.717129,0.896296,-0.386225,0.217908
0.301094,0.378058,-0.958337,-0.219519,0.044909,0.974574
0.284053,-0.144847,-0.819915,0.077498,0.891000,0.447341
0.305497,0.131756,-0.957591,0.093943,0.400889,0.911297
0.304219,-0.031540,-0.936949,-0.367987,0.527786,0.765524
0.306209,-0.146357,-0.938085,0.407460,-0.816018,-0.409989
0.310750,-0.229187,-0.955156,0.563106,-0.210390,-0.799154
0.313026,-0.346697,-0.957136,0.617700,-0.056759,0.784363
0.315154,-0.464206,-0.956584,0.491234,0.050353,0.869571
0.300951,0.003807,-0.380242,-0.736003,0.622402,-0.266298
0.330349,-0.164370,-0.518080,-0.335353,-0.903746,0.266049
0.351226,-0.176320,-0.627389,-0.430947,-0.885308,0.174684
0.356622,-0.251238,-0.646473,-0.215190,-0.950683,0.223374
0.408175,0.417454,-0.975409,0.331277,0.250847,-0.909577
0.409597,0.294046,-0.972747,-0.086406,-0.608455,0.788870
0.410875,0.156006,-0.964731,0.164599,0.075239,-0.983487
0.412010,0.029742,-0.960479,0.511300,0.421643,0.748859
0.412722,-0.109150,-0.952041,-0.532310,0.687588,0.493831
0.415704,-0.217905,-0.958467,0.377117,0.198058,0.904741
0.417693,-0.339462,-0.958597,-0.227742,-0.406280,0.884912
0.418685,-0.474142,-0.949152,0.228974,0.567861,0.790636
0.419539,-0.601916,-0.943018,0.025748,0.919043,0.393315
0.498501,0.552636,-0.975214,0.628515,0.647199,-0.431397
0.500347,0.418964,-0.970508,0.124654,0.387024,0.913605
0.502332,0.295228,-0.970151,-0.014505,-0.381030,0.924449
0.503896,0.162737,-0.964925,-0.582234,0.437116,-0.685517
0.505457,0.040850,-0.962783,0.148885,-0.041740,-0.987973
0.506454,-0.087942,-0.957006,0.388303,-0.373309,-0.842533
0.507871,-0.217576,-0.952917,-0.557972,0.244749,0.792947
0.509149,-0.343501,-0.948373,-0.131994,-0.214048,0.967864
0.511282,-0.468080,-0.946458,-0.265176,0.185296,0.946228
0.513553,-0.584911,-0.948665,0.135911,0.749947,-0.647386
0.359889,0.260045,-0.229778,-0.527884,0.602543,-0.598565
0.614245,0.561731,-0.964049,-0.181884,0.056590,0.981690
0.617227,0.449780,-0.967684,-0.077961,0.000334,0.996956
0.618787,0.320988,-0.964731,-0.213349,-0.045189,0.975930
0.620920,0.205493,-0.965932,-0.572641,0.245461,0.782196
0.622337,0.071492,-0.959992,0.646783,-0.190879,-0.738402
0.623759,-0.058307,-0.956130,0.425010,0.782192,0.455568
0.625605,-0.180368,-0.955124,-0.310721,0.336927,0.888781
0.624469,-0.333400,-0.936592,0.003590,-0.614199,0.789143
0.627165,-0.444004,-0.939480,0.341567,-0.229759,0.911341
0.630290,-0.550910,-0.946783,0.658823,-0.119773,0.742703
0.739646,0.340686,-0.948568,-0.020781,0.156447,0.987468
0.742771,0.237316,-0.955708,0.200622,-0.150150,0.968094
0.745610,0.124523,-0.957980,0.197118,0.241823,0.950087
0.746463,-0.009489,-0.952073,-0.677312,0.275444,0.682187
0.750156,-0.252584,-0.949996,-0.053800,-0.385387,0.921185
0.743620,-0.473639,-0.899138,0.297692,0.268378,0.916162
0.752003,-0.525488,-0.934288,-0.605035,0.486470,0.630301
0.754985,-0.628519,-0.941168,-0.145116,-0.075342,-0.986542
0.856669,0.537655,-0.954215,-0.154699,0.292438,0.943689
-0.696153,0.136309,0.101267,0.488228,0.831940,0.263645
-0.671727,-0.133729,-0.023687,-0.190619,0.939912,-0.283249
-0.614349,0.092536,0.254683,0.248233,-0.929772,-0.271856
-0.591058,0.084623,0.115612,0.333819,0.940492,0.063555
-0.562089,-0.115213,-0.042251,0.029546,0.971379,0.235691
-0.496051,0.056171,0.221449,-0.455280,-0.757209,0.468354
-0.480570,0.047755,0.130963,-0.017369,0.992070,0.124483
-0.470203,0.083278,0.065501,0.397739,0.650831,-0.646701
-0.465518,0.024523,0.043496,0.076054,0.894864,0.439811
-0.450037,-0.147364,-0.031703,0.749625,-0.339134,-0.568376
-0.395215,0.041857,0.285386,-0.415844,0.818558,-0.396279
-0.382010,-0.015212,0.215704,0.304586,0.707676,-0.637512
-0.364969,-0.010496,0.114801,0.546880,0.829014,-0.116863
-0.388541,-0.534911,0.301095,0.871811,-0.409304,-0.269100
-0.351620,-0.060331,0.040608,0.479163,0.868938,-0.123894
-0.307733,0.210713,0.477717,0.894830,-0.293601,-0.336269
-0.279614,0.265604,0.317517,0.131010,-0.940464,0.313631
-0.290835,-0.199553,0.423744,0.221976,0.090676,0.970827
-0.267258,-0.357640,0.305801,-0.029169,0.728570,0.684350
-0.229768,-0.030533,0.063359,0.009883,-0.942780,0.333269
-0.226644,-0.121614,0.053752,0.304268,-0.126108,0.944202
-0.220394,-0.169425,0.024769,-0.584617,0.532815,-0.611826
-0.209173,-0.129187,-0.042705,-0.741081,0.651577,0.162008
-0.206334,-0.223802,-0.049651,0.621181,-0.734459,-0.273320
-0.192418,-0.150734,-0.135301,0.123645,-0.260206,0.957604
-0.245674,0.593039,0.734342,-0.026374,-0.914082,0.404671
-0.247802,0.411391,0.764720,0.964356,-0.115627,-0.238007
-0.223943,0.283945,0.643564,0.401691,0.911611,-0.087231
-0.222097,0.175704,0.645446,0.848645,0.517593,-0.109088
-0.230193,-0.091641,0.713830,-0.336525,0.740008,0.582356
-0.208323,0.142196,0.571643,0.239579,0.542595,-0.805104
-0.209602,-0.010496,0.592220,0.522732,-0.226247,-0.821927
-0.197388,0.052975,0.519325,0.870971,-0.164879,0.462844
-0.191421,0.009202,0.491738,0.155844,-0.687457,0.709306
-0.189435,-0.096018,0.490472,0.928562,0.125276,0.349398
-0.172676,0.042361,0.386258,0.673249,0.131557,-0.727618
-0.170405,-0.056458,0.383401,0.624808,0.156418,-0.764950
-0.157763,0.007682,0.307943,0.457900,0.476760,0.750352
-0.171965,-0.350910,0.418388,-0.018368,0.760966,0.648531
-0.138450,0.045567,0.196296,-0.410509,0.621254,-0.667477
-0.148107,-0.251741,0.278668,0.891390,-0.452222,-0.030324
-0.127797,-0.072960,0.150080,0.432200,0.377087,-0.819151
-0.115870,-0.021439,0.079781,0.396171,0.874813,-0.278839
-0.114873,-0.138106,0.083871,0.968926,0.138949,-0.204633
-0.103514,-0.104269,0.017921,0.493816,-0.860379,0.126070
-0.094568,-0.107300,-0.029723,0.099607,0.984082,-0.147176
-0.074827,0.050273,-0.153443,0.607607,0.375750,0.699732
-0.074540,-0.090295,-0.141922,-0.208990,0.901171,0.379755
-0.067156,-0.122785,-0.179862,-0.705750,0.399835,-0.584849
-0.138450,0.202297,0.830507,0.176579,-0.979963,-0.092157
-0.111180,0.264761,0.678226,0.383120,0.920512,-0.076653
-0.105642,0.228396,0.650672,0.818370,0.562170,-0.119314
-0.103089,0.126033,0.648140,-0.051116,-0.076930,0.995725
-0.098543,0.062737,0.629511,0.387054,0.053960,0.920477
-0.091300,0.046913,0.590986,-0.905002,0.211737,0.368970
-0.083915,0.035127,0.552397,-0.108478,0.892310,0.438196
-0.077384,0.012059,0.518059,-0.558992,0.198856,0.804975
-0.071559,-0.038106,0.493750,-0.070050,-0.869637,0.488697
-0.058921,0.031592,0.419265,-0.590622,0.504008,0.630192
-0.059346,-0.117401,0.436596,0.896615,-0.062227,-0.438416
-0.051678,-0.132557,0.396189,0.413378,0.752169,0.513187
-0.033072,0.018460,0.282108,-0.479935,0.499754,0.721047
-0.030941,-0.081375,0.279349,0.874829,0.470847,-0.113922
-0.022138,-0.078180,0.231121,-0.059519,-0.967948,0.243998
-0.009214,-0.024810,0.158421,-0.244365,-0.237310,0.940197
-0.003961,-0.079855,0.135183,-0.571800,0.752325,0.327189
0.005414,-0.076659,0.083838,-0.110224,0.987817,0.109855
0.012656,-0.106622,0.046579,-0.752206,0.658662,0.018744
0.021605,-0.114205,-0.001033,0.120576,0.992239,-0.030386
0.033390,-0.082721,-0.064808,-0.522647,0.289137,0.802023
0.038079,-0.147878,-0.084962,-0.247283,-0.214516,0.944899
0.047025,-0.155451,-0.133256,-0.011697,0.991139,0.132314
0.060373,-0.097035,-0.210987,0.020363,-0.226726,0.973746
-0.023984,0.070988,0.786433,0.220904,-0.561653,0.797338
-0.021852,-0.021275,0.782505,0.181281,0.349068,0.919396
-0.010917,0.026711,0.720580,0.507553,-0.656060,-0.558547
-0.004954,-0.017401,0.694097,-0.028162,-0.711376,0.702248
0.005271,0.016610,0.636911,0.532176,0.526350,-0.663132
0.010809,-0.029012,0.610979,0.566978,0.789520,0.234934
0.019616,-0.024132,0.563399,0.888860,0.455395,-0.050432
0.026433,-0.052419,0.529386,0.403367,-0.541383,-0.737699
0.034954,-0.055780,0.486512,0.318225,0.940405,-0.119879
0.042339,-0.073967,0.449448,-0.243979,-0.527955,0.813473
0.051142,-0.080697,0.405179,0.481940,0.873035,0.074455
0.062649,-0.032547,0.338873,0.078939,-0.501282,0.861676
0.071313,-0.038784,0.293922,0.466070,-0.692336,-0.550863
0.075712,-0.108143,0.276104,0.378806,0.924557,0.041240
0.087357,-0.070771,0.210706,0.579796,-0.572396,0.579827
0.116044,0.083606,0.046709,-0.090045,0.635475,0.766853
0.142603,-0.088445,-0.078958,0.917042,0.372699,-0.141876
0.141324,-0.247364,-0.057992,0.458238,-0.312061,-0.832248
0.147574,-0.427173,-0.075388,-0.618866,0.383436,0.685552
0.057110,0.050448,0.885389,0.750808,0.449198,0.484260
0.062788,0.011051,0.858646,-0.706847,0.636861,0.307855
0.071026,0.017453,0.814831,0.791551,0.451885,-0.411396
0.081394,0.050448,0.757612,0.021913,0.998679,0.046474
0.089632,0.045895,0.715063,0.794332,-0.252265,-0.552629
0.096875,0.021831,0.680628,-0.428810,0.739535,0.518855
0.100424,-0.051238,0.668165,0.966191,0.126923,-0.224421
0.110648,-0.020257,0.611985,0.250268,-0.117732,-0.960992
0.117184,-0.053591,0.580503,0.094729,-0.638686,0.763614
0.130104,0.015768,0.506894,0.861102,-0.424354,0.280048
0.136210,-0.030533,0.480378,0.495251,0.723115,0.481489
0.136640,-0.159654,0.488979,0.943102,-0.328897,0.048832
0.161209,0.072673,0.341794,0.376936,-0.164043,0.911597
0.180378,-0.172786,0.262473,0.361066,0.773793,0.520457
0.194014,-0.115048,0.187923,0.158634,-0.987196,0.016697
0.207219,-0.059828,0.113600,0.511958,0.837995,-0.188848
0.211623,-0.137438,0.097697,0.608145,0.478069,-0.633727
0.236049,0.082435,-0.050462,-0.405158,0.260869,0.876239
0.233635,-0.642494,0.027463,0.912380,0.255979,0.319433
0.236335,-0.747036,0.024315,0.914926,0.400288,0.051758
0.167740,0.119642,0.776144,0.980631,0.186692,0.059234
0.183221,0.237480,0.685496,-0.723250,0.500345,0.475987
0.182368,0.088662,0.702600,-0.719571,0.176732,0.671554
0.192453,0.112902,0.650250,0.428040,0.222992,0.875818
0.203102,0.144550,0.592025,0.524538,0.478511,-0.704192
0.193445,-0.142658,0.667451,-0.077438,0.091616,0.992779
0.228950,0.278058,0.444450,0.456957,-0.337299,-0.823055
0.225401,0.091354,0.479242,0.765701,-0.471520,0.437460
0.227814,-0.013362,0.478626,0.601538,-0.197527,0.774039
0.261472,-0.457301,0.345104,-0.502812,-0.731206,-0.460996
0.300527,-0.158143,0.114573,0.399510,0.916528,-0.019174
0.330778,-0.830873,0.019090,-0.528056,0.660513,0.533741
0.308198,0.067279,0.639280,0.973648,0.220576,-0.057932
0.302230,-0.158646,0.688936,0.347392,0.899529,-0.264889
0.314018,-0.107640,0.624188,-0.591574,-0.700054,0.399955
0.346966,-0.023288,0.449643,0.129897,0.985801,0.106407
0.455325,-0.387274,-0.071169,-0.103869,0.994582,0.004312
0.442119,-0.832897,0.036453,-0.395195,0.904760,-0.158839
0.417693,0.017782,0.680303,0.825212,-0.564798,-0.005298
0.432034,-0.828519,0.683452,-0.647590,-0.591378,-0.480519
0.576466,-0.443162,-0.070520,0.521385,0.687593,0.505345
0.564252,-0.745186,0.018408,-0.823437,0.561971,-0.078360
0.553036,-0.632897,0.623864,-0.524351,0.676442,0.517187
0.688374,-0.287438,-0.063866,-0.524603,-0.105785,-0.844749
0.682130,-0.642494,-0.001292,-0.467334,0.767498,-0.438801
0.902254,0.521492,-0.954442,0.123244,-0.002041,0.992374
0.891745,0.308699,-0.952657,0.260201,-0.225873,0.938763
0.881235,0.102462,-0.945030,-0.258628,-0.055761,0.964366
0.875839,-0.002244,-0.944349,0.240572,0.533154,0.811093
0.871297,-0.094169,-0.936852,-0.367127,0.249941,-0.895962
0.835793,0.510723,-0.956227,-0.206707,0.158605,0.965462
0.824996,0.297077,-0.957396,-0.161504,-0.299971,0.940178
0.814772,0.100448,-0.947107,0.230002,0.401646,-0.886442
0.730558,-0.558318,-0.946329,0.594907,0.803532,-0.020556
0.734957,-0.583565,-0.945257,0.600145,0.525442,0.603105
0.739360,-0.596368,-0.942564,0.216119,0.538577,0.814388
0.736803,-0.531212,-0.944868,0.681915,0.425262,-0.595100
0.626884,-0.078848,-0.958240,0.082248,0.099122,0.991670
0.643500,-0.027337,-0.950645,0.953220,0.052573,-0.297671
0.002289,-0.010999,-0.984496,0.180908,0.044814,0.982478
-0.112602,0.081932,-0.985145,-0.237466,0.235759,0.942352
-0.563081,0.136134,-0.385791,-0.106280,-0.803378,0.585908
-0.775115,-0.008482,0.259746,-0.293553,0.888758,0.352046
-0.595461,0.062901,0.011690,0.721308,0.682393,-0.118549
-0.619181,-0.339462,0.054336,0.150006,0.364921,0.918875
-0.622445,-0.031879,0.321606,-0.437987,0.611734,-0.658748
-0.645879,-0.760342,0.133430,-0.758518,0.472435,0.448838
-0.637926,0.109202,0.631977,-0.409658,-0.889286,-0.203348
-0.330457,0.740347,-0.208423,0.888471,0.420308,-0.184284
-0.371786,0.730925,0.257280,0.636975,0.748037,0.186291
-0.381585,0.095567,0.007373,0.378108,-0.136934,0.915578
-0.412686,0.065090,0.349128,0.023743,-0.973977,0.225398
-0.427171,-0.529188,0.172798,-0.362933,0.866959,-0.341556
-0.418082,0.563919,0.691306,-0.453793,-0.694398,0.558465
-0.434555,-0.214709,0.435752,-0.358193,-0.843841,-0.399538
-0.434980,0.043203,0.588260,-0.600491,0.361290,-0.713358
-0.447480,-0.640809,0.337639,0.780541,0.617308,0.098417
-0.453872,-0.339966,0.585339,0.383969,0.872200,-0.303042
-0.463953,-0.288949,0.725157,-0.331913,0.942443,0.040422
-0.206902,0.421153,0.144497,-0.540212,-0.773884,0.330567
-0.216844,0.171831,0.119182,0.071728,0.444262,0.893021
-0.253198,-0.196532,0.303951,-0.186681,0.068384,0.980038
-0.256323,0.572838,0.723956,0.963043,-0.266425,-0.039573
-0.267119,-0.367576,0.358281,-0.745983,0.623832,-0.233115
-0.270244,-0.240131,0.453830,-0.066011,0.543778,0.836629
-0.275778,-0.408483,0.421894,0.671688,0.651285,0.353078
-0.280325,-0.045176,0.656838,-0.720490,0.152361,-0.676521
-0.286856,-0.357475,0.565768,0.507666,-0.849035,-0.146340
-0.289699,-0.193500,0.674656,-0.282243,0.957095,0.065635
-0.143846,0.061391,0.494951,-0.418291,0.605910,-0.676687
-0.147114,0.285631,0.633698,0.849236,0.449222,0.277485
-0.151513,0.174523,0.625324,0.841024,0.028013,0.540272
-0.158617,-0.292997,0.466163,-0.568569,0.695570,0.439217
-0.161030,-0.006622,0.629348,-0.696043,-0.164575,0.698884
-0.166570,-0.203262,0.586800,-0.613656,0.785804,0.077058
-0.169837,-0.134746,0.654501,-0.584929,0.675280,-0.449284
-0.177790,-0.130533,0.734309,0.088704,-0.957325,-0.275064
-0.181764,-0.165213,0.757774,-0.065376,0.924061,0.376614
-0.190428,-0.204105,0.819570,0.355193,-0.930341,0.091122
-0.060338,-0.283903,0.770951,-0.680428,0.589923,0.434751
-0.011771,0.133616,0.511438,-0.451106,0.445467,-0.773345
-0.024834,0.159870,0.643532,-0.512747,0.784223,0.349406
-0.029380,0.076537,0.646939,0.199063,0.223400,0.954184
-0.034208,-0.058307,0.630225,0.333253,0.005755,-0.942820
-0.038325,-0.057465,0.671054,-0.424303,-0.275330,0.862647
-0.042586,-0.073803,0.704645,-0.401806,-0.800657,-0.444409
-0.046564,0.004650,0.775658,-0.283788,0.798929,0.530262
-0.051535,-0.152759,0.748135,-0.519662,0.330506,-0.787856
-0.054375,0.079229,0.883182,0.585684,0.747694,-0.312936
0.084375,0.095063,0.626720,0.303133,0.391084,0.869002
0.071170,0.019971,0.714447,-0.650838,-0.121000,0.749513
0.066909,0.017278,0.753231,0.826212,-0.062515,0.559880
0.062363,0.026372,0.796429,-0.123999,0.752949,0.646291
0.058102,0.042196,0.840438,0.379424,0.788541,0.483984
0.053842,-0.017062,0.853713,0.312857,0.939348,0.140524
0.049725,-0.031715,0.886298,0.940003,0.336427,0.056659
0.209065,-0.461853,0.640416,-0.659174,-0.751960,-0.006719
0.204099,0.176208,0.941180,0.190116,0.899840,0.392612
0.302659,-0.812860,0.490439,0.989528,-0.093850,-0.109663
0.297688,-0.838456,0.520590,-0.498524,-0.802188,0.328586
0.292292,0.062737,0.928879,-0.282732,0.838240,0.466279
0.283485,-0.034736,0.963607,0.750641,0.632413,0.191290
0.360601,-0.613867,0.610524,0.358323,0.889050,-0.284948
0.055545,0.343542,-0.991442,0.050850,0.171593,0.983855
0.841045,0.005164,-0.945387,-0.408674,-0.663033,-0.627195
0.829257,0.072334,-0.963075,-0.278660,0.573334,0.770478
0.749016,-0.026659,-0.953761,-0.478567,0.468701,0.742491
-0.550014,-0.287438,0.724475,0.143982,0.723103,0.675568
-0.174379,-0.031715,0.774976,-0.667760,0.744262,0.013111
-0.183897,-0.124645,0.733173,0.088704,-0.957325,-0.275064
-0.218691,0.254321,0.720159,0.883718,0.348443,0.312458
-0.269390,0.003139,0.543309,-0.624146,0.302669,-0.720301
-0.309723,-0.470104,0.348382,-0.665173,0.518235,0.537566
-0.368093,0.035969,0.302458,-0.499035,0.494986,-0.711303
-0.447055,0.104147,0.118046,0.046640,0.971716,-0.231503
-0.469211,0.027215,0.047293,-0.416246,0.908025,0.047211
0.000443,0.016940,0.857283,-0.577979,0.618880,0.531910
-0.480851,0.065429,0.025321,-0.783397,-0.611332,-0.112076
-0.296230,0.185970,0.130217,0.370390,-0.644877,-0.668540
-0.341110,0.131931,0.003446,-0.634043,-0.403214,-0.659855
0.119455,0.053643,0.858841,0.979110,0.189791,-0.072958
0.069180,0.126033,0.742813,-0.424949,0.101753,-0.899480
-0.175233,0.428232,0.171565,-0.719557,-0.579607,0.382482
0.026291,0.058185,0.088739,0.309713,-0.883178,0.352241
0.003567,0.053982,0.030287,0.927254,0.295324,-0.230184
-0.110474,-0.218408,-0.984788,-0.531806,0.486731,0.693019
-0.137454,-0.519261,-0.960706,0.566312,0.732633,-0.377545
-0.037190,-0.316394,-0.971417,-0.241635,0.242899,0.939474
-0.192418,-0.224810,0.444320,0.801569,0.439651,0.405210
-0.344373,0.151958,0.565379,-0.566571,0.415871,-0.711371
-0.206191,0.179568,0.137909,-0.286839,-0.751665,0.593905
0.083143,-0.074654,0.085332,-0.005396,-0.926012,0.377455
-0.469663,0.156729,0.050092,0.772573,-0.069783,0.631080
0.464228,-0.439419,0.666924,-0.442650,0.007532,-0.896663
0.074700,-0.027130,0.888364,0.845541,0.438265,0.304932
0.183511,-0.184488,-0.943258,-0.658648,0.320692,0.680690
0.347633,-0.756852,0.018478,0.979606,-0.177661,0.093849
0.197271,0.108381,0.501858,-0.728284,0.590404,-0.347887
-0.250343,0.262717,-0.138724,0.509786,0.590609,0.625539
-0.462893,-0.582713,0.177318,-0.023382,-0.676746,0.735845
0.187891,-0.002488,0.823296,0.109195,-0.886153,0.450344
0.468085,0.424033,-0.966083,0.402495,-0.145267,-0.903823
0.299153,-0.316092,-0.934205,0.467919,-0.431779,0.771115
0.170352,-0.086326,0.649851,-0.503067,-0.786155,-0.359004
-0.045143,-0.166743,0.278963,-0.455773,0.761257,-0.461258
0.157956,-0.074806,0.094722,-0.664078,-0.262315,-0.700136
0.066160,0.184860,0.633207,-0.650686,0.623322,-0.433679
-0.050646,0.203973,0.665832,-0.613039,-0.622146,0.486947
0.052228,0.162023,0.541739,-0.295706,0.664085,0.686694
0.403399,-0.403253,-0.958987,-0.071827,-0.114276,0.990849
0.604262,-0.330846,-0.939714,0.235721,0.329917,-0.914106
0.509513,-0.242235,0.625311,0.757121,0.403145,-0.514045
-0.332664,0.041317,0.304465,-0.038236,0.979498,0.197790
0.129860,-0.175978,-0.810637,0.331969,0.898549,0.287064
0.093753,-0.205424,-0.189158,-0.828950,-0.554809,0.070914
0.066160,-0.594061,0.301855,0.901880,-0.041214,0.430015
0.784204,-0.522191,-0.936299,-0.509886,0.197910,0.837166
0.726674,-0.537736,-0.947675,0.498227,0.630031,-0.595676
0.257022,0.250120,0.447447,0.762579,-0.248953,-0.597073
-0.313902,-0.137849,0.662219,-0.256801,0.955837,0.142932
0.126304,-0.051141,-0.972908,-0.205522,0.119947,-0.971274
0.083319,0.223742,0.536840,-0.053314,0.736306,0.674545
-0.526804,0.644092,0.665950,0.453406,0.881057,-0.134765
0.549331,-0.231796,0.641462,0.452581,0.745520,0.489255
0.676917,-0.011866,-0.955639,-0.565475,-0.223655,0.793862
0.431434,-0.575036,0.421090,0.959899,-0.240593,-0.143906
-0.418443,-0.227888,0.723972,-0.299088,0.936597,0.182574
0.378310,0.523049,0.012690,-0.662305,-0.713752,0.227836
0.191297,-0.204690,-0.788312,0.628761,-0.769330,-0.113096
0.674334,-0.031007,-0.065510,-0.705455,0.169054,-0.688297
0.146184,-0.055598,-0.415369,0.117193,-0.984977,-0.126834
0.214087,-0.687048,0.019732,0.675800,-0.212158,0.705892
-0.335045,0.282613,-0.192607,-0.602009,-0.752385,0.267399
0.271843,-0.191669,-0.814547,0.251255,0.829832,0.498247
0.098597,0.084895,0.527126,-0.205067,0.651143,0.730726
0.361470,-0.613984,0.495267,0.998652,-0.011785,0.050544
-0.489821,-0.064350,0.304209,-0.232851,0.282693,-0.930519
0.144622,-0.196337,0.489942,0.676343,-0.608218,0.415488
0.217979,-0.532912,0.568125,0.266232,0.866608,-0.422033
-0.035933,-0.076747,-0.079232,0.526162,0.846069,-0.085563
-0.205539,-0.302825,0.550364,0.467932,-0.289954,-0.834845
0.240305,-0.286721,-0.954812,-0.125222,-0.895320,0.427460
0.117318,-0.091606,0.123598,-0.532535,-0.828271,0.174278
0.169913,0.432138,-0.977426,0.467580,0.436405,0.768713
-0.220502,-0.089938,0.024217,-0.148795,-0.922799,0.355391
0.556197,-0.436808,-0.928242,0.918995,0.305794,-0.248874
-0.071422,-0.127498,0.505811,0.811650,0.329102,0.482615
0.125295,-0.091031,0.652066,0.170369,-0.916313,-0.362416
0.105280,-0.500345,0.314802,0.884186,-0.459986,0.081413
0.074761,-0.105176,0.781253,-0.010774,0.999593,0.026412
-0.470214,-0.235826,0.001330,-0.469651,0.810110,0.350927
0.156934,-0.196522,-0.681379,-0.137865,0.882206,-0.450228
0.032857,0.024412,-0.239253,0.925698,0.377909,0.016336
-0.489665,-0.675104,0.163478,-0.340692,0.878794,-0.334139
0.463114,-0.550180,-0.922788,0.602220,0.498437,-0.623612
-0.162338,-0.147148,0.535315,-0.417282,0.898331,0.137393
0.738155,-0.079208,-0.942808,0.389832,0.671979,-0.629663
0.251356,-0.053283,0.046438,-0.121561,-0.880565,-0.458070
-0.542121,0.568609,0.663880,-0.589173,-0.785366,0.189939
0.317953,-0.503049,0.546661,0.060278,-0.065030,0.996061
-0.055189,0.055712,-0.189600,0.835625,0.469797,0.284643
-0.263988,-0.254124,0.745333,-0.220543,0.954738,0.199590
0.248835,0.341139,-0.194814,-0.388849,0.485756,-0.782840
-0.020190,-0.137674,0.794483,-0.274369,0.542708,-0.793845
0.215457,-0.501385,0.218485,-0.306913,0.262557,-0.914805
0.248318,-0.061695,0.286968,-0.730290,0.285521,-0.620608
0.058680,-0.721243,0.307835,0.896140,0.055481,0.440290
0.075942,-0.089210,0.771439,-0.371476,-0.924510,-0.085359
-0.503510,-0.095536,0.581554,-0.667478,0.144452,-0.730484
-0.114258,-0.180414,0.269987,0.958319,-0.246427,-0.144566
0.112889,0.017660,0.155602,0.792027,-0.608574,-0.048277
0.058130,0.159499,-0.622572,0.759810,-0.030656,-0.649423
0.092974,-0.053744,-0.167124,-0.287636,-0.871332,0.397550
0.172462,-0.003257,0.587542,0.265835,0.887892,-0.375473
0.525780,-0.620703,-0.934067,0.345320,0.911566,-0.223163
-0.061733,-0.198813,0.059070,0.303992,-0.781610,-0.544678
0.022362,-0.017541,0.557297,0.807561,0.560775,0.182693
0.013829,0.194038,0.340624,-0.534347,-0.506426,0.676761
0.085091,-0.202654,0.719113,-0.052766,-0.185845,0.981161
0.227120,0.106793,-0.446153,0.971098,-0.155999,0.180647
0.006896,-0.212936,0.511064,0.347450,-0.927752,-0.136214
0.208741,-0.600133,-0.943032,0.112850,0.948832,0.294929
-0.220108,0.109229,-0.020745,0.615397,0.679915,0.398751
0.429192,-0.240842,-0.948892,0.451302,0.280428,0.847164
-0.127497,-0.190352,0.759216,0.194598,0.775833,0.600179
0.716136,-0.043995,-0.942472,0.060582,-0.390941,0.918420
-0.172326,0.166386,0.286158,0.652694,0.608590,0.451230
-0.291366,-0.274842,0.126985,0.765630,-0.469868,-0.439356
-0.455976,0.103287,0.114275,-0.036620,-0.988712,0.145281
-0.152409,-0.139141,0.738876,0.105234,0.959062,0.262919
-0.336492,-0.085660,0.035598,0.792595,0.318491,0.519958
0.005632,-0.190523,0.098172,0.112511,-0.544336,0.831288
-0.069629,-0.049247,0.420286,0.630969,-0.158504,-0.759444
-0.249629,0.309055,0.091282,0.951461,0.263945,0.158287
0.123643,0.008320,0.620937,0.412478,0.853226,-0.319167
0.452444,-0.441174,0.538291,0.259753,0.375525,0.889668
-0.046491,-0.035464,0.103953,0.286613,0.939552,0.187339
0.260066,-0.024598,0.964689,0.750641,0.632413,0.191290
0.544192,0.054648,0.543212,0.906869,-0.353163,-0.229922
0.005230,0.086532,0.302874,0.430281,-0.694294,0.576901
0.122985,-0.078631,-0.493046,0.882214,0.272008,0.384330
0.265040,-0.325116,-0.935841,-0.527068,0.223193,-0.819990
0.619772,0.047218,-0.959052,0.855383,-0.246421,-0.455627
0.654265,-0.533535,-0.929237,-0.068847,0.385479,0.920144
0.278253,0.088359,0.216100,-0.382582,-0.805136,-0.453196
0.611807,-0.312403,-0.933794,0.538899,-0.325237,-0.777051
-0.613854,-0.165190,0.044311,-0.559666,-0.001979,-0.828716
0.763637,-0.467012,-0.946463,0.829439,-0.065377,-0.554758
0.215076,-0.139652,0.442739,-0.641017,-0.078335,-0.763519
-0.120696,-0.252640,0.313015,0.393337,-0.702363,0.593272
-0.252256,-0.348127,0.455320,0.782766,0.507223,-0.360558
-0.014305,-0.170782,0.639649,0.907490,-0.022930,-0.419448
0.127214,-0.062333,-0.068914,0.916365,0.226391,0.330184
-0.056516,-0.032716,-0.145799,0.230917,0.648567,0.725285
-0.168566,0.094711,0.130745,-0.030804,-0.303423,0.952358
0.213118,0.074263,0.865707,-0.491872,-0.838866,-0.233164
0.832648,-0.267954,-0.944113,-0.637392,-0.067541,-0.767574
0.711211,-0.419969,-0.047750,0.471287,-0.427109,-0.771665
-0.019451,0.173072,-0.647101,-0.005079,0.798462,0.602024
0.573134,-0.173490,-0.945378,0.302030,0.447092,0.841954
0.126526,-0.120380,0.565367,0.215507,-0.552816,0.804954
0.115848,0.121120,0.703309,-0.241322,0.965868,0.094143
-0.082761,-0.139511,0.421271,0.792015,-0.108456,-0.600790
-0.134233,-0.109783,0.626937,0.830654,0.054543,-0.554111
0.036498,-0.050240,0.625731,0.198937,0.885697,0.419482
-0.143527,-0.258441,0.631245,-0.056017,-0.923668,-0.379078
0.073648,-0.013914,-0.059970,-0.319212,0.246195,0.915146
0.373289,-0.392204,-0.959407,0.231953,-0.626173,-0.744382
0.129362,0.677460,0.741301,0.817066,0.231974,0.527817
0.771569,0.137939,-0.956768,-0.074098,0.246130,0.966400
-0.228601,-0.153264,0.671230,-0.136254,0.948760,0.285112
0.475536,0.564035,-0.977557,0.176987,0.010688,0.984155
0.188557,-0.166272,-0.264587,-0.729528,-0.683036,-0.035360
0.774624,-0.477990,-0.910586,-0.621733,0.202415,-0.756622
0.138619,-0.152565,0.674748,0.974039,-0.129744,-0.185511
0.178657,0.233805,0.840219,0.875367,-0.479372,-0.062728
0.401702,-0.427529,-0.039259,-0.645605,0.422641,-0.636057
-0.031020,-0.248292,0.642976,-0.894031,0.244890,0.375151
-0.005877,0.249395,0.665485,-0.166962,-0.977834,0.126348
0.646791,-0.311279,0.640123,0.738370,0.653412,0.166923
0.165904,-0.763426,0.246198,0.788763,0.302728,0.534985
0.654934,-0.549938,-0.929075,-0.335135,-0.029601,0.941705
0.748055,-0.132381,-0.067203,0.335667,-0.941680,-0.023783
0.207046,-0.591342,-0.952621,-0.121902,-0.928915,-0.349652
0.390668,-0.068583,0.487217,-0.076229,0.980008,-0.183778
0.207252,-0.004977,0.708924,0.357118,0.443265,-0.822181
-0.190271,0.465301,0.183791,0.763620,0.517038,-0.386724
0.173554,-0.377659,-0.937885,0.641002,0.761719,-0.094347
-0.192742,0.455344,0.172392,0.894169,0.293987,-0.337689
0.012638,0.000065,-0.035634,0.726664,0.314674,0.610687
-0.324260,0.133352,0.171969,0.240100,-0.904951,-0.351306
-0.017064,-0.040691,0.508642,0.376231,0.922584,-0.085370
0.184654,-0.072070,0.590515,-0.544402,0.596069,0.590194
0.485796,-0.624126,-0.950907,0.079323,0.921838,0.379371
0.237301,-0.062810,0.641362,-0.404413,0.294391,-0.865901
0.806757,-0.628122,-0.943412,-0.074976,0.685698,0.724015
-0.187060,-0.119860,0.388409,0.875276,0.047936,0.481241
0.077108,-0.016624,0.639679,0.324559,-0.794822,0.512756
0.048949,0.193579,0.368216,0.802425,0.275057,-0.529583
0.386543,-0.098157,-0.956297,0.412708,-0.756422,-0.507442
-0.138535,0.215113,0.118579,0.494712,-0.229051,-0.838329
-0.437227,0.414955,-0.183933,0.055147,0.833408,0.549900
0.124987,-0.036780,0.646262,-0.610622,-0.762724,-0.213059
0.024152,0.052524,0.025123,-0.254317,-0.251014,0.933978
0.614323,-0.184403,-0.050269,0.248954,-0.813977,0.524846
0.308039,-0.404590,-0.951530,0.353935,0.367680,0.859966
0.440728,-0.582780,0.452873,0.950317,-0.240850,0.197202
0.679101,-0.319955,-0.936607,-0.378212,0.566629,-0.732043
0.456422,0.561749,-0.983849,-0.463401,0.187674,-0.866047
0.673582,-0.034107,-0.042630,0.085821,0.333481,0.938842
-0.023379,-0.011276,0.494041,0.327207,-0.939710,-0.099397
0.149010,-0.119466,0.539205,-0.126437,-0.983012,0.133045
0.091472,0.315836,-0.967316,0.255914,-0.225155,-0.940113
-0.546059,0.170836,0.069371,0.412796,0.842459,0.346211
0.697801,-0.551143,-0.940794,-0.934333,0.125573,-0.333546
0.446821,-0.727265,0.544653,-0.187359,-0.953937,0.234310
0.161379,-0.030960,0.022192,0.720894,-0.111688,-0.683986
0.139378,0.518353,0.717988,0.564427,0.445005,-0.695265
0.266688,0.121996,0.445578,0.906052,0.111907,-0.408102
-0.005075,0.061968,0.306364,0.856813,-0.259367,0.445646
0.600594,0.266243,-0.948322,-0.546938,0.152914,0.823089
-0.144380,0.167848,0.146455,0.893822,-0.416435,0.166323
0.003169,0.122768,-0.116271,0.694462,-0.608636,0.383778
0.206750,0.156054,-0.037654,-0.656969,0.484438,-0.577678
-0.021664,0.074779,0.634259,0.983290,0.160841,-0.085273
0.208889,-0.567610,-0.956384,-0.350465,-0.399972,-0.846875
0.173218,-0.275753,0.446452,0.466638,0.362367,0.806808
0.029340,0.085423,0.740837,0.857628,-0.508015,0.079973
-0.423206,-0.613003,0.351275,0.865574,-0.463454,-0.189717
-0.305323,0.771132,0.804912,0.333507,-0.608499,0.720071
-0.468551,-0.280013,0.043078,-0.008408,0.980116,0.198245
0.120831,-0.040407,0.495264,0.856212,0.401781,-0.324766
0.001351,0.569554,0.748164,-0.030666,0.997770,0.059279
0.448870,-0.582048,0.451467,0.950317,-0.240850,0.197202
0.070307,-0.111293,-0.211880,-0.035111,-0.284287,0.958096
0.278734,0.361001,-0.206193,-0.388849,0.485756,-0.782840
-0.235899,-0.101972,0.720018,0.473048,-0.804363,-0.359479
0.060302,-0.145033,0.698480,0.778424,0.127431,0.614668
-0.267625,0.712494,0.741599,-0.065802,-0.854468,0.515320
0.041658,-0.138199,-0.568455,0.459409,0.882233,0.102993
0.144544,-0.209879,0.671981,0.322068,-0.139519,0.936380
0.303328,-0.312034,0.224058,0.656576,0.059964,0.751873
-0.303595,-0.573348,0.359259,-0.679157,0.640018,0.359336
0.116123,-0.176880,-0.636957,0.420117,0.887402,-0.189789
0.067915,0.119513,0.529057,-0.761942,-0.457675,0.458234
0.383784,0.051359,-0.697743,-0.020867,-0.422979,0.905899
0.516636,0.285258,-0.965244,-0.099659,0.083821,-0.991485
0.111519,0.101849,0.359078,0.771790,-0.477065,0.420415
-0.013955,0.026447,0.506484,0.864616,0.346720,-0.363626
0.195359,-0.056188,-0.423010,0.899429,-0.424901,-0.102403
0.895407,-0.108106,-0.942979,0.386978,-0.112865,0.915156
-0.394739,-0.053537,0.053118,0.601261,0.713594,-0.359540
0.261668,-0.410304,0.455797,0.311705,-0.356967,-0.880576
-0.283163,0.289218,-0.224610,-0.216373,-0.974049,0.066411
0.382752,0.074186,-0.973322,0.507858,0.455972,0.730869
0.084874,-0.015166,0.516052,-0.737740,-0.549162,-0.392634
0.186868,0.222586,-0.983245,-0.063753,-0.130875,0.989347
0.458516,-0.705090,0.561128,-0.368994,-0.920012,0.131990
0.126193,-0.029580,-0.163886,0.637705,0.768971,-0.044892
0.551815,-0.310034,-0.947732,-0.167603,0.625296,0.762177
-0.007322,-0.121510,0.092303,-0.530538,0.062338,0.845366
-0.293569,0.123559,0.163761,-0.202179,0.892361,0.403505
-0.002557,-0.711631,0.328746,0.472787,-0.010864,0.881110
0.141400,-0.230528,-0.742383,0.885525,0.330656,-0.326361
0.514582,0.526915,-0.957213,-0.073255,0.137132,0.987840
0.678049,-0.209447,-0.932914,0.102621,0.577494,0.809920
-0.197866,-0.167440,0.542953,0.627773,-0.612845,-0.479918
-0.385115,0.032105,0.051268,-0.217448,0.018337,0.975900
0.174607,0.210587,0.472699,0.342008,0.589707,0.731626
0.585226,-0.683113,-0.950701,-0.123562,-0.629813,0.766856
0.053484,0.049902,0.646001,-0.459427,-0.494341,0.737939
0.000811,-0.006082,0.524344,-0.179917,0.611762,0.770310
0.476133,-0.465309,-0.948215,0.368114,0.865412,-0.339934
0.217096,0.562494,-0.974867,-0.032605,-0.937002,0.347800
0.337924,-0.026874,0.652527,-0.844260,0.466387,0.264024
0.074901,0.218920,0.604412,-0.728066,0.655376,0.201004
0.235372,0.138410,0.533545,-0.821992,0.344439,0.453531
0.151662,-0.037483,0.907362,0.625899,0.772601,0.106478
0.321883,-0.146506,-0.626167,-0.156940,-0.974499,0.160382
0.290193,-0.134771,0.607757,0.267676,0.962483,0.044453
-0.038804,0.346684,0.332760,0.025930,0.091977,0.995423
0.099070,-0.116565,0.789055,-0.545985,0.703071,-0.455622
0.726747,0.289420,-0.951339,0.096543,0.203694,-0.974263
-0.224314,-0.035147,0.598818,0.829499,-0.053495,-0.555940
-0.210615,0.621683,0.727901,0.158316,0.887516,-0.432725
-0.025296,0.115198,0.582029,0.890895,-0.205375,0.405126
0.113896,-0.123685,0.676209,-0.547882,-0.019998,0.836317
-0.182183,0.174780,0.724525,0.500333,0.236045,0.833036
-0.182134,-0.245360,0.577160,-0.203307,-0.957889,0.202770
-0.006003,-0.207711,0.118020,-0.291758,0.862840,0.412777
0.727583,-0.273304,-0.946051,-0.345835,0.473147,-0.810265
0.181654,-0.064551,-0.729421,0.791959,0.394252,-0.466225
-0.156453,-0.097332,-0.975512,-0.013669,0.246088,0.969151
0.318616,-0.415271,0.345976,0.464099,0.772395,0.433611
0.363965,0.493066,-0.979081,0.233905,0.304871,-0.923224
0.070389,0.006267,0.285821,-0.097249,0.991568,-0.085650
0.059567,0.586932,0.682340,0.930240,-0.344992,-0.125034
0.126618,-0.534412,0.029306,0.264946,-0.132597,-0.955103
0.388159,0.163683,-0.965564,-0.175620,0.133719,0.975334
-0.036534,-0.094060,0.635123,0.040772,0.876236,0.480154
0.113674,-0.163802,0.367872,-0.657218,0.742113,0.131653
0.728345,-0.330253,-0.955982,-0.119830,-0.083222,0.989300
-0.140593,-0.387461,-0.957856,-0.723360,0.178916,0.666888
0.128525,-0.105229,0.246554,-0.182596,-0.960138,-0.211643
-0.010555,-0.332334,-0.951107,0.339277,-0.044017,-0.939656
0.235133,-0.462550,0.535897,0.944751,0.282717,-0.165883
-0.266671,-0.103412,-0.469799,0.751884,0.658763,0.026482
-0.008836,-0.113118,0.092299,-0.625799,-0.732939,0.266789
0.111969,-0.036400,0.340017,-0.535025,0.212178,-0.817758
0.066980,0.139288,0.591131,0.829234,0.492899,-0.263478
0.319459,-0.789403,-0.021134,0.812710,0.580397,0.051400
0.091118,-0.169819,-0.964384,0.899158,0.050107,-0.434746
0.800702,0.377479,-0.953753,-0.310242,0.137053,0.940726
0.240654,-0.047588,0.955170,0.841767,0.529241,-0.106449
-0.009193,0.144078,-0.967884,-0.323746,0.205857,0.923478
0.100797,-0.011083,0.413152,0.529168,0.751091,0.394769
0.200954,-0.176065,0.444020,0.764783,0.115418,0.633865
0.040797,-0.449206,-0.966792,-0.323093,-0.908034,-0.266618
0.023287,0.261399,-0.984892,-0.440143,0.519680,0.732262
-0.008080,-0.063857,0.297239,-0.434483,0.745419,-0.505544
0.147593,-0.378544,-0.940825,0.807373,0.548833,-0.216637
-0.140475,-0.003456,0.222168,0.974389,-0.218636,-0.052569
0.147205,-0.119527,0.869547,-0.707140,0.625259,-0.330158
-0.334354,0.101414,-0.468857,0.807830,0.482366,-0.338725
-0.265961,0.583268,0.751989,-0.111845,-0.831240,0.544546
0.074389,-0.114866,-0.302697,0.472321,0.871381,0.132698
-0.129927,0.319644,0.618341,0.392145,0.919875,0.007246
0.333418,-0.201536,0.734841,0.994664,0.097542,0.033597
0.412293,0.091029,0.497291,-0.577560,-0.199641,0.791561
0.171707,-0.002976,-0.680732,0.911600,0.335527,0.237503
0.185513,-0.074468,0.748307,-0.794389,-0.595797,0.118201
0.055852,0.005459,-0.324271,0.403291,0.567807,0.717602
0.684123,-0.529626,-0.949787,-0.437896,-0.496353,0.749587
0.022176,0.115459,-0.035550,0.854641,-0.337311,0.394729
-0.049996,-0.035839,-0.152008,0.768060,0.356140,0.532210
0.016431,0.260515,0.271290,-0.369506,-0.892980,0.257005
-0.185627,0.058803,-0.459348,0.529623,0.704714,-0.472099
0.089780,-0.123182,-0.068467,-0.651580,-0.013994,-0.758451
-0.131320,0.219012,0.688387,-0.661936,-0.731154,-0.165093
0.331496,0.665000,0.775461,0.249999,0.681858,-0.687438
0.306935,0.246196,0.845452,-0.005370,-0.299296,0.954145
0.636527,-0.481752,-0.940817,-0.088391,0.393462,0.915082
0.202400,-0.240508,0.453123,0.740767,0.335786,0.581818
0.364421,0.179986,0.438511,0.615747,-0.483195,0.622397
0.024335,-0.738188,0.293171,0.936895,0.287613,0.198764
0.470906,-0.794258,0.037543,-0.320064,0.947358,-0.008524
0.193088,-0.109329,0.563096,0.763761,-0.413297,0.495838
0.097473,-0.260061,-0.803906,0.874718,0.467506,0.127699
0.781398,-0.214460,-0.962758,-0.048622,0.262204,0.963787
0.105194,-0.133379,-0.130381,0.792350,0.520321,-0.318509
0.203618,-0.189670,-0.293768,0.722575,0.677529,0.137258
0.212198,-0.088317,0.617136,-0.304479,-0.756019,0.579419
0.072355,0.387668,0.659347,0.059303,0.382873,0.921896
0.184023,-0.128202,0.085722,0.760453,0.557849,-0.332440
0.037636,0.084509,0.325378,0.926258,-0.261287,-0.271615
0.103686,0.140232,0.745704,0.908386,-0.034893,-0.416675
0.107388,0.045877,0.889281,-0.411902,-0.788572,-0.456608
0.171216,-0.361872,-0.969479,0.711379,-0.060661,-0.700186
0.670007,-0.398319,-0.933487,0.370324,0.793823,-0.482396
0.303316,0.223278,0.838975,-0.206220,-0.475055,0.855451
0.123757,-0.243027,-0.241207,-0.081286,0.980344,0.179770
-0.405359,0.039954,0.109107,-0.167423,-0.964538,0.204048
0.112061,0.662040,0.695103,0.778994,-0.515030,-0.357649
0.452747,-0.742508,0.522512,-0.032510,-0.882322,0.469522
-0.067901,-0.006653,0.204216,0.995451,0.041411,-0.085799
0.056501,-0.137651,0.530979,-0.363506,0.574761,-0.733153
-0.108030,0.260484,0.819725,-0.327111,0.892715,0.309931
0.359442,-0.444959,-0.030814,-0.700719,0.348435,-0.622564
0.185114,0.103442,0.872572,0.412903,0.815555,0.405440
0.076820,0.026312,0.567329,0.676245,0.663953,0.319154
0.878363,-0.228948,-0.940274,-0.596965,0.366698,-0.713558
-0.260348,-0.061671,0.087907,-0.530164,-0.847431,-0.028053
-0.369304,0.588359,0.689670,0.255563,0.769902,-0.584755
0.157727,0.031788,-0.471079,0.850245,0.157068,-0.502406
0.123882,-0.039740,0.635920,-0.372161,-0.917309,-0.141563
0.096129,-0.300673,0.078339,-0.798377,0.564980,-0.208308
0.041308,-0.043320,0.538139,0.740769,-0.578235,0.341916
0.213035,-0.022546,0.521064,0.001955,-0.373055,0.927807
0.233031,-0.102365,0.120289,-0.228963,-0.858018,0.459762
-0.012708,-0.016084,0.247924,-0.358510,-0.645419,0.674466
0.025314,-0.411307,0.089301,-0.605824,0.734155,-0.306585
-0.174656,-0.359541,0.143264,0.240797,-0.717610,0.653492
-0.176996,0.365102,0.698683,0.961036,0.225125,0.160402
0.184511,-0.126362,-0.335836,0.984170,0.101564,-0.145235
