0.110958,0.565825,0.510660,0.881574,0.387846,-0.269078
0.480974,0.092133,0.377327,0.363930,0.382738,-0.849156
0.412269,-0.643315,0.681845,-0.745546,-0.070359,-0.662730
0.136358,-0.084922,0.946632,-0.560580,-0.822759,0.093896
0.765746,-0.566046,-0.147158,0.972390,-0.176272,-0.152922
0.174639,0.033851,0.792994,-0.163961,0.923152,-0.347718
0.331324,-0.386930,0.692699,0.715795,-0.095965,-0.691685
-0.204695,-0.235484,0.817134,0.742351,-0.648290,-0.169218
0.026542,0.206712,0.682472,-0.634757,0.007582,0.772675
0.107487,-0.118184,-0.139989,0.466349,-0.816056,0.341425
0.253758,-0.483480,0.108479,0.995121,0.062311,0.076493
-0.161298,-0.316579,0.731353,0.192822,-0.777926,-0.598039
0.256864,-0.842814,-0.982528,-0.120784,0.147568,0.981649
0.128866,0.207373,0.693702,0.206066,-0.594522,0.777226
-0.756701,0.341305,0.073234,0.834114,-0.322354,-0.447597
-0.291671,-0.657150,-0.542947,0.374348,0.608209,0.699961
-0.018593,-0.285672,0.039143,0.969243,-0.088111,0.229794
-0.038966,-0.484141,0.107727,0.988094,-0.110708,0.106833
0.658397,-0.137758,0.690468,0.732810,0.670810,-0.114033
0.928646,-0.469645,0.627023,0.876033,-0.103090,-0.471104
-0.186790,0.254470,-0.033477,0.878123,-0.418165,0.232460
-0.004432,-0.639856,0.604763,0.707644,-0.605994,0.363334
0.746926,-0.235779,0.048217,-0.628192,-0.758512,-0.173303
0.731578,-0.636765,0.439970,0.840733,-0.172192,0.513341
0.550591,0.476120,0.489328,-0.704184,-0.107998,0.701756
-0.313508,0.123997,-0.033402,0.677048,-0.703024,0.217632
0.487278,-0.540658,-0.072207,0.342654,0.161447,0.925485
-0.035037,-0.430200,0.076669,0.982664,-0.138396,0.123357
-0.731578,0.034881,0.737570,0.970173,0.031744,-0.240327
0.626878,-0.027080,0.440847,-0.485856,0.855370,-0.179682
-0.368233,-0.127971,0.768102,0.907175,-0.341846,0.245307
-0.300900,-0.219516,0.730225,-0.515497,0.818788,-0.252683
0.274312,-0.873794,0.137833,0.770334,-0.523393,-0.364205
-0.739253,0.344249,-0.497524,-0.742487,-0.328958,-0.583523
0.706638,0.486644,0.553375,-0.059142,-0.971003,0.231636
-0.319628,0.460152,0.062330,-0.680517,-0.699419,-0.218424
0.671097,-0.413422,0.810766,0.926847,-0.370256,0.062176
0.860671,0.167930,0.591226,0.972769,0.228474,-0.038999
-0.438400,-0.027449,0.605164,0.903832,0.323072,0.280556
-0.040703,-0.831775,0.475541,-0.207880,-0.117396,-0.971084
-0.548673,-0.377069,0.341405,-0.639729,-0.439226,0.630735
0.251748,0.131651,0.250661,0.865192,-0.220900,0.450162
-0.621946,0.179777,0.412245,0.043767,-0.211162,0.976471
-0.258690,0.190669,0.118506,-0.690991,-0.721898,0.037346
-0.406238,0.207079,-0.505546,-0.142602,0.603917,0.784186
-0.191357,0.160350,0.307389,0.840211,0.486345,0.239821
0.681695,-0.122452,-0.553625,0.563733,0.481961,-0.670760
0.066192,-0.978953,0.198270,0.551849,-0.041010,0.832935
0.663332,-0.283318,0.326139,0.742074,0.191941,-0.642250
0.530673,-0.304658,-0.571674,-0.668089,0.469965,0.576879
-0.361472,-0.468908,0.779909,0.951758,-0.124581,0.280421
-0.003790,-0.218265,0.706662,-0.133883,-0.977149,-0.165089
0.908638,-0.528074,0.685154,0.440258,-0.872131,-0.213450
-0.061898,-0.555743,0.593959,-0.148113,0.359406,0.921352
-0.737059,0.345205,-0.190575,-0.549266,0.820726,-0.157214
-0.134529,0.685187,0.000614,-0.116521,-0.657932,0.744009
0.333242,0.696078,0.390562,0.957752,-0.268430,-0.103232
-0.578729,-0.070204,-0.237701,-0.088236,0.938013,0.335179
-0.368325,-0.212672,-0.877195,0.614378,-0.771549,0.165080
-0.155086,-0.150636,0.912590,-0.315842,-0.648902,0.692221
0.178749,-0.534255,0.387003,-0.646067,0.162516,0.745779
-0.225983,-0.196409,0.858394,0.894871,-0.206748,0.395551
0.838929,-0.673265,0.072031,0.344443,-0.937905,-0.041148
-0.163949,0.307675,-0.014902,0.963859,-0.048636,0.261935
0.223791,-0.100522,0.134223,0.908112,0.400065,-0.123614
-0.624502,-0.334461,0.584433,0.819019,0.060067,0.570613
0.206067,-0.172639,-0.599047,-0.012060,0.999388,0.032821
0.452742,-0.185886,0.842953,0.621035,0.783111,0.032441
0.744093,-0.489808,0.726716,0.451613,0.639311,-0.622356
0.194920,-0.111781,0.256878,-0.402395,0.896982,0.183034
0.789228,-0.404518,0.732907,-0.416569,0.788989,-0.451627
-0.077155,0.185444,-0.233690,0.993629,-0.017061,-0.111403
0.943537,-0.502685,0.652516,0.939989,0.079759,-0.331752
-0.693938,0.072853,0.604788,0.608644,-0.729394,0.312308
-0.053765,-0.007138,0.769029,-0.449636,0.824120,-0.344461
-0.952582,0.060785,-0.228176,0.330936,0.904231,0.269905
-0.062902,-0.885275,-0.262092,-0.181984,-0.834788,0.519626
0.571238,-0.269556,0.435282,-0.428168,-0.903567,-0.015445
-0.493398,0.609022,0.237375,0.753773,0.526763,-0.392869
0.589968,0.488336,-0.192279,0.450541,0.891203,0.052637
-0.844503,0.229744,0.307514,0.901576,-0.257299,-0.347789
0.742817,0.028847,0.575359,-0.633154,0.684694,-0.360984
0.036590,-0.394289,-0.416431,-0.647757,0.743304,-0.167065
-0.291947,-0.723821,0.567488,0.764542,-0.401983,-0.503871
-0.608788,-0.465083,0.259284,-0.304578,-0.895033,-0.325803
-0.198118,0.059534,0.701874,0.392000,-0.619632,-0.679995
-0.286190,0.655088,-0.252767,-0.602860,0.601616,0.524040
0.212736,-0.215836,0.670389,0.181709,0.072447,0.980680
-0.203416,-0.283465,0.869524,0.792806,0.604710,-0.076050
0.123293,0.247700,0.115097,0.503942,0.863106,-0.033007
0.526837,-0.144823,0.870026,0.162871,-0.468242,0.868460
-0.168243,-0.860917,-0.542947,-0.561535,-0.693483,-0.451397
0.043167,-0.308632,0.640509,0.917825,-0.305532,-0.253472
-0.309761,-0.516889,0.729272,0.282178,-0.946585,-0.156050
0.508655,-0.314372,0.851401,0.835000,0.486440,-0.257199
-0.739253,-0.003458,-0.548211,0.934263,0.142566,0.326844
-0.622311,-0.003827,0.741631,-0.618816,-0.740660,-0.261705
0.448813,-0.215983,0.248255,0.525802,0.850577,-0.007121
0.386961,0.502244,0.630808,-0.194011,0.967174,-0.164115
-0.154628,-0.171684,0.381413,0.543167,0.802171,0.247977
-0.054222,-0.157039,0.241386,0.785687,0.616984,0.045025
-0.048010,-0.437338,0.682096,0.949703,0.287648,0.123786
0.803389,-0.241593,0.656326,-0.581102,-0.247874,-0.775164
-0.724451,0.252999,-0.412847,-0.564245,-0.402277,-0.720972
0.154628,-0.114652,0.955656,0.863485,0.504157,0.014838
-0.136174,0.157480,-0.348424,0.999189,0.017678,-0.036179
0.313781,-0.050408,0.375522,0.572582,0.818959,0.038158
0.117903,-0.621900,0.593708,-0.432616,-0.699393,0.568940
-0.070028,-0.610420,0.323507,0.951415,-0.207087,-0.227869
0.764377,-0.430053,0.647478,0.845495,-0.219288,0.486879
0.173817,-0.150858,-0.151896,-0.054896,-0.966769,0.249688
0.301173,0.059238,0.303954,0.982037,0.123758,0.142436
0.288657,0.359409,0.491859,-0.700164,-0.712694,-0.042876
-0.012197,0.086026,-0.524873,0.879885,-0.429854,0.202553
-0.219405,-0.163736,0.807357,-0.665632,0.710246,-0.229097
0.653465,-0.240709,-0.574883,-0.530500,0.734716,0.422803
-0.120825,-0.130620,0.759980,-0.466001,0.833423,0.297067
-0.052577,-0.421150,-0.994686,0.032414,0.008877,0.999435
0.217760,-0.025314,0.053231,0.881438,0.461576,-0.100069
-0.626696,-0.046434,0.751357,0.530997,0.633759,0.562488
-0.171165,-0.742512,0.473259,0.752708,0.475549,0.455285
0.731486,-0.365369,0.180473,-0.036842,0.986477,0.159706
0.449363,-0.708293,0.696760,-0.510059,-0.250552,-0.822838
0.297702,0.508425,0.396553,0.923240,0.301086,-0.238696
-0.267735,-0.705276,-0.986990,-0.073749,0.167948,0.983033
0.658489,0.140628,0.624015,-0.309157,-0.948863,0.063876
-0.306931,-0.188609,-0.176587,0.973267,0.184696,0.136521
-0.413549,0.442637,-0.392593,0.418137,-0.646010,-0.638617
-0.207436,-0.304290,0.848017,0.950845,-0.308691,0.024563
-0.523000,-0.318787,-0.172802,-0.117280,0.538083,0.834693
-0.629710,-0.138568,0.720374,0.307263,-0.899423,-0.310848
-0.317618,-0.807343,0.642414,0.685408,0.451855,-0.571001
-0.677036,-0.388991,-0.375346,0.986869,0.155191,0.044788
0.720250,-0.628229,0.220330,0.327899,0.727957,0.602129
-0.262437,0.228346,-0.567688,-0.059587,0.749063,0.659813
0.103285,-0.650526,-0.981049,-0.074174,0.063830,0.995200
-0.101091,0.153433,0.385875,0.775516,0.606614,-0.174913
-0.423963,0.477518,-0.404048,-0.355897,0.702337,0.616491
0.911287,-0.362499,0.652391,0.873478,0.486702,0.012557
-0.432277,-0.207006,0.201529,-0.401244,-0.915837,-0.015686
0.280800,0.377806,0.618349,-0.544268,-0.569929,-0.615592
0.154082,-0.727941,0.582829,-0.688959,0.181971,0.701585
0.641953,0.130547,0.646099,0.983727,0.151658,-0.096343
-0.299163,-0.425271,0.802645,0.081918,0.995571,-0.046126
0.848978,0.469571,0.254672,0.926319,-0.026604,0.375800
0.608515,-0.325043,0.164831,-0.728741,-0.618389,0.294161
-0.366496,0.500552,0.238754,0.976309,0.214985,0.024534
-0.355260,-0.196703,-0.328696,-0.339781,0.803872,0.488200
0.067472,0.761940,-0.468121,-0.354688,0.102145,-0.929388
-0.820198,0.109205,0.378079,0.829860,0.552220,-0.079912
0.111781,0.285083,0.679037,-0.310918,0.924686,0.219740
-0.004613,-0.183310,-0.995337,0.054503,-0.224889,0.972859
0.006166,0.535948,-0.172175,0.156305,-0.344832,0.925559
-0.694303,-0.097726,0.672996,0.195491,0.629823,0.751735
-0.161209,-0.253808,0.709945,-0.020720,-0.034078,0.999204
-0.824127,0.358010,0.021545,0.768209,-0.609805,0.194915
0.018685,-0.281919,-0.802970,-0.114187,0.897561,0.425847
-0.595084,0.196998,0.167914,0.880974,0.077970,-0.466697
0.452011,-0.544557,0.655399,-0.830639,0.474922,0.290668
0.097620,0.474943,-0.555154,0.408936,-0.674131,0.615076
0.291671,-0.461181,0.707063,-0.570676,0.540375,0.618323
0.204057,-0.191479,-0.322429,-0.586459,0.809724,-0.020344
-0.425335,0.122820,0.026108,0.994471,-0.016095,0.103774
0.196016,-0.169328,0.299643,0.944310,-0.296995,-0.141674
-0.853179,0.233204,0.049195,0.444651,0.411528,0.795569
0.161939,-0.719552,0.052804,0.979640,0.116615,0.163418
-0.021880,-0.306571,0.662668,0.796507,-0.451126,0.402569
0.098807,0.106410,-0.030595,-0.778801,0.481729,-0.401755
-0.096889,0.449701,0.553325,0.235306,0.967689,0.090603
0.956695,-0.485981,0.661014,0.998772,0.024041,-0.043315
0.898130,-0.182647,0.011794,0.911629,-0.044504,0.408597
0.634643,-0.293620,0.107501,-0.426397,-0.890759,-0.157268
-0.166598,-0.736183,-0.989472,0.054014,0.056066,0.996965
0.260335,-0.878799,0.148838,0.741548,-0.611883,-0.275148
0.641769,0.699463,0.252792,-0.690090,-0.455428,-0.562459
-0.236764,-0.419162,0.780410,0.734508,0.178561,0.654687
0.413000,0.293840,0.097174,0.281008,-0.916946,0.283276
-0.366039,0.672824,0.001667,-0.786117,0.222582,0.576608
-0.295692,0.475017,0.256201,0.938487,0.253135,0.234873
-0.567950,0.059165,0.770408,0.276402,0.772752,0.571364
0.909915,-0.550150,0.741806,0.064343,-0.828176,0.556762
-0.390708,-0.443594,0.334386,0.693942,-0.712737,-0.102228
0.511761,-0.355288,-0.607395,0.764789,-0.640836,0.066535
0.011558,-0.865258,0.159993,-0.623579,0.154884,0.766263
-0.026084,0.269703,0.579194,0.970675,0.236897,0.040866
-0.368414,-0.186474,-0.353688,0.753676,0.629580,0.188682
-0.221140,-0.142247,0.922742,-0.079439,0.279268,0.956921
0.502078,-0.174552,0.580197,0.998396,0.056241,0.006530
-0.741445,0.401206,-0.009012,0.523308,-0.834086,0.174496
-0.346762,-0.673412,-0.533371,0.468325,0.592477,0.655472
-0.000319,0.252484,-0.356571,-0.495479,0.638014,-0.589439
0.551230,-0.696152,0.458996,-0.159108,0.789092,0.593312
-0.448724,-0.183825,-0.726841,0.209234,0.976559,-0.050537
-0.599835,0.183531,-0.407583,-0.277881,-0.869938,0.407418
-0.270018,-0.467584,-0.974180,-0.244480,-0.146635,0.958503
0.032662,-0.253366,0.589522,0.532283,-0.506603,0.678254
-0.898222,0.036942,-0.275177,-0.154704,0.949592,-0.272657
-0.230733,-0.427036,0.740904,0.952557,0.300490,-0.048376
0.845964,-0.680329,0.215366,-0.562614,0.631337,0.533741
-0.081449,0.074619,0.409789,-0.674963,-0.470493,0.568384
0.079803,0.390904,0.555079,0.914813,-0.369116,-0.163923
0.931933,0.211127,-0.093188,-0.546317,0.256493,-0.797339
-0.334887,0.658105,0.278486,0.976274,0.215074,-0.025130
0.795624,-0.511370,0.369230,0.918889,-0.302919,-0.252752
0.295510,-0.019133,0.770458,0.852483,0.506299,0.130130
0.071765,-0.277209,0.635119,-0.379695,0.444745,0.811192
0.886436,-0.570093,0.657329,0.179201,-0.668846,0.721479
-0.199763,-0.058503,-0.252366,-0.618317,0.761077,0.196076
0.017405,-0.557951,-0.995814,0.023772,0.048231,0.998553
-0.275227,-0.315329,0.384220,-0.734401,0.387964,-0.556902
-0.151523,-0.486276,-0.211406,0.296682,-0.319681,0.899880
0.324013,0.612849,0.424478,-0.499152,-0.091022,-0.861721
0.557352,0.427698,0.550342,-0.074396,-0.625375,0.776770
-0.473664,-0.156376,-0.161797,-0.584560,-0.806613,-0.087547
-0.086930,-0.442343,0.263922,0.990814,-0.098549,0.092610
-0.629253,0.040768,0.710948,0.535627,-0.186987,-0.823492
-0.265452,0.052984,0.124397,0.444385,0.881512,0.159555
0.267643,0.391419,0.322279,0.042408,-0.637007,0.769690
0.029648,0.364706,0.660688,0.901644,-0.375365,-0.214801
-0.122654,-0.434616,-0.256427,0.409095,-0.207116,-0.888675
0.212371,-0.031570,0.901786,-0.713928,0.583823,0.386597
-0.110685,0.546545,-0.464511,0.788604,0.498764,0.359637
-0.288108,-0.378394,-0.195337,0.930946,-0.362816,-0.041286
0.805215,-0.209066,0.439343,-0.252414,0.965080,-0.070063
0.030924,-0.906542,0.216269,0.922151,-0.253942,0.291805
-0.435383,-0.142541,-0.364893,0.716957,0.673030,-0.181668
0.952674,0.119435,-0.095670,-0.603009,0.013493,-0.797620
0.203142,0.095666,0.724785,-0.241914,0.415538,-0.876815
0.713580,-0.536978,0.286031,0.939519,0.224746,-0.258446
0.192363,0.473839,0.563452,0.278568,0.329165,0.902247
0.000960,-0.464273,0.727518,0.817525,0.485321,-0.310027
0.035037,0.441312,0.474312,-0.390715,-0.598004,0.699809
0.310675,0.275664,0.579746,0.256440,0.584302,-0.769954
-0.233293,-0.084038,0.293652,-0.748717,0.540479,-0.383803
-0.293957,-0.198470,0.163126,-0.029047,-0.990355,0.135471
-0.877484,0.330193,0.062130,0.667548,-0.592911,-0.450373
0.498057,-0.317168,0.548963,0.941043,-0.312689,-0.129085
0.126764,0.720582,0.035383,-0.299675,-0.788068,0.537721
-0.173632,0.244094,-0.342483,-0.020563,-0.998424,0.052223
-0.113060,0.711089,-0.705408,-0.258325,0.865083,0.430000
-0.028184,0.057693,-0.491584,-0.911909,0.410150,0.014137
-0.353799,-0.219000,0.730075,0.618147,0.032823,0.785377
0.391531,0.665096,-0.054584,-0.051964,0.737469,-0.673379
0.675207,-0.404739,0.259084,0.588974,0.807325,-0.036536
-0.085653,-0.710428,-0.149790,0.299775,0.927038,0.225245
0.220501,0.134962,0.973454,0.759593,0.646171,0.074040
0.100818,-0.291338,0.744288,-0.385856,0.339203,0.857937
0.668265,-0.174332,0.733258,0.919420,0.251797,0.302101
0.068841,-0.042093,-0.693953,0.669134,0.649548,-0.361036
-0.166690,0.319597,0.625945,0.272764,0.674473,0.686066
0.127402,-0.859519,-0.982929,0.009220,0.127549,0.991789
-0.662053,-0.096842,0.743360,0.262773,-0.266446,0.927338
-0.116624,-0.823754,-0.299492,-0.086859,0.646040,0.758345
-0.365674,0.652219,-0.279463,-0.510800,0.787817,0.344133
0.184780,-0.575098,0.034881,0.916110,0.335228,0.219921
0.147413,-0.143645,-0.162574,-0.140550,-0.980018,0.140748
0.074141,0.681875,0.014677,-0.296980,0.949631,-0.100025
0.025535,-0.462138,-0.236448,0.709046,-0.327345,-0.624579
0.845049,-0.519832,0.634543,0.890519,0.202152,-0.407568
-0.202412,-0.237766,0.929160,-0.283925,0.058049,-0.957088
-0.145127,0.579292,-0.467945,0.956079,0.142247,0.256277
0.037048,-0.937964,0.281820,0.247098,0.698149,0.671960
-0.224248,-0.149680,0.887949,0.345346,0.891499,-0.293198
-0.494586,-0.481345,0.365921,-0.791323,0.279425,0.543810
-0.463797,-0.577526,0.374995,0.817154,-0.564344,-0.117369
-0.624137,0.128928,0.536905,0.074819,-0.886949,0.455767
-0.656114,0.330119,0.222962,0.067213,0.636147,0.768635
0.162304,0.093678,0.449470,0.621347,0.746553,-0.237879
-0.347861,0.620207,0.004023,0.716064,0.210126,-0.665657
-0.424969,0.599896,0.287460,0.992121,-0.125262,0.002435
0.293865,0.713592,0.378530,0.792609,0.042077,0.608277
0.222785,0.344396,0.654973,0.982352,-0.097218,0.159793
-0.098350,-0.069100,-0.612458,-0.603351,0.733052,-0.314009
-0.211183,-0.209508,0.190750,0.293740,0.830161,0.473867
-0.376821,-0.279050,0.407006,0.534263,0.159442,-0.830145
0.550318,0.131798,0.679990,-0.603196,-0.310168,-0.734813
-0.060984,-0.086320,-0.713304,0.396311,0.790836,-0.466386
-0.393814,-0.653323,0.835232,0.523498,0.838240,0.152655
0.204330,-0.002576,0.471505,0.773359,-0.613917,-0.158184
0.767118,0.589521,0.125199,0.912529,0.408402,0.022342
-0.102005,-0.161160,0.401416,0.050645,0.991732,-0.117906
-0.207893,-0.548090,0.780686,0.486663,-0.873543,-0.009051
0.553606,-0.064243,0.648706,0.949339,-0.299380,0.095541
0.724451,-0.277651,0.723858,0.730406,0.128403,0.670835
-0.664975,-0.161086,0.712252,-0.366754,0.451071,0.813650
-0.493947,-0.140187,0.810190,0.560541,0.826739,-0.047916
0.610160,-0.270513,0.723858,0.954347,0.084586,-0.286473
-0.647800,0.095886,0.629479,0.829399,-0.414387,-0.374675
-0.214016,-0.730886,0.206518,-0.694264,0.629687,0.348557
-0.290029,0.586798,-0.255800,-0.519593,0.435483,0.735104
0.424239,-0.098095,0.374143,0.808459,0.555078,0.195660
-0.036225,-0.368313,0.082559,0.969056,0.071471,0.236266
-0.534236,-0.249319,-0.229178,0.250452,-0.955465,0.156079
0.864053,-0.371477,0.473284,0.952636,0.169900,-0.252229
0.414464,0.240121,0.669687,0.993587,-0.109250,-0.029132
-0.065734,-0.325557,0.248681,0.986527,-0.095547,-0.132799
0.740349,-0.663992,-0.132544,0.958466,0.102418,-0.266181
0.176465,-0.403930,-0.997869,0.054366,0.035478,0.997891
0.165226,-0.663625,0.091458,0.979604,0.174662,0.099341
-0.460964,-0.138936,-0.319997,0.729598,0.611814,0.305567
-0.269472,-0.007801,-0.158589,0.531987,-0.439038,-0.724041
-0.072222,0.429686,-0.195237,-0.183700,-0.482451,0.856443
-0.322461,-0.351976,0.693877,0.031670,-0.409609,0.911711
0.773238,-0.558025,0.666729,-0.624922,-0.780350,0.022950
-0.030378,-0.357421,-0.237050,0.638507,0.742073,0.204049
0.026907,0.193465,0.569318,0.949020,-0.153724,0.275190
-0.497965,-0.098683,-0.294178,0.879013,0.307817,-0.364122
0.375998,-0.642137,-0.987516,-0.052529,0.206024,0.977136
0.156182,0.289352,0.700971,0.484350,0.862041,0.149298
0.448356,0.003458,0.814501,0.746282,0.175272,0.642139
-0.375725,-0.192950,-0.400464,0.665448,0.746323,0.013431
0.106207,-0.946869,-0.985110,0.038826,0.144547,0.988736
-0.801928,0.331150,0.245547,0.916903,0.379797,0.122650
0.594354,0.291707,0.584233,0.248507,-0.818157,-0.518521
0.189712,-0.268820,0.681319,-0.306876,-0.168038,0.936798
-0.418024,-0.552799,0.121715,-0.109975,-0.829469,0.547619
-0.540451,0.138053,0.626070,0.030692,-0.068035,0.997211
0.319173,-0.031201,0.419214,0.849731,0.481317,-0.215153
-0.365493,-0.069247,0.631685,0.320817,0.932729,-0.164599
0.233840,0.005887,0.965482,0.780200,-0.024145,-0.625064
0.329495,-0.008757,0.513117,-0.016074,0.999801,0.011843
-0.148601,-0.712414,0.677157,-0.587026,0.807309,-0.060437
0.696040,0.059828,0.624817,0.985409,-0.170049,0.007234
-0.503174,-0.203989,0.602381,-0.478073,0.875753,0.067100
-0.539444,0.011333,0.246901,0.887903,0.185266,-0.421076
-0.141839,0.545073,0.588469,0.090462,0.099015,-0.990965
-0.434106,0.616160,0.228351,0.657908,0.583372,-0.476270
0.703986,0.220546,0.635044,0.959713,-0.274903,0.058127
-0.581470,-0.070131,-0.312051,0.267576,0.961499,-0.062640
0.237403,-0.143204,0.024704,-0.560595,-0.823200,0.089862
0.554885,0.391935,0.285555,-0.335069,0.189213,0.922999
-0.817731,0.080580,0.838641,0.470089,-0.745770,0.472064
-0.146315,0.609169,-0.494191,0.872497,0.146711,0.466074
-0.123750,-0.677974,0.245949,-0.206735,-0.446799,0.870420
0.659128,-0.667452,0.481306,0.458133,-0.865759,-0.201433
0.024531,0.129663,0.668434,-0.288629,-0.143208,0.946670
0.344663,0.441755,0.653795,-0.256842,0.329430,-0.908575
0.178933,-0.103613,0.988469,0.001820,0.979581,0.201042
0.039057,-0.020899,0.460575,-0.561653,-0.821952,0.094559
0.142205,-0.126646,0.500382,-0.369692,0.630537,0.682459
0.517611,0.056443,0.711575,-0.758134,-0.080720,-0.647084
0.742906,0.071307,0.640709,-0.127660,-0.975471,0.179333
-0.192910,-0.577673,0.582277,0.741517,0.202195,-0.639742
0.469554,-0.248363,0.368653,0.941815,0.265930,-0.205585
0.619020,-0.012657,0.560043,-0.223742,0.118918,0.967366
0.389247,0.062036,0.790913,-0.544378,-0.318396,-0.776065
-0.465807,0.046803,0.740076,0.785816,0.540782,-0.300080
-0.210999,0.134962,0.675603,-0.212037,0.856868,-0.469913
0.606962,-0.179704,0.781638,0.818259,0.520778,0.243399
-0.121098,0.343807,0.668534,0.241445,-0.967638,-0.073359
0.858388,-0.679519,0.225870,0.560358,-0.527361,-0.638663
-0.006623,-0.604607,0.668810,0.884363,-0.239763,0.400519
-0.147870,0.372066,0.448493,0.917097,0.298675,-0.264056
0.971678,-0.428067,0.000364,0.906215,0.346396,0.242455
-0.884245,0.041284,-0.506799,0.827456,0.203453,0.523377
-0.544014,0.531238,0.054835,-0.254069,0.947354,0.194855
0.265086,-0.832953,0.156057,0.883080,-0.426158,-0.196364
-0.210177,-0.097873,0.276205,0.464367,-0.789438,0.401437
0.304190,0.168887,0.768152,-0.305071,-0.523197,0.795737
0.385866,0.338877,0.568164,0.144578,-0.988925,-0.033539
-0.029829,0.145486,0.660738,0.282015,0.104022,-0.953754
0.904068,-0.695856,-0.002770,0.052551,-0.952076,0.301314
0.110593,-0.437487,0.675127,0.951888,-0.163986,-0.258878
0.255676,-0.232173,0.350855,0.119348,0.512285,-0.850482
0.024713,-0.873059,0.361359,0.942621,-0.088130,0.322024
-0.530218,-0.108470,0.756345,0.826385,0.540888,0.156617
0.687269,0.470086,-0.496973,0.999517,0.006883,0.030304
0.356629,-0.716682,-0.966084,-0.032909,0.098899,0.994553
-0.072312,-0.488630,0.077797,0.988129,-0.126550,0.087094
0.507286,0.567518,0.370007,0.465544,0.840226,0.278009
0.306838,0.105527,0.192079,0.975382,0.004576,-0.220475
-0.395917,-0.143131,-0.367024,0.798732,0.601274,0.022274
-0.231191,-0.840165,0.127355,0.610285,0.789087,-0.069955
0.642226,0.139157,0.652190,-0.067586,0.543883,0.836435
-0.383125,-0.455810,0.805502,0.997321,-0.029335,0.067011
0.009640,0.106925,0.859698,0.422976,0.904781,0.049617
0.374264,0.178526,0.251965,-0.643957,0.631901,-0.431301
-0.249737,-0.827140,-0.985160,-0.134250,-0.059050,0.989187
-0.044812,0.832143,-0.291446,-0.506885,0.851526,-0.134054
-0.545291,-0.189491,0.494166,-0.162013,0.325477,0.931567
-0.168059,0.759879,0.042552,0.117472,-0.939349,0.322218
-0.070851,0.012731,0.689666,-0.698575,0.715077,-0.025646
-0.144396,-0.574582,0.734161,-0.386357,-0.149539,0.910146
-0.103558,0.380749,0.065288,-0.015669,-0.958970,0.283074
-0.454660,0.018029,0.759428,0.312322,0.513534,0.799211
0.475309,-0.260357,0.318920,0.831262,0.546272,0.102915
0.346032,-0.111855,0.709269,-0.169368,0.844666,0.507793
-0.550957,0.034071,0.237902,0.839465,0.271759,-0.470579
0.574801,-0.492016,0.780510,-0.293844,-0.927999,0.229069
-0.070669,-0.674442,0.757423,-0.723605,-0.507776,0.467502
-0.761545,0.377290,0.263120,-0.171666,0.944256,0.280910
-0.764834,-0.016042,-0.195713,0.131390,0.632633,0.763225
-0.862316,0.303849,-0.104293,0.600067,-0.766937,0.227435
-0.073045,-0.210906,0.174456,0.563263,0.579213,-0.589277
0.070028,0.335639,0.796879,0.987112,-0.111496,-0.114798
-0.229089,-0.147546,-0.612358,0.387028,-0.499912,0.774789
0.064089,0.163956,0.679940,0.000409,-0.468593,0.883414
0.055045,0.204062,0.714683,0.857672,-0.053687,0.511387
0.744643,0.454927,-0.501485,0.999517,0.006883,0.030304
0.357178,-0.710059,0.603560,0.602985,-0.714845,-0.354127
0.595177,0.468320,0.587266,0.938336,-0.345721,-0.001573
0.204057,-0.176393,-0.584834,0.019994,0.998906,-0.042282
0.339181,-0.062698,-0.454158,0.842140,-0.533359,0.079552
-0.368049,0.431378,0.121915,0.903745,-0.073090,0.421786
-0.151065,-0.764883,-0.986714,0.056954,0.068144,0.996049
0.079803,0.126646,0.683424,-0.575621,0.716479,-0.394103
0.229089,-0.156451,-0.163101,0.189904,0.980900,-0.042082
0.153076,0.381632,-0.605088,-0.618880,0.662706,-0.421673
-0.251748,-0.626021,0.579395,0.711443,-0.393409,-0.582303
0.341738,-0.539038,-0.490054,-0.192001,0.970895,0.143170
0.543738,0.656119,-0.031898,0.308002,0.827811,-0.468895
-0.431546,-0.504157,0.359153,0.906820,-0.416496,-0.064881
-0.004524,-0.793067,0.556358,0.555409,-0.816852,-0.155803
0.190626,-0.667966,0.451150,-0.068481,0.071013,0.995122
-0.298982,-0.061520,0.721276,0.024120,-0.976795,-0.212812
0.015395,0.534255,0.630708,-0.107949,0.835806,0.538308
0.208716,0.253072,0.781989,0.577010,0.797673,0.175434
-0.274312,-0.586210,0.144075,0.877141,0.226034,-0.423712
-0.550134,-0.316358,0.361183,0.697998,-0.052480,-0.714174
0.573158,-0.656340,0.517929,0.965819,-0.248530,0.073670
0.389429,0.532489,0.424754,0.555027,0.157913,0.816706
-0.118634,-0.607697,0.706787,0.286922,-0.820000,0.495252
0.459046,-0.602399,0.664147,0.299542,0.558502,0.773531
-0.099722,0.584149,0.006856,0.805883,-0.018877,0.591773
0.240417,-0.421076,0.412972,-0.823083,0.309584,0.476122
-0.442052,-0.072485,0.452228,-0.304594,0.886584,-0.348125
0.413365,-0.120686,0.410792,0.835095,0.546413,-0.063637
-0.223242,0.446832,0.172000,-0.423948,0.603644,0.675190
-0.392900,0.256457,0.215843,-0.471462,-0.857551,0.205743
-0.501529,-0.058503,0.621558,0.327900,0.827936,0.454978
0.612990,0.423652,-0.124647,0.975385,0.219245,0.023569
-0.060802,-0.513430,0.466165,0.986350,0.128125,0.103426
-0.143574,-0.788211,-0.989572,0.049455,0.070335,0.996297
0.188708,-0.195525,-0.263621,0.595316,-0.803475,0.005261
0.975241,-0.429392,-0.006104,0.922076,0.240792,-0.302977
-0.518798,-0.068438,0.643868,-0.672284,0.696157,-0.251792
0.369148,-0.333652,-0.984458,0.047717,-0.116463,0.992048
-0.529396,-0.353447,-0.774519,0.782391,-0.204019,0.588422
-0.114705,-0.108176,0.735865,0.962797,-0.204934,-0.176139
0.203784,0.160719,0.727217,0.597350,-0.212249,-0.773385
0.248366,-0.101038,0.905722,-0.476385,-0.737528,-0.478655
0.428440,-0.438001,-0.997443,0.037855,0.022017,0.999041
0.366772,0.398263,0.105195,0.533395,-0.771537,0.346728
0.509112,0.505114,-0.609225,0.318631,-0.029039,-0.947434
-0.165410,0.485540,0.584308,0.125509,-0.421800,0.897960
-0.472568,-0.082862,-0.256026,0.893006,0.344709,0.289336
0.088759,0.662816,-0.167187,-0.320025,-0.284265,0.903757
-0.349779,-0.294061,0.786852,0.790431,0.434206,-0.432069
-0.075328,-0.183751,0.399311,-0.156291,0.986803,-0.042344
-0.682244,0.382589,-0.124823,0.843341,-0.537337,-0.006753
0.163673,-0.535139,0.396227,0.831419,0.115816,-0.543441
0.248731,-0.106337,0.864210,-0.608084,0.526789,0.593909
-0.628796,0.107955,0.145428,-0.595403,0.638012,0.488299
-0.016125,-0.516962,0.674701,0.927509,0.288408,0.237797
0.069114,0.071160,0.885768,0.421622,0.792677,0.440340
-0.096797,0.259328,0.648932,0.291673,0.955402,-0.046191
0.627973,-0.319597,0.772263,-0.035634,0.958714,0.282130
0.024713,0.287143,0.752460,0.930376,0.361784,-0.059266
-0.042894,-0.132166,0.774970,0.793359,-0.190868,0.578058
-0.344021,-0.715357,0.113167,0.918579,0.394781,0.018999
0.494037,-0.374567,0.747296,-0.475829,0.443964,0.759265
0.461332,0.132313,0.697362,-0.655814,-0.733761,-0.177491
0.056417,-0.824711,-0.982754,0.087679,-0.144045,-0.985679
0.188708,0.077857,0.905421,0.908407,-0.413087,0.064461
-0.822847,-0.064537,0.299492,0.864353,0.498565,-0.065784
-0.248642,0.597616,0.206467,-0.094501,0.535531,0.839212
-0.176557,0.717271,0.016231,-0.075642,0.866239,-0.493870
0.093418,-0.228862,0.571925,0.327234,-0.468293,0.820743
-0.010736,0.332033,0.643743,0.758857,-0.649068,-0.053361
-0.057328,0.707558,0.030695,0.408795,0.487134,0.771743
0.089947,-0.078961,0.919459,0.367697,-0.336866,-0.866787
0.169339,0.465597,0.519183,-0.498881,-0.852442,-0.156399
-0.862592,0.310177,0.090581,0.767504,-0.475386,-0.430053
-0.696771,-0.284053,-0.178442,0.849466,0.522286,0.074999
-0.068567,0.398631,0.579670,0.766270,0.579163,0.278211
-0.418665,-0.025756,-0.250887,0.956972,-0.289277,-0.022875
-0.160386,0.277872,-0.014727,0.202644,-0.978015,0.049212
-0.102097,-0.581941,0.752961,0.575176,0.761437,-0.298977
0.749578,0.291486,0.555455,-0.728819,0.542123,0.418241
-0.299712,-0.663404,-0.990048,-0.000637,0.010487,0.999945
-0.159745,-0.373538,-0.133020,-0.531556,0.416809,-0.737373
-0.445891,0.410773,0.215467,-0.369758,0.852791,0.368818
0.807044,0.125248,0.673447,0.290367,0.846322,0.446571
-0.050478,0.300831,0.486545,-0.430483,0.821848,0.373163
-0.253758,-0.201781,-0.756521,0.427790,0.903268,-0.033217
-0.556895,-0.194790,0.717992,-0.521200,0.780883,0.344344
0.194828,-0.532490,0.040797,0.854397,0.461280,0.239220
-0.003883,-0.162117,-0.728721,-0.368889,-0.171500,0.913515
0.704993,0.490617,0.607270,0.770310,0.399816,-0.496759
0.237676,0.515711,0.524397,0.642947,0.669220,-0.372510
0.535151,0.047244,0.703553,0.459180,0.028422,0.887889
0.336713,-0.521009,-0.998671,0.042954,0.123025,0.991474
-0.906536,0.295165,0.247954,-0.509991,0.791785,-0.336134
0.681146,0.223268,0.533847,-0.726422,0.061806,0.684464
0.607784,-0.427184,-0.499054,-0.367215,0.871532,0.324937
0.668722,0.353374,-0.033628,-0.597711,-0.059117,0.799529
-0.170343,-0.291927,-0.840170,0.930563,-0.006609,-0.366073
0.832625,-0.438590,0.638754,0.529546,-0.104784,0.841785
-0.765838,-0.099493,0.660914,0.445162,0.659514,-0.605700
0.278333,-0.260284,-0.647377,0.633258,0.678843,-0.371695
-0.549039,0.056221,0.410190,-0.663790,-0.707133,-0.243607
0.087752,-0.251895,-0.373717,0.838635,-0.524338,-0.147513
-0.288200,-0.063875,0.322529,0.760087,-0.265905,0.592927
-0.396190,0.085289,-0.490205,0.971908,0.186927,0.143017
0.136815,-0.633379,0.577966,-0.548173,-0.493173,0.675490
-0.512402,-0.219737,0.761008,-0.296576,-0.725950,-0.620516
-0.691105,-0.306646,0.632512,0.550465,0.570018,-0.609973
0.326662,0.764442,0.371260,0.308442,-0.778431,0.546726
0.227535,0.114210,0.728545,-0.483208,0.169706,0.858900
0.112238,-0.613658,-0.988644,-0.060402,0.220610,0.973490
-0.096616,0.435940,0.555405,0.788882,0.570505,0.228447
-0.096981,0.370668,0.258708,-0.577852,0.716555,-0.390687
0.053949,0.495474,-0.176988,0.303410,-0.390733,0.869063
0.135993,0.289425,0.319421,0.939984,-0.132447,-0.314463
0.506190,-0.613364,0.432776,0.259796,-0.584763,-0.768478
0.699969,-0.378541,0.715109,0.811874,-0.216770,0.542099
-0.610982,-0.247333,0.679940,0.717018,0.481847,-0.503694
-0.388425,0.111119,0.113292,0.748384,0.571001,0.337460
-0.440499,0.210759,0.127681,0.557096,0.209301,0.803640
-0.526471,-0.238354,0.647703,-0.123900,0.985491,0.116004
-0.225436,-0.809037,0.664599,0.741757,0.114910,-0.660751
-0.487278,0.043050,0.753362,-0.484340,0.132747,0.864750
-0.011831,-0.748473,0.442452,0.930050,0.124782,-0.345596
-0.674934,-0.030907,-0.379006,-0.276547,-0.929759,0.243045
0.037686,0.152403,0.444582,0.311899,0.596221,-0.739757
-0.093599,-0.903525,0.376625,-0.467393,0.609218,-0.640623
0.184780,-0.882110,0.135928,0.860127,-0.064085,-0.506038
-0.399204,0.380233,-0.384646,0.550969,-0.607408,-0.572266
0.717509,-0.378541,0.772840,0.468460,-0.767767,0.437126
-0.706273,-0.027743,0.471931,0.160968,-0.982210,0.096714
0.481156,-0.221649,0.762161,-0.426693,0.311788,-0.848953
0.661503,0.282361,0.558890,-0.269456,0.930802,-0.246982
-0.611986,-0.150858,0.689892,0.845820,0.499222,-0.188059
0.124023,0.050997,0.814451,0.279175,0.940961,0.191453
-0.352062,-0.313710,-0.801216,-0.300479,0.764840,-0.569853
0.299255,-0.130915,0.417660,0.816670,0.574497,0.054803
-0.560916,0.069689,0.392041,-0.658432,-0.678850,-0.325008
-0.565117,-0.194790,0.685329,-0.450595,0.678344,-0.580357
0.287743,0.761866,-0.720925,0.744727,-0.150035,-0.650285
-0.452469,-0.012731,0.402494,0.694309,0.591375,0.410135
0.583207,0.201119,0.682271,-0.527948,-0.651392,-0.544940
0.475401,-0.459562,-0.288563,0.054654,-0.357811,-0.932193
0.062445,-0.549782,0.591928,-0.627287,-0.515100,0.584108
0.134805,-0.047318,0.929260,0.749972,0.034953,-0.660545
-0.148966,-0.110458,-0.116200,0.257058,0.249674,-0.933587
-0.927550,0.217897,-0.489027,-0.657597,0.459114,-0.597311
0.255676,-0.283979,0.790512,-0.547222,-0.757403,-0.356216
0.515235,-0.727869,0.530889,0.874497,-0.244100,-0.419130
-0.395917,0.089484,-0.174306,-0.602850,0.763349,0.232099
-0.057055,-0.740673,0.618976,0.802831,-0.344304,0.486741
0.293958,-0.591876,-0.990449,-0.009264,0.081007,0.996670
-0.278790,0.692251,0.185662,0.026523,-0.978176,0.206080
-0.239048,-0.139671,0.431522,-0.624043,-0.745563,-0.233894
-0.363482,0.414526,0.147133,0.911478,0.362686,0.194081
-0.038966,0.467143,-0.476192,0.556662,0.521405,0.646733
-0.028368,0.751195,0.011017,0.734920,0.492856,-0.465818
-0.289296,0.236515,0.260763,-0.483126,-0.873765,-0.055890
-0.002695,0.058797,0.640860,0.037983,-0.813614,0.580163
0.026815,0.222239,-0.551795,-0.686428,-0.107683,-0.719181
-0.626785,0.216057,-0.406455,-0.440761,-0.766735,0.466741
0.806129,-0.455516,0.612734,0.810143,-0.280982,-0.514507
-0.397470,0.671646,-0.372990,-0.768643,0.531354,-0.356161
0.007081,-0.778424,0.568465,0.901630,-0.340132,0.267157
0.233474,-0.181249,-0.414752,0.968327,0.245830,-0.043701
0.586221,-0.135845,0.750655,-0.675460,-0.521610,-0.521227
-0.201316,-0.547722,0.717416,0.902857,0.411738,-0.123780
0.779542,-0.147987,0.726891,-0.706628,0.063402,-0.704739
0.375541,-0.451320,-0.605264,0.221265,-0.916408,-0.333525
-0.036498,-0.353668,0.298164,0.937250,0.309602,0.160338
-0.266090,-0.529105,0.775096,-0.546209,0.830804,0.106863
0.283357,0.340937,0.870652,0.722120,0.671810,-0.164970
-0.321092,-0.411142,0.823425,-0.054810,0.929369,-0.365060
0.206248,0.023696,0.930563,0.407819,-0.288366,0.866330
0.403133,0.625432,0.423676,-0.473770,-0.285648,0.833035
0.022521,0.564133,-0.010090,-0.452542,-0.158547,0.877535
-0.807775,0.399809,-0.024503,0.375107,-0.818820,0.434544
0.241331,0.404224,0.517403,0.265901,-0.788505,0.554578
0.551687,-0.213334,0.526678,0.917350,-0.383621,0.106315
-0.235027,-0.335271,0.294554,0.050938,0.676804,0.734399
0.048284,-0.622710,0.173579,-0.319204,-0.932284,-0.170160
-0.123566,-0.533372,-0.667657,0.955870,0.230960,0.181579
0.259421,-0.086761,0.925675,-0.556866,0.657699,-0.507280
-0.444428,0.394215,0.145554,-0.409573,0.844640,-0.344723
-0.656936,0.029068,0.581124,0.597174,0.588977,-0.544508
0.261888,-0.060048,0.170771,0.949937,-0.287322,0.122742
-0.229273,-0.633159,0.148988,-0.406861,0.857919,0.313751
0.174455,-0.771433,0.077370,0.980858,0.073400,0.180364
0.791695,-0.556700,0.615141,-0.098528,0.826163,-0.554750
0.127129,-0.268158,0.375597,0.233963,0.485705,0.842231
0.659036,0.144602,0.663771,-0.133256,0.523074,0.841805
0.345120,-0.341968,0.662643,0.493008,0.445930,0.747054
-0.096524,-0.667304,0.738021,0.405258,0.903683,0.138288
0.290118,-0.187505,0.013524,-0.629989,-0.775208,-0.046546
-0.030378,-0.570682,-0.701698,-0.769666,0.289525,0.569024
-0.346946,-0.768269,0.525625,-0.225620,0.964316,-0.138527
-0.242519,-0.309957,0.910309,0.506694,0.797243,-0.328124
-0.365858,-0.188903,-0.851626,0.070339,-0.964064,0.256190
-0.654926,0.157039,0.150768,-0.692492,0.257504,0.673904
0.020511,-0.481566,0.729999,0.912059,0.168216,-0.373969
0.359462,-0.671720,0.598371,0.774591,-0.522994,-0.355648
0.126215,0.120318,0.859573,0.068704,0.922342,0.380216
0.009821,-0.604312,0.428690,0.908367,0.138061,-0.394725
-0.411539,-0.146737,0.737896,0.845479,-0.528627,-0.075620
0.018685,0.163515,-0.605088,0.614883,-0.678562,0.401836
-0.282080,0.090808,-0.092085,-0.374334,0.521727,-0.766599
0.762002,-0.635367,0.406129,0.037642,-0.400719,0.915428
0.666804,-0.428140,0.713856,0.123377,0.430657,0.894043
0.639578,-0.373169,0.790512,-0.062782,0.673209,0.736782
0.615184,-0.321657,0.410716,0.444662,0.551149,-0.706053
-0.471745,-0.111855,0.557937,-0.748829,0.538497,-0.386364
-0.138368,0.530502,-0.496522,-0.516781,-0.774282,-0.365274
0.421587,0.019133,-0.468371,-0.610339,0.595453,-0.522419
0.586405,-0.513136,0.394999,0.409479,0.797207,0.443608
-0.406422,-0.191993,0.646299,0.645431,-0.755557,-0.112039
-0.175643,-0.833468,0.526653,0.553674,0.741690,-0.378604
-0.065096,0.286187,0.676130,0.858280,-0.122901,0.498247
0.261250,0.002060,0.916877,0.793446,0.604050,-0.074616
0.635741,0.565458,0.511061,0.140126,-0.869126,-0.474325
0.222511,0.090441,0.852930,0.977169,0.087208,-0.193742
-0.595450,-0.076606,0.656427,-0.166474,0.977772,-0.127469
-0.189620,0.013320,0.693251,0.116561,0.868874,0.481114
0.512676,-0.146295,0.735865,0.980549,-0.183566,0.069483
0.255035,0.010302,0.309845,0.994539,0.046645,0.093357
-0.595999,-0.257708,0.629028,-0.337925,0.937390,-0.084299
-0.424696,-0.502538,0.834530,-0.803659,0.591830,0.062210
-0.590791,-0.240856,-0.282447,0.291220,-0.937384,-0.191058
-0.422044,-0.081390,0.436160,-0.508742,0.838057,0.197086
-0.438400,0.643609,0.235395,0.588971,0.723450,-0.360186
0.757435,-0.014570,0.406731,0.830614,0.336014,0.444044
-0.391347,-0.158143,0.778028,0.848564,-0.332398,0.411644
0.468182,-0.220031,0.274425,0.703509,0.710539,0.014460
-0.716778,0.360144,-0.201078,0.836175,-0.528493,0.146649
0.388241,-0.368092,0.640659,-0.508169,0.174883,-0.843315
0.447352,-0.586798,0.433327,-0.099102,0.180829,0.978509
-0.084920,-0.652439,0.555932,-0.205609,0.767196,0.607565
0.430451,-0.239900,0.348675,0.919173,0.385887,-0.078817
-0.201224,-0.473913,-0.213737,0.381043,-0.239608,0.892969
0.113699,-0.217677,-0.996265,0.028607,-0.202983,0.978764
-0.619386,0.461844,0.170195,0.459176,-0.726034,-0.511890
0.113791,-0.193686,-0.343761,0.808917,-0.587665,-0.017400
-0.003975,-0.508278,0.227599,0.346808,-0.744380,0.570633
0.389064,0.189418,0.386276,-0.679833,-0.613913,0.401170
-0.839294,0.365148,0.037187,-0.633950,0.761931,0.132544
-0.231007,0.485245,-0.526377,0.238950,-0.953338,0.184524
0.511122,-0.236074,0.373692,0.923512,0.347930,-0.161463
0.284456,0.418941,0.467293,0.872047,0.387264,0.299266
0.422409,0.703290,-0.612158,0.836494,-0.508954,-0.203087
-0.088025,-0.604239,0.508554,0.917773,0.392521,0.060172
0.430267,0.483184,0.381688,0.321885,0.741389,0.588840
-0.057420,-0.884098,0.154352,-0.422397,0.505103,0.752630
0.592071,-0.377217,0.830720,0.440214,-0.180682,0.879526
0.214197,0.493634,0.443028,0.915542,0.303109,0.264401
0.108125,0.055927,0.883036,0.496483,0.750513,-0.436160
-0.046915,-0.161748,0.155480,0.602242,-0.736249,0.308613
0.344663,-0.291044,0.710347,0.049531,-0.971170,0.233185
0.811795,-0.196924,0.782415,0.908227,-0.217870,-0.357290
0.728472,-0.218927,0.674350,0.783358,-0.058625,0.618800
0.074871,-0.112149,0.474187,-0.607819,0.785514,0.116295
0.448356,0.214511,0.752811,-0.602311,0.723745,0.336771
0.114521,-0.389947,0.497500,-0.704637,0.668370,-0.238261
0.786030,-0.230628,0.520361,0.806406,-0.502180,0.312289
-0.422502,-0.170800,-0.122141,-0.702160,-0.070987,0.708471
0.690740,-0.747001,0.441800,-0.740288,0.346010,-0.576412
0.263533,0.418500,0.531541,0.879515,0.472831,-0.053708
-0.247089,-0.085952,0.421420,0.816854,0.557938,0.146473
-0.222238,0.467951,0.728646,0.347943,0.794473,-0.497742
-0.672743,0.082713,0.459121,0.731052,0.380787,0.566184
0.386961,-0.021414,0.824127,0.658907,0.509170,0.553704
0.337717,-0.213040,0.757323,-0.094924,-0.453706,0.886081
0.743728,-0.760836,-0.370433,0.983526,0.056480,-0.171716
0.865879,-0.500111,0.508705,0.771420,-0.635071,-0.039958
0.428990,0.397012,-0.332832,0.383791,-0.842262,0.378548
-0.691470,0.413275,-0.224165,-0.475316,0.861005,-0.180953
-0.646977,-0.460372,0.219528,0.406479,0.793704,0.452559
0.216665,0.399955,0.472658,0.839543,0.529084,0.123440
0.250284,0.267938,0.834631,-0.538377,-0.573867,0.617112
0.225068,-0.560968,0.062731,0.998643,-0.017502,-0.049045
-0.456489,0.638310,0.214840,0.366490,0.758850,-0.538360
0.160659,0.325042,0.630758,0.459471,-0.484311,-0.744533
-0.689825,-0.209066,0.715536,0.326484,0.125544,-0.936828
-0.972043,0.235853,0.085668,0.804152,-0.557093,0.207332
-0.093234,-0.496872,0.432826,0.910222,0.413738,-0.017798
-0.234935,-0.847745,0.038516,-0.542133,-0.831345,0.122299
-0.852541,-0.107882,0.577715,0.860940,0.489046,0.140059
-0.783289,-0.211127,-0.546782,0.808263,-0.260220,0.528201
-0.544469,-0.184708,0.630332,-0.630740,-0.636260,-0.444229
0.160294,0.438001,0.654171,0.150473,0.959384,0.238622
0.337444,-0.157333,0.797030,0.035567,-0.999229,-0.016609
0.298067,0.031717,0.168917,0.987942,0.008412,0.154598
0.235211,-0.766649,0.009563,0.989412,-0.034055,0.141079
0.214197,-0.732062,-0.290794,-0.372484,-0.377062,-0.847986
-0.097893,-0.709176,0.669913,0.369768,0.917157,0.148640
0.039696,-0.012069,0.980097,0.817421,-0.556777,-0.147722
0.984010,-0.001986,-0.053682,-0.837543,-0.454905,-0.302629
-0.697225,0.203032,0.416206,0.764742,0.600602,0.233336
-0.528755,0.441092,0.066065,-0.061886,0.164535,0.984428
-0.782559,0.100522,0.774970,0.277292,0.388550,0.878714
-0.499794,0.448893,-0.428564,0.215191,-0.908772,-0.357527
0.094879,-0.414159,-0.167162,0.758967,0.449086,-0.471477
-0.641769,0.245493,-0.519509,0.597305,0.782971,0.173735
-0.146956,-0.596880,-0.304932,0.824816,-0.260718,-0.501702
-0.106848,-0.908234,0.491258,-0.198829,0.962459,-0.184771
0.267919,-0.183310,-0.138936,0.147929,0.985036,-0.088439
0.476132,-0.221061,0.333709,0.868369,0.495416,0.022315
0.452652,1.000000,0.209826,0.113765,0.869232,0.481138
0.161298,-0.520641,0.370809,-0.723627,0.156264,0.672269
-0.493217,-0.544043,0.831246,0.567997,-0.728670,-0.382648
-0.125668,-0.159909,0.914420,0.784440,0.503285,-0.362433
-0.091681,-0.388108,0.684577,0.949592,0.313331,-0.009926
-0.775982,0.197660,0.748599,0.991900,-0.059643,-0.112150
0.085834,0.391567,0.233315,-0.381588,-0.713582,0.587530
0.000777,-0.050114,0.777126,-0.252263,-0.214066,0.943684
-0.092687,-0.201045,0.161196,0.008593,0.787392,-0.616392
0.280070,0.222165,0.723833,-0.491773,0.413820,0.766102
0.572060,0.683567,-0.020818,0.471141,0.662852,-0.581939
-0.328583,0.190963,0.116927,-0.522807,-0.847472,0.092003
0.796536,-0.343954,0.742633,-0.699352,-0.699320,0.147847
0.039696,-0.621973,-0.225694,-0.492704,-0.274957,0.825616
0.629891,-0.191110,0.186238,-0.546808,-0.296458,0.783016
-0.146683,0.209876,-0.173830,0.696954,-0.686641,0.206832
-0.476589,-0.137685,0.709018,0.417715,-0.756178,-0.503695
-0.685805,0.236147,0.671567,0.087747,-0.656530,0.749178
-0.263898,0.644566,0.182227,-0.642597,-0.324046,0.694308
0.020603,-0.117669,0.859447,0.255986,-0.886062,0.386478
0.561097,0.077342,-0.264975,-0.582332,0.673271,0.455626
0.055229,-0.706233,0.518531,-0.017172,-0.991890,0.125933
0.410167,0.441533,0.415855,-0.639976,-0.767683,-0.033058
0.184414,0.669880,0.521263,0.637988,-0.186421,0.747140
0.514594,0.028700,0.709444,0.801414,0.054734,0.595600
-0.654377,-0.087203,0.764642,-0.458908,-0.572982,-0.679040
0.148874,-0.178895,-0.643843,0.802247,0.591787,-0.078662
-0.556530,-0.104790,0.747120,0.985993,0.166648,0.006785
-0.616280,-0.220914,0.557937,0.635810,0.746045,-0.197895
-0.462244,-0.160056,-0.104619,-0.748162,-0.508525,0.426212
0.725823,-0.542056,0.297111,0.946559,0.322462,-0.006629
0.305832,-0.164030,0.158890,0.864422,0.466186,-0.188269
-0.014388,-0.006550,0.786276,-0.029518,-0.902890,0.428858
0.706638,-0.152034,-0.184107,-0.727922,-0.429353,0.534589
-0.121556,-0.165869,0.484615,0.458953,0.880826,-0.116218
0.023433,-0.038192,-0.671642,-0.223437,-0.691263,0.687191
0.489197,-0.435793,0.834480,0.630491,0.682507,-0.369683
0.774794,-0.233571,0.665827,0.138335,0.429693,0.892316
-0.015760,-0.673706,-0.991653,-0.085188,0.070598,0.993861
0.000777,-0.749430,0.582328,0.149005,-0.927266,0.343476
0.581654,-0.432188,0.783944,0.808809,-0.136621,-0.571982
-0.868712,0.366914,-0.184333,-0.214820,0.969761,0.115831
0.072861,-0.068070,0.941994,0.158570,0.967647,-0.196250
-0.312320,-0.628007,-0.543999,0.478480,0.570474,0.667545
-0.308665,0.219516,0.580924,-0.318391,0.750084,-0.579656
-0.469097,-0.135697,-0.606718,0.135361,0.985590,-0.101439
0.318075,0.562072,-0.638629,0.871267,-0.333411,-0.360182
-0.250652,0.626021,-0.277634,0.697409,-0.716122,-0.028120
0.066008,-0.158216,0.739851,0.442388,0.592224,-0.673472
0.821752,-0.501067,0.580623,-0.261426,0.950308,0.169028
0.435748,0.589374,0.418813,-0.423572,-0.222915,0.878007
-0.770589,0.209508,0.757072,0.997001,0.058729,-0.050393
-0.317894,-0.667672,0.727292,0.868964,0.471070,-0.151639
0.227078,-0.418353,-0.998546,-0.090371,-0.021705,-0.995672
0.066465,0.316285,0.451701,0.940184,0.288815,-0.180667
-0.133798,-0.694826,0.643893,-0.433879,0.509264,-0.743235
0.151980,-0.463830,0.643542,0.885880,0.300078,-0.353792
-0.263349,-0.536905,0.760983,-0.483618,0.194787,-0.853330
-0.712758,0.141144,0.787103,0.991035,0.132029,-0.020433
-0.786668,-0.112003,-0.537983,0.941964,-0.029416,0.334424
-0.726919,0.214438,0.097976,0.815715,-0.427389,-0.389805
-0.352885,0.080801,-0.114721,-0.535255,0.697041,-0.477112
0.778446,-0.406284,-0.521564,0.583314,-0.667718,-0.462491
-0.414279,-0.250644,0.739249,0.777730,-0.102784,0.620138
-0.085653,-0.125101,0.741305,0.529404,0.772575,-0.350512
-0.771230,0.312090,-0.028715,0.105511,-0.753040,0.649460
-0.727468,0.398631,0.110535,0.963171,-0.266719,0.034099
-0.637751,-0.004048,0.699317,0.707971,0.695567,0.122328
-0.044631,-0.565899,0.710572,0.910431,-0.380710,0.161786
-0.698048,-0.100449,-0.568766,0.838546,-0.040929,0.543292
0.273400,-0.323718,-0.997142,0.153395,0.208139,-0.965996
-0.098807,0.246155,0.682998,0.949250,-0.276218,0.150429
0.374172,0.201266,0.127906,0.295347,0.543846,0.785494
-0.067837,-0.584884,0.706586,0.852761,-0.497241,0.159845
0.428256,-0.590919,0.667582,0.986408,-0.078411,0.144402
0.289845,0.022592,0.613937,-0.598538,-0.759489,-0.254809
-0.156182,0.009640,0.118857,-0.642178,-0.762319,-0.080479
0.520075,-0.119141,0.860224,0.155556,-0.896508,0.414819
-0.059888,-0.210464,0.160068,-0.348336,0.747187,-0.566016
0.686992,-0.519832,-0.382490,0.969860,0.240314,0.040248
0.700972,-0.442711,0.260412,0.786977,-0.256538,-0.561119
-0.477227,-0.450953,-0.749577,-0.589445,-0.652742,-0.475901
0.588050,-0.206859,0.824027,-0.051410,-0.685772,0.725998
-0.743547,0.101847,0.724134,0.882557,-0.039513,-0.468541
0.111964,-0.419309,-0.996265,-0.002635,0.015416,0.999878
-0.299804,-0.111266,0.679639,0.276570,0.959898,-0.045882
0.815997,0.426079,0.550617,0.820505,0.257598,0.510308
-0.710655,0.343513,0.699167,-0.150618,-0.154192,0.976493
-0.691105,0.393627,-0.064486,0.834166,-0.539311,-0.115375
0.698048,-0.396644,0.691095,0.781733,0.466109,0.414289
-0.295418,-0.480388,-0.625117,0.816500,0.508007,0.274330
0.505549,-0.607109,-0.988143,-0.029143,0.256923,0.965992
0.271117,0.588123,-0.631961,0.887150,-0.322919,-0.329680
0.556073,0.352933,0.491960,0.960703,0.164835,0.223338
-0.116258,-0.180367,0.727643,0.600963,0.554395,0.575751
-0.437942,-0.551401,0.834054,0.033853,0.636365,0.770645
-0.538076,0.156524,0.631560,-0.118163,-0.826153,0.550916
-0.040061,-0.733607,0.596716,0.925479,0.376332,0.043164
-0.121556,-0.497756,-0.205114,0.198412,-0.602702,0.772905
-0.032113,-0.432703,0.366899,0.056757,0.906613,0.418128
-0.100179,-0.834057,-0.981024,-0.063546,-0.156947,-0.985560
-0.627884,-0.353227,0.309244,0.896848,0.302070,-0.323138
-0.272121,-0.619766,0.646525,-0.594627,0.365973,0.715879
-0.487460,-0.647656,0.332531,0.851559,-0.503098,-0.147444
-0.087752,0.456839,0.568992,0.825414,-0.512699,-0.236285
-0.530308,-0.176834,0.608924,0.745691,-0.546826,0.380691
-0.597641,-0.396129,0.565933,0.827530,0.177020,0.532783
0.184688,0.006034,0.078624,0.915352,0.373140,-0.151318
-0.340003,-0.156524,0.162224,0.196978,0.977877,-0.070405
-0.882600,-0.017072,0.514997,0.441260,0.824677,-0.353833
0.840206,-0.272131,0.669562,-0.636912,-0.555915,-0.534136
-0.855190,0.113989,0.469073,0.865507,-0.253317,0.432121
0.650632,0.480830,-0.521414,0.958987,-0.251254,-0.131211
0.689187,0.267422,0.557762,-0.861730,-0.292301,0.414706
0.433465,0.330119,0.306386,0.686922,-0.564032,0.458265
0.819103,-0.535948,0.676957,-0.167256,0.488518,0.856374
-0.232470,0.295607,0.036360,-0.081704,-0.902023,0.423886
-0.230460,-0.592538,0.188995,0.969581,0.121689,-0.212377
0.497327,-0.113989,0.761384,0.662153,0.692336,0.286749
0.133341,-0.865552,0.449771,-0.076593,0.927259,0.366502
0.614727,-0.118625,0.651764,-0.309482,-0.882848,-0.353271
-0.115252,-0.824564,0.495519,0.859894,-0.450802,0.239498
0.054680,0.255059,0.712452,0.973046,-0.055097,-0.223934
-0.060526,0.408492,0.710773,-0.252415,-0.793325,0.554006
-0.908546,0.031791,-0.234417,0.405236,0.876431,0.260102
-0.692842,0.189933,0.766873,0.743096,0.538487,0.397292
-0.024166,-0.189344,0.607971,-0.061217,-0.998124,-0.000281
-0.146041,-0.049673,0.647703,-0.789645,-0.363672,0.494170
-0.657848,0.131135,0.125675,0.392634,-0.670912,-0.629059
-0.368872,-0.383913,-0.236222,0.628802,0.723859,0.283965
0.000777,0.014349,0.621658,0.611685,-0.292943,0.734865
-0.436481,0.234161,0.066491,0.150465,-0.795674,0.586739
-0.181032,-0.047979,0.704255,-0.386396,0.191456,0.902243
0.173998,0.312606,0.851376,0.739075,0.496830,-0.454894
0.179571,0.547869,0.565858,0.156385,0.902300,0.401745
-0.356264,-0.445213,0.143147,-0.039955,-0.659583,0.750569
0.026266,0.261608,0.063157,-0.465042,-0.744863,0.478451
0.510941,-0.697181,0.672169,-0.183464,0.790931,0.583754
-0.336530,-0.158511,0.316413,-0.755062,0.296044,-0.585012
0.713946,-0.509604,-0.328420,-0.539858,-0.793683,-0.280394
0.148143,-0.606814,0.569493,0.298165,0.872111,-0.387969
-0.275227,-0.701081,0.493840,-0.481076,0.865947,-0.136753
-0.162670,0.202075,0.367375,0.786060,0.587781,-0.191371
-0.679685,0.191405,0.637476,0.285523,0.567887,-0.771998
