0.047363,-0.051361,0.724342,0.702952,-0.670498,0.237256
-0.039157,-0.045466,0.750532,-0.708364,0.683792,0.175066
-0.026349,-0.070141,0.692082,0.215156,-0.925698,0.311113
-0.046012,-0.084858,0.660553,0.906506,-0.237560,0.349016
-0.118377,-0.082334,0.676890,0.237094,-0.415219,0.878282
-0.144445,-0.094253,0.652671,0.903968,-0.197662,0.379172
-0.215010,-0.092994,0.665734,-0.551174,-0.830672,-0.078685
-0.013315,-0.178359,0.438323,-0.456864,0.309765,0.833859
0.166694,-0.258410,0.225152,0.065440,-0.555265,0.829095
0.021518,-0.234153,0.302830,0.806592,0.495895,-0.321712
-0.053316,-0.254620,0.266470,0.994904,0.100125,-0.011913
-0.326817,-0.185931,0.467246,0.603831,0.709780,-0.362768
-0.111073,-0.281400,0.213265,0.362986,0.927185,0.092565
-0.214338,-0.269062,0.256935,-0.104527,0.640965,0.760420
-0.258608,-0.277473,0.243522,0.420289,-0.718418,-0.554286
-0.296815,-0.288271,0.224103,-0.403876,0.818159,0.409267
-0.346143,-0.295278,0.215394,-0.622671,0.684054,0.379935
0.255690,-0.505690,-0.362365,-0.629224,-0.387693,0.673625
-0.387492,-0.304108,0.200742,-0.414016,0.909289,0.042239
-0.401651,-0.322615,0.160377,-0.111757,0.895550,0.430697
-0.631101,-0.264998,0.327971,0.737465,-0.661049,0.138419
-0.236699,-0.406722,-0.059501,-0.411058,0.008357,0.911571
-0.658407,-0.278457,0.300415,0.893559,0.170966,0.415118
-0.296140,-0.409665,-0.058261,-0.299687,-0.075738,0.951027
-0.347714,-0.417237,-0.067193,0.721159,0.262106,-0.641272
-0.386707,-0.428728,-0.088583,-0.630314,-0.217221,0.745332
-0.431879,-0.438405,-0.104824,-0.504721,0.467618,0.725665
-0.661778,-0.377425,0.070588,0.533701,-0.845673,-0.000519
-0.889205,-0.367474,0.127449,0.113049,0.973719,-0.197716
0.560426,-0.175142,0.682007,0.760819,-0.290421,0.580353
0.513907,-0.181165,0.675714,-0.542263,-0.824007,0.164205
0.081298,-0.074069,0.982710,0.780287,-0.556217,0.285963
0.709872,-0.257708,0.472363,0.760259,0.004117,-0.649606
0.123322,-0.105606,0.904586,0.704752,-0.347339,0.618611
0.436148,-0.197705,0.648888,0.231104,0.006245,0.972909
0.111862,-0.121307,0.870959,0.363863,0.805718,0.467358
0.361537,-0.215929,0.618821,-0.171629,-0.331408,0.927746
-0.000394,-0.127194,0.873597,0.212340,0.219458,-0.952234
0.313220,-0.221961,0.611924,0.669333,0.064111,-0.740192
0.016686,-0.172335,0.768108,-0.076021,0.506984,0.858596
-0.088262,-0.159861,0.812160,0.705505,-0.265457,0.657112
-0.100398,-0.176545,0.775545,0.729708,-0.298550,0.615137
-0.132423,-0.186778,0.757492,-0.029496,0.773065,0.633640
-0.134669,-0.207244,0.711279,-0.160324,0.861761,0.481315
0.406822,-0.379102,0.240280,0.198844,0.979982,-0.009848
-0.153097,-0.222380,0.679146,0.916735,-0.398319,-0.030642
-0.087028,-0.265135,0.571845,0.935006,0.234338,0.266176
-0.084555,-0.287005,0.521532,-0.515878,-0.239461,-0.822513
-0.059159,-0.317002,0.450051,0.110752,0.672126,0.732107
-0.120513,-0.319244,0.453579,0.855440,0.451680,0.253393
-0.114893,-0.343355,0.398181,0.874469,-0.462093,0.147563
-0.058487,-0.385417,0.293740,0.427390,0.459294,0.778709
-0.148715,-0.378401,0.322886,0.876899,-0.479851,0.028116
-0.130626,-0.431671,0.199343,-0.709562,0.430699,-0.557692
-0.308838,-0.416535,0.259477,-0.182850,0.366546,0.912255
-0.362322,-0.421164,0.257157,-0.618585,0.645550,0.447904
-0.399627,-0.432372,0.237007,-0.360790,0.852316,0.378666
-0.452553,-0.437985,0.231731,-0.120369,0.900411,0.418056
-0.521996,-0.438122,0.241997,0.682810,-0.656866,-0.319839
-0.225575,-0.546485,-0.048440,0.606989,0.237787,-0.758301
-0.708747,-0.393262,0.371101,0.871354,-0.228125,-0.434397
-0.258834,-0.559380,-0.073168,0.472309,0.400325,-0.785280
-0.327602,-0.559525,-0.062902,0.233186,0.560978,-0.794310
-0.356592,-0.575225,-0.094495,0.683262,0.695110,-0.223551
0.147367,-0.348822,0.682642,-0.637509,-0.153363,-0.755025
0.089387,-0.352330,0.683914,0.149392,0.146709,0.977834
-0.132423,-0.365789,0.686012,0.063904,0.601856,0.796044
-0.230630,-0.355273,0.723325,0.321765,0.889697,0.323892
-0.158378,-0.400552,0.612115,0.901015,-0.429324,-0.062068
-0.201526,-0.408261,0.600609,0.963053,-0.268937,0.014202
-0.110511,-0.461951,0.468454,0.412085,-0.539452,-0.734287
-0.127029,-0.479619,0.431458,0.893629,-0.433203,-0.117315
-0.210178,-0.473587,0.457139,0.667292,-0.743507,-0.043806
-0.176244,-0.532325,0.322027,0.862547,-0.404559,0.303881
-0.211303,-0.543123,0.302544,0.855639,-0.503219,-0.121048
-0.328614,-0.574661,0.248798,0.723626,0.193170,0.662609
-0.387156,-0.577604,0.251436,0.262685,-0.345908,0.900746
-0.495475,-0.561767,0.302195,-0.544102,-0.782218,-0.303461
-0.511880,-0.581112,0.260972,0.797859,-0.602678,0.014153
-0.140625,-0.627092,0.502176,0.733068,0.650532,0.198542
-0.208045,-0.625972,0.513713,-0.171228,0.962439,0.210692
-0.583909,-0.732230,0.336934,0.257133,0.940639,0.221544
-0.626831,-0.741060,0.324316,-0.142044,-0.983791,0.109448
-0.592897,-0.944883,-0.121161,-0.129729,-0.374226,0.918218
-0.663688,-0.943343,-0.108161,-0.129729,-0.374226,0.918218
0.017698,0.232651,-0.497413,0.837048,0.515316,-0.183847
0.303557,0.255786,-0.600900,0.218010,-0.802129,0.555932
0.079049,0.320410,-0.504278,0.840140,0.458209,-0.290188
0.317376,0.337933,-0.558596,-0.397318,0.537857,-0.743538
0.119838,-0.101962,-0.564000,-0.205714,0.972924,-0.105360
0.125119,-0.096494,-0.693390,-0.666068,0.742792,0.067922
0.136583,-0.090607,-0.814390,0.746862,-0.631922,0.207056
0.158042,-0.085560,-0.910757,-0.550649,-0.818254,-0.165064
0.218045,-0.080939,-0.928174,0.707376,-0.706399,0.024898
0.333223,0.139851,-0.589522,0.455427,0.223038,-0.861882
0.014104,-0.182569,-0.921087,0.514678,0.608758,-0.603755
0.327489,-0.178505,-0.544612,-0.085216,-0.864153,-0.495961
0.137930,-0.173739,-0.950486,0.146167,-0.339247,0.929272
0.219056,-0.169392,-0.929191,0.958720,0.283619,0.020389
-0.563907,-0.922175,0.352857,0.106819,0.587866,0.801874
-0.501209,-0.918248,0.358419,0.329498,0.471497,0.817999
-0.556716,-0.814377,0.352222,0.838229,0.126568,-0.530427
-0.673914,-0.732230,0.395924,0.889795,-0.047108,0.453923
-0.643463,-0.728722,0.352730,-0.028229,-0.994554,0.100328
-0.577390,-0.725359,0.363282,-0.161127,-0.980451,0.112933
-0.521883,-0.621343,0.299334,-0.463767,-0.060654,-0.883878
-0.463903,-0.617980,0.296887,0.355848,0.853419,0.380852
-0.414013,-0.614335,0.276355,-0.484156,0.497671,0.719664
-0.789763,-0.517044,-0.066462,-0.604576,0.051985,0.794849
-0.515364,-0.513964,0.272414,0.464970,-0.770756,-0.435590
-0.455587,-0.510319,0.268250,0.008517,0.774117,0.632985
-0.398053,-0.506811,0.264817,-0.621303,0.007722,-0.783533
-0.731221,-0.436437,0.358102,0.906778,-0.405364,-0.115907
-0.785154,-0.428308,0.082793,-0.103079,0.988828,-0.107673
-0.763582,-0.420180,-0.083402,-0.467490,0.368098,0.803715
-0.702341,-0.416535,-0.084864,-0.030076,0.414510,0.909548
0.118604,-0.389763,0.478370,0.838988,-0.473394,-0.268324
-0.067924,-0.382893,0.027776,0.207084,-0.415546,0.885685
0.366708,-0.375885,0.502208,0.151121,-0.321057,0.934925
0.410193,-0.371813,0.471028,-0.297463,0.612574,0.732303
0.469747,-0.368595,0.475096,-0.393670,-0.127122,0.910420
-0.495026,-0.332001,0.216348,0.058991,0.769997,0.635314
-0.146469,-0.330606,0.694339,0.646072,0.573062,0.504174
-0.147703,-0.326679,0.594094,0.793207,-0.098023,0.601011
-0.099835,-0.323034,0.578615,-0.577745,0.812357,-0.079288
-0.298499,-0.321212,0.241742,0.371760,-0.748111,-0.549658
0.051859,-0.320510,0.736865,0.799907,-0.350953,0.486807
0.071748,-0.308035,0.464513,0.856402,0.513546,0.053356
0.151976,-0.304528,0.505068,-0.541565,0.787156,0.295114
0.239395,-0.301584,0.555699,-0.309170,0.942693,-0.125471
0.328278,-0.298640,0.613704,0.166107,-0.630461,0.758240
0.393898,-0.294996,0.626767,-0.778315,-0.200550,0.594983
0.384574,-0.290230,0.495533,-0.370947,-0.245217,0.895694
0.505365,-0.287706,0.613736,-0.040645,-0.969811,0.240445
0.708973,-0.268078,0.440198,-0.690526,0.551844,0.467592
-0.843587,-0.350790,0.155673,0.863245,0.082597,-0.497982
-0.817855,-0.346726,0.100115,0.082613,0.985940,-0.145248
-0.818866,-0.342662,-0.001909,0.791571,0.383553,-0.475712
-0.279848,-0.340839,0.754854,-0.084307,0.982659,-0.165148
-0.245800,-0.337195,0.715697,-0.828997,0.141918,-0.540947
-0.155346,-0.334251,0.771286,-0.362642,-0.765241,0.531881
-0.899993,-0.280416,0.125955,0.387596,0.613362,-0.688154
-0.818976,-0.276771,0.157071,-0.517829,0.616104,-0.593523
-0.763469,-0.272844,0.150238,-0.395014,0.345786,-0.851115
-0.320185,-0.270046,0.751009,-0.080596,0.916746,0.391257
-0.704927,-0.269199,0.142578,0.271138,-0.686757,0.674425
-0.239957,-0.266538,0.790039,-0.047829,-0.716707,0.695733
-0.649529,-0.265280,0.134632,-0.540330,0.632331,-0.555158
-0.206920,-0.263030,0.749864,0.040456,0.976873,0.209960
-0.609302,-0.261353,0.097859,-0.333502,0.897310,-0.289157
-0.138489,-0.259668,0.765915,0.893297,-0.040222,0.447663
-0.083880,-0.256168,0.760353,0.696560,0.117862,0.707752
-0.059722,-0.252660,0.706957,0.341629,0.304564,-0.889118
-0.352998,-0.250838,0.213582,-0.615722,0.696101,0.369230
0.076802,-0.249580,0.843626,0.268622,-0.746317,0.608977
0.029947,-0.245370,0.663826,-0.653713,0.271332,0.706426
0.097703,-0.241725,0.682484,0.828605,0.559633,0.014979
0.139840,-0.238081,0.652861,0.956925,0.017607,-0.289801
0.084555,-0.233315,0.448081,0.101209,-0.091558,0.990643
0.214002,-0.230234,0.573593,-0.297887,0.854827,-0.424894
0.297827,-0.227291,0.623112,0.003770,-0.537318,0.843371
0.349401,-0.223646,0.614976,-0.032757,-0.361715,0.931713
0.382324,-0.219719,0.565457,-0.117154,0.445887,0.887389
0.465813,-0.216776,0.616565,0.416513,-0.076067,-0.905942
0.539187,-0.213268,0.644883,-0.221690,-0.143149,0.964553
0.715379,-0.192938,0.409686,0.433083,-0.664312,-0.609204
-0.943927,-0.196866,0.157771,-0.313631,-0.737757,0.597788
-0.880892,-0.193221,0.161426,0.263998,0.910206,-0.319108
-0.818753,-0.189576,0.160154,0.014333,-0.134820,0.990766
-0.539636,-0.185931,0.496773,-0.161840,0.413199,0.896144
-0.755602,-0.185375,0.159264,0.519129,-0.344379,0.782245
-0.697622,-0.181585,0.151001,-0.203300,0.554076,-0.807260
-0.193550,-0.179489,0.861106,-0.233209,-0.951958,-0.198469
-0.444464,-0.178505,0.459364,-0.779721,0.613034,0.127375
-0.157815,-0.176117,0.829386,0.895658,0.115705,0.429428
-0.127255,-0.172618,0.785525,0.764609,-0.444044,-0.467116
-0.063428,-0.169392,0.799351,-0.501909,0.609914,-0.613263
-0.048484,-0.165610,0.726885,0.457780,0.065005,0.886686
0.036239,-0.162103,0.771922,-0.661928,-0.267115,0.700358
0.045676,-0.158175,0.688490,-0.092658,-0.507668,0.856556
0.060397,-0.153974,0.615929,0.402158,-0.915535,-0.008095
0.096016,-0.150466,0.578265,0.419768,0.838174,-0.348224
0.187484,-0.142894,0.533133,0.861467,0.264609,-0.433425
0.309514,-0.140370,0.648729,0.648151,0.760190,-0.044848
0.404572,-0.136871,0.715538,0.500622,0.849809,-0.164929
0.468622,-0.133645,0.726567,0.459438,0.880806,0.114443
0.490198,-0.129717,0.660521,0.293324,0.922758,-0.249960
0.552560,-0.126218,0.672217,0.441808,-0.159276,0.882857
0.599642,-0.122573,0.650001,0.519983,-0.035753,0.853428
0.537726,-0.116259,0.413691,-0.470412,-0.721640,0.507886
0.740884,-0.105889,0.460762,-0.190021,-0.515233,0.835720
0.670769,-0.099018,0.187901,-0.634323,0.393167,0.665623
-0.601439,-0.077996,0.546705,-0.283539,-0.950950,0.123689
-0.487948,-0.070561,0.538790,-0.055091,-0.998173,0.024809
-0.417943,-0.067061,0.554650,-0.345508,-0.852732,0.391756
-0.704028,-0.064118,0.099702,0.974007,-0.037734,0.223353
-0.279172,-0.064118,0.681307,0.978312,0.123343,0.166412
-0.293667,-0.059772,0.561865,-0.552655,0.504530,-0.663342
-0.085903,-0.058223,0.811238,0.259396,0.323450,0.909997
0.059722,-0.056264,0.961479,0.877669,0.010444,-0.479153
0.088153,-0.052482,0.913930,0.911737,0.310732,0.268667
0.110401,-0.048417,0.858437,-0.141540,-0.713555,0.686153
0.155120,-0.044773,0.836983,0.994838,-0.066271,0.076852
0.168381,-0.040281,0.758446,0.040549,0.956654,0.288391
0.228497,-0.036781,0.761561,0.357592,0.714682,0.601131
0.323669,-0.034112,0.833169,0.362012,0.922172,0.136182
0.320298,-0.029628,0.726154,-0.579663,-0.491328,-0.650067
0.372099,-0.025984,0.714044,-0.370975,0.758561,-0.535689
0.423899,-0.022201,0.707847,0.527879,0.847724,0.052032
0.434125,-0.017709,0.616183,-0.580815,-0.623249,0.523655
0.519973,-0.014492,0.668657,-0.487125,-0.714014,-0.502885
0.396034,-0.011267,0.428089,0.016858,-0.945013,0.326599
0.465364,-0.008041,0.446173,-0.148487,-0.031543,0.988411
0.532222,-0.004815,0.463146,0.418423,0.325868,-0.847781
0.175798,0.005554,-0.249153,0.018322,0.999500,-0.025763
0.591998,-0.001171,0.467754,-0.496118,-0.471308,0.729202
0.658294,0.002192,0.480881,-0.637101,-0.319717,0.701345
0.722343,0.005700,0.494675,0.434967,0.161957,-0.885762
0.341648,0.018312,-0.301595,-0.170517,0.976845,-0.129216
0.787068,0.009062,0.505640,-0.559417,-0.477132,0.677789
0.855946,0.012143,0.526935,-0.435739,-0.672550,0.598171
-0.964827,-0.083600,0.174584,-0.566820,-0.461745,0.682281
-0.895946,-0.079673,0.187043,0.859632,0.420776,-0.289794
0.585034,0.104805,0.459332,-0.416535,0.699358,0.580859
0.357604,0.113079,-0.001782,0.852443,-0.214259,-0.476900
0.653575,0.108168,0.476717,-0.587998,0.556372,0.587119
0.717961,0.111539,0.491370,-0.607961,0.233350,0.758901
0.780662,0.114756,0.503257,-0.602233,0.544734,0.583592
0.848981,0.117845,0.522931,-0.627652,0.384500,0.676914
-0.657844,0.023077,0.555064,-0.329257,0.833494,-0.443710
-0.550537,0.026166,0.627784,0.115738,-0.840235,0.529726
-0.516938,0.029948,0.586783,0.145799,0.936168,-0.319895
-0.455138,0.033729,0.593903,0.969033,0.097814,-0.226734
-0.212541,0.034432,0.888218,0.608193,0.477429,-0.634163
-0.177368,0.038641,0.852366,0.205242,0.957324,0.203485
-0.220181,0.043407,0.692749,0.966950,0.130749,0.218889
-0.005449,0.044108,0.951054,-0.161298,0.982506,-0.093084
0.058038,0.047471,0.962114,0.760968,-0.009226,-0.648724
0.121974,0.050834,0.974923,0.790356,-0.494986,-0.361007
0.119276,0.055462,0.877697,0.968230,0.227545,0.103704
0.142985,0.059527,0.823888,-0.661334,-0.436195,-0.610223
0.194000,0.063453,0.811588,-0.583467,0.536277,-0.609896
0.171752,0.068638,0.673012,0.876108,-0.020486,0.481680
0.205237,0.072703,0.627498,0.211625,-0.031106,0.976856
0.230856,0.077468,0.566347,0.390120,0.862041,0.323562
0.291758,0.080976,0.569398,0.509483,0.772311,0.379424
0.334793,0.085178,0.544798,-0.017360,-0.976946,0.212779
0.392101,0.088548,0.545179,-0.390917,0.912597,0.119790
0.455252,0.092331,0.552362,-0.483331,0.595206,0.641966
0.514243,0.095693,0.557034,-0.384760,0.549254,0.741809
0.547502,0.100185,0.505291,-0.158326,-0.987360,-0.007281
-0.560087,0.136908,0.649047,0.472989,0.880459,0.032765
-0.509521,0.140416,0.639322,-0.029796,0.972199,0.232253
-0.420305,0.148544,0.592918,0.490597,0.855167,0.167344
-0.375133,0.152608,0.569875,0.508443,-0.007539,0.861062
-0.136805,0.151907,0.863522,0.853914,0.342611,0.391724
-0.106917,0.155834,0.822013,0.732277,0.234482,0.639366
-0.047250,0.159342,0.824619,0.579441,0.213250,-0.786621
-0.026349,0.163543,0.766424,0.793670,0.118240,0.596748
0.079724,0.166067,0.848202,-0.445794,0.133641,0.885103
0.169842,0.168454,0.904745,0.795800,-0.601948,-0.066041
0.162987,0.173776,0.793916,-0.193442,-0.916725,-0.349564
0.219732,0.177421,0.796586,0.790007,0.414461,-0.451787
0.302319,0.179808,0.845374,0.106493,-0.953672,0.281369
0.203550,0.188775,0.561516,-0.597114,0.336619,0.728109
0.279059,0.191436,0.596032,0.957850,-0.194703,-0.211221
0.214115,0.199573,0.363918,-0.607922,0.693635,-0.386394
0.231868,0.205177,0.282235,-0.157028,0.683940,-0.712438
0.296589,0.208685,0.288655,0.225097,-0.661681,0.715199
0.103320,0.216249,-0.083942,0.995331,0.006395,-0.096309
0.424575,0.209806,0.423862,0.011049,0.422713,0.906196
0.477273,0.213451,0.414295,0.959905,0.235528,-0.152015
0.477160,0.220039,0.291261,0.668933,-0.354437,0.653379
0.207147,0.231812,-0.252840,0.887854,0.161763,0.430753
0.215463,0.237981,-0.364400,0.852575,-0.516931,-0.076798
0.574582,0.228304,0.244126,0.652958,0.387036,0.651037
0.630878,0.232514,0.233002,-0.360759,0.314010,0.878209
-0.677058,0.231256,0.289227,0.828807,0.512683,-0.224131
-0.436484,0.231110,0.575469,0.144442,0.938405,0.313900
-0.606157,0.234619,0.307216,-0.363952,-0.851449,0.377589
-0.197933,0.231110,0.861615,0.699654,0.597102,0.392369
-0.156581,0.234901,0.835489,0.818031,0.340399,0.463631
-0.459294,0.241908,0.345070,-0.551728,0.833863,0.016399
-0.163323,0.240086,0.729904,0.107405,-0.650675,0.751722
-0.540424,0.249053,0.111367,-0.597812,-0.683101,-0.419517
-0.144895,0.244287,0.667450,-0.418262,0.581220,0.698026
-0.044891,0.246529,0.740520,-0.581942,-0.781771,0.224002
0.028822,0.249900,0.766646,0.679736,0.511374,0.525790
0.057476,0.254101,0.719861,-0.738406,-0.132771,-0.661157
0.061971,0.259149,0.626958,-0.455531,-0.864024,0.214370
0.232543,0.259714,0.825286,-0.678246,0.704229,0.209866
0.227259,0.265173,0.712392,0.815607,0.241175,-0.525946
0.260522,0.269665,0.671200,0.856248,-0.356341,-0.373978
0.249284,0.275269,0.547404,0.740068,-0.440740,-0.507984
0.229395,0.282139,0.397926,0.223494,-0.904589,0.363000
0.266251,0.286340,0.357148,0.128978,-0.988520,-0.078699
0.422551,0.292791,0.424752,0.869683,0.395542,-0.295293
0.478172,0.296573,0.415693,-0.327905,-0.302207,0.895069
0.484128,0.302605,0.311221,0.326808,-0.827754,0.456092
0.206249,0.321531,-0.376636,0.875729,-0.227254,-0.425974
0.571660,0.311435,0.244349,0.616504,0.451195,0.645248
0.626382,0.315499,0.235322,0.314951,0.502157,0.805384
-0.796056,0.317048,0.267360,0.768706,0.621508,-0.151062
-0.709981,0.320693,0.304451,0.796081,0.393714,0.459614
-0.525367,0.321531,0.500746,0.803412,0.593812,-0.043767
-0.284902,0.326015,0.697199,-0.373445,-0.821433,0.431031
-0.231977,0.329523,0.691733,-0.262773,-0.954069,0.143886
-0.512443,0.336530,0.235990,0.553662,0.181325,0.812760
-0.138715,0.332047,0.748815,0.879609,-0.053627,-0.472665
-0.072193,0.335409,0.762641,-0.549066,0.078226,0.832110
-0.325465,0.342280,0.340621,0.119253,-0.817361,0.563648
0.010620,0.343538,0.710294,0.721767,0.610414,0.326263
0.001519,0.348868,0.597685,-0.043565,0.971299,0.233837
0.008371,0.354473,0.505736,-0.200597,-0.028707,0.979253
0.191867,0.353771,0.729714,-0.246018,0.958600,-0.143392
0.238609,0.357835,0.709372,0.611523,-0.669789,0.421216
0.299062,0.361343,0.713568,0.334597,-0.776617,0.533771
0.351424,0.365125,0.702825,0.868702,-0.468808,0.159921
0.234563,0.375358,0.378952,0.124655,0.986424,0.106908
0.302432,0.378584,0.396782,-0.350082,0.791119,-0.501571
-0.032079,0.392042,-0.240571,0.893107,0.440580,0.090829
0.360189,0.382793,0.391665,-0.013055,-0.871232,0.490698
0.007249,0.397509,-0.290598,-0.012372,-0.337130,0.941377
0.435250,0.385454,0.425514,0.992489,0.121501,0.014223
0.257374,0.399751,-0.049871,-0.765352,0.306449,0.565973
0.200968,0.409565,-0.292601,0.577167,-0.438646,0.688816
0.273669,0.413347,-0.278584,0.680007,0.329259,0.655118
0.578402,0.405219,0.225342,0.403374,0.460267,0.790850
0.633124,0.409000,0.216475,0.403374,0.460267,0.790850
-0.640092,0.402412,0.399833,0.769700,-0.427059,-0.474534
-0.568176,0.411251,0.319771,0.084547,-0.659646,0.746805
-0.275352,0.409283,0.692654,0.483901,0.585879,-0.650066
-0.512443,0.415032,0.310840,-0.604529,0.119491,-0.787570
-0.173774,0.411670,0.765979,0.828517,0.094462,0.551939
-0.460080,0.418814,0.299493,-0.673565,0.636848,0.375146
-0.122084,0.415032,0.759558,0.003111,-0.598575,0.801061
-0.210628,0.422604,0.515016,0.752494,-0.132148,0.645205
-0.073092,0.424145,0.650096,-0.607262,0.187755,0.771998
-0.003312,0.427225,0.669325,-0.537285,0.464096,-0.704230
-0.058261,0.434797,0.471155,0.852953,0.234117,-0.466540
-0.041070,0.439845,0.394970,0.219314,0.100775,0.970436
-0.011628,0.444328,0.343513,0.466101,0.422435,-0.777366
0.210854,0.442506,0.639862,0.779558,-0.282511,-0.558996
0.304792,0.444748,0.704255,-0.523114,0.839561,0.146592
0.356256,0.448538,0.697199,0.420578,0.904620,-0.069109
0.424012,0.451618,0.715379,-0.588292,-0.411394,0.696181
0.263892,0.457924,0.413723,-0.203352,-0.206020,0.957185
0.358615,0.466617,0.363537,-0.366340,0.697735,-0.615598
0.439855,0.469141,0.409273,0.975843,0.103592,-0.192353
0.467610,0.480914,0.224579,0.337110,0.485348,0.806718
-0.182426,0.503211,0.577757,-0.613594,-0.600059,0.513256
-0.054441,0.504889,0.697485,0.510795,-0.366797,0.777527
-0.001293,0.508533,0.689158,0.861143,-0.446332,0.243352
-0.069498,0.516106,0.472395,0.764920,-0.172171,0.620689
-0.047024,0.521009,0.406190,0.828304,0.024820,0.559728
-0.013765,0.525637,0.357371,0.578862,0.573050,-0.580114
0.107479,0.527597,0.466070,0.190558,0.304837,0.933146
0.269509,0.527323,0.657025,0.827741,-0.410701,-0.382321
0.313443,0.531387,0.635444,-0.430595,0.703223,0.565744
0.348952,0.535870,0.591742,-0.206049,0.857069,-0.472203
0.391652,0.540080,0.565647,0.302593,0.947902,-0.099594
0.367493,0.547224,0.404696,-0.524849,0.660301,0.537156
0.092984,0.558723,-0.126151,0.772044,0.283927,-0.568624
0.433453,0.550587,0.416075,-0.403508,0.432879,0.806100
-0.840326,0.477834,0.287892,0.999546,-0.028664,0.009234
-0.665934,0.479092,0.464576,0.805552,0.568340,-0.167558
-0.614473,0.483165,0.454692,0.671964,0.740188,-0.024216
-0.626718,0.493672,0.246605,0.259302,0.844615,0.468389
-0.522894,0.496341,0.313891,-0.494119,-0.012143,-0.869309
-0.171302,0.492696,0.785748,0.978584,-0.064953,0.195332
-0.355916,0.502647,0.386071,-0.039611,-0.548659,0.835107
-0.694588,0.556054,0.505418,0.696360,0.654126,0.295300
-0.708410,0.561385,0.392714,0.983811,0.073677,-0.163363
-0.652677,0.565166,0.384196,-0.248257,0.912670,-0.324656
-0.305803,0.577222,0.562692,0.931158,0.313993,0.185345
-0.224450,0.580311,0.598003,0.868076,0.342371,0.359481
-0.178942,0.584512,0.574896,-0.621346,-0.175087,-0.763723
-0.033204,0.585778,0.721196,0.594643,-0.334223,0.731228
-0.011968,0.590124,0.662365,0.918170,0.393704,-0.044284
0.039946,0.593907,0.655118,0.747620,0.639254,0.180049
0.105230,0.597415,0.666592,0.851955,-0.499824,0.156045
-0.066463,0.602882,0.364840,0.713244,0.553455,-0.430083
0.001180,0.606244,0.381272,-0.720134,-0.416119,0.555204
0.226474,0.610309,0.572227,0.289339,0.466694,-0.835751
0.316142,0.612832,0.628738,-0.271876,0.648127,0.711347
-0.765605,0.642967,0.486475,-0.405365,-0.727369,-0.553727
-0.685600,0.651378,0.426182,0.990612,0.121021,0.063581
-0.514579,0.663014,0.407970,0.743895,-0.629090,0.225535
-0.443112,0.666239,0.428820,0.223759,0.524454,0.821511
-0.273216,0.666659,0.610335,-0.676834,0.455186,-0.578533
-0.226247,0.670723,0.590152,0.664352,-0.380717,0.643188
-0.205909,0.675635,0.528493,-0.254044,0.332219,-0.908346
-0.154784,0.679416,0.514349,-0.179725,-0.825087,0.535658
-0.042418,0.681658,0.605758,-0.493742,0.737327,0.461051
0.042532,0.684464,0.650255,-0.601658,0.333474,-0.725812
-0.045563,0.693012,0.396337,0.439823,0.629338,-0.640695
0.155120,0.691472,0.650541,0.461961,-0.861741,0.209747
0.205800,0.695262,0.636366,0.150147,-0.909409,0.387854
0.313443,0.702826,0.622890,0.873984,0.391290,-0.288174
-0.500420,0.782731,0.421255,0.984938,-0.154754,-0.077119
-0.247261,0.791287,0.543081,-0.238993,-0.651846,0.719707
-0.187367,0.794650,0.547881,-0.086599,-0.692864,0.715850
-0.137141,0.798577,0.531893,0.736271,-0.177155,-0.653086
-0.018370,0.799971,0.637732,0.207413,0.769188,0.604425
0.037813,0.803479,0.633410,0.233391,0.906155,0.352719
0.122537,0.806423,0.678701,-0.479269,0.861669,0.166816
0.202991,0.808947,0.718717,0.630208,0.755051,-0.180932
-0.218381,0.888014,0.575278,-0.708446,-0.519312,0.477932
-0.174224,0.892215,0.549374,-0.658366,0.255376,-0.708052
-0.219732,0.966089,0.583160,0.850875,-0.367157,0.375775
0.243667,0.235739,-0.979600,-0.245432,0.187977,0.951014
0.151749,0.231530,-0.982270,-0.307446,0.525308,0.793428
0.414349,-0.058651,-0.954110,-0.177788,0.396502,0.900654
0.303108,-0.068738,-0.967236,-0.038473,0.119243,0.992119
0.338504,0.239384,-0.977375,-0.319199,0.203008,0.925689
0.479523,-0.298076,-0.948611,0.239463,0.313113,0.919031
0.391202,-0.300181,-0.947117,-0.089946,0.052206,0.994577
0.301647,-0.303269,-0.948579,0.148083,-0.025971,0.988634
0.208495,-0.308035,-0.952044,-0.170231,-0.130219,0.976762
0.213889,-0.542841,-0.946068,-0.281640,0.256071,0.924720
0.428395,-0.264579,-0.953951,-0.105154,0.089881,0.990386
0.344796,-0.270046,-0.948706,0.419710,-0.552754,-0.719935
0.265689,-0.275787,-0.940888,0.076736,-0.975198,-0.207607
0.042755,-0.287988,-0.969556,-0.312014,0.024920,0.949751
0.276813,0.203072,-0.977693,-0.039212,0.282363,0.958506
0.179731,0.198452,-0.982810,-0.180733,0.549221,0.815899
0.541885,-0.231210,-0.947562,-0.175689,-0.025926,0.984104
0.443901,-0.235839,-0.951535,0.113016,0.218471,0.969277
0.350862,-0.240605,-0.954618,0.362566,-0.241159,-0.900216
0.266251,-0.245088,-0.952203,0.090408,0.214864,0.972450
0.067139,-0.255047,-0.963422,0.390284,0.016288,-0.920551
0.335242,-0.366071,-0.948929,-0.213139,-0.032614,0.976477
0.240406,-0.370692,-0.952870,-0.053040,-0.011593,0.998525
0.141977,-0.375038,-0.959004,0.105081,-0.192870,-0.975581
0.036126,-0.378829,-0.967173,0.143962,-0.241257,-0.959724
0.514466,-0.355975,-0.952330,-0.006042,0.040256,0.999171
0.422328,-0.360604,-0.952584,-0.120342,-0.067674,0.990423
0.371539,-0.050094,-0.957320,0.109827,-0.285688,0.952009
0.289624,-0.055143,-0.953315,0.251691,-0.447791,0.857983
0.226361,-0.062715,-0.935357,0.221653,0.450195,0.864983
0.177033,-0.071545,-0.908723,-0.484618,-0.862260,-0.147153
0.176247,-0.084302,-0.852593,0.974252,-0.174640,0.142599
0.466263,-0.045611,-0.955603,-0.219297,-0.019178,0.975470
0.337715,0.296154,-0.971940,-0.222233,0.136748,0.965356
0.243667,0.292090,-0.975468,-0.245679,0.073598,0.966553
0.549189,-0.310696,-0.948579,-0.348896,0.165305,0.922467
0.465138,-0.316446,-0.943271,-0.000824,0.131259,0.991348
0.367493,-0.319107,-0.946323,0.047829,0.212980,0.975885
0.405248,0.159059,-0.969683,-0.550297,0.124047,0.825703
0.311646,0.154995,-0.970128,0.174765,-0.400145,-0.899634
0.216248,0.153028,-0.973974,0.007599,0.412588,0.910886
0.105569,0.153729,-0.984781,-0.503485,0.750641,0.427834
0.137145,-0.035095,0.873979,0.893938,0.448189,-0.000781
0.132310,-0.027104,0.837460,0.983748,0.035998,-0.175911
0.169279,0.765773,0.678733,-0.520524,-0.741371,0.423585
-0.790548,0.530823,0.272604,0.957733,-0.102522,0.268770
-0.297823,0.735073,0.646091,0.134891,-0.820960,0.554823
-0.746388,0.629654,0.464004,-0.713754,-0.696041,0.077989
-0.002863,0.344659,0.304991,-0.312771,-0.529984,0.788220
0.346480,0.496897,0.575755,-0.398640,0.908315,-0.126692
0.288387,0.501945,0.588309,0.663890,-0.637097,0.391608
0.187145,0.493672,0.578297,0.706641,0.570907,-0.417999
0.265689,0.539934,0.661729,0.567595,-0.618881,-0.542976
-0.095453,0.431434,0.474715,-0.122294,0.063780,0.990442
-0.120061,0.445732,0.503924,0.142529,0.851515,0.504587
-0.116240,0.468303,0.547245,-0.422015,-0.857201,-0.295144
-0.151074,0.480495,0.571972,-0.277909,-0.883251,0.377670
-0.082196,0.522129,0.647681,-0.701094,0.531325,0.475563
-0.113545,0.534749,0.673711,0.310658,0.944885,-0.103360
-0.065229,0.570634,0.739217,-0.704075,0.514850,-0.489089
-0.613235,0.453860,0.546768,0.679182,0.701625,-0.215486
-0.148378,0.311580,0.660426,-0.422744,0.388951,0.818538
-0.175908,0.324757,0.686647,-0.502233,-0.802495,0.322123
-0.143883,0.356577,0.744080,-0.468642,0.878064,-0.096843
-0.180067,0.366665,0.765248,0.193347,-0.533094,0.823667
-0.205909,0.086726,0.246955,0.251239,0.519783,-0.816520
0.212877,0.242045,0.511775,0.984028,0.143958,0.104709
0.178607,0.253399,0.535231,0.876435,-0.193214,-0.441056
0.270072,0.304145,0.624161,0.813040,-0.553844,-0.179506
0.339625,0.348868,0.702666,-0.476389,0.873582,-0.099544
-0.033767,0.255786,0.550646,0.799341,0.595151,-0.082757
0.234114,0.360359,0.730667,-0.654829,0.348780,0.670486
0.009273,0.314524,0.658010,0.912953,-0.395251,0.101458
-0.037587,0.323208,0.676254,-0.634717,-0.239056,-0.734838
0.143547,0.064712,0.445252,0.381004,0.561823,0.734296
0.251643,0.122328,0.545815,0.251099,0.965928,-0.062708
0.148605,0.112660,0.533483,0.193334,0.934283,0.299562
0.224900,0.160035,0.616247,-0.254737,0.881742,0.397039
0.189055,0.171953,0.640211,0.131552,-0.907427,0.399088
0.102984,0.168454,0.638177,-0.251794,-0.439006,0.862481
0.205573,0.221862,0.731366,0.792739,-0.576641,-0.197611
0.053656,0.196766,0.693926,-0.508559,0.831588,-0.223226
0.201530,0.265036,0.810984,0.973182,-0.155547,-0.169477
-0.017698,0.219474,0.739853,0.547124,0.804505,-0.231141
-0.040844,0.235320,0.769602,-0.180067,0.172924,0.968335
-0.454349,0.155269,0.645932,0.505535,-0.553824,0.661599
-0.166920,0.262374,0.827606,-0.805764,-0.572256,-0.152535
-0.385808,0.103128,0.619552,0.531624,0.116213,0.838970
-0.080396,0.215975,0.811842,0.135559,-0.974970,0.176232
-0.147144,0.217652,0.819438,0.780439,0.622285,-0.060623
-0.177032,0.229570,0.843626,0.343772,-0.935722,0.079031
-0.218494,0.238965,0.863649,0.754657,0.654037,0.052231
0.216474,0.061768,0.507992,-0.355629,-0.933310,0.049606
0.186247,0.075509,0.535676,0.267127,0.962070,-0.055363
0.202538,0.103402,0.587101,0.989789,-0.058234,0.130101
0.191414,0.122328,0.622572,0.417769,-0.713291,0.562748
0.141301,0.129336,0.637923,0.030192,-0.769928,0.637417
0.208721,0.172518,0.714871,-0.274407,0.629389,-0.727028
0.136356,0.172236,0.718113,0.457098,-0.509793,-0.728816
0.175459,0.206298,0.779677,0.981053,-0.038454,-0.189884
0.017249,0.180510,0.741092,0.706762,0.662136,-0.249125
-0.350412,0.091911,0.597113,-0.228777,-0.664082,0.711798
0.320861,0.055462,0.503892,0.145543,0.947365,-0.285160
0.291648,0.068775,0.530336,0.222006,0.970413,-0.094929
0.236250,0.073404,0.542890,0.292909,0.955239,-0.041505
0.182200,0.079993,0.557956,0.432116,0.896430,0.098432
0.184223,0.102144,0.600228,0.958283,0.284833,0.023760
0.147594,0.113216,0.623938,-0.087620,-0.684994,0.723261
0.219732,0.157793,0.703460,-0.515327,-0.824617,0.233336
0.166245,0.163962,0.718589,0.372382,0.248043,0.894319
0.182090,0.190041,0.766805,0.911335,-0.398689,0.102549
0.218607,0.221998,0.825128,0.916799,0.130288,-0.377497
-0.011292,0.175316,0.750214,0.989158,0.143816,0.029725
0.076466,0.222144,0.834059,-0.638048,0.644735,0.420965
-0.022193,0.214007,0.825064,-0.190366,-0.717508,0.670032
-0.115455,0.208540,0.819343,0.096232,-0.609573,0.786867
-0.165795,0.214991,0.834949,0.702595,0.489620,0.516365
-0.201976,0.225224,0.856053,0.546740,0.831429,0.098999
-0.188379,0.234756,0.867813,-0.747141,-0.309329,-0.588299
0.278950,0.075792,0.529573,-0.138028,-0.974829,0.175092
0.246925,0.088686,0.556335,0.334340,0.936337,-0.107193
0.190406,0.093588,0.569589,0.840137,0.532637,-0.102314
0.192316,0.115184,0.611829,0.975848,-0.080189,0.203199
0.155234,0.124852,0.633537,-0.074074,-0.726953,0.682680
0.215685,0.164809,0.706988,0.631118,-0.340232,0.697088
0.155796,0.168026,0.716555,-0.010061,0.412000,0.911128
0.228384,0.210644,0.795315,0.950874,0.164556,-0.262223
0.151976,0.209661,0.797826,-0.436576,0.876769,0.201684
0.018034,0.191718,0.771477,0.934360,-0.163373,-0.316671
0.088489,0.232231,0.846422,-0.156672,0.386404,0.908926
-0.027025,0.219337,0.827734,0.352870,0.824794,-0.441811
-0.169951,0.219337,0.836474,-0.020782,0.997543,0.066900
0.348503,-0.001590,0.426277,-0.421934,-0.885685,0.193736
0.369626,0.048309,0.524107,-0.412195,0.897326,-0.157800
0.273219,0.040600,0.515112,-0.160191,-0.960583,0.227201
0.258272,0.058406,0.550868,-0.120638,-0.991751,-0.043308
0.206811,0.064292,0.565361,-0.685859,-0.580070,-0.439450
0.143098,0.067236,0.575214,0.658485,0.742501,0.122837
0.156132,0.092467,0.624828,0.098327,-0.774885,0.624407
0.210182,0.129763,0.695133,0.838972,0.523809,-0.147477
0.155460,0.134384,0.707433,0.979510,-0.005122,0.201332
0.092535,0.136626,0.716110,0.281290,0.029983,-0.959154
0.235801,0.199427,0.830562,-0.119072,0.293703,0.948452
0.049723,0.166204,0.776149,0.548246,0.835413,-0.038890
0.102085,0.201951,0.843657,0.278233,0.444407,0.851521
0.023990,0.200129,0.845405,-0.417892,0.837184,-0.352829
-0.115678,0.180783,0.816196,0.675123,0.622400,0.396014
-0.538850,0.081114,0.645583,0.225862,0.769128,-0.597853
-0.198944,0.197185,0.852875,0.328835,0.929830,0.165179
-0.132310,0.159196,0.886120,-0.750677,0.496676,0.435657
0.498737,-0.056828,0.417823,0.607258,0.744138,-0.278381
0.331535,-0.062989,0.415343,-0.693261,-0.283305,-0.662667
0.296703,-0.052199,0.439372,0.937049,0.310955,0.158889
0.338840,-0.017436,0.505895,0.299034,0.741733,-0.600343
0.262096,-0.018557,0.509010,-0.269942,0.944603,-0.186700
0.363673,0.033729,0.606076,0.292733,0.727906,-0.620048
0.229169,0.014667,0.577058,0.573105,0.748737,0.333081
0.226810,0.034996,0.617073,0.586706,0.707473,-0.394027
0.159842,0.036682,0.625019,0.854383,0.243831,0.458885
0.164334,0.058406,0.668213,0.867608,0.466139,-0.173119
0.128154,0.069341,0.691955,0.761624,0.294267,-0.577353
0.097816,0.081678,0.718844,0.817334,0.552596,0.163107
0.246925,0.145883,0.836379,0.221221,0.851705,0.475036
0.116467,0.128779,0.809840,0.301564,-0.945479,0.122996
0.074107,0.136351,0.828083,0.751114,-0.301895,0.587100
0.099164,0.163825,0.881639,0.821211,-0.566254,-0.070490
-0.111971,0.123449,0.814893,0.247178,-0.659012,0.710357
-0.162874,0.129900,0.830467,0.828014,0.400757,0.392157
0.445924,-0.229114,0.371673,0.019320,0.768663,0.639362
0.303893,-0.249854,0.339953,0.032532,-0.995314,0.091064
0.216474,-0.253644,0.337919,0.078942,0.994566,0.067879
0.310073,-0.203600,0.430695,0.971344,0.206472,-0.117728
0.533120,-0.092148,0.635412,0.238516,0.783106,-0.574331
0.511771,-0.077850,0.665511,-0.578111,0.540363,-0.611388
0.446487,-0.075326,0.674029,0.154026,0.812734,-0.561907
0.400639,-0.067061,0.693353,-0.767887,0.370336,0.522686
0.413900,-0.041966,0.742522,0.142859,-0.866367,0.478539
0.287601,-0.058788,0.717668,0.004076,-0.799825,0.600220
0.129950,-0.084302,0.677144,0.237190,0.971453,-0.004483
0.102648,-0.070561,0.705336,0.717656,0.388199,0.578163
0.100175,-0.051215,0.743857,-0.351814,0.931961,-0.087613
0.069385,-0.038741,0.769888,0.255649,-0.965605,-0.047436
0.130962,-0.000332,0.842195,-0.118981,-0.421293,-0.899086
0.103995,0.012570,0.869592,-0.708226,-0.223536,-0.669662
0.066464,0.022239,0.890283,0.101145,-0.539565,-0.835846
0.128490,0.059390,0.959985,0.867017,-0.178157,-0.465340
0.061745,0.061212,0.967009,-0.620775,0.475828,0.623078
-0.044102,0.050559,0.953278,-0.202306,0.977050,-0.066679
0.315693,-0.278457,0.612782,-0.102230,-0.496830,0.861805
0.372774,-0.240323,0.683373,-0.115207,-0.959803,0.255939
-0.057585,-0.370555,0.458760,0.181704,0.818948,0.544342
-0.122084,-0.367612,0.468994,0.484380,-0.617951,-0.619283
0.010507,-0.305648,0.580872,0.180982,0.970060,-0.161954
-0.022529,-0.293173,0.606680,-0.076985,0.986223,-0.146419
-0.055566,-0.281820,0.630295,-0.760684,0.617161,0.201178
0.086915,-0.219017,0.743222,0.043233,0.965848,0.255477
0.008034,-0.220558,0.744716,0.256461,0.792207,0.553746
-0.058038,-0.219574,0.751263,0.746885,0.095343,0.658082
-0.045789,-0.194907,0.798620,-0.022251,-0.501610,0.864807
-0.093094,-0.187198,0.816355,0.780614,-0.328635,0.531639
-0.071744,-0.160143,0.867686,-0.303924,-0.095867,0.947860
-0.051183,-0.133782,0.916759,0.441288,0.531288,-0.723186
0.185235,-0.345460,0.860725,0.957669,0.109791,0.266113
-0.151975,-0.386392,0.463209,0.726396,-0.509154,-0.461639
-0.006234,-0.394529,0.754600,-0.554659,0.648675,-0.521127
0.219619,0.255085,0.805136,-0.731716,0.282990,-0.620087
-0.023314,0.250738,0.720624,0.885275,-0.287912,-0.365232
-0.062870,0.245690,0.741219,-0.232538,-0.676985,0.698297
0.138153,0.239239,0.886565,0.840353,0.360698,-0.404603
-0.046687,0.234473,0.832533,0.220575,0.855122,-0.469161
-0.139390,0.229570,0.827575,0.666839,0.709647,0.227435
-0.188156,0.223966,0.844706,-0.010961,0.998100,0.060629
-0.235797,0.218354,0.862314,0.975960,0.208107,0.064753
0.322099,0.318588,0.379714,-0.544801,0.811321,-0.212014
0.200179,0.308209,0.403202,0.274902,0.093679,-0.956898
0.039723,0.303307,0.362106,0.743999,-0.570340,-0.348105
0.224001,0.295880,0.506562,-0.460302,0.658120,-0.595819
0.145121,0.290550,0.507388,-0.022699,0.771114,-0.636293
0.219619,0.283962,0.589930,0.868454,0.020542,-0.495344
0.245687,0.277792,0.647681,0.967590,-0.182222,-0.174830
0.147367,0.273027,0.637955,-0.175720,0.389979,0.903902
0.185235,0.267277,0.701394,0.907839,-0.393512,-0.144832
0.059386,0.261955,0.678987,-0.549377,0.131369,0.825183
-0.224786,0.845114,0.552139,-0.167033,0.725067,-0.668116
0.281758,0.754693,0.643644,-0.292597,-0.949812,-0.110657
0.279735,0.745580,0.684454,-0.290178,-0.837892,0.462314
0.136918,0.745161,0.653052,0.068515,0.130568,0.989069
-0.166920,0.754273,0.538218,0.937317,-0.234555,0.257723
-0.432102,0.761144,0.444711,-0.091450,-0.453648,0.886477
-0.220404,0.729743,0.637891,-0.304015,0.883728,-0.355807
-0.312881,0.725816,0.633791,-0.707941,-0.598739,0.374609
-0.824483,0.737452,0.458760,0.408614,0.868801,0.279677
0.284453,0.400034,0.527190,-0.458198,0.681618,-0.570483
0.246925,0.393583,0.551758,0.936848,-0.193007,0.291656
0.274454,0.384615,0.609000,-0.464672,0.711615,0.526958
0.326930,0.375084,0.678924,-0.524763,0.678206,0.514452
0.239285,0.371157,0.676826,0.703722,0.568753,-0.425787
0.276028,0.362045,0.737787,0.769104,-0.317877,-0.554467
0.085118,0.362327,0.681435,0.963413,0.231307,0.135397
-0.020393,0.358682,0.669992,0.493853,0.851448,-0.176480
-0.069611,0.352787,0.687855,0.169472,-0.623061,0.763593
-0.154784,0.348723,0.684835,0.294979,0.860568,-0.415222
-0.110174,0.339756,0.748752,-0.022663,0.528553,0.848598
-0.197370,0.335966,0.746781,0.075457,0.976710,0.200857
0.100625,0.105644,-0.331663,-0.929336,-0.098604,-0.355826
0.576492,0.021820,0.464831,0.856847,0.317030,-0.406578
0.481433,0.018175,0.456726,0.485789,0.166048,-0.858159
0.320525,0.015933,0.412928,0.385345,0.085100,0.918840
0.318728,0.009482,0.457107,-0.406500,-0.891464,-0.200125
0.294343,0.004015,0.487365,-0.073531,0.945810,-0.316286
0.260522,-0.001590,0.514190,0.019821,0.989291,-0.144606
0.466712,-0.011549,0.668785,-0.591671,0.490447,0.639834
0.332660,-0.014629,0.641864,0.712002,0.482797,0.509863
0.368841,-0.021218,0.703047,-0.200680,0.977281,0.068193
0.330750,-0.025984,0.724755,0.907061,0.238377,0.347012
0.219959,-0.030048,0.710071,-0.133016,-0.680286,0.720776
0.160291,-0.034813,0.720497,-0.026173,0.962756,0.269101
0.321649,-0.043643,0.846454,0.819470,0.573001,0.011798
0.078490,-0.044773,0.763499,-0.156715,0.987606,0.008644
0.087477,-0.050659,0.810475,-0.178894,0.933082,-0.312018
0.091860,-0.056400,0.853192,0.193214,0.085046,0.977464
-0.007359,-0.060327,0.842894,0.781588,-0.302479,-0.545551
-0.073205,-0.065239,0.851412,0.947221,-0.150467,0.283076
-0.141637,-0.401819,0.459014,-0.875235,0.426721,0.227758
-0.173322,-0.186213,0.780090,0.850485,-0.320913,0.416760
-0.155007,-0.198132,0.829800,0.944903,-0.031972,0.325785
-0.176696,-0.206962,0.858913,-0.402563,0.888159,-0.221622
0.172986,0.027141,0.028412,-0.293413,0.949820,-0.108401
0.605935,-0.059908,0.453293,-0.334646,-0.713300,0.615805
0.418618,-0.055562,0.396973,0.050000,-0.826748,0.560346
0.323333,-0.058788,0.390807,-0.448334,0.712804,-0.539358
0.350077,-0.072802,0.451354,-0.073340,0.358359,0.930699
0.533343,-0.111074,0.636811,0.223387,-0.963582,-0.147000
0.473902,-0.117525,0.648634,0.481714,0.872014,0.086854
0.389292,-0.121589,0.645901,0.421797,-0.342461,-0.839528
0.446710,-0.138410,0.720115,-0.034211,0.995125,0.092500
0.035228,-0.114719,0.546705,0.998992,0.040610,0.019103
0.113096,-0.132387,0.631662,0.280554,0.804522,0.523483
0.036013,-0.137290,0.633918,0.188675,-0.823221,0.535453
0.009722,-0.146119,0.661920,-0.114019,0.790528,0.601718
-0.010843,-0.155797,0.694625,0.272884,0.455954,0.847136
0.006574,-0.167570,0.744874,-0.589256,-0.546074,-0.595467
-0.076576,-0.171771,0.744525,0.789336,0.613828,-0.012847
0.085454,-0.195745,0.869529,0.225360,0.971598,0.072187
0.341199,0.304008,0.295933,0.010892,-0.965406,0.260524
0.468622,0.275970,0.412642,-0.297842,-0.396198,0.868514
0.209057,0.277792,0.361121,-0.039533,-0.705722,0.707385
0.193328,0.265600,0.398435,-0.338480,0.808831,-0.480858
0.018596,0.271204,0.349774,-0.532212,0.750418,0.391948
0.196921,0.238546,0.489272,0.934526,0.355687,-0.012137
0.117479,0.234336,0.490067,0.325656,0.936716,-0.128493
0.240520,0.207838,0.599846,0.861081,-0.408428,-0.302862
0.175349,0.201814,0.607856,0.413272,0.633605,0.654027
0.159280,0.190597,0.643231,-0.046925,-0.734520,0.676963
0.167146,0.176582,0.691001,-0.504241,-0.828622,0.243158
0.044778,0.176018,0.670660,0.866861,-0.241302,0.436263
0.195347,0.148544,0.790007,0.686085,0.713191,-0.143684
0.094894,0.146157,0.779137,-0.175297,0.825633,-0.536285
0.115006,0.131859,0.831866,0.988367,0.086564,-0.125053
0.106917,0.120224,0.868099,0.954835,-0.183396,0.233786
0.005113,0.118127,0.858309,0.392222,0.880999,0.264581
0.113995,0.094718,0.954931,0.261765,0.965116,0.005460
0.043317,0.089524,0.960493,0.703100,0.088946,-0.705506
-0.137704,0.095137,0.909449,-0.698325,-0.239697,0.674454
-0.174673,0.528298,0.794107,-0.012730,-0.642133,0.766488
0.397495,0.617453,0.625432,0.925547,-0.177049,-0.334690
0.288613,0.616760,0.611733,-0.188220,-0.721462,0.666383
0.347155,0.578908,0.728665,-0.048058,-0.708623,0.703949
-0.165459,0.631331,0.501477,0.983403,0.017842,0.180553
-0.412888,0.647733,0.416869,0.950381,0.177971,0.255150
-0.148941,0.598535,0.596318,0.692490,-0.121021,0.711205
-0.179614,0.587455,0.624034,-0.665002,-0.709553,0.233040
-0.096242,0.561941,0.709976,0.469231,0.615233,-0.633491
0.213553,0.828994,0.726186,-0.333423,-0.923355,0.190383
0.149054,0.820301,0.736039,0.173152,0.912348,-0.370998
-0.239172,0.898247,0.576073,-0.800605,-0.540796,0.258016
-0.156807,0.750492,0.546482,0.173511,0.025991,0.984489
-0.434351,0.797593,0.444584,-0.623112,0.768355,0.146159
-0.069498,0.652225,0.722245,-0.568987,0.573683,-0.589187
-0.840216,0.774740,0.455454,0.517674,0.847545,0.116966
0.322548,0.724139,0.625178,0.929888,0.331153,0.160142
0.253554,0.716986,0.633219,-0.435273,0.620342,-0.652468
0.189504,0.709277,0.641642,0.098500,-0.841622,0.531008
0.134559,0.699463,0.655118,-0.386894,0.898059,0.209292
0.323669,0.542596,0.549501,0.289671,-0.952702,0.091924
0.276927,0.530540,0.567841,0.440253,0.887525,-0.135930
0.180966,0.529984,0.561452,-0.498199,-0.600899,0.625075
0.374684,0.456529,0.707433,0.229527,0.944819,-0.233741
-0.135458,0.561522,0.482057,-0.302938,-0.697420,0.649487
0.280184,0.431434,0.745542,-0.839716,0.405262,0.361443
-0.043090,0.488067,0.619934,-0.863097,0.253160,0.437005
-0.009495,0.456247,0.679686,0.946620,-0.133368,0.293468
-0.052867,0.443490,0.699201,0.771637,-0.289423,0.566401
-0.056913,0.419935,0.740615,0.914698,0.028421,0.403138
-0.085227,0.403961,0.767409,-0.287954,-0.525943,0.800292
-0.245351,0.418814,0.728633,-0.000358,0.947343,0.320220
0.046239,0.107612,0.892508,-0.049665,-0.940588,-0.335897
0.117365,0.069341,0.969106,-0.398873,0.623308,0.672598
0.005113,0.072703,0.954073,-0.148231,0.948684,-0.279332
-0.189281,0.094718,0.898198,-0.666188,0.096401,0.739527
0.356143,0.386857,0.400660,0.446221,-0.133910,-0.884848
0.231868,0.393026,0.379238,0.555761,0.825293,0.100110
0.154222,0.388680,0.381748,0.182821,0.782954,0.594608
0.051297,0.389236,0.372372,0.929827,0.278716,-0.240288
0.232204,0.319290,0.516129,0.682702,0.512269,-0.521056
0.182200,0.307088,0.534754,-0.694318,0.432129,0.575488
0.219845,0.274011,0.598035,0.935516,0.132462,-0.327510
0.223216,0.250173,0.642849,0.803590,-0.381120,-0.457155
0.154784,0.220458,0.692877,0.402985,-0.886816,0.226187
0.052644,0.221579,0.683405,0.106203,-0.976156,-0.189317
0.208382,0.160463,0.807933,0.775579,-0.442223,0.450462
0.091524,0.164664,0.790547,-0.057073,0.865338,0.497929
0.119166,0.135368,0.846518,0.858808,-0.393619,-0.327893
0.113995,0.114902,0.884753,-0.611885,-0.225255,-0.758193
0.468059,0.159479,0.404283,0.980517,0.030787,0.194005
0.385921,0.155132,0.405618,-0.449660,0.243968,-0.859236
0.319739,0.146858,0.415916,-0.119892,0.328238,0.936955
0.482894,0.084057,0.549311,-0.412072,0.823341,0.390265
0.344347,0.094436,0.517814,-0.168623,0.941807,-0.290803
0.327266,0.075090,0.554047,-0.439050,-0.868389,-0.230513
0.373899,0.040883,0.622508,0.128518,0.966940,-0.220250
0.359177,0.020981,0.659186,-0.475176,-0.468704,-0.744663
0.395698,-0.010565,0.722912,0.623396,0.722766,0.298306
0.315580,-0.015049,0.724565,0.117868,-0.294786,0.948266
0.197707,-0.009299,0.704668,0.275946,-0.947122,-0.163747
0.150066,-0.020097,0.721958,-0.110616,0.953365,0.280820
0.089949,-0.029072,0.734004,0.850296,0.118761,-0.512731
0.014663,-0.033838,0.736642,-0.088943,-0.909141,0.406881
-0.094555,-0.031733,0.723707,-0.024581,0.725597,0.687681
0.038712,-0.084302,0.835076,0.016190,0.740125,0.672275
-0.036239,-0.089906,0.839462,0.799609,0.527552,0.286906
-0.024439,-0.113598,0.886120,-0.093224,-0.866256,0.490825
0.036352,-0.198269,0.534118,0.553589,0.362037,-0.749979
0.048598,-0.222517,0.583796,-0.678440,0.183287,0.711424
0.035115,-0.242008,0.621269,0.163067,-0.521219,0.837699
0.160514,-0.354991,0.857070,0.957669,0.109791,0.266113
-0.134446,-0.312938,0.748275,-0.113627,0.977643,-0.176926
-0.220517,-0.314906,0.745574,-0.441226,0.674031,0.592454
-0.294230,-0.320930,0.750913,0.277104,0.874630,0.397789
0.188606,0.094016,-0.035600,0.709208,0.515648,-0.480760
0.382550,-0.095519,0.358388,0.263232,-0.863310,0.430585
0.142649,0.006256,-0.675909,-0.765787,0.641711,-0.042165
0.215912,0.035834,-0.740874,0.072206,-0.993227,-0.091032
0.197484,0.055881,-0.796591,0.968053,0.010747,0.250515
0.161303,0.075929,-0.857583,-0.745800,-0.604707,0.279486
0.155120,0.094572,-0.908850,-0.685320,-0.470423,-0.555912
0.142762,0.113918,-0.963231,-0.397028,-0.564099,-0.723990
0.247597,0.124852,-0.971940,0.012756,0.386648,0.922139
0.373110,0.133682,-0.970446,-0.412263,0.353610,0.839642
0.220630,-0.317284,-0.955349,-0.257504,0.119852,0.958815
0.024666,-0.332985,-0.969525,-0.092397,-0.091508,-0.991508
0.180067,-0.321768,-0.956589,-0.051596,-0.221768,0.973734
0.307940,-0.311116,-0.954237,-0.267964,0.215477,0.939023
0.453002,-0.300326,-0.946990,0.365716,-0.211671,-0.906337
0.282993,-0.017855,0.723834,-0.416892,-0.811881,0.408718
0.142312,0.205742,0.715856,0.523292,-0.459522,-0.717639
0.293894,0.007240,0.854654,0.573865,0.448407,0.685281
-0.138379,-0.197285,0.847471,-0.717493,-0.438844,-0.540943
0.060171,-0.192383,0.871881,0.161058,-0.907759,0.387341
-0.057363,-0.169392,0.795283,0.005178,-0.551469,0.834179
-0.057363,-0.152990,0.755013,-0.623229,0.549748,-0.556203
0.019721,-0.140934,0.739408,-0.494205,0.869038,0.023108
0.025115,-0.124670,0.700536,0.972021,0.102915,-0.211149
-0.025787,-0.105606,0.644470,-0.283355,0.926475,0.247698
0.131301,-0.099018,0.657247,0.047374,-0.814755,0.577867
0.419068,-0.100002,0.712233,0.887798,0.447108,0.109129
0.551662,-0.075044,0.676635,0.698499,-0.282041,0.657687
0.540088,-0.057667,0.631598,0.309992,0.024730,-0.950417
0.532335,-0.040281,0.587769,0.244217,-0.931287,-0.270301
0.229169,-0.004396,0.444171,-0.032167,0.670768,0.740969
0.300749,0.007377,0.428375,0.541320,0.821209,0.180523
0.186696,0.083783,0.219716,-0.401659,0.470300,0.785804
0.112085,0.176300,-0.019962,-0.492915,0.726365,0.478986
0.013542,0.180510,0.961161,-0.480359,0.507713,0.715181
0.045789,0.195782,0.932111,0.078282,0.995312,-0.056801
-0.111186,0.224385,0.841496,0.044653,-0.975345,0.216122
0.085794,0.228167,0.867113,-0.666298,0.603672,0.437751
0.100738,0.244287,0.833550,-0.312676,-0.946310,-0.082042
0.233552,0.252697,0.836887,-0.008439,-0.016205,0.999833
0.119838,0.277930,0.760861,0.255270,0.867492,0.426960
0.067588,0.299799,0.703047,0.856129,0.516473,0.017296
0.244566,0.304847,0.721037,0.983806,-0.138651,-0.113587
0.225013,0.324475,0.673648,0.834205,-0.497658,-0.237567
0.270408,0.339191,0.649397,0.965154,-0.081613,-0.248631
0.186024,0.363028,0.581507,0.983701,-0.107415,-0.144204
0.183887,0.381527,0.539362,0.753768,-0.485487,-0.442873
-0.047250,0.720913,0.738009,-0.787758,0.528285,-0.316784
-0.268162,0.758483,0.626163,-0.271434,-0.952945,-0.134978
-0.117252,0.765490,0.634935,-0.206039,0.718935,0.663837
0.156471,0.761144,0.686297,0.454221,0.725726,-0.516725
0.156581,0.780909,0.645456,0.137265,0.206404,-0.968791
-0.122197,0.478955,0.763754,0.819055,0.471605,0.326707
-0.241191,0.484286,0.686297,0.278102,-0.848533,0.450167
-0.003539,0.503768,0.684772,0.832010,-0.172752,0.527177
0.254678,0.515267,0.731494,0.907305,-0.408092,-0.101284
-0.127365,0.516808,0.563804,-0.394836,0.651209,0.648099
0.298389,0.531387,0.664971,0.143185,0.457787,0.877456
0.291535,0.546240,0.582524,-0.393807,-0.836834,-0.380296
-0.005113,-0.007622,0.853065,0.989004,-0.105079,-0.104063
0.140738,0.002611,0.862441,-0.657630,0.180660,-0.731358
0.060620,0.005418,0.796332,-0.692455,-0.681651,0.236342
0.147706,0.013965,0.784890,0.867750,-0.494486,0.049933
0.139055,0.019159,0.741728,0.969842,-0.138214,-0.200758
0.103995,0.023925,0.691224,-0.201871,0.195817,-0.959637
