-0.541175,0.019120,-0.974130,-0.371953,0.179893,0.910653
-0.713558,-0.297301,-0.964692,0.035184,0.410822,0.911037
-0.454827,0.357032,0.770297,0.445476,0.861006,0.245398
-0.181857,-0.128089,0.341748,-0.258454,0.746752,-0.612832
-0.139299,-0.599725,-0.926240,-0.279368,0.224021,0.933685
-0.284770,0.034229,0.428142,0.338968,0.940547,-0.021737
-0.096488,0.431143,0.608972,-0.585957,0.749741,-0.307477
-0.208338,0.200965,-0.027640,-0.259071,-0.628258,-0.733604
-0.535310,0.204436,0.430897,0.761263,-0.648146,0.019641
0.043868,-0.214316,-0.711080,0.833347,0.480148,-0.273843
-0.146121,0.299254,0.760231,0.866433,0.322278,0.381353
0.282546,-0.209386,0.302180,0.673335,0.719278,-0.171051
0.142691,0.538957,-0.948224,0.045773,-0.033240,0.998399
0.065946,-0.642924,-0.926765,0.344564,0.878350,0.331327
-0.212278,-0.293404,0.416694,-0.804231,0.594310,0.002967
0.448925,0.809514,-0.944473,0.234713,0.128926,-0.963477
0.064665,0.013887,0.292293,0.900886,-0.421812,-0.102366
-0.026319,0.053669,0.281525,-0.539727,0.448708,-0.712289
0.074362,0.082460,0.819336,-0.534576,-0.841051,0.082829
0.818789,0.017257,-0.933550,-0.297364,-0.004730,-0.954753
-0.194303,-0.047593,-0.129161,-0.769127,0.361340,-0.527141
-0.146447,-0.065650,0.222364,0.235466,-0.456325,0.858093
0.165871,0.005713,-0.939996,-0.327476,0.196558,0.924188
0.855722,0.055938,-0.912543,-0.037018,0.216919,0.975487
0.477177,0.193245,-0.937423,-0.334956,-0.165414,0.927600
-0.761010,0.201310,-0.971519,-0.148877,-0.502448,0.851693
-0.606716,-0.008731,-0.973304,-0.352124,0.136798,0.925902
-0.113906,-0.001866,-0.310411,0.892949,0.448560,0.037890
-0.484204,0.022331,0.675318,-0.586731,-0.791118,0.172857
-0.418866,0.278541,-0.091754,0.870050,0.492759,0.014156
0.606567,0.124216,-0.939975,-0.159772,0.099138,0.982163
-0.231640,-0.818834,-0.950445,0.063662,0.784277,0.617135
-0.047089,0.117343,0.731322,0.777952,0.627564,-0.030909
-0.526253,0.191101,-0.986562,-0.194503,-0.295022,0.935484
-0.005793,0.045620,-0.269749,0.218350,-0.448369,0.866769
-0.518319,0.765748,-0.967160,-0.466705,0.174708,0.866985
-0.012733,-0.150723,-0.575018,0.982197,0.175665,-0.066569
0.018226,0.409780,0.511117,0.859232,0.056291,0.508480
0.021331,0.078769,0.733893,-0.434166,-0.848206,0.303390
0.323696,-0.244288,-0.943873,-0.031960,0.240458,0.970133
-0.446543,0.429176,-0.970629,-0.022697,0.186713,0.982152
-0.230882,0.068688,0.396825,-0.366983,0.910645,-0.189866
-0.139882,0.348187,-0.944502,-0.046534,-0.221704,0.974003
-0.764758,0.357088,0.574774,-0.369769,-0.923205,0.104703
-0.121486,0.554360,0.413604,-0.765777,-0.481361,0.426470
-0.243206,-0.217410,0.346457,-0.691984,0.690078,0.212015
0.455258,-0.434274,-0.922743,-0.167426,0.207091,-0.963889
-0.427249,0.241468,0.265884,0.876846,0.381247,0.292903
-0.174570,-0.007948,0.567189,0.666980,0.074275,0.741364
-0.424219,0.492693,-0.974638,0.109101,0.313421,-0.943326
0.315770,-0.090860,-0.943746,-0.491572,0.425251,0.759947
-0.005229,0.137304,0.712157,0.976607,-0.006383,0.214938
-0.323735,0.257266,0.707469,0.753344,-0.445291,0.483931
0.131314,0.716034,0.461547,0.543620,0.711342,0.445499
0.719093,0.016196,-0.926761,-0.173774,0.114707,0.978082
-0.166216,0.546294,0.263339,0.324805,-0.174412,-0.929560
0.317369,0.340069,0.745822,-0.608805,-0.251238,0.752486
0.260569,0.491130,0.785545,0.887231,0.149971,0.436268
-0.137271,0.011835,-0.949480,0.377917,0.093871,-0.921068
-0.400688,0.020112,0.315713,0.847217,-0.138471,-0.512884
0.628036,-0.387648,-0.921654,-0.559294,0.378950,0.737284
-0.612080,0.212923,0.664732,-0.700401,-0.138891,-0.700105
0.295331,-0.499259,-0.919963,-0.079672,-0.508980,0.857083
0.120691,0.744713,-0.949209,-0.288314,0.760912,-0.581281
-0.097769,-0.047208,0.161443,-0.296161,0.954694,0.029105
-0.142703,-0.144535,0.991415,0.724393,-0.611069,-0.319138
-0.348792,0.578620,0.300526,0.360502,0.894608,-0.264037
-0.009152,-0.182208,-0.385011,-0.550610,0.801307,-0.233956
-0.141793,-0.215960,-0.949038,0.847501,0.141971,-0.511455
-0.036902,0.216886,-0.949690,-0.209008,0.095484,0.973241
-0.713814,0.243214,0.450803,0.287571,0.580582,-0.761727
-0.405898,-0.471223,0.339015,0.191973,-0.184426,0.963916
-0.213418,0.705912,0.203168,-0.710110,-0.377001,0.594654
0.149537,0.718534,-0.944751,0.689636,-0.194615,-0.697515
0.576660,0.016039,-0.919951,-0.262984,0.208508,0.942000
0.590939,0.526197,-0.944375,0.128589,-0.101090,0.986532
0.272697,0.133347,-0.961661,-0.147592,0.087605,0.985161
-0.095761,-0.162271,0.321121,-0.675714,0.641533,-0.363106
-0.449793,0.147738,0.220117,0.958033,0.281085,-0.056254
-0.816218,0.360685,0.595999,-0.376169,-0.917404,0.129870
-0.104820,0.070130,0.725259,-0.334770,-0.067181,-0.939902
-0.040380,0.172013,0.775979,0.926984,0.368562,-0.069735
-0.227937,-0.365490,-0.947057,-0.219402,0.597769,0.771061
0.287024,-0.341750,-0.905965,-0.338557,-0.713702,0.613196
-0.024738,0.633821,-0.959228,-0.184002,-0.000211,0.982926
-0.314221,-0.005518,0.354269,-0.026294,0.999510,0.016971
0.053530,0.603694,0.768929,0.173958,-0.028186,0.984350
-0.392125,-0.297579,0.216758,0.657742,-0.752850,0.024323
0.615419,0.704063,-0.943247,0.000007,-0.149637,0.988741
0.591569,0.527469,-0.948144,0.162261,0.094360,0.982226
-0.028480,-0.102170,-0.747974,0.956244,-0.186132,0.225728
0.691591,0.323415,-0.939432,-0.020343,-0.213529,0.976725
0.013550,0.006415,0.831732,-0.678543,0.732658,-0.052829
-0.273463,0.464759,0.272890,0.081405,0.912141,0.401712
-0.284026,0.271100,0.133037,-0.212787,-0.967200,-0.138728
0.076111,0.808813,0.793634,-0.589703,0.282857,0.756467
-0.139071,0.060962,0.337153,-0.101496,-0.216581,0.970974
0.191824,0.723193,-0.939594,-0.259696,-0.119528,-0.958264
-0.188006,-0.580855,-0.941775,-0.394522,0.403839,0.825389
-0.222779,0.421799,-0.947411,0.591149,0.767707,-0.247321
-0.021738,-0.128817,-0.558470,0.091584,-0.264753,0.959957
-0.331421,0.118944,0.635399,0.133422,-0.916657,0.376746
-0.026759,0.163253,0.874226,-0.530295,-0.843132,0.088967
-0.055982,0.192703,0.502445,0.234693,-0.619191,0.749347
-0.337876,0.145047,0.435540,0.054471,0.997077,0.053579
-0.285940,-0.076283,0.376984,0.217544,0.932271,0.289040
0.303073,-0.589626,-0.941413,-0.141334,0.106934,0.984170
-0.151547,0.257110,0.551017,-0.175395,0.976801,-0.122868
0.188349,-0.197063,0.318464,0.152891,-0.551299,0.820179
-0.131469,0.607008,0.435039,0.429466,0.574112,-0.697104
-0.157578,0.231004,0.880364,0.559944,0.299154,-0.772638
0.075224,0.259442,0.243585,0.303794,-0.539421,0.785324
-0.273551,0.167684,0.351146,-0.505199,-0.859794,-0.074348
-0.374231,-0.445870,0.235395,-0.157268,-0.255161,0.954023
-0.114204,-0.131307,-0.968385,-0.369842,0.178803,0.911727
-0.068737,0.083752,0.312255,0.325868,0.784438,0.527699
-0.359572,0.627263,-0.940312,-0.022706,-0.129726,0.991290
0.187489,0.380937,0.256203,-0.676582,0.688628,0.260822
0.149961,-0.422349,-0.941015,-0.481331,-0.505539,0.716066
0.085120,0.620632,0.459095,-0.645613,0.471564,0.600675
-0.284531,-0.763800,-0.948196,-0.077483,-0.098328,-0.992133
0.112085,-0.625438,-0.947478,-0.191771,-0.236475,0.952525
-0.436385,0.633038,-0.959400,0.724037,-0.153790,0.672398
0.478923,-0.594491,-0.913501,-0.359526,-0.018811,0.932946
-0.596675,-0.682990,-0.949403,-0.135456,-0.217864,0.966533
0.047631,-0.278413,-0.949151,-0.034288,0.456368,0.889130
-0.296473,0.963270,-0.972662,-0.203213,0.500424,0.841594
-0.211936,0.281593,0.260594,0.981765,-0.171577,-0.081843
0.093928,0.005016,0.063287,0.949053,-0.305315,0.077987
-0.336877,0.429725,0.353032,-0.023573,0.554214,0.832041
0.140000,0.168016,-0.959358,-0.582783,0.502918,0.638308
-0.353064,-0.318193,0.358988,-0.298688,0.320186,-0.899036
0.026800,-0.013238,-0.122004,-0.299971,-0.624288,0.721306
0.064267,0.440470,0.234283,-0.411909,-0.269372,0.870500
-0.208533,0.337893,-0.954721,-0.149013,0.165167,0.974944
-0.753664,0.160138,-0.978660,-0.077017,-0.114455,0.990438
-0.208568,0.414041,0.175755,-0.184774,-0.387501,0.903162
-0.228087,0.110448,0.884450,0.461449,0.816556,0.346844
-0.111454,0.208444,0.419170,-0.467090,-0.882873,-0.048592
-0.157677,0.057665,0.844464,0.518057,-0.280614,0.808006
-0.779280,0.241704,-0.968627,-0.604572,-0.217722,0.766218
-0.003549,0.047520,0.713825,0.977191,0.212104,0.010482
0.803035,-0.298557,-0.931540,-0.242924,-0.434563,0.867262
-0.035719,0.043203,-0.192589,0.620599,-0.777206,-0.103963
0.008108,0.161278,0.908552,0.427318,0.858965,-0.282096
-0.220420,0.275998,0.882290,0.713814,-0.308211,-0.628869
-0.120193,-0.332980,0.225042,0.430009,0.466399,0.773023
-0.749365,0.340083,0.602471,0.419797,0.892126,0.166979
-0.162129,-0.122120,0.994869,-0.827085,0.519598,0.214353
0.205763,0.431213,0.395032,0.925645,0.339570,-0.166953
-0.097211,-0.158776,-0.957817,-0.317015,0.706398,0.632853
0.066244,0.143692,0.871875,0.371342,0.920325,-0.122910
-0.753342,0.313142,-0.983564,0.170116,-0.310078,0.935367
-0.427413,0.295044,0.221335,0.478228,0.547484,-0.686702
-0.313331,-0.041673,0.037943,-0.512446,-0.852145,-0.106057
-0.077876,0.836557,-0.945675,0.397481,-0.461577,-0.793067
-0.234072,0.508020,-0.964600,0.343573,0.815316,-0.466067
0.187678,-0.065850,-0.942116,-0.532085,0.232758,-0.814070
-0.049393,-0.653918,-0.044602,-0.630893,-0.461702,0.623543
0.061331,-0.253440,-0.741846,0.948193,0.216421,0.232576
-0.283396,0.340763,-0.963362,0.422980,-0.491350,-0.761356
-0.938769,-0.000612,-0.979396,-0.245149,-0.346887,0.905302
0.010910,0.644594,0.224142,-0.745655,-0.379118,-0.547967
-0.090050,0.104783,0.439678,0.522104,-0.270522,0.808842
0.084260,0.215511,0.934648,0.980169,0.156551,0.121489
0.346250,-0.635189,-0.934318,-0.028702,-0.119671,0.992399
-0.203439,-0.001723,-0.198666,-0.680502,-0.732028,-0.032421
0.068197,-0.073759,0.173232,-0.269173,0.794648,0.544133
0.495004,0.544812,-0.931397,0.140465,0.486869,-0.862107
0.051190,0.039210,0.511391,-0.300524,0.480493,0.823900
-0.151082,-0.146320,0.324087,0.430958,-0.902348,-0.006512
-0.289781,0.830748,-0.972849,0.064611,0.123285,0.990266
0.038981,0.072661,0.298205,-0.664896,-0.743603,-0.070483
-0.673917,-0.229076,-0.953249,0.133012,0.028249,0.990712
-0.181705,-0.740650,-0.943279,0.356648,-0.294446,0.886625
0.217716,-0.791792,-0.940548,0.198560,-0.208415,0.957673
-0.092747,0.520826,-0.943424,-0.205646,0.229106,0.951431
-0.038176,0.379627,0.881760,0.681600,0.263580,-0.682603
-0.201852,0.131370,0.721927,0.992388,-0.036089,-0.117747
-0.395650,0.016794,-0.979158,-0.156785,0.332906,-0.929834
0.033221,-0.138506,-0.686044,0.887887,-0.428030,0.168661
-0.616869,0.115348,-0.977293,-0.011615,-0.226758,0.973882
-0.521995,0.187432,0.416615,-0.052830,-0.966408,0.251526
-0.226589,-0.062936,-0.953388,-0.190536,0.359978,0.913297
-0.100942,0.634768,-0.943874,-0.101701,-0.689966,0.716662
0.449996,0.481492,-0.948279,0.181040,0.120138,-0.976110
0.849503,-0.344109,-0.926191,-0.865237,0.342581,0.366064
-0.797597,0.238141,-0.980390,-0.389767,-0.311213,0.866734
0.214123,0.161424,0.655299,-0.260680,0.771676,-0.580139
0.418093,0.607546,-0.944900,0.819171,-0.307688,-0.484032
-0.228823,-0.005436,-0.951378,0.503370,0.459059,-0.732040
-0.051004,0.046489,0.737722,-0.604411,0.562664,-0.564000
-0.554446,0.099819,-0.966114,-0.230506,0.163916,0.959165
0.135643,-0.002169,0.175217,0.911403,0.073720,-0.404858
0.260772,0.255086,-0.940322,-0.051805,0.129568,0.990216
-0.068035,0.143525,0.342954,-0.855232,0.323347,0.405000
-0.156314,0.503048,0.814366,0.961437,-0.017374,0.274475
-0.004067,0.717174,-0.927931,0.306346,-0.085420,0.948080
0.171110,0.019236,0.478914,0.426018,0.903790,-0.040900
-0.677054,0.735923,-0.972659,0.556642,-0.099562,-0.824765
-0.390045,0.495006,-0.948627,0.270930,-0.223087,0.936392
-0.119803,0.011913,0.130633,0.644498,0.584763,0.492621
-0.465213,-0.277316,0.342134,0.183495,0.446671,0.875680
-0.173570,-0.122951,0.221662,0.743236,0.417793,0.522541
-0.218058,-0.085580,0.034584,0.840688,0.541460,-0.007966
-0.730914,0.832420,-0.959039,0.795749,-0.601167,-0.073362
-0.082222,-0.172789,0.301227,0.353741,0.527041,0.772719
-0.113327,0.201735,0.346799,-0.437180,-0.890765,0.124142
-0.132718,-0.153709,0.147979,0.918700,0.229759,0.321250
-0.280638,0.093640,0.664279,-0.532018,-0.807820,-0.253739
-0.142414,0.171153,0.517167,0.666335,0.212498,0.714732
0.259782,-0.460942,-0.918900,-0.138091,-0.379752,0.914724
-0.248419,-0.281644,-0.946199,-0.141337,0.162640,0.976510
0.025833,0.432142,0.667497,0.969349,0.189729,0.156093
0.105799,0.066707,0.521793,-0.211888,-0.976475,-0.039992
-0.630848,-0.744740,-0.962668,-0.261227,-0.170710,0.950062
-0.002957,0.068160,0.365084,0.617410,0.530968,0.580412
-0.243220,0.017557,0.019295,0.106333,0.329471,0.938159
-0.295891,0.060992,0.861666,-0.299406,0.608426,0.734965
-0.048878,0.090196,0.703391,0.760127,0.627816,0.167492
0.620830,0.215567,-0.940096,0.251689,-0.322890,-0.912357
0.610755,-0.200970,-0.931617,0.160097,-0.227348,0.960563
0.173519,0.370294,-0.946177,0.315987,0.200580,-0.927319
0.063874,-0.166091,-0.444421,-0.036349,-0.962647,0.268308
0.119835,0.439237,-0.962284,0.242299,0.206093,-0.948060
0.041266,0.067753,0.552596,0.206942,0.789342,-0.578026
0.026100,0.006845,0.047605,0.856930,-0.458718,-0.235050
-0.051341,-0.489213,-0.936553,0.132180,-0.395613,0.908856
0.760381,-0.200663,-0.922224,0.387646,-0.097659,-0.916620
0.047421,0.226419,0.473311,0.815555,-0.287793,-0.502042
0.048610,0.336880,-0.963381,0.260726,0.036814,-0.964711
0.713726,-0.287765,-0.929728,0.279141,0.311980,-0.908157
-0.106487,-0.065528,0.457790,0.812555,0.582775,-0.011263
-0.006722,0.835821,0.774936,0.873326,-0.484009,0.055109
-0.087469,0.028847,0.120308,-0.513071,-0.577944,0.634617
-0.446841,-0.387410,0.352301,0.169683,-0.466606,0.868036
0.016469,-0.708050,-0.934808,0.201172,-0.703362,0.681770
0.235816,-0.046788,-0.032199,-0.043299,0.998656,0.028494
-0.659101,0.176449,0.435277,0.263444,-0.636985,0.724464
-0.267206,-0.450068,-0.945900,-0.583503,-0.480411,0.654774
0.084637,-0.086722,-0.400441,0.265716,-0.063634,0.961949
-0.689672,-0.211731,-0.153874,0.787918,-0.286107,-0.545278
-0.508182,0.700138,-0.985965,-0.466081,-0.083928,0.880752
-0.077394,-0.612607,-0.950080,-0.428537,0.072270,0.900629
-0.028229,0.892554,-0.944260,0.546365,-0.445766,-0.709068
-0.249148,0.142751,0.621615,-0.392028,0.868652,-0.302914
-0.011276,-0.128370,-0.755252,0.984556,0.003872,0.175026
-0.290854,-0.125942,0.740848,0.449930,-0.771017,-0.450662
-0.040659,0.198834,0.605854,0.644201,0.304799,0.701500
0.025291,-0.021716,0.021266,0.119196,0.237513,0.964043
-0.115625,0.047300,0.686829,-0.159863,-0.498782,0.851857
-0.402979,0.264624,0.750794,0.300268,0.875134,-0.379448
-0.002805,0.195433,0.603264,-0.657520,-0.054338,-0.751475
0.073694,-0.956829,-0.931685,0.032288,0.330095,0.943396
-0.612683,0.861096,-0.975569,0.034391,-0.929266,0.367806
0.025754,0.002722,-0.391721,-0.368873,-0.383121,-0.846848
0.143390,-0.228423,-0.150864,0.998707,0.035313,-0.036559
-0.135436,0.840737,0.228315,0.852959,0.164419,-0.495407
-0.282580,0.446275,-0.971299,0.108330,0.488450,0.865841
0.341917,0.535518,-0.940088,0.613610,0.549424,-0.567113
-0.465521,-0.855436,-0.933532,-0.084713,0.095204,0.991847
-0.231161,0.204038,0.347229,0.777581,0.453978,-0.435054
0.159202,0.155470,0.081823,0.968387,0.170718,0.181887
-0.508658,-0.187156,-0.979341,-0.004894,-0.106648,0.994285
-0.135483,0.141996,0.546037,0.016290,0.526990,0.849716
-0.077774,0.034195,0.052265,-0.148709,-0.636546,0.756766
0.369558,-0.213228,-0.929410,0.219869,-0.377635,0.899472
-0.008923,-0.151502,-0.783084,0.992092,-0.100480,0.075217
0.310769,-0.499264,-0.926409,-0.077882,0.471272,0.878543
-0.653309,-0.518613,-0.966842,0.443278,-0.022515,-0.896102
-0.178892,-0.260564,-0.955574,0.387174,-0.144817,-0.910562
0.126140,0.362138,-0.007402,-0.598335,-0.052296,0.799537
0.042214,-0.079245,-0.632922,0.841238,0.511887,-0.174042
-0.079388,0.122197,0.658589,0.071923,0.711871,0.698618
-0.015594,0.035987,0.704880,0.931880,-0.316522,0.177240
-0.260174,-0.110842,0.243978,0.884533,0.086438,-0.458400
0.172775,0.213726,-0.966857,-0.610056,0.099738,0.786056
-0.719338,-0.182371,-0.966197,-0.643740,0.046232,0.763846
0.098204,0.555853,0.569770,0.424688,-0.547231,0.721234
-0.751486,0.220148,-0.974265,0.375985,0.519939,-0.767006
-0.025104,0.105561,0.476297,0.728145,0.396230,0.559291
0.190907,-0.852887,-0.936497,-0.240973,-0.205642,0.948495
0.379616,0.389611,-0.938422,-0.218071,0.160396,0.962662
0.521656,-0.493683,-0.925239,-0.246446,0.251982,0.935826
-0.114844,0.113712,0.063600,-0.745618,0.403129,-0.530605
-0.050132,-0.023261,0.161596,-0.506435,0.679224,0.531204
-0.079897,0.136887,0.276441,-0.545500,-0.830809,0.110389
0.371895,0.523927,-0.932946,0.069644,-0.332167,0.940646
-0.078349,0.064932,0.041135,-0.565884,0.808114,-0.163485
0.138465,0.126872,0.735325,0.230459,-0.109532,0.966898
0.019322,0.076092,0.841170,-0.514642,-0.787709,-0.338612
0.003827,0.163233,0.415111,0.337080,0.928221,0.157427
-0.302410,0.311575,-0.981185,-0.355990,0.695111,0.624573
-0.220865,-0.119487,-0.004993,0.662728,0.738262,0.125544
0.061328,-0.815392,-0.931382,-0.092179,-0.018576,0.995569
0.053859,0.038618,0.401602,0.991941,0.084392,0.094500
-0.183551,0.196436,0.359658,-0.011076,-0.985792,0.167607
-0.085671,0.122136,0.379354,-0.403487,0.219350,0.888304
-0.811808,0.082038,-0.966268,0.116667,0.249275,0.961380
0.133643,0.510042,0.759098,-0.461355,0.707427,-0.535443
0.068687,-0.119521,-0.960475,0.356463,0.179402,0.916924
0.224102,-0.241036,0.310281,-0.125224,-0.655760,0.744512
0.113777,0.450492,0.772889,-0.051644,-0.079932,0.995462
-0.155598,-0.284290,-0.949796,0.564931,-0.322947,-0.759315
-0.428551,0.267969,0.320044,0.811110,0.406975,-0.420085
-0.061781,0.088950,0.743069,0.972135,0.008867,0.234255
0.181706,-0.568405,-0.587954,0.936472,0.302665,-0.177238
0.679340,-0.024603,-0.906050,0.876660,-0.180250,-0.446068
-0.154123,0.273555,0.528900,-0.259496,0.963503,0.065762
-0.569121,0.273203,0.659006,-0.674391,-0.363261,-0.642836
-0.088026,0.165162,0.505896,0.218667,-0.593959,0.774208
-0.073722,0.035402,0.741699,0.527644,-0.832645,0.168205
-0.229261,-0.547692,-0.948873,-0.278429,-0.049044,0.959204
-0.558905,-0.217273,-0.174090,0.424457,0.584078,-0.691874
-0.122944,0.378011,-0.961482,0.100241,0.074768,0.992150
0.015816,0.037373,-0.074522,0.839297,-0.531302,-0.115320
-0.685118,-0.270956,-0.988810,0.155541,0.525771,0.836285
-0.414569,0.283670,0.737024,0.053764,-0.680792,0.730501
-0.045981,0.114291,0.666533,0.581742,-0.298292,-0.756702
-0.256814,0.606584,-0.962739,-0.026789,-0.489707,0.871475
0.377143,0.223836,-0.944519,0.679395,-0.221681,-0.699486
0.027539,0.110039,0.521491,0.553731,0.802716,0.221427
0.539365,-0.498009,-0.918337,-0.274022,0.550386,0.788661
0.331089,0.778796,-0.946254,-0.223284,-0.120470,0.967280
0.296420,0.358323,0.193244,0.985681,0.152209,0.072558
-0.757944,0.716561,-0.979463,0.413391,0.320665,-0.852221
-0.310712,0.119849,-0.537315,0.450875,0.792848,-0.410004
-0.190218,-0.310658,-0.954761,0.543731,-0.327219,-0.772842
-0.019750,-0.727106,-0.946915,0.411749,0.388992,-0.824104
0.418345,-0.472537,-0.933762,0.437096,0.358677,-0.824802
-0.010198,0.025025,0.772618,0.943992,-0.300430,0.136461
0.505315,0.488430,-0.945006,0.290255,0.072875,-0.954170
-0.181222,0.867791,-0.951916,0.278575,-0.444812,-0.851198
-0.187884,0.122053,0.707859,0.885415,0.166099,-0.434110
-0.549596,-0.063258,-0.987832,-0.440317,-0.020602,0.897606
-0.790618,-0.356668,-0.974548,-0.209436,0.114926,0.971045
-0.783758,-0.276931,-0.967836,-0.406228,0.411943,0.815648
0.096992,0.712556,-0.953212,0.054959,-0.322499,0.944973
0.332816,-0.704801,-0.932828,-0.103197,-0.361018,-0.926831
-0.158690,-0.050462,0.148978,-0.161300,0.712074,0.683325
-0.099868,0.586935,0.769031,0.988881,-0.015984,-0.147848
-0.448102,0.238414,0.727604,-0.070569,-0.874093,0.480605
-0.097728,0.326769,0.457155,0.987183,-0.154766,-0.038952
-0.668971,0.285463,0.676136,0.342363,-0.939174,-0.027195
-0.493821,0.738053,-0.961484,0.629312,-0.128569,-0.766444
-0.101527,0.135896,0.596286,0.866843,0.053022,-0.495753
-0.035934,0.341623,0.266295,0.078641,-0.656797,-0.749956
-0.322263,0.046797,0.335868,0.129215,0.940889,0.313100
-0.027659,-0.752986,-0.938441,0.900671,0.357867,-0.246420
-0.197138,-0.234136,0.168260,0.859910,-0.509979,0.021834
0.185007,0.142533,-0.935305,-0.126491,0.683303,0.719094
-0.259518,-0.069917,0.140323,0.965263,0.261139,-0.008614
0.123781,-0.122779,-0.921532,0.024924,0.675936,0.736539
-0.444625,-0.315822,-0.973425,-0.197165,0.154313,0.968150
-0.856900,0.182062,-0.967698,-0.188149,0.453605,0.871115
-0.383944,-0.041444,-0.981228,-0.189471,0.061605,0.979952
-0.277859,-0.205435,0.331813,0.425895,-0.891296,-0.155575
0.056113,0.090490,0.871197,-0.402900,0.195753,0.894065
-0.115040,-0.233418,0.428325,0.536403,-0.741062,-0.403854
0.114570,-0.039757,-0.702408,0.929728,-0.180225,-0.321132
-0.303747,-0.012128,-0.960032,-0.134474,0.169239,0.976358
0.183691,0.263413,-0.953792,0.520970,-0.108142,-0.846697
0.289027,0.144327,-0.939072,0.347068,0.342893,0.872908
-0.353080,0.136170,0.642163,0.176532,0.978335,0.108158
0.246814,-0.772050,-0.942892,-0.533108,-0.417288,0.735980
0.278013,0.799383,-0.946478,0.126525,-0.068515,0.989594
0.636063,0.524821,-0.949948,0.207566,-0.259978,-0.943042
-0.075016,0.131225,0.474448,-0.182260,0.561051,0.807467
-0.397410,0.795543,-0.971626,-0.156555,0.144991,0.976969
0.593393,-0.289561,-0.916173,-0.118836,0.228797,0.966194
-0.446384,-0.053667,-0.082013,0.882692,-0.440261,0.164389
0.115654,0.263469,0.414459,0.082679,-0.431505,0.898314
0.607653,0.679051,-0.924486,-0.153212,0.298845,0.941922
-0.207033,0.720825,-0.948578,0.132249,0.394814,0.909193
0.230324,-0.527917,-0.600415,0.928572,0.345491,-0.135612
-0.030749,0.312165,0.475145,-0.401025,0.066632,0.913641
0.000100,0.110397,0.383032,-0.586579,-0.808520,-0.047129
-0.191717,0.044002,0.892826,0.901301,0.040006,0.431342
-0.134266,0.325543,-0.945027,-0.123817,-0.223146,0.966890
-0.438157,0.291153,0.000649,-0.439561,-0.614947,-0.654695
0.088199,0.754661,0.396951,0.739779,-0.625611,-0.247664
0.469325,-0.240119,-0.939556,0.059795,0.227178,0.972016
0.597148,-0.510202,-0.912994,-0.236785,0.609096,0.756925
0.317228,0.714793,-0.945495,0.128201,0.284312,0.950122
-0.225936,0.127759,0.659741,0.297780,-0.601896,-0.740978
0.220692,-0.361689,-0.926771,-0.102327,-0.760837,0.640825
-0.223225,0.250858,0.704393,-0.083946,-0.991945,-0.094860
-0.597738,0.113219,0.164754,-0.408005,-0.605785,0.683049
0.065084,0.069022,0.190785,0.607787,0.792408,-0.051814
0.384607,0.265903,-0.951611,-0.124138,-0.154080,0.980229
-0.467081,-0.512247,-0.048090,-0.538385,0.553698,0.635264
-0.682297,0.141427,0.444136,-0.015630,-0.682897,0.730348
-0.585483,0.577550,-0.954682,-0.263110,0.955923,-0.130327
-0.594223,0.834022,-0.972366,0.291845,0.374176,-0.880238
-0.060215,-0.040903,-0.568257,0.844476,0.263284,0.466414
-0.734486,-0.011560,-0.986774,-0.240783,-0.137764,0.960752
-0.108890,0.273505,0.739694,-0.501703,0.477249,0.721475
-0.292018,0.171045,0.681174,0.781458,0.523507,0.339506
-0.120399,-0.520180,-0.948163,-0.468353,0.165904,-0.867826
-0.038369,0.006038,0.866731,0.595773,-0.071124,-0.799998
0.116830,-0.174624,-0.007604,0.933230,-0.348017,0.089250
0.757295,0.401846,-0.933648,0.109215,-0.140572,-0.984028
0.023523,0.213347,-0.961276,-0.304439,-0.197649,-0.931800
-0.306874,0.580646,-0.962497,0.051438,-0.198876,0.978674
-0.505845,-0.768238,-0.958309,-0.407294,-0.015778,0.913161
0.039421,0.078538,0.169769,0.861953,-0.289955,0.415889
-0.221285,-0.228625,-0.951105,-0.182694,0.488061,0.853475
-0.428064,0.426929,-0.976214,0.121716,-0.085384,0.988886
0.241684,-0.151626,-0.942427,-0.336159,0.119045,0.934251
-0.133998,-0.632618,-0.956492,-0.059941,-0.047720,0.997061
-0.047189,0.166704,0.008235,0.257268,0.885133,-0.387754
0.421012,0.765547,-0.933269,-0.255521,0.911328,-0.322785
-0.126191,0.162788,0.097973,0.929234,0.333212,0.159668
-0.405248,0.182100,0.440680,-0.160221,-0.941257,0.297262
-0.199522,-0.116996,0.347693,-0.464919,0.704018,-0.536850
0.100231,-0.649743,-0.937977,-0.346849,0.838663,-0.419928
-0.207326,-0.808480,-0.949600,0.260645,-0.250942,-0.932251
-0.661609,0.320116,-0.993159,0.297666,-0.326488,0.897107
-0.207004,-0.366847,-0.957348,-0.267058,-0.010131,0.963627
-0.307440,0.122727,0.651088,-0.244688,-0.648982,0.720382
-0.124107,-0.889429,-0.950370,-0.206014,0.799264,0.564566
0.164529,-0.499044,-0.926909,0.083405,-0.282179,0.955729
-0.402882,-0.229193,0.327890,0.199533,0.798732,0.567639
0.066534,0.100329,0.018610,-0.698733,-0.670650,-0.249000
-0.953745,0.146734,-0.995660,-0.156623,-0.023262,0.987384
-0.338212,0.309905,0.710091,0.979720,-0.021787,0.199185
-0.532130,0.152283,0.690525,0.458674,0.761350,-0.458219
-0.307599,0.965892,-0.975966,-0.076503,0.227540,0.970759
0.521439,0.394121,-0.928737,0.234999,0.180484,-0.955092
-0.017900,0.372350,0.704986,0.847386,0.501453,-0.174588
-0.192812,0.281660,0.690332,0.007884,-0.453314,0.891316
-0.296102,0.466960,-0.958657,-0.572192,-0.398963,0.716537
0.686777,-0.115922,-0.928515,0.405469,0.081967,-0.910426
-0.139791,-0.215054,0.190967,0.678428,-0.722359,0.133916
-0.277434,0.837857,-0.976824,-0.181333,0.407572,0.894988
-0.096843,0.125262,0.247491,0.239344,0.841558,0.484246
-0.305617,-0.519848,-0.942908,-0.134187,-0.453191,0.881256
-0.645006,0.019345,0.064505,-0.626141,0.647543,-0.434322
-0.141151,0.370969,0.729242,-0.662273,0.550144,0.508661
-0.175425,-0.350777,-0.929890,0.570483,-0.731760,-0.372930
0.028588,0.164652,0.655417,-0.692976,-0.682181,0.233269
0.130562,0.741464,-0.939933,0.824057,0.252566,-0.507090
0.263818,0.452274,-0.954979,-0.044390,0.010771,0.998956
-0.213228,0.176748,0.006610,0.012835,0.396346,0.918011
-0.443351,0.143636,0.276512,-0.518542,-0.824357,0.227046
0.068952,0.056002,-0.051413,0.880957,0.458133,0.118442
0.038071,0.163707,-0.377712,0.991895,0.118881,-0.044855
-0.251253,0.076051,0.214418,-0.057295,0.247528,0.967185
0.064091,0.442245,0.547864,-0.124089,0.967577,0.219993
-0.101163,0.605932,0.442566,-0.513604,-0.577704,0.634405
-0.160784,0.259027,0.722482,0.885896,0.397444,-0.239221
-0.529343,0.088034,0.869874,-0.521003,-0.831925,-0.190937
0.034137,-0.697213,-0.940038,-0.374573,-0.012627,0.927111
0.004646,0.069901,0.872110,-0.557931,0.829449,0.026981
-0.038815,0.132369,-0.951410,0.564159,-0.358931,-0.743567
-0.184786,-0.023999,0.729825,-0.445829,0.889828,-0.097169
-0.197757,-0.125679,0.337003,-0.202459,0.855466,-0.476643
-0.300223,0.448966,-0.966965,-0.116319,0.010314,0.993158
-0.476962,0.426295,0.195986,0.033419,-0.013926,0.999344
0.028221,0.436335,0.784815,-0.698692,0.452100,-0.554468
0.149984,-0.840564,-0.924969,-0.323313,0.238991,0.915616
-0.023212,0.440680,0.422609,0.791042,-0.441296,-0.423688
-0.052072,0.092581,0.582556,-0.477535,-0.853089,0.210237
-0.020176,0.479184,0.414304,-0.707836,0.669796,0.224371
-0.298653,-0.028927,0.732260,-0.542694,0.825275,0.156219
-0.676396,0.764101,-0.993822,-0.462383,0.160443,0.872044
-0.486599,-0.515174,-0.042905,-0.538385,0.553698,0.635264
0.326138,0.798888,-0.940099,0.079757,0.975940,-0.202929
0.133119,-0.028238,-0.168197,0.884641,0.453767,0.107262
-0.128855,0.105765,0.104857,0.912688,0.172822,0.370315
-0.132924,-0.028293,0.024548,0.065562,-0.462425,0.884231
-0.044695,0.156741,0.843061,-0.432607,-0.781499,0.449567
-0.341357,-0.629494,-0.956928,-0.420972,0.028898,0.906613
-0.366635,0.177393,0.671753,0.319646,-0.942596,0.096637
-0.458631,0.339282,-0.023555,-0.642676,-0.687156,-0.338798
-0.000913,-0.004652,-0.018448,-0.116354,0.956505,-0.267508
0.464085,-0.696556,-0.922462,-0.233320,0.420821,0.876625
-0.266773,0.129757,0.440600,-0.696251,0.423674,0.579426
0.573384,-0.371266,-0.926036,-0.349646,0.042070,0.935937
0.160497,0.101688,-0.962885,-0.080832,0.099581,0.991741
0.327590,-0.357810,-0.931512,-0.737166,0.648025,0.191440
0.749340,0.319520,-0.916148,-0.193719,0.112752,0.974556
-0.344804,-0.310768,-0.955587,-0.692467,-0.408403,0.594724
-0.367972,-0.514438,0.333348,-0.431625,0.033298,-0.901438
-0.661275,0.218124,-0.989454,0.166792,0.128237,0.977617
-0.381355,0.676195,-0.933690,0.059112,-0.139952,-0.988392
0.359335,0.441814,-0.950837,0.667043,0.010841,-0.744941
0.097360,-0.763649,-0.931668,-0.523438,0.220633,0.823003
0.541476,0.438550,-0.940333,-0.441661,0.252118,0.861030
-0.188410,0.242240,0.550347,0.155821,-0.399816,0.903254
-0.260818,-0.381595,0.162089,0.945725,-0.324709,0.012971
0.331184,0.079960,-0.925142,-0.096384,0.561426,0.821895
0.099281,0.381166,-0.945838,-0.011915,0.146826,0.989091
0.211696,0.468038,0.554388,0.864638,-0.371917,0.337756
-0.105712,0.094044,-0.059827,0.276466,0.910533,0.307402
-0.328977,0.290217,0.734517,0.589407,0.407252,0.697671
-0.237847,0.290468,0.874882,0.769424,-0.439303,-0.463681
0.290271,0.328446,-0.959085,0.024325,-0.109767,0.993660
0.593985,0.474640,-0.937034,-0.209847,0.059843,0.975901
-0.388958,0.792624,-0.961976,-0.347381,0.095868,0.932811
0.130178,-0.533707,-0.946829,-0.103083,0.539566,0.835609
-0.738978,0.260277,0.642740,0.017519,0.687986,0.725512
0.794723,0.242921,-0.914164,0.999436,-0.026854,-0.020144
-0.405443,-0.459982,-0.965883,0.097150,-0.224450,0.969631
0.806899,0.081268,-0.927637,-0.038072,-0.085790,0.995586
0.481452,0.195013,-0.936507,-0.334956,-0.165414,0.927600
-0.016022,-0.311712,-0.888425,0.988269,-0.118979,0.095751
0.113173,0.351510,0.240378,0.460701,0.820315,-0.338878
-0.489125,0.207037,0.200524,-0.234218,-0.960277,0.151687
-0.091834,0.898717,-0.904619,0.676643,0.728337,0.108070
0.182285,0.716030,0.446839,0.887795,0.121253,0.443980
-0.178366,0.062966,0.682342,0.824955,0.563164,-0.047909
-0.092111,0.302777,0.883129,0.684446,0.171830,-0.708525
-0.276018,0.370672,-0.964972,0.904206,-0.333736,0.266517
-0.022914,-0.324612,-0.924988,0.338741,-0.080523,0.937428
-0.206325,-0.548028,-0.954229,0.649384,-0.285027,-0.705025
-0.258090,0.314307,0.245141,0.048102,0.965364,0.256434
-0.217051,0.157598,0.327714,-0.223972,0.896291,0.382753
-0.041349,0.182106,0.468042,-0.731545,0.665393,0.148644
-0.185651,-0.757601,-0.943675,0.830400,-0.557138,-0.005711
-0.267679,0.111392,-0.968140,-0.131356,0.233458,-0.963454
-0.053530,0.264735,0.603167,-0.545751,-0.251609,-0.799280
-0.061799,0.092081,0.465480,-0.488900,0.018925,-0.872134
-0.022301,-0.545793,-0.947113,0.778665,-0.594730,-0.199941
0.236355,-0.522393,-0.606017,0.937866,0.332656,-0.098732
-0.087781,0.137771,0.612581,0.927203,-0.311158,-0.208508
-0.150470,0.486863,-0.965283,-0.213531,-0.031106,0.976441
-0.091514,-0.411359,-0.931612,-0.456441,0.458636,0.762440
-0.020061,0.305038,0.740168,-0.247568,0.577785,-0.777737
-0.325453,0.166616,0.348055,0.589717,0.766711,0.253748
0.438818,0.670899,-0.949189,0.068138,0.055687,0.996121
-0.403872,-0.226515,-0.089770,0.833760,0.108057,0.541450
-0.458248,0.384118,0.748092,0.795303,0.524932,0.303217
-0.233180,0.034886,0.226011,0.926902,-0.327023,-0.184145
-0.321819,0.769818,-0.949258,-0.509707,0.552264,0.659699
-0.289181,0.710564,0.211484,0.801345,-0.573125,0.171387
0.180245,0.454044,0.563559,-0.683223,0.317793,-0.657430
-0.023128,-0.891720,-0.962234,0.594140,0.681374,-0.427465
-0.253471,0.111666,0.867198,-0.227628,0.350804,0.908363
-0.267771,-0.793349,-0.947514,0.202485,-0.094327,0.974732
-0.584903,0.683657,-0.980511,0.362719,-0.473550,-0.802612
-0.545862,0.222259,0.652854,-0.121564,0.449732,0.884852
-0.035400,0.153639,0.491629,0.976719,0.148167,0.155132
-0.031039,0.137129,0.797001,0.800414,0.208126,-0.562158
-0.105726,0.691893,0.223825,-0.500613,-0.332824,0.799134
-0.390914,-0.409108,0.230117,0.861955,-0.437544,-0.256104
-0.061007,-0.761914,-0.955967,0.137522,-0.094576,0.985973
-0.072594,0.102647,0.487124,-0.664371,0.747374,0.006620
-0.470168,0.674486,-0.953014,0.496298,-0.437875,-0.749635
0.405040,-0.553655,-0.920154,-0.242442,0.121577,0.962518
0.022064,-0.019958,-0.485763,0.996465,-0.083691,-0.007332
-0.238021,0.233433,0.883689,0.887332,-0.311915,-0.339633
0.764966,0.354703,-0.921972,-0.300051,0.163241,0.939852
0.051047,0.103794,0.046468,0.829213,0.543820,-0.129096
-0.421334,0.134642,0.437275,-0.183155,-0.920619,0.344840
0.258730,0.232509,0.726507,-0.722984,0.015109,-0.690700
0.187571,0.145014,0.718814,-0.249283,0.613247,0.749524
-0.423563,-0.443955,0.185974,0.938902,-0.302745,0.163734
0.036648,-0.155217,-0.245682,0.968761,-0.247971,-0.003496
-0.424074,-0.711219,-0.960041,0.189645,-0.223670,0.956037
0.232804,0.076550,-0.953209,-0.284912,0.304748,0.908820
-0.656073,-0.327830,-0.962765,-0.017502,0.419544,0.907566
0.267684,0.316783,0.246518,0.985933,0.165297,-0.024745
0.122339,0.416455,0.759766,-0.342628,0.291407,-0.893134
0.039070,0.014729,0.876506,-0.137510,0.830362,0.539990
0.170848,-0.192994,0.297281,0.142646,0.922898,0.357646
-0.437230,0.067848,0.372138,0.407450,0.912220,-0.042884
-0.022125,-0.563622,-0.921656,-0.125903,-0.428075,0.894930
-0.065543,0.145272,0.059756,0.706352,0.706216,0.048234
-0.007350,0.228935,0.548917,0.317897,-0.293698,-0.901489
-0.206198,-0.040435,0.911267,0.978731,-0.159965,-0.128443
-0.189867,0.098528,0.862484,0.479820,0.724577,0.494733
-0.077780,0.018495,0.242122,0.703416,0.274887,-0.655472
-0.443656,-0.014981,0.133148,0.522277,0.841450,0.138520
-0.062165,0.086112,0.953433,0.949396,-0.027178,0.312903
0.009959,-0.060055,0.725813,-0.536088,-0.087761,0.839588
0.931148,0.017718,-0.915079,-0.275135,0.201453,0.940062
0.427593,-0.477113,-0.917961,-0.376712,-0.201956,0.904048
0.980205,0.160123,-0.921889,-0.279537,0.029602,-0.959679
-0.113937,0.374711,0.704932,-0.465207,0.795021,-0.389261
0.938241,0.324050,-0.928270,-0.690123,-0.595512,0.411213
0.084657,0.059294,0.627949,0.180772,-0.864724,0.468587
-0.647255,-0.457472,-0.962008,0.274352,-0.265158,0.924350
-0.373104,-0.351775,0.221465,0.847577,-0.525572,0.073396
-0.313088,0.020902,-0.969897,-0.325647,0.371987,0.869241
-0.183939,0.336635,-0.948026,0.253503,0.383120,-0.888232
-0.194995,-0.272453,0.236791,0.637706,0.257721,0.725886
0.266654,0.349685,0.279998,0.246356,-0.962481,0.113748
-0.071299,0.472640,-0.952096,0.571094,0.715231,-0.402860
-0.363399,-0.193190,-0.948411,0.930173,0.087139,0.356631
-0.064084,0.371191,0.422761,0.824509,-0.278225,-0.492723
-0.005462,0.388722,0.418286,-0.496411,0.368914,0.785798
0.264447,-0.508170,-0.938330,-0.193013,0.021037,0.980971
-0.179487,0.075490,0.590108,-0.206105,0.840948,-0.500328
-0.872801,-0.054033,-0.277165,0.790320,0.461838,0.402617
-0.023335,0.176482,-0.945915,0.239809,-0.175917,-0.954749
0.177379,0.313417,0.460481,0.542388,0.834044,-0.100923
-0.148841,0.161436,-0.268518,0.828897,-0.332865,-0.449589
-0.581343,0.447065,-0.976534,-0.129425,-0.208923,0.969330
-0.450301,0.168238,0.429808,0.615203,0.717733,0.326166
-0.305999,0.153921,-0.010761,0.585133,0.478681,0.654587
-0.209919,0.012831,0.367282,-0.719985,0.345661,0.601781
-0.420555,0.236489,0.145944,0.329030,-0.944319,-0.001129
-0.337930,0.430857,0.115996,0.990358,-0.116265,0.075318
-0.037884,-0.032449,-0.579487,0.863418,0.291083,0.412045
0.381649,-0.427749,-0.935414,0.363167,0.095632,-0.926803
-0.099908,-0.120362,-0.673119,0.611871,-0.640598,0.463950
0.355769,0.531591,-0.960155,0.222831,-0.285348,-0.932161
-0.067930,0.439703,0.763442,0.434290,0.755055,-0.491207
0.694731,-0.036827,-0.929159,0.364126,-0.249584,-0.897285
-0.024196,0.856060,0.145391,-0.733731,0.509832,-0.449121
0.061270,0.041845,0.520849,-0.552714,0.540795,-0.634073
-0.707580,0.332179,0.427887,-0.041279,0.860090,0.508469
-0.105443,-0.092508,-0.539276,0.781228,0.622582,0.045545
-0.331996,0.292495,0.179558,-0.411733,-0.383131,0.826853
-0.209843,-0.115676,0.141934,0.241755,0.970236,-0.014009
0.017477,-0.356618,-0.874685,0.579639,-0.772566,0.259154
-0.487634,-0.195631,-0.967872,0.521053,0.605782,-0.601275
0.231631,0.548057,-0.947412,0.216901,-0.068913,-0.973758
0.450569,-0.205915,-0.936936,-0.556120,-0.740464,0.377417
-0.024950,-0.089792,-0.313513,0.629102,0.775849,-0.047845
0.438773,0.531184,-0.937591,0.023925,-0.729185,0.683899
0.344825,0.763336,-0.946451,-0.322718,-0.176847,0.929827
0.205797,0.289338,-0.954837,0.034485,-0.427760,-0.903234
0.133741,0.442588,-0.006686,0.754894,0.237771,-0.611228
-0.265894,0.250020,-0.006701,0.120517,0.689683,0.714012
-0.177289,-0.256501,-0.972066,0.331743,-0.418922,-0.845252
-0.792872,-0.242261,-0.266824,-0.348417,0.042584,0.936372
-0.144295,-0.300470,0.217242,0.145229,-0.011236,-0.989334
-0.275723,-0.174451,-0.958276,-0.200468,0.265338,0.943085
-0.063699,-0.743667,-0.959295,0.025977,-0.312478,0.949570
-0.159229,-0.238757,-0.939726,0.911667,-0.190350,-0.364184
-0.191235,0.247179,0.086490,-0.679846,-0.695876,-0.231444
0.056047,-0.016432,-0.258662,0.850065,0.418915,-0.319218
0.009977,-0.935669,-0.926562,-0.000633,0.211542,0.977369
-0.546161,0.843303,-0.966609,-0.122504,0.284214,0.950902
-0.009278,0.047893,0.092013,0.517509,-0.846286,-0.126430
-0.441152,0.146181,0.432396,0.652372,0.746798,0.129240
-0.130467,0.027522,0.571886,-0.715448,0.485045,-0.502857
-0.282391,0.153124,0.641222,0.160017,-0.972270,0.170545
0.200020,0.278148,0.774302,-0.142919,-0.001088,0.989734
0.283405,0.411666,0.257957,-0.458070,-0.561822,0.688860
-0.219577,0.138085,0.351420,0.191479,0.980336,0.047711
-0.105385,-0.572209,-0.932909,-0.006508,-0.380416,0.924793
-0.214403,0.238516,0.287787,-0.016109,0.982272,0.186766
0.160601,0.531567,0.783002,0.172811,-0.982813,0.064918
0.034084,-0.041668,0.313267,-0.268386,0.137624,0.953430
-0.353311,-0.088200,0.225558,0.749446,-0.614248,0.247043
-0.411102,0.332942,0.739431,0.385855,-0.462225,0.798414
-0.286928,0.088599,0.509090,-0.233934,0.924794,-0.300053
-0.030720,0.058827,0.973403,-0.685904,-0.369816,0.626715
-0.194453,0.705091,0.118396,-0.854159,0.417121,-0.310519
-0.035374,0.022821,-0.941739,-0.538693,-0.152849,0.828521
-0.153184,0.241039,0.264021,-0.786794,-0.350492,-0.508046
-0.033989,0.124869,0.597499,0.145620,-0.205685,0.967723
-0.082978,0.826112,-0.935977,0.352547,-0.328223,-0.876345
-0.467140,0.092732,0.101684,-0.699583,0.660133,0.273510
0.510965,0.479231,-0.946834,-0.268398,-0.021697,0.963064
0.683875,0.405404,-0.914478,0.003306,-0.067088,0.997742
0.085080,0.099120,0.521100,-0.575717,-0.803270,-0.152665
-0.176826,0.002658,0.928180,-0.870820,0.456832,0.181594
0.120787,-0.536647,-0.932221,0.200157,0.140272,0.969671
-0.400015,0.191297,0.551790,-0.019732,0.983563,0.179483
-0.021102,0.185982,0.715926,-0.405436,-0.290683,0.866675
-0.174608,0.340103,-0.953201,-0.304908,0.158299,0.939134
0.858034,0.339358,-0.912652,0.200020,0.306394,0.930653
-0.310185,0.166729,0.657206,0.208598,-0.373679,0.903798
-0.426074,-0.325684,-0.050371,-0.549792,0.137195,0.823957
-0.114461,-0.724086,-0.945280,-0.219014,0.207058,0.953499
0.168489,0.259309,-0.955362,-0.232388,0.330366,0.914797
-0.032388,0.033334,0.815321,0.494086,0.780929,0.382137
0.136658,0.032464,0.824861,0.951256,0.216600,-0.219538
-0.451078,-0.558133,0.142479,0.355359,-0.024907,-0.934398
-0.832807,0.530485,-0.982931,0.531354,0.469978,0.704829
0.590119,0.272815,-0.919134,0.075536,0.063879,0.995095
-0.159747,-0.039182,0.244113,0.346943,0.799132,0.490937
-0.104493,0.106377,-0.938810,-0.130400,0.213131,0.968282
-0.065152,0.252931,0.025456,0.843177,0.532503,-0.074117
-0.699846,-0.228774,-0.977222,-0.580981,0.351921,0.733902
-0.209625,-0.907545,-0.948626,0.022439,-0.434177,0.900548
-0.472489,-0.192655,-0.973117,-0.626562,0.289680,0.723537
0.006676,-0.752564,-0.918230,-0.251535,-0.138770,0.957848
-0.519784,0.506903,-0.954720,0.157442,-0.506685,0.847633
0.020136,0.123655,0.013385,0.590771,0.771168,0.237254
-0.009930,-0.038508,0.313336,0.423701,-0.528564,-0.735594
-0.250299,0.121500,0.850369,0.432413,-0.901173,-0.030103
0.008970,0.007263,0.680203,-0.366960,0.929770,0.029474
-0.209552,0.098194,0.691520,0.528295,0.721884,-0.446977
-0.729507,0.109127,-0.975703,-0.029824,-0.200000,0.979342
-0.008273,-0.130933,0.798927,0.763860,-0.091931,-0.638801
0.060581,0.060902,0.914902,0.915286,-0.254476,-0.312238
-0.542063,0.015746,0.054650,-0.450749,-0.082089,-0.888868
-0.184526,0.025932,0.073909,-0.564315,0.510414,0.648865
0.146236,-0.776486,-0.924341,-0.113271,-0.238352,0.964551
0.847236,-0.023719,-0.907424,-0.116310,-0.109810,0.987124
-0.056498,0.188634,0.621876,0.587956,0.801908,-0.106069
-0.271120,0.509919,-0.976177,0.011874,-0.356982,0.934036
-0.623706,0.764798,-0.983159,0.348268,-0.235681,-0.907284
-0.282243,-0.196111,0.427929,0.976453,0.159877,0.144839
-0.179684,-0.069999,0.987960,0.780896,-0.534450,-0.323364
-0.097103,-0.079963,0.453225,0.796218,0.604348,-0.028304
0.536458,0.169744,-0.915636,-0.319390,-0.062714,0.945546
-0.202986,0.155832,0.552194,-0.077185,0.492228,0.867037
-0.029851,0.143235,0.641403,0.806106,0.350459,0.476835
-0.190967,0.301086,0.212337,0.994795,-0.091093,-0.045659
-0.217517,-0.009989,-0.127671,0.449733,0.059541,0.891176
-0.014865,0.136444,0.876687,0.282427,0.916170,0.284373
0.233305,0.711448,-0.944923,-0.350509,0.342583,-0.871654
0.065703,0.129028,0.923694,0.850037,0.293793,0.437176
0.161189,0.347927,0.235297,0.803222,0.384903,0.454626
0.684684,0.508735,-0.942632,-0.617743,0.137063,0.774343
-0.160871,-0.152128,0.259548,-0.427813,0.750220,0.504128
0.174789,-0.180863,0.297046,0.385026,0.913196,0.133523
-0.031676,0.171970,0.338537,-0.295279,-0.728596,0.618028
0.619719,0.179974,-0.939497,0.443581,0.227713,-0.866823
-0.002324,0.012473,0.975215,0.195372,-0.961531,0.193101
-0.483583,0.051977,0.045586,0.457627,0.315284,0.831369
-0.603395,0.382850,0.186643,0.725976,0.515725,-0.454958
0.189701,0.146097,-0.954472,-0.266012,-0.337643,0.902904
-0.769237,0.531704,-0.968049,-0.247862,0.222892,0.942806
0.006107,-0.724662,-0.928336,-0.034172,0.329130,0.943666
0.007425,-0.017492,0.632294,0.362391,-0.831382,0.421279
-0.646350,-0.380013,-0.952079,0.136773,-0.199834,-0.970237
-0.598648,-0.513880,-0.955306,0.039723,0.122558,0.991666
-0.052115,-0.180056,0.434111,0.815356,-0.559032,0.150590
-0.160581,0.061302,0.814908,0.148012,0.972184,-0.181523
-0.345390,-0.561730,-0.950847,-0.100676,-0.524798,0.845252
-0.090554,-0.284094,-0.921223,0.850974,0.356805,-0.385400
-0.158694,0.327323,0.863136,-0.350077,-0.620312,0.701897
-0.294971,0.290556,0.735532,0.278722,0.113972,-0.953585
0.210381,-0.439555,-0.929336,-0.265617,0.517674,-0.813303
-0.408105,-0.361400,-0.044292,0.552719,0.044881,-0.832158
0.314039,-0.545520,-0.929822,-0.094807,-0.163566,0.981966
-0.086825,-0.021443,0.242151,-0.447996,0.889330,-0.091604
-0.243366,0.684803,-0.962901,-0.139143,-0.147151,0.979278
0.109571,-0.904814,-0.948603,0.041658,0.265760,0.963139
-0.611528,-0.129276,-0.972149,0.394540,-0.180048,-0.901066
-0.085507,0.608585,-0.960949,0.118737,0.116322,-0.986089
-0.382633,-0.733689,-0.961717,0.396526,0.122113,-0.909866
-0.136498,0.446585,0.183568,0.337805,0.210098,0.917467
0.839705,0.411010,-0.928978,0.443994,0.001749,-0.896028
0.382046,-0.316368,-0.927093,-0.060804,-0.014163,0.998049
-0.230075,-0.341920,0.322513,0.909950,-0.249278,0.331438
-0.440079,-0.636057,-0.942532,0.416803,0.018989,-0.908798
0.243038,0.344740,0.459351,0.514000,0.822866,-0.242273
-0.065181,0.425100,0.428916,0.932205,-0.332081,-0.143928
0.277205,0.391554,0.747165,-0.079090,-0.515878,0.853003
0.237683,-0.209216,-0.922484,0.509462,-0.236916,0.827236
0.769674,0.539611,-0.906041,0.439301,0.723112,0.533033
0.012635,0.334714,-0.226554,0.953227,0.275666,0.123965
-0.052663,0.084924,0.859699,0.936271,0.311741,-0.161909
0.395287,0.641948,-0.932963,-0.474579,-0.458824,0.751169
-0.022479,0.398787,-0.962221,0.562255,0.235638,-0.792682
-0.275302,-0.850439,-0.936143,-0.190411,-0.518231,0.833775
0.038962,0.058897,0.454374,0.863871,0.263184,0.429490
0.012417,-0.133416,-0.042218,0.878895,-0.296143,0.373956
-0.031417,-0.258683,-0.883256,0.922290,0.373920,0.097804
0.627316,0.260625,-0.938235,-0.285947,0.402689,0.869526
0.230412,0.562330,0.787353,0.605481,0.775612,0.178377
0.074751,-0.646861,-0.955976,-0.192437,0.958545,0.210140
-0.405256,0.491412,-0.955763,0.288427,-0.457369,0.841204
0.021679,0.033830,0.135370,0.805619,-0.585352,-0.091327
-0.004030,0.195250,0.902944,-0.566402,-0.707050,0.423403
-0.177062,0.130738,-0.213347,0.510168,-0.644973,0.568980
-0.619877,-0.267844,-0.137910,0.450481,-0.227574,-0.863295
-0.434584,-0.205347,0.748823,-0.688741,0.719766,-0.087016
-0.200216,0.827228,-0.967729,-0.753018,-0.070909,0.654168
-0.121076,0.628027,-0.954800,-0.118945,-0.407303,0.905515
-0.409421,-0.486295,0.178689,-0.670921,0.725776,-0.152034
-0.183850,-0.656398,0.093144,0.949860,0.188117,0.249757
-0.727034,0.619545,-0.969480,-0.168943,0.464580,0.869266
-0.055461,0.128182,-0.490211,0.979163,-0.197194,0.048530
-0.315160,-0.135364,-0.028265,-0.338714,0.928559,-0.151827
-0.233412,-0.069924,0.387506,0.053438,0.644303,0.762901
0.490146,0.190654,-0.924097,-0.365039,0.524670,0.769069
0.014642,0.228560,0.201658,0.692222,0.680715,-0.239699
0.145633,0.162878,0.746583,-0.561950,0.508924,-0.652081
-0.096573,0.149109,0.471626,-0.464597,0.849125,0.251269
-0.361171,-0.118356,-0.978966,-0.457403,0.206263,0.865008
-0.469479,0.769705,-0.964048,0.341752,-0.450695,-0.824669
-0.439312,0.097823,0.680431,0.091783,-0.945885,0.311250
-0.190605,0.197085,0.637852,-0.313586,0.940207,-0.132942
0.322903,-0.652756,-0.942385,0.332813,0.108566,0.936723
-0.473793,0.007151,0.008258,-0.451019,-0.295458,0.842192
-0.090578,0.560889,0.791010,0.734162,0.408382,0.542431
0.139145,-0.207140,-0.956487,-0.043459,0.677620,0.734127
0.689382,-0.488520,-0.927670,-0.112617,0.269424,0.956414
0.269379,0.365503,0.735904,-0.160389,-0.672261,0.722731
-0.049535,0.024754,0.724084,0.346336,-0.937649,0.029415
0.345165,0.173096,-0.955677,0.391014,-0.062896,-0.918233
0.202827,0.368446,0.285989,0.216805,-0.974227,-0.062264
-0.726923,-0.375318,-0.961111,0.309142,-0.137793,-0.940981
-0.744902,0.773336,-0.999649,0.022780,0.147421,0.988811
-0.659721,-0.325654,-0.169017,0.532599,0.490074,-0.690047
-0.162823,0.399230,0.283421,0.724051,0.650312,0.229879
-0.667591,0.109607,-0.983416,-0.081958,0.480054,-0.873402
-0.220827,-0.038872,-0.955415,-0.247123,0.127777,0.960522
-0.009449,0.001544,0.466457,0.904273,0.339278,0.259192
0.065833,-0.114403,-0.949124,-0.603155,0.065164,-0.794958
-0.101410,-0.006127,-0.960480,-0.161129,-0.414667,0.895594
-0.242094,0.027158,0.268577,0.163931,-0.552085,0.817514
-0.054240,0.263877,0.508527,0.182082,-0.362120,0.914174
-0.170364,-0.048308,0.352940,0.794880,0.211543,0.568696
0.841579,0.499759,-0.913716,-0.610529,-0.356433,0.707255
-0.326252,0.485122,-0.970834,-0.600603,0.219614,-0.768795
-0.231360,0.135178,0.870797,0.668551,-0.476327,-0.571097
-0.300293,-0.441432,0.148927,0.582262,-0.514237,-0.629707
-0.387443,0.143037,-0.954651,-0.017219,0.140882,0.989877
-0.375435,-0.007116,0.061439,-0.347053,-0.936272,0.054295
-0.162174,0.077365,0.260454,-0.655850,0.750552,-0.080818
0.392735,0.413446,0.748584,0.417255,0.339274,-0.843085
-0.034042,-0.960652,-0.949009,0.887328,0.431242,-0.163335
-0.034137,0.853426,-0.957863,-0.552430,0.475467,0.684655
0.115909,-0.083854,-0.127037,0.833574,0.472548,-0.286098
-0.342386,-0.813287,-0.934850,0.153277,0.077721,-0.985122
-0.337966,0.154673,0.831585,-0.655692,-0.475367,-0.586596
-0.754115,-0.225171,-0.289570,-0.384483,0.075849,0.920011
-0.373301,-0.210257,-0.966107,0.302560,-0.060461,-0.951211
-0.176288,-0.439506,-0.942531,0.246648,0.224313,-0.942788
0.230265,0.252744,0.234504,0.887704,0.009295,-0.460322
-0.031631,0.919823,-0.963669,0.316819,-0.389435,-0.864851
-0.212428,-0.071012,-0.013835,-0.790627,0.283796,-0.542558
0.611059,-0.447350,-0.923292,-0.015148,-0.102995,0.994567
-0.740031,-0.305859,-0.969898,-0.002572,0.361230,0.932473
-0.012366,-0.906749,-0.944774,-0.612620,-0.065396,0.787668
0.143403,-0.898205,-0.924655,0.344623,-0.299686,-0.889620
0.271821,0.497987,-0.941910,0.119919,-0.393294,0.911559
-0.193438,0.161368,0.332264,-0.525292,-0.688619,-0.499873
0.110769,-0.013476,0.751281,-0.471177,-0.876590,-0.097893
0.059251,0.607985,-0.952453,0.262303,-0.032666,0.964432
-0.113431,0.482751,-0.960618,0.415733,0.425621,-0.803749
-0.180438,-0.240238,0.159600,0.769260,-0.636268,-0.058330
-0.087105,-0.860980,-0.953676,-0.170749,0.211860,0.962268
0.106892,0.427422,0.576378,0.955148,-0.276949,-0.104838
0.089345,-0.316342,-0.693600,0.849775,0.527016,-0.011734
-0.179057,-0.771478,-0.954470,-0.594189,0.709864,-0.378196
-0.515383,-0.520301,0.347962,-0.805339,0.195624,-0.559608
-0.125260,0.577355,0.800738,0.912838,0.401343,0.075177
-0.482832,-0.393805,-0.078877,-0.941523,0.284518,0.180511
-0.167436,0.669908,-0.937766,-0.345610,0.161434,0.924388
0.011565,-0.047094,-0.956031,-0.071993,0.023079,0.997138
-0.507844,-0.262483,0.314310,0.781252,-0.530610,0.328782
-0.183639,-0.080364,0.148936,-0.274706,-0.274693,0.921456
-0.711310,0.556493,-0.971700,-0.656303,0.747008,0.106040
