-0.943707,-0.059083,0.620876,-0.835131,0.523755,-0.168039
0.009398,-0.329034,-0.964194,-0.049051,0.183029,0.981883
-0.359501,-0.022657,0.876573,-0.023812,0.977918,0.207626
-0.480804,0.474306,0.897957,0.596029,0.577153,0.558250
-0.355195,0.191675,0.932062,0.150921,-0.923897,0.351621
-0.242271,-0.142563,0.731105,0.971209,0.106363,0.213167
-0.941329,0.234063,-0.254178,0.205649,-0.836771,0.507468
0.394716,0.459564,-0.987755,0.161840,0.190959,0.968164
-0.276704,0.536860,-0.982743,-0.043947,0.076003,0.996139
-0.578320,-0.372398,0.400576,-0.182348,-0.440028,0.879275
-0.528601,-0.024827,0.811900,0.950896,0.259220,-0.169118
0.545130,0.150368,-0.979659,-0.017160,0.135135,0.990679
0.126968,-0.268213,0.565840,-0.647439,-0.203847,-0.734349
-0.218262,0.236667,0.044786,0.992080,-0.103735,0.070829
0.702685,0.193951,-0.183201,0.667094,0.538057,-0.515247
-0.466190,-0.145597,-0.972516,0.015425,0.119859,0.992671
0.208632,0.435604,-0.978730,-0.099600,0.020926,0.994807
0.689432,0.196336,-0.979047,-0.006305,0.122444,0.992455
0.837578,0.394406,0.382730,0.668120,-0.550288,0.500799
0.472529,0.142996,0.642078,-0.622708,0.153252,0.767299
-0.509231,-0.400586,0.285653,0.125630,0.881329,0.455496
-0.643226,-0.016371,0.840087,-0.404719,0.779032,0.478865
0.587036,-0.180832,0.583528,0.959964,0.145407,-0.239427
-0.476387,-0.367518,0.630014,0.258912,0.611709,-0.747514
-0.772797,-0.327948,0.380235,-0.028568,-0.904883,0.424700
-0.313737,-0.799760,0.495499,-0.476759,-0.875568,-0.077980
-0.053573,0.123374,-0.973061,-0.079518,0.073538,0.994117
-0.489411,-0.725497,-0.956824,0.093640,0.257169,0.961819
0.026957,-0.181809,0.859657,0.885958,-0.462356,-0.036130
-0.877564,0.380745,-0.986689,0.100596,0.214131,0.971611
-0.325296,-0.123046,-0.973174,-0.002967,0.171770,0.985133
0.687165,0.668909,0.446858,-0.432747,-0.520168,-0.736312
-0.285083,0.427908,0.077031,0.897005,0.085179,0.433736
-0.333225,-0.289894,0.753713,0.843199,-0.187093,-0.503997
0.586020,0.001085,-0.210889,0.004797,-0.989360,0.145407
0.597233,0.208154,-0.162498,-0.270541,-0.519450,0.810543
-0.611509,-0.445794,0.617452,0.741891,0.275593,0.611266
0.230373,-0.402863,0.663961,0.997842,0.051637,-0.040549
-0.063769,-0.854185,-0.032654,0.834267,-0.371693,0.407237
0.674929,-0.540979,0.442278,0.917614,0.382569,0.107825
-0.485450,-0.066782,0.807070,-0.471904,-0.860375,-0.192513
-0.393479,-0.012576,0.785687,-0.405464,-0.316747,-0.857479
-0.178505,0.248481,0.469398,0.970704,0.157865,0.181142
0.485443,0.775045,-0.990544,-0.145930,-0.044222,0.988306
0.167285,-0.466498,-0.036690,-0.711228,0.135886,-0.689703
-0.633479,0.525369,0.286242,-0.184230,-0.883141,0.431419
0.203419,-0.834238,-0.090660,-0.464076,0.010597,-0.885732
-0.439008,-0.038379,0.672079,-0.030200,-0.028230,-0.999145
-0.685471,-0.599957,-0.167623,0.420792,0.836708,-0.350504
0.038053,0.586081,0.516384,0.351766,0.910184,-0.218689
-0.517955,0.145382,0.894215,0.729268,-0.281272,-0.623742
0.487026,0.270489,0.469217,0.505598,-0.539818,-0.673029
0.556004,-0.306698,0.126942,0.842336,-0.256145,-0.474193
-0.435835,0.460754,0.813896,0.243938,-0.568285,0.785841
-0.020279,-0.486449,0.512846,-0.518076,0.812989,0.265793
0.014043,0.610583,0.058233,-0.717140,0.696924,-0.002597
-0.240003,0.213140,0.547065,-0.692406,0.719158,0.058187
0.669834,0.206311,-0.976530,-0.025173,0.150331,0.988315
-0.466646,0.223982,0.879317,-0.670696,-0.407209,0.619958
0.068297,-0.015937,-0.159255,0.177150,0.670022,0.720894
-0.311588,0.197094,0.772535,0.982091,-0.089448,0.165820
0.150182,0.729402,0.559605,0.699168,0.225135,-0.678586
-0.452717,-0.193732,0.610422,0.276671,0.906205,0.319758
-0.045989,0.214225,0.877979,0.914868,-0.003086,0.403742
-0.543775,0.627059,0.213315,0.500426,-0.843137,-0.196709
-0.764072,0.406982,-0.984830,-0.051739,0.283508,0.957573
-0.673574,0.191565,0.672759,0.896332,0.442666,-0.025224
0.540374,-0.044450,0.196059,-0.386059,0.298192,0.872949
0.664849,0.076539,0.547858,0.927720,0.362293,0.089885
0.627360,-0.384973,0.515635,0.732178,-0.677334,0.071657
0.187450,-0.484387,0.279303,-0.384609,0.921707,0.050319
-0.392456,0.315158,0.876619,0.652107,0.394716,0.647268
0.574808,0.279707,0.223996,0.803592,0.088659,-0.588540
-0.392007,0.017237,0.487041,0.770106,-0.510780,-0.382154
0.073281,-0.637141,0.630672,-0.017328,0.065489,0.997703
-0.179867,0.134758,0.437584,0.084163,-0.990500,0.108746
0.499711,0.525369,0.533595,0.814321,0.050953,0.578173
-0.530412,0.248700,0.455158,0.793830,0.457702,0.400429
-0.730434,0.200022,0.636137,0.139576,-0.165489,0.976285
-0.573681,-0.252492,0.796617,0.930681,-0.238091,-0.277752
-0.221884,0.113508,0.620400,0.902538,-0.418597,-0.101007
-0.732024,-0.491977,0.389102,0.077751,-0.975220,0.207127
-0.095141,-0.177580,0.689222,0.656944,0.146963,-0.739477
0.080644,0.022008,-0.180820,-0.210837,0.962999,-0.167871
-0.900895,-0.103318,-0.975328,0.237770,-0.062267,0.969324
0.414204,0.613293,-0.993356,-0.016208,0.086567,0.996114
0.636762,-0.236121,-0.176897,-0.807072,-0.126215,-0.576805
0.300257,-0.440047,0.705231,0.321694,0.767585,0.554371
0.518853,0.475715,0.155854,0.867093,-0.327082,0.375721
0.621927,-0.513876,0.428105,0.901997,0.417660,-0.109372
0.500735,-0.078382,0.429624,0.736507,0.669326,-0.097780
-0.335375,0.123265,0.915486,0.987240,0.156759,-0.027988
-0.161291,0.332071,-0.024196,0.789920,-0.610691,0.055526
-0.712197,0.468778,0.683417,0.770355,0.604162,0.203818
0.721481,0.524069,0.529763,0.187550,-0.099322,0.977221
0.643668,0.677471,0.516588,0.124831,-0.659678,0.741109
0.052328,-0.645488,0.562870,0.853667,0.508082,0.114481
-0.343187,0.284150,0.223270,0.362469,0.910655,-0.198303
-0.207726,0.143972,0.353727,-0.531733,0.844802,0.059747
-0.566768,-0.044016,0.784258,0.860739,0.438840,0.257969
-0.920148,0.322853,0.453774,-0.458820,0.714712,-0.527893
-0.903840,-0.410558,0.681739,0.626825,0.533774,0.567606
-0.027075,0.125002,0.826753,0.913723,0.357185,-0.193725
-0.564618,-0.137141,0.816254,0.745045,0.120230,-0.656089
-0.806774,-0.507372,0.393115,0.636914,0.324556,0.699288
-0.640959,-0.192108,0.231139,-0.342011,-0.807371,0.480813
-0.317028,0.590851,0.115762,0.896299,0.229598,0.379385
0.723748,0.021466,0.727001,-0.701957,-0.705777,0.095578
0.061502,0.661101,0.544752,0.506101,0.631353,-0.587585
0.653754,0.379230,0.298306,-0.701632,0.411887,-0.581431
-0.281799,-0.131503,0.634459,0.483033,-0.065534,0.873146
0.369124,0.236015,-0.180820,0.500644,0.371911,-0.781690
-0.224829,0.210430,0.511871,-0.136642,0.971098,0.195699
-0.405141,-0.261276,0.741717,0.053894,-0.998467,-0.012575
-0.432441,-0.062011,0.907662,0.573439,0.797706,-0.186636
-0.221773,0.083262,0.727341,-0.481827,0.733362,0.479606
-0.493262,-0.424871,0.743486,0.846487,-0.048249,0.530218
0.048477,0.896901,0.579469,0.652556,0.486493,0.580943
-0.153701,-0.277427,0.484501,0.780222,-0.062232,-0.622399
-0.440142,0.428341,0.846074,0.754135,0.567644,0.330244
0.120283,0.947094,0.488764,0.168368,0.980557,-0.100796
-0.185300,0.157743,0.457221,0.075783,-0.994028,0.078521
0.216105,-0.584129,0.574866,0.954475,0.221145,0.200181
0.156756,-0.319601,0.382049,-0.216944,0.948901,0.229177
0.001469,-0.188637,0.889431,-0.201970,0.971655,0.122858
0.601651,0.473873,-0.985260,-0.147214,-0.007676,-0.989075
-0.037721,0.885083,-0.991338,0.063321,0.144574,0.987466
-0.566201,0.373917,0.689267,-0.066172,0.724591,0.685995
0.380676,0.653948,-0.990227,0.191140,0.118473,0.974387
-0.410125,-0.061144,0.809542,0.127399,-0.990315,0.055187
-0.670975,-0.553121,0.401619,0.962321,0.086720,0.257716
-0.222679,-0.644406,0.606363,0.370231,0.916782,0.149799
-0.128440,0.387144,-0.980793,-0.151135,0.107604,0.982639
-0.402653,-0.430832,0.454160,0.828826,0.081397,-0.553554
-0.358250,-0.133888,0.687317,0.822809,-0.296135,-0.485066
0.646841,0.249242,-0.166330,0.298138,-0.446141,0.843843
-0.065809,-0.629336,0.586385,0.373464,0.585729,0.719337
-0.383967,-0.633564,0.395224,0.615694,-0.787968,-0.005261
-0.637675,0.239267,-0.975736,0.034138,-0.108151,0.993548
0.229695,0.623159,0.294496,0.311149,0.950126,-0.021144
-0.123346,0.389744,0.701218,0.705178,0.709029,0.001401
-0.078944,0.205984,0.896710,-0.717397,0.645320,0.262495
0.037603,-0.816892,0.444386,0.699318,0.710890,-0.074757
-0.253034,0.244257,0.201660,0.136338,0.853340,-0.503213
-0.837240,0.319710,0.311436,-0.654495,0.742472,0.142729
0.267185,0.642996,0.296900,0.311149,0.950126,-0.021144
0.481364,0.442865,-0.985827,0.118239,0.001093,-0.992985
0.491671,-0.645164,0.292909,0.934827,0.318721,0.156572
-0.541286,0.261166,0.688156,0.714421,-0.697074,0.060758
0.717181,0.021466,0.472188,0.841573,-0.539943,-0.014740
0.648086,0.505638,0.471983,0.863809,-0.466198,-0.191035
-0.512632,0.157743,0.455838,0.992591,-0.112202,0.046630
-0.840185,-0.060387,0.383319,-0.618060,-0.742296,-0.258841
-0.124141,-0.615027,0.577269,0.518822,-0.783807,-0.341278
0.050966,0.961406,0.100342,-0.697151,-0.148954,0.701280
0.144638,-0.422591,0.564344,0.163428,-0.837799,0.520946
-0.414315,0.174980,0.999478,0.869257,-0.477619,-0.127560
0.484765,0.126626,0.021679,-0.118124,0.109327,0.986962
0.475702,0.262142,-0.982086,0.057555,0.149037,0.987155
-0.057423,-0.556592,0.577360,0.137356,0.438857,0.887997
0.244531,-0.366542,-0.961700,0.065938,-0.053685,-0.996378
0.279760,-0.239701,0.630082,0.025430,0.234354,0.971819
-0.425528,-0.515285,0.735663,-0.328462,0.789947,-0.517780
-0.278626,0.350932,0.846006,-0.087265,0.576506,0.812420
-0.205120,0.392781,0.792920,-0.474541,-0.597302,0.646561
0.425638,-0.809083,-0.953128,0.006266,0.048318,0.998812
-0.058785,0.383564,0.721989,0.586112,0.726810,-0.358078
-0.847319,0.027322,0.208077,0.936281,-0.342038,0.079919
0.307052,0.308110,-0.986734,0.142065,0.063467,0.987821
-0.142370,0.261818,0.818204,-0.366111,0.277275,0.888302
-0.216900,0.321443,0.977165,0.835739,-0.542571,-0.084594
-0.727945,-0.153511,0.238305,-0.203110,0.951971,-0.229124
0.145543,0.606355,0.243566,0.833089,0.525396,-0.172978
0.687275,0.505313,0.528221,-0.100033,0.258387,0.960848
-0.282477,0.279273,0.854804,0.812002,0.427922,0.396907
0.385093,-0.053340,0.058754,0.086618,-0.711837,0.696983
-0.225167,0.210646,0.598336,0.992685,-0.095416,-0.073975
0.604140,0.219211,-0.977845,0.066486,-0.103391,-0.992416
0.544224,0.535127,-0.156171,-0.284152,-0.256009,0.923968
-0.851854,-0.302036,0.426563,-0.065787,-0.011831,0.997764
-0.146449,0.389853,0.831810,0.888105,-0.459405,0.014732
0.353943,0.034911,0.638473,0.691724,0.638319,0.337737
-0.024130,-0.693732,-0.961019,0.052993,0.108822,0.992648
-0.346021,0.240567,0.877526,-0.302162,-0.451169,0.839729
-0.530979,-0.035775,0.864759,-0.247649,0.814862,0.524090
-0.365046,0.128578,0.693757,0.439840,0.894263,-0.082672
-0.108165,0.471597,-0.498787,0.520539,0.852445,-0.048752
-0.214183,-0.165111,0.746956,0.708373,0.599193,-0.373063
-0.437087,-0.329248,0.641307,0.942383,0.288836,-0.168783
-0.321217,0.111556,0.916325,0.948519,0.310097,0.064429
-0.378077,0.696555,0.602213,-0.258413,0.873210,-0.413191
-0.912903,0.502495,0.687771,-0.631818,0.774667,0.026426
0.163662,-0.452623,0.667294,0.624828,0.778556,0.058657
0.267980,-0.614808,0.696297,0.653979,0.399552,0.642394
-0.453055,0.280246,0.889249,0.929948,0.061870,-0.362447
0.129346,-0.181048,0.014173,0.217712,-0.717549,0.661608
0.138402,0.509108,0.593369,0.983097,-0.039969,-0.178672
-0.289500,-0.159476,0.742511,0.796733,-0.577377,-0.178473
-0.472986,-0.147225,0.614186,0.841709,0.440313,-0.312491
0.302752,0.410019,0.472437,0.777642,-0.479439,0.406708
-0.379660,-0.441780,0.644845,0.717651,0.687768,-0.109326
-0.015862,-0.239158,-0.974058,0.219342,-0.037580,-0.974924
-0.157890,-0.015070,0.785120,0.909235,0.007485,0.416216
0.188356,0.338247,0.739790,-0.466709,-0.807428,0.360891
-0.063997,0.052906,0.790177,-0.508006,0.817943,-0.269996
-0.560995,-0.642454,-0.958117,0.038312,0.229356,0.972588
0.176120,0.616545,0.599492,-0.681788,0.161281,0.713550
-0.414315,0.643539,0.598608,-0.102096,0.954532,0.280079
-0.222900,-0.027319,-0.976213,-0.109823,0.091484,0.989732
0.254610,-0.405897,0.685140,0.828508,0.558658,0.038412
-0.301508,0.213574,0.913944,0.062271,-0.997894,-0.018155
-0.246688,-0.398740,0.784598,0.830404,0.090694,-0.549731
-0.057202,-0.419339,0.590467,0.011500,0.920804,0.389855
-0.586933,0.314397,-0.977596,0.211780,0.108383,0.971289
-0.334242,0.316024,-0.985079,0.047051,0.134163,0.989842
0.448631,0.281983,-0.983514,-0.024987,-0.135233,-0.990499
0.852414,0.636492,0.425225,-0.549567,-0.648047,-0.527267
-0.586594,0.409585,0.397061,0.799880,0.597606,-0.055317
-0.153473,0.025045,0.871539,-0.521063,0.671302,0.527112
-0.303997,0.398525,0.838772,-0.014878,-0.371584,0.928280
-0.466190,0.109389,0.894623,-0.758030,0.045392,-0.650638
-0.103865,0.156115,0.852990,0.312857,0.458199,0.831970
-0.975307,0.351799,-0.079412,-0.591356,0.804873,-0.049776
0.513081,-0.617194,0.285993,0.920884,-0.178790,0.346421
0.068864,-0.814830,0.608767,-0.060221,-0.992660,0.104881
-0.131047,0.167714,0.884465,-0.145526,-0.822522,0.549800
0.216215,0.881721,0.497336,0.210858,0.977336,-0.018818
-0.196285,0.113402,0.743146,0.543235,-0.802151,-0.247890
0.159812,0.616654,0.583074,-0.825555,-0.191188,-0.530949
-0.179521,0.243820,0.100796,0.989548,0.141428,0.028164
0.524633,0.659800,-0.985329,0.149560,-0.261265,-0.953610
-0.573114,0.637035,0.109708,-0.627271,0.701447,0.338384
0.209309,0.016046,-0.976349,0.091098,0.064818,0.993730
0.271263,-0.254877,0.645207,-0.640761,-0.501693,0.581145
-0.352817,0.134325,0.880269,-0.567877,-0.325701,0.755933
0.469246,-0.446875,0.127214,-0.409468,0.896962,-0.166718
0.251893,-0.181157,0.207442,-0.389696,0.677854,0.623418
0.190505,0.851584,-0.991474,0.055354,0.121110,0.991095
-0.127307,0.219645,0.172544,-0.657380,0.749055,0.082271
-0.770647,-0.216935,0.454795,0.403068,-0.326017,-0.855131
0.475591,0.318192,0.168394,0.714382,-0.406629,-0.569483
-0.030697,0.033393,0.812105,0.872182,0.458269,0.171136
-0.824893,-0.135840,0.233860,-0.635327,-0.260119,0.727116
-0.193796,-0.702298,-0.965623,0.111899,0.134767,0.984539
0.716497,0.479186,-0.155287,0.801576,0.403986,-0.440763
0.193789,-0.594862,0.122769,-0.494044,0.707236,-0.505706
-0.593839,-0.044992,-0.978140,0.065851,0.132893,0.988940
0.033974,0.227125,-0.972539,-0.387566,0.186353,0.902810
-0.233097,0.585538,0.676931,0.845371,0.512903,0.149259
-0.389629,-0.465631,0.664119,-0.184044,0.757849,0.625934
0.172497,-0.283499,0.698497,-0.185835,0.790253,0.583923
-0.240687,0.303449,0.921994,0.807800,-0.577969,-0.115809
0.330840,0.339985,-0.173179,0.434034,0.591310,-0.679682
0.651148,0.427689,-0.987233,-0.038592,0.087148,0.995448
-0.261185,0.190808,0.246468,0.681628,0.722267,0.117106
-0.256429,-0.029489,0.883353,0.142363,0.854175,0.500117
0.496656,0.640611,-0.985691,-0.370090,0.140032,0.918382
-0.218828,0.100823,0.599787,-0.779856,0.600744,0.175872
-0.350777,0.390611,-0.988050,0.141943,0.189608,0.971546
-0.067620,0.042825,0.773759,0.797275,0.586338,-0.143392
-0.509231,0.392996,0.880292,0.719965,0.128610,-0.681989
0.481136,0.684412,-0.164516,-0.007588,0.196944,0.980385
-0.050745,0.185822,0.567949,-0.707241,0.702710,0.077511
0.288816,0.031222,0.064990,0.153477,-0.087709,0.984252
-0.795333,-0.167496,0.240482,-0.716013,-0.251988,0.651021
0.175442,-0.223440,0.438536,0.864136,-0.469379,-0.181525
0.070447,-0.577081,0.572485,-0.197400,0.867850,0.455926
-0.230719,-0.579900,0.503186,0.593627,0.719523,-0.360407
-0.357801,-0.374350,0.552235,-0.701988,-0.000014,-0.712189
0.289272,-0.173134,0.649493,0.623685,-0.327308,-0.709850
-0.133992,-0.236015,0.810086,0.163799,0.549168,-0.819503
0.473773,0.709564,0.476950,-0.168351,0.683369,0.710398
-0.667235,-0.473655,0.645752,0.802720,-0.553971,-0.220809
-0.168308,-0.091282,0.795506,-0.741797,0.466989,-0.481309
-0.176804,-0.212164,0.616953,0.845100,-0.350229,-0.403912
-0.155968,-0.801603,0.630627,-0.030110,0.905460,0.423362
-0.279310,0.022332,0.844758,-0.558346,-0.136579,-0.818288
0.153016,-0.619470,0.590716,-0.628386,-0.539657,-0.560269
-0.332658,-0.072963,0.200005,-0.732111,-0.096883,-0.674261
0.811979,0.466502,-0.983265,0.053661,0.107872,0.992716
0.594399,0.690699,0.456496,0.627060,0.668508,0.399865
-0.740402,-0.182351,0.207057,-0.355485,-0.067856,-0.932216
0.656582,-0.075887,0.722125,-0.772872,0.064827,0.631242
0.525877,0.698612,-0.985963,-0.071812,0.084612,0.993823
-0.605163,-0.360904,0.604912,0.535943,0.844089,0.016686
-0.523278,0.271032,0.868160,-0.708364,0.102238,0.698404
-0.969306,0.358089,0.626046,-0.721702,0.476556,0.502036
0.508435,0.259541,-0.182635,-0.198390,-0.750022,0.630958
0.118133,-0.677038,-0.209710,-0.526132,0.848367,0.058816
-0.898178,0.198937,-0.259394,-0.171415,0.873895,-0.454889
-0.269003,0.335971,0.526633,-0.321041,-0.740626,0.590260
0.362778,0.098980,0.597655,-0.531006,0.796791,0.288369
0.603580,0.566458,0.515023,0.961226,0.045141,0.272043
-0.037493,-0.638659,0.588177,0.041022,0.739683,0.671704
-0.062297,-0.858737,-0.226989,-0.354861,0.934094,-0.039265
0.455654,0.182894,0.039049,0.873277,0.237381,0.425485
-0.441504,0.376517,-0.983786,-0.106352,0.086581,0.990552
0.591571,0.643106,0.562348,-0.715172,0.510605,-0.477296
-0.220411,-0.354294,0.504138,-0.437488,0.887101,-0.147156
0.351454,0.445793,0.582326,0.476645,-0.875029,-0.084458
-0.165024,0.018541,0.870972,-0.579158,0.779657,0.238140
0.382943,0.342694,-0.981428,-0.092612,-0.088829,-0.991732
0.093329,0.466283,0.634255,0.834187,-0.167145,0.525543
-0.348738,0.294774,0.946416,0.819659,0.511927,0.257079
-0.279877,-0.012900,0.679290,0.967302,0.248023,-0.053024
-0.044627,-0.393645,-0.963378,0.038621,-0.039612,0.998468
-0.193679,-0.342257,0.793193,0.724446,-0.550898,-0.414353
-0.376487,0.264094,0.867820,0.329790,0.555432,0.763370
-0.634951,-0.471597,0.625615,0.562708,0.540647,0.625348
0.456899,0.218887,0.033039,0.660120,0.360751,0.658863
-0.841208,-0.142345,0.227715,0.713235,0.260908,-0.650555
0.593611,-0.481896,0.460373,0.727017,0.480296,0.490675
-0.234569,0.054206,0.637497,0.987577,0.039811,0.152011
0.137724,-0.437447,0.588698,0.173122,0.494500,0.851762
0.293350,0.650044,0.617497,0.802597,0.582791,0.127250
0.426433,-0.909149,0.385746,-0.212962,0.954551,0.208520
-0.986070,-0.153405,0.189596,0.939679,-0.153480,-0.305690
-0.387133,0.340418,0.883988,0.009097,0.923159,0.384312
0.069085,-0.697527,0.590240,0.939126,0.223384,0.261039
0.242042,-0.176714,0.000453,-0.272437,0.933769,-0.232064
-0.801900,-0.078057,-0.014014,-0.348181,0.794325,-0.497813
0.083699,0.592370,0.707408,0.366118,-0.905823,0.213172
0.309092,-0.303773,0.622826,-0.448293,0.852816,-0.267841
0.716953,0.402647,-0.169437,-0.896414,0.384080,0.221188
0.725560,0.377060,-0.204676,0.022401,0.991448,0.128564
0.189600,-0.138226,0.641829,0.373929,0.793281,0.480502
-0.002492,-0.509214,-0.962698,-0.376947,0.012731,0.926147
0.263334,-0.176929,0.213701,0.321102,-0.642189,-0.696051
-0.519089,-0.428123,0.311005,0.342978,0.818161,0.461496
0.602328,0.352560,0.140615,0.013881,-0.675684,0.737061
-0.164119,0.102233,0.706048,0.631048,-0.765466,-0.125859
0.589422,-0.171182,0.569242,0.970919,0.214493,-0.106341
0.711741,0.516804,-0.267013,0.682661,0.702564,0.200943
-0.369809,0.238076,0.993447,0.730595,-0.597750,-0.330040
-0.343187,0.263009,-0.982108,0.007359,0.135772,0.990713
-0.508664,-0.037836,-0.976848,-0.030518,0.096574,0.994858
0.172269,0.861450,0.558244,-0.005436,0.830370,0.557186
0.584887,0.750434,0.520715,0.309912,0.592690,0.743420
-0.802246,0.550196,0.055262,0.337225,-0.939053,-0.066780
-0.114511,0.553231,0.811991,0.839440,-0.260239,0.477091
0.318382,-0.600390,0.506225,0.252833,-0.694769,0.673329
-0.804057,0.412838,0.253022,-0.066993,0.878266,0.473455
0.587493,-0.362641,0.401937,-0.423081,0.870465,0.251582
0.224939,-0.245120,0.328397,-0.191257,-0.976405,0.100267
-0.451583,0.434412,0.836323,0.390294,0.768421,0.507149
0.460072,-0.680614,0.297286,0.794412,0.461639,0.394714
0.643668,0.386168,0.285675,0.018444,-0.907385,0.419895
0.251326,-0.279489,-0.731853,-0.675629,0.252999,0.692471
0.325966,0.641372,-0.987097,-0.199987,-0.172934,-0.964416
-0.272176,-0.105703,0.446745,-0.755600,0.647297,-0.100374
0.406952,-0.370770,0.561509,0.789551,0.583787,0.189216
0.267074,0.359607,0.480646,-0.026473,-0.967677,0.250800
0.085282,0.135844,0.741196,0.820798,-0.521115,0.233944
0.071691,-0.650368,0.132339,-0.639892,0.768233,0.018861
-0.124362,0.068843,-0.975646,-0.102332,0.076409,0.991811
0.170914,-0.229944,0.416653,0.982537,-0.148633,-0.111931
0.448292,0.037727,0.619787,0.968775,0.122838,0.215375
-0.514443,-0.170315,0.803170,0.504930,-0.726814,-0.465604
0.670629,0.532632,0.449919,0.844765,-0.453992,-0.283307
-0.086872,0.360150,0.645275,-0.394695,0.720514,-0.570153
-0.015973,0.775479,0.526860,-0.434973,0.150945,0.887702
-0.388495,0.071986,0.964897,0.538345,0.087445,-0.838175
-0.000232,0.959673,0.564525,0.143615,0.988375,-0.049889
0.263562,-0.447961,0.706569,0.221138,-0.216428,-0.950924
0.162190,-0.319816,0.499535,0.940971,-0.206006,-0.268580
0.756931,0.591718,0.461303,0.902190,0.427094,0.060365
-0.797262,0.216392,-0.980068,-0.109031,0.014968,0.993926
-0.848792,-0.314506,-0.968752,-0.053824,0.072194,0.995937
0.412165,-0.163053,-0.055852,0.032100,-0.382443,0.923421
0.091400,-0.242301,0.601147,0.781660,-0.209530,-0.587456
-0.773702,-0.423676,0.649584,0.839228,-0.487726,-0.240459
-0.901123,-0.280032,0.218032,0.258443,0.588734,-0.765898
-0.349982,0.299545,0.953037,0.868701,0.483048,0.109651
-0.038399,0.831852,0.444591,-0.178195,-0.958584,0.222178
0.476719,-0.046941,0.468355,0.443045,0.846088,-0.296389
-0.109188,-0.017347,0.687204,-0.021594,0.664164,0.747275
0.294934,-0.536317,0.720379,0.909721,0.061109,-0.410698
0.269791,-0.437552,0.648586,0.735279,-0.126873,-0.665784
-0.952542,-0.120012,0.185333,0.931928,-0.207782,-0.297215
0.131496,-0.903944,-0.955192,0.225602,0.440715,0.868835
-0.661234,0.335104,0.320211,0.139397,0.640936,-0.754831
-0.895800,-0.012576,0.632237,0.772345,-0.614264,0.161751
-0.443315,0.382155,-0.983990,-0.106352,0.086581,0.990552
0.707890,0.368388,-0.985329,0.219964,-0.027678,-0.975115
0.352699,0.864051,0.504524,0.052566,-0.814728,0.577456
0.191529,0.892348,0.527200,0.150845,0.958127,0.243391
-0.876886,-0.226907,0.207488,0.712912,-0.197357,0.672910
-0.364030,0.149934,0.759088,-0.233616,-0.471239,0.850504
-0.311815,-0.037403,0.814848,0.315786,-0.548120,-0.774496
-0.179638,0.802149,0.635842,0.517956,0.590380,0.619010
0.083699,0.051821,0.759881,-0.574156,0.545997,0.610108
-0.448182,-0.444275,0.646160,-0.022119,0.965653,0.258893
-0.757505,-0.496205,0.659357,0.607214,0.229934,-0.760540
-0.437874,0.367845,0.857389,0.649680,0.690294,0.318451
-0.509120,0.458478,-0.988911,0.040737,0.226480,0.973164
-0.267303,0.351693,0.780290,0.868764,-0.481277,0.116710
-0.407070,0.074696,0.921132,-0.421299,0.857159,-0.296285
-0.466308,0.269407,0.891449,0.843747,0.380034,-0.379032
0.319288,-0.504010,0.265834,0.318676,-0.944642,0.078087
-0.469135,-0.612966,0.699313,0.855023,-0.494732,-0.155487
-0.142827,0.430184,0.756888,-0.023934,0.403966,0.914461
0.144859,-0.454141,0.643280,0.556845,-0.479509,0.678229
-0.769174,-0.354294,0.591669,0.857039,-0.227468,-0.462323
-0.522144,-0.173786,0.222386,-0.124705,0.992193,-0.001025
0.533578,0.103969,0.636658,0.850230,-0.045807,-0.524415
-0.248050,0.791416,0.596045,-0.385238,0.814897,0.433053
-0.167402,0.149501,0.441847,-0.398211,0.917224,0.011325
-0.194025,-0.318734,0.676614,0.277787,-0.958609,0.062473
0.456332,0.418366,0.451257,-0.606440,0.756546,-0.244680
0.648313,0.304425,0.120955,0.901123,0.065726,0.428553
-0.118590,-0.335538,0.754779,0.878348,-0.427518,-0.213851
-0.485789,0.146467,0.569786,0.382979,-0.133933,0.913996
-0.026619,-0.557135,0.579900,-0.301657,-0.249627,0.920157
0.300374,-0.568082,0.538584,-0.832489,0.541011,-0.119451
0.572657,-0.527318,0.465906,0.641850,0.253066,0.723869
0.476269,-0.380964,0.413479,0.133151,0.986042,0.099965
0.338430,-0.023309,-0.154970,0.482096,0.689058,0.541093
0.774601,0.691893,-0.089639,0.527058,0.688716,-0.497876
0.003169,-0.031656,0.670015,-0.344222,0.839754,-0.419909
-0.050517,0.181593,-0.982358,-0.092715,0.118923,0.988565
-0.012233,0.028622,0.746797,0.025618,0.631808,0.774702
0.319627,0.576105,0.427674,0.887827,-0.410747,-0.207487
-0.820593,-0.591391,-0.238146,0.354806,0.931452,-0.080685
-0.553744,-0.185603,0.231819,-0.341905,-0.248605,-0.906254
0.659644,0.333804,-0.982789,-0.026827,0.084204,0.996087
0.373880,-0.284908,0.634550,-0.620580,0.158157,0.768028
-0.506286,-0.521247,0.614572,-0.638227,0.488782,0.594776
-0.544342,-0.417063,0.307241,0.342978,0.818161,0.461496
-0.254728,0.255747,-0.983197,-0.060311,0.142345,0.987978
0.671306,0.229510,0.243362,-0.872795,-0.102675,0.477165
-0.600185,0.458045,0.551600,0.775473,-0.000118,0.631381
0.420882,0.158824,0.603075,0.921786,-0.363766,-0.134112
-0.762939,0.190808,0.620536,-0.017863,-0.888142,0.459223
0.175781,0.558220,0.608721,0.581068,-0.641200,-0.501221
0.315887,0.116002,0.606340,-0.635741,0.328691,0.698423
-0.345454,-0.796074,0.459988,0.860796,0.488092,0.144211
-0.441048,-0.034799,0.689812,-0.470623,0.236455,0.850060
-0.393362,0.422594,0.842173,0.325229,0.218265,-0.920101
0.697133,0.446770,-0.152112,0.788255,0.313837,-0.529302
0.197073,0.217153,-0.972426,-0.109892,-0.058412,-0.992226
0.073848,-0.228425,0.659017,0.281280,-0.738823,-0.612390
0.293918,-0.566349,0.716456,0.863972,0.274945,-0.421850
-0.388495,0.632049,0.131137,0.749576,0.610618,0.255503
0.136141,0.117412,0.723486,-0.747481,0.583990,-0.316588
0.587721,-0.550627,0.259167,0.014280,-0.622022,0.782870
-0.671763,0.281550,-0.972675,-0.021968,0.012370,0.999682
0.606745,0.412619,-0.159528,-0.098345,0.427160,0.898812
0.284177,-0.370012,0.594571,0.858504,0.510340,0.050234
-0.389511,-0.312769,-0.970249,0.092519,-0.105298,-0.990128
-0.645037,0.432133,0.289712,0.834380,-0.549715,0.040296
-0.136259,0.408500,-0.317150,-0.607966,-0.789953,-0.079698
-0.678219,0.087490,0.596680,0.638960,-0.582543,0.502368
-0.307509,0.372074,0.838069,-0.160448,0.045469,0.985996
-0.670629,-0.497396,0.659629,0.056338,-0.843961,0.533438
0.179749,0.038270,0.598177,-0.460503,0.610247,-0.644621
-0.244081,0.132916,0.890927,-0.636147,0.310071,0.706522
0.654770,-0.031874,-0.264609,0.962659,0.160261,0.218182
0.262539,-0.434842,0.685594,0.881966,0.192285,-0.430304
0.050966,0.731787,0.558040,0.463505,0.572867,-0.676007
0.024800,-0.111447,0.865643,0.833342,0.550216,-0.052943
-0.568925,-0.476583,-0.967233,-0.031395,0.151790,0.987914
0.490655,-0.145706,0.209665,0.165443,0.538430,0.826270
-0.077816,-0.730378,0.018458,0.874020,-0.403647,0.270478
-0.128669,-0.090309,0.750062,0.300877,-0.271318,-0.914254
0.759427,0.533502,0.162317,-0.353849,0.551044,-0.755739
0.689654,0.006505,0.589288,0.944891,-0.316880,0.082265
0.025257,0.455659,0.628019,-0.400309,0.714700,0.573548
-0.225057,0.228968,0.476609,0.234491,-0.651637,0.721375
-0.797600,0.570577,0.031815,0.337225,-0.939053,-0.066780
-0.516144,-0.243062,0.595932,-0.248269,0.871885,-0.422113
-0.017445,-0.120227,0.628540,0.609552,-0.772783,0.176785
0.136930,0.845080,0.449942,-0.905016,-0.186113,-0.382503
0.093896,-0.948503,0.467834,-0.574648,-0.813597,-0.088538
0.549893,0.655029,0.564230,-0.689257,0.509411,-0.515194
0.329934,-0.033608,0.072428,-0.329227,0.550102,-0.767462
-0.352139,-0.292064,0.559899,0.824703,-0.324949,0.462897
-0.233664,0.218669,0.713758,-0.383709,0.809573,-0.444251
-0.868729,0.029379,0.613211,0.819582,-0.462903,0.337649
-0.206253,0.226582,0.547654,0.867656,-0.496302,-0.029286
0.320761,0.712816,0.530375,0.777656,-0.499142,-0.382243
0.099896,0.967259,0.217080,0.907236,0.374110,0.192260
0.489065,0.591394,0.578993,0.544425,0.797020,0.261459
0.629172,-0.258348,0.465181,0.995510,0.010338,0.094093
0.643786,-0.152644,0.658722,0.822687,-0.459506,-0.334725
-0.643786,-0.469860,0.043879,-0.392984,0.240897,0.887430
0.109748,0.164356,0.532869,0.622718,-0.276751,-0.731868
-0.443087,0.027537,0.754802,-0.021020,0.971718,0.235205
-0.056179,0.378796,-0.363931,0.408583,0.904922,0.119068
0.019477,0.175413,0.047348,-0.192916,-0.511042,0.837627
0.732017,0.369473,0.271140,0.739201,-0.562739,0.370011
0.124134,-0.188856,0.628359,-0.454740,0.889857,-0.036949
0.317816,0.572205,0.589696,0.956647,0.289016,-0.035999
-0.251561,0.470945,0.855416,-0.038716,-0.576447,0.816217
-0.643565,0.180942,0.710810,0.008096,0.567519,0.823321
0.595871,-0.449588,0.239733,0.841068,0.539963,-0.032314
-0.032737,0.045207,0.844622,0.954162,-0.022586,0.298437
-0.231963,0.276561,0.221842,0.644282,0.735888,-0.208254
-0.683204,0.381288,-0.983288,0.070691,-0.248424,-0.966068
0.348171,0.375002,-0.366199,0.478863,0.829708,0.286836
-0.482505,-0.358737,0.735255,0.974897,0.136106,-0.176215
-0.072376,0.393430,0.628427,0.273177,-0.808529,0.521206
0.102047,0.177365,0.672192,0.954947,-0.283399,0.088103
-0.526901,-0.122180,-0.973628,0.031822,-0.074057,-0.996746
0.395401,-0.624132,-0.573664,-0.037842,0.968278,0.246993
-0.221545,0.178447,0.863330,0.958581,0.158994,0.236311
0.404235,0.597898,0.635275,-0.720892,0.693044,0.002035
-0.296524,-0.371965,0.492505,0.702849,0.650660,-0.287479
0.243625,0.104618,0.642350,0.921960,-0.222204,0.317198
0.556688,0.355379,-0.174335,-0.828013,0.076334,-0.555489
0.727599,0.407743,-0.162997,0.901899,-0.183427,-0.391067
0.539696,-0.401344,0.229710,0.554930,0.368758,-0.745701
0.366857,-0.910449,-0.955214,0.000744,0.010625,0.999943
-0.641753,0.242086,-0.982789,0.034138,-0.108151,0.993548
0.873029,0.527970,-0.986258,-0.204190,-0.134440,-0.969656
-0.267869,0.194927,0.805665,-0.308515,0.828767,-0.466866
0.468001,0.306701,0.448309,0.077995,0.431624,0.898675
-0.421795,-0.075996,0.809678,0.423363,-0.892194,-0.157332
0.031029,0.180399,0.750176,-0.661121,-0.177546,0.728970
-0.232869,0.218996,0.864850,-0.701936,-0.326621,-0.632934
0.172048,-0.340309,-0.058845,0.171145,0.381756,0.908280
0.496884,0.619688,-0.990431,-0.356157,0.271440,0.894132
-0.505608,-0.120446,0.789428,-0.382210,0.574342,-0.723911
0.374786,-0.794450,-0.953627,0.148218,0.035113,0.988331
-0.235585,0.044992,0.671829,-0.160949,0.682101,0.713325
0.283154,0.252819,0.644482,0.670288,0.478200,0.567484
-0.546499,0.134649,0.739405,0.396428,0.743279,0.538871
0.100007,-0.321553,0.677158,-0.450042,0.485471,0.749520
-0.609241,-0.249567,-0.969523,-0.047130,0.177273,0.983033
-0.065691,0.083371,0.799882,-0.310480,0.796858,-0.518285
-0.272397,-0.544665,0.578403,0.575023,0.745872,0.336190
-0.546271,-0.004338,0.793964,0.666518,0.667326,-0.332308
-0.170465,0.877493,-0.998345,-0.077698,0.122681,0.989400
0.353266,0.148092,0.339395,0.595190,0.701405,-0.392148
-0.043155,0.537293,0.764348,0.984018,-0.172970,0.042297
-0.515805,-0.449155,0.048663,-0.393991,0.291001,0.871831
1.000000,0.479835,0.346516,-0.364356,0.929034,0.064345
-0.331407,-0.075563,0.890723,0.073233,0.955127,0.287001
0.524405,0.637144,0.564775,0.704156,-0.564804,0.430302
0.692944,0.609065,-0.987777,-0.031626,0.141887,0.989378
0.589871,0.648525,-0.991360,0.059924,0.243375,0.968079
-0.213844,-0.115242,0.711422,0.138578,0.562907,0.814820
-0.191301,0.527212,0.699404,-0.069463,-0.844806,0.530545
0.706874,-0.004662,0.506202,0.926205,-0.375987,-0.027901
0.378298,-0.210864,0.301345,-0.548592,-0.835131,-0.040037
-0.372526,-0.793255,0.315041,-0.273360,-0.948707,-0.158839
-0.358029,0.649934,0.767977,-0.082519,-0.984232,-0.156455
-0.105676,0.559844,0.679539,0.944726,-0.297475,-0.137847
-0.698039,0.018432,0.587904,0.681795,-0.555547,0.475945
-0.313288,0.596380,0.758906,-0.401130,-0.909585,0.108399
-0.865107,-0.113184,0.142293,0.871621,-0.432914,-0.229918
0.240113,0.512142,0.383932,0.889919,0.456037,-0.008608
-0.288823,0.057025,-0.975714,0.020334,0.014782,0.999684
-0.396306,0.051497,0.871267,-0.648300,0.289240,-0.704306
0.031147,0.312663,0.733010,0.945531,0.307778,0.106038
-0.066037,0.151238,0.824917,0.887594,0.436206,-0.147990
0.482498,-0.676386,0.271140,0.969899,-0.065913,0.234416
0.499373,-0.290437,0.350756,0.986182,0.083864,-0.142873
0.142598,-0.125541,0.632509,-0.559354,-0.548253,0.621724
0.160835,-0.136165,0.600807,0.906853,0.421211,0.014108
-0.676865,0.492195,0.565840,-0.801932,-0.491061,0.340241
0.594516,-0.023199,0.318669,-0.320919,0.946175,0.041992
-0.412055,-0.430072,0.749042,0.548441,0.448819,-0.705531
0.049383,0.495123,-0.910746,0.964425,0.250905,-0.083253
0.419866,-0.347680,0.636318,-0.252250,-0.743485,0.619355
0.107936,0.205878,0.643371,0.892771,-0.204223,0.401564
-0.308871,0.160886,0.198508,0.367080,-0.888082,-0.276698
-0.073966,-0.094643,0.812445,-0.201387,-0.371030,0.906521
0.597572,-0.129227,0.424409,-0.675654,-0.652869,0.342424
-0.306375,0.419666,0.745391,0.718688,0.459557,0.521819
0.035674,-0.690589,-0.234382,-0.626990,0.767530,0.133347
0.305241,-0.192432,0.646591,0.996237,-0.081704,-0.028911
0.303540,-0.758457,-0.113109,0.840038,-0.480279,0.252326
-0.442520,0.007371,0.787524,-0.442520,-0.454350,-0.773138
-0.412842,0.347680,0.273725,-0.438671,-0.897002,-0.054368
-0.321100,0.439613,-0.993991,-0.017837,0.117631,0.992897
-0.732812,0.184518,-0.984263,0.058281,-0.002651,-0.998297
-0.294823,0.117521,0.884170,0.380000,0.188954,0.905481
0.217349,0.435604,-0.981746,-0.111865,0.041609,0.992852
-0.819231,-0.073829,0.349305,0.922606,0.276375,0.269100
-0.682527,-0.200998,0.436042,-0.578816,-0.197007,0.791303
-0.509798,-0.009757,0.496678,0.733762,-0.647050,-0.207169
-0.340131,-0.202298,0.760924,0.996432,-0.065066,0.053755
-0.284067,-0.098871,0.734756,0.697877,0.705087,0.125780
0.036131,-0.916629,0.414590,0.693049,0.623698,-0.361503
-0.581154,0.016694,0.803782,-0.365976,-0.924975,-0.102390
0.209537,-0.002492,0.168847,0.672828,-0.716717,-0.183355
-0.542420,-0.247072,0.430259,-0.703375,0.410649,-0.580200
-0.422700,-0.079791,0.795120,0.833138,-0.505409,0.224596
-0.015067,0.008781,0.035216,-0.247185,-0.297662,0.922115
0.255972,0.096922,-0.343863,0.626074,0.382022,0.679772
0.475930,-0.119146,-0.966983,-0.042313,-0.061213,0.997227
-0.642542,-0.257914,0.790335,0.975564,-0.219705,0.002236
-0.572658,-0.679099,-0.181319,-0.347896,-0.936925,0.033766
-0.330052,-0.775042,-0.959273,0.123257,0.262919,0.956913
-0.150300,-0.183976,0.723690,0.744971,0.652936,0.136726
-0.416354,-0.528622,0.458174,0.894537,0.160663,-0.417123
-0.800317,-0.473873,0.411846,-0.709518,0.617769,0.339037
0.303091,-0.303664,0.642668,-0.105591,0.820794,0.561381
-0.116212,0.183003,0.508968,0.548765,0.835889,-0.012084
0.328462,-0.648201,0.533323,0.941403,0.336403,0.024372
0.349754,0.356788,-0.173179,-0.740974,0.122433,0.660278
0.284965,0.620012,-0.984762,0.189515,0.119169,0.974619
0.147354,0.624568,0.258441,0.685492,0.716123,-0.131411
0.711630,0.476476,0.156648,-0.346707,0.507829,-0.788609
0.120172,0.241437,0.744824,0.561236,-0.819638,-0.114923
0.623171,0.607870,-0.989614,0.156344,0.158023,0.974980
-0.301508,0.320253,0.941563,-0.601334,-0.736884,-0.308868
0.063990,-0.503252,0.557995,0.954305,0.085868,-0.286231
0.192883,-0.199370,0.612939,0.736549,-0.429564,-0.522465
-0.082911,-0.208803,0.702057,0.752515,-0.545586,-0.368859
-0.089818,-0.795317,-0.963196,0.099667,-0.083175,-0.991538
0.027407,0.490568,0.653847,0.219142,-0.831034,0.511233
-0.707330,0.094213,0.621805,-0.188847,-0.964052,-0.186925
0.518287,0.215635,0.603619,0.801152,0.451750,0.392527
0.649337,0.016804,0.207919,0.945936,0.235872,-0.222642
-0.461324,-0.024284,0.873897,0.242741,-0.426125,0.871490
-0.127763,-0.779161,0.393025,0.908895,0.382809,-0.165431
-0.620454,-0.180290,-0.974807,0.056220,0.117043,0.991534
0.711741,0.255747,0.273589,0.852873,-0.424770,0.303609
0.100007,0.520165,0.773895,-0.623037,-0.642864,-0.445590
0.045532,-0.575781,0.549196,0.993792,-0.111167,0.004443
0.297540,-0.133240,-0.122815,0.275925,0.935367,0.221256
-0.741764,0.534584,0.649312,0.520303,0.822862,-0.228437
0.571862,0.818410,0.541464,0.536431,0.792046,-0.291385
0.316343,0.580443,0.559831,0.715958,0.670292,0.195225
0.119267,0.132697,0.045761,-0.330647,-0.317720,0.888665
-0.150189,-0.705441,0.416585,0.924811,0.169004,-0.340826
-0.161630,-0.184627,0.720016,0.757030,0.643647,0.112357
-0.790128,-0.344100,-0.969478,-0.039359,0.077610,0.996207
0.300374,-0.486882,0.261434,0.283503,-0.938733,0.195975
-0.086872,0.967477,-0.995941,-0.043275,0.170242,0.984452
-0.491112,-0.510948,0.407379,0.556218,0.292128,-0.777999
0.028651,0.599199,0.098914,0.867440,-0.455081,-0.201119
0.224144,0.638226,0.192907,0.076001,0.997031,-0.012404
-0.619888,-0.551279,0.343273,-0.421541,-0.700614,-0.575711
0.032163,-0.087490,0.769519,-0.352092,0.289098,-0.890198
-0.701779,0.511385,0.674392,0.236326,0.913056,0.332382
-0.281461,0.452950,0.090660,0.020294,-0.890384,0.454758
-0.381699,0.341609,0.783034,-0.681237,-0.255292,-0.686107
-0.527128,-0.080549,0.802127,0.987743,0.129250,0.087509
0.128323,-0.402754,-0.962516,-0.006453,0.179562,0.983725
-0.844831,-0.011815,-0.489988,-0.507265,0.830080,-0.231624
-0.089707,-0.229616,0.867571,0.243733,-0.924276,-0.293782
0.650243,-0.615351,0.204018,0.998081,-0.057786,0.022268
-0.029107,0.437231,0.754892,-0.711344,-0.061998,-0.700104
-0.087668,-0.230050,0.638314,-0.224584,-0.877724,0.423275
-0.723528,-0.214331,0.614685,-0.283245,-0.503653,0.816153
0.363345,-0.058002,0.053675,-0.277872,0.697174,-0.660860
-0.407976,-0.104942,0.692034,0.354789,0.926321,-0.126704
0.647636,0.534260,0.490737,-0.581994,-0.769359,-0.263380
0.635517,0.389963,0.290642,-0.333133,-0.925808,0.178613
-0.774269,-0.367303,0.407492,-0.208995,-0.255140,0.944047
0.372636,0.087165,0.621329,0.154517,-0.492229,0.856642
0.119149,-0.532850,0.526747,-0.330035,-0.867660,-0.371812
0.081660,-0.893645,-0.076419,-0.320772,0.913787,-0.249196
-0.048934,-0.844752,0.456292,-0.723367,-0.689341,0.039369
-0.114850,0.153514,0.480759,0.539751,0.816881,-0.203407
-0.391550,0.134325,0.870405,0.016580,-0.465686,0.884795
-0.123574,-0.565264,-0.961473,0.024797,0.050638,0.998409
-0.898973,-0.011924,0.595320,0.455859,-0.889520,0.030780
0.705968,0.297159,0.111023,0.939137,-0.134004,-0.316330
-0.867485,0.444493,0.668564,0.845571,-0.380421,-0.374553
-0.596674,0.120012,-0.978458,-0.006622,0.099965,0.994969
-0.659534,0.208369,0.665231,0.859681,-0.488653,0.148889
0.528372,-0.115566,0.565410,0.977927,0.141036,0.154170
0.186088,0.190917,-0.973832,-0.079787,-0.014033,-0.996713
-0.132409,0.003471,-0.972811,-0.117112,0.120749,0.985751
-0.385439,0.367412,0.792172,-0.721657,0.003706,-0.692241
-0.736780,-0.485363,0.036101,-0.401103,-0.172996,0.899549
0.145204,-0.473006,-0.020681,-0.754160,0.390047,-0.528305
0.529728,0.015722,0.054242,-0.113987,-0.982097,0.149973
-0.308193,0.145273,0.770516,0.927460,0.077791,-0.365741
-0.162764,0.016155,0.836890,-0.327070,-0.678212,-0.658069
-0.585571,0.003685,0.188031,-0.523084,0.548657,0.652195
-0.127991,0.045644,0.789043,0.466504,0.864703,-0.186178
-0.577531,0.385844,0.865371,0.991599,0.000828,0.129349
-0.029335,-0.645925,0.606363,0.751722,0.474877,0.457609
0.564611,-0.052906,0.023946,-0.207752,-0.257872,0.943579
-0.415566,0.702192,0.750607,-0.104219,0.992651,-0.061495
-0.531774,0.576866,-0.991973,-0.025667,0.079621,0.996495
0.308642,0.114484,0.608472,-0.781654,0.612603,0.117192
0.528822,0.228968,0.225651,0.855500,0.372858,-0.359302
0.491789,0.227558,-0.216263,0.741166,0.645231,-0.185337
0.311131,0.699588,-0.991292,0.128871,0.074246,0.988878
-0.191529,0.348765,0.848704,0.364376,-0.930966,-0.023064
-0.071581,0.244580,0.888524,0.759123,-0.649489,-0.043542
-0.443315,-0.197418,-0.970385,-0.039900,0.136469,0.989841
-0.305248,0.196660,0.928842,0.009568,-0.997856,0.064752
0.521916,-0.675086,0.284542,0.975775,-0.000681,0.218773
0.634273,0.441023,0.159459,0.132511,-0.705832,0.695875
0.785475,0.449373,-0.983038,0.046934,0.075795,0.996018
0.393472,-0.315806,0.660355,-0.408808,0.845927,-0.342466
0.392794,0.657743,0.466269,-0.502708,0.593108,0.628894
-0.256090,0.005856,0.826980,-0.550011,0.437411,0.711449
0.604824,-0.139093,0.477947,0.920929,0.333591,-0.201513
0.112354,-0.699913,0.611193,-0.507212,0.847493,-0.156496
-0.027635,0.735800,-0.987528,0.051531,0.190658,0.980303
0.229239,-0.083695,0.563845,0.982377,0.015898,0.186232
-0.865217,0.126411,-0.984149,0.215552,-0.090713,-0.972270
-0.457584,0.053230,0.932402,0.686510,0.515455,-0.512844
-0.878580,0.293692,0.282773,-0.377747,0.380744,0.844003
0.010193,-0.825563,-0.964262,-0.090373,0.105979,0.990253
-0.543893,-0.656115,0.397152,-0.343054,0.786605,0.513388
0.461088,0.626302,0.499875,-0.641201,-0.653021,0.403020
0.480797,-0.310278,-0.963333,-0.135857,0.228774,0.963953
0.225845,-0.436904,0.670333,0.859454,-0.333734,-0.387246
0.475246,-0.258672,-0.050840,-0.462837,-0.087740,-0.882091
0.333446,-0.337814,0.308692,0.933847,0.253795,0.252026
0.753426,0.400805,-0.982675,0.150343,-0.089925,-0.984536
0.339447,-0.417496,0.596385,0.934862,-0.154540,0.319609
0.153472,0.076433,-0.163768,-0.137133,0.990529,0.006844
-0.240459,0.241329,0.768952,0.905649,-0.424025,0.001595
0.047683,-0.246639,0.365360,0.198811,0.950722,0.237913
-0.900218,-0.037618,0.416585,0.041321,0.812588,0.581372
0.578430,0.683870,-0.989183,-0.130037,-0.096745,-0.986778
-0.676519,-0.336838,-0.969636,-0.028171,0.097865,0.994801
0.130362,-0.430509,-0.049638,-0.692397,0.201614,-0.692776
-0.211127,0.133997,-0.142339,-0.084045,-0.453642,0.887212
-0.509687,-0.396249,0.607656,0.688420,-0.566296,0.453196
-0.346699,-0.116002,0.201887,-0.492664,-0.219376,-0.842114
0.388716,-0.357218,-0.059775,-0.174870,0.743134,0.645889
-0.914714,-0.333043,0.190821,-0.090645,-0.974987,0.202938
0.849020,0.582610,-0.987800,0.130711,0.172147,0.976361
0.477403,0.026994,-0.224971,-0.473353,0.503098,0.723069
-0.047344,-0.063854,0.313749,0.670872,0.257680,0.695365
0.214065,0.189507,0.469602,0.938412,-0.009305,-0.345394
0.366062,0.825781,0.548017,-0.188125,-0.797018,-0.573909
0.032163,-0.784584,0.632373,-0.424248,-0.885027,0.191680
-0.406275,0.032632,0.876482,0.770388,-0.635195,0.055038
0.324155,0.684518,0.579650,0.855705,-0.107043,0.506271
-0.154040,0.428014,0.744348,0.490661,0.869751,0.052773
-0.596335,0.538488,-0.991474,0.034113,0.195663,0.980078
0.174080,-0.387574,0.551804,0.501925,-0.864238,-0.034122
-0.130597,0.476692,0.789678,-0.569251,0.808162,0.151087
-0.244538,0.046293,0.506338,-0.527679,0.605166,-0.596095
0.141803,0.481463,0.456904,0.649111,0.345227,0.677845
-0.738024,0.315048,0.634096,-0.638042,0.042521,-0.768827
-0.766679,0.166848,0.711717,0.495358,0.834689,0.240655
0.763277,0.432570,-0.198259,-0.114199,-0.993369,0.013270
0.134102,-0.302688,0.611828,0.713710,0.554710,-0.427685
0.282587,0.536645,0.527858,-0.393402,0.883228,0.255231
0.425300,0.494690,0.576272,-0.135624,-0.990749,-0.004671
-0.757049,0.269732,-0.317853,0.804199,-0.576186,0.145855
-0.220522,0.405572,0.769065,0.699859,-0.706009,0.108390
-0.555444,-0.497939,0.636885,-0.208309,-0.623572,-0.753502
0.033635,0.495338,0.653892,0.219142,-0.831034,0.511233
0.223467,-0.044450,0.090161,-0.410705,0.897311,0.161722
-0.265602,-0.132588,0.738475,0.071040,-0.987401,-0.141392
-0.325517,0.613726,-0.992222,0.095109,-0.184905,-0.978143
-0.335486,0.159691,0.875848,-0.561585,0.809067,0.173301
-0.012005,0.679641,0.608948,0.950513,0.177017,0.255325
0.133197,0.476149,0.657997,0.341956,0.737829,-0.581957
-0.160607,0.182351,0.442504,-0.062816,-0.992023,0.109292
0.632683,-0.355594,0.440781,0.969100,-0.108155,-0.221692
-0.028430,-0.781222,0.467720,0.641129,0.764285,0.069437
0.257783,-0.170533,-0.548017,-0.700754,-0.141677,-0.699194
-0.282594,0.608741,0.574503,0.810094,-0.533873,0.242339
-0.781632,0.444927,-0.144017,-0.424825,0.902371,0.072458
-0.014161,0.131940,0.714438,0.872303,0.482918,-0.076669
-0.718654,0.243386,0.742557,-0.551037,0.416891,0.722884
-0.207615,0.688422,0.655797,-0.346199,-0.319330,-0.882142
0.558610,0.730705,0.513005,-0.490730,0.511483,0.705386
0.227428,0.050306,0.633574,0.846108,-0.399297,-0.353076
-0.577414,-0.110365,0.846210,-0.592284,-0.777408,-0.211747
0.181221,0.233739,0.578857,-0.423587,0.624142,0.656522
-0.559406,-0.558001,-0.963128,-0.014455,0.172760,0.984858
-0.361652,-0.089872,-0.972652,-0.021836,0.227799,0.973463
-0.805869,-0.031980,-0.009411,-0.348181,0.794325,-0.497813
0.481025,0.422810,-0.986372,-0.086631,-0.006991,0.996216
0.572878,0.473225,-0.983514,-0.180354,0.049584,-0.982351
0.277381,-0.672919,0.537450,-0.057923,-0.246461,0.967420
0.474797,-0.410886,-0.953310,-0.068475,0.078214,0.994582
0.131046,-0.100933,-0.972108,0.055973,0.213378,0.975365
-0.726244,-0.590848,-0.173972,0.420792,0.836708,-0.350504
0.316793,0.605161,0.390032,0.947917,0.297394,-0.114061
0.773246,0.678341,0.434160,-0.512294,-0.595792,-0.618536
0.228679,-0.351041,0.647067,-0.696101,-0.673799,-0.247868
0.057990,-0.003577,0.761423,0.611965,-0.660409,-0.435153
-0.054257,-0.103751,0.823851,-0.058128,-0.952121,0.300145
-0.487600,-0.078706,-0.976213,-0.001401,0.100017,0.994985
0.722276,0.554425,0.164766,-0.553841,-0.709815,0.435228
0.582509,-0.596052,0.463729,0.769189,0.448849,0.454844
-0.065242,0.187880,0.052972,0.386868,0.903985,0.182054
-0.274893,-0.090957,0.378988,0.919303,-0.309839,0.242657
0.345108,0.611993,0.422028,0.864776,0.376356,-0.332444
0.286216,0.171294,0.644572,0.930378,0.151203,0.333968
0.021178,0.437446,0.746207,0.633195,-0.292907,0.716428
0.680708,0.687013,0.400054,0.539858,0.136849,-0.830557
-0.495412,-0.539570,0.665775,-0.698727,0.651144,-0.296296
-0.567791,-0.312335,-0.966961,-0.029924,0.027108,0.999185
0.729072,0.463898,0.269099,0.188112,0.701143,0.687759
0.272169,0.554858,0.593165,0.979365,-0.165234,-0.116367
0.295162,0.278622,0.558267,0.105632,0.923734,0.368180
-0.413638,0.060929,0.468627,-0.256616,0.545001,0.798199
0.644352,0.630312,0.396154,-0.322015,0.494105,0.807569
0.206813,-0.202946,-0.002177,-0.373733,0.795544,-0.476899
-0.478765,0.329143,-0.988367,0.090415,-0.064514,-0.993812
0.204214,0.552906,0.610263,-0.434863,0.884756,0.167630
-0.897383,-0.346052,0.187079,0.100877,0.983088,-0.152848
-0.044399,0.547702,0.501077,-0.561876,-0.477099,0.675775
-0.503341,0.590091,0.135332,0.765581,0.579232,-0.279958
-0.356439,0.112098,0.846595,-0.643516,0.448310,0.620407
0.476380,-0.106894,0.633824,0.130919,0.084681,0.987770
-0.442631,0.487209,0.653802,0.968004,-0.127524,0.216115
0.198774,0.266371,-0.976530,0.062869,0.140582,0.988071
0.125606,0.271250,-0.929341,0.688025,0.667351,0.285070
-0.215199,0.635844,0.741332,-0.115226,-0.983629,-0.138557
-0.735308,-0.638550,0.408966,-0.421851,-0.879253,0.221259
-0.369692,0.059195,0.891585,-0.444473,0.731272,-0.517382
0.150866,0.848441,-0.991224,-0.014477,0.107370,0.994114
-0.300941,0.527970,0.118506,0.327469,-0.449948,0.830849
0.472986,0.159152,-0.979591,0.050819,0.150850,0.987249
0.142819,0.262469,0.740720,-0.507771,0.839100,0.195142
0.479553,0.686579,0.358262,-0.298433,0.936044,-0.186441
-0.206710,0.083804,0.667294,0.911654,-0.332790,-0.241119
-0.447048,-0.227558,0.645230,-0.472530,0.773277,-0.422798
0.245664,0.095622,0.610966,-0.345970,-0.935662,0.069572
-0.335375,-0.451213,0.665865,-0.734506,-0.524376,-0.430733
-0.220411,0.121207,0.409397,-0.156755,0.986696,0.043121
0.142032,-0.163486,-0.055965,-0.351313,0.408451,0.842465
-0.081100,0.399829,0.657589,0.604771,-0.758540,0.242629
-0.016989,0.438532,0.744303,0.843810,-0.111305,0.524972
-0.699512,0.458478,-0.212930,-0.407584,0.776817,-0.480032
-0.801790,0.496966,0.176376,-0.480435,0.858853,0.177636
0.609469,-0.283932,0.443661,0.979564,0.200263,-0.018690
-0.529396,-0.221054,0.445588,0.024591,0.506645,0.861804
-0.170686,0.146467,0.600308,0.885174,-0.402311,-0.233696
0.028651,0.981244,-0.997415,0.022132,0.162312,0.986491
-0.152339,-0.354618,0.726094,-0.435396,0.867291,0.241322
-0.291878,0.571444,0.743758,-0.464192,-0.867460,0.178994
0.018122,0.534475,0.483458,0.834931,-0.418896,-0.356955
-0.959794,-0.244577,0.449217,0.405173,0.251293,-0.879026
-0.153473,0.181918,0.351890,-0.475509,0.879708,-0.001977
-0.201041,0.017671,0.832060,0.985251,0.167325,0.035824
0.011548,0.366327,0.718973,-0.134430,0.054615,0.989417
-0.519877,0.198179,0.482596,0.996291,-0.068036,-0.052690
0.437190,0.494905,0.589628,0.785058,-0.525935,-0.327224
-0.307848,0.096056,0.760698,0.982456,0.060419,-0.176437
-0.480687,0.533393,0.671965,0.864607,-0.138526,0.482975
0.445237,0.789355,0.523617,0.681829,0.654095,-0.327521
-0.400952,-0.301497,0.574752,0.992740,0.119067,0.017011
-0.204553,0.121531,0.705413,0.756145,-0.566389,-0.327794
0.008831,0.792173,0.539740,-0.378888,0.920817,-0.092413
-0.642092,-0.616108,-0.161387,0.420792,0.836708,-0.350504
0.290972,0.553882,-0.433456,0.475269,0.847165,-0.237552
0.012571,-0.583043,0.596408,-0.517567,0.330268,-0.789334
-0.620454,-0.008999,0.832332,-0.318101,0.281782,0.905213
0.545476,-0.033823,0.371845,0.712436,0.405184,0.572941
0.824893,0.637144,-0.989592,0.033084,0.184182,0.982335
-0.536413,-0.201104,0.625071,0.270743,-0.912696,-0.306080
