0.053298,0.153758,0.727089,0.793284,0.552880,0.254999
-0.135037,-0.596132,0.735369,0.490720,-0.827123,0.273974
0.492972,-0.505280,0.184838,0.129810,-0.635320,0.761261
0.388551,-0.192796,0.682639,-0.187256,0.949968,0.249992
-0.458773,-0.604826,0.671048,0.390336,-0.775964,0.495497
-0.577239,0.517699,0.610427,-0.064141,-0.954437,0.291439
0.129993,-0.113477,0.638085,0.327519,0.401888,0.855113
-0.398991,-0.555320,-0.167141,-0.639509,0.738456,-0.213800
0.325714,0.768255,0.712885,0.840741,-0.523685,-0.137511
0.495852,0.522314,0.665511,-0.483580,0.365457,-0.795356
-0.216424,0.258984,0.620155,-0.647452,-0.465893,-0.603117
0.242701,0.303521,-0.928642,0.731483,0.475699,0.488512
0.221458,0.087039,0.729728,0.178609,-0.883092,0.433875
-0.001626,-0.561886,-0.403777,0.787556,0.565833,0.244107
0.583184,0.279213,0.713195,-0.620730,0.776790,0.106262
-0.300504,-0.418864,0.737464,0.014555,-0.736141,0.676672
0.051672,0.387634,0.778525,0.964108,0.262204,-0.041761
0.393046,-0.008429,0.727400,0.576989,-0.758830,-0.302094
-0.286097,-0.850946,0.672186,-0.497336,-0.675413,-0.544494
0.180413,-0.149498,0.825304,0.321120,-0.928777,-0.185084
-0.229568,-0.013752,0.696818,-0.557958,-0.799866,-0.221126
0.049332,0.183923,0.618448,0.064262,0.983042,0.171753
0.316165,-0.311152,0.816326,0.320548,0.446033,0.835645
0.178424,0.793452,0.600543,0.779259,0.568941,-0.262794
-0.235865,0.567563,-0.921449,-0.084046,-0.609633,-0.788215
-0.390892,-0.413007,0.783907,0.825392,-0.544080,0.150684
-0.348220,-0.499423,0.424140,0.344018,-0.938841,-0.015116
0.191391,-0.473338,0.842199,0.864126,-0.177881,0.470792
0.966329,0.138852,0.700880,0.970613,0.217633,-0.102694
-0.054551,-0.097328,0.939069,-0.281108,-0.093058,-0.955154
-0.618471,-0.644574,0.374127,-0.560468,-0.067054,-0.825457
0.421673,0.665869,0.729780,-0.216027,0.934462,0.283044
-0.271339,-0.119333,0.822329,0.202110,0.844080,-0.496670
-0.514764,-0.764350,0.375239,0.729772,-0.682423,0.041615
0.012781,0.118445,0.928538,0.979389,-0.201558,0.013111
-0.749552,-0.554965,0.772057,0.869051,-0.321108,0.376351
-0.032045,-0.414425,0.820621,0.195874,0.876375,-0.440001
-0.080486,0.059356,-0.888124,-0.077934,-0.158500,0.984278
0.345879,-0.758851,0.767219,0.224378,0.851833,0.473323
-0.207600,-0.562240,0.633532,0.455090,0.800567,0.389853
0.075805,0.191732,-0.901371,0.695300,-0.199113,0.690588
-0.782323,-0.280453,0.637982,0.080109,-0.281451,0.956226
-0.173753,-0.707745,0.424398,0.459382,-0.464473,-0.757122
0.015847,0.332977,0.642147,-0.648895,0.759918,0.038215
0.210480,-0.784934,0.547995,0.641743,0.627290,0.441218
-0.659890,0.716263,0.668693,0.000605,-0.882707,0.469923
0.135938,-0.585485,0.701035,0.962863,0.258917,0.076534
0.273130,-0.801615,-0.080026,-0.357835,-0.170302,0.918124
0.520886,-0.811374,0.684476,-0.152080,-0.879686,0.450582
-0.532050,0.245142,0.451953,0.530616,0.788002,0.312249
0.388551,-0.571998,0.649366,-0.133770,0.964255,0.228731
0.155203,-0.092005,0.851850,-0.045571,-0.356970,0.933004
-0.175369,-0.839766,0.439069,0.810053,-0.424398,-0.404600
-0.157368,-0.114895,0.622096,-0.115026,0.979309,0.166503
-0.088585,-0.322331,0.838137,0.332309,-0.481553,-0.810973
-0.108927,-0.236091,0.852885,0.232930,0.560031,0.795053
0.154841,-0.066453,0.691902,0.859616,0.291095,0.419910
-0.671945,-0.880223,0.379431,0.631054,-0.687171,0.359953
0.396826,0.046579,0.719120,0.328046,0.234097,-0.915196
0.238920,-0.016589,-0.351591,-0.599022,0.746824,0.288837
-0.374682,-0.834973,0.732755,0.295315,0.407187,-0.864285
-0.624416,0.530122,0.636714,0.244721,0.663972,-0.706579
0.425992,0.218172,0.678344,-0.239481,-0.861566,0.447608
-0.113069,-0.414780,0.870634,0.293070,0.935821,0.195831
-0.235327,-0.436076,0.650944,0.997682,0.041988,-0.053549
-0.414113,-0.398990,0.800802,0.022054,0.268269,-0.963092
0.046452,0.094315,-0.212109,0.170497,-0.950079,0.261304
-0.394672,-0.321977,0.619198,-0.491211,0.414373,0.766164
-0.128202,-0.534736,0.712911,0.271864,-0.960445,-0.060296
-0.057793,-0.159081,0.968590,0.443227,-0.869032,0.219849
-0.009901,0.662143,0.668098,0.843588,-0.470017,0.259699
-0.474071,0.795759,0.897853,0.652828,0.654109,-0.382043
0.232623,-0.504747,0.705977,-0.736759,-0.570817,-0.362428
0.005583,0.175050,0.817309,0.830414,-0.345718,0.436910
0.342451,-0.103894,-0.966856,-0.459638,0.259048,-0.849487
-0.023407,0.336527,-0.895628,-0.296976,0.541167,0.786730
0.484873,-0.341141,0.358965,0.575142,0.632032,-0.519373
-0.202556,0.006300,0.685821,0.822507,-0.159822,-0.545837
-0.144038,0.069114,0.612704,0.435706,0.190564,0.879685
0.379727,-0.867449,-0.166028,0.815427,0.426514,0.391362
0.347671,-0.028124,0.717154,-0.595266,0.350332,0.723136
0.026287,0.176117,0.929133,0.969003,-0.210503,0.129310
-0.354704,-0.079585,-0.890504,0.420975,0.241011,0.874468
-0.175192,0.812261,0.682691,0.036150,-0.127644,0.991161
0.129455,-0.214444,0.701164,0.776857,-0.557410,0.292894
-0.120631,-0.800906,0.441113,-0.795450,0.401359,-0.454060
0.591107,-0.427558,0.239224,-0.082910,-0.996521,0.008424
-0.824994,-0.455595,0.619715,-0.219279,-0.076196,0.972682
-0.472268,-0.048352,0.730298,0.248936,-0.790409,0.559719
0.128554,-0.654511,-0.099301,-0.101523,-0.213817,0.971584
-0.517830,0.039128,0.852342,-0.591804,-0.756188,-0.279191
0.094168,0.369709,0.798473,0.750156,0.315305,-0.581247
-0.332198,0.787243,0.793480,0.495450,-0.868178,-0.028209
0.050057,0.949072,0.473428,0.748219,0.660745,0.059864
-0.696078,0.339368,0.603493,0.778957,-0.075986,0.622457
-0.466147,0.273534,0.120699,-0.264481,-0.024208,-0.964087
-0.182577,-0.296601,0.703131,0.535314,-0.211459,-0.817756
0.438597,-0.249223,0.825149,0.649201,0.145248,-0.746619
0.497478,0.338658,0.643053,-0.233106,0.937603,-0.257997
-0.503060,-0.303345,0.854256,-0.724431,-0.411780,-0.552845
-0.179335,0.347883,0.496455,0.944716,0.195791,0.263016
-0.028989,0.007186,0.733583,-0.502930,0.753250,-0.423882
-0.078860,-0.085439,0.924373,0.732676,-0.640043,-0.231368
-0.911590,0.459499,0.370401,0.910047,-0.119477,0.396912
-0.130718,0.167599,-0.263001,0.914369,0.096188,-0.393290
-0.010440,-0.195103,0.883752,-0.443083,0.825099,-0.350555
-0.627658,0.590099,0.640828,0.028477,-0.152399,0.987909
0.052749,-0.447786,-0.969107,0.777033,0.082174,0.624073
0.103707,-0.134769,0.884787,0.994197,-0.103716,0.028538
0.389804,0.548753,0.726572,0.164095,0.798827,-0.578748
-0.571843,-0.406796,0.627322,-0.337024,0.807273,0.484485
-0.617570,-0.605181,0.204631,-0.579215,0.245831,-0.777224
-0.054914,-0.000265,0.882018,0.011349,-0.999932,-0.002564
-0.173929,-0.301039,0.895446,-0.671406,0.285787,-0.683769
0.661142,-0.496407,0.170634,0.270888,0.709931,-0.650090
0.085706,0.169905,0.620906,-0.154627,0.846116,0.510077
-0.693913,-0.612810,0.644347,0.415461,0.618248,0.667204
-0.019990,0.772868,0.135705,0.391975,-0.300053,0.869669
0.684550,0.632153,0.744528,-0.449915,-0.887090,-0.103186
0.611449,0.221188,0.454774,-0.263574,0.481166,-0.836067
-0.161686,-0.007895,0.652471,0.015267,0.965887,0.258514
-0.107311,-0.738620,0.710737,-0.647185,0.712254,0.271746
-0.008648,0.535269,0.285563,-0.561310,0.485559,-0.670196
-0.389815,-0.222783,-0.071100,-0.280338,0.897414,-0.340674
-0.054738,0.581226,0.123441,-0.326197,0.422727,-0.845516
0.051672,0.557981,0.573713,0.974558,-0.118389,-0.190319
0.707771,0.203797,0.691255,-0.068488,0.992354,0.102676
-0.794378,-0.208057,0.475291,-0.392298,0.540260,-0.744460
-0.594525,0.372016,0.316792,0.589920,0.582675,-0.559004
-0.194270,0.058468,0.831229,-0.514529,0.365667,-0.775595
0.307878,0.209830,0.441371,0.499291,-0.865916,0.029948
0.440399,-0.172922,0.825873,0.900315,-0.112729,-0.420388
0.485236,-0.122883,0.788228,-0.527623,-0.618599,0.582194
-0.753508,-0.397923,0.621630,-0.031099,-0.222369,0.974466
0.094883,0.033450,0.766184,0.808888,-0.078519,0.582696
-0.056002,0.058113,0.758473,0.094906,-0.979076,0.180008
0.270976,-0.341496,0.845201,-0.082863,-0.469406,-0.879086
-0.079585,-0.138673,0.904373,-0.183995,0.982852,0.012140
-0.609646,-0.044097,0.540724,0.938191,0.307811,0.158271
-0.048793,0.765593,-0.956274,0.249930,0.678387,0.690889
-0.261613,-0.073374,0.825821,-0.567876,0.804097,-0.175911
0.763410,0.482745,0.506805,0.921246,0.368861,-0.123481
0.179863,0.086506,-0.136429,0.963174,0.254052,0.088059
-0.050595,-0.110815,0.920983,0.765327,-0.640178,-0.066676
0.440938,0.457192,0.667400,-0.179131,0.423537,-0.887991
0.447784,-0.006476,0.716559,-0.267581,-0.876040,0.401191
0.118114,0.078521,0.743053,-0.645106,-0.141998,0.750783
0.001978,0.740220,-0.952756,0.291282,0.710005,0.641130
-0.851819,0.401473,0.509004,0.079551,0.894117,0.440711
-0.840478,0.322331,0.555265,-0.184078,0.538022,0.822586
0.160060,-0.590275,0.353195,0.879524,0.441969,-0.176355
-0.057079,-0.202024,0.851048,0.026394,0.320616,0.946842
0.151598,0.449208,0.113765,0.252268,-0.413731,0.874750
0.055815,-0.032738,0.171203,0.995999,-0.084434,0.029260
0.259085,-0.181262,0.795498,-0.621116,0.245919,0.744137
0.527182,-0.415314,0.145356,0.786254,0.610824,-0.093262
0.585877,-0.439268,0.668098,0.545484,0.222575,-0.808027
0.297439,0.364210,0.392393,0.392551,-0.900199,-0.188534
0.245767,-0.719279,-0.942949,0.184512,-0.695665,0.694266
0.157006,-0.667109,0.353739,0.940489,0.274844,-0.199855
-0.695715,-0.733475,0.409625,0.687231,-0.654509,0.315167
0.127115,-0.071422,0.819327,-0.753915,0.023940,-0.656535
-0.022868,-0.568627,-0.851721,-0.608396,0.793304,0.022885
-0.207776,-0.782981,0.752109,0.839365,0.178400,-0.513459
-0.445806,-0.235736,0.814437,0.925248,-0.013515,0.379123
-0.324274,-0.067696,-0.104916,0.670172,-0.381786,0.636482
-0.399529,-0.259693,0.450815,0.811726,0.432781,0.392175
-0.052760,0.272115,0.561630,0.086538,0.974158,0.208631
-0.013330,0.000265,0.825226,0.821122,0.072727,-0.566101
-0.390892,-0.460206,0.721268,0.829906,-0.549430,0.096865
0.777630,-0.484518,0.199845,0.091021,0.816984,-0.569431
-0.252613,-0.511134,0.694929,0.963276,0.233497,0.132586
-0.202743,-0.063971,0.744295,0.988132,-0.148878,0.037813
-0.033847,-0.597729,0.566727,0.205089,-0.090297,0.974569
-0.754233,-0.072486,0.630246,-0.254281,-0.919338,-0.300264
0.928877,0.261290,0.701009,0.909798,-0.214513,0.355319
-0.047540,0.067696,0.095834,0.384346,0.326924,-0.863365
0.644758,0.446901,0.729263,0.851068,0.511271,0.119521
-0.327868,0.738444,0.147762,-0.470989,0.200712,0.859002
0.178973,-0.386567,0.769780,-0.680664,0.665587,-0.306089
-0.169786,-0.573596,0.897257,0.994539,-0.095351,-0.042432
0.178424,0.358708,-0.675084,0.971398,-0.177029,0.158264
-0.227403,-0.392778,0.601578,-0.138330,0.978875,-0.150562
-0.010627,0.064680,0.739664,0.361042,-0.779502,0.511884
0.789697,-0.346995,0.473454,0.869452,-0.489939,0.063344
-0.447608,-0.108862,0.843053,0.706706,0.638675,0.304404
-0.115949,-0.297134,0.834127,0.035978,0.882103,0.469681
0.380628,-0.054034,0.786727,0.339120,0.939296,-0.052151
0.694089,-0.809955,0.555550,-0.359888,0.932186,-0.038862
-0.512599,0.460030,0.632135,0.035607,0.790625,0.611265
-0.908172,0.392245,0.373635,0.975833,-0.156666,0.152331
0.887645,-0.074262,0.689754,0.829348,0.547580,-0.111077
0.153038,-0.116317,0.815395,-0.725230,0.626393,0.285786
0.394848,-0.310266,0.559793,0.951466,-0.201781,0.232372
-0.046990,-0.277615,0.784838,-0.577256,-0.812760,-0.078715
0.803378,0.576612,0.785330,0.683546,0.729609,0.020878
0.546271,0.085796,0.681449,0.794718,0.153929,0.587136
0.311120,-0.337058,0.644088,0.220647,-0.377263,0.899437
0.124235,0.126254,0.687038,-0.376815,-0.910484,0.170381
-0.684374,0.087394,0.359017,-0.133400,-0.018525,0.990889
-0.205798,-0.113477,0.485640,0.583296,-0.811981,0.021301
-0.127114,-0.307071,0.843312,-0.662272,-0.185584,-0.725916
-0.302307,-0.365805,0.775602,-0.362096,0.869813,0.335129
-0.094893,-0.628958,-0.858422,-0.652317,0.754515,0.072037
0.390705,-0.527991,0.268512,0.897592,-0.413178,0.153662
0.157907,-0.569515,0.434644,-0.169076,0.393063,0.903833
0.333813,-0.272646,0.577335,0.695497,-0.346764,0.629316
0.335792,-0.325348,0.817387,0.105136,0.726640,0.678926
-0.897370,-0.680595,0.813299,0.953922,-0.238551,0.182007
-0.494423,0.429155,0.642639,0.423122,0.070987,0.903288
-0.023407,0.106201,0.731565,0.982798,0.184597,0.005664
0.071123,0.472808,0.498111,0.877983,-0.078079,-0.472281
0.260349,0.641736,-0.956016,0.786911,0.460229,0.411048
-0.148005,0.676870,0.674851,0.581323,0.685867,0.437779
0.413937,-0.167421,0.813532,-0.515668,0.313012,0.797565
0.227216,0.887322,0.290556,0.786115,-0.549469,0.283031
0.140433,-0.349660,0.724528,0.795904,-0.405055,0.449963
0.795103,0.513265,0.824191,0.804343,0.512093,0.301320
0.100103,-0.401473,0.709495,-0.469242,-0.240269,-0.849754
-0.160247,-0.646171,0.885226,0.894403,0.421236,0.150345
-0.637384,-0.402891,0.630556,-0.222800,0.534140,0.815509
0.904393,-0.060775,0.643286,-0.646463,0.365625,0.669630
-0.870183,0.586728,0.444166,0.895611,0.336077,-0.291434
-0.194632,0.432350,0.291048,-0.081189,0.166142,0.982754
-0.103168,0.324462,0.629418,0.959005,0.182158,-0.217089
0.267372,-0.879514,0.658965,0.328199,-0.826088,0.458110
-0.346594,-0.149853,0.619301,-0.443957,0.888503,0.116036
-0.376485,-0.674030,0.748228,0.131584,0.655238,0.743875
-0.877930,0.219412,0.322199,0.221510,0.956192,0.191393
-0.289526,-0.342738,0.522044,-0.610981,-0.073009,0.788271
0.373068,-0.363498,0.887736,0.995857,0.056621,-0.071152
0.208315,-0.567563,0.667296,0.772417,0.319801,0.548725
-0.877029,0.536333,0.455265,0.975259,-0.108789,-0.192444
0.660417,-0.785467,0.553532,-0.705696,0.704488,-0.075432
0.050408,-0.255256,0.852962,-0.044273,-0.105114,0.993474
0.034386,-0.076745,0.863959,0.913075,-0.309001,0.266106
0.518182,-0.106201,0.523829,-0.061555,-0.554656,0.829800
0.202018,-0.095200,0.824191,-0.598794,-0.535297,-0.595737
-0.210117,-0.156950,0.790996,0.742982,0.421104,-0.520239
-0.634680,0.192975,0.753532,-0.393799,-0.919019,0.018052
0.094344,0.106913,0.721345,0.173392,-0.681324,0.711149
0.734606,0.405731,0.650298,0.620327,0.778645,0.094373
-0.693737,0.684679,0.815446,-0.387204,0.914825,0.114753
0.784477,-0.400939,0.540828,0.110486,-0.990216,0.085231
-0.083728,-0.024044,0.819120,0.010170,0.680071,0.733076
0.456960,-0.485227,0.762924,0.390836,-0.510443,0.765960
-0.002527,-0.303521,-0.461604,-0.737769,-0.613028,0.282654
0.636471,0.069648,0.683260,0.319427,-0.746158,-0.584136
0.102630,0.120751,-0.047296,0.324576,0.765379,0.555739
0.172489,0.133174,0.475576,-0.124778,0.864584,0.486749
0.622614,0.263064,0.566339,0.048134,-0.226927,0.972722
0.052573,-0.207878,-0.737516,-0.685682,0.727838,-0.009613
-0.755486,-0.267678,0.382872,0.982061,-0.016389,0.187849
-0.548249,-0.503149,0.751255,0.625118,0.642578,0.443081
0.511885,-0.682193,0.705692,-0.443160,0.867073,0.227582
0.531325,-0.469434,0.347167,0.244145,0.725466,-0.643500
-0.573282,-0.436785,0.864890,-0.100764,0.994855,0.010537
0.909789,-0.330140,0.654230,0.975096,0.166396,0.146629
-0.571481,0.615296,0.645226,0.344849,-0.162456,-0.924493
0.206512,-0.245143,0.809030,-0.540405,-0.336874,0.771024
-0.573821,-0.520716,0.423079,-0.249534,-0.397208,0.883153
-0.054551,-0.532960,0.652109,-0.206165,0.924702,-0.320035
-0.888733,0.130158,0.492419,0.914904,0.174100,-0.364198
-0.078684,-0.025286,0.920828,-0.702228,0.661031,-0.264413
-0.476411,0.020673,0.831772,0.932762,-0.115961,0.341332
-0.043397,0.273710,0.830608,0.890634,0.453276,-0.036230
0.719299,0.409991,0.639741,0.453826,0.874419,0.171563
0.407453,-0.694971,0.471824,0.896641,0.088587,-0.433806
0.116674,0.679001,0.569366,-0.637528,0.378576,0.670998
0.206875,-0.186585,0.791617,0.580733,0.587363,0.563696
0.339033,-0.689290,0.756145,0.969109,-0.058325,-0.239638
-0.522688,0.105316,0.289961,0.293655,0.468357,0.833312
-0.252975,-0.091474,0.769780,-0.604185,0.491748,0.627013
0.495313,0.502085,0.330272,-0.616877,-0.780542,-0.101082
-0.067156,-0.587437,0.787607,-0.037674,-0.560162,0.827526
0.219304,0.249223,-0.587063,0.726939,-0.513574,-0.455853
-0.450850,-0.401827,0.436481,-0.556375,0.062576,0.828572
0.140796,-0.146304,0.860129,0.424744,0.242261,-0.872297
-0.486676,0.101411,0.478939,-0.644565,-0.534174,-0.546986
-0.355242,-0.608196,0.732988,0.277083,0.645930,0.711336
-0.005758,0.366872,-0.930375,-0.464669,-0.014896,-0.885359
0.534930,0.248159,0.655136,-0.307916,0.699697,0.644680
-0.475158,-0.312216,0.616016,-0.212579,0.683679,0.698136
0.624054,-0.164049,0.570815,-0.444527,0.894235,-0.052339
-0.071299,-0.024399,0.871617,-0.049721,-0.939636,0.338544
-0.174291,-0.849348,0.418887,0.285623,0.917894,-0.275480
0.427981,-0.439268,0.799638,0.894411,0.012634,-0.447067
-0.228304,0.697099,-0.986106,-0.356064,-0.549656,-0.755710
0.964889,-0.716439,0.724580,0.763848,-0.554047,-0.331010
0.232447,-0.751930,0.690918,0.856326,0.441346,-0.268179
-0.826434,0.072310,0.652264,-0.103057,-0.993337,-0.051577
0.695716,0.413540,0.634463,-0.168004,0.959746,-0.225084
-0.166192,-0.202200,-0.160440,0.851793,-0.487839,-0.190949
0.405288,-0.756190,0.774489,0.146147,0.781252,0.606865
-0.117751,-0.215332,0.917646,0.736292,-0.345054,0.582075
0.043035,0.106558,0.534929,0.098738,-0.041973,0.994228
-0.248645,-0.064856,0.893635,0.932627,-0.015336,-0.360515
0.610372,0.588680,0.849314,0.893479,0.045482,0.446797
-0.221458,-0.532784,0.506003,0.943670,0.308043,-0.120812
-0.203996,-0.370598,0.397128,-0.404388,0.909366,-0.097589
0.588404,0.141338,0.214256,0.403819,0.711151,0.575495
-0.619735,0.689114,0.636507,0.037518,-0.839908,0.541431
-0.017286,0.342738,0.611410,0.919956,0.084760,-0.382749
0.194095,-0.967349,-0.945226,0.001873,0.215339,0.976538
-0.439860,0.334930,-0.911074,-0.233229,0.422261,0.875957
-0.108212,-0.131577,0.977490,-0.614446,0.782911,0.097501
0.032408,-0.298732,0.848098,0.075857,0.980598,-0.180755
0.042848,0.241771,0.327969,0.927397,-0.368139,0.066396
-0.334890,-0.428622,0.799845,0.559025,-0.245565,0.791953
0.125675,-0.084375,-0.128771,0.954822,-0.220573,0.199152
0.093443,-0.142578,-0.109521,0.986301,-0.148171,-0.072496
-0.553293,-0.100344,0.841682,0.917588,0.365873,0.155464
0.242701,-0.065565,0.808331,0.558994,0.309852,0.769102
0.244689,-0.583178,0.717257,0.797163,-0.393981,-0.457505
0.275471,-0.696211,0.707245,-0.186019,-0.924651,0.332291
0.923657,-0.484518,0.605770,0.988594,0.082650,-0.125899
0.538348,-0.028479,0.658266,-0.052201,0.986404,-0.155828
0.228117,-0.351078,0.781682,0.772348,-0.628043,0.095079
-0.149082,0.940202,0.162846,0.043082,-0.808102,0.587466
0.371979,-0.521071,0.628564,0.461249,0.515104,0.722438
0.320846,-0.419394,0.519120,-0.343371,0.936576,-0.070148
-0.209578,-0.331914,0.809495,-0.121170,0.722382,0.680795
0.074354,-0.059711,0.835809,0.876722,-0.303314,-0.373309
-0.181852,-0.243900,-0.531772,0.826955,0.561908,-0.020128
-0.185808,0.369533,0.280052,0.309913,-0.501709,0.807615
0.712815,-0.284536,0.319457,0.538459,0.763691,-0.356142
0.266470,-0.402891,0.852005,-0.465444,-0.168395,0.868910
0.274218,-0.187649,0.710116,0.764520,-0.641031,-0.067742
-0.622614,-0.582469,0.737594,0.927882,-0.249343,-0.277242
-0.221458,0.497471,-0.919120,-0.372176,-0.147298,-0.916399
0.475873,-0.126075,0.622380,0.949415,-0.274546,-0.152433
-0.170874,0.061309,0.733920,0.339240,0.208052,0.917404
-0.031693,-0.398632,0.456197,0.264934,0.533571,-0.803188
-0.066441,0.025641,0.814592,0.665111,-0.225704,-0.711818
-0.223260,-0.136367,0.731539,-0.421005,-0.820718,-0.386234
0.275471,-0.950137,0.652988,0.183056,-0.865482,0.466294
-0.031154,0.714844,0.271928,-0.432380,-0.380559,-0.817449
0.822643,0.328897,0.679327,0.718471,0.692372,-0.066487
-0.146378,0.108508,-0.887063,0.247751,0.045779,-0.967742
0.406552,-0.095910,0.538680,-0.521457,-0.157663,-0.838585
-0.029528,0.318961,0.625899,-0.652177,0.712038,0.260129
0.065893,-0.445124,0.725097,-0.658450,0.091899,0.746992
-0.005758,0.129803,0.813273,0.832796,-0.387922,0.394928
0.226326,-0.213201,0.713092,-0.352844,0.912696,0.206123
-0.120993,0.690356,0.468797,0.439644,0.518835,-0.733160
-0.936624,0.232189,0.461889,0.987386,-0.013687,0.157737
0.196073,0.075326,0.678266,0.562463,0.815759,-0.134806
-0.202017,-0.487179,0.712316,0.942790,0.326998,0.064963
0.201655,0.449917,-0.948254,-0.354877,-0.923960,0.142691
0.473532,-0.277082,0.812911,-0.114201,0.992366,0.046558
-0.198952,-0.814923,0.548616,0.989018,0.146763,-0.017414
-0.283042,0.382308,-0.073195,-0.674202,-0.404449,-0.617959
-0.406738,-0.173277,-0.887322,0.426108,0.007294,0.904643
0.907810,-0.100523,0.669004,0.950360,-0.302986,0.070817
0.129092,0.435011,0.543338,0.892316,0.271296,-0.360792
-0.627834,-0.562950,0.721630,0.381327,0.776599,0.501482
0.486489,0.110460,0.747969,0.569646,0.577850,-0.584459
-0.456246,0.111527,0.450686,0.225933,0.351419,0.908548
-0.035287,-0.056340,0.913635,-0.561920,0.726712,-0.395140
0.137378,-0.147368,0.820569,-0.633632,0.715891,0.293278
0.821566,0.410169,0.807012,-0.542356,-0.679920,0.493517
0.495676,-0.109751,0.542691,-0.226854,0.905203,0.359367
-0.854160,-0.038416,0.659198,0.595694,-0.216575,0.773463
0.489016,0.288616,0.458060,-0.285680,-0.603796,0.744189
0.715694,0.207880,0.781268,-0.365704,0.924292,-0.109288
-0.162049,0.256856,0.549806,0.345959,0.216065,-0.913032
0.367836,0.048886,0.700155,0.585837,-0.771086,-0.249440
-0.070936,0.579273,0.650970,-0.633952,0.060372,-0.771013
0.343715,-0.405553,0.798422,-0.500556,0.044766,0.864546
-0.233711,0.427736,-0.918370,-0.473152,-0.011373,-0.880908
-0.213721,-0.473338,0.782096,0.375640,-0.866843,0.327838
-0.007209,-0.660012,0.426649,0.893089,-0.237690,-0.381962
0.003956,-0.110993,0.970298,-0.625055,0.779873,-0.033211
0.185995,-0.639250,0.673402,0.490416,-0.861834,-0.129362
-0.468136,-0.618845,0.429159,0.041638,-0.515990,0.855582
-0.161686,-0.844734,0.451902,-0.764674,0.341734,-0.546343
-0.048617,0.550175,0.287141,-0.478988,0.527029,-0.702004
0.456421,-0.263598,0.270272,0.628912,0.111976,-0.769370
0.531688,-0.373968,0.480517,-0.258854,0.174820,-0.949965
0.416992,0.023689,0.724968,-0.096354,-0.791476,0.603557
-0.659164,0.067874,0.876223,0.847731,0.524056,0.081964
-0.238568,0.631444,-0.958784,0.430101,-0.897440,-0.098058
-0.598492,-0.088100,0.552962,0.563145,0.822286,-0.081932
-0.139356,-0.626121,0.645123,0.845440,-0.526641,-0.088771
-0.478038,-0.209299,0.502251,-0.711210,-0.004995,0.702962
-0.633416,0.219767,0.481164,0.732087,0.494976,0.468026
0.840830,-0.120576,0.536145,0.600924,-0.492860,0.629269
0.148005,-0.168663,0.866210,0.095031,0.479679,0.872283
-0.239283,-0.661431,0.661190,0.574038,0.288609,0.766280
0.274394,0.654158,-0.971358,0.770761,0.512141,0.378997
0.758366,-0.032738,0.850944,0.270788,-0.929277,-0.251232
0.260174,0.820425,0.597413,0.335989,0.613085,0.715009
0.446344,-0.110639,0.815524,0.594229,-0.800971,0.073059
-0.328955,-0.169194,0.576792,0.706484,-0.661971,0.250351
0.677341,0.128560,0.226934,-0.307436,-0.950978,0.033531
0.698408,-0.150917,0.674515,0.103170,0.961919,0.253117
0.834533,0.518766,0.567658,0.940294,0.265568,-0.212886
-0.774399,0.484872,0.131772,0.075051,-0.004622,0.997169
0.462543,-0.736137,0.193402,0.228506,0.250914,0.940653
-0.240184,-0.715375,0.715809,0.424245,-0.226215,-0.876837
-0.959669,0.452046,0.473687,0.810742,-0.559529,-0.172118
-0.387112,-0.519831,0.716843,0.813139,-0.340191,0.472309
-0.355418,0.014995,0.537827,-0.226598,0.912154,-0.341509
-0.092552,-0.456835,0.554515,0.193365,-0.036098,-0.980463
0.709397,-0.770028,0.545770,0.399964,-0.764788,-0.505102
-0.056716,0.677580,0.676611,0.109567,-0.903163,0.415080
-0.766838,0.160499,0.566261,-0.190884,-0.454071,0.870278
-0.057079,0.787243,0.666210,0.812682,0.246968,0.527782
0.423652,-0.573417,0.624088,-0.315151,0.941500,0.119401
-0.165643,-0.009672,0.669159,-0.130325,0.966068,-0.222999
0.072376,-0.405907,-0.615032,0.191605,-0.646339,0.738602
-0.023946,0.122883,0.902432,0.403568,0.813442,-0.418862
0.163840,-0.230592,0.414748,0.848010,-0.521754,-0.093011
0.584976,-0.268567,0.566831,0.534139,0.047228,-0.844076
-0.545194,0.137788,0.492419,-0.720647,-0.472088,-0.507741
-0.685814,-0.098216,0.622975,-0.576083,-0.636361,-0.513004
0.364958,0.195458,0.725045,-0.385997,-0.908581,0.159646
-0.706694,0.344336,-0.163234,-0.179612,-0.660426,0.729094
-0.369638,-0.177891,0.621501,0.645645,-0.761220,-0.060709
0.572195,0.156243,0.439172,-0.424320,0.894933,0.138011
0.039792,-0.263774,0.819534,0.240602,-0.391421,0.888200
0.243063,-0.479195,0.633273,0.791830,0.427529,0.436147
-0.576524,-0.735428,0.752290,-0.786283,0.030628,-0.617107
-0.247206,-0.740927,-0.538318,0.940329,-0.169384,-0.295112
-0.139356,-0.522314,0.310634,-0.410979,0.752779,-0.514218
-0.636120,0.183214,0.290634,0.422804,0.905112,0.044815
-0.493698,-0.600036,0.739741,0.938349,0.133797,0.318747
0.394672,-0.229704,0.814023,0.942358,0.318739,-0.101813
0.618471,-0.219945,0.877930,-0.452358,0.869730,0.197336
0.153577,-0.593470,0.676662,0.815049,0.416448,-0.402823
0.336517,0.172213,0.463881,0.535274,-0.156393,0.830074
0.502874,0.025286,0.370893,-0.330285,-0.530025,0.781016
-0.526644,-0.646350,0.395420,-0.643759,0.714360,0.274342
0.505577,0.521428,0.685821,-0.676973,0.313783,-0.665768
-0.255316,0.386036,0.798991,-0.733851,0.531260,-0.423351
-0.430146,0.012688,0.737439,-0.357171,-0.538378,0.763268
-0.304109,-0.066277,0.653687,0.204092,-0.864355,0.459605
0.418256,-0.191908,0.814127,-0.551187,0.335907,0.763780
0.532227,-0.277437,-0.692367,0.994318,-0.088479,0.059182
-0.014045,0.250111,0.741527,-0.291035,0.586587,0.755788
-0.764135,0.635170,0.657853,-0.025168,-0.835398,0.549068
-0.099926,0.589744,0.668900,0.457158,-0.357550,0.814349
0.772410,-0.246740,0.495524,-0.399931,-0.900471,-0.170904
0.032584,-0.028124,0.079276,0.907447,0.139347,-0.396387
0.026111,-0.193860,0.876895,-0.768547,0.633237,0.091364
0.487577,0.601100,0.228331,-0.749933,0.658024,0.067858
0.333627,-0.942507,0.537232,0.458515,0.785056,0.416475
-0.431399,0.034869,-0.552031,-0.525801,-0.654183,-0.543671
-0.244151,-0.440156,0.726132,-0.269073,-0.928387,0.256313
0.311120,-0.225799,0.794929,0.552463,0.312921,-0.772570
0.431037,0.391890,0.379405,-0.100700,0.978925,0.177666
-0.051672,0.579986,0.486856,-0.234848,0.491906,-0.838376
-0.274217,0.867982,-0.978034,-0.040984,0.995603,0.084237
-0.328417,-0.384439,0.496611,0.152153,-0.957083,0.246660
0.715518,0.079764,0.269056,0.765300,0.636167,0.098020
-0.193017,-0.898324,0.716921,0.116879,0.992265,-0.041836
-0.204358,-0.723184,0.750298,-0.313820,0.873764,-0.371556
0.263767,-0.371483,0.429677,0.896881,-0.416578,-0.148549
0.214260,-0.735249,0.539974,0.964558,0.098099,0.244958
0.648175,-0.203797,0.875136,0.049750,-0.995706,-0.078063
0.330747,0.667643,0.121759,0.807291,0.590140,-0.004079
-0.357045,0.053500,-0.908745,0.444152,0.225518,0.867105
0.070761,0.254191,0.310323,-0.627929,-0.712695,-0.312685
0.004319,0.411234,0.404295,0.346228,-0.851639,0.393492
-0.241448,0.209120,0.537361,0.512797,0.479681,-0.712001
0.134851,-0.421171,0.781475,0.802197,0.571925,-0.171414
0.082464,-0.389053,-0.768875,0.939536,0.332196,-0.083174
-0.552392,0.620443,0.649444,-0.376711,0.077070,0.923119
-0.029715,-0.203618,0.184476,-0.463585,0.810308,-0.358456
-0.281240,-0.416557,0.218060,-0.033861,0.069960,0.996975
0.259635,0.123237,-0.916171,0.738587,-0.374129,0.560818
-0.085530,-0.000799,0.813273,0.765746,0.299451,-0.569176
-0.180775,-0.736313,0.743157,0.082253,-0.201818,0.975963
0.149796,0.792387,0.582639,0.858430,0.475791,-0.191627
0.452465,-0.415314,0.256895,0.872838,0.017174,0.487708
0.392507,-0.206638,0.783027,0.213677,-0.886971,0.409419
-0.339220,-0.320025,0.814437,0.308750,-0.740011,-0.597543
-0.592184,-0.403779,0.628047,0.256317,-0.555953,-0.790707
-0.823005,-0.532075,0.408668,0.209653,0.907195,-0.364751
-0.564458,-0.015349,0.859845,0.943617,0.163081,-0.288081
0.301043,-0.726910,0.691695,-0.398157,-0.839276,-0.370253
0.561755,0.503149,0.615886,0.993454,0.074597,-0.086514
0.767366,-0.385148,0.467348,-0.731713,0.669395,0.128476
-0.061936,-0.696744,0.446468,-0.755491,0.337307,-0.561656
-0.301944,0.212494,0.533428,-0.132381,-0.420113,0.897764
-0.512962,-0.724781,-0.112549,0.577876,-0.769475,0.271970
-0.451201,-0.486646,0.442924,0.202025,0.119194,-0.972100
-0.359924,0.686807,-0.074386,0.157131,-0.498665,0.852434
-0.401332,-0.332977,0.745666,0.399423,0.907782,0.128039
0.295460,-0.029900,-0.925149,0.799150,-0.130434,0.586810
-0.037814,-0.087924,0.641423,-0.302707,0.941461,-0.148387
-0.177709,-0.203088,-0.400647,0.989171,0.146025,-0.014719
0.100465,-0.538283,0.725304,0.456627,0.342651,0.821025
-0.110377,-0.746074,0.548693,-0.437129,0.161008,-0.884870
-0.079947,0.082601,0.606184,-0.648449,0.751830,0.119441
0.332549,0.354273,0.655938,0.998502,0.015005,-0.052623
-0.223985,0.153758,0.794463,-0.108320,-0.966024,0.234660
0.052749,-0.321443,0.874748,-0.206109,0.917390,-0.340462
0.667088,0.013931,0.675938,-0.593325,0.748279,-0.296722
-0.643856,-0.652916,0.768875,-0.332081,-0.246448,-0.910486
0.479115,-0.184633,0.535084,0.054717,0.997874,0.035404
0.339033,-0.951558,-0.335653,0.743103,0.476495,-0.469841
0.089838,0.082425,0.349470,0.683192,0.185101,-0.706390
0.040145,-0.305828,-0.215912,0.821170,0.513476,0.249044
-0.633955,0.408393,0.590893,-0.028961,-0.563424,0.825660
-0.019803,-0.106380,0.140931,-0.705409,0.701034,-0.104635
-0.196259,0.156065,0.821734,0.754106,0.654042,0.059606
-0.003605,-0.418506,0.702251,0.472636,-0.577734,0.665462
0.104070,-0.296425,0.853842,-0.623162,0.750669,-0.219468
0.163489,-0.259339,-0.052730,0.894377,0.319173,0.313399
-0.072925,-0.571644,-0.887710,0.780351,-0.622753,-0.056838
0.214798,-0.246740,0.836378,0.867749,-0.414800,0.273774
0.252613,-0.084020,0.229082,0.174222,-0.585804,0.791505
0.745761,-0.393309,0.522768,0.165747,-0.908747,-0.383022
0.155203,0.721055,-0.996533,0.688821,0.529458,0.495177
0.151786,-0.549817,0.657956,0.134396,-0.566376,-0.813115
-0.155390,0.004525,0.875783,0.048597,-0.978227,0.201767
0.493160,0.182504,0.427089,0.855283,-0.241229,0.458584
-0.420959,-0.043209,0.499922,0.525689,0.847043,0.078547
-0.335439,-0.419040,0.807943,-0.216602,0.589613,-0.778101
0.709935,-0.652737,0.635524,-0.386654,-0.683047,0.619634
-0.181314,0.850236,0.152678,0.685354,-0.256755,0.681445
-0.777454,-0.596486,0.754592,0.569648,-0.711001,0.412284
-0.051859,0.145773,0.839457,-0.752203,0.493570,0.436555
-0.706155,-0.577145,0.010065,0.912088,0.265895,0.312083
-0.185632,-0.109572,0.738991,-0.216686,0.114076,0.969553
-0.151247,0.111881,0.615239,0.852514,0.343327,0.394140
-0.594888,-0.295716,0.445330,0.897303,-0.183104,0.401648
0.523764,-0.329252,0.836947,0.805432,-0.404373,-0.433315
0.035826,-0.116317,0.862717,0.878622,-0.191182,0.437575
-0.269712,0.056871,-0.900699,-0.739692,0.453372,-0.497302
0.450488,-0.125366,0.829780,0.630962,0.453725,-0.629302
0.192468,-0.425960,0.761061,0.147559,-0.078217,0.985956
0.301944,0.206459,0.626598,0.245012,0.905419,-0.346679
0.355418,0.154112,0.403027,0.953039,0.262338,0.151313
0.653758,0.156953,0.190065,0.842269,0.432462,0.321807
-0.677528,-0.686983,0.437516,-0.655781,0.328407,0.679779
0.400068,0.102475,0.536041,0.893513,-0.074707,-0.442778
0.571118,0.254370,0.408926,0.881194,-0.320853,0.347203
0.433014,-0.762398,0.666080,0.901413,0.238873,-0.361101
0.634669,0.441220,0.821242,0.986919,-0.156709,-0.037849
-0.659703,-0.202200,0.443234,0.883932,0.402172,0.238582
-0.075266,-0.087036,0.658862,-0.741710,0.664040,-0.094433
0.032946,0.678467,0.294204,0.622617,-0.241284,0.744399
0.033671,0.881466,-0.971229,-0.085011,0.489619,0.867783
0.824445,0.426848,0.721837,-0.623559,-0.681250,0.383500
-0.913392,-0.964156,0.381759,-0.270867,0.959386,0.078804
-0.157730,-0.700115,0.526960,-0.313392,0.620469,0.718890
0.289515,-0.367936,0.477956,0.733122,-0.153565,-0.662533
0.521600,-0.177712,0.817594,0.647901,0.592389,0.478852
-0.581744,0.021027,0.730970,0.976223,0.147404,0.158936
-0.030429,0.569336,-0.920052,-0.202648,-0.356803,-0.911935
0.078860,0.173810,-0.176145,0.725457,0.656898,-0.205419
-0.122795,-0.022446,0.745459,0.536166,-0.830336,0.151880
-0.202017,-0.233429,-0.854075,0.743369,0.305769,-0.594902
0.893040,-0.336528,0.551307,-0.306595,-0.916066,0.258501
-0.687616,0.015349,0.522743,0.708599,0.695999,-0.116071
-0.227942,0.095379,0.738991,0.608574,0.491043,-0.623309
-0.058518,0.356935,0.707270,0.979862,0.124771,0.155894
0.633779,-0.679531,0.524683,-0.687547,0.321817,0.650933
0.188512,0.095734,0.789470,0.736365,-0.600397,0.311913
-0.214985,0.016947,0.837335,-0.418252,0.227703,0.879327
-0.476048,0.225802,0.466882,0.713280,0.380432,0.588645
-0.631439,-0.704729,0.672342,-0.722808,-0.690979,0.009813
-0.676627,0.082247,0.353946,0.680274,0.671534,-0.293716
-0.219667,0.533493,-0.916378,0.261928,0.376686,0.888539
0.076882,-0.096974,0.839250,0.919541,-0.372175,-0.126216
0.766652,-0.406441,0.467788,-0.731713,0.669395,0.128476
0.251888,-0.222607,0.552419,-0.671932,0.262011,-0.692717
-0.064101,-0.101233,0.892730,0.784436,-0.602435,0.147418
0.609108,-0.420104,0.272523,-0.524696,-0.650041,0.549673
0.854336,-0.108508,0.682743,0.871070,0.438798,-0.220664
0.926174,-0.490729,0.663027,0.996203,0.003861,0.086979
0.240184,0.258984,0.546960,-0.058328,0.544071,-0.837009
-0.450663,-0.511313,0.483855,-0.798159,0.537054,0.272973
-0.005945,0.382308,0.738396,0.703470,0.705874,-0.082895
-0.415552,-0.305474,0.748797,-0.147486,-0.944565,0.293334
-0.009538,-0.521071,-0.847012,0.920706,-0.381836,-0.080633
-0.481456,-0.352321,0.428021,0.383608,0.173425,-0.907066
-0.431399,-0.369534,0.817309,-0.717270,-0.323809,-0.616986
-0.518544,0.382308,0.352911,0.457148,0.889116,0.022086
0.613064,0.086682,0.399871,0.030463,-0.775023,0.631198
0.023770,-0.172034,-0.941009,0.610492,-0.410299,0.677461
-0.236228,-0.248335,0.886960,0.003871,-0.947975,0.318320
-0.043573,-0.251530,0.951281,-0.124038,-0.988920,0.081562
0.233348,0.348950,0.378473,-0.597736,0.797453,0.082338
0.255855,-0.390648,0.768693,0.918726,0.298029,-0.259078
-0.551139,0.626654,0.817827,-0.888870,0.279199,-0.363260
-0.269712,-0.035045,0.870505,-0.698504,0.686788,-0.201035
-0.366045,0.502794,0.570712,-0.452441,-0.576659,-0.680266
0.095421,0.289683,-0.898499,-0.495432,-0.475782,-0.726760
0.745585,-0.200426,0.522639,-0.131394,-0.877308,0.461592
-0.138455,-0.324993,0.846028,0.977181,0.095776,0.189589
-0.099388,0.325702,0.284994,-0.400204,-0.660711,0.635058
0.138642,-0.114186,0.436533,0.635435,-0.195259,0.747058
-0.593448,-0.765593,0.674799,0.609398,-0.764664,0.209577
0.348759,0.274423,0.490194,0.765687,-0.642297,0.034317
0.081025,0.045694,0.230686,-0.567362,0.442807,0.694279
0.110191,0.345045,-0.941992,0.068830,0.929236,0.363018
-0.357220,0.318961,0.636585,0.433791,0.339020,0.834800
-0.070398,-0.611746,0.711488,0.582396,-0.701838,-0.410168
0.536545,-0.170260,0.339379,0.117866,0.815264,-0.566968
-0.226502,-0.225799,0.899353,-0.663209,0.326400,-0.673511
-0.030429,0.018720,0.874567,-0.534807,-0.316615,0.783413
0.227942,-0.038594,0.524890,0.446564,0.457477,0.768957
-0.048430,0.413540,0.641759,-0.042659,-0.034384,0.998498
0.497654,-0.970899,-0.530712,-0.121958,0.834834,0.536823
-0.003417,-0.071600,-0.274955,0.968802,0.036501,-0.245135
-0.184555,0.874545,0.164269,0.334529,0.071105,-0.939699
0.601547,0.099992,0.749754,-0.869716,0.489380,-0.064037
0.291141,-0.036642,0.689418,-0.521086,0.730681,-0.441106
-0.399167,-0.060066,0.839276,-0.465605,-0.340092,0.817037
-0.089124,-0.499069,0.908900,-0.716911,-0.257057,-0.648044
-0.759267,-0.079230,0.111048,0.361395,-0.367289,0.857025
-0.079585,-0.226866,0.907451,0.881095,-0.002324,-0.472934
0.262690,0.055098,0.791721,0.871861,0.281639,-0.400672
-0.151247,0.180907,-0.927555,0.870778,-0.247297,-0.424958
0.158082,-0.513620,0.552160,0.463191,-0.263642,0.846137
0.279075,-0.300151,0.481552,0.242495,0.965873,-0.091029
-0.201292,0.129269,0.862587,0.935923,0.347871,-0.055076
0.065178,0.964690,0.570763,0.759558,0.639419,-0.119230
-0.099563,-0.316830,0.859819,0.331033,-0.383460,-0.862192
-0.380628,0.058292,0.564347,0.199199,-0.954271,0.222904
-0.320494,0.249935,0.825356,0.976225,0.076905,0.202659
0.342275,-0.117735,0.792807,0.753029,-0.385710,-0.533081
-0.404211,-0.531541,0.671772,0.713374,-0.010050,0.700711
0.548788,-0.051903,0.633092,0.914246,-0.254357,-0.315367
-0.207963,-0.168308,0.567658,0.741078,-0.666053,0.084713
0.281779,-0.479549,0.628926,-0.363610,0.085438,0.927625
-0.049880,0.113122,0.543726,-0.419814,-0.171941,-0.891175
0.689594,0.118090,0.642303,0.016188,-0.020217,0.999665
0.014946,-0.549287,0.830556,0.700215,0.643809,0.308560
0.860633,-0.234672,0.641164,0.925259,0.370451,0.081624
0.605141,0.496940,-0.095834,-0.395308,0.787603,0.472666
0.612713,0.498180,0.705459,-0.633291,-0.503171,0.588015
-0.140983,-0.682548,0.724864,-0.476211,0.494668,0.726998
0.042310,-0.728153,-0.531540,0.796069,-0.067199,-0.601464
-0.229029,0.054564,-0.914489,-0.350388,0.519057,-0.779621
0.728838,-0.285955,0.511177,0.432707,0.725940,0.534580
-0.406189,-0.425605,0.821138,0.895314,0.051549,0.442443
0.012781,0.327833,0.548098,-0.622824,0.416467,0.662303
0.141873,-0.435897,0.320155,0.912590,-0.222734,-0.342885
-0.722002,0.519652,0.478862,0.579676,0.611227,0.538866
0.547348,-0.923697,0.675576,-0.085460,-0.963811,0.252519
-0.357759,-0.181792,0.628849,-0.327284,0.106825,0.938868
-0.098673,0.219591,0.788978,-0.010469,-0.915964,0.401123
-0.104070,0.288795,0.731022,0.770953,0.588891,-0.242566
0.038353,-0.666933,0.556533,0.252705,0.926945,-0.277332
-0.812202,0.660012,0.791928,0.277203,-0.958346,0.068793
0.523589,0.157662,0.758629,0.289210,0.751969,-0.592369
0.601723,-0.683257,0.529237,-0.664656,0.247908,0.704822
0.908535,0.319139,0.773014,0.835163,0.251703,-0.489027
-0.386925,0.019608,0.811022,-0.259911,-0.412299,0.873187
0.112531,-0.007010,0.553532,-0.223397,0.419767,0.879710
-0.048430,0.397392,0.816404,0.774831,0.608474,0.171454
-0.697155,0.390650,-0.153532,0.081927,-0.153090,0.984810
-0.197160,0.580695,0.673428,0.086707,-0.869829,0.485674
-0.334890,-0.038770,0.444968,0.082999,-0.580826,0.809786
-0.180412,-0.369355,0.867426,0.864204,-0.482026,0.144230
0.473345,-0.026172,0.104942,-0.683699,0.268186,0.678699
-0.204897,0.604474,0.156662,-0.017894,-0.000827,0.999840
-0.144763,-0.522493,0.556171,0.983542,0.083873,-0.160030
-0.369638,0.268921,0.850220,0.917067,0.007704,0.398660
0.007023,-0.411588,0.715938,-0.555328,0.757535,0.343149
0.466510,-0.739153,0.184191,-0.600641,0.024356,-0.799147
-0.205622,-0.403070,0.667012,-0.421848,-0.902762,0.084056
0.114147,-0.349302,0.458396,-0.382857,0.885803,0.262249
-0.642241,-0.532605,0.205589,0.642309,-0.479599,0.597849
0.358474,-0.082956,0.528305,-0.688870,-0.696903,0.199460
0.291141,0.230237,0.634334,0.400978,0.839672,-0.366288
-0.288625,-0.168484,0.782639,0.035107,-0.990788,-0.130791
0.320483,0.335818,-0.196119,0.931768,-0.159854,-0.325969
-0.015308,0.129269,0.781708,0.630870,-0.619786,0.466765
0.454982,0.477421,0.213066,0.841283,-0.172615,0.512296
-0.030067,-0.742169,0.801578,-0.405630,0.837759,0.365548
-0.454267,-0.310442,0.653635,-0.326743,0.896188,0.300143
0.835434,-0.032383,0.745537,-0.548007,0.131517,-0.826070
0.033847,-0.376809,0.678525,-0.618470,0.781867,0.078600
0.447059,-0.317008,0.552497,-0.261379,0.014804,-0.965123
0.198589,0.303166,0.194049,0.139259,-0.751375,0.645014
0.307878,-0.752461,0.773972,0.487634,0.771155,0.409308
0.243250,-0.584597,0.730763,-0.509336,0.553126,0.659264
0.176445,-0.465175,0.610116,0.958961,-0.085060,-0.270479
-0.249909,-0.160323,0.740388,-0.108250,-0.990179,-0.088472
-0.230820,0.770916,0.151746,0.587331,-0.182115,-0.788591
-0.030429,-0.155177,0.002743,0.893638,0.442106,-0.077161
0.306439,0.160499,0.247089,-0.532551,0.524011,-0.664681
-0.004681,-0.391536,0.532911,-0.184398,0.769408,0.611562
0.016561,-0.407684,-0.011462,0.894141,0.163639,0.416814
-0.776553,-0.812083,0.380957,-0.252278,0.383814,-0.888281
-0.318153,0.427027,0.577490,0.763760,0.063636,0.642356
0.036188,-0.216751,0.834644,-0.631291,-0.749348,0.199873
-0.891964,0.386567,0.363700,0.982059,-0.061063,0.178412
-0.806982,0.336706,0.639690,-0.685586,0.259505,0.680169
0.219656,-0.046224,0.789573,-0.728770,0.307644,0.611760
-0.600646,0.300505,-0.543027,-0.586387,-0.689482,-0.425165
-0.745409,-0.093248,0.484036,0.022421,-0.682024,0.730986
0.092003,0.210717,0.767865,0.920325,0.332588,0.205882
0.095421,-0.411588,-0.880259,0.983357,-0.119308,-0.137017
-0.087146,-0.228640,0.805614,0.891200,0.347850,-0.291140
-0.085706,0.165113,0.498939,0.557666,-0.733031,0.389454
0.146554,-0.469258,0.803415,-0.389804,0.835120,0.388108
-0.105146,0.523381,0.481785,-0.127249,-0.599831,0.789943
0.785916,-0.359773,0.504968,0.739428,0.673124,-0.012254
0.472807,-0.382841,0.840776,-0.713844,0.383474,0.585982
0.816346,0.257032,0.793532,-0.225134,0.840938,-0.492075
0.828588,-0.769498,0.658655,0.703868,-0.678871,0.209056
0.178973,-0.491439,0.784657,0.188052,-0.623785,-0.758636
-0.288438,0.819007,0.155938,0.686309,0.171480,-0.706806
0.492972,0.276196,0.607063,0.774671,-0.593413,0.218508
-0.505577,-0.329783,0.269159,0.381131,0.836516,-0.393676
-0.606591,-0.239995,0.286960,-0.661972,-0.645181,0.381491
-0.102806,-0.577500,0.701268,0.412369,-0.899752,-0.142822
-0.053298,-0.220655,0.837387,0.826401,0.017763,0.562802
-0.655747,-0.683436,0.765356,0.344016,0.296356,0.890970
0.256207,0.125720,0.459172,-0.127147,0.641837,-0.756227
0.074717,-0.537219,0.152600,0.158283,-0.499800,-0.851555
0.621350,-0.337592,0.409884,-0.706898,0.247892,-0.662454
0.863875,-0.620264,0.684994,0.949190,-0.269865,0.161896
0.037628,0.030255,0.823726,0.718233,0.457010,-0.524674
-0.744332,-0.857512,0.653014,0.104826,0.900732,0.421538
-0.965428,0.254903,0.375369,0.996881,0.076953,0.017505
0.332912,-0.435542,0.553868,-0.576032,0.030512,0.816858
-0.525204,-0.538283,0.427322,0.052248,0.376747,0.924842
-0.634494,-0.136900,0.449133,0.828508,0.556775,0.059806
-0.209216,0.171503,0.618137,0.038348,-0.329702,0.943306
-0.145840,-0.018366,0.837982,-0.009115,0.850798,0.525414
-0.086970,0.291456,0.732807,0.814448,0.501193,-0.292370
-0.424563,0.518412,0.622924,0.312253,-0.667947,0.675533
0.400431,-0.492858,0.715783,0.582378,0.729972,0.357739
0.582997,-0.143997,0.485201,0.621655,0.127425,-0.772857
-0.161511,-0.564014,0.677516,-0.445556,0.860508,0.246993
0.519798,-0.389584,0.347270,0.193631,0.964606,0.179003
0.643318,0.648656,0.852160,0.825973,0.278799,0.489938
-0.070222,-0.134060,0.850867,-0.111335,-0.767040,0.631865
0.073815,0.309557,0.737050,0.953456,0.034586,0.299543
-0.164566,0.547156,0.470634,-0.672997,-0.413287,0.613408
0.315087,-0.100168,0.675860,0.522236,-0.644322,0.558676
-0.549688,-0.632154,0.400181,-0.293807,-0.609877,0.736022
0.327868,0.750157,0.586106,0.308865,0.262452,-0.914178
0.635395,0.096088,0.774567,0.804657,0.104554,-0.584462
-0.738387,-0.084375,0.657283,0.686521,0.719546,-0.104609
-0.724705,-0.131577,0.455602,-0.835604,0.188451,-0.515996
-0.596690,-0.457190,0.239974,-0.536263,-0.806793,0.248005
-0.175006,-0.503328,0.872600,-0.583244,0.726776,0.362799
0.121356,-0.085973,0.854981,0.193370,0.582099,-0.789791
0.721464,-0.272822,0.704088,-0.506425,-0.406854,0.760265
0.823192,0.238932,0.775110,0.141889,0.062459,0.987910
0.381705,-0.830717,0.777982,-0.660210,0.467546,0.587813
0.130532,-0.551591,-0.820362,0.807358,-0.586227,-0.067163
-0.000901,-0.542188,-0.226986,-0.081829,0.788896,0.609054
0.047716,0.784758,-0.959690,0.157305,0.637719,0.754036
0.308241,-0.525863,0.731514,0.360837,-0.564356,-0.742495
-0.230645,0.085087,-0.034696,0.833727,0.412865,0.366664
0.345693,-0.746074,0.690116,0.310514,0.834777,0.454674
0.283756,-0.618667,0.733169,-0.430748,-0.099694,0.896949
-0.011703,0.285424,0.815265,0.617841,0.782397,0.078286
0.002516,0.395618,0.787529,0.152338,0.967510,0.201785
0.664923,0.516814,0.676197,-0.278870,-0.197446,0.939812
0.416278,-0.297310,0.021759,0.763638,0.532299,-0.365395
0.355594,-0.292696,0.800569,0.880256,-0.001076,-0.474499
0.122971,-0.246031,0.836714,-0.030283,0.854750,0.518156
0.115048,0.531896,0.574023,-0.219350,-0.236989,0.946426
0.128730,0.060775,0.723312,0.501657,0.462646,0.730958
0.039067,-0.628428,0.733040,0.446581,-0.676588,-0.585486
0.807522,-0.167775,0.556688,0.225203,0.388906,0.893328
-0.445443,-0.469258,0.437025,-0.485823,-0.126600,0.864840
0.185270,0.358708,0.339897,-0.607312,0.763655,0.219097
-0.519083,-0.710761,0.759431,0.770531,0.506638,0.386781
-0.031869,-0.392778,0.858655,-0.329081,0.875399,0.354094
0.641879,-0.036642,0.647296,-0.077157,-0.837718,-0.540625
0.479291,-0.335639,0.499897,-0.365891,0.899427,-0.239070
0.046090,0.306716,0.789651,0.767830,0.464476,-0.441248
0.506841,0.265016,0.558370,-0.012709,-0.894967,0.445951
0.315802,-0.938960,0.392005,0.723863,0.675994,-0.138036
0.572019,0.108508,-0.563829,0.804505,0.093423,-0.586553
-0.004868,-0.091474,0.205123,0.179396,-0.813039,0.553882
0.720738,-0.702067,0.516688,-0.604434,0.658615,0.448203
0.250624,-0.147013,0.837930,0.545325,-0.836121,-0.059351
-0.104795,-0.911456,0.567348,-0.586379,-0.809029,-0.040390
-0.685088,0.534558,0.643803,-0.313010,-0.560966,0.766382
-0.194095,0.160499,0.640854,0.647095,0.638964,0.415924
-0.614515,-0.451867,0.428926,0.137215,0.176212,0.974742
-0.454267,-0.180019,0.619922,-0.398937,0.210675,-0.892449
0.269350,-0.756190,0.711436,0.393836,0.837379,-0.379063
0.274394,-0.142933,0.633946,0.561043,0.194401,0.804636
-0.180951,0.258629,0.798292,-0.414137,0.020849,-0.909976
-0.598844,0.718394,0.783571,-0.359950,0.013349,-0.932876
0.501973,-0.329074,0.848771,0.954511,-0.298089,-0.007130
-0.470828,0.651497,0.128693,-0.722281,-0.068452,0.688204
0.378639,-0.540590,0.800259,0.314800,-0.909227,0.272410
0.146741,-0.484339,0.707038,-0.073875,-0.462867,0.883344
-0.138103,0.316477,0.005330,0.930252,0.308914,0.197998
0.045375,0.390472,0.538784,-0.595115,0.640735,0.485075
-0.254591,-0.573241,0.476843,-0.656466,-0.741746,-0.137349
-0.888546,-0.095200,0.469573,0.983814,0.009810,-0.178925
0.016748,-0.520540,-0.222044,0.248346,-0.955598,-0.158610
0.779971,-0.350724,0.495162,-0.433251,-0.633122,0.641444
0.413574,-0.295182,0.819146,-0.971886,0.217847,0.089329
-0.385133,0.121285,-0.162380,0.256245,0.187408,0.948270
-0.812202,-0.219236,0.471643,-0.276517,0.278335,-0.919820
0.175907,-0.325702,0.767063,0.930486,-0.294981,0.217213
0.018187,0.367402,0.785873,0.152338,0.967510,0.201785
0.845874,-0.230413,0.619793,-0.757883,-0.615908,0.215108
0.196435,-0.474048,-0.884450,0.966896,-0.121086,0.224612
-0.036727,0.312927,0.767038,-0.486229,0.263544,0.833142
0.915009,-0.335285,0.660052,0.923196,0.245232,0.295924
-0.110191,-0.535976,0.559224,0.904609,-0.081458,0.418386
-0.146203,-0.822198,0.445925,-0.764674,0.341734,-0.546343
-0.070585,-0.581581,0.544580,0.765958,0.046912,0.641177
0.438959,0.112767,0.749754,0.474158,0.599394,-0.644904
0.516017,0.157307,-0.535783,0.992845,0.109904,0.046687
-0.326967,-0.247980,0.731591,-0.807086,0.516396,0.286265
0.520160,0.405910,-0.394230,0.931457,-0.358467,-0.062358
-0.243613,0.583178,0.471746,0.807163,0.394591,-0.439074
0.264668,-0.087036,-0.733066,-0.618322,0.750028,0.234811
-0.309329,-0.199538,0.671902,0.822079,-0.518053,-0.236235
0.256207,-0.004525,-0.190815,0.815275,0.578990,0.009850
0.531325,0.347528,0.531850,0.313040,-0.817757,-0.482990
-0.220743,-0.275484,0.533661,0.868844,0.447668,-0.211432
0.310043,-0.402715,0.816533,-0.125249,-0.094844,0.987581
0.543568,-0.908437,0.572419,0.615762,-0.669312,0.415763
0.047716,-0.234496,0.827270,-0.524719,0.705665,-0.476137
0.024847,0.592051,0.706908,0.861598,-0.246778,-0.443565
-0.651065,-0.373613,0.690220,-0.376439,-0.611424,-0.696028
-0.418794,-0.548753,0.731410,0.079906,0.381026,0.921105
0.022869,-0.416202,0.725614,0.938990,-0.204525,-0.276526
0.203271,-0.338125,0.811255,-0.586542,-0.659087,0.470715
0.276735,-0.852010,0.756869,0.980218,-0.003621,-0.197887
-0.132521,0.340432,-0.929987,-0.281942,0.364602,-0.887454
0.518182,-0.462868,0.149444,0.859251,0.492948,0.136714
-0.294922,0.033271,0.795369,0.842537,-0.202844,0.498985
-0.604426,-0.624524,0.762510,0.892684,-0.435899,-0.114489
0.135400,-0.312216,0.706184,0.965817,-0.086184,0.244479
-0.256030,-0.234851,0.520569,0.710603,-0.281196,-0.644959
-0.148719,-0.668352,0.168823,-0.453581,0.132959,0.881241
-0.078684,-0.698341,0.415446,0.972683,-0.051290,-0.226401
-0.291317,-0.219767,0.562303,-0.654278,0.755439,-0.035109
0.884579,-0.403779,0.636248,0.994120,0.105784,-0.023147
-0.052222,-0.508651,0.704580,-0.715180,0.632432,0.297568
0.016561,0.094669,0.022096,0.951133,0.308575,0.011318
-0.011165,0.786889,0.493583,0.923451,-0.047754,0.380733
-0.313285,0.359242,0.827943,0.691883,-0.451979,0.563039
0.211018,-0.459142,0.807969,-0.510317,0.650729,0.562252
-0.524665,-0.638186,0.406520,-0.037958,0.882932,-0.467964
0.048617,-0.299972,0.807736,-0.100037,0.981970,-0.160400
-0.101014,0.454176,0.474489,0.625668,0.248059,-0.739599
-0.081200,-0.056161,0.812238,-0.556918,0.295467,-0.776236
0.391244,-0.760091,0.773169,-0.079560,0.802237,0.591681
-0.886744,0.403958,0.481190,0.824013,-0.559905,0.086655
