-0.021626,0.209276,0.929862,0.926802,-0.254565,0.276105
0.162840,-0.257538,0.236491,0.253424,-0.104512,-0.961693
0.348024,-0.061588,0.412032,-0.342503,-0.250862,0.905406
0.001482,0.031743,-0.325975,-0.021475,0.985311,0.169414
-0.211924,0.013335,0.123234,-0.302407,-0.952902,-0.022981
-0.152102,0.291885,-0.989993,0.077997,0.206659,0.975299
0.551715,0.331160,0.691825,-0.644158,-0.729324,0.230537
0.096681,-0.059704,0.729001,-0.634155,-0.660171,0.402520
0.223273,-0.045648,0.239311,-0.138245,-0.983183,-0.119332
-0.397516,0.236963,0.451847,0.956295,-0.068586,0.284247
-0.091570,-0.729853,0.421432,0.533846,0.648641,0.542469
-0.114987,0.007108,-0.046152,-0.387950,-0.833914,0.392533
-0.484636,0.042756,0.311177,-0.571325,-0.817279,0.075119
-0.377881,0.501599,0.497362,0.610746,0.781417,0.127969
0.191880,0.045224,0.410213,0.079334,-0.766556,0.637259
-0.315199,0.406092,0.323276,0.271496,0.849351,0.452650
-0.065903,0.066090,0.859027,-0.357410,0.802618,0.477559
-0.260801,-0.025648,0.802353,-0.712713,0.660225,-0.236946
-0.445778,0.114352,0.429741,0.134807,-0.963663,0.230609
-0.334833,0.284641,0.110771,0.173312,0.909770,0.377202
-0.417965,-0.447534,0.506065,0.308123,0.420374,0.853432
-0.085229,0.265074,0.825944,-0.630008,0.334382,-0.700913
0.188916,0.230001,-0.956092,-0.093507,0.249300,0.963901
0.004959,0.328117,0.826824,0.112535,0.441689,0.890083
0.153432,-0.098112,-0.955122,-0.009923,-0.011919,0.999880
-0.454266,0.583625,0.521044,0.388594,-0.312085,0.866947
-0.045554,-0.344924,0.610983,0.680895,0.394754,0.616888
0.254666,-0.435796,-0.179605,0.328500,-0.351022,-0.876853
-0.030319,0.242756,0.941112,0.388747,0.700036,0.599020
-0.696098,0.257829,0.212232,0.795937,0.599702,-0.082720
-0.546501,0.152610,0.683577,-0.594046,-0.781035,-0.192597
-0.781788,0.077254,0.403269,0.750028,0.541008,0.380485
0.260698,-0.093185,0.664807,0.513111,0.343940,-0.786399
-0.408148,-0.607101,0.086118,0.246077,0.818289,0.519470
-0.030114,0.464058,0.536479,0.303501,-0.785192,-0.539778
-0.027864,0.472903,0.652223,0.111629,0.084225,0.990174
-0.154864,-0.011301,-0.050427,-0.230747,-0.919797,0.317380
-0.574620,0.262465,0.314846,0.975172,-0.206323,0.080444
-0.156090,0.323049,0.643762,0.933088,-0.085876,-0.349245
0.079709,-0.416954,0.688671,0.101030,0.901654,0.420491
-0.158749,-0.040863,0.476317,-0.332180,0.805012,0.491540
-0.509279,0.475655,0.232003,0.898113,0.003395,-0.439752
0.021423,-0.130000,0.236248,0.570183,0.306581,-0.762167
-0.090649,0.037829,0.687549,0.939887,0.314501,-0.133048
0.402627,0.253920,0.228304,-0.313219,-0.118037,0.942317
0.293111,0.060438,0.219904,-0.311446,0.734492,-0.602929
-0.229511,0.246666,0.779004,0.787772,-0.556073,-0.264951
-0.242496,0.125657,0.636303,0.843371,-0.516893,-0.146787
-0.167134,0.082031,-0.102250,0.088471,-0.499438,0.861821
-0.018458,-0.707968,0.106040,-0.203294,-0.239164,0.949459
-0.103737,0.367826,0.538510,-0.759288,0.391058,0.520149
-0.206912,-0.363181,0.392747,0.429976,-0.902511,0.024370
-0.311825,0.443916,0.481776,0.425128,-0.675278,0.602715
0.220103,-0.137095,-0.041482,-0.152980,-0.368291,0.917038
-0.405798,0.237688,0.544605,0.623821,0.763354,0.167742
-0.755407,0.414495,0.274880,-0.544640,-0.664395,0.511807
-0.252825,0.196237,0.538662,-0.225228,0.861395,0.455270
0.029399,-0.480864,0.158681,-0.768314,0.596285,0.232674
-0.049951,0.651020,0.705895,-0.134211,-0.638575,0.757766
-0.167443,-0.226808,-0.085481,-0.522969,0.270317,-0.808352
-0.116622,-0.128984,0.140305,0.891234,0.420980,0.168753
0.503347,0.463191,0.533537,0.021133,-0.999776,0.000740
-0.161308,-0.369126,0.376948,0.978073,0.176947,0.109831
0.544557,0.078120,0.359724,-0.335406,0.807177,-0.485766
-0.264686,0.211451,0.406453,-0.814549,0.531316,0.232839
-0.089626,0.461307,0.402784,0.129641,-0.932055,0.338330
-0.270718,-0.315212,0.452271,0.116915,-0.942380,-0.313450
-0.110689,-0.382748,-0.107617,0.607243,0.486733,0.627970
0.676566,-0.081305,0.064983,0.231548,0.130199,0.964072
-0.466743,0.157829,0.666080,0.606622,-0.762909,-0.223561
-0.272356,-0.734639,0.123385,0.181908,-0.576431,0.796641
0.098419,-0.023331,0.789708,0.813368,-0.263884,-0.518457
0.189019,0.031451,0.855813,-0.627278,-0.571345,0.529233
0.077253,-0.557972,-0.259597,-0.069158,-0.950586,0.302662
-0.294544,-0.384783,-0.058221,-0.284975,0.807869,0.515885
0.798761,-0.316521,-0.071472,0.660957,-0.586650,0.467951
-0.469298,0.164207,0.402844,0.950051,0.147766,-0.274897
-0.161408,-0.037386,0.704591,0.586799,-0.491041,0.643852
-0.165805,0.278263,-0.983019,-0.005811,0.136896,0.990568
0.014879,0.597972,0.231912,0.399943,0.885987,-0.234675
0.007720,0.297688,0.920068,0.715169,0.587170,-0.379164
0.006697,-0.767385,0.261538,0.001539,0.735359,0.677676
-0.563271,0.182031,0.309934,0.941698,-0.334678,-0.034568
-0.149956,0.577247,0.522045,-0.650944,-0.694021,0.307581
-0.306714,0.384057,0.502304,0.827104,0.548213,-0.123944
0.110281,0.289710,0.666353,0.744231,-0.255899,0.616958
-0.016923,-0.147391,-0.003912,-0.455240,-0.830559,-0.320823
-0.023775,0.513478,0.759809,0.294589,0.775859,0.557906
-0.255587,0.242323,-0.978440,0.126052,-0.127091,-0.983849
0.652129,-0.388693,-0.079022,0.112302,0.184685,-0.976361
0.005879,0.394637,0.748105,0.806326,-0.313807,-0.501362
-0.334016,-0.206374,0.340318,0.002623,-0.030806,0.999522
-0.094328,0.359714,0.656801,0.125066,-0.178184,0.976017
0.022855,0.455513,0.740918,-0.798251,0.598695,0.066030
0.486477,0.232177,0.749196,0.688253,-0.376712,-0.619996
-0.250472,0.204782,-0.452241,0.325881,0.942132,0.078668
-0.481671,0.819424,0.528868,-0.318037,-0.778475,-0.541136
-0.010073,0.314928,0.760386,-0.476476,0.746141,0.465021
-0.568383,0.368409,0.225848,-0.091729,0.860866,-0.500496
-0.144638,-0.330143,0.379040,0.975487,-0.214704,0.048247
0.484330,0.145224,0.736976,0.742800,-0.247105,-0.622244
-0.218365,-0.006232,0.768755,-0.000246,0.941227,0.337775
-0.943861,0.515513,0.293620,0.212000,-0.494609,0.842863
-0.426453,0.200580,0.243951,0.959281,-0.188940,-0.209956
0.135642,-0.252027,0.225756,-0.144773,-0.008342,0.989430
0.665319,0.465800,0.242586,-0.302667,0.460465,0.834485
-0.204662,0.633338,0.687670,0.437825,0.806638,-0.397044
0.018967,0.848553,0.772909,0.605765,0.794080,0.049853
0.119892,-0.022463,-0.006429,-0.239084,0.924933,-0.295530
-0.091773,0.215945,-0.318455,0.859962,0.237768,-0.451589
-0.106293,-0.521298,0.089484,0.924044,-0.290310,-0.248723
-0.046680,-0.389277,0.213779,-0.206620,-0.171567,0.963262
-0.360806,0.705509,0.638274,0.978743,0.023890,-0.203695
-0.297611,-0.462607,0.599491,0.736199,0.565081,0.372417
0.521755,-0.097970,-0.011584,0.496995,0.867041,-0.035152
-0.257734,0.051601,-0.490600,0.565793,0.824547,-0.001241
-0.236975,-0.020429,0.211565,0.415458,0.562603,0.714754
-0.562145,0.740008,0.554400,0.634574,-0.402531,0.659761
0.614704,-0.103472,0.225999,-0.274631,0.680124,0.679713
-0.030831,-0.354053,0.308691,-0.606453,-0.637290,-0.475474
-0.634644,0.172177,0.288374,0.969125,0.023802,0.245418
-0.146479,0.517972,0.749803,-0.021383,0.242620,0.969886
-0.180837,0.550728,0.598945,-0.607872,0.559276,0.563651
0.227876,0.313770,0.739948,-0.550006,0.828349,0.106448
0.252619,-0.036519,0.102735,-0.000174,0.985957,0.167000
-0.406718,0.301890,0.586512,-0.611964,0.351393,-0.708536
0.223476,-0.220864,0.489539,-0.062195,0.700813,0.710628
-0.177157,0.270001,0.682516,0.185881,0.756799,0.626661
-0.193924,0.054202,0.613833,-0.254791,0.878719,-0.403651
0.382076,0.229426,0.593123,0.668704,-0.614471,-0.418642
0.124598,-0.034344,0.822397,0.876870,-0.375295,-0.300421
0.254972,-0.084056,0.816423,-0.408221,0.907900,0.095255
-0.182984,0.346233,0.790921,0.249896,-0.965617,-0.071660
0.039625,0.489569,0.734126,0.987825,-0.060769,0.143208
0.365305,0.241739,0.383195,0.322516,0.301925,0.897120
0.089014,0.372036,0.592243,-0.612652,0.521456,0.593920
0.852241,-0.121880,0.018042,0.838857,-0.369669,0.399579
-0.091364,0.071018,-0.573413,0.206854,0.976939,-0.052923
0.043101,0.348268,0.725514,0.702877,-0.636051,0.318438
0.151693,-0.007966,-0.564255,0.103752,-0.431238,0.896253
0.136050,0.144498,0.805021,-0.496778,0.685027,-0.532869
-0.194845,-0.759273,0.417854,0.265503,-0.677982,-0.685455
-0.002915,0.331311,0.931318,0.848398,0.488340,-0.204316
0.469810,0.148992,0.748984,0.605600,-0.322030,-0.727699
-0.120813,-0.880141,0.112560,-0.148521,-0.275936,0.949632
-0.077562,0.232035,0.661714,0.588864,0.350959,0.728057
-0.059054,0.682175,0.260719,-0.356729,-0.885316,0.298262
-0.108646,0.357538,0.922433,0.160657,-0.979630,0.120479
-0.214071,0.165507,-0.983565,-0.112772,-0.000086,0.993621
-0.104451,0.087975,-0.557159,0.155178,0.981797,0.109522
-0.288920,0.237688,0.641185,-0.050618,-0.933877,0.353995
0.202515,0.182898,0.472497,0.798446,-0.562997,-0.213349
-0.051486,0.239855,0.783583,-0.260407,-0.757350,0.598840
0.692518,0.125799,-0.208230,-0.301632,0.645700,0.701491
-0.096478,-0.142747,0.561647,0.726356,0.144269,-0.672007
0.846412,-0.317246,0.046789,0.710212,0.695814,0.106971
-0.332786,0.251594,-0.157893,-0.151190,0.937387,0.313762
-0.406718,0.211602,0.629086,0.248783,-0.753933,0.608023
-0.358250,0.526092,0.217660,0.890732,-0.303820,0.338068
-0.341580,0.121022,0.427224,0.355127,0.612996,0.705776
0.811440,-0.274928,-0.078416,0.125014,-0.590200,0.797518
-0.099546,0.370586,0.921705,-0.245283,0.961774,-0.121767
0.529934,0.149859,0.308236,0.937858,-0.015570,0.346669
-0.210491,-0.783334,0.098550,0.046457,0.277985,0.959461
-0.336774,-0.112610,0.461095,0.998638,-0.016702,-0.049438
0.398437,0.152177,0.714234,0.735589,0.279463,-0.617097
-0.695280,0.389568,0.224149,0.650789,0.565794,0.506311
-0.457231,-0.913330,0.165171,0.781976,0.547676,0.297597
-0.002300,-0.593187,0.365850,-0.220484,-0.503507,-0.835385
0.022137,0.045224,0.784038,-0.578753,0.763147,0.287491
0.025105,0.660441,0.727788,-0.114381,0.905725,0.408140
0.180734,-0.221306,0.491418,0.290079,0.080064,0.953648
-0.310087,0.885802,0.482109,0.795178,-0.033982,0.605423
-0.023058,0.081455,0.796076,0.226549,0.929945,-0.289616
0.283194,0.199130,0.400600,0.434773,-0.335635,0.835656
0.410195,0.229567,0.662108,-0.743104,0.482217,-0.463964
-0.475636,-0.220864,0.489933,-0.185614,-0.386015,-0.903626
-0.434429,0.013485,0.428619,-0.595912,0.217300,0.773091
0.402833,0.433337,0.672388,0.959141,-0.273386,0.072855
-0.039931,-0.770720,0.093699,-0.157000,0.075273,0.984726
0.720129,-0.090575,0.072260,0.244288,0.565648,0.787633
0.480954,-0.066957,0.223452,-0.147644,-0.474056,0.868028
0.369088,-0.044348,0.124204,-0.794733,-0.603969,-0.060174
0.755407,-0.088691,0.057372,0.505600,0.412722,0.757647
0.078685,0.403191,0.905664,0.581968,0.315551,-0.749494
-0.129606,0.436380,0.887895,0.210630,0.976001,-0.055285
-0.039931,0.418122,0.549093,-0.529920,0.756128,0.383999
-0.500997,0.567251,0.234732,0.816230,-0.371889,-0.442118
0.090649,0.737832,0.433440,-0.692179,0.037685,-0.720741
-0.338412,-0.373045,0.473376,0.296156,0.937063,0.184944
-0.085332,0.163623,0.623355,-0.233023,0.953519,0.191054
-0.489953,0.684784,0.526260,0.078140,-0.898152,0.432686
-0.425838,0.604934,0.050882,-0.343782,0.411999,0.843843
0.030319,0.767394,0.773091,0.574466,0.810445,-0.114749
-0.330639,-0.070867,0.609376,0.678334,-0.231767,0.697243
-0.457231,0.221456,0.264267,-0.637185,-0.307023,-0.706917
0.208956,-0.183331,0.169204,0.703461,-0.336766,0.625885
-0.098725,-0.945502,0.096580,-0.272393,-0.888160,0.370100
0.010585,-0.097245,0.372794,-0.626238,0.738718,-0.249242
-0.536887,-0.242748,-0.123507,0.164597,0.563673,-0.809432
-0.344548,0.072760,0.606525,-0.374698,0.927018,-0.015471
0.267242,-0.140138,0.146006,0.881897,-0.263735,0.390771
0.178075,-0.183906,-0.085997,0.548002,0.833614,0.069150
-0.119586,-0.736664,0.278671,0.981752,-0.050502,0.183335
-0.306099,-0.199855,0.488811,-0.190026,-0.972643,0.133622
0.097705,0.280731,0.805143,0.045168,-0.958839,0.280335
0.528093,-0.283181,0.061192,-0.668614,0.091792,0.737922
-0.822995,0.381165,0.223755,-0.212993,0.954120,0.210449
-0.497009,0.593196,0.491479,0.301480,0.860352,0.410979
0.267242,0.305658,0.512069,-0.317984,0.884803,0.340603
0.019581,0.042464,0.414337,0.187022,-0.868270,-0.459490
-0.117336,0.347392,0.776396,-0.243717,0.893084,0.378158
-0.192495,-0.549994,0.628146,-0.743928,0.094256,-0.661579
-0.049339,0.201305,0.960580,0.151089,-0.978307,0.141733
-0.171328,0.293044,0.670568,0.758528,0.488504,0.431276
-0.302008,0.259130,0.567985,0.329907,-0.842540,-0.425780
-0.284218,-0.229709,0.396203,-0.474374,-0.449933,-0.756657
-0.223067,0.532612,-0.993420,0.103886,-0.107351,-0.988779
0.200983,-0.012892,0.786888,0.439245,0.576982,0.688590
-0.297611,0.459573,0.608072,0.510035,-0.823270,-0.249182
0.255892,0.264641,0.402875,0.841502,-0.100468,0.530830
0.841094,-0.358255,-0.078082,0.320303,0.369197,-0.872410
-0.418580,0.273195,0.129389,0.429307,0.850612,0.303570
0.453858,-0.124631,0.200194,-0.255244,-0.889218,0.379661
0.486886,0.139421,0.275578,0.659001,0.553533,-0.509234
0.273274,-0.064631,-0.060859,-0.620617,0.414084,-0.665860
0.679225,-0.123764,0.078295,0.075868,-0.242986,0.967058
-0.193721,0.502616,0.714143,-0.119909,0.991876,-0.042471
0.126336,0.124932,0.639669,-0.615056,0.537215,0.577153
0.607137,-0.261014,0.042119,0.732052,-0.681010,0.018034
-0.026843,-0.042747,0.577931,0.200028,-0.407882,0.890854
0.414183,0.022322,0.381618,0.924112,-0.159408,-0.347283
-0.543842,0.799858,0.545030,0.837600,-0.517610,0.174661
-0.003118,-0.514346,-0.274062,0.341589,0.811117,0.474769
0.092387,0.099138,0.848839,0.991309,-0.037115,0.126208
0.672272,-0.281881,-0.055552,-0.445181,-0.372849,0.814124
-0.261313,-0.258980,0.468646,-0.660774,0.747817,0.064398
-0.381461,0.743917,0.215143,0.137832,-0.125086,0.982525
-0.102511,0.636672,0.607405,0.551338,0.787803,0.274579
-0.449461,0.560149,0.478804,-0.573829,-0.001780,-0.818973
-0.277774,-0.036661,0.442932,0.256003,-0.285690,-0.923495
-0.045248,-0.740724,0.107465,0.033647,-0.053082,0.998023
0.642621,-0.126082,0.245497,0.793150,0.331141,-0.511134
-0.050974,0.036811,-0.915610,0.819706,-0.407098,-0.402931
0.126439,-0.024490,-0.135545,0.123958,-0.927789,0.351912
-0.441791,0.043339,0.626630,0.954860,0.193160,0.225679
0.506314,-0.008116,0.235733,-0.203811,-0.443058,0.873018
-0.339742,0.145507,0.472800,0.578946,0.375939,-0.723527
-0.055166,-0.565358,0.372036,-0.325326,-0.494968,-0.805711
0.545374,-0.362315,-0.090424,0.152695,-0.699234,0.698395
0.312849,0.026957,0.235733,-0.241237,0.955948,-0.167234
-0.413977,0.384933,0.337043,-0.122961,0.837412,0.532562
0.177360,0.049275,0.725908,-0.076070,-0.970808,0.227474
-0.602843,0.340147,0.242707,0.044940,0.870976,0.489265
-0.448540,-0.118112,0.639790,0.868071,-0.060382,0.492754
0.137685,-0.223623,-0.951119,-0.015363,0.050073,0.998627
-0.086355,0.406667,0.726909,-0.457542,-0.616038,0.641212
0.793444,-0.095211,0.071775,0.319545,0.506514,0.800833
0.005982,-0.414779,-0.951816,-0.059591,0.001495,0.998222
-0.530343,0.050433,0.676208,0.724141,-0.314279,0.613880
0.014982,0.380873,0.741252,0.926971,0.120187,0.355358
-0.057724,0.097104,-0.575232,0.925154,0.366421,-0.099123
-0.340254,-0.162606,0.490600,-0.336178,-0.072845,0.938977
0.438620,-0.145941,0.183425,-0.408138,-0.912905,-0.005287
0.032058,-0.006807,0.798229,0.317273,0.885348,0.339848
-0.087479,0.883193,0.743496,0.754283,-0.334143,0.565160
0.703153,-0.371877,-0.087392,-0.302572,0.292841,-0.907025
-0.189427,0.549135,0.466766,-0.653678,-0.631584,-0.416901
0.699574,-0.002313,0.301474,-0.261453,0.217339,-0.940429
0.080629,0.304641,0.679453,-0.722682,-0.049975,-0.689372
-0.297099,0.149134,0.636455,-0.000151,0.049069,0.998795
-0.009252,-0.349992,0.645097,-0.423106,0.571301,0.703275
-0.055371,0.092177,-0.440566,0.712903,0.660259,-0.236277
-0.440358,-0.231735,0.498969,-0.058725,-0.212315,0.975435
0.013958,0.245366,0.974286,0.818044,-0.574345,0.030516
0.013343,0.617972,0.800928,-0.622489,0.539948,0.566537
0.512858,0.019279,0.158803,-0.812755,0.343960,-0.470235
-0.266936,0.519423,0.523834,-0.254005,0.808799,-0.530401
-0.218365,-0.533912,0.105798,-0.559744,0.624557,0.544625
0.064471,0.249134,0.781794,0.966399,-0.256618,-0.014817
-0.568894,0.334645,-0.068045,-0.064327,-0.886465,0.458304
-0.224194,-0.642749,0.127873,0.306099,-0.005430,0.951984
-0.156908,0.657681,-0.477985,0.483694,0.563479,0.669725
0.428600,0.054061,0.350294,0.093657,0.870252,0.483622
-0.234111,-0.357529,0.585663,0.300620,0.588912,0.750206
-0.366326,0.736673,0.665716,0.897127,-0.190581,-0.398551
-0.410092,0.597397,0.516405,0.368343,-0.029172,0.929232
0.251190,0.430586,0.365395,-0.394133,-0.919012,0.008781
-0.609693,0.381165,0.445327,0.787213,0.616657,-0.005366
-0.063550,0.060579,0.866183,-0.473416,0.852639,-0.221099
0.021934,0.480007,0.311389,-0.208227,-0.833632,-0.511565
0.638732,-0.158696,0.289951,0.164416,0.001450,0.986390
-0.235134,0.671595,0.551398,0.604150,0.741109,0.292849
0.422977,0.435805,0.487507,-0.542872,0.839683,-0.014909
-0.337083,0.067541,0.446995,-0.495918,-0.207288,0.843266
-0.309472,-0.144631,0.682364,0.288196,0.890683,0.351608
-0.196074,0.643192,0.700315,-0.117447,-0.757874,0.641742
-0.699883,0.493478,0.074868,0.582539,0.350972,0.733121
0.317654,0.023189,0.667172,0.325172,-0.731347,-0.599495
0.035125,0.565217,0.457093,0.966670,0.073846,0.245143
-0.454469,-0.027966,0.347141,-0.354024,0.263455,0.897362
0.639550,-0.311010,-0.086088,0.518856,0.646577,0.559220
-0.169181,-0.580573,0.106556,0.156728,-0.386367,0.908932
0.557545,0.041738,0.325429,0.694343,0.070985,0.716135
-0.117951,0.388701,0.916095,0.038241,-0.979506,-0.197752
-0.145150,0.713196,0.511796,0.164775,0.928864,0.331754
-0.680145,0.200580,0.308418,0.795519,0.183590,-0.577447
0.369802,0.305074,0.643035,0.898048,-0.328599,0.292460
-0.109463,0.049717,0.562163,-0.385374,-0.372945,0.844037
0.598240,-0.118254,0.070502,-0.200127,0.400254,-0.894285
0.465922,0.279855,0.635909,0.402895,0.884424,0.235521
0.129404,0.406092,0.716326,-0.314373,-0.148188,0.937662
-0.375326,0.299572,-0.018649,0.497941,0.042575,0.866165
-0.108031,-0.318113,-0.956638,-0.138530,0.226328,0.964150
0.475945,-0.148550,0.230790,0.121217,0.032155,0.992105
-0.365917,0.464058,0.618746,-0.515170,0.857087,0.001127
0.660717,-0.210143,-0.048062,0.295431,0.208534,-0.932327
-0.182372,0.147833,-0.467524,-0.045509,-0.345534,0.937302
0.247302,0.266958,0.678210,-0.399709,-0.870068,0.288470
0.136356,0.251018,0.830311,0.652976,0.523394,-0.547432
-0.434532,0.235078,0.637789,0.796841,-0.029488,0.603469
-0.035840,-0.700291,0.287343,0.605330,-0.763903,0.223669
-0.537910,0.702900,0.225938,-0.689279,0.710307,-0.142681
-0.111610,0.387543,0.617624,0.357755,0.580919,-0.731125
0.048519,0.490153,0.712718,0.704080,-0.699096,0.124644
0.456413,-0.223039,0.034023,0.822887,0.392050,-0.411283
0.282273,-0.278254,-0.175056,-0.344701,-0.190719,0.919134
0.352933,0.077687,0.625963,-0.652933,0.674907,0.343772
-0.648550,-0.002897,0.513524,0.897575,-0.372701,0.235484
0.475945,0.265950,0.681545,0.667601,0.556840,-0.494205
0.631780,-0.096520,0.075262,0.116437,-0.043950,0.992225
-0.000871,0.089567,0.893383,0.904037,-0.005265,-0.427422
0.112122,-0.299130,0.463612,-0.131194,0.609347,0.781975
-0.317449,-0.021305,0.637971,0.094573,-0.965618,0.242152
0.748963,-0.341590,0.033598,-0.326528,0.945091,0.013519
-0.514699,0.192035,0.193705,0.281175,0.955784,-0.086125
0.301190,-0.379564,-0.172084,0.495114,-0.257336,-0.829843
-0.131142,0.610728,0.583813,-0.195116,0.976930,-0.086823
-0.282579,0.698698,0.440839,0.856330,-0.405771,-0.319451
-0.243314,0.811304,0.649918,-0.202797,0.004555,0.979210
0.249552,-0.097386,0.174268,-0.397827,0.472930,-0.786175
0.655196,-0.091734,0.068955,0.120311,0.124324,0.984921
-0.137483,-0.282314,-0.134362,0.943379,0.085166,0.320598
-0.045451,0.520582,0.536418,0.691613,0.689061,-0.216485
-0.207118,0.587252,-0.990297,-0.088085,0.136916,0.986659
-0.048519,-0.291594,0.511917,-0.088068,0.914108,0.395791
0.740681,0.141164,0.295409,-0.314806,0.000928,-0.949155
0.025922,-0.414053,0.678149,-0.069237,-0.931256,-0.357728
-0.492815,0.218555,0.642853,0.307759,0.600360,0.738141
-0.910016,0.611454,0.320759,0.026712,-0.844121,0.535487
-0.248734,-0.289417,0.485354,0.146482,0.158779,0.976387
-0.496191,-0.094202,0.348839,0.774139,0.615514,-0.147821
0.090443,0.126958,-0.960792,-0.183558,0.248001,0.951211
0.607342,-0.117537,0.293226,-0.706735,0.010256,0.707404
-0.811134,0.450869,0.279793,0.346404,0.523315,0.778553
0.507438,-0.371010,0.052338,0.098780,-0.809375,0.578926
-0.320416,0.313478,0.838711,-0.729178,-0.683628,-0.030851
-0.049645,0.294203,0.908211,0.906815,0.408331,0.104659
-0.422874,-0.560724,-0.237825,0.138098,0.543486,-0.827981
-0.240861,0.050292,0.182212,-0.099959,-0.994991,-0.001131
-0.218773,-0.446084,0.569076,0.872310,-0.163033,0.460972
0.418171,-0.092168,0.168900,0.261733,0.952527,-0.155525
-0.237793,0.402173,0.460853,-0.496288,-0.650621,0.574796
-0.215400,-0.388693,0.187701,-0.028803,-0.848001,0.529211
0.127257,-0.020862,0.102705,-0.313177,0.949226,0.029829
0.043101,0.301165,0.894141,-0.473330,0.732697,-0.488993
0.051077,0.415079,0.785160,0.306742,0.948625,0.077589
0.361420,-0.045073,0.031961,-0.025736,-0.948008,-0.317203
0.295158,0.474496,0.301019,-0.200209,-0.932620,0.300227
0.158852,0.087833,0.647947,0.142331,-0.341244,-0.929136
-0.203948,-0.193477,0.549457,-0.195865,-0.629600,-0.751825
-0.066312,0.085507,0.692492,0.633227,0.138299,-0.761510
0.404060,0.376238,0.424465,0.799875,-0.564245,0.204517
0.395675,0.082031,0.727758,0.955422,0.073619,-0.285917
-0.591490,-0.403040,-0.143550,0.516461,0.140612,0.844687
0.535251,-0.299563,0.060070,0.624000,0.039613,-0.780420
0.314278,0.028841,0.633119,-0.403835,0.822438,0.400640
0.084923,0.273195,0.630451,-0.028078,-0.404271,0.914208
0.056804,0.320147,-0.973861,0.226582,-0.292972,-0.928885
-0.127051,-0.075210,0.678755,0.484176,-0.207003,-0.850131
0.130324,-0.775939,0.098338,-0.320326,-0.359430,-0.876471
0.786288,-0.235937,0.020286,0.622902,0.757177,-0.196661
0.047395,0.380006,0.821244,-0.766028,0.642075,0.030666
-0.576970,-0.016228,0.519589,0.945402,-0.320977,0.056467
-0.187690,0.601015,0.612287,-0.550880,-0.834279,0.022558
0.285647,-0.107533,0.773970,0.821535,-0.531898,-0.205339
0.788535,-0.277971,0.057280,0.164103,-0.313291,0.935371
0.224705,-0.169559,0.175056,-0.699342,0.368019,-0.612767
-0.371234,0.230151,0.604554,0.765492,0.368415,0.527534
0.395366,-0.113618,0.422069,-0.519063,0.504785,0.689757
-0.052201,-0.651303,0.306174,-0.490769,0.721409,-0.488584
0.513267,-0.311010,-0.066105,-0.415593,0.754136,-0.508489
0.096887,0.652179,0.758991,0.952449,-0.301075,0.046854
-0.237587,-0.077245,0.455364,-0.080493,-0.081940,-0.993381
0.046372,0.306817,0.931075,0.454898,-0.770461,-0.446608
-0.225829,0.255804,0.758415,0.820876,-0.271301,0.502551
0.745693,-0.323765,-0.037055,0.030193,-0.962516,0.269540
-0.001379,0.451886,0.653890,0.411624,0.247893,0.876992
-0.143515,-0.117537,0.698405,0.723584,-0.334407,0.603820
0.102713,-0.055502,0.404512,0.547471,-0.772639,0.321410
-0.130324,0.523775,0.441779,0.223926,0.830213,-0.510493
-0.227873,-0.285649,-0.092183,-0.327937,0.340849,0.881067
-0.029602,-0.693188,0.257020,-0.015907,0.572956,0.819432
-0.697733,0.371744,-0.071624,-0.134018,0.070115,0.988495
-0.344956,-0.822609,0.150282,0.528703,0.040842,0.847824
0.062630,-0.276812,0.625659,0.765673,-0.293079,0.572581
-0.364691,-0.443624,0.504336,0.262226,0.409473,0.873825
0.105884,-0.404633,0.267269,0.946764,0.017771,0.321439
0.786797,-0.100288,0.289587,-0.101918,0.286761,0.952565
0.061915,-0.351443,-0.951028,-0.204857,-0.085216,0.975075
-0.032466,0.322465,0.912912,0.860506,0.486299,-0.151799
-0.117439,0.205949,0.819364,-0.012652,0.984722,0.173674
-0.184622,0.066090,-0.771302,0.809384,-0.587028,-0.017183
-0.254257,0.339281,0.551671,-0.755783,-0.145755,-0.638395
-0.421545,0.645368,0.516526,0.522799,0.133296,0.841970
-0.244134,0.476238,-0.989296,0.249281,-0.099484,-0.963308
0.176543,0.085657,0.550306,0.424541,-0.693137,0.582517
-0.402322,0.324933,0.077749,0.264742,0.567734,0.779480
-0.194233,0.632612,0.542635,-0.654358,-0.711835,-0.255159
0.092899,-0.409993,-0.933016,-0.308641,0.263652,0.913908
-0.419909,0.076086,0.632876,0.890599,-0.424931,0.162071
0.360806,0.021022,0.023895,-0.351704,0.933557,-0.069112
0.191166,0.023772,0.746134,-0.045770,0.623897,0.780165
-0.260904,-0.448259,0.180818,0.899133,0.411072,0.150265
-0.156705,-0.079271,0.665898,-0.014828,-0.118487,0.992845
0.385143,0.190293,0.717296,-0.106809,0.971717,0.210613
-0.355183,0.667102,0.503578,0.876562,-0.247732,0.412636
-0.060380,0.263340,0.779307,0.122174,0.992415,0.013655
0.849582,-0.239271,0.000243,-0.313032,0.351341,0.882366
-0.420521,-0.245357,0.359846,-0.403748,-0.914438,0.028112
0.497009,-0.186516,-0.001577,0.645221,0.421554,0.637167
0.124801,-0.331302,0.576596,0.570599,-0.722494,-0.390408
-0.050669,0.405942,0.722906,0.236189,0.789842,-0.566008
0.103125,-0.520431,-0.234277,0.024949,0.495928,-0.868005
0.045657,0.385366,0.866547,0.084850,0.995116,0.050446
-0.223476,0.723334,0.664322,-0.431194,0.276784,0.858756
0.297817,0.136529,0.680029,0.314485,0.518288,0.795284
-0.003221,0.076378,-0.216387,-0.192719,0.977473,0.086060
0.834757,-0.118979,0.022591,0.798432,-0.455427,0.393818
-0.147706,0.363775,0.882043,-0.301160,-0.527124,0.794634
-0.507950,0.300581,-0.069622,0.050399,-0.423524,0.904482
-0.532799,-0.137245,0.475832,0.711902,0.365857,0.599453
0.058336,0.097687,0.561738,-0.377277,0.604119,-0.701928
-0.052407,-0.358255,0.223300,0.171476,-0.985179,0.004300
0.758475,-0.242748,-0.018740,0.666783,0.709058,-0.229428
-0.129915,0.820724,0.731942,0.609675,0.647257,-0.457552
-0.168975,-0.608110,0.361301,0.931840,-0.271529,-0.240719
0.168055,-0.263332,-0.058827,0.130966,0.342940,0.930183
0.189836,0.074352,0.259567,0.967544,0.182644,-0.174644
0.236361,-0.159563,-0.173146,0.423535,0.220734,0.878575
0.151797,0.101597,0.871763,-0.692857,-0.624498,0.360488
0.406410,-0.828694,-0.252593,-0.118278,-0.846088,0.519755
0.024490,-0.420431,-0.950846,0.197619,-0.247640,-0.948483
-0.126848,-0.233327,0.567863,-0.319494,0.767587,0.555638
-0.474001,-0.315362,-0.144217,-0.409662,0.606746,-0.681202
0.328289,0.217829,0.657772,-0.246451,0.958788,-0.141380
-0.245155,-0.250001,0.302687,0.810427,0.381196,-0.444858
-0.115495,0.314928,0.825702,-0.307253,0.614480,-0.726642
-0.226444,0.657973,0.613045,0.855692,0.398217,-0.330477
-0.223170,-0.347826,0.551428,-0.393296,-0.764202,0.511189
0.155070,0.040146,0.829947,0.939142,-0.257412,-0.227490
0.131653,-0.142606,0.432743,0.893572,0.344950,-0.287297
0.599057,-0.216087,0.240585,-0.506461,0.528663,0.681185
0.308246,0.144348,0.101007,0.309608,0.882532,0.353950
-0.162944,0.199714,-0.978592,-0.068441,0.060045,0.995847
0.297408,0.203189,0.680666,0.185702,0.212790,0.959289
-0.556009,-0.227966,-0.086027,-0.253945,0.950272,0.180266
-0.599058,-0.376088,-0.139335,0.429925,0.215377,0.876799
-0.240758,-0.026957,-0.039056,-0.515712,-0.855163,0.052318
0.153741,-0.047240,0.738462,-0.319169,-0.149718,0.935797
-0.303234,0.248701,-0.045849,-0.153381,-0.974845,-0.161715
-0.416945,-0.188833,0.335951,0.358070,-0.649787,-0.670494
-0.048419,0.311594,0.633998,0.905733,0.077841,-0.416639
-0.117848,-0.454204,0.213900,0.611545,0.169152,-0.772917
0.349250,0.026957,0.351932,-0.200205,0.921084,0.333950
0.005267,0.025799,-0.515829,0.259283,0.960025,-0.105470
-0.104146,0.174644,0.685002,0.868909,0.134664,0.476302
0.366635,0.263774,0.556462,0.878246,-0.467795,-0.099254
-0.781788,0.301890,0.100734,0.359723,-0.138654,0.922699
0.086252,0.062614,0.760568,-0.550780,0.637607,-0.538607
-0.385449,0.614354,0.029140,0.881602,0.344078,-0.323092
0.087376,-0.207966,-0.693068,0.645087,0.763972,-0.014482
-0.214173,0.902034,0.694948,0.944373,0.192432,-0.266700
-0.244337,0.693913,0.682000,0.993107,-0.077128,0.088257
0.094431,-0.133769,0.514131,0.762498,0.590764,0.263809
-0.239325,0.635363,0.609194,-0.132003,0.510965,0.849406
0.119074,-0.421015,0.519255,-0.203684,0.972854,-0.109853
0.379314,0.110000,0.671175,0.929196,0.074078,-0.362087
0.042180,0.095511,0.782916,0.919051,-0.364091,-0.150943
-0.090955,-0.405508,0.566287,0.609615,0.695414,-0.380485
-0.221126,-0.204057,0.546819,-0.766690,0.311312,0.561490
0.816451,-0.367967,-0.011917,0.907501,0.295641,-0.298393
-0.951837,0.660007,0.336285,0.493358,0.788848,-0.366493
-0.140856,-0.345216,0.580144,0.401513,0.748559,0.527680
-0.222967,-0.781883,0.403511,-0.559705,0.801641,0.210005
-0.003732,0.242181,0.932167,0.667185,0.743618,0.043562
-0.594764,0.433195,0.476863,-0.432235,-0.881571,0.189752
-0.144741,0.665368,0.675026,0.177766,0.812649,0.554978
0.433203,0.404057,0.423009,0.830230,-0.544686,0.118474
0.046474,-0.806226,0.106889,-0.090172,-0.187027,-0.978208
-0.457946,-0.057820,-0.136060,-0.687937,0.164206,0.706950
0.202412,0.236963,-0.965795,-0.097122,0.234355,0.967288
-0.063039,-0.073618,-0.942750,0.480337,0.306712,-0.821708
0.203539,0.194203,0.670113,0.122480,-0.823092,0.554543
-0.008335,0.045657,-0.529596,0.195213,0.970522,0.141350
0.309881,-0.033768,0.051398,0.188462,0.960137,0.206446
0.358556,0.279714,0.434684,-0.655078,0.624670,-0.425041
-0.460402,0.147833,0.246831,0.283406,-0.954301,-0.094817
-0.153126,-0.618114,-0.227364,-0.315127,0.070269,0.946445
0.137074,-0.023472,0.835041,-0.605889,0.574537,0.550277
0.367044,-0.153911,-0.054339,0.024333,-0.611321,0.791009
-0.281353,0.061889,0.633907,-0.088291,0.966950,0.239190
-0.103022,-0.045506,0.682333,0.965992,0.188397,-0.177102
0.305385,0.307250,0.491479,-0.005882,0.997536,0.069905
0.177769,-0.295795,0.498848,0.623607,0.218008,0.750724
0.071526,0.700875,0.241646,-0.567420,-0.819643,0.078866
-0.174190,0.777540,0.579174,-0.003965,0.964189,0.265186
-0.257016,-0.379272,-0.070198,-0.082151,0.631273,0.771198
-0.010788,-0.493187,0.360937,-0.314650,-0.489074,-0.813512
-0.594561,0.048559,0.327703,-0.279803,0.424851,0.860937
0.197404,-0.079704,0.792013,0.139745,0.054081,0.988710
-0.112225,0.257971,0.531688,0.922282,-0.180023,0.342035
0.144332,-0.228400,0.307083,-0.816294,0.373393,-0.440729
-0.237690,0.832180,0.675056,0.921244,0.293569,-0.255199
-0.036352,-0.380431,-0.207714,0.274651,-0.827944,0.488953
0.050157,0.158696,0.954576,-0.264909,-0.959005,0.100659
-0.675546,0.078988,0.393080,0.298817,0.282158,0.911644
-0.092081,0.112760,-0.519498,-0.486857,-0.736908,0.468973
0.028272,0.084065,0.375493,0.547790,0.664353,-0.508489
0.333298,0.223915,0.607647,-0.257442,0.965787,0.031272
-0.297099,-0.164923,-0.128540,0.712988,-0.432664,0.551770
0.480239,-0.287100,0.072564,0.131036,-0.300495,0.944739
-0.327163,-0.356229,0.488356,-0.583183,-0.551974,-0.596006
-0.061709,0.221164,0.845351,0.024568,0.978610,0.204253
-0.795082,0.220580,0.091273,-0.461082,0.434811,-0.773526
-0.138503,0.136529,0.680575,0.865228,0.477168,-0.153920
0.066518,-0.106807,0.559009,0.430011,0.592712,0.681017
-0.002609,0.217537,0.808933,0.256529,0.845674,0.468004
0.041463,0.581307,0.736673,0.932353,-0.358708,0.045234
0.623701,-0.159704,0.070016,0.236041,0.350783,-0.906221
-0.315916,-0.840574,0.137213,0.812921,0.582218,-0.013502
-0.445164,0.181598,0.623749,0.939886,0.283933,0.189729
-0.236770,0.236963,0.548487,0.600701,-0.467716,0.648383
0.233805,-0.338980,0.162745,-0.078373,0.260785,0.962210
0.367964,0.392319,0.463278,-0.580975,0.794468,0.176885
0.198424,-0.039562,0.474862,0.878254,0.189547,-0.439024
0.817578,-0.215211,-0.003032,-0.468513,0.355532,-0.808760
-0.094328,0.346384,0.761599,-0.601345,0.788064,-0.131680
0.067947,0.143773,0.875947,0.697885,-0.700149,-0.150824
-0.541795,-0.311160,0.497908,0.273039,0.288911,0.917595
0.060177,0.296087,0.910546,0.871505,-0.485142,-0.071522
-0.020093,0.134786,0.763418,0.858740,0.437559,-0.266661
-0.184213,0.544350,-0.073625,0.655991,-0.176951,-0.733733
-0.465922,0.251594,0.477773,-0.030615,0.802336,-0.596087
-0.495576,0.503624,0.510674,-0.126078,-0.374841,0.918476
-0.332174,-0.090142,0.343653,-0.246279,0.213222,-0.945454
-0.100772,-0.249559,0.395900,-0.670512,0.279916,0.687067
-0.550589,0.322031,0.635484,-0.084843,-0.822347,-0.562625
-0.421850,-0.217095,0.488568,-0.219803,-0.305318,-0.926535
-0.228591,-0.227966,0.559282,-0.334688,0.738322,0.585547
0.417556,-0.060863,0.238614,0.258496,-0.049658,0.964735
-0.160388,-0.431594,0.592880,-0.183472,0.746002,0.640171
-0.064677,0.455362,0.497362,0.382611,-0.922079,-0.058125
-0.451811,0.595655,0.510461,-0.347021,0.391075,-0.852430
-0.157729,-0.512462,0.627449,0.579941,-0.759691,-0.294172
-0.545581,0.094927,0.711686,0.796194,0.565517,0.215093
-0.353853,-0.206807,0.453999,0.982448,-0.172530,-0.070918
-0.184313,-0.061880,-0.112257,-0.137765,-0.988023,-0.069501
0.087376,-0.266667,0.328158,0.969708,-0.016184,-0.243731
0.442917,0.160005,0.647674,-0.526018,-0.146290,0.837798
-0.493533,-0.308259,-0.153800,-0.066292,0.165383,0.983999
0.130221,-0.576371,-0.244284,0.040882,-0.715796,0.697112
-0.159158,0.308409,0.751471,0.531594,0.846148,0.037951
0.386472,-0.304057,0.214415,-0.214808,0.932230,0.291212
-0.234420,-0.712312,0.391109,0.004059,0.391100,0.920339
-0.159979,0.087975,-0.687822,0.836483,0.546156,-0.044838
-0.348738,0.559281,-0.084754,0.363310,-0.177712,0.914562
-0.239225,-0.115211,0.542786,0.716089,0.632165,0.295947
0.142800,-0.066374,0.050276,-0.145143,0.969387,0.198048
0.392810,0.030443,0.682182,0.910737,0.243093,-0.333863
-0.412239,0.378555,0.480987,-0.226151,0.877746,0.422395
0.448743,0.248551,0.354145,0.548882,0.511482,0.661147
0.391993,0.120297,0.668445,0.799444,-0.381081,0.464399
0.377881,0.281598,0.369034,0.536999,0.138999,0.832053
0.024693,0.070876,-0.653618,-0.667058,0.723778,-0.176575
-0.170714,-0.612754,0.619322,-0.641580,0.267378,-0.718946
-0.072959,-0.455362,0.681545,0.502079,0.775402,0.382972
0.251598,-0.221880,-0.185973,-0.683796,0.187901,0.705065
0.462549,-0.191885,0.066863,0.000064,0.999224,0.039378
0.113451,-0.295645,0.476924,-0.460021,-0.876942,0.139115
0.535866,-0.489127,-0.078446,-0.337532,-0.932683,-0.127177
-0.486989,0.712029,0.462581,0.172338,-0.891940,0.418023
0.361929,0.281598,0.240585,0.322790,0.329398,-0.887301
-0.690578,0.313195,0.098338,0.347584,-0.150796,0.925443
-0.444655,0.196378,0.653223,0.504771,-0.423517,0.752222
-0.277877,-0.155795,0.494511,-0.220457,0.660506,-0.717726
-0.305484,-0.442749,-0.181940,0.273215,-0.953366,-0.128248
-0.021014,0.548410,0.540997,-0.552998,0.743706,0.375624
-0.417862,0.231744,0.223816,0.098313,0.920153,-0.379015
-0.406921,0.022181,0.138062,0.955558,-0.135849,0.261638
-0.266630,-0.796373,0.118351,-0.461770,0.380218,-0.801375
-0.483509,0.732613,0.028019,0.833778,-0.515466,-0.197759
-0.367555,0.781016,0.533962,0.045443,0.849873,0.525025
-0.240349,0.304208,0.440475,-0.625480,-0.377302,0.682948
-0.042486,0.233919,0.635909,0.962568,-0.150820,-0.225201
-0.104352,-0.228692,0.401389,0.412508,-0.325070,-0.850980
-0.708471,-0.171443,-0.154982,0.026715,0.470547,0.881971
0.832607,-0.181739,-0.003245,-0.747329,0.351434,-0.563910
-0.108237,0.384641,0.764510,-0.245016,0.596002,0.764688
-0.127154,-0.538255,0.591030,0.818879,0.019468,0.573636
0.249960,0.311744,0.433774,0.152587,0.981099,-0.119001
0.149856,-0.075502,-0.204621,0.109652,-0.391601,-0.913578
0.350579,-0.065215,0.361969,-0.409595,0.806467,0.426430
-0.528708,0.253044,0.348444,0.290422,0.455222,0.841682
-0.026843,0.151310,0.785796,0.992416,-0.012295,0.122306
-0.190039,-0.152318,0.711686,0.950717,-0.082119,0.298989
-0.975766,0.674355,0.300200,0.841394,0.419564,0.340620
-0.253746,0.043622,0.519710,-0.312087,0.177281,-0.933367
-0.691907,0.102906,0.377464,0.772975,0.473785,0.421945
-0.106293,0.518264,0.738340,-0.664893,0.250258,-0.703768
0.047292,-0.053910,-0.586846,-0.002447,0.966804,0.255506
-0.531672,0.306525,0.629905,-0.344881,-0.837768,-0.423322
-0.012526,0.316087,0.775820,-0.630461,0.020700,-0.775945
-0.499870,0.305658,0.628813,0.259414,0.782202,0.566448
0.118360,0.643625,0.580205,-0.632504,-0.179077,0.753572
0.166011,-0.073618,0.047365,0.107552,0.930211,0.350914
0.057927,0.104348,0.751198,-0.713060,0.416742,0.563802
-0.225829,0.152035,-0.979987,-0.112772,-0.000086,0.993621
0.223067,-0.011301,-0.024744,0.000630,-0.993349,0.115142
0.485045,0.256963,0.673722,-0.536906,-0.841069,0.065845
-0.317143,-0.380722,0.328370,0.366783,0.604177,-0.707418
-0.435758,-0.184782,-0.104524,-0.336398,0.661397,-0.670366
-0.173678,0.042464,0.514404,-0.471334,-0.076928,0.878594
0.658058,-0.215362,0.062617,0.338057,-0.604143,0.721616
0.029193,0.116962,0.884195,-0.582601,0.692029,-0.426231
0.443632,0.504350,0.659530,0.600239,-0.792794,0.105783
0.311519,0.091018,0.582813,0.930422,0.313159,0.190387
0.202821,0.085799,0.557887,0.575793,-0.717873,0.391307
0.301805,0.074061,0.362666,0.130084,-0.795271,0.592134
0.068153,0.232903,0.917642,0.972202,-0.203708,0.115439
-0.199654,-0.262465,0.561435,-0.516645,0.178975,0.837285
0.148114,0.481165,0.853357,0.741905,-0.571558,-0.350569
-0.252107,0.085365,0.330402,0.714936,0.658872,-0.233995
0.099749,-0.408551,-0.951331,-0.253007,0.400866,0.880508
0.072959,-0.338405,0.542028,-0.366957,0.885602,-0.284697
-0.532593,0.206232,0.338680,0.967506,0.086245,-0.237684
-0.625030,0.008992,0.350385,-0.429488,-0.831733,-0.351796
-0.865126,0.283190,-0.103615,0.009216,-0.577551,0.816303
0.387802,0.127975,0.627267,0.465631,-0.822311,-0.327097
-0.518688,0.048700,0.272576,0.101491,0.898177,0.427759
-0.246381,0.078120,0.354539,0.306498,0.790585,0.530126
0.502938,-0.049708,0.066772,-0.083655,-0.001398,0.996494
0.412853,0.119854,0.710746,0.859150,-0.031091,-0.510778
-0.475842,0.163623,0.660925,0.198709,0.592897,0.780377
-0.114066,0.670003,0.675268,0.658454,0.715811,0.232494
-0.161817,0.589861,0.572473,-0.446144,-0.770979,0.454475
-0.045860,0.300147,0.782946,-0.471950,-0.034717,0.880942
-0.443120,0.024790,0.332009,-0.783999,-0.619996,0.030839
-0.463672,-0.137245,0.473437,-0.040953,0.836962,0.545726
0.327674,-0.007532,-0.002153,-0.272551,-0.950295,-0.150519
-0.531160,-0.749712,-0.257111,0.115816,-0.798076,0.591322
-0.208547,0.166666,0.821214,0.782657,0.465263,0.413495
0.728614,-0.323332,-0.053793,0.150127,-0.972823,0.176290
-0.115804,0.024640,0.874401,-0.242200,0.889219,0.388109
0.757860,-0.424633,-0.039238,0.498912,0.729038,-0.468605
-0.254460,-0.440864,0.418764,0.860488,0.331313,0.387030
-0.146785,-0.366667,0.383377,-0.144133,-0.989558,-0.001228
-0.094023,0.265074,0.913942,0.602825,0.693965,-0.393720
-0.439029,0.326384,0.440657,0.710149,-0.419849,0.565169
0.074800,0.104781,0.680848,0.035074,-0.778527,0.626631
-0.641391,0.163189,0.345139,0.819539,0.165087,0.548728
-0.043407,-0.780291,0.390199,-0.474986,-0.798192,-0.370510
0.103634,-0.106374,0.123021,-0.119626,0.852336,0.509129
0.085332,0.346233,0.775244,0.781720,0.420989,-0.460089
0.291785,-0.015210,0.781369,0.934265,-0.338151,-0.113151
0.245666,0.356088,0.722694,-0.308665,0.833782,-0.457749
0.365714,0.280731,0.514585,0.536610,0.842662,-0.044393
-0.073368,-0.168116,0.100673,-0.678810,0.711376,-0.182105
0.780356,-0.342023,-0.068318,-0.507160,0.829524,-0.233835
-0.259675,-0.497247,0.580508,0.427734,0.900824,0.074563
-0.053530,-0.747535,0.303657,-0.751007,0.642509,-0.152219
0.615522,0.056961,-0.090970,-0.155211,0.384974,0.909783
0.316119,0.377830,0.389138,0.342072,-0.641571,-0.686567
0.021525,-0.076086,0.655770,-0.738945,0.573696,-0.353318
-0.208956,-0.154636,0.547668,0.361808,0.553116,0.750438
0.392913,-0.147825,0.232428,0.862329,0.328063,-0.385699
0.281559,0.004931,0.228637,0.182592,-0.114730,0.976472
0.036966,0.176087,-0.963188,0.093456,0.351934,0.931348
0.432076,0.080438,0.384256,0.937798,-0.288864,-0.192593
-0.163964,0.073335,0.598914,0.193289,-0.716201,0.670593
-0.277162,0.081597,0.245072,0.846311,-0.088070,0.525358
-0.035942,0.042464,-0.312269,-0.029644,0.986124,0.163345
-0.140650,-0.421298,0.195100,0.845131,-0.067325,-0.530302
-0.177769,-0.274203,0.719935,0.986754,0.157001,0.040821
0.113757,-0.174636,0.549184,0.999080,-0.042742,-0.003473
-0.357433,0.151451,0.137031,0.357371,0.824756,0.438251
-0.005573,0.418848,0.745436,0.952864,-0.272432,0.133535
-0.046066,0.008266,0.567409,0.401567,0.847017,-0.348291
-0.509176,0.427976,0.043908,0.005858,0.732730,0.680495
0.006800,0.439573,0.676815,0.027197,0.984741,0.171888
0.326551,-0.207825,0.383680,-0.607431,0.611144,0.507474
-0.128892,0.049425,-0.662684,0.920802,-0.032439,-0.388679
-0.056495,0.013627,-0.577597,-0.534960,-0.809594,0.241609
-0.017229,0.173486,0.954151,0.094656,-0.995415,-0.013767
-0.113146,-0.398113,0.585997,0.135044,0.906494,0.400039
-0.451914,0.364208,0.467433,0.448088,-0.769402,0.455233
-0.507438,0.179571,0.642398,0.266266,0.118672,0.956566
-0.383302,0.191744,-0.020468,0.300415,-0.718058,0.627808
-0.094534,0.764210,0.481169,0.387283,-0.025453,-0.921609
0.403036,-0.055502,0.407575,0.115279,0.609512,0.784351
-0.063859,-0.030000,-0.146037,0.296632,-0.952952,0.062390
0.165602,-0.339563,-0.937231,-0.291026,0.323906,0.900216
-0.005268,-0.261014,0.597246,0.947875,-0.246343,-0.202110
0.304770,0.036528,0.254109,0.347291,-0.745809,-0.568470
-0.368885,0.481015,0.495027,-0.304932,-0.924084,0.230403
-0.024593,0.830871,0.495118,-0.373662,-0.280420,0.884161
-0.154761,0.423341,0.709503,0.679413,0.725527,0.109587
-0.049030,0.024065,0.730639,0.490585,-0.008256,0.871354
-0.245769,0.851596,0.654982,-0.561295,-0.803154,-0.199728
-0.731070,-0.329417,-0.137850,-0.341060,0.521076,0.782405
-0.018458,0.054352,-0.402359,-0.369990,0.919082,0.135630
-0.025820,-0.133327,-0.114440,0.137901,0.200711,0.969896
-0.283809,-0.561449,0.372976,0.385922,0.546906,0.742939
-0.185131,-0.110868,0.581084,0.620546,0.780054,-0.080235
-0.318063,-0.301740,0.237795,0.640545,0.126502,0.757430
-0.312949,0.037254,0.367305,0.309648,0.855562,0.414888
-0.251190,-0.755214,0.424465,-0.309256,-0.004185,-0.950970
-0.244952,-0.353186,0.539420,0.620457,0.783036,0.043454
0.036966,0.211160,0.859057,0.539910,0.645039,-0.540760
0.502529,-0.025215,-0.010340,-0.030310,-0.850787,0.524636
-0.020808,-0.268400,-0.953878,-0.195498,0.006179,0.980685
-0.562553,0.212319,0.352902,-0.469277,0.089094,-0.878545
-0.515823,0.247250,-0.078386,0.259987,0.079442,-0.962339
0.090955,0.017254,-0.049700,-0.041857,-0.823107,0.566341
-0.364385,-0.177537,0.478804,0.755666,-0.450704,0.475222
0.678919,-0.459564,-0.078871,-0.018620,0.263340,0.964524
0.174805,0.356379,0.721814,-0.262943,-0.750870,0.605852
0.686692,-0.218405,0.272667,-0.109503,-0.983469,0.144211
-0.146173,0.343624,0.875311,-0.172110,0.975865,0.134410
-0.423691,-0.756523,0.150161,0.433920,0.045539,0.899800
-0.537910,0.080872,0.047122,-0.517587,-0.791424,-0.325195
-0.335548,-0.021013,0.783825,-0.745014,-0.606812,-0.277009
0.075412,0.158262,0.821123,0.056056,-0.712744,0.699181
0.640982,-0.297246,0.053217,0.609238,-0.643796,0.462986
0.721764,-0.226949,-0.022166,-0.559383,-0.754707,0.342796
-0.055983,0.090726,0.911274,0.574093,-0.588672,0.569107
-0.457128,-0.033476,0.664867,0.576100,-0.390121,0.718272
0.107419,-0.128550,-0.093123,0.329086,0.941879,0.067571
0.130733,-0.269276,0.164807,-0.339044,0.553155,-0.760965
-0.497521,0.026382,0.569865,0.711166,0.467087,-0.525427
0.037272,0.175220,-0.966948,0.093456,0.351934,0.931348
0.394345,0.332470,0.684729,0.721593,-0.654616,-0.225345
-0.113248,0.414062,0.712657,-0.577947,-0.610578,0.541453
-0.355794,-0.186082,0.451877,0.672952,0.008596,-0.739637
-0.028172,0.173194,0.949330,0.082379,0.985393,0.149043
-0.312234,0.644059,-0.996786,0.139443,-0.052161,-0.988855
-0.058951,-0.054927,0.742737,0.813436,0.476304,-0.333850
-0.012526,0.387392,0.754018,0.927740,0.297374,0.225538
-0.470013,0.466667,0.516617,-0.057079,-0.568060,0.821005
-0.130630,-0.599856,0.096246,0.019999,0.748347,0.663006
-0.937623,0.674638,0.332889,0.452976,0.815749,-0.359675
-0.129812,-0.711304,0.059767,0.519256,-0.118759,-0.846327
-0.541387,0.170434,0.450421,0.870348,-0.099107,0.482362
0.132777,-0.041155,-0.522439,0.537607,0.438125,0.720435
0.034919,-0.755072,0.404997,-0.055905,0.796490,0.602062
0.325425,0.112177,0.670053,0.937686,0.259799,0.230760
-0.190348,-0.285791,0.737431,0.585220,-0.792882,-0.169870
-0.156193,-0.154928,0.542331,-0.212200,0.418880,0.882899
0.086149,-0.156520,0.085026,-0.501588,0.847436,-0.173959
-0.156090,0.652320,0.231154,0.172491,-0.920440,0.350767
-0.106908,0.453478,0.856207,-0.187926,0.843353,-0.503427
-0.557442,0.107391,0.648948,0.397693,0.601649,0.692719
-0.110486,0.156237,0.858299,-0.739507,-0.014154,0.673001
0.140344,0.019421,0.730062,0.770446,-0.147346,0.620243
0.023875,0.587252,0.680363,0.538737,0.582838,-0.608327
-0.216832,0.085657,-0.596216,0.691628,0.721850,0.024134
0.541692,0.032035,0.009218,-0.104541,-0.871732,0.478700
0.589652,-0.225649,0.304809,0.630833,0.580727,0.514593
-0.274706,0.835948,0.661835,-0.376559,-0.926390,-0.001924
0.006494,-0.493187,0.201650,0.184361,0.144223,-0.972219
-0.036557,0.374061,-0.989023,-0.036469,0.118079,0.992334
-0.139321,0.011742,0.105222,0.607615,0.790245,-0.079478
0.071629,0.391311,0.812602,0.765007,-0.605300,0.219947
0.250063,-0.321014,-0.188338,0.287425,-0.028680,-0.957374
0.354774,0.051018,0.686821,-0.616093,-0.274987,0.738114
0.810725,0.146958,0.287191,0.527493,0.838463,-0.136864
0.324401,0.242181,0.384165,0.886730,0.014761,0.462052
0.457640,0.304349,0.656195,0.890671,0.415393,0.184805
-0.213662,0.570728,0.609436,0.778513,-0.289139,0.557060
0.641391,-0.126232,0.241555,0.682084,0.031017,-0.730615
0.476251,-0.289559,-0.070653,0.367475,0.138600,-0.919648
-0.861852,0.338414,0.279853,0.043198,-0.881829,0.469587
0.135844,0.026674,0.608982,0.272263,0.800568,0.533820
-0.180019,-0.056378,0.368973,0.883827,0.199536,0.423126
-0.150570,-0.151443,0.662927,-0.632417,0.325861,-0.702754
0.013037,0.035077,-0.279035,-0.087335,0.993853,0.068041
0.337286,0.224499,0.441385,0.731166,-0.682161,-0.007297
0.145662,0.075219,0.779156,0.283328,0.908098,-0.308356
-0.131039,-0.012751,-0.537813,0.441496,0.851988,-0.281421
-0.337389,0.092035,0.626145,-0.143253,0.986455,-0.079910
-0.503450,0.066232,0.486930,-0.503397,-0.478873,-0.719217
-0.362544,0.808703,0.515586,0.615848,-0.061510,0.785460
-0.204051,0.552904,0.486779,0.733049,-0.316955,0.601813
-0.024387,0.433628,0.738826,-0.619870,0.233337,0.749209
-0.034919,0.430586,0.694705,-0.418340,-0.735777,-0.532564
0.679637,0.082614,-0.018073,-0.487777,0.196645,-0.850532
-0.044736,0.015652,0.859846,0.394525,0.883289,-0.253278
-0.252928,-0.843042,0.424768,-0.018433,0.675046,0.737545
0.079911,-0.232752,-0.049366,0.948023,0.038494,0.315864
-0.677590,0.556380,0.214931,-0.622685,0.687733,-0.373211
0.567256,-0.089558,0.245072,-0.331245,-0.572611,0.749929
0.029399,-0.137095,0.508915,-0.261024,0.965295,-0.008534
-0.163864,0.795798,0.675359,0.879798,0.417549,-0.227175
0.032160,-0.085790,-0.055947,0.218289,0.684741,-0.695328
0.347818,-0.248692,-0.073049,0.033802,0.993273,-0.110753
-0.180325,-0.067674,-0.683152,0.895737,0.149965,-0.418529
-0.516231,0.121739,0.035781,0.306530,0.763872,0.567925
-0.035431,0.048559,-0.487719,0.337122,0.918330,0.207412
0.553045,0.112468,0.256595,0.922240,0.379963,-0.071422
-0.417148,0.612904,0.504730,-0.591482,0.451192,-0.668262
-0.220409,-0.565651,0.649857,-0.488670,0.853535,0.180774
-0.947746,0.404500,0.292862,0.558819,-0.354108,0.749886
0.581367,-0.438547,-0.071957,-0.531543,0.470298,-0.704473
-0.852035,0.227392,0.103402,0.398033,-0.070919,0.914626
0.448949,0.370152,0.687064,-0.634215,0.059934,0.770830
-0.159773,0.560149,0.669386,-0.158255,0.880310,-0.447224
-0.245666,0.127975,0.634120,-0.606194,0.450184,-0.655640
-0.307123,0.696381,0.657802,-0.187568,-0.821421,0.538596
-0.218570,0.671161,0.590515,0.502607,0.850325,-0.155991
-0.932203,0.437830,0.270210,-0.433666,-0.888463,-0.150223
-0.678101,0.074352,0.361362,0.807187,0.388133,0.444749
0.390051,0.232035,0.676966,0.647387,-0.758213,0.077486
0.046169,0.340873,0.807599,0.952560,-0.269386,0.141637
0.318575,0.345659,0.504184,0.797790,-0.155986,-0.582408
-0.370623,-0.668835,-0.225635,-0.064928,-0.848510,0.525180
0.209979,-0.141739,0.462157,0.751601,0.511445,-0.416558
0.438620,0.327826,0.693735,-0.361316,0.443835,0.820037
0.674010,0.364349,0.254169,-0.189910,0.628480,0.754286
-0.529525,0.384933,0.493329,0.492651,-0.139272,0.859010
-0.321334,-0.883617,0.115532,0.596497,0.450276,0.664412
-0.249349,0.884936,0.469859,-0.333040,0.571728,-0.749807
-0.057110,-0.149275,-0.564922,0.408028,-0.515144,-0.753751
-0.503553,0.098413,0.653648,-0.654465,0.077193,0.752141
0.296385,0.049567,-0.322457,0.120172,-0.892338,-0.435076
0.207015,-0.703475,-0.243920,-0.505684,-0.360052,0.783994
-0.381564,0.064640,0.644733,-0.254164,0.031201,-0.966658
-0.139935,0.076086,0.752047,-0.243468,0.618009,0.747521
-0.329719,-0.087099,0.281945,0.983187,0.181797,0.017145
0.583517,0.362324,0.648220,0.829424,0.557131,0.040742
-0.860218,0.429135,-0.088514,-0.248431,-0.458543,0.853241
