-0.118810,-0.152001,0.121153,0.624918,0.702691,-0.340151
0.709426,0.202179,-0.951561,0.351823,-0.087698,-0.931949
0.555916,-0.292484,-0.920238,0.890226,-0.102791,-0.443770
-0.022369,0.664098,0.138580,0.898976,0.053975,0.434660
0.337861,-0.408681,0.522871,0.950383,-0.024728,0.310097
-0.002055,0.009087,0.335894,0.185045,0.947091,0.262255
0.278423,-0.049434,-0.309994,0.814890,0.576537,0.059664
-0.387579,-0.712470,0.074861,0.596627,-0.642821,0.480433
0.383838,0.542305,0.602152,0.424830,0.038816,0.904441
0.098249,-0.055558,-0.758823,0.744767,0.594487,0.303162
0.011524,0.024722,0.305390,0.719567,0.694368,-0.008779
-0.072707,0.064965,-0.534733,-0.144830,-0.980614,0.131988
0.063733,-0.005702,-0.153973,-0.384112,0.683496,-0.620718
0.250763,-0.100134,0.375718,0.327985,-0.470063,0.819431
0.203041,-0.042142,-0.936733,-0.659144,0.751731,0.020730
0.391066,0.117464,0.264012,-0.285438,0.721399,0.630959
-0.716157,0.209464,0.010125,-0.383356,-0.677819,0.627376
0.214627,0.218129,0.572693,0.214559,-0.699275,0.681894
-0.083921,0.200593,0.299403,0.165468,0.724177,0.669469
0.691858,0.454211,-0.142563,-0.110409,-0.335313,0.935615
0.186343,-0.020595,0.749841,-0.370211,0.529057,-0.763572
-0.110463,0.136689,0.531344,0.701137,0.523389,0.484221
0.287271,0.276224,0.282428,0.787566,0.256656,0.560238
0.268456,-0.008024,0.302255,0.145746,-0.053511,0.987874
0.363277,0.446603,0.471240,-0.651708,0.757791,0.032092
-0.714164,-0.523608,-0.143947,0.141919,-0.807052,0.573172
0.266962,0.123588,-0.976670,-0.212368,0.342301,0.915276
-0.439166,0.743849,-0.156346,-0.464141,-0.853063,0.238445
0.399413,-0.294386,0.105591,0.784763,0.495529,-0.372287
-0.242291,0.375201,0.082657,0.120431,0.881463,-0.456639
0.680892,0.615615,0.211337,0.771899,-0.226649,-0.593971
0.236807,-0.041091,-0.343690,0.522688,0.852402,-0.014448
0.605258,-0.282349,0.682902,-0.527767,-0.849330,-0.010056
0.133636,-0.150099,0.437799,-0.088213,0.384367,0.918956
0.247770,-0.070980,0.436867,-0.016902,-0.566355,0.823988
-0.020125,-0.487691,0.326997,0.755152,-0.361098,-0.547132
0.441530,0.497626,0.448984,-0.738458,0.569540,-0.360978
0.414490,0.207988,0.092627,0.885698,-0.273355,0.375255
0.172012,-0.027990,0.799353,0.340031,-0.878951,0.334401
0.224346,-0.189394,0.373092,0.533832,0.372243,0.759249
-0.056881,0.491501,-0.056926,0.130393,-0.604345,0.785980
-0.179244,0.629347,0.291607,0.755195,0.028575,-0.654877
0.296367,-0.009081,0.138185,0.910062,0.256325,0.325707
0.836147,0.027784,-0.935829,0.035939,-0.147666,0.988384
0.284530,-0.472372,0.498439,0.854277,-0.195364,-0.481709
0.313064,0.049962,0.305673,-0.570744,0.542357,0.616523
0.453117,0.545689,0.356089,0.061934,0.440296,-0.895714
-0.035203,0.157391,0.155272,0.676823,0.721701,-0.145116
-0.577724,0.350270,0.434014,-0.235137,-0.926274,0.294494
0.201919,0.003278,0.420090,0.907452,0.383860,0.170826
-0.102611,0.226053,0.184421,0.591673,0.663386,-0.458085
-0.215129,0.896169,0.039386,0.495785,0.559206,-0.664444
-0.233446,-0.021440,0.233678,0.168438,0.387871,0.906192
0.255995,-0.002427,-0.642400,0.122188,0.982612,0.139800
0.470438,0.394110,0.160639,-0.248422,-0.277614,0.928018
-0.004299,0.033909,0.395404,0.204238,-0.602158,0.771812
0.214999,0.043096,0.540636,0.936652,-0.003776,-0.350241
-0.569126,0.650468,0.226420,-0.519011,0.000155,0.854768
0.124415,0.012678,0.247546,0.449887,-0.694505,-0.561484
0.320289,-0.573676,0.116493,0.385006,0.755127,-0.530616
-0.168277,0.671808,0.032551,0.890026,0.266446,-0.369946
0.137746,0.172600,0.409866,-0.406377,-0.881000,0.242274
0.037693,0.037500,0.726822,0.449320,0.820750,-0.352818
-0.129027,0.661776,0.043821,0.887571,0.077803,-0.454053
0.295120,-0.458647,0.309909,0.747001,-0.591752,0.303016
0.037815,0.022504,-0.015209,0.458657,-0.876269,-0.147600
0.187340,-0.047531,0.999746,0.973716,-0.221666,-0.052368
0.465080,0.472276,0.356880,-0.645747,0.505667,-0.572112
0.884740,0.321329,-0.193911,0.652290,-0.510234,0.560517
0.597033,0.195100,-0.022610,-0.702156,0.687219,0.186299
0.368635,-0.684902,0.499880,0.947515,0.292107,0.129954
0.298732,0.389668,0.417040,-0.373044,-0.452691,0.809882
0.488131,0.432664,0.475901,-0.241816,0.785686,0.569406
0.196435,-0.028203,0.746621,0.888289,-0.413184,0.200554
-0.040933,0.056512,-0.440031,0.518701,0.854951,-0.002724
-0.332880,0.244111,0.123921,0.614325,0.785176,-0.078123
0.255870,0.462450,0.621725,0.990331,0.128461,-0.052366
0.178989,0.425798,-0.085566,0.505658,-0.166614,0.846493
0.357672,0.275277,0.577834,0.869994,0.039140,0.491506
0.160798,0.234924,0.259691,0.995138,-0.078305,0.059733
0.294747,-0.116716,0.041957,-0.497347,0.436329,0.749842
-0.169524,-0.496884,0.042126,0.625582,-0.593729,0.506096
0.714909,-0.088200,-0.937439,0.222341,-0.179376,-0.958326
-0.250516,0.043734,0.616754,0.530912,0.828273,0.179157
0.050900,0.603675,-0.225544,0.862173,-0.100829,0.496478
0.058874,0.241681,0.424807,-0.473206,-0.673963,0.567318
-0.395181,0.104576,0.641129,0.285874,0.958099,-0.017929
-0.229955,0.304747,0.157193,0.238357,0.855032,-0.460550
-0.037944,0.193624,0.078787,0.831923,-0.250579,-0.495089
0.232195,-0.018694,-0.803533,-0.156892,0.976918,-0.144969
0.229453,0.312348,0.502055,0.910148,-0.181934,-0.372198
-0.259984,0.403511,0.456158,-0.614332,0.471063,-0.633005
0.019874,-0.047428,0.447656,0.789725,-0.254151,0.558339
0.112703,0.029892,0.583455,-0.200587,0.676440,0.708656
0.382967,0.284251,-0.975625,-0.110874,0.119891,0.986577
-0.262353,0.741946,0.014531,0.725157,0.511707,-0.460764
0.526134,0.234292,0.641101,-0.119224,-0.131581,0.984110
0.273688,0.386503,0.142958,0.351245,-0.826284,0.440319
0.284902,0.373086,0.494175,0.274630,0.396477,0.876005
0.458726,0.152001,-0.958538,-0.239144,0.446106,0.862438
0.025232,0.825186,0.126266,0.767665,0.611839,-0.190640
0.183974,0.084293,0.288133,0.231278,-0.830515,-0.506710
-0.277054,0.656071,-0.200407,-0.031430,-0.475772,0.879007
0.130894,0.034121,0.887334,-0.771187,-0.208878,0.601366
-0.293877,0.226472,0.374052,0.234316,0.828640,-0.508381
0.240671,-0.035701,0.609128,0.621797,0.781776,0.046852
0.172388,-0.037287,0.840138,-0.640490,0.762582,-0.090783
0.012645,0.652370,-0.235938,0.842559,-0.332828,0.423462
0.114946,0.092958,0.789355,0.806116,0.564903,0.176242
0.197683,-0.015206,0.468049,0.084779,-0.002472,0.996397
0.556912,0.690608,0.191425,0.344371,0.454835,-0.821300
-0.091024,-0.679512,-0.146771,0.251864,-0.498112,0.829728
-0.164787,-0.172277,0.666040,-0.715349,0.663019,0.220639
0.184598,-0.069078,0.836438,-0.632423,0.759702,-0.151312
-0.164041,0.294605,-0.061587,0.414937,0.404070,0.815202
0.207524,-0.020595,0.576676,0.333290,-0.786866,0.519384
0.659585,0.024825,-0.526684,-0.829985,0.506704,0.233186
-0.420350,0.596390,0.244185,-0.447503,0.703873,-0.551638
0.178868,-0.254775,0.535270,0.911305,0.183486,0.368586
-0.329138,-0.676979,-0.077940,-0.639000,0.661990,0.391725
0.145348,-0.116193,0.407296,0.193060,-0.468524,0.862098
-0.151082,-0.734971,-0.050938,-0.176737,0.014138,-0.984157
0.322906,-0.688706,0.503100,0.785365,0.591983,-0.180994
-0.136875,-0.079851,-0.985257,0.437233,-0.393728,-0.808583
0.261228,0.256155,-0.098615,-0.674209,0.735884,0.062586
0.825306,0.077427,-0.931480,-0.131460,0.126674,0.983195
0.083172,-0.020595,0.109178,0.717807,0.597550,0.357333
0.203162,-0.058620,0.473330,0.744286,0.651923,-0.145033
0.365148,-0.069078,0.608309,0.146603,-0.895815,-0.419550
-0.574484,0.568925,0.215856,0.232562,0.456881,-0.858589
0.568126,0.544838,0.191594,0.233591,0.694543,-0.680474
-0.242416,-0.008552,0.514228,0.435714,-0.824918,0.360089
-0.009284,-0.187596,0.176794,-0.122724,0.948797,0.291071
0.648493,-0.280654,0.682705,0.504514,0.862686,0.035193
0.212882,0.240733,0.743571,0.907545,0.000366,-0.419955
-0.556292,0.543259,-0.069156,0.918967,-0.391214,0.049503
-0.093390,0.655013,0.052435,0.785622,-0.417847,0.456292
-0.166285,-0.526883,0.133242,-0.523390,-0.707617,-0.474701
0.270323,0.027571,0.484826,-0.670992,-0.711847,0.207470
-0.466700,0.555405,0.226787,0.365038,0.766630,0.528228
0.392435,0.297455,-0.079691,0.852807,-0.285932,-0.436993
-0.582705,0.214429,0.395744,-0.510486,-0.849998,-0.130024
-0.938820,0.250030,0.043200,-0.276293,0.411784,-0.868387
0.283659,0.138378,0.380859,0.912382,-0.388293,-0.129567
-0.006170,0.190768,-0.111918,0.892679,0.325255,0.311983
0.304216,-0.072463,0.769160,0.062882,-0.037963,0.997299
0.513924,-0.120732,0.410431,-0.507412,-0.860990,0.035045
0.842501,-0.000738,-0.532163,0.832122,-0.482816,-0.272876
0.424210,0.486956,-0.354225,-0.837874,0.422555,0.345564
-0.229085,-0.204706,0.150697,-0.417564,0.825556,-0.379601
0.360288,0.309601,0.507647,-0.400525,0.595129,-0.696707
-0.010904,-0.413433,0.312734,0.608183,-0.793758,0.007869
0.210889,-0.310446,0.394388,-0.605401,-0.185988,-0.773885
0.570491,0.496569,0.282315,0.825260,0.269377,-0.496368
0.518784,-0.258895,-0.942071,-0.046881,0.044663,0.997902
0.290013,0.044050,0.677564,0.807481,-0.567729,0.160183
-0.587067,0.309711,0.010803,0.473688,0.587206,0.656360
0.213380,0.338336,0.527870,0.877362,0.043893,0.477817
-0.609373,0.406257,0.437573,0.014856,-0.908751,0.417074
0.233442,-0.076686,0.761591,0.086679,-0.973803,0.210222
0.179989,-0.030634,0.858609,0.883310,0.436558,0.170827
-0.131643,-0.508605,-0.033004,0.765672,-0.599647,0.232743
0.308950,0.018062,0.236220,0.993278,-0.031900,0.111271
0.394926,0.532904,0.534394,-0.192100,-0.831330,0.521525
-0.015266,0.302632,0.284377,-0.101926,0.694937,0.711810
-0.522023,0.034121,0.144511,0.057002,-0.962035,0.266909
-0.509813,0.671808,-0.179901,-0.317825,-0.906535,0.277814
-0.327145,0.778914,-0.082628,-0.526682,-0.846225,-0.080686
0.454239,-0.043625,-0.952973,0.142354,-0.292041,-0.945752
-0.063859,0.316893,0.480165,0.611512,-0.041452,0.790149
0.320042,-0.071405,-0.091525,0.844375,0.346341,-0.408753
-0.483895,0.623010,-0.220178,0.733531,0.454102,-0.505691
0.186343,0.017746,-0.122255,0.241519,-0.872419,-0.424917
0.427199,-0.299035,0.480872,0.329418,0.926203,0.183388
-0.437793,0.436572,0.090932,-0.730581,0.677537,0.084817
0.074947,0.140699,0.399811,0.092759,-0.468508,0.878576
0.890847,0.091269,-0.945545,-0.061167,0.236186,0.969781
0.180985,0.010248,0.601277,-0.162701,-0.975989,0.144822
0.008037,0.038132,0.317874,-0.610595,-0.785662,-0.099547
0.222103,0.000848,-0.393089,0.851049,-0.524875,0.014869
0.048656,0.178409,0.419441,-0.332140,-0.836379,0.436066
-0.180739,0.570930,0.279745,-0.699576,-0.547505,0.459164
0.166281,0.010776,-0.703634,0.169698,0.974837,0.144549
-0.474301,0.729168,-0.052915,-0.676577,-0.731886,-0.081155
0.385458,0.114930,-0.082515,0.899012,-0.437759,0.012028
-0.656346,0.122215,0.096750,0.063125,0.700470,0.710885
0.776960,0.590265,0.297567,0.210963,0.708509,-0.673431
-0.007292,0.025669,0.650365,-0.067770,0.190877,-0.979272
0.478286,0.584346,0.451667,0.837127,-0.546338,-0.027074
0.403524,0.334848,0.220319,-0.602690,-0.794833,0.070750
0.252383,0.179466,0.216224,0.873207,-0.230138,-0.429588
0.079183,0.161614,-0.563655,-0.466357,0.858334,0.213947
0.029593,0.024722,0.474121,0.411653,-0.245599,0.877624
-0.617347,0.051761,-0.218201,0.880423,-0.427558,-0.205062
0.096378,-0.063585,0.225968,0.730013,0.648185,0.216651
0.118931,0.018274,-0.028626,-0.072583,-0.977975,-0.195696
-0.435427,0.433612,0.559080,0.852787,0.453827,0.258447
0.728614,-0.230379,0.414752,0.351669,0.847197,0.398228
-0.395181,0.160034,0.169508,0.874673,-0.086812,-0.476876
0.280917,-0.015315,0.473302,0.124244,0.990465,-0.059516
-0.479785,0.124330,0.642089,0.375571,0.896988,0.233151
0.163912,-0.021653,0.990143,0.973716,-0.221666,-0.052368
-0.033457,0.084190,0.372216,-0.552554,-0.369076,0.747307
0.398291,-0.199426,-0.944387,-0.168186,-0.042839,-0.984824
0.476294,-0.188653,0.332928,0.743772,-0.561277,0.363004
0.093762,-0.079219,0.762720,-0.015210,-0.989795,-0.141688
0.439413,0.183695,-0.128299,0.842878,0.331865,0.423584
0.061862,-0.280235,0.601164,0.919834,-0.389691,0.045241
0.432309,0.329355,0.210631,0.386808,0.469763,0.793538
-0.733975,0.372771,0.018034,-0.120705,0.416481,0.901096
0.072080,-0.034012,0.788931,-0.112850,0.904738,0.410747
-0.124791,0.388405,0.422350,-0.078697,-0.788466,0.610023
-0.312566,0.273904,0.064128,-0.746094,0.412877,-0.522376
-0.132891,0.349851,0.403906,0.158332,-0.830047,0.534746
0.545447,-0.266186,-0.938371,-0.296748,0.512158,0.805999
0.031088,0.181793,0.414272,0.317746,0.864183,-0.390160
0.285279,0.145664,0.286975,-0.759069,0.643868,0.096170
-0.314935,0.382067,0.508805,0.766464,0.045584,0.640668
0.282286,-0.485370,0.445933,0.969720,0.244146,-0.005983
0.198679,0.004755,0.385434,0.724703,-0.023713,0.688653
0.074947,0.372345,0.536230,0.751099,-0.347843,-0.561119
0.316179,-0.441000,-0.944726,-0.007987,0.149735,0.988694
0.141861,0.030743,0.757947,-0.240820,-0.849070,0.470198
0.360787,0.756420,0.545296,0.852011,0.046678,0.521440
-0.489253,0.502377,0.211055,-0.427001,-0.684433,0.590950
-0.503707,0.608433,-0.239638,0.721174,0.322370,-0.613176
0.219487,-0.157068,0.714677,0.539797,0.552734,-0.634905
0.249888,-0.000951,0.839290,-0.679811,0.688256,-0.253301
0.406140,0.306752,0.142845,0.860752,-0.370974,-0.348546
-0.206904,0.344564,0.260793,-0.637324,0.747465,-0.187389
0.313437,0.418506,0.592380,-0.619682,-0.740420,0.260332
0.382092,-0.159925,0.577212,0.466308,0.810419,-0.354652
0.180487,-0.019964,-0.798760,0.039548,-0.988798,0.143925
0.628309,0.203024,-0.955402,0.300745,-0.100986,-0.948343
0.367513,-0.450085,0.433845,0.545952,0.248225,-0.800200
-0.189834,0.550125,0.456610,0.831823,0.527505,0.172652
-0.336865,-0.029783,0.251726,-0.061325,-0.397552,0.915528
0.217243,0.298828,0.495304,0.420919,0.300505,-0.855876
0.162296,-0.237245,0.785513,0.997601,-0.006766,0.068902
0.457106,0.132356,0.575292,0.800043,0.227078,-0.555308
0.050401,0.044263,-0.070568,0.397493,0.914076,0.080398
-0.272073,0.389037,-0.410431,0.844691,0.452362,0.286122
-0.035700,0.213694,0.403708,-0.668819,-0.423614,0.610928
0.171890,0.067079,-0.151798,-0.419851,0.807711,-0.413918
0.451372,-0.150415,0.578257,-0.551423,-0.589983,0.589791
0.218738,0.052502,0.624860,-0.468035,0.403648,0.786137
0.217494,-0.069606,-0.363065,0.840902,-0.483162,-0.243799
-0.096629,0.734868,0.030292,0.759919,0.404602,-0.508743
0.149458,0.069400,0.488526,-0.341153,0.934464,-0.101934
0.064482,0.041619,0.770572,-0.829499,0.448105,-0.333368
-0.199679,0.288158,0.511884,0.812134,0.343066,0.471958
0.543580,0.101198,0.599808,0.154625,-0.556536,0.816308
0.159056,0.840394,-0.103219,0.239658,-0.933270,-0.267529
0.000063,0.074893,0.608253,0.356836,-0.901075,-0.246439
0.248021,-0.241468,0.483639,-0.658843,-0.740542,-0.132378
-0.000188,0.062115,0.200265,0.152750,0.400880,-0.903307
0.689736,0.249288,-0.164452,0.148242,-0.434294,0.888489
0.229206,-0.160447,-0.147138,0.910264,-0.189268,0.368236
-0.110710,-0.083765,0.772126,0.245044,-0.744356,0.621199
-0.381347,0.033696,0.521571,-0.214322,-0.922475,-0.321100
0.356178,0.597234,-0.058960,0.480819,0.284770,-0.829288
0.666313,0.589207,0.342899,-0.502444,-0.635231,-0.586543
0.176000,0.009403,0.860135,-0.462319,0.883130,0.079635
0.332005,0.485054,0.439127,0.744943,0.189558,-0.639630
-0.007539,-0.128656,-0.096299,0.970322,-0.150678,-0.189133
0.882375,0.233125,-0.577834,-0.683687,0.250940,0.685274
0.169893,0.053134,0.533745,0.921004,-0.384554,-0.062202
-0.476172,0.738355,-0.047097,0.607774,0.793842,0.020648
0.169521,-0.401074,0.015153,0.383814,0.438957,0.812406
0.424210,-0.192876,0.410233,0.146556,0.117405,0.982210
-0.371753,0.470058,0.252461,0.338155,0.575720,0.744445
0.350318,-0.371075,0.297256,0.938379,-0.027566,-0.344507
0.200048,-0.119675,-0.141828,0.864260,-0.034723,0.501845
0.257364,0.288371,0.444097,-0.689783,0.236930,-0.684152
-0.110961,-0.415650,-0.128977,0.778946,0.626805,0.018937
0.316053,0.554032,0.524085,-0.483232,-0.852551,0.199107
0.149835,-0.052599,0.694002,0.852109,-0.434221,-0.292168
0.425080,-0.309388,0.512646,0.389689,0.834177,0.390246
0.086537,0.214641,0.472031,0.485492,-0.343916,-0.803753
0.556414,0.259114,-0.005268,0.825872,-0.550893,0.120216
0.063608,0.274220,0.174168,0.508263,-0.138841,0.849937
0.138994,0.009190,0.217720,0.290140,-0.177354,0.940407
0.161547,-0.051335,0.861857,-0.559442,-0.828855,-0.004816
0.209642,0.022181,0.339848,-0.354575,-0.934925,0.013889
0.716027,0.086195,-0.535694,-0.736837,0.666765,0.111784
-0.380104,0.590896,-0.446470,0.295892,-0.325104,0.898196
-0.018878,0.202070,0.436415,0.362006,0.405742,0.839241
-0.197310,0.401499,0.433478,0.022668,-0.996404,0.081636
-0.183229,0.416817,0.252291,0.779276,-0.059410,-0.623858
0.039187,0.252776,0.450735,-0.265909,0.765612,0.585774
-0.477416,0.669487,-0.228792,0.780002,0.207383,-0.590415
0.246774,-0.112493,0.713717,0.582676,-0.062508,-0.810297
0.201170,0.068768,0.206818,-0.249483,0.926469,0.281805
0.133263,-0.491391,-0.113528,0.744100,0.398580,0.536142
-0.025483,-0.014787,0.176823,0.825183,-0.207748,0.525275
0.097626,0.300202,-0.976388,-0.287327,0.217225,0.932875
0.006542,-0.444488,0.327280,0.645692,0.763135,0.026591
0.176499,0.049962,0.510472,0.009252,0.965937,0.258610
0.237678,-0.075209,0.466439,0.080919,0.213766,0.973528
-0.217620,0.398017,0.246303,-0.539045,0.054705,0.840499
0.288393,-0.068021,-0.686715,0.683230,0.651838,-0.329097
-0.237807,-0.427481,0.247010,0.242588,-0.542063,-0.804561
0.191325,0.076898,0.576563,-0.789714,-0.128129,-0.599945
0.305835,0.672762,-0.284857,-0.726841,0.211922,-0.653292
0.287020,0.233022,0.533462,0.894650,0.378588,0.237217
0.030213,0.591638,0.068873,0.885472,-0.428832,-0.179004
0.095880,-0.022813,0.287681,-0.143122,-0.776662,0.613443
0.580960,-0.352907,0.139004,0.951642,0.226710,0.207317
0.317300,-0.097174,0.065569,-0.506167,0.748967,0.427603
0.439413,-0.229740,0.403934,0.071802,-0.249693,0.965659
0.184971,-0.013729,0.871065,-0.603857,0.611145,0.511721
0.263224,-0.000313,0.566056,0.350920,0.884289,0.308040
-0.342223,0.094434,0.033512,0.302094,-0.776038,0.553628
0.277179,0.048486,0.642174,0.899127,-0.352476,0.259483
-0.043051,-0.004014,0.708915,0.342936,0.939312,-0.009340
0.433431,0.306752,0.396789,0.581268,-0.809815,0.079545
0.071083,-0.032323,0.800144,-0.520240,-0.325954,0.789370
0.359414,0.141654,0.553007,0.482706,0.477352,-0.734255
0.604635,0.508612,0.316716,-0.616063,0.696240,-0.368396
-0.628933,-0.006760,0.268871,0.866346,0.452408,-0.211593
0.086784,0.210838,-0.984014,-0.013925,-0.063323,0.997896
-0.375989,0.298828,0.137111,0.603669,0.569353,-0.558051
0.221856,0.190349,0.589103,-0.654153,0.755472,-0.036681
0.342595,0.475338,0.431698,0.780974,0.410320,-0.470870
0.317300,-0.083236,0.694482,0.143472,0.959254,-0.243408
-0.191203,0.910746,0.117792,0.767579,-0.437927,-0.468020
-0.162296,-0.095279,0.216506,0.820244,0.477879,0.314374
0.314186,0.512622,0.433082,0.769647,0.328228,-0.547640
0.647371,0.703605,0.256500,0.063442,0.798169,0.599084
0.165532,0.350799,0.156995,0.650119,0.358660,0.669857
0.425080,-0.014683,0.589103,-0.555734,0.741892,0.375173
-0.354433,-0.446603,0.208993,0.970454,0.239403,-0.030085
-0.367768,0.121158,0.603847,0.616102,0.709960,0.341138
0.199923,0.011305,-0.230120,0.270612,0.941903,-0.198967
0.033829,0.377632,0.108698,0.806840,0.462757,-0.367239
0.327643,-0.247064,-0.479431,0.968365,0.088263,0.233409
-0.375119,-0.149467,0.206931,0.169070,-0.590803,0.788903
-0.262479,-0.727157,-0.015464,-0.689459,0.581069,-0.432441
-0.131894,0.443857,0.248817,-0.069060,-0.282115,0.956892
0.317548,-0.297242,0.486746,-0.419582,-0.800245,-0.428437
0.039435,0.305166,0.736143,-0.445194,0.739334,-0.505161
0.571864,-0.443857,0.276581,0.971880,0.075446,-0.223063
-0.366894,0.658501,0.231278,-0.581729,0.444450,-0.681216
0.366517,-0.043199,0.392015,0.876930,0.480424,0.013634
-0.230453,0.331470,0.200972,-0.696139,0.500259,-0.514909
-0.362783,-0.227420,0.153267,-0.132405,0.912257,-0.387629
0.209767,-0.064430,0.784073,0.217421,0.959754,0.177763
0.079057,0.014155,0.597266,-0.145038,0.984739,-0.096192
0.101862,0.094750,0.195605,0.013406,-0.667653,0.744352
-0.357300,0.496356,0.157758,-0.390560,0.872962,-0.292234
0.379103,0.058627,0.804409,-0.606202,0.724586,-0.327864
0.060493,0.100243,0.460394,-0.396002,0.426322,-0.813285
-0.458726,0.703812,-0.440313,0.238964,-0.333855,0.911832
0.124665,-0.014470,0.301154,0.262538,0.807737,-0.527858
0.376986,-0.220450,0.538433,-0.594870,-0.073375,0.800466
-0.271696,0.362526,0.067970,-0.196876,-0.643264,0.739900
-0.817955,-0.087459,0.150471,0.733796,-0.654697,-0.181425
0.908415,0.188659,-0.938286,0.348655,0.011511,-0.937181
-0.120429,0.940744,0.074466,-0.027234,-0.750418,0.660402
0.217616,-0.010563,-0.260708,0.960462,0.243386,-0.135188
0.267335,-0.047003,0.639660,0.767863,0.601777,0.219661
-0.444147,-0.485260,-0.137253,0.113301,0.875407,0.469920
0.076818,0.115562,0.138580,0.421367,-0.131582,-0.897294
0.555540,0.340128,-0.612433,0.807353,-0.053101,-0.587674
-0.656471,0.669693,0.197837,0.748697,0.187843,-0.635742
0.278050,0.081018,-0.974608,-0.373764,0.182197,0.909453
0.232320,0.040878,-0.245259,0.286977,0.932745,-0.218246
0.176126,0.723250,0.073731,0.999211,0.039653,-0.002406
0.171764,-0.091791,-0.896598,0.733242,-0.530321,-0.425577
0.232073,0.033696,-0.124599,-0.329499,0.920403,0.210451
0.362532,0.159293,0.644914,0.748361,-0.506062,0.428785
-0.053021,-0.469839,0.323326,-0.608067,0.766884,0.205291
0.276057,-0.601560,0.253930,-0.416044,-0.814770,-0.403804
0.503706,0.117038,0.269661,-0.701386,0.679212,0.216171
-0.051401,0.164676,0.213117,-0.630915,-0.522085,0.573910
0.177746,-0.495718,0.052972,0.284510,0.870757,0.401043
-0.460471,0.457699,0.417209,0.407643,0.878514,-0.249078
0.647870,0.282459,-0.594300,-0.710509,0.109319,0.695145
0.252132,0.434566,0.505642,0.964937,-0.203852,0.165353
-0.309079,0.207885,0.121464,0.824255,0.563800,-0.052276
-0.146223,0.063379,0.006906,-0.338933,0.553545,0.760731
0.566632,-0.207775,-0.934248,-0.429845,0.278753,0.858796
0.201295,-0.000526,0.521939,0.985339,0.114945,-0.126074
0.285777,0.358825,-0.982517,0.023802,0.299052,0.953940
0.233317,-0.205345,0.522984,0.459531,-0.739406,-0.492047
-0.451748,0.163412,0.635396,-0.325438,-0.871868,-0.365974
0.391439,0.027468,0.790371,-0.700483,0.568106,-0.431948
0.176373,0.328092,0.459745,-0.325995,0.937081,0.124925
0.276803,0.056409,-0.933711,0.878057,0.455195,0.147695
0.083917,0.065912,0.100507,0.244286,0.889110,-0.387050
0.490873,-0.313612,0.145218,0.709750,0.531688,0.462128
0.255995,-0.183263,0.907670,0.980763,-0.060827,0.185484
0.264220,0.350799,0.520950,0.961496,-0.248554,0.117243
-0.425210,0.022394,-0.362726,-0.046342,0.997986,-0.043314
0.139119,-0.032529,0.935095,-0.044480,-0.989382,0.138363
0.347702,-0.021968,0.468049,0.825564,0.060004,-0.561109
-0.379229,0.230695,0.355015,0.152219,0.776864,-0.610992
0.092016,0.432664,0.180692,0.169130,-0.971812,-0.164245
0.244656,-0.039608,-0.894960,-0.095164,0.939201,0.329916
-0.535108,0.377103,0.388541,-0.328366,0.858667,-0.393531
-0.017756,-0.177770,-0.067264,0.984414,-0.097012,0.146687
0.029343,-0.551807,0.014221,-0.155407,-0.723749,0.672337
0.517290,0.730961,-0.114601,-0.598351,-0.782776,-0.170988
-0.154695,-0.808597,-0.048284,0.159135,-0.185445,0.969683
0.159178,-0.092952,0.404132,0.161369,-0.599900,0.783633
0.225095,0.253092,0.501885,-0.780919,0.620990,0.067348
-0.109588,0.518643,0.035997,0.954536,0.287180,-0.079930
0.324776,-0.296714,0.080143,0.709922,0.699058,-0.085609
-0.325400,0.088413,0.250173,-0.295029,-0.673687,0.677571
0.199303,0.021865,0.818333,-0.078745,0.987338,0.137703
0.669179,-0.172806,-0.917951,-0.712996,-0.327171,-0.620158
0.036818,0.083236,0.220206,-0.498989,0.715727,0.488615
0.787303,0.372983,0.066755,-0.521156,0.851437,0.058744
-0.052896,0.145876,0.521007,0.007321,-0.175022,0.984537
0.625442,0.550015,0.296832,0.806239,0.113396,-0.580621
0.557038,0.289531,-0.965062,-0.308187,0.254759,0.916580
0.732603,0.016901,-0.940348,0.334216,-0.228673,-0.914335
0.558905,-0.397695,0.100648,-0.752957,-0.656102,-0.050848
0.059869,0.068452,0.626386,-0.707970,0.700711,0.088223
0.258364,-0.122209,0.484713,0.298171,0.929176,0.218463
0.127529,0.833212,0.037663,0.429797,0.606336,-0.669052
0.700205,-0.068549,-0.944133,-0.233469,0.099676,0.967242
0.335241,0.202282,0.354620,0.883081,-0.464984,0.062903
-0.226092,0.349006,0.245428,-0.482385,0.858333,0.174840
0.011151,-0.045946,0.787293,-0.070807,0.736050,0.673214
0.515916,0.232810,0.016085,-0.815695,0.569532,0.101363
-0.179990,0.173973,0.472003,0.986503,0.149901,0.065896
-0.210516,0.016270,0.223143,0.897428,0.192815,-0.396794
0.206402,-0.062108,0.644067,0.502496,0.860371,0.085205
0.100116,-0.018803,0.794919,0.568942,0.822051,-0.023172
0.297987,-0.031265,0.330499,-0.587163,0.593375,0.550587
0.045789,0.237355,0.435822,-0.046101,-0.267677,0.962405
0.071083,0.113557,0.466326,0.856034,0.267891,0.442087
0.339355,0.358935,-0.095169,0.831695,-0.485064,-0.270177
0.225841,-0.088090,-0.090735,0.865852,0.210486,-0.453868
0.407885,0.197318,0.590600,0.705280,0.653132,-0.275680
0.253006,-0.054082,-0.869427,-0.526725,-0.846576,-0.076614
0.282039,0.437100,0.495869,-0.681293,-0.404371,-0.610184
0.253254,-0.138900,-0.589697,-0.439737,-0.801778,0.404701
0.281537,0.278127,0.575631,-0.146549,0.278624,0.949153
0.435796,0.068872,0.036534,0.682974,-0.665574,-0.300929
0.197930,0.029576,-0.198571,0.868438,0.492507,0.057027
0.168273,0.035598,-0.960063,0.953296,-0.301916,0.008567
0.528625,0.311613,0.665080,-0.808408,0.581078,-0.093936
0.431062,0.486956,0.443504,0.807584,-0.507497,0.300424
-0.224849,0.617304,-0.076047,0.916990,0.387913,-0.093022
0.521274,-0.228367,0.294996,0.859946,0.509613,-0.028054
0.648368,0.299989,-0.960910,-0.204866,0.255075,0.944969
0.191576,-0.042986,0.893999,0.954226,0.286178,0.086922
0.261851,0.072147,0.124995,0.998753,-0.033988,-0.036570
0.359292,0.330942,0.231108,0.957252,-0.278920,-0.076636
-0.224099,0.851380,0.053085,0.773776,0.532827,-0.342588
-0.132267,0.113660,0.692788,-0.029410,-0.023622,0.999288
0.626439,-0.349741,0.075313,0.999213,0.015577,0.036469
-0.000937,-0.057144,-0.218201,0.263665,-0.871633,-0.413202
0.016634,-0.109327,0.428535,0.817913,-0.552142,0.161733
-0.477541,0.376677,-0.232323,-0.673290,-0.452540,0.584712
0.354307,0.677617,-0.182726,-0.516798,-0.489936,0.702056
0.103356,0.142711,0.774611,-0.695374,-0.583651,-0.419292
0.478286,0.112499,0.627657,0.119111,-0.680134,0.723347
0.591675,-0.238089,0.613845,0.992346,0.119055,0.032782
0.531743,-0.518218,0.298019,0.808654,-0.470600,0.353007
-0.199554,0.524981,0.080679,0.140917,0.229002,0.963172
-0.626689,-0.004014,0.233339,-0.582163,-0.749369,0.315489
-0.471560,-0.183160,0.184053,-0.390297,-0.572467,0.721076
0.218738,0.164360,0.722303,0.851020,-0.333789,-0.405401
-0.136005,0.415231,0.468190,-0.773215,0.569593,0.278750
0.211760,-0.013729,-0.463727,0.925011,0.200636,-0.322644
-0.055637,0.888032,0.162559,0.961093,-0.253654,-0.109364
0.391812,0.000532,0.492847,0.251234,0.958352,0.135802
0.158432,-0.355866,0.328155,-0.845790,0.483390,-0.225774
-0.207528,0.394743,0.085368,-0.192009,-0.923020,0.333417
-0.218369,0.391680,0.427998,0.897958,0.437493,0.047650
0.071460,-0.005490,-0.230656,-0.267210,0.902411,0.338013
-0.155193,0.314359,0.419299,0.086506,0.113377,0.989779
0.082921,-0.006334,0.599271,-0.489382,0.871251,0.037780
0.380351,0.339813,-0.126266,-0.730271,0.680640,0.058601
0.628184,0.475654,0.664431,-0.886817,0.407926,0.217143
-0.057007,0.201541,0.241813,-0.041525,0.596179,0.801777
-0.495733,0.265767,0.279293,0.984930,0.045996,0.166726
-0.572864,0.597447,0.206677,-0.454236,-0.550124,0.700737
0.401657,-0.541666,0.086893,0.467088,-0.755601,-0.459233
0.248021,-0.475228,0.022751,0.091828,0.633716,0.768096
0.117186,-0.443328,0.625905,0.980335,-0.197336,0.001051
0.324776,0.355660,0.588115,0.951938,-0.219761,0.213352
0.160798,-0.042355,0.776391,0.021370,0.104141,0.994333
0.203413,-0.035069,0.470506,0.430816,-0.357246,0.828718
0.150333,0.301362,0.614692,0.599950,0.356636,-0.716149
0.482150,0.458859,0.083108,0.971020,0.152054,0.184391
-0.617970,0.513047,-0.272147,0.786700,0.253145,-0.563046
-0.041804,-0.291324,0.234300,0.768351,0.590320,0.247304
0.291256,0.014896,0.677818,-0.208149,-0.441671,-0.872697
0.923990,0.254466,-0.938767,-0.186438,0.337107,0.922822
0.117064,0.062850,0.556312,0.152554,0.246900,0.956958
0.206527,-0.014361,0.295392,0.200532,0.208181,0.957313
-0.114825,-0.111435,0.623420,-0.129909,-0.951795,0.277868
0.595041,0.176088,0.183149,0.905358,-0.423955,-0.024276
0.222978,0.252667,0.584104,-0.053343,-0.288100,0.956113
0.400660,0.056512,-0.652879,-0.544346,0.837529,0.047256
-0.305714,0.321013,0.158408,-0.622827,-0.775701,0.101858
-0.152576,0.090315,0.209614,0.475597,-0.117200,0.871821
0.074700,0.162781,0.457683,0.926425,0.331875,-0.177755
0.075320,0.662408,0.126717,-0.607262,0.010045,-0.794438
-0.029468,0.342243,0.402240,0.952542,0.214109,-0.216381
-0.153326,0.303160,-0.689483,-0.744195,-0.196652,0.638359
-0.421594,0.698744,0.256019,0.322430,-0.772402,0.547206
0.214999,-0.019222,0.698634,0.984764,-0.017155,-0.173049
0.018752,-0.017217,0.234243,0.536642,0.830544,0.149039
-0.296991,-0.119888,0.420542,0.831306,0.445986,0.331703
-0.254379,0.529210,0.519086,0.788975,0.270245,0.551803
0.394181,0.260061,-0.383740,0.899419,-0.412448,0.144677
0.010155,-0.407095,0.017497,-0.588873,0.138700,-0.796235
-0.072456,-0.085873,0.337109,0.889171,0.431626,0.151904
0.055386,-0.652899,-0.174563,0.795166,-0.493317,-0.352631
0.261726,0.440582,0.528350,-0.460191,0.869200,-0.180872
0.137621,-0.015206,0.743514,0.805157,0.588028,-0.077105
-0.129776,0.284780,-0.281807,-0.480624,-0.143894,0.865040
0.089777,0.004968,0.756139,0.736729,0.224182,0.637945
-0.015764,0.146405,0.667142,0.373139,-0.474347,0.797347
0.121924,0.290801,0.441584,-0.001653,-0.893736,0.448590
-0.115943,0.250662,0.417266,0.729176,0.675009,0.112537
0.176000,-0.201115,-0.939162,-0.649728,-0.611142,0.452062
-0.197557,0.610438,0.031422,0.876059,-0.190482,-0.442987
0.031712,-0.105736,-0.926226,0.537917,-0.289647,-0.791675
0.188834,0.487059,0.768143,0.849640,-0.113585,0.514986
0.372997,0.524136,0.551623,0.397525,-0.171025,0.901512
0.168897,0.176507,0.260680,-0.296408,-0.706466,-0.642688
-0.490751,0.131828,0.100112,0.059516,0.585217,0.808690
0.160676,-0.057776,0.624324,-0.161793,-0.971201,-0.174904
0.208147,-0.144922,0.645253,0.907959,-0.161835,0.386549
-0.533614,0.626388,0.281976,0.986770,-0.090186,-0.134730
-0.170270,0.580227,-0.676350,0.845764,0.517559,0.129676
0.197930,-0.033696,0.677818,0.929631,0.366993,-0.033199
0.146968,-0.048376,0.420005,-0.077388,-0.985545,-0.150707
0.399162,0.025353,0.881261,0.191962,-0.967218,0.166255
0.114322,-0.536173,0.345553,-0.563415,-0.641115,0.521091
-0.364403,0.380907,0.275197,0.136066,-0.212884,0.967557
0.461463,0.385974,0.324992,-0.769369,0.396732,0.500674
0.198553,0.167532,0.007555,0.758062,0.649247,0.061807
-0.131769,-0.026514,-0.628109,0.459450,0.859409,0.224327
-0.294873,-0.620573,0.044103,0.786599,-0.533743,0.310452
0.139241,0.567235,0.013656,-0.702529,0.123459,-0.700864
0.623575,0.711206,-0.437884,0.987433,-0.039122,-0.153119
-0.249767,0.582231,0.473387,0.993791,0.054836,0.096815
-0.531617,0.700014,0.230995,0.995594,0.015009,0.092556
-0.010531,0.018171,-0.004251,0.539493,-0.287803,0.791275
0.225841,0.059156,-0.915465,-0.691275,0.599119,0.403975
0.081301,-0.175978,0.197808,-0.512316,0.741198,0.433771
-0.381226,-0.233016,0.182500,-0.191601,0.971323,0.140787
0.527130,0.360515,0.662171,-0.378716,0.577641,0.723122
-0.068597,0.618149,0.107059,0.778590,0.618788,-0.104399
0.239424,0.451780,0.578032,0.820665,-0.521170,0.234290
0.297987,-0.198794,-0.935490,-0.379618,0.351807,-0.855641
-0.212262,0.067924,0.691432,-0.019822,-0.543519,0.839163
0.073951,0.117567,0.789807,0.238616,0.816508,0.525716
0.440158,-0.012885,-0.950742,0.272157,-0.212937,-0.938397
0.446763,0.101616,0.560887,0.837205,0.533959,-0.118216
-0.043051,-0.312135,0.163266,0.930276,-0.280315,0.236666
0.394804,-0.334526,0.250173,0.506173,-0.281880,-0.815066
0.107345,0.108696,0.637712,-0.360089,0.884884,-0.295495
0.348949,0.076692,0.623533,0.683470,0.504437,-0.527648
0.060744,0.288687,0.015859,0.990451,0.057280,0.125401
0.421468,0.079754,-0.186765,-0.275331,0.810549,0.516916
-0.095759,-0.007920,0.652257,0.604480,0.406552,-0.685069
-0.191827,0.062321,0.532954,0.810286,-0.564203,-0.158463
0.163292,-0.046055,0.742469,0.864445,0.421667,0.273736
0.224221,-0.170382,0.032213,0.437964,0.783283,-0.441196
-0.511684,-0.006231,-0.214642,-0.040339,0.946421,0.320407
0.662947,0.600084,0.209897,0.862652,-0.244975,-0.442515
0.788923,0.382170,0.049639,-0.781749,0.248685,0.571861
0.049652,0.069400,0.180664,-0.045935,0.995932,-0.077526
0.233442,-0.099502,-0.123272,0.982148,-0.033504,-0.185100
0.737337,0.182425,-0.949867,-0.340215,0.021418,0.940104
0.651733,-0.196680,-0.936140,0.051916,0.489880,0.870242
-0.570868,0.378366,0.441273,-0.131377,-0.898672,0.418483
-0.527758,0.316783,0.001031,0.716154,0.279960,0.639332
0.163912,0.271473,0.581986,0.049835,0.520524,0.852392
-0.130647,-0.606628,-0.162785,-0.008001,-0.971155,0.238317
-0.568130,0.064017,-0.212298,0.538606,0.224573,-0.812078
-0.528754,0.273478,0.080679,-0.758776,0.628549,0.170837
0.236309,0.001905,-0.906935,-0.476262,-0.770978,-0.422808
-0.395801,0.603675,-0.190973,0.307267,-0.417922,0.854943
0.425830,0.033909,-0.748062,0.120275,0.989398,-0.081392
0.165284,-0.205873,0.338690,0.293417,-0.878115,0.377916
0.086286,-0.161929,0.219302,0.864922,-0.080474,-0.495413
0.400535,-0.322380,0.485193,-0.124871,-0.992166,-0.003724
0.574480,0.716487,-0.149934,-0.506189,-0.458999,0.730132
0.167654,0.426959,-0.991244,-0.112092,0.336915,0.934839
0.230203,0.129398,-0.136829,0.354196,-0.913509,0.200114
0.019125,0.520333,0.106156,0.978131,-0.156180,0.137360
0.385583,-0.076582,-0.928570,0.396565,0.327832,0.857474
-0.237184,0.621740,0.278728,-0.299422,-0.171636,0.938556
0.232320,0.440691,0.199757,-0.476930,-0.173102,0.861727
-0.097253,-0.340232,-0.966728,-0.238043,0.082907,0.967710
0.456855,0.261544,-0.969299,-0.247636,0.213265,0.945090
-0.710924,-0.454101,-0.143551,0.141919,-0.807052,0.573172
0.346082,0.305482,-0.100874,0.846440,-0.502402,-0.176444
-0.039066,0.925323,0.079521,-0.519431,-0.319549,0.792515
0.073453,-0.310549,-0.916510,-0.088423,-0.384519,0.918872
-0.230830,-0.011299,0.195888,0.777360,0.526920,-0.343608
-0.593919,0.665258,0.216506,0.714487,-0.036091,-0.698717
0.082175,0.128765,0.000692,-0.342361,0.864062,-0.369034
-0.313441,-0.071089,0.247038,-0.090161,0.683110,-0.724729
-0.081677,0.239463,0.232972,0.187138,-0.031487,0.981829
0.164661,-0.061793,0.778283,-0.103211,-0.197452,0.974864
0.521400,0.451993,0.266357,-0.630923,0.297419,0.716574
0.164787,-0.024502,0.947861,0.970553,-0.005801,-0.240818
-0.220236,0.060742,0.694652,0.017430,-0.765418,0.643297
0.042674,-0.203546,0.354253,0.967917,0.178366,0.176980
0.334868,-0.190555,0.533067,-0.738825,0.460647,0.491876
0.187838,0.154857,0.732330,0.878997,0.269129,-0.393616
0.201668,-0.050175,0.704961,0.964654,0.149555,0.216969
0.421966,0.491604,0.599751,-0.733281,0.079896,-0.675215
0.044545,0.496672,-0.027891,0.195460,-0.938538,-0.284503
0.280419,-0.214113,0.360834,0.745720,0.603821,0.281607
-0.409635,-0.157597,-0.057096,-0.275745,0.855540,0.438197
-0.252261,0.606421,0.446046,0.966452,0.252852,0.045122
-0.268833,-0.282027,-0.158690,0.536999,0.077076,-0.840055
0.610239,0.427171,0.663583,-0.750809,0.223487,0.621562
0.808111,0.340973,-0.172501,-0.568406,0.621944,-0.538610
-0.184975,0.477343,0.465478,0.454689,0.063069,0.888414
0.053641,0.001267,0.613817,-0.007412,0.992588,0.121300
0.323156,0.284251,-0.426276,0.976632,-0.179792,-0.117752
-0.392561,0.033380,0.141574,0.111041,0.990978,-0.075053
0.254250,-0.002427,-0.696742,-0.113362,0.993548,0.003314
0.341846,0.559415,0.624211,0.761770,-0.189647,0.619468
-0.035700,-0.061367,0.076047,0.912513,-0.388768,-0.127198
0.532116,0.543472,-0.360015,0.522138,-0.773539,0.359178
0.014018,0.220876,0.768793,-0.276071,0.804862,0.525341
0.498349,0.405090,0.158831,0.331572,0.161030,-0.929586
0.307581,-0.025663,0.120250,-0.513263,0.277867,-0.812004
-0.304843,0.141866,0.198853,-0.153212,0.957273,0.245263
-0.060744,-0.069188,-0.981726,-0.322151,0.603273,0.729575
0.018878,0.115775,0.177359,0.990618,0.113379,-0.076295
-0.119559,-0.017430,-0.995707,0.372073,-0.346000,-0.861305
-0.417734,0.714591,-0.425767,-0.630898,-0.175954,-0.755650
0.458973,0.192669,-0.004307,-0.674399,0.689708,0.263607
-0.340477,-0.220341,0.658076,0.773710,-0.504196,-0.383614
-0.539344,0.428016,0.007329,-0.401837,-0.135330,-0.905656
0.609369,-0.054501,-0.950290,-0.222567,0.160494,0.961616
0.206653,0.043947,0.764330,0.850096,0.441035,-0.287792
-0.684755,0.397592,0.440002,0.078309,-0.834832,0.544907
-0.083423,-0.317099,0.245823,0.848608,0.164645,-0.502749
0.207025,-0.025985,0.775571,0.069061,-0.440894,0.894899
-0.543455,-0.209252,-0.120786,-0.726485,0.022249,-0.686822
0.278050,-0.145135,-0.794382,0.963961,0.121896,0.236474
0.481279,0.165205,0.192724,0.170763,-0.910327,0.377022
0.290511,-0.004858,-0.925040,0.628879,0.777186,-0.022185
0.715529,0.677830,0.245089,0.733553,0.416128,-0.537343
-0.608623,0.207356,0.076358,-0.298722,0.815878,0.495084
0.531492,0.541569,0.362500,-0.508146,0.848827,-0.145876
0.208520,-0.089045,0.285083,0.743948,0.517562,-0.422695
0.059497,-0.193933,-0.074918,0.943168,-0.211558,0.256275
0.095257,-0.103512,0.431896,-0.174715,0.294569,0.939523
-0.494611,0.510088,-0.220827,0.774270,0.214168,-0.595515
-0.291884,0.377838,0.133016,0.999916,-0.006061,-0.011417
-0.003801,-0.657547,-0.056079,0.408142,-0.089576,0.908513
0.072080,0.166372,0.588736,0.801832,-0.209054,-0.559787
0.302223,0.038873,-0.947381,0.184952,0.598155,0.779746
0.063608,-0.047428,0.352050,-0.472780,-0.714028,-0.516375
0.220483,-0.123163,-0.746311,0.702566,0.275448,-0.656148
-0.117939,-0.350586,0.240570,0.553668,-0.362749,-0.749576
-0.342348,-0.817681,0.010493,0.808794,-0.576355,0.116904
0.054637,0.138591,0.665391,-0.084515,-0.500342,0.861693
-0.181982,0.234183,0.020039,0.112009,-0.699671,0.705630
0.340351,0.537656,0.237774,-0.799889,0.580524,0.152217
0.587937,0.546534,-0.112624,0.028607,-0.998599,0.044510
0.642638,0.442167,0.668865,-0.762229,0.335557,0.553542
0.486884,-0.266928,0.706373,-0.491448,-0.868498,0.064737
0.074947,-0.044256,0.876403,-0.136481,0.990642,-0.001538
0.342720,0.443328,0.269549,0.904997,-0.027365,-0.424537
-0.086412,0.118096,0.506630,0.854614,-0.251643,0.454214
0.525636,0.799726,-0.116691,0.377939,0.921581,0.088607
0.311193,0.295134,0.187443,0.914867,0.097626,-0.391774
-0.282290,-0.168899,-0.061728,-0.599979,0.466594,0.649858
-0.281168,0.676772,0.219697,0.753384,-0.591015,0.288293
0.415738,0.296507,0.648840,-0.644716,0.545625,0.535383
-0.471936,0.281402,0.394585,-0.691924,-0.151614,0.705872
0.776713,0.513679,0.315897,0.190473,-0.877488,0.440153
-0.234815,0.228477,0.048142,0.863488,-0.337720,0.374610
0.565510,0.484841,0.437460,0.397077,0.664023,-0.633563
0.162543,0.089683,-0.952634,-0.318066,0.503834,0.803110
0.493987,-0.180098,0.389501,0.433394,0.900964,0.020831
-0.655349,0.412910,0.021706,-0.477261,-0.469244,-0.742989
0.531245,0.700750,-0.399105,0.344167,0.608301,0.715206
0.375240,0.446713,0.586646,-0.747024,-0.159362,0.645414
0.161547,0.027255,0.556905,-0.065942,0.439878,0.895633
0.204660,0.164044,0.163011,0.461242,0.317280,-0.828607
0.036320,0.165102,0.107144,0.596065,-0.726785,-0.341306
0.393930,0.370449,-0.974411,0.169990,-0.310440,-0.935270
0.507570,0.583927,0.469376,-0.316951,0.902770,-0.290772
0.159554,-0.006972,0.782011,0.291807,-0.668571,0.684004
0.203911,0.283619,0.592803,-0.315706,0.923894,-0.216216
0.208273,-0.315198,0.785570,0.986214,0.079209,0.145283
0.555041,0.329781,-0.603593,0.807353,-0.053101,-0.587674
0.469563,-0.152530,0.787123,0.821209,0.131930,0.555166
-0.116817,0.668114,0.054073,0.873506,0.486495,0.017606
-0.040309,0.680260,0.158662,0.950882,-0.079921,0.299059
0.208273,-0.239779,0.379362,0.553764,0.377754,0.742056
0.047785,0.335480,0.473217,0.095203,0.945851,-0.310326
-0.178369,0.046268,0.471890,-0.689276,0.322577,-0.648723
0.174506,-0.031581,-0.074522,0.893073,-0.435646,0.112396
0.020372,-0.448608,0.284490,-0.462472,0.871673,0.162190
-0.805871,0.093061,-0.257940,-0.325639,0.201157,0.923848
-0.001436,0.640965,0.084408,-0.309695,-0.562474,-0.766624
0.470312,-0.365266,0.514313,0.748141,0.352955,0.561878
-0.433808,-0.590890,0.123582,0.641241,-0.208442,0.738486
0.203041,-0.013413,0.875980,0.877574,-0.018409,0.479088
0.020620,0.013207,0.568767,-0.361453,-0.929269,-0.076229
0.418852,0.328511,0.370437,-0.794367,0.288699,0.534447
0.224346,0.051974,0.778057,0.100598,0.779615,0.618126
0.256992,0.048170,0.201649,0.620024,0.730205,0.287004
0.155816,-0.035701,0.904648,-0.385776,-0.877571,-0.284687
0.498349,-0.125697,-0.950460,-0.143264,-0.031585,0.989180
0.240792,0.422413,0.499033,0.894536,0.177703,0.410154
-0.244660,-0.614448,-0.090339,-0.672304,0.576420,0.464485
-0.491622,0.715436,-0.155442,0.317987,0.870577,-0.375472
0.208147,-0.207246,0.909675,0.950785,-0.078565,0.299726
0.552923,0.607376,0.289856,-0.727469,0.498609,0.471357
0.885862,0.062321,-0.933485,-0.150268,0.046272,0.987562
0.274936,-0.040137,0.237915,0.800615,-0.374158,0.467998
-0.020125,-0.180942,0.770120,-0.608507,-0.099457,0.787292
-0.453741,0.562587,0.234300,-0.334885,0.436379,-0.835120
0.136126,0.090527,0.810143,0.140855,0.669298,0.729520
0.176126,0.030743,0.683778,0.785791,-0.396652,0.474551
-0.201671,0.380584,0.250625,0.824099,-0.219181,-0.522323
0.130023,-0.174076,-0.450029,-0.174279,-0.961569,-0.212158
0.563392,-0.398643,0.298188,0.567117,-0.210214,0.796359
0.227461,-0.412485,0.258166,-0.532030,-0.660291,-0.530057
0.565635,0.034863,0.670475,-0.381970,0.105004,-0.918190
0.259984,0.443650,0.532841,-0.441272,0.875460,-0.197100
-0.357798,-0.882011,-0.016819,-0.611937,0.786979,0.078723
0.536226,-0.190871,-0.936592,0.321724,-0.381492,-0.866578
0.089526,0.122744,0.662369,0.492640,-0.231946,0.838753
0.133012,0.549280,-0.220291,0.994968,-0.033976,0.094258
0.062611,1.000000,0.122255,0.307048,0.943195,0.126903
0.370255,-0.184108,-0.609948,0.673383,0.207923,-0.709453
0.655722,0.226369,-0.956560,-0.243255,0.190953,0.950980
0.309326,0.449988,0.610032,-0.592616,0.194637,-0.781615
0.446888,0.302632,-0.972405,0.297196,-0.159025,-0.941481
0.053888,0.259327,0.719337,0.022483,-0.956935,0.289430
0.253128,-0.427062,-0.941902,0.220386,0.974163,0.049359
-0.054515,0.241578,0.408736,-0.035232,-0.466793,0.883664
-0.190332,0.373931,0.481719,0.990827,-0.114328,0.072043
-0.426454,-0.434457,0.107624,0.766940,0.136134,0.627112
0.432682,-0.366639,0.529706,-0.565325,-0.068523,-0.822017
-0.098625,-0.803736,-0.055175,0.000424,-0.058783,0.998271
-0.277054,-0.334739,0.058706,0.355174,-0.114129,0.927807
0.124415,-0.581916,0.342079,-0.336679,-0.941596,-0.006726
0.186093,-0.012459,0.998701,-0.427007,0.899814,0.089443
0.507193,0.498683,-0.030941,0.977433,-0.144874,-0.153742
-0.625069,0.601141,0.230854,0.731616,0.063712,-0.678733
-0.495858,0.003066,-0.208061,-0.074194,0.224927,0.971547
0.408634,-0.036861,0.466128,0.841043,-0.044261,-0.539154
0.140116,-0.047635,0.921199,0.294134,0.955676,0.013016
0.325275,0.353332,0.584613,0.958188,-0.255027,0.129757
-0.464209,0.251822,-0.001426,0.580269,0.658374,0.479407
0.205406,-0.035172,0.320388,0.999225,-0.001990,-0.039313
0.814590,0.326293,-0.955544,-0.243415,0.373391,0.895170
0.084294,-0.027146,0.775119,-0.466834,-0.821977,0.326221
-0.354558,0.129294,0.650280,0.426777,0.901981,-0.065510
-0.665693,0.036236,0.137309,-0.306003,-0.122678,-0.944093
0.208645,-0.003801,0.440200,-0.475547,-0.777416,0.411680
0.199923,0.130242,-0.768172,-0.477336,-0.807823,0.345793
0.460718,-0.107000,0.741678,0.659093,0.751783,0.020471
-0.123171,-0.081650,-0.693805,0.029186,-0.617256,0.786221
-0.137997,-0.547269,0.164113,0.119414,0.820250,0.559402
-0.127906,0.678146,0.046702,0.844902,0.525883,0.097913
0.321285,0.053134,-0.411052,0.924520,-0.376951,-0.056310
0.170642,-0.042883,-0.690670,-0.508248,0.658628,-0.554881
0.462464,0.584978,0.203570,0.215157,0.578867,0.786525
-0.724381,-0.022601,0.115759,0.800972,-0.576480,-0.161598
0.055633,-0.101294,0.407211,-0.681970,0.653822,-0.327771
0.192446,-0.137637,0.386847,0.987413,-0.059927,0.146371
0.129525,-0.655851,-0.129853,-0.530441,0.099158,0.841902
0.220855,-0.000422,-0.735917,0.745721,-0.443930,-0.496816
0.535853,-0.099502,-0.947748,-0.077221,0.066855,0.994770
-0.214007,-0.069819,0.178630,0.880038,-0.293962,0.372988
0.130522,-0.110804,0.489147,0.468313,0.810004,0.352953
-0.458479,-0.870496,-0.044555,-0.479440,0.418733,0.771233
0.083796,0.017855,0.295420,-0.080034,-0.436178,0.896294
0.249268,0.213584,0.620878,0.803210,-0.365048,-0.470738
-0.239302,0.288584,0.330387,0.900772,0.423913,0.094375
0.228955,0.013523,-0.685105,0.366018,0.924437,-0.106994
0.601893,0.400023,-0.169140,-0.229484,-0.269742,0.935188
0.179115,-0.004329,0.548827,-0.113468,0.830147,0.545876
0.322533,-0.062108,-0.876008,0.883723,0.454342,0.112281
0.244656,0.081759,-0.554984,0.963815,0.226401,-0.140726
0.522769,0.220663,0.194588,0.895649,0.422113,0.140121
0.430815,-0.019964,0.775967,0.988154,0.118303,-0.097758
-0.242044,0.494667,0.488215,0.998751,0.049207,0.008627
-0.004675,0.533117,0.082289,0.926117,0.086359,-0.367218
-0.521153,0.537869,-0.220912,0.745373,0.327525,-0.580643
0.178868,-0.018377,0.733007,-0.081736,0.864496,0.495949
0.751041,-0.041407,-0.937778,-0.242907,0.028380,0.969634
0.415738,-0.089360,0.752552,0.821633,0.556187,-0.124799
-0.545075,0.546740,0.176314,-0.118844,0.054037,0.991441
-0.556539,0.659346,0.245569,0.964600,0.208501,-0.161476
0.581956,0.555721,0.212834,0.778863,0.197380,-0.595326
-0.325400,-0.032007,0.631611,0.703066,0.499492,0.506168
0.158931,0.426746,0.761788,0.849640,-0.113585,0.514986
0.200546,0.149152,0.543743,0.785184,0.392129,-0.479292
0.289017,0.178621,-0.500869,0.857575,0.261408,-0.442980
0.384587,0.411112,0.203146,-0.422021,-0.106232,-0.900340
-0.184476,0.323972,0.432037,0.876814,0.301758,-0.374353
0.228084,-0.403607,0.574981,0.591228,0.045773,0.805205
-0.232948,0.413858,0.188205,0.941010,-0.060247,-0.332972
0.649741,0.523401,0.376989,-0.597486,0.795076,-0.104235
-0.151580,0.430762,0.194136,-0.432424,0.779449,0.453287
-0.602893,-0.473010,0.151572,0.501062,0.000550,0.865411
0.394554,0.502061,0.500417,0.942184,-0.156191,0.296467
0.300729,0.096549,0.655760,-0.464444,0.209938,-0.860359
0.137500,0.377632,-0.982828,-0.162638,0.232253,0.958962
-0.118810,0.140280,0.675785,-0.885337,0.460661,0.063008
0.159178,0.017327,0.526034,0.275608,0.836388,0.473809
-0.080183,-0.386812,0.018034,0.851951,-0.472995,-0.224622
0.580960,0.208304,-0.959978,-0.041442,0.185180,0.981830
0.145348,-0.021227,-0.702250,0.006060,0.950739,0.309933
0.390317,-0.644234,-0.130898,0.117728,0.635272,0.763262
-0.381724,0.556037,-0.206536,-0.553640,-0.302998,0.775677
0.060368,-0.121261,0.433139,-0.070292,-0.891975,0.446587
0.955392,0.215699,-0.934954,-0.400779,0.391199,0.828456
0.046789,0.168377,0.225318,0.576900,0.569676,-0.585368
0.654726,-0.266605,0.415769,0.187416,0.844710,0.501339
0.407140,0.228477,-0.972123,0.196048,-0.351086,-0.915590
-0.214752,-0.427590,0.223058,-0.458935,0.842452,-0.282228
-0.240298,0.005709,0.489599,0.835323,0.011079,0.549648
-0.210516,0.514840,-0.595402,0.763941,0.322076,0.559161
0.240420,-0.118618,0.314090,0.536699,-0.206448,0.818128
0.447010,-0.238509,0.707136,0.352126,0.929507,-0.109652
0.531245,0.050813,-0.948822,0.078882,0.143082,0.986562
-0.221232,0.438789,0.497592,0.705562,0.679863,0.199921
0.165657,0.431710,0.770713,0.849640,-0.113585,0.514986
0.645006,-0.004329,-0.948059,0.497039,-0.205757,-0.842981
0.357547,-0.054185,0.354563,0.889171,0.446329,-0.100824
-0.375864,0.049756,0.158153,0.290125,0.831824,-0.473176
-0.209897,0.363790,0.241671,-0.884782,0.036497,0.464573
-0.434678,0.441110,0.555182,0.852787,0.453827,0.258447
0.143230,-0.095698,0.234836,0.462449,0.839968,0.283893
0.492116,-0.177248,0.363912,0.313331,0.944378,0.099869
-0.273940,0.661983,0.170496,-0.647658,0.355130,-0.674108
0.259608,-0.086827,-0.469659,0.798448,0.561039,-0.218439
0.220483,0.430447,0.511969,0.817145,0.516439,0.256054
0.239424,-0.056932,0.559249,-0.207640,-0.059326,0.976405
0.531245,0.583927,-0.304995,0.464102,-0.698830,0.544285
-0.083172,0.319852,-0.670390,0.994014,0.108337,-0.014093
-0.029970,0.084719,-0.328325,0.346490,0.936661,0.051092
-0.440036,0.693993,0.244326,-0.278756,-0.793986,0.540260
0.527256,0.606634,0.285676,-0.218280,0.846561,0.485477
0.510559,0.443966,-0.097259,0.755631,-0.642702,-0.126315
-0.533986,0.076898,0.274745,-0.177489,-0.036379,0.983450
0.534234,0.505440,0.424411,0.395020,0.917999,0.035169
0.237678,-0.032323,-0.099406,0.930832,-0.363899,-0.033604
0.566008,0.743952,0.506828,0.494852,-0.643675,0.583784
