0.410639,0.560058,0.356706,0.995480,-0.066342,-0.067961
0.146020,0.050676,0.846100,-0.582901,0.172296,-0.794066
0.027361,0.434763,-0.968303,0.313485,-0.118560,-0.942163
0.493452,0.156241,0.671415,0.854222,-0.474732,-0.211978
-0.061182,0.271618,-0.977656,-0.111874,0.173254,0.978503
0.079834,0.579901,-0.169244,0.749261,0.343166,0.566432
0.399628,0.035045,0.613461,0.532547,0.446326,0.719158
0.014437,0.412116,-0.325284,-0.627001,0.518120,-0.581740
-0.075228,0.191286,-0.967906,0.042063,0.394447,0.917955
0.004774,0.356800,-0.333598,0.939834,0.191419,0.282967
0.189617,-0.007121,0.395617,0.743109,0.648339,0.165668
-0.088938,0.304939,0.390359,0.667142,-0.209408,0.714892
0.090848,-0.075376,0.417869,0.676326,-0.736395,-0.017467
-0.194336,0.224818,0.161144,-0.332634,-0.608580,0.720406
-0.163436,-0.030623,0.009689,0.871556,0.454677,-0.183463
0.398955,0.552621,0.479368,0.524772,0.444960,-0.725689
-0.207260,0.294909,-0.980957,-0.253282,0.267109,0.929785
0.310635,0.588851,0.257183,0.406736,-0.873676,0.266937
-0.078150,-0.053052,0.147879,-0.116748,-0.594443,0.795618
-0.163549,0.208648,0.154236,-0.459647,-0.688798,0.560608
-0.474465,-0.722452,-0.379570,0.511174,0.490356,-0.705870
0.280633,0.561460,-0.964543,-0.386178,0.195834,0.901396
0.043091,-0.335457,-0.920009,0.276313,0.783825,0.556119
0.398843,0.839225,0.359152,0.987457,-0.024019,0.156052
-0.151749,0.401553,-0.614195,0.700845,0.541933,-0.463816
-0.040958,-0.350765,-0.139962,-0.209004,-0.332572,0.919627
-0.052644,0.041515,-0.061316,-0.663897,0.732589,-0.150177
0.028033,0.637481,-0.326262,0.459912,-0.299288,-0.836007
-0.560426,-0.168430,-0.461792,0.825971,-0.515899,-0.227203
0.631101,0.385593,0.682602,0.960741,-0.273434,-0.047012
-0.177821,0.320682,0.432082,-0.015035,0.266347,-0.963760
0.279622,0.541084,0.580542,-0.691718,0.659329,-0.294639
0.127255,0.254901,0.514060,0.194473,0.893429,-0.404926
0.499858,0.499029,0.357379,-0.473429,-0.861346,0.184250
0.427047,0.332324,-0.947457,-0.168917,0.065173,0.983473
0.321533,0.415676,0.515497,-0.551654,0.117436,-0.825764
0.254339,0.437027,0.468364,0.824134,-0.105031,0.556572
0.291980,0.227082,0.282492,-0.117557,0.899683,-0.420417
-0.042867,0.273777,-0.019440,0.627139,0.721949,0.292381
0.450194,-0.023831,-0.032828,-0.208286,0.975224,0.074529
0.554467,0.438534,0.295727,-0.659384,-0.750242,-0.048475
0.591772,-0.617533,0.467508,0.468342,-0.679258,0.565034
0.139727,0.223745,0.617710,0.365350,0.070434,0.928202
-0.783584,-0.830715,-0.660411,-0.793564,0.608142,0.020468
-0.430418,0.036553,-0.981477,0.154353,0.610488,0.776839
-0.130176,-0.103946,0.551687,0.183525,-0.914944,0.359438
-0.230407,0.410286,0.440763,-0.331610,0.334500,-0.882125
0.181189,0.755339,0.145861,-0.576940,0.497668,0.647663
0.270295,-0.081194,0.493917,-0.032007,-0.677521,0.734807
0.221865,-0.030518,-0.059207,0.156360,0.966613,-0.203004
0.337266,0.375998,0.254799,0.405496,0.356872,-0.841555
0.096578,0.154622,0.313944,-0.600300,-0.677640,0.424787
0.120061,-0.167133,0.658363,-0.638873,0.594211,0.488624
0.343445,0.580980,-0.122050,0.725573,0.619487,0.299633
0.573570,0.393570,0.643141,0.609846,-0.056162,-0.790528
0.523344,-0.441667,0.441955,0.936376,0.030755,-0.349649
0.572110,-0.001079,0.884919,-0.240084,-0.919776,0.310439
0.549748,0.101899,0.384827,-0.736970,0.665485,-0.118347
-0.156132,0.216624,-0.973866,-0.352155,0.340637,0.871753
0.167931,-0.321117,0.716683,0.773364,0.539202,-0.333420
-0.549189,-0.111284,-0.016475,-0.260375,-0.603410,0.753725
0.331422,0.273665,0.530719,-0.061782,0.177434,0.982192
0.322770,0.291461,-0.345091,0.124752,0.973625,0.191028
0.079947,0.526092,0.236276,-0.408667,0.912524,-0.017099
0.080396,0.081516,0.061224,-0.474105,0.803251,0.360573
0.447046,0.301161,0.114011,0.743681,0.209391,0.634897
0.552107,0.511323,0.499969,-0.339548,-0.939105,0.052810
0.638069,-0.378913,-0.906529,-0.306895,0.292113,0.905807
-0.141527,-0.019625,0.288911,0.002073,-0.891293,0.453422
0.210405,0.056066,0.103283,0.085550,0.908887,0.408174
0.510533,-0.029656,0.687187,-0.723013,0.190039,0.664181
0.688409,0.395834,0.742267,0.815423,-0.573715,0.077047
0.457834,0.155918,0.811530,0.780597,0.407333,-0.474077
0.291308,0.514127,0.502476,-0.076664,-0.907840,0.412249
-0.497612,0.525012,-0.548264,-0.548968,-0.621763,-0.558609
-0.179954,0.004311,0.580419,0.188081,0.686432,0.702450
-0.071971,-0.154089,-0.006694,0.041329,0.996811,0.068260
-0.440866,-0.060384,0.061957,0.554558,-0.827485,0.087941
0.136243,0.127454,0.717844,0.758262,0.335446,-0.559031
0.093770,0.587015,0.021244,0.999947,-0.006888,0.007590
0.245914,-0.010892,0.713382,0.813246,0.408278,0.414657
-0.069049,0.120656,-0.804744,0.987744,-0.091145,-0.126708
-0.314568,0.369206,-0.044810,-0.334524,0.885356,0.322859
0.487160,0.188048,0.329411,0.843254,-0.198705,-0.499438
0.777737,0.379881,-0.460845,0.409483,0.654774,-0.635291
0.336027,-0.047985,0.501100,-0.523630,0.068368,0.849198
0.422665,-0.181263,-0.765894,0.497258,0.795178,-0.347025
0.023428,0.374379,0.361505,-0.695065,0.057151,0.716672
0.286590,0.428188,0.417472,-0.438059,0.402669,-0.803718
-0.706501,-0.741861,-0.500367,-0.588327,-0.014756,0.808488
-0.384460,0.165948,0.124312,0.820560,-0.497787,0.280872
-0.328500,-0.312271,-0.636447,-0.477548,-0.311216,0.821640
0.400417,0.539465,0.516842,-0.280846,-0.176352,-0.943412
-0.026349,0.264504,0.384705,-0.177662,0.642889,-0.745070
-0.568965,-0.067393,-0.308931,-0.617007,0.718422,0.321206
0.468845,0.826286,-0.098515,-0.424249,0.449510,-0.786100
-0.304792,0.374056,0.166157,-0.694977,0.233804,-0.679957
0.108038,0.051538,-0.464635,-0.040975,0.592628,0.804433
0.077701,-0.031485,0.148123,-0.166273,-0.257793,0.951786
0.196808,-0.014670,0.847322,0.546170,-0.626029,0.556584
0.406483,0.014341,0.738935,0.053464,0.782567,-0.620267
0.144446,0.593267,0.096039,0.961918,0.080462,0.261228
0.128154,0.579144,0.223713,0.238775,-0.930199,-0.278777
-0.017585,0.353786,0.356401,0.763126,-0.107876,-0.637182
-0.116131,-0.269361,-0.122906,-0.293933,0.695873,-0.655259
-0.212205,-0.093488,0.260759,0.104760,-0.075127,0.991656
0.306588,-0.034723,-0.456474,-0.253254,0.960251,0.117387
0.056687,0.042699,0.561499,0.206032,-0.707182,0.676346
0.535702,0.352489,-0.452562,0.946280,-0.264900,0.185424
0.446034,0.024476,0.612422,0.595982,0.152521,-0.788380
0.402663,0.031051,0.861291,0.978401,0.047809,-0.201111
-0.020845,-0.307203,0.670498,-0.360222,-0.919959,0.154645
-0.322321,0.312699,-0.988874,-0.061044,0.258187,0.964164
0.154894,0.161420,0.719128,-0.515949,-0.514874,-0.684618
0.049832,0.322623,0.375535,-0.540700,-0.054746,0.839432
-0.571101,0.534825,-0.039675,-0.285373,-0.545969,-0.787706
0.727847,-0.699161,-0.902953,-0.312707,-0.868739,-0.384065
-0.115905,0.257922,0.722613,-0.385922,-0.866262,0.317260
0.145121,-0.848287,-0.443330,-0.400128,-0.662047,0.633713
0.193886,0.080654,-0.575773,0.307371,0.595294,-0.742393
0.498959,0.642443,-0.117435,-0.467952,0.777614,-0.419925
0.112534,0.560275,-0.195653,0.974946,-0.089943,0.203447
0.134107,0.250373,0.391857,0.121266,0.545935,0.829005
0.364345,0.292323,0.275217,0.892888,0.173257,-0.415612
0.203323,0.755661,0.128347,0.595208,-0.795344,-0.114694
0.411428,-0.286393,-0.912703,0.161359,-0.388052,0.907402
0.143770,0.004206,0.614470,0.476916,0.586559,-0.654599
0.004437,-0.378374,-0.174074,0.695211,-0.516935,0.499459
-0.558403,-0.276580,-0.320241,0.624296,0.634953,-0.455071
-0.657735,0.300517,0.014305,0.537737,0.024497,0.842757
0.222763,0.128961,0.235787,0.878545,0.477141,-0.022229
-0.167705,0.198190,-0.488385,0.157020,0.873869,0.460106
-0.303221,-0.148159,0.495965,-0.196429,0.590903,0.782464
-0.446936,0.068360,0.107073,-0.030015,-0.195045,0.980335
0.438843,0.321649,0.431104,0.921106,-0.303109,-0.244314
0.255237,0.602218,0.574245,0.251830,0.910090,-0.329117
-0.041856,-0.019625,0.554163,-0.119717,-0.932398,-0.341031
0.339738,0.078068,0.202623,-0.610188,-0.785847,0.100568
0.274228,0.327368,-0.356676,0.711351,0.471536,0.521185
0.175795,0.013478,0.819171,-0.085876,-0.400861,0.912105
-0.216474,-0.210701,0.272558,0.684208,-0.137935,-0.716124
-0.477836,-0.294159,-0.119666,0.236164,-0.019533,0.971517
0.079611,0.556070,0.252904,0.110280,0.959035,0.260940
-0.217822,0.012939,0.274056,0.671811,0.718158,-0.181434
-0.751786,-0.694850,-0.356492,-0.495870,0.233158,0.836511
0.492331,-0.581520,0.439112,0.665939,0.198925,-0.718995
0.173884,0.160341,0.412275,-0.078409,0.765412,0.638746
0.434125,-0.156135,0.694370,0.138002,0.070859,-0.987894
0.019495,0.466570,-0.327852,0.872202,-0.316782,0.372709
-0.311646,-0.613327,-0.336563,-0.216563,0.052099,0.974878
0.392773,0.011965,0.817918,0.233703,0.968650,-0.084267
0.430305,0.097693,0.818713,0.730709,-0.546030,-0.409776
0.025338,-0.388509,0.710172,0.903300,0.205941,0.376348
-0.344682,0.284017,0.161450,-0.181553,-0.958658,0.219120
0.148266,0.335773,0.332773,0.444330,-0.785084,0.431526
0.563571,0.247464,0.688287,0.761972,-0.643472,-0.073097
0.235798,0.705953,0.099156,0.072848,-0.705012,0.705444
0.338051,-0.040975,0.772283,-0.066937,0.530492,0.845043
0.203550,-0.207358,0.458583,-0.614727,0.711521,0.340365
0.248945,0.051538,0.944614,0.327590,-0.942636,-0.064200
-0.316591,-0.340420,-0.126238,-0.307631,-0.144231,0.940511
-0.258498,-0.074619,-0.030413,0.284130,-0.201840,0.937300
0.512669,-0.318635,0.715277,0.565918,-0.537696,0.624996
-0.366145,0.166698,-0.977351,-0.107904,0.388995,0.914898
-0.126356,0.597584,-0.155979,0.175102,0.667003,0.724186
-0.529300,0.532673,-0.545971,-0.548968,-0.621763,-0.558609
0.325805,0.590576,0.131281,-0.654254,0.579124,0.486382
0.559298,-0.221804,0.680676,0.676361,0.408535,-0.612890
-0.793360,-0.573866,-0.343104,0.205279,-0.629474,0.749415
-0.472442,-0.059416,0.115693,-0.844440,0.527157,0.095011
0.357491,0.314423,-0.569874,0.497122,-0.849820,-0.175146
-0.174786,-0.481135,-0.157079,-0.063075,-0.548213,0.833957
-0.021518,0.224173,0.342921,-0.439046,0.703425,-0.558956
0.053992,-0.255553,0.131342,-0.481613,-0.874363,0.059487
-0.519301,0.235605,-0.990891,-0.262809,0.320647,0.910009
-0.085793,0.238836,-0.745843,0.928957,0.088295,-0.359505
-0.022416,-0.031485,0.222521,0.261445,-0.549022,0.793865
0.459857,-0.022864,0.692261,-0.255046,0.871830,0.418168
-0.017924,0.280246,0.389565,-0.046997,-0.907918,0.416504
0.340636,-0.112357,-0.115143,0.984476,0.174443,-0.019406
0.105792,-0.020922,0.542395,0.134025,-0.938499,0.318209
0.094668,0.171878,0.779924,0.951390,-0.058459,0.302389
0.032642,0.551219,-0.317643,0.465641,-0.026854,-0.884566
0.506150,-0.611280,0.458583,0.667750,0.007055,-0.744352
-0.069049,-0.100392,0.012135,-0.360282,-0.817329,0.449634
0.531207,0.297496,0.708980,-0.493116,0.858804,0.138898
-0.149167,0.019514,0.255349,-0.118899,0.405808,0.906192
0.591436,-0.292645,-0.924991,-0.086008,0.152064,0.984621
0.114444,0.708539,-0.976892,0.162661,-0.046511,-0.985585
0.086239,0.226332,0.786251,-0.643029,-0.480011,-0.596744
0.332321,-0.204765,0.370247,0.946969,0.298527,0.118880
-0.145796,0.165514,0.128714,-0.699914,-0.393315,-0.596173
0.563458,-0.583034,0.473652,0.997708,0.036735,0.056833
0.464802,-0.082813,-0.538116,0.690629,0.707089,-0.151842
-0.082532,0.634782,-0.194003,0.985037,0.168065,0.038169
0.350526,0.087018,0.491197,0.990011,-0.126288,0.062693
-0.407494,-0.135542,-0.462526,0.040633,0.956954,-0.287382
-0.269622,-0.144921,0.495079,0.658937,0.684743,0.311333
-0.164674,0.046583,-0.968058,-0.180344,0.157806,0.970862
0.691666,-0.100497,0.671292,0.823110,0.376863,-0.424812
-0.249960,0.390339,-0.989363,-0.210667,-0.062514,0.975557
-0.024330,-0.307421,-0.123945,0.340109,0.935656,0.094199
-0.271083,0.114298,0.255349,0.828746,0.453251,0.328242
0.556154,0.222232,0.661481,-0.495417,0.314936,0.809554
0.486937,0.533640,0.331520,0.222526,0.183114,0.957576
0.564020,0.033854,0.868138,0.672685,0.166492,0.720954
-0.306029,-0.106539,0.214238,-0.140062,-0.831680,0.537300
0.259057,0.634460,-0.965705,-0.179067,0.059026,0.982065
-0.042305,0.449966,-0.362850,-0.684448,-0.193788,0.702835
0.248046,0.083997,0.412642,0.554374,0.648914,-0.521133
-0.012417,0.243581,0.420650,-0.239450,-0.775363,0.584360
-0.312771,0.072461,0.084974,-0.620318,0.478417,-0.621548
0.233664,0.414380,0.054927,0.754391,0.656373,0.008281
0.376032,0.657323,0.250336,0.278701,-0.755984,0.592296
-0.418508,-0.129178,-0.026654,0.070773,-0.734129,0.675312
0.196133,0.708539,0.225333,0.713358,0.574933,0.400715
0.068373,-0.141367,-0.287780,0.812691,0.001743,0.582693
0.141637,0.005607,0.309940,0.114494,-0.694835,0.709997
-0.437608,0.178236,-0.978329,-0.137305,0.374563,0.916979
0.025451,-0.192905,0.173829,-0.300212,-0.850769,-0.431352
0.289621,-0.086591,-0.948618,-0.683795,0.171643,0.709199
0.421989,-0.605351,-0.914415,-0.665114,-0.574256,-0.477340
0.113319,0.496008,0.531024,-0.674810,0.216511,-0.705517
0.329735,0.024904,-0.933580,0.187299,-0.602518,-0.775816
0.329735,-0.068255,0.474049,-0.582864,0.808839,0.077776
0.173213,0.687295,0.087969,0.386977,-0.921929,0.017193
0.189840,-0.123683,0.756755,-0.055427,0.743400,0.666546
-0.263556,0.441127,-0.987651,0.483846,0.257020,-0.836561
-0.103320,-0.094139,-0.110099,0.834975,-0.032792,0.549309
0.357826,-0.006687,-0.504707,0.820859,0.468484,-0.326670
0.754817,-0.693126,-0.906926,0.472769,0.827500,0.302876
0.257487,0.066419,-0.071127,0.769745,0.625438,0.127748
0.350862,-0.893468,-0.585524,-0.014218,0.944656,0.327754
-0.028259,0.233552,0.639504,-0.415457,0.519994,-0.746325
0.312881,0.041081,0.405001,0.663651,0.662611,0.347151
0.401651,0.502050,-0.100196,-0.370422,-0.226368,0.900858
0.419743,0.500859,0.306242,-0.053240,-0.971257,0.232002
0.218494,0.077850,0.216530,0.138343,0.989298,0.046378
0.025561,0.145888,0.626391,0.451697,-0.485368,-0.748591
-0.054554,-0.336536,-0.131709,0.172578,-0.848137,0.500880
0.480418,-0.039034,-0.887731,-0.377849,-0.596247,-0.708322
0.024439,0.427108,0.151180,0.589354,-0.114355,-0.799741
-0.258834,-0.157110,-0.141735,-0.643281,0.023460,0.765271
0.597615,-0.064484,0.684100,-0.449475,-0.893088,0.019131
-0.116916,-0.098990,0.498074,0.250939,-0.657301,0.710623
0.073318,0.135865,0.883941,-0.595629,0.576974,-0.558862
0.127142,0.144164,0.352549,0.852616,-0.198470,-0.483380
0.214112,0.520701,-0.961915,-0.275548,0.414172,0.867488
0.620426,-0.186653,0.765405,-0.636565,-0.765900,-0.090451
0.589303,0.281108,0.735267,-0.439193,0.885443,0.151988
0.083431,0.625187,-0.984931,-0.057529,0.198679,0.978375
0.512782,0.014229,0.896228,-0.346185,0.765815,0.541926
0.248835,0.411794,0.242817,0.659245,0.647968,-0.381488
-0.024439,0.286281,0.421476,0.538623,0.835722,0.107023
0.252093,0.396696,0.521366,0.896976,0.152507,-0.414941
0.436371,0.165514,0.663926,0.656485,-0.685440,-0.314958
-0.084442,0.082813,0.515405,0.502151,-0.854639,-0.132048
0.223662,0.610201,-0.970351,0.218515,0.101041,-0.970588
0.818527,-0.330929,0.698374,-0.122123,-0.977914,0.169618
-0.324345,0.315502,-0.019257,0.499754,0.855099,-0.138028
0.191414,0.262022,0.234197,0.204880,0.874881,0.438871
0.154671,-0.315186,0.713565,0.769963,0.623670,-0.134879
-0.185910,-0.128856,0.512349,-0.545872,0.804941,-0.232582
-0.157706,-0.226549,0.464971,0.197469,0.963956,-0.178311
-0.469746,-0.474126,-0.364317,-0.038244,0.947180,0.318413
-0.053320,-0.236039,0.219159,0.778612,-0.111963,0.617436
-0.074556,-0.051545,0.565075,-0.150225,0.977128,0.150509
0.450194,-0.092948,0.626452,-0.065541,0.376818,0.923966
0.515927,0.512725,0.338244,0.502734,0.473441,0.723265
0.010507,-0.687729,-0.427650,-0.012181,-0.334256,0.942404
0.389066,-0.174576,0.432724,0.989879,-0.050372,-0.132671
-0.273442,0.380414,-0.007733,0.271016,0.575235,0.771787
0.155234,0.714252,0.087022,0.040372,-0.923560,0.381323
-0.081634,-0.227411,-0.101846,-0.569846,-0.816032,-0.096783
0.577168,0.349146,0.694064,-0.698704,0.632434,0.334425
0.120174,-0.221159,0.669306,-0.508150,0.254984,0.822658
-0.403002,-0.720083,-0.364134,-0.101552,-0.846332,0.522885
-0.408056,-0.079470,-0.016903,0.006532,-0.615051,0.788460
0.748638,-0.714581,-0.910472,0.191625,0.020723,0.981249
0.616719,-0.012189,0.854658,0.744531,0.273222,-0.609117
-0.057925,0.382790,0.406162,0.788329,0.077785,0.610317
0.315916,-0.251460,-0.011768,0.594617,-0.599360,0.535909
0.474016,0.170693,0.734411,0.149405,0.848989,0.506850
-0.198159,0.358314,-0.612453,0.784012,0.585449,-0.206338
0.258608,-0.141578,-0.898643,-0.646245,0.290914,0.705504
0.419743,0.122709,0.660961,0.935969,-0.350229,-0.036061
0.737174,-0.587884,-0.868535,-0.071145,0.292160,0.953720
-0.380640,-0.113114,0.519012,0.813001,0.444790,0.375756
0.284227,-0.389694,-0.502934,0.287144,0.459023,0.840741
-0.116467,0.065879,0.331642,-0.041178,-0.912692,0.406567
0.180626,0.026306,-0.535090,0.766424,0.356784,-0.534135
0.028596,-0.061786,0.668358,0.957217,-0.223424,0.183894
0.538511,0.494179,0.494345,-0.386910,-0.914866,-0.115417
0.365357,0.013584,0.299028,-0.481396,0.165673,-0.860704
-0.820889,-0.689131,-0.364928,0.539424,-0.234734,-0.808655
0.067026,0.564158,-0.215888,0.633123,0.411497,0.655611
-0.355920,-0.351634,-0.325682,-0.282028,-0.728211,0.624635
0.252206,0.129606,-0.119819,0.796543,0.580701,0.168244
0.047137,0.108256,0.634216,-0.070552,0.974932,0.211023
-0.262318,-0.161638,0.476739,0.392028,-0.837508,0.380650
-0.606833,-0.160776,-0.459072,0.555034,0.818374,-0.148997
0.693576,-0.400263,0.684833,0.055838,0.997383,-0.045923
-0.748075,-0.819606,-0.612819,0.771780,-0.582643,-0.254720
0.406369,0.340195,0.447121,-0.262185,0.963424,0.055447
0.629867,0.072138,0.945684,-0.647444,-0.545291,0.532422
0.072081,0.014986,0.406682,-0.081327,0.266506,0.960396
0.251304,0.715654,0.057525,0.813169,-0.405126,-0.417886
-0.046914,-0.224825,-0.952928,-0.322528,-0.105460,0.940667
-0.399854,0.402304,-0.032125,-0.365783,-0.303688,0.879759
0.229282,0.185244,0.404848,0.349562,0.206684,0.913831
-0.383222,0.207351,-0.963993,-0.058491,-0.296904,0.953114
-0.302323,-0.251460,-0.476586,0.818007,0.559971,-0.131519
-0.073658,0.383757,-0.593960,0.984750,0.160419,-0.067325
0.225685,0.649880,0.256541,0.789461,0.348479,-0.505285
0.309510,0.090684,0.594602,0.209059,0.652315,0.728546
-0.344007,-0.165948,0.509170,0.079454,-0.948574,0.306422
0.474801,0.001185,0.744162,-0.888835,-0.057310,-0.454630
-0.323333,-0.096509,0.219954,0.406082,-0.788502,0.461912
0.443675,-0.199164,-0.838519,0.799529,0.244196,0.548745
0.298722,0.020053,-0.269196,0.214877,0.962331,-0.166574
0.677847,0.358097,0.745354,-0.896515,0.225029,-0.381607
-0.307826,0.294475,0.177039,0.179130,0.479186,-0.859240
0.610200,0.425167,-0.486337,-0.256525,0.476511,-0.840911
0.084443,-0.075587,0.447029,0.028781,0.457989,0.888492
-0.634136,-0.653658,-0.504402,-0.278036,0.356973,0.891777
-0.047137,-0.326612,-0.338886,-0.267272,0.494137,-0.827281
0.613235,0.073000,0.862177,0.400246,-0.632625,-0.663015
-0.511547,0.170476,-0.978023,0.313635,-0.518017,-0.795796
-0.092984,0.193985,0.679790,-0.040017,-0.824099,0.565031
0.784819,0.414169,-0.475394,-0.593480,-0.457928,0.661879
-0.046801,0.655059,-0.182907,0.932906,-0.067974,-0.353647
0.122759,-0.125085,0.697457,0.071677,-0.390522,0.917799
0.477273,-0.172740,0.487162,-0.236261,0.908141,-0.345630
0.371762,-0.127671,0.672790,0.077252,0.660523,0.746821
0.067475,-0.118076,0.068499,0.805541,0.545997,-0.230198
0.485250,-0.330495,-0.913039,-0.074421,0.993988,0.080308
0.191641,0.252637,0.244957,-0.483099,0.696672,0.530343
0.431988,0.405969,-0.642958,0.950027,-0.215900,0.225467
-0.114896,0.110197,0.162245,0.981440,-0.190175,-0.024698
-0.374571,-0.218783,-0.262991,0.698105,0.103445,-0.708483
0.321872,-0.071710,0.343502,0.440828,0.814345,0.377509
0.351647,0.051328,0.926916,-0.816666,-0.358942,0.451905
-0.038375,0.203791,-0.966224,0.057630,0.311088,0.948632
-0.567617,-0.611280,-0.360771,-0.251227,-0.602459,0.757580
0.373333,-0.243371,0.479276,0.951479,-0.238537,-0.194394
-0.117928,0.250373,-0.970351,-0.083637,0.371135,0.924805
-0.346143,-0.039468,0.554072,0.198196,-0.933855,0.297713
0.045450,-0.101899,0.403442,-0.110027,0.227858,0.967458
0.248160,0.510783,0.223988,-0.120756,0.948119,0.294088
0.061968,-0.126270,-0.281300,-0.293335,0.794054,-0.532383
0.284790,0.018974,-0.050954,-0.373328,0.913039,0.164273
-0.426035,-0.150317,-0.112055,-0.370387,0.862701,-0.344326
-0.533007,0.474553,-0.036313,0.196626,0.291746,0.936068
0.418841,0.057685,0.415393,0.733938,-0.632709,-0.247011
-0.182762,0.009701,0.585585,0.385507,0.400110,0.831442
0.538175,0.097581,0.927406,-0.063191,0.613250,0.787357
-0.441991,-0.256415,-0.116671,-0.288923,-0.264171,-0.920183
0.159839,0.113113,0.726373,0.404413,0.859559,0.312422
0.875948,0.194307,-0.436270,0.639722,0.336157,-0.691198
0.651216,0.442528,0.643385,0.285110,-0.870920,0.400263
0.610989,0.349469,0.640451,0.898413,-0.439025,-0.010533
-0.322997,-0.254263,-0.103986,-0.073341,-0.871997,0.483985
0.028147,-0.194307,0.436637,0.269741,0.937397,-0.220287
0.178716,0.171878,-0.076935,0.630435,0.715359,0.301350
-0.093996,-0.226332,0.234839,-0.684398,-0.076514,-0.725083
0.315580,0.684063,-0.965980,-0.383948,0.126379,0.914665
-0.553345,-0.640719,-0.364195,0.192434,0.720193,-0.666552
0.503678,0.518655,0.479582,0.280724,-0.704553,0.651766
-0.029833,0.085504,0.492603,0.071185,-0.025182,0.997145
0.237484,-0.145033,0.623793,0.168945,0.137534,0.975983
0.274454,0.188160,0.263449,-0.605550,0.031215,0.795195
-0.522558,0.540972,-0.036771,0.197795,0.667514,0.717845
-0.413337,-0.134898,-0.245354,-0.429273,-0.172583,0.886532
-0.153772,-0.064162,0.577699,-0.259030,0.451472,-0.853860
0.363783,-0.125513,0.513938,0.853524,0.474924,0.214345
-0.459407,-0.061786,0.028304,0.040316,-0.996288,0.076052
0.293781,0.449426,0.539094,0.891982,0.236890,0.385035
0.513903,-0.075054,0.775798,-0.715633,-0.508665,0.478675
-0.103882,-0.219218,0.433183,-0.623860,0.212856,-0.751991
0.370411,-0.144493,-0.546827,-0.751825,0.292382,0.590992
0.440304,0.329198,-0.946815,-0.158174,0.057101,0.985759
0.192200,0.385699,0.134460,-0.358060,0.719622,0.594926
0.302097,-0.111817,-0.771335,0.458105,0.748444,-0.479552
0.314568,0.068255,-0.005991,0.264228,0.961898,-0.070256
0.363334,-0.084432,0.408455,-0.162256,-0.075337,0.983868
0.538062,-0.634789,0.464574,0.977891,-0.189849,-0.087676
0.278836,0.325532,0.470443,0.861607,0.106982,0.496174
0.172088,0.548521,0.069752,0.803454,0.346254,-0.484325
0.413560,0.095212,0.404634,0.099479,0.638624,0.763062
0.135118,-0.196789,0.209255,-0.319519,0.541957,-0.777297
-0.270634,-0.141907,0.491656,-0.536812,-0.842336,-0.047989
0.347940,0.540432,-0.118168,0.869881,0.431180,0.239562
-0.441768,-0.060384,0.082865,0.586999,-0.788050,0.185499
0.057585,-0.025990,0.276929,-0.272191,0.885844,-0.375756
-0.501884,-0.040758,0.090537,0.673984,-0.718581,0.171427
0.655259,0.116128,-0.133574,0.978459,0.193804,0.071125
-0.320075,-0.252427,-0.098209,-0.003230,-0.908939,0.416916
0.094219,0.366613,-0.218273,0.035644,0.071092,0.996833
0.096242,0.158077,0.336410,-0.689725,0.446618,0.569923
-0.160178,0.255553,-0.975822,-0.297745,0.289354,0.909737
0.010507,-0.091658,0.490922,-0.806469,0.549918,-0.217251
0.226361,-0.036987,-0.607562,0.274165,0.953194,-0.127493
0.131185,0.024153,0.516017,0.429430,-0.736363,-0.522838
0.233778,0.058547,-0.937737,0.449552,-0.279991,-0.848238
0.469970,0.146862,0.708827,0.811768,-0.580609,-0.062657
0.662454,0.087768,0.854353,-0.688505,0.258593,0.677562
0.155007,0.669940,0.119575,0.873137,0.339297,-0.350013
0.118939,0.336642,0.387089,-0.013558,0.338105,0.941011
0.518063,0.842246,-0.425327,0.403278,0.371465,0.836290
0.602447,-0.065669,0.425022,-0.556139,0.278703,-0.782965
0.219842,0.162710,0.586380,-0.329040,-0.646427,0.688379
0.241641,-0.159913,-0.365723,-0.581282,0.494689,0.646060
0.172310,0.737978,0.152250,0.871565,-0.147967,-0.467420
0.493452,0.330600,0.639137,-0.652993,-0.070863,0.754041
-0.539299,0.379664,-0.550709,-0.527027,0.015852,0.849701
0.083657,0.162927,0.289430,0.225747,0.699658,0.677876
-0.116467,0.413196,0.424380,0.652169,0.659627,0.373587
-0.371090,-0.006582,-0.924716,-0.480016,-0.843890,0.239655
-0.138492,0.022857,0.108204,-0.631463,-0.738674,0.235827
0.061968,0.528250,0.219587,-0.045430,-0.983611,0.174489
-0.116693,-0.094784,0.029985,-0.218605,-0.841024,0.494864
-0.082981,0.498918,-0.339834,-0.703649,-0.217375,0.676481
0.127927,-0.266340,-0.547377,-0.638414,0.727391,0.251654
0.556267,0.435947,0.637395,-0.013702,0.963553,0.267165
0.064553,0.424193,-0.499022,0.238845,0.929529,-0.280942
0.549186,0.125295,0.754768,0.948685,-0.314868,0.029248
0.194672,0.156023,-0.225731,-0.661781,-0.396087,0.636523
0.335692,-0.009273,-0.253760,0.940952,-0.338205,0.015055
0.007359,0.129178,0.651974,0.690387,0.707239,-0.152246
0.121861,-0.014775,0.608082,0.352540,0.375481,0.857164
0.479407,0.237974,-0.944889,0.060458,0.187414,0.980419
0.072982,0.734529,-0.191833,0.359245,-0.094139,0.928483
0.237149,0.142117,0.426213,-0.055823,0.186725,0.980825
-0.527613,-0.076988,-0.291814,0.794388,-0.472632,-0.381532
0.374345,0.211234,0.635927,0.499571,0.756501,0.422060
-0.136469,-0.447491,-0.636325,-0.104481,0.106943,0.988760
-0.283445,-0.283050,-0.140574,-0.353454,0.040163,0.934589
-0.160065,0.414058,0.434833,0.432318,-0.148317,0.889440
-0.679534,0.521024,-0.058198,-0.446953,0.778002,0.441527
0.346703,-0.051545,0.560888,0.947886,0.251928,0.195048
0.638405,0.113758,0.435383,-0.721573,0.682275,0.117611
0.397155,0.073862,0.419458,0.891100,-0.422278,-0.166196
0.301194,0.101682,0.610832,0.148370,0.194616,0.969593
0.415248,0.013584,0.929453,-0.511082,-0.351983,0.784158
-0.067814,0.332759,0.408821,0.959131,-0.194621,0.205401
0.616606,-0.596078,-0.909066,0.065703,-0.910122,-0.409097
0.358053,0.405107,0.582192,0.886604,0.461533,-0.030354
0.220517,0.415782,0.548814,0.172689,0.703115,-0.689789
0.046911,-0.318958,0.693575,0.623227,0.466451,0.627703
0.290633,-0.025773,-0.643508,0.904746,0.342124,0.253743
-0.063206,-0.197545,-0.176733,0.404037,0.691638,0.598658
0.205573,0.715009,0.078647,0.712777,-0.590661,-0.378244
-0.226922,-0.040870,0.550587,0.829450,-0.459070,0.318224
0.698970,0.398210,0.704334,-0.599794,-0.634417,0.487608
0.170401,0.118069,0.731569,-0.518290,0.758110,0.395783
0.393112,-0.439837,-0.901027,0.085010,-0.575846,-0.813126
-0.364571,0.273237,0.290653,-0.642408,-0.413892,0.644984
0.326364,-0.103083,-0.501498,-0.528264,0.775859,-0.344935
-0.242542,0.127882,0.006052,-0.293544,0.774839,0.559872
-0.181415,0.466030,-0.986612,0.142597,-0.057196,0.988127
0.241641,0.433143,0.520051,-0.114795,-0.544718,0.830725
-0.169728,-0.066965,0.058901,-0.478499,-0.871588,0.106642
0.043317,0.083353,0.600868,0.774297,0.064715,0.629505
-0.304904,-0.029333,0.620461,-0.104862,0.991794,-0.073130
0.371087,0.449966,0.510851,0.260998,0.546299,0.795887
0.270408,0.582382,0.259842,0.904791,-0.195589,-0.378282
0.430754,0.259758,0.830786,0.766467,0.127034,0.629596
0.264002,0.125513,0.593654,0.406441,0.870590,0.277272
0.249284,0.054559,0.780811,0.603333,0.795831,-0.051408
0.228158,-0.015532,0.824337,0.297765,0.833451,-0.465505
0.681890,-0.679535,-0.895006,-0.660383,-0.470475,-0.585276
0.111748,0.251887,0.385255,0.142788,0.608965,0.780239
0.201527,0.091546,0.855300,0.860278,-0.127140,0.493718
0.422665,0.117424,0.726862,-0.234842,-0.964547,0.120405
0.387605,0.214900,-0.656651,0.936794,-0.345091,0.057704
-0.518399,-0.593919,-0.338091,0.219944,-0.523157,0.823366
0.063542,-0.038712,-0.031911,0.874441,-0.335386,-0.350526
0.291758,0.032564,-0.582437,0.888088,0.354556,-0.292559
0.209616,0.792214,0.074275,0.952552,-0.283031,-0.111979
-0.163213,-0.055751,-0.025461,-0.422560,-0.429243,0.798244
-0.168717,0.116562,0.344235,-0.445431,0.626848,-0.639259
-0.074443,-0.281970,0.671751,0.181539,0.957873,-0.222538
0.449854,0.726651,-0.099829,0.033933,-0.169831,0.984889
0.018710,0.277870,0.268095,0.709854,-0.370894,0.598787
0.106917,0.147942,0.857501,-0.806808,0.451604,-0.380939
-0.305354,-0.135220,0.502782,0.012524,0.962819,0.269856
-0.034552,0.178670,0.158883,0.488707,0.004595,0.872436
-0.041407,-0.039574,-0.096711,0.914758,0.011598,-0.403836
0.364571,-0.045503,0.427559,0.874202,-0.398616,0.277267
0.250292,0.280029,-0.511707,-0.360244,-0.732594,0.577521
0.290520,0.009701,0.795849,-0.529200,0.636901,-0.560628
-0.061409,-0.232913,-0.600471,0.318842,0.584496,-0.746126
-0.089051,0.062213,-0.011676,-0.526740,0.467887,-0.709666
0.135458,0.278522,0.373945,-0.308845,0.946058,0.097922
0.392773,0.159801,-0.186147,-0.576203,-0.403628,0.710686
-0.208721,-0.128968,0.466316,-0.007561,0.493546,0.869687
0.339062,0.475415,0.308076,-0.364101,-0.784265,-0.502353
-0.247038,-0.101037,-0.032492,0.344546,-0.676597,0.650772
0.025112,0.683089,-0.193147,-0.595844,0.403868,-0.694162
0.256362,0.500214,0.539033,0.902520,0.387805,0.187258
-0.135121,-0.160992,-0.269899,-0.302721,0.888231,-0.345551
0.335242,0.304287,0.590995,0.984900,0.078082,-0.154518
0.627394,-0.635329,-0.902769,0.357398,0.756678,0.547454
-0.321087,0.391523,-0.536435,-0.331152,-0.816728,-0.472539
-0.414911,0.239271,-0.959775,0.638638,-0.450543,-0.623820
0.020507,0.219968,0.332865,0.152503,0.716302,-0.680922
-0.328277,0.140393,0.002690,-0.488871,0.714417,0.500613
0.052305,-0.191938,0.688837,0.530251,-0.598986,0.600042
-0.083883,-0.213505,0.467355,0.741023,-0.520526,0.424190
-0.028486,0.181151,0.704793,-0.304389,-0.914918,0.265088
-0.147031,0.133594,0.309726,0.831472,-0.395462,0.390210
0.352772,-0.543888,0.439357,0.697443,-0.053596,-0.714634
-0.396483,-0.156458,-0.053796,0.016347,-0.898498,0.438673
0.059609,-0.185357,0.104628,0.713363,0.697163,-0.071250
0.637393,0.409207,-0.456413,-0.014612,-0.999850,-0.009276
-0.230969,-0.465392,-0.153839,0.366083,0.368298,-0.854599
-0.444350,-0.216308,-0.130334,0.264858,0.513074,0.816459
0.649306,-0.020271,0.852702,-0.673831,0.028533,0.738335
-0.013428,0.338793,-0.972124,-0.244937,0.116925,0.962463
0.371762,0.247570,0.422057,0.644509,0.593760,-0.481723
0.056574,0.244338,0.631832,-0.738082,-0.086716,-0.669115
0.470419,-0.268821,0.541203,-0.694892,0.141583,0.705038
-0.184113,0.281325,0.426152,-0.136640,0.429821,-0.892515
-0.244116,-0.059956,0.279282,0.270720,-0.769629,0.578257
0.396144,0.152358,0.801810,0.927291,0.348566,-0.136504
-0.050172,0.075369,0.253485,-0.550293,0.800258,-0.238254
-0.599752,-0.635006,-0.495171,-0.346188,0.491146,0.799331
0.212538,-0.196466,0.233097,0.637650,0.548791,-0.540584
-0.742571,-0.751996,-0.387853,-0.334734,0.902766,-0.270122
0.457834,-0.431209,0.529619,0.120845,0.658645,-0.742686
0.054777,-0.283050,0.244467,0.846040,-0.129958,0.517037
0.093992,0.163033,0.598178,0.834865,0.547098,0.060694
-0.389628,-0.691724,-0.358357,-0.155902,-0.624895,0.764984
0.618742,0.346454,0.256266,0.960718,0.104486,-0.257107
-0.085231,0.164007,-0.474324,0.506357,0.809810,0.296329
0.485812,0.049709,0.772772,0.383256,-0.553804,0.739200
0.276700,-0.046583,-0.319049,-0.717935,0.634372,-0.286604
0.382547,0.530080,0.332314,-0.554592,0.274899,0.785403
0.258272,0.642443,0.517453,-0.407788,-0.851276,0.330209
0.034552,0.071164,-0.483250,0.120924,0.645333,0.754269
-0.252655,-0.213933,0.260637,0.880583,0.085710,-0.466076
0.069159,-0.408885,-0.196204,0.582322,-0.710198,0.395626
0.501206,0.225680,0.659372,0.847889,-0.527868,-0.049393
0.525028,-0.015315,0.864012,-0.376157,-0.924372,-0.063573
-0.460869,0.308493,-0.509353,0.330835,0.347689,0.877303
0.525477,0.095317,0.932938,0.084953,-0.298705,0.950557
0.377606,0.345263,0.488721,-0.437189,0.899316,-0.009836
-0.137367,-0.073862,0.561713,0.762556,-0.568632,-0.308488
0.033541,0.237224,0.514091,0.877752,0.287173,-0.383515
0.119276,0.224173,0.414232,0.411449,-0.000600,0.911433
0.258046,0.307308,0.080175,0.991032,0.125197,-0.046706
0.383336,0.314857,-0.120094,0.708378,0.632411,0.313460
0.171975,0.707032,-0.312263,0.323838,-0.756676,-0.567952
0.701556,-0.277555,0.705863,-0.611541,-0.718617,0.331069
0.131075,-0.072783,-0.341637,0.322650,-0.845448,-0.425576
0.022530,-0.110850,-0.329380,0.453523,-0.891069,0.017690
0.019495,-0.024153,0.559818,0.284092,-0.956778,-0.062186
-0.220857,-0.142117,-0.044290,0.075402,-0.783869,0.616331
-0.272317,-0.060706,-0.937798,0.623898,0.778187,-0.071940
0.519747,0.298358,0.705190,0.534806,-0.827895,0.169033
0.081970,-0.217816,0.654053,0.500459,-0.647880,-0.574275
0.370638,0.018974,0.510790,0.961684,-0.077487,-0.262983
0.453451,-0.212643,0.758681,0.502432,0.211842,-0.838263
-0.372774,-0.038712,-0.292701,0.650824,0.353339,-0.671997
-0.198046,0.057580,0.124343,0.560321,0.780732,-0.276583
0.331086,0.100925,0.561377,0.927702,0.363841,0.083598
0.142872,-0.117536,0.637639,-0.085871,0.981029,0.173808
0.645033,0.123354,0.853497,-0.677800,0.403118,0.614885
0.267599,0.153115,0.208889,0.527204,0.204230,0.824831
0.161526,0.333943,0.203967,-0.008353,0.979435,0.201588
0.144672,0.148909,0.715674,0.617673,0.672493,0.407716
0.542108,0.055856,-0.934161,0.467686,-0.113630,-0.876560
0.359514,-0.062325,-0.358418,-0.868781,0.306929,0.388606
0.434012,-0.039574,0.778487,0.151973,0.987781,0.034535
0.313443,0.566962,0.247769,0.830890,-0.548699,-0.092478
0.087700,0.015742,0.262318,-0.836288,0.545411,-0.056109
0.182313,0.552404,0.572411,-0.460148,-0.367817,0.808068
0.019159,-0.247794,0.695012,-0.260733,0.175058,0.949407
-0.038598,-0.038284,0.222154,-0.184029,-0.570796,0.800203
0.439406,0.144059,0.652402,0.866402,-0.472651,-0.161088
-0.103320,-0.156458,-0.953264,0.246691,0.394652,-0.885095
0.021518,0.655270,-0.329625,-0.307798,0.069061,0.948942
0.618516,0.026095,0.858204,0.139789,0.197750,0.970234
0.109276,0.470131,0.532186,0.561308,0.714543,-0.417567
0.341086,-0.084327,0.738568,0.782346,-0.621937,-0.033596
0.447272,0.649340,0.197762,0.021978,-0.801638,0.597405
0.476375,0.153549,0.786037,-0.218844,-0.969438,-0.110896
-0.351987,-0.146974,0.512685,0.707418,0.691577,0.145881
-0.450420,-0.216954,-0.676519,-0.556598,0.274777,0.784026
-0.386819,0.028359,0.102824,-0.339072,0.515994,-0.786626
-0.465477,0.108474,-0.948466,0.924204,0.354262,-0.142637
0.640092,0.134785,0.838733,0.885027,-0.209874,-0.415549
-0.224228,0.361868,0.434069,-0.097433,0.324739,-0.940772
0.383559,0.296311,0.529252,0.106691,0.846156,0.522147
-0.425024,-0.521136,-0.335463,-0.212809,0.858704,-0.466197
-0.246812,-0.254151,0.253485,-0.568743,-0.669427,0.477912
0.060956,0.009701,0.240739,-0.306251,0.936406,0.171332
0.256249,-0.486091,-0.907538,-0.234418,0.589796,0.772780
-0.254342,0.078712,0.010606,-0.233962,0.872336,0.429292
0.431652,0.234953,0.437920,-0.490377,0.104253,-0.865253
0.581660,0.013044,0.911419,-0.074704,-0.895806,0.438122
0.484913,0.115377,0.896748,-0.096106,0.964487,-0.246025
-0.591776,-0.184606,-0.327088,-0.647998,-0.356508,-0.673053
0.320634,0.006469,-0.029771,0.019434,-0.999165,0.035951
0.358389,-0.010353,0.090842,0.972237,0.160301,-0.170464
0.456935,0.522103,0.389870,-0.038826,0.966434,0.253963
0.540647,0.027707,0.833996,-0.685707,0.345105,0.640865
0.152874,0.418697,-0.963687,-0.204723,0.169132,0.964097
-0.195573,-0.102978,0.254524,-0.656839,0.191521,-0.729303
0.443788,0.090789,0.615112,0.946423,-0.044941,-0.319788
0.530758,0.255441,0.682235,-0.563982,0.823785,0.057464
-0.382437,-0.128099,0.509323,0.794686,0.572664,-0.201321
-0.045676,-0.117214,0.435811,0.020613,0.517126,0.855661
0.235461,0.499891,0.551320,0.023542,-0.541091,0.840634
0.066127,0.188048,0.637639,0.607187,0.634195,0.478666
-0.585034,-0.592517,-0.360955,0.097895,-0.488899,0.866830
0.013988,0.112574,0.224386,0.059133,0.868508,0.492136
0.420302,0.332324,-0.950727,-0.168917,0.065173,0.983473
-0.428844,-0.122064,-0.105300,-0.514369,0.852074,0.096923
0.813582,-0.373734,0.677864,-0.501338,0.855238,0.131253
0.275239,0.647721,0.621317,0.506324,0.569303,-0.647711
0.013988,0.875995,-0.218150,-0.503745,0.857100,-0.107800
-0.467837,-0.005179,-0.279619,-0.690172,-0.324845,0.646636
0.339738,0.494929,0.225333,0.894205,-0.250672,-0.370891
-0.141637,-0.066208,0.252598,-0.681250,0.113325,0.723226
-0.251979,-0.100175,-0.013816,0.217202,-0.414361,0.883815
-0.028150,-0.157432,-0.943667,0.500826,-0.175196,-0.847632
-0.339964,0.093593,0.097017,0.479838,-0.526299,0.701972
0.252093,0.553049,0.295330,0.955870,0.285351,0.069912
0.000055,0.516279,-0.152830,0.275548,-0.029725,0.960828
-0.221642,-0.369423,-0.448679,0.210177,0.472487,0.855910
-0.123997,0.006147,-0.950575,-0.501056,0.418164,-0.757682
0.071971,0.191826,0.322625,0.917515,-0.389642,-0.079663
0.598517,0.328875,0.705526,0.996538,-0.083023,0.004396
0.368615,-0.011215,0.732608,0.406131,-0.601183,0.688212
-0.211080,0.193116,0.107868,0.005368,-0.975133,0.221557
0.538062,0.286604,0.648735,-0.580625,0.614691,0.533882
-0.393338,-0.263319,-0.127063,0.149606,0.449245,0.880793
0.312319,0.603409,-0.129631,-0.703852,0.463859,0.537984
0.059609,0.268380,0.629936,0.979282,-0.201411,0.020986
0.690092,-0.332114,-0.907110,0.120707,-0.261516,-0.957622
-0.497275,-0.034941,-0.283623,0.783825,0.206963,-0.585478
0.104554,0.030188,0.268798,0.845016,-0.035418,-0.533567
-0.116916,0.180934,0.323756,0.855724,-0.511596,0.077498
0.373559,-0.044213,0.717753,-0.020825,-0.796715,0.603996
0.620203,0.349041,0.748441,0.832828,-0.548087,-0.077448
-0.654138,-0.160776,-0.312171,0.955250,0.268020,0.125148
0.051183,0.443174,-0.321341,-0.642480,0.329384,-0.691900
0.213999,-0.008194,0.813761,-0.218089,-0.811134,0.542678
-0.236586,-0.015097,-0.945776,-0.098493,0.025084,0.994822
0.415248,0.269894,0.806883,-0.357517,0.792071,-0.494777
-0.078040,0.599309,-0.152036,0.086155,0.583924,0.807224
-0.491432,0.164757,-0.986154,-0.216655,0.424712,0.879023
-0.340300,0.266656,-0.984625,0.034208,-0.022210,0.999168
0.027584,0.675975,-0.233464,0.798100,0.597667,0.076356
-0.241531,-0.138024,-0.053949,-0.488599,0.803391,-0.340345
0.542108,-0.155813,-0.529771,0.799292,0.580519,0.155336
-0.012194,0.160880,0.266659,0.843926,-0.050151,0.534110
-0.492557,-0.056718,0.079288,0.586999,-0.788050,0.185499
0.043204,-0.664010,-0.435078,-0.679600,-0.381030,0.626865
-0.355806,-0.283267,-0.124679,-0.053159,-0.075786,0.995706
0.276927,0.499674,0.247921,0.840881,-0.528921,0.114725
-0.204901,0.329198,-0.982822,-0.228453,0.292211,0.928667
0.254901,0.872441,0.099493,0.826604,-0.356690,-0.435314
-0.011405,0.485228,0.346008,0.832644,0.551981,-0.044961
0.591663,0.273454,0.646931,0.020559,0.905801,0.423204
0.573906,0.028899,0.699535,0.781867,0.538147,-0.314772
0.065678,-0.204120,-0.326293,-0.691579,0.162794,0.703717
-0.149839,0.309572,0.716438,0.274912,0.890182,-0.363316
-0.106018,0.356695,-0.975944,-0.261321,0.218419,0.940215
0.374345,0.016822,0.135744,0.274184,0.953514,-0.125036
-0.177372,0.341380,-0.031758,-0.394932,-0.670860,-0.627675
-0.632565,-0.588206,-0.512043,0.490436,-0.544192,-0.680681
-0.233664,-0.088420,0.503546,-0.553972,0.763271,0.332463
-0.120400,0.307203,-0.975608,-0.125289,0.185296,0.974663
0.152984,0.044529,0.840537,0.898846,-0.337526,0.279556
0.439632,0.056718,0.910319,0.186636,-0.464489,0.865689
0.093094,0.019514,0.558993,0.200321,-0.592270,0.780441
0.173998,0.758143,0.258222,-0.716458,0.211674,0.664742
0.004664,0.309355,0.355086,-0.454141,-0.288903,0.842788
0.156355,0.697002,0.135285,0.899414,0.271825,-0.342293
0.088263,0.187508,0.622876,0.959026,-0.199427,0.201241
-0.151077,0.344723,0.410594,-0.708587,0.289853,-0.643342
-0.052980,-0.450722,-0.536557,0.783429,-0.288050,0.550697
0.344234,-0.052730,-0.814800,0.957147,0.222840,0.184964
0.480195,0.018006,-0.935261,0.024626,0.232647,0.972249
-0.154335,-0.189240,-0.082956,0.767377,-0.157466,0.621560
0.404346,0.054776,0.583751,0.939296,0.338597,0.055445
0.198043,-0.016934,-0.954334,-0.287523,0.059705,0.955911
0.071971,-0.170154,0.117924,0.739341,0.673191,-0.013724
-0.003539,0.403383,0.108082,-0.659928,-0.230153,-0.715210
-0.204452,-0.475850,-0.145678,-0.078024,-0.272151,0.959086
-0.325130,-0.060061,0.246118,0.988149,0.153270,0.008360
-0.733916,-0.687302,-0.516811,-0.136541,0.408309,0.902574
-0.214225,0.178670,-0.484045,0.168734,0.883968,0.436037
0.354682,0.643628,0.307159,0.823047,0.087628,-0.561173
0.197707,0.061568,0.219189,-0.590766,0.433864,0.680263
0.489183,0.639205,0.334821,-0.790720,0.047379,0.610342
0.700208,-0.697331,-0.882412,-0.008318,-0.972045,0.234646
0.166694,-0.897029,-0.445898,0.386547,0.748657,-0.538604
0.500084,-0.719543,-0.398612,-0.664393,-0.661343,0.348149
0.188043,0.654191,0.145983,0.836185,0.391316,-0.384275
0.229844,-0.071710,0.647023,0.891130,-0.436112,0.125274
-0.257823,-0.123893,-0.085310,0.634283,0.521077,-0.571108
0.583121,0.332436,0.678842,0.824936,-0.382430,-0.416206
0.725601,0.286933,0.726128,0.919954,-0.387494,0.059432
0.577953,-0.587562,0.489210,0.976180,0.181352,0.119100
0.531097,-0.170805,-0.213871,-0.368841,-0.121975,0.921455
0.076463,0.159906,0.298936,0.781820,0.145089,-0.606388
0.525028,-0.121629,0.470290,0.724503,-0.668330,-0.168612
-0.027587,0.173062,0.649254,0.450343,0.753823,0.478479
-0.052644,-0.290711,-0.131648,0.522876,0.578973,-0.625612
0.435359,0.583889,0.348025,0.987127,-0.145826,0.065689
-0.489409,-0.546803,-0.336930,0.210884,0.428461,-0.878606
0.779987,-0.672744,-0.903839,-0.300267,0.132460,0.944613
0.502892,0.106315,0.801718,0.385125,0.801868,0.456822
0.403787,-0.091441,0.760851,0.334815,-0.628193,0.702334
0.860777,-0.926467,-0.884980,0.909297,-0.076628,0.409031
-0.479633,-0.128316,-0.443850,-0.108832,0.650025,0.752080
0.106691,-0.251782,0.071249,0.502308,0.861849,0.070017
0.066127,-0.024266,0.860710,0.836514,0.103212,0.538136
-0.225688,0.233446,0.156223,0.513055,0.825435,-0.235440
-0.001629,0.065017,-0.041692,-0.770496,0.365420,-0.522307
-0.151190,-0.071170,0.509537,-0.579167,0.787579,0.210441
-0.674253,0.025338,-0.026531,-0.301077,-0.162000,0.939739
-0.454013,-0.062437,-0.035671,0.761107,0.216516,-0.611422
0.197933,0.002047,0.741564,0.967259,-0.031513,-0.251826
0.757289,-0.375676,-0.919061,0.578061,-0.184942,-0.794759
0.232204,0.183310,0.410411,0.338171,0.615844,0.711601
0.426708,0.208970,0.827974,-0.648230,-0.756154,0.089608
0.215685,0.351627,0.328371,0.163293,0.966965,0.195740
-0.427832,-0.261917,-0.674166,0.730097,0.175756,-0.660355
0.036236,0.005285,-0.943086,0.312030,0.187572,0.931372
0.726839,-0.385811,0.695348,0.122261,0.956323,-0.265515
0.290972,0.412333,0.542793,0.747126,0.296833,0.594720
0.038485,-0.282839,0.241808,0.699113,0.393247,0.597158
0.286700,0.397453,0.522527,0.154306,0.945343,0.287258
-0.924603,-0.659160,-0.524422,-0.122222,0.711669,0.691801
0.404795,0.331785,0.294015,-0.779863,0.399414,0.481956
0.132087,0.467867,0.179484,-0.290652,-0.697348,0.655155
0.254339,0.537418,0.201920,-0.594827,0.558894,0.577771
-0.379066,-0.060923,-0.258772,0.534740,0.741923,-0.404480
0.035564,0.465708,0.229551,0.743310,0.336145,-0.578357
0.174334,0.118069,0.684986,-0.240947,-0.950704,0.195209
0.438621,0.029109,0.768737,0.337151,-0.587651,0.735524
0.367380,-0.124973,0.289339,0.641012,0.584721,-0.497197
0.598627,0.360144,0.687553,-0.396086,0.781231,0.482488
0.768976,-0.055968,0.402494,-0.482378,0.305353,-0.821018
-0.016912,0.117852,-0.969556,0.110323,-0.271955,-0.955965
0.295015,0.277548,0.225914,-0.454037,0.792208,0.407745
0.202538,0.371035,0.516995,0.813172,0.286784,-0.506465
0.636944,0.046148,0.272069,0.290686,-0.407639,0.865640
0.254565,-0.210484,-0.845244,0.992026,0.123020,0.027405
0.158155,0.032564,-0.263571,0.011391,-0.816341,0.577458
-0.934603,-0.533213,-0.358234,0.476017,0.832818,-0.282527
-0.278836,0.161631,-0.968181,-0.247557,0.518334,0.818563
-0.508735,0.087986,-0.290164,-0.754132,-0.465018,-0.463727
0.274564,0.378690,0.466499,0.909625,0.335023,0.245644
-0.204003,-0.253078,0.263388,-0.568743,-0.669427,0.477912
-0.488510,-0.532028,-0.334087,-0.142346,0.797949,0.585675
0.160851,0.145888,0.718578,0.370790,0.570908,0.732516
0.134446,0.319385,-0.334637,0.735914,0.599056,-0.315535
0.385246,0.500754,-0.951614,-0.061592,0.023071,0.997835
-0.652227,0.452769,-0.047194,-0.522795,0.444252,0.727548
-0.468172,-0.449755,-0.374434,-0.269861,0.899141,0.344558
0.172088,0.121846,0.742328,-0.106299,-0.937152,0.332335
-0.625933,-0.560170,-0.366976,-0.550773,-0.170485,0.817058
0.094442,-0.313673,-0.098576,0.145376,0.837999,0.525950
0.183887,0.180177,0.403350,0.118728,0.690041,0.713966
0.508509,-0.618829,-0.905856,0.155206,0.768759,0.620420
-0.155346,-0.129396,-0.040317,0.491060,0.128856,-0.861543
0.056574,0.713712,0.110313,0.880234,0.038663,-0.472963
0.528289,0.406509,0.230499,-0.511732,0.465665,0.722002
0.406932,0.655059,0.503301,-0.651499,-0.732471,0.197572
0.144446,0.554990,-0.228910,0.968062,0.177037,-0.177521
0.653240,-0.332976,0.680676,0.645662,-0.620625,-0.444911
0.121522,0.023074,0.386233,0.731180,-0.023547,0.681778
-0.503232,-0.663905,-0.357929,0.284302,0.768843,-0.572759
-0.504243,-0.054131,-0.038452,-0.466356,-0.684935,0.559800
0.138938,0.778519,-0.982119,-0.154979,0.170481,0.973097
-0.010057,0.524585,-0.626238,0.057450,0.714687,0.697081
-0.153999,0.112034,0.035396,0.923848,-0.271746,-0.269555
0.717625,-0.396920,0.504952,0.621353,-0.281555,0.731196
0.449518,-0.165843,0.502048,-0.664026,-0.353068,-0.659100
0.380864,0.055744,0.921598,0.820807,-0.153290,-0.550252
-0.600427,-0.659910,-0.373334,-0.440845,0.698355,-0.563877
-0.295804,-0.275396,-0.500856,0.401063,0.757296,-0.515413
-0.084782,0.218138,-0.959531,0.185908,0.490341,0.851472
-0.765269,-0.813242,-0.652036,-0.793564,0.608142,0.020468
-0.219732,-0.195282,-0.079900,-0.689564,-0.517386,0.506767
0.384457,-0.018441,0.577302,-0.795773,0.605560,0.006525
0.225123,0.007871,0.797439,0.454482,-0.810815,-0.368816
0.665934,0.352272,0.621164,-0.930791,0.219506,0.292309
0.199168,0.561137,0.083384,0.508443,0.729571,-0.457397
0.641553,0.302564,0.665699,0.873707,-0.465834,-0.140122
0.395921,-0.155168,0.444309,0.840350,0.493860,0.223413
0.103656,-0.420100,0.676703,0.361419,0.564807,0.741869
-0.206022,-0.939946,-0.550740,0.192615,-0.887723,0.418148
0.382438,0.000539,-0.425113,-0.555153,0.831311,0.026966
-0.479296,0.123999,-0.984656,-0.094815,0.310868,0.945712
0.578964,-0.303215,0.793465,-0.621809,0.663857,0.415508
0.025451,0.662496,-0.169244,0.124681,0.411375,0.902898
0.326927,-0.105242,0.765039,-0.529881,0.830879,0.169904
-0.149616,-0.030518,0.274545,-0.160146,-0.971885,0.172606
0.419966,0.041186,0.884430,0.994290,-0.046048,0.096262
-0.131524,-0.759979,-0.440793,0.236012,-0.534833,0.811327
0.423676,-0.075916,-0.920834,0.296378,0.354200,0.886963
0.714813,-0.213071,0.662550,-0.266648,0.009537,0.963747
-0.571211,0.474336,-0.026287,0.085231,-0.058993,0.994613
0.008933,-0.118503,0.637364,0.625627,0.779802,-0.022328
0.251081,-0.344407,0.789889,0.888645,-0.252040,-0.383126
-0.443901,-0.923012,-0.515467,-0.177070,0.303622,0.936194
0.128716,0.787574,-0.186789,-0.607717,-0.309617,-0.731312
-0.004214,-0.372655,0.729123,0.953452,-0.125925,0.273992
0.361311,0.032775,-0.004524,-0.237494,0.970952,-0.029134
0.434347,0.489111,0.413926,-0.813228,0.515812,-0.269440
0.308389,-0.263964,0.384980,-0.540709,0.493962,0.680908
-0.551548,-0.643200,-0.642499,-0.196555,0.290559,0.936452
-0.130962,0.496982,0.124740,-0.146666,0.976927,0.155250
-0.221528,0.308815,0.129937,-0.311029,0.556563,-0.770388
-0.133434,0.218888,0.407476,0.922257,0.003285,0.386564
0.493116,0.727625,-0.447121,-0.651836,-0.286203,0.702280
0.313557,0.123249,0.260423,0.782482,0.064965,-0.619275
-0.012753,0.113436,0.500428,-0.112979,-0.974701,-0.192858
-0.059163,0.306124,0.418327,0.783834,0.563777,-0.260306
-0.008148,0.646431,-0.173218,-0.303588,0.329377,0.894061
0.234001,0.798039,0.094082,0.851863,-0.404485,-0.332748
0.125119,0.704229,0.104536,-0.193463,0.974278,-0.115560
0.374907,0.115700,0.582803,0.878446,0.052285,-0.474972
0.069834,0.037198,0.399499,-0.132797,-0.228308,0.964490
0.336816,0.022969,-0.033042,-0.451556,0.886074,-0.104740
0.351424,0.650202,0.539828,0.502776,0.810892,0.299451
0.466149,0.207134,-0.951828,-0.212174,0.140238,0.967117
0.138266,0.232907,0.393324,0.197080,0.692330,0.694146
-0.075904,0.323485,-0.704854,0.913005,0.132866,-0.385706
-0.050508,0.562322,-0.158271,0.146076,0.544760,0.825771
0.522332,-0.642121,-0.842860,0.138114,0.970076,0.199694
0.447046,0.079897,0.722888,0.872988,-0.202621,-0.443664
-0.040059,-0.332759,-0.120797,0.271775,0.956626,-0.104903
0.138040,-0.203041,0.671598,-0.182850,0.386694,0.903899
-0.166244,0.365428,-0.045849,0.470317,0.849228,0.240029
0.419853,-0.354220,0.515772,0.944720,0.131336,-0.300423
0.564692,0.466570,0.714666,-0.670010,-0.030584,0.741722
-0.473340,-0.539794,-0.328738,-0.062509,0.807681,0.586297
0.514243,0.082379,0.823787,-0.075991,0.868669,0.489529
0.077701,0.561894,-0.974814,0.140471,-0.099361,-0.985086
-0.356592,-0.229675,-0.153992,0.407552,0.484179,0.774256
-0.394237,0.072677,0.100410,0.142418,-0.564869,0.812798
0.329512,-0.027280,0.653900,0.221983,-0.933791,-0.280638
0.231305,0.140932,0.240494,0.718758,0.404194,-0.565698
-0.427496,0.105564,-0.979765,-0.123438,0.105014,0.986780
