0.300207,-0.467439,0.667191,0.882758,-0.239823,-0.404009
0.259561,-0.281177,0.654019,-0.290089,0.913304,-0.285875
0.187686,0.002929,0.617047,0.876136,0.224946,0.426362
0.155855,0.163731,0.611142,0.862622,0.470980,0.184558
0.199940,0.088736,0.667645,0.774892,0.482247,0.408632
0.185443,0.195219,0.676790,-0.683115,0.231443,-0.692667
0.232218,0.113122,0.734625,0.222934,0.739852,-0.634759
0.235802,0.160962,0.757365,0.200475,0.923074,-0.328245
0.207410,0.310027,0.754428,0.001661,0.629269,0.777186
0.174088,0.478553,0.748463,0.295912,0.201284,-0.933767
0.125224,0.690895,0.729901,-0.004084,0.999022,0.044028
-0.103407,0.008176,-0.224681,0.998017,-0.011787,-0.061834
-0.060076,-0.054781,-0.164938,-0.188211,-0.906592,-0.377714
-0.039900,-0.048762,-0.124999,0.111899,-0.740536,0.662635
-0.045879,0.037657,-0.107891,0.558583,-0.768233,0.312735
-0.020921,0.025620,-0.064741,-0.069667,-0.932341,0.354806
-0.003587,0.104325,-0.006331,0.947645,0.015758,-0.318935
0.062761,0.164664,0.137015,-0.551299,-0.714587,0.430622
0.063058,0.226386,0.158666,0.968755,-0.135669,-0.207626
0.125224,0.098146,0.231671,0.301433,0.457841,0.836373
0.281679,-0.062655,0.467402,-0.360153,-0.298673,0.883790
0.263000,0.114969,0.493383,0.168429,0.187750,-0.967668
0.287506,0.102319,0.534957,0.528197,-0.834793,0.155332
0.364015,-0.073770,0.617289,-0.699174,-0.033475,0.714167
0.319037,0.129324,0.601604,-0.404903,0.295095,-0.865432
0.279736,0.314040,0.591036,0.806316,-0.206863,-0.554132
0.268677,0.410801,0.603390,-0.091989,0.402903,-0.910608
0.331290,0.273613,0.674034,0.180733,-0.829990,0.527686
0.319037,0.372532,0.683936,0.304963,-0.632210,0.712255
0.411985,0.143056,0.779136,0.950679,0.280097,-0.133246
0.248954,0.715281,0.668705,-0.186476,-0.614436,0.766613
0.104898,0.237350,-0.080366,0.475456,0.742333,0.472105
0.408547,0.188738,0.478061,0.963483,0.267593,-0.009717
0.425880,0.196142,0.514004,-0.356238,0.609566,0.708183
0.335175,0.541670,0.461376,0.454196,-0.542301,0.706835
0.518678,0.029783,0.632581,-0.034452,-0.918333,0.394306
0.497012,0.155866,0.635518,-0.342597,0.893363,-0.290740
0.304092,0.823920,0.498591,0.881599,0.058189,0.468399
0.361174,0.705862,0.566509,0.286601,-0.841273,0.458389
0.523462,0.251545,0.718637,0.567598,0.522772,-0.636036
0.516434,0.335647,0.733686,0.848222,0.449291,-0.280459
0.504331,0.434726,0.745011,-0.581377,-0.404832,0.705770
0.656153,-0.213115,0.546342,0.561822,0.159151,-0.811805
0.735055,-0.160953,0.716033,0.980075,0.157912,0.120485
0.648984,0.411423,0.749886,-0.449821,0.891770,-0.049071
0.772112,-0.152777,0.584405,0.057337,0.829946,0.554889
0.893453,-0.255095,0.604481,0.512052,0.856937,-0.058836
-0.599222,-0.029472,-0.786318,-0.188064,0.981876,-0.023501
-0.429916,-0.058483,-0.502381,-0.011361,0.997795,0.065398
-0.422893,0.088576,-0.641336,0.666638,0.687790,-0.287297
-0.419906,0.014967,-0.659323,0.608053,0.737845,-0.293012
-0.414676,0.032712,-0.726847,-0.428588,-0.671850,0.604094
-0.407502,-0.092589,-0.776779,-0.188971,-0.916481,0.352635
-0.240737,-0.075154,-0.532691,0.923888,0.348596,-0.157837
-0.236103,-0.082868,-0.584531,0.988192,-0.125077,0.088497
-0.231771,-0.116353,-0.624834,0.989940,0.141422,-0.004235
-0.226987,-0.149687,-0.663955,0.998634,0.012588,-0.050718
-0.221611,-0.144601,-0.727877,0.991137,0.126846,-0.039472
-0.216530,-0.158485,-0.780928,0.926409,-0.376483,0.005086
0.172893,0.094134,-0.987226,-0.141341,-0.064876,0.987833
0.177973,-0.125151,-0.983320,-0.044282,0.033653,0.998452
0.180960,-0.226547,-0.984865,-0.328882,0.087791,0.940282
0.337269,-0.214811,-0.970512,-0.256884,0.149252,0.954848
0.340255,-0.309566,-0.975690,-0.338942,-0.227383,0.912916
0.681859,0.037036,-0.966152,0.073690,0.209631,0.975000
0.684545,-0.072526,-0.965304,-0.226032,-0.106638,0.968265
0.501942,0.085647,-0.988952,-0.211212,0.078822,0.974257
0.505676,-0.159568,-0.969846,-0.224060,0.164533,0.960586
0.508217,-0.272379,-0.966909,0.159754,-0.028728,-0.986739
0.510907,-0.382412,-0.965697,-0.162912,-0.074823,0.983799
-0.978033,0.195680,0.382436,-0.309879,-0.939521,0.145862
-0.851019,-0.297067,0.534049,-0.444325,-0.763559,-0.468565
-0.706366,0.446142,0.690628,0.976369,-0.182596,-0.115597
-0.695308,0.008176,0.681816,-0.566466,-0.138023,-0.812444
-0.693069,-0.043676,0.662195,0.952132,-0.223091,0.208985
-0.686940,-0.021447,0.564026,0.286522,0.760307,0.582957
-0.684997,-0.149386,0.580741,-0.514153,-0.571288,-0.639748
-0.682758,-0.197687,0.560514,-0.875734,-0.107519,-0.470670
-0.679023,-0.112501,0.471763,-0.370145,-0.528605,-0.763917
-0.676930,-0.253240,0.495442,0.553668,-0.186379,0.811612
-0.674686,-0.330401,0.487054,-0.384196,-0.495440,0.779058
-0.663778,0.203705,0.123541,-0.628717,-0.718228,-0.298099
-0.657950,0.149225,0.052140,-0.450293,-0.839936,0.302893
-0.540796,0.388733,0.784587,-0.680947,0.627830,-0.377015
-0.536760,0.466666,0.705283,0.859610,0.381780,0.339580
-0.534817,0.351236,0.715700,0.462163,0.831394,-0.308527
-0.531679,0.347374,0.675639,0.982761,0.134054,0.127323
-0.528692,0.336420,0.638364,0.786280,-0.598851,0.152121
-0.526900,0.161574,0.677032,0.725137,-0.390070,-0.567470
-0.526303,-0.035802,0.728478,0.103867,0.231901,0.967178
-0.523462,-0.104325,0.717789,0.814648,-0.085007,0.573692
-0.520173,-0.109101,0.675457,0.750191,0.661219,0.001762
-0.516288,-0.084263,0.618288,-0.791348,-0.553837,-0.258906
-0.512107,-0.011115,0.538864,0.735512,0.668518,0.110029
-0.509566,-0.072526,0.524935,-0.438314,-0.062175,-0.896669
-0.508818,-0.299695,0.590430,0.739270,0.309043,-0.598308
-0.503884,-0.188738,0.490476,0.790037,-0.560703,-0.247898
-0.503884,-0.441357,0.569961,-0.154409,0.037843,0.987282
-0.502243,-0.594294,0.600393,-0.103093,0.287709,0.952153
-0.500450,-0.715592,0.614927,-0.221364,0.542982,0.810043
-0.486104,0.015589,0.195971,0.219754,0.889941,0.399640
-0.481471,0.082256,0.113669,0.109259,0.679445,0.725546
-0.462044,0.028087,-0.114159,-0.147255,0.882663,0.446342
-0.440227,0.101236,-0.421593,0.514479,0.450057,0.729904
-0.367157,0.248305,0.778470,-0.056184,0.902486,0.427039
-0.365365,0.126083,0.792369,0.094937,-0.318242,0.943244
-0.360732,0.162657,0.733444,0.990814,-0.120234,-0.061892
-0.357143,0.158183,0.693383,0.674086,0.078301,0.734491
-0.353855,0.104165,0.675276,0.891673,0.410085,0.191703
-0.352514,-0.028700,0.696411,0.932412,-0.051943,-0.357646
-0.350421,-0.127006,0.699348,-0.554431,0.634795,0.538184
-0.347133,-0.157411,0.669250,-0.742539,0.454868,0.491661
-0.342349,-0.119132,0.604965,0.945753,0.050624,-0.320918
-0.339809,-0.209263,0.605147,-0.666242,0.084964,-0.740880
-0.337716,-0.297067,0.604329,-0.500606,-0.711721,0.492795
-0.335924,-0.439351,0.628977,0.402377,-0.779150,0.480644
-0.330994,-0.385493,0.557486,0.041865,0.211755,0.976426
-0.323971,-0.246760,0.440362,0.983609,0.046355,0.174255
-0.320683,-0.291510,0.415199,0.789854,-0.114814,0.602453
-0.312912,-0.115120,0.276879,-0.550089,0.777836,-0.303931
-0.310071,-0.201077,0.273579,-0.186335,0.981009,-0.053860
-0.302004,-0.014656,0.129415,0.008245,-0.879699,0.475459
-0.292140,0.012659,0.015531,0.314150,-0.910179,0.269971
-0.288852,-0.041670,-0.007815,0.808090,-0.589025,0.006356
-0.283923,-0.027165,-0.067951,-0.473005,0.033506,-0.880422
-0.278993,-0.012037,-0.129056,0.072050,-0.916976,0.392383
-0.275107,-0.063268,-0.153704,0.594862,-0.705423,0.385380
-0.260163,-0.042282,-0.325272,0.783835,0.343773,0.517129
-0.255680,-0.064040,-0.369602,-0.428875,0.900104,0.076678
-0.251348,-0.083641,-0.414780,-0.813930,0.425441,-0.395623
-0.245666,-0.061572,-0.484576,-0.416769,-0.907099,0.058958
-0.102960,-0.032873,-0.083454,0.895776,-0.106391,-0.431586
-0.114169,-0.601236,0.167447,0.901846,0.060793,0.427759
-0.096982,-0.009410,-0.149253,0.644896,0.763271,-0.039086
-0.092499,-0.049073,-0.179715,-0.314957,0.916410,0.246972
-0.086224,-0.007253,-0.254628,0.500651,0.863303,-0.063695
-0.078303,0.074231,-0.354311,0.946882,-0.160585,-0.278618
-0.070386,-0.031940,-0.407271,0.938006,0.338887,-0.072798
-0.065753,-0.079628,-0.437823,0.834220,0.409091,-0.369760
-0.064854,-0.402466,-0.369511,0.792988,0.072550,0.604902
-0.214136,0.411423,0.897774,0.118382,0.989641,-0.081220
-0.205472,0.631019,0.757274,0.684945,-0.066847,0.725522
-0.208459,0.289663,0.871824,-0.319983,0.588359,0.742593
-0.203679,0.328244,0.813444,0.966531,-0.129838,-0.221268
-0.203825,0.104325,0.874852,0.122311,0.818535,-0.561285
-0.199794,0.100925,0.833853,-0.103561,-0.924341,-0.367246
-0.195909,0.079478,0.800363,-0.306560,0.945253,0.111886
-0.192470,0.033023,0.780681,0.461972,0.885247,-0.054038
-0.187541,0.063117,0.724330,0.661610,0.748621,0.042885
-0.183801,0.037036,0.692535,-0.208935,-0.014101,-0.977828
-0.183801,-0.146146,0.737895,0.090857,0.992928,0.076414
-0.179172,-0.135804,0.688266,-0.650223,0.631415,0.422522
-0.175433,-0.181787,0.665616,0.786485,0.110888,0.607573
-0.170056,-0.145374,0.602482,0.974668,-0.122373,-0.187206
-0.167365,-0.231021,0.600544,0.673257,-0.724455,0.147955
-0.163330,-0.245677,0.563390,0.782825,-0.519068,-0.343153
-0.158099,-0.220368,0.504132,0.287203,0.888450,0.358008
-0.155263,-0.287346,0.492323,0.236155,-0.971428,-0.023628
-0.149435,-0.243369,0.422436,0.731104,-0.501153,-0.462960
-0.140168,-0.274075,0.341376,-0.362548,-0.650559,-0.667332
-0.122683,0.009881,0.099256,0.816515,0.305107,0.490116
-0.135836,-0.656177,0.395547,-0.253550,0.929354,0.268354
-0.118201,-0.016662,0.061951,-0.372902,0.792017,-0.483376
-0.113568,-0.022531,0.015501,0.384411,-0.885030,0.262584
-0.108041,-0.014656,-0.041032,-0.719963,0.663440,-0.203717
-0.054544,0.315283,0.959364,-0.591602,-0.629094,0.504230
-0.051557,0.257102,0.946101,0.955224,-0.162392,-0.247337
-0.048716,0.195369,0.934292,0.749270,-0.639420,-0.172442
-0.043636,0.198921,0.890749,-0.697461,-0.640833,0.320750
-0.040197,0.155094,0.870250,-0.172079,0.641624,0.747467
-0.038108,0.044449,0.879848,-0.420147,-0.549855,-0.721898
-0.036312,-0.063428,0.887842,-0.452463,-0.678571,-0.578635
-0.030634,-0.034417,0.831218,0.802373,0.593167,-0.065960
-0.027798,-0.095067,0.818501,0.326978,0.930933,-0.162631
-0.023013,-0.087343,0.772959,0.040548,-0.150123,0.987836
-0.020774,-0.195219,0.780257,0.656498,0.479101,-0.582643
-0.018531,-0.287497,0.782286,0.869697,0.089332,0.485435
-0.007322,-0.072225,0.633186,0.157235,0.627599,0.762494
-0.010012,-0.346912,0.722089,0.824173,-0.555079,-0.112362
-0.005529,-0.366975,0.686691,-0.643112,0.480661,-0.596130
0.004330,-0.202161,0.561150,-0.123456,0.989924,0.069352
0.016287,-0.154783,0.445540,-0.189374,0.261844,0.946348
0.021814,-0.147681,0.395881,0.823668,0.561629,0.078375
0.029288,-0.078084,0.312307,0.727779,0.642464,0.239954
0.028691,-0.285029,0.368870,0.995928,0.087552,0.021510
0.031829,-0.355861,0.356395,0.959119,-0.179234,-0.219012
0.031979,-0.512038,0.390127,0.321858,0.231307,0.918098
0.031829,-0.675005,0.427493,0.254353,0.698440,0.668944
0.060367,0.016823,0.016258,0.811985,-0.219004,-0.541034
0.066943,0.036263,-0.044030,0.126013,-0.056080,0.990442
0.067394,-0.123615,-0.011842,0.908178,0.415969,-0.046717
0.075165,-0.077472,-0.089056,0.825550,-0.402246,-0.395810
0.109832,0.217439,-0.465287,0.868745,-0.446322,0.214660
0.120741,-0.360184,-0.425529,0.414057,0.452133,0.790021
0.101013,0.713586,0.754034,0.911652,-0.041103,-0.408903
0.105796,0.691357,0.721513,0.882548,-0.428542,0.193551
0.105350,0.510191,0.763391,-0.105703,0.864710,0.491022
0.099668,0.141822,0.893293,-0.116626,-0.815293,0.567182
0.105646,0.169910,0.837789,0.909435,0.415644,0.012971
0.106841,0.045522,0.854958,-0.519020,0.149611,-0.841567
0.111625,0.036574,0.816139,0.962848,-0.208720,0.171348
0.109235,-0.209103,0.889326,0.777482,0.557242,-0.291553
0.120590,-0.027165,0.758849,-0.373049,0.552548,0.745336
0.122980,-0.108799,0.755639,0.276875,0.076995,0.957816
0.123728,-0.257874,0.784981,-0.228643,0.917662,0.324990
0.135981,-0.047067,0.638182,0.932205,-0.199834,-0.301763
0.135831,-0.209875,0.673883,0.979899,0.181873,0.081980
0.136579,-0.350774,0.697834,0.736366,0.628032,-0.251678
0.142557,-0.332718,0.643179,0.900732,0.246281,-0.357810
0.145544,-0.423922,0.642724,0.514096,-0.255887,-0.818674
0.160639,-0.135493,0.453685,0.788129,-0.178496,-0.589060
0.161984,-0.256641,0.469461,0.843769,0.221853,-0.488707
0.173490,-0.100925,0.342860,0.213944,0.966739,-0.140155
0.174835,-0.223147,0.358363,-0.355114,0.831431,0.427336
0.172742,-0.441206,0.421498,0.805587,0.029849,-0.591725
0.178123,-0.629474,0.420801,0.415939,-0.160016,0.895203
0.201135,-0.319446,0.162602,-0.346703,-0.899885,-0.264583
0.221455,0.039504,-0.078882,0.963211,-0.141731,-0.228336
0.264345,0.745987,0.678001,0.191668,-0.240642,0.951501
0.267483,0.672689,0.668220,0.697600,0.691605,-0.187179
0.279887,0.872381,0.533383,-0.232453,0.965765,0.115167
0.274806,0.565585,0.634004,0.812834,-0.493581,0.309321
0.266288,0.158795,0.781075,0.662514,-0.025858,-0.748603
0.272863,0.178246,0.729992,-0.625379,0.738244,0.252779
0.279435,0.207718,0.671793,0.647624,-0.501671,0.573507
0.286608,0.246147,0.608750,0.279997,0.451877,0.847000
0.286011,0.057409,0.654503,0.532148,-0.358956,0.766791
0.293034,0.093522,0.593519,0.795489,0.328311,-0.509322
0.296769,0.039663,0.575926,-0.179975,-0.954174,-0.239083
0.296171,-0.133336,0.614715,0.978413,-0.059009,0.198054
0.296171,-0.292593,0.649295,-0.166575,-0.796181,0.581678
0.296472,-0.439511,0.676184,-0.684538,0.502690,0.527930
0.300056,-0.503551,0.662074,-0.549109,-0.298835,-0.780498
0.302300,-0.604787,0.667251,0.120744,-0.548528,0.827368
0.336370,-0.201238,0.323723,0.307877,0.950365,-0.044936
0.366856,0.059415,0.039543,-0.103627,0.555354,0.825132
0.419304,0.212041,0.836457,0.428561,0.887726,0.168164
0.430212,0.337814,0.736411,0.189520,0.455814,0.869664
0.428124,0.126856,0.793762,-0.401120,0.508837,0.761701
0.435744,0.166359,0.731324,-0.396693,0.821636,0.409328
0.450538,0.067440,0.646933,-0.508529,0.054591,-0.859312
0.456366,0.050618,0.609931,0.329804,0.942010,-0.062028
0.457114,-0.073148,0.626403,0.986415,0.145500,0.076262
0.463835,-0.070370,0.581074,0.631595,0.755789,0.172834
0.474447,0.023303,0.488386,0.617212,-0.054949,-0.784876
0.474894,-0.110033,0.510006,0.791635,-0.104964,-0.601910
0.476536,-0.231793,0.524026,0.402657,-0.576824,-0.710733
0.597876,-0.115892,-0.349435,-0.319736,0.281067,-0.904859
0.552748,0.385803,0.756396,0.755758,0.208045,-0.620924
0.555438,0.291981,0.756941,0.913560,0.051353,-0.403448
0.558877,0.222073,0.746252,0.847603,-0.492881,0.196565
0.563059,0.171454,0.727993,0.936550,-0.344159,-0.066541
0.575463,0.157411,0.647902,-0.403102,0.912397,-0.071000
0.579047,0.091826,0.635669,-0.161994,-0.626448,0.762444
0.582335,0.016361,0.627039,-0.187133,-0.376632,0.907265
0.596084,0.170221,0.506221,0.773813,0.475143,-0.418871
0.593991,-0.034107,0.560090,0.792524,-0.260498,-0.551404
0.600417,-0.034568,0.515699,0.657750,-0.130930,-0.741770
0.602660,-0.284568,0.548947,-0.595684,0.177305,0.783405
0.605050,-0.377628,0.550824,0.091602,0.044435,0.994804
0.702029,0.118520,0.673489,0.622986,0.636559,-0.454622
0.705021,0.039814,0.668250,-0.637349,-0.486608,0.597495
0.706662,-0.067280,0.676820,0.038146,-0.038575,0.998527
0.716376,-0.014656,0.605843,0.414729,0.508482,-0.754617
0.721160,-0.056637,0.582346,0.688846,0.232764,-0.686522
0.723700,-0.157251,0.585828,0.140267,0.736526,0.661705
0.740733,-0.242437,0.489537,0.512256,-0.410782,-0.754223
0.829946,-0.246299,0.663375,0.507938,0.834767,0.212513
0.839509,-0.205090,0.596971,0.455001,0.863967,0.215721
-0.291392,-0.168977,-0.787711,0.062881,-0.951018,-0.302673
-0.345190,-0.147530,-0.807938,-0.248499,0.871112,0.423572
-0.402573,-0.124077,-0.828831,0.991012,0.060052,0.119539
-0.464734,-0.097374,-0.877612,-0.716825,0.695523,0.049078
0.488493,0.111879,-0.984077,-0.140491,0.306079,0.941582
0.461446,-0.371609,-0.966757,-0.181255,-0.102899,0.978038
0.253437,0.121449,-0.988256,-0.084976,-0.207238,0.974593
0.248653,0.022530,-0.987348,-0.154984,0.175729,0.972162
0.243422,-0.088576,-0.990103,-0.132902,-0.229892,0.964099
0.237895,-0.172990,-0.982351,0.298788,-0.297022,-0.906920
0.355350,0.108027,-0.986742,-0.132843,0.306377,0.942595
0.350120,0.006480,-0.985137,0.185428,-0.100949,-0.977459
0.344738,-0.084414,-0.978748,-0.250969,0.210003,0.944941
0.334428,-0.294599,-0.982351,-0.187690,-0.075770,0.979301
0.039002,-0.105710,-0.994100,-0.038384,0.001864,0.999261
0.033470,-0.197225,-0.989225,0.135000,0.158761,0.978044
0.206661,0.114969,-0.985591,-0.021001,-0.498729,0.866504
0.195904,-0.089810,-0.983351,0.102884,-0.083419,0.991189
-0.055588,-0.025309,-0.988589,-0.305340,-0.148960,-0.940520
-0.061270,-0.087964,-0.969210,0.477475,0.164030,0.863199
-0.066200,-0.222835,-0.984713,0.176239,0.425356,0.887700
-0.093694,-0.164503,-0.730239,0.994245,0.037030,-0.100530
-0.184549,-0.142284,-0.989316,0.625242,0.166155,0.762539
-0.189930,-0.147681,-0.945955,-0.384724,0.788592,0.479697
-0.224899,0.031789,-0.595765,0.978721,0.148770,-0.141327
-0.230129,0.005095,-0.565121,0.838418,-0.502648,0.210715
-0.137181,-0.101698,-0.992192,0.149977,-0.210454,0.966031
-0.143009,-0.153549,-0.967968,0.791421,-0.603502,0.097146
-0.099075,-0.129474,-0.990890,0.151394,-0.156494,0.976007
-0.196802,0.036724,-0.555946,0.767175,-0.641254,-0.015359
-0.054247,-0.091817,-0.983865,-0.245830,0.207231,-0.946902
-0.246414,0.022841,-0.556582,-0.149406,0.964128,-0.219398
-0.071727,-0.085035,-0.971329,-0.440071,0.672668,-0.594857
-0.261805,0.022681,-0.530753,0.971630,0.236473,-0.004054
-0.550509,-0.156638,0.254290,0.364680,0.871091,0.328950
-0.181859,-0.269601,-0.044363,-0.366166,-0.884306,-0.289698
-0.114019,-0.365892,0.858289,0.840202,0.478495,-0.255152
-0.056637,-0.382102,0.804057,-0.383429,-0.876222,-0.291919
-0.126720,-0.355399,0.785768,0.237998,0.921071,0.308198
0.043184,-0.414814,0.744223,0.783049,-0.239045,-0.574187
0.113718,-0.438427,0.712217,0.131428,0.810051,0.571440
-0.291989,-0.289663,0.727933,0.100758,0.567617,0.817104
-0.381951,-0.254936,0.712853,0.750001,0.569848,-0.335816
0.052149,-0.410340,0.644662,0.518968,-0.134168,-0.844199
-0.773016,-0.110806,0.702770,0.831897,0.287739,0.474505
-0.562014,-0.185188,0.656714,-0.394314,-0.896331,-0.202746
-0.421402,-0.233489,0.617349,0.239849,0.822092,0.516370
-0.255680,-0.289504,0.551006,0.434028,0.576722,0.692107
-0.667513,-0.136727,0.543708,0.838470,-0.479621,0.258712
-0.175734,-0.312344,0.468432,-0.192323,-0.958977,0.208269
-0.366409,-0.241203,0.462679,0.138310,-0.576697,0.805165
-0.536463,-0.178547,0.455018,-0.301681,-0.222228,-0.927148
-0.132995,-0.319446,0.362179,0.400490,0.733476,0.549200
-0.904516,-0.267284,0.526539,-0.444325,-0.763559,-0.468565
-0.759266,-0.188738,0.491717,-0.783688,-0.424592,-0.453381
-0.764497,-0.245526,0.504829,-0.427765,-0.641777,-0.636505
-0.774210,-0.119132,0.585010,0.109758,0.629195,0.769459
-0.794234,-0.085186,0.694231,0.831897,0.287739,0.474505
-0.567546,-0.025771,0.469885,-0.088455,-0.981228,-0.171369
-0.589809,0.491202,0.697289,-0.753692,0.652572,-0.078087
-0.599373,0.099230,0.650476,-0.721450,-0.370134,-0.585243
-0.604006,0.014044,0.652444,0.772313,-0.285089,0.567676
-0.608639,-0.055242,0.658924,-0.080674,-0.174171,0.981405
-0.613870,-0.097374,0.675276,0.249664,0.628746,0.736441
-0.617158,-0.486578,0.599817,-0.381087,-0.743506,-0.549520
-0.632845,-0.149848,0.752732,0.764401,0.008350,0.644687
-0.626871,-0.641511,0.610325,0.578434,0.191369,0.792964
-0.516886,0.374077,0.678152,0.052691,-0.933242,0.355365
-0.520324,0.008487,0.608629,0.891554,0.120714,0.436531
-0.536910,0.371298,0.774685,0.242265,-0.775317,0.583259
-0.532131,-0.052624,0.653141,0.828904,-0.090524,0.552017
-0.533923,-0.246911,0.614564,-0.633612,-0.526837,0.566550
-0.540946,-0.234723,0.650688,0.697451,0.495868,0.517376
-0.551854,-0.073148,0.741559,-0.703448,-0.150270,-0.694680
-0.552899,-0.278238,0.699348,0.951145,0.052543,0.304241
-0.559028,-0.296455,0.725026,0.945950,0.014824,0.323974
-0.555740,-0.705712,0.612505,0.033101,0.423554,0.905266
-0.487449,0.151543,0.642906,-0.236837,-0.198343,-0.951088
-0.501199,0.464660,0.790280,-0.598221,0.785729,-0.157362
-0.502393,-0.047839,0.668705,0.984421,0.163921,-0.063602
-0.501796,-0.358338,0.589401,0.456127,0.877854,-0.146016
-0.520023,0.176541,0.813777,0.798873,0.598914,0.055711
-0.518683,-0.148303,0.727842,0.886705,-0.071952,0.456703
-0.523462,-0.229627,0.731142,0.851890,-0.076582,0.518092
-0.522417,-0.566978,0.642361,-0.890135,0.280599,0.359059
-0.449493,0.456484,0.638213,0.909377,0.127752,0.395869
-0.480873,0.496760,0.815927,-0.282132,0.855925,0.433352
-0.476837,-0.306015,0.587615,-0.141418,-0.988051,-0.061285
-0.482218,-0.345528,0.606600,0.900040,0.342292,-0.269748
-0.495968,0.056947,0.784375,0.475608,0.263400,-0.839296
-0.497313,-0.192751,0.725965,0.852014,0.116067,0.510491
-0.495968,-0.596451,0.613383,0.876560,0.188425,0.442876
-0.506429,-0.354014,0.731869,-0.418084,-0.869895,0.261703
-0.508372,-0.583180,0.681967,0.859866,-0.282775,-0.425051
-0.423792,0.411885,0.782498,-0.070943,0.741288,-0.667427
-0.430217,0.457096,0.830280,0.132196,0.952702,0.273648
-0.428571,0.020986,0.704102,-0.720953,-0.000621,-0.692984
-0.441276,0.089509,0.792581,-0.425632,0.760005,-0.491151
-0.441723,-0.233338,0.709189,0.803490,0.244543,0.542773
-0.446206,-0.323299,0.709583,0.955135,0.249259,0.159961
-0.450091,-0.446293,0.697047,0.854139,-0.418975,0.308071
-0.454127,-0.567130,0.685510,-0.008013,0.611562,0.791156
-0.212941,0.046756,-0.464985,0.784958,-0.618986,0.026410
-0.379707,0.111578,0.797456,0.752125,-0.620752,0.221300
-0.381650,-0.153238,0.734776,0.651780,-0.727419,-0.214580
-0.385535,-0.256480,0.729023,0.991403,-0.017130,0.129714
-0.389270,-0.415125,0.705041,0.858530,-0.347595,0.376968
-0.392262,-0.634419,0.660408,-0.544428,0.657052,0.521421
-0.155559,0.053246,-0.467316,-0.712685,-0.343848,-0.611432
-0.164228,0.101848,-0.405605,0.934813,-0.347280,0.074299
-0.186793,0.097374,-0.281941,0.724441,-0.479344,0.495393
-0.195608,0.166048,-0.213629,0.953845,-0.143325,0.263891
-0.207564,0.076238,-0.171751,0.983263,-0.178284,-0.037523
-0.329202,0.224079,0.546312,-0.735900,0.209901,-0.643734
-0.341305,0.569757,0.708584,-0.369648,0.222274,-0.902194
-0.341602,0.255246,0.623436,0.645209,-0.321490,-0.693073
-0.356098,0.072838,0.654958,0.789222,-0.253614,-0.559293
-0.361927,0.070991,0.687357,0.956715,0.224035,0.185757
-0.368799,0.112190,0.735321,0.996872,-0.071343,0.034013
-0.375375,0.173150,0.788675,-0.713934,0.689806,-0.120275
-0.169906,0.096912,-0.248633,0.972334,0.072707,-0.221993
-0.178425,0.158795,-0.182047,0.825499,0.206232,-0.525376
-0.183951,0.122683,-0.158246,0.909685,-0.411325,-0.057314
-0.209804,0.089047,-0.016838,-0.345014,0.837731,0.423287
-0.310372,0.245215,0.616138,0.785659,-0.339200,0.517381
-0.316351,0.296455,0.667554,0.288242,0.914232,-0.284774
-0.321281,0.265437,0.688084,-0.658535,0.174713,-0.731989
-0.327259,0.270373,0.723118,-0.292896,-0.486813,0.822937
-0.330396,0.089820,0.688599,0.983749,0.162588,0.076181
-0.334879,0.011416,0.693080,0.887603,0.154332,-0.433984
-0.341752,0.128701,0.768326,0.981267,-0.180149,0.068280
-0.345637,0.007102,0.757335,-0.843925,0.293776,0.448872
-0.350270,-0.078244,0.757849,-0.146662,-0.598007,0.787958
-0.357444,0.096451,0.851233,0.903360,0.423518,0.067622
-0.356847,-0.441357,0.692081,-0.629965,-0.773008,0.074851
-0.215481,0.033795,-0.186589,0.987549,-0.136355,0.078455
-0.319639,0.234722,0.551339,-0.762773,0.244657,-0.598598
-0.329949,0.216053,0.611263,0.667061,-0.637990,0.384705
-0.340110,0.231793,0.684269,0.886474,-0.248843,-0.390182
-0.345190,0.188117,0.701347,-0.641203,0.764055,-0.071265
-0.349076,0.062194,0.687055,0.902921,0.376729,0.206902
-0.353257,0.004013,0.697562,0.812350,0.102299,-0.574127
-0.359386,0.120526,0.772566,-0.673834,0.566685,-0.474148
-0.363719,0.064812,0.783527,0.328715,-0.142121,-0.933675
-0.367905,-0.091204,0.759939,0.770422,0.357037,-0.528180
-0.373432,0.007714,0.827403,0.445865,0.878875,-0.169655
-0.376123,-0.416048,0.708917,0.887502,-0.068642,0.455664
-0.178425,0.084564,-0.408845,0.830314,-0.550722,0.085347
-0.185000,0.099540,-0.360215,0.876757,-0.381111,-0.293345
-0.197550,0.076699,-0.289784,0.770292,-0.524811,0.362248
-0.385836,-0.066207,0.663345,-0.264655,-0.893112,0.363743
-0.390615,0.089349,0.752884,0.960989,-0.222656,0.164089
-0.394952,0.089970,0.785404,-0.748473,0.408339,-0.522539
-0.398983,-0.036574,0.770900,-0.680027,-0.637672,0.361854
-0.403617,-0.241363,0.728720,0.997242,0.042381,0.060925
-0.407949,-0.368058,0.716123,-0.497610,0.604481,-0.622083
-0.412582,-0.591054,0.668342,0.025262,-0.104955,0.994156
-0.223699,0.038580,-0.484667,0.912523,-0.324804,0.248605
-0.363568,0.232866,0.609325,0.851759,0.511281,-0.114449
-0.377016,0.253702,0.715306,0.080033,0.995287,0.054765
-0.381504,0.111267,0.694988,0.971131,0.207939,0.116898
-0.241037,0.028087,-0.470041,0.954240,-0.296514,0.038802
-0.364020,0.060499,0.526388,0.834709,-0.515735,0.193075
-0.368051,0.162196,0.598546,0.778019,-0.623681,0.075552
-0.380008,0.157100,0.696048,-0.327952,-0.350462,-0.877282
-0.385385,-0.052935,0.652354,0.195139,0.921001,0.337161
-0.388226,0.160801,0.761907,0.154942,-0.711657,0.685228
-0.392859,0.039042,0.749189,0.956016,-0.283204,0.076343
-0.396744,0.063739,0.790552,-0.558843,-0.319810,0.765125
-0.402272,-0.295522,0.692838,0.881780,0.133168,0.452471
-0.406609,-0.289965,0.727418,0.596394,0.635290,-0.490633
-0.411835,-0.507563,0.682724,-0.084476,0.691745,0.717184
-0.245219,0.048150,-0.034128,0.226346,0.915529,-0.332527
-0.314107,0.234571,0.614231,0.553816,-0.494407,0.669963
-0.318294,0.242286,0.649749,0.382464,-0.620776,0.684367
-0.321728,0.285340,0.697925,0.651450,0.716774,-0.248691
-0.330693,0.066517,0.682391,0.915636,0.328104,0.232291
-0.335176,0.024847,0.700348,-0.006323,0.344371,0.938812
-0.338168,0.143828,0.776260,0.910729,-0.253307,0.326203
-0.343398,-0.018669,0.750219,0.953037,-0.302306,0.018204
-0.347881,-0.135342,0.739470,0.301891,-0.926577,0.224313
-0.349673,0.109411,0.858531,-0.821090,0.570496,0.018574
-0.357891,-0.431326,0.698228,0.994067,0.062484,0.089034
-0.130007,0.089047,-0.321699,0.737436,-0.675416,0.001158
-0.140018,0.147690,-0.215991,0.961051,-0.000335,0.276371
-0.144801,0.225152,-0.142955,0.899870,-0.431967,-0.060325
-0.219819,0.306024,0.516668,0.969556,-0.109536,-0.219007
-0.224151,0.300618,0.547947,0.764024,0.179360,-0.619756
-0.232218,0.333490,0.627645,0.298668,0.113008,0.947643
-0.236254,0.363122,0.672611,0.575241,-0.816983,-0.040449
-0.239988,0.382412,0.713186,-0.179563,0.714071,0.676653
-0.244471,0.284106,0.710037,0.230453,-0.954782,0.187837
-0.247463,0.392444,0.781831,-0.548967,0.733948,0.399945
-0.252242,0.269139,0.768084,-0.340326,0.930300,0.136819
-0.258070,-0.016662,0.696835,0.549852,0.055846,0.833393
-0.261057,0.145684,0.787130,-0.584586,0.416265,-0.696407
-0.265394,0.057258,0.787766,-0.045068,0.803375,0.593766
-0.268828,0.095839,0.833943,0.257205,-0.964005,-0.067379
-0.272864,0.092438,0.864678,0.266568,0.950545,-0.159391
-0.142859,0.278238,0.664587,0.785865,-0.541706,0.298279
-0.147642,0.158795,0.653988,0.742430,0.587129,0.322609
-0.150183,0.379012,0.768599,0.797908,0.597824,-0.077129
-0.154665,0.327782,0.782679,-0.332868,0.186800,-0.924286
-0.160493,0.081795,0.724420,0.913819,0.373453,0.159583
-0.163033,0.234722,0.811506,0.764792,0.609072,-0.210056
-0.166618,0.249849,0.849265,0.291125,0.588412,-0.754332
-0.171547,0.076850,0.818077,0.911848,0.318894,-0.258533
-0.176331,-0.011576,0.818592,0.849060,-0.312585,-0.425897
-0.178871,0.155245,0.909947,-0.174066,-0.144485,0.974077
-0.183801,0.044750,0.902467,0.898261,-0.015252,0.439198
-0.187987,0.005868,0.919061,-0.483552,0.874913,0.026542
-0.045879,0.119132,-0.199488,0.762239,0.046139,-0.645650
-0.060522,0.275460,-0.016111,0.823525,0.197428,0.531817
-0.088464,0.126695,0.150853,-0.626294,-0.316257,-0.712557
-0.105948,0.122994,0.295138,0.493436,0.858959,0.136788
-0.121193,0.497843,0.580529,0.058072,-0.713781,0.697957
-0.126273,0.361116,0.563057,-0.833821,0.065139,0.548178
-0.130756,0.239658,0.550430,-0.708476,-0.664775,0.236928
-0.134490,0.322837,0.614715,0.849448,0.293509,0.438508
-0.138973,0.305252,0.642088,-0.526617,0.738095,0.421770
0.054990,0.059255,0.161815,0.995643,-0.091624,0.017292
0.031829,0.395063,0.472186,-0.489862,0.823412,0.286406
0.023159,0.610956,0.623345,0.142751,0.903353,0.404444
0.013596,0.358488,0.596275,0.074704,0.780801,0.620297
0.009711,0.651543,0.740529,-0.069378,0.366825,0.927699
0.000746,0.402937,0.711915,0.744878,0.345595,0.570719
-0.003888,0.326548,0.716880,-0.717575,0.117828,0.686442
-0.008070,0.231944,0.714034,0.853493,-0.482973,0.195668
-0.012553,0.227159,0.745314,0.609849,-0.785146,-0.107844
-0.016889,0.183954,0.762361,0.803922,-0.563071,-0.191471
-0.020921,0.202010,0.801635,-0.676198,0.499882,0.541179
-0.025257,0.188117,0.827736,0.496511,-0.174037,0.850405
-0.029288,0.160651,0.848902,0.775982,0.073645,-0.626441
-0.033626,0.156017,0.879122,0.422757,0.860577,-0.284049
-0.037361,0.172067,0.915246,0.319540,-0.269574,0.908418
-0.042737,-0.010803,0.882059,0.807968,0.540699,-0.234162
-0.047220,-0.146447,0.865889,-0.476793,0.089353,-0.874463
-0.052154,-0.247381,0.862134,0.861951,-0.220595,0.456484
-0.055738,-0.208490,0.905919,0.295628,0.935266,0.194634
-0.059327,-0.183954,0.944466,-0.209278,-0.957361,-0.199154
0.078303,0.594133,0.614927,0.825167,0.547767,-0.138023
0.073820,0.566819,0.637607,0.726583,0.640538,-0.248574
0.068438,0.344756,0.587887,0.574384,0.786753,0.226058
0.065899,0.694757,0.751975,-0.703189,-0.570935,0.423744
0.061115,0.563578,0.736290,-0.581225,-0.766614,-0.272911
0.056185,0.383336,0.702467,0.905767,-0.414903,0.086265
0.052149,0.378862,0.734170,0.707116,0.257618,-0.658498
0.047370,0.265739,0.724693,0.875391,-0.123792,-0.467297
0.043334,0.226697,0.742225,0.468507,0.747307,0.471204
0.038550,0.163731,0.752187,0.822259,0.512821,0.246789
0.035263,0.231482,0.808296,0.986612,0.144675,-0.075279
0.030930,0.175769,0.820651,0.788019,0.484163,0.380279
0.025700,0.001384,0.790037,0.449195,-0.702019,-0.552624
0.022562,0.113584,0.862346,-0.282493,0.748745,-0.599648
0.018079,0.062806,0.874882,-0.422450,-0.245601,0.872477
0.013596,-0.060028,0.861922,-0.049752,-0.741590,0.669006
0.009264,-0.079167,0.886813,0.191465,0.936964,0.292302
0.006126,-0.002929,0.944163,-0.647448,0.753137,0.116600
-0.000896,-0.395213,0.838516,0.029933,0.722740,0.690471
-0.005379,-0.481331,0.840242,-0.175547,0.556283,0.812239
0.189779,0.688277,0.552792,-0.609288,-0.746598,0.267131
0.181707,0.859882,0.686903,0.035058,-0.836465,0.546898
0.172295,0.571603,0.645298,-0.256548,-0.332114,0.907680
0.167064,0.394450,0.612414,0.192061,-0.574543,0.795621
0.163179,0.437806,0.661559,-0.616575,-0.737487,-0.275589
0.159143,0.513893,0.722391,-0.451325,-0.097817,0.886982
0.155107,0.500933,0.751006,-0.315659,-0.215004,0.924193
0.150027,0.307870,0.711430,0.327919,-0.579113,0.746389
0.145098,0.138893,0.682482,-0.548643,-0.071324,0.833009
0.141062,0.129163,0.712187,0.047613,0.997897,-0.043981
0.136579,0.136416,0.747948,-0.673744,-0.738582,-0.023778
0.132543,0.102620,0.767085,-0.663019,0.151345,-0.733144
0.128958,0.155404,0.817441,-0.481490,-0.662330,0.574009
0.124175,0.057870,0.814686,0.793235,-0.607421,0.042642
0.119993,-0.008487,0.821953,0.973735,-0.097321,0.205838
0.116258,0.108950,0.895867,0.343127,-0.899789,-0.269524
0.109682,-0.325004,0.773807,0.595591,-0.758855,0.263459
0.106991,-0.065585,0.897229,-0.331551,-0.407811,0.850743
0.102810,-0.170682,0.890749,-0.657421,-0.426097,0.621481
0.098177,-0.229325,0.900439,0.854806,0.510519,-0.093147
0.295724,0.462653,0.606933,-0.157618,0.903625,-0.398270
0.290940,0.392906,0.613534,0.143625,0.512537,-0.846568
0.285860,0.064511,0.524299,0.894779,-0.433024,0.108910
0.281528,0.221300,0.617834,-0.471661,0.117892,-0.873863
0.276895,0.265437,0.668190,-0.417262,0.895290,-0.156041
0.272713,0.228863,0.686933,-0.191274,0.864070,0.465615
0.268230,0.086730,0.666737,0.716191,-0.131656,0.685374
0.263597,0.118670,0.711612,0.715574,-0.691091,-0.101719
0.259411,0.059566,0.721846,0.955104,0.263124,-0.136168
0.255079,0.100925,0.769719,0.869613,-0.123348,-0.478077
0.250746,0.116975,0.808205,-0.255365,0.942984,0.213470
0.240882,-0.317130,0.716214,-0.697016,-0.538841,0.473096
0.236103,-0.423301,0.709825,0.656727,0.737700,0.156551
0.232218,-0.297067,0.787009,0.182041,0.406773,0.895208
0.228031,-0.316818,0.810901,0.867745,0.277306,-0.412455
0.430513,0.351386,0.536592,-0.085753,-0.648347,0.756500
0.425579,0.210807,0.517849,-0.082948,-0.918240,0.387241
0.421397,0.057870,0.493504,-0.096838,-0.324404,0.940949
0.416613,-0.067751,0.479847,-0.716689,0.545291,0.434758
0.411834,-0.086731,0.507917,-0.661937,-0.744090,-0.090385
0.407050,0.013733,0.578440,0.359564,0.932588,-0.031515
0.402568,0.275620,0.709401,-0.648567,-0.054974,0.759170
0.397638,0.219595,0.722119,-0.082346,0.965623,0.246557
0.393306,0.077312,0.703315,0.368580,-0.733787,0.570706
0.389119,0.208330,0.782467,0.151363,-0.982922,-0.104664
0.384486,0.139044,0.788675,-0.671746,0.607177,0.424375
0.380154,0.169137,0.832066,0.554912,0.831887,0.006036
0.374627,-0.511887,0.618621,0.682687,-0.377790,0.625470
0.369994,-0.604325,0.618803,0.937624,0.324161,0.125621
0.365360,-0.714971,0.612596,0.888369,-0.404627,0.216974
0.360727,-0.595528,0.687933,-0.791111,0.256588,0.555254
0.356395,-0.696302,0.683814,-0.699902,0.416075,0.580534
0.558877,0.318825,0.523814,-0.023016,-0.471041,0.881811
0.554389,0.214660,0.519242,-0.623758,0.084535,0.777032
0.549761,0.100925,0.509613,0.959156,-0.195016,-0.204912
0.545127,-0.027315,0.496259,-0.602325,0.196446,0.773701
0.535264,-0.055864,0.555093,0.870313,-0.388506,-0.302687
0.529435,0.337192,0.733383,0.837893,0.467321,0.282041
0.525254,0.182258,0.708311,0.671215,0.681326,-0.292002
0.520470,0.062966,0.697865,0.375636,-0.838577,0.394571
0.516434,-0.321764,0.589643,0.755065,-0.015767,0.655460
0.506575,0.126394,0.817956,0.399135,0.844912,-0.356111
0.670349,0.165125,0.528144,0.914470,0.276972,-0.295011
0.665866,0.093832,0.534655,0.904652,0.425926,-0.013882
0.660640,0.155404,0.592308,0.935739,0.327770,0.130227
0.656007,0.070991,0.593701,0.810325,0.251943,-0.529054
0.651374,-0.046455,0.583708,-0.704125,-0.189698,0.684268
0.645545,0.143207,0.687448,0.600080,0.387640,0.699742
0.640912,-0.020373,0.660771,-0.314251,0.122314,0.941427
0.636731,-0.120215,0.656381,0.233671,0.262104,-0.936322
0.835176,-0.113273,0.565056,0.567211,0.693601,0.444060
0.829946,-0.160953,0.581498,-0.109156,-0.735647,0.668512
0.817392,-0.125772,0.578137,-0.224066,-0.955382,-0.192455
0.747158,-0.145062,0.596426,0.630206,0.363988,-0.685823
0.702180,0.012499,0.523269,0.833853,0.198255,-0.515154
0.673040,0.064973,0.661014,0.411020,0.005295,0.911611
0.196948,-0.601858,-0.419595,0.126539,0.676470,0.725518
0.587415,0.368520,0.772778,-0.553882,0.494395,0.669916
0.577702,0.374388,0.750310,0.505560,0.418552,-0.754469
0.575312,0.104786,0.680938,0.253105,-0.620817,0.741973
0.541242,0.138422,0.826071,-0.604440,-0.744153,-0.284410
0.500596,0.202010,0.740045,0.732022,-0.679276,0.052232
0.486701,0.340743,0.738531,-0.453955,-0.669349,0.588129
0.481019,0.203555,0.692142,-0.298004,-0.767898,0.567033
0.475642,0.045683,0.641998,0.406852,-0.810868,0.420672
0.380154,0.255708,0.455623,0.373040,0.664364,0.647658
0.366555,0.391973,0.453564,0.130902,-0.196993,0.971627
0.429018,0.179319,0.822922,-0.462046,-0.817713,0.343307
0.420951,0.132874,0.792096,-0.509678,0.659410,0.552637
0.411533,0.127929,0.767933,0.781311,0.072896,0.619871
0.399280,0.208179,0.756638,0.650533,0.530398,0.543586
0.390615,0.175307,0.727812,0.451751,0.732862,0.508757
0.378512,0.255708,0.716517,-0.715737,-0.591443,-0.371370
0.313209,0.848156,0.695079,0.504760,0.863219,-0.008354
0.299459,0.203705,0.511399,-0.382909,-0.109624,0.917259
0.245962,0.747381,0.506312,0.733825,0.164822,0.659041
0.125073,0.053707,0.048234,-0.295291,0.465271,-0.834461
-0.007472,-0.010031,-0.291812,0.558650,0.817133,0.142140
0.319333,0.190123,0.850991,0.111096,0.875493,0.470286
0.312014,0.093672,0.811173,-0.376382,0.488621,-0.787138
0.315899,-0.406950,0.705162,0.774414,0.121539,0.620895
0.290644,0.145213,0.770809,0.506648,0.839489,-0.196381
0.281829,0.112962,0.742134,0.940153,-0.033416,-0.339110
0.279585,-0.166048,0.672581,0.858463,-0.160456,0.487129
0.261057,0.151543,0.700378,-0.554416,0.128466,0.822265
0.248954,0.244904,0.692293,0.466170,0.102727,-0.878711
0.239537,0.216977,0.662921,0.877772,-0.479023,-0.007335
0.229677,0.205250,0.636123,0.787780,-0.609059,0.091924
0.195306,0.758336,0.680908,0.416346,-0.902306,-0.111800
0.187385,0.685338,0.644905,-0.347009,0.509987,0.787081
0.184097,0.401081,0.571596,0.693878,-0.710074,0.119702
0.135831,0.717598,0.526661,0.008993,-0.903916,0.427615
0.141362,0.034718,0.383405,0.619536,0.494412,0.609698
0.250445,-0.331635,0.816775,0.849904,0.517885,-0.097260
0.238192,-0.239507,0.808205,0.513785,0.849869,0.117250
0.225194,-0.117286,0.804663,0.873065,0.448539,-0.191233
0.209799,0.078705,0.812142,-0.527506,0.249341,-0.812137
0.198891,0.123917,0.796184,0.122131,-0.991884,-0.035356
0.191270,0.034417,0.757274,0.228011,-0.112091,0.967185
0.177375,0.176079,0.756063,-0.527432,0.776073,-0.345727
0.174986,-0.115892,0.683512,-0.315612,0.386048,-0.866808
0.149881,0.470989,0.756881,0.225717,-0.384274,0.895201
0.129857,0.490590,0.712611,-0.281506,-0.536911,0.795287
0.122086,0.405866,0.674852,-0.191697,0.174100,0.965889
0.119095,0.102319,0.599181,0.943841,0.011828,-0.330189
0.084427,0.674845,0.646116,-0.234742,-0.567359,0.789304
0.084276,0.274536,0.554094,-0.351595,-0.387131,0.852356
-0.093097,0.193985,0.107280,0.431018,-0.408167,0.804751
0.135384,-0.170833,0.899742,-0.121485,0.066223,0.990382
0.119546,0.055554,0.913005,-0.730854,0.206328,-0.650600
0.108186,0.102780,0.896684,0.593827,-0.802302,-0.060667
0.101611,-0.029472,0.851657,0.836123,0.501027,0.223319
0.092946,-0.079478,0.819561,-0.340912,-0.357603,-0.869425
0.076807,0.162346,0.835427,-0.930291,0.249207,0.269173
0.067841,0.129935,0.806752,0.403097,0.060684,0.913143
0.057978,0.118670,0.780620,0.938190,-0.259474,-0.229068
0.048264,0.109110,0.755669,0.817059,-0.555768,0.153414
0.037059,0.143828,0.736956,0.726696,-0.148308,-0.670759
0.024208,0.248766,0.729840,-0.714972,0.666695,0.210555
0.011804,0.338887,0.720272,-0.765663,0.109147,0.633914
-0.014048,0.133175,0.613867,-0.227681,0.582323,0.780424
-0.025855,0.209875,0.602785,-0.341128,0.432740,0.834486
-0.067244,0.652475,0.603330,-0.525358,0.646241,-0.553508
-0.127021,0.016511,0.318515,0.214838,0.970213,0.111940
0.026151,0.103242,0.965783,0.961629,-0.239291,0.134196
0.017186,0.082868,0.939833,-0.808219,0.406142,-0.426416
0.009711,-0.002929,0.903406,-0.276717,0.198548,0.940216
-0.002242,0.067751,0.890779,-0.689025,0.622547,0.371052
-0.014349,0.164042,0.883240,0.725174,0.593004,-0.349956
-0.023013,0.104014,0.849599,0.832052,0.396131,0.388292
-0.033028,0.097374,0.824436,-0.310522,-0.917757,-0.247586
-0.054991,0.172839,0.789341,0.840614,-0.429689,-0.329749
-0.063660,0.127006,0.758516,0.762625,-0.416036,-0.495294
-0.078006,0.298612,0.762331,0.852946,-0.045871,-0.519980
-0.085923,0.215121,0.725117,-0.322727,0.851165,0.413964
-0.094291,0.132253,0.686873,0.112613,-0.515720,0.849324
-0.107594,0.258647,0.683330,0.754183,-0.527532,-0.391049
-0.138823,0.267595,0.612686,-0.668824,0.524138,-0.527213
-0.059774,0.045984,0.999758,-0.700013,0.714093,0.007314
-0.064107,-0.148303,0.946677,0.837767,0.121260,0.532393
-0.076064,-0.085336,0.932778,0.998729,-0.048312,0.014367
-0.086520,-0.067130,0.911915,-0.570810,0.035268,-0.820325
-0.102810,0.166359,0.925178,0.593220,0.708459,-0.382330
-0.111178,0.112040,0.893596,0.831871,0.378148,0.406195
-0.119998,0.079167,0.865405,0.837479,0.148430,-0.525926
-0.130304,0.079628,0.841453,0.377669,0.308766,-0.872943
-0.146147,0.319597,0.857108,-0.754174,-0.614451,0.231671
-0.193816,0.196453,0.717849,-0.183043,0.982873,0.021363
-0.215783,0.263121,0.680787,0.406959,0.907533,0.103765
-0.228483,-0.002779,0.929780,0.098156,0.382610,0.918681
-0.272417,0.127006,0.855897,0.329509,-0.289474,0.898682
-0.284520,0.216515,0.847237,0.799125,-0.493440,0.343389
-0.303049,0.135031,0.786828,0.152135,0.961062,-0.230685
-0.312465,0.113424,0.760090,0.627789,0.696696,-0.347125
-0.319489,-0.044910,0.709704,-0.101631,0.345539,0.932885
-0.565006,-0.116202,0.655654,0.538560,-0.074965,0.839246
-0.579202,0.066517,0.662134,-0.658577,-0.389299,-0.643990
-0.609533,-0.054320,0.568629,0.420329,0.471704,0.775125
-0.609683,-0.126234,0.753217,0.732763,-0.016701,0.680279
-0.674089,0.420061,0.723209,-0.232979,-0.955334,0.181819
-0.835026,-0.047528,0.525359,-0.710495,0.696381,-0.101241
-0.896745,0.323770,0.464768,-0.149186,0.968090,0.201359
-0.911986,-0.255095,0.525782,-0.322989,-0.805376,-0.497039
-0.754337,-0.213577,0.488144,0.969535,0.163444,0.182453
-0.228483,0.165587,0.790158,-0.592254,-0.685927,-0.422776
-0.035117,0.064040,0.782074,0.937044,-0.146688,0.316908
-0.033174,0.139195,0.818107,-0.381020,0.679898,-0.626548
-0.043339,0.055252,0.835669,0.884675,-0.007346,-0.466151
-0.040051,0.147991,0.873247,0.318418,0.747339,-0.583176
-0.046477,0.166670,0.930507,-0.248023,0.934123,-0.256707
-0.063961,-0.023152,0.937047,0.926891,0.240533,-0.288125
-0.077108,-0.148152,0.950250,0.837767,0.121260,0.532393
0.214733,0.697686,0.655412,0.914504,-0.120282,-0.386283
0.165418,0.063428,0.612626,0.949271,0.286784,0.128992
0.028094,0.344444,0.509068,-0.677660,0.724360,-0.126808
0.038550,0.650770,0.627372,0.207352,0.931085,-0.300142
0.000896,0.191206,0.602845,0.214586,0.395622,0.892993
-0.004485,0.167282,0.628493,-0.145532,0.564036,0.812825
0.014791,0.534106,0.724178,0.274551,-0.919714,0.280621
0.025554,0.730248,0.773626,0.099790,-0.898173,0.428167
-0.023611,0.165275,0.766328,0.888630,-0.415788,-0.193537
0.168410,0.166509,0.651233,0.903459,0.227602,-0.363262
0.147337,0.096451,0.753550,0.785267,0.287284,-0.548474
0.137774,0.089509,0.808478,0.258289,-0.869475,0.421071
0.125670,-0.025771,0.822800,0.884430,-0.270954,0.379956
0.120290,-0.047528,0.847176,0.295272,0.557070,0.776200
-0.222358,0.159257,0.734685,-0.497082,0.718583,0.486363
0.307230,0.148152,0.764269,-0.776222,0.622503,0.099846
0.298264,0.086269,0.784224,0.497435,0.209506,-0.841823
0.299610,0.165897,0.820741,-0.313103,0.872180,-0.375858
0.264345,-0.271607,0.801423,0.302881,0.932818,0.195228
0.120144,0.005708,0.880605,-0.473010,0.821343,0.318838
0.118497,0.041048,0.910885,0.879068,0.061149,-0.472758
0.375521,-0.749228,0.655048,0.938912,0.311714,0.145872
0.384039,-0.557870,0.703103,0.820908,0.342958,0.456608
0.423340,0.063578,0.797517,-0.420340,0.895175,-0.148246
0.426031,0.164664,0.836184,0.379974,0.900710,0.210572
0.452626,0.219755,0.705011,0.493649,0.850678,-0.180714
0.800359,-0.149848,0.567024,-0.380228,-0.721126,-0.579141
-0.153712,-0.211043,-0.699001,0.972459,0.230817,-0.032355
0.163376,0.668202,0.692838,0.933220,-0.166472,0.318416
-0.281664,0.012729,0.415392,-0.691377,0.299164,0.657646
-0.467251,0.210699,0.773865,-0.518426,0.556292,0.649442
-0.207262,0.263434,0.541028,0.957448,0.043689,-0.285279
-0.249720,0.072655,0.117955,0.103913,0.638845,0.762285
0.232166,-0.192280,0.784585,-0.225106,0.528123,0.818788
-0.326860,-0.620918,0.428376,-0.730320,0.023781,-0.682692
-0.550371,-0.268326,-0.100275,-0.506829,0.790187,-0.344570
-0.151891,0.166417,-0.570496,0.964573,-0.259170,0.049289
-0.012238,0.036529,-0.127262,0.978171,-0.077707,0.192725
-0.172611,0.078564,0.902028,-0.509545,-0.080513,-0.856669
-0.388017,-0.472566,0.667180,-0.008556,-0.012530,0.999885
-0.169159,0.369509,0.691436,-0.774520,-0.142076,-0.616387
-0.084576,0.510405,0.738284,-0.408475,0.912569,0.019122
0.191912,0.170462,0.850397,-0.288857,-0.917033,-0.274977
-0.121835,-0.063275,-0.121642,0.336335,-0.696597,0.633744
-0.129543,0.232752,0.715950,-0.707393,0.659798,-0.253500
0.038451,-0.347637,0.353859,0.959119,-0.179234,-0.219012
-0.512016,-0.199824,0.048840,-0.814349,0.233050,-0.531530
-0.067540,0.497565,0.698814,0.469612,-0.794060,0.385918
0.265266,0.852145,0.493238,0.496910,-0.536651,0.681972
0.145868,-0.072014,0.855879,0.623958,0.546594,0.558491
0.518719,-0.077610,-0.972181,0.022034,-0.276468,0.960770
-0.097805,0.052324,0.929577,-0.211176,-0.800574,-0.560790
0.193673,-0.353460,0.711503,0.912021,0.272651,-0.306397
0.618588,0.049920,0.628356,0.134726,0.038056,-0.990152
-0.076031,-0.196714,-0.661517,0.679056,0.677366,-0.282946
-0.217446,0.172692,0.669498,0.903370,-0.249121,0.349085
0.106187,-0.127740,0.777937,0.516383,0.806549,-0.287799
-0.097871,-0.166359,0.513462,-0.664099,0.037491,-0.746704
-0.060861,0.019286,0.721656,0.841887,0.512843,-0.167981
-0.276602,-0.131990,0.676714,0.658560,-0.104189,0.745280
0.224958,-0.180711,0.779731,0.526683,-0.461415,-0.713933
0.174067,-0.159129,0.847239,-0.688772,-0.695556,0.204439
-0.595274,-0.054029,0.459623,0.406010,-0.003451,0.913862
0.152407,0.598039,0.774338,0.832292,0.195359,-0.518773
-0.424224,-0.016621,0.712009,0.837552,0.159446,0.522574
-0.480857,0.447414,0.548973,0.339596,0.806355,0.484218
0.482220,-0.237793,-0.960623,0.230007,-0.141256,-0.962883
0.007004,0.419313,0.042779,-0.612632,0.638230,-0.466202
-0.566855,0.492805,-0.212507,0.017989,0.659273,0.751689
0.234187,-0.063197,0.799044,0.978909,0.195594,0.058988
0.035484,0.774181,0.086045,0.898711,0.354450,-0.258231
-0.437933,0.033710,0.499449,-0.411972,0.909290,0.058919
0.709609,-0.366332,0.547041,0.192746,0.049078,0.980021
-0.354382,0.400179,0.841529,0.459389,0.885417,0.070697
-0.447268,-0.455611,0.595772,0.968219,-0.033501,0.247852
-0.086698,0.587443,0.609795,-0.302044,-0.039961,0.952456
-0.315955,0.151588,0.778384,0.990841,-0.035146,0.130379
-0.284397,0.153979,0.477006,0.451731,0.874510,-0.176553
-0.074465,0.189909,0.936556,0.808523,0.249182,-0.533103
-0.302254,-0.095543,0.755974,-0.140361,-0.700796,0.699417
0.001542,0.155569,0.887850,-0.614412,-0.676913,0.405324
0.040978,-0.184688,0.114900,-0.830730,0.521387,-0.195047
0.351459,0.293468,0.450260,0.449799,0.514906,0.729762
-0.466602,-0.571248,0.588272,-0.450807,0.725242,0.520382
-0.265489,-0.167989,0.467730,0.318497,-0.919190,0.231623
0.094646,0.549289,0.726629,-0.053024,-0.976242,0.210096
-0.216230,0.368653,0.619641,-0.593758,0.436601,-0.675892
-0.288307,-0.016419,0.418673,0.565856,-0.438123,-0.698466
-0.095339,-0.096355,0.271799,0.369100,0.923769,-0.102060
0.065619,-0.634176,-0.407666,-0.236470,-0.948631,0.210192
-0.416151,0.455373,0.556108,0.645669,0.755485,-0.111143
-0.302299,0.301483,0.693347,0.035622,0.843823,0.535438
-0.555102,0.665863,0.512559,0.924287,-0.159588,-0.346736
-0.190440,0.025425,-0.158909,0.983114,0.141603,0.115911
0.285853,-0.218470,0.493670,-0.226011,-0.959933,-0.165674
0.269468,-0.464700,0.641580,0.427039,-0.841434,-0.331098
-0.175049,0.103825,-0.968080,0.398879,0.333689,-0.854135
-0.037897,-0.254347,0.597524,-0.014797,-0.989786,0.141790
0.105588,-0.280552,0.798910,-0.295027,0.863713,-0.408605
-0.061360,-0.220479,0.876077,0.766438,-0.276342,-0.579834
-0.043364,0.124414,0.789719,0.713616,-0.647237,0.268023
0.413392,0.422561,0.555818,0.532383,0.811432,-0.241137
0.298846,-0.200821,-0.983767,-0.195306,0.272959,0.941992
-0.067860,0.208152,0.600661,-0.145717,0.704569,0.694514
0.270362,0.779218,0.666287,0.403236,0.392820,-0.826495
0.884291,-0.088424,0.673266,-0.308140,-0.363911,0.878988
0.155424,0.474683,0.461409,-0.429927,0.876924,0.214865
-0.071346,0.692380,0.594883,-0.157816,0.942073,0.295961
-0.125718,-0.199986,0.552144,0.572720,0.753736,-0.322295
0.256415,0.175498,-0.973260,0.185583,0.801471,-0.568510
-0.225407,0.208726,0.107812,0.125014,-0.472455,0.872444
-0.128119,0.360929,0.865139,-0.664005,-0.633890,0.396586
0.543023,0.068667,-0.391194,-0.102224,-0.167564,0.980547
-0.046891,0.094547,0.820598,0.752845,-0.609809,0.247706
0.726657,0.066705,0.643373,0.857761,0.506710,0.086557
-0.063923,-0.172389,0.736884,0.852083,-0.245556,0.462230
0.006380,0.664642,0.742824,-0.415982,0.906035,-0.077845
0.189548,0.136675,0.690268,0.548770,-0.149298,-0.822534
-0.472282,-0.182793,0.712584,0.878039,-0.176142,0.444996
-0.093893,0.293810,0.072518,-0.744940,0.415488,-0.521952
-0.084103,0.089354,-0.400808,0.922160,0.311674,-0.229085
0.141403,-0.403734,0.745329,0.762896,-0.250912,0.595846
0.660870,0.344389,0.774348,0.932521,-0.357629,0.050054
0.250331,-0.238386,0.129037,0.204977,0.869765,0.448880
0.232566,-0.042630,0.680189,0.990589,0.136727,-0.006219
-0.183807,0.047039,-0.278884,0.744319,-0.639197,0.193435
0.225387,-0.272800,0.809482,0.719557,0.677143,-0.153996
0.534211,0.314149,0.745113,0.794565,0.253749,-0.551614
0.187893,0.701871,0.778199,0.823901,0.310057,-0.474395
0.078829,0.020190,0.822683,-0.676580,-0.546015,-0.494071
