-0.335013,-0.004418,-0.885987,0.544625,-0.835118,-0.077211
-0.129832,0.732569,0.671935,0.971728,-0.050214,-0.230701
-0.724283,0.258732,0.618688,-0.101299,-0.988531,0.112003
-0.494235,0.708684,0.414266,0.446368,-0.373901,-0.812991
-0.192824,0.201021,-0.084333,0.737553,-0.599834,-0.310185
0.087360,-0.616872,0.547782,0.759679,-0.072946,0.646194
0.382497,0.173272,0.264934,-0.350124,-0.921656,0.167224
0.113345,0.197155,0.750021,-0.079863,0.646431,0.758781
0.992736,-0.145659,0.642388,0.126730,0.838740,0.529580
-0.626791,-0.263152,0.500746,-0.437181,0.820809,-0.367621
-0.102450,0.612039,0.651534,0.640844,0.694008,-0.328133
0.025349,0.256385,0.947773,0.851244,0.293024,-0.435341
-0.133319,0.293111,-0.868230,0.921931,-0.308099,0.234775
-0.704445,0.324313,0.529031,-0.159735,0.963491,-0.214872
0.128707,-0.677896,0.591228,0.154051,-0.949730,0.272546
0.332916,-0.237886,0.037369,0.807915,-0.131702,-0.574394
0.092117,-0.036174,0.677781,0.564708,-0.628482,0.534897
0.392693,-0.691841,-0.305954,0.945714,0.324593,0.016246
-0.016270,0.397902,0.696993,0.952658,-0.233427,-0.194820
0.592563,0.450228,0.134086,0.095325,0.586734,-0.804150
-0.711155,-0.319205,0.312237,-0.433139,0.864462,-0.255138
-0.082339,0.986332,0.684015,0.958698,-0.282965,0.028793
-0.074794,0.010078,0.827404,0.993199,-0.111147,-0.034679
0.603739,0.450089,0.493420,-0.381676,-0.177740,0.907046
0.043925,0.186664,0.180249,-0.135201,0.826165,0.546966
0.265312,0.233053,0.731003,0.947551,-0.210567,0.240435
0.118093,-0.041005,0.639211,-0.419087,0.859635,-0.292221
0.121443,-0.260529,0.492013,0.451860,0.860214,0.236336
0.858365,0.057159,0.348042,0.504385,-0.286909,0.814419
-0.412386,-0.549220,0.269737,0.346432,0.923728,-0.163434
-0.010967,-0.086842,0.271556,0.937209,0.085122,-0.338221
0.259447,-0.133095,0.666938,-0.132191,-0.969490,0.206432
0.738665,-0.449124,0.232792,-0.396503,-0.684324,0.611953
0.055937,-0.354275,0.519085,-0.337529,-0.131302,0.932113
-0.550108,0.317134,-0.665506,0.373185,-0.664327,0.647613
-0.116141,0.388375,0.733162,-0.202872,-0.035783,0.978551
-0.317971,-0.063787,0.771562,0.234629,-0.902978,-0.359972
-0.299531,0.388375,0.620192,-0.693991,0.263995,-0.669838
0.191843,-0.201436,0.732725,-0.168242,-0.983710,-0.063315
-0.093797,0.340743,0.819714,0.708498,0.287461,-0.644514
0.214051,-0.130333,-0.708928,0.259526,0.074898,0.962827
0.096022,0.180449,0.913108,0.417392,-0.034973,0.908053
0.584183,0.637581,0.407353,0.140860,-0.573137,0.807262
0.061248,0.196327,-0.708613,-0.356634,0.933964,0.022880
0.066832,0.506420,-0.772654,0.957593,0.282475,-0.056777
0.092254,0.298219,-0.857242,0.976589,0.214195,-0.019845
0.669663,0.339085,0.490946,0.621999,0.095736,0.777143
0.896361,0.072070,0.346586,0.785807,0.226646,0.575446
0.233607,0.792351,-0.287664,0.348338,-0.937147,-0.020405
-0.224946,0.009527,0.410773,0.040932,0.452229,0.890962
0.535718,-0.333564,-0.611848,0.652710,0.567706,-0.501676
0.033175,0.171338,0.974529,0.952708,-0.204141,-0.225108
0.228714,0.343090,0.497689,-0.815309,0.419982,-0.398605
0.340034,0.808505,0.599403,0.987570,0.128279,0.090832
0.376070,0.672788,-0.121981,0.568874,0.692945,0.442956
-0.112509,0.120115,-0.927493,0.818003,0.522467,-0.240622
-0.824989,0.244926,0.395587,0.337954,0.708597,0.619417
0.584609,-0.680383,0.406601,-0.617402,0.627254,0.474728
0.031632,-0.206130,0.296033,0.584488,0.057323,-0.809375
0.346879,-0.271296,0.628537,-0.261239,0.904829,0.336214
0.021718,0.266050,0.915024,-0.506351,-0.051852,-0.860767
0.164606,-0.076073,0.564181,0.159459,-0.899809,0.406100
0.193242,0.791247,0.399056,0.003256,0.103273,0.994648
0.469094,-0.230567,0.071137,0.742694,-0.069544,-0.666010
-0.006918,0.205854,0.829685,0.972462,0.147810,0.180192
-0.420349,0.322655,-0.251422,0.061235,-0.175492,0.982575
0.029117,0.429932,-0.074460,0.655887,0.739449,0.151750
0.078980,0.397763,-0.954298,0.974615,0.158599,0.158024
-0.038478,0.399282,0.822456,0.959402,0.277114,-0.052500
0.007472,0.102582,0.026939,0.916936,-0.302800,0.259885
0.186677,0.782964,-0.133334,0.238665,0.784690,0.572101
-0.241851,0.599614,0.646561,-0.516284,0.710166,0.478660
-0.135552,0.320862,-0.177411,-0.399658,-0.912219,0.090170
0.377331,0.764048,0.391512,0.767504,0.536569,0.350760
0.227316,0.524093,0.124941,-0.426476,0.839135,-0.337596
-0.046585,0.433659,0.597341,0.667009,0.617482,-0.416911
-0.271459,0.089465,-0.531626,0.550739,-0.471899,-0.688475
0.268100,-0.272539,-0.648453,-0.104495,0.981092,0.162908
-0.179132,-0.241476,0.603891,-0.161544,0.921522,-0.353130
0.268381,-0.214415,0.698303,0.289385,0.903535,-0.316040
0.260563,0.327488,0.663226,-0.675685,0.625431,-0.390238
0.009569,0.175618,-0.505500,-0.695713,0.715422,0.064460
-0.008453,-0.122049,0.731464,0.721903,-0.274777,-0.635101
0.058733,0.390307,-0.932150,-0.807807,0.323783,-0.492558
0.257631,0.121634,0.816731,0.869409,-0.318444,0.377785
0.107198,0.079801,0.613861,-0.691826,0.714215,0.106178
-0.320205,-0.314235,0.436802,-0.493225,-0.579586,0.648698
0.713942,0.055501,0.306682,-0.151705,0.862055,-0.483576
0.716457,0.456441,0.506810,-0.379129,0.856041,0.351361
-0.450663,-0.202403,0.461254,0.949975,-0.124162,-0.286586
0.319642,-0.210550,0.585455,-0.184324,0.853115,0.488078
0.319642,0.188459,-0.303237,0.404489,0.914535,-0.003661
0.073959,-0.150629,0.637003,-0.176450,0.716562,0.674837
0.328022,0.159601,0.819448,0.459069,0.437448,-0.773236
-0.179968,-0.008560,0.646342,0.315548,-0.600330,0.734869
0.219353,-0.643517,0.340983,0.641471,0.754013,0.141348
0.099654,0.007731,0.741458,-0.528901,0.024317,0.848335
0.400238,0.352754,0.760986,-0.189634,-0.417379,0.888726
-0.451780,-0.018638,0.697624,-0.524590,0.158151,-0.836537
0.074377,0.006765,0.793880,0.705257,0.605099,0.369415
0.072697,0.342675,-0.643116,-0.112848,0.559370,0.821201
0.494371,-0.121634,0.756983,-0.645435,-0.736569,0.202189
-0.436691,-0.209306,-0.149514,-0.777152,0.620190,-0.106765
0.287102,-0.071931,0.749002,0.381445,0.192964,-0.904027
-0.531813,-0.335634,0.443400,-0.257674,-0.012528,0.966151
0.049092,-0.928621,0.599428,-0.022531,0.867258,0.497349
0.791742,-0.025542,0.608524,0.219169,0.735567,0.641020
0.360571,-0.093194,0.535532,0.629244,0.071642,0.773899
0.258603,-0.581113,0.492644,-0.412283,-0.824236,-0.388146
0.046722,0.730084,0.777384,0.868501,-0.452866,0.201542
-0.479154,0.249757,0.403520,-0.141225,-0.977841,-0.154537
0.003423,-0.319480,0.500746,0.169818,0.878891,-0.445772
-0.246037,-0.160707,0.477628,0.814737,0.493320,-0.304696
0.361270,-0.738921,0.280071,0.584101,0.699495,0.411742
-0.079824,-0.006489,0.803971,0.818457,-0.537973,0.201778
0.001743,0.486815,0.747547,0.836798,-0.268720,0.477031
-0.867026,0.315614,0.548607,-0.622838,-0.550810,-0.555591
-0.643969,0.478668,-0.471976,0.026500,-0.796872,0.603566
-0.231928,-0.181831,0.111866,-0.517756,0.573267,0.635054
0.329139,0.054397,0.265856,-0.125739,-0.983214,0.132216
-0.026466,-0.550602,0.727510,0.947924,-0.006445,0.318430
0.373282,-0.738094,-0.322644,0.886449,0.462811,0.003707
0.412522,0.389065,0.392434,-0.418563,0.451586,-0.787956
0.388780,0.413502,0.673439,0.822382,0.418875,0.385007
-0.166285,0.585670,0.822456,-0.433382,-0.898062,0.075262
-0.203156,-0.112938,0.740415,0.890888,0.073356,0.448260
0.348832,0.399834,0.462273,-0.269575,0.960695,0.066287
0.176055,-0.026372,0.576431,-0.320401,-0.223827,0.920459
0.606118,0.208892,0.414339,-0.322155,0.721583,0.612808
-0.196037,0.466658,0.682293,0.505177,0.737053,0.448943
-0.183463,0.640204,-0.993742,0.051287,0.259060,0.964499
-0.098264,0.283032,0.722343,0.920300,-0.375401,-0.110101
0.355678,0.363662,-0.982728,0.261047,0.082770,0.961771
-0.040993,0.122186,0.613982,-0.281340,0.824265,0.491360
0.107761,0.222696,0.910876,0.018271,-0.114061,0.993306
-0.550671,-0.530030,0.453758,0.537222,-0.789587,-0.296554
0.043789,-0.273091,-0.328660,0.920914,0.024458,0.388998
0.005375,0.142343,0.818623,-0.056820,-0.124775,0.990557
-0.768698,0.089189,0.400463,-0.557210,0.819087,0.136428
-0.317136,-0.022506,0.573908,0.436237,-0.742134,0.508857
-0.380963,-0.057850,0.499339,0.165642,-0.229046,-0.959219
-0.515889,-0.200469,0.640278,-0.661386,0.749911,0.014223
0.169772,0.155874,0.575145,0.539211,0.828879,0.149035
-0.705989,-0.067237,-0.669436,0.148475,-0.207615,-0.966877
-0.339898,-0.013807,0.472049,-0.791941,0.579241,0.193155
-0.393537,0.207649,0.659224,0.658550,0.314999,0.683438
0.145885,0.187353,0.789732,-0.587091,0.734331,-0.340708
0.271595,-0.939253,0.532209,-0.339427,-0.925530,-0.167878
-0.601787,-0.082563,0.727291,0.547000,-0.770373,0.327592
-0.589357,0.679692,0.409633,-0.674681,0.562028,0.478466
0.609468,0.130746,-0.093187,0.165090,-0.505257,0.847031
0.121588,-0.110037,0.752568,0.767640,-0.560343,0.311039
0.276343,-0.772610,0.360607,-0.375543,0.882994,-0.281582
-0.739509,-0.335222,0.275146,0.954683,0.294793,-0.040949
0.404006,0.334668,0.679018,-0.432042,-0.609029,-0.665149
0.401627,0.049703,0.633607,-0.288923,0.595327,0.749740
0.102032,0.112936,0.560469,0.103403,0.938985,0.328046
-0.062928,0.283585,-0.150315,0.418809,0.831231,-0.365587
0.590329,-0.457545,0.541427,0.853669,0.326344,0.405893
0.318244,-0.903770,0.518648,0.426634,0.664267,0.613785
0.086244,-0.258043,0.476876,0.090686,0.760780,0.642643
0.168519,-0.446362,0.633025,0.994589,-0.088858,0.053824
0.186251,-0.099546,0.544241,0.976396,0.045787,-0.211080
-0.017813,-0.320586,0.483086,0.455606,-0.410115,0.790082
0.227034,-0.933038,0.594552,0.998055,0.035497,-0.051241
0.453869,-0.474251,0.414412,0.888165,-0.122531,-0.442886
0.036799,0.282894,0.668490,0.527098,-0.116199,0.841822
0.297716,0.853513,-0.491868,-0.480532,0.876968,-0.004156
0.460433,-0.846472,0.584096,0.262815,0.962790,-0.062952
0.130241,0.544111,0.728868,0.951106,0.222682,0.214032
-0.297579,-0.163054,0.519497,0.554209,-0.438900,0.707262
0.045741,0.463757,-0.334942,0.895686,0.019043,-0.444279
-0.097701,0.466380,0.835337,-0.568836,0.471945,-0.673567
0.674557,-0.415436,-0.615316,0.635723,0.524505,-0.566348
0.127871,0.214137,-0.115335,0.639068,0.589993,-0.493457
-0.134717,0.742509,0.714168,0.911495,-0.069056,0.405472
-0.144077,0.341571,0.689182,0.535103,0.779991,0.324467
0.225082,-0.851029,0.560469,0.991507,0.088698,0.095115
-0.171315,-0.527820,0.277111,0.922747,-0.249304,-0.293914
-0.130949,0.520364,0.836428,0.114382,-0.601124,0.790928
0.174103,0.288139,0.695489,-0.600924,-0.700999,0.384047
0.125911,-0.437803,-0.343384,-0.460558,0.494694,-0.736996
-0.575393,-0.086566,0.723022,0.547000,-0.770373,0.327592
-0.301910,0.365042,0.399905,0.294611,-0.200705,0.934303
0.460996,0.077177,0.632491,-0.472219,-0.879061,-0.065283
0.506110,0.333839,0.742695,-0.320697,-0.750506,0.577835
-0.012084,0.122325,0.958761,-0.723932,0.323786,-0.609167
0.535300,0.753418,0.611459,0.126990,0.762669,0.634200
0.100216,-0.212481,0.750700,-0.582198,-0.544979,-0.603360
0.033729,0.659533,0.648938,0.237625,0.962256,0.132656
-0.052587,0.395555,0.621308,-0.445088,0.892687,0.070754
0.285005,-0.148282,0.742501,-0.127181,-0.469705,0.873614
-0.259583,-0.049427,0.746552,-0.732372,-0.125192,-0.669297
0.437390,-0.314926,0.705314,0.778425,0.043894,0.626201
-0.141281,-0.367943,0.280362,0.916290,-0.382946,0.117326
0.084010,-0.658153,0.374823,0.952919,-0.268528,-0.140849
-0.608215,0.251967,0.520104,0.516999,0.232915,0.823688
0.387945,-0.130196,-0.301466,0.970163,-0.021730,0.241477
-0.447032,-0.277372,0.442672,0.027408,-0.052559,0.998242
0.298969,-0.353721,-0.960071,-0.090037,0.115751,0.989189
-0.188493,-0.119011,0.490461,0.587471,0.090609,-0.804156
-0.015997,-0.162087,0.653377,0.940176,-0.279959,-0.194145
0.062646,-0.253625,0.428918,0.896085,0.282322,-0.342529
0.111947,-0.004418,0.796597,0.050302,0.292476,0.954949
-0.478174,0.102168,0.218819,-0.586200,-0.628717,0.510964
0.359590,0.470800,0.491237,-0.449026,-0.686295,0.572167
0.644941,-0.514567,0.379747,0.218906,0.913667,0.342480
0.789363,0.231119,0.424066,0.435752,0.784336,0.441517
0.228296,0.589260,0.043774,-0.801114,0.548271,-0.240031
-0.663525,0.794837,0.415042,-0.490364,-0.868196,0.076018
-0.103711,0.321690,-0.666185,0.129739,0.518878,0.844946
0.331654,0.315063,0.423775,-0.265578,0.394694,-0.879594
0.155527,-0.420682,0.419991,-0.490839,-0.824248,-0.282299
0.201894,0.858345,0.295936,0.060568,-0.649960,0.757551
0.072561,0.635373,-0.337562,0.857675,-0.019668,-0.513815
0.132202,0.006765,0.492474,-0.098016,0.424747,-0.899991
-0.344510,-0.072070,0.598312,-0.358954,0.927453,-0.104796
0.799005,-0.240370,-0.107160,0.800387,0.489339,-0.346306
0.448566,0.297528,0.471588,-0.120471,-0.965806,0.229576
0.529154,-0.351925,0.542179,-0.303861,-0.339882,0.890027
-0.171733,0.455337,0.684185,-0.469264,-0.799635,-0.374666
-0.453178,0.168300,0.599719,0.135982,-0.806070,0.575986
-0.042953,0.905702,-0.994396,0.047486,0.097631,0.994089
0.229132,0.169127,-0.142965,0.239889,0.961761,-0.132168
0.394228,-0.212621,0.709874,-0.516761,0.091490,0.851227
0.077591,0.399973,-0.028903,0.159106,0.978224,0.133276
0.312098,-0.191358,-0.966742,0.072414,0.219905,0.972830
-0.327051,0.387133,-0.133237,0.816984,0.479717,-0.320012
-0.063763,-0.612730,-0.449877,-0.206064,0.922469,0.326478
-0.741043,0.078834,0.205356,-0.767916,0.299826,-0.566048
0.149662,0.498688,0.411865,0.957723,-0.024379,0.286657
-0.376351,0.486124,0.487841,0.448590,-0.339112,-0.826904
0.523706,-0.843021,0.591083,-0.390165,0.795327,0.463924
-0.225228,0.781306,0.631933,-0.882511,0.099585,0.459627
0.140437,-0.153943,0.763945,0.998529,-0.040016,-0.036598
0.448285,-0.329974,0.244290,0.113494,0.756438,0.644144
0.478873,-0.368355,0.716885,0.747357,-0.080452,-0.659534
-0.665196,-0.369047,-0.394253,-0.464734,0.879314,0.104063
-0.892448,0.393345,-0.559256,0.300197,0.953762,0.014795
-0.333052,0.312164,-0.663299,-0.457218,0.793853,0.400935
0.040575,0.206545,0.966864,0.801644,-0.566012,0.192347
0.847052,0.106447,0.340109,0.537176,0.801571,0.262536
-0.308057,-0.326660,0.435468,0.644225,0.138797,0.752137
0.214332,0.194808,0.737819,-0.458524,0.150524,-0.875842
0.525803,-0.712137,0.386418,0.399651,-0.775105,-0.489378
0.624830,-0.132403,0.516514,0.799075,-0.601161,-0.009236
0.179132,0.844264,0.532985,-0.519274,-0.832876,0.191500
0.025767,0.255005,0.951241,0.839002,-0.070677,-0.539518
0.157760,0.090569,0.643941,0.295894,-0.058126,0.953451
0.580832,0.945879,-0.015780,-0.817802,0.394913,0.418622
-0.285567,0.729671,0.360486,-0.474840,0.062107,-0.877878
0.785041,-0.199365,0.290550,0.224336,0.670022,0.707633
-0.148962,0.080215,0.737213,-0.556233,-0.015133,-0.830889
-0.105246,0.221041,0.865392,0.977047,-0.211774,-0.023035
-0.725818,-0.302500,-0.653911,0.178330,0.787670,0.589724
-0.673304,0.109346,0.181341,0.883043,0.300516,0.360451
0.598010,0.665193,0.689764,-0.634550,0.751631,0.179991
0.000209,0.538450,-0.740755,0.679960,-0.731206,0.054697
-0.126900,-0.444707,-0.138744,0.577800,0.621706,-0.528799
0.235696,-0.438216,0.648890,0.081012,0.811367,0.578896
-0.163770,-0.534308,0.167975,-0.721584,0.568322,0.395382
-0.289054,-0.211929,0.061870,-0.720688,-0.389761,-0.573320
-0.206932,0.617837,-0.219183,0.786233,0.050128,0.615893
-0.334169,0.541627,0.650394,0.981609,-0.185624,-0.044573
-0.357220,0.182935,0.678509,0.886490,0.393067,-0.244203
0.102168,-0.327351,0.411573,0.785160,0.577749,-0.223004
-0.326769,0.713378,-0.985615,0.123132,0.152275,0.980638
0.131784,-0.053017,0.787063,-0.717397,0.646799,-0.258827
0.852636,-0.104515,0.623079,0.137341,0.802559,0.580548
0.673721,0.087257,0.263309,0.200749,0.979634,-0.004044
0.195194,-0.346956,-0.364173,-0.058211,-0.191192,0.979825
-0.371048,0.060058,0.288901,0.674199,0.281548,-0.682779
0.155390,0.473147,0.502856,0.921809,0.367534,-0.123235
-0.188356,0.115698,0.814135,0.868764,0.319134,0.378686
-0.146729,0.032306,0.641442,0.418651,-0.324444,0.848214
0.123541,-0.001795,0.721081,0.106031,0.525813,0.843965
-0.260146,-0.090571,0.586449,0.581330,0.026352,0.813241
-0.089884,0.112660,0.778306,-0.191896,-0.940671,0.279846
0.253718,-0.549772,0.464723,0.780683,0.556978,-0.283390
-0.017250,0.032030,0.755989,-0.698667,0.714294,0.040601
-0.061248,0.255972,0.789440,-0.140614,-0.127037,0.981880
-0.009851,0.382991,0.736534,-0.407829,0.787713,-0.461719
-0.208748,0.074278,0.746091,0.852136,-0.496671,0.164873
0.337519,0.534447,-0.503608,0.270971,0.765919,-0.583046
0.276207,-0.307194,0.612090,-0.492749,0.524992,0.693961
0.370767,-0.728291,0.592635,0.366490,0.930044,0.026515
-0.078153,-0.035483,0.836113,0.834397,-0.169330,0.524508
0.207623,0.106034,0.715575,-0.542642,-0.833370,0.105047
-0.562401,-0.366424,0.530826,0.061363,-0.819841,0.569294
0.373137,0.386717,0.710238,-0.396358,0.657938,0.640327
0.268526,0.593953,0.484396,-0.328425,-0.919152,0.217478
-0.326769,0.277372,0.759530,0.879569,0.404907,0.249816
-0.147010,-0.250863,0.350104,-0.222642,-0.903866,-0.365318
-0.103294,0.168300,0.698376,0.814666,0.212240,-0.539697
0.391295,0.592019,0.513239,0.849657,0.512159,0.125601
0.064036,0.006213,0.199025,0.138046,0.812862,0.565861
0.107897,0.148419,0.521681,0.942093,-0.304134,-0.141288
-0.452897,-0.284552,0.256686,0.870330,-0.445159,-0.210613
-0.671343,0.163330,0.402938,-0.067191,-0.945086,0.319841
0.052169,0.373741,0.951460,0.950587,0.028796,-0.309119
-0.159721,-0.418059,-0.571822,0.959231,-0.172918,0.223553
0.642434,0.933177,0.335064,0.910994,-0.394602,-0.119912
0.437671,-0.336050,0.359758,0.009918,0.610037,0.792311
-0.054965,0.970868,0.703713,0.978968,0.203365,-0.016253
0.280811,0.099820,0.026259,0.794346,0.445259,-0.413229
0.198689,0.437112,0.826240,0.974979,-0.196060,0.104768
0.071163,0.014083,0.548049,0.497008,-0.222997,0.838603
-0.674838,0.176170,0.405460,0.156807,0.538879,-0.827660
0.132202,0.099544,0.709826,-0.272261,0.616111,0.739109
0.255534,0.170922,0.661310,0.964167,0.259265,0.056246
0.189183,-0.838879,0.364537,0.908965,-0.415055,0.038884
0.225918,-0.726218,0.358109,-0.216479,0.412294,0.884958
0.717711,0.662434,0.442648,0.697292,0.085530,-0.711666
0.246736,0.170922,0.840989,-0.550733,0.565135,0.614261
0.473144,-0.441253,0.420937,0.852095,-0.501679,0.149173
-0.417280,-0.248241,-0.539971,0.585731,-0.707113,0.396119
0.099935,0.217590,0.889941,0.922727,0.132976,0.361790
0.449683,-0.744582,0.612745,-0.443369,-0.227227,0.867059
-0.102731,0.369047,0.731682,0.116768,0.394348,0.911512
0.380682,-0.789313,0.438015,0.801347,-0.178846,0.570839
0.518403,-0.082839,0.530147,0.026953,0.855436,-0.517207
0.550525,-0.460306,0.542227,0.813238,0.211631,-0.542085
-0.272575,0.407704,0.754727,-0.509709,-0.375344,-0.774153
0.158596,0.377054,0.863500,0.193167,0.899107,0.392802
0.189047,-0.333979,0.642025,0.774710,0.312558,-0.549665
-0.524268,0.160292,0.395685,-0.375582,0.901203,-0.216267
0.109150,0.309954,0.256419,-0.445599,-0.812391,0.376116
-0.703473,0.263012,0.346732,0.017266,0.892903,0.449917
0.108596,-0.039625,0.804796,0.697281,0.460473,-0.549330
-0.903761,0.344057,0.528109,-0.353974,-0.935242,0.005053
0.164461,-0.302914,0.514039,0.835025,-0.510323,0.205677
0.508199,-0.454646,0.522966,0.917211,0.230956,0.324628
-0.298832,0.048736,0.837859,0.887063,-0.416166,-0.199811
0.112646,0.247549,-0.022451,0.912351,-0.409340,0.007544
-0.043925,0.269777,0.730227,-0.032016,-0.392829,0.919054
-0.167121,0.287726,0.476294,0.904616,-0.351967,-0.240395
0.321040,0.448709,0.651558,-0.105415,0.561413,0.820794
0.249387,-0.806434,0.517023,0.823247,-0.128081,0.553045
0.181647,-0.037139,0.812995,-0.488498,0.079827,0.868906
0.547030,-0.424272,0.515568,-0.172095,0.980811,0.091619
0.232763,0.186801,0.049401,0.370151,0.927480,-0.052616
0.013619,-0.034516,0.659975,0.035599,0.707142,0.706175
-0.022979,-0.464035,0.527211,0.989676,0.139722,0.031919
0.643824,-0.063096,0.643747,0.736962,0.660262,0.144709
0.745647,-0.393621,0.351947,0.870055,0.146655,0.470634
0.252601,0.156702,-0.090203,0.363388,0.916898,0.165067
0.046440,-0.017810,0.823596,-0.288475,0.374660,-0.881143
-0.067812,0.139859,0.500770,0.702523,0.705597,0.092708
0.423980,0.080629,0.651412,0.012976,0.842170,0.539056
-0.033175,0.102582,0.571288,-0.079838,-0.505471,0.859142
0.055656,0.699572,0.609106,-0.365710,-0.532301,-0.763486
-0.450800,0.664504,0.369753,-0.086747,-0.841425,0.533365
0.498702,-0.757283,0.326937,0.154700,0.795707,-0.585592
0.101469,-0.755489,0.555521,-0.615365,-0.774249,0.147870
0.366990,-0.195638,0.567722,0.476686,0.015158,-0.878943
-0.245900,0.195223,0.567116,0.654266,0.275178,0.704424
-0.147564,0.408532,-0.234708,0.927886,0.297035,0.225384
0.384867,-0.785035,-0.312771,0.934698,0.354328,0.028149
-0.540892,0.186110,0.599355,-0.195585,-0.906096,0.375147
-0.070464,0.023471,-0.786796,-0.655775,0.713130,0.247800
0.399121,-0.808091,0.579876,0.356882,0.925295,-0.128314
0.243940,0.037002,0.695999,0.661139,0.212827,-0.719444
0.433196,0.006489,0.581840,-0.431942,0.897225,0.091724
0.394790,0.780063,0.608500,0.671544,0.718440,0.181309
0.148263,0.354963,0.606074,-0.368762,-0.662892,0.651605
-0.214051,0.211099,0.817313,-0.686733,-0.105352,0.719235
0.150633,0.100374,0.755285,-0.070595,-0.487504,0.870262
0.558343,-0.402044,0.088287,-0.669166,0.211294,0.712440
-0.069492,-0.820794,0.564205,0.823345,-0.130178,0.552410
0.225364,0.283585,0.537036,0.711590,0.698962,0.071365
0.380682,0.151457,0.491625,0.791624,-0.321756,0.519427
0.651931,-0.413917,0.520007,0.577179,0.765978,0.283093
0.137650,-0.697362,0.366041,0.924580,-0.310752,-0.220418
0.389616,0.752726,0.597584,-0.493452,0.618736,-0.611286
0.099517,-0.736023,0.607311,-0.330793,0.943269,0.028641
0.039313,0.128951,0.563671,-0.434564,-0.590574,-0.679983
-0.207350,0.407429,0.836477,-0.333251,-0.194483,0.922562
0.436827,-0.469142,0.409415,0.974825,-0.019158,-0.222147
-0.569383,-0.252658,0.510085,-0.480615,0.841252,0.247598
0.251757,-0.507939,0.222604,0.826549,-0.517424,-0.221561
-0.208322,-0.032169,0.302340,-0.237803,0.329214,-0.913821
0.736712,0.723180,0.448688,0.649962,0.194276,-0.734715
0.218382,-0.723458,0.450944,-0.136506,0.968627,0.207672
0.568684,0.781445,-0.309666,0.628251,-0.775618,-0.060967
0.345763,0.337290,-0.193179,-0.063479,-0.891642,0.448269
0.691598,0.422477,0.520055,-0.440183,0.691119,0.573231
0.298832,0.394588,0.442818,0.891554,-0.402781,0.207122
0.338499,0.843297,0.602775,0.701961,-0.627484,-0.336918
-0.105527,0.080215,0.814232,-0.765085,0.105529,-0.635223
0.006909,0.175755,0.742234,0.354886,-0.934745,-0.017545
-0.568130,-0.550325,0.458197,-0.182931,0.921513,0.342564
-0.122987,0.226287,0.710869,0.551867,0.829122,0.089437
-0.204972,0.487782,0.744005,0.330029,0.465767,0.821061
-0.317827,0.642689,0.692724,0.846479,0.532161,0.016680
0.038895,0.363110,0.906607,-0.323847,0.929510,-0.176451
-0.596484,0.237332,0.606293,-0.451057,-0.678811,-0.579451
-0.209021,-0.115145,0.574029,0.715609,-0.697837,0.030455
0.238211,0.445810,0.660121,-0.091994,0.799273,0.593885
0.143234,0.233466,0.729135,-0.587935,-0.572293,0.571676
0.026184,0.277232,0.769306,0.822330,0.538926,0.182569
0.499128,-0.460859,0.380960,-0.442669,-0.117890,0.888902
0.230947,0.356067,0.844894,0.925258,-0.149880,0.348474
-0.015579,0.480188,-0.736995,-0.385887,0.912639,-0.134837
0.639638,0.440426,0.567092,0.500289,0.859466,0.105025
0.249805,0.582769,0.449270,0.535549,0.841189,0.074753
0.044906,-0.572138,0.548825,0.338019,-0.564336,-0.753172
-0.132620,0.543974,-0.960532,-0.197014,0.363556,0.910501
0.265167,0.184178,0.820466,-0.565597,-0.475742,0.673625
0.718273,0.731741,0.453782,0.631114,0.150097,-0.761029
0.354279,0.378710,0.727558,-0.386140,-0.854573,-0.347277
0.413648,-0.802984,0.372276,0.990599,0.133397,0.030301
0.313359,-0.666712,0.402889,0.698805,0.620016,-0.356724
0.420212,0.739473,0.622618,-0.359503,-0.845282,-0.395291
0.029961,0.375120,-0.079530,-0.431831,-0.856850,-0.281655
-0.518685,0.335771,0.041081,0.074101,-0.620859,-0.780412
0.084854,0.558194,-0.744830,-0.170338,0.984678,-0.037340
0.052868,0.346541,0.941174,0.978475,-0.203059,0.036783
-0.631957,-0.327212,0.399420,0.993780,0.078554,-0.078939
0.211817,-0.095956,0.597244,0.144882,-0.357553,0.922586
0.039177,0.308987,0.573229,0.565760,-0.100022,0.818481
0.083874,-0.758250,0.488350,-0.718511,0.682195,0.135471
-0.907393,0.259837,0.329484,0.698011,-0.192343,0.689771
0.357212,0.745134,-0.037078,-0.210907,-0.502752,0.838307
0.116695,-0.116528,-0.343093,0.397902,0.449088,0.799996
-0.320486,-0.228359,0.592926,-0.535322,-0.844291,-0.024561
0.522589,0.126880,0.304159,0.581323,0.575165,-0.575542
0.058170,-0.722076,0.463874,-0.251496,0.584026,0.771792
-0.578326,-0.331078,0.548146,-0.655668,0.703096,0.275237
0.531668,-0.135718,0.587250,0.062021,-0.046453,0.996993
-0.636288,-0.446362,-0.135614,0.804033,-0.402556,0.437583
0.102032,0.773437,0.492037,0.471757,0.873132,-0.122824
0.225500,-0.446223,0.422150,0.162596,0.950774,0.263803
-0.438370,-0.603204,0.228644,0.048777,0.914825,0.400893
-0.606399,-0.382715,0.554380,-0.188065,0.944528,-0.269256
-0.033039,0.198813,0.869880,0.063955,0.817395,0.572516
0.227034,-0.226013,0.689546,0.258173,-0.965040,0.045213
0.429982,-0.882507,0.244848,-0.318888,0.947044,-0.037669
-0.541029,-0.368495,0.528812,0.447594,0.082645,-0.890409
-0.297579,-0.194947,0.104952,0.322930,-0.743806,-0.585209
0.218518,-0.162087,-0.343481,0.350475,0.055908,0.934902
0.225781,0.284688,0.738183,-0.665345,-0.682775,-0.301884
0.235977,0.013529,0.527211,0.825321,-0.528330,0.199280
0.125638,0.211375,0.301175,-0.849522,0.525348,0.048189
0.325226,-0.497997,0.389547,-0.663898,0.699260,-0.265094
0.671624,-0.548531,0.224957,-0.497226,-0.553459,0.668169
-0.126473,0.501587,0.576358,0.351622,0.864024,-0.360311
0.384594,0.789313,0.585528,-0.533461,0.636012,0.557591
-0.022280,0.950159,0.460332,0.823104,0.492931,-0.281990
0.210973,0.324450,0.651267,0.927746,-0.301108,-0.220500
0.562393,0.675826,0.366842,0.996262,-0.018609,-0.084358
0.452471,-0.130196,0.773406,0.803273,0.399898,-0.441400
0.207768,-0.201575,0.635038,0.787143,0.475506,-0.392810
-0.643414,0.231119,0.469744,0.955549,0.175587,-0.236845
0.022971,0.240370,0.891470,-0.302259,0.907269,-0.292409
-0.504857,-0.157808,0.606171,-0.852229,0.165724,0.496226
0.255534,0.365733,0.461569,-0.538207,0.496359,-0.681147
0.549128,0.922960,-0.513918,0.358195,0.907215,-0.220585
0.592426,-0.054121,0.643165,-0.623151,-0.754913,-0.204425
0.036108,0.104791,0.534028,0.872633,-0.484338,-0.062672
0.111665,0.877674,0.540238,-0.300721,-0.948492,0.099650
-0.180667,0.143862,0.845476,0.504940,-0.765308,-0.399174
0.213207,0.125500,0.674918,0.133162,-0.595442,0.792286
-0.419232,0.657462,0.503851,0.821640,0.562550,-0.091905
0.277742,0.723319,0.539025,-0.695008,-0.016327,0.718816
0.702630,0.110728,0.273667,-0.114102,-0.958908,-0.259760
0.450936,-0.903494,0.425716,0.688494,-0.714534,-0.124164
-0.287801,-0.179069,0.586013,-0.361217,-0.344758,0.866409
0.082612,0.259562,0.157786,0.546433,0.739567,0.393004
0.435855,-0.105895,0.761520,0.743228,0.534902,-0.401860
0.251203,-0.424411,-0.959101,-0.069857,0.105711,0.991940
0.127871,-0.062680,-0.953692,0.147088,0.073611,0.986381
0.383751,-0.656082,0.352141,0.837301,0.211073,0.504356
0.007327,-0.262736,0.406043,0.683926,0.532712,-0.498460
0.002025,-0.299599,0.692481,-0.479840,0.462128,0.745783
-0.140028,0.182659,-0.310321,-0.093889,0.920090,0.380290
-0.170334,0.322379,0.791842,0.675555,-0.497263,0.544385
0.076747,0.199641,0.750045,0.711599,0.359965,0.603367
0.109014,0.336601,0.713853,0.740502,0.316109,0.593070
0.155390,-0.394173,-0.083266,0.742179,0.362116,0.563952
0.086389,0.065858,0.757954,0.763756,0.394790,0.510704
0.468813,-0.123568,0.586013,-0.337677,0.410199,0.847178
-0.398286,-0.138479,-0.113443,0.714601,-0.619965,0.324020
0.065579,0.232914,0.954783,0.343990,-0.545494,-0.764269
-0.203719,-0.335634,0.497083,-0.252307,-0.347349,0.903155
0.011385,0.191218,0.860128,0.504643,0.771157,0.388138
-0.144359,0.428413,0.827986,-0.162891,0.850516,-0.500089
0.507645,0.627641,0.679940,-0.669291,0.738369,0.082826
0.838672,0.057296,-0.021432,0.238493,0.971040,0.014203
0.247009,0.507524,0.647992,-0.514078,0.438111,0.737416
-0.687967,-0.478531,0.404587,0.856549,0.459376,-0.235156
-0.105527,-0.211790,0.676010,-0.766907,0.633959,0.099748
0.450382,-0.373464,0.630890,-0.671019,0.420460,0.610694
-0.248969,-0.021263,0.754242,-0.288463,0.894711,0.341002
0.277460,0.065167,0.242519,-0.414855,-0.755657,0.506830
0.119491,-0.949745,0.366623,0.615848,-0.755687,0.222863
0.067250,0.201849,0.940544,-0.059446,-0.942161,0.329847
-0.039603,-0.296701,0.391633,0.465837,0.854832,0.228598
0.085971,0.317273,0.740585,0.584959,0.606017,0.539042
-0.048682,0.497860,0.635742,0.796400,0.604719,-0.007918
0.059151,-0.241476,0.447839,-0.790378,-0.612192,-0.022889
-0.279140,-0.213172,0.588584,0.448070,0.415888,-0.791373
0.253155,0.644069,0.447209,0.650750,0.708154,0.273940
-0.549827,-0.071242,0.720014,-0.686835,0.533680,-0.493400
0.617712,0.848406,-0.311509,0.601887,-0.797286,-0.045476
0.348977,-0.934144,0.523354,0.376430,0.795419,0.474983
0.457501,0.216071,0.418730,0.086857,-0.976441,0.197529
-0.306513,0.217036,0.578105,0.151918,0.475811,0.866328
0.318389,0.208339,0.681031,0.959758,-0.254258,0.119232
-0.039041,0.101753,0.703033,0.972849,-0.173470,0.153209
-0.117820,-0.282618,0.740997,0.930308,0.159451,-0.330306
-0.611147,0.209304,0.517169,-0.485794,-0.824342,-0.290629
0.388081,0.085187,-0.540990,0.423934,0.800377,-0.423883
0.452198,-0.175203,0.472704,0.974094,0.224834,0.024283
0.552623,0.398867,0.500940,0.228947,-0.967896,0.103735
0.483621,0.892171,0.401895,0.387775,-0.893776,-0.225379
0.625810,-0.727600,0.595813,0.615747,0.767342,0.179002
0.187513,0.354963,0.617961,-0.523771,-0.697904,0.488460
-0.030796,0.245754,0.664973,-0.256849,-0.219217,0.941261
0.630141,-0.294767,0.378728,0.925016,-0.105970,0.364852
0.044488,0.069032,-0.952236,-0.524606,0.496537,-0.691549
-0.308193,-0.411155,0.518818,0.342247,-0.115873,0.932438
0.103984,0.170094,0.935789,0.490307,0.870229,-0.047968
-0.184298,0.122877,0.818623,-0.337050,-0.315221,-0.887149
-0.208186,0.142621,-0.275146,-0.619143,0.684035,0.385691
0.420349,0.648074,0.577401,0.982177,0.024011,-0.186419
-0.004258,0.301670,0.799168,0.420854,0.790151,-0.445582
0.181920,-0.893692,0.619125,0.807509,-0.348470,0.475918
0.188212,0.113766,0.687557,-0.697804,-0.494615,-0.518099
0.095604,-0.167472,0.757250,0.971554,-0.146302,0.186220
-0.359173,-0.343366,0.431562,-0.662614,0.042470,0.747756
0.006355,0.191771,0.819836,-0.619241,0.591131,0.516821
0.119210,-0.374708,0.451720,0.845220,0.279702,-0.455380
0.642008,0.854619,0.369947,0.991376,0.059082,-0.116976
0.246873,0.148971,0.561051,0.387578,0.657598,0.646024
-0.152875,0.405910,0.694834,0.543760,0.837807,-0.049040
-0.169354,-0.048460,-0.125935,-0.498744,0.865441,-0.047609
0.378303,-0.294354,0.668150,-0.643869,-0.760384,-0.085140
0.075630,0.322933,-0.143717,0.293199,0.952162,-0.086149
-0.008453,-0.659120,0.106359,0.991419,-0.004864,0.130633
-0.004539,0.136685,0.915703,0.914847,-0.210414,-0.344645
-0.003005,0.534033,-0.434837,0.008571,-0.972441,0.232993
0.633628,-0.526440,0.373682,-0.162149,-0.129282,-0.978261
0.138348,0.275990,-0.962279,0.304267,-0.289117,0.907652
-0.408064,0.746653,-0.729887,0.614576,0.788772,0.011607
-0.422164,-0.517605,0.283103,0.398667,0.911165,-0.104124
0.161809,-0.491233,0.620750,0.801704,-0.564895,-0.195355
0.485574,0.101338,0.257341,0.162346,0.963697,-0.211971
0.178715,-0.418474,0.323978,0.988394,0.122883,-0.089316
-0.016696,-0.024577,0.643747,0.584789,0.795385,-0.159326
0.115442,0.592019,0.577256,0.256239,-0.499293,0.827676
0.056773,0.633854,0.744224,0.892382,0.308488,-0.329378
-0.308057,0.548116,0.390445,0.787826,0.601201,0.133741
-0.078153,0.267706,0.727728,-0.283339,0.943204,0.173454
0.617285,-0.384510,0.510619,-0.448765,-0.889876,0.082043
-0.503877,-0.565789,0.150436,0.117850,0.969807,0.213510
-0.072007,0.965759,0.744078,0.555482,0.829889,-0.052192
0.736295,0.641034,0.460308,0.716222,-0.088100,-0.692289
0.035409,0.249205,0.881694,0.672067,-0.449245,0.588647
0.028700,0.298909,0.779155,0.705077,0.680123,-0.200746
-0.643551,0.799807,0.068978,0.738454,-0.673168,0.039126
0.034710,-0.181970,0.783133,0.978385,-0.205750,0.020716
0.013474,0.335771,0.147743,0.963266,-0.261447,-0.061351
0.034292,0.259007,0.787864,-0.678219,0.734837,0.005817
0.358056,0.505592,0.673924,-0.754294,0.603955,0.257447
-0.620226,-0.241752,0.482795,-0.041465,0.890510,0.453070
0.364902,-0.317964,-0.231628,0.895610,0.268059,-0.355002
0.129270,0.081872,0.920264,0.993937,0.083338,-0.071718
0.122705,0.175343,0.688915,0.972000,0.228070,-0.056575
0.023252,0.390171,0.068735,0.786345,0.473103,-0.397285
0.053567,0.219522,-0.442308,0.660572,-0.697780,0.277032
-0.901945,0.212894,0.378461,-0.375136,-0.824315,-0.424003
0.139321,0.051911,0.744248,0.743873,-0.078937,-0.663643
-0.152594,0.105480,0.578469,0.405014,0.235823,0.883375
-0.761017,0.430484,0.282036,0.073629,0.987593,-0.138702
0.371321,-0.535551,0.604376,0.288040,-0.441964,0.849530
0.075775,0.361176,0.693136,0.934339,0.347034,-0.081101
0.083038,0.117493,0.561439,0.157874,0.713352,0.682791
0.532367,0.312992,0.744490,0.193621,-0.888378,0.416288
-0.196737,0.260803,-0.340206,0.830488,-0.298338,0.470408
-0.145748,-0.267017,0.725909,0.885649,0.262070,-0.383334
0.122560,0.285931,-0.929773,0.947870,-0.235571,0.214589
-0.705843,-0.306779,0.450823,0.950621,0.213137,0.225593
0.174656,0.167748,0.780635,0.360181,-0.841636,0.402391
-0.045323,0.223663,0.911046,0.332491,-0.642679,0.690227
-0.732663,0.379125,-0.471976,-0.074006,-0.956096,0.283555
0.243658,0.111141,0.626669,0.295699,0.811921,0.503335
0.135689,0.248516,0.845088,-0.455766,0.723844,-0.518003
0.548846,-0.688390,0.589336,-0.445391,-0.480558,0.755441
0.161392,0.094713,0.735636,0.612898,-0.248984,-0.749909
-0.120472,-0.490266,-0.043191,-0.646796,-0.265335,-0.715019
0.190863,0.048184,0.484930,0.233964,-0.588767,-0.773702
0.033312,0.208476,0.813019,0.937889,0.186814,0.292343
0.081359,0.762253,0.777433,0.910009,-0.410342,0.059189
0.664915,-0.705648,0.595401,0.068951,0.703738,0.707106
-0.108878,0.443324,0.836744,0.402422,-0.535969,0.742154
0.027301,0.212342,0.938991,0.693252,0.278150,0.664856
0.130105,-0.352755,0.447306,0.903596,-0.218264,-0.368613
-0.143933,0.421649,0.723483,0.923972,-0.347419,-0.159923
0.688103,0.394173,-0.145924,0.732819,0.678378,-0.052730
0.071444,0.285379,0.749391,0.655011,0.319812,0.684603
0.354697,0.606239,0.609519,-0.491925,0.724361,0.483022
0.743277,-0.482397,0.399590,0.930389,0.311514,-0.193226
-0.632937,-0.351925,0.577425,-0.576533,0.761677,-0.295735
0.062084,-0.728704,0.409875,0.358445,-0.925076,0.125509
0.710311,0.050670,0.273206,0.197956,0.890638,0.409363
-0.010132,0.357725,0.850595,-0.435035,-0.898669,0.056019
0.250504,0.649041,0.408590,-0.469150,0.178903,-0.864807
0.535300,0.340604,0.461860,-0.195296,0.954311,-0.226165
-0.128570,0.042939,0.681226,0.747758,0.632503,0.201986
0.377331,-0.492891,0.500237,-0.724382,0.594664,0.348776
-0.360989,-0.114178,0.768894,-0.457199,0.834275,0.308147
0.010959,0.376502,0.921501,0.606007,0.623119,-0.494448
0.618683,0.382163,0.489272,-0.496615,0.477500,-0.724822
-0.513655,-0.180451,0.591835,-0.363783,0.930329,0.046370
0.000064,-0.176861,0.491043,-0.553349,0.362216,0.750069
-0.379011,-0.419717,-0.429743,-0.138659,-0.989430,0.042457
0.469794,-0.483640,0.375405,0.530903,0.772502,-0.348399
0.347297,0.848543,0.400536,0.015644,-0.951223,0.308107
0.051751,-0.069032,0.751016,-0.202503,0.953213,0.224448
-0.284306,-0.402044,0.435759,-0.045261,0.537109,0.842298
-0.605836,-0.335497,0.271071,0.160523,0.747508,0.644565
-0.058179,-0.298772,0.517532,0.068812,-0.985079,-0.157748
-0.432642,0.323485,0.687508,0.569149,0.598983,0.563284
0.387382,0.442357,0.663808,0.709229,0.695376,0.115960
-0.069210,-0.593953,0.260082,-0.281155,-0.924987,-0.255638
0.008725,0.054260,0.783570,0.963616,-0.256039,-0.076740
0.019339,-0.049288,0.686465,0.505562,0.554604,-0.660925
0.140582,0.135578,0.803437,-0.400030,0.498336,0.769180
0.445907,0.100234,0.648380,-0.559167,-0.699679,-0.444726
0.505411,-0.374708,0.540335,-0.625228,-0.348776,0.698173
-0.017813,-0.447742,0.529249,0.968996,-0.145152,-0.199946
0.421328,-0.270468,0.603551,0.864696,0.484716,0.131728
0.262652,-0.842607,0.594576,0.814333,-0.540315,-0.211947
-0.057063,0.069860,0.717297,-0.791991,0.094923,-0.603109
0.894400,0.060197,0.268524,0.766839,0.641679,-0.014320
0.226199,0.167748,0.948864,0.993559,-0.078598,-0.081625
0.072416,0.230428,0.741774,0.634552,-0.173577,-0.753137
0.030796,0.207925,0.839436,0.841571,0.309227,-0.442873
-0.009987,-0.361315,0.275413,-0.518345,0.716592,-0.466706
0.418669,-0.547564,0.447936,0.378686,0.470682,0.796904
0.154691,-0.687836,0.524300,0.786929,0.263841,0.557791
0.133600,0.175894,-0.055563,0.468786,0.841924,0.267216
-0.150079,0.030788,0.402258,0.335097,-0.859389,-0.386214
-0.601505,0.342262,0.615753,-0.653751,0.578813,-0.487428
-0.190309,-0.066546,0.841814,-0.443679,-0.503702,-0.741238
0.300504,-0.328731,0.568110,-0.057053,0.199716,-0.978191
-0.307775,0.373049,0.576407,-0.328038,0.444363,0.833626
0.387945,-0.537899,0.414994,0.239789,-0.604255,0.759854
0.252601,0.062129,0.818987,0.863985,0.023378,-0.502975
-0.103013,0.117632,0.816925,0.181671,0.489167,0.853060
-0.034710,0.457821,0.683797,0.936075,-0.314953,-0.156744
-0.444935,-0.197985,0.428894,-0.556863,-0.039233,-0.829678
0.091972,-0.354275,-0.357624,0.884688,-0.210222,0.416093
0.222712,-0.031893,0.534416,-0.622885,0.741014,0.250825
-0.040021,-0.592435,0.545842,-0.704066,0.184303,0.685801
0.143651,-0.037969,0.680425,0.679262,0.475954,-0.558634
0.128988,0.720005,-0.994639,0.081825,0.110542,0.990497
0.168519,-0.193292,-0.966281,0.130377,-0.252743,0.958709
-0.040993,0.982329,0.668951,0.982065,0.130218,-0.136352
0.121307,-0.906808,0.404345,0.575128,0.641871,-0.507179
0.547730,-0.022367,-0.140296,0.684505,0.620050,0.383395
0.427049,0.111971,-0.059129,-0.001021,-0.998686,0.051239
0.008589,0.110037,0.964316,-0.653016,0.584636,-0.481426
-0.057199,-0.495514,0.151552,-0.532845,0.688885,0.491441
-0.250086,0.134474,0.526508,0.721317,0.678880,0.137203
-0.383060,-0.140963,0.608937,0.838005,0.292187,0.460840
-0.565334,-0.264255,0.528667,-0.584196,0.781920,0.217522
0.536136,-0.439046,0.536138,0.820403,0.417886,-0.390270
0.082612,-0.433246,0.441217,0.835277,0.058491,-0.546709
0.631676,0.481015,0.576431,0.783140,0.608182,-0.129640
0.301202,0.379953,0.634432,0.266685,-0.331316,0.905046
0.146311,0.084357,-0.964438,0.170746,0.397551,0.901554
0.264894,-0.407704,0.442818,0.521097,0.806908,-0.278131
0.366572,0.232499,-0.982316,-0.358672,-0.232392,-0.904073
-0.536698,-0.555847,0.464310,-0.212225,0.750700,0.625628
-0.152875,0.006213,-0.137604,0.150401,0.566336,0.810335
-0.264059,-0.007180,0.675112,0.588888,-0.647946,-0.483091
0.252456,0.232499,-0.970284,0.377676,0.206326,0.902657
0.123259,0.009802,0.900154,0.965388,0.077891,-0.248917
-0.238219,0.572690,0.563792,-0.461732,-0.735221,0.496240
0.069628,-0.148558,-0.949907,0.471846,0.017101,0.881515
0.480688,-0.606378,0.397043,-0.675916,0.370018,-0.637357
0.289054,-0.992959,0.446966,-0.238812,0.963786,0.118680
0.189746,-0.598923,0.252805,0.568267,0.800857,-0.188950
-0.329983,0.074002,-0.665943,-0.616855,0.618373,0.486933
0.474406,-0.757559,0.615559,0.274280,0.699372,-0.660037
-0.661846,0.378710,0.445826,0.990171,-0.135480,0.034736
-0.244366,-0.100098,0.688551,0.567247,0.703833,0.427610
0.024096,0.405633,-0.816561,-0.583470,-0.811379,-0.035024
-0.279838,-0.155874,0.452278,0.958600,0.038117,-0.282194
0.526638,0.301947,-0.171298,0.377071,0.872203,-0.311577
-0.078844,0.205163,0.593654,0.803805,0.307557,-0.509220
-0.065442,0.834738,0.674603,0.996655,-0.047958,0.066175
-0.118937,0.250172,-0.188521,-0.090320,-0.528792,0.843932
0.156081,-0.047356,0.530680,0.472772,0.454063,-0.755191
0.203991,0.290073,0.557025,0.652430,0.281785,0.703514
0.492001,0.517050,-0.432338,0.932467,0.361025,0.012873
0.270061,0.472871,0.846277,-0.523235,0.411957,0.746001
0.093652,-0.021815,0.297440,0.810675,0.148996,-0.566221
-0.314476,0.590915,0.675112,0.795842,0.387845,0.464986
-0.266148,0.327627,0.640229,-0.042907,0.786019,0.616712
-0.572878,-0.520504,0.258748,-0.216083,-0.972716,-0.084447
0.033175,0.398454,0.696508,0.849784,0.467624,-0.243300
-0.685034,-0.381472,0.425012,0.846786,0.385081,-0.366968
0.393247,-0.596715,0.461181,0.961693,-0.271486,0.037971
-0.398141,-0.025681,0.599233,0.938635,0.082362,0.334933
0.952371,-0.087394,0.621163,0.126730,0.838740,0.529580
-0.453732,0.265222,0.583296,0.341082,0.916549,-0.208807
-0.147146,0.559161,0.842177,-0.224809,-0.711401,0.665860
0.118374,0.161950,0.211979,0.195147,0.965239,-0.173873
-0.121588,-0.008974,0.690080,-0.684381,0.714178,0.146875
-0.081222,0.069860,0.817895,-0.422822,0.073666,-0.903214
-0.223965,-0.329146,0.212997,0.749343,0.504696,0.428680
-0.024378,-0.073174,0.575461,0.313766,0.921670,0.228200
-0.042391,0.637720,0.732264,0.799274,0.445031,-0.403866
0.450382,-0.018501,0.395490,0.811561,0.231710,-0.536357
0.681402,0.774126,0.447063,-0.711358,0.037042,0.701853
-0.049654,0.035207,-0.252295,-0.731963,0.673976,0.099934
-0.273692,-0.111419,0.510595,0.544912,0.478850,0.688312
0.430408,-0.895072,-0.355149,0.964547,0.028626,-0.262353
-0.240172,0.053706,0.839339,-0.000082,0.273058,0.961997
0.368670,-0.041420,0.592951,0.943522,-0.288991,-0.162021
0.352046,-0.575176,0.519061,0.313408,-0.202065,-0.927871
0.462394,-0.448018,0.640157,0.853450,0.089281,-0.513471
0.173540,0.073589,0.793298,0.796873,0.575961,-0.182381
-0.601932,-0.321551,0.300763,0.032944,0.704082,-0.709354
0.478037,0.041420,0.630356,0.352982,0.526260,0.773598
0.291288,-0.464311,-0.963807,-0.144488,0.138956,0.979701
0.114325,0.110176,0.805451,0.269197,0.803632,0.530762
0.651087,0.370012,0.746188,0.443829,-0.849608,0.284925
0.752211,0.479084,0.503851,-0.379129,0.856041,0.351361
-0.080660,-0.310232,0.506883,-0.387662,0.852028,0.351804
-0.001743,0.199226,0.910585,-0.104543,0.892842,0.438068
0.154546,-0.330526,0.600956,0.818783,0.555485,0.145024
-0.022144,0.895760,0.463898,0.863323,0.363124,-0.350448
0.711146,-0.076212,0.621624,0.484434,0.872378,0.065422
0.048955,0.395277,0.761592,0.074956,0.476939,0.875734
0.323836,0.530443,0.434449,-0.298759,-0.827109,0.476060
-0.248415,-0.127019,-0.128871,-0.705490,0.703395,-0.086710
0.435992,-0.635234,0.349352,0.710986,0.332785,0.619478
0.327042,0.241749,-0.092023,0.575731,0.748403,0.329282
-0.186396,0.476185,0.836234,-0.083084,-0.159021,0.983773
-0.105664,0.383404,0.733914,-0.202872,-0.035783,0.978551
0.206089,-0.391550,0.393477,-0.324644,-0.915385,-0.238070
0.302882,-0.142206,0.504191,0.328628,-0.372688,-0.867818
-0.247716,0.012840,0.842153,0.222731,0.275277,0.935208
-0.113490,0.343642,0.806809,0.292070,0.883288,-0.366740
-0.348977,0.677482,0.517072,0.925385,0.327955,-0.190023
0.152176,0.009939,0.389377,0.564476,0.394885,0.724867
0.173966,0.435178,0.613473,0.366761,-0.841694,0.396279
-0.380127,0.631920,0.693330,0.954029,0.151463,0.258627
-0.306795,-0.391689,0.440222,0.481494,-0.196542,-0.854128
0.782526,-0.257628,0.290017,0.257062,0.791613,0.554317
0.187649,-0.616044,0.520686,0.855285,0.309468,0.415593
0.069764,-0.009941,0.737941,-0.254023,0.137180,0.957420
0.128570,0.032997,0.728965,0.257271,-0.724266,0.639727
0.315030,0.652492,0.531554,0.128542,-0.991660,-0.009360
-0.387664,0.697087,0.394641,-0.631834,-0.761478,0.144696
0.167257,0.044455,-0.969629,-0.407214,-0.158583,-0.899460
-0.036662,0.406186,0.934916,0.311895,0.414022,0.855165
0.377467,0.092642,0.280653,0.218057,0.972056,-0.086934
-0.383895,0.040729,0.585697,0.608541,0.213368,0.764298
0.316573,0.414606,0.653232,-0.192572,0.304673,0.932786
0.441439,0.814994,0.596347,-0.580290,-0.077029,-0.810759
-0.389061,-0.216899,0.529807,-0.673069,0.570657,0.470456
-0.201204,0.812784,0.620726,0.722553,-0.621797,0.302135
0.300504,0.170234,0.396194,0.256778,0.691738,-0.674954
-0.366018,0.310230,-0.588050,-0.020260,0.958417,-0.284651
-0.098545,0.215795,0.916989,0.618783,-0.735263,-0.276578
0.104819,-0.540247,0.461351,0.952606,-0.069307,-0.296208
-0.130386,0.628193,0.625190,0.121022,0.123792,0.984901
0.185552,-0.512909,0.315924,0.722539,0.564096,0.399666
0.240726,0.716691,-0.450702,-0.674589,0.642686,0.363160
0.577763,0.468590,0.546812,-0.273848,-0.961487,-0.023437
-0.562537,0.250587,0.570876,-0.469533,-0.561348,0.681489
0.203156,0.098991,0.673075,-0.048057,-0.618932,0.783973
0.128289,0.197846,-0.644256,0.894511,-0.442330,-0.064767
0.128008,0.191909,0.491940,0.755019,-0.655688,-0.004462
0.031359,0.260666,-0.583320,0.919979,0.387611,-0.058275
0.013337,0.838880,0.669218,-0.660286,-0.169986,-0.731524
0.181366,0.181416,0.639089,0.950696,-0.306666,-0.046177
0.691598,-0.459339,0.459847,0.834042,0.549506,-0.049163
-0.136396,0.717798,0.472995,-0.038364,0.697449,0.715606
0.382361,-0.841227,0.308186,-0.772558,-0.039920,0.633688
0.364202,0.089741,-0.036545,0.163171,0.975629,0.146711
0.464210,0.445119,-0.732361,-0.617744,0.771700,0.151235
-0.160275,0.120667,0.824105,0.758310,0.560011,0.333696
-0.273973,0.321139,-0.177484,-0.715633,0.145893,-0.683070
0.044761,0.173132,0.923951,0.592708,0.677181,-0.436032
-0.370349,0.344194,0.758851,-0.332189,-0.927417,-0.171897
-0.198126,-0.295182,0.258360,-0.807307,0.261931,0.528818
0.200641,0.170785,0.778015,-0.402623,0.914382,-0.042427
-0.881834,0.357310,0.336422,-0.152358,0.793297,0.589464
0.204972,0.050531,0.655561,0.895255,0.444852,0.025017
0.500381,-0.684937,0.381518,0.350900,-0.071662,0.933667
-0.014181,0.296149,-0.174694,-0.308639,0.808170,0.501600
0.093234,0.867181,-0.989302,0.029956,0.106699,0.993840
-0.013764,0.103549,0.629483,0.383828,-0.878489,0.284488
0.413648,-0.293387,0.483862,-0.695292,0.587458,0.414080
-0.227879,-0.165125,0.593363,0.802272,0.172111,-0.571610
-0.221595,0.441945,0.829030,0.980401,-0.195959,0.020352
-0.064880,0.835290,0.709292,0.896226,-0.081317,0.436082
0.012357,0.563303,0.551227,-0.039293,-0.998449,-0.039433
0.279838,0.169681,-0.971618,0.219957,0.233573,0.947134
0.060268,0.117493,0.947433,0.464633,-0.672109,-0.576529
0.442837,0.850477,0.595522,0.637563,0.081514,0.766074
-0.993853,0.337153,0.348915,0.429936,0.881827,0.193740
-0.049236,-0.170648,0.066479,0.884504,-0.130861,0.447804
0.264468,0.451332,0.829078,-0.645762,-0.691054,-0.324709
-0.074096,0.306227,0.491261,-0.607549,-0.342755,0.716521
0.182764,-0.721248,0.600737,0.717010,0.452599,0.530143
0.188348,0.242441,0.707012,0.611954,-0.642292,-0.461491
0.253437,-0.150490,-0.613352,-0.389980,-0.479706,0.786001
0.239473,0.049012,0.769549,0.884197,0.315515,0.344452
0.389897,0.816926,0.595934,0.498307,-0.348609,0.793828
0.301629,0.775645,-0.457251,0.508172,-0.859872,0.048797
0.569656,-0.119978,0.595449,-0.425401,0.899057,0.103593
0.699833,-0.633715,0.229081,0.958008,-0.286716,0.003752
0.212090,0.393621,0.754606,-0.552320,0.431078,-0.713522
-0.265730,-0.374983,0.230609,0.864374,0.312635,0.393850
0.042391,0.463068,0.482164,-0.173147,-0.609219,0.773868
-0.052033,0.131576,0.817289,-0.566339,0.549495,-0.614260
0.110412,0.014083,0.739687,0.235969,-0.236347,0.942581
-0.118093,0.858070,0.586425,0.782483,-0.452348,0.427905
-0.274809,-0.128262,0.780392,-0.388462,-0.278580,-0.878345
-0.367416,-0.187906,0.607554,0.008780,0.977255,0.211887
0.080378,-0.225321,0.709656,0.930722,0.023337,-0.364983
0.005512,-0.615216,-0.446093,-0.613976,0.063638,0.786755
-0.121588,-0.325971,-0.070409,0.323080,0.151948,0.934094
-0.499682,0.203231,0.413732,0.187645,0.776314,0.601769
0.255951,-0.563855,0.474402,0.766691,0.421539,0.484241
-0.384177,-0.311336,-0.492644,0.268684,0.401372,0.875619
0.024369,-0.741683,0.611993,0.951152,-0.234154,0.201202
0.825825,-0.036450,0.619052,0.184377,0.756956,0.626915
0.325652,-0.049566,0.580870,-0.156507,0.468090,0.869711
-0.508762,-0.082839,-0.076182,0.545210,-0.818501,-0.181114
-0.377331,-0.280686,0.577353,0.313373,0.866031,-0.389600
0.367408,-0.708823,0.599476,0.524481,0.739633,-0.421738
0.855432,-0.099958,0.618324,0.145429,0.836090,0.528965
-0.190863,0.642275,0.352966,-0.383544,0.365938,-0.847929
0.371321,-0.581665,0.627300,-0.355186,0.412035,-0.839089
0.271032,0.257352,0.719408,0.729511,-0.577839,-0.365945
0.669945,-0.181003,0.295426,0.839437,0.433897,0.327230
-0.013482,0.073726,0.711427,-0.279911,0.942711,-0.181512
0.293803,0.601685,-0.553046,-0.647878,0.639773,0.413453
-0.019902,0.392654,-0.086832,-0.691148,-0.702790,-0.168522
-0.349539,0.442634,0.413514,-0.349041,-0.679580,0.645246
0.177035,0.515808,-0.498150,0.276539,-0.434136,0.857352
-0.267409,-0.225458,0.300423,0.327716,-0.207511,0.921706
0.430826,-0.912469,0.185198,-0.044055,0.996550,-0.070337
-0.218944,-0.247825,0.287639,0.569061,-0.161661,0.806248
-0.196592,0.851029,-0.994493,0.069462,0.046833,0.996485
-0.844964,0.200332,0.639550,-0.482622,-0.714311,-0.506789
-0.020465,-0.619219,0.525028,0.707711,-0.590323,0.388154
