-0.120310,-0.373022,0.511068,0.261575,-0.507274,0.821128
-0.268727,-0.385191,-0.016576,0.044666,0.776965,0.627957
-0.457300,0.283163,0.423218,0.924548,-0.029651,0.379911
-0.155828,0.028555,0.474862,0.151429,0.498204,-0.853734
0.380697,-0.216329,-0.136368,-0.442838,0.709384,0.548332
0.126951,-0.620145,0.914455,0.611882,0.776807,0.148900
-0.393051,-0.677621,0.814508,0.726347,0.498216,0.473499
-0.316603,0.211461,0.466711,0.269908,0.447820,0.852413
-0.506255,0.023493,0.711249,0.862730,-0.151506,0.482434
0.120617,-0.166338,0.396892,-0.395827,0.899169,-0.186592
-0.554131,-0.237297,0.415038,0.776254,0.377169,-0.505147
-0.638148,-0.669760,0.779628,0.683061,0.647128,-0.338604
-0.416371,-0.944398,0.535752,0.868650,-0.432051,-0.242446
0.042006,-0.571285,0.548915,0.106020,-0.949307,0.295934
-0.453746,0.153802,0.711048,-0.547029,-0.054031,-0.835368
-0.723088,-0.260881,0.517376,0.747432,-0.199430,-0.633698
-0.163091,-0.276798,0.781125,-0.733581,-0.124961,-0.668015
0.051121,-0.738091,-0.293345,0.492950,0.732755,0.469118
-0.466873,-0.664697,0.828939,-0.222320,0.504058,0.834565
-0.216063,0.238793,0.539179,0.833388,0.330043,0.443324
-0.544093,-0.713375,0.493728,0.811464,-0.193096,0.551580
-0.190423,0.020876,-0.578092,-0.168482,-0.069623,0.983243
-0.130500,-0.440234,0.918199,0.895375,-0.437260,0.084308
-0.212509,-0.263132,-0.800740,0.847287,0.530876,0.016586
0.179767,-0.266309,0.780607,0.167428,0.604847,-0.778542
-0.207720,-0.541885,0.919495,0.209266,-0.419467,0.883320
-0.138380,-0.340445,0.880640,-0.277185,-0.766672,0.579123
-0.749034,0.718437,0.508245,0.797172,0.259411,0.545181
-0.751353,-0.434246,0.359679,0.741556,0.659184,-0.124788
-0.170350,0.187682,0.662745,0.914787,-0.001755,0.403932
-0.527106,-0.636063,0.493210,-0.149811,-0.250226,-0.956527
-0.417606,-0.232989,0.744056,0.976421,-0.180920,-0.117769
-0.534982,-0.141062,0.632703,-0.195500,0.948269,0.250132
0.506718,-0.209027,-0.936115,-0.190231,0.150095,0.970198
-0.054670,0.078729,0.708110,0.741363,0.503999,-0.443132
0.278610,-0.452780,0.677348,0.910946,-0.184356,-0.369040
0.080310,-0.316666,0.823610,-0.525404,-0.496040,0.691299
-0.505793,0.421322,0.406253,0.406980,0.749030,-0.522801
0.152124,-0.506691,0.876406,0.973008,0.059953,0.222849
-0.921545,-0.184312,-0.994355,-0.090507,0.138926,0.986158
-0.373746,-0.311055,-0.966214,0.074606,-0.149069,0.986008
0.009113,-0.291767,0.727293,0.964242,-0.049228,-0.260411
-0.308417,0.306747,-0.978225,-0.137748,-0.010989,0.990406
-0.642008,-0.572405,-0.957487,-0.575698,0.415643,0.704139
-0.408802,-0.546009,0.809266,0.210775,0.536061,0.817442
-0.220540,-0.168589,0.334534,0.928133,0.277248,0.248399
-0.209110,-0.221197,0.850397,0.596323,-0.679873,-0.426816
-0.461316,-0.908644,0.314717,-0.149534,-0.584876,0.797220
-0.111044,0.710004,0.065887,-0.753268,0.514409,-0.409842
-0.443396,-0.812044,-0.225917,-0.743361,0.389064,-0.544099
-0.566796,-0.807541,0.178795,0.769363,-0.617124,-0.165037
-0.256525,-0.318540,-0.077581,-0.517612,0.819318,-0.246569
-0.013746,0.658710,0.595029,0.776864,0.558311,0.291154
-0.613748,-0.778153,0.178162,0.947385,-0.188723,-0.258545
-0.102547,-0.456333,0.441076,-0.653201,0.430162,-0.623128
-0.338840,0.408216,0.335686,-0.350886,-0.857542,0.376165
-0.796142,0.166897,0.563576,0.187182,0.496527,0.847599
0.058997,0.520733,0.527111,0.956880,-0.033858,-0.288505
-0.153976,0.463452,0.666604,0.684077,0.639847,-0.350193
-0.494671,-0.399977,0.395827,-0.365398,-0.314092,0.876260
-0.746565,0.906953,0.559975,-0.555639,0.576236,-0.599347
-0.739924,0.688671,0.531518,-0.270482,0.486823,-0.830568
-0.367722,0.732103,-0.986952,-0.144753,0.207781,0.967406
-0.759691,-0.311433,0.133085,0.757180,0.152663,0.635116
-0.073669,-0.322105,0.940896,0.755217,0.609234,0.241829
0.329730,-0.283163,0.540677,-0.710403,0.358315,0.605755
-0.401544,-0.283723,0.629679,-0.239832,-0.710556,0.661506
0.680312,-0.178507,0.390239,-0.014425,-0.968090,0.250187
-0.377605,0.158476,-0.346861,-0.686239,-0.049291,0.725704
-0.672587,-0.609473,0.835419,0.988619,-0.147568,-0.029272
0.128341,-0.602925,0.616862,0.811298,0.522387,-0.262503
0.008495,0.458767,0.573081,0.766876,-0.042041,0.640416
-0.371737,0.049705,0.110301,-0.406712,-0.483491,0.775127
-0.053129,-0.530469,0.945822,0.940442,0.339261,-0.021679
-0.393668,-0.203223,0.704941,0.391688,0.855613,0.338389
0.136990,0.147426,0.216153,0.935473,0.071601,-0.346068
-0.651119,-0.487974,0.353716,-0.656023,-0.748139,0.099609
-0.280774,-0.025928,0.509714,0.742846,0.640392,0.195138
0.182241,-0.443787,0.895503,0.978589,-0.190374,-0.078234
-0.375447,0.165972,0.180840,0.417679,0.722037,-0.551550
0.221313,-0.628567,0.634518,0.363609,0.862635,-0.351638
-0.133130,0.166531,0.584775,0.839126,-0.504732,0.202763
-0.406176,-0.444164,0.751573,-0.281622,0.791314,-0.542688
-0.040927,-0.353368,0.893486,0.947830,-0.274333,0.162359
-0.308878,-0.171388,0.722021,0.107944,-0.980686,-0.163105
-0.149188,-0.311992,0.814739,-0.340239,0.533939,0.774046
-0.117685,-0.217266,0.880928,-0.509445,0.660170,-0.551942
-0.631969,0.451648,-0.035154,0.855691,0.516422,-0.033185
-0.063168,-0.118597,0.744833,0.905677,-0.351126,0.237612
-0.128648,-0.280170,0.769604,0.954651,-0.277958,-0.106683
0.166334,-0.054014,0.800539,0.962202,-0.082808,-0.259442
-0.278149,-0.705136,-0.148350,0.671460,0.647094,-0.361125
-0.159076,0.108496,0.721100,0.705341,-0.559388,0.435408
0.079692,0.369845,0.656379,-0.633533,0.654481,-0.412662
-0.104404,0.452585,-0.296168,0.746350,-0.538878,0.390606
-0.272898,-0.513615,0.503953,0.935586,0.249820,-0.249535
-0.491894,0.088464,-0.031755,-0.778046,0.459888,0.427957
-0.333439,-0.452208,0.860190,-0.912304,0.248829,-0.325246
-0.113514,-0.345873,-0.415729,0.487587,0.762806,-0.424718
-0.528803,-0.365160,0.255843,-0.393579,0.783128,0.481463
-0.218225,-0.395487,-0.578553,0.537499,0.601124,-0.591392
-0.068263,-0.535154,0.675850,0.363079,-0.865503,0.345077
-0.353823,-0.187682,0.701946,-0.225233,-0.904260,-0.362746
-0.337454,-0.837502,0.588519,0.981859,0.189425,-0.008420
-0.424402,-0.205839,0.603266,0.201114,-0.044521,0.978555
-0.026716,-0.266686,0.803851,0.890031,0.044104,-0.453762
-0.595829,0.385008,0.497617,-0.042363,0.308651,0.950231
0.522780,-0.229995,0.701370,-0.260693,0.852857,0.452409
0.389190,-0.188243,0.634172,0.333912,-0.119140,-0.935045
-0.263627,-0.315546,0.921886,0.875656,0.033254,-0.481790
-0.481700,0.592813,0.601049,0.112499,0.430435,-0.895583
-0.570500,-0.055511,0.708455,0.242933,0.954540,-0.172734
-0.539153,-0.386128,0.013926,-0.098983,0.877189,0.469831
-0.385792,0.032669,-0.982257,0.248216,-0.118242,-0.961461
0.082779,-0.516243,0.617380,0.517362,0.319070,0.794060
-0.142085,-0.494898,0.562481,0.215367,-0.870091,0.443349
-0.081389,-0.436108,0.849590,-0.374919,-0.326475,0.867669
0.135289,0.065245,0.268603,0.659506,0.521310,-0.541561
0.010348,-0.104931,0.468497,-0.250656,-0.891657,0.376986
-0.366176,-0.307307,0.752668,-0.391405,0.175188,-0.903389
-0.370041,0.571285,-0.980644,0.049828,-0.123267,-0.991122
-0.529576,-0.443982,0.318260,0.259237,0.659621,0.705476
-0.334056,-0.812969,0.759638,-0.245984,0.789189,0.562737
-0.574365,-0.282786,0.085675,-0.670920,-0.109601,0.733386
0.126333,-0.593190,0.873670,0.928280,0.010155,-0.371743
-0.547952,0.202468,0.492749,-0.484320,0.176914,0.856817
-0.269189,0.662264,-0.664934,0.975933,0.203054,0.079523
-0.154438,-0.335577,-0.643043,0.934255,-0.139080,-0.328367
0.841699,-0.271931,-0.928107,-0.116779,0.165937,0.979197
-0.416988,0.650665,0.190950,0.681602,0.387677,-0.620585
-0.586718,-0.819151,0.815603,0.985303,-0.091478,0.144256
0.639539,-0.169148,0.662341,-0.289372,0.496886,0.818149
0.208187,-0.632691,0.754627,0.869783,0.459459,0.179931
-0.123859,-0.322848,0.783747,0.693007,-0.709427,-0.128273
-0.116450,-0.751197,0.373706,0.740012,-0.429631,-0.517493
-0.263476,-0.508188,0.694515,0.225062,0.973861,0.030701
-0.079075,0.206399,0.632127,0.822137,0.530428,-0.206729
-0.211274,-0.430121,-0.596757,0.268435,0.909955,-0.316108
-0.010037,-0.302440,-0.631378,0.353829,0.768475,0.533152
-0.112585,-0.163344,0.765514,0.022798,0.906374,0.421860
-0.247414,-0.323225,0.830235,-0.323022,0.733839,0.597610
0.151045,-0.049146,0.703904,0.222129,0.967678,-0.119408
-0.327722,0.626327,0.365180,0.282682,0.629748,-0.723539
-0.580077,-0.431812,0.308323,-0.556768,0.782048,-0.280020
0.089265,-0.488156,0.702406,0.218674,-0.975797,0.001579
-0.249577,0.121785,0.216931,0.863606,-0.424647,-0.271769
-0.536217,0.152865,0.166439,-0.744711,0.404070,0.531161
-0.362009,0.058881,0.673143,0.468204,-0.357956,0.807869
-0.293744,-0.275862,0.361810,0.940286,-0.081515,0.330480
-0.145328,-0.156042,0.133488,0.976452,0.176296,0.124343
0.043397,-0.004400,0.675591,0.958522,0.238546,-0.155984
-0.002005,-0.393247,0.770439,0.319194,-0.702932,-0.635611
-0.295752,-0.156042,0.822803,-0.709597,0.704523,-0.010904
-0.048496,-0.173262,0.833029,0.029977,-0.938057,0.345181
-0.702242,-0.512872,0.370163,0.382696,0.912045,-0.147369
-0.524015,0.314049,-0.989458,-0.105062,0.222647,0.969222
-0.224094,0.592995,-0.258464,0.861228,0.107192,0.496786
-0.262392,-0.656459,0.288420,-0.398883,0.907773,0.129769
-0.332510,0.491904,0.581549,-0.393200,0.413122,-0.821416
-0.085716,-0.341576,0.891902,-0.427143,0.693674,0.579971
0.610812,-0.249272,-0.931794,-0.109496,0.167616,0.979753
-0.099153,0.236542,0.698691,0.999421,-0.030946,0.014158
-0.924170,0.051385,0.576105,0.526227,-0.256089,0.810866
-0.187491,-0.360670,-0.495053,0.987085,-0.094483,-0.129366
-0.514131,0.403919,0.507295,0.923749,-0.195988,-0.329054
-0.100694,-0.503879,0.492259,-0.595975,-0.589623,0.545122
-0.680463,-0.492465,0.406311,-0.452593,0.578803,-0.678341
-0.387489,-0.879815,0.505307,0.481561,-0.791475,0.376386
-0.278149,-0.310873,0.433386,0.211275,-0.767487,0.605249
-0.050655,-0.288397,0.883203,0.948406,0.241665,-0.205241
-0.851276,-0.196104,0.147371,-0.667599,-0.042048,-0.743332
-0.308878,-0.147426,-0.554416,-0.106615,0.849791,0.516226
-0.382705,-0.580826,0.702263,-0.327516,0.903757,0.275603
-0.459459,0.410467,0.562683,-0.446751,-0.445559,0.775816
-0.410347,0.341576,0.570892,0.981423,0.019687,-0.190846
-0.777299,-0.376576,0.346976,0.795595,0.605105,-0.029601
-0.517374,-0.877564,0.325633,-0.121261,0.256478,0.958913
-0.596602,0.712438,0.493642,0.018302,0.161019,0.986782
-0.360152,-0.476364,-0.971082,0.001205,0.202562,0.979269
-0.427490,-0.232429,0.128649,0.770829,-0.613039,0.173222
-0.098069,0.060755,-0.370681,0.860805,-0.427951,-0.275450
-0.124481,-0.689413,0.800510,0.893697,-0.065156,-0.443915
-0.602625,-0.352991,0.411783,-0.459414,-0.307467,0.833308
0.189343,-0.443982,0.650100,-0.677487,0.208466,-0.705375
-0.227181,-0.360475,0.882224,0.013936,0.919904,0.391895
0.273516,-0.320414,0.470542,0.830139,-0.543417,-0.124767
-0.543320,-0.840873,-0.962038,0.278750,-0.240784,-0.929689
-0.682937,-0.161469,0.680372,-0.434874,0.603902,-0.667972
-0.085716,-0.138445,0.887870,0.175008,-0.674389,0.717336
-0.327566,-0.217826,0.778908,0.897735,-0.000799,-0.440536
0.144866,-0.825710,0.925688,0.938535,0.225949,0.260958
-0.310118,0.369650,0.189020,0.349489,0.181603,-0.919172
-0.366793,0.351311,-0.978513,0.163973,0.036152,0.985802
0.008495,0.003085,0.540994,0.211069,-0.911546,0.352894
-0.339151,0.288030,-0.310598,-0.632112,0.303772,0.712852
-0.461316,-0.513433,0.742702,-0.395991,-0.770313,0.499808
-0.246797,-0.576713,0.869753,-0.033108,-0.293017,0.955534
-0.325096,-0.536274,0.728445,-0.091210,0.831387,0.548158
0.123709,-0.272491,0.888071,0.926348,-0.280651,-0.251227
0.039380,0.438553,-0.199389,-0.349465,0.649678,0.675124
-0.341003,0.179820,0.519968,0.936218,0.327083,0.128504
-0.509809,-0.632497,0.475985,0.949044,0.254885,-0.185334
-0.316759,-0.022374,-0.959215,0.771022,-0.272164,-0.575718
-0.457606,-0.480478,0.399657,-0.240401,-0.959805,0.144849
-0.226257,0.283722,0.659202,0.708618,0.380277,0.594348
-0.093436,-0.282226,-0.963305,-0.503264,0.242201,0.829496
-0.574671,-0.213324,0.619137,0.973000,-0.220248,0.069003
-0.363706,-0.182998,-0.642870,-0.181163,0.528233,0.829548
-0.799229,-0.256391,0.140689,-0.556715,-0.304610,-0.772840
-0.235056,0.189933,-0.963910,-0.621868,0.457076,0.635894
-0.213437,-0.826830,0.778130,0.133901,0.990994,0.000965
-0.101161,-0.721613,0.828651,0.334736,0.726689,-0.599896
-0.054519,0.496017,0.566600,0.592603,-0.792624,-0.143416
-0.172975,-0.380324,0.916875,-0.069431,0.721540,0.688883
-0.004324,-0.157721,0.733456,0.734791,-0.271726,0.621487
-0.019770,-0.172142,0.796564,0.727071,-0.668595,-0.156043
-0.143014,-0.467383,0.712545,-0.354061,0.715471,-0.602280
0.073669,0.284282,0.313392,0.594250,0.739755,-0.315643
-0.540539,-0.458950,0.717211,0.758116,-0.647002,-0.081543
0.014825,0.167468,-0.669600,0.763147,0.628338,-0.150986
-0.541929,-0.602731,0.893400,0.002553,0.993958,0.109736
-0.065482,-0.341004,0.868255,-0.174993,-0.018663,0.984393
0.018996,0.521487,-0.385976,0.996380,-0.045085,0.072071
-0.383474,-0.526356,0.385774,-0.210493,-0.972637,-0.098334
-0.503168,-0.248895,0.539410,0.062204,-0.192144,0.979393
-0.884943,0.223253,0.586129,-0.088934,-0.993537,-0.070533
0.098530,0.035479,0.741262,-0.772143,0.373586,0.514032
-0.324017,0.409906,0.574895,-0.396041,0.590733,-0.702984
-0.494671,-0.284660,0.726947,-0.299595,0.713245,0.633660
-0.467028,-0.028544,0.738266,0.765308,0.636241,0.097472
-0.146873,0.404661,0.654622,0.266095,-0.586393,-0.765073
0.156295,-0.185431,0.929893,0.341841,0.746281,0.571148
0.159537,-0.687540,0.768337,0.803212,0.572144,0.165837
-0.044942,-0.329772,-0.318375,0.766676,0.563629,-0.307458
0.074131,-0.325281,0.859239,0.914805,0.227210,-0.333926
-0.582703,-0.843307,0.198785,-0.682515,0.730778,0.011727
-0.226101,-0.431812,-0.959157,-0.604080,0.282384,0.745216
0.295908,-0.749506,0.675044,0.903322,0.158789,-0.398490
-0.444786,-0.082089,0.445137,0.922932,-0.146142,0.356145
-0.277375,-0.308622,0.752063,0.156117,-0.235023,0.959370
-0.420387,0.195738,0.494765,-0.589135,0.520477,-0.618081
-0.534053,-0.104188,0.364892,-0.017202,0.592190,0.805615
-0.111044,-0.284100,0.014877,0.975468,-0.095581,-0.198309
-0.501778,-0.882809,0.498740,-0.473451,0.449745,-0.757346
-0.135133,-0.303571,-0.223094,-0.337623,0.941092,0.018895
-0.508108,-0.616774,0.889195,-0.064258,-0.994591,-0.081608
0.166641,-0.683792,0.662255,-0.838689,0.483981,0.249724
0.078764,0.589259,0.527399,0.910513,0.154948,-0.383349
0.035676,-0.169148,-0.178824,-0.448350,0.889251,0.090630
0.172047,-0.682489,0.917422,-0.608953,0.092265,-0.787822
0.162007,0.019185,0.450437,0.128822,-0.336918,0.932680
0.861316,-0.210330,0.676570,0.093147,0.975031,0.201590
-0.337760,-0.525601,0.683281,0.346157,0.540305,0.766972
-0.120927,-0.329966,0.911258,-0.247686,0.964048,0.096245
-0.498380,0.198732,0.735300,0.665580,-0.610674,0.429047
0.077067,0.387065,-0.967625,-0.053047,-0.044121,0.997617
-0.795369,-0.179627,0.788874,-0.778716,0.624763,-0.057204
-0.566178,-0.222694,0.626856,0.888739,-0.212707,0.406078
-0.377299,0.303571,0.409162,0.839416,0.193044,0.508050
-0.034441,0.326218,-0.962066,0.260471,-0.326321,0.908664
-0.185172,-0.410273,0.901350,0.370705,0.633795,-0.678883
-0.537763,0.082283,-0.037084,-0.552501,-0.583367,-0.595336
-0.755675,0.095389,-0.987067,-0.382945,0.098552,0.918499
0.012817,-0.012078,0.809036,0.869492,0.250084,-0.425960
-0.569883,-0.239353,0.123263,-0.169536,-0.329622,0.928766
-0.283554,0.631755,0.200426,0.672998,0.606557,-0.423276
-0.666258,-0.283906,0.104771,0.613147,0.356217,0.705095
0.204326,-0.238234,-0.035903,0.415888,-0.890550,0.184275
-0.507801,-0.456333,-0.961231,0.111138,0.105036,0.988239
-0.547185,-0.438919,-0.970362,-0.132362,0.224446,0.965455
0.067645,-0.019746,-0.205524,-0.526595,0.808260,0.263465
0.225173,-0.563046,0.575443,0.914401,0.329604,-0.235015
-0.051739,0.507067,0.520198,0.875501,0.048236,-0.480803
-0.401544,-0.303194,-0.962009,-0.063303,-0.059238,0.996235
0.178998,-0.232052,0.662284,-0.390063,-0.394043,0.832214
-0.071661,-0.492841,0.772024,0.826924,-0.213211,-0.520325
-0.212353,-0.251328,0.806443,0.850473,0.185282,-0.492307
-0.415598,0.766737,-0.982401,-0.525255,-0.176704,-0.832396
-0.730347,0.729475,0.528119,-0.603721,-0.561089,0.566304
-0.342238,-0.238794,-0.955557,0.153083,-0.209548,0.965741
-0.266875,-0.577833,0.547417,-0.703477,0.574090,0.418976
-0.385948,-0.804366,-0.375952,-0.414557,0.798056,0.437320
-0.213593,-0.596926,-0.466509,0.945067,0.085884,0.315393
-0.368801,-0.383135,-0.415816,-0.112041,-0.991997,0.058216
-0.270424,-0.390242,-0.614327,0.859064,-0.178453,-0.479754
-0.345330,-0.481049,-0.403690,0.223988,0.908262,-0.353398
-0.652509,-0.550683,0.720898,-0.727824,0.577886,0.369215
-0.544710,-0.185054,-0.129772,0.040325,0.077300,0.996192
-0.422856,-0.345313,-0.247116,0.316483,0.539265,0.780405
0.799074,-0.275301,-0.930700,-0.052999,0.179677,0.982297
-0.146411,-0.099686,-0.577199,-0.425966,0.343265,0.837092
-0.168493,-0.442107,0.544076,0.835349,0.126929,-0.534866
0.457762,-0.283906,0.668649,-0.265276,-0.958781,-0.101826
-0.111044,-0.175890,0.710673,0.317486,0.887516,0.333943
-0.479537,-0.049889,-0.591486,-0.172859,0.946466,-0.272620
-0.673671,-0.491527,0.818166,0.962421,-0.070218,0.262326
-0.026410,-0.494338,0.905526,0.508298,0.773089,0.379429
-0.788262,0.005713,0.560983,0.856729,0.065200,0.511628
-0.672898,0.442106,0.482121,0.535467,0.645751,-0.544317
-0.666875,-0.279975,0.372554,0.038346,0.639488,0.767844
-0.055910,0.040907,0.328053,-0.129257,0.653714,0.745621
-0.684789,-0.458390,0.316992,-0.261591,0.843599,-0.468947
-0.602319,-0.498646,0.383326,-0.243250,0.861369,-0.445952
-0.732821,-0.085654,0.120872,-0.476871,0.558515,-0.678715
-0.000465,0.457830,0.530971,-0.616233,0.785648,-0.054905
-0.465020,-0.757002,0.490992,0.910620,-0.371509,0.180978
-0.227025,-0.297206,0.786771,-0.466402,-0.396643,0.790660
-0.198610,0.588322,-0.972090,-0.120154,0.081142,0.989434
-0.292509,-0.575021,0.545545,0.975200,-0.167870,-0.144237
0.481082,-0.227561,0.567579,0.854373,-0.513810,0.077756
-0.103630,-0.186746,0.777899,-0.600416,0.750449,0.276274
-0.540388,-0.870823,0.497617,0.769062,-0.167596,-0.616810
-0.247103,-0.123842,0.895128,0.124518,-0.760145,0.637711
0.036911,-0.169526,0.696444,0.497513,-0.621727,0.604927
-0.136523,-0.595989,0.478607,0.414539,0.460361,-0.785000
-0.011276,-0.468125,0.569941,-0.414073,-0.732093,0.540910
-0.823785,-0.056631,-0.997638,-0.184127,0.350613,0.918242
-0.366643,0.196103,0.541340,0.330619,0.636198,-0.697096
-0.160310,-0.795933,0.744286,0.770479,0.594361,0.230430
-0.248649,0.557995,0.572418,-0.711938,0.273106,-0.646960
-0.754751,0.224933,0.181128,-0.295272,0.904758,-0.306966
0.431199,0.046529,0.519334,-0.361021,0.840718,0.403556
-0.022701,-0.466252,0.711336,0.276297,-0.893152,-0.354880
-0.631045,-0.583078,0.819203,0.960502,-0.167377,0.222307
-0.559537,0.406536,0.500583,-0.224020,0.309480,0.924141
-0.120617,-0.285780,-0.069603,-0.705982,0.650484,-0.280106
-0.321698,-0.348124,0.251005,0.575756,0.693452,-0.433161
-0.339462,-0.362350,0.763124,0.845970,0.024221,-0.532679
0.148264,-0.272674,0.891845,0.926681,-0.009450,-0.375731
-0.222392,0.217071,0.531057,-0.146994,0.105363,0.983510
-0.696680,0.647100,0.520659,-0.018550,-0.898963,0.437631
-0.362009,-0.274730,-0.444907,0.998168,0.059318,0.011890
-0.553359,-0.426373,-0.958581,0.328289,-0.297854,-0.896387
-0.532357,0.535154,0.438686,0.127519,-0.050636,0.990543
-0.525098,0.297011,0.488140,0.865788,-0.133450,-0.482288
-0.727877,0.835811,0.512825,-0.594994,-0.774976,0.213060
0.065944,-0.336137,-0.105722,0.389790,-0.719858,-0.574342
0.338223,0.158293,-0.953857,-0.192402,0.253642,0.947970
-0.549960,-0.775536,0.577228,-0.296137,0.947332,-0.121927
-0.742549,0.081163,0.566427,-0.066990,0.702487,0.708537
0.044631,-0.659270,0.897519,0.457330,0.373504,0.807059
-0.388262,-0.215015,0.711336,0.243438,0.516501,0.820953
-0.166641,-0.518677,-0.941098,0.519011,0.328034,-0.789317
-0.031816,-0.516049,0.819146,0.149839,0.973507,-0.172718
-0.040154,-0.424511,0.953109,0.934933,-0.121356,0.333427
0.085249,-0.116358,0.501966,0.637851,0.710124,0.298109
-0.427028,0.525418,0.528062,-0.313221,0.508080,0.802339
-0.105021,-0.371148,0.887380,-0.206417,0.974278,-0.090410
-0.144093,-0.579330,0.643936,0.303258,0.771420,0.559416
-0.113669,-0.534960,-0.525556,-0.634758,-0.728532,-0.257534
-0.043707,-0.490214,0.669369,-0.669111,0.742228,0.037241
-0.238921,0.033045,0.248988,0.974727,0.220363,0.036695
0.435365,-0.125521,0.701514,0.184500,-0.468957,-0.863736
-0.069191,-0.185054,-0.038668,0.563650,-0.595515,0.572417
-0.129732,0.109798,0.615479,0.352421,0.426997,-0.832750
0.204171,-0.727601,0.613405,0.367102,-0.287768,-0.884548
-0.086639,-0.246461,0.861717,-0.710146,-0.672123,-0.209629
-0.533747,-0.364041,0.416737,0.790300,0.293995,-0.537581
0.287721,-0.004022,-0.204401,-0.404173,0.912499,0.063171
-0.526489,-0.541142,0.231562,0.949931,-0.188118,0.249487
-0.046794,0.011323,0.800712,0.983065,0.107443,-0.148458
0.004941,-0.354671,0.886142,0.731070,-0.544477,0.411195
0.322782,-0.257887,0.609977,0.193451,0.975759,-0.102330
-0.328956,0.173262,-0.977102,0.328275,-0.097269,-0.939561
-0.841544,-0.058322,0.556894,-0.148720,0.762341,0.629856
-0.081545,-0.484420,0.804514,-0.594685,0.610658,-0.522920
-0.449113,-0.856973,0.485375,0.439783,0.348384,0.827780
-0.274133,0.498828,0.577833,-0.700315,0.502814,-0.506693
-0.365714,-0.201166,-0.656552,0.870319,-0.083322,0.485388
-0.443552,0.270056,-0.986232,-0.305019,-0.059115,0.950510
0.287259,-0.452585,-0.936691,-0.275858,0.047645,0.960017
-0.358767,-0.359356,0.462477,0.914758,-0.354236,-0.194253
0.238921,-0.186928,0.422412,0.176997,-0.983953,0.022550
-0.552279,-0.431241,0.073693,-0.159497,0.986289,-0.042366
-0.030426,0.051202,-0.961433,0.043824,0.109531,0.993017
-0.243087,-0.348866,-0.662169,-0.524462,0.850887,-0.030524
-0.160310,0.344946,0.428432,0.661515,-0.745847,0.078165
-0.119226,-0.265189,0.887870,0.817472,0.573782,0.050145
-0.410192,0.733977,-0.983438,0.268634,0.377137,0.886343
-0.060849,0.318733,0.689013,0.240961,0.805125,0.541952
0.081082,-0.276422,0.604678,0.923817,-0.218118,0.314620
-0.335446,0.494521,0.579417,-0.321816,0.507572,-0.799253
-0.886950,0.127966,0.575414,0.743398,0.147321,0.652424
-0.437840,-0.351117,0.628124,-0.209672,0.829781,-0.517205
-0.331275,-0.190676,0.722770,0.045200,0.997876,-0.046899
0.073824,-0.612844,0.862321,-0.255313,0.430434,0.865761
-0.500077,-0.098749,0.704365,0.892495,-0.445232,0.072260
-0.565405,0.075164,0.502830,0.527877,0.779274,0.337753
-0.154287,-0.138628,0.213244,0.612372,0.783911,0.102390
-0.228571,-0.466252,0.174676,-0.146971,-0.184777,0.971729
-0.263010,-0.069554,-0.654651,-0.129549,0.948191,-0.290089
-0.496990,-0.712998,-0.969584,0.051873,-0.102200,0.993410
-0.007261,-0.497515,-0.812722,-0.674686,-0.732836,-0.088034
-0.410809,0.907147,0.310627,0.500528,0.864810,0.039704
0.458685,-0.161093,0.661017,0.037874,0.834237,0.550104
-0.168493,-0.243844,0.696877,-0.247427,0.694640,-0.675467
-0.094826,-0.449969,0.859153,0.982789,0.181888,-0.032286
-0.362161,-0.235983,0.535147,-0.319126,-0.361041,-0.876247
-0.595523,0.633251,0.458502,-0.080752,0.981932,0.171141
-0.323706,-0.251900,-0.288218,0.345086,0.906115,-0.244687
-0.187491,-0.024990,0.238245,0.940978,0.327088,-0.087030
-0.114131,-0.198914,0.667584,0.829537,0.105580,-0.548381
-0.537607,0.051762,-0.542578,-0.743248,-0.553218,-0.376209
-0.643861,0.276238,-0.982862,-0.326642,0.164546,0.930715
0.478302,-0.047272,-0.944871,-0.250212,0.254872,0.934042
-0.248338,-0.122905,0.081671,0.453799,0.756707,-0.470596
-0.699768,-0.510439,0.396633,-0.604430,-0.643862,0.469154
-0.367105,-0.517180,0.876435,0.910557,-0.244874,-0.333050
0.558920,-0.151734,0.408241,-0.178838,0.917894,-0.354243
-0.213437,-0.358602,-0.521984,-0.684859,-0.673036,0.279268
-0.330502,0.010958,0.535435,0.371239,0.454088,-0.809929
-0.249111,-0.234669,-0.726284,0.866986,0.492285,-0.077397
-0.548420,-0.100257,0.546438,0.128574,-0.464386,0.876250
-0.655601,-0.277735,-0.981854,-0.237401,0.077169,0.968342
-0.395987,-0.418145,-0.304175,-0.657030,-0.429912,0.619263
-0.482006,0.121590,-0.977937,-0.066457,-0.031654,-0.997287
-0.769729,-0.447158,0.335340,0.629796,0.774773,-0.055537
-0.136061,-0.248152,0.929087,0.951115,0.301441,0.067188
-0.816215,0.804547,0.023259,0.904224,0.426881,-0.012295
-0.452974,-0.542261,0.463111,-0.057486,-0.991807,0.114076
-0.392744,-0.157539,0.687890,-0.716854,0.463455,0.520894
-0.817300,-0.206399,0.129110,0.225649,0.677497,0.700057
-0.306103,-0.638119,-0.961375,0.345397,0.037797,-0.937695
-0.550578,-0.884866,0.856302,-0.384875,-0.889383,0.246716
-0.411427,-0.137508,0.713438,-0.054153,-0.296811,0.953400
-0.539615,-0.361790,0.406570,-0.138376,-0.633398,0.761353
-0.235673,0.550499,0.327707,0.297203,0.046147,0.953698
-0.072896,0.248711,0.727091,-0.582482,0.628428,-0.515550
-0.484325,-0.129647,0.474488,0.276333,0.466085,0.840479
-0.317220,-0.898909,0.563086,-0.501325,0.865212,0.008967
-0.205095,0.009826,0.154514,0.864932,0.501847,0.006469
-0.097913,-0.332401,0.909558,0.069110,-0.982168,0.174842
-0.301776,-0.554991,-0.636735,0.120986,0.509470,0.851940
-0.113358,0.021253,-0.301007,0.982557,-0.125774,-0.136978
-0.316603,-0.342696,0.873439,-0.374039,0.890573,-0.258796
-0.528497,0.124779,0.740744,-0.757863,0.369549,-0.537658
-0.465638,0.587202,0.174590,-0.597270,-0.657684,0.459044
-0.404942,0.677438,0.595806,0.226784,-0.943776,-0.240531
-0.771120,-0.042027,0.561790,-0.337732,0.344974,0.875745
-0.167724,-0.364783,-0.218975,-0.333216,0.919265,0.209566
-0.249111,-0.114849,0.697309,0.829712,-0.218014,-0.513857
-0.075215,-0.188059,-0.439146,0.963150,-0.248959,-0.101794
-0.290813,-0.313867,0.118280,0.097449,0.647647,-0.755683
0.105176,-0.435925,-0.952878,-0.352313,0.049352,0.934580
-0.141623,-0.012821,0.649524,-0.471376,0.002259,-0.881929
-0.050192,-0.680798,0.808690,0.617465,-0.304468,-0.725284
0.118608,-0.711135,0.908493,-0.894804,0.188382,0.404768
-0.377917,-0.310495,-0.004018,-0.016876,0.310252,0.950505
-0.332666,-0.384072,0.746907,-0.286514,-0.385213,0.877224
-0.704868,0.014889,0.559140,0.189829,-0.257742,0.947383
0.242937,-0.552934,0.655659,0.995685,0.088941,-0.026480
-0.400309,-0.225127,0.688840,-0.678383,-0.078469,0.730506
0.045404,-0.059818,0.612512,0.071186,-0.133209,0.988528
-0.858224,0.489847,-0.134582,0.874836,0.484363,0.007360
-0.089265,-0.110735,-0.345651,0.833383,-0.534404,-0.141017
0.431505,-0.136948,0.635641,-0.341851,0.384923,0.857305
0.085249,0.426750,0.389576,-0.306977,0.632861,0.710811
-0.042006,0.461383,0.536328,-0.383737,-0.885812,0.260929
-0.274751,-0.219506,0.813270,-0.085006,0.853916,-0.513422
0.340230,-0.254517,0.571842,-0.174653,-0.963743,-0.201730
-0.061777,-0.098943,0.756096,-0.761572,0.564838,-0.317752
-0.488802,-0.374336,-0.403805,0.015784,-0.949871,0.312243
0.219305,-0.820088,0.660527,0.776052,0.527758,-0.345275
-0.474597,-0.236359,0.670205,-0.554376,0.659998,0.507020
-0.008495,-0.373205,0.821277,0.914175,-0.179332,0.363489
-0.039075,-0.531589,0.711364,0.484912,0.172357,0.857411
-0.739307,-0.347186,-0.977476,-0.284777,0.307043,0.908090
-0.029191,0.417768,0.527485,-0.889577,0.358981,0.282464
-0.663476,-0.536651,0.387042,0.346650,0.937941,-0.010003
-0.587030,0.194800,-0.421288,0.773428,0.456737,-0.439546
-0.122780,-0.515306,-0.474948,0.994797,-0.023720,-0.099076
-0.886027,0.105490,0.552227,-0.167068,-0.320238,0.932489
-0.339768,0.394549,0.530366,0.712895,0.699606,0.048294
-0.016060,-0.474491,0.934156,0.972754,0.069052,0.221318
-0.732048,-0.046153,0.571957,0.769100,0.639023,0.011622
-0.175133,0.422453,0.227876,-0.742478,-0.306035,0.595876
-0.295135,-0.864275,-0.317108,0.964779,0.055420,0.257158
-0.232431,-0.355985,0.054135,-0.529885,0.369094,-0.763539
-0.197530,-0.516803,0.794375,0.766941,0.633888,-0.099937
-0.493436,0.443044,0.414577,-0.132854,-0.890301,0.435562
0.022239,-0.515683,0.679854,0.279873,0.939878,-0.195704
-0.580695,-0.752877,0.804168,0.993738,0.036142,0.105728
-0.556450,0.008147,-0.108717,0.864600,0.481074,-0.145032
-0.397683,0.553688,0.568040,0.798209,-0.601385,-0.034613
-0.473669,0.395487,-0.988076,-0.141924,-0.156811,0.977378
0.130500,-0.046518,0.818022,-0.215916,-0.943148,-0.252690
-0.279845,-0.229801,-0.963132,0.175245,-0.094689,-0.979961
-0.282626,-0.400731,0.773608,0.910294,0.349360,-0.222063
-0.529420,-0.514369,0.428633,0.611209,0.290373,-0.736279
-0.361237,-0.418329,0.423276,0.477416,-0.721086,-0.502104
-0.509809,-0.202091,0.671760,0.027574,-0.999361,-0.022740
-0.274284,-0.904337,-0.953253,0.215124,-0.342496,-0.914559
-0.225791,0.456333,0.217823,-0.703186,-0.155704,0.693748
-0.132357,-0.213518,-0.018621,0.920554,-0.379905,-0.090841
-0.096523,-0.068617,0.916817,0.972596,-0.058223,0.225095
-0.509654,-0.572405,-0.964975,0.056366,0.079250,0.995260
-0.491277,0.271930,0.475409,-0.084732,0.051376,-0.995078
-0.152124,-0.494716,0.421634,0.152539,0.596022,-0.788346
-0.580233,-0.885049,0.495111,-0.709397,-0.049714,0.703053
-0.754902,-0.332583,0.125769,0.936447,-0.213618,0.278269
-0.356759,0.602365,0.363423,-0.404071,-0.667994,0.624908
-0.057913,-0.414215,0.906822,0.903057,-0.005254,0.429489
-0.606640,-0.103434,0.549203,0.035013,-0.589168,0.807252
-0.372355,0.582700,0.194781,0.486206,0.699898,-0.523208
-0.081856,-0.272674,0.123954,0.946140,-0.284180,0.155114
-0.298227,-0.433492,0.573743,-0.087381,-0.587574,0.804438
-0.437066,0.490030,0.327390,0.662360,0.624696,-0.413562
-0.162469,-0.538514,0.791120,0.978236,0.203706,0.039464
0.172047,0.080032,0.855581,-0.642014,0.722609,-0.256232
-0.490193,0.030418,0.167735,0.596970,0.017323,-0.802076
-0.162469,0.382757,0.746879,-0.599288,0.623358,0.502274
-0.254979,-0.181877,-0.963362,-0.003571,-0.141368,0.989951
-0.233821,0.746889,-0.983121,0.435427,0.063613,-0.897974
-0.009575,-0.374519,0.862811,-0.068835,-0.878475,0.472804
-0.355831,-0.391179,0.673517,-0.151600,0.763826,0.627365
-0.594443,-0.688477,0.632271,0.879033,0.037681,0.475269
-0.595678,0.267805,-0.215260,-0.753374,-0.232833,-0.614993
-0.706102,0.080786,0.142561,0.924056,0.326825,-0.198257
-0.724941,-0.046712,0.565073,0.214463,0.542066,0.812508
-0.206179,-0.218763,0.820931,0.092377,0.995258,-0.030462
-0.002005,0.041661,0.484050,0.247970,-0.216524,0.944261
-0.047412,0.223630,0.705431,0.827937,0.345224,0.441975
-0.401854,0.294018,0.553552,0.709970,-0.193809,0.677038
-0.440771,-0.078535,0.717845,-0.139837,-0.091721,0.985917
-0.457917,0.424132,-0.984101,0.375240,-0.096534,-0.921887
-0.221007,-0.326596,0.161629,0.297336,-0.821088,-0.487243
-0.380231,-0.543199,0.391736,-0.356476,-0.916693,-0.180552
0.325869,-0.879438,0.749384,-0.101256,-0.937641,0.332531
-0.088341,-0.678741,-0.950862,-0.233785,-0.056640,0.970637
-0.304094,0.297206,0.515907,-0.487113,0.327194,-0.809731
-0.292048,-0.257887,0.075479,0.507867,0.345897,-0.788940
-0.203554,-0.308804,0.689388,0.840068,-0.152513,0.520601
-0.186407,-0.501263,0.794288,0.380045,-0.514108,0.768933
-0.325096,-0.264995,0.796765,0.761657,-0.603731,-0.235345
-0.079537,-0.310873,0.851664,-0.112910,0.672811,-0.731148
-0.078146,-0.534960,0.792100,-0.461300,0.797978,0.387856
-0.461004,-0.498646,0.174561,0.538209,0.742601,0.398591
-0.183476,-0.312370,-0.794836,0.878084,0.473110,0.071664
0.165561,-0.014135,0.707994,0.299130,0.938007,-0.175109
0.202936,-0.816534,-0.295304,0.535199,0.548448,0.642470
-0.124943,0.473370,0.561272,0.110385,-0.974930,-0.193199
-0.589961,-0.671817,0.670003,-0.034704,-0.980806,0.191871
-0.486795,0.169331,-0.435949,0.808256,0.586323,-0.054283
-0.654211,-0.310873,-0.028673,-0.684191,0.729302,-0.001351
-0.252664,0.001405,0.254951,0.927501,0.361111,0.096649
-0.225791,0.456333,0.337011,0.933856,-0.355934,0.034983
-0.038457,0.195543,-0.941126,-0.014282,0.186615,0.982329
0.275057,-0.678741,0.536962,0.488522,-0.565127,-0.664814
-0.110889,0.148180,0.669312,0.362291,0.724446,0.586450
-0.391816,-0.845170,0.307055,0.990713,-0.119636,-0.064613
-0.570349,-0.485540,0.824388,0.497237,-0.743688,0.446860
-0.770041,0.197977,0.181618,-0.295272,0.904758,-0.306966
-0.276603,-0.295698,0.377997,0.981435,-0.090662,0.169012
0.196296,-0.546387,0.657647,0.862279,0.471134,-0.185763
-0.501622,-0.239353,0.745237,0.765491,0.544163,-0.343380
-0.348110,-0.483289,0.708513,0.017056,-0.086288,0.996124
0.095137,-0.744456,0.913476,0.789313,-0.335597,-0.514160
-0.312277,-0.352614,-0.302850,0.074591,0.763869,-0.641047
0.815292,-0.086591,0.610870,-0.028747,0.997837,0.059126
0.110427,-0.702520,0.526794,-0.067000,0.696398,0.714522
-0.238304,-0.035285,0.663119,0.310827,0.258779,0.914560
-0.296219,-0.360475,0.809583,-0.009589,0.497105,0.867637
-0.568959,-0.908827,-0.957544,0.373677,-0.025704,-0.927203
-0.083708,-0.549563,0.827153,0.848935,-0.374902,0.372502
-0.236141,0.406353,0.541829,0.767049,-0.599978,0.227292
0.030581,-0.604228,-0.088497,0.988225,0.132561,0.076408
0.103630,-0.412524,0.936201,0.803678,-0.014937,-0.594877
0.479230,-0.119534,0.652059,0.418973,-0.632400,-0.651561
-0.501005,0.996823,-0.991878,0.588804,0.473187,0.655289
-0.341621,-0.138251,-0.969872,0.193084,0.319946,-0.927552
-0.602469,-0.884866,-0.966243,-0.387134,-0.115035,0.914819
-0.482317,-0.512495,0.728531,0.749916,0.661468,0.009247
-0.199845,-0.600674,0.557210,0.229684,0.247034,0.941392
-0.234133,0.052140,0.541340,0.194515,0.485656,-0.852234
0.164171,-0.232612,0.599666,0.063053,-0.740098,0.669536
-0.123553,-0.725167,0.484050,0.145150,-0.803210,0.577741
0.037684,-0.402228,-0.950948,-0.230072,-0.143265,0.962571
-0.389808,-0.038474,-0.047021,0.719357,0.675419,0.162280
-0.029808,-0.146683,0.853018,-0.085294,-0.957541,-0.275392
-0.651585,-0.623322,0.746418,0.985807,-0.165998,-0.025102
-0.218843,-0.553871,0.721186,0.754619,-0.522572,0.396823
0.440927,-0.092956,0.694428,0.336578,-0.678027,-0.653448
-0.042162,-0.500326,0.684203,0.144666,-0.971850,0.185954
-0.309651,0.109056,0.534024,0.314954,-0.004800,-0.949095
-0.361699,-0.407096,0.238389,0.979483,0.169314,-0.109296
-0.167413,-0.250586,0.133661,0.905219,0.375492,0.198958
-0.372666,0.640930,0.568386,-0.123241,-0.916500,0.380577
-0.116756,-0.338205,0.821939,-0.047973,0.992657,0.111048
-0.544866,-0.844610,0.838357,-0.229000,0.954501,-0.191014
0.346409,-0.581020,-0.928568,-0.598959,-0.193049,0.777162
0.037990,-0.528218,0.856590,-0.473557,0.668363,0.573615
-0.123397,-0.522608,0.925775,0.519777,-0.014645,-0.854177
0.157374,-0.319477,-0.888158,0.540981,0.540976,0.643961
-0.056216,-0.551997,0.941415,0.921521,0.387459,-0.025977
-0.133130,-0.272868,0.803275,-0.398183,0.883501,-0.246732
-0.433206,-0.592995,0.487939,0.246034,0.287055,0.925779
-0.402472,-0.368908,0.723663,0.860859,-0.125709,0.493071
-0.558920,-0.295698,0.330789,-0.041183,-0.887839,0.458307
0.251274,-0.766737,0.757363,0.778917,0.520086,-0.350427
-0.429497,0.828886,-0.988652,0.918585,-0.013351,0.394997
-0.042623,-0.233172,0.783862,0.080373,0.653581,0.752577
-0.197992,-0.345506,0.850483,0.442395,-0.613374,0.654262
-0.124943,0.195166,0.657762,0.839477,0.263168,0.475417
0.320157,-0.411964,0.001368,-0.181849,0.906691,0.380583
-0.613126,-0.079096,0.552832,-0.355208,-0.053134,0.933276
-0.460694,0.023687,-0.146104,0.591637,0.715853,0.370836
-0.259305,0.542638,-0.969238,0.394604,0.242985,-0.886141
-0.284789,-0.612661,0.798638,-0.626034,0.286079,0.725424
-0.298688,0.019756,0.311318,0.768768,0.335860,0.544237
-0.015292,-0.041467,-0.013465,-0.086391,0.976856,0.195675
-0.445871,-0.732103,0.186918,0.805197,-0.551037,-0.219126
-0.514442,-0.619586,-0.962239,0.112983,0.073423,0.990880
-0.149188,-0.331841,0.088440,0.895036,-0.389530,-0.217204
-0.404324,-0.209027,0.192275,-0.378873,0.888647,0.258383
-0.200311,-0.244598,0.855063,-0.694897,0.718171,-0.036732
0.249267,-0.655156,0.523079,0.475443,0.867004,0.149190
-0.423785,-0.388185,0.717154,-0.201143,0.577527,-0.791204
-0.783167,-0.005519,0.533736,0.835673,0.014229,0.549043
-0.480927,-0.126276,0.595259,0.218825,-0.924452,0.312256
0.142858,-0.518483,0.896799,-0.551109,0.788390,-0.273350
-0.604944,-0.594127,0.494823,0.182372,-0.792233,-0.582329
-0.248032,-0.667509,0.870213,-0.056509,0.484730,0.872836
-0.334829,0.727978,0.197114,-0.696353,-0.002525,0.717695
-0.529887,-0.366098,0.104051,0.894238,-0.419922,0.154930
-0.184866,-0.136571,0.519075,0.558773,0.184555,-0.808525
0.092818,-0.519054,0.522330,0.295549,-0.304132,0.905624
-0.316292,0.456150,-0.241269,0.862828,0.259250,0.433956
-0.057913,0.410089,0.651339,0.332461,0.940008,-0.076519
-0.531584,-0.847798,0.499057,0.731201,-0.319386,-0.602775
-0.422856,0.049522,0.389461,-0.498430,-0.688216,0.527187
-0.088341,-0.247032,0.851491,0.822955,0.527869,-0.210000
-0.280157,-0.671257,0.897922,0.156813,0.688521,0.708060
0.063012,-0.284100,-0.924363,-0.303754,0.248657,0.919730
-0.095444,-0.061121,0.625934,-0.454768,-0.666347,-0.590904
0.198765,-0.652529,0.722886,-0.001613,0.962094,0.272713
0.190890,-0.182632,0.391621,0.460094,-0.886908,-0.041326
-0.369885,0.630634,0.572159,0.396000,0.906066,-0.149092
-0.121083,0.719739,0.581837,0.273082,0.946271,-0.173197
-0.113203,0.115420,-0.333237,0.984635,0.008099,0.174438
-0.238148,-0.638119,0.756297,0.163298,0.971374,0.172530
0.439847,-0.150614,0.657042,-0.410889,0.822638,0.392984
-0.455598,-0.093139,-0.978743,0.404231,-0.183207,-0.896121
0.071661,-0.608353,0.718968,-0.655294,-0.183800,0.732672
-0.016527,-0.229058,-0.230842,-0.701049,0.697773,0.147117
-0.314751,-0.622762,0.603295,0.586194,-0.086433,0.805547
-0.082473,-0.423379,0.701370,-0.358397,0.514132,-0.779243
-0.289112,-0.582883,0.280873,0.963829,-0.105919,-0.244570
-0.615289,-0.281666,0.391938,-0.122365,0.329634,0.936145
0.242314,-0.242725,0.598860,-0.508883,0.040064,-0.859903
-0.128341,-0.378073,0.725276,0.297342,-0.871207,0.390622
-0.210350,-0.299263,0.812665,-0.533876,-0.049998,0.844083
-0.350580,0.309741,0.327131,-0.181586,-0.234045,0.955118
0.092357,0.135828,-0.092559,0.813508,-0.264295,0.518028
-0.367105,-0.623699,-0.054078,-0.163504,0.647625,0.744210
-0.711353,-0.425070,-0.972839,-0.262748,-0.026287,0.964506
0.079075,-0.112792,0.727523,-0.763500,0.560481,0.320825
-0.574671,-0.583820,0.849994,0.219432,0.966413,-0.133777
-0.548108,-0.910141,0.490675,0.707720,0.517385,-0.481088
-0.001082,-0.315364,0.839682,-0.612247,0.727802,0.308964
-0.170967,0.195360,0.716318,-0.308082,-0.263083,-0.914261
-0.602008,0.548066,0.441710,0.481697,0.242759,0.842043
-0.472589,-0.057191,-0.978225,-0.038302,0.148415,0.988183
-0.531890,-0.599177,0.871337,0.336139,0.933462,-0.125136
-0.490966,-0.098006,0.703444,0.936911,-0.299316,0.180573
-0.345947,0.512129,0.580397,-0.495452,0.308447,-0.812027
0.886488,-0.133578,0.247260,-0.110237,-0.987267,0.114684
-0.449575,-0.823082,-0.650935,0.715140,-0.015690,0.698805
-0.536061,-0.178884,0.469159,-0.493072,-0.429257,-0.756716
-0.297298,-0.250963,0.738929,0.345529,-0.903759,-0.252644
0.002934,-0.042405,0.749125,-0.682930,0.621278,-0.384213
-0.510582,-0.431812,0.709607,-0.330827,0.941755,-0.060414
-0.265018,0.250962,0.182136,0.172777,0.256644,-0.950938
-0.356142,-0.387066,0.720869,-0.663121,-0.744853,-0.073924
-0.585021,0.147060,0.742299,-0.493657,0.662591,-0.563272
-0.814519,-0.367595,0.302447,0.945875,0.134010,0.295569
-0.293438,0.299823,0.356856,0.990598,-0.104515,-0.088277
-0.498069,0.498646,0.321659,0.984531,0.109469,-0.136802
-0.157374,-0.546947,-0.370969,0.685681,0.285419,0.669610
-0.006021,-0.237856,0.756902,0.594843,0.680570,-0.427770
-0.271659,-0.118414,0.387560,0.909993,-0.101672,-0.401965
-0.630423,-0.636428,-0.094834,-0.098232,0.946000,0.308923
-0.385637,-0.643364,0.763613,-0.205406,0.889153,0.408918
-0.593821,-0.449592,0.512652,0.101165,0.450206,-0.887175
0.089575,-0.294955,0.753993,0.063326,0.488803,0.870092
-0.593670,-0.460447,0.097081,0.679586,-0.726079,-0.104745
0.313822,-0.327532,0.535896,0.857847,0.448948,-0.250089
0.012511,0.165034,-0.966358,0.060466,0.079668,0.994986
-0.538536,-0.347003,0.648026,0.789643,0.476533,0.386498
-0.558609,-0.109056,0.499978,-0.614337,-0.325349,-0.718845
-0.092512,0.253956,0.551277,0.535501,0.808651,-0.243563
-0.391660,-0.405782,0.164595,0.870888,0.106411,-0.479825
-0.619149,-0.134697,0.546467,-0.029757,0.611476,-0.790704
-0.176835,0.552750,0.536011,0.830320,-0.394013,0.394111
0.694984,-0.226064,0.704077,-0.093409,0.995622,-0.003373
0.145328,-0.085083,-0.667007,0.560215,0.651151,-0.512017
-0.367722,0.875313,0.326613,0.265915,0.733445,0.625577
-0.133130,-0.295332,0.605657,0.132122,0.445767,0.885345
0.075983,-0.093698,-0.654709,-0.562254,0.631293,-0.534172
0.078146,-0.398674,0.795383,0.619882,0.781277,-0.073158
-0.732821,-0.346067,0.125596,0.816037,-0.222146,0.533605
0.330191,-0.473748,0.528926,0.944419,-0.012584,0.328505
-0.098997,-0.399417,0.866642,0.196178,-0.376700,0.905324
-0.529576,-0.907707,0.495053,0.384094,0.420443,-0.822009
0.299462,-0.799680,0.695177,-0.434168,0.871915,0.226413
-0.566178,0.469622,0.498999,0.033197,-0.175459,0.983927
0.307493,-0.350740,-0.925285,-0.138770,0.536095,0.832673
-0.690346,0.565857,0.027896,0.885874,0.463361,0.022868
-0.253126,-0.062995,0.418782,-0.748886,0.596664,0.288377
-0.410503,0.801931,-0.998214,-0.753316,-0.159045,-0.638137
-0.031505,-0.224933,0.714504,-0.023288,0.515235,0.856732
-0.175600,-0.815780,-0.175281,0.744393,0.666466,0.041252
-0.550734,0.209404,-0.437130,-0.723590,-0.409713,0.555475
-0.123397,-0.034920,-0.476965,0.806216,0.023528,-0.591153
-0.133747,-0.339142,0.868802,0.201729,0.185477,0.961719
-0.118147,-0.118597,0.932169,0.979380,-0.113338,-0.167239
-0.457451,-0.247032,0.780578,-0.136849,-0.928643,-0.344811
-0.157374,-0.587751,0.900341,-0.692876,0.692852,-0.199697
-0.075521,-0.419448,-0.161744,0.990282,0.139072,0.000911
0.100538,-0.380324,0.797831,0.804866,0.480476,0.348329
0.016678,0.002902,0.509800,0.652651,0.719727,0.236728
-0.558147,-0.449969,0.618762,0.713110,0.700063,0.037235
-0.894053,-0.042405,0.579706,-0.193231,-0.266590,0.944241
-0.163709,-0.481049,0.535003,0.284021,0.046630,-0.957684
-0.445404,-0.440610,0.706900,0.311748,-0.743912,-0.591107
-0.301776,-0.570531,0.871164,0.212737,-0.244125,0.946122
-0.574516,0.215574,-0.986261,-0.311486,0.069203,0.947728
-0.487879,-0.404845,0.614212,-0.081697,0.153136,0.984822
0.008651,-0.227561,0.039792,-0.867034,0.472446,0.158261
-0.454519,-0.778335,0.592955,0.030053,0.959203,0.281115
-0.250657,-0.340639,0.875744,0.102119,-0.976978,-0.187314
-0.587802,0.117854,-0.144001,-0.647793,-0.352669,0.675269
-0.799074,0.181134,0.565016,-0.386152,0.315279,0.866882
-0.554443,-0.778713,0.816323,0.847822,-0.486969,0.209904
-0.263321,0.614717,0.215721,0.970518,-0.088867,-0.224048
0.258844,-0.585888,0.677262,0.583625,-0.221379,-0.781264
-0.136373,0.574655,0.217766,0.641791,-0.054107,-0.764968
-0.166951,-0.295893,-0.674496,0.955779,0.289549,-0.051454
-0.096372,-0.241033,-0.636879,0.147867,-0.904572,0.399857
-0.024091,-0.772531,0.806098,0.920126,0.019606,-0.391132
-0.705485,0.607599,0.484626,-0.843670,-0.344237,0.411973
-0.704556,-0.514187,0.690972,0.845570,-0.351151,-0.402123
0.269189,0.116917,-0.207022,0.437312,0.628822,-0.642917
-0.160310,-0.470743,0.655169,0.663051,0.516481,-0.541859
-0.345947,0.176826,0.352391,0.881535,-0.438333,0.175386
-0.066717,0.408216,-0.224304,-0.620706,0.493998,0.608843
-0.279228,-0.470743,0.317136,0.195680,0.944269,0.264700
-0.324323,-0.379204,-0.090600,-0.531922,0.832190,0.156585
-0.375598,-0.523168,0.467085,0.578824,-0.776669,-0.248491
-0.298995,-0.549003,0.737719,-0.567450,0.143458,0.810814
-0.082162,0.045958,0.474142,-0.666728,-0.541483,0.512123
-0.282932,-0.196858,-0.968720,-0.124840,-0.165095,0.978345
-0.656680,-0.471119,0.786252,0.930549,-0.359370,0.070227
-0.672587,-0.234486,0.401414,-0.399116,0.435529,0.806859
-0.376215,0.011141,0.683310,0.906743,0.372519,0.197601
0.312894,0.044095,-0.949825,-0.169353,0.305784,0.936918
0.477990,-0.003085,-0.948241,0.258780,-0.149651,-0.954273
0.392589,0.112426,0.514582,-0.181939,0.967926,0.173253
-0.717532,-0.510439,-0.985512,-0.413827,-0.116051,0.902928
0.519848,-0.094636,-0.941040,0.292687,-0.199737,-0.935115
-0.085249,-0.407279,0.912957,-0.355988,0.931185,0.078524
0.059920,-0.389122,0.901148,-0.502730,-0.571214,0.648828
-0.465638,-0.216512,-0.629535,-0.574534,0.610962,0.544643
0.886488,-0.169526,0.238792,0.081858,0.996416,-0.021324
-0.488185,-0.447341,0.097830,0.617339,-0.697661,-0.363540
-0.079225,-0.595246,-0.775278,-0.186387,-0.971969,0.143305
0.096372,0.335210,-0.959964,0.114950,0.119884,0.986111
0.122624,0.126652,-0.967625,-0.107865,0.173722,0.978870
-0.308110,0.119910,0.685211,-0.353670,0.586915,-0.728318
-0.261313,0.023493,0.398131,0.847495,-0.193331,-0.494343
-0.157685,-0.023870,-0.168656,0.349676,0.925783,-0.143708
-0.077529,0.356362,-0.316359,-0.243453,0.930760,0.272794
0.118920,-0.459705,0.588058,0.364195,-0.244223,-0.898731
-0.248032,-0.205839,-0.528263,0.832341,0.554261,-0.001953
0.031505,-0.062812,0.825309,0.444720,-0.451403,-0.773602
-0.653438,-0.198914,0.538171,-0.478494,-0.581362,0.658074
0.191196,-0.073668,0.752610,0.959886,-0.211307,-0.184303
-0.087413,-0.237662,0.872402,-0.513540,-0.840964,0.170460
-0.256218,-0.599555,0.763757,0.776477,0.571923,-0.264553
-0.640462,0.518299,0.514639,0.751661,-0.123027,0.647974
-0.960928,0.070114,0.606665,0.980230,0.139563,0.140257
-0.129265,0.333143,-0.496695,0.976311,-0.185421,-0.111516
0.306253,-0.314426,0.615306,0.862042,-0.440257,-0.251110
-0.381621,0.094258,0.344384,0.965617,0.146879,0.214501
-0.453435,0.246095,0.158172,-0.392424,0.919029,0.037261
-0.256369,0.300200,-0.973674,-0.199941,-0.009894,0.979758
-0.685869,-0.675370,-0.960885,-0.537585,0.147514,0.830206
-0.168030,-0.151928,0.766465,-0.037019,0.923199,0.382536
-0.483246,0.019380,0.666748,-0.132670,-0.749432,0.648652
-0.294056,0.143689,0.473912,0.311651,-0.538083,-0.783161
-0.835370,0.202662,0.560983,0.284863,-0.521792,-0.804106
-0.038457,0.211461,0.193600,0.422404,0.391491,-0.817502
0.041388,-0.610787,0.899967,-0.726008,0.165590,0.667453
-0.224094,-0.557985,0.878854,-0.314718,0.826559,-0.466640
-0.374825,-0.033412,0.693506,-0.533839,0.157146,0.830855
-0.070732,0.056630,0.680660,-0.523138,-0.651756,-0.549127
-0.211274,0.629137,0.554819,-0.361938,0.760292,-0.539405
-0.436293,0.067496,0.689416,0.835217,-0.284624,0.470534
0.022239,-0.724231,-0.942941,-0.171080,0.146729,0.974270
0.249111,-0.705890,-0.932255,-0.075599,-0.030153,0.996682
-0.122162,-0.180940,0.892219,0.774103,-0.473361,0.420350
0.762933,-0.175330,0.508850,-0.346901,-0.910566,-0.224790
0.336215,-0.872696,0.648113,-0.162681,-0.968893,0.186498
-0.422239,-0.075165,0.698806,0.731106,0.108199,0.673630
-0.417606,0.401851,0.336607,-0.564618,-0.815527,0.126972
0.221930,-0.359173,0.049556,-0.239078,-0.841186,0.485024
-0.053435,0.062435,0.550758,0.834117,-0.337477,0.436300
0.029808,-0.246095,0.866440,-0.228642,-0.962138,0.148371
0.167102,-0.385945,-0.269496,0.950046,0.016971,-0.311647
-0.498380,-0.662641,-0.004968,0.957895,0.225981,-0.177113
-0.409730,0.283163,0.321601,-0.657448,-0.357965,0.663040
-0.103630,0.577832,-0.974624,0.127217,0.090544,-0.987734
-0.324634,0.250208,0.640192,0.989490,-0.134770,-0.052406
-0.749345,-0.221939,0.127267,0.802708,0.319902,0.503312
-0.470888,-0.677244,0.786828,0.108867,0.066595,0.991823
-0.080465,-0.371902,0.625128,0.721404,0.596139,-0.352412
-0.414363,-0.247215,0.756700,0.868339,-0.260462,-0.422074
-0.190734,-0.362726,0.064044,-0.243306,0.911818,-0.330742
-0.589654,-0.733966,0.330588,0.774245,0.189080,0.603981
-0.234594,-0.270240,-0.365410,0.737081,0.633379,-0.235675
-0.010037,-0.409347,0.831185,-0.710589,-0.700965,-0.060923
-0.459308,-0.716186,-0.959935,-0.100697,-0.126798,0.986804
-0.728650,-0.561356,-0.980472,-0.255304,0.005896,0.966843
0.365408,-0.718803,-0.324568,0.517618,0.486175,0.704063
0.216835,-0.334080,0.772917,0.824799,-0.554280,-0.111715
-0.080465,0.206776,0.225168,-0.726593,-0.460571,-0.509841
-0.261931,-0.866138,0.567637,-0.344156,0.938732,0.018419
0.005715,-0.434428,0.694169,0.994109,-0.104475,-0.028854
0.216835,-0.243662,0.415326,-0.129009,0.877995,0.460956
-0.587647,-0.029298,0.352276,0.021277,0.531396,0.846856
-0.518609,0.396046,0.496148,-0.752608,-0.397820,0.524711
-0.224711,-0.783957,0.551104,0.302220,-0.268316,-0.914696
-0.120772,-0.765240,0.802699,-0.644237,-0.261365,0.718782
-0.074442,0.345689,0.665107,0.622750,-0.166761,-0.764443
-0.507335,-0.841810,0.496580,0.447175,0.023016,0.894150
0.187180,-0.777033,0.752553,-0.148115,-0.489715,0.859209
-0.422394,0.011323,0.440126,-0.875858,-0.174001,-0.450107
-0.051583,-0.666572,0.553552,0.620357,-0.164116,-0.766957
-0.258844,0.094258,0.256045,0.742891,-0.014460,0.669256
-0.019925,0.250962,0.017210,0.833600,0.462248,-0.302386
-0.138998,0.549757,-0.967280,-0.168449,-0.008780,0.985671
-0.397377,0.034360,0.388971,0.489414,-0.153829,0.858377
0.550427,-0.046153,0.437908,-0.767463,0.376230,-0.519087
