-0.100564,-0.030557,-0.937621,0.886040,-0.463609,0.000894
-0.033635,0.071897,-0.960441,-0.368990,0.647015,0.667247
-0.418528,-0.225154,-0.970095,0.571192,0.219474,-0.790931
-0.123371,0.165102,-0.974990,0.115904,-0.766220,0.632038
-0.603743,-0.252580,-0.985826,-0.544266,-0.045105,0.837699
-0.415189,-0.009791,-0.979075,-0.174940,-0.594632,-0.784735
-0.176766,0.276039,0.903322,-0.573907,0.358401,0.736329
-0.137086,0.343936,0.876587,0.801927,-0.296449,0.518683
-0.131157,0.369401,0.844247,0.975219,0.161017,0.151731
-0.127632,0.391675,0.811233,-0.499865,0.864497,-0.052727
-0.154518,0.378642,0.770488,-0.533651,0.247720,-0.808611
-0.169722,0.378642,0.733423,0.983992,-0.080673,0.158905
-0.038456,0.554451,0.725389,0.077387,-0.385225,0.919572
-0.211993,0.363943,0.653385,-0.505659,-0.411054,-0.758514
-0.257042,0.230427,0.870510,0.863005,0.352579,0.361815
-0.119660,0.415014,0.865210,0.935732,0.334397,0.112180
-0.199200,0.337729,0.813799,0.877422,-0.193684,-0.438881
-0.174536,0.386375,0.783687,0.866740,-0.495434,0.057503
-0.241658,0.324538,0.734098,0.252238,-0.281114,0.925932
-0.133935,0.472309,0.722688,-0.706467,0.214970,0.674309
0.043677,0.703119,0.725861,0.720080,-0.055851,0.691640
0.085767,0.771016,0.699227,-0.185435,-0.934578,0.303607
-0.023807,0.677515,0.606699,0.931871,0.310521,0.187596
-0.355305,0.317572,0.823824,-0.323218,0.716935,-0.617685
-0.415563,0.281497,0.742166,-0.109310,-0.066028,0.991812
-0.269467,0.475334,0.738453,-0.285848,0.156871,-0.945348
-0.069789,0.787083,0.639983,-0.681248,0.731735,-0.021595
-0.099268,0.360910,0.872468,0.073909,-0.269420,0.960182
-0.147842,0.324538,0.827774,-0.597842,-0.703475,0.384329
-0.115767,0.382287,0.800734,0.600268,-0.701181,0.384738
-0.191409,0.312115,0.751415,-0.593503,0.705396,0.387517
-0.163973,0.365461,0.721945,-0.435431,0.674030,-0.596727
-0.011201,0.566726,0.720021,0.351810,-0.090078,0.931727
0.038488,0.646444,0.695176,0.258230,0.600104,0.757095
0.014198,0.658719,0.620066,0.495326,-0.133194,-0.858436
0.036819,0.704341,0.590833,0.631787,0.688471,0.356165
-0.152289,0.254366,0.979141,-0.663743,-0.374624,-0.647381
-0.152850,0.293319,0.909466,-0.612447,0.546130,0.571533
-0.144136,0.322568,0.878139,0.792625,-0.223637,0.567214
-0.122811,0.366062,0.848872,0.060469,-0.613222,0.787593
-0.097412,0.415014,0.819098,0.549812,0.821958,0.148632
-0.081654,0.454271,0.788852,-0.346929,0.668022,-0.658322
-0.174910,0.363037,0.734435,-0.498238,0.866077,-0.040860
-0.076834,0.500346,0.719312,0.615030,-0.465984,0.636079
0.014198,0.629016,0.703109,0.372280,0.685393,0.625814
0.096703,0.746318,0.686669,0.507067,-0.856686,0.094722
0.186807,0.873018,0.671749,-0.690598,0.187765,0.698440
0.024399,0.699641,0.602411,0.468778,0.624969,0.624228
-0.118731,0.361973,0.866257,0.918285,-0.181149,0.352049
-0.270762,0.199208,0.799857,0.592724,0.787117,0.170661
-0.166196,0.229816,0.991428,0.866119,0.496714,0.055786
-0.154700,0.299988,0.892452,-0.514094,0.835279,0.194978
-0.065150,0.465029,0.807250,0.350267,-0.073993,-0.933723
-0.202906,0.318479,0.743483,-0.373509,0.691717,0.618076
-0.140057,0.411378,0.722519,0.121257,0.456672,0.881333
0.004189,0.604004,0.718941,-0.572486,-0.133856,-0.808915
0.089472,0.725708,0.701556,0.885356,-0.267224,-0.380443
-0.059962,0.585513,0.600656,0.532150,0.243245,0.810955
0.143427,0.828913,0.659495,-0.454611,0.792373,0.406784
0.102820,0.798757,0.616961,-0.638886,0.671720,-0.374988
0.053877,0.352270,0.790742,-0.230909,-0.735793,0.636623
0.004557,0.315140,0.746959,0.498101,0.480019,-0.722133
0.197190,0.563386,0.751786,-0.356194,0.818629,0.450524
-0.028814,0.228761,0.955241,-0.339062,0.940617,-0.016651
-0.038642,0.237392,0.920302,0.376850,0.897427,0.229365
-0.038642,0.259223,0.885802,-0.240105,0.949097,0.203872
-0.050688,0.265735,0.850020,0.974382,0.183291,-0.130323
-0.011014,0.334241,0.823385,0.273761,0.529920,0.802645
-0.015094,0.351215,0.787670,0.021696,-0.685858,0.727412
-0.059962,0.319996,0.743179,-0.144432,-0.161200,0.976296
0.051467,0.471699,0.732444,-0.623258,-0.681772,0.383063
0.080572,0.527015,0.704932,-0.745804,0.243527,-0.620058
-0.011201,0.439416,0.650549,0.638744,-0.175083,0.749234
0.196449,0.706764,0.660440,0.208591,0.259890,-0.942840
-0.004898,0.490791,0.582731,-0.552825,-0.474053,0.685316
0.118396,0.658414,0.573515,0.308689,0.174775,0.934968
0.001224,0.204656,0.916454,-0.321268,0.700425,-0.637331
0.012348,0.239668,0.883912,-0.410455,-0.873218,-0.262711
-0.020469,0.221482,0.843910,0.708777,0.028757,0.704846
0.058699,0.336054,0.826559,-0.891998,0.437097,0.115264
-0.049766,0.283921,0.980930,0.193142,0.599264,0.776903
-0.143208,0.192991,0.927324,-0.111596,-0.868505,-0.482955
-0.099268,0.267557,0.901668,0.611924,0.177374,-0.770770
-0.089814,0.300293,0.868856,0.095720,-0.267879,0.958686
-0.079985,0.332271,0.837395,0.619523,0.784368,-0.030934
-0.044946,0.394256,0.811030,0.237200,0.693261,0.680533
-0.090922,0.361215,0.766707,-0.516008,0.119671,-0.848183
-0.102974,0.367431,0.730553,-0.304685,-0.471909,-0.827326
0.060367,0.582035,0.729406,-0.065261,0.312865,-0.947553
-0.059034,0.461089,0.669217,0.856352,0.202940,0.474844
0.140089,0.717827,0.675698,-0.868491,0.114609,-0.482273
0.215918,0.826943,0.657874,-0.504932,-0.152342,0.849609
0.113021,0.727068,0.602445,0.933891,-0.223100,-0.279418
-0.149138,0.219512,0.928977,-0.126935,0.867409,0.481133
-0.086656,0.312716,0.908251,-0.020677,0.290363,0.956693
-0.113911,0.302106,0.867979,0.064608,0.705067,0.706191
-0.091850,0.348330,0.839083,0.774043,0.627223,0.086307
-0.058847,0.408650,0.810963,0.059902,0.663634,0.745655
-0.138387,0.335148,0.759450,-0.823386,0.420172,0.381433
-0.130042,0.366219,0.726199,0.611823,-0.689148,-0.388262
0.008636,0.550815,0.721270,0.451508,-0.091636,0.887549
0.005117,0.566874,0.686804,-0.422917,0.277944,0.862489
0.142313,0.749352,0.680289,0.446050,-0.855659,0.262462
0.216659,0.856496,0.662162,-0.574209,-0.342861,0.743458
-0.204761,0.216024,0.886005,0.951240,0.000102,0.308452
0.271910,0.174805,0.885094,0.630029,0.311169,-0.711503
0.079277,0.015823,0.742537,0.966222,0.107757,0.234102
-0.050688,0.313780,0.425457,0.760975,0.154286,0.630169
0.044050,0.447907,0.411650,0.000943,-0.133829,0.991004
0.244469,0.316056,0.817107,-0.707956,-0.534288,0.461882
0.040344,0.098871,0.741828,0.183622,0.502714,0.844726
0.239834,0.356367,0.747803,-0.628015,-0.372398,-0.683314
0.274688,0.419112,0.721473,-0.191847,0.636532,-0.747008
0.036819,0.162531,0.636877,0.122367,0.460445,0.879214
0.020320,0.277251,0.424613,0.583548,0.319344,0.746653
0.303798,0.576420,0.743381,0.794190,-0.284353,-0.537035
-0.054767,0.176619,0.634886,-0.091287,0.920007,0.381122
-0.036046,0.220418,0.605011,0.745233,0.141918,-0.651527
0.259485,0.589916,0.631848,0.272726,-0.384139,0.882076
-0.088699,0.225876,0.488988,0.478934,-0.752890,0.451418
0.005485,0.174195,0.872266,0.134983,0.953648,0.268952
0.019392,0.212999,0.840264,0.319122,-0.493857,0.808867
0.133967,0.370003,0.829428,-0.362735,0.855427,0.369686
0.091883,0.341364,0.785814,-0.193527,0.974505,-0.113527
0.031070,0.289683,0.739702,-0.006433,0.583486,0.812098
0.254296,0.575208,0.752664,0.822344,0.566228,0.055998
-0.032334,0.260434,0.657672,-0.658350,0.445257,0.606895
-0.013056,0.304539,0.627831,-0.653763,0.181908,-0.734509
0.187549,0.562933,0.634751,0.316681,-0.315016,0.894694
0.285998,0.700696,0.620404,-0.461631,0.340897,-0.818954
-0.084619,0.287861,0.506642,0.812315,-0.470544,0.344576
-0.051062,0.369549,0.445239,0.944408,0.309142,0.111916
0.199046,0.685544,0.463130,-0.803252,-0.382538,0.456564
0.094293,0.220270,0.872907,0.589893,0.049914,0.805937
0.047756,0.186627,0.828550,0.868184,0.351986,-0.349804
0.218142,0.408650,0.830002,0.075777,0.910465,0.406585
0.136010,0.333178,0.778252,-0.609087,0.751858,-0.252434
0.189036,0.418954,0.754453,0.983297,-0.147711,0.106343
-0.070344,0.268315,0.660946,0.779949,0.260461,-0.569069
-0.028441,0.341207,0.634548,0.684683,-0.323989,0.652871
0.194779,0.625224,0.647545,0.018852,-0.803726,0.594701
-0.085174,0.338940,0.519133,0.843073,-0.361698,0.397998
-0.068302,0.402591,0.453036,0.888365,0.444554,0.114802
0.120993,0.647202,0.457931,-0.710298,-0.273006,0.648802
0.202752,0.113726,0.637249,0.293491,-0.955750,0.020123
0.001038,0.012641,-0.798643,-0.018799,-0.832708,0.553394
-0.035304,0.020374,-0.884049,0.999672,-0.016562,0.019556
-0.136164,0.026276,-0.787334,0.847292,-0.513074,0.137302
0.027364,0.157073,-0.343631,0.992684,0.004282,-0.120664
-0.281332,0.476546,0.739533,0.268289,-0.208565,0.940490
0.319002,0.720251,0.630869,0.918869,-0.393524,0.028615
0.089286,0.537930,0.725726,-0.674767,0.317860,0.666074
-0.173428,0.277861,0.729743,-0.337272,0.311720,0.888301
0.295453,0.495037,0.630869,-0.266557,0.226211,-0.936897
0.011607,0.235274,0.677319,0.802148,-0.579273,0.144920
0.036077,0.303318,0.767247,-0.031848,0.997034,0.070063
-0.075906,0.184352,0.021925,0.921099,0.146634,0.360660
-0.492506,0.331355,0.634818,-0.517969,-0.831355,0.201386
-0.356787,0.238308,0.701860,0.348911,0.936730,0.028252
-0.517719,0.328636,0.739870,-0.610361,0.671428,-0.420291
-0.346965,0.215266,0.802017,0.069469,-0.016839,0.997442
-0.034002,0.253913,0.148007,0.911127,-0.393867,0.121315
-0.036786,0.250426,0.175080,0.886935,-0.376626,0.267394
-0.045313,0.250426,0.202761,0.979400,-0.065407,-0.191042
-0.132452,0.297564,0.236518,-0.391410,-0.828946,0.399559
-0.108536,0.265735,0.339376,-0.542283,0.792565,0.278873
-0.239802,0.337877,0.377555,0.966202,0.255325,-0.035544
-0.037527,0.182381,0.568789,0.499879,0.861405,0.090014
-0.246846,0.301505,0.611492,0.666803,0.546416,-0.506758
-0.250926,0.285891,0.714282,-0.703340,-0.021145,0.710539
-0.347520,0.338783,0.748175,0.461164,-0.737632,-0.493180
-0.158966,0.214054,0.808904,-0.399985,0.914279,0.064084
-0.261494,0.266345,0.867776,0.496010,0.830001,-0.255091
-0.094447,0.162827,0.880705,0.796459,0.555254,0.239472
-0.168420,0.197385,0.938126,-0.580709,-0.800970,0.145684
-0.038456,0.363795,0.170894,0.885775,-0.328274,-0.328083
0.045345,0.305140,0.215960,-0.330442,0.911704,0.244141
-0.054767,0.359549,0.251912,-0.736091,0.372240,0.565338
-0.186961,0.381676,0.575338,0.876578,-0.324228,0.355649
-0.368658,0.484131,0.616657,-0.204343,0.467568,0.860014
-0.419269,0.509588,0.646971,-0.559929,-0.186557,0.807265
-0.087216,0.309081,0.645722,-0.265737,0.780674,0.565625
-0.035859,0.265429,0.717962,0.898081,0.424766,0.114125
-0.035304,0.260434,0.742908,-0.502938,0.063396,-0.861994
-0.013611,0.243155,0.767315,0.780269,-0.244055,0.575863
-0.221448,0.356367,0.835673,0.057903,0.897520,0.437155
-0.223297,0.353334,0.860721,0.132244,0.926857,0.351350
-0.047910,0.240879,0.897820,0.999684,0.025058,0.002183
-0.029001,0.224969,0.921146,0.481806,-0.848461,0.219036
-0.050688,0.232693,0.948557,0.862489,0.073165,-0.500759
-0.037154,0.220575,0.973301,-0.026202,-0.983789,0.177404
0.001224,0.452153,0.165932,-0.683135,-0.716217,-0.142690
-0.004711,0.441692,0.244924,0.901571,0.149583,-0.405948
-0.250552,0.553535,0.449998,-0.543919,-0.693296,-0.472750
-0.272432,0.542629,0.580773,0.693545,0.220780,0.685749
0.039416,0.354851,0.579828,0.875988,-0.310388,-0.369195
-0.344181,0.576420,0.637924,-0.465014,-0.230826,-0.854682
-0.234053,0.506553,0.653959,0.851213,-0.091791,-0.516730
-0.521244,0.661901,0.755365,-0.312749,-0.880927,0.355185
0.055728,0.317110,0.733794,-0.599767,0.647626,-0.469958
0.056656,0.312263,0.758842,-0.328404,0.932003,-0.153369
-0.156929,0.433209,0.801747,0.802862,0.395325,0.446242
-0.106125,0.399103,0.822710,-0.560581,-0.800292,-0.212794
-0.227009,0.465936,0.858054,0.294223,-0.481024,-0.825862
0.006045,0.323632,0.865717,0.300542,0.895467,-0.328350
0.118951,0.252701,0.882967,0.397557,-0.916296,-0.048474
0.003074,0.316204,0.916656,-0.846135,0.040507,0.531426
0.519607,0.259371,0.075598,-0.410957,0.824491,0.389011
-0.219404,0.612042,0.587693,-0.367897,0.841766,-0.395072
0.371468,0.245883,0.641874,-0.286108,0.086043,0.954326
0.103748,0.398650,0.688830,0.953607,-0.286126,0.093626
-0.274101,0.616890,0.745508,0.719487,0.649345,0.246353
0.306763,0.264976,0.750977,-0.391591,0.593435,-0.703201
-0.098340,0.499431,0.808229,-0.202053,-0.387019,-0.899662
-0.093519,0.492308,0.832736,0.800565,0.151188,-0.579860
0.173273,0.320597,0.888638,-0.413581,0.736428,-0.535373
0.323448,0.226939,0.902985,0.729578,0.669590,0.139160
0.141385,0.637499,0.357065,-0.309563,-0.833034,-0.458503
0.102639,0.594153,0.722992,0.719272,-0.222517,0.658130
0.340695,0.426234,0.857345,-0.615561,0.627095,-0.477322
-0.037895,0.133883,-0.978197,0.596748,-0.459630,-0.657747
0.048316,0.089019,-0.970062,-0.076929,0.418989,0.904727
-0.748917,-0.257585,-0.015884,0.822919,-0.345201,-0.451266
-0.730002,-0.367005,-0.025707,-0.685507,-0.297847,-0.664355
-0.709056,-0.362611,-0.007073,0.939443,-0.044653,-0.339782
-0.748175,-0.389742,-0.019664,0.820795,-0.383452,-0.423392
-0.082209,0.520502,-0.496517,0.865037,0.187555,0.465333
0.001224,0.722369,-0.160769,-0.334022,0.572512,-0.748772
-0.151548,0.026886,-0.678097,0.610973,0.731732,-0.302125
-0.121702,0.044313,-0.634314,0.985169,-0.166838,-0.040093
-0.129674,0.069169,-0.608793,0.130739,0.803934,0.580170
-0.104457,0.070833,-0.588438,0.963629,-0.087069,0.252664
-0.111687,0.096299,-0.562276,0.999106,-0.021491,0.036409
-0.096297,0.105087,-0.540199,0.843189,-0.535615,-0.046349
-0.075906,0.108722,-0.520383,0.989681,0.030722,0.139953
-0.084992,0.134040,-0.495099,0.982681,0.183568,-0.025329
-0.082763,0.152373,-0.470963,0.998260,0.031504,0.049837
-0.085915,0.173594,-0.446928,0.861560,-0.413918,-0.293915
-0.110205,0.211029,-0.418201,0.762107,0.151329,0.629518
-0.012310,0.158590,-0.411483,0.977368,0.166705,0.130233
-0.044204,0.201020,-0.381709,0.876218,-0.079016,-0.475393
-0.375515,0.517163,-0.230849,0.897393,0.413266,0.154584
-0.434845,0.579454,-0.197092,0.878747,0.471630,0.073275
0.163265,0.162679,-0.277366,-0.611840,0.772296,-0.170912
-0.418714,0.604920,-0.153477,0.922150,0.284703,0.261884
0.179763,0.529438,0.192330,-0.047275,-0.341319,0.938758
-0.297276,0.028708,-0.429779,0.214446,0.973273,0.082170
-0.264833,0.025221,-0.411348,-0.598640,0.798307,0.065852
-0.233867,0.100693,-0.299342,-0.010129,0.877850,0.478829
-0.317113,0.259223,-0.168634,0.906315,0.160801,-0.390814
-0.107053,0.143586,-0.158777,0.848764,0.194989,-0.491506
-0.203093,0.233452,-0.119180,0.737982,0.672169,0.059765
-0.055882,0.182835,-0.075532,0.963112,0.021915,0.268206
-0.049024,0.196775,-0.054535,0.965913,0.185516,-0.180541
-0.043644,0.212241,-0.032458,0.994846,-0.029539,-0.096999
-0.059962,0.242091,-0.007883,0.961338,0.128847,0.243366
-0.081095,0.276798,0.018447,0.759306,0.637072,0.132639
-0.016949,0.248761,0.030566,-0.239436,-0.734936,0.634461
-0.045127,0.288472,0.057774,0.939344,-0.194896,-0.282219
-0.014907,0.284836,0.074552,0.863949,-0.422971,-0.273290
-0.190486,0.448509,0.146657,-0.577545,-0.152940,0.801904
-0.153590,0.439869,0.162118,0.422519,0.888971,0.176657
-0.043276,0.378494,0.166743,-0.290119,0.470317,0.833446
-0.005639,0.370160,0.182980,0.940518,-0.242707,-0.237735
0.067412,0.562933,0.712932,-0.745187,0.359741,-0.561500
-0.026404,0.664324,0.766674,0.257148,-0.772577,-0.580517
-0.136345,-0.068595,-0.157360,0.301134,-0.328417,0.895243
-0.067192,-0.059048,-0.099230,0.664615,0.689330,0.288289
-0.105011,-0.012520,-0.070840,-0.542501,-0.044882,-0.838855
-0.312292,0.158738,-0.014061,0.975380,-0.020264,0.219598
-0.150439,0.060233,-0.017976,0.952817,-0.302484,0.025366
-0.521798,0.350300,0.064965,-0.557087,0.456510,0.693723
-0.059775,0.032797,0.011966,-0.545938,0.146454,0.824926
-0.114838,0.092210,0.043630,-0.499209,0.671135,-0.548058
-0.081095,0.144345,0.126571,0.612722,-0.788188,-0.057719
-0.111320,0.184352,0.152700,0.282072,-0.834292,0.473700
-0.062185,0.168136,0.167114,-0.539254,-0.819618,-0.193471
-0.133193,0.276197,0.243573,-0.433529,-0.193743,0.880066
0.164192,0.282709,0.453880,-0.480680,-0.800812,0.357278
-0.151180,0.560963,0.561430,-0.625963,-0.584166,0.516643
-0.084432,0.566874,0.613551,0.159952,0.206248,0.965338
0.006045,0.555209,0.661655,0.548833,-0.673323,0.495398
0.396313,0.313326,0.647713,0.348837,0.684692,-0.639930
-0.368471,-0.168015,-0.126404,0.850004,-0.079488,0.520745
-0.082209,-0.176349,0.052745,0.896311,-0.024720,-0.442737
-0.172873,-0.011456,0.177950,-0.547435,0.384611,-0.743229
-0.426132,0.475639,0.555523,0.276989,-0.460207,0.843496
-0.224412,0.349088,0.547151,0.725899,-0.552397,0.409791
-0.128560,0.299229,0.554308,0.890323,-0.099979,0.444217
-0.554060,0.622042,0.635527,0.747880,-0.419004,-0.514889
-0.446337,0.562785,0.639916,-0.264952,0.280790,0.922474
-0.317487,0.488367,0.642110,0.224636,0.095474,-0.969754
-0.178990,0.407438,0.642346,0.881881,0.269275,-0.387010
-0.084619,0.358338,0.649503,0.858331,-0.405153,-0.314832
0.059620,0.273311,0.649874,0.749408,0.633702,-0.191857
-0.103902,0.408955,0.693421,0.903523,0.394724,-0.166852
0.061109,0.344398,0.730553,0.849902,-0.516122,-0.106229
0.058699,0.363943,0.750504,-0.639274,-0.673525,-0.371069
0.140830,0.324084,0.759753,0.805552,-0.587828,-0.074452
-0.051989,0.478673,0.806169,-0.501137,-0.319361,-0.804282
-0.345109,0.224210,0.539826,0.330376,0.912483,-0.241302
-0.369953,0.260582,0.563456,0.190295,-0.886375,0.422052
-0.338620,0.256947,0.579862,0.276171,0.960887,0.020646
-0.423161,0.336970,0.612910,0.718066,0.695593,-0.023054
-0.233867,0.237697,0.626447,0.377831,-0.658718,0.650641
-0.314890,0.351215,0.698248,0.878225,-0.142057,-0.456662
-0.213102,0.296954,0.704628,0.743018,-0.397242,-0.538630
-0.191041,0.299377,0.722047,0.871224,-0.462650,-0.164087
-0.118550,0.266493,0.732511,-0.114184,-0.352899,0.928668
-0.093706,0.266799,0.748715,0.177078,0.052309,0.982806
-0.067006,0.265587,0.764716,-0.357060,0.804998,0.473801
-0.255559,0.418501,0.810625,-0.074730,-0.499453,0.863112
-0.128933,0.364702,0.833344,-0.391784,0.699160,0.598064
-0.035859,0.316509,0.841007,-0.348220,0.674166,0.651339
0.025695,0.291348,0.853058,-0.044355,0.636535,0.769971
0.032553,0.304234,0.871489,0.866540,0.421952,-0.266581
0.128038,0.254218,0.878038,-0.372757,0.722963,0.581701
0.146206,0.259518,0.895727,-0.299239,0.629589,-0.716989
-0.606153,-0.286381,-0.032256,-0.705646,0.707828,0.032312
-0.366615,0.205414,0.660237,-0.466393,0.883617,0.041205
-0.149325,0.067651,0.649536,-0.845864,0.287474,-0.449303
-0.425018,0.284373,0.708848,-0.084349,0.957610,-0.275441
-0.287081,0.277251,0.790067,0.785307,0.484368,0.385591
-0.253704,0.271803,0.805123,0.908111,-0.303113,-0.288888
-0.051802,0.145704,0.798068,-0.111846,-0.807381,0.579332
-0.096484,0.213906,0.843707,0.325174,0.944084,0.054479
-0.148396,0.269370,0.870713,0.100409,0.351316,0.930857
-0.068121,0.230880,0.880199,-0.639063,0.695219,-0.329042
-0.079799,0.256493,0.900993,0.838351,0.284824,0.464804
-0.023807,0.234062,0.912808,0.198470,-0.907342,-0.370594
-0.011756,0.243913,0.931239,0.320974,-0.904247,0.281625
0.025695,0.234515,0.945451,-0.082848,-0.987906,-0.131064
0.021061,0.256189,0.965975,0.796826,0.191593,0.573027
-0.092778,-0.055561,0.634177,-0.449262,0.544443,0.708340
-0.328791,0.204508,0.767383,0.221697,0.877746,-0.424750
-0.051435,0.025369,0.749998,-0.581168,-0.106720,-0.806755
-0.110392,0.120997,0.817343,0.969993,0.218191,-0.107269
-0.203280,0.205414,0.849952,0.970134,0.212614,0.116771
-0.231089,0.243007,0.873042,0.765565,0.048773,-0.641507
-0.112989,0.177081,0.877397,0.684107,0.667824,-0.293271
-0.013237,0.124642,0.884351,0.977555,0.210021,-0.016627
-0.127632,0.223600,0.919323,0.650177,-0.641101,0.407748
-0.087030,0.211936,0.933130,0.798009,-0.211749,0.564219
-0.047910,0.219964,0.967056,0.588957,-0.800708,0.109532
-0.039010,0.231028,0.984947,-0.283416,0.888539,0.360796
-0.649352,-0.387161,-0.021859,0.982833,-0.154450,0.100916
-0.477303,0.230575,0.778219,0.844676,-0.088816,0.527857
-0.064782,-0.009180,0.782303,0.685040,-0.233212,-0.690168
-0.245732,0.137823,0.826930,0.087573,0.107896,0.990298
-0.360312,0.253913,0.880739,0.394192,0.697675,0.598216
-0.151548,0.123578,0.873177,0.593797,-0.290707,-0.750263
-0.116695,0.116307,0.887828,-0.196972,0.485486,0.851766
-0.004156,0.054470,0.893060,0.092806,0.711912,0.696109
-0.149698,0.175712,0.932117,0.623502,0.778104,-0.076152
-0.121702,0.207995,0.986331,0.353664,-0.926531,0.128307
-0.504371,0.320754,0.905044,-0.431596,-0.891008,-0.140819
-0.170276,0.101757,0.880131,0.972194,-0.191140,-0.135294
-0.126149,0.087354,0.893533,-0.585798,0.025638,0.810051
-0.243321,0.105993,0.891507,0.661451,0.231920,0.713229
-0.023807,-0.014185,0.902276,-0.748020,0.439846,0.496993
-0.613016,-0.899870,0.378062,0.349990,-0.516426,0.781544
-0.238133,-0.175739,-0.978737,0.253600,0.628009,-0.735725
-0.209764,-0.192260,-0.960711,0.256205,0.282006,-0.924571
-0.144504,-0.234394,-0.957875,0.398390,0.199418,-0.895275
-0.082950,-0.273643,-0.952508,0.573903,-0.050770,-0.817348
0.007709,-0.333362,-0.957774,-0.089479,0.672491,0.734677
-0.511970,-0.090721,-0.987615,0.926345,0.240514,-0.289893
-0.435213,-0.141338,-0.989675,-0.137668,0.638526,0.757187
-0.403324,-0.159681,-0.972695,-0.004623,-0.044111,0.999016
-0.337137,-0.202565,-0.970332,0.178530,-0.855681,-0.485733
-0.251294,-0.259249,-0.974484,0.574899,-0.059418,-0.816064
-0.196971,-0.293503,-0.966315,-0.118153,0.263711,0.957338
-0.587244,-0.126491,-0.990282,0.456028,-0.028641,-0.889504
-0.533849,-0.160282,-0.982889,0.202769,0.979081,-0.016876
-0.458948,-0.209086,-0.982889,-0.210131,-0.446784,0.869614
-0.399431,-0.247428,-0.977117,0.025820,0.387918,0.921332
-0.338433,-0.286223,-0.971513,0.781487,0.567073,0.260206
-0.604484,-0.194230,-0.985657,-0.378932,0.641947,0.666569
-0.556470,-0.224090,-0.975058,0.172025,0.104575,0.979526
-0.479154,-0.274559,-0.977049,0.449226,-0.221570,-0.865507
-0.671232,-0.236818,-0.983801,-0.419301,-0.350400,0.837500
-0.597813,-0.284558,-0.984375,0.800247,0.567608,0.193460
-0.366615,0.065533,-0.983429,-0.139259,-0.242298,0.960156
-0.293570,0.018403,-0.982619,-0.247013,-0.031460,0.968501
-0.248142,-0.009180,-0.972121,0.739191,-0.034532,-0.672610
-0.188999,-0.046616,-0.966956,0.855067,-0.353749,-0.379108
-0.120033,-0.091174,-0.964492,-0.601199,-0.357213,0.714814
-0.088885,-0.108454,-0.948423,0.021714,-0.999752,-0.004858
-0.011388,-0.159227,-0.949267,-0.053401,-0.495250,0.867108
0.053691,-0.200595,-0.945081,0.371423,0.839841,0.395869
0.114130,-0.238788,-0.939073,-0.593464,-0.690608,-0.413353
0.222221,-0.311384,-0.952609,0.296756,-0.684934,-0.665433
-0.389236,0.082960,-0.987312,-0.631274,0.360852,-0.686497
-0.331949,0.047042,-0.980223,0.127518,0.267935,0.954961
-0.258897,-0.000393,-0.980493,-0.004832,0.456962,0.889473
-0.137828,-0.077382,-0.969319,0.519057,0.507377,0.687858
-0.088885,-0.107843,-0.959192,-0.486197,0.760779,0.429917
-0.053285,-0.128758,-0.944913,-0.217516,0.588495,0.778692
0.011974,-0.170744,-0.942111,0.776395,0.550234,-0.307333
0.072413,-0.208929,-0.936136,0.062069,0.894695,0.442345
0.130074,-0.245763,-0.930431,0.183096,0.417078,0.890237
0.255966,-0.330328,-0.949301,-0.035104,0.764927,0.643160
-0.352527,0.054775,-0.981472,0.218847,-0.891552,-0.396536
-0.269280,0.000208,-0.984712,-0.024084,0.174110,0.984432
-0.164341,-0.066013,-0.969319,0.162687,0.669111,0.725137
-0.097599,-0.109212,-0.966045,-0.655357,0.389572,0.647102
-0.071453,-0.123605,-0.948086,0.488120,0.487475,-0.723952
-0.031779,-0.147406,-0.934313,-0.533917,0.636538,0.556553
0.055728,-0.204840,-0.938870,0.719902,0.692162,-0.051514
0.106158,-0.236512,-0.929283,0.134468,0.744930,0.653451
0.231676,-0.320782,-0.949132,0.233501,-0.767051,-0.597587
-0.381263,0.047042,-0.989303,-0.450393,0.133421,-0.882805
-0.320452,0.008090,-0.984881,-0.087533,-0.011346,0.996097
-0.209583,-0.062231,-0.970365,0.405426,-0.186951,-0.894807
-0.148957,-0.101173,-0.964694,-0.680805,-0.729275,0.068287
-0.115025,-0.121034,-0.948592,-0.442647,0.322319,0.836764
-0.018618,-0.184684,-0.956525,0.913482,-0.404424,0.044624
0.030702,-0.215450,-0.947782,0.689138,0.354668,-0.631902
0.072974,-0.241822,-0.936203,-0.691681,0.523693,0.497315
0.069262,-0.287592,-0.963513,0.516617,0.236468,-0.822915
-0.439666,-0.045099,-0.985691,-0.638385,0.658183,0.399073
-0.327495,-0.116177,-0.971918,-0.623230,0.736701,0.262406
-0.528842,-0.123910,-0.987548,-0.006685,-0.094136,0.995537
-0.463209,-0.165434,-0.984813,-0.073627,0.225680,0.971415
-0.407036,-0.199540,-0.978298,-0.649106,0.106174,0.753252
-0.330460,-0.249093,-0.978332,-0.069893,0.053243,0.996133
-0.267798,-0.288499,-0.974349,-0.422717,0.399401,0.813504
-0.487499,-0.113152,-0.985995,0.424236,-0.294323,0.856386
-0.351412,-0.198929,-0.979615,0.050991,0.201264,0.978209
-0.281145,-0.244246,-0.977589,-0.297629,-0.497925,0.814547
-0.230348,-0.274864,-0.968880,0.327185,-0.130480,-0.935909
-0.482865,-0.062073,-0.978231,0.478592,-0.119160,-0.869914
-0.411110,-0.108306,-0.978130,0.841040,-0.530193,-0.107453
-0.352895,-0.144223,-0.972357,0.048466,0.072854,0.996164
-0.276138,-0.194388,-0.973066,0.821637,-0.004818,-0.569991
-0.224412,-0.225903,-0.964796,-0.158337,-0.231259,0.959921
-0.460618,-0.036617,-0.984037,-0.003345,0.514434,0.857523
0.055174,-0.323205,-0.948491,0.298498,-0.730523,0.614195
-0.339173,-0.025248,-0.987278,0.126920,0.063195,-0.989898
-0.214216,-0.104208,-0.978433,-0.414829,0.158165,0.896047
-0.182515,-0.121635,-0.962399,0.685006,0.335583,-0.646645
-0.135417,-0.150283,-0.951394,-0.553090,0.313557,0.771864
-0.034563,-0.217420,-0.961251,-0.703971,0.704649,0.088852
0.141939,-0.328210,-0.943495,0.237899,-0.966520,0.096145
-0.355865,0.032186,-0.983801,0.262741,0.782224,-0.564883
-0.290045,-0.010244,-0.981235,-0.078033,0.117539,0.989998
-0.159153,-0.093450,-0.973674,-0.266276,0.140500,0.953602
-0.140611,-0.101479,-0.951394,0.444113,0.823026,0.354107
-0.077021,-0.142253,-0.948018,0.415680,0.290979,-0.861708
0.008455,-0.198624,-0.952947,0.915532,-0.151244,-0.372729
0.042567,-0.217726,-0.936912,0.556374,0.806588,-0.199656
0.156775,-0.294409,-0.952677,0.105854,0.514256,0.851079
-0.455978,-0.238788,-0.982315,0.127936,0.862113,0.490299
-0.340102,-0.308349,-0.968981,0.509812,0.772960,-0.377656
-0.600223,-0.159829,-0.986231,-0.110885,0.425190,0.898286
-0.536814,-0.198781,-0.982079,-0.094864,-0.243427,0.965269
-0.467662,-0.242877,-0.980695,0.426816,0.373408,0.823647
-0.401655,-0.283957,-0.976712,0.010220,0.072894,0.997287
-0.578904,-0.162409,-0.983261,-0.480957,0.576706,0.660372
-0.445782,-0.245911,-0.976205,0.038722,-0.999243,-0.003756
-0.373846,-0.291838,-0.974720,0.411684,-0.114165,-0.904148
-0.315630,-0.327146,-0.968779,-0.223737,-0.777299,0.588004
-0.608937,-0.132402,-0.988696,-0.130107,0.190276,0.973071
-0.561104,-0.160134,-0.978670,0.557925,-0.708820,-0.431618
-0.425572,-0.245763,-0.973640,-0.248238,0.503155,0.827776
-0.347333,-0.296685,-0.975767,-0.029910,-0.421010,0.906563
-0.562032,-0.138313,-0.987480,-0.297700,0.524916,0.797395
-0.501219,-0.175443,-0.981505,-0.031877,-0.049461,0.998267
-0.426313,-0.223932,-0.981404,-0.265401,0.081569,0.960681
-0.370695,-0.257279,-0.973539,0.876629,0.333279,-0.347054
-0.298572,-0.303503,-0.973269,-0.301210,0.626839,0.718572
-0.087770,-0.290016,-0.961690,-0.645373,0.046103,0.762475
-0.480268,-0.107084,-0.982248,0.415033,0.425914,-0.803956
-0.437624,-0.128758,-0.968543,-0.024064,0.943421,0.330724
-0.222929,-0.264707,-0.964796,0.218201,-0.096971,-0.971074
-0.511229,-0.129210,-0.985894,0.194050,0.087884,0.977047
-0.443559,-0.170892,-0.982653,-0.074103,0.314023,0.946519
-0.374220,-0.214238,-0.980087,0.126043,-0.361830,0.923684
-0.327495,-0.239399,-0.968779,0.741894,-0.416401,0.525551
-0.258897,-0.282736,-0.967024,0.283058,-0.330278,-0.900442
-0.568516,-0.122846,-0.987447,0.356542,-0.433880,-0.827421
-0.508818,-0.158765,-0.981978,0.912657,-0.300736,-0.276795
-0.372177,-0.244246,-0.977353,-0.309549,0.323590,0.894130
-0.318782,-0.275012,-0.968171,-0.427901,0.040547,0.902916
-0.549794,-0.159070,-0.982552,0.388221,-0.193297,-0.901066
-0.416678,-0.241212,-0.975226,0.331130,-0.125893,-0.935149
-0.361608,-0.274105,-0.968171,0.818988,-0.145918,0.554947
-0.293938,-0.316388,-0.965943,-0.295795,0.694860,0.655496
-0.575379,-0.154223,-0.985624,0.547242,-0.354148,-0.758357
-0.511970,-0.193472,-0.981742,-0.509769,-0.240908,0.825892
-0.432061,-0.245309,-0.983531,-0.006115,0.821279,0.570493
-0.376443,-0.278499,-0.976543,-0.329984,0.112701,0.937235
-0.332503,-0.301384,-0.963276,-0.431044,-0.472674,0.768623
-0.595216,-0.150884,-0.986873,-0.246358,0.297799,0.922292
-0.529215,-0.192260,-0.983328,-0.484020,-0.225885,0.845400
0.187368,0.013852,-0.928372,-0.664076,-0.602819,-0.442280
-0.225153,0.168895,-0.982788,-0.357625,0.572692,-0.737650
-0.162671,0.130553,-0.978636,-0.257140,0.094295,0.961763
-0.091109,0.085079,-0.977016,-0.043936,0.495981,0.867221
-0.039938,0.056135,-0.968036,-0.687937,0.724982,0.033817
0.006967,0.031280,-0.956052,-0.194033,0.953512,0.230578
0.041453,0.016729,-0.938836,0.304090,-0.751489,-0.585486
0.086134,-0.006914,-0.926144,-0.258436,0.878904,0.400921
-0.272619,0.104634,-0.986400,-0.190147,0.133817,-0.972593
-0.214958,0.070538,-0.979075,0.551551,-0.445852,-0.704988
-0.143763,0.025674,-0.977252,0.397748,-0.004304,-0.917484
-0.085915,-0.008580,-0.971074,0.734851,-0.296399,-0.610035
-0.042716,-0.017820,-0.927156,0.021391,-0.957012,0.289259
-0.346037,0.076448,-0.986063,0.221540,-0.070971,-0.972565
-0.283929,0.038856,-0.981674,0.081674,0.109160,0.990663
-0.213288,-0.005397,-0.979581,0.015524,0.359831,0.932888
-0.153958,-0.041158,-0.973505,0.400052,-0.873745,-0.276636
-0.065710,-0.086475,-0.946972,0.767563,-0.282521,-0.575351
-0.052731,-0.083746,-0.921114,0.953492,0.053315,0.296667
-0.373105,0.015971,-0.988662,0.116237,0.291202,0.949574
-0.322862,-0.011456,-0.977995,0.303087,-0.228036,-0.925277
-0.253149,-0.055255,-0.975632,0.357492,0.063159,-0.931778
-0.199013,-0.087086,-0.968070,-0.199748,0.592376,0.780507
-0.145245,-0.118305,-0.960205,0.775029,0.619602,0.124195
-0.097599,-0.143919,-0.948558,0.463121,0.483911,-0.742529
-0.015467,-0.197865,-0.952339,0.677372,0.467597,-0.567909
-0.003042,-0.194535,-0.925874,0.675486,0.692729,0.252677
0.081132,-0.250157,-0.929249,0.586394,0.412214,-0.697296
-0.448566,-0.007210,-0.986569,-0.367126,0.319754,0.873485
-0.392201,-0.040252,-0.979817,0.827698,0.260180,0.497215
-0.326013,-0.080416,-0.975395,0.276781,0.758161,0.590410
-0.256487,-0.124974,-0.974281,-0.653543,0.565643,0.502921
-0.186220,-0.168774,-0.971918,0.729164,-0.454408,-0.511697
-0.154145,-0.181502,-0.953689,-0.579938,-0.276266,0.766387
-0.071640,-0.235754,-0.956728,-0.710955,0.315870,0.628307
0.005671,-0.285927,-0.958348,0.361352,0.854121,-0.374035
0.037373,-0.299257,-0.941503,0.877008,-0.364224,0.313364
-0.061070,0.332419,-0.976138,-0.036127,0.049233,0.998134
0.015867,0.282561,-0.976881,-0.479207,-0.453588,0.751411
0.087617,0.237697,-0.975294,0.731760,0.681122,0.024495
-0.097967,0.266493,-0.978670,-0.254559,-0.024969,0.966735
-0.033262,0.226486,-0.975362,0.148307,-0.046654,0.987840
0.035704,0.183741,-0.972593,-0.366283,0.272627,0.889669
0.161963,0.106456,-0.963513,0.683846,-0.104895,-0.722047
-0.203647,0.241795,-0.982079,-0.225100,0.389011,0.893309
-0.130228,0.194962,-0.981337,-0.225843,0.277000,0.933952
-0.057919,0.149339,-0.980020,-0.137253,-0.227812,0.963983
-0.006567,0.120544,-0.969927,0.952477,0.263966,-0.152015
0.059253,0.079778,-0.967091,-0.213624,0.409648,0.886878
0.109683,0.051436,-0.957909,-0.467011,0.353719,0.810422
0.177907,0.009459,-0.954230,0.924580,0.373025,0.077484
-0.701451,0.440480,0.516837,-0.443837,-0.799576,0.404581
-0.761896,0.338635,-0.542292,0.815834,0.500781,-0.289195
-0.686802,0.289378,-0.543642,0.749998,0.660007,-0.043508
-0.696263,0.311356,-0.536182,0.729615,0.683459,0.023343
-0.710351,0.403044,0.512787,0.872388,-0.162464,0.461025
-0.883889,0.197690,0.581955,-0.646360,-0.471963,0.599558
-0.735196,-0.166803,-0.039345,0.201583,0.397782,0.895061
-0.506040,-0.875468,0.364154,-0.434934,0.667528,-0.604349
-0.638229,-0.936547,0.384746,0.420004,-0.476708,0.772234
-0.629148,-0.491281,0.230273,0.249569,0.228849,0.940927
-0.646761,-0.112237,-0.581416,0.981472,0.188450,-0.034641
-0.659554,-0.079204,-0.396225,-0.446839,0.889051,-0.099618
0.002333,-0.367153,0.690011,0.883500,0.468245,-0.013207
0.082796,-0.420656,0.686163,-0.594931,-0.742070,-0.308853
-0.384042,-0.189985,0.725321,0.787717,0.022525,0.615626
0.192743,-0.332446,0.008624,-0.492507,-0.407002,0.769277
0.073342,-0.168921,0.694568,-0.388589,-0.414789,-0.822769
-0.120774,-0.023888,0.839623,0.908584,-0.388443,-0.153580
-0.165455,0.010976,0.886376,-0.143818,-0.327763,0.933749
-0.064595,-0.288193,-0.254647,0.848612,0.506603,-0.152353
-0.215326,-0.044045,0.879827,0.226761,0.970332,0.083876
-0.272058,-0.003122,0.912842,-0.686622,-0.552524,-0.472512
-0.660295,0.032186,-0.150271,-0.361798,0.886028,0.289926
-0.161376,-0.291681,-0.130995,-0.466251,0.879559,0.094790
-0.225894,-0.124058,0.826660,0.735584,0.061023,-0.674680
0.054432,-0.312595,0.787839,0.991594,-0.129339,-0.003550
0.016609,-0.281524,0.834053,0.893501,0.380178,0.238999
-0.501400,0.182529,-0.556233,0.634132,0.773225,0.000004
-0.494916,0.180716,-0.533211,0.982170,-0.071040,-0.174058
-0.396280,0.114938,-0.543001,0.584917,0.795151,0.160021
-0.180472,-0.028884,-0.569500,0.922256,-0.349212,0.165815
-0.135049,-0.056921,-0.559339,0.179081,-0.914738,0.362194
-0.247219,0.037949,-0.392849,0.854209,-0.492486,-0.166687
-0.136532,-0.014037,-0.235237,0.285957,-0.956791,0.052724
-0.092405,-0.008580,0.027764,-0.446778,0.834439,-0.322646
-0.042535,-0.037523,0.055884,-0.389806,0.400704,-0.829149
-0.624140,0.397587,0.489089,-0.183271,0.857418,-0.480880
-0.661404,0.425781,0.519673,-0.619395,-0.670160,0.408944
-0.321934,0.194203,0.437947,0.822191,0.568154,0.034678
-0.296722,0.179347,0.450842,0.516223,0.724698,0.456428
-0.171385,0.095088,0.433693,0.238398,-0.750816,0.615988
-0.254819,0.172983,0.614328,-0.316130,-0.378175,0.870083
-0.319523,0.229668,0.727009,0.590972,-0.300302,0.748713
-0.234981,0.174047,0.722148,0.061014,0.992139,0.109255
-0.371809,0.270581,0.778455,-0.406204,0.869193,0.281962
-0.240911,0.182992,0.759888,0.543443,-0.639970,-0.543238
-0.210137,0.166313,0.787907,0.904656,0.403166,0.138040
-0.142467,0.122061,0.787738,0.966165,-0.222839,-0.129878
-0.021029,0.040983,0.773054,0.945805,-0.318451,0.063583
-0.276138,0.218753,0.860991,-0.447405,0.432458,0.782821
-0.249256,0.202685,0.871152,0.563302,0.550996,0.615707
-0.172873,0.152373,0.867877,-0.447864,-0.205149,0.870248
-0.058479,0.075838,0.855185,0.776488,0.629112,0.035836
-0.089627,0.099629,0.880975,0.153826,0.468176,0.870143
-0.073682,0.091295,0.894815,0.726562,-0.637283,0.256861
-0.053285,0.079778,0.907542,0.977515,0.210350,-0.014722
0.026063,0.027497,0.904504,-0.426720,-0.313116,-0.848451
-0.175838,-0.079204,-0.571863,0.102823,0.379426,0.919491
-0.257602,-0.006452,-0.414690,-0.289030,0.953240,0.088293
-0.201978,-0.020854,-0.237431,-0.237500,-0.802758,0.546968
-0.219778,0.002789,-0.138219,0.433330,-0.668348,0.604596
-0.106312,-0.072840,-0.152431,0.138029,-0.546037,0.826312
-0.117803,-0.039651,0.056694,0.671833,0.699743,-0.242899
-0.066819,-0.072535,0.061893,0.776376,0.576223,0.255358
-0.227564,0.103727,0.641941,0.896925,-0.208835,0.389760
-0.530511,0.329847,0.874291,-0.036965,-0.998318,0.044665
-0.470627,0.295141,0.910715,-0.431596,-0.891008,-0.140819
-0.091663,0.037496,0.825310,0.164962,-0.047466,0.985157
-0.187890,0.107510,0.887389,-0.314366,0.588351,0.744995
-0.140425,0.077355,0.892723,-0.492370,-0.000003,0.870386
-0.054767,0.023094,0.904571,0.786265,0.059310,-0.615036
-0.122070,0.182381,0.824263,0.559535,0.793491,-0.239357
-0.225153,0.256493,0.869936,0.614831,0.643671,-0.455710
-0.131711,0.194804,0.862847,-0.364191,-0.762880,-0.534209
-0.115212,0.185711,0.875709,-0.593719,0.249340,0.765067
-0.063667,0.152679,0.879962,0.235986,0.766131,-0.597790
-0.035672,0.136158,0.890562,-0.154308,0.949128,0.274491
-0.085915,0.173594,0.922058,-0.801797,0.503876,-0.321296
-0.080727,0.172835,0.937889,0.704081,-0.145997,-0.694950
-0.125408,0.208754,0.984373,-0.356044,0.400615,-0.844239
-0.611534,0.282866,-0.550731,0.619046,0.728464,0.293466
-0.424463,0.159191,-0.566732,-0.548520,-0.833764,0.062948
-0.429651,0.166471,-0.538275,-0.405089,-0.879455,-0.249922
-0.188818,0.008247,-0.548976,-0.374604,0.874039,-0.309399
-0.249256,0.098270,-0.180179,-0.576230,0.754750,-0.313547
0.084838,-0.108758,-0.105475,0.774784,-0.373342,0.510220
-0.065337,0.005360,0.012945,0.944531,-0.004811,0.328386
-0.084992,0.021733,0.041132,0.960107,0.028952,0.278129
-0.094260,0.034314,0.088223,-0.664429,0.168258,-0.728164
-0.298572,0.179504,0.174743,0.045967,0.286802,0.956887
-0.123925,0.067050,0.185241,0.511226,-0.843616,-0.164195
-0.196229,0.148433,0.434436,0.316181,-0.922428,0.221713
-0.394611,0.288166,0.513765,-0.370024,-0.265106,-0.890394
-0.477303,0.348330,0.558358,-0.534077,-0.718786,-0.445094
-0.269280,0.212389,0.555118,-0.350933,-0.879770,0.320703
-0.202719,0.182381,0.651562,0.750434,0.392623,-0.531692
-0.323603,0.273163,0.741457,-0.458436,-0.624661,-0.632167
0.001779,0.051436,0.669048,0.936626,0.298427,0.183504
-0.301542,0.263459,0.772784,-0.552484,-0.758599,0.345383
-0.249070,0.229668,0.776801,-0.302376,-0.770109,0.561694
-0.271504,0.247549,0.800869,0.736335,-0.206163,0.644443
-0.219965,0.214359,0.804380,0.401088,0.792286,0.459795
-0.078503,0.119184,0.783923,-0.115393,-0.740111,-0.662511
-0.100196,0.136760,0.807689,0.343598,0.932269,-0.113202
-0.281886,0.264375,0.875506,0.411554,0.847107,0.336205
-0.220146,0.224664,0.876958,-0.414384,-0.402167,0.816424
-0.150066,0.178746,0.876080,0.837914,0.288688,-0.463206
-0.083692,0.135094,0.875540,0.504334,0.109755,-0.856505
-0.064969,0.124790,0.887929,0.003563,0.842019,0.539436
-0.102787,0.155861,0.933197,0.370797,0.265879,-0.889841
-0.453941,0.145251,-0.599679,-0.103680,0.934754,0.339831
-0.198272,0.053406,-0.395786,-0.682163,0.683284,0.260340
-0.145245,0.028403,-0.339412,0.651633,0.695494,-0.302757
-0.241471,0.108574,-0.232300,0.950993,0.264384,0.160356
-0.180845,0.073562,-0.205160,-0.674529,-0.676237,0.296164
0.012161,-0.028125,-0.059228,0.922171,0.384899,0.038114
0.038488,-0.042527,-0.044510,0.921576,0.360318,0.144463
-0.097038,0.059927,0.044643,-0.607879,0.791765,-0.059932
-0.056810,0.035073,0.053386,0.906839,0.278658,-0.316218
-0.046982,0.031733,0.072898,0.543528,-0.804568,-0.239264
-0.191783,0.140700,0.162961,-0.005452,-0.964230,0.265011
-0.281886,0.244977,0.442335,-0.338007,0.744061,-0.576303
-0.161931,0.164649,0.426065,-0.231200,-0.480356,0.846052
-0.256301,0.246790,0.553464,-0.149306,-0.667209,0.729753
-0.340843,0.308628,0.597956,0.493495,0.129591,-0.860040
-0.296722,0.281191,0.603998,-0.562868,0.437983,0.700964
-0.196416,0.217236,0.614125,0.728465,0.382291,0.568500
-0.197344,0.224358,0.652575,0.852882,-0.230407,-0.468514
-0.152289,0.196173,0.658347,0.323864,-0.924397,-0.201501
-0.071640,0.142975,0.654600,-0.039168,-0.914022,0.403769
-0.231456,0.257095,0.718333,-0.667454,0.669381,-0.326243
-0.224044,0.255282,0.735246,-0.009854,0.919250,0.393552
-0.066078,0.148433,0.709827,0.007529,-0.870465,0.492173
-0.282073,0.301958,0.789122,-0.229452,-0.634251,0.738294
-0.224786,0.264828,0.791080,0.756143,0.507131,-0.413602
-0.104270,0.183898,0.775552,0.536544,-0.646373,-0.542515
-0.113543,0.193444,0.796785,-0.179464,0.743549,-0.644149
-0.197899,0.254671,0.837665,0.529075,0.772246,-0.351733
-0.186775,0.249972,0.852957,0.203676,0.572814,-0.793977
-0.215886,0.273311,0.879118,-0.094015,-0.895080,0.435882
-0.096297,0.193593,0.865075,0.781275,0.557612,-0.280497
-0.092224,0.193296,0.881347,-0.504934,0.581702,0.637703
-0.024921,0.149191,0.880570,-0.647676,-0.199127,0.735435
-0.013979,0.144798,0.895761,-0.829535,0.056370,0.555602
-0.095189,0.204054,0.934818,0.799748,-0.085711,0.594186
-0.088144,0.207847,0.986230,-0.220323,-0.973820,0.055959
-0.560730,0.259371,-0.559238,0.745600,0.617945,0.249449
-0.360685,0.126307,-0.580944,0.983875,0.178216,-0.015146
-0.355492,0.126307,-0.557280,-0.551357,-0.822405,-0.140195
-0.179918,0.041585,-0.363446,-0.628664,-0.715601,-0.304462
-0.146360,0.025221,-0.326854,0.794297,0.605360,0.051292
-0.061444,-0.026617,-0.307410,-0.506102,-0.828083,-0.241121
0.081132,-0.087390,-0.093322,0.287732,-0.127201,0.949226
-0.033262,-0.003880,-0.033572,-0.347102,-0.664244,-0.662043
-0.040679,0.007942,0.013755,0.936112,-0.351202,-0.018735
-0.028073,0.002336,0.032457,0.079701,-0.857893,0.507610
-0.262049,0.176017,0.173831,-0.052406,0.894270,-0.444448
-0.211619,0.181928,0.430352,-0.031720,-0.665857,0.745404
-0.180658,0.163131,0.440648,-0.370146,0.834154,-0.408874
-0.302284,0.262405,0.575507,0.236730,0.971135,0.029265
-0.338993,0.291043,0.605990,-0.566307,-0.713207,-0.413075
-0.179918,0.188902,0.616961,0.516378,-0.223650,-0.826640
-0.151922,0.178292,0.666246,-0.077334,-0.880350,-0.467977
-0.306176,0.287861,0.729034,0.568749,0.547489,0.613824
-0.236837,0.242544,0.727650,0.859056,0.478524,0.181763
-0.092592,0.145399,0.705303,0.090647,-0.885582,0.455552
-0.194934,0.219206,0.752867,-0.680186,0.732069,-0.037708
-0.192337,0.219964,0.770151,-0.287179,0.896713,-0.336799
-0.270949,0.277408,0.810625,-0.290446,0.801637,-0.522512
-0.139870,0.189356,0.792903,0.461718,0.780217,-0.421992
-0.184178,0.222694,0.823588,-0.536127,-0.834135,0.129562
-0.090368,0.184204,0.860046,0.443458,-0.845693,0.296897
-0.096857,0.192084,0.879321,0.641167,-0.593359,-0.486652
-0.038824,0.154797,0.881853,0.368897,0.255431,-0.893683
-0.025102,0.148887,0.895727,0.352282,-0.725607,0.591094
-0.092405,0.199808,0.931948,0.357172,0.002034,0.934036
-0.103160,0.217541,0.987647,-0.572851,0.801246,0.172760
-0.598923,0.267862,-0.553837,0.619046,0.728464,0.293466
-0.439479,0.163585,-0.560419,0.350356,0.936599,0.005707
-0.426686,0.159348,-0.539220,-0.532797,-0.821245,-0.204166
-0.184738,0.000514,-0.548402,-0.147062,0.891983,-0.427480
-0.064409,-0.043591,-0.362231,0.726148,0.679426,0.105306
-0.193638,0.053258,-0.291780,-0.105359,-0.601764,-0.791694
0.049985,-0.067984,-0.087719,0.904655,0.413579,-0.102725
0.154732,-0.138156,-0.099804,0.325689,-0.564928,0.758144
0.020688,-0.038735,-0.032323,0.068892,0.282769,0.956711
-0.048278,0.014000,0.012405,0.970124,-0.141112,0.197352
-0.033262,0.007331,0.030398,-0.367152,0.822489,-0.434409
-0.212915,0.169958,0.284454,0.781532,0.593112,0.193459
-0.239429,0.214812,0.437373,-0.408233,-0.491168,0.769480
-0.158593,0.161772,0.432883,-0.553536,0.822404,-0.131336
-0.305435,0.283014,0.576149,0.083327,-0.958084,0.274100
-0.361981,0.326055,0.612437,-0.454032,-0.694746,-0.557838
-0.183623,0.211177,0.617872,-0.704673,-0.501353,0.502076
-0.098153,0.158285,0.631578,-0.564141,0.758851,0.325409
-0.205316,0.243913,0.719481,0.852427,0.093933,-0.514340
-0.172686,0.224063,0.728528,-0.210051,0.061847,0.975732
-0.094815,0.172983,0.725659,-0.058016,0.862605,-0.502540
-0.266129,0.296352,0.791823,0.368630,0.637556,-0.676486
-0.205503,0.257252,0.793578,0.976850,0.093925,0.192205
-0.032707,0.139793,0.764243,0.425274,-0.630476,0.649340
-0.133006,0.213148,0.810558,-0.775950,0.543740,-0.319762
-0.159520,0.234663,0.835572,-0.141126,-0.768402,0.624212
-0.168975,0.244672,0.855927,-0.717633,0.338287,0.608740
-0.191783,0.263921,0.880435,-0.126753,0.950557,-0.283505
-0.101860,0.204508,0.873582,0.817493,-0.510470,-0.266694
-0.072754,0.187228,0.883844,-0.127215,0.547306,0.827208
-0.024921,0.157221,0.889178,-0.713974,0.699096,0.038815
-0.077202,0.196932,0.921247,0.910347,-0.203609,0.360293
-0.067006,0.192991,0.935729,-0.762851,0.174869,0.622479
-0.081468,0.209355,0.974651,0.566307,-0.804305,0.179970
-0.079985,0.211482,0.991293,-0.263746,0.842594,0.469546
-0.617650,0.299377,-0.552925,0.619046,0.728464,0.293466
-0.421679,0.164797,-0.599206,-0.452047,0.608937,0.651805
-0.372918,0.134641,-0.590362,-0.617998,0.705642,0.346623
-0.361427,0.131311,-0.567576,-0.531682,-0.845898,-0.042085
-0.440034,0.195110,-0.487673,-0.587601,-0.751109,0.300932
-0.298759,-0.014638,-0.590328,-0.401093,0.811483,-0.424994
-0.207913,-0.069501,-0.571829,-0.169704,0.632489,0.755750
-0.297462,0.074774,-0.184331,-0.491706,0.649407,-0.580083
-0.298204,0.090842,-0.112091,0.181603,-0.332529,0.925443
-0.181586,0.027497,-0.057979,0.801131,0.072588,0.594070
0.066484,-0.141495,-0.094301,0.916884,0.398567,0.021621
-0.099449,-0.005998,0.030803,-0.054467,-0.463680,0.884327
-0.081468,-0.009338,0.069286,0.760433,-0.551558,0.342818
-0.332130,0.236791,0.447669,0.808698,0.356143,0.468155
-0.232758,0.170412,0.438251,-0.338312,-0.698665,0.630406
-0.145618,0.130395,0.513090,-0.417296,-0.858676,0.297557
-0.407036,0.321208,0.609804,0.465380,0.819798,0.333694
-0.332130,0.280433,0.646194,-0.566155,-0.066430,-0.821618
-0.262604,0.243913,0.683833,0.939340,-0.264058,0.218891
-0.244623,0.234968,0.697201,0.942793,0.235163,-0.236303
-0.233312,0.231481,0.713540,0.839193,0.489782,-0.236365
-0.252040,0.248613,0.737237,-0.106108,-0.976341,0.188415
-0.059588,0.116150,0.701894,0.501218,0.822826,-0.267839
-0.309695,0.298323,0.791654,-0.213985,0.315446,-0.924502
-0.215886,0.235579,0.784126,0.844937,0.394241,-0.361463
-0.135790,0.182686,0.779636,0.482253,0.857041,-0.181419
-0.160635,0.204360,0.804583,-0.286025,0.910639,-0.298205
-0.197712,0.234367,0.833513,0.675822,0.451903,-0.582278
-0.149698,0.204360,0.838103,0.461220,0.866824,0.189453
-0.234427,0.268621,0.879861,0.044321,-0.997141,0.061198
-0.071640,0.157526,0.853767,-0.633089,0.563635,-0.530579
-0.100564,0.181928,0.880030,0.454470,0.814808,0.359924
-0.048464,0.148887,0.883439,-0.416655,0.837070,0.354558
-0.015648,0.129637,0.892149,0.088988,0.993558,-0.070172
-0.095930,0.190411,0.931915,-0.178781,0.629784,0.755916
-0.093333,0.200419,0.984711,-0.220323,-0.973820,0.055959
-0.434285,0.112062,-0.611831,-0.442590,-0.387224,0.808809
-0.492319,0.159801,-0.562613,0.556939,0.826773,0.079156
-0.587798,0.234367,-0.500973,-0.602202,-0.784106,0.150105
-0.362723,0.076291,-0.559136,0.911956,0.401449,-0.084707
-0.231829,-0.001910,-0.527506,-0.138513,-0.895941,0.422023
-0.237205,0.027792,-0.396664,0.854209,-0.492486,-0.166687
-0.283001,0.070991,-0.330095,-0.146132,-0.987072,0.065830
-0.491392,0.264217,-0.039649,0.678067,0.563651,-0.471724
0.038675,-0.087233,-0.078638,0.928814,0.309444,0.203835
0.042567,-0.085115,-0.056358,0.549189,0.828741,0.107611
-0.126522,0.044471,0.043630,0.786221,-0.311404,0.533745
-0.066451,0.010365,0.068881,0.743438,-0.668802,-0.001901
-0.341957,0.266188,0.453509,0.683699,0.023906,0.729373
-0.179918,0.155556,0.425119,-0.107463,-0.747119,0.655945
-0.307104,0.265735,0.563422,-0.013400,-0.943742,0.330410
-0.336209,0.289988,0.591103,0.552825,0.757927,-0.346310
-0.304133,0.271340,0.601500,0.724658,0.625967,-0.288161
-0.233312,0.228761,0.620168,-0.038484,-0.987418,0.153378
-0.117622,0.159043,0.644169,0.261388,-0.850961,0.455567
-0.157483,0.190716,0.674179,-0.489865,-0.673941,-0.553024
-0.247401,0.257705,0.719008,-0.019475,-0.956526,0.290995
-0.221815,0.243608,0.730857,-0.367927,-0.140909,-0.919116
-0.060889,0.134040,0.704459,0.090647,-0.885582,0.455552
-0.288189,0.298018,0.786725,0.280708,0.678237,-0.679115
-0.223671,0.256041,0.786658,0.468117,0.829730,0.303998
-0.181586,0.230270,0.793882,0.728134,0.684969,0.025267
-0.126522,0.194962,0.796616,-0.014940,-0.523552,0.851863
-0.199381,0.249677,0.835336,0.672022,0.630789,-0.387933
-0.186407,0.244367,0.850357,-0.391465,0.551590,0.736549
-0.212547,0.266799,0.875911,0.478030,0.821823,-0.309990
-0.260380,0.165259,0.449559,0.355270,0.722506,0.593101
-0.194561,0.143586,0.530711,0.418393,-0.492475,0.763161
-0.174355,0.149645,0.604909,0.034491,0.044163,-0.998429
-0.292823,0.259981,0.734807,0.493045,0.724393,0.481831
-0.119105,0.139793,0.704392,-0.331968,-0.835871,0.437169
-0.181768,0.190114,0.741558,-0.513291,0.696643,-0.501219
-0.207353,0.212999,0.767146,-0.686076,0.405105,-0.604310
-0.264833,0.259065,0.801612,-0.810322,-0.475582,0.342345
-0.101679,0.146611,0.774640,-0.190782,-0.549580,0.813366
-0.189185,0.214054,0.817309,0.265188,0.953899,-0.140541
-0.107795,0.160708,0.813461,0.849498,0.527495,-0.010145
-0.236277,0.257853,0.867776,-0.634038,-0.772108,0.042953
-0.170463,0.215423,0.868147,-0.435981,-0.897963,0.059853
-0.124480,0.186775,0.873211,-0.149347,-0.983739,0.099766
-0.098895,0.172835,0.883946,0.815851,-0.120777,-0.565508
-0.045686,0.139488,0.887862,0.046200,0.897177,0.439249
-0.064409,0.157674,0.910513,0.623013,-0.662832,0.415342
-0.098708,0.187080,0.938126,0.166442,0.865751,0.471988
-0.069789,0.175407,0.966414,-0.278530,-0.011548,0.960358
-0.089440,0.194055,0.988930,0.111951,0.989332,-0.093217
-0.239802,-0.077687,-0.561094,-0.648024,0.757724,0.076932
0.147875,-0.223479,-0.122083,0.914673,0.223892,0.336520
