0.303561,-0.345584,0.760921,-0.390352,-0.867749,-0.307633
0.372486,0.123437,0.465704,0.889467,-0.134401,-0.436790
0.603447,-0.589453,-0.251601,0.821754,-0.456162,0.341521
0.308146,-0.083613,0.885730,0.874378,-0.442095,-0.200037
-0.059874,-0.762620,0.416025,0.652601,-0.713177,0.255913
0.872664,0.085729,0.279024,0.962740,0.262617,0.064527
0.522745,-0.036342,0.767154,-0.059368,0.996544,-0.058097
0.470973,-0.465196,0.748411,0.945708,0.123912,0.300471
0.585030,-0.305144,0.781228,-0.628141,0.754497,-0.190195
-0.951071,0.434523,-0.280542,0.959208,-0.274270,-0.068532
-0.151563,0.678735,0.696443,0.645366,0.607053,0.463668
0.349959,-0.002938,0.194284,-0.358929,-0.886011,0.293521
-0.079950,-0.181160,0.678652,-0.357264,0.780633,0.512811
0.666206,0.268597,-0.033916,0.122611,0.903590,0.410478
0.512706,-0.785232,0.644611,-0.117585,0.314582,0.941919
0.474924,0.784411,0.347196,0.124647,-0.989136,0.077929
0.499190,0.459525,0.283692,0.773438,0.434074,-0.461923
-0.496819,-0.360681,0.694267,0.277625,0.696819,0.661338
-0.691261,0.074731,0.138396,-0.381776,-0.904177,-0.191600
0.034898,0.319762,0.804277,-0.764347,0.019309,-0.644516
0.319922,-0.124668,-0.104899,0.426912,0.734793,0.527091
-0.053076,-0.162101,0.328521,0.681053,-0.730687,0.047575
-0.797653,0.037366,-0.344046,-0.639297,-0.256940,0.724763
0.223175,0.455904,0.696579,-0.304307,-0.949693,-0.074032
-0.004782,0.611312,0.678017,-0.508812,-0.801515,0.314141
0.197249,-0.748207,0.852822,0.557817,-0.041276,-0.828937
-0.332330,0.285948,-0.964463,-0.116443,0.211113,0.970501
0.501641,0.000546,0.008012,0.656005,0.393602,0.643999
0.554125,0.107657,-0.637314,0.721129,0.263059,0.640916
0.496739,0.004030,0.613630,0.889752,0.456265,-0.012790
-0.070702,-0.732837,0.565583,-0.462250,0.487989,0.740400
0.232739,0.401052,-0.064852,0.865349,0.265253,0.425220
-0.458878,0.789056,-0.994765,-0.084647,0.208063,0.974446
0.665811,0.569027,0.271907,0.901682,0.316811,-0.294279
-0.211240,0.377416,-0.965914,-0.009322,0.311604,0.950166
0.695372,0.469636,0.195916,-0.098976,0.716054,-0.690993
0.290282,-0.538698,-0.188392,0.118049,0.227711,0.966547
0.463227,-0.021655,0.823790,0.897965,0.439833,0.014342
0.152274,0.289021,-0.136492,0.224323,0.011914,0.974442
-0.316760,0.823895,-0.278978,0.343425,0.936792,0.066931
-0.145793,0.271603,0.842805,0.543636,-0.589073,-0.597874
0.721141,-0.041806,0.429488,-0.762643,-0.211539,0.611251
0.136467,0.644988,-0.430984,0.763219,0.177277,-0.621346
0.490970,-0.807638,0.657552,0.399515,0.819903,-0.410058
-0.211712,0.068788,0.952814,0.401218,0.899567,0.172637
-0.070306,0.421749,-0.124956,0.334209,-0.897506,0.287728
0.261273,0.229523,-0.730733,0.030151,-0.307291,0.951138
0.665811,-0.052053,-0.347627,0.086789,-0.544749,0.834096
-0.511678,0.704282,0.607624,0.310655,-0.163301,0.936390
-0.015374,0.978482,-0.465636,-0.217799,-0.934765,0.280675
-0.131882,-0.383155,-0.536778,0.265495,-0.118466,0.956806
0.419832,-0.154041,-0.159903,-0.127144,-0.785942,0.605086
-0.327588,0.254320,0.725996,-0.608380,0.397591,-0.686873
-0.592932,-0.362662,0.750382,0.788437,0.411327,0.457359
0.251552,-0.964069,0.280859,0.579184,0.806824,-0.116536
0.833143,0.448526,0.157728,-0.668633,-0.738837,-0.083966
0.115125,-0.237790,0.270661,0.827280,-0.462913,-0.318307
0.034978,-0.617050,-0.581108,0.224649,-0.046869,0.973312
0.480933,0.747865,0.358777,0.062914,0.926030,0.372169
0.124293,-0.041875,0.571566,0.884316,-0.337232,-0.322893
0.474451,-0.030604,0.497025,0.974442,0.007278,-0.224519
-0.224598,-0.160394,-0.640033,0.016837,0.944092,0.329253
0.465123,-0.174740,0.834827,-0.239257,-0.324273,0.915206
-0.350431,-0.251930,-0.182613,0.880061,0.360407,-0.309193
0.231632,-0.658105,0.873990,0.449244,-0.008640,-0.893367
0.276687,0.628457,-0.102836,-0.235109,-0.117517,0.964839
-0.008101,-0.168318,0.978492,-0.830880,0.546645,0.104003
0.874244,0.255686,0.181185,0.423055,-0.905796,-0.023624
0.169507,-0.083544,-0.817943,-0.675683,0.735001,-0.056792
0.018300,0.032174,0.875622,0.375758,0.764457,0.523843
0.196222,-0.488831,0.622242,0.679808,-0.630896,-0.373941
0.378415,-0.015849,-0.351887,0.227118,0.747933,-0.623710
-0.673240,-0.074118,0.722529,-0.413703,0.806575,-0.422240
0.650477,-0.195301,0.636724,-0.664420,0.744372,-0.066749
0.278426,-0.031902,0.878908,-0.057795,-0.922082,0.382654
-0.054420,0.209508,0.254366,0.894530,-0.152620,0.420147
0.223334,0.237175,0.252892,0.332308,0.416615,-0.846170
0.858198,0.329666,0.354154,0.907589,0.402587,-0.119187
-0.930915,0.390804,-0.251646,0.886915,-0.260166,-0.381700
0.063195,-0.547373,0.589810,0.059310,0.994637,-0.084733
-0.160020,0.095361,0.518012,0.951819,0.279632,-0.125885
0.225862,-0.515541,0.872562,0.396713,0.774839,0.492182
0.837965,0.078284,0.866284,-0.262502,0.942613,0.206333
0.720034,-0.192842,0.655648,-0.493542,0.868926,0.037206
-0.569695,0.235466,-0.264224,-0.567345,0.302616,0.765861
0.191007,0.658378,-0.706188,0.950422,0.292213,-0.106345
-0.119867,0.227337,0.844595,-0.520888,-0.329191,-0.787597
-0.088962,0.779764,-0.985427,-0.028218,0.015011,0.999489
0.273920,0.092219,0.389577,0.061282,0.991719,-0.112862
-0.260641,-0.498464,-0.203372,0.186605,-0.453059,0.871732
0.471764,0.469840,0.468401,0.861753,0.485893,-0.145912
0.135836,0.037639,0.631308,0.752247,-0.581471,0.309864
0.128799,-0.035795,0.315671,-0.460020,-0.871823,0.168243
0.297395,0.109023,0.319365,-0.120674,0.992555,-0.016522
0.597993,0.070496,0.139325,-0.315999,-0.513649,0.797690
0.658381,-0.600382,-0.131166,-0.549822,0.704239,0.449158
-0.099554,-0.360954,-0.932689,-0.021811,0.117232,0.992865
-0.589613,0.092492,0.617619,0.687810,0.389228,0.612714
-0.008181,-0.663297,0.406235,0.907054,-0.284244,0.310578
0.102716,-0.058270,0.881764,0.697409,0.311580,0.645397
0.123741,-0.743357,-0.457024,0.820751,0.548274,-0.160509
0.565665,0.248036,0.531791,0.776251,-0.419320,-0.470749
-0.701378,-0.036615,0.721441,0.382642,-0.898936,0.213306
0.480537,0.196734,-0.221957,-0.359412,0.933176,-0.002344
-0.138047,-0.409864,0.306628,-0.248810,0.964198,-0.091738
0.477218,-0.176242,-0.633574,0.005271,-0.994318,0.106317
0.282061,0.348726,0.625755,-0.071448,-0.900211,0.429553
-0.548828,0.576131,-0.584417,0.227193,0.925177,-0.304024
0.266886,-0.217843,0.514408,0.419729,0.870326,0.257606
0.832352,-0.237858,-0.103063,0.150406,0.988585,0.008840
0.559024,-0.512740,-0.539021,0.501060,-0.474031,-0.724039
0.417382,0.025138,-0.717633,-0.215156,0.620791,0.753875
-0.157253,-0.825466,0.562025,0.512986,-0.852645,0.099206
-0.451844,-0.130952,-0.391662,0.908752,-0.092400,-0.406978
0.246573,-0.777649,0.478101,-0.112778,-0.744860,0.657621
-0.246255,-0.771091,-0.915533,-0.213139,0.168186,0.962437
0.249576,0.438280,0.752807,-0.394322,-0.910296,0.125978
0.462277,0.532687,-0.113896,-0.176246,-0.589187,-0.788541
-0.047542,0.618552,0.673077,-0.353849,-0.699885,0.620445
0.658777,0.217022,0.568960,0.642052,-0.699524,0.313743
0.006681,-0.816654,0.018527,0.288565,0.060761,0.955530
-0.273604,-0.203498,-0.937539,-0.034484,0.107671,0.993588
0.225626,-0.542523,0.189570,0.887135,-0.415233,-0.201430
-0.507092,0.324065,-0.165161,0.693884,0.316822,-0.646645
0.307355,-0.582076,0.731821,0.771635,0.356966,-0.526455
0.360946,-0.656192,0.806180,0.089223,-0.663569,0.742775
-0.070070,-0.078694,-0.070223,-0.013992,0.977095,0.212344
-0.289411,-0.170026,-0.939783,0.004017,0.113409,0.993540
0.571910,-0.570873,0.835802,0.787339,0.524972,0.323266
0.485043,-0.584125,0.711492,-0.682794,0.728647,0.053527
-0.110223,0.524283,0.663082,0.751177,0.057646,0.657579
0.091177,0.659812,-0.983410,-0.036852,0.073032,0.996649
0.251157,0.738984,0.030449,-0.741624,-0.616062,-0.265447
-0.585741,0.824441,0.082711,-0.401277,0.902469,-0.156612
0.685571,-0.178223,0.556200,0.909660,0.300229,-0.287023
0.147532,0.061616,0.618752,0.737997,-0.623871,0.257187
-0.266884,0.098367,0.403039,0.755093,-0.550750,0.355680
0.835514,0.035111,0.832289,-0.559608,0.806598,-0.190365
0.509546,-0.225221,-0.689281,-0.189607,-0.697187,0.691361
0.209660,-0.739395,-0.496867,-0.609725,-0.760668,-0.222755
0.014742,-0.977594,0.509672,-0.447743,0.784677,-0.428728
0.750466,0.082588,0.362177,-0.293957,-0.867104,0.402144
0.250129,-0.089419,0.030653,0.874063,0.438434,-0.209262
0.388848,0.284855,-0.713781,0.278547,0.408606,-0.869168
0.383869,-0.972539,0.474316,-0.713737,0.540210,-0.445817
-0.112437,0.678324,0.680102,0.681915,0.670602,0.292036
0.194562,-0.362456,0.803121,-0.173139,0.982901,-0.062683
0.256769,0.163876,0.688420,0.467694,-0.871850,-0.145396
-0.636563,0.052667,0.111154,0.790304,0.515845,0.330640
0.482197,-0.354396,0.806067,-0.740636,0.530214,-0.412713
-0.054579,-0.060319,-0.942298,0.006938,0.126741,0.991912
0.256374,0.473254,0.096558,-0.578494,-0.661675,0.477001
0.335416,-0.462463,0.680782,-0.528807,0.773199,0.350038
0.061929,0.032516,-0.946582,-0.151362,0.197777,0.968490
0.193535,-0.716033,0.486305,-0.272767,0.883197,0.381525
-0.307512,-0.056152,0.354199,-0.625509,0.334542,-0.704855
-0.391535,0.845413,0.286072,-0.097435,-0.979217,0.177879
0.335100,-0.337591,0.843847,0.916060,-0.323491,-0.237040
-0.283957,0.863037,-0.334980,0.238649,-0.953293,-0.185145
0.468838,-0.705103,-0.100819,0.716458,-0.422845,0.554878
0.878514,0.187649,0.288474,0.903078,0.299668,-0.307650
0.441648,-0.233487,0.893526,0.396079,0.916346,-0.058575
0.293601,-0.798893,0.523701,0.900158,-0.145585,-0.410512
0.233610,0.393674,0.529185,0.810302,0.576089,0.107390
-0.218273,0.685837,0.673235,-0.671343,0.498415,0.548525
0.385213,0.727850,0.407232,-0.490621,0.852076,-0.182366
0.616885,-0.134983,0.864449,-0.678052,0.185203,-0.711299
-0.910603,0.174191,-0.381192,0.819655,0.169348,-0.547255
-0.514206,-0.235400,-0.234830,-0.389628,-0.805474,-0.446545
0.602815,-0.541021,0.605788,-0.654992,0.755538,-0.012151
0.467338,0.128765,-0.602049,0.598666,0.184031,0.779571
-0.334149,0.799575,0.266377,0.360401,0.541129,-0.759797
-0.233844,-0.056289,0.328204,0.601863,-0.699628,0.385073
0.753153,0.507889,0.260825,0.741606,0.658530,0.127899
-0.434611,-0.174329,0.342346,0.889000,0.428940,-0.160276
0.582263,0.042556,0.542398,-0.392099,0.883562,0.256078
-0.122633,0.910717,-0.121534,0.551052,-0.818520,-0.162378
0.735052,0.101167,0.392591,0.917339,0.288210,0.274636
0.294788,-0.877177,-0.390574,-0.696275,0.002439,0.717770
0.275264,-0.675934,0.340646,0.174724,-0.915860,-0.361487
0.253132,-0.335953,0.664555,0.227273,0.919314,-0.321261
-0.387345,0.469294,0.706800,-0.150843,0.746728,0.647799
-0.476899,0.481727,0.605086,0.499273,-0.478931,0.722047
-0.645416,-0.048980,0.736898,0.107836,-0.875724,-0.470615
0.875904,0.291481,0.250671,0.780322,0.616175,0.106892
-0.096548,-0.308970,0.745759,0.676430,-0.495040,0.545324
-0.007233,-0.237038,-0.472662,-0.545045,0.812640,-0.206259
0.075131,0.087163,0.730257,0.942790,-0.325614,0.071570
0.129590,-0.061890,0.122508,-0.223027,-0.966707,0.125443
-0.450262,-0.034839,0.723843,0.236878,-0.765853,-0.597795
-0.643124,0.382402,-0.318980,-0.474347,0.445134,0.759507
0.050705,0.986748,-0.044749,-0.357724,0.931076,0.071636
-0.170375,-0.236902,0.696375,0.477462,-0.670494,-0.567862
-0.303640,-0.306852,-0.234966,-0.521548,-0.781293,-0.342882
-0.066275,-0.328506,0.688465,0.250142,-0.280140,0.926796
0.482276,0.061889,0.514975,0.786520,0.418131,-0.454481
0.476506,-0.618417,-0.097669,-0.852054,0.432440,0.294955
0.706835,0.464649,0.233696,-0.592153,-0.733399,0.333888
-0.600364,0.061410,0.110882,0.778359,0.597210,0.193643
0.304509,0.113873,0.241153,0.830297,0.429464,-0.355200
0.777892,0.137304,0.750065,-0.566959,0.467520,0.678220
0.162787,-0.242299,0.833309,-0.683764,0.182676,-0.706468
0.242384,0.091467,-0.348125,0.134294,0.608503,-0.782106
-0.119235,0.478856,0.710880,-0.699542,0.281137,-0.656965
0.050389,-0.818635,0.488164,-0.331564,0.361167,0.871564
0.845947,-0.036888,0.041667,-0.675886,0.675170,0.295507
0.236454,-0.220371,0.078813,0.781607,0.121703,-0.611783
0.266491,-0.346677,0.621472,0.841149,-0.025055,-0.540223
-0.203335,-0.811121,0.558195,0.512986,-0.852645,0.099206
0.456982,-0.133480,0.938649,0.090198,0.574126,0.813783
0.573806,-0.055400,-0.032148,0.479876,-0.532638,0.697148
0.523613,-0.486713,-0.247748,0.779569,0.153699,0.607165
0.398253,-0.852995,0.425839,-0.867220,0.488232,-0.097768
0.316524,0.530364,0.382415,0.659718,-0.653975,0.370255
-0.441568,-0.400027,0.729011,0.011261,0.171162,0.985179
-0.010313,-0.203839,-0.937970,-0.089586,0.192332,0.977232
0.481405,-0.823553,0.636407,0.336534,0.923561,-0.183793
-0.438801,0.595531,0.620905,0.387435,0.402764,0.829262
0.390508,-0.213130,0.834646,0.789318,0.210549,-0.576755
-0.380547,-0.329463,0.702857,-0.443215,0.865392,0.233790
0.383158,-0.150011,0.886546,-0.775014,-0.626394,0.083569
-0.069279,0.739395,0.609392,0.847347,0.098504,0.521823
0.168636,-0.092493,-0.758405,-0.764070,0.645133,0.000251
0.091017,-0.302070,0.706891,-0.602581,-0.324641,0.729043
0.256294,-0.009838,0.655784,-0.360212,-0.051875,0.931427
-0.085168,0.638498,0.668612,0.953448,0.267423,0.139361
0.015533,-0.535624,0.602411,-0.285134,0.091385,0.954121
0.001227,-0.263543,-0.130237,0.330685,-0.061695,-0.941723
0.721298,0.120568,0.687060,0.867303,-0.484438,-0.114480
0.196381,-0.701756,0.348488,-0.474327,-0.840044,-0.263327
0.460933,-0.250427,0.619726,-0.020577,-0.981715,-0.189240
0.177568,-0.063188,0.207928,0.421296,0.877468,-0.229257
-0.169979,0.098299,-0.952520,0.067598,0.080989,0.994420
0.098842,-0.611654,0.619862,-0.755085,-0.315563,0.574688
0.541242,-0.678598,0.412535,-0.731105,0.510369,-0.452779
-0.482669,-0.266343,-0.456344,0.382228,0.528979,0.757683
-0.481089,-0.252955,0.696624,0.374342,0.616545,0.692633
0.262144,-0.012843,0.427380,-0.089151,0.980876,0.173013
-0.095837,-0.286291,-0.933437,-0.041965,0.076375,0.996196
0.550962,-0.225152,0.884869,-0.517110,0.096313,-0.850483
0.637750,-0.296127,0.618616,-0.358480,0.739800,-0.569375
0.409400,-0.011135,0.874375,0.563801,0.231566,0.792783
0.443860,0.049934,0.469126,0.851712,-0.390428,-0.349504
-0.361971,-0.337591,0.682867,-0.578395,0.359747,0.732149
0.065962,-0.083476,0.722982,0.948040,0.115439,-0.296470
0.258270,-0.082247,-0.857332,0.991915,0.122957,0.031418
0.303088,0.733929,-0.225084,0.110312,-0.829592,0.547365
0.474055,0.012159,0.809353,0.848892,0.528282,-0.017328
0.240092,-0.042285,0.078246,0.206177,-0.977025,-0.053966
-0.147689,0.011134,-0.950208,0.103530,0.296299,0.949467
0.950203,0.118656,0.307399,0.997953,-0.052081,-0.037127
0.268150,0.501400,0.499201,-0.263659,0.960988,0.083581
0.501009,-0.354669,0.745306,-0.738008,0.506314,-0.446083
0.607477,-0.491359,-0.183950,-0.337885,0.941175,0.004887
0.500058,-0.760640,0.630129,-0.332799,0.440474,0.833803
-0.036951,0.219618,0.826714,0.095516,-0.276467,0.956265
-0.208789,-0.039620,0.580700,0.403289,0.286747,-0.868984
-0.015610,-0.784548,0.422689,0.313123,0.787296,0.531149
0.606054,-0.244075,0.051186,0.919743,-0.016033,-0.392193
0.295420,-0.733589,0.347672,-0.018895,0.960289,0.278365
0.004387,-0.427216,0.438258,0.940593,0.237331,0.242813
-0.547248,0.259853,0.163212,0.812026,0.055636,-0.580963
-0.258665,0.842338,-0.155144,-0.243366,0.787987,-0.565553
-0.387108,0.739122,0.615647,-0.508541,0.012199,-0.860951
0.123345,0.000750,0.502646,-0.202712,-0.978764,0.030480
0.553886,-0.011340,0.002980,0.749267,0.486039,0.449850
-0.268307,-0.239019,-0.937788,-0.097616,0.107598,0.989391
0.440461,-0.580094,0.675343,0.918793,-0.388220,0.071448
0.342214,-0.746294,0.387084,0.120121,0.865140,0.486933
0.081058,-0.022885,0.765794,0.912516,0.393849,0.110441
0.420228,0.015848,0.709814,0.848404,0.284700,0.446269
0.537763,0.744654,0.353700,0.731878,0.665181,-0.147952
0.249733,0.607553,-0.519553,0.935479,0.340564,-0.094314
-0.679326,0.050276,0.164459,-0.403605,0.871235,0.279380
0.083508,0.718558,-0.080195,-0.352529,0.923357,-0.152105
-0.333913,-0.053215,0.642390,0.485628,0.815061,-0.315977
0.477927,-0.737687,0.774089,0.887121,0.404877,-0.221564
0.562741,0.478310,-0.107754,0.155098,0.343826,0.926136
0.330674,0.655782,-0.248269,-0.686234,-0.375442,0.622998
-0.418409,-0.049320,0.089374,-0.304148,-0.723639,0.619549
0.168320,-0.496961,0.632871,0.837134,-0.334053,-0.433145
0.429553,-0.577977,0.655807,0.896326,-0.278413,0.345087
-0.454215,-0.503587,0.691570,0.799729,0.478265,0.362899
-0.282534,-0.331717,-0.226172,0.514993,0.767203,0.382338
0.431847,0.539449,0.194216,-0.238392,-0.843104,0.482021
-0.020353,-0.419565,0.685043,-0.221139,0.959234,0.175978
-0.307116,-0.197692,0.423912,0.437207,0.890953,0.122689
-0.468363,-0.455291,0.692227,0.853582,0.059414,0.517559
0.547089,-0.304735,0.739345,-0.376568,0.740755,-0.556308
-0.192743,0.020834,0.627545,-0.605194,0.007115,-0.796046
-0.287040,0.352482,0.635228,0.811661,0.561103,-0.162390
-0.115915,0.637269,0.691049,0.714604,0.520175,0.467717
0.673084,-0.098231,0.431459,0.859809,-0.316838,-0.400427
-0.705964,-0.031902,0.724591,0.382642,-0.898936,0.213306
-0.074496,0.444565,-0.976067,-0.007892,0.168618,0.985650
0.061693,0.554682,-0.258604,-0.738041,0.670839,-0.072601
0.247598,-0.135871,0.248745,0.754655,0.604037,-0.256195
0.320002,-0.529476,0.824107,0.503193,0.040444,0.863227
0.220488,-0.222147,0.431573,0.880240,0.462067,-0.108040
-0.193218,-0.537742,0.573334,-0.383413,0.923515,0.010701
0.418725,0.503653,0.485852,0.437332,0.893720,0.100028
0.538791,-0.253502,-0.180935,-0.174918,-0.732543,0.657863
0.451369,0.493953,-0.102814,0.185970,-0.465666,0.865199
0.000356,-0.886467,0.486645,0.987462,-0.060184,-0.145935
0.397464,0.558439,-0.444106,-0.610663,-0.653774,0.446845
0.583211,0.314774,0.384478,0.508476,0.409752,0.757334
0.439672,0.346881,0.328521,0.622621,0.772617,0.124118
-0.107063,0.043104,-0.952542,-0.020870,0.161127,0.986713
-0.120103,0.290046,0.841581,-0.331173,0.617666,0.713311
-0.029681,-0.883120,0.371106,-0.117110,-0.987254,0.107776
-0.158440,-0.165107,0.625415,0.115587,-0.381134,0.917266
0.112992,-0.592732,0.827144,0.648669,0.526652,0.549424
-0.341183,-0.292848,0.657733,-0.600862,-0.280393,-0.748562
-0.242065,-0.252887,-0.257335,-0.285762,0.845981,0.450173
-0.202623,0.054580,0.944791,0.667436,0.735019,0.119482
0.424258,-0.605301,-0.122735,0.931146,-0.085215,0.354550
0.040984,-0.167226,0.883509,-0.189437,-0.772823,0.605688
-0.064852,-0.619578,0.544823,0.439107,0.187861,0.878575
0.692528,0.488898,0.191678,-0.007624,-0.709813,0.704349
0.644786,-0.284446,-0.164663,0.051324,-0.848679,0.526412
-0.151879,-0.046452,0.314152,0.444352,0.821431,0.357495
0.185473,0.306714,-0.139642,-0.172154,-0.650758,0.739511
-0.509464,-0.284788,-0.217560,-0.334595,-0.921876,-0.195427
0.428289,0.040234,0.477104,-0.601378,0.653034,0.460317
0.714421,-0.195643,-0.036885,-0.601378,0.184257,-0.777428
0.410584,0.408976,0.425952,0.983639,0.100640,-0.149419
0.501482,-0.731880,-0.625256,-0.687098,0.587344,-0.427694
0.434218,-0.675661,0.644067,0.370363,0.608075,0.702194
-0.617830,0.675456,0.201967,0.470487,-0.014432,-0.882289
0.134253,0.549012,-0.978560,-0.101365,0.107159,0.989061
-0.403231,-0.513629,0.624463,0.842471,-0.404843,0.355451
0.832984,0.119270,0.221254,0.692684,0.720313,0.036563
-0.000433,0.696836,-0.069022,-0.103185,0.994121,0.032797
-0.261825,0.378031,0.569866,0.765985,-0.450558,0.458546
-0.330275,0.444634,-0.475291,0.317940,0.276706,0.906834
0.351539,-0.268871,0.705123,0.090085,-0.916870,-0.388887
0.284907,-0.708928,0.656215,-0.615961,0.345849,-0.707800
0.687863,-0.051917,0.411243,0.834588,-0.474022,-0.280653
-0.453899,0.454334,0.660770,0.757933,0.022152,-0.651956
-0.103425,-0.536581,0.477195,0.171649,0.836678,0.520103
-0.197485,0.133069,0.633823,-0.254173,-0.613426,0.747733
0.176777,-0.106087,0.236393,-0.645814,-0.763269,-0.018577
0.177252,-0.004509,-0.314787,0.997175,0.073847,0.013720
-0.564557,-0.299953,0.622265,0.921183,0.131963,0.366070
-0.224519,0.409933,-0.973212,-0.020397,0.323195,0.946113
-0.128640,-0.088941,0.820730,0.384815,0.543688,0.745869
0.364029,0.154313,0.605312,-0.526133,-0.778823,-0.341495
0.844287,0.452147,0.444332,-0.521476,-0.762750,-0.382458
0.932102,0.143042,0.672714,0.175169,0.977534,0.117234
-0.537129,0.160529,0.584212,0.688279,0.405449,0.601567
-0.197881,-0.499078,-0.927907,-0.087152,0.133490,0.987211
0.329250,0.639318,0.384954,0.790266,0.167925,0.589305
0.294313,-0.284582,0.635455,0.952929,-0.291417,-0.083680
-0.217798,-0.013731,0.808719,0.039683,0.709495,0.703592
-0.068726,-0.033609,0.858941,0.659838,-0.750531,-0.036280
-0.221672,0.242434,0.179009,-0.027916,-0.960211,0.277878
-0.029205,0.375502,0.211645,0.931762,0.193490,0.307215
-0.138916,-0.164083,0.510080,0.960132,0.028304,0.278110
-0.383946,-0.336635,0.687717,-0.595175,0.286922,0.750628
0.114176,-0.139491,0.221821,-0.299614,0.913363,0.275681
0.716396,-0.310404,0.264655,0.938478,0.126934,0.321164
-0.358177,0.012090,0.597947,0.610085,0.464123,0.642173
0.583686,-0.231027,0.044613,0.882541,0.155467,-0.443792
-0.192664,-0.113055,0.625982,0.602551,-0.196834,0.773427
0.092281,-0.060660,0.870341,0.986707,-0.083802,-0.139233
-0.357545,0.509051,0.622197,0.683033,-0.002024,0.730384
-0.125241,-0.039279,0.428989,0.813391,-0.517808,0.265083
0.258902,-0.926225,0.302662,0.422695,0.886029,-0.190478
0.130143,-0.351732,0.555339,0.857961,-0.402335,-0.319420
0.510966,-0.115377,0.693723,0.801094,-0.553165,-0.228597
-0.356281,-0.602159,-0.163008,-0.698780,0.656101,-0.285024
0.520374,0.324816,-0.444106,0.975934,-0.078016,-0.203634
0.132514,-0.105677,0.189479,-0.070026,-0.959157,-0.274069
-0.051496,0.289432,0.448072,0.788235,-0.451256,0.418394
0.117812,-0.455769,0.844505,0.245286,-0.493373,0.834517
0.445838,-0.117017,0.890874,-0.062680,0.997708,-0.025499
0.622891,-0.041329,0.841264,0.892290,-0.328007,-0.310211
-0.387345,0.679758,-0.987784,-0.105724,0.139724,0.984530
0.026993,-0.600382,0.124163,0.140618,0.789686,0.597179
0.113308,0.566977,0.601120,0.682680,0.081505,0.726158
-0.559260,0.455904,0.129217,0.387109,0.695608,-0.605207
0.099158,0.360680,0.782837,0.670870,-0.134117,0.729346
-0.557521,0.644784,-0.023264,-0.549327,-0.683909,-0.480113
0.300162,-0.033267,0.475472,-0.258770,-0.123178,-0.958053
0.291389,-0.666986,0.864970,-0.156328,-0.260014,0.952866
0.304668,-0.008677,0.808220,0.769602,-0.159505,0.618280
-0.090462,-0.490949,-0.923646,-0.117431,0.152511,0.981300
0.317079,0.198306,-0.167247,-0.184370,0.012066,-0.982783
-0.233292,0.333561,0.511349,0.238378,-0.956374,0.168895
0.179783,-0.086072,0.803166,-0.311232,-0.522766,0.793631
0.508834,0.419291,-0.130123,0.135942,-0.660547,0.738375
-0.590720,-0.328506,0.696556,0.305378,0.921127,0.241391
0.376596,0.356922,0.623647,0.878873,-0.469489,0.084637
0.008577,0.559873,-0.311795,-0.706439,0.704731,-0.065556
0.441173,0.173167,-0.193922,-0.024247,0.994377,0.103087
-0.250522,0.359927,-0.255952,-0.039784,0.559616,0.827797
0.465598,0.012910,-0.724025,-0.264248,0.497609,0.826171
0.085088,0.014139,0.258332,0.739971,0.659989,-0.129840
0.632139,0.547031,0.237390,0.915933,0.327102,-0.232530
0.571987,-0.296606,0.861797,0.036464,0.988246,-0.148463
-0.098051,-0.765626,0.448185,0.844124,0.448318,-0.294050
0.992255,0.119406,0.674346,-0.244183,0.629303,-0.737802
0.087619,-0.050414,0.892461,0.999743,-0.022662,-0.000744
-0.156621,0.082040,-0.950956,0.074953,0.166087,0.983259
-0.174801,0.263201,0.399209,-0.439007,0.823890,-0.358439
0.655219,0.090375,0.684816,-0.052910,0.910461,0.410196
-0.074101,-0.178291,0.395288,0.997095,0.076165,-0.000613
-0.287356,-0.381857,-0.086881,-0.693853,-0.276826,-0.664782
0.436274,-0.214633,0.619069,-0.031571,-0.955840,-0.292188
0.204206,0.723272,-0.982413,0.023655,0.103500,0.994348
0.395802,0.121866,0.518375,0.924724,0.361911,-0.117922
-0.128008,0.255891,0.731277,-0.204743,-0.762195,0.614117
0.036874,0.409318,0.799925,0.823377,-0.041134,0.566003
0.008656,-0.713369,0.537820,0.817372,0.187669,0.544687
-0.368376,-0.270442,0.637200,-0.666150,-0.713233,-0.218046
0.346324,0.894390,-0.047038,0.729038,0.645637,0.227282
-0.529147,-0.002801,0.114417,0.720564,0.693041,0.021954
-0.296524,-0.035454,0.452310,0.775192,0.009439,-0.631655
0.108802,-0.075894,0.955035,0.832583,-0.486478,0.264848
0.457773,-0.115172,-0.116140,0.521447,0.482132,0.704018
0.505831,0.422978,0.500266,0.771790,0.633513,0.054776
0.767853,0.128970,0.715571,0.545175,0.757393,-0.359359
0.140182,-0.288408,0.605380,0.680818,-0.730798,-0.049208
0.511678,0.230753,0.518193,0.922344,0.115228,-0.368787
-0.360944,-0.250837,-0.154283,-0.041172,0.998892,-0.022787
-0.628661,0.498804,0.599306,-0.683397,0.719154,-0.125643
0.169902,-0.099597,0.875826,0.293165,0.159896,-0.942596
-0.479429,-0.381242,0.719515,-0.065193,0.687609,0.723149
0.009052,0.305074,0.216064,0.906190,-0.040413,0.420935
0.163657,-0.052736,0.050619,0.941375,0.337289,0.007072
0.287199,-0.234033,0.292282,0.759237,-0.119687,-0.639714
0.224994,0.622309,-0.337315,0.896263,0.425997,0.123445
0.143026,-0.755994,0.220483,0.589054,-0.764375,-0.262194
0.463068,0.117425,0.470396,0.911580,-0.035690,-0.409570
-0.013003,0.297219,-0.408909,-0.070433,0.392548,0.917031
0.761214,-0.292917,0.255204,0.924932,0.137134,0.354535
0.161207,-0.090990,0.819439,0.773824,0.484193,0.408356
-0.522349,-0.114830,0.690278,0.890883,0.315809,0.326485
0.512390,0.167292,0.528664,0.986395,0.078062,-0.144677
0.346481,-0.597445,0.878749,0.239296,-0.710167,0.662119
-0.089751,0.115171,0.865401,0.380671,0.612549,0.692729
-0.075840,-0.567935,0.542103,0.908867,0.405083,-0.099343
0.496028,-0.023636,0.646492,0.969317,0.142956,-0.199970
-0.401020,0.325090,-0.966752,-0.022766,0.198082,0.979921
-0.155041,0.506182,0.509740,0.615217,-0.754799,0.227568
-0.423863,-0.101783,0.391821,0.977829,0.083015,0.192245
0.027153,0.726757,-0.050370,0.074632,0.883627,0.462205
0.474924,-0.336703,0.736671,-0.425600,0.725719,-0.540552
0.736791,-0.176993,0.222070,-0.339782,-0.558262,-0.756896
0.641465,-0.379330,0.723390,0.091331,-0.936085,0.339712
0.674111,-0.268120,0.100457,0.796801,0.063590,-0.600887
0.598468,-0.296946,-0.649371,0.351739,0.815517,-0.459577
0.002807,0.087437,0.361723,0.891448,0.444831,0.086292
0.598388,0.031149,0.783245,-0.426927,0.865967,0.260451
0.686599,-0.093108,0.435403,0.859809,-0.316838,-0.400427
0.092520,-0.085252,0.555883,0.886714,-0.344135,-0.308723
0.329091,-0.286633,0.679241,0.279005,0.945761,-0.166412
0.178360,-0.125692,0.225605,0.144042,0.985324,-0.091590
0.626765,-0.588906,-0.522885,-0.573341,0.547122,0.609867
0.360392,-0.107043,0.935726,0.201673,0.685875,0.699216
0.133385,-0.054376,0.112514,-0.419354,-0.846598,0.327741
0.256454,-0.471822,0.155665,0.941025,-0.320129,-0.109499
0.367032,-0.974657,0.179598,0.573367,0.814214,0.091133
-0.020116,0.622173,-0.982549,-0.012806,0.103405,0.994557
0.291310,-0.255140,0.576847,-0.285775,0.951132,-0.116963
0.131645,-0.559191,0.421034,0.648214,0.494096,0.579385
0.022251,0.747727,-0.985314,-0.138595,0.083495,0.986823
-0.652768,0.131293,-0.236552,0.225066,-0.457721,-0.860138
0.547248,-0.302138,-0.016896,-0.504574,0.856339,0.109946
0.223651,-0.078012,-0.114304,0.698231,0.601781,-0.387728
0.152433,-0.154246,-0.046517,0.807617,-0.583920,-0.082417
-0.092993,0.034018,0.908416,0.993046,-0.073848,0.091684
-0.244675,-0.032927,0.726676,0.310428,-0.478046,0.821649
0.344741,0.552360,-0.267012,0.911464,-0.371054,-0.177632
-0.119551,-0.205889,-0.938196,0.070636,0.150434,0.986093
-0.313045,-0.283012,-0.023650,0.919059,-0.372244,0.129481
0.462672,0.190586,0.785511,0.031225,0.897436,0.440038
0.032843,-0.872942,0.493898,-0.476238,0.454329,0.752850
-0.404259,0.345104,-0.967546,0.000725,0.189825,0.981818
-0.176697,0.441286,-0.973121,-0.037553,0.131152,0.990651
0.122238,-0.119271,0.098372,-0.744469,0.598143,-0.296633
-0.307748,0.885236,-0.671694,-0.566446,0.725283,0.391285
-0.116547,0.667940,-0.477308,0.010767,0.610493,0.791949
-0.568588,0.486029,0.650594,0.354179,-0.663082,0.659454
-0.393431,0.840631,0.077906,-0.434170,-0.899163,0.054788
0.670396,0.242775,-0.221322,-0.557752,0.718091,0.416243
0.219065,-0.066945,-0.013950,0.985937,0.123607,0.112469
-0.109827,-0.009154,0.898988,0.909424,-0.360413,0.207486
0.233371,-0.274678,0.594796,0.523849,-0.770645,-0.362888
0.290993,-0.414441,0.593210,-0.556876,-0.697767,0.450566
-0.431845,-0.285402,-0.117250,0.261643,-0.920929,-0.288847
-0.750384,0.238267,-0.285279,-0.578565,0.424348,0.696557
0.423943,-0.510555,0.765114,0.759844,-0.573210,0.306704
0.082560,-0.908874,0.499224,-0.243105,0.240964,-0.939594
-0.093625,0.384794,0.437737,0.783949,-0.490373,0.380733
0.047466,0.118313,-0.948123,-0.154580,0.191248,0.969293
0.528119,0.328232,0.377656,0.030794,0.670840,0.740962
-0.328300,-0.448733,-0.059413,0.600431,0.521334,0.606377
-0.763586,-0.066330,-0.377951,0.736429,0.664981,-0.124388
-0.768485,0.693490,0.291217,0.229479,-0.973013,-0.024191
-0.298107,0.372360,0.065917,0.796594,0.381544,0.468895
0.396198,-0.039143,0.532335,-0.669803,0.554268,0.494117
-0.270282,-0.201517,0.053407,-0.586938,-0.759886,-0.279422
0.044303,-0.426601,0.293551,-0.424645,0.723015,-0.544908
0.074892,-0.017147,-0.942842,0.170455,-0.170904,-0.970431
-0.105324,-0.237858,0.693723,-0.029557,0.472650,0.880754
-0.204047,-0.398388,-0.933595,0.000556,0.175930,0.984403
0.783506,0.060864,0.773001,-0.072098,0.769649,0.634383
0.179624,-0.090102,-0.300464,0.979834,0.189986,0.061891
-0.333438,0.463419,-0.277165,-0.000266,0.574002,0.818854
-0.503932,0.049593,0.510442,0.963603,-0.025266,-0.266142
-0.525825,0.843499,0.280315,-0.445083,0.895142,-0.024930
0.128563,0.583032,-0.980736,-0.027199,0.084784,0.996028
0.697111,-0.548672,-0.247385,0.958156,-0.275891,-0.076299
0.422519,-0.875538,0.317552,-0.565291,0.697859,-0.439817
0.612695,0.115034,0.496051,-0.512977,0.851329,-0.109973
0.154014,0.788236,0.082892,0.393705,0.718112,-0.573856
-0.574674,-0.062300,-0.520641,-0.589863,-0.769297,-0.245446
0.585662,-0.340461,0.678720,0.879762,-0.465655,0.095831
-0.139152,-0.592527,-0.921924,-0.139348,0.106346,0.984516
0.493657,-0.545529,0.593505,-0.436321,0.536080,0.722664
0.547168,0.157319,-0.192607,-0.029740,0.634892,0.772029
0.103980,0.712411,-0.213775,-0.690428,-0.722532,0.035440
0.393986,0.408223,0.271975,0.781116,-0.237345,-0.577516
0.331462,0.167019,-0.162465,0.112636,0.044219,0.992652
0.346165,0.119953,-0.502374,0.966087,0.005879,0.258151
0.540451,-0.552771,-0.549515,0.501060,-0.474031,-0.724039
0.162393,-0.584056,0.812911,0.350545,0.840235,0.413670
0.284987,-0.054444,0.118769,-0.316882,0.943335,-0.098514
-0.435164,0.788645,-0.997258,-0.108842,0.210748,0.971462
-0.704697,0.653800,0.629902,0.153468,0.543062,0.825549
0.050864,-0.429742,0.851712,0.961429,-0.121512,0.246757
0.422915,0.442174,0.419085,0.971039,0.237757,-0.023565
-0.189976,-0.517249,0.464571,-0.461130,-0.858590,0.224012
-0.281586,0.458501,-0.068070,0.847125,0.249530,-0.469164
-0.102873,-0.764669,0.529140,0.642991,-0.764464,-0.046446
0.396593,0.679143,0.394268,-0.601881,0.662133,-0.446451
0.351619,-0.480907,0.600009,-0.200097,-0.926532,0.318591
0.142710,-0.744996,-0.000737,0.314348,0.041820,0.948386
-0.343002,-0.328233,-0.206183,0.850443,0.466133,0.243855
0.183259,-0.942346,0.126407,0.513332,0.762861,-0.393106
-0.582579,0.737685,-0.575215,0.429291,0.702951,-0.567070
-0.318736,-0.118178,0.026868,-0.656894,-0.676690,-0.332537
-0.289334,-0.353371,0.247793,-0.482508,-0.263001,-0.835474
-0.141603,0.621900,-0.550376,0.747538,-0.594011,0.297216
0.090701,-0.271126,0.856720,-0.639532,-0.392773,0.660854
-0.366082,-0.064008,0.377679,0.869426,-0.224714,0.440002
-0.050705,0.677505,-0.118950,0.276287,0.642100,0.715103
-0.269966,-0.230617,0.932077,0.036302,-0.711599,0.701647
-0.402916,0.458501,0.590513,0.176210,-0.492370,-0.852363
-0.152354,-0.122482,0.849060,-0.637394,0.755383,-0.152072
-0.179069,-0.468748,0.483676,0.374702,0.824909,0.423230
0.631744,-0.217092,0.640645,-0.760397,0.595956,0.258134
-0.363870,0.318874,-0.968860,-0.057108,0.227479,0.972107
0.066594,0.689731,0.604179,0.965608,0.004759,0.259957
-0.803816,0.621148,-0.597539,0.094607,-0.991927,0.084443
0.429476,-0.475169,0.178306,0.793739,-0.300524,-0.528832
-0.404814,-0.425371,0.675955,0.766702,0.268066,-0.583360
-0.156225,0.432337,0.710086,0.815295,0.107354,0.569008
-0.009840,0.608102,0.708092,-0.209413,0.969798,0.125053
-0.225151,0.165721,-0.951500,-0.046345,0.079874,0.995727
0.346719,0.152537,0.755346,0.394711,0.910672,0.121983
0.034266,-0.668898,0.171371,-0.204983,0.827765,0.522289
-0.448127,-0.218253,-0.258377,0.525841,0.708758,0.470269
-0.284353,0.744996,-0.983501,-0.036283,0.145272,0.988726
0.152829,-0.617460,0.857423,0.276311,0.117675,0.953837
-0.289966,0.920691,-0.394971,-0.357423,0.909066,-0.214120
0.368455,-0.350844,0.739776,0.383741,0.880245,0.279127
-0.068015,0.372019,0.223022,0.932762,0.218822,0.286482
-0.312174,-0.237038,-0.129104,-0.248655,-0.964383,-0.090203
-0.092834,0.036341,0.895679,-0.498361,-0.830797,-0.247817
-0.082637,0.526743,-0.455370,-0.160127,0.645287,0.746970
0.802870,-0.019469,0.472662,-0.592285,-0.784884,0.182085
-0.401336,0.645945,-0.052115,-0.348901,-0.741635,-0.572927
0.518082,-0.459322,0.723073,0.917383,0.325982,0.228352
0.688890,-0.604413,-0.484787,0.602456,-0.496250,-0.625125
-0.318340,0.366075,0.512913,-0.407103,-0.841425,0.355346
0.532546,-0.285539,0.552914,0.608833,0.338347,-0.717526
-0.125400,0.778603,-0.986606,0.025113,0.057298,0.998041
0.360787,-0.033815,-0.683910,-0.009329,0.787065,0.616800
0.073944,-0.168591,-0.002164,0.971543,-0.113048,0.208145
0.482749,0.003210,0.797092,0.894251,0.401423,-0.197925
0.239774,-0.750188,0.488572,-0.586883,-0.489879,0.644661
-0.420148,-0.270853,0.673009,0.647406,0.448817,0.615978
-0.603603,-0.155134,0.571974,-0.642607,-0.764007,-0.057879
-0.637591,0.051028,0.155257,0.206671,0.973082,0.101973
-0.089119,0.446888,0.246841,-0.677320,-0.687656,0.261470
0.307907,-0.231300,0.584960,0.321829,0.605529,0.727847
0.418805,-0.003279,-0.350573,0.309640,0.779084,-0.545115
0.556337,0.036818,0.532811,-0.844125,0.511719,0.159988
-0.396038,0.847051,0.259125,-0.327007,0.932586,0.152805
-0.244911,-0.428650,0.228189,0.612288,0.323819,0.721280
-0.114808,0.224059,0.812821,0.303301,-0.111166,0.946388
0.218908,0.131497,-0.332601,-0.026227,0.041088,0.998811
-0.025966,0.768221,-0.206387,0.704603,0.036565,0.708659
0.035294,0.368193,0.349757,0.900283,-0.107065,0.421933
0.127376,0.327481,0.786486,-0.521455,0.429263,-0.737440
0.074180,-0.278503,-0.499043,-0.416845,0.755025,-0.506140
0.209580,-0.072751,-0.065169,0.902386,-0.055209,0.427378
0.667550,-0.207186,0.217242,-0.500047,-0.399686,-0.768247
-0.116468,-0.572649,0.458271,0.536257,0.787975,-0.302530
0.032843,0.713094,0.221639,0.854596,-0.297121,-0.425893
-0.011816,-0.360954,-0.537729,-0.252468,0.411319,-0.875829
0.606766,-0.151377,0.639489,0.719948,-0.269204,-0.639691
0.261748,-0.529476,0.187893,0.097235,0.967070,0.235204
0.660752,0.296536,-0.059435,-0.658190,0.433926,0.615219
-0.385685,-0.233418,0.327954,-0.233786,0.295465,0.926307
0.275739,-0.217160,0.789772,-0.635518,-0.609721,0.473664
0.883176,-0.138466,0.669813,0.490234,0.853813,-0.175138
0.333045,0.585216,-0.419584,0.390353,0.700044,-0.597965
-0.433504,-0.265455,-0.161513,0.002750,-0.961196,0.275851
0.248785,-0.248993,0.494782,-0.324054,0.922635,0.209125
-0.154329,-0.673066,-0.917935,-0.101331,0.210471,0.972334
0.273052,0.527425,-0.503847,0.752395,0.583246,-0.306147
0.781291,-0.324203,0.070903,-0.543876,-0.534143,0.647218
-0.184998,0.288202,0.440548,-0.597153,0.611234,-0.519423
-0.152986,0.941525,0.326595,0.533836,-0.842037,0.077414
0.152038,0.034975,0.622718,0.842311,-0.523536,0.128147
0.737344,-0.171051,0.683865,-0.235792,0.971758,0.009394
-0.505749,-0.034976,0.652747,0.128034,0.962479,0.239253
-0.311622,0.340527,0.575056,0.951803,0.182639,0.246402
0.282220,-0.555366,0.222976,0.922068,-0.385640,-0.032746
-0.496660,-0.427283,0.704760,0.924996,-0.304351,0.227491
0.491129,0.346813,-0.151518,-0.419072,0.858764,-0.294792
0.661621,0.099391,0.163802,0.664526,0.120101,0.737551
-0.729912,-0.096387,0.711356,-0.574607,-0.798450,-0.179733
0.389323,-0.365121,0.674708,0.932447,0.209407,-0.294435
-0.185470,0.529066,-0.976113,-0.019149,0.131056,0.991190
-0.761135,-0.070702,0.724591,0.700540,0.058248,-0.711232
0.430265,0.022541,0.775924,0.956119,0.226001,0.186442
-0.091174,0.602909,0.679717,-0.411931,-0.689253,-0.596023
0.109118,-0.340256,0.683615,-0.283299,-0.404335,0.869629
0.148560,-0.716784,0.476991,0.251209,-0.885824,-0.390141
0.448129,-0.548876,-0.199610,-0.232154,0.971486,0.048167
-0.096944,0.007651,0.898671,0.956485,-0.092066,0.276875
0.498954,0.379602,-0.137761,0.039792,-0.782451,0.621439
-0.339763,0.508298,-0.599783,-0.152729,-0.703304,0.694289
-0.342922,-0.197896,-0.511281,0.880239,0.410400,0.238225
0.527567,0.263474,0.508561,0.812809,-0.570979,-0.115432
0.872268,-0.219278,0.438440,-0.024529,0.996846,0.075477
0.128563,-0.233896,-0.523746,0.767225,-0.476498,0.429320
0.372090,-0.056015,0.533627,-0.334448,0.731300,0.594428
-0.392719,0.540542,-0.978039,0.116825,0.187693,0.975255
0.173062,-0.715008,0.201695,0.927930,-0.287310,-0.237485
0.085643,-0.341622,0.670788,-0.597219,-0.723539,0.346152
0.475319,-0.566432,0.421465,0.284553,0.002624,-0.958657
0.521797,0.172620,0.743833,0.387509,0.892632,0.230315
-0.757104,0.586104,-0.663331,-0.767697,-0.638920,0.049216
-0.144922,-0.580504,-0.921810,-0.131793,0.134878,0.982058
0.863811,-0.156842,0.202420,-0.589566,0.570521,-0.571767
-0.298895,-0.370245,-0.933233,0.025200,0.107494,0.993886
-0.053788,-0.385956,0.686063,0.854648,-0.514065,0.072899
-0.124689,-0.120432,0.837638,0.076193,0.908173,0.411602
0.378731,-0.578455,-0.199429,-0.222496,-0.029161,-0.974497
0.440145,0.438486,0.448231,0.971460,-0.151462,-0.182552
0.020276,-0.139081,0.860007,0.784745,0.616762,0.061482
-0.003279,-0.266276,0.074167,0.474778,0.466324,-0.746410
0.143738,-0.444976,0.630673,0.993712,-0.035346,-0.106237
-0.417222,0.858050,-0.048829,-0.538002,0.823044,-0.182076
-0.103980,0.135937,0.506884,0.947776,0.318899,0.004805
0.331462,-0.257258,-0.652997,-0.253915,0.522208,-0.814141
-0.305536,-0.266139,-0.186397,0.883107,0.049680,-0.466534
0.550567,-0.044949,-0.357213,-0.060459,-0.780300,0.622476
-0.507727,-0.124531,0.320974,0.736126,0.289319,-0.611893
0.066910,-0.007037,0.776650,0.928496,0.271247,0.253613
0.445915,-0.569233,0.382030,0.703950,0.650488,-0.285164
-0.246650,-0.296058,0.701202,-0.478828,0.845772,0.235358
-0.116704,-0.547442,0.564926,0.663448,0.450834,0.597148
0.131013,0.546279,-0.048217,0.342823,0.357355,0.868775
0.204442,-0.702985,0.481841,0.213949,-0.947028,-0.239508
-0.007074,0.747045,0.616078,0.497234,0.106156,0.861098
0.420464,-0.100076,0.189389,0.960469,0.008797,-0.278249
-0.036003,-0.071726,0.955489,-0.200609,0.792702,0.575656
0.378652,-0.303095,0.386223,-0.285472,-0.697833,-0.656913
0.856698,0.310335,0.334686,0.936096,0.348394,0.048433
0.345928,0.143725,0.730824,0.586554,0.368038,0.721459
0.155200,-0.021997,-0.356556,0.490592,-0.447193,0.747889
-0.202307,-0.463488,-0.510465,-0.482225,-0.030456,-0.875518
0.061376,0.175216,0.822204,-0.501834,0.110819,-0.857835
-0.507408,0.355419,0.739391,0.074127,-0.873625,-0.480920
0.185630,-0.145160,-0.000419,0.955327,-0.251435,0.155341
-0.177725,0.239087,0.721872,-0.021589,-0.878302,0.477618
0.155277,0.094541,-0.375004,-0.542701,-0.770762,0.333770
0.120894,-0.592254,0.824901,0.221887,0.572957,0.788978
0.512945,-0.046110,0.857219,0.389696,0.871881,0.296583
-0.452237,0.539039,-0.203508,-0.710806,0.410651,0.571070
-0.466782,-0.377621,0.713055,-0.644560,0.764180,-0.023882
0.447893,0.008265,0.802645,0.976567,0.129967,-0.171538
-0.109434,-0.311223,0.184811,-0.815187,0.098968,-0.570680
0.101057,-0.527495,-0.015491,0.715616,0.616456,0.328445
0.437538,-0.062710,0.907510,-0.093483,0.789146,0.607049
0.364581,0.160325,0.582309,0.550907,0.825575,0.122175
-0.470102,-0.114216,0.645087,0.426924,-0.439873,0.790093
0.342925,0.028622,-0.146328,-0.117050,0.519554,0.846382
-0.294865,-0.183346,-0.562841,0.516745,0.740544,0.429615
-0.352487,-0.072410,0.668408,0.770736,0.553140,-0.316231
-0.127928,0.637748,-0.048512,0.143545,0.971310,-0.189610
-0.444019,-0.396544,-0.032670,-0.971286,0.142033,-0.190865
0.806426,-0.217911,0.124956,0.937094,-0.190017,-0.292829
-0.305377,-0.334996,0.630786,0.935472,0.240591,0.258859
0.194167,0.728600,0.044341,0.365771,0.924056,0.111047
-0.501166,0.730991,-0.057033,-0.262465,-0.121047,-0.957319
-0.032920,-0.212993,-0.398325,-0.134296,0.487816,-0.862554
0.893136,0.009358,0.770009,-0.009841,0.804577,0.593766
-0.023119,0.509255,0.422394,0.948025,0.193289,0.252763
0.231555,0.255481,0.597017,0.667700,0.266872,0.694950
0.655378,-0.230548,0.574535,0.784716,-0.618333,-0.043416
0.402047,0.261219,-0.168742,0.166657,-0.255281,0.952396
0.665099,-0.258556,-0.065804,-0.757336,-0.045084,-0.651467
0.259693,-0.461849,0.824583,0.037095,0.639677,0.767748
-0.211080,-0.505090,-0.928723,-0.041525,0.127245,0.991002
-0.013160,-0.124463,0.116231,-0.061105,-0.598927,0.798469
0.363474,-0.312044,0.678652,0.916361,0.400306,-0.006149
0.358100,-0.186079,-0.670176,0.140380,-0.379730,0.914384
0.195749,-0.079241,-0.171757,0.276469,-0.959059,-0.061414
0.342925,0.089145,0.735583,-0.540289,-0.659278,-0.522915
0.540134,0.348793,0.288633,-0.414794,0.239072,0.877947
-0.329643,-0.224948,-0.331468,-0.049172,0.994635,0.091016
-0.053156,0.779425,-0.984974,0.000406,0.085639,0.996326
0.090938,-0.523875,-0.569459,-0.421519,0.288821,-0.859596
-0.515472,-0.155202,0.553299,0.226894,0.961198,0.156901
0.714817,0.032516,0.798565,0.328437,0.942638,0.059685
0.431768,-0.139422,0.858488,0.374816,-0.853219,0.362670
-0.079950,0.934693,-0.202670,0.563232,-0.589502,0.579013
0.029840,-0.111620,0.964667,-0.612173,0.756821,-0.229055
0.425998,-0.464376,0.699457,0.568261,0.668416,-0.479895
0.146820,-0.140789,0.781137,0.805249,0.551661,-0.217357
0.536577,-0.631259,0.796163,0.997266,-0.027432,-0.068618
0.648658,-0.460551,0.296112,0.876908,0.266667,0.399902
-0.203256,-0.475648,0.335388,0.869208,0.094796,0.485274
-0.798285,-0.040372,-0.351071,-0.708527,-0.483906,0.513637
-0.235899,0.355556,-0.965347,-0.070123,0.254383,0.964558
0.430504,0.100553,0.603182,0.745490,0.615505,0.255731
0.408133,0.553248,0.354494,0.950703,0.303318,0.064512
-0.320791,0.299951,0.484107,-0.535596,-0.842193,-0.062040
-0.245147,-0.406586,-0.532426,-0.382287,-0.053724,-0.922481
0.311861,-0.799576,0.626797,-0.151956,-0.848297,0.507249
0.631744,-0.005534,0.824357,-0.540625,0.678882,0.496834
0.327827,0.154724,0.732025,-0.325456,0.928055,0.181086
0.461488,0.096181,0.653563,-0.187293,-0.075915,0.979366
0.469154,-0.760708,0.651478,-0.207281,-0.294128,0.933018
-0.328616,-0.469568,0.265720,0.640949,0.100398,0.760989
0.405762,-0.299474,0.584326,0.402062,0.838987,-0.366670
0.229341,-0.538015,0.884415,0.622550,0.462023,0.631638
-0.685648,-0.228432,0.737827,0.904363,0.422607,0.059424
-0.042643,0.792266,-0.207656,0.651934,0.318042,0.688354
-0.338971,-0.418744,0.696647,0.410280,-0.911496,0.029083
0.335336,-0.989276,0.254955,-0.037535,0.929250,0.367541
0.435719,-0.125487,0.746008,0.891797,0.278498,-0.356561
-0.280874,-0.279528,0.340034,-0.152635,0.042759,0.987357
0.432163,0.729146,0.374778,-0.179943,0.978594,-0.099868
-0.300557,0.373864,-0.244643,-0.017666,-0.934018,-0.356789
-0.057027,0.357128,0.289200,0.099731,-0.373313,0.922329
-0.299687,0.538288,0.596270,0.751977,0.579835,0.313562
-0.452317,0.626545,0.608531,0.312863,0.173224,0.933869
0.471129,-0.609605,0.344635,-0.749199,0.655876,0.092347
0.291785,0.496209,0.351842,-0.230456,0.972712,-0.026870
0.592855,0.019537,-0.348465,0.106827,-0.883142,0.456780
0.165792,-0.081563,-0.316872,0.963665,0.266310,0.020710
0.030313,0.190792,-0.706914,0.240212,-0.056194,0.969093
-0.099395,-0.594508,0.577776,0.130283,0.795078,0.592349
0.037349,0.021586,-0.942163,-0.135652,0.203071,0.969722
0.816386,-0.179863,0.213571,-0.517322,0.403834,-0.754517
0.025650,0.767060,0.617664,0.646624,0.131694,0.751355
0.535392,0.310335,-0.089691,0.883741,0.159513,-0.439952
-0.227286,-0.570600,0.578343,0.735167,-0.673365,-0.078158
-0.132434,0.213948,-0.965007,0.056542,0.161921,0.985182
0.120658,-0.842749,0.241855,-0.376992,0.464162,0.801518
-0.092122,0.612951,0.706279,0.480357,0.876589,0.029133
-0.410268,0.888857,-0.019910,-0.620231,0.772025,0.138891
0.097024,0.400026,0.587068,-0.693900,-0.715383,-0.082036
0.031972,0.732767,0.601550,0.933696,0.098949,0.344123
-0.367189,-0.219893,-0.325190,-0.339986,-0.940425,0.003228
-0.564162,0.056151,-0.231498,0.238102,0.257947,0.936360
-0.242224,0.356034,0.501490,-0.190389,0.915276,-0.354995
0.721378,0.200355,0.737895,0.950527,-0.309102,-0.030891
0.314073,0.581322,-0.226943,0.995954,-0.089736,-0.004774
0.037665,0.438486,0.817127,0.822232,-0.067749,0.565106
0.415326,-0.428650,0.432593,0.068456,0.995664,-0.062982
0.141682,0.412048,-0.964350,-0.104210,0.250506,0.962490
0.788325,-0.010111,-0.376002,0.282690,0.218082,-0.934091
-0.105401,-0.208348,0.932326,-0.648816,0.273927,0.709931
0.404894,-0.521962,0.207157,-0.240092,0.969785,-0.043279
-0.367348,0.399138,0.621834,0.064555,0.796935,0.600605
-0.455795,0.859620,0.148980,-0.431504,0.902091,0.005988
-0.683198,0.742059,0.344930,-0.641562,0.756433,-0.127307
-0.069674,-0.222351,0.960429,-0.457472,0.882650,0.107929
0.468206,-0.641233,0.763663,0.153518,0.530274,0.833811
0.027073,0.277409,0.805818,0.785444,0.127329,0.605694
0.320477,-0.296606,0.634503,0.722704,-0.683182,-0.104691
0.514288,-0.261903,0.744581,0.994568,-0.064872,0.081395
0.733786,0.503995,0.266513,0.950992,0.012581,0.308958
-0.292653,-0.636383,-0.019661,0.399604,0.565775,0.721259
-0.503693,0.803742,0.106463,0.264824,-0.956781,0.120163
-0.792831,-0.028828,0.703423,-0.585259,-0.806369,0.085098
0.162710,-0.251930,0.742745,-0.538368,-0.768054,0.346776
0.276687,-0.448733,0.908733,-0.031306,-0.968061,0.248752
-0.087618,-0.793907,0.527939,-0.414771,-0.844388,-0.339079
-0.471129,0.432543,0.149206,0.592552,0.736657,0.325913
0.604315,-0.036615,-0.358777,-0.033583,-0.738861,0.673020
0.675059,-0.245988,0.567464,0.793823,-0.591217,-0.142508
-0.442752,-0.492930,0.694675,0.820799,-0.376377,0.429685
0.489626,-0.455564,0.450633,0.379378,0.868747,-0.318356
-0.036951,0.017897,-0.946650,0.127561,-0.209137,-0.969531
0.520769,-0.592458,0.409068,0.692747,0.256621,-0.673979
0.480694,-0.632557,-0.120015,0.946735,0.034763,0.320131
0.386949,0.607007,-0.251487,0.504314,0.529184,-0.682373
-0.661937,-0.038118,0.733634,-0.091490,0.934731,0.343376
-0.423863,0.799440,0.279069,-0.494524,-0.857855,-0.139753
0.289966,-0.401940,0.783358,0.585654,0.747558,0.313314
0.714421,0.239633,0.523134,0.986774,-0.133941,-0.091310
-0.157096,-0.263885,0.753125,0.876857,-0.470293,-0.099734
-0.398885,0.643350,0.239476,0.833942,0.318609,-0.450588
-0.357072,0.325910,-0.465591,0.936502,-0.183370,-0.298898
-0.089830,-0.058816,-0.133840,0.987332,-0.044382,0.152331
-0.132670,-0.224810,0.948350,0.348196,0.519017,-0.780629
0.386793,-0.761801,0.421487,0.290742,0.631151,0.719109
-0.191004,-0.085662,0.482906,-0.804759,-0.544804,-0.235695
-0.404023,-0.122755,-0.078949,-0.079532,0.291668,0.953208
0.121686,0.037843,0.837683,-0.566226,-0.702534,-0.431084
-0.203967,-0.010042,0.954718,0.878736,0.475768,0.038303
0.005573,0.377620,0.875327,0.830133,0.280375,0.481944
0.738767,-0.113943,0.181411,0.207173,0.597293,0.774803
0.533337,-0.238268,0.871792,-0.360024,-0.538601,0.761769
-0.030392,0.428445,0.275579,0.832608,0.540293,-0.121849
0.585030,-0.214428,0.867304,-0.635917,0.083161,-0.767263
-0.707780,0.751894,0.313722,-0.267936,0.950050,0.160047
0.345849,-0.441970,0.736716,-0.206044,-0.644595,0.736236
-0.560843,0.677709,-0.029905,0.511457,0.563826,0.648469
-0.133462,-0.264294,0.404580,0.970399,-0.240976,-0.015998
-0.168004,-0.152197,0.821592,-0.577343,0.320515,-0.750963
-0.082321,0.235671,0.629019,0.708363,0.637443,0.303132
-0.296604,-0.524557,0.530114,-0.491368,-0.656951,-0.571816
-0.448286,0.354668,0.647308,-0.636469,0.674015,-0.374981
0.077106,-0.393880,0.357055,0.930300,0.348263,-0.115134
0.573569,-0.404263,0.639059,0.995774,-0.081555,0.042233
-0.177093,0.221599,0.084433,0.707262,0.517659,0.481466
0.057741,0.745816,-0.034052,0.142865,-0.972759,-0.182562
0.713237,0.117835,0.399073,0.834105,0.532644,0.143385
0.077422,0.017009,0.108548,0.903852,0.043811,0.425596
-0.031972,-0.181297,0.803642,-0.205058,-0.105458,0.973052
-0.491917,0.447913,0.636203,-0.702615,0.317054,-0.637031
0.356124,-0.017078,-0.124163,-0.288528,-0.639508,-0.712588
0.326325,-0.129381,0.878183,-0.689814,-0.589823,0.419839
-0.037267,0.728258,-0.981982,-0.046616,0.065646,0.996753
-0.013319,0.121797,0.593550,0.978900,0.193594,-0.065390
-0.432793,-0.638841,0.676522,0.995740,0.076570,0.051369
0.015770,-0.378988,-0.122486,-0.195823,0.828555,0.524547
-0.106983,0.485756,0.003184,-0.262242,0.194271,0.945245
0.721061,-0.572580,-0.499904,0.571910,-0.535283,-0.621603
