-0.355981,-0.555055,0.794670,0.815291,0.422496,0.395976
0.857996,-0.748767,0.183624,-0.465085,0.553377,0.690991
-0.507093,-0.366428,0.814813,-0.586253,0.628628,-0.511012
-0.168601,-0.005497,0.912749,-0.222796,-0.930751,0.289938
-0.478641,0.111533,0.463397,0.461933,0.850776,-0.250596
-0.347677,-0.087272,0.662414,-0.041722,-0.605502,0.794750
0.181899,-0.638715,-0.246831,0.840662,-0.507779,0.188275
0.304643,0.370812,0.254206,-0.604837,0.766658,-0.215423
-0.134187,-0.453757,0.159150,-0.437967,0.161678,-0.884333
0.120084,0.098994,-0.951911,-0.458018,0.274999,0.845337
-0.186250,0.407373,-0.992646,0.458714,-0.328106,-0.825790
0.124113,-0.431035,-0.290998,0.738282,0.235636,0.631993
0.047873,-0.256492,0.802454,0.856394,0.487904,-0.168934
-0.032560,0.141709,0.710687,-0.532540,0.844949,-0.049617
0.090024,-0.399558,-0.059826,-0.356869,0.898743,-0.254766
-0.183107,0.042072,0.675100,0.367600,0.892460,-0.261505
0.165701,0.832557,0.161684,0.448776,0.157326,-0.879686
0.395955,-0.433165,-0.427748,-0.194261,-0.980237,0.037390
-0.388699,-0.685106,-0.056434,0.194422,0.942994,0.270114
0.244036,0.662745,0.167200,-0.389559,-0.114487,0.913858
-0.125967,-0.070226,0.895364,0.864776,0.160387,0.475855
0.376936,-0.491864,0.546583,-0.671109,0.196809,-0.714758
-0.686251,-0.422042,0.106015,-0.531564,0.346186,-0.773043
-0.173436,-0.410443,0.716591,-0.112464,0.819332,0.562180
-0.225017,-0.432573,0.710156,-0.545933,-0.836181,-0.052533
0.158366,0.450803,0.292714,-0.457952,-0.821658,0.339350
0.916989,-0.075672,0.605438,0.798694,-0.600823,0.033174
0.120165,-0.375297,-0.285217,0.977588,-0.202355,0.058083
0.406592,-0.665222,0.817653,-0.087786,-0.061181,0.994259
0.017328,-0.183001,-0.471364,-0.683247,-0.692877,-0.230425
-0.403530,-0.261814,0.714794,-0.573613,0.143686,-0.806426
0.734447,-0.678475,-0.506563,0.483788,0.062085,-0.872980
-0.217439,0.045387,0.591526,-0.501519,-0.613774,0.609722
-0.005963,-0.554340,0.724865,-0.160809,0.925774,0.342175
-0.109284,0.144078,0.680739,0.500588,0.506796,0.701833
0.488477,-0.802258,0.821514,0.501937,-0.402786,-0.765390
0.766844,-0.363350,0.568912,0.903564,0.419388,-0.087675
0.722678,-0.887341,0.301968,0.267683,-0.510811,0.816956
-0.386444,-0.606769,0.496083,-0.599618,0.640309,0.480065
-0.735573,0.584285,0.409669,0.515977,-0.712511,0.475496
-0.069470,-0.452103,0.513897,0.030937,-0.933501,0.357239
0.643617,-0.175078,0.583947,-0.446592,-0.625596,0.639676
-0.215183,0.331282,-0.022298,0.255641,0.120725,0.959204
0.139266,-0.860718,0.764619,0.460301,0.877260,-0.136155
-0.427707,0.481333,0.558718,0.356057,0.026703,0.934083
0.317457,-0.299213,0.517635,0.282028,-0.442159,-0.851443
-0.201725,-0.179339,0.252898,-0.575094,0.618159,0.535860
0.293762,0.906871,-0.983677,-0.168524,0.305466,0.937171
-0.617665,0.543700,0.072104,0.415932,0.909319,0.011800
-0.076563,0.439442,0.533815,0.318308,-0.388486,0.864730
0.013782,-0.548663,-0.035270,0.791336,-0.084769,-0.605476
-0.399096,0.048934,0.501578,-0.728336,-0.616423,0.299247
0.390153,0.087156,0.162664,-0.641125,0.324079,-0.695652
-0.049966,-0.146678,0.689993,0.302353,-0.919605,-0.250815
0.053675,0.678129,-0.988825,-0.286063,0.384122,0.877849
-0.538441,-0.100994,0.672445,-0.125031,-0.858843,0.496746
0.917152,-0.135548,0.585336,0.866611,-0.444809,0.226120
0.192536,-0.504763,-0.902187,0.100125,0.989468,0.104536
0.059558,0.431280,0.433142,0.809780,0.452149,-0.373922
-0.103079,-0.548778,0.823230,0.906543,0.342353,0.246930
-0.200274,0.562162,0.163563,0.031498,-0.173207,0.984382
-0.443987,0.670675,0.320967,0.960108,-0.146266,-0.238325
-0.832446,0.129639,0.157251,0.986985,0.087074,-0.135200
-0.837040,0.274606,0.117946,0.415965,0.033758,0.908754
-0.487830,-0.494579,0.508218,0.926211,-0.332814,-0.177111
0.016925,-0.447365,0.456430,-0.140119,0.877505,0.458640
-0.419566,-0.601085,0.489832,-0.336511,0.772743,0.538172
0.287395,0.152478,0.353531,0.890987,-0.453786,0.014833
0.121939,0.520032,0.445297,-0.146825,0.799993,0.581767
0.174405,0.274367,0.351610,0.323669,0.784485,-0.528982
0.133705,-0.626530,-0.093880,0.496462,-0.815368,0.297826
-0.332608,0.321228,0.168752,0.367160,0.334415,0.867964
0.146116,-0.422635,0.120499,0.598938,-0.634465,0.488598
-0.274822,0.110940,0.909827,0.935685,0.351966,-0.024750
-0.377577,-0.136378,0.770237,0.054276,0.837874,0.543159
-0.445922,0.133901,0.322132,-0.385485,0.791997,0.473437
-0.092680,-0.431749,0.124340,-0.473790,-0.141423,0.869208
-0.158526,-0.377312,0.856814,0.423340,-0.519848,0.741985
0.230256,0.126686,0.186137,0.996761,-0.016244,0.078761
0.108237,0.142655,0.268894,-0.417196,0.846566,0.330564
0.345906,0.168454,-0.939245,0.093049,-0.052556,0.994273
0.089218,-0.014966,-0.745580,0.896328,0.322286,-0.304513
-0.360009,-0.010943,0.734507,-0.026927,0.570885,0.820588
0.765636,-0.634815,-0.496757,0.736436,-0.028700,-0.675898
0.139266,-0.351397,0.482355,0.449525,0.310529,-0.837555
0.054401,-0.468072,-0.084402,0.917248,0.372897,-0.140010
-0.233640,-0.491864,0.555122,-0.704796,0.700676,-0.110976
0.774985,-0.306190,-0.500332,-0.341639,-0.162983,0.925591
0.090910,-0.581562,0.741106,-0.033535,0.663213,0.747679
-0.431091,0.642153,0.553610,0.054239,0.527912,0.847565
0.447455,-0.869949,0.825926,-0.449640,0.646971,0.615834
0.017410,0.580623,0.510199,-0.697311,0.129710,0.704934
-0.047226,-0.599785,0.548503,-0.576158,0.522083,0.628865
0.004030,0.359804,-0.978509,0.210843,-0.104101,-0.971961
-0.037796,-0.439673,-0.142664,0.745053,0.192784,0.638538
0.316247,0.230230,0.353796,-0.386258,0.816258,-0.429567
0.102354,-0.386658,0.156801,0.988812,-0.060569,-0.136318
-0.149903,0.012488,0.626296,0.670620,0.176308,0.720545
-0.117423,-0.670668,0.757878,0.438063,-0.180515,0.880633
-0.262652,0.142423,0.652526,-0.419209,-0.864362,-0.277744
-0.174806,-0.564047,-0.393571,0.775188,-0.611868,0.157163
-0.506367,0.077333,0.233287,-0.289910,0.559063,-0.776789
-0.395229,-0.504525,0.846028,0.987243,-0.046881,0.152162
-0.603803,-0.482864,0.810033,0.107062,0.433162,0.894935
0.304400,-0.883079,0.451773,0.217448,0.187383,-0.957916
0.827532,-0.040880,0.588830,0.282686,0.076804,-0.956133
-0.090344,-0.669483,0.576286,0.999524,0.030813,0.001626
-0.025789,-0.164186,-0.959531,-0.042900,0.346701,0.936994
-0.828818,0.516363,-0.151592,0.134207,0.370514,0.919080
0.001853,-0.765336,0.593079,-0.309427,-0.950606,0.024567
0.569793,-0.689837,-0.320048,0.062003,0.295185,-0.953426
-0.740409,0.083609,0.197128,-0.400129,0.630170,-0.665419
0.060769,0.074256,-0.960368,-0.218426,0.444701,0.868638
-0.786348,-0.356958,0.172225,0.496888,-0.726896,-0.474051
0.394182,0.805934,0.294410,0.214628,0.376269,0.901308
0.451968,-0.993015,0.608891,0.263162,0.933269,0.244448
0.166104,0.067871,-0.964229,-0.230443,0.028323,-0.972674
-0.099129,-0.627592,0.835405,0.923323,-0.184729,0.336674
-0.491536,-0.285599,0.458310,-0.632843,0.526107,0.568086
-0.579626,-0.156494,0.787704,-0.019093,-0.005778,0.999801
0.430127,-0.319090,0.568687,0.592794,-0.711119,-0.378028
-0.336880,-0.571031,0.532180,-0.570535,0.765263,0.298097
0.066733,-0.181823,0.690769,-0.252734,0.925131,-0.283298
0.315846,-0.817996,0.798838,-0.209413,-0.060692,0.975942
-0.162798,-0.429265,0.572364,0.494805,0.852179,-0.170171
-0.535138,0.167392,0.563477,-0.560526,0.289400,-0.775924
0.525064,-0.245014,0.577308,0.319126,-0.026388,-0.947345
-0.079384,0.040180,0.911972,0.836247,-0.458421,-0.300901
0.481221,-0.255545,0.562027,0.696626,-0.538773,0.473746
0.243955,-0.460026,-0.755018,0.172417,-0.914933,0.364925
0.611218,-0.247376,-0.214288,0.053661,-0.191102,0.980102
-0.454142,0.518493,0.290242,0.844884,0.492519,0.208796
-0.101385,-0.048457,0.897754,0.933046,-0.121930,0.338463
0.208978,-0.609962,-0.536307,0.711357,0.601801,0.363052
0.798358,-0.032127,-0.381722,0.983272,-0.168838,-0.068343
-0.498307,-0.420619,0.708502,0.043211,-0.379031,0.924374
0.239041,-0.449141,0.745845,-0.257260,0.313618,-0.914035
-0.495567,0.097687,0.769441,-0.205279,-0.491289,-0.846461
0.526597,0.176977,-0.948703,-0.417516,0.294865,0.859497
-0.308268,-0.211761,0.554346,0.961539,0.264430,-0.074296
0.372260,0.173070,0.348914,-0.283377,0.619179,-0.732335
0.464782,-0.476479,0.577328,-0.569045,0.718390,-0.400128
-0.221227,0.289037,0.568340,-0.170360,-0.971798,-0.163050
-0.278449,0.152600,0.289793,0.621109,0.568697,0.539265
0.106867,-0.297906,-0.208936,0.838810,-0.376830,0.392935
-0.114442,-0.076380,0.815773,-0.189980,0.692706,-0.695748
-0.484283,0.119701,0.318986,-0.281856,0.837745,0.467697
0.460672,-0.828880,0.825354,0.714638,-0.375816,-0.589962
-0.236379,0.278744,-0.988458,0.362157,-0.198723,-0.910687
-0.149741,-0.409496,0.890461,0.980020,-0.056348,0.190751
-0.010961,-0.641438,0.282765,0.481483,-0.863242,-0.151619
0.165861,-0.914794,0.220049,0.494514,0.846954,0.195256
-0.505964,-0.375297,0.167608,0.694596,0.244916,0.676427
-0.190603,0.001011,0.739431,0.821509,0.151082,0.549816
0.227998,0.462872,0.448545,0.636996,0.050364,0.769220
0.515313,-0.663683,0.539943,0.849999,0.479858,-0.217343
-0.253948,-0.402989,0.715835,-0.464699,-0.760946,-0.452787
0.588975,-0.726759,0.818204,-0.164602,0.357645,0.919237
-0.142891,-0.073780,0.747500,-0.034309,0.953852,0.298309
-0.459622,0.586062,-0.005567,-0.604581,-0.676321,-0.420798
-0.020713,-0.136378,0.938693,0.942833,0.050930,-0.329352
0.411509,-0.300275,0.557635,-0.134884,0.674891,-0.725485
-0.214377,-0.157562,0.174370,-0.676114,0.082328,-0.732183
-0.079544,-0.124902,0.719247,0.951638,0.295466,0.084169
-0.641118,-0.231992,0.650239,0.234260,-0.756846,0.610169
-0.053109,0.059703,0.736857,0.965812,-0.229402,0.120759
-0.266361,0.147747,0.856386,-0.164873,-0.735616,0.657029
0.423034,-0.542155,0.569218,0.130965,-0.843388,0.521100
-0.663844,0.701559,-0.022604,-0.071618,-0.980024,-0.185539
-0.413523,-0.623569,0.836182,0.971607,-0.196581,-0.131662
-0.238313,-0.433642,-0.939490,-0.174485,0.503284,0.846322
0.147727,0.708775,0.167690,0.511147,0.122048,-0.850784
0.311412,-0.282883,0.566378,-0.813505,0.581555,-0.001662
0.121695,-0.396958,0.041154,0.718124,0.613841,0.327869
-0.806496,0.360512,0.121276,0.605055,0.090350,0.791041
0.034574,-0.069518,0.823638,-0.377312,0.846733,0.375072
0.882495,0.002665,-0.496185,-0.459933,-0.159219,0.873562
0.904497,-0.141348,0.585398,0.856566,-0.471859,0.208912
-0.577530,0.052010,0.242316,0.419192,-0.528112,0.738496
0.614524,0.556832,0.408750,-0.438297,0.857133,-0.270589
-0.269020,-0.333528,0.691157,-0.265803,-0.956091,0.123444
-0.443101,0.497432,0.318883,-0.759252,0.127145,0.638256
0.642570,-0.158270,0.556246,0.564334,-0.122434,-0.816417
0.125564,-0.535171,0.533079,-0.236815,0.896247,0.375045
-0.042875,-0.007396,0.777857,-0.271092,0.872543,-0.406420
-0.765956,0.102071,0.193062,-0.390532,0.765939,-0.510708
0.136686,-0.099102,-0.184503,0.975716,-0.148864,0.160679
-0.021760,-0.057095,-0.106036,-0.102780,0.225513,0.968804
-0.108719,-0.722736,-0.221949,-0.257757,-0.965889,-0.024889
0.006851,-0.388197,-0.046261,-0.300656,-0.763881,-0.571045
-0.699790,0.015919,0.770482,-0.072840,0.323832,0.943307
0.116456,-0.551855,-0.063503,0.804570,0.593742,0.011719
-0.606302,0.398380,0.538575,0.941963,-0.088048,0.323966
0.506045,-0.861895,0.512610,0.855861,0.346917,-0.383601
-0.107592,-0.787350,0.824782,0.502095,0.780424,-0.372611
0.161992,-0.482864,-0.217414,0.978317,-0.031267,0.204741
-0.780705,0.626299,-0.009857,0.591926,-0.784551,0.184670
0.124357,0.252945,0.509137,0.705215,-0.267754,0.656490
0.386525,-0.848288,0.805702,-0.709786,-0.467647,0.526792
-0.298676,-0.661791,0.507605,-0.111204,0.834417,0.539798
0.172632,-0.458257,-0.642353,0.916964,-0.385307,0.103517
0.725821,-0.706521,0.170202,-0.091240,0.643458,0.760025
0.006367,-0.268914,0.141950,0.679827,0.508237,-0.528706
-0.094454,0.283475,0.254696,0.990232,0.135376,0.033372
-0.001691,-0.510325,0.220560,0.998778,0.009437,0.048505
0.085993,0.051656,-0.142562,0.216068,0.947779,-0.234585
-0.073501,0.239099,0.034412,-0.659888,-0.459307,-0.594631
0.590022,0.127155,-0.940552,-0.288046,-0.082346,0.954070
-0.331157,-0.608069,0.094064,0.155384,0.356871,0.921140
-0.050691,-0.585823,-0.249650,-0.812752,0.185851,-0.552171
0.129999,-0.653745,0.740963,0.055206,0.990582,0.125299
-0.077852,0.026688,0.929827,0.534994,0.817458,0.213412
-0.099614,-0.047511,0.886293,0.924722,-0.335436,0.179921
0.150710,-0.876334,0.794078,0.279456,0.957172,-0.075671
-0.380238,-0.351397,0.773935,0.300637,0.927441,0.222421
-0.094938,-0.023727,-0.966558,0.186101,-0.256115,-0.948563
0.156915,-0.436126,-0.328260,-0.591103,-0.804554,0.057359
-0.079303,0.671975,0.515613,0.572063,0.553949,0.604884
0.446085,0.598369,0.303541,0.902996,-0.427934,0.038366
0.271115,0.265960,0.306197,-0.585909,0.213634,0.781710
0.479369,-0.677060,0.799287,0.776493,-0.578469,-0.249864
0.440280,0.455772,-0.962574,0.048960,-0.084622,0.995210
-0.388136,-0.543571,0.817755,0.977245,-0.211895,0.009653
0.082690,0.200285,0.331672,0.428287,-0.903410,-0.020487
0.009269,-0.375181,0.485133,0.401719,-0.326229,0.855685
-0.241618,0.455541,0.533202,-0.009038,-0.733847,0.679255
-0.274339,0.382758,0.522845,-0.028966,-0.701500,0.712081
0.233721,-0.265599,0.525337,0.217610,-0.556355,0.801945
0.031594,0.542278,-0.980266,-0.153889,0.018842,0.987909
0.754836,-0.366428,-0.222929,0.035416,-0.107902,0.993530
-0.093084,-0.131171,0.678246,0.933500,0.199069,-0.298242
-0.010799,-0.163832,0.251060,-0.030400,-0.841683,0.539115
0.039653,0.122894,-0.971951,-0.195046,0.359828,0.912404
-0.010073,-0.005265,0.789869,-0.378912,0.880565,-0.284658
0.092602,-0.546886,-0.108426,0.776903,0.610931,-0.152265
0.060124,0.610676,0.530036,-0.239664,-0.414487,0.877930
0.087282,-0.053780,0.501067,-0.211912,-0.243784,0.946395
0.270874,0.893502,-0.975179,-0.160025,0.321914,0.933147
-0.060444,-0.573631,0.897754,-0.326922,0.938603,-0.110214
-0.008865,-0.495533,0.617430,0.442957,0.756594,0.480994
-0.303514,-0.044434,0.766274,0.022280,-0.285620,0.958084
-0.508945,0.359451,0.343664,0.411353,-0.722401,0.555811
0.810687,-0.195901,0.576797,0.169912,0.143482,-0.974958
-0.088893,-0.560024,0.789216,0.228724,-0.810274,0.539575
0.035863,-0.186316,-0.131878,0.931972,-0.207355,0.297375
0.003708,-0.693152,0.321151,0.947907,-0.239930,-0.209539
-0.014829,0.858825,-0.085280,-0.061330,0.989839,-0.128283
0.268216,0.713628,0.355553,0.901968,0.326656,-0.282400
-0.080432,-0.308321,0.893341,0.885789,-0.453196,0.099953
-0.178593,0.619315,0.566399,0.973308,0.157692,-0.166747
-0.426337,0.067871,0.743087,0.701239,0.569242,-0.429217
0.497341,-0.302875,0.592588,-0.010515,-0.361913,0.932152
0.176338,0.045387,-0.510546,-0.501732,-0.366603,-0.783497
-0.048114,-0.444411,0.599759,-0.741777,-0.297117,-0.601239
-0.217198,-0.208208,0.493059,0.836638,0.364786,-0.408618
0.096793,-0.032242,0.911155,-0.625985,0.466839,-0.624664
-0.141359,-0.445234,0.517451,-0.301075,0.895373,0.328118
-0.115086,-0.746997,-0.390262,0.263263,0.964668,0.010369
0.713652,-0.282522,0.576470,0.642298,-0.434057,0.631702
-0.217761,-0.726051,0.672669,0.981532,0.110322,0.156282
-0.247339,-0.206200,0.891666,-0.008206,-0.944494,0.328426
-0.239604,0.069048,0.907948,0.870725,0.403463,0.281168
-0.258380,-0.290929,0.727970,0.963462,-0.127938,-0.235312
-0.103883,-0.698829,0.755569,-0.235616,0.832454,-0.501504
-0.002094,-0.358143,0.974382,0.961814,0.273010,-0.019482
0.048921,-0.072357,0.742863,0.535400,-0.467653,-0.703312
-0.072453,-0.433996,-0.049693,-0.347259,-0.937642,0.015434
0.747662,-0.788889,-0.510669,0.348203,-0.033232,-0.936830
0.168923,-0.802373,0.780758,0.857019,-0.472694,0.205132
0.334947,-0.192708,0.058498,0.422872,-0.668483,0.611809
-0.055126,-0.187147,0.715325,-0.600966,-0.798903,-0.024381
0.342038,-0.276606,0.557042,-0.214558,0.824379,-0.523798
0.050854,-0.476241,0.670810,-0.022344,0.986872,0.159951
0.056659,0.619669,-0.980347,0.253501,-0.208994,-0.944488
-0.484768,-0.562270,0.696510,0.276666,-0.512049,0.813180
-0.516038,-0.166317,0.457248,0.137546,0.041529,-0.989624
0.664973,0.316728,-0.941349,-0.191481,0.443377,0.875643
0.343570,-0.970055,0.650279,-0.150192,-0.988044,-0.034792
0.801419,-0.120879,0.573957,-0.372933,0.241249,-0.895947
-0.290216,0.443703,0.523396,0.293647,-0.569231,0.767950
0.304240,0.677421,0.383132,0.653393,0.410638,0.635967
-0.568261,0.431280,0.541946,-0.743164,0.109482,-0.660092
0.175612,-0.429142,-0.352428,-0.681626,0.729577,-0.055710
-0.223725,0.544055,-0.320926,0.812835,0.109876,-0.572037
-0.078255,-0.328205,-0.308424,-0.276246,0.017256,-0.960932
0.123791,0.059703,-0.950705,-0.080164,-0.115227,0.990099
0.165782,-0.124310,0.463560,-0.150072,-0.915910,-0.372272
-0.352515,0.257560,0.569504,0.869076,-0.477819,0.128049
0.511928,-0.695283,0.226055,0.053115,-0.498234,0.865414
-0.448096,-0.172947,0.741514,0.236160,0.226783,-0.944880
0.203095,-0.913256,0.764722,-0.366117,0.927906,0.070349
0.058995,-0.512571,-0.409771,-0.472013,-0.732630,-0.490364
-0.735733,0.519678,-0.347872,0.746346,-0.659547,-0.089252
-0.132254,-0.300868,0.378290,0.476302,-0.706750,-0.523106
-0.437621,0.511509,0.295166,-0.643386,-0.541833,0.540807
-0.004915,0.549139,0.004362,0.918692,-0.111435,-0.378928
-0.844375,-0.256137,0.128855,0.016490,0.487071,0.873207
-0.042553,-0.368558,0.873443,-0.683920,-0.499772,0.531490
-0.189393,0.111178,0.577675,-0.682103,0.358701,-0.637235
0.133302,-0.440741,0.502477,0.005996,-0.998601,0.052533
-0.366133,0.609138,0.534612,-0.547148,-0.182535,0.816891
0.217360,0.490448,-0.970971,0.219969,-0.134300,-0.966218
0.076485,0.535178,0.445501,-0.005564,-0.916708,0.399519
-0.018696,-0.438373,0.403356,0.915826,-0.218535,0.336905
-0.115168,-0.422280,0.477125,0.754456,0.531267,0.385424
0.139588,0.262060,-0.962901,0.196919,-0.628516,-0.752456
-0.451884,-0.548309,0.817734,0.854571,0.341547,0.391222
0.008706,0.288805,0.716632,-0.576502,0.816058,-0.041178
-0.455834,0.574346,0.310446,0.638830,0.514845,-0.571691
-0.150951,0.390450,-0.987886,-0.312864,0.292472,0.903646
-0.012008,-0.228915,0.626623,0.989732,0.005389,0.142836
-0.461879,0.061949,0.355635,0.342641,0.542167,0.767237
0.221874,0.061833,0.367974,0.873026,-0.356395,0.332879
-0.232833,-0.707706,0.833015,-0.378860,-0.902293,0.205747
0.155708,0.451987,0.160111,0.121416,0.515839,0.848038
0.010720,0.614584,0.522906,0.685466,0.045016,-0.726712
0.184157,0.194131,-0.957263,-0.268605,0.416030,0.868775
-0.048274,0.587838,-0.428913,0.822247,0.492056,0.285991
-0.728239,0.320874,0.199457,0.417962,0.905538,0.072859
0.119440,0.352589,0.469239,-0.297246,0.834485,0.463983
-0.038684,0.323828,0.257372,0.978523,0.204371,0.026939
0.041102,0.133785,0.573814,-0.381011,0.842168,0.381554
0.042876,0.930893,-0.994709,0.200373,-0.117635,-0.972632
-0.169729,-0.447957,0.659288,-0.737519,0.486426,-0.468461
0.286268,0.705821,0.431793,0.904873,-0.121251,0.408049
0.123146,-0.676822,0.688808,0.952411,0.279828,0.120868
0.067940,-0.487125,-0.184605,0.553352,0.832762,0.017565
-0.375644,0.606299,0.531547,-0.002308,0.075673,0.997130
0.235010,-0.538955,0.704232,0.281159,0.956837,0.073572
-0.068826,-0.013781,0.874015,0.947847,0.141098,0.285793
-0.063346,-0.000650,0.946619,0.461731,0.823429,0.329801
0.218649,0.328205,0.425031,0.889129,-0.342210,0.303879
0.293278,-0.507956,0.120234,-0.431620,-0.149866,0.889519
-0.049403,0.051187,0.893811,-0.513985,0.857184,0.032489
-0.005156,-0.550439,-0.261826,0.965395,-0.260786,0.001946
-0.324548,0.870187,-0.305972,0.602445,0.667241,0.438005
0.128466,0.781196,0.376084,0.172837,0.967343,0.185405
0.711075,-0.148216,-0.209201,0.008436,-0.196023,0.980563
0.520794,0.540624,0.424194,0.083559,-0.445230,0.891509
-0.101062,-0.784504,0.616327,-0.887685,0.085036,-0.452531
-0.063909,-0.158624,0.708890,0.640090,0.678347,-0.360736
0.239442,0.582515,0.467135,0.426035,-0.256942,0.867453
-0.278932,0.398619,0.297024,0.641975,0.341064,0.686690
-0.572210,-0.010473,0.060929,0.727474,0.540047,-0.423239
0.077370,-0.437780,0.134697,0.634714,0.702866,-0.321120
-0.032882,-0.287491,0.731218,0.980065,0.062217,0.188684
0.053112,-0.353997,0.826886,0.652487,0.728956,0.207084
-0.403931,0.051064,0.499862,-0.706398,-0.625189,0.331876
0.754674,-0.351044,0.567298,0.610523,0.668451,-0.424775
0.226064,-0.903433,0.674406,0.604774,0.716255,0.348176
0.463734,0.625468,0.090939,-0.384285,0.350122,0.854248
0.234124,0.753981,0.403111,-0.333763,-0.459704,0.822967
0.487107,-0.302875,0.578350,-0.332590,0.607827,0.721062
-0.183107,0.212361,0.609687,-0.000702,-0.957481,0.288496
0.499114,-0.923432,0.513938,0.870998,0.245787,-0.425384
-0.318180,-0.517425,0.465971,-0.204727,0.230233,0.951357
0.507818,-0.622738,0.809215,0.444557,0.723243,0.528478
-0.647968,-0.027034,0.777694,0.411299,-0.449039,-0.793220
0.701404,-0.400504,0.573140,0.430557,0.815281,-0.387216
0.123065,0.471510,0.517921,0.909429,-0.355313,0.216085
-0.556415,0.100409,0.774241,-0.143690,0.828773,0.540822
-0.333333,-0.378612,0.612282,-0.283962,-0.793631,0.538067
0.097840,0.189046,-0.970869,-0.336948,0.138962,0.931212
-0.054078,-0.412934,0.513080,-0.780447,0.391676,0.487332
0.238475,0.909478,0.406012,0.268183,0.653556,-0.707772
-0.425611,0.120647,0.744599,-0.604990,-0.792592,0.076054
0.224454,-0.559078,0.717735,-0.595037,0.723861,0.349223
0.047632,-0.420034,-0.157496,0.990347,0.069027,0.120197
0.415459,-0.018165,0.343234,-0.747371,0.640787,-0.175584
-0.462846,-0.150701,0.448586,0.307011,0.159670,-0.938216
0.323825,0.732681,-0.963126,-0.128988,0.262833,0.956180
-0.387169,0.478494,0.326176,0.909738,-0.403219,-0.098956
0.175775,0.443110,0.468381,0.911935,-0.345190,-0.221854
-0.097356,0.918709,-0.014270,0.274595,0.094615,0.956894
-0.240327,-0.283237,-0.962636,0.370019,-0.304532,-0.877694
-0.616939,0.593161,0.392897,-0.431863,0.454350,-0.779141
0.895309,-0.541086,-0.215922,0.503321,0.408606,-0.761386
-0.435927,-0.223354,0.176678,0.628703,0.442704,-0.639332
-0.406752,0.299452,0.330324,-0.128881,-0.432872,0.892195
0.490973,0.547601,0.418780,-0.113390,-0.288828,0.950642
0.095826,-0.359089,-0.223787,0.945568,-0.324862,-0.019108
-0.547146,-0.179216,0.618145,-0.366929,-0.640001,-0.675101
0.263137,-0.520263,0.559249,-0.554630,0.007877,-0.832060
0.350178,-0.135671,0.071062,0.647065,-0.529066,0.548996
0.141280,-0.508194,-0.074575,0.631377,0.220782,0.743383
0.200355,0.771258,-0.982758,-0.249435,0.385128,0.888515
-0.534895,0.304775,0.078007,-0.500193,0.809871,0.306457
0.151436,-0.191169,-0.207730,0.845381,-0.430986,0.315566
0.262251,-0.506533,0.419454,-0.608728,-0.325639,-0.723471
0.022245,-0.663214,0.661107,0.289345,0.866335,0.407116
0.601870,-0.613985,0.148242,0.037474,0.831055,0.554926
-0.491458,-0.445949,-0.065566,-0.720358,-0.362952,-0.591059
-0.195195,0.045856,0.581966,0.724158,-0.525721,0.446333
0.584543,-0.482156,0.233164,-0.643766,0.464420,-0.608178
-0.028610,-0.674337,0.758511,-0.265291,0.627381,-0.732129
-0.099855,-0.452334,0.829256,0.947549,0.150132,-0.282154
0.121939,0.000888,0.711484,0.478643,0.133768,0.867760
-0.085749,-0.007512,0.824884,0.062584,-0.932627,0.355373
0.145634,-0.002066,-0.182133,0.959552,-0.208539,0.189134
0.492183,0.693513,-0.951012,-0.121581,0.431646,0.893812
0.113798,-0.693267,0.671158,0.327069,0.941774,-0.078027
-0.138216,-0.004673,0.806682,0.817267,0.423411,0.390895
0.344940,0.263952,0.187363,-0.637065,0.752906,-0.165172
0.224776,0.202654,0.267321,0.849932,-0.444419,-0.283034
-0.321567,0.266437,0.116802,-0.202633,0.713050,0.671192
0.378305,-0.422988,0.562354,-0.129359,0.860781,0.492263
-0.159574,-0.260038,-0.956262,0.239695,-0.462208,-0.853762
-0.070921,-0.248799,0.632752,0.774542,-0.349579,0.527142
0.362589,0.218153,0.191367,-0.490688,0.491758,-0.719305
0.057785,-0.502156,0.571588,0.226827,-0.905482,0.358681
-0.057381,-0.116379,0.254941,-0.120006,-0.693018,0.710862
-0.011605,-0.563809,0.657021,0.291866,-0.835728,0.465159
-0.163121,-0.637177,0.176740,0.959568,-0.272346,0.071118
-0.445034,-0.063957,0.196638,0.173856,-0.861689,0.476725
-0.228401,0.054618,0.718348,0.365671,0.929992,-0.037424
-0.049887,-0.530086,0.987089,0.870789,-0.426976,-0.243757
0.781997,-0.349621,-0.224666,0.047547,-0.155295,0.986723
0.070358,-0.468664,-0.346626,0.897018,-0.394233,0.199847
0.144102,0.321467,0.379148,0.729681,-0.642307,-0.234538
0.143860,-0.389381,-0.551976,0.868730,-0.456756,0.191526
-0.459462,0.289037,-0.334593,0.205508,0.466573,0.860277
0.306094,-0.775158,0.450649,0.449759,0.346770,-0.823084
0.805207,-0.562270,0.150080,-0.142772,0.559086,0.816724
-0.508140,0.628784,-0.008550,0.023146,0.915402,0.401874
0.193988,0.472933,0.485889,0.894692,-0.135065,0.425775
0.057463,-0.472333,0.023953,0.821273,0.545278,-0.167875
-0.613233,0.050002,0.184258,-0.317094,0.429378,-0.845628
0.769262,-0.539909,0.181132,0.798997,-0.556040,-0.228959
0.026596,0.316613,0.493039,0.710110,0.690733,0.136496
0.090669,-0.312344,-0.476083,0.813993,0.572707,0.097065
-0.070761,-0.018750,0.697429,-0.710406,-0.086492,-0.698457
0.045293,0.816934,0.353204,0.287506,0.860185,0.421216
-0.171099,-0.373881,0.564335,0.244343,0.826639,0.506917
0.063427,0.036980,0.305012,-0.749087,0.514248,-0.417634
-0.151999,-0.137325,0.676959,0.422491,0.900861,-0.099753
0.204062,0.328090,0.356329,0.085917,-0.344681,0.934780
-0.163280,-0.633984,0.902023,0.575399,-0.122024,-0.808719
0.007577,-0.267499,-0.132348,0.780042,0.620894,0.077624
0.011446,-0.769951,-0.184789,-0.428439,-0.901841,0.055879
-0.177949,-0.588900,0.753874,-0.120264,-0.031056,0.992256
-0.316247,-0.683445,0.528483,-0.227753,0.893342,0.387387
-0.004271,0.863795,-0.053983,-0.700283,-0.695140,-0.162435
-0.137249,-0.107863,0.547257,0.921744,-0.364786,-0.131603
0.470424,-0.809827,0.439944,0.809988,-0.006591,0.586409
-0.192052,0.091063,0.846641,0.871361,0.478980,0.106345
-0.263540,-0.537301,0.840247,-0.533237,0.835593,0.132073
-0.512007,0.483818,0.522947,0.985400,0.139727,0.097275
-0.440039,0.212946,0.327933,-0.133521,-0.055176,-0.989509
0.248872,-0.633038,-0.640678,0.928928,-0.261942,-0.261683
0.147245,0.443826,0.508524,0.911967,-0.142307,0.384792
0.213169,0.679667,0.469607,-0.643548,0.318019,-0.696211
0.218811,0.414119,0.336125,0.922707,-0.335850,0.189250
0.543520,-0.294714,0.568809,0.883348,0.373416,0.283296
-0.156591,-0.158032,0.701515,-0.229087,0.962235,0.147049
0.032479,0.425718,-0.976139,0.092933,-0.348731,-0.932604
0.012493,-0.508071,-0.309711,0.119509,-0.867739,0.482438
-0.400306,-0.355305,0.804680,0.453390,0.689353,0.565004
-0.563024,0.276729,0.036374,-0.841481,0.339474,-0.420318
-0.095745,0.026688,0.907866,-0.715579,0.149994,0.682238
-0.094857,-0.500379,0.633242,0.615156,0.765968,0.186750
-0.606624,0.382758,0.341396,0.223680,-0.864861,-0.449425
0.344455,0.275668,-0.960000,-0.045481,-0.261275,0.964192
0.339057,0.006927,0.355410,-0.679649,0.258223,-0.686584
-0.203417,0.540978,-0.060663,-0.524503,-0.163563,-0.835550
0.612025,-0.824388,-0.502967,0.207759,0.268663,0.940562
-0.552384,-0.452926,0.808317,0.199031,0.424053,0.883496
-0.074468,0.600615,-0.986517,0.366154,-0.220466,-0.904061
0.160944,-0.383820,0.532732,-0.368629,0.360343,-0.856893
-0.515957,0.165854,0.754487,0.131782,0.752531,0.645236
0.082528,0.874333,-0.991195,-0.174135,0.061192,0.982819
0.161751,0.445595,0.449015,-0.398300,-0.106722,-0.911026
-0.410702,-0.283945,0.841493,0.781881,-0.071991,-0.619257
0.240733,0.838595,0.336493,0.917090,0.393274,-0.065431
-0.174484,-0.728413,0.170795,-0.528627,-0.659247,-0.534740
-0.109848,-0.063126,0.770074,0.418256,0.895428,-0.152545
-0.200355,-0.731251,-0.332550,-0.425310,-0.899291,0.101912
0.098082,-0.531148,0.698185,0.677705,-0.509834,0.529892
0.647646,-0.643215,0.329425,0.092742,-0.517279,0.850777
0.838170,-0.230576,0.258230,0.797347,-0.279420,-0.534941
-0.068744,-0.035441,0.852667,0.908035,0.411754,-0.077017
-0.568745,-0.025381,0.805967,-0.071928,0.995207,0.066252
-0.179560,-0.173539,0.152246,0.833869,0.287311,-0.471291
-0.367584,0.649845,0.535020,0.848357,0.440016,-0.294408
0.214217,-0.424526,-0.665417,-0.058243,-0.995427,0.075714
0.009591,0.049648,0.297678,-0.019446,-0.594605,0.803783
0.095182,-0.625584,0.657266,-0.494038,0.682755,0.538305
-0.196486,-0.192946,0.233470,-0.590517,0.721484,0.361593
-0.478963,0.429503,-0.154064,0.019699,0.239374,0.970728
-0.181577,-0.097210,-0.948070,0.080789,0.759538,0.645426
0.158125,-0.610907,-0.422805,0.835013,0.542704,0.090701
0.331157,0.795634,0.404603,0.900954,-0.369547,0.227415
-0.086475,-0.076503,0.697000,0.849205,0.208055,0.485349
-0.161507,-0.675399,0.849522,0.987224,0.092905,0.129454
-0.913603,-0.244776,0.121623,0.238886,0.558015,0.794703
-0.061735,-0.293175,0.312980,0.770947,-0.040564,0.635606
-0.416182,0.368558,0.532977,0.172897,-0.382249,0.907740
0.057463,-0.463341,-0.006506,0.930799,-0.350071,0.105186
-0.098162,-0.562155,0.189304,-0.545754,0.471506,0.692701
-0.009750,-0.000766,-0.960511,0.563938,-0.350055,-0.747954
0.450677,-0.768528,0.466645,0.964990,0.119759,0.233349
0.465104,0.692213,0.107016,0.794133,0.570682,-0.208987
0.398132,-0.382635,0.590832,0.617547,0.328109,-0.714829
-0.497823,-0.620138,0.513897,-0.603754,0.383048,0.699111
0.250726,-0.652445,0.747337,0.011292,0.980068,0.198341
0.029980,0.245968,0.504397,0.873766,-0.224490,0.431437
-0.565602,-0.389504,0.321927,-0.730473,-0.117928,-0.672683
0.121939,-0.085733,0.660535,0.540413,0.739956,-0.400522
0.089218,-0.137801,0.699309,-0.166494,0.980714,-0.102368
-0.163039,0.475540,-0.056006,-0.052752,0.492528,0.868697
0.570117,-0.410089,0.357657,-0.491493,-0.755446,0.433285
0.571003,-0.624515,-0.319619,0.231385,0.470385,-0.851586
-0.564554,-0.295422,0.736898,0.431225,0.703925,-0.564389
0.792956,-0.600254,0.153124,0.162246,0.358569,0.919296
-0.115005,-0.326306,0.887192,0.221090,-0.211533,0.952036
0.810687,-0.556239,-0.246463,-0.415293,-0.448054,0.791694
-0.559637,0.111655,0.767295,-0.130164,0.672473,0.728586
0.298035,-0.935978,-0.417350,-0.514960,-0.627985,-0.583482
-0.139022,-0.613508,0.838919,-0.407395,0.325490,-0.853279
-0.120485,-0.056149,0.477145,0.954856,0.290993,0.059779
-0.085508,-0.100763,0.781677,-0.783998,-0.611203,-0.108528
0.844938,-0.679776,0.306340,-0.684569,0.059027,-0.726554
-0.250079,0.257322,0.508360,-0.136235,-0.611582,0.779363
-0.547389,0.598492,0.371263,0.687739,-0.154863,0.709248
0.251210,0.140647,0.350773,0.920630,-0.371325,-0.120654
-0.808670,0.590800,-0.031900,-0.448062,0.703025,-0.552265
0.096389,-0.738236,0.730565,0.806160,0.333797,0.488554
0.179644,0.874687,0.172184,0.448776,0.157326,-0.879686
0.491780,-0.435888,0.589524,0.162628,-0.201840,0.965822
-0.185928,-0.188208,0.072022,0.308793,-0.251716,0.917216
0.236623,0.735997,-0.976548,0.341406,-0.444849,-0.827980
-0.229852,0.418734,-0.036435,-0.503192,-0.359346,-0.785919
0.212284,-0.889356,0.452998,0.658986,0.660841,-0.359202
-0.148452,-0.373405,0.704681,-0.886407,0.059017,-0.459130
0.196971,-0.666883,0.288567,-0.202131,-0.979326,0.007976
-0.112184,-0.617531,0.765477,0.299472,-0.627767,0.718488
-0.015393,-0.052950,0.320947,0.955470,-0.202466,0.214674
0.193183,-0.604754,-0.520311,-0.575301,-0.785577,0.227812
-0.102514,-0.502748,0.116536,0.115253,0.011217,-0.993273
0.372501,0.167985,-0.954607,0.012858,0.271611,0.962321
-0.265795,-0.411273,0.680187,-0.330476,-0.893929,-0.302782
-0.148612,0.088933,0.654835,0.999747,0.003975,0.022120
0.062542,0.311521,0.514591,0.158839,-0.283375,0.945763
0.125967,-0.588778,-0.404153,-0.707140,-0.467723,-0.530272
-0.464942,-0.698475,0.517840,0.257495,0.966141,0.016364
-0.314796,-0.219215,-0.975771,-0.409563,0.385346,0.826902
0.285299,0.135086,-0.960123,-0.082119,0.088333,0.992700
-0.162073,0.217799,0.256351,-0.462368,0.183239,-0.867548
-0.220826,0.038879,0.750421,-0.451776,-0.267149,-0.851193
0.436815,-0.781781,0.212980,-0.111519,-0.495475,0.861434
-0.061813,-0.296722,0.901267,0.912992,-0.407537,0.018945
0.065041,-0.464880,0.004362,0.305095,0.948965,-0.079892
0.347357,0.357674,-0.107997,0.253301,-0.412761,0.874910
-0.280705,0.211053,0.870767,0.447585,0.893892,-0.024980
-0.262330,-0.546293,0.545684,-0.403583,0.746546,-0.528951
-0.559315,0.010473,0.099212,0.447122,0.101343,0.888713
0.429158,0.220999,-0.958489,-0.086900,-0.142824,0.985926
0.187701,-0.111886,0.159804,-0.542950,0.758318,-0.360776
0.456237,0.400627,0.247280,0.527935,-0.795230,0.298150
-0.019744,-0.527833,0.628604,0.280932,0.941598,0.185665
-0.028288,-0.253299,0.798674,-0.377707,0.801639,-0.463371
0.035381,-0.539078,0.788398,0.149483,-0.824740,0.545398
0.292956,0.120886,0.362029,0.913163,-0.392069,-0.111424
-0.141440,0.007042,0.904904,-0.660226,0.634143,0.402448
-0.256287,0.252353,0.763537,0.159553,-0.090126,0.983067
0.059558,-0.479787,0.582680,0.316512,-0.920367,0.229661
-0.163603,0.280637,0.745947,0.263179,-0.352733,0.897951
-0.215343,0.406665,-0.293756,-0.349556,-0.051429,0.935503
0.492102,-0.139571,0.400660,-0.687580,0.442285,-0.575862
-0.077771,-0.411157,0.526869,0.778571,-0.618653,-0.105338
0.130965,-0.617892,-0.385522,0.495428,0.801073,-0.335905
-0.005319,0.064672,0.813751,0.121557,0.353045,0.927676
-0.139345,-0.419557,0.397820,0.683973,-0.289319,-0.669683
0.043279,-0.780835,-0.185320,0.038249,-0.991055,0.127853
-0.359847,0.217446,0.617552,0.188127,0.975346,-0.115366
0.417958,-0.337667,0.580066,0.915204,-0.399645,-0.051819
-0.767729,0.636945,0.423806,-0.475078,0.562343,-0.676810
0.455593,0.470925,0.103727,0.739018,-0.417243,-0.528924
0.830110,-0.399796,0.270140,-0.506988,0.698419,0.505148
-0.002257,0.147985,0.804149,-0.675820,0.732965,0.077651
0.149581,-0.436718,0.863066,-0.058176,-0.236007,0.970008
-0.041828,-0.533394,0.943310,-0.333954,0.927362,0.168743
0.867344,-0.626884,0.307014,0.573588,-0.130497,0.808683
0.367506,-0.780835,0.786499,-0.323808,0.521511,0.789414
0.006689,-0.488787,0.960961,-0.671588,0.594125,-0.442701
-0.217117,-0.133540,0.074310,0.425402,-0.290164,0.857227
-0.159170,0.366550,0.534162,-0.377646,-0.920479,0.100507
0.298760,0.203246,0.328955,-0.382818,0.893541,0.234596
-0.112750,-0.408904,0.560004,-0.116618,0.971553,-0.206119
-0.027563,0.177331,0.288138,0.092806,0.760665,0.642477
0.315362,0.285136,0.364072,-0.135256,-0.450437,0.882503
0.150307,-0.584993,-0.131040,0.562069,0.811095,0.161873
-0.252740,0.394834,0.155780,0.021125,0.026553,0.999424
-0.205432,-0.550201,0.472038,-0.327403,0.298095,-0.896631
0.830191,-0.718121,-0.255186,0.923394,0.282207,-0.260199
-0.353963,0.300521,0.662700,0.689057,0.490357,0.533621
0.144182,0.109640,-0.169590,0.877182,-0.474251,0.075083
-0.563747,-0.286191,0.097313,-0.132184,-0.977862,0.162212
-0.211074,0.523463,0.093452,-0.665685,0.381959,-0.641070
0.213492,-0.433642,-0.656878,-0.683696,-0.711205,-0.163544
0.599937,0.480979,-0.951870,-0.290510,0.097787,0.951862
0.005240,-0.070587,-0.094534,-0.732373,0.055075,-0.678672
0.731060,-0.730074,0.314736,-0.032459,-0.375888,0.926096
-0.252740,0.821672,-0.127711,-0.102285,-0.844232,0.526128
0.085108,-0.528901,0.164789,-0.480246,0.876265,0.039023
0.069391,-0.575762,-0.228322,0.174484,0.975750,0.132161
0.159333,-0.272345,0.549892,0.786202,0.134965,0.603051
0.076563,-0.852433,0.016864,0.240444,0.970493,-0.018179
-0.256528,-0.120879,-0.977876,-0.239712,0.324383,0.915048
0.172632,0.920478,0.396268,-0.075342,-0.744704,0.663129
-0.464054,-0.044311,0.472202,0.593266,0.518897,-0.615453
-0.203174,-0.272114,0.376574,0.875749,-0.467875,-0.118982
-0.068422,0.368558,0.526093,0.210573,-0.193798,-0.958176
0.441328,-0.868526,0.820778,0.576684,-0.273316,-0.769892
-0.396518,0.183246,0.708093,-0.671124,-0.682225,0.290107
0.285299,-0.655168,0.575428,-0.821302,0.320558,0.471916
-0.258380,-0.195192,0.479862,0.777040,0.620453,0.106053
0.446163,-0.555878,0.817060,0.269982,0.064776,0.960684
-0.407559,-0.621323,-0.080173,0.314741,0.579453,0.751779
0.134512,0.300752,-0.955057,-0.184308,0.448791,0.874424
-0.271678,0.646176,0.173022,-0.066355,-0.463761,0.883472
-0.345341,0.842849,0.040173,-0.296277,0.955038,-0.011115
0.015071,0.838711,-0.086526,0.510425,-0.854031,0.100481
0.094616,0.274245,0.122644,0.251777,-0.641822,0.724343
-0.401354,-0.488548,0.843474,0.875621,0.482746,0.015659
0.171825,0.118993,0.799348,0.955136,0.010893,0.295967
0.383704,0.637776,0.279088,0.814562,-0.127192,-0.565960
-0.150951,-0.627946,0.225728,0.571424,-0.818884,-0.053886
-0.350820,-0.350689,0.851421,-0.549699,0.623526,0.555920
-0.471953,-0.183716,0.760677,-0.051111,-0.774961,0.629938
-0.206639,0.123840,0.577941,0.780975,0.059821,0.621691
-0.600337,0.375658,0.549279,0.463998,0.866294,0.185041
0.263621,0.268567,-0.942820,-0.437814,0.453070,-0.776561
-0.743230,0.652329,0.423050,-0.475078,0.562343,-0.676810
0.232592,-0.925325,-0.491057,0.435762,0.582162,0.686439
-0.517730,0.330220,0.588094,-0.343260,0.518724,0.783006
-0.415941,0.792558,-0.277719,-0.564763,-0.383523,-0.730721
-0.311894,-0.290691,0.707480,0.394947,0.871994,-0.289213
-0.547389,-0.089279,0.792586,-0.612269,0.056219,-0.788648
0.045374,-0.526655,0.041542,0.709424,0.301795,0.636897
-0.409976,-0.649607,0.824149,-0.083732,0.810904,0.579158
-0.446648,-0.439203,0.010347,-0.687106,0.582720,0.433961
-0.531429,0.289159,0.023973,0.756777,-0.046063,0.652048
-0.561088,0.626653,0.382356,0.831687,-0.028087,0.554534
0.062620,0.371281,0.445276,0.730942,0.527169,-0.433378
0.157400,0.314720,0.189304,-0.479558,0.875148,-0.064343
-0.267731,0.008935,0.116965,0.977380,0.121082,-0.173399
-0.025305,-0.554340,0.636143,-0.129488,-0.977401,-0.167094
0.187138,-0.506656,-0.340824,0.999859,0.015028,0.007479
-0.323662,0.225376,0.304890,0.365411,0.871660,0.326625
-0.635636,0.084079,0.276800,-0.241824,0.933876,0.263434
-0.396678,-0.122417,0.669442,0.758507,0.387482,0.523952
0.040701,-0.238384,-0.946987,0.178030,-0.339655,-0.923547
-0.081318,-0.615046,0.727173,0.644700,0.734711,0.211097
-0.118067,-0.205369,0.389444,-0.167270,0.909912,0.379580
-0.552143,0.690906,0.367484,0.802635,-0.045064,0.594765
0.301982,0.791611,-0.976139,-0.280072,0.468063,0.838139
0.790054,-0.006211,0.575632,0.717856,0.166370,-0.676020
0.242022,0.771258,0.391651,0.377015,-0.259465,-0.889122
-0.053513,0.084079,-0.155841,-0.448841,0.740622,-0.500020
0.861783,-0.745812,-0.253348,0.826361,0.359745,-0.433255
0.355577,-0.614577,0.574938,-0.547365,0.729220,-0.410646
-0.097919,-0.568308,0.789604,0.604931,-0.609868,0.511975
-0.021679,-0.444057,0.917304,0.888311,-0.237239,-0.393219
-0.035300,0.166446,0.607277,0.254035,0.940435,-0.225941
0.104449,-0.468903,-0.351610,0.702443,-0.618794,0.351663
-0.740731,0.039826,0.224850,-0.560085,0.763448,0.321640
0.007013,-0.201462,0.477922,-0.647552,0.038719,0.761037
0.180851,-0.686052,-0.406686,-0.341222,-0.875761,-0.341483
-0.122017,-0.696698,0.589402,0.855808,-0.052565,0.514615
0.254191,0.705821,0.364583,0.962353,0.268018,-0.045208
-0.058348,-0.355066,0.890338,0.984886,-0.078474,0.154404
-0.155464,-0.666291,0.883433,0.958585,-0.213503,0.188497
0.010880,0.446902,-0.018621,0.965445,-0.162888,-0.203432
0.089540,-0.431865,-0.288342,0.877932,-0.309831,0.365020
0.092924,0.271168,0.516082,-0.095039,0.372213,-0.923269
-0.456075,-0.051057,0.117823,-0.073813,-0.942964,0.324608
0.127741,-0.410681,-0.317842,0.726655,0.665140,-0.171934
-0.549885,-0.192823,0.448770,0.421319,0.479082,-0.770046
0.150710,-0.149278,0.631587,0.282715,0.783328,-0.553597
-0.754834,0.087156,0.307831,0.786099,0.569369,-0.240558
0.624598,-0.255899,0.631383,0.251889,-0.965854,-0.060638
0.003548,-0.503340,0.947457,0.047558,0.989556,0.136081
-0.082124,0.097571,0.940430,0.759016,-0.317134,-0.568613
-0.322856,-0.562508,0.506788,-0.284402,-0.656793,-0.698382
-0.283929,-0.489256,0.684457,0.612783,0.755300,0.232420
-0.578900,-0.011058,0.236065,0.295716,-0.674793,0.676170
0.093731,-0.513756,0.037722,-0.420096,0.363138,-0.831655
-0.238556,-0.481210,0.738266,0.773677,-0.138552,0.618246
-0.130077,0.214015,0.545745,0.856761,-0.173323,0.485716
-0.153851,-0.475533,0.266851,0.191709,-0.123234,0.973684
0.253385,-0.544640,0.273348,-0.453582,0.877199,-0.157433
-0.108315,-0.564877,0.951870,0.832767,-0.552028,-0.041992
-0.064152,0.074379,0.926803,0.678989,-0.437225,0.589753
-0.132736,-0.483695,0.318924,0.042613,-0.691500,0.721119
-0.394100,-0.363112,0.773792,0.300637,0.927441,0.222421
0.277643,0.815988,-0.977549,-0.340846,0.114931,0.933068
0.220100,0.061595,-0.140846,0.330214,0.607244,-0.722643
-0.161347,-0.400035,0.879981,-0.261036,-0.029410,0.964881
-0.600015,0.202415,0.457125,0.740131,0.407332,-0.535058
-0.379995,0.117925,0.690402,0.477697,-0.339836,0.810134
0.412798,-0.632684,0.743394,0.095813,0.712494,0.695106
-0.077208,-0.214838,0.708624,0.659137,0.740068,-0.133556
-0.484202,0.311997,0.607236,-0.037039,0.916607,0.398070
-0.460187,-0.591854,0.695223,0.009315,-0.526859,0.849901
0.921421,-0.441565,0.150570,0.232556,-0.363364,-0.902155
-0.152643,-0.210461,0.154820,-0.518881,-0.672749,0.527419
0.046181,0.162185,0.513713,-0.310174,0.378205,-0.872212
0.105900,-0.698714,0.689523,0.838422,0.535923,0.099171
-0.031913,-0.401219,0.530567,-0.415280,-0.896740,0.152972
0.038121,-0.521917,0.272142,0.048990,-0.842225,0.536895
-0.563265,-0.165016,0.438780,-0.238291,-0.265141,0.934301
-0.006851,-0.217200,0.790911,0.919462,0.293995,-0.261070
-0.501207,0.459564,0.376513,0.946187,0.089432,0.311018
0.035059,0.056510,0.299884,0.295965,0.669569,-0.681236
-0.023453,-0.612800,0.738736,0.445485,0.068890,-0.892635
-0.376852,0.333774,0.575020,0.247699,0.797392,0.550283
0.538525,0.443234,-0.951686,-0.018824,0.168727,0.985483
0.096389,-0.403111,-0.132675,-0.718573,-0.275938,0.638366
-0.415296,-0.447133,0.286095,0.520266,0.135053,0.843258
0.101628,-0.189631,0.657368,0.056631,-0.812420,0.580316
-0.452450,-0.150224,0.772219,0.031360,-0.996253,0.080602
-0.783608,-0.299213,0.129794,0.041990,0.623005,0.781090
-0.376289,-0.264299,0.723537,-0.286314,-0.953357,0.095576
0.146438,-0.407604,-0.465705,-0.604322,-0.617969,-0.502901
-0.196968,0.024319,0.483315,0.830920,0.060196,0.553127
0.325758,0.807826,0.418739,0.095030,0.912105,0.398789
0.356222,-0.003842,0.376370,-0.605497,0.292164,-0.740280
-0.447452,0.312705,0.322560,0.223332,-0.238090,0.945217
-0.078255,-0.125848,0.696326,0.065326,0.997821,0.009216
0.213169,0.030119,0.690830,0.796700,-0.362786,0.483379
0.096308,-0.337436,0.212143,0.900150,0.302543,-0.313364
0.199226,0.412580,0.283664,0.893221,0.188891,-0.408016
0.111139,0.496717,0.445154,-0.671902,-0.413580,0.614410
0.062701,-0.121586,0.884618,-0.446235,0.893827,0.044129
0.362508,0.727005,0.380313,-0.688449,0.593991,0.416189
-0.583173,0.225730,0.600025,0.854703,0.162288,0.493097
-0.197131,-0.730544,0.002155,0.164601,0.950858,-0.262250
0.296180,0.246914,-0.963351,-0.021631,0.084320,-0.996204
0.451161,-0.338974,0.587134,0.132514,-0.524957,0.840750
-0.340183,0.344659,0.521823,0.226488,-0.502117,0.834614
0.297550,-0.654222,0.580147,-0.183394,0.626343,0.757669
-0.054401,-0.373405,0.567420,0.977895,-0.104305,-0.181223
-0.182221,-0.007981,-0.974341,-0.127384,0.176467,0.976029
-0.379513,0.419211,-0.006792,0.700741,0.236930,0.672923
0.134349,-0.659784,0.723087,0.887449,0.384455,-0.254221
-0.263781,0.307736,0.540597,0.993076,-0.076572,-0.089088
-0.134509,-0.076149,0.822208,-0.513914,0.811802,0.277254
-0.424242,-0.461803,-0.093492,0.375367,0.379779,0.845498
0.177064,-0.433403,-0.700575,0.744402,-0.658514,-0.110564
-0.109363,-0.044903,0.600576,0.993686,0.007687,-0.111937
-0.147082,-0.706644,0.805988,0.873338,0.479843,0.083859
0.522002,0.620853,-0.948867,-0.200971,-0.010126,0.979545
-0.617020,0.238391,0.196106,0.126850,0.457512,0.880109
0.470746,0.222299,0.094207,0.128185,-0.455343,0.881040
0.066007,-0.506656,-0.349670,0.942012,-0.307439,0.134513
0.094215,0.552100,0.513468,0.385853,0.831906,-0.398810
0.312782,0.590208,0.422805,0.803610,-0.139802,0.578503
-0.618230,0.573285,0.397718,-0.407056,0.506917,-0.759829
0.111621,-0.497071,-0.423295,-0.581457,0.808722,0.088749
-0.497663,0.534347,0.366462,0.655380,-0.421996,0.626415
0.142973,0.797527,-0.985782,0.194737,-0.356008,-0.913967
-0.471873,0.087748,0.345012,0.357291,0.565050,0.743681
0.077048,-0.413996,0.144462,0.608200,0.720374,-0.333396
0.317617,-0.701082,0.772015,0.501159,0.846677,0.178824
-0.130077,-0.531740,0.804844,0.892491,0.430439,-0.134840
0.357269,0.381458,-0.948356,-0.063068,-0.032027,0.997495
-0.032720,0.056864,0.662292,0.770999,0.634109,-0.058881
-0.339698,0.313774,-0.324848,0.452044,-0.407708,-0.793367
0.020553,0.035441,0.333858,-0.670276,0.739428,0.063058
-0.102110,-0.417665,0.471323,-0.513541,-0.851359,0.107069
0.082931,0.193900,0.306851,-0.196989,0.935133,-0.294485
-0.247017,-0.308675,0.704722,0.208544,0.444111,0.871364
-0.831639,0.547370,-0.006690,0.910683,-0.401529,0.097118
0.637815,-0.149632,0.607358,0.334341,0.930042,0.152440
-0.400950,0.085025,0.689850,0.177177,-0.628164,0.757640
0.230578,-0.702383,0.458719,0.575981,0.281925,-0.767309
-0.548838,0.243006,0.584029,0.720582,0.175769,0.670721
0.028128,0.665822,0.487870,0.702703,0.620543,-0.348043
0.017166,-0.116733,-0.085055,-0.580178,-0.032615,-0.813836
0.584543,-0.112594,0.593549,-0.096101,-0.869882,0.483807
-0.014908,-0.198862,0.114146,0.235732,-0.279422,0.930781
-0.043682,-0.356605,-0.092042,-0.528011,0.399714,-0.749288
0.343730,-0.346190,0.583028,-0.563417,0.258075,0.784830
0.428676,-0.416596,0.586746,0.799845,-0.083516,-0.594368
-0.093728,-0.164186,0.732117,0.996163,0.033287,-0.080941
-0.222921,0.104555,-0.976405,-0.384875,0.300848,0.872561
-0.127900,-0.612446,0.889664,-0.252496,-0.010459,0.967541
-0.373308,-0.463341,0.493182,0.452366,-0.387537,-0.803231
-0.056334,0.300636,0.534468,0.390490,-0.365921,0.844760
-0.048999,0.084794,0.696469,0.914085,-0.293197,0.280150
-0.081883,-0.383935,0.475634,0.226652,-0.866989,0.443800
-0.416747,-0.664630,0.506032,-0.129256,0.916344,0.378956
0.049728,-0.534225,0.554264,-0.172439,0.843139,-0.509295
-0.574387,-0.260399,0.434429,0.506780,0.674127,-0.537333
0.147405,-0.433757,-0.473774,-0.243558,-0.943074,-0.226476
-0.035782,-0.280160,0.614754,0.997137,-0.072165,-0.022580
-0.204062,-0.176847,0.692935,-0.204722,0.920610,0.332514
0.604288,-0.116025,0.378801,0.730781,-0.276444,0.624130
0.511687,0.556477,-0.951298,0.005821,-0.114184,0.993443
-0.511040,0.673275,0.103666,-0.375528,0.638633,-0.671659
0.060124,-0.430326,0.350242,-0.767522,0.617481,0.172128
-0.089540,-0.662622,0.269977,0.639567,-0.738668,-0.212893
-0.195598,0.087394,-0.979530,0.321849,-0.319504,-0.891252
-0.056737,-0.394235,0.592936,0.883490,0.278561,0.376629
0.193665,-0.024080,0.167302,0.577043,0.549390,-0.604311
-0.231222,0.003373,0.783271,0.515961,0.706312,-0.484673
0.551258,0.616476,0.422682,0.278781,-0.836992,0.470878
-0.135072,0.056510,0.466400,0.654998,0.222365,0.722172
-0.715585,0.189400,0.268077,0.275351,-0.403910,0.872375
-0.586153,0.105740,0.095760,0.218717,0.094638,0.971188
0.099373,-0.487125,-0.446380,0.990495,0.085155,0.108021
-0.072694,-0.248561,0.641066,0.547766,-0.763109,0.342952
0.008865,-0.431273,0.299292,-0.724653,0.689020,-0.011377
0.461961,0.178516,-0.956916,-0.195172,0.210839,0.957838
-0.747421,0.403704,0.114534,-0.499653,-0.393849,-0.771512
0.210267,-0.435057,-0.685008,0.000341,0.970657,0.240469
0.018376,0.959415,-0.993197,0.237788,-0.092925,-0.966862
0.342441,0.539201,-0.959837,-0.650919,-0.246329,0.718071
0.750242,-0.193893,0.575204,0.492843,0.200072,-0.846804
0.161670,0.215438,0.414572,0.789749,-0.405633,0.460173
-0.385959,-0.373527,0.789154,0.170609,0.788371,0.591071
-0.169808,0.145732,0.255146,-0.707796,-0.055177,-0.704259
-0.076401,-0.571855,0.872402,0.386099,0.794990,-0.467887
-0.183107,-0.041595,0.841473,-0.500246,-0.788888,0.356945
-0.459784,0.067633,0.106015,-0.419918,-0.113877,0.900389
0.194310,-0.193177,-0.736897,0.892723,0.429289,0.136953
-0.042472,0.567601,0.515735,0.083676,0.213824,0.973282
-0.816408,0.398857,-0.343092,-0.698623,0.689801,0.190000
-0.554561,0.223361,0.254369,-0.246604,0.638964,-0.728636
-0.444552,-0.340036,0.759533,0.555424,0.831515,-0.009269
-0.198904,-0.426542,0.482784,0.869053,0.452674,0.199584
-0.127256,-0.341574,0.153185,0.751737,0.594182,0.286075
0.511768,-0.283352,0.594856,0.097667,-0.376527,0.921243
0.520148,-0.597892,0.798184,0.308178,0.930345,-0.198708
-0.410299,0.474587,0.170979,0.614220,-0.494119,-0.615288
0.642892,0.082425,-0.938305,0.296528,0.105958,-0.949128
-0.274096,0.260168,0.117414,0.724675,0.636483,0.264075
-0.535542,-0.428788,0.767684,-0.228784,0.951470,0.205820
-0.049644,-0.414588,-0.201683,0.114302,0.992938,0.031771
-0.073905,-0.099225,0.756918,0.066539,-0.963612,0.258890
-0.510233,-0.178508,0.750564,0.860795,0.327567,0.389527
-0.210670,0.126447,0.701331,-0.024734,0.891445,0.452453
0.283929,0.130824,0.401681,0.709287,-0.196394,0.677009
-0.401272,-0.230692,0.706295,0.844290,0.115504,0.523290
-0.428514,0.371165,0.564438,0.708217,0.686025,0.166731
0.543198,-0.155316,0.379863,-0.726398,0.285129,-0.625338
0.583576,0.583815,0.425134,-0.237354,0.967136,-0.091165
-0.363959,0.127747,0.590178,0.470649,0.766169,0.437578
