0.330857,-0.911860,-0.079407,0.568216,0.543548,-0.617808
-0.068880,-0.185336,0.515244,-0.618097,0.417661,-0.665970
-0.038488,-0.398034,0.166366,-0.055607,0.232950,0.970898
0.658924,0.111144,0.503742,0.094077,-0.788230,0.608147
0.443264,-0.058066,0.563054,0.877139,0.004321,-0.480217
0.509621,-0.681340,0.340955,-0.646222,0.762083,-0.040343
0.448043,-0.280449,-0.945907,-0.007086,0.251402,0.967857
-0.618714,-0.133614,0.393016,0.647380,0.194890,0.736829
0.914397,-0.830113,-0.530811,-0.101634,0.994724,0.013973
0.503911,-0.083442,-0.952628,0.020361,0.193014,0.980985
0.271135,-0.075113,0.762010,0.647463,-0.716137,-0.260651
-0.229062,-0.080149,0.790997,0.360362,0.900670,0.242761
-0.236627,-0.234927,0.531596,0.885231,-0.252405,0.390714
0.457998,0.369752,-0.977365,0.089512,0.099936,0.990959
0.329262,0.531309,-0.984756,-0.039276,0.144571,0.988715
0.069277,-0.924355,0.355853,0.748907,-0.529273,-0.398759
-0.013669,-0.071238,0.962214,0.964215,0.262532,-0.036973
0.652153,0.035014,-0.530511,0.796650,-0.602671,-0.046218
-0.733908,-0.532956,-0.022981,-0.398567,0.213227,-0.892008
0.015265,0.096228,-0.418630,-0.269030,0.878826,0.394064
-0.084141,0.273379,-0.976210,0.024812,0.414101,0.909893
-0.136168,0.069979,0.880335,0.397500,0.808052,0.434793
0.005974,-0.064652,0.895418,0.825986,-0.554630,0.100664
0.361647,0.063781,-0.942951,0.235517,0.210488,0.948803
0.474053,0.046152,0.573679,-0.358583,0.905595,-0.226529
-0.007569,-0.848903,-0.432996,-0.620858,0.048887,-0.782397
0.223360,-0.090706,0.591256,0.498740,0.711578,0.494889
0.457861,-0.920384,0.428331,0.450385,-0.765467,0.459580
0.199067,-0.980339,0.392115,-0.226431,0.735288,0.638812
0.418445,0.094775,0.598693,-0.661677,0.745575,-0.079383
-0.085202,0.415081,0.415165,0.890307,-0.291982,0.349428
-0.463441,0.471354,0.383892,0.127814,0.583494,-0.801997
-0.511881,-0.713982,0.387403,0.258411,0.959835,-0.109278
0.179294,0.501671,-0.495681,0.322167,0.789338,0.522641
-0.162308,-0.661485,0.515798,0.329196,0.755782,0.566060
-0.092241,-0.081408,0.705192,-0.195693,0.664650,0.721072
-0.439287,0.057098,0.724871,-0.132025,-0.989699,-0.055369
0.578894,-0.390092,-0.009932,0.376780,0.836785,0.397275
-0.317184,-0.789917,-0.730922,0.045894,0.286297,-0.957041
-0.085202,0.521527,-0.595898,0.906608,-0.413514,0.084074
-0.437562,-0.049833,0.519540,0.512119,-0.698195,-0.500258
0.990312,-0.798344,0.350910,0.989523,-0.140826,0.031812
0.649763,-0.102233,0.567096,0.855508,-0.032813,0.516750
-0.394427,-0.111241,0.361558,0.247106,-0.321942,-0.913943
-0.116525,0.476779,0.567050,0.335807,0.775789,0.534214
0.392436,-0.897332,-0.102966,-0.110672,0.982348,-0.150809
-0.261584,-0.014287,0.702305,-0.044448,-0.762874,0.645018
0.054940,-0.287424,0.393570,-0.114401,0.930180,0.348824
0.423888,0.178363,0.331786,-0.095334,0.511958,-0.853704
-0.112281,0.746816,0.272658,0.654068,-0.743259,-0.140576
-0.035167,-0.014964,0.840031,-0.479957,-0.068930,-0.874580
-0.591773,-0.468546,-0.033282,0.750853,-0.625016,0.213482
0.268616,0.570246,0.369180,0.727140,0.457062,0.512213
0.005310,-0.072885,0.901146,0.868996,-0.471731,0.149381
0.615126,-0.008960,-0.496512,0.944256,-0.329163,-0.005661
-0.290907,0.411788,0.040050,0.420363,-0.866678,-0.268634
-0.231986,0.000920,0.369919,-0.376991,0.836561,-0.397546
0.041672,-0.129256,0.946023,0.917602,-0.284847,-0.277252
-0.703515,0.730737,0.188216,-0.103784,0.987426,-0.119239
0.757666,-0.387864,-0.946947,0.233346,0.246772,0.940560
0.542135,-0.806093,-0.605691,-0.439416,0.223111,-0.870135
-0.815793,0.644148,-0.084904,-0.524699,0.796196,-0.301268
-0.060253,-0.320161,0.376594,-0.144537,-0.455676,0.878333
0.133512,0.085670,0.831439,-0.729772,0.642721,-0.233114
-0.245124,-0.583806,0.503696,-0.173833,0.570032,0.803023
0.090775,-0.046443,0.859109,0.025989,0.389302,0.920744
0.629326,-0.364038,0.286031,-0.501579,-0.864628,-0.028923
-0.520767,0.247712,0.253141,-0.788866,0.352822,-0.503197
0.070735,-0.020582,0.644378,-0.077612,-0.975650,-0.205144
0.215923,0.306504,0.509493,0.312351,0.949817,-0.016845
0.810617,-0.507773,0.527324,0.664835,-0.265793,-0.698104
-0.183944,-0.082667,0.753742,-0.767904,0.396438,-0.503151
-0.660916,-0.710495,-0.193759,0.251852,-0.467223,-0.847510
-0.967486,-0.241804,0.162209,-0.746750,0.468517,-0.472077
-0.007699,-0.269795,0.503742,0.754115,-0.560300,0.342600
0.884936,-0.804252,-0.449164,-0.263021,-0.963526,0.049375
-0.447249,-0.559882,0.476026,-0.271580,-0.762965,-0.586624
-0.689187,0.546515,0.295201,0.536447,0.163466,0.827952
0.576643,-0.589907,0.385809,0.835902,-0.261289,0.482696
-0.207434,-0.313575,0.787232,-0.500211,0.850645,0.161838
-0.065697,0.176038,0.655788,0.205144,-0.965531,-0.160206
-0.109357,-0.296044,0.865230,0.895191,-0.324797,-0.305188
0.476046,0.399487,0.294946,0.890805,0.337045,-0.304743
-0.103120,-0.078212,0.739329,-0.161919,-0.929569,0.331185
-0.785133,-0.743329,0.335389,-0.177181,0.814000,0.553183
-0.727273,-0.508161,0.386710,-0.227955,0.969277,-0.092404
-0.522363,-0.442104,-0.058042,0.672203,-0.460671,0.579591
0.282677,0.516393,-0.983255,-0.083722,0.154366,0.984460
0.779828,-0.488692,0.280395,-0.090153,0.195382,0.976575
0.304443,-0.075791,-0.952582,-0.131073,0.134117,0.982259
0.347973,0.528113,0.369157,-0.615031,-0.353744,0.704700
0.292106,-0.149015,0.617494,0.834959,-0.501434,0.226731
0.332445,-0.961839,0.062084,0.275402,-0.863506,-0.422505
0.232780,-0.112694,0.867078,-0.431715,-0.898154,-0.083311
-0.860652,-0.662066,-0.004319,0.840505,0.201634,0.502886
-0.183944,-0.321517,0.701220,-0.413070,-0.399525,-0.818384
0.463175,0.073660,0.381467,0.933200,-0.338113,-0.121728
0.607958,0.182721,0.055017,0.804006,-0.178781,-0.567108
0.261179,-0.168676,0.636225,-0.620246,0.495007,-0.608492
0.190181,-0.017676,-0.957432,-0.275946,-0.370400,-0.886937
-0.219511,-0.008960,0.547857,-0.178068,0.955268,0.236123
0.036228,-0.093806,0.863013,0.811738,0.540699,0.220741
-0.223489,-0.339048,0.265221,0.123948,0.434887,0.891914
-0.904579,-0.122186,0.503003,0.983217,-0.180537,-0.026274
-0.270608,0.368009,0.466440,0.586205,0.450231,-0.673539
-0.071537,-0.296624,0.488937,0.904159,-0.424053,-0.051719
-0.080561,-0.159378,0.553284,0.414213,0.313738,-0.854398
-0.531921,-0.332946,-0.027578,-0.807869,0.377533,-0.452566
-0.008096,0.909439,-0.986996,0.060860,0.044350,0.997161
-0.093561,-0.331106,0.681749,0.162752,0.686972,0.708224
0.179027,-0.296819,-0.924381,0.430988,0.699474,0.570076
-0.068880,-0.005569,0.605298,-0.212743,0.043343,0.976146
-0.153284,-0.266793,-0.455746,0.570160,-0.813900,0.111737
0.269409,0.766381,0.403825,-0.246828,0.851108,-0.463348
0.089180,0.764347,-0.987574,0.041585,-0.099256,-0.994193
-0.015791,-0.955156,0.276792,-0.787430,-0.595311,0.159872
0.409421,-0.453339,0.455354,0.294677,0.163948,-0.941428
-0.362440,-0.476101,-0.215031,-0.644089,-0.142191,0.751619
-0.225214,0.254782,0.455331,0.807686,0.211547,-0.550355
-0.728602,0.124897,-0.963091,0.004041,0.397577,0.917560
0.286792,-0.319774,0.350102,-0.184558,0.673833,0.715463
0.584467,0.468545,0.207710,0.611129,0.268809,0.744489
0.113602,0.578091,0.133500,-0.311225,-0.277313,0.908976
-0.781018,0.229890,0.317189,0.120638,0.824320,0.553121
0.706967,-0.606664,-0.352203,0.928003,0.327124,0.178327
0.654680,0.035595,-0.700850,0.977049,-0.082838,-0.196248
-0.205976,-0.420989,0.466902,-0.348657,0.647593,0.677541
-0.030525,-0.114727,0.748984,0.201150,0.208507,0.957112
0.170400,-0.196765,0.789657,0.945374,-0.250111,0.209077
0.146513,0.842220,0.359202,-0.390843,0.637849,0.663619
-0.768682,-0.504093,0.139181,0.459648,0.741461,0.488834
-0.116525,-0.174294,0.869272,0.832127,-0.541410,-0.120169
0.064628,0.014964,0.962745,0.792315,0.485036,0.370104
-0.223886,-0.041891,0.554532,0.064339,0.724520,0.686245
0.199464,0.903241,-0.987897,-0.019141,0.033245,0.999264
0.093691,-0.139426,0.485033,0.281148,0.127825,0.951113
-0.005577,-0.221464,-0.325596,-0.338034,0.091144,0.936710
0.110548,-0.320935,0.159876,0.121673,0.207646,0.970607
-0.403322,0.083926,0.389874,0.214239,-0.819108,0.532131
0.209557,0.145431,0.789519,0.618519,0.541316,-0.569571
0.155407,-0.253136,0.665604,0.749357,0.422978,0.509464
-0.434905,-0.793501,0.184451,0.155671,0.740003,0.654341
-0.482015,-0.101749,0.414865,0.077550,0.994814,0.065816
-0.155804,-0.870503,-0.166667,0.314486,-0.169903,0.933933
-0.396153,-0.030656,0.535431,-0.050077,-0.956752,-0.286561
0.616852,0.007603,-0.560375,0.995804,-0.079144,-0.045937
0.224680,-0.065911,0.643200,0.439357,0.325072,0.837433
0.524882,0.541480,0.133477,-0.352791,-0.026114,-0.935338
0.115724,-0.055063,0.005589,0.900621,0.349472,-0.258363
0.506041,0.175359,-0.711405,0.643334,0.761240,0.081456
-0.311352,-0.105428,-0.942766,-0.119523,0.390538,0.912795
-0.509094,-0.628166,0.435260,0.569542,-0.821919,0.008445
-0.412612,-0.369170,0.351603,-0.199547,0.892854,0.403723
-0.312275,-0.295075,-0.551021,-0.349336,0.843972,0.407033
0.032114,0.340694,0.649714,-0.436742,-0.590332,0.678796
0.709753,-0.124122,-0.051136,0.609804,-0.637195,0.471299
0.391641,0.149499,0.239029,-0.514564,-0.752800,-0.410507
0.202121,-0.104363,0.588299,0.105466,0.860822,0.497858
-0.218054,0.308925,0.171794,0.765409,-0.105067,-0.634909
-0.023227,0.184077,0.573332,-0.041774,0.888259,0.457440
-0.073926,-0.188919,0.528271,0.493176,-0.541793,0.680616
-0.489848,-0.423895,-0.047233,0.722020,-0.601549,0.341798
0.484802,0.150661,0.590262,-0.056519,-0.458011,0.887148
-0.137756,-0.283064,0.418792,-0.328932,0.884700,0.330317
-0.382877,0.097292,0.141861,-0.699191,0.377590,-0.607090
-0.246582,-0.141557,0.752610,-0.683063,0.236230,-0.691101
-0.052420,-0.488498,0.371974,-0.393465,0.894153,-0.213720
0.383015,0.441619,0.498406,0.162210,0.738192,0.654798
-0.494894,-0.061650,0.172164,0.441869,0.253538,0.860506
0.075644,-0.063780,-0.252679,-0.266194,-0.842167,0.468931
-0.720243,-0.643373,-0.013997,0.249078,-0.250783,0.935451
0.441409,-0.144462,-0.243764,-0.174725,0.927372,-0.330836
-0.037954,-0.000629,-0.544831,0.602357,0.794726,-0.074678
-0.214862,0.443557,0.010278,-0.400582,0.500346,0.767586
-0.185936,0.364134,0.485495,-0.457606,-0.427885,0.779430
0.036763,-0.408979,0.474686,0.510579,-0.410386,-0.755574
-0.922764,-0.383312,0.425674,-0.143132,0.827808,0.542446
0.475649,0.097874,0.491431,0.837913,-0.535893,-0.103540
0.276578,0.449562,0.662094,0.293564,-0.941732,0.164198
-0.226275,-0.287520,0.778548,0.869212,-0.482911,0.106147
0.099135,-0.607148,0.173619,-0.627238,-0.011899,-0.778737
-0.562175,-0.106010,0.281135,0.371661,0.034078,0.927743
-0.014204,0.028331,0.929901,0.918831,0.289671,0.268029
0.015395,-0.021067,0.653224,0.049366,-0.963531,0.263004
-0.039152,-0.067267,-0.462214,0.151588,-0.491270,0.857715
0.512278,-0.505739,0.421309,-0.675325,-0.734427,-0.067470
0.539349,-0.380793,-0.943251,-0.011647,0.227455,0.973719
0.095951,-0.232893,0.488590,-0.035567,0.588105,0.808002
0.125282,-0.231246,0.306218,-0.100031,-0.110177,0.988865
-0.359127,0.112887,-0.957525,0.053710,0.326802,0.943565
-0.456135,-0.785366,0.236396,0.064815,-0.727497,0.683043
0.062376,0.336045,0.728890,0.967515,0.088099,-0.236966
-0.020174,-0.679017,0.197986,0.972787,-0.190742,-0.131540
-0.084408,-0.283549,0.417706,-0.586370,0.669701,-0.455710
0.822427,-0.403168,0.272543,0.474376,0.570239,0.670667
0.001859,0.294688,0.641468,-0.217469,-0.511606,0.831244
0.468877,-0.324810,0.645464,-0.629365,0.278911,0.725334
0.312802,0.236089,0.702374,0.412932,-0.842690,0.345487
-0.171073,-0.361422,0.450688,-0.196927,0.590660,0.782522
0.496612,-0.664875,0.252980,-0.464182,-0.846761,-0.259866
-0.406108,-0.543997,-0.013050,0.649376,-0.318358,-0.690622
0.005974,0.939562,0.389251,0.812035,0.333240,-0.479114
0.400795,0.180590,0.246420,-0.010654,0.937743,0.347167
-0.072063,0.722505,0.381213,0.345432,0.898494,-0.270897
-0.571604,0.446656,0.303192,0.399593,0.368423,0.839398
0.106571,0.117245,-0.102573,0.966958,-0.119025,0.225443
-0.080293,0.205192,0.471706,-0.132341,-0.288849,0.948184
0.045390,-0.015255,0.871651,0.774308,0.411088,0.481097
0.037687,-0.085282,-0.755058,0.791634,0.584792,-0.177014
-0.075514,0.767350,0.282174,-0.666655,0.744787,0.029391
0.734176,-0.365587,-0.007599,0.093548,-0.068187,0.993277
-0.694629,0.084218,-0.955931,0.017174,0.285093,0.958346
-0.368418,-0.249068,-0.121328,0.934241,0.279277,-0.221807
-0.298343,0.888130,0.008569,0.070352,-0.940404,0.332704
0.119174,0.119279,0.483463,0.880284,-0.236658,0.411211
0.150628,0.745557,0.408098,0.308619,-0.915353,0.258619
-0.753283,0.034723,-0.288017,0.771908,0.613583,-0.166357
-0.052558,-0.813357,0.018339,0.722120,0.516059,-0.460680
-0.834237,0.361519,0.498614,0.797351,0.339371,-0.499058
-0.519843,-0.405105,0.556195,-0.942916,0.332791,-0.012667
0.564168,-0.554167,0.475102,0.860137,-0.363636,-0.357678
0.101127,-0.093128,0.955285,0.969260,-0.171587,-0.176332
0.059055,-0.980242,0.251548,-0.176211,0.983449,0.042161
0.408360,0.778973,0.424635,0.134318,-0.909009,0.394540
-0.242200,-0.245290,0.549035,0.753330,-0.427028,0.500140
0.374388,-0.151533,0.544300,-0.594358,0.794940,0.121690
-0.190707,-0.300015,0.790766,-0.115330,0.981258,0.154378
-0.121564,-0.115114,0.811992,-0.076530,-0.988915,-0.127242
-0.279494,-0.064846,-0.098623,-0.192765,-0.410065,0.891453
0.856003,-0.718146,0.225194,0.240158,0.719195,-0.651983
-0.084675,-0.257882,0.607770,0.573247,0.448023,0.686050
-0.196021,-0.238220,0.749654,-0.305507,0.530659,0.790611
0.245384,-0.048090,0.633985,0.027035,0.228035,0.973277
-0.054016,-0.492857,0.555294,-0.686887,-0.333558,-0.645698
0.367349,-0.272217,-0.945260,0.185030,0.266974,0.945774
-0.526607,-0.199767,0.279587,0.164126,-0.342753,0.924977
-0.911351,0.582450,0.060352,0.881941,-0.120113,0.455799
-0.579826,-0.742651,0.312130,0.420459,0.276356,0.864200
0.380625,-0.119667,-0.952328,0.068229,-0.106957,0.991920
-0.773056,-0.728026,0.316103,0.024737,0.749728,0.661284
-0.191112,0.063683,-0.957802,0.065404,0.417336,0.906395
-0.019906,0.558623,-0.985149,0.102870,0.102668,0.989382
0.209022,0.162671,-0.677153,-0.346053,0.897612,0.273021
0.736565,-0.486852,-0.581070,-0.808835,-0.500978,0.307907
-0.171332,0.969006,0.139528,0.845358,0.493924,0.203490
-0.570535,0.120442,0.485310,0.433253,-0.048825,0.899949
-0.038091,-0.259916,0.601534,0.754819,0.588280,0.290129
0.042603,0.488692,0.516260,0.578423,-0.372840,0.725546
0.609683,0.092257,0.594882,-0.376896,0.616285,-0.691478
-0.038091,0.109788,0.462537,-0.233971,-0.071275,0.969627
0.528600,0.103201,0.567835,-0.077167,0.996972,-0.009620
-0.106570,0.415371,0.565110,-0.469270,-0.859002,-0.204697
-0.171737,-0.104363,0.769586,0.864565,-0.496257,-0.079100
-0.308962,0.329943,0.448610,0.495154,0.753131,0.433147
-0.020174,-0.784590,-0.432072,0.619921,-0.118403,0.775680
-0.288784,-0.140297,0.556841,0.713566,0.517115,-0.472668
0.495948,-0.228438,0.276238,-0.066532,0.889202,0.452652
-0.233978,-0.177394,-0.370981,-0.312061,0.822513,0.475489
0.192433,-0.055451,0.842549,0.853402,0.483620,0.194465
-0.496353,0.162865,0.445492,0.425965,0.885933,0.183511
0.048176,-0.973946,0.236766,0.619104,-0.775708,-0.122418
0.278563,0.470967,-0.983671,0.119186,-0.075955,-0.989962
-0.544128,0.654802,-0.143593,0.430709,-0.787742,0.440400
-0.262645,0.208388,0.329961,0.589892,0.807328,-0.015809
-0.329132,0.131387,0.636941,0.417414,-0.397336,0.817245
-0.536959,-0.110756,0.463114,-0.465895,0.498993,-0.730718
-0.049107,-0.144559,-0.626501,0.914130,0.400146,-0.065181
-0.041404,0.535280,-0.546540,0.094322,-0.995447,0.013750
0.097806,0.255944,0.637311,0.886841,0.360179,-0.289456
0.098868,0.213812,-0.972746,-0.252718,-0.411104,-0.875858
0.068079,-0.197152,0.422649,0.564370,-0.809692,0.160890
0.579161,0.036660,-0.474386,0.684112,0.728356,0.038589
-0.303252,0.292654,0.569822,0.080791,-0.799420,0.595315
0.650030,0.002276,-0.449857,0.665819,-0.745899,0.017862
-0.717456,-0.537605,0.005151,-0.482161,0.438223,-0.758605
0.085065,0.753596,0.434128,0.254300,-0.340102,0.905352
-0.241803,-0.560947,0.270464,-0.503399,0.288161,-0.814588
-0.227741,0.866531,0.022774,-0.248247,-0.941963,-0.226008
0.091310,0.102911,0.430386,0.788502,0.492766,0.368030
-0.139214,-0.266308,0.859410,0.971075,0.123214,-0.204525
0.514659,0.528500,0.528709,0.774641,0.578013,-0.256578
0.359119,0.099714,0.606384,-0.192135,0.886960,0.419984
-0.285998,-0.505546,0.158005,-0.683737,-0.418641,-0.597699
0.353287,-0.707880,-0.573078,-0.305342,0.476812,-0.824268
-0.123694,0.729673,0.136595,0.268504,0.940280,-0.209236
-0.536295,-0.551552,0.343011,-0.450174,0.117291,0.885204
-0.075911,-0.038888,-0.557857,0.348187,0.716690,-0.604253
-0.513736,0.092257,-0.953991,0.033704,0.345793,0.937705
0.646450,-0.608892,-0.339639,0.928003,0.327124,0.178327
-0.803318,0.050220,0.512657,0.938891,0.237516,0.249137
0.586994,-0.306795,0.494157,-0.561423,0.059378,0.825396
0.008890,0.581869,0.217434,-0.571703,0.611602,-0.546899
0.154216,0.111144,-0.447732,0.358253,0.075408,0.930574
-0.272997,-0.289747,0.709419,0.351233,-0.780254,0.517531
0.005172,0.066493,0.669508,0.690301,0.045900,0.722065
-0.652290,-0.702552,0.311669,-0.303065,-0.500420,-0.811006
0.204907,-0.832341,-0.119595,0.003441,-0.999981,0.005135
-0.133779,-0.702843,0.024898,0.630343,0.355315,-0.690231
0.084141,0.261175,0.712883,-0.368982,-0.737323,0.565868
-0.040610,-0.550487,0.036932,-0.251653,-0.102007,0.962427
-0.454547,0.115986,0.005128,0.819151,0.329723,-0.469333
-0.106036,-0.351639,-0.150822,0.853110,-0.459295,-0.247489
-0.869942,0.251102,0.493556,-0.367400,-0.216421,0.904533
0.325017,-0.155504,0.595990,-0.190636,0.568121,0.800560
0.540410,-0.371011,-0.466856,0.921705,0.244777,0.300906
0.782882,-0.419246,0.519748,-0.730073,0.306233,0.610913
0.138024,-0.142040,-0.410685,0.979637,-0.199307,0.024251
0.535105,0.574411,0.036378,0.975014,0.221996,-0.008146
0.218183,0.190566,0.709696,0.133533,-0.836785,0.530998
-0.276845,-0.019905,0.435999,0.995639,0.076592,-0.053264
0.073789,-0.105041,0.961197,0.899028,0.320973,-0.297867
-0.790577,-0.380213,0.036308,0.226989,-0.971237,-0.071937
0.041542,-0.478619,-0.319383,0.899051,-0.053219,-0.434597
0.269936,-0.113564,-0.680848,0.403558,0.307786,-0.861631
0.045519,-0.134196,0.932373,0.830102,0.552710,0.073771
-0.380755,0.174198,0.644609,-0.422530,0.370538,-0.827145
-0.306702,0.382634,0.521480,0.964044,0.146793,0.221520
-0.372128,-0.501478,0.425282,-0.861458,0.500594,0.085419
0.245125,-0.595913,0.433758,0.400129,-0.232421,-0.886497
-0.717318,0.299240,-0.330562,0.666976,-0.622430,-0.409541
-0.616852,-0.094290,0.179970,-0.284246,-0.001308,-0.958750
0.689316,-0.734903,-0.161077,0.978136,-0.062107,0.198478
0.749704,-0.520558,-0.605183,0.948450,-0.090546,0.303719
0.124747,-0.100490,-0.263812,0.696080,0.679134,-0.232917
-0.111617,-0.182139,0.722376,0.684419,0.259005,-0.681533
0.445257,-0.534990,0.401099,0.754709,0.066350,-0.652696
-0.125014,0.472517,-0.670247,-0.301554,0.926222,-0.226224
0.309092,-0.236477,-0.335435,0.366283,0.928230,-0.065002
0.248041,0.039179,0.628326,0.929496,0.330542,0.163641
0.301389,0.038016,0.611327,-0.190232,0.980354,-0.052138
-0.216061,-0.260884,0.325619,0.718276,0.344446,0.604513
-0.708027,-0.313962,-0.343427,-0.479518,0.736862,-0.476547
-0.329399,0.122766,0.145579,0.070566,-0.871770,0.484807
0.081355,-0.396678,0.783860,0.006604,0.911129,0.412069
-0.673123,-0.643276,-0.009978,0.012160,-0.512250,0.858750
0.540143,-0.241029,0.639274,-0.244698,0.774439,0.583410
-0.700599,-0.135842,0.253210,-0.457682,-0.245740,0.854482
0.392962,0.544772,0.485172,0.300103,0.889952,0.343400
0.112144,0.782847,-0.984779,-0.224053,0.134205,0.965292
-0.269279,-0.159572,0.592942,0.441141,-0.890361,-0.112483
0.079896,-0.051383,-0.375600,-0.037793,0.999103,-0.019077
-0.198540,-0.221851,0.361812,0.859138,-0.217805,-0.463080
-0.778370,-0.461863,0.076543,-0.283506,0.333554,-0.899092
-0.028265,0.596107,-0.985795,0.059055,0.022208,0.998008
0.434103,0.209550,0.211567,-0.493680,0.819684,0.290512
-0.457204,0.494116,0.383962,0.965786,0.195507,0.170395
-0.285204,0.431353,0.468611,0.379632,0.665882,-0.642246
-0.629593,-0.367718,0.247413,0.272356,0.715928,0.642860
0.240346,0.430578,0.137611,-0.200997,-0.029758,0.979140
0.120770,-0.132646,-0.331439,0.717178,0.667803,0.199235
0.109219,-0.123735,0.783583,0.611595,-0.224302,-0.758710
0.081752,0.312025,-0.975725,0.047433,0.241966,0.969125
0.923421,-0.820621,-0.555686,-0.659454,0.605336,0.445745
0.192433,-0.001985,0.759955,-0.214091,-0.048708,0.975598
-0.378632,0.391351,0.587029,0.813923,-0.150602,0.561113
-0.102059,-0.114533,0.884031,0.725545,0.580054,-0.370299
-0.358066,-0.941886,-0.011433,-0.437808,-0.877855,-0.194150
-0.144528,0.364715,0.191773,0.812641,-0.012421,-0.582633
-0.287456,-0.279190,0.708449,0.351233,-0.780254,0.517531
-0.434775,-0.086445,0.367216,0.751204,0.633842,-0.184222
-0.314932,0.239672,0.563447,-0.222246,-0.882901,0.413634
-0.567084,-0.677854,0.445191,-0.704924,0.707285,-0.053189
-0.105639,-0.618190,0.036724,-0.135890,0.022849,0.990460
0.067681,0.487239,-0.985241,-0.040792,-0.138216,-0.989562
-0.627471,-0.108237,0.294115,-0.191916,0.808811,0.555871
0.289976,-0.425638,0.448309,0.213705,-0.608116,0.764542
-0.064368,-0.562400,-0.471060,0.966741,0.237758,0.094249
0.050963,-0.203738,0.568875,0.719799,-0.293741,-0.628971
0.548502,-0.195991,0.243579,-0.375005,-0.731521,-0.569428
0.669276,-0.326263,0.476834,-0.441396,0.298069,0.846359
-0.583940,-0.921062,-0.149806,-0.533534,0.574694,0.620539
-0.040748,-0.140201,-0.620958,0.973033,0.221064,0.065853
-0.634372,0.157634,0.279010,-0.316525,0.643376,-0.697051
-0.551296,-0.627585,0.385024,0.989112,0.137364,0.052799
-0.780622,-0.058356,0.007137,-0.649805,0.632659,-0.421302
-0.463701,-0.149111,0.633938,0.760283,0.015955,0.649396
-0.636494,0.293332,0.306980,0.106276,-0.126626,0.986241
0.720769,-0.512035,0.235056,0.254006,0.055683,-0.965598
-0.420705,-0.195022,-0.939371,-0.086970,0.404919,0.910207
-0.864629,0.343116,0.505128,0.725292,0.167308,-0.667802
-0.508560,0.240254,0.295616,0.815795,0.347010,0.462669
0.805838,-0.604630,-0.615830,0.974639,0.040840,-0.220025
-0.785004,0.242675,0.213415,-0.251438,0.935940,0.246566
-0.064238,0.343891,0.589662,-0.685552,0.225261,0.692298
-0.515995,0.088189,-0.957479,0.033704,0.345793,0.937705
0.083339,-0.502155,0.169069,0.265428,-0.169066,0.949192
0.243659,-0.020679,0.559474,-0.384813,0.728835,-0.566320
-0.320108,-0.088188,-0.404171,0.364681,0.330702,0.870427
0.008493,0.738583,0.371697,0.945030,-0.326979,-0.001749
0.637427,-0.169645,0.481476,0.586475,0.299047,-0.752740
0.062238,-0.452080,0.071369,-0.423973,-0.733600,-0.531110
0.390175,-0.734709,-0.078760,-0.001451,-0.211824,0.977307
0.517316,-0.317836,0.650245,-0.600350,0.145799,0.786335
0.458655,0.081699,-0.959858,-0.024418,0.247705,0.968528
0.105639,0.054386,-0.959996,0.428982,-0.008325,0.903274
-0.998145,-0.617899,-0.046586,0.956054,-0.025295,-0.292099
-0.317589,0.457794,0.461498,0.420955,0.679065,-0.601388
-0.420308,-0.568793,0.403247,0.641897,0.532836,0.551411
0.159651,-0.113371,-0.159853,0.962400,0.232553,0.140378
-0.206235,0.046055,-0.714592,0.911008,0.366051,-0.189924
0.679758,0.223013,0.547372,-0.777209,0.585470,0.230588
0.779828,-0.587874,0.392600,-0.379084,0.826624,0.415918
0.105639,-0.867694,-0.336752,-0.381343,-0.350398,0.855452
-0.097547,-0.158410,0.518616,0.182522,0.929428,0.320702
-0.516255,0.047993,-0.954291,0.012542,0.208089,0.978029
-0.845918,0.554555,0.339870,0.986580,0.102666,-0.126960
0.154346,-0.293332,0.661054,-0.680460,-0.489660,0.545167
-0.280029,0.371108,0.158190,0.769832,-0.300441,-0.563111
-0.345324,0.109109,0.628857,0.014215,-0.837577,0.546134
0.270073,0.058065,0.663895,0.312302,-0.739309,0.596564
-0.435034,-0.587777,0.429947,-0.741318,0.670703,0.024592
0.112540,0.825368,0.184682,0.107409,-0.933322,0.342599
-0.088790,0.007603,-0.944129,-0.043292,0.440584,0.896667
-0.034106,-0.024553,-0.510394,0.705341,0.706546,0.057340
0.517049,-0.035789,0.457340,-0.647567,-0.363978,0.669460
-0.137359,0.189017,-0.699972,0.782344,0.519885,0.343013
-0.378106,-0.134099,-0.603497,-0.553988,0.194858,0.809400
0.296083,-0.094871,0.397219,0.884777,-0.462807,0.054586
0.073254,-0.602209,0.023328,-0.450895,-0.643406,-0.618645
-0.047115,0.718050,0.083611,-0.706086,0.656610,0.265152
0.050031,-0.075209,-0.730691,-0.476461,-0.656537,0.584760
-0.539616,-0.910698,0.211960,0.144445,0.405489,0.902615
0.647778,0.160831,0.497690,-0.089993,-0.788514,0.608398
-0.095554,-0.757374,0.034853,0.928092,0.369387,-0.046889
-0.298610,-0.451693,0.339847,0.843443,0.439039,-0.309596
-0.258392,0.239672,0.249861,0.307872,0.593833,0.743355
0.518248,-0.215458,0.255820,0.336525,0.788586,0.514667
-0.643663,0.310766,0.306449,0.045723,-0.197583,0.979219
0.120503,-0.130128,-0.291597,0.942480,0.329025,0.058942
-0.759788,-0.137489,0.400707,0.457927,0.653218,0.603000
0.526875,0.309313,0.502102,-0.509285,-0.178234,0.841939
-0.586200,-0.520655,0.329730,0.924054,-0.378912,0.050496
-0.525019,-0.971331,0.237782,0.114936,-0.013130,-0.993286
-0.483741,-0.007409,-0.094235,-0.311199,-0.947901,-0.068106
-0.198411,0.554748,0.204569,-0.060013,-0.762757,0.643894
0.427866,-0.477457,0.017900,0.308234,0.507940,0.804356
-0.471266,0.155698,0.272958,-0.610774,0.781134,0.129556
-0.265829,0.275413,0.356823,-0.225672,-0.322129,0.919405
0.100860,0.817425,0.192027,-0.318520,0.933376,-0.165390
-0.028403,0.358904,0.569083,-0.492442,-0.851107,-0.181981
0.763239,-0.256816,0.247113,0.723154,0.412741,0.553799
0.231322,0.562787,0.467641,0.008057,-0.954163,0.299177
0.685599,-0.504190,0.284322,0.084533,0.288808,0.953648
0.428401,-0.133808,-0.232770,-0.280961,0.856926,-0.432133
-0.232116,-0.254201,0.685860,0.555126,-0.283951,0.781797
0.466755,-0.260013,0.464362,0.392224,-0.287278,-0.873860
-0.041671,0.600465,0.350194,-0.322039,-0.659273,0.679448
-0.045786,-0.000145,-0.071023,-0.408035,-0.912480,0.029792
0.000660,0.189210,0.454060,-0.418234,-0.148418,0.896132
0.336430,-0.601918,0.228127,0.713630,0.700350,0.015567
0.134435,0.556976,0.505012,0.168951,-0.640973,0.748738
-0.068751,0.191534,-0.288202,0.828723,0.031771,-0.558757
0.725014,-0.178750,-0.082202,-0.734614,0.477884,-0.481632
0.622822,-0.474455,0.502471,-0.617889,0.283292,0.733457
-0.414200,-0.159669,0.449834,0.330604,-0.198635,0.922629
0.246850,0.549131,0.131883,-0.362608,0.093509,0.927239
0.060780,0.549034,-0.986765,0.178245,0.084156,0.980381
-0.020441,-0.561044,0.668607,0.478255,0.695443,0.536312
0.067819,0.176425,-0.965655,0.312963,0.469433,0.825643
-0.363371,-0.233668,0.059128,0.867307,-0.436830,0.238658
0.201724,-0.737905,-0.069083,-0.522314,-0.230885,0.820902
-0.097814,0.028137,-0.555894,-0.456554,0.266936,0.848707
0.171462,-0.106397,0.840771,0.781572,0.330866,-0.528842
-0.402123,0.221657,0.664842,-0.620118,-0.693852,0.366091
-0.543861,-0.333527,0.590309,0.869008,0.248632,0.427793
-0.058657,-0.579641,-0.482793,0.916906,0.357981,0.176444
0.033709,0.817037,-0.986673,0.093401,0.106261,0.989942
-0.374517,0.482105,0.393939,0.140477,-0.470679,0.871049
0.593361,0.247615,0.591001,0.660364,-0.090852,0.745430
-0.151429,0.069592,0.282336,0.625818,0.449387,-0.637498
0.653748,-0.151339,0.500670,0.550846,0.642982,-0.532111
-0.808494,-0.758536,0.320261,-0.030940,0.652354,0.757282
0.582880,-0.062231,-0.697870,0.858146,-0.498685,-0.122057
-0.320238,0.172842,0.118394,0.964030,0.212597,0.159527
-0.435698,-0.420117,0.131883,0.850756,-0.483702,-0.205541
0.433042,0.115308,0.106777,-0.006147,-0.970300,0.241828
-0.446317,-0.965131,-0.072062,0.322794,-0.920529,0.220069
0.002386,0.331590,0.577282,0.431561,0.862392,-0.264642
-0.301526,-0.253814,0.559497,-0.675441,0.629285,-0.384421
0.131390,-0.954672,0.261087,0.628100,-0.777436,0.032912
0.593758,0.324519,0.660662,-0.620245,0.776165,-0.113416
-0.239551,-0.639305,-0.160661,-0.713510,-0.306352,0.630121
0.037954,-0.646278,0.482285,0.795329,-0.425852,-0.431395
0.149040,-0.181752,-0.392669,0.942484,-0.324531,0.080020
-0.164568,-0.278416,-0.617470,0.555467,-0.827239,-0.084448
0.288121,-0.269505,0.290304,0.138917,0.799720,0.584081
0.247247,0.747785,0.408167,-0.297828,0.937808,-0.178368
-0.199601,-0.612475,0.504042,0.309052,0.328986,0.892331
0.395619,0.198121,-0.965978,-0.082571,0.377656,0.922257
-0.400535,-0.382343,0.267600,0.024734,0.374329,0.926966
0.323956,-0.406170,0.294600,0.180777,-0.589089,0.787587
0.008761,-0.095840,0.793999,-0.224379,-0.941143,-0.252792
-0.399207,-0.106591,0.458356,-0.269226,0.688608,-0.673303
-0.533379,0.155407,0.481777,0.157635,0.054231,0.986007
-0.003981,-0.077147,0.550836,0.120088,-0.039206,-0.991989
0.468748,0.548743,0.066611,0.998525,0.054225,-0.002728
0.874714,-0.514359,0.391999,0.002462,0.996183,0.087260
0.326475,-0.223207,-0.607285,0.786154,0.471536,0.399520
0.421232,-0.026006,0.796679,-0.372228,-0.847401,0.378627
-0.449639,-0.660129,0.173850,-0.329078,0.517585,-0.789819
0.120633,0.426607,0.608786,-0.591364,0.734137,0.333665
0.149834,-0.934719,-0.332086,-0.316343,-0.316182,0.894403
-0.030922,0.390285,-0.805224,0.974523,0.216213,-0.059643
-0.018448,-0.379728,0.552291,0.943747,-0.318759,0.087951
0.177836,0.035304,-0.646896,-0.199626,0.328104,0.923308
0.446181,-0.228631,-0.948609,-0.092503,0.073852,0.992970
0.715594,-0.498572,0.253095,0.657427,0.738945,0.147478
0.190440,-0.075016,-0.373360,0.908989,-0.375383,-0.181184
-0.805173,0.241900,0.505197,-0.513670,-0.502334,0.695560
0.076575,0.368396,0.655765,-0.578911,0.815372,0.005539
-0.892631,-0.138941,0.337791,0.439366,0.756408,0.484566
-0.089981,-0.551359,0.180733,-0.570971,0.039452,0.820022
0.416194,-0.460991,0.400614,0.017391,0.754185,0.656431
-0.347576,0.598722,0.022427,-0.101388,0.079579,-0.991659
-0.286663,-0.404911,0.399529,0.946356,-0.270491,-0.176763
0.083874,0.344957,0.623406,0.939309,-0.324713,0.110723
0.162179,0.139910,0.785407,0.441980,0.659331,-0.608223
-0.228535,0.380213,0.490854,0.126932,-0.139981,0.981985
-0.281624,-0.097681,0.416413,-0.639352,0.735916,-0.222838
0.661978,-0.731610,0.228451,0.172036,0.677503,-0.715118
-0.743863,-0.532181,-0.035430,-0.424227,-0.072505,-0.902649
-0.107234,0.630588,0.220251,-0.068394,-0.037923,0.996937
0.439546,0.179912,0.642230,-0.895425,0.386098,-0.221682
-0.014204,-0.667780,-0.355576,0.909244,0.031248,-0.415089
-0.185272,-0.395806,0.255728,-0.760591,-0.156057,-0.630196
0.146116,0.177878,-0.970020,0.121865,0.490048,0.863135
0.699668,-0.361422,-0.008661,0.032800,-0.013111,0.999376
0.342935,0.118408,0.577536,0.730580,0.682827,-0.000515
-0.132718,-0.695095,0.016861,-0.590048,-0.610880,0.527891
0.451624,-0.428253,-0.150383,-0.724362,0.472110,0.502407
-0.075781,-0.013318,-0.732839,-0.166509,-0.986011,0.007560
0.576910,-0.250618,0.485218,0.745073,-0.402485,-0.531857
-0.508292,-0.764057,0.231245,-0.089858,0.874454,0.476713
-0.301656,-0.279675,0.539934,0.690527,-0.116741,0.713824
0.116258,-0.094193,-0.177199,0.975808,0.218506,-0.007354
0.677903,-0.139135,-0.416551,0.612631,-0.787819,-0.063435
-0.696881,-0.023294,0.404379,0.237547,0.941844,0.237701
0.140275,-0.283840,0.223739,0.915526,0.092625,-0.391450
0.536562,-0.685408,0.111442,0.901034,0.424356,0.089778
-0.015929,-0.158313,0.842549,0.371396,-0.834017,0.408019
-0.448707,0.672333,0.160731,-0.192860,-0.927259,0.320928
0.575848,-0.456245,0.474547,0.858642,0.184726,-0.478131
-0.837688,-0.073369,0.515175,-0.479171,0.701648,-0.527337
0.336698,0.361616,-0.967433,-0.079683,0.076865,0.993852
0.015265,-0.293235,0.479975,0.720631,-0.613987,0.322041
-0.508292,-0.115309,0.165697,0.360912,-0.467378,0.807032
0.005310,0.049155,0.735241,0.849775,0.513410,0.119548
0.198273,-0.155117,0.051483,0.356611,0.826214,-0.436118
-0.519042,0.364038,0.027393,0.519243,-0.441480,-0.731767
-0.618180,-0.633590,0.304924,0.011263,0.553251,0.832938
0.205572,-0.011865,0.432765,0.637048,-0.770772,0.008960
-0.865957,-0.344375,0.158537,0.941943,0.153003,0.298887
-0.023495,-0.220108,0.623245,-0.499652,-0.528475,0.686340
0.320765,-0.852681,0.344050,0.670894,0.713773,-0.201071
-0.239284,0.804640,0.381375,0.608382,0.792575,0.041175
-0.010883,0.369849,-0.001663,-0.756676,-0.063573,0.650692
-0.709226,-0.070754,0.494572,0.609876,0.308232,0.730098
-0.226680,0.830500,0.361281,0.875895,0.140910,-0.461467
0.062376,0.497603,0.011087,0.136323,0.170549,0.975874
-0.336560,-0.149305,0.317119,0.877009,0.359938,0.318277
-0.189784,-0.209647,0.390521,0.910343,0.385098,0.151577
-0.431324,0.426316,0.231661,0.998261,-0.016025,0.056732
-0.586200,-0.233861,0.469766,0.583914,0.569766,0.578283
-0.006767,0.748850,0.030834,-0.365287,0.928753,-0.063108
0.420171,0.159572,0.273282,-0.052856,-0.998248,0.026580
-0.786065,-0.094774,0.187361,0.063767,0.914802,0.398838
-0.809288,-0.832631,0.005844,0.958816,0.277829,0.059014
0.324620,0.554651,0.497113,-0.365121,-0.915505,-0.168928
0.061711,-0.890358,-0.615646,-0.187698,0.389999,-0.901482
0.422431,0.222335,-0.482677,0.669571,0.469984,0.575143
-0.261713,0.117923,0.602065,-0.616926,-0.517695,-0.592785
0.583147,-0.365490,-0.942974,0.009069,0.056194,0.998379
-0.345454,-0.640467,-0.105298,0.980068,-0.193088,-0.046728
0.548769,-0.114824,-0.953645,0.038256,0.296034,0.954411
0.561779,0.511260,0.436045,0.966359,-0.220421,0.132532
-0.014997,-0.246550,0.766145,0.483881,-0.475799,-0.734489
-0.074850,-0.269214,0.682834,-0.420924,0.106876,-0.900778
0.072331,0.241028,0.194060,-0.432045,0.096563,-0.896668
-0.492635,-0.379825,0.270464,0.328295,0.342107,0.880446
-0.595094,0.195409,0.474801,0.499841,0.191654,0.844646
0.489047,0.446075,0.547880,-0.609678,0.725540,-0.319194
-0.273524,0.584096,-0.408513,-0.130407,0.957945,-0.255608
-0.258133,0.038694,0.411216,0.790726,0.609824,-0.053543
-0.214732,0.445010,0.328575,0.152299,-0.612681,0.775517
-0.000530,0.768803,0.103520,0.954328,0.297655,-0.025686
0.432912,0.287423,0.422071,0.844596,-0.118508,-0.522124
0.002783,-0.096518,0.696277,-0.129190,-0.077829,-0.988561
-0.433049,0.832728,0.281804,0.463349,-0.881956,-0.086384
0.035167,-0.419440,0.608347,0.993156,0.105030,0.051079
-0.220038,0.055935,0.795200,-0.805145,-0.578610,-0.130201
-0.652290,-0.149111,0.155811,-0.108831,-0.657698,0.745378
-0.500071,0.218364,0.035985,0.783517,0.178828,-0.595081
0.486131,0.187273,0.209142,0.971629,-0.214587,-0.099442
0.567222,0.087317,0.568713,0.251345,-0.966330,-0.055073
-0.055207,-0.034530,-0.024552,0.355670,0.910651,-0.210272
0.211412,0.102620,-0.960897,0.095051,0.151383,0.983895
-0.311352,-0.540898,0.296355,-0.230564,-0.651624,0.722652
-0.327277,-0.916994,-0.092110,0.895307,-0.365598,-0.254485
0.089982,-0.222238,0.806587,0.997959,-0.058918,-0.024616
0.713334,-0.725120,0.250970,-0.180723,-0.965974,-0.185024
0.046054,0.158507,-0.783652,0.996351,-0.072740,0.044654
0.400527,0.214393,-0.683666,-0.237178,-0.826882,-0.509915
0.411941,0.532665,0.137195,-0.353683,0.127263,-0.926667
0.121694,-0.159378,0.666574,0.908399,-0.418073,0.005115
0.884936,-0.725895,0.221960,-0.216280,-0.769331,0.601126
0.178233,0.337885,0.651908,-0.584690,-0.383482,0.714898
-0.617653,-0.045281,-0.951081,0.037894,0.233406,0.971641
0.224024,-0.554748,0.058897,-0.317783,-0.284410,0.904503
-0.564298,0.123541,0.441288,0.586235,0.702886,-0.402840
0.149964,0.234733,0.707040,-0.042917,-0.729662,0.682460
-0.340010,-0.711657,0.015821,-0.237361,-0.322457,0.916341
0.389252,-0.308926,0.463761,-0.620203,-0.414476,0.666001
-0.526081,0.045474,0.582664,0.095508,-0.728952,0.677870
-0.329002,-0.028234,0.475656,0.190477,0.665195,-0.721965
0.602385,0.149887,0.582155,-0.296895,0.885149,0.358281
-0.614600,-0.488982,0.335851,0.652020,-0.165984,0.739810
0.353814,-0.064846,0.543884,0.469207,0.206341,-0.858643
-0.079362,0.177297,0.679624,0.883040,-0.369843,-0.288889
-0.769346,-0.488692,0.388350,-0.523811,-0.837341,0.156471
-0.358730,-0.947697,0.086428,0.359599,0.931483,0.055023
-0.141345,0.011962,0.615761,-0.035414,0.940508,0.337922
0.432912,-0.372076,0.439579,-0.657657,-0.243481,0.712884
-0.671139,-0.519880,-0.761895,-0.454720,-0.011332,0.890563
-0.116128,0.429803,0.570676,-0.212216,-0.941728,-0.260984
-0.623623,0.626713,0.215794,0.809865,0.430805,-0.398153
-0.356341,-0.704877,0.401723,0.515471,-0.772375,0.371116
-0.063040,0.333721,0.545593,0.685584,0.306677,-0.660246
-0.205442,-0.131774,0.826127,-0.790278,0.479409,0.381611
-0.353149,0.080730,0.460204,0.466995,0.283456,-0.837596
-0.642472,0.695385,-0.096776,-0.527685,0.757753,-0.383874
0.071797,-0.104266,-0.849409,0.849183,0.511392,-0.131781
0.163637,-0.096518,-0.627633,-0.198362,-0.976967,0.078668
-0.029335,-0.352705,0.690734,-0.084645,0.316929,0.944665
-0.028136,-0.514166,0.545478,0.932717,-0.072932,0.353156
0.040740,0.284905,0.726903,0.978422,0.190543,-0.079903
-0.045786,0.732675,0.066935,-0.234986,0.971114,0.041452
0.038221,-0.171679,-0.065087,0.888816,0.443350,-0.115963
0.086134,-0.333140,0.368879,-0.088792,-0.919588,0.382720
0.359387,0.525885,0.134678,-0.193601,-0.492876,-0.848288
0.269936,0.070269,-0.963322,-0.042817,0.105188,0.993530
-0.776912,-0.393288,0.131051,0.881796,0.469280,-0.047024
0.365356,-0.071626,0.540997,0.094331,-0.481717,0.871235
0.078301,0.188629,0.700319,-0.414312,0.721976,-0.554163
-0.700065,0.384861,0.313332,-0.219472,-0.580460,0.784154
-0.008363,-0.463509,0.655511,-0.487009,-0.552595,-0.676359
0.086928,0.777907,-0.987990,-0.066583,0.085374,0.994122
0.079362,-0.295171,0.624584,0.852431,-0.489854,0.182769
0.386328,0.525595,0.144886,-0.143125,-0.216324,-0.965774
-0.406634,0.113371,0.459350,0.180594,0.925701,0.332360
0.279097,-0.182527,0.595251,0.046453,0.684282,0.727736
0.693958,-0.871278,0.289865,-0.767530,0.639442,-0.044853
0.080958,-0.299433,-0.936946,0.150376,-0.300805,0.941755
-0.202258,0.022810,0.538595,0.180751,-0.973102,-0.142832
0.097547,-0.462638,0.622944,-0.375808,0.900722,-0.217871
-0.412612,0.662163,0.153086,-0.170056,0.711118,-0.682197
0.433309,-0.605889,0.074441,0.588972,0.719768,0.367487
-0.351027,-0.527144,0.385417,-0.390258,-0.095223,-0.915768
-0.176248,-0.478523,0.265937,-0.662845,0.342753,-0.665701
0.373456,-0.015933,0.447940,-0.313537,0.925013,0.214582
-0.441012,-0.475616,-0.012357,0.521667,-0.238525,-0.819127
-0.570535,-0.336142,-0.201635,0.000984,0.275536,0.961290
0.178363,0.692092,0.152601,-0.079845,-0.607146,0.790569
0.011944,-0.077243,0.837306,0.924018,0.347374,0.159757
0.093432,0.603080,0.138812,-0.181246,-0.331514,0.925877
0.043130,-0.580997,0.654310,-0.179857,0.975088,0.129825
0.248041,-0.111725,0.869757,0.549160,0.743820,0.380992
-0.038755,-0.038695,-0.136941,-0.299744,-0.765103,-0.569886
-0.143199,0.038210,0.791759,-0.624381,-0.568272,-0.535924
0.324086,-0.389413,-0.003187,-0.268700,0.112779,0.956599
-0.413536,0.439004,0.598878,0.786472,-0.300018,0.539863
0.153018,-0.025812,0.723577,-0.456070,0.859022,-0.232556
0.484276,0.560754,0.561715,-0.114354,-0.978987,0.168840
-0.025617,-0.916800,0.225125,-0.742284,-0.023998,0.669655
-0.006905,-0.471451,0.181333,0.257123,-0.489704,-0.833113
0.618577,0.010896,-0.749122,0.995584,-0.045022,-0.082380
-0.299137,-0.331590,0.758107,0.292291,-0.903324,0.313961
-0.195356,-0.232117,0.528987,-0.341765,-0.005955,-0.939766
0.029594,-0.375660,-0.459627,0.485523,-0.046913,-0.872964
-0.016593,-0.122573,0.900984,-0.467738,0.878832,-0.094212
0.201991,-0.062812,0.591232,0.685981,0.642447,-0.341602
0.441004,-0.332559,0.631675,0.845685,-0.203588,-0.493324
-0.458525,-0.692577,0.371374,0.457929,0.642223,0.614695
0.514659,-0.376338,0.342041,-0.108691,0.698330,0.707476
0.040343,0.393869,0.674912,-0.695691,0.711739,0.097163
-0.568153,-0.637949,0.308320,0.167712,0.410350,0.896374
0.268081,0.313381,0.413064,0.299805,0.651376,-0.697013
-0.670872,-0.807061,0.335528,0.172659,0.576483,0.798659
-0.082812,0.069205,-0.959049,0.154763,0.332257,0.930405
-0.355409,-0.493147,0.156827,0.455376,0.528866,0.716193
-0.361516,-0.648893,0.501802,0.016728,0.500136,0.865785
-0.267821,0.703715,0.314602,0.283387,0.570791,0.770642
0.661046,-0.344763,0.491339,-0.131001,0.391315,-0.910885
0.063437,-0.336433,0.607493,0.577064,0.502556,-0.643766
-0.286663,-0.580028,0.494041,-0.369214,0.650827,0.663405
0.581948,-0.457020,-0.094766,0.978002,-0.152870,-0.141922
-0.806372,-0.059422,0.432280,-0.303072,0.716627,-0.628166
-0.279898,-0.068623,0.423319,-0.768510,-0.103208,-0.631459
-0.305908,-0.494116,0.344605,-0.747297,0.411873,-0.521448
0.424553,0.035207,0.555317,-0.469367,0.701557,-0.536202
0.345584,0.153663,0.068829,-0.299354,0.816721,0.493310
0.126076,-0.000145,0.762311,-0.548140,0.191375,0.814198
-0.956866,-0.312122,0.402416,0.998016,0.030504,-0.055069
0.252950,0.166449,-0.973669,-0.120907,0.396331,0.910112
-0.269279,0.253135,0.136063,0.922301,-0.054069,-0.382672
-0.005844,-0.173616,0.839569,-0.511211,0.799830,-0.314540
0.397474,0.320548,0.620034,0.972799,0.199793,-0.117240
0.076972,0.648991,-0.991038,0.159314,0.040635,0.986391
-0.332315,-0.371205,0.438170,-0.654576,0.721626,0.225358
0.268348,-0.409948,0.372182,-0.679711,0.296191,0.671017
-0.237826,-0.400843,0.470575,0.312328,-0.665619,-0.677792
-0.112143,0.590876,-0.506121,0.115780,-0.986016,0.119863
0.010486,-0.132452,0.862458,-0.649873,0.731959,-0.204696
-0.172927,-0.109496,0.661816,0.049391,0.853544,0.518674
0.348637,-0.543804,0.053192,0.927041,0.349051,0.136960
0.672589,-0.747300,-0.114075,-0.640843,0.753347,0.147614
-0.107761,0.975786,0.114376,0.761901,0.551466,-0.339693
0.821236,-0.713691,0.447547,0.402645,0.872528,-0.276716
-0.309092,-0.771514,0.014436,-0.341627,0.123801,-0.931646
-0.072460,-0.861688,-0.375624,0.960722,0.189586,-0.202656
0.016586,-0.413241,0.109294,0.859362,-0.201936,0.469807
0.179432,-0.130709,-0.210828,-0.512324,0.850465,-0.119303
-0.624822,-0.677176,0.310190,-0.070989,-0.406973,-0.910678
0.123954,-0.153761,-0.171910,0.986697,0.115775,-0.114131
0.269409,0.712044,0.158883,0.146130,0.744410,-0.651537
0.430255,0.501187,0.130197,-0.388732,0.501782,-0.772724
-0.398940,-0.194538,0.371628,0.554074,0.354984,-0.752986
-0.101524,0.616349,-0.294831,0.457914,0.888987,-0.004056
-0.057864,0.076662,0.768293,-0.433627,-0.658712,-0.614871
-0.331789,-0.257398,0.536816,0.877929,0.076118,0.472701
-0.430927,-0.697904,0.012565,0.281128,-0.164173,-0.945523
0.409689,0.181655,0.290558,0.252401,-0.944755,0.209121
0.870599,-0.818490,-0.537024,0.011025,0.999700,0.021872
0.218183,-0.810548,0.327883,0.433735,0.633611,-0.640633
-0.725816,0.297690,0.508731,0.701531,0.683799,-0.200679
0.176905,-0.363553,-0.936160,0.012014,0.372888,0.927799
0.570008,-0.279675,0.272820,-0.723773,-0.372146,-0.581085
-0.358462,-0.314931,0.403201,0.713841,-0.682737,-0.155891
-0.329666,0.442104,-0.006721,-0.032176,0.480722,0.876282
0.123160,-0.251974,0.533583,0.885161,-0.436528,-0.161036
0.406903,0.348153,-0.973138,0.091723,0.061118,0.993907
0.011409,-0.142622,-0.518801,0.930934,0.309761,0.193417
0.494223,-0.112790,-0.697593,-0.499442,0.866268,-0.011678
0.270073,0.068429,0.641699,0.229543,-0.973096,-0.019845
0.248575,-0.313962,0.476996,0.973016,-0.075294,0.218106
-0.760986,-0.612088,-0.012980,0.500761,0.229929,0.834489
-0.302061,0.152792,0.472676,-0.033772,-0.054550,0.997940
0.340148,0.299918,0.661239,0.333216,0.652712,0.680393
-0.115861,0.405298,0.134770,-0.340855,0.940103,-0.004995
0.198541,-0.128772,0.903571,-0.693375,-0.178600,0.698092
0.575711,0.351445,0.349062,0.863663,-0.361593,0.351194
-0.389122,0.035692,0.721660,-0.248200,0.956674,-0.152219
-0.086263,0.747978,0.429647,0.699533,-0.059528,-0.712116
-0.124350,0.007991,0.874769,0.903864,0.426261,-0.036487
-0.142535,0.768803,-0.021272,0.946441,0.266669,-0.182034
-0.002126,0.434162,0.497806,0.993749,-0.054677,0.097332
-0.040084,-0.419052,-0.345713,0.945656,-0.154471,-0.286137
-0.597881,-0.616640,0.172187,0.034676,-0.109041,0.993432
0.607828,-0.260303,0.265267,0.298158,0.627657,0.719131
0.644328,-0.357838,-0.940918,0.133133,0.135229,0.981829
0.123824,-0.735968,0.361188,-0.224506,0.710233,0.667208
0.583147,-0.345731,0.492517,-0.470322,-0.555456,0.685760
0.143062,-0.094484,0.102850,-0.572664,-0.786681,0.230625
-0.321040,0.072594,0.290350,-0.413750,-0.258223,0.873001
-0.685469,-0.604533,0.191727,0.038655,0.727146,0.685393
-0.626142,-0.491986,-0.413987,-0.369047,-0.798400,0.475776
0.012470,-0.023391,0.657266,-0.115868,-0.980675,0.157646
-0.424285,-0.124122,0.365253,-0.466505,-0.686141,0.558197
0.250034,0.695288,0.162971,-0.240859,-0.523175,0.817481
-0.623226,-0.641145,-0.023882,0.348885,0.256988,-0.901241
0.340408,0.227953,-0.973300,-0.266729,0.249327,0.930963
0.566290,-0.250133,0.033583,-0.944111,0.329289,-0.014952
0.464235,0.138748,0.068782,0.036107,0.984921,0.169197
0.359257,-0.059034,-0.050120,0.106804,-0.291098,0.950713
0.263836,-0.257591,-0.944059,0.116113,0.275405,0.954290
-0.155674,-0.238801,-0.058227,0.311935,0.266854,0.911858
-0.173859,0.015643,0.761040,0.811209,-0.178485,0.556851
0.197609,-0.093612,-0.954222,0.161859,0.170701,0.971938
-0.743328,-0.086251,0.409276,-0.550026,0.285308,-0.784902
0.464098,-0.021551,0.789149,0.268697,0.894681,-0.356859
-0.204381,-0.823914,-0.050790,-0.698617,-0.187518,0.690487
0.655741,-0.292363,0.662994,0.595192,-0.159673,-0.787560
-0.278829,-0.480846,0.282543,-0.629615,0.178414,-0.756144
-0.132054,-0.577703,-0.411054,0.950050,0.276688,-0.144391
0.118113,-0.071335,0.458818,0.680590,0.730879,0.051113
-0.210350,-0.018257,-0.597723,-0.228419,-0.953264,-0.197770
-0.122763,0.718050,0.074187,-0.768775,-0.487435,-0.413995
-0.259859,0.206160,0.293307,-0.689827,0.307812,0.655279
0.426942,-0.503898,0.385070,0.390046,0.791770,0.470069
-0.730190,-0.070270,0.432419,0.473337,0.838835,-0.268900
0.692370,-0.656836,-0.363844,0.953662,0.253513,0.162053
-0.474450,0.165480,0.648189,0.861967,0.336464,-0.379216
0.152620,-0.009250,0.575134,-0.752063,-0.637752,-0.166352
-0.227336,0.701778,0.315872,0.621502,0.202795,0.756710
-0.757933,-0.925324,-0.157035,-0.250973,0.778452,0.575347
-0.000004,-0.349799,-0.779240,0.798722,0.587229,0.131171
-0.721700,-0.391641,0.015313,0.298769,-0.587040,0.752411
0.419903,-0.358129,0.465493,-0.575087,-0.430535,0.695640
0.311879,-0.121410,0.302361,-0.723136,0.444490,-0.528680
-0.778232,-0.533634,0.150753,0.146506,0.540188,0.828694
-0.518118,-0.426026,0.083611,-0.567112,0.810408,-0.147047
0.161514,-0.312799,-0.709419,-0.750433,-0.579367,0.318095
-0.287059,0.050898,-0.948656,0.010636,0.350877,0.936361
-0.131389,-0.056032,0.670039,-0.630658,0.775242,-0.035648
-0.038755,-0.288004,0.492216,0.675515,-0.737055,0.020756
0.109754,-0.129546,0.331924,-0.754038,0.110940,-0.647394
0.726877,0.108528,0.507068,0.907754,0.104088,-0.406385
-0.158193,-0.340017,0.538849,-0.068809,0.116404,0.990816
-0.849636,-0.072401,0.170801,0.516960,-0.842403,-0.152016
-0.058260,-0.319289,0.782567,0.187329,0.937504,0.293247
-0.023357,0.173810,-0.735333,0.719745,0.325373,0.613270
-0.248041,0.225725,-0.674935,0.807724,0.566695,0.162598
0.453616,-0.717953,0.295339,0.912722,-0.293145,0.284611
-0.915458,-0.323357,0.086729,0.998980,0.003939,-0.044982
0.612608,0.005957,-0.522542,0.994609,-0.006920,0.103462
0.134435,-0.113081,0.456047,0.875637,0.079572,-0.476369
0.547441,-0.841348,0.028779,0.972001,-0.193707,0.133012
-0.171599,-0.385442,0.455261,-0.188682,0.604762,0.773733
0.172531,-0.032399,0.204615,0.921938,0.280722,-0.266882
-0.032121,-0.051770,-0.311876,0.276608,0.960576,-0.027964
-0.068613,0.895395,0.269286,0.808627,0.277549,-0.518738
0.364295,0.342438,0.213530,0.342476,-0.349012,0.872296
0.135634,-0.257591,0.486026,0.258426,0.008118,0.965997
0.547838,0.205579,0.232839,0.891110,-0.435170,-0.128648
-0.043267,-0.498377,0.519424,-0.209623,0.972613,-0.100413
-0.022692,-0.046152,0.698286,0.970581,-0.184572,-0.154614
0.491704,0.159282,0.240854,-0.879383,0.259342,-0.399283
-0.241139,0.877283,0.000393,-0.227834,-0.953657,0.196547
-0.589513,-0.711367,0.307049,-0.233755,-0.322734,-0.917170
0.081881,0.390673,0.645625,0.392222,-0.896108,-0.207733
0.238224,-0.114727,0.857308,0.882264,0.463357,-0.083129
0.074850,-0.119570,-0.084973,0.950254,0.192751,-0.244674
-0.129664,0.532859,-0.627818,0.646848,-0.742130,0.175585
-0.579161,0.051479,0.355021,0.751594,0.643261,0.146019
0.192571,0.525013,0.127425,-0.111276,0.181059,0.977157
0.039946,-0.348540,0.609109,-0.706087,0.706083,0.053741
-0.039549,-0.177491,0.857978,-0.393495,0.919327,-0.000442
0.468480,0.060874,0.574118,-0.431373,0.900858,0.048706
0.220970,-0.103492,0.191288,0.385963,0.373357,0.843586
-0.484939,-0.315318,0.590124,0.800374,-0.382206,0.461866
0.117846,-0.268633,0.661632,0.789184,0.457101,-0.410180
0.001057,0.470774,0.390152,0.839068,0.224709,-0.495450
-0.142535,-0.057291,0.778132,-0.714439,0.286757,0.638237
0.393367,0.119570,0.117748,0.034060,0.985531,0.166037
0.093432,0.162671,0.636779,0.508362,-0.224227,0.831439
0.293694,-0.092934,-0.954083,-0.064649,0.113245,0.991462
0.447906,-0.852196,0.443043,0.517158,-0.537840,0.665790
-0.057864,0.074726,-0.701658,0.380356,0.577257,0.722567
