0.537554,0.454093,0.510005,0.866915,-0.493781,0.068104
0.131900,0.221150,0.084441,-0.406754,0.817991,-0.406747
0.118337,0.300102,0.502037,0.447384,0.890171,0.086275
-0.175507,0.046412,-0.681992,0.994344,-0.105307,0.013829
-0.017683,0.383084,0.687490,-0.553534,0.789961,-0.263746
-0.164861,0.320135,0.875745,0.762125,0.625458,-0.167235
0.635167,0.184044,0.616542,0.062838,-0.981567,0.180494
-0.651137,0.141604,0.704521,0.903286,-0.049925,0.426124
-0.121122,-0.067393,-0.121455,0.244625,0.715795,-0.654061
0.329655,0.288839,0.619546,-0.311434,0.908682,-0.278040
-0.333965,-0.522019,0.454279,0.976260,-0.088340,-0.197770
0.076633,0.011441,0.885266,0.621140,-0.127570,0.773247
-0.409264,-0.484796,0.320656,0.853989,-0.510383,0.101051
-0.527287,0.263352,0.573367,-0.423887,-0.830793,-0.360698
0.308231,-0.103075,0.729418,0.061952,0.977035,0.203874
-0.002348,-0.536245,-0.202688,0.738958,0.133004,-0.660493
-0.097547,-0.632386,0.658368,0.603568,0.771522,0.201147
-0.078150,0.180251,0.653811,-0.606303,0.252593,0.754051
-0.328008,0.698299,0.731862,0.001731,-0.946432,0.322899
0.236105,0.355463,0.693957,0.965978,0.046920,-0.254332
-0.235850,-0.506726,0.296268,-0.698688,0.646731,0.305899
-0.104263,-0.498429,0.535945,0.928235,0.319477,0.190564
0.455408,-0.375496,0.744870,-0.389806,-0.335209,-0.857722
-0.595615,0.857390,0.566875,-0.216005,-0.958210,0.187550
0.109083,0.201708,0.791864,-0.525490,0.741380,-0.417390
0.024531,-0.122991,0.730564,-0.242934,0.846038,0.474556
-0.154717,0.371704,0.668143,0.151463,0.264545,0.952405
0.132279,0.350721,0.825187,0.872655,0.167296,-0.458787
0.130507,-0.055775,0.671223,0.212172,-0.917700,-0.335872
-0.288834,-0.274139,0.815004,0.061931,0.790338,0.609533
0.341702,0.615197,0.643144,0.093941,0.787012,0.609744
-0.153580,-0.060755,0.386513,-0.674035,0.676573,0.296522
-0.216197,-0.650049,0.573952,-0.646752,0.174319,0.742513
-0.222921,0.448403,0.770887,0.815920,-0.541607,0.202325
0.348039,0.201708,0.931444,-0.253693,-0.623144,0.739819
-0.441590,-0.076047,0.397638,0.707202,-0.696371,-0.122203
-0.029599,0.737539,0.564101,0.763702,0.329854,0.554938
0.634277,0.581768,0.363653,0.855240,-0.340561,-0.390618
0.307852,-0.378933,0.690749,0.953928,-0.109719,-0.279253
-0.119351,-0.647680,0.444784,0.585581,-0.759892,-0.282241
0.559358,-0.145278,0.415101,0.622836,-0.455410,-0.636142
0.393418,0.015708,0.833537,0.806477,-0.483938,-0.339704
0.300246,-0.355817,0.436969,-0.567409,-0.440492,-0.695711
-0.721368,-0.340525,0.368693,-0.709696,0.013366,0.704381
0.402927,0.317646,0.500331,-0.610325,-0.610731,-0.504491
-0.220383,-0.910971,0.586554,0.653077,0.659274,0.372624
0.149649,0.859405,0.432234,0.520606,0.355012,-0.776490
-0.513848,0.506372,0.415712,-0.054603,0.996970,0.055396
0.119861,0.424813,0.793926,0.922654,-0.290410,0.253715
0.149649,0.144923,0.908202,-0.322901,0.922701,-0.210611
-0.311272,-0.399798,0.514510,-0.695381,0.326135,0.640376
0.357417,0.303775,0.497760,0.316391,0.918572,0.236903
-0.293020,-0.421373,0.406853,-0.157001,0.208257,0.965391
0.221528,-0.089681,-0.747824,-0.506356,-0.860991,-0.047945
0.739998,-0.079959,0.482486,-0.398047,-0.827385,0.396224
0.288207,-0.069172,0.424851,0.926569,0.242508,-0.287506
0.085755,0.138522,0.999949,0.952637,-0.028738,-0.302748
-0.211764,0.419122,0.666794,0.731956,-0.033730,0.680517
-0.353618,0.625748,0.697317,0.646358,-0.447571,0.617982
-0.135196,0.963251,0.248740,0.506893,-0.860453,-0.051769
-0.079295,0.519175,0.336032,-0.888970,0.424196,-0.172598
-0.084742,-0.973444,0.422509,0.429023,0.872288,0.234633
0.060787,-0.183688,-0.078611,0.862193,0.325112,-0.388491
-0.087148,-0.470688,0.646021,0.964254,0.000453,0.264980
0.359196,0.179184,0.564788,0.269900,0.280131,0.921239
0.437536,0.522257,-0.041240,0.499420,-0.147265,-0.853752
0.206440,0.354395,0.834988,0.439530,0.539994,-0.717789
-0.211764,-0.230986,0.698131,0.737534,-0.112579,-0.665860
-0.360968,-0.556398,0.416399,-0.764620,0.066903,0.641000
0.115296,0.167091,0.954356,0.954431,-0.227549,0.193089
0.371111,-0.280421,0.479558,-0.394030,0.485024,-0.780700
0.045189,0.081383,0.806934,-0.358004,0.801165,-0.479549
0.625024,0.400748,0.419378,-0.510922,0.846344,-0.150533
-0.178300,-0.040128,0.752940,-0.373570,-0.515554,-0.771135
0.232043,-0.108410,-0.026195,-0.335341,0.927654,-0.164330
-0.143436,0.796336,0.307189,0.730186,0.225897,-0.644824
-0.451733,0.114102,0.161066,-0.400166,0.278326,-0.873156
-0.438673,0.389012,0.495927,0.313595,-0.451028,-0.835603
-0.383909,0.519649,0.534010,0.782306,0.491604,-0.382521
-0.289848,0.152036,0.540782,0.176307,-0.274545,0.945273
-0.655570,0.564934,0.479329,-0.178641,-0.278408,0.943704
-0.144450,-0.460375,0.573163,0.991270,0.131089,0.014152
0.688151,-0.000534,0.585917,0.151527,-0.869610,0.469913
0.168280,0.598957,0.797159,-0.554554,0.778212,0.294714
-0.097547,-0.584494,0.538211,0.814853,0.203269,0.542859
0.223423,-0.218659,0.776793,-0.000688,0.947699,0.319165
-0.154462,0.505069,-0.986941,-0.019510,0.101201,0.994675
0.240670,0.039891,-0.040349,0.752398,0.639446,-0.158134
-0.096023,0.323455,0.656535,0.865998,0.165402,0.471899
-0.182989,0.360205,0.860547,-0.290502,0.949019,0.122360
-0.203144,-0.529133,0.586885,0.819310,-0.503480,0.274297
-0.709576,-0.334715,0.099129,-0.659530,0.632547,0.406085
0.821255,-0.211427,0.430426,0.586046,0.650707,0.482835
0.331179,0.468675,0.464335,0.049504,-0.812817,0.580411
-0.207199,0.084466,-0.063770,0.208192,0.962673,0.172962
-0.255626,-0.291090,0.496792,0.749720,-0.332541,-0.572133
0.344109,0.574537,0.492847,-0.584153,0.257968,0.769557
-0.029096,0.067750,0.922076,0.226439,-0.961268,-0.157126
0.467324,0.061822,0.608905,-0.256310,0.950885,-0.173558
0.195028,0.083518,0.674533,0.923672,-0.326193,-0.201065
-0.018573,-0.711574,0.528741,0.433799,0.729219,0.529205
0.065979,-0.821824,0.413446,0.261229,-0.316649,0.911862
-0.136844,-0.123228,0.754748,-0.477771,-0.596204,-0.645194
-0.282373,-0.812933,0.094700,0.820366,-0.138984,0.554691
-0.852444,0.482308,0.464920,0.796391,0.379428,0.470952
-0.680291,0.729714,0.519831,0.417275,0.829093,-0.372137
0.056478,-0.164720,0.795759,0.248746,0.852081,-0.460526
0.297585,-0.377391,0.682730,0.919974,-0.190295,-0.342690
0.249289,0.151208,0.718497,-0.687559,0.595607,0.415349
0.068641,0.118013,0.862838,0.001217,-0.937566,0.347806
-0.292130,-0.068224,0.673998,-0.616299,0.425751,-0.662504
0.214046,0.470572,0.379869,0.072810,0.955474,-0.285950
0.276160,0.579752,0.813146,-0.581346,0.800330,-0.146660
-0.750522,0.282912,0.350644,0.384890,0.379094,-0.841515
0.058249,0.041906,0.832468,0.841876,-0.516874,-0.155199
0.274512,0.168633,0.719108,0.733759,-0.196852,-0.650267
-0.313431,-0.198861,0.678453,-0.649487,-0.284545,-0.705124
0.369966,0.391857,0.820809,0.417545,0.610843,-0.672702
0.046589,0.361984,-0.487221,0.648097,-0.755000,-0.099727
-0.309755,-0.089917,0.137162,-0.320048,0.808107,-0.494502
0.433984,-0.358780,0.504175,0.833778,0.548071,0.066582
-0.861566,0.222217,0.304847,0.895968,-0.443684,-0.019665
0.486597,0.149547,0.717988,0.476224,-0.878678,0.033704
0.784371,-0.418053,0.295632,0.462130,-0.094699,-0.881742
-0.312541,-0.652777,0.399776,0.869777,-0.386396,0.306896
-0.018063,0.083042,0.902474,-0.550636,0.488263,-0.677051
0.649233,-0.055538,0.529759,0.731506,0.608568,-0.307480
0.268176,0.044634,0.895754,-0.049659,0.885774,0.461452
0.811366,-0.373244,0.407311,0.036496,0.449473,0.892548
-0.453637,0.211903,-0.956443,-0.201035,0.542059,0.815940
-0.443996,0.310060,0.470317,0.368925,-0.832255,0.413819
0.158524,0.234545,0.907999,-0.063172,-0.728434,0.682197
0.125432,0.290855,0.807749,-0.159707,-0.473826,0.866015
-0.447424,0.741569,0.451454,0.756882,0.653497,0.008461
0.670278,-0.593147,0.466015,0.748873,0.421507,0.511392
0.434742,0.406675,0.674406,-0.433603,-0.590646,-0.680534
0.318119,0.078064,0.664248,0.656265,0.633750,0.409484
-0.095009,0.357952,0.430222,-0.052742,0.644083,0.763135
0.240670,0.890346,0.250395,0.192378,0.980383,0.042901
-0.472144,0.086124,0.511659,-0.663537,-0.546379,-0.511066
-0.212522,0.077353,-0.545491,0.596366,-0.483033,0.641114
-0.083605,-0.532689,0.597475,0.920827,-0.381300,0.081783
-0.584713,0.246280,0.716791,0.763909,-0.165944,0.623622
-0.271596,0.376920,0.761468,-0.578903,0.624320,-0.524495
-0.977430,-0.238692,0.275037,-0.589104,0.634134,0.500830
-0.015022,0.379645,0.036989,0.860148,-0.479975,-0.172537
0.724408,-0.000534,0.611171,-0.631506,0.599320,0.491950
0.092092,0.577620,0.353368,0.614033,-0.686611,-0.389267
-0.659122,0.310651,0.617382,0.805901,-0.288410,0.517052
0.474550,0.509217,0.526730,0.407559,0.652252,-0.639112
-0.027695,0.280777,0.926200,-0.172867,0.801444,0.572542
-0.614625,0.514315,-0.939871,0.941483,-0.336056,0.026019
0.212398,-0.903384,0.414032,0.828813,-0.459329,-0.319507
-0.226341,0.358901,0.748587,0.530580,0.805703,-0.263302
-0.401534,0.768834,0.418843,-0.403318,-0.753738,-0.518858
-0.223935,-0.556161,0.600682,0.832384,-0.540473,0.122581
0.208591,-0.208582,0.848251,-0.676727,-0.687852,-0.262487
-0.457567,0.171241,0.475663,-0.719302,-0.280227,0.635671
0.087782,-0.910377,0.412250,0.985856,-0.167413,-0.007826
0.464283,0.250076,0.412148,0.741221,-0.666224,0.082077
-0.094630,0.358427,0.604934,0.978796,0.204835,-0.000315
0.544402,-0.504357,0.572170,0.719785,-0.416655,-0.555255
-0.435253,0.179303,0.642839,0.062055,0.974554,0.215391
0.185527,-0.007172,0.501222,0.729940,-0.380444,0.567847
-0.212653,-0.443897,0.496054,0.328691,0.521333,0.787511
-0.156497,0.005750,0.931648,-0.235151,-0.971954,0.003032
0.654054,-0.261336,0.290413,0.608156,-0.746961,-0.268693
0.696647,0.150378,0.593554,0.847859,0.507994,-0.151914
0.528169,0.216052,0.745303,0.616999,-0.690078,0.378291
0.090452,0.136626,0.796141,0.759369,0.199094,0.619451
-0.856374,0.026733,0.289140,-0.835980,0.258871,-0.483863
0.094885,0.034676,0.589888,-0.724976,0.452645,0.519155
-0.274892,-0.011320,-0.645945,0.890837,-0.347251,-0.292961
-0.101981,0.056014,0.296268,0.899566,-0.424907,-0.101163
0.703363,0.176458,0.498345,-0.402742,0.670045,0.623570
-0.101601,0.149666,0.135329,0.955347,-0.222462,-0.194479
-0.146477,0.122993,0.653582,0.159745,-0.390475,-0.906648
-0.388095,0.096201,0.494705,0.228953,-0.007632,0.973407
0.585982,-0.547625,0.312026,0.395479,0.738586,0.545973
0.120109,-0.623021,0.367700,0.928205,-0.016475,0.371703
0.912786,-0.320372,0.468153,0.876857,-0.358383,-0.320442
0.037204,-0.035268,0.802505,-0.501642,-0.684853,-0.528518
0.676871,0.418292,0.401125,0.686384,-0.643520,-0.338761
-0.174370,-0.255765,0.699735,0.930818,0.209159,0.299718
-0.173736,0.278408,-0.725472,0.914414,0.262227,0.308358
-0.263611,-0.226245,0.238761,0.664525,-0.699231,-0.263596
-0.673320,0.688104,0.399267,-0.583796,0.238947,0.775943
-0.287186,0.652066,0.409730,0.061957,-0.099717,0.993085
-0.235973,-0.653488,0.597576,0.986709,-0.153387,0.053643
-0.001838,-0.003023,-0.061071,0.840096,-0.533502,-0.098057
-0.212019,-0.178115,-0.533425,-0.623157,-0.678039,-0.389792
-0.555683,0.804755,0.453006,0.801023,0.543057,0.251893
-0.179562,0.119200,0.788605,0.949045,0.201901,0.241968
0.232174,0.696403,0.741968,0.119047,0.863995,-0.489225
-0.203903,-0.558650,0.576447,0.783059,-0.617161,0.077011
-0.091334,-0.072609,0.674584,0.996409,0.067850,0.050642
0.391391,0.037639,0.839621,0.762847,-0.473981,-0.439780
-0.330546,0.141250,0.569090,0.288670,-0.916774,0.276033
0.018573,-0.595873,0.427880,0.985239,-0.133771,-0.106819
0.026558,0.207516,0.094751,-0.291256,0.662216,-0.690391
-0.580272,-0.234662,0.146988,-0.160444,0.491218,-0.856132
-0.397983,0.193765,0.764370,0.998378,-0.024024,-0.051613
-0.796287,-0.233832,0.263505,0.913883,0.353755,0.199189
0.717692,-0.020686,0.533476,-0.576613,0.455043,0.678567
0.277305,0.402526,0.851179,0.383040,-0.916806,-0.112901
-0.661660,0.161877,-0.125936,-0.186024,0.970903,0.150803
-0.267417,0.600498,0.672344,0.589030,-0.511820,0.625367
-0.091334,-0.665342,0.522122,0.997131,0.070703,-0.027037
0.631361,0.037283,0.597424,0.735666,0.085879,-0.671878
0.395956,-0.257897,-0.048343,0.242771,0.707329,-0.663888
-0.199717,0.316579,0.487042,0.057040,0.810940,0.582343
0.323195,0.758403,0.337992,-0.421638,-0.389635,0.818783
0.241428,-0.099045,0.755461,0.960870,0.208501,-0.182360
-0.209860,-0.385810,0.741790,-0.482434,-0.706992,-0.517126
-0.538444,0.537076,0.410010,0.159056,0.986907,0.026768
0.259811,-0.210360,0.780026,0.036094,0.914664,0.402600
-0.728083,-0.063126,0.314699,0.443506,0.852751,-0.275894
-0.412691,-0.134490,0.708747,-0.604969,-0.795183,-0.041178
-0.245227,0.029342,-0.468255,0.806840,-0.590244,-0.024917
0.088803,-0.014639,0.779186,-0.705309,0.585699,-0.399370
0.720988,-0.530911,0.542793,0.865568,0.332287,0.374670
0.410788,0.266435,0.634718,-0.716758,0.695220,0.054096
0.001714,-0.075454,-0.314877,0.999172,-0.039092,0.011238
0.117578,-0.171002,0.800825,-0.738754,0.120039,-0.663199
-0.204158,-0.624681,0.490581,0.042666,-0.580730,0.812977
-0.062939,0.553317,0.517158,0.663936,-0.691860,0.283758
-0.026047,-0.264418,0.688483,0.516698,0.203370,0.831664
-0.539203,0.276036,0.177410,0.646904,-0.417597,0.638066
-0.357293,0.137218,0.674915,-0.524012,0.689594,0.499871
-0.335993,0.753779,0.290718,-0.061924,0.429748,0.900823
-0.003865,0.715252,0.353623,-0.338893,0.889534,0.306400
-0.157634,-0.406080,0.566035,0.390073,0.920400,-0.026597
0.021103,0.295359,-0.974441,0.305864,0.309948,0.900211
0.123915,0.461917,0.746423,-0.651182,0.509626,0.562356
0.309879,0.856560,0.414516,-0.741093,-0.499814,-0.448294
-0.188815,-0.354039,0.056693,0.172943,0.542983,0.821742
-0.151800,0.190802,0.107988,-0.212614,0.973533,-0.083843
-0.486087,0.017013,0.717377,0.937767,-0.085006,0.336701
0.688786,-0.066563,0.375948,-0.705381,-0.507050,-0.495315
-0.371491,-0.084344,0.684817,0.833067,-0.200957,0.515380
-0.532100,0.091815,0.710834,0.758380,0.446950,0.474443
-0.532355,0.810681,0.419760,0.827597,0.199392,-0.524715
0.342716,-0.231699,0.697037,0.794456,-0.460002,-0.396533
-0.303032,0.435008,0.687949,-0.154512,-0.336671,0.928859
0.247888,0.170887,0.913523,-0.047912,-0.812513,0.580971
-0.035301,-0.257304,0.701034,0.022776,-0.803180,0.595301
-0.728973,-0.400509,0.360063,0.695769,-0.042004,-0.717036
-0.214804,-0.186414,-0.748944,0.966990,-0.247024,0.062526
-0.229381,0.062061,-0.594929,0.972141,-0.160564,0.170764
-0.125053,0.050916,0.826231,0.896327,0.143734,0.419451
0.278443,-0.233004,0.497734,0.114584,-0.706625,0.698250
-0.488369,0.528896,0.410366,0.019591,0.996692,-0.078875
-0.102994,-0.019973,0.803472,-0.032127,0.969325,0.243674
0.096409,0.274376,0.926404,0.031937,0.843744,0.535795
-0.140651,-0.289194,0.493432,-0.029118,-0.190993,0.981159
-0.130376,0.090037,-0.556947,-0.813348,0.566615,-0.131957
-0.590160,0.035031,0.675704,0.835116,0.549853,-0.015578
0.135707,-0.553790,0.287511,-0.379873,0.703137,0.601077
-0.266783,0.382491,0.763327,-0.482968,0.576498,-0.659084
0.610315,-0.297137,0.562039,0.476524,-0.657870,-0.583208
0.034164,0.581413,0.391197,0.901867,-0.241907,-0.357935
0.171453,0.431214,0.791151,-0.650417,-0.429250,-0.626660
-0.030744,-0.240827,0.097042,0.936070,-0.232428,0.264103
0.263734,0.009663,-0.008859,-0.017104,-0.973903,0.226320
-0.212267,-0.530911,-0.512067,0.539093,0.836615,-0.097237
0.709955,-0.284571,0.434270,0.022106,-0.699031,0.714750
0.008174,-1.000000,-0.211929,0.687971,0.211267,-0.694307
0.486597,0.227788,0.747187,-0.651604,0.660102,0.373734
0.054574,-0.058977,-0.133318,0.948190,0.193066,0.252312
-0.568488,0.783772,-0.350211,0.874011,0.107683,-0.473824
0.669520,-0.066207,0.508299,0.463515,0.865134,0.191567
-0.235726,0.222928,-0.040018,-0.492108,0.545985,0.678034
-0.453126,0.452671,0.486050,-0.509667,0.392298,0.765730
0.454016,0.279119,0.787434,-0.339247,-0.927211,-0.158716
-0.285035,-0.231343,0.077389,0.938955,-0.041605,0.341515
0.250171,0.337562,0.788249,0.938495,-0.102790,-0.329638
0.144071,-0.248887,-0.243318,0.057972,0.997159,-0.048101
-0.119095,-0.195541,0.545924,0.957632,0.130459,-0.256750
0.632753,0.226958,0.714959,-0.714872,-0.503341,0.485392
0.173224,0.038824,0.724047,-0.731557,-0.020278,-0.681479
-0.062304,0.268805,0.587852,-0.048722,-0.854532,0.517108
-0.242063,0.155712,0.700906,-0.568698,0.576269,0.586938
-0.816945,0.401102,0.485108,0.908139,0.285531,-0.306196
0.413705,0.485391,0.292297,-0.091364,-0.637990,0.764606
0.197821,-0.119909,0.767247,-0.463776,-0.254550,-0.848597
-0.763195,-0.277576,0.389033,0.110602,-0.555095,0.824401
-0.256129,-0.666291,0.601370,0.986709,-0.153387,0.053643
0.761044,-0.069765,0.566875,-0.027507,-0.960380,0.277333
-0.393294,0.571929,0.541317,0.716221,0.395910,-0.574702
-0.653040,0.622429,-0.943027,-0.464964,0.201865,0.862009
-0.255371,-0.203721,0.320579,-0.628270,-0.069111,-0.774920
-0.625024,0.741687,-0.950232,-0.370923,0.325356,0.869804
-0.504083,0.147176,0.505931,0.459684,0.845554,-0.271530
0.782592,-0.429552,-0.537549,0.095001,0.567060,0.818180
-0.325981,0.529489,0.479023,-0.102206,-0.966922,-0.233700
0.128349,0.439158,0.761977,0.403500,-0.303958,-0.863016
-0.687517,0.155829,0.597882,0.007248,0.988760,0.149333
-0.109207,0.280423,-0.135456,-0.750577,0.659411,0.042551
-0.154462,0.292633,0.730716,-0.637553,-0.768900,0.048162
0.101098,0.389486,0.574843,-0.427473,0.675088,0.601267
-0.592318,0.641160,-0.946770,-0.305608,0.243687,0.920446
-0.071179,-0.718452,0.458760,0.827618,-0.244802,-0.505095
0.379096,-0.323098,0.266051,-0.038116,0.788885,0.613357
-0.520316,-0.214153,0.411868,-0.134512,0.499949,-0.855545
0.001838,-0.134847,0.563795,0.738099,0.478006,0.476152
-0.377572,-0.518699,0.418258,-0.775287,0.027197,0.631024
0.027316,0.570742,0.318848,0.924897,0.315922,0.211560
-0.473537,0.253038,0.676824,0.475101,-0.875429,-0.088901
0.357417,-0.383082,0.418436,0.246741,0.357391,0.900772
0.558979,-0.008474,0.593122,0.150566,0.694508,-0.703555
0.119226,-0.667713,0.164808,-0.488644,-0.870954,-0.051628
0.258411,0.556281,0.488748,-0.417104,-0.064907,0.906538
0.888947,-0.432872,0.455043,-0.368053,-0.802683,-0.469295
-0.552642,0.425405,0.472812,0.008162,0.593257,0.804972
0.135707,0.034202,0.764803,-0.612060,0.327537,0.719793
0.286683,0.158083,0.592001,-0.282787,0.664103,-0.692097
-0.135707,-0.693200,0.634922,-0.138946,-0.417476,0.898002
-0.364899,0.080316,0.567003,-0.603594,-0.100850,0.790888
0.733538,-0.114337,0.505524,-0.368721,0.926772,-0.071680
0.015532,-0.658111,0.436612,0.788646,0.066490,0.611242
0.099319,-0.018908,0.815539,0.608764,0.308525,0.730903
-0.205682,-0.090865,0.386920,0.701077,-0.621378,-0.349828
-0.068393,0.056133,0.757243,0.031275,-0.688346,0.724708
0.696647,0.275917,0.693982,0.992362,-0.081505,-0.092595
0.628575,0.621362,0.327656,-0.740166,-0.665231,0.098096
-0.087535,0.436904,0.849931,-0.624390,0.732566,-0.271078
0.377703,0.048427,0.718242,-0.450009,0.270475,-0.851078
-0.086645,-0.771797,0.577491,0.356516,0.846293,0.395834
0.105276,-0.206923,0.868642,-0.677200,-0.734270,-0.047415
-0.548959,0.605715,0.502138,-0.485385,-0.740119,0.465431
-0.329532,-0.188549,0.673616,-0.638800,-0.263045,-0.723009
0.118213,-0.141603,0.841887,-0.438829,-0.828986,-0.346716
0.012360,0.059215,0.897561,-0.216927,0.359888,-0.907426
0.015277,0.015234,0.762410,-0.403275,0.125595,-0.906419
0.631616,0.061230,0.536963,-0.406929,0.889051,-0.209757
0.303163,0.217237,0.464589,0.795178,-0.456213,0.399452
-0.073337,-0.690117,0.642890,-0.682833,-0.728542,0.054456
0.252453,-0.485862,0.049870,0.212906,0.650660,0.728912
-0.783482,0.144687,0.416450,-0.177706,-0.915329,0.361376
0.313051,0.548337,0.590779,0.024634,0.999621,0.012322
-0.195918,-0.265840,0.779568,0.086158,-0.996080,-0.020021
-0.114530,-0.262047,0.692429,-0.335250,-0.705154,-0.624793
-0.317485,-0.004327,0.633649,0.843878,-0.468357,0.261747
0.317361,0.484204,0.492363,0.241878,0.840335,0.485111
-0.753438,0.515027,0.091263,0.777542,0.586674,-0.226366
0.648344,-0.489419,0.565170,0.602018,-0.702203,-0.380112
-0.060788,-0.918913,-0.201797,0.719483,0.177923,-0.671333
0.742157,-0.185584,0.331271,-0.581109,0.588087,-0.562553
0.328387,0.241420,0.671936,-0.426133,0.069370,-0.901997
0.286049,0.362931,0.480373,-0.121601,0.423948,0.897486
-0.483549,0.610812,0.504277,-0.632907,0.154573,-0.758641
0.452236,-0.272952,0.718981,0.117846,0.964819,0.235026
0.050264,-0.892596,0.551499,0.021691,0.928103,0.371692
0.638710,0.539327,0.585943,0.272081,-0.933836,0.232213
-0.109207,-0.342657,0.710605,0.651581,0.514980,0.556990
0.387592,0.186653,0.625095,-0.495360,-0.187980,-0.848105
0.872599,-0.387349,0.414796,0.610918,0.711102,-0.348014
0.180451,0.160453,-0.584390,0.119611,0.932470,0.340872
-0.293275,-0.634400,0.414668,-0.142172,-0.809309,0.569917
0.357927,0.799895,0.440660,0.915306,0.398584,-0.057838
0.003362,0.397309,-0.991268,-0.247809,-0.261805,-0.932764
-0.025544,-0.890107,0.587954,0.567533,-0.433187,0.700182
-0.673698,0.347520,0.358459,0.499126,-0.289219,-0.816839
0.216329,-0.135438,0.675347,-0.576652,0.526686,-0.624559
-0.214302,-0.079959,0.524871,0.265733,0.960221,0.085798
-0.194649,-0.669610,0.640522,0.254438,0.883542,0.393212
0.039742,0.373837,-0.411232,0.680147,-0.702901,0.208161
-0.134059,-0.037400,-0.633216,0.936508,0.283357,0.206546
-0.598532,-0.354276,-0.134387,-0.052180,-0.884195,0.464194
0.326739,-0.006579,0.719388,0.389112,-0.540915,0.745656
-0.473537,0.722484,0.426200,0.668838,0.276598,0.690036
0.206564,0.051390,0.795250,-0.432449,0.117052,0.894029
-0.457946,-0.417936,0.405046,-0.335285,0.857236,0.390807
0.311782,-0.327365,0.530777,0.412419,0.719404,0.558899
-0.007161,0.545966,0.496334,0.810360,0.458143,0.365270
-0.322305,0.409164,0.780688,-0.743963,0.410843,-0.526999
0.005257,-0.118961,0.726109,-0.229042,0.973353,-0.011127
0.026179,-0.493806,0.494629,0.819160,-0.224251,-0.527910
-0.341068,0.246163,-0.964844,-0.027752,0.426068,0.904265
0.048616,0.860946,0.632274,-0.522924,0.838460,-0.153414
-0.397225,0.147532,0.784914,-0.278580,-0.819164,0.501362
-0.248276,0.442238,0.780867,0.282180,-0.728451,0.624286
0.439687,-0.005985,-0.500484,0.050437,-0.250945,0.966686
-0.064463,-0.485626,0.709002,-0.273108,0.407960,0.871195
-0.246117,0.302710,0.780408,-0.256425,-0.033029,-0.966000
0.120240,0.864620,0.399649,0.872020,-0.476129,-0.113504
0.237753,0.068460,0.464411,0.357235,-0.058960,-0.932152
0.191229,-0.003496,0.793162,-0.735403,-0.075875,0.673369
0.578244,-0.434887,0.551907,-0.701884,0.584290,0.407387
0.104518,-0.804397,0.409984,0.452386,-0.476797,0.753665
-0.438805,-0.269396,0.387684,0.225269,-0.431993,-0.873290
0.300881,0.262640,0.557049,0.545625,0.417963,-0.726361
-0.421558,0.161402,0.566214,0.844535,0.510859,-0.160574
0.732517,-0.083753,0.554580,0.412433,0.910534,0.028750
0.648730,-0.079129,0.479100,-0.463838,-0.870571,0.164194
-0.232299,-0.427537,0.551016,0.989397,-0.144645,-0.013129
0.221396,-0.138283,0.323303,0.524925,0.623741,-0.579138
-0.588767,0.511589,0.482995,0.408899,0.228504,0.883509
0.233567,0.295715,0.652003,0.550962,0.304086,0.777157
0.202634,-0.440223,0.280663,0.736667,-0.219148,-0.639762
-0.247765,0.664039,-0.265338,0.968706,-0.246059,-0.032601
0.596752,-0.631081,0.460949,0.703604,0.674992,0.222097
-0.109083,0.808429,0.547274,0.941220,0.337490,0.014348
-0.265135,0.326419,-0.970801,0.083507,0.419783,0.903775
0.178679,0.105211,0.833537,-0.566974,-0.719359,-0.401327
0.094506,-0.050440,-0.321012,0.992312,-0.121751,0.022211
-0.223424,-0.260980,0.042819,-0.060794,0.815584,0.575436
0.356658,0.217831,0.662466,-0.118706,-0.084826,0.989300
-0.337772,0.126312,0.549590,-0.489821,0.867869,-0.082938
0.411546,-0.426470,0.339519,0.580581,0.346424,-0.736829
-0.034543,-0.155593,0.674278,0.183448,-0.234695,0.954602
0.246372,-0.079603,0.646403,0.772923,-0.145281,-0.617644
0.544649,-0.464169,0.428466,0.158748,0.474726,0.865699
-0.257529,-0.444253,0.414770,0.107639,0.060360,0.992356
-0.186788,-0.305554,0.798737,0.591110,0.058993,0.804431
-0.055333,0.399561,0.484242,0.124673,-0.545435,0.828829
0.391901,-0.262994,0.716460,-0.566172,0.794433,0.219828
-0.401914,-0.292277,0.521511,-0.002535,-0.499779,0.866149
-0.793115,0.743228,-0.985133,0.396686,0.055130,-0.916298
-0.602330,0.846602,0.534621,0.062719,-0.835705,0.545586
-0.075620,0.648629,0.361438,-0.664385,0.746266,-0.040982
0.008429,-0.078182,0.815157,0.135053,0.525923,0.839742
-0.440956,0.162707,-0.941525,0.963771,0.085488,-0.252659
-0.598911,0.832731,0.535054,0.062719,-0.835705,0.545586
-0.662039,-0.166855,0.394888,0.176376,0.944660,-0.276602
0.340433,-0.086598,-0.528741,0.293824,0.729220,0.617985
-0.090831,0.674710,0.331373,0.754458,-0.510621,-0.412382
0.127846,0.232766,0.904918,0.293146,0.907794,-0.299959
-0.859036,-0.337560,0.527112,0.606933,0.398804,-0.687450
-0.148504,-0.812696,0.577236,-0.416064,0.578934,0.701232
0.399631,0.007291,0.612418,0.324057,-0.863007,0.387565
0.024786,-0.236086,0.834683,-0.005723,-0.999771,-0.020623
0.160296,0.447574,0.478311,0.181688,-0.573953,-0.798478
-0.495843,0.060044,0.371188,0.139823,0.987317,-0.075201
-0.366671,-0.116589,-0.321801,-0.731433,0.658760,0.176183
-0.557200,-0.402643,0.404307,-0.313373,0.407759,0.857630
0.005892,-0.257067,0.149992,0.320005,-0.889962,0.324906
0.827591,-0.225178,-0.137213,0.950397,-0.247868,0.187900
-0.078784,0.051746,0.916654,-0.506968,0.804613,-0.309163
0.791977,-0.273783,0.307316,0.180906,0.850834,0.493310
0.053182,0.011915,0.677053,0.347687,0.107679,0.931407
0.901752,-0.336732,0.457563,0.590970,0.748043,-0.301972
-0.137355,-0.211310,0.779110,-0.175201,0.782266,0.597800
-0.320147,0.079249,0.555216,-0.439533,-0.222794,-0.870157
0.430564,0.472231,0.658190,0.926123,-0.376078,-0.029358
0.342461,0.718571,-0.153047,-0.716135,-0.352096,-0.602643
-0.581796,-0.068460,0.504277,-0.502392,0.389781,-0.771798
-0.043928,-0.133068,0.177282,0.269919,0.903402,-0.333179
-0.748749,0.226841,0.489130,0.758849,0.583510,-0.289247
-0.831522,-0.356765,0.514434,-0.049569,0.902637,0.427539
-0.244848,-0.544188,0.349600,0.821918,-0.152356,0.548853
0.160419,0.267383,0.003946,0.049931,0.229745,0.971969
-0.563668,-0.461323,0.383484,0.041707,-0.816635,0.575646
-0.188568,0.527948,0.662390,0.934658,0.327555,0.138284
-0.173480,0.009307,0.862660,-0.605677,-0.270377,-0.748366
0.247510,-0.464999,0.452625,0.221320,-0.944340,-0.243391
-0.745067,0.201471,0.483962,0.788960,0.565329,-0.240718
0.573432,0.435363,0.421083,-0.546933,0.440638,-0.711830
0.484949,0.077708,0.579018,0.514058,-0.287760,-0.808046
-0.144829,-0.204551,0.781885,0.238540,-0.967600,-0.082759
0.423082,0.421968,-0.010539,-0.680202,-0.341877,-0.648417
-0.110607,-0.078182,0.191945,-0.660875,-0.531699,-0.529661
-0.092479,-0.153695,0.676264,0.214813,-0.271617,-0.938126
-0.123536,-0.131764,0.192887,-0.186488,0.840953,0.507957
-0.578755,0.506848,0.438496,0.661053,-0.747550,-0.064642
-0.320526,0.463934,0.481111,0.450389,0.652592,0.609322
-0.037584,-0.962538,0.577873,-0.140013,0.981903,-0.127527
-0.213791,0.246756,0.561606,-0.210767,-0.782109,0.586415
-0.249792,0.169345,-0.375159,0.968751,0.096685,-0.228413
-0.599793,0.785905,-0.951428,0.199475,0.601768,0.773359
0.181596,0.076286,0.872104,0.954330,-0.196032,-0.225447
-0.139761,0.133899,0.722265,-0.214759,-0.528201,0.821513
-0.231540,0.735998,0.290948,-0.471596,0.205885,0.857443
0.494961,0.041078,0.765491,0.878025,-0.296567,-0.375660
0.593966,-0.434058,0.189832,0.588835,0.804218,-0.080658
-0.676616,0.105092,0.417749,0.228461,0.918452,-0.322881
-0.083605,-0.108292,0.737182,0.565248,-0.218683,0.795407
0.220004,0.497955,0.701339,0.213225,0.825191,0.523063
-0.411043,0.119436,0.585230,0.407569,0.834898,-0.369909
0.028585,0.377749,0.462502,-0.325809,0.944897,-0.031896
-0.146733,-0.035029,0.850670,0.201464,-0.966920,0.156458
0.671926,-0.668780,0.320681,-0.485748,-0.807192,-0.335395
-0.540595,0.751527,0.523980,-0.866650,0.489158,0.098193
-0.133927,0.594334,0.394379,-0.685598,-0.688400,-0.236772
-0.652529,0.328315,0.391172,-0.675634,0.456621,0.578806
-0.286304,0.620888,0.718930,-0.574112,0.760885,-0.302406
0.064718,0.051864,0.980169,0.983548,0.025496,-0.178840
-0.269948,0.654794,-0.987577,0.022958,0.231773,0.972499
0.467324,0.523918,0.517133,-0.679520,0.517774,0.519772
-0.121254,0.441172,0.296599,-0.605228,0.126852,-0.785880
-0.378462,0.298915,0.526984,0.809135,0.401999,-0.428599
0.484183,0.604529,-0.018915,-0.118995,0.460544,0.879625
-0.144829,-0.159029,0.547426,0.907224,0.223354,0.356452
0.827591,0.084109,0.517591,0.164172,-0.324200,0.931634
-0.523101,0.094897,0.172394,-0.587012,0.372875,-0.718596
-0.284277,-0.033251,-0.527977,0.988965,0.147658,-0.012026
-0.347529,0.234664,0.803854,0.695722,-0.189046,-0.692989
0.575327,0.654911,0.558882,-0.379072,-0.466052,-0.799437
0.424475,0.292276,0.657426,-0.583537,0.110206,-0.804574
-0.038474,0.578685,0.527774,0.483798,0.774499,-0.407543
0.015532,0.053762,0.719363,-0.823517,0.034190,0.566261
-0.871833,0.263116,0.317728,0.962820,0.008186,-0.270020
-0.571397,0.693913,-0.951174,0.545241,-0.423065,-0.723691
0.106545,0.086007,0.804796,0.981811,0.146782,0.120422
-0.138369,-0.070593,0.532610,0.654303,0.635275,-0.410261
0.019455,-0.255289,0.656026,0.941592,-0.282998,0.182530
0.093872,0.166144,0.799577,0.334592,-0.330360,-0.882559
0.262721,0.414855,0.444020,-0.230819,-0.956069,0.180704
-0.282118,0.915359,0.278168,0.809412,-0.561810,-0.170942
0.183244,0.303539,0.732295,0.930110,-0.032061,0.365880
0.620582,0.528422,0.559111,-0.155664,0.947817,-0.278230
0.294288,0.866398,-0.190291,-0.529023,-0.692319,0.490744
-0.053306,-0.063007,0.584008,0.920820,0.387698,-0.042196
-0.281995,0.765752,0.418105,0.506292,0.164775,0.846474
0.642138,0.363879,0.694746,0.837759,0.531514,0.125108
0.931417,0.037522,0.574589,0.428992,-0.683659,-0.590404
0.544525,-0.055184,0.580164,0.307501,0.314140,-0.898198
0.284145,0.294767,0.779696,0.794529,-0.558653,-0.237971
0.479494,0.494755,0.694313,-0.308436,-0.819407,0.483156
-0.425365,0.383558,0.476147,0.980283,-0.008758,-0.197402
0.316603,0.217120,0.637442,-0.777960,0.339664,-0.528590
0.856374,-0.005275,0.013136,0.640396,-0.282799,0.714085
0.335613,0.018197,0.640421,0.850789,-0.521239,-0.066837
0.036570,0.404778,-0.982944,0.287685,0.397403,0.871383
-0.132914,-0.161755,0.730385,0.141300,0.953862,0.264919
-0.068138,-0.931717,0.597857,0.861374,0.329245,-0.386823
0.156744,0.283505,0.738048,0.757735,-0.216279,0.615680
-0.393797,0.655031,-0.989155,-0.143690,-0.108174,-0.983693
0.211763,-0.076284,-0.041495,0.019459,-0.986058,0.165258
-0.619948,0.137692,0.471997,-0.459553,-0.831955,0.310905
0.343474,-0.370161,0.706125,0.961309,-0.194495,-0.195083
0.222410,0.287535,0.813171,-0.719890,-0.019415,0.693816
-0.053685,0.166144,0.890561,0.941582,-0.279995,0.187151
0.173480,0.053642,0.764269,0.512413,0.849771,-0.123785
0.307976,0.519057,0.405707,-0.238236,-0.782394,0.575416
0.545663,0.669730,0.649941,-0.778554,0.572565,0.256950
0.545918,0.492740,0.722061,0.790949,0.440459,-0.424731
-0.562778,0.142909,0.703376,-0.682230,-0.448914,-0.577095
0.276160,-0.072017,0.717555,0.191506,0.691125,0.696902
0.267920,0.301523,0.819357,0.741433,-0.606826,0.286425
-0.348674,-0.285045,0.392292,0.504140,-0.519242,-0.690095
0.155731,0.403237,0.760730,0.509444,0.164504,-0.844633
0.575203,-0.494636,0.562217,0.653395,-0.644894,-0.396468
0.273499,0.642582,0.374243,-0.211915,-0.543410,-0.812280
0.130252,-0.070830,0.779085,0.072463,0.937374,-0.340704
0.351838,0.475550,0.573876,0.184627,-0.683488,0.706228
0.511186,0.162707,0.573876,0.497531,-0.344246,-0.796215
-0.286049,0.641990,0.691869,0.732671,-0.123607,0.669265
-0.720733,0.351195,0.638689,-0.607271,0.441873,-0.660280
-0.349942,-0.679094,0.331831,-0.654298,0.752744,-0.072602
-0.152690,0.404184,-0.980627,-0.250550,0.209409,0.945184
0.045576,-0.980439,0.382847,0.210613,-0.975573,0.062445
-0.111621,0.276867,-0.379487,-0.026884,-0.582350,0.812494
0.164860,0.501037,0.677944,-0.182583,-0.772810,0.607806
-0.585216,0.630135,0.422534,0.856555,-0.342444,-0.386065
0.591939,-0.514195,0.447559,0.149659,0.677960,0.719703
0.703873,0.329856,0.707551,0.988546,0.150894,0.002724
-0.260694,-0.054116,0.118680,0.651158,-0.701849,-0.288793
-0.526777,0.676488,0.301894,0.876897,-0.119692,-0.465537
-0.310011,-0.249363,0.355328,0.786327,-0.077401,-0.612943
-0.132914,0.479226,0.540477,0.529182,0.548290,-0.647569
0.015401,-0.053879,0.693244,0.865879,0.240257,0.438784
0.044686,0.120621,0.928670,-0.471929,0.193312,0.860182
0.136968,0.072492,0.585179,0.946493,-0.184420,-0.264841
0.038473,-0.544069,0.582531,-0.570736,0.666738,-0.479293
-0.059643,0.007291,0.808513,-0.404025,0.913766,0.042368
0.302405,0.065024,0.016089,0.103283,-0.330672,0.938077
0.144829,-0.194357,0.854208,0.746931,0.656185,0.107310
0.883756,0.039536,0.538160,-0.594425,0.618396,-0.514049
-0.300626,-0.486337,0.505881,0.938109,-0.331273,0.101039
-0.106924,-0.526051,0.606461,0.625026,0.752523,0.207490
-0.660011,0.197441,0.514460,0.564143,0.762124,-0.317662
0.006402,0.641754,0.466422,-0.218863,0.960904,0.169597
0.305570,0.448876,0.595362,0.033554,-0.695048,0.718180
0.041514,0.116474,0.929535,-0.658478,0.211086,0.722392
0.124550,0.122282,0.974467,0.957269,-0.271140,-0.100594
-0.098685,0.402526,0.855099,-0.634982,0.735317,-0.236868
-0.645435,0.383795,0.468993,0.056179,-0.059940,0.996620
-0.074599,-0.354039,0.704190,0.453518,0.552287,0.699500
-0.312920,0.557941,0.697062,0.262894,-0.512777,0.817280
-0.335869,-0.686561,0.394074,0.997772,0.038566,0.054441
-0.205682,-0.293936,0.791635,-0.189173,-0.964870,-0.182316
-0.036949,0.048071,0.720610,-0.232283,0.961222,0.148652
0.604357,0.704700,0.661295,0.486108,0.726754,-0.485311
0.262218,0.217474,0.570949,0.374250,0.918924,-0.124562
0.064207,0.142434,0.963215,0.921594,0.192537,-0.337039
0.333586,0.835694,0.395907,0.961950,-0.117284,0.246771
0.022248,0.432636,0.826918,0.447509,-0.754099,0.480698
-0.102491,-0.192342,0.687363,0.942281,-0.014235,0.334520
0.572542,0.699486,0.660582,0.486108,0.726754,-0.485311
-0.196421,-0.029103,0.852171,0.846360,-0.433079,0.310027
-0.075233,0.136507,0.717631,-0.149375,-0.725064,0.672287
0.498892,0.097386,0.004226,0.143433,0.728605,0.669747
-0.467579,0.030053,0.722697,0.966876,-0.184856,0.176007
0.476198,0.334954,0.668550,0.472864,0.657574,-0.586511
0.324588,0.652422,-0.220584,0.739360,0.404208,-0.538482
-0.354631,0.222571,0.755690,-0.691235,0.644162,0.327489
-0.087403,-0.006105,-0.508706,0.230892,-0.034859,0.972355
0.702729,0.198388,0.564762,-0.495823,-0.852265,-0.166745
0.509538,0.652896,0.612672,0.494995,0.711303,-0.499027
-0.246628,0.192344,0.563184,-0.360056,-0.253257,-0.897898
-0.224438,-0.229091,0.804134,-0.320937,-0.152399,-0.934759
0.197945,-0.907771,0.556133,0.138939,0.739066,0.659149
0.092479,-0.866042,0.554911,-0.275246,-0.720298,-0.636719
-0.086645,0.226958,0.710045,-0.417526,-0.800878,-0.429263
0.055077,0.412127,0.531719,0.606879,0.737181,-0.297090
-0.339165,0.531504,0.677664,0.031597,0.223214,0.974257
-0.511062,0.211310,0.713049,0.874007,-0.214614,0.435950
-0.098560,-0.770137,0.468764,-0.006981,-0.640116,0.768247
-0.329276,-0.194831,0.353190,0.606942,-0.287648,-0.740864
-0.102367,-0.432635,0.607581,0.627898,-0.711040,0.316490
-0.224313,-0.029814,0.554529,0.008621,0.926377,0.376499
0.130763,0.416040,0.357314,-0.677378,0.432788,0.594856
0.516254,-0.432635,0.409959,0.377647,-0.461786,-0.802581
-0.766870,0.430978,0.341556,0.966665,-0.241445,-0.085227
-0.100588,0.559956,0.423018,-0.449678,0.778405,0.438037
-0.605751,-0.402880,0.383229,0.512400,0.400484,-0.759644
0.276284,0.507676,0.573189,-0.200497,0.016561,0.979554
0.816566,-0.169935,-0.135991,0.995653,0.076581,0.053008
0.167011,0.223521,-0.970801,-0.455049,-0.406568,-0.792233
0.324456,0.678383,-0.028970,-0.199774,0.938057,0.283087
0.178679,0.637841,0.698819,0.118709,-0.964790,0.234711
0.262976,-0.022819,0.827707,0.867720,0.252555,-0.428109
0.612598,0.637485,0.544244,-0.745639,-0.494043,-0.447150
0.132279,0.178473,0.801843,0.918897,-0.381171,0.101671
0.523356,0.195306,0.789267,0.563945,-0.816537,0.123421
-0.320526,0.070595,0.695051,-0.283896,-0.700583,0.654665
-0.838114,0.556400,0.257930,-0.771321,0.365904,0.520747
0.150028,-0.639261,-0.146836,0.937883,0.306612,-0.162373
-0.423083,0.677790,0.427015,0.683438,0.184761,0.706241
-0.849272,0.391620,0.469579,0.965017,0.232475,-0.121233
-0.067627,-0.592910,0.544117,0.945649,0.087411,0.313219
0.614246,-0.067630,0.320401,0.801716,0.540249,0.255699
0.531465,0.669255,0.624434,-0.410437,-0.877262,0.248905
0.022248,-0.341116,-0.180770,0.922592,-0.305802,-0.235178
-0.339544,-0.588998,0.418410,0.578616,0.562953,0.590159
-0.271727,-0.590658,-0.478540,0.798080,0.515743,0.311573
0.174369,-0.016180,0.770658,0.819610,-0.101446,0.563868
-0.055588,0.128921,0.665063,-0.691780,0.171754,0.701385
0.045189,0.050442,0.569574,0.027181,-0.976441,0.214067
-0.519682,0.790291,0.537854,-0.740867,-0.653079,0.156860
0.800844,-0.068341,0.564941,0.506808,-0.836277,0.209254
0.423593,-0.325469,0.748740,0.044701,0.688830,0.723544
-0.267797,-0.572283,0.116695,0.928486,0.156661,0.336706
-0.088673,-0.013811,0.748587,0.748747,-0.390294,-0.535770
0.133927,-0.221267,0.529886,0.825253,0.551605,0.121199
0.781958,-0.239996,0.297541,-0.128712,0.392280,0.910796
-0.390254,-0.098334,0.701874,-0.711268,-0.480716,-0.512845
0.140898,-0.206093,0.303040,-0.485671,-0.744395,0.458257
0.848134,-0.260032,0.301359,-0.240021,0.207835,0.948259
-0.092348,-0.315038,0.587776,-0.214538,0.401012,0.890597
-0.020469,0.540869,-0.991447,0.020220,0.140809,0.989830
0.040377,0.267976,0.020136,-0.573283,0.303966,0.760888
-0.604358,-0.407028,0.397867,-0.536348,0.169253,0.826852
0.230395,0.515856,-0.158877,-0.654239,0.645209,-0.394558
0.182610,0.308755,-0.983326,0.216234,0.345608,0.913125
-0.560627,0.709087,-0.951021,-0.156276,0.377434,0.912755
-0.274002,0.747141,0.415025,0.522761,0.349092,0.777724
0.422703,-0.236086,0.768927,0.763370,0.523107,-0.378979
-0.040880,0.715369,0.569014,0.844345,0.334843,0.418284
-0.031247,0.459665,0.664197,-0.341155,0.919649,0.194574
0.102614,-0.163179,0.431928,0.786411,-0.401458,0.469456
-0.281228,-0.079840,-0.342243,-0.333045,0.805133,0.490757
0.158648,-0.249006,-0.496105,-0.192304,-0.450330,-0.871907
-0.231409,-0.481120,0.343542,0.839929,0.272382,0.469391
0.041893,-0.181553,0.605494,0.815179,0.300820,-0.494965
-0.589526,-0.306858,-0.124103,-0.521742,-0.097367,0.847529
-0.567598,0.263590,0.566595,0.782023,0.435661,0.445690
-0.734165,0.064550,0.172547,-0.622204,0.364448,-0.692849
-0.621852,0.390433,0.482231,-0.741055,0.612637,-0.274798
-0.900995,-0.067037,0.294970,0.961398,-0.274065,-0.024545
0.701591,0.162231,0.513594,-0.634747,0.602110,0.484314
0.203268,0.521072,-0.104017,0.793164,-0.519069,-0.318525
0.242565,0.241659,0.863525,-0.713513,-0.324108,-0.621171
-0.251572,-0.269870,0.520747,0.931074,-0.283522,-0.229603
0.383785,0.446387,0.500025,-0.584786,-0.674405,-0.450781
-0.124171,-0.014759,0.858536,0.010279,-0.998063,0.061364
-0.102491,-0.510520,0.547579,0.871950,0.294380,0.391208
0.158771,0.921285,0.417010,0.392374,-0.898487,0.196887
-0.033529,0.324641,0.646301,0.140905,-0.541983,-0.828493
0.260949,-0.341236,0.535691,-0.408253,-0.896768,0.170695
0.272230,0.303302,0.935976,0.269753,0.952752,-0.139633
0.676994,0.634048,0.553536,-0.570351,-0.679132,-0.462039
0.744184,0.191276,0.505881,-0.177685,0.815277,0.551137
-0.838370,-0.030762,0.262588,-0.534491,0.626929,-0.566815
-0.173356,-0.181553,0.767298,0.895417,0.269700,0.354245
-0.005892,0.100114,-0.548012,0.875534,-0.425148,-0.229541
0.455284,-0.555568,0.432895,-0.397896,-0.733635,0.550870
-0.082591,0.329264,0.590347,-0.111767,-0.697389,0.707924
0.795521,-0.276391,0.287434,0.241420,-0.087091,-0.966505
0.024020,0.162587,0.806451,-0.346090,0.762232,0.547013
0.646571,0.517634,0.459625,0.997506,-0.048889,-0.050916
-0.059898,-0.944874,-0.395550,-0.617429,-0.750537,-0.235532
-0.532232,-0.182975,0.416781,0.012638,-0.334240,0.942403
-0.718830,0.296189,0.615575,0.579365,-0.116178,0.806746
-0.181210,-0.617093,0.113436,-0.108986,-0.055287,0.992505
0.864738,-0.138996,-0.017005,-0.266048,-0.613836,0.743252
0.303287,0.311718,0.811262,0.701662,-0.636462,0.320291
0.497499,-0.239759,0.482613,0.876650,0.287510,0.385775
-0.476454,0.026971,0.373275,-0.020793,-0.858961,0.511619
-0.141278,0.247111,0.839367,0.710409,-0.259999,0.654003
0.330924,-0.407028,0.496207,0.261434,0.806252,-0.530669
-0.007540,0.107107,0.857212,0.408327,-0.872856,0.267191
-0.126956,-0.341473,-0.527493,-0.486471,-0.271580,-0.830416
-0.169047,0.254223,-0.530803,0.773200,-0.530273,-0.347811
-0.017049,0.334954,0.795937,0.028843,-0.980855,0.192593
0.595738,0.055183,0.584135,0.834563,0.521705,-0.176998
0.029220,-0.886194,0.377552,0.534221,0.181601,-0.825608
0.331559,-0.092643,0.712082,0.967393,0.001167,0.253278
0.479750,0.335784,0.699481,0.815071,0.255421,-0.520018
-0.245359,0.388538,0.479202,0.613033,0.369448,0.698354
0.435129,0.105923,0.008859,0.318487,0.553931,0.769237
-0.620204,0.731492,0.352401,-0.202741,0.975100,-0.089870
0.039866,0.370518,-0.987781,0.221118,0.419609,0.880361
-0.820118,0.196728,0.432004,-0.577478,0.813664,0.066861
-0.164350,0.196491,-0.098187,0.017035,0.840797,0.541082
0.127846,0.121095,0.920778,-0.000750,0.802073,0.597226
0.272106,0.743941,0.479711,0.796858,-0.527403,-0.294725
-0.418262,0.241539,0.694237,-0.282837,0.633927,0.719819
-0.779675,0.286942,0.630543,0.458510,0.041743,0.887708
0.794507,0.035861,0.351051,0.406158,0.078843,0.910395
-0.569625,-0.006816,-0.043302,-0.009631,0.941381,0.337207
-0.274768,-0.677790,0.324551,-0.631103,0.766370,-0.119938
-0.131776,-0.192696,0.752355,0.910037,0.134510,0.392098
-0.259178,-0.386521,0.488392,0.837924,-0.031390,-0.544884
-0.151677,0.589830,-0.192200,0.978145,-0.170389,-0.119166
0.621093,0.384625,0.354335,0.876840,-0.376654,0.298803
0.483301,0.183451,-0.477089,0.799856,0.599872,-0.019622
0.365656,0.177169,0.742528,0.636601,0.329045,-0.697474
-0.336627,0.014641,0.483249,0.857907,-0.333489,0.390872
0.443238,0.021162,0.592765,-0.615748,-0.742331,-0.264196
0.019710,0.387114,-0.149407,0.769763,-0.630413,0.100217
-0.733530,0.651235,0.480424,-0.397552,-0.286890,0.871577
-0.354500,0.152392,0.699888,-0.512405,-0.277685,0.812608
0.576596,-0.148241,0.414439,-0.561283,0.198407,0.803490
-0.093996,0.030170,0.687287,0.961174,-0.246192,-0.124638
-0.051279,0.143146,-0.433710,0.904726,-0.407793,0.123189
-0.518792,0.532808,0.414337,-0.129111,-0.985079,0.113797
-0.152435,-0.380593,-0.702408,0.945324,-0.299871,-0.128221
0.668886,-0.629422,0.297184,0.402775,0.705366,0.583293
-0.245738,0.627764,-0.982257,0.175021,0.055387,0.983006
0.126066,-0.776538,0.417978,0.193794,-0.046744,-0.979928
0.153324,0.099995,0.658368,0.618628,-0.645969,-0.447239
-0.072068,0.006698,0.591238,0.661453,0.509562,0.550298
0.412181,0.840437,0.347309,0.937416,0.295579,-0.184077
0.018573,-0.223519,-0.202917,0.770841,0.594400,0.229114
0.262721,0.327250,0.825671,0.571237,-0.705293,0.419820
-0.744943,0.234070,0.634235,0.914729,0.400883,0.050626
0.507379,0.449826,0.467288,0.090866,0.995398,-0.030445
0.002472,0.206449,0.759330,-0.164067,0.946096,0.279258
-0.043673,0.744414,0.590729,0.945436,0.221466,-0.238963
-0.126322,-0.066919,-0.624816,-0.636226,-0.759088,-0.137847
-0.369588,-0.431450,-0.289522,0.778504,-0.137800,-0.612325
0.141912,-0.066683,-0.940100,0.356496,0.623006,0.696257
0.097547,0.285638,0.591670,-0.631616,0.678335,-0.375398
-0.109462,-0.458715,0.628583,0.997855,0.004158,-0.065331
-0.302908,0.062298,0.691895,0.114634,-0.799253,0.589961
0.210626,-0.088850,0.821572,-0.502674,0.768840,0.395227
0.372628,-0.168513,0.697928,0.999577,-0.024464,-0.015701
-0.723395,0.602159,0.304923,0.647220,-0.731597,-0.214177
0.064084,-0.235493,-0.195458,0.924798,-0.377609,0.046480
0.117958,0.113628,0.836032,0.813781,-0.570477,0.110978
0.910883,-0.453500,0.396008,-0.765879,0.535830,0.355409
-0.487100,-0.203484,0.422662,-0.267229,0.500181,-0.823655
-0.018318,0.064430,0.941245,-0.601139,0.679146,-0.421180
-0.837735,-0.244976,0.523268,0.480343,-0.245005,-0.842166
0.106042,0.127853,0.924800,0.910496,-0.385555,0.149480
-0.101478,-0.746428,0.438878,0.965137,-0.139194,0.221664
0.503325,-0.514669,0.425946,-0.519833,-0.577971,-0.629065
0.184003,-0.029221,0.450919,0.208591,-0.788001,0.579262
-0.148125,-0.521190,0.612622,0.340867,-0.845061,-0.411924
0.462256,-0.577855,0.312255,0.582055,0.805087,-0.114223
0.322173,0.588525,-0.066926,0.973163,-0.230089,0.003608
0.288076,-0.383912,0.521817,0.395534,0.917148,0.048913
0.103504,0.045582,0.759381,0.285709,-0.933682,-0.215889
-0.061546,-0.081264,0.708289,0.747159,0.660219,0.076580
-0.111110,0.351432,0.835981,-0.030382,0.533506,0.845250
0.053305,-0.506135,0.491192,0.819160,-0.224251,-0.527910
0.520440,-0.454211,0.538440,-0.086088,0.825153,0.558311
0.031502,0.058266,0.730564,0.672037,-0.326095,-0.664852
-0.517020,-0.206449,0.072501,0.467557,-0.883909,0.009731
-0.036446,0.462273,0.847895,-0.433678,0.785287,-0.441869
-0.154338,-0.538141,0.622932,0.309469,0.824916,0.473015
-0.229892,-0.436310,0.554452,0.986186,-0.043296,-0.159881
-0.192746,0.184992,0.698411,0.977777,-0.181000,-0.105784
-0.338275,0.363879,0.786213,0.703644,-0.489028,0.515496
0.094630,0.140774,0.996614,0.969393,-0.239210,-0.055277
0.013629,0.014878,0.804261,0.203009,0.831717,0.516753
-0.063828,0.150021,-0.872079,0.980512,-0.063380,0.185954
0.181465,0.172782,0.684283,0.417426,-0.837899,0.351683
0.054830,0.141011,0.906751,0.823576,0.248319,-0.509961
-0.848002,0.137692,0.404231,0.691166,0.446736,0.568081
-0.324209,-0.466540,0.242223,-0.472850,-0.861238,-0.186230
0.239649,-0.002549,0.006670,0.012765,-0.999871,0.009726
-0.233567,0.044278,0.721705,-0.447753,0.365918,0.815856
0.940671,-0.271294,0.294588,0.630274,-0.050938,-0.774700
0.226851,-0.810918,0.368897,0.966076,-0.022634,0.257265
0.810608,-0.383676,0.460491,0.742370,-0.160323,-0.650526
0.033529,0.486575,0.556107,-0.175353,0.125103,0.976525
0.231161,0.932784,0.439718,0.434885,-0.182313,-0.881837
0.033653,0.171952,0.924902,0.763978,0.607474,-0.217517
0.283387,0.298915,-0.369151,-0.640659,0.759581,-0.112216
0.484314,0.216289,0.765923,-0.568735,0.805757,0.165217
0.164102,-0.079010,0.804618,-0.151634,0.984201,0.091405
0.897064,-0.312429,0.305560,-0.664145,0.159284,0.730438
0.467579,0.496059,0.516547,-0.076117,-0.852360,0.517387
-0.528170,0.653726,-0.975332,0.714205,-0.013742,0.699802
-0.119861,-0.756860,0.610356,0.938474,-0.074170,0.337291
-0.439052,0.150021,0.497072,-0.450612,-0.771557,-0.449054
-0.250047,-0.655503,0.603584,0.979978,-0.094730,0.175127
0.062559,-0.203841,0.020544,0.304456,0.618583,0.724335
0.429295,0.235849,0.750344,-0.522641,0.028500,0.852077
0.010588,0.470333,0.293519,0.447056,-0.685790,0.574311
-0.072448,0.254580,-0.479762,0.704103,-0.688269,-0.174711
0.398997,-0.317527,0.794053,-0.307542,0.751656,0.583465
-0.156365,-0.445321,0.595896,-0.658979,0.751831,0.022292
0.534513,-0.355106,0.278015,-0.117430,0.243352,0.962803
-0.024276,-0.011676,0.756555,0.492100,0.045812,-0.869332
-0.393039,-0.062177,0.463520,-0.379341,0.924714,-0.031674
-0.299109,-0.601327,0.575684,0.804858,-0.501566,-0.317230
0.115551,0.357240,0.834988,-0.035423,0.193536,0.980453
-0.092092,0.413431,-0.974518,0.346552,-0.230489,-0.909272
0.391770,0.468081,0.408584,0.529960,0.751968,-0.392028
0.178548,0.128446,0.727763,-0.492055,0.275518,-0.825816
0.588256,0.562682,0.556133,0.738472,0.609897,0.287549
-0.167522,-0.452433,0.471514,0.511121,0.699752,-0.499102
-0.604868,0.842809,0.322361,0.068773,-0.990054,-0.122736
0.404575,0.230396,0.663586,-0.146990,0.216701,0.965109
0.140519,-0.569082,0.242834,0.918885,0.095877,-0.382697
0.255494,0.243791,0.696197,0.979195,-0.201519,-0.023801
0.584836,-0.576432,0.449672,-0.014527,0.331862,0.943216
0.125432,0.137692,0.866453,-0.784573,0.157345,0.599739
0.182857,-0.184873,0.853775,0.839034,0.543821,-0.016770
0.911896,-0.386995,0.450919,0.795332,0.088632,0.599659
0.078529,-0.611759,0.430528,0.724564,0.579397,0.373238
0.237753,-0.206686,0.768418,-0.479012,0.877305,-0.029732
-0.198958,-0.448403,0.752253,-0.791163,-0.048917,-0.609646
-0.054064,-0.128325,0.536862,0.440437,0.108190,-0.891241
0.562275,0.145871,0.678631,0.502921,0.096868,-0.858887
0.010588,-0.198743,0.576600,0.755814,0.413586,0.507634
0.025034,0.339577,0.472710,-0.401704,0.899340,0.172691
-0.003231,-0.982454,0.429510,0.182256,0.927492,0.326408
0.030743,-0.188785,0.470648,0.840614,-0.285319,-0.460393
-0.066490,-0.926974,0.592842,0.627086,0.370975,-0.684938
-0.891610,0.245926,0.299730,0.936570,-0.306490,-0.170002
-0.391902,0.439512,0.749860,-0.625283,-0.726178,-0.285808
-0.115675,-0.662852,-0.049412,-0.810938,0.120886,-0.572509
-0.116565,0.302947,-0.376839,0.033787,-0.815811,0.577331
0.276416,-0.087309,0.683443,0.732942,-0.029938,-0.679632
0.449196,-0.472940,0.287154,0.300131,0.575396,0.760816
-0.323953,-0.475786,0.418589,0.572859,-0.260673,-0.777098
