0.307140,-0.207446,0.787293,-0.156403,0.509914,-0.845887
0.362106,-0.211796,0.762880,0.986322,-0.091392,0.137171
0.381938,-0.222685,0.729300,0.868705,0.392907,0.301621
0.261794,-0.253313,0.666905,-0.537929,-0.555715,0.633887
0.090329,-0.337800,0.858735,0.899105,-0.117840,0.421574
0.073558,-0.353765,0.819434,0.930159,-0.088050,-0.356442
0.160166,-0.355067,0.799994,0.794447,-0.148026,0.589018
0.030108,-0.387733,0.736430,0.267776,0.201393,0.942198
0.426843,-0.343169,0.782380,0.886334,0.445132,-0.127553
-0.012755,-0.421843,0.651418,-0.735969,0.058261,0.674504
-0.014650,-0.436507,0.612717,0.578337,-0.798388,0.167640
0.093826,-0.434327,0.598998,-0.413335,0.886352,-0.208651
0.014801,-0.460021,0.544929,0.037927,-0.221924,0.974326
-0.137130,-0.567144,0.716300,0.793813,0.163682,0.585722
0.165563,-0.357398,0.817667,0.832455,0.553958,-0.012247
0.091931,-0.375977,0.764827,0.715794,-0.304606,-0.628374
0.382810,-0.351009,0.790139,0.552793,-0.828220,0.092038
0.236422,-0.377864,0.722830,-0.511347,0.856809,0.066345
-0.039292,-0.420825,0.626016,0.821100,-0.275635,0.499820
0.013342,-0.424457,0.599926,-0.115622,-0.939170,0.323406
0.156085,-0.417343,0.592108,-0.724004,0.585107,0.365332
-0.144565,-0.463653,0.488554,0.804926,-0.534138,-0.258439
0.449296,0.132078,0.653066,-0.117517,-0.079560,0.989879
0.322011,0.110886,0.588723,0.599654,0.451666,-0.660615
0.679523,0.141949,0.629162,0.986225,-0.149943,-0.069833
0.663045,0.132956,0.587135,0.917779,0.050751,-0.393834
0.509953,0.108565,0.516592,0.307393,0.910978,0.275006
0.938324,0.139335,0.532977,-0.303218,0.773426,0.556660
0.383103,0.070822,0.371102,0.008630,-0.432084,0.901792
0.406286,0.065453,0.338212,0.866326,0.492199,-0.084970
0.014944,0.014935,0.212611,0.940860,0.004183,-0.338769
0.119781,0.018133,0.195717,0.991903,0.095371,0.083860
0.317490,0.031919,0.201528,-0.146874,-0.122342,-0.981560
0.283081,-0.029045,-0.088463,0.548227,-0.739671,0.390300
0.215572,-0.045010,-0.145347,0.849178,0.485438,-0.207957
0.232631,-0.067948,-0.266095,0.952259,-0.296242,-0.073779
0.227092,-0.076950,-0.308211,0.808964,0.467719,-0.356113
0.258875,-0.082319,-0.343917,-0.159341,-0.987203,0.006331
0.035941,0.148044,0.863168,0.908236,-0.303308,0.288290
0.180434,0.156470,0.855919,0.959321,0.268962,0.085809
0.051253,0.135277,0.792745,0.970764,0.041190,0.236475
0.324053,0.157196,0.814342,0.776771,0.282443,-0.562897
0.200118,0.136145,0.750658,0.206609,0.863422,-0.460235
0.344463,0.144269,0.745027,-0.030376,-0.972492,0.230946
0.320262,0.133965,0.702072,0.328038,-0.673956,0.661948
-0.129548,0.563346,0.609991,0.204931,-0.241183,0.948596
0.022820,0.572489,0.605587,-0.024822,0.980065,0.197122
0.066417,0.571329,0.578419,0.876932,-0.401134,0.264729
0.330465,0.127144,0.666126,0.830855,-0.311610,0.461063
-0.301596,-0.617086,-0.965628,0.045935,-0.032348,0.998421
0.028213,0.654504,-0.983481,0.293704,0.270735,-0.916755
0.310637,0.438361,-0.962632,-0.225139,-0.360335,-0.905246
0.103304,0.488303,-0.977430,0.284474,-0.024404,-0.958373
0.025298,0.484529,-0.979377,-0.286241,-0.022313,0.957898
-0.311509,-0.461181,-0.964579,0.443406,-0.126498,-0.887350
0.101262,-0.207012,0.757218,-0.619542,0.776229,-0.116778
0.014508,-0.029338,0.935808,0.185588,0.873729,0.449616
0.103010,-0.093934,0.911665,0.860255,-0.057497,-0.506611
0.035212,-0.032527,0.812934,0.466045,0.827686,0.312631
0.309619,-0.242575,0.830158,-0.079479,0.506162,0.858768
0.414887,-0.316173,0.768691,0.379120,0.791653,0.479118
0.317784,-0.236045,0.704588,0.987306,-0.019438,-0.157639
0.338488,-0.239235,0.579766,-0.325894,0.579942,-0.746632
0.382957,-0.261880,0.461146,0.878009,-0.336506,-0.340388
0.366627,-0.133272,0.455844,0.928769,-0.358633,0.093652
0.407016,-0.160418,0.421785,0.984477,0.017021,0.174686
0.091201,0.025389,0.951774,0.878072,-0.230188,-0.419527
0.196180,-0.052125,0.931225,-0.638708,0.587139,0.497313
0.168913,-0.026724,0.884646,0.765517,-0.200424,-0.611404
0.201284,-0.047483,0.848760,0.224363,0.971628,-0.074836
0.253771,-0.084206,0.817038,0.788637,0.278976,0.547928
0.384416,-0.177252,0.760094,-0.678995,0.248263,-0.690891
0.359481,-0.153587,0.713005,0.905558,0.423620,0.022593
0.469711,-0.226317,0.608523,-0.275541,-0.842395,0.463085
0.143982,0.076342,0.960461,0.877479,0.462471,0.127088
0.228258,0.014935,0.937336,0.507467,0.282763,-0.813955
0.171685,0.063274,0.884376,0.984354,-0.060599,0.165457
0.247213,0.008839,0.857507,0.782354,-0.238977,0.575163
0.229423,0.026984,0.812335,0.467336,0.008407,0.884040
0.297369,-0.017146,0.740623,0.806216,-0.532805,-0.257166
0.289204,-0.006400,0.695481,0.793622,-0.455460,0.403386
0.460963,-0.131960,0.648992,-0.258330,-0.755304,-0.602314
0.446088,-0.104096,0.471151,-0.383605,0.793498,-0.472449
0.431653,-0.087396,0.423433,0.781285,-0.622907,-0.039759
0.234091,0.154724,0.672387,0.108030,-0.079483,0.990965
0.548299,-0.081300,0.653275,0.761160,-0.325805,0.560791
0.598455,-0.103653,0.493257,0.116647,-0.844479,0.522732
0.593062,-0.094803,0.449643,0.856630,-0.514623,-0.036725
0.229864,0.135853,0.882369,0.921054,-0.113032,0.372669
0.167312,0.189277,0.826264,-0.528554,0.377912,-0.760140
0.284976,0.101743,0.809879,0.316488,0.796050,0.515888
0.187580,0.182163,0.747633,-0.676052,0.336456,0.655554
0.312240,0.089552,0.730948,0.126661,-0.343063,0.930734
0.248232,0.192467,0.874581,-0.067994,0.698890,0.711990
0.221552,0.217576,0.825994,0.798553,-0.392789,0.456102
0.266021,0.187240,0.792295,0.997595,0.052542,0.045205
0.205511,0.238919,0.736490,-0.693433,0.557482,-0.456470
0.355401,0.126125,0.727054,0.270197,0.674920,-0.686641
0.244005,0.226001,0.575423,0.899639,0.401235,-0.172224
0.653132,-0.081885,0.533486,0.979591,0.174842,0.099152
0.534737,0.020020,0.421665,0.770659,-0.284869,-0.570030
0.301160,0.268678,0.769799,-0.657260,-0.549269,0.516054
0.351463,0.233984,0.737298,-0.199259,-0.772060,0.603506
0.502953,0.124680,0.683230,-0.057006,-0.266208,0.962228
0.390975,0.250968,0.269316,-0.616524,0.739626,0.269912
0.343591,0.328048,0.791397,-0.092756,-0.910773,0.402354
-0.056205,0.643766,0.663730,-0.003780,0.999415,0.033993
-0.035941,0.632585,0.624129,0.920432,0.390901,-0.001016
0.504413,0.215689,0.698627,-0.349568,0.272644,0.896364
0.750240,0.033080,0.664748,0.929809,0.274985,0.244621
0.679670,0.099129,0.522104,-0.641908,-0.148395,-0.752285
0.058105,0.688614,0.673345,-0.205545,0.975156,0.082596
0.471753,0.370575,0.720344,-0.310138,0.408958,0.858235
0.003717,0.739859,0.577520,-0.443390,0.798899,0.406405
-0.058394,0.792991,0.519857,-0.206363,0.637420,0.742368
0.647739,0.246467,0.631558,0.965338,0.099560,-0.241269
0.603265,0.289579,0.534325,0.917968,-0.005517,-0.396617
0.554275,0.341542,0.393837,0.147974,0.435226,0.888078
0.349714,0.510364,0.260180,0.904895,0.386777,-0.177675
0.395785,0.466234,0.718187,0.442421,0.876901,-0.187907
0.467668,0.414564,0.690329,0.558538,0.774031,-0.298179
-0.019901,0.798502,0.541155,-0.163464,0.865237,0.473967
0.503972,0.394966,0.612507,0.921745,-0.002749,-0.387788
0.563170,0.356639,0.539417,-0.352326,-0.676134,0.647078
0.628054,0.310337,0.511350,0.793259,-0.563088,0.231672
0.709998,0.255611,0.440927,-0.802668,-0.138747,-0.580063
0.558213,0.382482,0.319610,0.080930,-0.851302,-0.518396
0.133049,0.758438,0.548494,0.352177,0.935027,0.041178
0.544508,0.442720,0.593995,-0.034014,0.964127,0.263252
0.632134,0.378123,0.569312,0.870985,-0.398388,-0.287528
0.625865,0.387125,0.525668,-0.671912,0.692695,-0.262122
0.731574,0.313527,0.462464,0.231171,0.058021,-0.971181
0.688853,0.350835,0.410852,0.787803,-0.003678,-0.615916
0.493769,0.541427,0.590341,0.889010,0.455798,0.043694
0.596266,0.465800,0.570511,0.276843,0.887787,-0.367684
0.661733,0.418045,0.541005,-0.701786,0.687461,-0.186799
0.764817,0.346335,0.475554,0.447429,-0.358718,-0.819225
0.673253,0.421669,0.412769,-0.443377,0.569785,0.691926
0.264562,0.747550,0.233460,0.855386,0.503539,-0.121505
0.348254,0.712713,0.583721,0.460939,0.884423,-0.073011
0.479188,0.615317,0.569462,0.808596,-0.020362,0.588012
0.698767,0.447796,0.575393,0.049826,-0.951952,0.302168
0.758111,0.405704,0.544450,-0.044132,0.936155,0.348808
0.816285,0.368838,0.470761,0.149227,-0.812602,0.563392
0.751112,0.423273,0.412080,0.605734,-0.526283,-0.596752
0.695853,0.470442,0.355076,0.709198,-0.376944,0.595778
0.785231,0.404978,0.332221,0.905308,-0.420007,-0.063342
0.397827,0.735217,0.562003,-0.480629,0.754457,-0.446980
0.711453,0.495267,0.586536,0.190955,0.729054,-0.657279
0.795728,0.434011,0.561105,0.083220,-0.612545,0.786043
0.917331,0.347637,0.503262,0.960690,-0.028510,-0.276157
0.833345,0.416593,0.440956,0.810549,0.079478,-0.580253
0.752425,0.483218,0.380478,0.909697,-0.404688,-0.093164
0.779834,0.465941,0.341956,0.969751,-0.211891,0.121178
0.480354,0.734198,0.562303,-0.359843,0.437512,0.824073
0.557924,0.676857,0.537081,0.102710,-0.346057,0.932575
0.725158,0.550287,0.529742,0.363521,0.644616,0.672549
0.756652,0.538237,0.405789,-0.072697,0.861428,0.502650
0.755197,0.542880,0.362685,0.970678,0.109315,-0.214091
0.704311,0.588898,0.530761,-0.388245,-0.920227,-0.049477
0.715390,0.594408,0.357832,0.566478,0.235347,0.789756
0.907124,0.479302,0.625537,-0.802897,0.391350,0.449668
0.677338,0.658712,0.531869,-0.291030,-0.952618,-0.088437
0.644820,0.686151,0.480766,0.746083,0.465406,0.476190
0.699791,0.654362,0.363074,0.251417,0.323902,0.912073
0.817598,0.566686,0.346569,0.981691,0.138196,-0.131090
0.778815,0.602683,0.344412,0.964556,0.191557,0.181488
0.690896,0.701541,0.347707,-0.166445,-0.370711,0.913712
-0.438359,-0.042397,0.640635,-0.696311,0.653491,0.296817
-0.339066,0.003178,0.653994,0.408066,0.910127,-0.071765
-0.334403,0.056602,0.611758,0.814601,0.489016,0.311910
-0.245753,0.334577,0.748292,0.202009,0.893041,0.402083
-0.245606,0.326888,0.682242,0.504389,-0.852465,-0.137459
-0.270101,0.015953,0.694373,0.577453,-0.198173,-0.792007
-0.273457,-0.031367,0.667803,0.328050,0.898112,-0.292879
-0.268500,0.024804,0.623860,0.148051,0.778772,0.609586
-0.268353,0.019435,0.588753,0.365552,0.853007,-0.372492
-0.284972,-0.184942,0.584859,-0.328689,-0.239800,-0.913487
-0.199531,0.110594,0.823868,0.657812,-0.735903,-0.160409
-0.182765,0.324415,0.758117,-0.546955,-0.676669,0.492909
-0.191366,0.218452,0.739036,0.765031,0.057941,0.641382
-0.171975,0.447079,0.669032,0.842992,-0.375181,0.385492
-0.201279,0.076049,0.690150,-0.919833,0.369894,-0.130713
-0.209591,-0.034273,0.673076,0.942546,-0.331166,0.043992
-0.223154,-0.209475,0.666066,0.918920,-0.314446,0.238139
-0.200555,0.068359,0.587854,-0.441803,0.891763,-0.097825
-0.220676,-0.181318,0.592287,-0.092023,0.596115,0.797608
-0.253771,-0.620134,0.485679,-0.610974,0.763669,-0.208615
-0.091054,0.146599,0.831536,0.081627,0.259846,0.962194
-0.094116,0.111037,0.803259,-0.544930,0.611780,0.573390
-0.096011,0.088825,0.773723,0.388332,0.550408,-0.739087
-0.072682,0.366367,0.696500,0.363359,0.258339,-0.895115
-0.103299,-0.022516,0.721842,0.346898,0.581863,-0.735593
-0.110593,-0.119335,0.701682,0.756536,-0.454395,0.470296
-0.128377,-0.353039,0.666755,-0.556214,-0.525682,-0.643649
-0.111612,-0.142991,0.600225,0.269192,0.773253,-0.574121
-0.055333,-0.159107,0.906962,-0.058077,0.771449,0.633635
-0.029085,0.165179,0.823808,0.483753,0.554051,0.677503
-0.037980,0.054857,0.805535,-0.520225,-0.485547,0.702573
-0.038273,0.051224,0.770997,0.243404,-0.662212,-0.708682
-0.045415,-0.051983,0.753055,0.616392,0.542833,0.570432
-0.051684,-0.136754,0.732146,-0.607804,0.070546,0.790947
-0.067432,-0.342876,0.728552,0.890732,-0.139767,-0.432506
-0.068019,-0.354784,0.696620,0.658373,0.183299,-0.730032
-0.071223,-0.402830,0.668882,0.121091,0.884854,0.449857
-0.070497,-0.391357,0.631798,0.962561,-0.037264,0.268492
-0.100821,-0.769935,0.655462,-0.490525,0.083262,-0.867440
-0.093239,-0.690100,0.608942,0.885441,0.296946,0.357515
-0.069327,-0.396442,0.528664,0.715334,0.361155,-0.598217
-0.071663,-0.432006,0.498529,-0.036041,0.887365,0.459657
-0.076473,-0.498339,0.474596,0.241396,-0.832243,0.499099
-0.018882,-0.037897,0.939193,-0.812297,0.560857,0.160038
-0.019318,-0.049804,0.907771,-0.827103,-0.111699,0.550840
-0.013632,0.017407,0.864396,-0.333254,0.439527,0.834121
-0.002841,0.159225,0.808111,0.584641,-0.624250,0.518176
-0.016257,-0.016420,0.801701,0.572662,-0.394983,0.718364
-0.010276,0.063566,0.754672,-0.561951,0.587126,-0.582661
-0.035065,-0.266957,0.769859,-0.725639,0.094576,-0.681545
-0.048040,-0.436214,0.760843,-0.817606,-0.406209,0.408062
-0.041334,-0.356237,0.715072,0.427748,0.537762,0.726529
-0.053874,-0.519540,0.706116,-0.201725,0.499662,0.842404
-0.038273,-0.318636,0.639706,0.914077,0.024881,-0.404778
-0.079245,-0.854998,0.618648,0.539869,-0.805399,-0.244691
-0.051831,-0.511407,0.529113,0.807357,-0.073658,-0.585448
-0.049793,-0.490799,0.491490,0.799334,-0.600794,-0.010584
-0.047457,-0.466842,0.453208,0.804158,-0.278564,0.525101
0.092950,0.021907,0.880931,-0.243351,0.952686,0.182128
0.079975,-0.141396,0.870567,-0.734575,-0.021379,0.678191
0.093391,0.022776,0.812425,0.899632,-0.367995,0.235036
0.073852,-0.221232,0.815810,0.319956,-0.135877,0.937638
0.069478,-0.290479,0.791397,0.673721,-0.738152,0.035084
0.064521,-0.360587,0.768571,0.763046,-0.517765,-0.386885
0.063498,-0.378440,0.736190,0.448138,0.616564,-0.647318
0.071374,-0.284668,0.686915,0.946058,-0.211670,0.245296
0.064958,-0.369154,0.664718,0.844049,0.063174,-0.532531
0.065687,-0.359568,0.629341,-0.441029,0.879279,0.179894
0.048191,-0.576145,0.629222,-0.558559,0.828270,-0.044506
0.056499,-0.483968,0.579377,0.922277,-0.078171,0.378542
0.071227,-0.315004,0.446378,-0.294566,-0.757884,0.582101
0.063498,-0.416767,0.426608,0.002570,0.160449,0.987041
0.064374,-0.410813,0.390872,0.783876,-0.344897,-0.516317
0.094703,0.054857,0.945244,0.792532,-0.565159,-0.229103
0.084349,-0.081300,0.930896,0.058028,-0.998206,0.014739
0.184224,0.029598,0.965044,0.728315,0.685192,-0.008356
0.184661,0.028437,0.932124,0.131110,0.555454,0.821146
0.182182,-0.008579,0.903068,0.387907,0.910102,0.145746
0.181016,-0.033404,0.873443,0.543721,-0.779043,0.312187
0.187433,0.048327,0.826354,-0.367344,0.909322,0.195429
0.178249,-0.066061,0.808681,0.328441,-0.715404,0.616704
0.160895,-0.300783,0.809250,0.945728,0.097491,0.309990
0.172851,-0.157361,0.753893,0.395840,-0.517150,-0.758859
0.165563,-0.255058,0.735052,-0.461498,-0.681370,0.568115
0.155066,-0.396442,0.721632,-0.110719,0.802308,0.586552
0.162644,-0.307464,0.674154,-0.195453,0.978068,-0.071975
0.163814,-0.290621,0.636082,0.469561,0.838202,-0.277363
0.166875,-0.251718,0.594624,0.779119,0.622438,-0.074464
0.161919,-0.330393,0.571319,-0.346046,0.848381,0.400626
0.240944,-0.017430,0.938235,-0.548480,-0.210206,0.809311
0.242545,-0.003644,0.869638,0.864557,0.291821,-0.409124
0.250568,0.089693,0.820692,0.586516,0.744293,0.319418
0.231613,-0.150983,0.823538,0.079718,-0.406312,0.910250
0.222282,-0.285545,0.808950,0.173708,0.952065,-0.251790
0.232778,-0.162589,0.755301,0.464822,0.055135,-0.883686
0.225632,-0.261012,0.735261,-0.405692,0.004915,0.913997
0.213094,-0.434620,0.694463,0.867846,-0.201362,-0.454199
0.221988,-0.321391,0.641503,-0.253227,-0.782770,0.568460
0.224903,-0.284668,0.601693,0.628912,0.691743,0.354909
0.229570,-0.243009,0.559517,-0.513211,0.421618,-0.747564
0.337758,0.053404,0.883987,0.446451,0.140201,-0.883756
0.332507,-0.011193,0.858705,0.816614,0.486222,-0.311014
0.332943,-0.005966,0.824856,0.977127,0.010185,-0.212412
0.308595,-0.330685,0.840433,-0.163856,-0.432071,0.886829
0.310490,-0.313993,0.803109,0.170835,-0.446774,0.878185
0.313262,-0.286847,0.765276,0.873625,0.472078,0.117994
0.309036,-0.346359,0.739216,-0.661073,-0.009567,0.750260
0.321428,-0.197425,0.681163,-0.631766,0.586576,-0.506756
0.315159,-0.275525,0.623920,-0.536405,0.831327,0.145485
0.320405,-0.225591,0.581953,-0.360404,0.794854,-0.488176
0.319821,-0.239820,0.548404,0.133981,-0.943465,0.303187
0.413575,-0.217174,0.585308,-0.173147,0.168702,0.970340
0.410224,-0.265513,0.558679,0.348497,-0.899541,0.263395
0.478605,-0.343895,0.805416,0.713749,0.241081,0.657603
0.486041,-0.298604,0.590910,-0.623595,-0.195054,0.757023
0.065247,-0.296425,-0.090950,0.846131,0.056786,-0.529942
0.496537,-0.205124,0.861940,-0.680840,0.222289,0.697886
0.437050,-0.331412,0.779984,0.053050,0.297772,0.953162
0.036235,0.399750,-0.977520,-0.268669,-0.038856,0.962449
0.265874,0.520092,-0.959726,-0.024385,-0.951449,0.306839
0.208136,0.665977,-0.965058,0.042489,0.493708,0.868589
0.148503,0.907229,-0.986746,-0.447871,0.080405,-0.890475
0.179997,0.614591,-0.967035,-0.297967,0.326857,0.896872
0.177078,0.468555,-0.955742,0.416809,-0.701669,0.577867
0.162938,0.512978,-0.957061,-0.754022,0.647585,0.109930
0.172122,0.525603,-0.974704,0.550613,-0.108515,-0.827678
0.149233,0.644200,-0.973685,0.258415,-0.070890,-0.963430
0.202886,0.490191,-0.963501,0.687295,0.726096,-0.020229
0.199095,0.560298,-0.959697,0.838911,0.162742,0.519369
0.572647,0.270708,0.397312,-0.374428,0.311376,0.873412
0.581689,0.291316,0.523691,-0.598032,0.755004,-0.268936
0.570899,0.307573,0.562183,-0.158397,-0.815955,0.555993
0.682001,0.233691,0.628713,0.993783,0.071996,0.084927
0.015531,0.738841,0.526327,0.193363,0.014402,0.981022
-0.019754,0.773686,0.561225,-0.452178,0.891047,-0.039635
0.512431,0.386983,0.716090,0.218158,-0.672590,-0.707128
-0.644962,-0.311380,0.536572,0.504131,0.786963,-0.355726
-0.691768,0.018426,0.565149,0.029500,-0.980685,0.193357
-0.545234,-0.361748,0.539807,-0.494947,-0.699452,0.515553
-0.535756,-0.331261,0.569133,-0.615416,0.780922,-0.106887
-0.640589,0.064585,0.510062,0.385211,-0.687411,-0.615693
-0.634319,0.105951,0.537021,-0.482464,0.786422,-0.385705
-0.604284,0.068642,0.582672,0.131165,-0.984547,-0.116028
-0.382227,-0.471201,0.492598,0.277961,0.751611,-0.598179
-0.213823,-0.894920,0.666515,-0.693452,-0.687235,-0.216408
-0.427568,-0.086093,0.546187,-0.033767,0.990639,0.132267
-0.430194,-0.020628,0.565868,-0.314008,-0.638371,0.702766
-0.433402,0.048761,0.584619,0.179299,0.933976,-0.309096
-0.403220,0.009999,0.630240,0.106933,0.947214,0.302244
-0.393889,0.037730,0.658398,0.860118,-0.381476,-0.338635
-0.524530,-0.023092,0.551849,0.767087,0.376918,-0.519144
-0.571335,0.189561,0.538129,-0.885051,0.453188,0.106327
-0.376247,-0.212965,0.772855,-0.253596,0.132275,-0.958224
-0.444628,0.187966,0.787442,-0.085585,0.978258,0.188906
-0.171828,-0.873285,0.651149,-0.691647,-0.166723,0.702729
-0.393307,-0.046756,0.523452,-0.022665,0.999655,-0.013257
-0.354083,-0.111494,0.575603,-0.378572,0.506999,0.774361
-0.385142,0.046006,0.573446,-0.389229,-0.763935,0.514689
-0.369541,0.056886,0.607415,0.655946,0.692515,-0.300263
-0.345629,0.038741,0.648033,-0.223719,-0.031626,-0.974140
-0.289346,-0.082319,0.712466,0.273531,0.928589,0.250805
-0.134505,-0.823643,0.640095,-0.667967,0.045500,0.742799
-0.395349,0.070246,0.462254,0.470633,0.866843,0.164582
-0.323319,-0.040944,0.561225,-0.509684,-0.460183,0.726948
-0.330171,0.040628,0.578598,-0.578435,-0.703175,0.413469
-0.299990,0.004773,0.623470,0.442723,0.810992,0.382477
-0.247938,-0.104380,0.683859,0.790130,-0.098992,-0.604893
-0.323466,0.196383,0.648303,-0.564942,-0.452461,0.690014
-0.343293,0.320065,0.655612,0.782826,-0.598796,-0.169193
-0.169790,-0.029338,0.688502,0.845501,-0.352148,0.401397
-0.188452,0.089552,0.695452,0.870276,-0.109089,0.480333
-0.215425,0.234125,0.696380,0.358120,0.544824,-0.758233
-0.125316,0.061537,0.806584,0.465077,-0.457892,-0.757653
-0.118611,0.099855,0.833663,0.549217,-0.426037,-0.718925
-0.058248,-0.037028,0.900222,0.935304,-0.326847,-0.135561
-0.249687,-0.426052,0.491550,0.219732,-0.631004,0.744011
-0.067578,-0.947468,0.652976,0.419469,0.410342,-0.809732
-0.379744,0.044987,0.413518,-0.545658,0.829309,0.120430
-0.100679,-0.781258,0.649322,0.224344,-0.348404,0.910101
-0.149375,-0.567144,0.634314,-0.598462,0.528631,0.601990
-0.259748,-0.154314,0.572428,0.714264,0.699857,-0.005237
-0.269808,-0.063448,0.585967,0.878750,0.463903,-0.112218
-0.221258,-0.100030,0.666036,0.747061,0.113563,0.654983
-0.196470,-0.121515,0.705786,-0.181681,0.973557,-0.138491
-0.430777,0.693841,0.551729,0.410851,-0.345491,-0.843705
-0.266017,0.221642,0.697848,0.657236,-0.050243,-0.752009
-0.210757,0.102611,0.761232,-0.533293,-0.685179,0.496114
-0.181305,0.121190,0.825036,-0.652605,0.653896,0.382788
-0.135817,-0.503566,0.509283,-0.106575,-0.918392,-0.381048
-0.311656,0.111754,0.397642,0.230296,-0.966759,0.111086
-0.039733,-0.688789,0.626256,0.995069,0.085825,-0.049714
-0.027630,-0.665275,0.656990,0.580248,-0.341901,0.739199
-0.152872,-0.207880,0.584260,0.358393,0.413628,0.836939
-0.044249,-0.491233,0.688053,0.973516,-0.196042,0.117618
-0.053290,-0.404567,0.702371,-0.665851,0.468677,0.580503
-0.046002,-0.369154,0.728612,0.964262,0.228709,0.133755
-0.088282,-0.174638,0.718966,0.571373,0.429075,-0.699591
-0.115255,-0.029045,0.719445,-0.141821,-0.656189,0.741150
-0.176059,0.225124,0.696230,0.897935,-0.107629,0.426766
-0.150835,0.204516,0.736999,-0.710842,-0.050032,-0.701570
-0.080264,0.039618,0.810807,-0.493018,0.470439,0.731861
-0.072392,0.070530,0.837886,0.685352,0.704820,0.183090
-0.026317,-0.018883,0.892194,0.584919,-0.806537,0.085839
0.019612,-0.052559,0.968489,-0.391330,0.780664,0.487262
-0.338777,0.088240,0.407407,0.165584,-0.986191,0.002941
-0.050665,-0.768340,0.649142,-0.279918,-0.271800,-0.920744
-0.074142,-0.634505,0.652017,0.196170,0.823459,0.532384
-0.206094,-0.154314,0.574015,0.332631,0.841896,0.424934
-0.095134,-0.449131,0.678947,0.911654,0.333478,-0.240165
-0.090472,-0.404425,0.704528,0.830894,0.384198,0.402501
-0.087116,-0.354057,0.728701,-0.595457,0.498079,0.630355
-0.040315,-0.747724,0.641653,0.658784,-0.373792,-0.652904
-0.052561,-0.650904,0.653545,-0.180057,-0.882608,0.434262
-0.185390,-0.174497,0.574674,0.492573,0.827784,0.268601
-0.080558,-0.441441,0.674813,0.736373,0.066517,-0.673298
-0.068455,-0.421843,0.704977,0.932489,0.317188,0.172789
-0.071080,-0.351878,0.724448,-0.478478,-0.785640,0.392209
-0.121672,-0.130800,0.708751,-0.493405,-0.177821,0.851429
-0.160602,0.054272,0.701413,0.903623,0.023656,-0.427675
-0.203176,0.247335,0.691018,-0.407775,0.911917,-0.046128
-0.173287,0.210611,0.734273,0.941570,-0.242811,0.233428
-0.104759,0.053988,0.806164,0.362183,-0.668816,-0.649237
-0.091054,0.067774,0.837227,0.111013,-0.871656,0.477380
-0.034629,-0.052418,0.900042,0.979431,-0.148311,-0.136817
-0.143253,-0.466701,0.509253,-0.501759,-0.706457,-0.499156
-0.308302,0.105659,0.406538,0.101200,-0.994845,0.006506
-0.030255,-0.698224,0.637459,0.802596,0.293479,-0.519335
-0.067725,-0.522438,0.630510,-0.079863,0.796309,0.599594
-0.158417,-0.176676,0.584409,0.476366,0.839281,0.262074
-0.012029,-0.573248,0.715371,0.794305,0.565194,-0.222790
-0.052997,-0.383091,0.706415,-0.766901,0.463379,0.444009
-0.049352,-0.334752,0.729660,0.704338,0.594748,-0.387533
-0.119630,0.005357,0.720644,-0.694078,-0.111849,0.711158
-0.104323,-0.424023,0.513986,-0.058925,0.960576,-0.271702
-0.040169,-0.561049,0.584110,-0.502293,0.458652,-0.733035
0.016839,-0.676739,0.648602,0.997951,-0.063277,-0.009501
-0.041187,-0.375099,0.647554,0.856584,-0.439635,-0.270158
-0.009840,-0.414729,0.691917,0.634051,-0.737377,0.232926
-0.021066,-0.316891,0.704887,-0.652869,0.176372,0.736651
0.038131,-0.442309,0.769050,-0.252227,0.958169,0.135256
-0.040605,-0.012646,0.776599,-0.428999,-0.903294,-0.004394
-0.027336,0.005357,0.806763,-0.613585,-0.765856,0.192297
0.003717,-0.032961,0.849748,-0.238609,-0.907611,-0.345409
0.001822,0.033664,0.869938,0.497182,0.187684,-0.847104
0.022820,0.025247,0.905734,0.624019,-0.697981,-0.351315
0.061313,-0.037179,0.955159,-0.565545,0.210631,0.797367
-0.179557,0.252705,0.697788,0.850588,0.126846,0.510304
-0.138438,0.185503,0.749340,0.655330,-0.589342,-0.472461
-0.074431,0.044836,0.817577,-0.740882,0.648520,0.174687
-0.045709,0.014500,0.860203,-0.344261,-0.696365,0.629731
-0.059707,-0.396735,0.499098,0.778664,0.135053,-0.612734
-0.034629,-0.412558,0.540256,-0.086563,-0.228802,0.969617
0.034629,-0.567870,0.613076,0.478254,-0.874396,0.081879
0.039879,-0.462341,0.659686,-0.454348,-0.819245,0.349866
0.039586,-0.401519,0.680085,0.715245,-0.547111,0.434849
0.065105,-0.420541,0.720883,0.794961,0.043551,-0.605095
0.102868,-0.299038,0.833123,-0.703991,0.658970,0.264870
-0.003717,0.096373,0.777078,0.197523,0.942508,0.269560
0.062479,-0.052125,0.845735,0.160551,0.922202,0.351805
0.009987,0.174030,0.829649,0.136151,-0.647502,0.749803
0.101262,-0.054012,0.917356,-0.259984,0.810966,-0.524158
0.097906,0.018133,0.936108,0.999594,0.013909,-0.024861
0.122402,-0.001899,0.974390,0.733386,0.519667,-0.438282
0.004011,-0.352604,0.503262,-0.845010,0.528372,-0.082350
0.023550,-0.353472,0.539268,0.106586,0.573751,-0.812065
0.055043,-0.328071,0.605648,-0.361717,0.287141,-0.886967
0.109138,-0.312974,0.710609,0.507256,0.768085,0.390815
0.083619,0.006518,0.776300,-0.662466,0.665455,-0.343960
0.078373,0.084032,0.794332,0.920154,0.321516,-0.223480
0.120217,0.014359,0.846094,-0.443276,0.423260,-0.790163
0.159876,-0.049370,0.895849,0.635688,0.730016,0.250955
0.170666,-0.025563,0.924306,0.053821,0.680130,0.731113
0.178391,0.007103,0.950546,0.117900,0.240262,0.963522
0.190930,0.027134,0.981070,0.166750,-0.879300,-0.446123
0.347235,-0.245481,0.818206,0.106841,0.857597,-0.503103
0.357879,-0.221382,0.846783,-0.784669,0.619703,0.016183
0.287891,0.058489,0.817607,0.682602,0.009159,-0.730733
0.325655,-0.001173,0.865594,0.534843,-0.123752,0.835840
0.323612,0.067340,0.885694,-0.740780,0.415116,-0.528132
0.250710,-0.248963,0.817248,0.824013,0.359622,0.437807
0.228404,-0.118609,0.822609,0.447601,0.376201,0.811249
0.199095,0.031919,0.822160,0.816809,-0.380066,0.434020
0.238465,-0.032961,0.871106,-0.632566,-0.767671,0.102674
0.245318,0.006952,0.897347,-0.190516,0.521765,0.831544
0.264562,0.003612,0.932064,0.936594,-0.300254,-0.180664
0.407016,-0.269571,0.801971,-0.540957,0.448247,-0.711647
0.425677,-0.269571,0.836299,-0.179983,0.881817,-0.435896
0.353064,0.014793,0.804487,-0.585019,-0.095049,-0.805431
0.351463,0.082145,0.824706,0.572072,-0.810336,-0.126844
0.353941,0.134258,0.846993,0.281951,-0.219558,0.933969
0.342279,-0.229799,0.749879,0.525902,0.569559,-0.631688
0.387478,-0.252444,0.825695,0.888536,-0.127176,-0.440829
0.359191,-0.102493,0.826533,0.921508,-0.165962,-0.351111
0.320551,0.079389,0.820063,-0.057906,0.227171,0.972132
0.355690,0.030466,0.866973,0.727293,0.478121,-0.492387
0.339942,0.137740,0.876528,-0.644663,-0.763250,-0.043107
0.381938,-0.230525,0.817307,0.485253,-0.874088,0.022358
0.384416,-0.178563,0.839773,-0.692538,0.560301,0.454371
0.329299,0.051375,0.820692,-0.681732,-0.131068,-0.719765
0.361229,0.014793,0.864546,0.913657,0.061559,-0.401798
0.355837,0.090128,0.881380,-0.476722,0.310296,0.822467
0.386312,-0.226025,0.821022,-0.549213,0.735483,-0.396775
0.336298,-0.010316,0.806644,0.896934,-0.058362,0.438296
0.321281,0.098987,0.817158,-0.486533,0.487344,0.725108
0.356130,0.053262,0.863527,0.236674,-0.140479,-0.961380
0.355254,0.113934,0.883627,-0.142257,0.400635,0.905127
0.423346,-0.327345,0.812125,-0.362315,-0.307583,0.879841
0.341985,0.043968,0.795920,-0.801953,0.431090,0.413560
0.335569,0.126568,0.813114,0.741639,0.399385,-0.538947
0.349861,0.145147,0.844746,0.051271,-0.144836,0.988126
0.507328,-0.377429,0.823957,-0.427221,0.900861,0.077022
0.416636,0.085919,0.822190,-0.118011,0.985050,0.125495
0.838449,0.410063,0.595733,-0.730125,0.674435,-0.109797
-0.004007,-0.340262,-0.540540,-0.745237,0.637673,0.194923
0.002263,-0.327496,-0.592122,0.911537,0.403090,-0.081354
0.030549,0.420508,-0.972637,-0.322391,-0.025554,0.946262
0.016839,-0.249397,-0.723743,0.911681,0.406052,0.062926
0.033169,0.292768,-0.966077,-0.044308,0.740021,0.671123
0.021943,-0.289319,-0.754956,0.894759,0.444461,0.043129
-0.159872,-0.438394,-0.569626,0.327108,0.944511,-0.029993
-0.130273,0.258366,-0.976441,0.089320,-0.272993,-0.957861
-0.127795,0.134258,-0.969222,0.484717,0.466844,-0.739667
-0.601223,-0.344329,0.572338,-0.406219,-0.901060,0.151914
-0.429611,-0.368862,0.486248,0.910096,-0.053889,0.410879
-0.426697,-0.460162,0.484480,0.923391,0.289434,-0.252146
-0.423341,-0.522003,0.469533,-0.707233,-0.554789,0.438213
-0.445652,-0.057352,0.556012,0.463307,0.146933,-0.873932
-0.443315,-0.177544,0.563381,0.483303,-0.577137,-0.658279
-0.432383,-0.008872,0.423553,0.899097,-0.180775,-0.398680
-0.340089,0.176209,0.773633,-0.420787,-0.010617,-0.907097
-0.326527,0.192759,0.659566,0.811359,0.089130,-0.577713
-0.323177,0.130776,0.645367,0.198335,-0.406428,0.891897
-0.321423,-0.054012,0.677030,-0.133598,0.983300,0.123583
-0.317049,-0.048936,0.639466,-0.229785,-0.866396,-0.443347
-0.312675,-0.033546,0.597679,0.967733,-0.135671,0.212333
-0.309031,-0.089868,0.581684,0.940253,0.337082,0.047964
-0.303491,-0.016128,0.517431,-0.057953,0.995822,-0.070572
-0.298677,-0.000012,0.473128,-0.802901,-0.596104,-0.003254
-0.293137,0.050214,0.415255,0.541937,0.839937,0.028463
-0.287744,0.085193,0.362205,-0.082084,-0.876067,0.475152
-0.288763,-0.226751,0.445180,-0.142769,0.416096,0.898043
-0.286579,-0.583118,0.507426,0.556955,0.229668,-0.798156
-0.264268,-0.871841,0.390453,-0.417080,0.711477,0.565548
-0.193702,0.113792,0.815211,0.217290,-0.862812,0.456443
-0.188599,0.147610,0.768362,-0.705308,-0.398253,0.586460
-0.185680,0.067633,0.762550,0.895505,0.421420,-0.143094
-0.172558,0.502089,0.566407,-0.075151,0.598521,0.797574
-0.175766,0.103338,0.677629,0.956877,0.251606,0.145189
-0.172411,0.010585,0.675112,-0.374929,0.423918,-0.824452
-0.170515,-0.131092,0.690809,0.414267,-0.910005,-0.016583
-0.166582,-0.170864,0.668612,-0.659305,0.701921,0.269489
-0.162933,-0.215428,0.649561,0.273598,-0.960997,-0.040360
-0.161625,-0.371325,0.672357,0.691001,0.658965,0.297125
-0.156810,-0.368136,0.633805,0.301788,-0.675823,0.672448
-0.147626,-0.157512,0.516921,-0.389371,-0.864679,-0.317365
-0.150688,-0.550886,0.629581,-0.559453,0.655398,0.507411
-0.147916,-0.641034,0.626226,0.742936,0.664254,0.082533
-0.146167,-0.781692,0.642791,-0.578895,0.139806,0.803328
-0.142959,-0.844402,0.630540,0.820277,0.071481,-0.567482
-0.129548,-0.465247,0.444970,0.282410,-0.887576,0.363943
-0.122402,-0.391074,0.376883,0.049946,0.314025,-0.948100
-0.110446,-0.745987,0.359659,-0.794999,0.487998,-0.360326
-0.078079,-0.288300,0.012903,0.157392,-0.846167,0.509145
-0.070933,-0.240980,-0.049283,0.888515,-0.447418,0.101778
-0.043230,0.293203,0.819584,-0.303904,-0.514071,-0.802105
-0.037980,0.294221,0.783728,0.983274,-0.094573,0.155656
-0.041041,-0.066930,0.878595,0.926445,-0.374719,0.035858
-0.034629,-0.005824,0.820273,0.067253,-0.070209,0.995263
-0.030544,-0.037613,0.797208,0.999586,0.008162,0.027608
-0.025151,-0.016704,0.754732,-0.156397,-0.731470,-0.663695
-0.020194,-0.032961,0.724238,0.360566,0.494548,-0.790832
-0.018588,-0.180592,0.743619,0.958844,0.209349,-0.191809
-0.018299,-0.377571,0.780463,-0.498531,0.354077,0.791263
-0.015380,-0.475551,0.780493,0.043897,-0.122905,0.991447
-0.008528,-0.404567,0.717019,0.920204,-0.338023,0.197397
-0.003717,-0.406020,0.681792,0.362230,-0.652025,0.666072
-0.000798,-0.491667,0.678318,0.363260,-0.000672,0.931687
0.004594,-0.495734,0.642702,-0.582627,-0.532410,0.614073
0.010717,-0.457114,0.591419,0.086491,-0.456308,0.885608
0.009115,-0.721162,0.655492,-0.758944,0.279838,-0.587958
0.021360,-0.662812,0.555982,0.931919,-0.269668,-0.242500
0.060730,-0.439262,0.233400,0.780463,-0.423238,0.460160
0.070497,-0.300350,0.135867,0.859728,0.408758,-0.306243
0.114237,-0.220222,-0.191657,0.476696,0.875348,0.080788
0.119924,-0.243151,-0.225207,-0.427807,0.902017,0.057848
0.132173,-0.245764,-0.312315,0.919641,-0.370881,-0.129262
0.071080,0.004923,0.921520,0.280841,-0.192293,0.940294
0.076184,0.006084,0.885754,-0.032136,0.979834,-0.197210
0.083036,0.084466,0.822969,0.868483,-0.492587,0.055629
0.082307,-0.159249,0.875779,0.926619,-0.012423,-0.375797
0.091495,-0.002767,0.782590,-0.696230,0.547849,0.463816
0.094703,-0.105257,0.784118,0.932808,0.309108,-0.185260
0.094410,-0.318202,0.827852,0.993938,0.104473,0.034244
0.099660,-0.308908,0.789959,-0.633687,0.756826,-0.160172
0.104906,-0.309493,0.753564,0.044371,-0.651100,0.757694
0.107531,-0.402538,0.753055,0.725157,0.667232,-0.170142
0.115696,-0.295556,0.675921,0.954684,-0.296583,-0.024836
0.121819,-0.272911,0.629851,0.186259,-0.958401,-0.216274
0.126193,-0.326477,0.612207,0.389929,-0.919497,-0.049805
0.132320,-0.303105,0.566706,-0.024913,-0.613289,0.789466
0.136694,-0.337942,0.543401,0.031005,-0.705993,0.707540
0.140192,-0.412700,0.533756,-0.275902,0.344647,-0.897272
0.189911,0.056886,0.944615,0.161530,0.963389,0.213985
0.195162,0.035986,0.917057,0.994321,-0.024340,0.103601
0.197493,-0.075639,0.922029,-0.390344,0.432978,0.812503
0.202161,-0.101766,0.897466,0.858908,0.484697,-0.165364
0.210326,0.013048,0.821441,0.950595,-0.280733,-0.132507
0.214700,-0.039784,0.804786,0.365320,-0.712111,0.599533
0.217908,-0.114976,0.797508,-0.244906,-0.406030,0.880432
0.218780,-0.284960,0.824017,-0.154451,-0.095327,0.983391
0.224466,-0.277119,0.785316,0.986184,-0.010502,-0.165318
0.231466,-0.220222,0.727473,-0.799463,0.056200,0.598081
0.234091,-0.320665,0.729720,-0.242623,-0.274063,0.930604
0.240797,-0.274071,0.676580,0.013880,-0.796180,0.604901
0.269083,-0.299765,0.497331,0.494674,-0.863580,0.097610
0.274623,-0.313559,0.465399,-0.554786,0.534138,0.637895
0.372020,-0.281478,0.557181,0.135484,-0.987757,0.077334
0.388933,-0.320523,0.457671,-0.610834,0.602065,0.514198
0.301743,0.025096,0.947191,-0.484354,0.328994,-0.810657
0.310637,0.160820,0.864516,0.301448,0.776385,-0.553493
0.312240,0.018426,0.880662,0.552754,0.639200,-0.534684
0.317343,0.005499,0.849808,0.249637,0.954074,-0.165602
0.323324,0.019001,0.809100,0.883982,0.005598,0.467488
0.329446,0.034391,0.768871,0.279206,0.873381,-0.399061
0.325655,-0.298746,0.856638,-0.580941,0.741191,0.336367
0.330905,-0.307464,0.823478,0.586879,-0.809629,-0.008523
0.339070,-0.214560,0.753863,-0.310976,-0.835518,0.452994
0.341985,-0.310069,0.752785,0.918317,-0.286480,-0.273173
0.419261,0.273171,0.857117,-0.560578,0.698859,-0.444239
0.419844,0.099129,0.885544,-0.422781,0.628141,0.653219
0.429322,0.231512,0.802450,0.764947,0.550842,0.333810
0.432677,0.157338,0.794811,0.905995,-0.202342,0.371795
0.436174,0.082295,0.786184,-0.019815,0.638841,0.769084
0.438653,-0.048643,0.798106,-0.166821,-0.600387,0.782116
0.443026,-0.097416,0.779714,-0.060011,0.912086,0.405584
0.459356,0.260979,0.611249,-0.152190,0.842122,-0.517367
0.448860,-0.281770,0.777588,-0.110288,-0.993730,-0.018377
0.453527,-0.321542,0.755810,-0.775187,-0.369811,0.512177
0.466939,-0.069402,0.625298,-0.691664,-0.696927,-0.189457
0.473648,-0.046898,0.579078,0.022960,0.309257,0.950701
0.507181,0.363753,0.749100,0.864015,0.212785,0.456290
0.509076,0.232238,0.762071,0.568545,-0.810583,-0.140400
0.505868,-0.103220,0.848610,0.732286,-0.465139,-0.497396
0.534011,0.893151,0.483881,-0.834402,0.413545,0.364354
0.514327,-0.001031,0.776569,-0.788161,-0.258947,0.558345
0.529051,0.308450,0.625298,-0.228086,0.945185,-0.233671
0.517535,-0.288149,0.809399,0.259483,0.760238,0.595573
0.533424,-0.144878,0.683739,0.702795,0.578533,0.413980
0.541883,-0.047775,0.611249,-0.441132,-0.549790,-0.709319
0.547423,-0.077676,0.584739,-0.193965,-0.297758,0.934729
0.586793,0.477557,0.752156,-0.559734,0.706480,-0.433110
0.592915,0.489748,0.711597,-0.236098,0.970486,0.049143
0.594811,0.347203,0.726994,-0.217166,0.859205,0.463255
0.616828,0.923337,0.481246,-0.631838,0.747857,0.203692
0.598892,0.084617,0.753174,0.170018,0.961642,-0.215265
0.618723,0.783113,0.496432,0.087440,0.478661,0.873635
0.613473,0.385530,0.605048,0.359612,-0.646083,-0.673243
0.610558,0.090128,0.678587,0.091830,-0.993305,0.070089
0.620036,0.004197,0.636201,-0.725493,-0.354338,-0.590003
0.622074,-0.124412,0.646985,-0.168630,-0.327108,0.929820
0.629803,-0.069694,0.590490,-0.540107,0.690946,-0.480499
0.637384,-0.012353,0.532168,0.600259,0.252659,0.758849
0.691915,0.872676,0.492568,-0.318597,0.012405,-0.947809
0.694251,0.736519,0.504820,0.087150,0.883824,0.459630
0.692208,0.457817,0.570511,0.701342,0.645550,-0.302299
0.684773,-0.009740,0.708212,0.085538,0.378312,0.921717
0.707225,-0.048936,0.575783,-0.810140,0.399841,-0.428720
0.742511,0.734198,0.524440,0.286903,0.935983,0.204016
0.729389,0.021030,0.751497,-0.179464,0.653114,-0.735686
0.734635,0.009999,0.718816,0.796534,0.594442,-0.110324
0.741198,0.039175,0.670889,0.852661,0.386582,0.351460
0.747757,0.071548,0.621374,0.427864,-0.841501,-0.329860
0.804187,0.479878,0.582462,-0.486471,-0.873186,0.029876
0.807101,0.384077,0.581474,0.695193,0.087151,-0.713520
-0.183642,0.114368,-0.986536,0.096772,-0.129324,0.986869
-0.467086,-0.082461,-0.952178,0.306887,-0.394720,0.866035
-0.252312,0.170255,-0.989711,0.404603,0.112970,-0.907488
-0.285555,-0.435346,-0.974674,-0.281624,0.416999,0.864176
-0.296056,-0.597630,-0.962782,-0.026704,0.183144,0.982723
-0.364291,0.024370,-0.477066,-0.524598,-0.730067,-0.437949
-0.305676,-0.770370,-0.958349,0.337238,-0.031250,-0.940901
-0.817304,-0.686033,-0.990101,-0.070545,0.174310,0.982161
-0.551067,-0.887655,0.573146,0.230095,0.965559,0.121462
-0.307571,0.171416,-0.259205,0.844002,-0.483476,-0.232189
-0.499016,-0.912480,0.551250,0.046329,-0.954466,0.294700
-0.452646,-0.275382,0.773993,0.835465,0.119760,0.536336
-0.446524,-0.864575,0.574165,-0.869061,0.124928,-0.478672
-0.451480,-0.922642,0.583511,-0.602442,-0.287809,-0.744466
-0.193555,0.095355,-0.247523,0.961107,-0.029463,-0.274601
-0.397970,-0.291206,0.801372,-0.568984,0.765151,0.301331
-0.386454,-0.852819,0.574644,-0.571027,0.698861,-0.430722
-0.391117,-0.921048,0.580216,-0.054550,0.855883,0.514285
-0.164828,0.147034,-0.277568,-0.732647,0.678646,-0.051650
-0.269519,0.750163,0.529563,0.162944,0.621451,0.766321
-0.358315,-0.823351,0.583691,-0.501518,0.723710,0.474050
-0.378725,-0.862546,0.572458,0.940990,-0.293401,-0.168682
-0.292119,0.753362,0.543102,-0.037614,0.813060,0.580963
-0.245753,0.126568,-0.299494,0.745265,-0.666455,0.020462
-0.252606,0.121917,-0.248152,0.935957,-0.271487,-0.224228
-0.365167,0.281012,0.647884,0.867275,-0.400539,-0.295640
-0.411968,-0.823209,0.578658,-0.705198,0.693475,-0.147608
-0.416195,-0.887371,0.584529,-0.018190,0.820597,0.571218
-0.420863,-0.948185,0.593875,0.225371,-0.951608,-0.208927
-0.254791,0.004489,-0.357097,0.982066,0.020096,0.187465
-0.412409,-0.303689,0.801372,0.168355,0.963301,0.209065
-0.414010,-0.873001,0.571918,0.844339,0.290161,0.450442
-0.418678,-0.913641,0.592348,-0.020764,0.991685,0.127001
-0.276224,0.723168,0.550411,-0.023034,0.868367,0.495387
-0.151854,-0.259409,-0.263968,0.980625,0.132458,0.144322
-0.239043,0.334285,0.739246,-0.237580,-0.720173,0.651849
-0.287308,-0.872709,0.607894,-0.087701,-0.929009,0.359514
-0.130420,0.238919,0.574435,-0.298785,-0.300168,0.905884
-0.133628,0.107696,0.541844,-0.629410,0.763711,-0.143489
-0.147916,0.324557,0.757817,0.579795,0.479442,-0.658766
-0.153602,0.060952,0.689850,0.964187,0.159581,0.211844
-0.160166,0.141665,0.780733,0.241031,-0.970496,-0.006479
-0.174017,0.041647,0.850377,0.077527,0.996806,-0.019140
-0.171975,-0.423155,0.628443,0.263135,-0.238135,0.934907
-0.175912,-0.507774,0.624429,-0.409081,0.895816,0.173686
-0.181889,-0.413276,0.718517,0.998577,-0.051446,0.014052
-0.184807,-0.599083,0.658038,0.890000,-0.446058,0.094511
-0.189764,-0.616794,0.691228,0.182275,0.964374,-0.191727
-0.192389,-0.801582,0.632577,0.830017,-0.306249,-0.466137
-0.196764,-0.861386,0.640574,0.762936,0.277249,-0.584004
-0.200408,-0.942816,0.637250,0.470871,-0.205393,-0.857959
-0.012613,0.294372,0.789570,-0.666429,0.741590,0.076914
-0.014508,0.122067,0.730888,0.771315,0.493361,0.402079
-0.021507,0.177662,0.806703,0.778523,0.333485,-0.531686
-0.025881,0.143986,0.828660,0.454642,0.151268,0.877735
-0.033459,-0.019609,0.820692,-0.282509,-0.933406,-0.221228
-0.035648,-0.181026,0.771896,0.832455,0.253170,0.492872
-0.042064,-0.122676,0.845225,0.864406,0.500142,0.051579
-0.042500,-0.373504,0.745566,0.990130,-0.139600,-0.012461
-0.051831,-0.163466,0.903876,-0.047633,0.660444,0.749363
-0.050959,-0.497178,0.759645,0.854335,-0.067730,0.515290
-0.055769,-0.536232,0.779924,0.495467,0.840968,-0.217454
-0.057228,-0.759915,0.699735,0.774531,0.491131,-0.398611
-0.060290,-0.912338,0.659057,-0.443015,-0.438804,0.781785
0.035065,0.078663,0.743020,-0.663695,-0.745070,0.066179
0.028507,0.153271,0.827762,-0.214663,-0.520281,0.826576
0.026611,-0.024837,0.766714,-0.042971,0.859294,-0.509673
0.022820,-0.116722,0.757338,-0.264346,-0.353227,0.897414
0.017427,-0.095529,0.811047,-0.162190,-0.839223,0.519037
0.012176,-0.075639,0.864426,-0.076011,-0.279285,0.957195
0.006343,-0.046756,0.922209,-0.542691,-0.831111,0.121412
0.002846,-0.142415,0.910257,-0.509371,-0.655466,-0.557589
0.001969,-0.416767,0.798586,0.954685,-0.278949,-0.103745
-0.001675,-0.497178,0.794062,0.950567,0.310503,0.003105
-0.003282,-0.761660,0.691438,0.832933,0.062181,-0.549869
0.140774,0.199289,0.733584,0.868785,-0.468541,0.160255
0.136254,0.155309,0.751856,0.358920,0.899948,0.247527
0.129112,0.247194,0.846963,0.608667,-0.450626,-0.653040
0.127216,0.049922,0.776150,0.454695,0.658601,-0.599581
0.121236,0.099563,0.847592,0.013326,-0.878161,0.478180
0.117445,-0.000889,0.832824,-0.003508,0.474657,0.880164
0.111616,0.046006,0.899953,0.967502,-0.178402,0.179201
0.107384,0.013774,0.921909,0.724668,0.495410,-0.478983
0.103593,-0.073318,0.914421,-0.268810,-0.783292,0.560531
0.098930,-0.085660,0.947131,-0.127545,-0.956671,-0.261752
0.096452,-0.257521,0.893303,-0.496503,-0.331186,0.802372
0.093826,-0.414587,0.848251,-0.133393,-0.990939,0.015694
0.267040,0.243420,0.715461,0.791504,0.486588,-0.369802
0.263396,0.157772,0.709680,-0.100635,-0.732391,0.673406
0.257709,0.164744,0.757847,0.245116,0.730881,-0.636970
0.251440,0.209309,0.826054,-0.309616,0.938135,0.155048
0.248815,0.070972,0.787742,0.254438,-0.575007,0.777579
0.241815,0.123954,0.861071,0.284273,0.139344,-0.948563
0.239337,-0.007418,0.827163,-0.162576,0.322672,-0.932444
0.233361,0.008839,0.878685,-0.699198,-0.552300,-0.453968
0.228841,-0.027158,0.899983,0.592465,0.752015,-0.288894
0.224466,-0.078837,0.912653,-0.440776,-0.835567,0.327940
0.219657,-0.108447,0.935718,-0.110858,0.641759,0.758852
0.219946,-0.380761,0.824976,0.302720,0.471256,-0.828419
0.381791,0.177077,0.770548,-0.653215,0.726015,0.214971
0.377124,0.122643,0.782560,-0.433297,0.167313,0.885584
0.371584,0.111905,0.819644,-0.609005,0.376323,0.698208
0.369541,-0.045161,0.772615,-0.570758,0.056730,-0.819157
0.365314,-0.091755,0.787473,0.703188,-0.662730,-0.257520
0.357149,0.004197,0.882399,0.878428,0.438072,-0.190940
0.354671,-0.124412,0.852145,0.860188,0.366307,0.354817
0.352192,-0.260861,0.816349,-0.603139,0.684840,-0.408922
0.347089,-0.284234,0.845046,0.406546,-0.882134,0.237822
0.342421,-0.317767,0.868021,0.984416,-0.150865,-0.090359
0.534154,0.300467,0.620206,0.325125,-0.848929,0.416668
0.523364,0.029456,0.594474,-0.123227,0.499773,-0.857346
0.501352,0.344013,0.867871,0.339595,-0.908272,-0.244369
0.504413,0.040779,0.733554,-0.285365,-0.948524,0.137362
0.504266,-0.165929,0.656151,0.356830,0.915805,-0.184320
0.490121,-0.092916,0.783159,-0.681202,0.720250,0.131164
0.485022,-0.123110,0.808711,0.958588,-0.268938,0.093710
0.480790,-0.198879,0.808441,-0.444239,0.460111,-0.768732
0.477292,-0.292942,0.798736,0.580344,0.799771,0.153515
0.472625,-0.338668,0.813683,-0.261976,0.913510,0.311237
0.643948,0.208290,0.647285,0.833097,-0.132686,-0.536976
0.632428,-0.030206,0.638418,-0.098079,0.791317,0.603489
0.627471,-0.077676,0.655402,0.866331,-0.476513,-0.149687
0.620766,-0.067222,0.705666,0.715151,0.332834,-0.614638
0.703287,0.812731,0.460277,-0.274256,0.234954,0.932513
0.681565,0.474367,0.486967,0.943226,0.072268,0.324194
0.862508,0.450854,0.476513,-0.351701,0.149796,0.924050
0.843406,0.693841,0.675472,0.696212,0.650575,-0.303382
0.727493,0.403959,0.466747,0.468353,0.364914,-0.804663
0.715537,0.622423,0.490861,0.892799,0.449870,0.022975
0.733763,-0.087112,0.715941,-0.385701,0.843397,0.374055
0.679816,0.141806,0.643960,0.774577,-0.301014,-0.556256
0.581543,0.631132,0.528843,0.239185,0.964481,0.112100
0.548588,0.795454,0.491160,-0.600788,0.411565,0.685324
0.537509,0.898369,0.489064,-0.780866,0.401897,0.478254
0.576150,-0.195538,0.657529,0.298889,0.954132,0.017275
0.543632,-0.169995,0.588992,-0.208855,0.718929,0.662964
0.532405,-0.012353,0.599087,-0.069468,-0.292381,0.953775
0.521179,0.094486,0.597380,-0.259413,0.199859,-0.944860
0.304074,-0.127903,0.053762,0.951800,0.282501,-0.119458
0.385582,0.007244,0.528664,-0.435383,-0.815771,0.380734
0.445068,-0.234158,0.848371,0.628831,-0.579053,-0.518911
0.434425,-0.218476,0.827462,-0.388107,0.669844,0.632994
0.366774,-0.256945,0.864726,0.809959,-0.376865,0.449376
0.325508,-0.150398,0.956837,0.506600,0.861171,0.041727
0.305970,-0.344622,0.869698,0.870688,0.382437,-0.309262
0.165710,-0.091613,0.936438,-0.186023,0.925500,0.329917
0.143253,-0.056333,0.972533,0.305996,-0.926494,0.219031
0.133486,-0.094510,0.941260,-0.519065,-0.831926,-0.196141
0.122989,-0.173911,0.977266,0.920825,0.208681,-0.329445
0.092225,-0.038773,0.935269,-0.465712,-0.063603,-0.882648
0.072976,-0.088123,0.877696,0.710345,0.688376,0.146790
0.108991,-0.114400,0.978823,0.947797,-0.294308,-0.122734
0.079975,-0.054012,0.922359,-0.159544,0.967256,-0.197384
0.062043,-0.108154,0.864906,-0.617948,-0.186077,0.763882
0.040315,-0.047332,0.945753,0.049711,0.184921,0.981495
0.024862,-0.228780,0.862269,0.968682,-0.248303,0.000351
-0.006196,-0.040076,0.831177,0.434607,-0.710869,0.552976
-0.028942,-0.088849,0.956687,0.460282,0.884992,0.070208
-0.046438,-0.136462,0.900821,0.265103,0.586180,0.765580
-0.056205,-0.117882,0.880901,0.380855,-0.923410,0.047568
-0.070057,-0.437233,0.766894,0.451297,0.837384,-0.308414
-0.125757,0.122067,0.765785,-0.305996,-0.707401,0.637142
-0.133339,-0.039500,0.707104,0.866005,0.230792,-0.443587
-0.163663,0.108707,0.667085,0.965504,0.250209,-0.072096
-0.322589,-0.072015,0.223904,-0.083079,0.976786,0.197451
-0.316467,0.247335,0.762011,0.996942,-0.062717,-0.046621
0.601227,0.634180,0.510511,-0.180238,-0.567332,-0.803523
0.585187,0.524443,0.547865,0.713333,-0.163182,-0.681563
0.393164,0.306129,0.670469,-0.524939,0.388881,-0.757106
0.394183,0.378708,0.706655,0.820038,-0.088137,-0.565481
0.750093,0.516894,0.322036,0.333157,-0.440431,0.833683
0.509517,-0.208465,0.605498,0.868230,-0.467823,0.165284
0.526136,0.148336,0.706655,0.606888,0.284484,0.742129
0.586352,-0.068241,0.194639,0.917940,-0.321729,-0.232112
0.567255,0.323689,0.547026,-0.057815,-0.820755,0.568347
0.469274,-0.257964,0.834352,0.787420,-0.514999,0.338742
0.718016,0.430963,0.471031,0.137685,-0.145945,0.979665
0.628054,-0.123836,0.710369,0.025944,-0.703527,0.710194
0.851424,0.382040,0.482593,-0.167200,-0.233378,0.957903
0.843406,0.459270,0.572338,-0.606641,-0.708131,-0.361300
0.716703,0.470158,0.502453,0.999138,0.040523,0.009009
0.697454,0.319622,0.534325,0.977108,-0.201734,0.067554
0.627471,-0.191622,0.674753,0.855842,-0.506146,0.106543
0.386601,0.110744,0.644858,0.224501,0.974342,-0.016056
0.204639,-0.001757,0.772585,0.027793,0.999559,0.010437
0.174894,0.093326,0.887192,0.934771,0.319657,0.154994
0.543195,-0.112655,0.706745,0.445328,0.552411,-0.704646
0.436027,-0.268844,0.800413,-0.037376,-0.808800,0.586894
0.333673,-0.421268,0.857327,-0.084495,0.747559,0.658799
0.558943,0.341692,0.622332,-0.003288,0.982064,0.188517
0.408182,0.110310,0.670380,0.997304,-0.070840,0.019136
0.370854,0.054564,0.737867,-0.364634,0.208601,0.907484
0.379455,0.069369,0.776839,0.189251,-0.361662,0.912899
0.469274,0.209017,0.829050,0.715252,-0.466299,0.520557
0.291393,-0.064316,0.835550,0.916853,-0.100121,0.386466
0.282204,-0.078252,0.869998,-0.555966,-0.602331,0.572800
0.282645,-0.077234,0.907322,0.996713,0.081010,-0.000590
0.267040,-0.099879,0.940511,-0.543210,0.386580,0.745304
0.082164,-0.023676,0.958993,0.152061,-0.954080,-0.258088
0.223007,0.194646,0.762970,-0.057573,-0.819629,0.569995
0.161919,0.099129,0.899024,0.955129,-0.110556,0.274782
0.089306,-0.012929,0.924396,-0.297983,0.355177,-0.886034
-0.283007,-0.205149,-0.962608,0.203864,0.100398,0.973838
0.495608,0.383037,0.365501,0.951527,0.020766,0.306864
0.746195,-0.070669,0.731515,0.659255,0.618292,-0.427899
-0.268819,-0.826338,0.389769,-0.670267,0.375320,0.640217
0.535244,0.476997,0.592963,0.161499,-0.666252,-0.728029
0.234551,-0.063964,0.913740,0.027142,0.984262,-0.174616
-0.429663,-0.882736,0.588301,-0.888870,0.396986,-0.228718
-0.006234,-0.195103,0.913725,-0.514911,-0.810954,-0.277887
0.268875,0.115027,0.865166,-0.570017,0.797972,-0.195758
