-0.265719,0.328503,-0.190424,-0.314146,0.755938,0.574343
-0.089522,0.308848,0.340035,0.929798,0.077467,-0.359825
-0.008175,0.310971,0.361774,-0.395589,0.368350,0.841325
-0.067697,0.327372,0.000671,0.888262,-0.138723,-0.437889
0.074579,0.314508,0.369372,0.929627,-0.256076,0.264989
-0.001112,0.336837,-0.121299,-0.254694,-0.218156,0.942093
-0.420556,0.371616,0.768713,-0.597558,0.521255,0.609276
-0.549011,0.396353,0.215491,0.800123,-0.257336,0.541831
-0.400927,0.386033,0.525300,-0.658285,0.677027,0.329084
0.146974,0.535029,-0.162824,-0.012447,0.753355,0.657496
0.282814,0.519050,0.238037,0.761687,-0.497266,0.415404
0.209787,0.548316,-0.351035,0.896338,-0.257807,0.360712
0.586833,0.542233,0.056524,0.695581,-0.714018,-0.079654
-0.012575,0.430424,0.031125,0.887578,0.368502,0.276428
0.102692,0.422650,0.263559,-0.570970,0.549136,-0.610281
0.047728,0.440597,-0.106785,0.590589,0.066152,-0.804257
0.179480,0.426602,0.251775,0.809790,-0.429425,0.399792
0.186860,0.459258,-0.331932,0.896338,-0.257807,0.360712
0.337931,0.434523,0.237137,0.855967,-0.440557,0.270611
0.387556,0.453745,-0.069788,0.878571,-0.469070,-0.089924
-0.532684,0.465617,0.547722,0.023663,-0.863396,0.503971
-0.454635,0.468585,0.558390,0.067642,-0.849685,0.522934
-0.382399,0.473676,0.529084,0.024799,-0.944828,0.326626
-0.456048,0.511000,-0.208225,-0.272552,0.962062,0.012309
-0.243889,0.485410,0.426992,0.669442,0.450863,-0.590398
-0.378627,0.517213,-0.255673,-0.401189,0.838366,0.369038
-0.169142,0.489085,0.415518,-0.684038,0.597232,0.418816
-0.291004,0.519758,-0.236012,-0.379015,0.821456,0.426095
-0.102087,0.495306,0.360193,0.809677,0.553005,-0.196491
-0.201175,0.522018,-0.200100,0.740597,-0.398644,-0.540925
-0.466256,0.557928,0.581184,-0.528612,0.695531,-0.486627
-0.390718,0.561319,0.581773,-0.088264,-0.776634,0.623738
-0.261008,0.574044,0.463245,-0.327333,-0.705319,0.628790
-0.181392,0.577435,0.464331,-0.015135,-0.718138,0.695736
-0.113862,0.584079,0.396973,0.735524,-0.118513,-0.667053
-0.220804,0.612913,-0.200317,-0.403401,0.802945,0.438801
0.644942,0.638504,0.030970,0.722518,-0.672083,-0.162088
-0.257083,0.678788,0.477697,0.706489,0.571255,-0.417781
-0.179662,0.682041,0.483217,0.936019,0.009525,0.351820
-0.113393,0.689107,0.410897,0.796736,-0.402561,-0.450729
-0.175109,0.034049,-0.985633,0.247822,0.024590,-0.968493
-0.305922,0.028251,-0.994781,0.253017,-0.052080,-0.966059
-0.460601,0.041537,-0.952357,0.942655,-0.202049,0.265664
0.293333,-0.302389,-0.936013,0.008248,0.899493,0.436857
-0.058903,-0.311293,-0.941472,0.899862,-0.193676,0.390816
-0.078375,-0.292208,-0.892628,0.879186,0.476213,0.015944
-0.076175,-0.124981,-0.960420,-0.319786,0.451359,0.833074
-0.189083,-0.125827,-0.957846,0.281337,-0.457259,-0.843661
-0.005981,-0.015433,-0.686150,-0.544922,0.474921,-0.691020
0.019462,0.172294,-0.980733,-0.103673,0.268854,0.957585
-0.108212,0.168342,-0.984702,-0.236340,0.210943,0.948497
-0.230859,0.163105,-0.985943,-0.226011,0.271246,0.935598
0.201779,-0.080168,-0.968762,0.479847,0.072944,-0.874315
0.186080,-0.232416,-0.955055,0.375624,-0.121684,-0.918749
0.075993,-0.239483,-0.949783,-0.093480,0.147010,0.984708
0.340289,-0.538181,-0.952295,-0.167813,0.507193,0.845336
0.243708,-0.545671,-0.942309,-0.412661,-0.206796,0.887100
0.023387,0.233509,-0.620622,0.772231,-0.530405,0.349758
0.157498,-0.320059,-0.953535,-0.131536,0.175648,0.975626
0.003441,0.014964,-0.976267,0.360938,-0.189838,-0.913064
0.261612,-0.334761,-0.950310,0.219029,0.076342,0.972727
0.145718,-0.339144,-0.950682,-0.132870,0.367056,0.920660
0.237741,-0.083990,-0.959148,0.328414,-0.161620,-0.930604
0.112114,-0.086251,-0.964948,-0.039718,0.304386,0.951720
0.312335,-0.302251,-0.951426,-0.268268,0.294074,0.917362
0.199110,-0.306772,-0.950372,-0.149479,0.159351,0.975840
0.301969,0.003230,-0.962343,-0.327545,0.135727,0.935036
0.169119,0.001815,-0.969010,-0.179658,0.027777,0.983337
0.043956,-0.001291,-0.971367,0.252983,-0.141603,-0.957052
-0.088108,-0.002844,-0.978035,-0.140908,0.772659,0.618985
-0.049634,-0.176438,-0.649463,0.927076,-0.201482,-0.316125
-0.080575,-0.201175,-0.604589,0.281679,0.309201,0.908323
0.256901,0.077162,-0.979058,0.187239,-0.194356,-0.962895
0.159697,0.064868,-0.965630,-0.306900,0.041981,0.950815
0.017574,0.068396,-0.976949,0.393960,-0.262967,-0.880706
0.306368,-0.286841,-0.946154,-0.085734,0.436097,0.895806
0.001246,-0.057131,0.425876,0.104697,-0.993638,-0.041491
0.452412,0.055247,0.675305,0.699555,0.707512,-0.100251
-0.078058,-0.036071,0.481139,0.760410,0.584351,-0.283392
-0.258496,0.022884,0.630089,0.523889,0.337995,0.781857
-0.352873,0.021892,0.632446,-0.061315,-0.983918,0.167770
-0.311261,0.047905,0.693664,0.584383,-0.634359,0.506049
-0.182331,0.109957,0.835327,0.757307,0.629605,0.173448
-0.076961,0.035041,0.286012,-0.792748,0.083263,-0.603835
0.129860,0.096670,0.427334,-0.285756,0.934842,0.210747
-0.243420,0.058224,0.351261,-0.845795,0.302788,0.439261
-0.442227,0.037724,0.309488,0.284716,-0.097752,-0.953615
-0.191911,0.127204,0.516028,0.985660,0.046181,0.162299
-0.650773,0.072357,0.403175,-0.395650,-0.462212,-0.793613
-0.155479,-0.115370,0.993271,-0.175792,0.880338,0.440570
-0.168515,-0.134740,0.957483,-0.411742,0.852291,-0.322597
-0.185786,-0.127949,0.889349,-0.619545,-0.581977,0.526750
-0.199761,-0.148303,0.854740,-0.554332,0.531753,-0.640278
-0.214052,-0.173608,0.819511,0.523260,-0.695904,0.491850
-0.222377,-0.173470,0.784994,-0.519356,-0.846481,0.117213
-0.224887,-0.145481,0.754106,0.023383,-0.075718,0.996855
-0.252372,-0.217291,0.713263,-0.474950,0.751654,-0.457646
-0.204947,0.004645,0.697603,0.589947,0.802857,0.085925
-0.262422,-0.188457,0.646278,0.730430,-0.641025,0.235709
-0.300267,-0.305495,0.602272,-0.763753,0.572203,0.298772
-0.269960,-0.150848,0.582083,-0.315658,0.948869,-0.002903
-0.260380,-0.080168,0.553366,0.548373,0.477521,0.686484
-0.334973,-0.335891,0.497142,0.883831,0.437971,-0.164390
-0.322725,-0.251786,0.469355,-0.070996,-0.996106,-0.052279
-0.316599,-0.191563,0.440079,0.887116,-0.389788,-0.247165
-0.334816,-0.229871,0.401345,-0.637766,0.664857,-0.388871
-0.362611,-0.094162,0.170058,0.284212,0.944885,-0.162531
0.075524,-0.575359,0.419581,-0.465241,0.773772,-0.429916
-0.016500,-0.574790,0.425442,-0.115020,0.750982,0.650228
-0.162543,-0.585678,0.407021,0.076755,0.977131,0.198303
0.233189,-0.477821,0.632354,0.836187,0.471918,0.279437
-0.427936,-0.622994,0.335290,-0.686795,0.703422,0.183059
-0.309689,-0.576489,0.434807,-0.237366,-0.294123,0.925823
0.105830,-0.465802,0.664637,0.961158,0.052572,0.270947
-0.438460,-0.563341,0.469696,-0.534139,0.845395,-0.001551
-0.378158,-0.530261,0.541023,0.888256,-0.455560,0.058884
0.208220,-0.364872,0.886682,0.502588,0.391416,-0.770843
-0.097688,-0.410531,0.797988,-0.680027,0.559409,0.473946
-0.267602,-0.427632,0.767162,0.358772,0.379410,-0.852837
-0.260692,-0.369393,0.897289,0.894772,-0.026663,0.445727
-0.301992,-0.566309,0.060772,-0.438385,-0.197545,-0.876809
0.013179,-0.453783,0.304992,0.946462,0.294296,0.132664
0.025112,-0.430039,0.358890,0.071339,-0.912746,0.402251
-0.008961,-0.416183,0.391515,0.860523,-0.302458,-0.409902
-0.161604,-0.429331,0.368287,0.392517,0.919413,0.024697
0.008152,-0.372500,0.490815,0.925072,0.379792,-0.000169
0.017420,-0.310025,0.633439,-0.435280,-0.887741,0.149826
-0.181392,-0.332215,0.591356,-0.447449,-0.074688,-0.891185
-0.251586,-0.326702,0.606334,-0.659906,0.609193,0.439783
-0.142132,-0.284719,0.697323,-0.311214,-0.088981,-0.946165
-0.074919,-0.252062,0.769581,0.233731,-0.169792,-0.957361
-0.127525,-0.243865,0.790949,-0.039292,-0.279432,0.959361
-0.079314,-0.215592,0.853810,-0.810943,0.366700,0.455963
-0.139147,-0.208663,0.871734,0.670964,0.271097,-0.690155
-0.168198,-0.195946,0.902560,0.192317,-0.980922,0.028390
-0.160660,-0.175446,0.948427,0.469596,-0.783674,0.406614
-0.237612,-0.173048,0.956862,0.982641,-0.160589,0.092884
0.151373,-0.246695,0.388662,0.543808,-0.294258,0.785930
0.047728,-0.248956,0.387359,0.191891,0.769700,-0.608884
-0.236668,-0.269456,0.352099,0.499663,-0.130186,0.856381
-0.027493,-0.204565,0.494691,0.680278,0.617031,0.395594
-0.080885,-0.195946,0.517795,0.833836,0.340517,-0.434472
0.184666,-0.120313,0.682438,0.632601,-0.757162,0.162856
-0.075858,-0.155938,0.610831,0.788399,0.612341,0.058876
-0.085438,-0.138976,0.650588,0.889805,-0.345568,0.298044
-0.075231,-0.117492,0.699742,-0.581012,-0.541064,-0.608008
-0.085597,-0.101375,0.738414,0.698420,-0.586470,0.410199
-0.114490,-0.088373,0.770139,0.726537,0.687126,0.001365
-0.129097,-0.072679,0.808036,0.566677,-0.175313,0.805073
-0.142761,-0.056562,0.845809,0.061946,-0.997941,-0.016609
-0.269333,-0.064335,0.833590,-0.640704,0.374730,0.670131
0.007213,-0.136146,0.235897,0.825209,-0.563714,0.035444
-0.065655,-0.111409,0.298665,-0.521416,-0.747590,-0.411381
-0.202905,-0.941477,0.071844,0.331975,0.932718,-0.140819
0.121847,-0.780048,0.417689,0.614862,0.786313,0.060473
0.071752,-0.769445,0.442902,0.608751,0.787673,0.094836
0.019304,-0.759971,0.466936,0.520965,-0.813464,-0.258596
-0.096749,-0.683778,0.642153,-0.390378,0.292126,0.873079
-0.167887,-0.678549,0.656512,0.732883,0.631640,0.252809
-0.484472,-0.667238,0.696300,0.206566,-0.670303,0.712758
-0.608059,-0.673881,0.686159,-0.419639,-0.784995,-0.455726
-0.088735,-0.755027,0.225725,-0.533378,0.317669,0.783961
-0.381613,-0.798564,0.140163,-0.352874,0.644174,-0.678617
0.000930,-0.692397,0.362922,0.931342,-0.191095,0.309976
0.054950,-0.659464,0.434001,0.882738,-0.323720,-0.340556
-0.073822,-0.666954,0.423209,0.598063,-0.716902,-0.358291
-0.215782,-0.677704,0.404912,0.022274,0.036413,0.999089
0.173983,-0.571252,0.627515,-0.683037,0.642402,0.347533
-0.445524,-0.664555,0.444979,-0.260239,0.883436,-0.389636
-0.112295,-0.572814,0.636819,0.769836,-0.516848,-0.374461
-0.260064,-0.584970,0.615731,0.081722,-0.191437,-0.978097
-0.169454,-0.506940,0.787599,-0.703239,0.710914,-0.007460
-0.228031,-0.499727,0.806579,0.641151,0.595597,-0.483931
-0.468610,-0.530546,0.747656,0.975289,-0.136934,-0.173378
0.026215,-0.607300,0.350610,0.835892,-0.221279,-0.502315
0.170216,-0.890305,0.511965,-0.426030,0.681554,0.594965
0.038464,-0.898648,0.499529,-0.218790,0.913552,0.342862
-0.151708,-0.816657,0.687896,0.005207,0.853522,0.521031
-0.188926,-0.804638,0.716334,0.010540,0.945558,0.325282
-0.079314,-0.377029,0.061051,0.745559,0.010159,-0.666362
-0.194111,-0.378297,0.057640,-0.837157,0.085252,-0.540277
0.010979,-0.548501,0.310108,0.971307,0.232436,0.050363
-0.109626,-0.647307,0.072061,0.985761,-0.094179,0.139305
-0.565344,-0.549346,-0.092861,-0.658753,-0.696668,0.284076
-0.022625,-0.779617,0.270661,0.317752,0.948103,-0.011575
-0.106640,-0.824292,0.332654,0.888801,-0.118565,-0.442691
0.081020,-0.945152,0.519315,0.568521,0.771164,-0.286512
0.034064,-0.592175,0.373094,-0.732641,-0.639454,-0.233100
0.082746,-0.642079,0.446902,-0.686996,0.725246,-0.045333
-0.095335,-0.624970,0.414650,0.135293,-0.051076,-0.989488
-0.291943,-0.601079,0.372442,0.027037,0.474725,0.879719
-0.663180,-0.562210,0.301084,0.033952,0.658119,0.752148
-0.578537,-0.620871,0.387948,0.417331,0.777576,0.470330
-0.191600,-0.833196,0.708426,-0.115508,-0.940310,-0.320116
-0.049007,0.100915,0.298634,0.921790,-0.379339,0.080038
0.123107,0.004929,0.431551,0.918530,-0.241544,-0.312984
-0.025769,0.016379,0.410773,-0.616732,0.496954,-0.610474
0.147918,-0.078330,0.541985,-0.275940,0.901827,-0.332514
-0.000014,-0.068443,0.523471,0.033739,-0.502955,0.863654
0.044588,-0.119753,0.592937,-0.309670,0.941258,-0.134676
-0.003465,-0.140391,0.618088,-0.128654,0.735451,0.665252
-0.100046,-0.145766,0.620879,-0.724900,-0.688427,-0.024257
-0.198194,-0.151978,0.625004,0.836963,-0.303345,0.455494
-0.215307,-0.181667,0.663551,-0.444777,0.822383,0.354767
-0.103026,-0.252631,0.761704,0.985521,0.106551,0.131894
-0.187516,-0.262666,0.771287,0.268646,0.394266,0.878854
-0.265560,-0.377167,0.918221,-0.879745,0.310880,-0.359727
0.177286,-0.005105,0.053298,-0.641204,0.765319,-0.056071
0.090754,-0.093179,0.170089,0.909840,0.414509,0.019339
-0.077119,-0.077062,0.140938,0.863778,-0.503840,0.005829
-0.012105,-0.137000,0.225136,0.961028,0.209182,0.180743
0.048197,-0.194669,0.306263,0.007692,-0.006598,0.999949
-0.047435,-0.201882,0.312620,-0.516411,0.477388,-0.710929
-0.051048,-0.237222,0.360286,-0.787523,0.318359,-0.527689
-0.150299,-0.242028,0.363139,0.227551,0.943843,-0.239545
-0.127683,-0.286419,0.424294,-0.582891,0.566439,-0.582567
0.086359,-0.387202,0.570795,0.875729,0.474768,0.087716
-0.015402,-0.428201,0.622430,-0.369906,-0.626422,-0.686124
-0.174951,-0.415760,0.598674,0.294856,0.818048,0.493820
-0.408782,-0.449969,0.635393,0.585459,-0.678667,-0.443451
-0.343293,-0.502557,0.710131,0.308763,-0.934606,0.176571
-0.448352,-0.540865,0.758045,-0.510067,-0.815232,-0.274279
-0.614658,-0.527155,0.732119,0.840659,-0.240768,-0.485101
0.603641,0.088759,0.728863,0.736534,-0.653194,-0.175658
-0.038641,0.075463,0.720241,0.782142,0.145796,0.605803
-0.288487,0.082538,0.701758,-0.323180,0.607692,-0.725442
-0.086541,-0.016986,0.836009,0.482824,0.832928,-0.270392
-0.215154,-0.012887,0.825961,0.404313,0.651916,0.641511
-0.157205,-0.066035,0.895459,0.681596,0.726174,-0.089989
-0.227715,-0.080315,0.910593,0.953500,0.061960,-0.294955
-0.184373,-0.130210,0.975222,-0.479052,0.872083,-0.099900
-0.342354,0.123814,0.839761,0.471047,0.854066,-0.220648
0.195185,0.062038,0.381777,0.831173,-0.483659,-0.274272
0.119806,0.018777,0.445351,-0.686552,0.157663,-0.709781
-0.087638,0.040554,0.399268,0.889856,-0.297842,-0.345609
0.166762,-0.056847,0.566546,-0.641838,0.439905,0.628114
-0.045082,-0.092894,0.611793,-0.288122,-0.927835,-0.236872
-0.103185,-0.109572,0.634121,0.767960,0.426380,-0.477950
-0.111979,-0.136854,0.676204,-0.643981,-0.709380,-0.286476
-0.119359,-0.165412,0.720179,-0.617785,0.334252,-0.711771
-0.065497,-0.208388,0.791073,-0.049230,-0.446523,0.893417
-0.016658,-0.249801,0.858834,-0.688753,0.183553,0.701375
-0.125172,-0.251639,0.855267,0.121023,0.904220,0.409560
-0.220177,-0.256307,0.857841,-0.236604,-0.835334,-0.496222
-0.303253,-0.265496,0.867300,0.813880,0.477586,0.330925
0.535483,0.073772,0.706658,0.837645,-0.451443,-0.307490
-0.188772,0.141061,0.567383,-0.657061,0.551728,0.513680
-0.136008,0.095963,0.637502,-0.765116,0.386253,0.515176
-0.086852,0.051296,0.707061,0.771950,0.613686,0.165780
-0.151708,-0.024759,0.817278,-0.773528,-0.633361,-0.022516
-0.194897,-0.044120,0.844413,0.976245,0.198448,0.086970
-0.079314,-0.103075,0.938441,0.837368,-0.511277,-0.193420
-0.204319,-0.100107,0.927649,-0.562009,0.779226,-0.277405
-0.275610,-0.180959,0.095537,0.098190,0.994164,0.044691
0.198640,-0.325287,0.372256,-0.493961,0.721983,0.484502
0.056052,-0.069003,0.301084,-0.487326,0.870106,-0.073685
-0.006139,-0.084973,0.323134,-0.026955,0.154398,0.987641
-0.013672,-0.114662,0.370644,-0.503774,0.845979,-0.174732
-0.039585,-0.137845,0.407145,0.997097,-0.060624,0.046067
-0.028122,-0.170080,0.459834,0.201359,-0.968117,-0.149013
-0.041626,-0.196938,0.503127,0.911821,-0.399645,-0.094165
0.018988,-0.240475,0.577896,0.319800,-0.391832,-0.862668
-0.207300,-0.274969,0.620507,0.295775,-0.111412,-0.948739
-0.084025,-0.332638,0.721234,0.688016,-0.725524,0.015796
-0.177150,-0.338013,0.724986,0.125644,-0.985900,-0.110524
-0.104599,-0.383957,0.803694,0.525229,-0.679284,-0.512551
-0.290376,-0.367555,0.766387,-0.091140,-0.680724,0.726848
0.076621,-0.326279,0.365961,-0.440960,-0.269636,-0.856067
-0.084025,-0.318083,0.341648,-0.504714,-0.710745,0.490005
-0.165059,-0.327548,0.352626,0.188525,0.615451,0.765296
0.226278,-0.475836,0.630555,0.836187,0.471918,0.279437
-0.415376,-0.354976,0.384227,0.068702,0.965440,0.251406
-0.491695,-0.366287,0.399206,0.357520,0.932368,-0.053564
-0.125953,-0.478520,0.613560,0.758856,-0.545943,-0.355082
-0.374544,-0.503825,0.642122,-0.354486,0.920473,0.164529
-0.393235,-0.527431,0.680825,0.918374,-0.361219,0.161585
-0.527498,-0.524325,0.666932,-0.000863,0.872842,0.488003
-0.038641,-0.116500,0.000020,0.376707,0.914556,-0.147238
-0.026549,-0.150572,0.058602,0.811362,0.515658,0.275296
-0.058117,-0.172763,0.094948,0.733029,0.547583,0.403512
-0.119675,-0.189156,0.118858,0.908302,0.026155,0.417497
-0.149666,-0.515559,-0.018432,0.904173,-0.002056,0.427161
-0.094549,-0.555567,0.059935,0.531792,-0.642587,-0.551615
-0.127056,-0.632890,0.203831,0.644217,-0.217554,-0.733249
-0.143858,-0.316522,-0.050250,0.576494,0.805123,0.139399
-0.240281,-0.353423,0.009293,-0.466437,0.800547,0.376245
-0.510069,-0.319921,-0.068175,-0.740215,0.482234,0.468543
-0.086541,-0.446009,0.186743,-0.658535,-0.372558,-0.653859
-0.039273,-0.485870,0.261203,-0.743282,0.597400,-0.301073
0.048197,-0.534075,0.353773,0.988023,-0.090465,-0.125006
0.088401,-0.569984,0.421162,-0.438148,0.863704,-0.249081
-0.006920,-0.575920,0.425132,0.164181,-0.711154,-0.683597
-0.178876,-0.565463,0.395515,-0.469059,-0.188297,-0.862860
-0.431708,-0.537043,0.327506,-0.522334,0.208436,0.826875
-0.383027,-0.575213,0.399640,0.830287,-0.486904,0.271197
-0.668520,-0.541149,0.319629,0.087702,-0.718688,-0.689780
-0.575399,-0.588646,0.411362,0.860062,0.463808,-0.212544
-0.140718,-0.707384,0.653131,0.579084,0.684954,0.442154
-0.189400,-0.722233,0.676918,0.358701,0.685532,0.633546
-0.804672,-0.618749,0.451306,0.383104,0.733019,0.562063
-0.174792,-0.833904,0.076961,0.748819,0.577715,-0.324830
-0.313772,-0.857648,0.114330,-0.109116,-0.986690,0.120569
-0.135691,-0.657765,0.249697,0.994847,-0.071878,-0.071501
0.148229,-0.744139,0.431830,0.951537,0.192622,0.239738
0.111170,-0.762939,0.464300,-0.384207,-0.795530,0.468527
0.008780,-0.767037,0.464548,-0.331168,0.883199,0.332095
-0.235412,-0.742163,0.401718,0.004917,0.618094,0.786089
-0.561889,-0.701448,0.302231,0.059436,0.956400,0.285948
-0.148568,-0.967067,0.073518,0.779507,0.512305,-0.360435
-0.200077,-0.486725,0.088342,0.835281,0.476527,0.274275
-0.006292,-0.551745,0.284461,-0.681521,0.529464,0.505170
-0.012259,-0.570122,0.332840,0.958076,-0.214533,-0.189910
-0.387421,-0.537327,0.206094,0.338752,0.674617,-0.655849
-0.035502,-0.602356,0.418185,-0.475820,0.656010,0.585872
-0.170082,-0.602356,0.405687,0.681048,0.219757,0.698484
-0.478818,-0.579457,0.312000,-0.291730,0.771483,0.565427
-0.556080,-0.624262,0.425163,-0.255528,0.125461,-0.958627
-0.180764,-0.689429,0.639920,0.482002,0.873470,0.068732
-0.201803,-0.703570,0.675894,-0.676495,-0.594506,-0.434646
-0.072878,-0.709506,0.094358,-0.529044,-0.259692,-0.807881
-0.119517,-0.756580,0.224950,0.431345,-0.419530,-0.798709
-0.027652,-0.803507,0.369868,0.872091,0.437973,-0.218258
0.162209,-0.844084,0.507996,0.251450,-0.595159,-0.763255
0.007841,-0.841677,0.484085,-0.317793,0.747938,0.582748
-0.058117,-0.132332,-0.055305,0.346520,0.937917,-0.015375
-0.039115,-0.157069,0.008207,0.583718,0.811955,-0.001774
-0.055759,-0.175308,0.051841,0.779008,0.451575,-0.435001
-0.004878,-0.204143,0.129526,-0.676067,0.245496,0.694741
-0.131450,-0.205695,0.122238,0.843466,-0.147854,0.516435
-0.072720,-0.152263,0.627546,0.778350,0.239675,-0.580282
-0.195366,-0.152547,0.618150,0.955247,0.121923,-0.269513
-0.189083,-0.174031,0.669010,0.091513,0.993008,-0.074567
-0.068325,-0.212624,0.769488,-0.451118,-0.417557,0.788758
-0.089838,-0.229301,0.806268,-0.316876,0.775066,0.546683
-0.121875,-0.243020,0.836474,0.947818,-0.299280,0.109880
-0.162543,-0.255315,0.862338,-0.847761,0.094745,0.521847
-0.257241,-0.260405,0.865904,-0.521367,-0.720202,-0.457695
0.304955,0.128050,0.000795,0.747648,-0.652369,-0.124250
0.112583,0.048328,0.171733,0.903375,-0.428188,0.023859
0.071599,-0.031265,0.355386,-0.340823,-0.216419,0.914878
0.052750,-0.048650,0.395205,-0.228781,0.866774,0.443127
-0.054192,-0.052886,0.395701,0.435108,0.323936,0.840087
-0.027805,-0.078615,0.457849,0.756081,0.545220,0.362044
0.173356,-0.292639,0.368597,-0.673540,0.233201,0.701400
0.080704,-0.298153,0.373745,-0.025892,0.668323,0.743421
-0.063140,-0.296875,0.356843,0.947380,-0.207440,-0.243804
-0.277810,-0.284434,0.305363,-0.390280,0.815692,-0.426998
-0.005506,-0.344234,0.480984,0.921521,0.368071,-0.123789
-0.213113,-0.352991,0.484179,-0.646923,0.590367,-0.482657
-0.195678,-0.392577,0.585184,0.105836,0.307900,0.945514
-0.208401,-0.427779,0.672514,0.819794,-0.208773,0.533246
-0.361984,-0.425087,0.651395,-0.745968,-0.565192,-0.352264
-0.178564,-0.469055,0.778854,-0.310973,0.750740,0.582825
-0.276554,-0.473998,0.781955,-0.479646,0.507596,0.715741
-0.471279,-0.464525,0.741050,0.133350,0.421065,0.897174
-0.286920,0.107412,0.853903,0.293773,0.955351,-0.031652
-0.279382,0.097800,0.698595,-0.417054,0.733005,-0.537373
-0.278126,0.036171,0.833466,0.018502,-0.012659,0.999749
-0.058745,-0.094594,0.492459,-0.478007,-0.581801,-0.658040
0.080704,-0.136431,0.603047,-0.366434,0.915900,-0.163869
0.045997,-0.150425,0.633315,0.144169,-0.291721,-0.945576
0.013966,-0.071264,0.155204,-0.625634,0.582335,0.519103
0.095311,-0.103783,0.246255,-0.366326,0.819127,0.441403
-0.006608,-0.108726,0.247464,0.159155,0.981752,0.104080
-0.026549,-0.126111,0.290013,0.013953,0.941586,0.336484
-0.016342,-0.147880,0.345927,-0.416788,-0.666699,-0.617901
-0.062354,-0.161029,0.375078,0.831014,-0.083886,0.549890
-0.050737,-0.181667,0.428636,0.876907,0.022007,0.480155
-0.070994,-0.197361,0.466936,-0.120158,0.992020,-0.038181
0.016476,-0.228741,0.555816,0.930338,0.054442,-0.362640
-0.234784,-0.250932,0.584533,0.326305,0.188622,0.926254
-0.113393,-0.285426,0.686438,0.099659,0.591143,0.800386
-0.041315,-0.312993,0.763782,0.186744,-0.284950,0.940176
-0.097688,-0.322742,0.783227,0.013112,0.961485,0.274543
-0.152024,-0.333493,0.805276,0.092161,0.948672,-0.302535
-0.257083,-0.373491,0.894435,-0.897268,0.265644,-0.352624
-0.067381,0.129465,0.289857,0.951474,-0.188490,-0.243246
0.163148,0.072641,0.448328,0.841438,-0.099600,0.531095
0.218898,0.022737,0.571105,-0.131924,-0.641782,0.755455
0.050081,0.028820,0.540279,0.520005,0.601688,-0.606272
0.306838,-0.030411,0.706100,0.530618,-0.801780,-0.274940
0.032181,-0.008504,0.626833,-0.455204,0.651998,-0.606372
-0.326807,0.024152,0.512709,-0.609230,-0.792554,-0.026390
-0.100046,-0.029142,0.662559,-0.572632,-0.582295,-0.577083
-0.127367,-0.045259,0.697572,0.849958,0.103053,-0.516673
-0.099571,-0.068011,0.754758,-0.211622,0.949374,0.232173
-0.106324,-0.085966,0.796283,-0.722792,-0.658799,0.208699
-0.089838,-0.107881,0.849406,0.890124,-0.265473,0.370409
-0.128470,-0.120598,0.876107,-0.401464,0.874907,0.270858
-0.236509,-0.124559,0.874247,0.199896,-0.752546,-0.627468
0.005957,-0.358789,0.070665,0.875005,-0.373937,-0.307470
-0.244364,-0.345787,0.003679,-0.382504,0.888000,0.255239
-0.504413,-0.330801,-0.069323,-0.740215,0.482234,0.468543
-0.081514,-0.402757,0.182959,-0.779032,0.203216,-0.593138
0.158437,-0.468347,0.396725,0.717385,-0.422895,-0.553641
-0.033930,-0.462687,0.357123,0.762768,0.622734,0.174318
0.289566,-0.554437,0.653224,0.758615,-0.296111,-0.580363
-0.328532,-0.497043,0.417007,0.682432,0.521412,0.512265
-0.550114,-0.487993,0.365465,0.083416,0.115241,0.989829
-0.498916,-0.510753,0.435924,0.172525,0.266989,0.948131
-0.728036,-0.519235,0.431055,0.017508,-0.895201,-0.445318
-0.818488,-0.526163,0.439304,-0.154657,0.897285,0.413474
-0.384124,-0.592175,0.677259,0.842215,-0.487375,-0.230521
-0.549011,-0.605747,0.695711,0.134779,-0.759691,0.636164
-0.663650,-0.608577,0.690191,0.298194,0.877444,0.375729
0.162050,-0.032395,0.071534,0.777877,-0.590720,-0.214377
0.353477,-0.779617,0.491621,-0.700369,0.468810,0.538239
0.097823,-0.767891,0.421565,0.703211,0.673740,0.227087
0.113680,-0.785837,0.478782,-0.290598,0.539249,0.790420
-0.102873,-0.663709,0.073425,0.942698,-0.324309,-0.078379
-0.236198,-0.699748,0.164600,-0.937431,0.301334,0.174416
-0.100046,-0.870089,0.096436,0.915831,-0.334044,-0.222865
-0.291473,-0.866414,0.057826,-0.402004,-0.913945,0.055647
0.138807,-0.983607,0.512678,0.175582,0.836279,0.519431
0.059033,-0.989681,0.523036,0.432981,0.897070,0.088274
-0.093293,-0.425510,-0.009408,0.892859,-0.284188,0.349342
-0.107738,-0.336883,0.363573,0.169903,-0.180276,0.968831
-0.462643,-0.309455,0.247402,0.511652,0.847603,-0.140644
-0.002995,-0.404311,0.556436,-0.771681,0.577957,-0.265469
-0.383813,-0.355968,0.382118,0.688618,-0.054863,-0.723046
-0.370936,-0.376321,0.437381,0.836550,-0.497055,0.230480
-0.103655,-0.428201,0.607141,-0.211565,0.928678,0.304628
-0.274671,-0.441911,0.623763,-0.244561,-0.575395,-0.780456
-0.369834,-0.447139,0.626833,0.534845,0.671529,0.512824
-0.379730,-0.463679,0.669630,-0.507389,-0.803143,0.312279
-0.205732,-0.501280,0.790949,-0.537114,0.778549,-0.324607
-0.369834,-0.498881,0.764898,-0.595602,0.633446,0.493969
-0.002056,-0.176861,-0.050561,0.549944,0.764908,-0.335378
-0.063140,-0.189156,-0.025968,0.724313,-0.135752,0.675975
-0.013203,-0.453507,0.081085,0.923285,-0.130036,-0.361435
-0.510069,-0.429469,-0.050623,-0.395377,0.899858,-0.184210
-0.113081,-0.496190,0.191271,0.546987,0.467763,0.694265
-0.050109,-0.520787,0.270661,-0.670086,0.740522,0.051105
0.032023,-0.547361,0.358208,0.988558,0.139736,-0.056810
0.051183,-0.567300,0.417472,-0.206728,0.974118,0.091419
-0.075705,-0.568707,0.406307,0.158510,-0.808347,-0.566965
-0.440660,-0.561365,0.338546,-0.588244,0.726580,-0.355037
-0.385222,-0.585247,0.413595,0.873544,-0.339782,0.348524
-0.675742,-0.568284,0.329026,-0.281851,0.058518,0.957672
-0.563777,-0.597265,0.427054,-0.490635,0.056469,-0.869534
-0.161604,-0.659179,0.655457,0.721957,0.657479,0.215636
-0.861988,-0.613667,0.436761,-0.654736,-0.597453,-0.463002
-0.096590,-0.639819,0.217041,0.779166,-0.483892,-0.398433
-0.105543,-0.656211,0.264242,0.941180,0.206596,0.267392
0.117922,-0.715157,0.469882,-0.419023,0.609096,0.673366
-0.050579,-0.712897,0.439924,-0.155865,0.770664,0.617886
-0.193167,-0.713320,0.421906,0.887888,0.102729,-0.448444
-0.042413,-0.230863,0.087846,-0.658216,-0.752717,-0.012978
0.258157,-0.329109,0.385561,-0.054891,0.880472,0.470910
0.141951,-0.332638,0.381529,0.054469,0.954665,0.292657
-0.047281,-0.326840,0.343353,-0.673420,-0.664165,0.324639
-0.227715,0.222336,0.408416,0.960741,0.262810,0.088920
-0.171970,0.477921,0.397934,0.911372,-0.251658,-0.325682
-0.201175,0.434100,0.325242,-0.518338,-0.824608,-0.226600
-0.334188,0.438905,-0.200007,-0.139689,0.773866,0.617753
-0.153280,0.588600,0.458004,0.333862,-0.795589,0.505544
-0.268388,0.584364,0.453042,-0.308508,-0.749339,0.585930
-0.135064,0.720633,0.389127,0.841644,-0.312676,-0.440305
-0.219707,0.757811,0.491931,0.533493,0.804892,-0.259873
-0.510538,0.358183,0.737298,-0.406299,0.909024,-0.092717
-0.124544,0.354369,0.262288,-0.438990,-0.233619,0.867589
-0.241378,0.350271,0.256303,-0.136196,0.180486,-0.974102
-0.164115,0.402573,0.386150,-0.865636,0.101254,-0.490329
-0.180448,0.417983,0.426496,-0.229531,-0.548758,0.803854
-0.331830,0.407241,0.405780,0.316555,-0.450391,0.834830
-0.025610,0.223328,-0.499117,0.975160,-0.215996,0.049080
-0.101459,0.200145,0.689850,0.304785,0.633894,-0.710834
-0.615127,0.154201,0.600473,0.870388,-0.134619,-0.473606
-0.130823,0.175693,0.267932,0.586879,0.263619,-0.765557
-0.107426,0.219092,0.375451,-0.194742,0.561084,-0.804525
-0.218921,0.215416,0.370985,0.167207,-0.756862,0.631824
-0.253311,0.372462,0.761115,0.642743,-0.555074,0.527991
-0.372503,0.339244,0.373404,0.553349,0.717898,-0.422407
-0.175109,0.233932,0.514260,0.966258,0.248788,0.066706
-0.209499,0.577720,0.396353,0.883599,-0.397892,0.246851
-0.201175,0.535875,0.448577,0.427535,0.613505,-0.663947
-0.384441,0.437913,0.561646,0.469159,0.800764,-0.372380
-0.205104,0.302205,0.735840,-0.512817,0.705571,-0.489068
-0.376902,0.283827,0.752463,0.472998,-0.611655,0.634154
-0.117317,0.788061,0.386274,0.883127,0.009265,-0.469042
-0.199450,0.739718,0.447367,0.331311,0.715746,-0.614769
-0.289273,0.731522,0.454004,0.433772,-0.530247,0.728478
-0.218921,0.218522,0.709883,-0.777560,0.401372,-0.484046
-0.357431,0.224605,0.693850,-0.698540,0.714969,-0.029325
-0.227404,0.599773,0.378242,0.979685,-0.193516,-0.052611
-0.188298,0.552553,0.446468,0.415599,-0.682418,0.601318
-0.324608,0.452753,0.578548,0.944499,0.327648,-0.023853
-0.181545,0.346880,0.733669,-0.532131,0.740906,-0.409750
-0.156265,0.297261,0.273173,-0.389968,0.511434,0.765742
-0.342823,0.261498,0.336313,0.676557,0.311715,-0.667161
-0.253158,0.179929,0.521176,0.739224,0.409238,0.534858
-0.058587,0.227288,0.108996,-0.345893,-0.912749,-0.217364
-0.015402,0.256407,0.403516,0.209195,-0.346710,0.914347
-0.362611,0.252025,0.391887,0.024884,-0.343549,0.938805
-0.265402,0.193079,0.485729,-0.708777,-0.237455,0.664267
-0.270588,0.297261,0.592937,0.617599,0.760786,-0.199439
-0.190814,0.320729,0.385653,0.902769,-0.071019,0.424222
-0.361197,0.327648,0.355138,0.887130,0.216776,-0.407441
-0.322096,0.277891,0.469820,-0.399407,-0.627422,-0.668443
-0.282210,0.250756,0.534573,0.861804,0.505206,-0.045399
-0.108053,0.180076,0.707744,-0.753002,0.654412,-0.068799
-0.220335,0.176539,0.704828,0.714061,0.149976,0.683830
-0.171184,0.529654,0.449476,0.573834,-0.566589,0.591348
-0.348479,0.470423,0.557770,0.789397,0.559230,-0.253207
-0.208871,0.379960,0.761084,0.749934,-0.462038,0.473412
-0.143388,-0.060522,-0.974592,-0.218892,0.439818,0.871003
0.072226,-0.057839,-0.959614,-0.069599,0.313989,0.946872
0.238997,-0.049358,-0.958652,-0.215457,0.284657,0.934103
-0.048695,-0.249663,-0.739026,-0.228103,-0.531144,0.816000
-0.087011,-0.180675,-0.944294,-0.220057,0.568462,0.792733
0.036734,-0.169795,-0.953783,0.221509,0.275842,0.935331
0.184349,-0.160744,-0.956357,-0.016852,0.373801,0.927356
-0.137105,-0.519235,0.636013,-0.080351,-0.254911,0.963620
-0.569116,-0.421843,0.443987,-0.657165,0.643116,-0.393110
-0.255199,-0.205135,0.878216,0.880626,-0.057842,-0.470268
-0.132553,-0.193116,0.870091,-0.691123,0.309137,0.653286
-0.087955,-0.172055,0.842211,0.956859,-0.099880,-0.272845
-0.027652,-0.128372,0.781955,-0.588165,-0.773537,0.236013
-0.043040,-0.099960,0.738476,0.169587,-0.533717,0.828484
-0.070520,-0.070418,0.693168,-0.078530,-0.289433,0.953971
-0.092038,-0.040729,0.647363,-0.230327,-0.879276,0.416921
-0.019011,-0.022637,0.626089,-0.398984,0.647756,-0.649018
-0.277024,0.091864,0.861842,-0.393231,0.906606,0.153085
0.012863,0.092572,0.896141,0.426420,-0.215353,-0.878515
-0.164273,-0.333631,0.794391,0.143840,0.798545,0.584496
-0.211071,-0.300413,0.703774,0.455887,-0.369524,0.809703
-0.680453,-0.061790,0.406742,-0.570361,-0.213406,0.793187
-0.268388,-0.191425,0.601993,0.696914,-0.546283,-0.464635
-0.173695,-0.252485,0.578207,0.233668,0.321092,0.917769
-0.143700,-0.173893,0.903150,0.714463,-0.686289,0.136202
-0.181703,-0.143359,0.853189,0.003343,-0.891354,0.453296
-0.103026,-0.193116,0.826209,0.973499,0.178799,0.142582
-0.119675,-0.177284,0.778823,0.016687,0.957262,0.288742
-0.157521,-0.146612,0.726537,-0.572038,0.759591,-0.309507
-0.154065,-0.144627,0.684795,-0.403340,-0.895737,0.187009
-0.113234,-0.168518,0.651705,0.837670,0.545352,0.030003
-0.159404,-0.131909,0.596969,-0.020826,0.996959,0.075094
-0.062670,-0.194669,0.575478,-0.337294,0.326467,0.882979
-0.070836,-0.184350,0.529084,0.880289,0.148334,-0.450652
-0.135222,-0.135162,0.469851,0.277953,0.691989,-0.666253
-0.438619,0.282559,0.745702,0.773990,-0.078378,-0.628328
0.235072,-0.166119,0.720179,0.070926,0.556270,0.827969
0.297416,-0.439366,-0.946651,-0.056173,0.202603,0.977649
0.204607,-0.513299,-0.946433,-0.181192,0.137743,0.973754
-0.830584,0.112080,0.381622,-0.062434,0.815344,0.575600
-0.705268,0.128196,0.585308,0.863958,-0.365940,-0.345925
-0.690977,0.068258,0.403361,0.607474,-0.656620,-0.447019
-0.587173,0.105574,0.624632,0.876423,0.171644,-0.449913
-0.573040,-0.008642,0.410277,0.311695,-0.730760,-0.607319
-0.518546,0.113495,-0.003360,0.879768,-0.460688,-0.117370
-0.468451,0.259513,0.612040,0.224142,-0.264708,0.937918
-0.477250,-0.090487,0.433288,0.479272,0.225341,-0.848245
-0.482589,-0.481919,0.183332,0.980409,-0.094700,0.172713
-0.510538,-0.885214,0.131107,-0.102732,-0.860308,0.499315
-0.414589,0.115332,0.581122,0.794013,0.423328,0.436277
-0.412864,-0.084973,0.420263,0.202531,-0.881328,0.426898
-0.414278,-0.170925,0.354673,0.251680,0.021887,0.967563
-0.368420,0.233647,0.810672,0.230145,0.609077,0.758985
-0.370620,-0.020239,0.621499,-0.146735,-0.862694,0.483971
-0.352562,0.075325,0.529084,0.930527,-0.187237,0.314741
-0.347223,0.005352,0.424884,-0.279577,-0.230448,0.932057
-0.300584,-0.098269,0.594674,-0.232522,-0.649204,0.724202
-0.258180,-0.188595,0.876076,-0.675252,0.570618,0.467365
-0.251586,-0.310309,0.707154,0.295648,-0.849637,0.436703
-0.228501,-0.151840,0.605869,0.968717,-0.241837,0.055703
-0.231328,-0.222520,0.577741,0.046530,0.233833,0.971163
-0.222846,-0.174885,0.533022,0.410962,-0.884824,-0.219536
-0.203374,-0.014156,0.470812,0.779375,0.568501,-0.263401
-0.219391,-0.251639,0.430249,-0.727344,0.160814,0.667165
-0.212327,-0.212201,0.384754,-0.380575,-0.877670,-0.291305
-0.194739,-0.225065,0.776900,0.932641,0.225094,-0.281983
-0.185317,-0.167534,0.730010,-0.329590,-0.828777,0.452216
-0.178406,-0.125551,0.686624,-0.368279,0.250570,-0.895313
-0.171970,-0.089780,0.644138,0.990409,0.124646,0.059611
-0.176048,-0.178984,0.618770,-0.407692,0.886759,-0.217822
-0.183586,-0.297445,0.599388,0.189692,-0.820361,0.539467
-0.170709,-0.203435,0.546109,0.275565,-0.946288,-0.169122
-0.160818,-0.139683,0.497173,-0.270562,-0.360623,0.892607
-0.152968,-0.100245,0.451802,0.672894,-0.721660,0.162545
-0.156418,-0.167249,0.424418,0.146643,-0.977486,0.151711
-0.150141,-0.133747,0.381374,-0.428721,0.493413,0.756797
-0.147624,-0.190993,0.865625,0.940633,-0.255418,0.223543
-0.140403,-0.189441,0.790607,0.484912,0.805517,0.340592
-0.139774,-0.220967,0.758479,0.109624,0.939044,0.325851
-0.130037,-0.149010,0.709108,0.919266,0.391369,-0.042205
-0.121243,-0.097562,0.662714,0.742893,-0.323216,0.586209
-0.124544,-0.161736,0.633625,-0.579070,0.791590,0.195099
-0.122973,-0.190855,0.600566,-0.556832,-0.472484,-0.683152
-0.127214,-0.271294,0.575602,-0.412298,-0.188103,0.891419
-0.111667,-0.149157,0.517919,0.080524,0.972355,0.219186
-0.105068,-0.117345,0.475340,0.082201,-0.529606,0.844252
-0.106170,-0.161167,0.442715,0.347808,0.759323,0.549962
-0.108840,-0.227749,0.413533,0.983809,-0.063988,0.167411
-0.070366,-0.302811,0.789646,0.389566,-0.555979,-0.734252
-0.058117,-0.203012,0.737794,-0.217384,-0.913987,0.342596
-0.056229,-0.332638,0.604225,0.916451,0.037411,0.398394
-0.008808,-0.382827,0.600721,0.323763,-0.763178,0.559229
0.097506,-0.123566,0.609435,-0.418937,0.907268,0.036849
-0.225046,-0.142513,0.577276,-0.123987,-0.717888,-0.685028
-0.145114,-0.066605,0.454531,0.134061,-0.171661,0.975992
-0.349734,-0.381265,0.384134,0.129028,0.750820,-0.647781
-0.241848,-0.268317,0.255155,-0.821647,0.138056,-0.553024
-0.144644,-0.214608,-0.020479,-0.028905,0.065307,0.997446
-0.164901,-0.336461,-0.316178,0.946665,-0.309092,0.091032
-0.092349,-0.319774,-0.595843,0.577957,-0.807512,0.117853
-0.209969,-0.032110,0.781738,0.739413,0.562978,0.369223
-0.239337,-0.142790,0.573586,0.009161,0.709461,0.704685
-0.225362,-0.172055,0.427706,-0.029085,0.599144,0.800113
-0.211383,-0.163712,0.389871,0.308363,-0.912086,0.270206
-0.336229,-0.349885,0.375854,0.240263,-0.827593,-0.507311
-0.067223,-0.289947,-0.603441,-0.854349,0.295022,-0.427843
-0.064242,-0.304649,-0.624126,-0.553811,0.832127,-0.029294
-0.100515,-0.366710,-0.655665,-0.283070,0.958626,0.030144
-0.209030,-0.081022,0.584471,-0.678545,-0.383496,0.626504
-0.341568,-0.341974,0.392445,-0.405166,0.875161,-0.264450
-0.221279,-0.141806,0.573741,0.584784,0.058818,0.809054
-0.256766,-0.270301,0.365496,0.774879,-0.017735,0.631861
-0.196464,-0.229301,0.244332,-0.110566,0.938156,0.328084
-0.151396,-0.220544,0.091939,-0.087254,0.826585,0.556008
-0.137891,-0.244003,-0.022464,0.488021,-0.324367,-0.810321
0.004227,-0.258567,-0.610667,0.855449,0.137220,0.499377
-0.137733,-0.287687,-0.332490,0.917930,0.230986,-0.322569
-0.160032,-0.390877,-0.515864,0.931426,-0.236238,0.276833
-0.112923,-0.341827,-0.563715,-0.261896,-0.912419,0.314488
-0.084341,-0.315823,-0.606729,-0.574634,0.756995,-0.311053
-0.039115,-0.371939,-0.923081,-0.083731,-0.842145,0.532711
-0.303564,-0.098123,0.786576,0.492824,0.830895,-0.258338
-0.195366,-0.016701,0.588689,0.879757,0.444909,-0.167585
-0.386482,-0.362042,0.408819,-0.576337,0.414837,0.704092
-0.167887,-0.338151,-0.604434,0.337118,-0.899926,0.276560
-0.136947,-0.309602,-0.647944,0.622587,0.591205,-0.512700
-0.101613,-0.367693,-0.922895,-0.425894,0.807643,-0.407832
-0.399043,-0.129502,0.607513,0.565930,0.783334,-0.257120
-0.167254,-0.277083,-0.608806,0.731409,0.272453,0.625149
-0.181545,-0.311439,-0.643013,0.700348,0.524962,-0.483661
-0.108523,-0.317375,-0.925873,0.943125,0.317579,-0.098279
-0.415376,-0.053594,0.611017,0.757709,-0.177210,0.628071
-0.415845,-0.125689,0.432575,-0.189942,0.647274,-0.738213
0.070185,0.011711,-0.964296,-0.078270,0.163700,0.983400
-0.307336,-0.530546,-0.961350,-0.480614,0.260965,0.837203
-0.489342,-0.132470,0.433319,0.705874,-0.000692,-0.708337
0.025587,0.028820,-0.967180,0.230472,-0.083599,-0.969481
-0.163329,-0.242028,-0.966560,-0.367204,0.493518,0.788417
-0.303564,-0.448693,-0.974313,0.353184,-0.211973,-0.911224
0.027782,0.067836,-0.973724,0.366982,-0.181166,-0.912416
-0.175895,-0.225350,-0.969972,-0.309967,0.536299,0.785050
-0.349106,-0.475698,-0.972421,0.353184,-0.211973,-0.911224
-0.473795,-0.066320,0.423798,-0.156252,0.921958,-0.354371
0.027000,0.173571,-0.980174,0.108736,-0.268426,-0.957144
-0.191600,-0.136008,-0.971894,0.408229,-0.218282,-0.886398
-0.583560,0.135686,0.600287,0.931126,0.068140,-0.358276
-0.598009,0.172018,0.575757,0.938683,-0.217271,0.267708
-0.371875,-0.055579,-0.943518,0.567035,0.251409,0.784388
-0.436577,-0.021507,-0.957071,0.959024,-0.002884,0.283310
0.378762,-0.609137,-0.937378,-0.017476,0.069815,0.997407
0.308880,-0.371231,-0.953690,-0.184554,-0.064339,0.980714
-0.016658,-0.301543,-0.951364,-0.324480,0.298338,-0.897612
-0.089522,-0.060099,-0.970282,-0.104628,0.577975,0.809320
0.105519,0.036447,0.427861,0.876003,0.184723,-0.445529
0.271504,-0.084551,0.617375,0.121011,0.832433,-0.540751
-0.026238,-0.279775,0.030846,0.950075,-0.235483,-0.204710
0.002502,-0.204712,0.096622,-0.566533,-0.811324,-0.144202
-0.011478,-0.100530,0.112407,0.504817,0.863120,0.013577
0.018834,-0.100383,0.155142,0.461600,0.336487,-0.820793
0.027154,-0.048365,0.185099,0.168677,0.598942,0.782826
0.168175,0.108119,0.435459,0.615634,-0.758057,0.215277
0.334006,-0.141659,0.305239,0.040366,-0.997656,0.055264
0.147759,-0.063067,0.568531,-0.582296,0.550748,0.598003
-0.152340,-0.179544,0.052585,-0.301420,-0.638271,0.708348
-0.131297,-0.157923,0.090141,-0.388051,0.601359,0.698416
-0.079314,-0.207818,0.145249,0.815769,0.486889,0.312186
-0.068637,-0.164842,0.175702,-0.441484,0.651897,0.616541
-0.030791,-0.185480,0.221290,0.906580,-0.378821,0.186029
-0.011631,-0.160460,0.257574,0.910741,0.168871,-0.376873
0.062647,-0.129079,0.373249,0.261172,0.626652,0.734232
-0.082141,-0.221390,0.077364,-0.391450,-0.864567,0.315105
-0.050579,-0.225635,0.119354,0.875262,0.371544,-0.309630
-0.037385,-0.187887,0.151172,0.863013,0.503573,0.040293
-0.014616,-0.170080,0.189441,-0.032403,0.690082,0.723005
-0.214838,-0.125551,0.049267,0.887591,0.024526,-0.459979
-0.104129,-0.251786,0.163391,0.746243,0.515189,-0.421548
-0.101302,-0.189725,0.189100,0.271965,-0.897430,-0.347354
-0.064084,-0.209656,0.235959,0.082356,0.989806,0.116198
-0.048537,-0.177707,0.270196,0.443509,0.335925,-0.830936
-0.057801,-0.085405,0.290199,0.877158,0.397329,-0.269674
0.074738,-0.339144,0.390026,0.228757,-0.814628,-0.532965
-0.203063,-0.126957,0.049298,0.887591,0.024526,-0.459979
-0.113709,-0.267471,0.126145,-0.574953,-0.443363,-0.687647
-0.124228,-0.171210,0.145497,0.473994,0.879951,0.031872
-0.085438,-0.191140,0.192697,-0.229109,-0.776371,0.587160
-0.052462,-0.203012,0.235928,-0.291686,0.937436,0.190086
-0.048220,-0.145619,0.262505,-0.183229,0.978060,0.099129
-0.022466,-0.136293,0.302697,0.866539,-0.465802,-0.179275
-0.014300,-0.014156,0.355665,0.237092,0.364395,-0.900557
0.059977,-0.053033,0.447553,-0.397502,0.719183,-0.569884
0.260668,-0.409539,0.607978,0.909572,0.225096,-0.349301
-0.088894,-0.176016,0.119199,0.879135,0.249076,-0.406305
-0.067381,-0.159614,0.157685,0.917803,0.396896,-0.010500
0.013491,-0.221959,0.255062,-0.226840,0.933625,-0.277287
-0.010064,-0.096000,0.267033,0.368814,-0.831784,0.414862
0.047570,-0.103921,0.350114,-0.031207,-0.641224,0.766719
0.026056,0.014679,0.362208,-0.281827,0.598428,0.749971
-0.055448,-0.339705,0.174524,0.867151,0.018333,0.497707
-0.103971,-0.151133,0.171330,0.590895,-0.705530,-0.391241
-0.059057,-0.192409,0.221600,0.459438,-0.884265,0.083618
-0.031889,-0.192409,0.261978,0.268222,-0.953364,0.138401
-0.016816,-0.160891,0.296215,-0.608664,0.471992,0.637771
0.168333,-0.547931,0.427427,-0.497833,0.536017,0.681797
-0.033302,0.015956,0.336003,0.674843,0.729290,0.112795
0.050397,0.015809,0.457942,-0.323327,-0.389548,-0.862388
-0.152024,-0.209518,0.126115,-0.715176,0.267293,-0.645815
-0.103655,-0.191425,0.206343,0.050194,-0.998723,-0.005670
-0.094860,-0.147604,0.236393,0.458649,-0.487328,0.743070
-0.023880,-0.255315,0.301859,0.065077,0.992363,0.104785
-0.027024,-0.178837,0.325304,0.825741,-0.548846,0.130076
0.041134,-0.282311,0.389468,0.856123,0.492021,0.158016
-0.304978,-0.376459,0.391701,-0.654384,0.696787,-0.293718
-0.123284,-0.146042,0.736243,0.816312,-0.181551,-0.548338
-0.120461,-0.020937,0.785645,0.116406,0.531485,0.839031
-0.038329,-0.160321,0.854461,0.799674,0.600211,-0.016411
-0.122345,-0.164281,0.438994,0.265956,0.832467,0.486072
-0.053406,-0.067303,0.577680,0.453570,0.874242,-0.173134
-0.415845,-0.033241,-0.991153,-0.177080,0.187815,0.966110
-0.411604,-0.160037,-0.988176,0.306167,-0.063303,-0.949871
-0.408935,-0.302527,-0.978934,0.498310,-0.211273,-0.840863
-0.364183,0.023868,-0.992362,0.079637,0.102636,0.991526
-0.360881,-0.117070,-0.983524,0.138226,-0.299150,-0.944141
-0.355700,-0.241890,-0.982810,0.410720,-0.359622,-0.837843
-0.351934,-0.379151,-0.977073,0.441106,-0.042147,-0.896465
-0.242322,0.170741,-0.993479,0.203948,-0.146717,-0.967925
-0.227245,-0.388055,-0.965258,0.375813,0.056189,-0.924991
-0.320525,0.197746,-0.998192,0.468245,-0.206913,-0.859030
-0.316130,0.061615,-0.993541,-0.210333,0.025275,0.977303
-0.305448,-0.356244,-0.971243,-0.398192,0.065636,0.914951
-0.301364,-0.493653,-0.965599,-0.324426,0.211157,0.922041
-0.171654,-0.334623,-0.937378,0.315085,0.465027,-0.827328
-0.164743,-0.435405,-0.943673,-0.359514,-0.480240,0.800075
-0.111509,-0.272277,-0.837488,0.867998,0.495636,-0.030401
-0.069106,-0.344510,-0.943890,-0.636061,0.212503,-0.741801
-0.053876,-0.540019,-0.960575,0.138535,-0.090561,-0.986208
0.417236,-0.532806,-0.938308,-0.014467,0.118154,0.992890
0.366044,-0.438235,-0.945782,-0.016277,-0.061452,0.997977
0.370596,-0.592745,-0.933657,-0.067862,0.370027,0.926539
0.371382,-0.383250,-0.945937,0.553181,-0.022904,-0.832746
0.377660,-0.514006,-0.942805,-0.633467,0.209362,0.744907
0.383943,-0.643632,-0.938091,0.012290,0.066311,0.997723
0.309508,-0.459866,-0.942154,-0.179195,-0.101457,-0.978568
-0.265249,0.030796,0.677755,0.967576,0.169000,-0.187713
-0.249545,-0.102368,0.153746,0.284333,0.860974,-0.421757
-0.246717,-0.366003,0.202745,-0.076089,0.124025,0.989358
-0.414120,0.158161,0.828566,-0.372153,-0.908561,-0.189786
-0.407209,0.104729,0.810021,0.992746,0.118177,0.022123
-0.398415,0.159714,0.759781,-0.330486,0.743305,0.581616
-0.393705,-0.030273,0.782885,0.922747,0.379939,-0.064681
-0.385380,0.004645,0.736957,0.078414,0.687341,0.722090
-0.369991,0.449647,0.563879,0.561007,0.744280,-0.362378
-0.365908,0.247504,0.591790,0.866178,-0.497750,0.044508
-0.358687,-0.252631,0.677879,0.791147,-0.586223,-0.174441
-0.345493,0.072218,0.541333,0.978773,0.034272,0.202059
-0.339368,-0.060660,0.547040,0.108192,0.525079,0.844148
-0.335760,-0.308187,0.589309,-0.612659,0.528895,-0.587298
-0.327905,-0.315823,0.555475,0.774321,-0.611321,-0.163445
-0.318483,-0.228603,0.492303,0.755794,-0.622332,-0.203665
-0.309219,-0.159329,0.434125,-0.189550,-0.247376,0.950198
-0.302151,-0.221105,0.416851,0.921831,-0.338712,-0.188420
-0.296970,-0.355537,0.424666,0.910739,-0.368556,-0.186336
-0.286293,-0.273407,0.360379,-0.257064,0.052987,-0.964941
-0.281265,-0.426501,0.372752,0.374711,-0.676957,0.633498
-0.268704,-0.229871,0.269979,-0.179553,-0.822876,0.539106
-0.449138,0.284819,0.791011,0.974589,-0.154880,-0.161831
-0.443957,0.133848,0.803353,0.963999,-0.218489,0.151552
-0.435950,0.184597,0.754262,0.088093,0.142090,0.985926
-0.429350,0.116463,0.740058,0.744887,-0.609056,0.272387
-0.423853,-0.012456,0.745888,0.061316,0.429358,0.901051
-0.413492,0.256545,0.627143,-0.005551,0.347524,0.937655
-0.405326,0.318184,0.572066,0.962820,0.259214,-0.076066
-0.385855,0.088327,0.538015,0.960455,-0.158184,0.229137
-0.381297,-0.136854,0.572779,-0.330618,-0.939138,0.093339
-0.376428,-0.304649,0.591201,-0.144620,-0.083216,0.985982
-0.370461,-0.418443,0.591139,-0.720861,0.660382,-0.210371
-0.358687,-0.111979,0.456578,-0.627810,-0.736761,-0.251075
-0.350990,-0.101945,0.416355,0.355422,0.802591,-0.479085
-0.343140,-0.070418,0.370334,-0.619063,0.581991,-0.527302
-0.337326,-0.213193,0.380722,-0.243578,0.961698,0.125725
-0.331519,-0.345925,0.386305,-0.068323,0.047217,0.996545
-0.325235,-0.420565,0.374210,-0.031998,-0.474557,0.879643
-0.306234,-0.211356,0.229012,-0.268113,0.879898,0.392294
-0.297128,-0.128372,0.162771,0.044636,-0.799519,0.598979
-0.292259,-0.306202,0.184758,0.364601,0.048005,-0.929925
-0.276084,-0.307479,0.108407,-0.314712,0.772754,-0.551187
-0.258966,-0.153816,0.208048,0.614390,0.701922,0.360320
-0.399987,0.086920,0.840537,0.341406,0.939874,-0.008872
-0.393235,0.045498,0.818394,0.913295,-0.315389,0.257726
-0.386166,0.095117,0.769519,-0.139639,0.543948,0.827418
-0.380511,-0.012180,0.768837,0.750277,0.557120,-0.355953
-0.374075,-0.074517,0.752649,0.048670,0.189573,0.980660
-0.363239,0.326950,0.594023,-0.182076,0.885570,0.427333
-0.358687,0.078862,0.635424,0.146265,0.985555,-0.085374
-0.350046,0.157454,0.575136,0.913487,-0.129157,0.385824
-0.347693,-0.284150,0.677817,0.549096,-0.644345,-0.532272
-0.336857,0.081407,0.527998,-0.619296,0.342066,-0.706727
-0.323664,0.140914,0.869254,0.966186,0.190590,-0.173666
-0.317539,0.055532,0.861873,0.922603,-0.295463,-0.248004
-0.310945,0.042815,0.831016,0.519452,0.565608,-0.640513
-0.304820,-0.065897,0.829434,0.942308,0.160757,-0.293619
-0.298542,-0.145904,0.819076,0.193024,0.133777,-0.972032
-0.291631,-0.117345,0.776559,0.367300,0.900191,-0.233979
-0.283623,-0.004544,0.707775,0.280330,0.782641,0.555777
-0.278126,-0.151978,0.718411,0.807409,-0.495147,-0.320811
-0.264775,-0.276945,0.687772,-0.407850,-0.486774,-0.772470
-0.257083,-0.218707,0.633625,0.651211,-0.681572,0.333743
-0.249386,-0.174178,0.583386,0.459041,-0.303069,0.835123
-0.241378,-0.091764,0.521858,0.651714,0.670094,0.355307
-0.232742,-0.579457,0.606148,0.016037,0.391399,0.920081
-0.220493,-0.188595,0.444979,0.969415,-0.179975,-0.166863
-0.212638,-0.166404,0.400260,-0.511566,0.857232,-0.058770
-0.206513,-0.266341,0.395546,-0.198774,0.424667,0.883259
-0.198980,-0.273269,0.360286,-0.120576,0.582112,0.804119
-0.193325,-0.383811,0.360224,0.255581,0.155186,0.954251
-0.184373,-0.271570,0.287004,0.814956,-0.575792,-0.065648
-0.175737,-0.195523,0.223368,-0.125786,0.991827,0.021389
-0.168040,-0.219837,0.193907,0.043838,0.989542,-0.137426
-0.161915,-0.327695,0.191054,0.154692,-0.017503,0.987808
-0.153438,-0.281466,0.136597,0.203078,-0.828220,-0.522312
-0.145430,-0.276100,0.095258,0.530877,-0.837131,-0.131837
-0.122814,-0.322889,-0.005314,0.437067,-0.776134,-0.454520
-0.114648,-0.299421,-0.051987,-0.649721,-0.078709,-0.756087
-0.098790,-0.312708,-0.128587,-0.576792,0.816888,0.002259
-0.332458,-0.153255,0.567353,0.041411,0.934438,0.353710
-0.325394,-0.174885,0.537736,-0.038156,-0.549086,0.834894
-0.319581,-0.278921,0.535441,0.145371,0.955881,0.255261
-0.310787,-0.159899,0.460299,-0.675634,-0.060322,-0.734765
-0.303564,-0.184074,0.430900,0.949151,0.023832,-0.313919
-0.297598,-0.333769,0.442188,0.791937,-0.599089,-0.118018
-0.290687,-0.350593,0.411672,0.928160,-0.254019,-0.272019
-0.282679,-0.292355,0.356347,-0.271960,0.195244,-0.942294
-0.274983,-0.281889,0.315070,0.357722,-0.687218,0.632271
-0.266346,-0.188733,0.247650,0.283263,-0.932078,0.225815
-0.258339,-0.170925,0.203179,-0.682867,-0.657429,0.318561
-0.249545,-0.093317,0.138519,-0.244987,0.927569,-0.282129
-0.243262,-0.217999,0.141527,0.345359,0.367195,0.863652
