0.317528,-0.238773,0.752010,0.626187,0.421488,0.655925
0.438686,0.303331,0.711122,0.886660,0.019796,0.461999
0.001267,0.386702,0.021396,0.810315,0.565608,0.153220
0.802854,0.141048,0.633013,-0.612882,-0.266215,-0.743979
0.390164,-0.855536,0.359315,0.930720,0.364203,0.033402
0.246016,-0.582158,-0.000994,0.720180,-0.497217,-0.483855
0.419867,-0.762957,0.315989,0.945354,-0.063075,-0.319887
0.590253,0.220554,0.287556,-0.790227,-0.603434,-0.106814
-0.084079,-0.100944,0.905606,0.869009,-0.484335,0.101211
0.313766,0.565423,0.605646,0.868681,0.494759,0.024623
0.151009,0.604932,-0.981850,0.007123,0.225261,0.974272
0.136357,0.068074,0.928549,-0.381239,-0.923632,-0.039501
0.653527,0.600279,-0.985497,0.072664,0.117246,0.990441
-0.009922,0.394525,0.924698,0.859995,0.499100,-0.106337
-0.033415,-0.682360,0.646370,0.810639,-0.280310,-0.514091
-0.546109,-0.473440,-0.934448,0.222025,0.061555,0.973096
-0.319570,-0.096194,-0.949833,-0.028064,0.101162,0.994474
-0.338998,0.020745,0.750535,0.960785,0.014533,0.276913
-0.115203,0.173226,-0.000297,0.279154,0.837358,0.470005
-0.491174,0.170851,0.747462,0.878767,-0.362447,-0.310484
-0.570112,-0.599484,-0.930556,0.029895,0.190006,0.981328
0.245612,0.219367,0.755472,0.331757,0.709249,-0.622015
0.352725,-0.549877,0.261151,0.660132,-0.605877,0.444004
0.812825,-0.731472,0.038317,0.825860,-0.538936,-0.165840
0.183760,0.218775,0.810781,0.798683,0.349209,0.490059
0.328213,-0.686322,0.024387,-0.507845,0.849963,-0.140203
-0.048981,0.005694,-0.069003,-0.795121,0.598813,-0.095948
0.668273,-0.186098,0.506622,0.905004,0.389471,-0.171113
0.139616,0.076985,0.292555,0.885975,0.438832,-0.149919
0.377647,0.887221,0.184948,0.272077,0.908009,-0.318581
0.095770,0.302143,-0.829259,0.995507,0.090119,-0.029065
-0.288136,0.271153,0.538496,0.374784,0.130993,0.917811
0.914344,-0.097578,-0.420257,0.783932,-0.501389,0.366140
0.509279,0.281847,0.660607,-0.354875,0.720056,0.596308
0.710797,-0.096886,0.648766,0.908319,-0.218024,0.356963
0.505007,-0.135799,0.564492,0.998495,-0.049674,-0.023224
-0.187734,0.515420,0.365686,-0.103049,0.953260,0.284036
0.643456,0.812564,-0.191278,0.897260,0.384938,0.216212
-0.353948,0.457201,-0.024899,0.492060,0.545560,0.678411
0.143782,0.260559,-0.444553,0.586450,0.808520,0.048694
0.323327,-0.187286,0.766862,0.237451,0.941076,0.240818
0.079702,0.938116,0.089775,-0.318462,0.923414,0.214217
-0.651695,-0.574335,-0.930864,0.174180,0.149264,0.973335
-0.682112,0.407495,0.044667,0.420935,-0.898328,-0.125783
-0.966535,-0.047874,-0.407987,-0.306565,-0.346617,-0.886496
0.208180,-0.168473,0.779849,0.999788,-0.018979,-0.008011
0.667459,0.666121,-0.986480,0.000535,0.174399,0.984675
0.211532,-0.067579,-0.958170,-0.023180,0.274628,0.961271
-0.876204,0.392643,-0.184989,-0.067424,0.414106,0.907728
-0.696764,-0.285609,-0.939897,-0.054498,-0.170703,-0.983814
0.109299,0.107975,0.010355,-0.267761,0.957352,0.108541
0.738767,-0.730680,0.041697,0.621405,-0.612957,-0.487996
0.019583,0.137186,-0.138611,0.057715,0.998281,-0.010208
0.510806,0.679193,-0.987730,0.025416,0.142471,0.989473
-0.762167,0.335808,-0.160509,0.312971,0.455168,0.833589
-0.006972,0.130750,0.377813,0.971450,-0.173013,-0.162332
-0.726262,-0.151938,-0.114664,-0.717142,-0.344350,-0.605913
0.183866,0.241546,-0.532945,0.319491,0.945130,-0.068233
-0.547736,0.600179,0.479705,0.208294,-0.918078,0.337262
0.051930,-0.569881,0.633751,0.992308,-0.101727,0.070540
0.258632,0.493936,0.352063,0.874418,0.072108,0.479784
-0.437773,-0.202929,-0.943831,-0.116737,-0.280430,-0.952749
0.769183,-0.658298,0.245952,0.478659,-0.238066,-0.845110
-0.015106,0.507897,-0.000522,0.971712,-0.092265,0.217399
0.447738,-0.288776,0.373450,0.677356,0.681665,-0.276626
0.075834,0.513737,0.767189,-0.299872,-0.887836,0.349034
0.254665,-0.031932,0.521432,0.272334,0.952269,-0.137906
0.089158,0.038567,0.712290,0.049602,0.945986,0.320391
-0.300851,-0.472845,0.277396,0.235459,0.824933,0.513852
-0.272365,-0.210060,0.752686,0.354382,-0.469189,0.808872
0.303999,-0.208970,0.436051,-0.300993,0.944093,0.134506
0.783631,-0.447100,0.520367,0.403111,-0.500198,0.766357
0.396876,0.860685,-0.327154,0.076293,0.989331,-0.124110
-0.291494,-0.062330,0.499452,-0.041045,-0.990876,0.128373
0.589335,0.451853,-0.987566,0.038462,0.060046,0.997454
0.163011,0.669487,-0.971649,0.032086,0.248965,0.967981
-0.498805,0.323531,-0.206006,0.471213,0.427403,0.771547
0.105133,-0.974255,0.231469,0.095715,-0.995409,-0.000205
0.277550,-0.313233,0.083670,0.888156,-0.459542,0.000705
-0.289458,-0.140552,-0.949116,0.032202,0.100080,0.994458
0.709374,0.747909,0.023322,-0.361434,0.260386,0.895301
0.315498,-0.104014,0.800785,0.889356,-0.446332,-0.099160
0.120084,-0.612257,0.220673,0.066184,0.966326,0.248662
-0.793199,0.568593,0.125726,-0.519259,0.743009,-0.422265
-0.000664,-0.648795,0.583788,0.868552,-0.071719,-0.490382
0.262295,-0.538295,0.689777,-0.145878,0.968227,-0.203117
0.650373,0.682855,0.098235,0.778074,-0.442354,-0.446009
-0.206757,0.081143,0.806971,0.774606,0.628600,0.069625
0.246221,-0.440764,0.278072,-0.618220,0.236463,-0.749592
0.141138,0.349372,-0.262831,-0.617933,-0.086035,-0.781510
0.452922,0.337591,0.096494,0.793050,-0.570578,-0.213333
0.549158,-0.326798,0.638135,0.970919,-0.145622,-0.190028
0.130055,0.568098,-0.976340,0.048360,0.246900,0.967834
0.969074,-0.287984,0.285897,0.883837,0.236349,0.403697
0.375307,0.696419,-0.540545,0.623753,0.556909,-0.548438
-0.027418,-0.119857,-0.948911,-0.088980,-0.183739,-0.978939
-0.539391,0.399771,-0.485993,-0.246117,0.966964,0.066381
-0.432384,-0.661072,0.262422,-0.410212,-0.898774,-0.154695
0.216214,-0.823455,0.143896,0.240290,0.772062,0.588372
0.195563,0.009752,0.308943,0.484981,0.871889,-0.067839
-0.557906,-0.039951,-0.947968,-0.012079,0.017567,0.999773
-0.110218,0.443933,-0.251564,0.248814,-0.088441,0.964505
-0.390369,-0.658993,0.322217,0.886434,-0.459999,0.051337
-0.329840,-0.122332,0.839685,0.884769,-0.185223,-0.427641
0.603882,0.032627,0.758115,0.232111,-0.405613,0.884083
-0.140430,0.082231,-0.958026,0.208771,0.063753,0.975884
-0.371755,-0.308380,0.400674,-0.252277,0.490534,0.834106
0.167282,-0.062034,-0.469544,0.860733,0.258750,0.438392
-0.414477,-0.544828,0.410384,0.980265,0.164326,0.109894
-0.681094,0.509876,0.406553,0.838727,0.497183,-0.222141
-0.210520,-0.283131,0.344115,0.819001,-0.351254,0.453715
-0.697168,-0.050449,-0.949423,0.068937,0.204680,0.976398
-0.155181,-0.060251,0.662696,0.112154,0.987949,0.106669
-0.132699,0.263529,0.711040,-0.453339,0.884946,0.106559
-0.465544,-0.188377,-0.138529,0.202679,0.599381,0.774380
0.021209,-0.547006,0.523255,0.087015,0.977319,0.193068
-0.117339,-0.160949,0.792591,0.528982,-0.104282,0.842202
0.361374,-0.575126,0.773110,0.233063,-0.944181,0.232819
0.750980,-0.069062,0.438612,0.955366,-0.058548,0.289564
0.427187,0.395118,-0.317936,0.240066,0.463448,0.852985
0.083160,0.565919,-0.082216,-0.685200,0.294141,0.666320
0.607849,-0.398288,0.569326,-0.316774,0.566428,-0.760798
-0.680994,0.349276,0.545133,-0.735288,0.292281,0.611493
-0.292003,0.748502,0.102599,-0.057983,-0.897925,0.436312
-0.377554,0.165406,-0.955732,-0.088985,-0.093785,-0.991608
-0.251616,0.360265,0.726424,0.097636,-0.864276,0.493451
-0.223745,-0.040942,0.729088,-0.367325,-0.745330,-0.556377
0.098719,-0.571068,0.583645,0.957950,0.064224,0.279654
0.468792,-0.261943,0.344730,-0.382981,0.923428,0.024635
0.637757,0.723056,0.184702,0.315777,0.827080,0.464998
0.258632,-0.744444,0.118679,0.379252,0.395807,0.836364
0.604695,0.153721,-0.165118,-0.108116,0.188924,0.976022
0.482122,0.266499,-0.971833,0.077294,0.122415,0.989465
0.130154,0.350959,0.631907,0.788128,0.565082,0.244001
0.065968,-0.438485,0.542183,-0.098573,-0.304835,0.947290
-0.442044,0.041637,-0.181854,0.721641,0.310238,0.618859
0.180507,-0.662260,0.429005,-0.690558,0.723081,-0.016830
-0.315603,0.279372,0.674229,0.878911,-0.471453,-0.072433
-0.229544,-0.089459,0.507339,-0.466353,0.884214,-0.026067
-0.791566,-0.297986,-0.379083,-0.278418,0.772970,0.570089
-0.362293,0.024507,0.365891,0.397256,0.879935,-0.260581
0.013374,0.162037,0.315908,-0.184915,0.829685,-0.526716
0.743653,0.783157,-0.995739,0.125721,0.253509,0.959128
0.047758,-0.642951,0.584710,0.939805,-0.221437,0.260254
-0.242867,-0.061538,0.822027,0.396428,0.678614,-0.618326
0.713541,0.644637,-0.990352,0.036733,0.131147,0.990682
0.690451,-0.770485,-0.034896,0.456593,0.585800,-0.669598
0.464117,0.427695,-0.160222,0.202094,-0.224125,0.953376
0.559123,-0.462351,0.531204,-0.514867,0.596542,0.615670
0.300442,-0.223525,0.529380,-0.262883,0.875500,0.405452
-0.076448,0.130750,-0.961960,0.161069,0.021418,0.986711
0.497278,0.275510,0.672344,-0.437816,0.866908,-0.238303
0.709170,-0.300461,0.458380,-0.183732,0.223501,0.957230
-0.589341,0.178771,0.710692,0.880879,0.473035,0.017027
-0.220386,0.160057,-0.960915,0.026465,0.045687,0.998605
-0.005240,0.131146,-0.210677,-0.272087,0.961547,-0.037356
0.605918,0.791673,-0.142913,0.872531,0.099565,0.478306
0.586181,0.086787,-0.383241,-0.081789,-0.251970,0.964273
0.596053,0.484826,0.555908,0.182528,0.852187,0.490368
0.548854,-0.070646,0.728698,-0.217829,-0.293937,0.930673
-0.003918,0.211644,1.000000,0.952359,-0.249256,0.175739
0.414577,-0.159266,0.787818,0.301018,0.805834,-0.509921
0.126901,0.154512,-0.529626,0.088177,0.996075,0.007658
-0.463409,0.203524,0.625659,0.857202,0.025733,0.514338
0.737954,-0.183624,0.357615,0.458314,0.556358,-0.693120
-0.015211,0.677906,0.659111,-0.429625,0.859394,0.277246
0.376939,0.320164,-0.972776,-0.079654,-0.003210,0.996817
0.061796,-0.014406,0.897862,0.960334,0.242084,0.138400
-0.282542,-0.056982,0.544089,0.467492,0.212174,0.858157
0.208887,0.672953,-0.298393,-0.528792,0.114197,-0.841034
-0.048167,-0.720778,0.634611,0.742052,0.669680,-0.029799
0.064950,-0.485122,-0.069433,0.416061,0.515928,0.748807
0.310407,0.677706,0.368840,0.907774,-0.396877,0.135775
0.992978,-0.040743,0.393996,-0.217908,0.556536,0.801738
-0.021619,-0.548393,0.562402,-0.748755,-0.656504,-0.091481
-0.111850,-0.224713,-0.951041,0.243278,0.186166,0.951923
-0.151009,0.005395,0.829976,-0.552814,-0.608285,0.569549
-0.354259,-0.423437,-0.940225,0.138265,0.208347,0.968233
0.145819,0.549484,0.689593,-0.353716,-0.187662,0.916334
0.239099,0.576712,0.648582,0.548879,0.803170,0.231627
0.199227,0.266796,0.429660,-0.804147,0.586132,0.098977
-0.016534,0.464529,-0.005050,0.923120,0.214863,0.318877
0.418544,0.045200,0.705366,0.866464,-0.324513,0.379384
-0.665224,0.383336,0.075149,0.627763,0.008579,-0.778357
0.471337,-0.240060,0.328096,0.459546,-0.865999,-0.197139
0.074002,0.234318,0.901406,0.812610,0.462225,-0.354982
-0.580798,-0.570177,0.232616,-0.432512,-0.890112,-0.143648
0.047348,-0.097578,-0.254658,-0.463392,0.066723,-0.883638
-0.504399,-0.610673,0.284771,0.690840,0.548737,-0.470774
-0.294444,0.210456,0.291715,0.288147,0.952279,-0.100674
-0.458013,-0.174613,0.307324,-0.122681,-0.120570,0.985095
0.155076,-0.003416,-0.353866,-0.177064,0.961018,0.212350
0.394125,0.311353,-0.371852,0.815090,0.553496,-0.171085
0.463812,0.519185,0.558817,0.092114,-0.290034,0.952573
-0.661871,0.610081,-0.031455,-0.818039,-0.171936,-0.548863
0.609581,0.233723,0.668985,0.752318,-0.658776,-0.005751
0.130564,-0.645033,0.657431,-0.196369,0.355929,0.913648
0.395957,-0.719491,0.337048,-0.577905,0.316116,0.752394
-0.093026,0.792960,-0.084449,0.668196,0.735169,0.114195
-0.144602,0.927818,-0.012506,0.781442,-0.607570,0.142155
0.406642,-0.712462,0.218440,0.763440,0.130117,0.632636
-0.355476,0.302343,-0.494556,-0.502523,0.646322,0.574228
0.487511,-0.249766,0.567626,-0.650828,0.276378,0.707133
-0.522913,-0.139661,-0.944834,-0.056672,-0.237894,-0.969636
-0.899393,0.425020,-0.178003,-0.149983,0.217480,0.964473
0.345095,0.140652,-0.304682,-0.279674,0.579180,0.765723
0.023550,0.884451,-0.158748,-0.192259,0.979681,0.057118
0.238900,-0.405812,0.741440,-0.158512,-0.203383,0.966183
0.130763,0.363928,0.748323,0.741851,0.491461,0.456205
0.138902,0.426012,0.710651,0.950379,0.310943,0.009752
-0.135754,-0.549680,0.408356,0.811800,0.566933,0.139886
0.636230,0.792564,0.210247,0.437977,0.882214,-0.172845
0.292097,0.105697,-0.964070,-0.036564,0.046179,0.998264
-0.811303,-0.298578,-0.938033,0.002658,0.113577,0.993526
-0.044306,-0.036486,0.780976,-0.229186,0.179448,-0.956699
-0.639389,-0.235706,-0.940000,-0.029895,0.169166,0.985134
0.156808,0.361749,0.803632,0.972291,0.233773,0.000583
-0.363411,0.816625,0.686622,0.699196,0.637766,-0.323079
-0.382335,-0.600179,0.363248,0.843062,-0.096961,0.529004
0.628195,-0.459081,0.236508,0.176417,-0.206260,0.962462
0.045827,-0.003912,0.891266,0.913356,0.247615,-0.323215
-0.158640,0.782070,-0.225733,0.135834,0.948635,0.285727
0.151518,0.864350,0.380373,0.975060,0.163553,-0.150027
0.146229,-0.628299,0.504921,0.967410,-0.056675,0.246791
-0.192005,0.413339,0.688609,0.049002,-0.466626,0.883096
-0.000056,-0.723252,0.502730,-0.684356,-0.710917,0.162033
0.314784,-0.117878,0.217990,0.572575,0.803922,-0.160832
0.088953,0.386702,0.107269,0.997192,0.039897,-0.063372
0.431564,-0.313828,0.612918,0.827583,-0.436182,0.353343
0.834189,0.506905,-0.990884,-0.004220,0.248025,0.968745
0.575806,0.304026,-0.156904,-0.040696,-0.114573,0.992581
0.247338,0.142731,0.783475,-0.470236,0.494270,0.731147
-0.217232,-0.384524,0.380066,-0.701642,-0.421423,0.574544
-0.402066,-0.602654,-0.927217,0.069933,0.132122,0.988763
0.418849,0.374126,0.464402,0.724407,-0.507305,-0.466772
-0.733483,0.140353,0.289851,0.122752,-0.881447,-0.456051
-0.581505,0.157879,0.481302,-0.022089,0.050804,-0.998464
0.488225,0.488588,0.050280,-0.706658,-0.043116,-0.706241
-0.217536,0.630278,-0.329079,0.931153,-0.049885,0.361200
-0.257619,0.369772,-0.035449,-0.603666,-0.564543,-0.562920
0.242458,0.754246,0.383549,0.628911,0.442929,0.638972
-0.244904,0.086292,0.148976,-0.611142,0.401917,-0.681886
-0.695032,-0.199959,-0.942499,-0.083298,-0.334377,-0.938751
0.095367,0.108175,0.142913,-0.184054,-0.970645,0.154833
-0.443466,-0.472250,-0.935800,0.006206,0.287135,0.957870
0.257613,0.090845,-0.965708,-0.106878,0.061893,0.992344
0.614666,-0.450170,0.530323,0.816229,-0.364282,-0.448408
0.281927,-0.636119,-0.022236,0.590598,0.778932,0.210852
0.174404,-0.599188,0.457519,-0.405048,0.844313,-0.350815
0.022631,0.167484,-0.966302,0.065267,0.103478,-0.992488
0.307563,0.181049,0.791525,0.875709,-0.292815,-0.383918
0.391176,0.331750,0.695390,0.497597,0.860552,-0.108846
-0.531965,-0.370068,-0.103684,0.325892,0.604165,0.727172
-0.029957,0.244221,0.896920,-0.064143,0.539759,0.839372
-0.471443,-0.145206,0.637643,0.944995,0.315200,-0.087365
-0.298815,-0.286597,0.737445,-0.577778,-0.438361,0.688485
-0.428211,0.158474,-0.454611,0.099618,0.756655,0.646180
0.892676,0.548592,-0.989962,0.057572,0.067237,0.996075
-0.538683,-0.236993,0.819200,0.714621,0.380961,-0.586673
0.004731,0.466409,-0.960874,-0.144644,0.401781,0.904240
-0.512029,-0.083718,-0.150533,0.352827,0.601116,0.717058
0.072071,0.259272,0.258755,0.918982,-0.197784,0.341105
0.254565,-0.570177,-0.478230,-0.641632,0.033311,-0.766289
-0.347647,-0.719391,-0.157785,0.901948,0.400758,0.160881
-0.159863,-0.177188,-0.952516,-0.209690,-0.303979,-0.929315
-0.249685,0.654439,-0.046798,-0.673048,0.395553,-0.624936
0.042164,0.150751,-0.173722,-0.186277,0.975147,0.119955
0.578960,-0.623842,0.402005,0.951476,0.202485,-0.231717
0.706829,0.550375,-0.169830,0.002986,0.321448,0.946923
-0.067595,0.237289,-0.957945,0.004120,-0.012499,0.999913
0.730938,0.513937,-0.986193,0.184805,0.114247,0.976112
-0.223441,0.035497,0.855623,-0.583894,0.783228,0.213593
-0.151928,0.393734,-0.965032,-0.149754,0.199473,0.968393
0.574384,0.264816,0.618428,-0.570403,0.240719,0.785299
-0.379889,-0.278873,-0.944076,-0.215824,-0.185362,-0.958677
0.412335,0.255111,0.645550,-0.482616,0.828747,0.283304
-0.063019,-0.175405,-0.953254,0.048606,0.065809,0.996648
0.049180,0.112629,0.679514,-0.378414,0.902710,-0.204738
0.342046,0.871974,0.355710,-0.250567,-0.751703,0.610048
0.451196,0.546018,-0.415054,-0.604374,-0.642099,-0.471636
0.471741,0.229865,0.654441,0.780427,-0.608768,-0.142603
0.953608,-0.173722,0.296365,0.979747,0.187349,-0.070681
0.874062,-0.630773,-0.052493,-0.879554,0.298893,0.370200
0.612121,-0.595127,0.390985,0.747020,0.448301,-0.490905
0.692996,-0.489875,0.550316,0.515707,0.721661,-0.461791
-0.190075,-0.421455,0.673860,0.131554,0.991068,0.021842
0.379889,0.308084,0.053660,-0.546036,0.835698,0.058771
0.371544,0.679093,-0.987934,0.105784,0.190867,0.975899
0.037588,-0.187682,-0.952168,-0.022152,0.199040,0.979741
0.189460,-0.583445,0.485481,0.963412,0.224264,0.146773
0.370327,-0.879202,0.320762,0.828609,0.554432,0.077536
0.003912,0.645725,0.379411,-0.696790,-0.408495,-0.589589
-0.036979,-0.112829,-0.417943,-0.538223,0.420968,-0.730138
0.356289,0.845537,0.186341,0.371120,0.874873,0.311236
0.124560,0.034805,0.471572,0.976588,-0.214677,-0.013772
0.103705,0.116095,-0.165590,-0.639185,0.723893,0.259656
-0.121716,-0.032428,0.856811,-0.102550,-0.990741,-0.088970
-0.196687,0.466112,0.681317,0.418038,-0.113524,0.901308
-0.528408,-0.324719,0.719480,0.791833,0.547018,-0.271611
-0.646306,0.099264,0.225917,-0.462243,-0.860564,-0.213917
0.287117,-0.163424,0.708439,0.284502,0.699694,-0.655353
-0.317435,0.318086,0.670849,0.536376,-0.761107,-0.364716
0.056407,-0.879302,0.328506,0.635647,0.165784,-0.753968
-0.911097,0.024507,-0.431893,-0.578160,-0.364824,-0.729818
-0.334931,0.422349,-0.515676,-0.312754,0.698213,0.643960
0.683230,-0.263330,0.522866,0.871044,-0.055685,0.488039
-0.337067,0.003120,-0.394160,0.690205,0.441670,0.573189
0.136866,0.115007,0.315191,0.930036,0.344305,-0.128402
-0.069327,-0.003812,0.908863,-0.591419,0.596542,-0.542551
0.491478,-0.797018,0.333381,0.375209,0.393375,-0.839330
-0.521187,0.066391,0.778989,-0.481442,-0.869075,0.113680
-0.598598,-0.539482,-0.933096,0.094376,0.060120,0.993720
0.247847,-0.572059,0.194002,-0.741415,-0.671029,-0.004827
0.429633,0.179266,0.444245,0.361156,-0.138253,0.922200
-0.714565,0.441159,0.053312,0.726581,-0.514500,-0.455378
-0.755357,0.335313,0.217724,-0.126589,0.989331,0.072102
0.008798,0.229865,-0.963004,0.013633,-0.102769,0.994612
0.229234,0.647607,-0.817500,0.832591,-0.322767,-0.450126
0.066577,0.265113,0.899173,-0.567213,-0.480498,0.668873
-0.471648,-0.281252,-0.129147,0.306182,0.643229,0.701790
-0.054376,0.785236,0.163111,0.946203,0.183593,0.266445
-0.086215,-0.000446,0.471634,-0.143472,0.659844,0.737578
0.156094,0.267884,0.307755,-0.905102,0.111875,-0.410212
-0.388438,-0.306601,-0.943032,-0.146067,-0.124557,-0.981402
-0.880680,-0.058864,0.118003,0.822843,-0.566390,-0.046169
-0.505113,-0.186098,0.758197,0.811000,0.319809,-0.489899
0.214078,0.190852,-0.039607,-0.729597,0.669833,0.137884
-0.076039,-0.297194,-0.061916,0.067281,-0.074173,0.994973
-0.152642,0.318877,-0.962799,-0.058981,0.205718,0.976832
0.151109,0.174713,-0.558018,-0.305051,0.945702,0.112209
-0.098930,0.159066,0.429967,0.906879,-0.385766,0.169573
0.081428,0.733055,-0.020024,0.910998,0.127969,-0.392054
0.542546,0.230557,-0.969150,0.044781,0.185707,0.981584
-0.011244,-0.720282,0.282251,0.074791,0.921526,0.381045
-0.981485,-0.148868,-0.395758,0.064082,0.298981,0.952105
0.260867,0.259864,0.382033,0.315211,0.181031,-0.931595
0.095770,0.573842,-0.024182,-0.680532,0.657647,0.323074
0.532680,0.346601,0.118904,0.714738,-0.680404,-0.161867
0.481712,-0.856032,0.215757,0.312982,0.946636,0.076962
0.033111,-0.135896,-0.952311,0.108938,-0.014711,0.993940
0.234623,0.705826,0.636578,0.949834,-0.137421,-0.280946
-0.280101,-0.492746,0.361015,-0.308463,-0.172392,-0.935485
0.012660,-0.150751,-0.953663,0.145686,-0.045724,0.988274
0.103500,0.176692,0.385740,0.927769,-0.011721,-0.372971
0.366869,-0.473637,0.652269,0.981187,0.140831,-0.132054
0.265548,0.381553,-0.972038,0.258215,0.108171,0.960013
-0.404103,-0.052132,0.771041,0.994537,0.091093,0.050976
0.270838,-0.128967,0.792939,-0.601982,-0.730579,-0.322292
0.138499,-0.276598,0.719562,-0.490636,0.065325,0.868913
-0.067495,-0.729589,0.295464,0.257683,0.965080,0.047117
0.722903,-0.530967,0.492897,-0.452111,-0.657152,0.603114
-0.237069,0.512254,0.030840,-0.155375,0.684995,-0.711786
-0.426988,0.474428,0.684738,0.520445,0.044988,-0.852709
0.101265,-0.924452,0.134002,-0.071827,0.997408,0.004172
0.067390,0.406999,0.207788,0.816785,0.516471,-0.257137
-0.850872,0.098569,-0.426219,-0.701540,0.700527,-0.130785
0.083359,-0.156988,-0.953274,-0.030650,0.151348,0.988005
0.021613,-0.586515,0.324982,0.045462,0.203608,0.977996
0.052234,0.020150,0.785585,0.866035,0.447703,0.222589
0.290470,-0.122232,0.817623,0.980934,-0.181513,-0.069432
0.409486,0.180554,0.664683,0.493660,-0.473419,-0.729503
0.338079,-0.472646,0.683406,-0.584194,0.689951,-0.427416
0.507143,0.240555,0.618531,-0.230039,0.919619,0.318407
0.141851,0.122431,-0.099505,0.691684,0.720228,0.053347
0.446515,-0.811773,0.205023,0.915135,0.368060,0.164498
0.529526,-0.492746,0.535977,-0.175758,-0.957234,-0.229809
-0.687507,0.239667,0.192445,0.475224,0.779624,0.407859
0.247543,-0.014010,0.809818,-0.129110,0.498903,0.856987
-0.295257,-0.004308,0.819692,0.077252,-0.381863,0.920984
0.102687,-0.318183,0.626294,-0.487797,-0.570471,-0.660770
-0.125684,0.229565,0.901427,0.149935,-0.157762,0.976028
0.095162,0.454132,0.775342,0.853856,-0.504183,-0.129343
-0.538683,0.624637,0.482839,0.208294,-0.918078,0.337262
-0.013684,0.292241,-0.262217,0.737305,0.635959,0.227897
-0.602870,0.387693,0.550193,0.851056,-0.516585,-0.094043
0.031584,0.847516,0.364723,0.234987,-0.470325,0.850633
-0.474292,0.563344,0.302633,-0.610004,0.790860,-0.049353
0.281213,0.318382,0.532289,0.588844,-0.186001,-0.786553
-0.305632,-0.335908,-0.947784,0.132751,0.230126,0.964064
-0.389860,-0.289667,0.033134,-0.867024,-0.263576,-0.422845
-0.339712,0.189564,0.029467,-0.567167,-0.821717,-0.055711
0.078783,0.224912,0.382258,0.785754,0.210124,0.581755
0.029852,0.285609,0.879508,0.488564,-0.508128,0.709303
0.430037,0.479776,-0.979331,-0.157569,-0.202506,-0.966521
0.236255,0.517599,0.681132,-0.614529,0.583769,-0.530630
-0.589645,-0.096590,0.671341,-0.665958,0.745857,0.014049
0.329126,-0.708697,0.240093,0.889029,-0.063357,0.453445
-0.103406,-0.267588,0.761720,0.869248,-0.065860,-0.489970
-0.219572,0.025399,0.831737,0.260907,0.700090,-0.664681
0.083160,0.267291,0.165077,0.978333,0.100868,-0.180803
-0.275519,-0.054111,0.489005,-0.082889,-0.874096,0.478629
-0.144602,0.622754,0.050485,0.883053,-0.281701,-0.375316
-0.243582,0.459676,0.693321,-0.011599,0.091944,0.995697
-0.033726,0.049657,0.811088,0.904448,0.351618,-0.241532
0.041245,-0.044013,0.477472,0.383150,0.919985,-0.082605
-0.330249,0.770780,-0.121875,-0.013104,0.999905,-0.004174
0.099942,0.311946,-0.947907,0.452147,-0.528711,0.718351
-0.085805,-0.561166,0.529094,0.495573,0.846920,-0.192701
0.282026,0.631169,0.577725,-0.697289,-0.702979,0.140032
-0.112155,-0.472549,0.588377,-0.209746,-0.306939,0.928329
-0.029249,0.027574,0.968044,-0.559804,0.801521,-0.210200
0.096385,0.008465,0.178352,0.956782,-0.270854,-0.105859
-0.410814,0.241646,0.516291,-0.058757,0.569230,-0.820076
0.447434,-0.097678,0.728760,0.067191,0.226361,0.971723
0.481712,-0.552947,0.537636,-0.571214,-0.458737,0.680643
0.502667,0.723252,-0.988877,-0.035266,-0.234379,-0.971505
0.635720,-0.483539,0.549312,-0.256287,0.806978,0.532074
0.442653,-0.180258,-0.273606,0.145851,0.158496,-0.976528
-0.024872,0.038368,0.817951,0.988235,-0.074443,0.133604
0.282945,0.482946,-0.976955,0.129530,0.139534,0.981709
0.350186,-0.515224,-0.099731,-0.499840,0.733336,-0.460846
0.075325,0.183820,-0.533109,-0.139639,0.985530,-0.096086
-0.767457,-0.298282,-0.086251,0.499063,0.491332,0.713813
0.519350,0.108967,0.688896,0.029853,0.975567,0.217666
-0.092318,0.150059,0.324286,-0.301974,-0.952787,-0.031757
-0.094044,-0.898311,0.255866,0.941311,0.061753,0.331842
-0.469915,0.531067,0.327481,0.583600,0.808935,-0.070958
0.083259,0.025595,0.757807,0.191310,-0.879828,-0.435091
-0.448247,0.390860,0.761433,0.887964,-0.247653,-0.387542
0.404606,-0.827020,0.386621,0.701313,0.463792,-0.541347
0.379783,0.814148,-0.991622,-0.053401,0.211248,0.975973
0.239813,0.918707,0.179171,0.188133,0.965949,0.177619
-0.712429,0.167285,-0.455471,0.398479,-0.870856,-0.287794
0.909358,0.275510,-0.132404,-0.528000,0.208686,0.823205
0.399825,0.811081,-0.993322,-0.040642,0.160304,0.986231
0.593811,0.324422,0.203159,0.972589,0.071176,-0.221371
0.056506,0.176396,-0.001444,0.470386,0.882229,0.020218
-0.716701,-0.080448,-0.125624,0.735345,0.260485,0.625632
-0.258327,0.904351,0.213749,0.982181,0.177701,0.061183
0.388022,0.594039,0.471797,0.709694,0.553851,0.435411
-0.069935,-0.119661,-0.951369,-0.098637,0.210068,0.972698
0.110826,0.198475,0.533498,0.861767,-0.491054,-0.127374
0.255782,0.011436,-0.296529,-0.136236,0.399682,0.906474
0.453537,0.130750,-0.969478,-0.035077,0.179828,0.983072
0.198003,-0.474727,-0.079164,-0.082407,-0.927677,0.364176
0.365342,-0.191347,0.791505,-0.716278,0.231965,-0.658132
0.086209,-0.766819,0.581453,0.837157,0.534273,0.117134
-0.774883,-0.394921,-0.936620,-0.044698,0.247212,0.967930
-0.493006,0.361257,-0.015251,-0.302237,-0.755181,-0.581683
0.709983,-0.379079,0.369332,0.422714,0.557761,0.714294
0.867754,0.240655,-0.147604,-0.452311,0.170880,0.875337
-0.412137,-0.230457,0.625659,0.743596,0.645227,-0.175349
-0.674282,0.153126,-0.161390,-0.625151,-0.427186,-0.653221
-0.112664,0.028466,0.158789,-0.023120,0.779141,0.626422
-0.740505,-0.198575,-0.941229,0.163225,0.206719,0.964689
0.431968,0.205208,0.655178,0.924305,-0.278087,-0.261396
0.512942,0.527105,-0.461473,-0.552358,-0.824487,-0.122973
0.149687,0.493341,-0.971157,0.168772,0.348861,0.921853
-0.072177,-0.205108,0.670747,0.487928,0.609237,0.625105
0.204411,-0.147781,0.660053,0.946759,0.298645,-0.120247
0.179594,0.777017,-0.846241,0.954679,-0.266904,-0.131720
0.356488,0.214614,-0.300298,0.237886,0.258809,0.936177
0.766539,-0.360662,0.565106,-0.110634,0.824456,-0.555006
0.484258,0.343927,-0.970399,-0.121649,-0.247976,-0.961098
-0.114899,-0.070745,0.827763,0.306320,0.931644,-0.195469
-0.070140,-0.140057,-0.950672,0.035751,0.155680,0.987160
-0.708865,-0.038169,0.482142,0.806208,-0.447962,-0.386469
-0.665535,0.273727,0.023486,0.372566,0.683356,0.627869
0.045318,0.123522,0.706820,-0.087504,0.976481,0.197050
0.154362,0.851182,0.377321,0.981301,-0.059570,-0.183027
0.413764,0.663251,0.652986,-0.559306,0.828847,0.013775
0.067998,0.714245,0.628056,-0.535166,0.731127,-0.423143
-0.532680,0.651865,-0.308984,-0.653092,0.201859,0.729879
-0.544073,0.137978,-0.662860,-0.163015,0.965048,0.205205
-0.431874,0.022724,0.560108,0.809064,0.084241,0.581652
-0.044100,0.295607,0.892311,-0.165509,0.101395,0.980982
0.578451,0.542948,0.057163,0.698187,-0.715837,0.010603
0.096993,0.185902,-0.184354,-0.011089,0.980815,0.194624
0.350490,0.632160,0.729845,0.807527,-0.176686,0.562746
-0.839783,0.473340,-0.168048,0.046540,0.308697,0.950021
0.169722,0.629486,0.627708,-0.337808,0.941210,-0.003151
-0.092827,0.373634,-0.962595,0.213194,-0.228344,-0.949951
0.839678,-0.366403,0.469483,0.941992,-0.214024,-0.258542
0.451805,0.269370,0.622361,0.428147,-0.800243,0.419882
0.292910,-0.070549,0.727899,-0.625268,0.439927,-0.644596
-0.608159,0.397396,0.506827,-0.416119,0.230215,0.879685
0.151618,-0.562057,0.105651,0.397459,-0.713268,0.577300
0.025686,0.057081,0.899931,0.005282,0.682285,0.731067
0.173690,0.690083,0.010744,0.954324,-0.089881,-0.284934
-0.511315,-0.246000,0.699302,0.899711,0.400605,0.173312
0.655868,-0.571364,0.225897,-0.361355,-0.187303,0.913422
0.660238,-0.528888,0.562279,-0.303321,-0.464858,-0.831807
0.467979,0.457102,-0.417615,-0.698562,-0.448927,-0.557204
-0.560855,0.012130,0.384327,0.806913,0.496394,-0.320132
0.313157,0.829990,-0.993506,0.011504,0.255838,0.966651
-0.560961,-0.330759,-0.937624,-0.096243,-0.126449,-0.987293
-0.545699,0.451756,0.658456,0.665838,0.490665,0.562056
0.026903,0.924748,0.044135,-0.500040,0.865992,0.004189
-0.113782,-0.014210,0.881700,-0.496065,-0.845278,0.198559
-0.066173,0.122135,0.894544,0.181867,0.851498,0.491808
0.014901,0.744839,0.164934,0.876665,-0.419972,0.234696
-0.748030,0.492649,0.367386,0.781669,0.620402,0.063989
-0.347237,-0.684339,0.315908,-0.216488,0.975746,0.032432
-0.627078,-0.209761,-0.944261,-0.001602,0.249738,0.968312
0.068507,0.222437,0.037539,0.993153,0.095205,-0.067692
-0.506336,-0.415118,-0.099894,0.480542,0.360267,0.799554
0.715068,0.240655,0.610542,0.236465,0.828769,0.507175
-0.472356,-0.599188,0.397417,0.750029,0.607783,-0.260874
0.083974,-0.138966,0.904848,-0.221929,0.548161,0.806391
-0.643456,-0.073915,-0.947579,0.055575,0.165632,0.984621
-0.582524,0.224120,0.025432,0.571540,0.494671,0.654708
-0.319465,-0.325610,0.547182,0.803650,0.171488,-0.569859
-0.650882,-0.326897,-0.937890,0.054031,0.154065,0.986582
0.532574,0.470171,0.541569,0.693090,0.719746,0.039909
0.055184,-0.682064,0.597247,0.935777,0.288341,-0.202930
0.448551,-0.120153,0.679494,0.888482,0.328355,0.320596
0.340624,0.492945,0.674270,0.974290,0.121969,-0.189428
-0.188547,0.639488,0.032479,0.909171,-0.160305,-0.384331
0.468388,-0.243725,0.310049,0.861504,0.470704,-0.190390
-0.175627,-0.177979,0.837084,-0.175020,0.856279,0.485957
0.013169,-0.833257,0.180748,0.728280,0.657573,0.192890
0.763385,0.607902,-0.987525,-0.077808,-0.099195,-0.992021
0.589335,-0.681864,0.366976,0.509979,0.669059,-0.540630
0.286708,0.189760,0.019696,-0.681458,0.702206,0.206209
-0.657190,0.614634,0.522436,0.816486,-0.159867,0.554791
0.139616,-0.898115,0.372692,-0.162970,0.569344,0.805784
-0.198717,0.200158,-0.021704,-0.022545,0.773324,0.633610
0.717303,-0.031736,-0.415997,-0.394681,-0.848332,0.352930
0.618839,0.233231,0.676646,-0.645503,0.397184,-0.652358
0.484661,-0.836723,0.239192,-0.084557,-0.993911,-0.070650
-0.534207,0.769693,-0.070560,0.573773,-0.794963,-0.197023
0.054674,0.184415,0.857138,0.918493,-0.390892,0.059786
0.336148,0.100648,0.510534,0.851428,-0.512006,-0.113668
-0.513457,0.194514,0.518278,0.963470,-0.244315,0.109704
-0.062001,-0.069657,0.919904,0.911134,-0.409993,-0.041707
0.621583,0.134412,0.396147,0.226197,0.784672,0.577170
0.625041,-0.259468,0.487100,0.818836,0.444043,0.363778
0.263208,0.635427,0.343706,0.971988,-0.132647,-0.194023
-0.562891,0.305213,0.692727,0.929408,-0.363238,-0.065265
-0.285081,0.261051,0.700736,0.843167,-0.400246,-0.358988
0.556987,-0.906630,0.070314,-0.212656,0.882256,0.420002
-0.449774,-0.192731,0.824035,-0.570028,0.750311,0.334816
0.150295,0.476806,0.740477,-0.490452,-0.293946,-0.820398
0.072680,-0.623150,0.481200,0.433110,-0.831359,-0.348222
0.218045,-0.205307,0.446232,-0.349020,-0.936835,0.022915
-0.096589,0.655427,-0.570248,0.337522,-0.910649,0.238322
-0.273185,0.333928,0.696783,0.754323,-0.595702,-0.275927
0.373171,0.223921,-0.967368,0.029130,0.180723,0.983103
0.459336,-0.482351,0.609599,0.789664,0.466668,0.398311
-0.359443,0.497302,-0.037436,-0.001602,0.576211,0.817300
-0.119984,-0.447399,0.696066,-0.314230,0.870440,-0.378938
0.188852,-0.143323,0.817971,0.571236,0.685522,-0.451385
-0.509384,0.527006,0.356099,-0.334208,0.690918,0.641044
0.005849,0.130946,0.372323,-0.686438,0.120399,0.717152
0.593203,-0.162828,0.579056,0.521750,0.803186,0.287522
-0.090890,0.549384,-0.284894,-0.472944,0.537346,0.698272
0.427802,0.254618,-0.372118,0.652828,0.716823,-0.244909
0.016832,0.079856,-0.957781,0.015720,0.186216,0.982383
0.027517,0.354125,0.161984,0.964986,0.199721,0.170042
0.503077,-0.179463,0.467352,-0.008611,-0.978470,0.206210
0.088853,0.353137,-0.027132,-0.614453,-0.301102,0.729236
-0.321296,-0.741869,0.347454,0.966475,-0.083296,0.242873
-0.454859,0.082925,0.736011,0.467214,0.863810,-0.188529
0.595748,0.259468,-0.158276,-0.213993,-0.245207,0.945558
0.955750,0.613247,-0.995411,0.086623,0.237237,0.967582
0.154871,-0.611365,0.503815,0.926765,-0.128337,0.353038
-0.393014,0.412743,-0.254719,0.794122,-0.606799,-0.034119
-0.673059,-0.048071,0.468499,0.927218,-0.289252,0.237907
0.298610,-0.330067,0.084879,0.886148,-0.395251,0.241905
0.253646,-0.069458,0.332091,0.462973,0.845552,0.265890
0.248356,0.839001,-0.330821,-0.384398,0.816183,0.431373
-0.447129,0.073815,0.737077,-0.162145,-0.901066,0.402231
0.092312,0.302044,0.205596,0.963829,0.117087,-0.239425
-0.095571,-0.472845,0.395164,0.912780,0.238791,-0.331377
0.597984,0.386998,0.509223,0.992955,-0.103733,-0.057271
0.139921,0.184614,0.412391,0.886797,-0.328796,-0.324782
-0.508167,0.118769,-0.951062,0.226178,-0.031946,0.973562
-0.288341,-0.356205,0.613102,0.524171,0.812662,-0.254609
0.521591,-0.496807,0.643850,-0.359809,0.797597,-0.484124
-0.392505,-0.371751,0.705038,0.155909,0.292412,0.943498
-0.087841,-0.739095,0.291264,0.327822,0.944296,0.028951
0.853517,0.004903,0.410732,-0.111836,-0.837251,0.535259
-0.119071,0.011931,0.917589,-0.347739,0.881571,-0.319234
0.131781,-0.665825,0.481241,0.510255,-0.751924,0.417432
-0.056916,0.764544,-0.074084,0.312141,0.914556,0.257208
0.149383,0.298777,0.566888,0.981248,-0.158652,-0.109461
-0.296579,0.624041,0.313920,-0.556695,0.546246,-0.625865
0.768476,-0.345414,0.383200,0.393431,0.102685,-0.913602
-0.189156,0.785632,-0.357676,0.877927,0.385125,0.284469
-0.471846,-0.099065,0.707947,-0.038193,-0.999175,0.013843
-0.503281,-0.273132,-0.941721,0.117047,0.146628,0.982242
0.071457,0.584732,0.635984,0.190378,0.561694,0.805143
0.233611,0.736720,0.602307,-0.637108,-0.455571,0.621730
-0.480290,-0.053419,-0.950836,0.079399,0.078066,0.993781
-0.129850,0.036289,0.920437,-0.510709,0.829134,-0.227405
-0.734501,0.395217,0.381295,0.805044,0.533286,0.259826
0.953000,-0.567007,0.036719,-0.689216,0.683276,0.241072
0.480290,-0.543936,0.669927,-0.273086,0.961473,-0.031530
-0.760441,-0.431357,-0.933158,-0.067124,0.174122,0.982434
0.455877,-0.356600,0.712679,0.726086,-0.206704,0.655799
0.131272,0.014902,0.515164,-0.275070,0.340351,-0.899165
-0.185294,-0.102627,0.840976,0.191158,0.444761,0.875012
0.089158,0.060747,0.454570,-0.140803,0.792188,-0.593812
0.294233,0.584532,0.558592,0.795624,0.391580,-0.462220
0.139312,0.169760,0.833007,0.750485,-0.436640,0.496102
0.295251,0.712462,0.631866,0.318853,0.444438,0.837142
-0.029759,0.180850,0.921400,0.941135,0.017291,0.337589
-0.083973,0.746719,-0.307550,-0.654328,-0.499103,0.568112
-0.405934,-0.070153,0.690781,0.022588,-0.986730,-0.160789
0.088953,0.659289,-0.611484,0.842114,0.288258,0.455798
-0.499823,-0.370464,0.364825,0.845388,0.260409,0.466376
0.327909,0.267884,0.663044,-0.618603,-0.681837,0.390421
-0.193123,-0.109758,0.806991,-0.009110,0.998920,0.045553
0.542136,0.588594,-0.986459,0.039737,0.178910,0.983063
-0.114694,0.193822,0.936661,0.653861,-0.733831,0.184276
-0.878340,-0.382641,-0.362715,-0.248015,0.773994,0.582599
0.659729,0.799000,-0.996374,0.107379,0.222133,0.969085
-0.044100,0.970789,0.048682,-0.247266,0.968106,0.040385
0.854225,-0.216593,0.576332,0.913583,0.262272,0.310773
0.398298,0.180454,-0.174357,0.108292,0.143766,0.983669
-0.034943,0.828111,-0.032171,-0.461363,-0.697832,0.547882
-0.796148,-0.405217,-0.934162,-0.089797,0.196623,0.976358
0.815979,-0.609682,0.028894,-0.688762,0.682151,0.245515
-0.052135,0.623050,-0.018918,0.304960,0.438840,0.845233
-0.439399,-0.297291,0.121465,-0.580295,0.550979,0.599733
0.581605,0.261251,0.656714,-0.229981,-0.930213,-0.286029
0.473064,-0.275607,0.371544,0.324407,0.936468,-0.133368
0.194645,0.621466,0.649033,-0.217373,-0.976021,-0.011506
0.532779,0.125797,0.335839,0.864081,-0.078298,-0.497225
0.083669,-0.346602,0.631682,0.736933,0.636346,0.228020
0.467470,-0.495223,0.531900,0.659264,-0.316783,-0.681923
-0.229748,0.882072,-0.120031,-0.076048,0.993499,-0.084717
-0.504504,-0.294420,0.720730,0.697394,0.674376,-0.242608
0.432887,-0.492945,0.521985,0.583795,-0.325518,-0.743789
-0.199636,0.656914,0.307980,0.592898,0.546675,-0.591286
-0.343983,-0.153026,0.573648,0.764896,0.405612,0.500412
0.008189,0.639684,0.722225,0.268658,-0.923470,-0.273909
0.414471,-0.283034,0.530569,0.641055,0.763771,-0.075507
0.208788,0.226495,0.770508,0.514583,0.653799,0.554754
0.307563,-0.727510,0.286061,0.980527,0.094824,-0.171977
0.151518,0.061438,0.328239,0.942000,0.334599,-0.026082
-0.399216,-0.627507,0.255211,0.763915,-0.568581,-0.305204
0.000453,-0.401355,0.689695,-0.444734,0.882201,-0.154701
-0.889428,-0.310063,-0.939693,0.044931,0.199967,0.978772
0.454654,-0.243329,0.673328,0.987393,0.051845,0.149553
-0.003918,-0.691171,0.579323,0.987599,0.151017,-0.042914
-0.114390,-0.434031,0.700532,0.202398,-0.935922,0.288246
0.440107,0.826328,-0.990823,0.035933,0.046757,0.998260
0.170232,0.269866,-0.579159,0.464713,-0.874637,-0.138029
0.025990,0.561365,-0.853615,0.987290,-0.055740,-0.148835
0.834083,-0.386407,0.491873,0.938748,-0.218163,0.266752
0.078174,0.055398,0.353518,0.615821,0.787295,0.030523
0.205224,-0.161345,0.424314,0.150262,0.944208,0.293074
0.257613,0.221446,0.462846,0.786325,-0.334552,-0.519392
0.384564,-0.184711,0.769402,0.664784,0.736716,-0.123742
0.313766,-0.025100,0.048580,0.835804,0.503262,-0.219451
-0.002695,0.744543,-0.099546,0.916136,-0.330940,-0.226217
-0.607445,-0.465913,-0.930085,-0.243540,-0.214030,-0.945981
0.148973,0.410268,0.766206,0.085493,0.419065,-0.903922
-0.473169,0.346106,0.761085,0.845860,-0.304788,-0.437750
0.650677,0.093024,0.433224,0.757822,0.648541,-0.071418
0.175013,-0.634339,0.600586,-0.405184,-0.482194,-0.776734
0.037588,-0.375713,0.657698,-0.459047,0.658807,-0.596028
0.436140,-0.836131,0.129044,0.312286,0.783879,0.536667
0.712727,-0.675132,0.195969,0.181619,0.776163,-0.603809
0.261885,-0.161245,0.817234,0.031772,0.837158,0.546038
0.038501,-0.844250,0.163377,-0.154524,-0.903863,0.398941
0.609581,0.406507,-0.981830,-0.047459,0.216370,0.975157
-0.320179,-0.167086,-0.950140,0.023924,0.165609,0.985901
-0.304514,0.069657,0.551422,-0.526364,0.357011,-0.771676
-0.773362,-0.511559,-0.931273,-0.210916,0.033691,0.976923
0.360964,0.407594,0.549579,0.321675,0.673587,-0.665437
0.143683,0.159958,-0.965012,0.170622,0.155725,0.972953
0.026294,0.006982,0.481999,0.782981,0.035079,-0.621056
-0.490976,-0.513046,-0.934612,0.053287,0.160041,0.985671
0.662579,0.729788,-0.993875,0.052424,0.273057,0.960568
0.692586,0.517403,-0.474256,-0.305065,-0.922132,0.237926
0.123033,0.386702,0.790071,0.867076,-0.347122,-0.357331
0.190373,0.604932,0.757480,-0.535102,0.721772,0.438989
-0.462086,0.343631,0.576721,0.858209,0.513273,0.005233
-0.381416,0.779791,-0.039362,0.403057,-0.862516,-0.305958
0.291793,-0.128176,0.803427,0.437705,0.868193,0.233786
0.287217,0.292541,-0.971137,0.187241,0.217072,0.958030
-0.424647,0.429477,0.645980,0.744041,0.656956,-0.121706
-0.015516,0.826129,-0.212930,0.431682,0.846160,-0.312511
-0.069426,-0.272933,0.587824,-0.692087,0.450042,0.564338
-0.292711,-0.298777,0.776797,0.488370,0.640649,-0.592506
-0.536852,-0.621663,-0.928917,0.006179,0.153098,0.988192
-0.396472,-0.617209,0.396720,0.909299,0.328407,0.255587
0.102587,0.229565,0.880921,0.852207,-0.143661,-0.503096
-0.168915,0.024308,0.931417,0.467887,-0.881539,-0.063009
-0.364938,-0.163524,0.404095,-0.076446,-0.670877,0.737617
0.320887,0.289470,-0.971342,0.057118,0.109359,0.992360
0.174708,0.147977,0.821679,0.099871,-0.655085,0.748926
0.368390,0.012130,0.662798,-0.956350,0.194769,0.217851
-0.500636,-0.217980,0.571313,0.801080,0.585843,-0.122712
0.254869,-0.210257,0.415730,0.150285,0.978495,0.141285
0.429937,-0.539283,-0.009515,0.482077,0.411625,-0.773412
0.797061,0.613148,0.036678,-0.729396,-0.522125,0.442004
0.870908,0.483043,-0.984944,0.065161,0.259729,0.963481
-0.046845,0.235011,0.905319,0.277224,0.941428,0.191992
-0.343269,-0.167582,-0.946985,0.037048,-0.109086,-0.993342
0.902852,0.253823,-0.135641,-0.528000,0.208686,0.823205
-0.018875,-0.464526,0.664929,0.350566,-0.826755,0.439978
0.459026,-0.841080,0.005050,0.970146,0.223178,-0.094912
0.832562,-0.644734,0.242305,0.418799,0.783535,-0.458999
0.644878,-0.395514,0.539029,0.949736,0.170843,0.262324
0.062001,0.180949,0.200578,0.988461,-0.149887,0.021897
-0.538274,0.238972,-0.386478,-0.256215,-0.249267,0.933927
0.205125,0.850191,0.551402,0.934973,-0.274213,0.225017
-0.041661,-0.159662,0.873322,-0.512972,0.678914,0.525296
0.476932,0.698698,-0.305235,0.801922,0.526111,-0.283070
0.535523,-0.355117,0.677814,0.137482,-0.443203,0.885816
0.991655,-0.007474,-0.346901,0.514102,0.681203,-0.521212
-0.546513,0.430961,0.592597,0.489069,0.806807,-0.331471
0.985857,-0.289567,0.277724,0.972378,0.143549,0.184051
0.176440,-0.939104,0.020679,-0.402112,0.607963,-0.684608
0.342251,-0.448983,0.739187,0.001393,-0.470468,0.882416
0.074412,0.120848,-0.079389,0.975685,0.108023,0.190706
-0.040947,0.891678,0.316850,-0.460079,0.767135,0.447026
0.296369,-0.287192,0.069085,0.995884,0.022570,0.087778
0.164029,0.380762,0.344300,-0.510880,0.495442,-0.702523
0.517009,-0.422446,0.502156,0.933901,-0.307975,-0.181604
-0.203094,0.203328,0.344074,-0.277265,-0.920903,-0.273972
0.050912,-0.442746,-0.063042,0.416061,0.515928,0.748807
0.267988,-0.897619,0.261725,-0.443800,0.882770,-0.154138
0.301969,-0.381158,-0.302674,-0.283864,-0.754002,0.592371
0.393927,-0.274519,0.721631,0.819952,0.357227,-0.447290
-0.305228,0.292737,0.446273,0.239997,-0.348996,0.905871
0.044808,0.490470,0.249967,0.773441,0.540305,-0.331449
-0.002496,0.056289,0.661795,0.637932,-0.765446,0.084476
0.035651,0.330462,-0.934080,-0.698639,0.715332,0.014292
0.720457,-0.654932,0.498919,0.126471,0.935960,-0.328608
-0.068818,-0.015198,0.888398,0.376447,0.845315,-0.379117
0.408368,-0.858410,0.331763,0.269227,0.928697,-0.255028
-0.052340,-0.049557,-0.953479,0.158547,0.146364,0.976443
0.365137,-0.415614,-0.115729,-0.460878,0.697018,-0.549324
0.483643,-0.173622,0.098440,0.811363,-0.567663,-0.139457
0.663597,-0.238873,0.578769,0.800101,0.594783,0.077913
0.415390,-0.364224,0.634283,0.957779,-0.102649,0.268556
0.614461,0.179958,0.678838,0.855955,0.182443,0.483793
0.169828,0.913758,0.163992,-0.426221,0.740006,0.520314
-0.352527,-0.056489,0.822642,-0.327241,0.298772,-0.896465
0.938657,-0.195801,0.413743,-0.085830,0.755613,0.649371
0.096583,0.579979,0.398175,-0.446749,-0.472254,-0.759863
0.196172,0.359770,-0.876497,0.983036,-0.058391,-0.173871
0.644369,0.212931,0.382750,0.067024,0.756404,0.650662
0.616498,-0.368582,0.660545,0.159443,-0.972418,-0.170239
-0.307364,-0.376701,0.727899,0.265837,0.846690,-0.460920
-0.141243,0.735037,0.353682,0.106397,0.992328,0.062973
0.378157,-0.281944,0.711266,-0.729944,-0.352359,-0.585683
0.710287,0.717411,0.181199,0.173706,0.846780,0.502782
0.434718,-0.842664,0.183043,0.172316,0.973982,0.147195
0.259545,-0.568294,0.188430,0.754287,0.651903,-0.077935
0.373885,-0.342740,0.676667,-0.382928,0.558963,0.735477
-0.022227,0.180753,0.952496,-0.450446,-0.885948,-0.110427
-0.156100,-0.479082,0.425399,0.910242,0.412951,0.030511
0.130564,0.076885,0.130315,0.513612,0.856734,-0.047001
0.356799,-0.365116,0.778907,0.951893,0.305514,-0.023667
0.101668,0.123126,-0.127774,-0.023221,0.998843,0.042118
0.118761,0.134216,0.510903,-0.847654,0.358513,0.391089
-0.626575,-0.014902,-0.948194,0.021316,0.060454,0.997943
-0.615585,0.535520,0.525611,0.872700,-0.323147,0.366020
0.379684,-0.243526,0.773867,0.871617,0.231358,-0.432155
0.187728,0.260559,-0.837330,0.944790,0.325077,0.041188
0.708555,0.246596,0.670439,-0.516344,0.802735,-0.298339
0.060063,0.484925,-0.959686,-0.037629,0.540315,0.840621
0.196886,0.714045,-0.984677,0.152751,0.333538,0.930279
-0.872845,-0.449774,-0.934612,0.169990,0.109717,0.979319
0.409591,-0.092133,0.076951,0.784503,-0.159731,-0.599200
-0.603174,-0.188573,-0.136829,0.184720,0.539599,0.821409
-0.010325,0.049853,0.906835,0.791718,0.558772,0.246895
0.107573,0.768406,-0.489578,-0.135647,-0.918238,0.372075
0.362492,0.535620,0.565598,-0.241974,0.642197,-0.727346
0.243476,0.268578,-0.970461,0.012205,0.122729,0.992365
0.816997,0.319869,0.036391,0.098554,0.146906,0.984229
0.380193,0.234518,-0.299745,0.216739,0.176635,0.960117
0.647827,-0.140057,0.468110,0.811515,-0.296668,0.503420
-0.329436,-0.499382,-0.935206,-0.319175,-0.087073,-0.943687
-0.764105,0.036189,-0.133182,0.690184,0.357356,0.629240
0.175726,0.426012,0.577192,-0.829439,0.544379,0.125233
-0.365546,-0.745136,0.253552,0.895120,0.398739,0.199417
0.545085,-0.147581,-0.275737,0.150465,0.121621,0.981106
0.286099,0.072132,0.523399,-0.454420,0.890414,0.025816
0.098825,-0.707410,0.613286,0.177828,0.953123,-0.244815
-0.137480,-0.065597,0.666404,-0.278767,0.960129,0.021009
0.284473,-0.214814,0.795295,0.161047,-0.761588,0.627732
0.970397,0.136591,0.224258,0.981708,-0.181861,-0.056348
-0.700117,-0.182037,-0.391374,-0.320849,0.527575,0.786588
0.334621,0.153425,0.756087,0.655179,0.571441,0.494161
-0.271757,0.082630,0.638729,0.699601,0.688808,0.190005
0.158230,0.380958,-0.900054,-0.780480,0.575999,0.243056
-0.415800,-0.234911,-0.945776,0.111715,0.214438,0.970328
0.374189,-0.857615,0.348622,0.854281,0.516215,0.061037
0.345405,-0.271945,0.801133,0.310336,-0.402854,0.861046
-0.554652,0.282439,0.640675,0.994133,0.023396,-0.105608
0.472250,0.186694,-0.970727,0.018190,0.122263,0.992331
0.508366,-0.183820,0.599930,0.370409,0.893705,0.253157
0.027412,0.512154,0.690453,-0.334525,0.296324,-0.894586
0.362287,-0.178375,0.676155,-0.146589,0.922724,-0.356499
-0.265349,0.549284,0.719357,0.889843,0.452944,-0.054973
0.137276,-0.136295,0.693772,0.149807,-0.255732,0.955070
0.132898,0.113224,0.185788,0.707638,0.650500,-0.275860
0.194750,-0.278478,0.728104,-0.805601,0.446703,0.389183
0.556279,-0.004108,0.343808,0.867690,0.229114,-0.441157
-0.415899,0.782070,-0.099341,0.387487,-0.920438,-0.051453
0.919026,0.499182,0.048047,-0.670437,-0.064708,0.739139
0.194241,0.310559,0.725851,-0.466230,-0.773914,-0.428587
0.974569,0.505222,-0.270083,0.668557,0.084638,-0.738829
0.454046,0.168077,0.719009,0.955602,-0.189720,0.225459
0.144192,0.028170,0.492774,0.331540,0.915255,-0.228886
0.675804,-0.159761,0.410302,-0.205006,0.897427,0.390638
-0.185089,-0.391157,0.713212,-0.559707,0.273474,-0.782266
0.608973,0.683847,0.022810,0.444133,0.284602,-0.849557
0.674687,0.206990,0.364149,0.764373,-0.398874,-0.506590
0.764608,-0.145106,0.446949,0.984466,0.042907,0.170252
0.388432,0.793159,-0.303535,0.035232,-0.974237,0.222756
-0.065155,-0.029753,0.558367,0.408900,0.767150,0.494248
-0.361883,-0.481955,0.575308,-0.621988,-0.761827,0.180972
-0.394640,-0.083419,0.825244,0.893423,0.435401,0.110553
0.481507,-0.440172,0.680907,-0.016837,0.418395,0.908109
-0.253956,-0.168373,0.532412,-0.625341,-0.244891,-0.740930
-0.158745,0.468687,-0.235566,-0.158240,-0.289895,-0.943886
-0.365652,0.421062,0.753178,0.343486,-0.917489,0.200575
0.970701,-0.018664,0.393054,0.058328,0.551812,0.831926
0.416607,-0.380562,0.613983,0.781236,-0.295921,0.549638
-0.442249,-0.048170,-0.949505,0.051139,0.217361,0.974751
-0.348969,0.174713,0.684451,0.954958,-0.293747,-0.042049
0.103811,-0.787515,0.353620,0.298336,0.954446,-0.005407
-0.322414,0.457398,-0.518032,-0.231425,0.731861,0.640954
0.097707,0.092432,0.137300,0.471936,0.881067,-0.031565
0.387209,-0.129463,0.470302,0.318412,-0.945005,-0.074693
0.487002,-0.488292,-0.108642,0.799168,0.373248,-0.471186
-0.778751,0.082826,0.322524,-0.355439,-0.930449,-0.089040
-0.299429,-0.369769,0.579405,0.634118,0.746813,-0.200413
0.227508,0.182436,0.296754,-0.552375,-0.833482,-0.013757
-0.669806,-0.524827,-0.931191,0.126525,0.059960,0.990150
-0.054376,0.112828,0.876722,-0.358546,0.071095,0.930801
0.393821,-0.122927,0.263118,0.956195,0.257930,-0.138435
0.068812,-0.137779,0.779542,-0.156589,-0.092594,0.983314
0.601138,-0.259964,0.615253,0.095341,-0.994741,0.037436
-0.043691,-0.222138,0.696127,0.819093,0.257791,0.512475
0.295555,0.049657,-0.109522,0.410250,0.892491,0.187495
0.186716,0.562553,0.732201,-0.000918,-0.220597,0.975365
-0.283051,-0.466113,-0.939836,0.148855,0.224463,0.963046
0.040736,0.091144,-0.034773,0.047426,0.998030,-0.041083
0.834897,-0.724440,0.211025,0.233941,-0.912960,0.334327
0.623005,0.691866,0.204941,0.096495,0.905303,0.413660
-0.863997,-0.164711,-0.939447,0.046476,0.161739,0.985739
-0.448557,0.729788,-0.026989,0.462086,-0.879314,-0.115249
0.223738,0.125006,0.592392,0.350582,0.832177,-0.429620
0.163420,0.307392,0.749449,0.984814,0.153595,0.080928
-0.805809,-0.455219,-0.933383,-0.150964,0.050386,0.987254
0.612835,0.459776,0.494638,0.946024,-0.123796,-0.299521
-0.596971,-0.222933,-0.941864,-0.045888,0.259950,0.964531
-0.149283,-0.024804,0.618469,-0.019305,0.979469,0.200667
0.382428,0.194813,0.740006,-0.635096,-0.445270,-0.631180
0.572652,-0.515025,0.048047,-0.212697,-0.506756,0.835439
-0.167183,-0.217784,0.873916,0.071153,0.982867,0.170028
-0.622098,-0.444922,0.408950,-0.181395,0.635154,0.750783
-0.912928,0.495915,0.144920,0.483172,0.736918,0.472755
0.456890,-0.611861,-0.332193,0.803974,0.592815,-0.046856
