-0.064509,0.010802,0.853668,0.789752,0.141673,0.596842
-0.724057,0.076436,0.531464,0.865480,-0.322169,0.383603
-0.138988,0.505199,0.611732,0.432381,0.838020,0.332818
-0.200583,-0.347332,0.681828,0.348399,0.267419,-0.898390
0.075096,0.124778,0.573522,-0.084453,-0.308054,0.947613
-0.003795,0.081159,0.730842,0.331061,0.620031,0.711309
-0.103071,0.274271,0.765179,-0.622229,-0.120974,-0.773432
-0.018708,0.052533,0.941473,-0.411301,-0.899496,-0.147441
0.750705,0.559484,0.385343,0.326688,-0.654921,0.681435
0.256087,-0.273331,-0.964346,0.226328,-0.307638,-0.924194
-0.120543,0.339633,0.651444,0.690264,-0.004868,0.723541
0.006531,0.579208,0.490909,-0.594281,-0.546742,0.589833
-0.143666,-0.298446,0.829582,0.679087,0.506630,0.531193
0.094776,-0.404320,-0.171050,0.048514,-0.800603,0.597227
-0.008120,0.012022,0.758433,0.857897,0.464160,0.220380
0.329863,-0.222146,0.712159,-0.445651,0.895193,-0.005005
-0.260326,-0.000136,0.851218,-0.685513,0.015274,-0.727900
-0.008472,0.982715,0.425082,0.368109,0.920964,-0.127757
0.034681,0.170293,0.916781,-0.412270,0.899846,-0.142519
-0.485351,-0.804185,0.484242,-0.112152,-0.776991,0.619441
-0.114543,-0.541119,0.714978,0.230191,-0.834957,-0.499859
0.137132,-0.120731,0.764309,0.978353,0.043162,-0.202391
0.314771,0.358269,0.630468,-0.687223,-0.078067,0.722240
-0.143666,-0.105870,0.962870,0.968017,0.053903,0.245027
-0.054537,-0.053341,0.806498,0.055014,-0.608201,0.791875
-0.056920,-0.010126,0.807368,0.426686,0.679998,0.596274
-0.276826,-0.250912,0.566380,0.739338,-0.581804,0.338945
-0.788564,-0.334638,0.484584,0.876143,0.304766,-0.373485
0.617278,0.533693,0.462633,-0.622399,-0.779736,-0.068055
0.193345,-0.112085,0.775640,0.745322,0.021914,-0.666344
0.595392,0.464687,0.551360,0.336902,-0.816334,-0.469145
-0.122927,-0.060364,0.885369,0.233100,0.739961,0.630969
-0.071304,-0.153140,0.781886,-0.084770,0.899119,0.429418
-0.339571,0.454285,0.529409,-0.604483,-0.334741,0.722875
-0.031503,-0.531665,-0.976784,-0.563927,0.010123,0.825762
0.012442,-0.022959,0.805550,-0.570793,0.517994,-0.637085
0.011031,-0.305336,0.509328,0.849206,-0.525766,0.049185
-0.882898,0.251588,0.525429,0.048656,0.898111,-0.437068
-0.471321,0.001892,0.716243,0.444546,-0.869409,0.215656
-0.050917,-0.358542,0.798198,-0.453618,0.883068,-0.120089
0.296771,-0.435649,0.564299,-0.244300,0.315381,0.916980
-0.113221,-0.612960,0.726178,-0.685972,0.070379,0.724216
0.022678,0.336262,0.831796,-0.616952,0.495381,0.611528
-0.077215,-0.217151,0.867714,0.314520,-0.863136,0.395062
0.032914,-0.164622,0.751528,-0.008036,0.928213,0.371963
0.081010,-0.470762,0.794561,0.834500,0.550890,-0.011417
-0.135104,-0.050637,0.896727,0.904417,-0.361411,0.226744
-0.205172,-0.524643,0.706493,0.022671,0.659351,0.751493
0.268796,0.014181,0.379598,0.486526,0.454570,-0.746096
-0.129104,-0.116140,0.903130,-0.304373,-0.499339,0.811183
0.146047,0.425659,0.301123,-0.392245,0.451035,0.801692
-0.202172,0.104386,0.438969,0.349780,0.638772,0.685292
0.376366,0.335586,0.641747,0.327636,0.062247,0.942751
0.076332,0.137743,0.684094,0.013024,0.922438,0.385925
0.390311,0.173664,0.570702,-0.334234,0.300042,-0.893455
-0.428081,0.338282,0.535311,0.436781,0.792576,0.425495
-0.120104,-0.229300,0.671735,-0.190028,0.792856,-0.579024
-0.251326,-0.312491,0.569095,0.365411,-0.917264,-0.158432
-0.039534,-0.119915,0.771872,0.755531,0.654589,0.026201
0.083832,0.098855,0.809292,-0.362253,0.552464,0.750704
0.118777,-0.249560,0.652788,0.528491,0.243869,0.813157
0.655401,0.515460,0.422025,0.773950,0.539426,0.331695
-0.122574,-0.612556,0.720170,-0.275931,0.476740,0.834614
0.048887,-0.053473,-0.991805,0.040022,0.343882,0.938160
0.155841,0.245513,0.703225,-0.582576,0.397717,0.708820
-0.028328,0.268872,0.542584,-0.743709,-0.059994,-0.665806
0.308682,-0.256038,-0.963872,0.203324,-0.413285,-0.887612
0.190345,0.142878,0.720987,-0.533345,0.842696,0.073527
0.064065,-0.193520,0.258591,0.272012,0.895350,0.352643
-0.734027,-0.113305,0.537051,0.179860,0.409979,-0.894185
0.125396,0.556244,0.490302,0.789723,-0.589725,0.169003
0.023473,-0.390275,0.837330,-0.701068,0.705904,0.101008
0.013589,-0.149357,0.811215,0.035150,0.748377,0.662341
0.827478,0.689672,0.333852,0.634903,0.769811,0.065482
0.095040,0.547062,-0.340044,0.858287,-0.084769,0.506121
-0.000267,-0.004587,0.869848,0.999783,-0.019077,-0.008411
-0.045095,-0.086426,0.902735,0.588571,0.767664,-0.253527
-0.006972,0.556384,0.544271,0.463327,0.343254,-0.817010
-0.094513,-0.216607,0.758617,-0.628829,0.621096,0.467775
0.105276,-0.039436,0.719669,0.397524,0.689862,0.605033
-0.793153,0.266036,0.557210,-0.505136,0.837812,0.207143
-0.017298,-0.350035,0.422183,-0.647719,0.758157,0.075226
-0.535474,0.005271,0.427243,-0.053723,0.361269,0.930913
0.135721,0.266845,0.410931,-0.249270,0.865495,0.434491
0.316007,-0.422684,0.748076,0.264498,0.960946,-0.081388
0.280798,0.647941,0.342574,0.546056,0.837749,-0.000238
-0.020650,-0.140447,0.855038,0.016817,-0.316882,0.948316
0.083479,-0.525458,0.716428,0.148474,0.707354,0.691090
-0.291299,0.275219,0.745915,-0.401629,0.782202,0.476292
-0.145960,-0.113568,0.672315,0.377667,-0.313507,-0.871253
0.093982,-0.413774,0.732054,0.665401,0.737910,-0.112827
-0.076773,-0.490750,0.561769,-0.624453,0.561809,-0.542614
-0.091599,-0.097908,0.751792,-0.155347,-0.710691,0.686139
0.180375,-0.023899,-0.983477,0.330826,-0.199514,-0.922360
0.918371,0.316678,0.369058,0.979395,0.122941,0.160224
-0.231381,-0.007835,0.841968,0.725671,-0.068142,0.684659
0.305946,0.307496,0.625250,-0.416644,-0.626715,0.658511
0.177197,-0.850779,-0.964847,-0.155878,0.057873,0.986080
-0.093718,0.066306,0.888742,0.966754,0.200065,-0.159253
0.148341,0.203238,0.409824,-0.250287,0.702224,0.666512
-0.183816,0.116272,0.673000,0.731803,-0.370497,0.572011
-0.010767,-0.148145,0.763729,0.962637,0.248611,-0.107348
0.034150,0.204993,0.780015,-0.677239,-0.594415,-0.433610
-0.307713,0.147873,0.765258,-0.129108,-0.824488,0.550954
-0.007589,-0.024039,0.906556,-0.218900,-0.946423,0.237417
-0.246384,-0.158679,0.613761,0.670616,-0.342883,-0.657803
-0.256442,-0.238490,0.780436,-0.153333,-0.385674,-0.909805
-0.168991,-0.031598,0.897623,0.527503,-0.273051,0.804477
-0.148783,0.034301,0.869084,0.863431,-0.488989,0.124003
-0.340894,-0.850779,0.522847,-0.844928,0.248890,0.473446
0.476437,-0.371507,0.617108,0.062078,-0.960271,0.272076
-0.328010,0.010670,0.488168,-0.083463,-0.924351,0.372303
0.263679,0.398517,0.335196,-0.666410,0.711318,-0.223436
-0.862073,0.222550,0.511226,0.487269,0.404559,0.773887
-0.285298,-0.158539,0.764678,-0.006899,0.699114,0.714976
-0.088865,0.035521,0.893433,-0.188630,-0.472389,0.860969
0.379986,0.226473,0.569543,-0.493731,-0.869073,-0.030689
0.048092,-0.044027,0.782492,0.722125,-0.607364,0.331125
-0.382016,-0.413370,0.588279,-0.293870,0.019459,0.955647
-0.008914,0.422552,0.686545,-0.130108,0.252706,0.958755
-0.192553,-0.162866,0.767761,0.359321,0.073839,0.930288
-0.367808,-0.352871,0.612443,0.875528,-0.409493,-0.256449
-0.790328,-0.052261,0.536418,0.020272,0.077702,0.996771
0.062123,-0.081431,0.712765,0.096269,0.057345,0.993702
0.181433,-0.049294,0.554311,-0.105957,0.984121,0.142405
0.120807,-0.732879,0.658612,0.596800,0.794718,0.110691
-0.168108,-0.215667,0.694055,0.796748,0.604306,0.002548
-0.376458,-0.056317,0.513677,0.291465,0.423339,0.857806
-0.026828,0.542339,-0.176663,-0.022388,0.782823,0.621841
-0.067862,-0.253475,0.558712,0.747042,0.628676,-0.216090
-0.022328,-0.091965,0.503584,0.828329,-0.287286,-0.480975
0.108454,-0.249288,-0.975256,-0.222711,0.393726,0.891841
-0.169697,-0.556244,0.712001,0.179840,0.689358,0.701743
-0.664226,-0.200270,0.456941,-0.691423,-0.241240,-0.680982
0.023473,0.313299,0.780858,0.852605,-0.247632,0.460155
0.081362,-0.551653,0.722910,-0.340390,0.902994,0.262175
-0.343010,0.236463,0.506562,-0.588208,0.587926,0.555297
-0.078804,-0.082107,0.679087,0.821375,0.520603,-0.233059
0.257765,-0.488186,0.541530,0.661928,0.526359,-0.533664
0.893576,0.551653,0.391167,0.879248,0.307016,0.364232
-0.377780,-0.554085,0.480289,0.582196,0.115891,-0.804746
-0.135721,0.475493,0.653052,0.913401,-0.041511,-0.404939
0.672079,0.499800,0.441209,-0.601173,-0.652138,0.461851
0.078273,-0.092237,-0.982977,-0.223397,0.254384,0.940948
-0.234823,0.153272,0.838779,0.045862,0.206450,0.977382
0.111102,-0.549090,0.733504,0.992340,-0.123537,0.000443
-0.392075,0.102902,0.565405,-0.249822,-0.485977,0.837506
0.143841,0.018096,0.376331,-0.139445,0.870941,-0.471187
0.445198,0.355030,0.584194,0.151881,0.940319,0.304520
-0.033270,0.079271,0.234373,0.821608,0.515909,-0.242484
0.143047,0.129369,0.567303,-0.717586,-0.067160,0.693224
-0.072540,-0.074953,0.936755,0.687351,-0.692408,-0.219364
0.116043,0.077244,0.481343,-0.673236,0.355176,-0.648539
0.188050,0.136532,0.504348,0.938035,-0.336721,0.081912
-0.505032,0.129105,0.634763,-0.142927,0.986554,-0.079266
-0.348394,0.238754,0.693159,-0.073686,-0.721307,0.688684
-0.198200,-0.165026,0.742885,0.275500,-0.645881,-0.711995
0.241881,0.267520,0.288869,-0.541120,0.596680,-0.592589
0.041298,0.474545,0.296669,-0.472203,0.869211,0.146619
0.067773,-0.017420,0.810609,-0.659422,-0.628420,0.412615
-0.184875,0.371639,0.779488,-0.018425,-0.838708,0.544270
-0.042448,0.552873,0.684937,0.444762,0.491342,-0.748845
0.290240,0.358269,0.421524,-0.746778,0.522053,0.412047
0.162899,0.250780,0.634922,-0.228648,0.539608,0.810274
0.911754,0.326536,0.443554,0.993474,-0.072481,0.088066
0.190611,0.127481,0.515811,0.612570,-0.790255,0.015988
0.225025,-0.360973,0.516575,-0.386271,0.490887,0.780913
0.119485,0.266845,0.657821,-0.209221,0.888948,-0.407429
-0.063979,0.014717,0.869822,-0.148564,0.984616,0.091981
-0.482882,-0.081703,0.485717,0.935915,-0.345819,0.066883
-0.460554,0.109925,0.630152,-0.509280,-0.849135,0.140012
-0.120632,-0.107626,0.675556,0.897386,-0.115292,-0.425918
0.163077,-0.809047,0.656635,-0.134742,-0.981042,-0.139288
-0.024003,-0.309656,0.716085,-0.134018,-0.317338,-0.938795
0.143399,-0.154896,0.751265,-0.668806,0.237260,0.704561
-0.078451,0.107766,0.886213,0.770347,-0.135345,-0.623094
0.179050,-0.236059,-0.120823,-0.702891,0.697811,-0.137857
0.358805,0.240378,0.580900,-0.533902,0.555536,-0.637439
0.864896,0.331803,0.431696,0.732362,0.679611,0.042125
-0.674462,-0.024171,0.437520,0.304879,-0.366739,0.878949
-0.035739,0.406075,0.687151,-0.256739,0.590343,0.765232
0.249559,0.230388,0.608859,0.724710,-0.687587,-0.044945
-0.159108,-0.095073,-0.342574,-0.358866,0.911993,-0.198705
0.079157,-0.217019,0.719774,0.780273,-0.014593,-0.625269
0.918638,0.563407,0.394303,0.997677,0.011064,0.067219
-0.678787,-0.038760,0.494940,0.984973,0.071366,0.157274
-0.373544,-0.890483,0.534258,0.764461,0.445553,0.465921
-0.081276,-0.040648,0.818462,0.997801,-0.029940,0.059126
0.236587,-0.118431,0.180958,-0.108843,-0.816078,0.567600
0.405047,0.361649,0.537420,-0.720124,0.158490,0.675502
-0.451465,0.069414,0.725888,0.364162,-0.909100,0.202296
0.343805,0.423772,0.258749,0.866733,-0.409668,-0.284511
0.034239,0.437809,0.730842,-0.715218,0.374241,0.590260
-0.779827,-0.006614,0.524718,-0.487727,0.872225,0.036681
0.133780,-0.315870,0.765152,-0.289099,0.268190,0.918965
-0.542710,0.416478,0.581506,-0.052284,-0.751769,0.657350
-0.141194,-0.429847,0.775324,0.886939,-0.252057,-0.387048
-0.627517,0.368671,0.548804,0.442043,0.883842,0.153038
0.161047,-0.309656,0.676320,0.146574,-0.876746,0.458074
-0.024534,0.096828,0.726362,0.241536,0.637301,0.731784
-0.038739,0.023231,0.894487,-0.322558,-0.626485,0.709558
0.211347,0.226737,0.373564,0.756441,0.521980,-0.394125
-0.034064,0.045783,0.827975,0.784533,-0.552507,-0.281504
0.414842,0.411887,0.630205,0.459351,-0.328049,0.825458
0.140133,0.374746,0.689786,-0.786465,0.516190,-0.339147
0.072448,-0.225657,0.836961,0.910197,0.001995,-0.414172
0.135985,-0.721266,0.645146,-0.297085,-0.800767,-0.520109
-0.471673,-0.422552,0.572468,-0.269897,0.949215,0.161697
-0.041034,-0.380145,0.691315,-0.165651,-0.254087,-0.952890
-0.246823,-0.213236,0.566117,-0.672487,0.638938,-0.373522
-0.087982,0.158811,0.557763,-0.353513,-0.511260,-0.783353
-0.490029,0.042131,0.520686,-0.412935,-0.043399,-0.909726
-0.000442,0.032413,0.900469,-0.178497,-0.043586,0.982975
-0.218409,-0.132204,0.726389,-0.581622,0.752334,-0.309369
-0.328274,-0.342609,0.626436,-0.423925,-0.805698,-0.413689
0.583922,0.718842,0.413724,0.738364,0.647953,0.187015
-0.206230,0.271707,0.781543,0.808578,0.463182,0.362855
0.013942,-0.150437,0.789396,0.265179,0.917074,0.297751
0.149222,0.079675,0.826578,0.551649,0.559209,-0.618844
0.115338,-0.433218,0.719326,0.946187,0.109899,-0.304390
0.067859,-0.126674,0.422763,0.444700,-0.135119,0.885429
-0.179844,0.245917,0.715163,0.760648,0.550438,-0.344141
0.431256,0.435245,0.505639,0.084977,0.344279,0.935014
0.184697,0.224577,0.652867,0.765229,-0.363578,0.531258
0.001764,-0.257662,0.729604,0.584327,0.802668,0.119525
0.027003,0.114384,0.664620,-0.689331,0.659245,-0.300364
0.640045,0.599863,0.456704,0.980794,0.175117,0.085892
0.219378,-0.231196,-0.975045,0.232037,-0.222698,-0.946871
0.190611,-0.683862,0.648256,-0.135116,0.758811,0.637141
-0.420403,0.021476,0.716876,0.782821,-0.590146,0.197279
0.005822,-0.063199,0.900970,-0.403587,0.037852,-0.914158
-0.080568,0.212288,0.717798,0.981905,-0.039823,-0.185138
0.600247,0.709248,0.422631,0.734349,0.669648,-0.110918
-0.574303,0.345304,0.569042,0.028355,-0.743700,0.667912
-0.224761,0.167993,0.580953,0.395691,0.430638,0.811159
-0.023562,-0.100471,-0.209286,-0.789118,0.601924,-0.122394
-0.035739,0.015129,0.973227,0.229260,0.928817,0.291099
0.244351,-0.711276,0.659218,0.161951,0.892363,0.421261
0.027267,0.348279,0.768235,-0.542482,0.807358,-0.232136
0.542622,0.451186,0.330110,0.296802,0.018318,0.954763
-0.202967,-0.081027,0.924713,-0.429635,-0.633593,-0.643408
0.145605,-0.071029,0.815036,-0.738325,-0.479581,0.474213
-0.512885,0.106142,0.632919,0.992777,0.069456,0.097821
-0.461348,0.031869,0.710683,0.804563,-0.485622,0.341833
0.342480,-0.065359,0.563930,-0.215087,0.089584,0.972477
0.064859,-0.393250,0.607542,-0.512843,0.139986,0.846992
-0.154960,0.032009,0.667282,0.147711,-0.108476,-0.983064
0.065832,0.142878,0.748393,0.919390,0.372312,-0.126907
0.201111,-0.695747,0.641984,0.069188,0.789349,0.610034
0.094951,-0.405944,0.721751,0.874615,0.277637,-0.397450
-0.401431,0.031062,0.688600,-0.594324,-0.727236,-0.343376
0.060359,0.494937,0.783151,-0.770235,0.578194,0.269129
0.090540,-0.456989,0.713819,0.837253,0.001712,-0.546813
-0.332599,-0.300333,0.580004,-0.122383,0.992301,0.019019
-0.699082,-0.100199,0.535812,-0.622693,0.289529,-0.726929
-0.048006,-0.509518,0.731738,-0.847229,0.530598,-0.025851
-0.280093,0.188385,0.561110,0.170083,-0.967846,0.185326
-0.200495,0.558948,0.446058,0.791467,-0.286792,0.539750
-0.122752,-0.043887,0.796379,0.851912,0.001269,0.523683
-0.125485,0.241054,0.803231,0.763419,0.241838,-0.598921
-0.199258,-0.126130,-0.854327,0.879717,0.455820,-0.135373
-0.054006,-0.469954,0.674370,-0.695215,0.194074,-0.692106
0.133163,-0.494261,0.774534,0.285763,-0.957106,-0.047840
0.014647,-0.315870,0.484979,0.710669,0.312861,0.630133
0.000795,0.617691,0.724333,0.879362,-0.243314,-0.409293
-0.018003,-0.275351,0.818225,0.726469,0.663364,-0.179419
-0.108102,0.272384,0.819095,-0.302751,0.952097,-0.043037
-0.352541,-0.274271,0.626831,-0.021762,0.953497,0.300616
0.224673,-0.179607,0.693264,-0.410197,0.872883,0.264224
-0.366219,0.041595,0.570307,-0.332204,-0.663790,0.670092
-0.565566,0.254695,0.488089,-0.182960,-0.560277,0.807846
-0.617192,-0.626470,0.527221,0.296477,0.744135,-0.598636
-0.239853,0.000672,0.595605,0.259533,0.965563,0.018171
0.346983,0.566646,0.333035,-0.160628,0.865377,-0.474680
-0.117102,-0.365968,0.773611,0.377278,0.903766,-0.202160
-0.055773,-0.474949,0.680273,-0.214122,0.503446,-0.837075
0.133338,0.020800,0.839359,0.806082,0.277680,-0.522615
-0.098307,0.407699,0.785601,-0.603310,0.291612,-0.742280
0.226437,-0.349895,0.551360,-0.609795,0.345912,0.713088
0.076948,-0.619983,-0.966032,-0.166613,-0.181033,0.969261
-0.334982,-0.264149,0.692816,0.850017,-0.482127,-0.212191
-0.762091,-0.048074,0.531095,0.515975,-0.501855,-0.694198
-0.005825,-0.059959,0.917993,-0.522532,0.653540,0.547581
0.393222,0.291967,0.544772,0.883194,-0.464687,-0.063516
-0.081451,-0.091561,0.951908,0.344563,-0.478612,0.807593
-0.324216,-0.312087,0.630178,0.470530,0.842947,0.260848
-0.097865,-0.227816,0.797170,0.619047,-0.102944,0.778578
-0.129546,0.174208,0.692369,-0.185758,-0.786877,0.588489
-0.192730,-0.318838,0.703173,0.502119,0.080077,0.861083
-0.171991,0.007027,0.624328,0.506421,-0.854638,0.114591
-0.086040,0.293995,0.802361,-0.297820,0.952338,0.066001
-0.279298,0.744633,0.558211,0.884809,0.429527,0.180607
0.230587,-0.296822,0.390640,0.432169,0.874922,0.218498
0.034150,0.617559,0.709576,0.976000,-0.106442,-0.189985
-0.024003,-0.096556,0.741330,0.549665,-0.328220,-0.768206
0.601922,0.623230,0.381575,-0.118963,0.715266,0.688653
0.306299,-0.034705,0.562797,-0.301910,0.325252,-0.896137
-0.523738,0.116000,0.642432,-0.044672,0.877943,0.476677
0.506618,0.126946,0.598161,0.701771,0.214996,-0.679186
-0.208350,-0.179475,0.673184,0.047440,0.851121,0.522822
-0.134399,0.074549,0.589833,-0.736222,0.670705,0.090176
-0.201642,0.242809,0.774402,-0.631034,-0.708610,-0.315702
-0.259795,0.259962,0.771371,-0.174073,-0.958353,0.226401
-0.825098,-0.034705,0.562138,0.398818,0.673184,-0.622709
-0.518710,0.066438,0.606751,-0.147214,-0.988362,0.038335
0.050739,0.635783,0.734690,-0.499736,0.852543,0.153081
-0.715407,0.296286,0.586566,0.272605,0.685876,-0.674731
0.242851,0.645378,0.337383,-0.599444,0.692471,-0.401435
-0.168108,-0.257530,0.764678,0.766335,0.365489,0.528345
0.154872,-0.394594,0.793112,0.392991,0.878772,0.270772
-0.354749,-0.320997,0.693133,-0.735244,-0.631109,-0.247220
0.065654,0.168265,0.620402,-0.321991,0.939876,0.113823
-0.203408,0.009590,0.617898,0.421710,-0.888009,0.183304
0.737205,0.822821,0.331849,0.188244,-0.946328,0.262732
-0.060890,0.265633,0.823337,0.700948,0.574682,-0.422389
-0.100424,0.075356,0.684147,-0.278210,0.555888,-0.783319
0.124691,-0.160023,0.699747,0.996936,-0.002710,0.078170
0.346894,-0.175288,0.701539,-0.799016,0.437775,0.412222
0.034945,0.441864,0.471672,0.195203,0.775893,0.599905
-0.573508,0.048074,0.429351,0.231279,0.187549,0.954639
0.546594,0.522623,0.366923,0.957144,0.190184,-0.218415
0.078448,0.515197,0.797038,-0.056725,0.644411,0.762573
0.164577,0.130721,0.718878,-0.508848,0.844629,0.166358
0.118338,-0.337746,0.743939,0.875171,0.448817,-0.180662
-0.049770,0.023907,0.878808,-0.153843,0.985689,-0.068910
0.347069,0.526942,0.438969,0.711337,-0.490248,-0.503643
0.434873,-0.187577,0.587383,-0.249655,0.809785,0.530963
0.422695,0.286025,0.559898,-0.646472,0.756299,0.100429
-0.159197,-0.152736,0.825287,0.569474,0.526581,0.631199
-0.557977,0.284401,0.547987,0.047266,-0.994668,0.091657
-0.661667,-0.081299,0.514494,0.921927,0.267708,0.279970
0.139427,-0.579068,0.607516,-0.170405,0.666797,0.725495
-0.042181,0.110601,0.803968,0.907628,0.308645,0.284516
-0.003353,0.120591,0.410298,-0.265088,0.735837,0.623116
-0.022239,-0.123426,0.773717,0.776491,0.629922,0.016103
-0.322010,-0.932882,0.530146,-0.083829,0.834739,0.544228
-0.164580,0.426607,0.603721,0.979931,0.181042,-0.083418
-0.183286,-0.061312,0.703173,0.831854,0.440534,0.337563
0.210464,0.227413,0.490382,0.760177,-0.510340,-0.402100
-0.652931,0.273735,0.578766,0.845699,-0.262486,0.464644
0.197581,0.223629,0.288184,0.317003,-0.818767,0.478675
0.047917,-0.053341,0.724439,0.205126,0.570780,0.795068
-0.104218,0.009994,0.935122,0.653251,0.167983,-0.738271
0.279915,-0.386491,0.716401,-0.683713,0.355296,0.637418
0.332068,-0.219714,0.577000,0.220374,0.069270,-0.972953
0.093715,-0.056044,0.578898,0.287637,0.595993,0.749704
0.143841,-0.148145,0.669706,0.376906,0.924161,0.062187
-0.066009,-0.109793,0.166227,0.165912,0.925883,0.339433
-0.147635,-0.228220,0.790450,-0.115462,-0.833661,0.540071
-0.224409,0.350983,0.807895,-0.000386,-0.046772,0.998906
-0.184964,-0.004051,0.820043,0.369463,0.896414,0.244825
0.129896,0.197031,0.645278,-0.716469,0.186662,-0.672182
-0.109160,0.374886,0.642695,0.756842,0.188238,0.625905
0.217967,-0.172988,-0.320017,0.040084,-0.999179,0.005849
-0.180639,-0.117491,0.926584,-0.366555,-0.638924,-0.676324
-0.961877,0.210936,0.524481,-0.295406,-0.098255,0.950306
-0.116927,-0.224305,-0.973253,-0.075216,0.913970,0.398750
-0.171197,-0.011609,0.805840,0.594642,-0.065751,0.801298
0.116749,-0.120731,0.726468,-0.430421,0.847652,0.310200
0.367188,-0.335990,0.568383,-0.232907,-0.170931,0.957359
0.241617,0.234839,0.559713,-0.473982,0.790867,-0.387132
0.020384,-0.445104,-0.622431,0.932693,-0.286601,0.218959
0.004675,0.112761,0.689865,0.585442,0.810691,0.006187
-0.219733,-0.033089,0.831506,0.849033,-0.251861,0.464444
0.046770,-0.004859,0.791899,-0.731241,0.494360,-0.469995
0.155663,0.265089,0.657083,0.843793,-0.176346,0.506869
0.067773,-0.403108,0.792453,0.959962,0.221583,-0.171391
-0.128840,-0.052937,0.769922,0.944344,-0.280696,-0.171534
0.187344,0.089534,0.513360,0.277029,-0.711907,0.645324
0.171372,0.273735,0.013229,-0.187786,0.860624,-0.473352
-0.087540,-0.015261,0.894039,0.879587,-0.328990,-0.343646
0.017206,0.575828,0.529830,0.626719,-0.767516,-0.134691
0.080479,-0.450642,0.788869,0.874953,0.480528,-0.059582
0.317066,0.418909,0.269922,0.800069,-0.449017,0.397836
0.091862,-0.469410,0.798619,0.834500,0.550890,-0.011417
0.058329,-0.227816,0.731791,-0.339150,0.250685,0.906716
-0.176139,-0.036592,0.816617,-0.705138,-0.368899,-0.605552
-0.721057,0.314791,0.586566,0.058833,-0.960979,0.270294
0.003264,0.527890,0.479498,0.215819,0.636715,-0.740281
-0.040328,0.306952,0.548646,-0.640301,0.599336,-0.480428
-0.544035,0.377178,0.585512,0.200598,0.729528,-0.653873
0.067684,0.414046,0.770001,-0.893179,0.240635,0.379902
-0.143488,-0.206889,0.793639,0.436922,0.804930,-0.401480
0.128221,-0.687917,-0.966770,0.118738,0.129927,-0.984388
0.433903,-0.308576,0.593628,0.041114,0.847733,0.528828
-0.107749,0.055773,0.881891,0.564003,-0.026212,-0.825356
-0.119749,0.470358,0.729630,0.485775,-0.850876,0.200081
-0.086218,-0.294803,0.687151,0.145923,0.217672,0.965052
0.866132,0.420260,0.475862,-0.139358,-0.990234,0.004028
-0.329952,0.298850,0.513466,-0.154873,-0.821298,0.549076
0.020384,-0.223225,0.909060,0.952547,-0.137317,-0.271659
-0.423050,0.028762,0.561005,0.305903,0.807358,-0.504575
-0.334716,-0.437273,0.631628,0.434062,0.251584,-0.865041
-0.252737,-0.591629,0.722436,0.177826,-0.606096,0.775259
0.535385,-0.219986,0.671656,-0.798724,-0.066901,-0.597967
0.588069,0.512221,0.515100,0.220219,-0.630199,0.744549
0.116660,0.014453,0.829951,-0.706910,0.600667,-0.373466
0.331274,-0.110057,0.550016,-0.559444,0.708093,0.430844
-0.027534,-0.160023,0.802387,0.782075,0.081705,-0.617805
0.170755,0.486291,0.234400,0.238015,-0.921700,0.306296
0.044387,0.025391,0.424370,0.998214,0.050085,-0.032549
-0.057715,-0.138823,0.895199,-0.895795,0.426589,0.124788
-0.055684,0.214859,0.572863,0.776384,-0.121258,0.618485
0.149311,0.012829,0.500158,-0.651758,0.641294,0.404911
-0.086482,0.164350,-0.081480,-0.742896,-0.646132,0.174983
-0.119574,0.085486,0.749051,0.879285,-0.279204,-0.385878
-0.130074,-0.379337,0.788236,0.685118,0.202104,-0.699834
0.415020,-0.070353,0.557895,-0.119694,0.250985,0.960562
0.083304,0.029710,0.527063,-0.067470,-0.557019,0.827755
0.017295,-0.373262,0.682276,0.926860,0.007854,0.375325
-0.005825,0.255231,0.690023,0.740110,-0.078770,-0.667857
0.241351,0.194731,0.601876,-0.107037,-0.750907,0.651676
-0.299154,-0.349087,0.536102,-0.573027,0.449985,0.684948
0.185139,0.820125,0.427954,0.830222,0.237825,-0.504154
0.043328,-0.557324,0.660404,0.915684,0.261372,0.305300
0.354658,0.386088,0.640376,-0.063734,0.448423,0.891546
0.120632,0.669544,0.519342,0.315868,-0.706150,-0.633703
-0.408225,-0.200138,0.578924,0.036607,-0.932774,0.358598
0.391281,0.469550,0.273743,0.835783,0.089745,-0.541676
0.084274,-0.321673,0.573627,0.808983,0.551731,0.202829
-0.131841,0.177587,0.741198,0.373165,0.577678,-0.725972
0.029209,-0.702366,0.627675,0.469114,-0.605171,-0.643195
0.006089,-0.016876,0.899810,0.387036,0.010432,0.922006
-0.164313,-0.205133,-0.870243,0.506444,0.862142,-0.014996
0.005117,-0.313035,0.679878,-0.743514,0.668713,-0.003097
-0.014120,-0.022143,0.580689,0.951010,-0.117803,0.285836
-0.025328,0.007027,0.908269,0.303162,0.480360,0.823011
-0.551008,-0.170153,0.443291,-0.711950,-0.533015,0.457190
0.138280,0.225657,0.393486,-0.037885,-0.972022,-0.231814
-0.389783,0.199594,0.477944,0.469920,-0.879774,-0.071922
-0.135193,0.238219,0.501660,0.471595,0.350788,0.809040
0.116749,-0.014857,0.528803,0.439900,0.878918,-0.184366
0.166255,-0.682650,0.641009,-0.192779,0.771461,0.606369
0.097951,-0.373666,0.773638,0.085355,0.794846,0.600779
-0.743646,-0.406348,0.525324,-0.617526,-0.295909,0.728766
0.134396,-0.427547,0.783361,-0.413417,0.479798,-0.773874
-0.061509,-0.214448,0.875672,-0.070471,0.982908,-0.170076
-0.208083,0.088998,0.708311,0.864135,0.454441,-0.216224
-0.001147,0.533157,0.694477,0.616324,0.606638,-0.502132
-0.513413,-0.846724,0.467930,-0.132855,-0.686656,0.714740
-0.657606,-0.184742,0.517972,0.928147,0.227046,0.294945
0.093893,0.534773,0.779804,0.845043,-0.471503,-0.252166
0.276120,-0.030921,0.539159,-0.046623,0.400506,0.915107
-0.127868,0.138419,0.556999,0.273069,0.822161,0.499485
-0.134930,0.077648,0.733056,0.659811,-0.305863,-0.686365
-0.150371,-0.163402,0.744782,0.345268,0.889497,0.299309
-0.036534,-0.207425,0.674107,0.028624,-0.707171,0.706463
0.232439,-0.733423,0.652472,0.641779,0.764891,0.055340
0.100157,-0.275219,0.818594,-0.663724,0.699769,0.264184
0.239498,-0.381637,0.556235,0.631724,0.021093,-0.774907
0.072184,-0.021204,0.759039,-0.215487,-0.975431,0.045824
-0.032122,-0.422552,0.681749,0.875635,-0.001567,-0.482971
0.237381,-0.120863,0.191393,-0.108843,-0.816078,0.567600
-0.194669,-0.443347,0.704306,0.317324,0.320738,0.892431
0.322271,-0.325728,0.560003,0.683132,-0.112522,-0.721574
0.011558,0.272515,0.845077,-0.558359,0.824157,-0.094872
0.135457,-0.394462,0.640930,0.909612,-0.409459,0.070348
0.015442,-0.525458,0.612760,0.636224,0.002316,-0.771501
-0.185142,0.216879,0.717192,0.987884,0.154345,0.016203
-0.069362,-0.035784,0.937915,-0.523473,0.093449,0.846902
-0.232528,0.093993,0.537156,0.984193,0.121725,-0.128638
0.177461,0.206081,0.604828,0.422452,-0.897383,0.127432
0.615867,0.536668,0.354880,0.863888,-0.354985,-0.357327
-0.119927,0.130721,0.140403,-0.250921,0.966866,0.047001
-0.397372,0.319381,0.588832,0.473704,0.866162,-0.159273
-0.031239,0.022152,0.848082,0.827560,0.148784,0.541302
0.243203,-0.121267,0.178481,0.383692,-0.887824,0.254066
-0.178080,-0.085346,-0.660983,0.458129,0.888253,0.033520
-0.029387,-0.202026,0.729894,-0.217661,-0.976023,-0.001655
0.243998,0.164622,0.726679,-0.695089,0.578211,0.427228
-0.670668,0.021879,0.436624,-0.034243,-0.188033,0.981566
0.178433,-0.226465,0.684305,-0.218514,-0.346300,-0.912320
0.293504,-0.072785,0.560952,-0.038445,-0.280313,0.959138
0.083126,0.255503,0.670154,-0.346994,0.934238,0.082432
-0.100160,-0.050909,0.761173,0.646470,0.279978,0.709711
-0.117632,-0.036592,0.951855,0.578837,-0.359376,0.731981
0.112954,-0.454425,0.795958,-0.268912,0.939853,0.210626
-0.323244,-0.916001,0.545062,-0.280241,0.432442,0.857006
-0.211967,0.356918,0.775957,0.368191,-0.868001,0.333182
0.652045,0.774751,0.337040,0.913538,0.151571,0.377459
-0.476793,-0.583790,0.478629,0.499992,-0.002189,0.866027
-0.749999,-0.100611,0.535733,-0.368793,-0.060230,0.927558
0.277621,0.257934,0.612443,-0.061447,0.047588,0.996975
-0.191583,0.466847,-0.256878,0.923917,-0.219071,0.313664
-0.087540,0.359217,0.405081,-0.593510,0.394762,-0.701362
0.226437,0.386764,0.389428,0.760954,-0.357870,-0.541183
-0.171639,-0.129237,0.888057,0.871792,0.471150,-0.134151
-0.287329,-0.899665,0.530252,-0.081704,0.316519,0.945061
-0.373722,0.034433,0.626252,-0.049813,0.780289,0.623432
-0.092040,0.059687,0.815432,0.586117,0.807835,-0.062210
-0.063626,0.222014,0.765521,0.776728,-0.193236,-0.599461
-0.142430,0.652128,0.450406,-0.474375,0.513573,-0.714990
-0.261295,-0.044703,0.641246,-0.190215,-0.936042,0.296045
-0.032387,-0.080351,0.780173,0.904118,0.419445,0.081458
-0.342305,-0.302765,0.563218,-0.046985,0.928451,-0.368472
0.481468,0.551653,0.422420,0.231755,-0.934707,-0.269468
-0.247970,-0.194328,0.592126,-0.176722,0.951027,0.253609
0.147635,0.072117,0.821334,0.024039,-0.996701,0.077522
0.050739,0.344768,0.440893,0.983998,-0.129249,-0.122652
0.188139,-0.638083,0.632075,-0.094062,0.516136,0.851326
0.374691,0.256047,0.560978,0.130744,0.544525,0.828491
0.208700,0.356514,0.659350,0.722767,-0.614535,0.316155
0.143752,-0.194599,0.677954,0.341821,0.525647,0.779008
-0.462937,-0.334910,0.498287,-0.679094,0.430667,0.594438
0.535738,0.162050,0.558923,0.895098,0.343304,-0.284504
0.020914,-0.137611,0.540582,0.473004,-0.556375,0.683165
-0.360130,0.064279,0.678744,-0.617788,0.786343,-0.001945
0.150546,0.270356,0.344972,0.936695,-0.305825,0.170508
-0.088246,0.304388,0.408691,-0.134835,0.990840,0.007469
0.321918,0.179203,0.579135,-0.435747,0.761524,-0.479797
0.362513,0.382576,0.638084,-0.188803,-0.298743,-0.935471
-0.277973,-0.157459,0.749974,-0.435943,0.702728,-0.562252
-0.096101,0.105062,0.731817,0.355731,-0.173291,0.918382
-0.375927,-0.020528,0.707257,0.486943,-0.476439,0.732046
-0.067156,-0.230792,0.687520,-0.766307,0.096942,0.635119
-0.638548,0.014453,0.455413,-0.278503,0.723174,-0.632025
0.109954,-0.157327,0.898545,-0.756309,-0.610894,-0.234106
0.076157,0.380285,0.286181,0.481043,-0.010994,-0.876628
-0.080481,-0.759758,0.643012,0.434017,0.884781,-0.169683
-0.024975,0.164885,0.705782,0.326365,-0.733233,-0.596536
0.269059,0.220934,0.546089,0.964908,-0.124872,0.230997
0.209848,0.047266,0.861152,0.808623,-0.497138,-0.314616
-0.017298,-0.222550,0.902314,0.968660,-0.177326,-0.173937
0.387222,0.557192,0.437836,0.784808,-0.537280,-0.308881
0.433109,-0.250368,0.599768,0.855524,-0.116751,-0.504429
0.268973,0.108170,0.731211,-0.623165,0.781956,0.014512
0.101482,-0.332339,-0.044851,0.553078,0.799259,0.235137
-0.342305,-0.346252,0.690076,0.733920,-0.302799,0.608009
-0.083570,0.308848,0.815063,0.427808,-0.903836,-0.007745
-0.168286,0.280890,0.648493,0.497192,0.841153,0.212746
0.389250,0.463467,0.447033,-0.788282,0.027371,0.614705
0.249381,-0.374342,-0.944951,-0.084271,0.649716,0.755491
-0.187700,-0.587170,0.718035,0.208676,0.513643,0.832241
0.555683,0.321269,0.357436,0.928829,0.093670,-0.358472
0.149752,-0.233223,0.638980,-0.426268,0.743287,-0.515577
-0.144194,-0.545174,0.698482,-0.035031,0.824073,0.565399
0.452434,-0.223498,0.586144,-0.372746,0.659811,0.652465
-0.164580,0.460096,0.789238,0.334113,-0.312420,-0.889248
-0.193878,-0.216747,0.443528,0.662500,-0.035147,0.748236
-0.049506,0.096152,0.752872,0.959255,0.248780,0.133934
-0.225203,-0.063199,0.838200,0.844365,0.409082,0.345975
0.663431,0.598511,0.517919,-0.343674,0.879173,0.330066
-0.046595,0.053209,0.333825,0.917242,0.367123,-0.154556
-0.156372,-0.256038,0.623643,-0.614282,-0.714091,-0.335755
-0.098129,-0.626066,0.732107,-0.711626,0.556528,0.428794
-0.372927,-0.048882,0.517550,0.107521,0.148616,0.983032
-0.444142,-0.199867,0.505033,0.754970,0.262776,-0.600807
0.024267,-0.099663,0.840387,0.325540,0.941730,0.084669
-0.333746,-0.948550,0.542506,0.083839,-0.928542,-0.361637
0.647898,0.804325,0.361626,0.160555,0.864374,0.476529
0.185755,-0.133828,0.659429,0.348757,0.901115,0.257607
-0.059126,0.444831,0.756404,0.998788,-0.044723,-0.020551
0.350069,0.392846,0.510751,0.865785,-0.417905,-0.275268
0.064418,-0.178930,0.513097,0.824694,-0.102035,0.556299
-0.271884,0.375694,-0.101138,0.789618,0.587121,-0.178305
-0.015886,-0.282109,0.854459,0.657657,0.745200,-0.110291
-0.458259,0.065770,0.589359,0.913490,-0.116051,-0.389958
-0.043065,0.089261,0.285443,-0.056633,0.855504,0.514690
0.028414,-0.147065,0.723780,0.985337,0.096635,-0.140615
-0.412283,0.274683,0.464478,0.502003,0.848827,0.165787
-0.586833,0.139771,0.538500,0.836100,0.532679,0.131111
-0.359777,0.073197,0.506983,0.219072,-0.217900,0.951066
-0.091424,0.246049,0.633367,-0.313714,-0.707909,0.632810
-0.176669,-0.023363,0.597159,0.229778,-0.939543,0.253891
0.570155,0.828904,0.405608,0.422734,0.906246,0.003875
-0.507324,0.257390,0.474360,-0.528615,0.780610,-0.333487
0.153724,0.724109,0.510225,-0.679270,0.723479,0.123172
-0.014914,-0.096284,0.797275,0.709772,-0.195039,0.676892
0.136958,-0.515461,-0.960288,-0.172219,0.178024,0.968838
-0.070862,-0.033897,0.937098,0.908597,0.237461,-0.343604
-0.534946,0.362184,0.569648,-0.016037,-0.957672,0.287416
0.135191,-0.778122,-0.962607,-0.203211,-0.033127,0.978574
-0.049948,-0.170697,0.610282,-0.128988,0.658371,0.741559
0.117896,0.070493,0.724096,0.485633,-0.375319,-0.789491
-0.771269,-0.246725,0.531042,0.884502,0.343512,-0.315682
-0.377605,0.088454,0.589069,-0.458674,-0.625419,-0.631244
0.076157,0.108714,0.680457,0.152121,-0.977321,-0.147320
0.174019,-0.056044,0.823653,0.996352,0.023581,-0.082019
0.201642,-0.098584,-0.971856,-0.310867,0.318241,0.895592
-0.426314,0.312087,0.590492,-0.445846,0.349276,0.824153
-0.218320,-0.241326,0.002688,0.998888,0.046941,-0.004414
0.041828,-0.048750,0.333535,-0.579069,0.264559,0.771160
-0.180816,-0.299666,0.518051,0.859590,0.298923,0.414428
0.250970,-0.088050,0.777037,0.770679,0.137897,-0.622123
0.199080,0.234707,0.693106,-0.695579,0.379352,0.610133
-0.697054,-0.537748,0.463529,0.771100,0.625294,0.120050
-0.133957,-0.586362,0.720749,0.419017,-0.638533,-0.645523
-0.318921,0.027006,0.665753,0.359498,0.653992,-0.665624
-0.054537,0.178255,0.403710,-0.661323,-0.747555,-0.061760
-0.006178,-0.370427,0.542084,-0.662248,0.748968,0.021762
-0.081098,0.077244,0.790213,-0.098330,0.336310,0.936604
-0.194317,-0.151656,0.670786,-0.188732,0.523826,0.830654
-0.079687,0.280213,0.818198,0.061283,-0.998059,0.011094
-0.758030,0.023635,0.492569,-0.178956,0.879773,0.440425
0.084362,0.435245,0.090677,0.788987,-0.567560,-0.235320
-0.170491,-0.084670,0.762754,0.867132,-0.052685,-0.495284
0.010853,0.120055,0.850216,0.108643,-0.961343,0.253015
-0.729880,-0.052129,0.552150,-0.669633,-0.230073,0.706157
0.266412,-0.122215,0.793402,-0.034248,-0.946669,0.320384
-0.262620,0.333023,0.793006,0.592891,-0.074550,0.801825
0.329774,0.469682,0.256140,0.875388,-0.166968,-0.453672
-0.377691,-0.854826,0.512517,0.970339,0.227604,-0.081480
-0.212936,0.156247,0.831164,0.461079,-0.125490,0.878441
0.337716,0.204326,0.527511,-0.208328,0.591052,-0.779267
-0.220173,0.020932,0.753847,-0.346546,-0.098435,0.932854
-0.109160,-0.259286,0.753189,0.081241,-0.751808,0.654359
-0.087187,-0.283321,0.562296,-0.554345,-0.668771,0.495425
-0.058595,-0.098584,0.828713,-0.502768,-0.730728,-0.461801
-0.749999,0.092641,0.538658,-0.734354,-0.678258,0.026271
-0.511738,-0.461176,0.494756,-0.526502,0.493270,0.692445
0.238703,0.303581,0.606619,-0.461948,0.765090,0.448600
0.761383,0.698310,0.420655,-0.692128,0.694143,0.197800
-0.126104,0.570833,0.429509,0.226958,-0.872742,0.432218
0.759266,0.763541,0.287051,0.291313,0.921172,-0.258028
-0.718763,0.223498,0.576157,-0.522832,0.653953,-0.546802
-0.244176,0.349903,0.766839,0.750050,-0.520360,0.408229
-0.798978,0.145713,0.529883,0.548023,0.836330,-0.014946
-0.691229,0.164078,0.538342,-0.230949,-0.767782,0.597640
-0.130252,0.054561,0.573891,-0.500568,-0.083917,-0.861620
0.002294,0.643350,0.713002,-0.252145,-0.953033,0.167786
0.390839,0.288728,0.641404,0.880760,-0.008662,0.473483
-0.347688,0.051181,0.664225,0.927459,0.370921,0.047303
0.147194,0.073057,0.843127,0.627801,-0.364854,-0.687566
-0.066273,-0.190008,0.743069,0.248736,0.691153,0.678556
0.293768,-0.176640,0.564799,0.989041,-0.102470,-0.106290
-0.019945,0.097636,0.879994,0.991237,-0.115475,-0.064142
-0.342218,0.245917,0.656477,0.122468,0.974787,0.186528
-0.703585,-0.112225,0.476837,-0.420243,0.691814,-0.587187
-0.227939,-0.237543,0.757879,-0.133899,0.878422,0.458744
-0.009619,-0.081703,0.554865,0.997781,0.040751,0.052657
0.196964,0.015261,-0.210709,-0.760700,-0.577909,0.295563
0.094862,-0.628901,0.606172,-0.158005,-0.409891,0.898345
-0.080393,0.136127,0.787499,0.881140,-0.271870,0.386883
0.011911,0.339097,0.855618,0.750033,-0.548621,-0.369412
-0.056654,0.383928,0.521819,0.747451,0.324667,-0.579577
0.088773,-0.465899,0.798777,0.834500,0.550890,-0.011417
0.494263,0.778262,0.342917,0.913369,0.363303,0.183758
-0.715849,-0.206073,0.477258,0.562605,0.623903,0.542422
0.063979,0.153008,0.771161,-0.509899,-0.671714,-0.537404
-0.105807,0.189464,0.483504,-0.363081,-0.886418,0.287114
0.082684,-0.376369,0.722515,0.698315,0.321847,-0.639352
0.365777,-0.276843,0.553046,0.876520,0.172600,-0.449356
0.544388,0.519112,0.525930,-0.218751,-0.772629,0.595980
-0.149930,0.087374,-0.093075,0.812938,0.395345,-0.427592
-0.616220,-0.209584,0.500026,0.886495,-0.255775,0.385623
-0.107132,-0.454690,0.653315,0.017208,0.866696,0.498540
0.071215,-0.140983,0.921498,0.805757,0.523334,-0.277267
0.050917,-0.430654,0.748419,0.865311,-0.197465,-0.460700
-0.060273,0.008238,0.759302,0.072008,-0.955237,0.286943
0.147810,0.075084,0.477970,0.048656,-0.180892,0.982299
-0.067951,0.047538,0.977812,0.964038,-0.094523,0.248387
0.302065,-0.892502,-0.955518,-0.214630,-0.017599,0.976537
0.460906,0.285752,0.574101,-0.109762,-0.509830,0.853244
-0.036092,0.253475,0.807948,-0.508952,0.127006,-0.851374
0.503088,0.233355,0.539054,0.846898,0.340991,-0.408030
0.097776,-0.109249,0.800358,0.352151,0.634787,-0.687775
0.147546,-0.066578,0.838358,0.450378,0.557014,-0.697779
-0.365602,0.454557,0.635712,0.942591,0.332929,-0.026076
-0.418992,0.048346,0.495151,0.909038,-0.088042,-0.407306
-0.801183,0.114788,0.563561,0.574804,-0.711962,0.403373
0.340716,-0.243082,0.719564,0.553270,-0.825605,0.110760
-0.162108,0.228764,0.727179,0.376589,-0.656113,-0.653985
0.061329,0.549090,0.558449,-0.425774,0.261794,0.866130
-0.093454,-0.169477,0.882023,-0.493279,-0.036420,0.869109
-0.195025,0.559219,0.440260,-0.802966,0.305502,-0.511776
-0.215408,-0.554216,0.722041,-0.364722,0.098272,-0.925916
0.061770,-0.250236,0.664620,-0.656794,0.296197,-0.693462
-0.102543,0.116947,0.806525,0.145921,0.101958,0.984028
-0.159197,-0.010266,0.668467,-0.056122,0.021924,0.998183
-0.494971,-0.288992,0.442790,-0.247527,0.103512,0.963336
0.066537,0.048074,0.806736,0.715580,-0.163766,-0.679062
-0.263326,0.238087,0.759987,-0.026109,-0.765398,0.643028
-0.113132,-0.429979,0.738326,-0.192673,-0.381912,0.903892
0.149574,-0.894530,-0.959023,-0.082925,0.029111,0.996130
-0.542447,-0.022283,0.513492,0.074194,-0.918620,0.388115
0.046503,-0.432682,0.485375,-0.259482,0.511254,0.819322
-0.122221,0.298314,0.793006,0.750477,0.605929,0.263883
0.286709,0.107634,0.569016,0.053621,0.900718,-0.431083
-0.291654,0.221742,0.698693,-0.057122,-0.558062,0.827831
-0.004061,-0.147470,0.255798,0.956360,0.261321,-0.130716
-0.110132,-0.031333,0.883867,-0.255614,0.960026,0.114071
0.305771,-0.278186,0.552229,-0.327442,-0.053631,0.943348
-0.755736,0.144634,0.571308,0.917070,-0.350929,0.189290
0.072273,-0.028490,0.686387,0.485730,0.757023,-0.437015
-0.126985,-0.170557,0.959023,0.918640,0.132203,0.372320
-0.508560,0.011074,0.623564,-0.201521,-0.942391,0.266999
-0.075982,0.140983,0.787262,0.881140,-0.271870,0.386883
0.206495,0.558140,0.741515,0.908587,-0.404522,0.104072
-0.533446,0.136260,0.629387,0.971077,0.164175,-0.173369
0.008911,0.561783,0.488484,-0.318131,-0.745871,0.585208
-0.137930,-0.199050,0.831796,0.755972,0.426761,0.496368
-0.089129,-0.054825,0.881680,-0.064497,0.063147,0.995918
0.099982,-0.151656,0.645330,-0.705039,0.599065,0.379527
-0.758472,-0.154088,0.530120,-0.257682,-0.591760,0.763820
0.227584,-0.281697,0.699615,-0.124785,0.781307,0.611546
-0.089482,-0.162454,0.550622,0.150872,0.310964,0.938371
-0.187700,0.334367,0.763255,-0.105909,0.735800,-0.668866
0.318038,-0.135040,0.558633,0.367646,-0.809805,-0.457221
0.606600,0.833222,0.267682,-0.507897,0.573211,0.643016
0.084537,-0.393926,0.684278,0.666946,-0.562094,-0.489115
-0.370808,0.211612,0.696769,-0.228333,-0.930526,0.286332
-0.548713,-0.783793,0.476257,0.190293,-0.808644,0.556671
-0.042801,0.015533,0.956124,0.744888,0.471379,-0.472169
0.159283,0.203378,0.464425,-0.541349,0.687262,0.484368
-0.086040,-0.167045,0.888242,-0.429781,0.874978,-0.222941
0.008911,0.175963,0.826210,0.202007,0.704698,-0.680142
-0.110927,0.491154,0.664963,0.717499,0.339896,-0.608002
0.015353,-0.228633,0.570386,0.802156,0.020117,0.596776
-0.040417,0.196355,0.811953,0.797953,0.536691,-0.274288
0.084010,-0.463063,0.780410,0.620313,0.783363,0.039425
0.605983,0.623362,0.360072,-0.736591,0.676335,0.001956
0.151694,-0.010398,0.831164,-0.213352,-0.614659,0.759392
0.336038,0.406619,0.492648,0.792554,-0.357686,-0.493882
-0.027356,-0.014453,0.811215,-0.357661,0.679785,0.640290
0.159899,0.284401,0.372642,-0.123135,0.843749,0.522422
0.071921,-0.098443,0.583667,-0.681551,0.703889,-0.200074
-0.072184,0.350571,0.498603,0.900783,0.149460,0.407740
0.333216,-0.501012,0.574418,-0.546372,0.505442,0.667836
0.237381,-0.444831,0.710446,0.081231,-0.979235,0.185743
-0.280093,-0.614180,0.509908,0.868083,-0.181636,-0.461997
0.398339,0.544359,0.300464,-0.641184,0.761397,-0.095696
0.467173,-0.147329,0.620059,0.112686,-0.965226,0.235882
-0.141282,-0.127350,0.757826,-0.157505,-0.926767,0.341020
-0.460731,-0.322481,0.485533,0.959776,0.273651,-0.062805
-0.072184,0.047398,0.952382,0.223534,-0.007612,0.974666
-0.316449,0.819985,0.587146,0.451468,0.485949,-0.748352
0.071126,-0.443480,0.706151,0.842984,-0.315591,-0.435637
-0.170580,0.064823,0.636397,0.424323,-0.790562,0.441545
-0.323244,-0.256311,0.708733,-0.525863,-0.463580,-0.713135
-0.123632,0.050374,0.598556,-0.634046,0.771161,-0.057414
0.112954,-0.136128,0.740197,0.508353,-0.343677,-0.789597
0.000000,-0.035513,0.550095,-0.558790,0.492237,-0.667425
0.207731,0.205406,0.716032,-0.684596,0.573574,0.449824
-0.454465,-0.358410,0.503584,-0.671021,0.434540,0.600755
0.866570,0.544227,0.385528,-0.489919,-0.784042,-0.381126
-0.157255,-0.081431,0.831849,0.994121,-0.030486,-0.103894
0.132544,-0.503847,0.603220,0.965808,0.257040,-0.033849
-0.063448,-0.352327,0.776747,0.763331,-0.579842,-0.284797
-0.070509,0.299929,0.741409,-0.133248,-0.665719,0.734209
-0.238792,0.255099,0.488669,-0.465471,0.862732,-0.197561
0.009972,0.317626,0.697718,0.803073,0.278274,-0.526912
0.089479,-0.683994,0.650680,-0.455562,0.559101,0.692726
0.093098,-0.098987,0.631917,0.413918,0.860782,0.296185
-0.175697,-0.262525,0.675951,0.940356,0.207095,0.269894
-0.476526,-0.301149,0.614920,0.953185,0.088262,-0.289221
0.387397,0.450510,0.504691,-0.671821,0.074219,0.736986
-0.104043,-0.184602,-0.821203,0.956249,0.081747,-0.280900
-0.221672,-0.295882,0.760409,-0.356698,-0.395857,-0.846205
-0.009797,-0.050234,0.945900,0.604561,0.783846,0.141743
-0.086657,0.652400,0.497391,-0.325751,0.927218,0.184803
0.517471,0.239570,0.596870,0.924620,0.294191,-0.241930
0.225998,-0.124778,0.761569,0.466331,-0.453818,-0.759332
0.173491,0.086698,0.581085,0.533318,0.669295,-0.517316
0.060712,-0.704253,0.634895,0.219725,-0.949550,0.223776
-0.043595,0.182178,0.898150,-0.795600,-0.267114,0.543756
0.129985,-0.729912,-0.964109,-0.170621,-0.004027,0.985328
-0.070598,0.074005,0.278618,0.047032,0.856289,0.514351
-0.875662,0.072381,0.502056,0.888441,0.049865,0.456273
-0.130252,-0.333014,0.757168,0.958551,0.062051,-0.278082
-0.237823,-0.022415,0.711026,0.782706,0.442003,-0.438182
0.427198,0.496693,0.457705,-0.687212,0.720621,-0.091901
-0.164844,-0.141799,0.733952,-0.220695,-0.871024,-0.438875
0.060712,-0.102499,0.802361,0.102537,-0.284555,0.953160
0.030092,0.642130,0.717060,-0.335719,0.939076,-0.073677
0.476084,0.137743,0.518341,0.895035,0.376844,-0.238540
0.561066,0.395410,0.335433,0.372662,0.417498,0.828745
-0.065657,-0.008370,0.782993,-0.517691,-0.242506,0.820480
-0.287946,0.444568,0.568567,0.259419,0.163330,0.951853
-0.129988,-0.301957,0.756562,0.859223,-0.164005,0.484601
-0.451906,0.020932,0.724070,0.164048,-0.842191,0.513617
-0.204553,-0.397025,0.673422,0.806897,0.352292,-0.474138
-0.707818,-0.060364,0.546854,0.860582,0.046215,0.507211
-0.031064,-0.337342,0.497760,0.836043,0.533026,0.130058
0.076948,-0.740981,0.624223,-0.040232,0.840980,0.539568
0.107660,-0.030114,0.868873,-0.469983,-0.553145,-0.687856
-0.647370,0.310059,0.566486,-0.627403,0.770814,0.110504
-0.032917,0.327212,0.735269,0.132429,0.754524,-0.642772
-0.061509,0.269952,0.665674,0.335536,0.866172,-0.370353
0.012972,-0.032273,0.518736,0.800656,0.543660,-0.251763
-0.367544,-0.028490,0.596843,0.871045,0.474713,-0.126208
0.128221,0.072925,0.805049,0.260189,0.546629,-0.795926
-0.027709,0.030930,0.946032,0.948359,0.222667,0.225908
-0.284682,-0.140983,0.588068,-0.624189,-0.657955,0.421288
0.378572,0.393654,0.493043,0.969735,-0.007131,0.244056
-0.110043,-0.072785,0.791135,0.749339,0.591294,0.298097
0.032387,0.304661,0.659376,-0.451540,0.426011,0.783981
0.017825,-0.188385,0.894909,0.640241,-0.680290,-0.356787
0.391017,0.106818,0.541530,-0.536161,0.842257,-0.055987
-0.182491,-0.194196,0.823153,-0.701863,-0.442002,-0.558590
-0.218145,-0.059152,0.929403,-0.429635,-0.633593,-0.643408
0.143133,-0.035513,0.793823,0.682595,0.730064,-0.032723
-0.183022,0.789736,0.465795,0.887201,-0.423662,-0.182716
0.082332,-0.134776,0.802361,-0.397208,0.275323,-0.875456
-0.107307,-0.141658,-0.203015,0.968689,0.091581,0.230769
0.426845,0.264413,0.535944,-0.693851,0.484569,-0.532695
-0.783180,-0.142334,0.532307,0.545634,0.615534,-0.568684
-0.318657,0.255099,0.552835,0.575409,0.814390,-0.075317
-0.327038,-0.289668,0.582771,-0.412780,0.653381,-0.634592
0.740291,0.686161,0.422710,0.009774,-0.999158,0.039853
-0.786094,-0.031737,0.531991,-0.357939,0.099726,0.928404
0.215142,0.220530,0.415068,-0.259520,0.722393,0.640935
-0.184700,-0.068334,0.716032,0.879986,0.435586,0.189446
0.235615,-0.388519,0.557816,0.621591,0.069974,-0.780211
0.124160,-0.033353,-0.222331,-0.222677,0.514377,0.828149
-0.093012,-0.649969,0.729156,0.924556,0.037877,-0.379158
-0.168286,0.494261,0.617055,0.486971,0.767829,0.416290
0.039004,-0.276166,0.840545,0.774197,0.340462,0.533578
-0.724232,0.149629,0.555813,-0.428208,-0.808680,-0.403329
0.000795,0.191764,0.504453,0.368856,0.325618,0.870585
0.022061,-0.170153,0.813613,0.114166,0.809313,0.576176
-0.069804,0.045643,0.960999,0.343642,0.913029,-0.219746
-0.071215,0.181362,0.259777,-0.571639,0.798169,0.190144
-0.145960,0.414177,0.639480,0.745962,0.659606,0.091983
-0.041034,-0.238490,0.813561,-0.484575,-0.649821,0.585594
-0.074568,0.345040,0.762174,0.990717,0.063989,0.119938
-0.268973,0.043211,0.840282,-0.614991,-0.206514,-0.761011
-0.291299,-0.140175,0.759381,0.192040,0.785392,0.588456
-0.848131,0.000540,0.545668,0.061070,0.880387,-0.470307
-0.189641,-0.267520,0.767761,-0.181732,0.712149,-0.678098
-0.370013,-0.343013,0.468852,0.047193,0.921681,-0.385067
0.382455,0.149225,0.569727,-0.052291,-0.853386,0.518651
0.573597,0.237270,0.576183,0.467501,0.846531,0.254614
0.380339,0.261989,0.559318,-0.267021,-0.597887,-0.755798
-0.020828,0.515329,0.532334,-0.255859,0.050959,-0.965370
0.222203,-0.334770,0.674634,0.044409,0.091909,0.994777
0.332596,-0.079948,0.549805,0.225167,0.080595,-0.970981
0.557005,0.766912,0.427928,0.489622,0.851929,0.185706
-0.331804,0.441732,0.521319,-0.006881,0.193464,0.981083
0.115690,-0.696827,0.635765,0.581749,0.795595,0.169103
0.294651,0.530726,0.240092,-0.638046,0.158628,0.753482
-0.021445,-0.088454,0.856251,-0.474160,0.267947,0.838676
0.620100,0.596492,0.454912,0.841071,0.531067,0.102800
0.424725,0.523299,0.303732,0.937162,-0.244767,-0.248629
0.122571,-0.669544,0.580979,0.208779,-0.970930,-0.117071
-0.429492,0.037136,0.473595,0.638786,0.458702,-0.617693
0.061154,-0.189193,0.682829,0.338579,-0.223833,-0.913927
0.032651,0.350983,0.473253,0.958818,0.013568,0.283696
0.004589,0.610397,0.710130,0.889811,0.148329,-0.431549
0.037945,-0.248209,0.735137,0.894562,0.336116,0.294592
0.223525,-0.127210,0.776852,-0.463639,0.098281,0.880557
-0.078273,-0.046187,0.856303,0.647630,0.215740,0.730775
-0.343630,-0.192704,0.709207,-0.180633,0.916753,0.356280
-0.052948,-0.038488,0.991805,0.215026,0.756267,-0.617919
-0.131752,0.401756,0.652867,0.803363,0.388723,-0.451113
-0.139783,0.313439,0.635580,0.027199,0.128626,0.991320
-0.320157,-0.001216,0.685359,-0.154783,-0.954067,-0.256512
-0.029387,-0.239702,0.749921,-0.065536,-0.834557,0.547010
-0.380516,0.001760,0.685596,0.760759,-0.533297,-0.369919
-0.110927,0.555437,0.770713,-0.421161,0.896043,0.140463
0.363219,0.444164,0.461157,0.659722,-0.672596,-0.335233
-0.362602,0.210128,0.709972,0.520836,-0.848324,0.095271
0.062476,-0.286832,0.691499,0.263113,0.937746,0.226724
