-0.396852,-0.269382,0.011479,0.058820,-0.613495,0.787505
0.370696,-0.023993,0.362691,-0.096958,-0.530921,0.841856
0.631402,-0.046589,-0.900898,0.308344,-0.117700,-0.943965
0.016028,-0.206991,0.470090,0.466037,0.338602,-0.817409
-0.172678,-0.439354,0.477821,0.510025,-0.273771,-0.815429
-0.285120,0.339001,-0.609854,0.080319,-0.277278,0.957427
0.196134,0.086284,-0.377946,0.609649,0.274225,-0.743727
0.163084,-0.600570,0.666336,0.105707,0.986426,0.125658
-0.389815,-0.325971,0.699756,-0.544313,0.788983,0.285008
-0.198195,-0.489274,0.196310,-0.572849,0.705360,0.417505
0.048865,-0.032593,-0.598490,0.163230,-0.075110,0.983725
0.495079,0.191930,-0.420410,-0.726366,-0.299612,-0.618567
0.327908,-0.329329,0.332724,0.508274,-0.493502,-0.705772
0.619958,0.366225,-0.932618,-0.370554,0.330161,0.868149
0.586410,-0.358488,0.260600,-0.465317,0.729064,0.501942
0.477736,0.109794,-0.915019,0.411904,-0.093364,-0.906432
-0.040762,-0.413757,0.846632,0.850131,-0.476015,0.225138
0.111909,-0.043331,0.534329,-0.345300,0.796182,-0.496853
0.565515,-0.074882,-0.905948,0.310595,-0.167208,-0.935720
-0.423291,0.071322,-0.161344,-0.078808,-0.002378,0.996887
-0.652013,0.088775,-0.558421,0.401504,0.317233,-0.859161
0.613845,-0.027555,-0.443550,0.008260,0.326019,0.945327
-0.016880,-0.706622,0.365964,-0.404843,0.332287,-0.851873
-0.016668,-0.668862,0.486401,0.917271,-0.294715,0.267875
0.395288,0.306024,-0.301004,0.736527,0.267854,0.621114
0.279506,-0.285770,0.175026,0.325504,0.525614,-0.785988
0.457693,-0.417419,0.473466,-0.424857,0.618326,0.661188
0.064998,-0.059361,-0.010990,-0.629032,-0.305833,-0.714692
0.275952,-0.145926,0.215945,0.796083,0.221113,-0.563349
-0.323075,-0.099106,-0.183710,-0.406994,0.153476,-0.900445
-0.070543,-0.385666,0.630210,-0.550338,0.394348,-0.735947
0.006433,-0.506832,0.430717,-0.830323,0.058573,-0.554196
-0.014606,-0.422407,0.776930,0.899925,-0.158815,-0.406096
0.049149,-0.359202,0.953953,0.554406,0.537507,0.635390
0.273535,-0.760720,-0.063581,0.199249,0.809605,0.552123
-0.292086,0.190554,-0.333471,-0.056637,-0.243946,0.968134
0.485483,0.341138,-0.453908,0.994280,0.015800,0.105627
0.591244,-0.015190,-0.182164,-0.404763,0.864298,0.298590
0.110913,-0.262359,0.426646,-0.255001,-0.690608,0.676782
0.063506,-0.704436,0.094760,-0.313236,-0.490102,0.813439
0.350723,-0.331823,0.338444,-0.167276,0.668276,0.724863
0.387541,-0.388210,0.421853,0.271312,0.961173,-0.050358
-0.205444,-0.453906,0.312702,-0.659713,0.746437,0.087238
0.733608,0.026844,-0.459758,0.100610,0.130685,0.986306
0.076513,-0.398388,0.964389,0.622507,0.736737,0.264013
-0.174811,-0.347039,0.636317,0.626144,0.575826,-0.525708
-0.160454,-0.228976,-0.478826,-0.388871,-0.501899,-0.772578
0.384129,-0.593600,-0.172759,0.310196,-0.835647,0.453290
-0.105512,-0.802549,0.385985,-0.130910,0.491191,-0.861158
0.630264,-0.446681,-0.037067,-0.381188,0.922228,-0.064749
0.183624,-0.346226,0.687543,0.351138,0.328364,0.876857
0.227621,-0.703569,-0.066339,-0.475654,-0.287608,0.831285
0.011834,-0.283070,0.586199,-0.151988,-0.846732,0.509848
0.494367,-0.564186,-0.534638,-0.269874,0.832595,-0.483688
0.598635,0.205466,-0.922955,-0.214116,0.214551,0.952954
0.066207,-0.391415,0.636239,-0.663850,0.329289,-0.671470
0.504602,0.357727,-0.943208,-0.181897,0.145988,0.972420
-0.790469,-0.008319,-0.173068,0.768992,-0.520108,-0.371671
-0.112975,-0.070406,0.201077,-0.677408,0.358539,-0.642315
-0.510430,-0.039973,0.146656,-0.558679,-0.045670,-0.828126
-0.476386,-0.205721,0.250345,0.733518,0.134354,0.666258
0.088169,-0.330907,0.136710,-0.248980,-0.949988,-0.188497
0.284836,-0.675580,0.449579,-0.634690,-0.225887,0.739015
0.403320,-0.151014,0.248567,-0.253902,-0.516327,0.817887
0.276236,-0.340271,0.705168,-0.599138,0.713032,-0.364168
0.423931,-0.445460,0.205045,0.258447,-0.712113,0.652764
-0.210704,-0.065520,0.310022,-0.673721,-0.709992,-0.204968
0.002949,-0.457623,0.779559,0.982570,-0.182471,0.035509
0.564733,-0.119665,0.284512,0.574629,0.679107,-0.456745
-0.128824,-0.395080,0.917467,-0.698211,-0.705397,-0.122132
0.558904,0.026387,-0.017019,-0.178233,-0.076843,-0.980983
-0.000391,-0.134832,0.707513,-0.162228,-0.785395,0.597358
0.306585,-0.354876,0.742866,0.819770,0.146883,-0.553536
-0.061730,-0.117478,-0.691305,0.745496,-0.666440,-0.009686
-0.466648,-0.210044,-0.356507,-0.051053,0.572614,0.818234
0.068410,-0.385411,0.905098,0.794467,-0.603091,-0.071436
-0.534809,-0.034479,0.144775,-0.558679,-0.045670,-0.828126
-0.151071,-0.487901,0.854259,0.559576,-0.826101,0.066572
0.326060,-0.168877,0.004342,-0.457389,0.784871,-0.418059
-0.161733,-0.163329,-0.296855,-0.243271,-0.963964,-0.107672
0.403320,-0.404187,0.237770,-0.506609,0.698209,-0.505819
0.423291,-0.318644,0.364418,-0.565290,0.220891,0.794767
-0.360532,-0.164143,-0.255163,-0.502395,-0.701090,-0.506036
-0.573972,-0.104197,0.378358,-0.155842,0.221507,-0.962626
0.119798,-0.101957,0.074043,-0.133615,0.676475,0.724243
-0.265787,0.209793,-0.622016,0.854979,0.329745,0.400348
-0.449305,-0.253811,-0.025832,0.138607,-0.420893,0.896458
-0.201820,-0.185771,0.604468,0.983922,0.133244,0.118930
-0.214044,-0.364495,0.211049,0.785056,0.553037,-0.278994
-0.234301,-0.434111,0.437649,0.512569,-0.725503,-0.459258
-0.481147,-0.094680,0.374957,0.139351,-0.549147,0.824026
0.339991,-0.457673,0.537679,-0.195387,-0.937647,0.287475
-0.407797,0.010966,-0.202726,-0.175666,0.662641,-0.728044
0.003519,-0.384290,0.852996,-0.552861,0.826872,-0.103085
0.109066,-0.932928,0.268150,-0.472226,-0.377888,-0.796369
-0.100324,-0.181242,0.569888,0.944895,0.248879,0.212680
-0.332954,-0.157782,0.106433,0.234314,0.893649,-0.382739
0.127830,-0.314929,0.675844,0.065612,-0.907189,-0.415576
-0.024130,-0.102060,-0.723282,0.070226,0.541435,0.837804
0.309713,-0.445206,0.461484,0.017206,0.764217,0.644729
-0.098048,-0.250044,0.176469,0.987865,0.049449,0.147231
0.274317,-0.382103,0.733074,0.718035,0.463109,-0.519573
0.773482,0.056513,-0.458907,0.152373,0.184924,0.970868
0.563879,-0.637566,-0.126145,-0.249914,0.809754,0.530888
-0.193006,0.169029,-0.346741,0.305765,0.835661,0.456266
0.516685,-0.710846,0.030754,0.991845,-0.077383,-0.101265
0.211984,-0.159717,-0.089426,-0.590089,0.760581,0.270759
0.456981,-0.756953,0.093729,-0.585949,0.761509,-0.277069
-0.007499,-0.740413,0.537885,0.901473,-0.194174,-0.386838
-0.146451,-0.495536,0.831970,-0.494162,-0.701096,-0.514070
-0.578166,-0.016718,-0.221021,0.930202,0.300676,0.210520
0.009773,-0.385206,0.697412,-0.353501,0.692263,0.629134
0.257756,-0.430244,0.460427,0.333955,0.871049,0.360204
-0.279506,-0.175136,-0.080536,-0.063254,-0.515394,0.854616
0.452291,-0.378389,0.089401,-0.236982,0.965610,-0.106939
-0.148441,-0.157018,0.342567,-0.099688,-0.017660,0.994862
0.108995,-0.097836,-0.600216,0.157358,0.501424,0.850772
-0.078077,-0.173915,0.067292,-0.151981,-0.919227,-0.363213
-0.107005,-0.195337,0.164410,-0.813534,0.053129,-0.579085
0.377021,0.209283,-0.401729,-0.282536,0.605339,0.744136
0.554995,-0.405970,0.507427,-0.485133,0.662739,0.570458
-0.110629,-0.137478,0.022456,-0.125989,-0.220189,0.967287
-0.053414,-0.217120,0.714753,0.892511,-0.216651,0.395583
0.236718,-0.699348,0.449992,-0.698728,0.214332,0.682525
-0.297275,-0.407700,0.664945,0.356613,-0.886687,0.294303
-0.445325,-0.373552,-0.091230,0.167733,0.934630,0.313580
-0.392942,-0.355183,0.701071,-0.696611,0.276616,0.661979
0.070329,-0.300374,0.428012,-0.651443,0.622510,-0.433709
-0.102811,-0.518741,0.060283,0.152440,-0.987576,0.038155
0.174028,-0.298594,0.203860,-0.208681,-0.066752,0.975703
0.436156,0.178903,-0.507840,-0.718430,0.235684,-0.654455
0.468567,0.369024,-0.315202,0.769460,0.576531,0.274851
-0.337645,-0.282359,0.683214,0.884347,0.119180,0.451361
-0.625502,-0.079311,-0.160983,-0.342763,0.925598,-0.160567
-0.272966,-0.304393,0.650128,0.911440,0.140059,0.386861
0.573475,-0.591513,-0.362485,-0.744523,0.666351,0.040761
0.104872,-0.295895,0.131350,0.020322,-0.888346,-0.458724
-0.298839,-0.474722,-0.076104,-0.273387,-0.095516,0.957150
0.769786,-0.043638,-0.883814,-0.345982,0.101712,0.932712
0.308931,-0.657873,0.466972,0.751321,0.258161,-0.607347
0.150787,-0.356047,0.727070,-0.571683,0.365855,-0.734390
0.105085,-0.113204,0.492276,0.943462,-0.322583,0.076281
-0.156615,0.337932,-0.474832,0.834741,-0.543831,0.086345
0.052560,-0.233048,-0.409150,0.233682,-0.723641,0.649412
-0.451367,-0.216508,-0.445225,-0.040791,-0.984119,0.172763
-0.014180,0.308161,-0.404125,0.348071,0.856873,0.380283
-0.365436,-0.285819,0.231277,-0.028991,-0.249669,0.967897
-0.028750,-0.328515,0.895332,-0.447755,0.700603,0.555581
-0.853158,-0.014783,-0.262893,0.539384,0.001964,0.842058
0.217883,-0.155288,0.331564,-0.015209,-0.662611,0.748809
-0.690892,-0.184041,0.076826,0.716255,-0.116414,0.688060
-0.357050,-0.130558,-0.272917,-0.482792,0.411732,0.772909
0.394648,-0.476247,-0.893709,0.361036,-0.168458,-0.917211
-0.604535,-0.155695,-0.283585,0.074255,-0.988634,0.130722
-0.113045,-0.059923,0.224706,0.580357,-0.278558,0.765239
-0.327766,-0.424187,0.488566,0.581975,-0.045953,0.811907
0.091440,-0.526984,0.723179,-0.738575,0.494859,0.457843
-0.491311,0.188367,-0.336073,-0.277241,-0.608229,0.743771
-0.091652,-0.285462,0.706946,0.787145,0.094561,0.609477
0.676748,-0.425358,0.084273,-0.056333,-0.933459,0.354232
-0.492165,-0.575330,0.347308,-0.355566,-0.244155,-0.902198
0.011692,-0.146231,0.487690,0.312123,0.654546,-0.688584
0.281282,-0.124858,-0.133180,-0.332073,0.943201,-0.009970
-0.263159,0.014681,0.357409,-0.524080,0.198074,-0.828316
-0.362238,-0.122463,-0.205896,0.603683,0.509211,-0.613409
-0.150645,0.054783,0.009753,-0.641793,-0.029301,-0.766318
-0.410285,-0.169334,-0.490241,0.440157,-0.020765,0.897680
0.283770,-0.162718,-0.054537,0.914392,-0.380515,-0.138189
-0.136288,-0.372381,0.918729,-0.696515,-0.692961,-0.186202
-0.083834,-0.431871,0.380471,-0.005775,-0.634847,0.772616
0.514410,0.328769,-0.541853,0.916738,0.037814,-0.397695
0.093500,-0.343070,0.887499,-0.380175,0.150521,0.912585
0.138846,-0.120836,-0.300437,0.098673,-0.946304,0.307852
0.039837,-0.436145,0.019132,0.926822,-0.120250,0.355725
0.184832,0.702553,-0.972094,-0.078546,0.093609,0.992506
0.176516,-0.584185,0.445250,0.799023,0.352139,0.487402
0.369701,-0.123992,-0.487586,-0.536888,-0.822259,0.188788
-0.440278,-0.507597,0.507917,0.130239,-0.479641,0.867746
0.766872,-0.185413,-0.867941,-0.396752,0.204158,0.894934
0.383134,0.442764,-0.957355,-0.116292,0.035830,0.992569
-0.042752,-0.264751,0.645104,0.362423,0.194722,0.911446
-0.085398,-0.167147,0.450095,-0.825607,0.495921,0.269139
0.074736,-0.215033,0.421003,0.999508,0.015835,-0.027060
0.518106,0.225211,-0.167579,0.261879,-0.583581,-0.768669
0.088169,-0.119920,0.382017,0.954967,0.272455,0.117501
-0.804613,0.066741,-0.208885,-0.561650,0.129172,0.817230
0.693735,-0.045418,-0.894636,-0.313699,0.089444,0.945300
0.348520,-0.172592,-0.509386,-0.683909,-0.707352,0.178665
0.271545,-0.360321,0.699112,0.302996,-0.875184,-0.377155
0.258823,-0.153455,0.330095,-0.011398,-0.690323,0.723411
-0.403320,-0.007711,-0.182988,-0.165889,-0.728822,0.664304
0.158535,0.111014,-0.401265,0.804234,-0.593626,0.028572
0.333949,-0.474415,0.501552,0.039465,0.962455,-0.268558
0.313551,-0.446731,0.508561,0.304982,0.952342,0.005616
-0.190519,0.213355,-0.461819,0.198494,-0.980077,-0.007079
0.733324,-0.299713,-0.305384,0.266545,-0.894546,0.358806
-0.039696,-0.390195,0.788706,0.773505,0.540367,0.331202
0.383205,-0.478384,-0.269980,0.190621,0.774187,0.603571
0.086961,-0.218238,0.452182,0.973345,-0.215420,0.078698
0.766445,-0.169486,-0.872038,0.416323,-0.191692,-0.888779
-0.375245,-0.473449,0.471894,0.262901,-0.825009,0.500242
-0.498205,-0.494719,0.484288,0.885011,0.454757,0.099763
0.089022,-0.324241,0.609776,-0.461025,-0.887123,-0.021644
0.673620,-0.394012,0.103057,-0.653789,0.561530,-0.507192
0.128682,-0.249535,0.322185,0.423849,-0.106011,0.899507
-0.024628,-0.455384,0.799657,0.856696,0.437133,-0.273838
0.498347,-0.614668,-0.146656,0.468753,-0.220496,-0.855366
0.003803,-0.643113,0.409743,0.953451,-0.222546,-0.203479
-0.346246,-0.056361,-0.133772,0.850926,-0.506797,0.138135
0.800277,-0.189284,-0.241146,0.470913,0.645646,-0.601151
0.170760,-0.215542,0.316387,-0.026205,-0.525408,0.850447
-0.357974,-0.179562,0.439942,0.354299,0.765503,-0.537101
-0.186467,-0.113102,-0.031063,0.878738,-0.239325,-0.412968
-0.407300,0.002213,-0.525259,0.644775,0.218332,-0.732527
-0.368421,-0.396096,0.506294,-0.332926,0.942952,0.001405
0.363232,-0.482609,-0.030238,0.214805,0.973149,-0.082707
0.375529,0.606322,-0.967249,0.256548,-0.065805,-0.964289
0.666513,0.139512,-0.639074,-0.931873,-0.216631,-0.291004
-0.204378,-0.082007,0.319221,0.496284,-0.867884,0.021899
-0.431252,-0.098292,0.122486,-0.586347,0.328505,-0.740460
0.155549,-0.114882,0.426311,0.863909,-0.327768,0.382400
-0.082697,0.335590,-0.422807,0.084642,0.764181,0.639424
0.502257,-0.185721,-0.459758,-0.404071,0.555511,0.726729
0.022922,-0.652018,0.060541,0.910302,-0.307679,0.276918
0.069405,-0.409278,0.900924,-0.600394,0.794416,0.091816
0.078432,-0.286583,0.411907,0.841815,-0.475430,0.255566
-0.126621,0.012289,0.024183,0.627206,0.305392,0.716484
-0.559117,0.199766,-0.538529,0.312738,-0.647843,0.694618
0.047585,-0.641333,0.317186,0.959033,0.127004,0.253231
0.508085,-0.387241,0.240270,-0.240998,0.660385,0.711204
0.011123,-0.431822,0.932206,0.967098,-0.225759,-0.117280
-0.089733,-0.436350,0.964235,-0.110105,0.716088,0.689271
-0.129962,-0.374062,0.717407,0.458337,0.668233,-0.585997
-0.415545,-0.113611,0.467771,0.440748,-0.331214,0.834289
0.087743,-0.301290,0.094039,-0.719873,0.501636,0.479733
-0.229895,-0.127554,0.294046,-0.377142,0.404819,0.832998
-0.126764,-0.106638,0.501784,0.862118,-0.440409,0.250584
0.229965,-0.267602,0.630571,0.256049,0.691973,-0.674990
-0.013256,-0.305869,0.629823,-0.030729,-0.609768,0.791984
0.122357,-0.173406,0.301751,0.820307,-0.222626,-0.526814
0.350865,-0.375028,0.328549,-0.587227,-0.688307,0.425910
-0.427769,-0.350397,-0.101382,0.218047,0.975458,-0.030601
-0.243256,0.190249,-0.317005,-0.321361,0.889138,0.325822
-0.003589,-0.392689,0.927542,0.682653,0.730549,-0.016843
-0.260315,-0.196254,0.088705,0.509333,-0.028580,0.860095
-0.275880,-0.193915,0.326848,-0.537581,0.653474,-0.532896
-0.101390,-0.639653,0.334218,0.616837,-0.607716,-0.500195
-0.517467,-0.279101,-0.252251,-0.292023,-0.682109,-0.670410
-0.022780,0.106383,-0.017870,0.717749,0.300565,0.628090
-0.258111,-0.158851,0.134932,-0.604605,-0.779313,0.164693
-0.360674,-0.549274,0.355296,0.039269,-0.451400,0.891457
-0.651232,-0.373503,0.009289,-0.671978,0.184913,-0.717114
0.726429,-0.101957,0.107026,0.860113,0.353056,0.368180
0.386901,-0.166485,-0.922105,-0.215011,0.174649,0.960868
-0.238495,-0.620113,0.213007,-0.406202,0.890614,-0.204468
0.710224,-0.359252,-0.520981,-0.523570,-0.529143,0.667744
0.134938,-0.373910,0.238105,-0.675052,0.681601,-0.282355
-0.162301,0.037175,0.024415,-0.439394,-0.196029,-0.876645
-0.342763,-0.178341,0.049306,0.239805,0.664803,-0.707482
-0.042467,-0.525612,0.806563,-0.909858,0.392621,-0.134192
0.200824,-0.105365,0.104294,0.958034,-0.233307,0.166552
-0.502470,-0.196204,-0.241661,0.072532,-0.128726,0.989024
0.017946,0.034072,-0.013773,0.651460,-0.041869,0.757527
0.645191,0.309279,-0.754564,0.547404,0.594272,-0.589228
0.449589,0.273911,-0.936715,0.209513,-0.113247,-0.971226
0.655354,-0.212132,0.256735,-0.431856,0.402534,-0.807135
-0.383205,-0.549376,0.100584,0.214970,-0.908753,-0.357710
-0.355770,-0.681128,0.268202,0.215681,-0.533790,-0.817649
0.994670,-0.351009,-0.260111,0.964783,-0.071026,0.253276
0.056044,-0.345716,0.564554,-0.866876,0.489881,0.092419
0.416113,-0.498334,0.045158,-0.123773,-0.945805,0.300223
-0.161164,-0.056106,0.235116,-0.777395,-0.430027,-0.459057
0.354135,-0.313758,0.325174,-0.365825,0.569517,0.736086
0.185472,-0.237474,-0.221665,-0.811804,-0.210952,-0.544493
-0.485839,-0.466069,0.518353,0.849637,-0.010812,0.527257
0.142827,-0.094935,0.072342,0.667462,0.380303,-0.640207
-0.180426,-0.412126,0.749050,-0.501494,0.864034,0.044150
-0.401684,-0.578178,0.107618,0.090974,0.640261,0.762752
0.457763,-0.337066,0.260600,0.029253,0.990892,0.131442
0.114113,-0.406529,0.402554,0.933521,0.333547,0.131471
-0.399196,-0.603471,0.124496,-0.338214,0.729145,0.594944
-0.349231,-0.558638,0.357692,0.003711,-0.431413,0.902147
-0.341839,-0.720466,0.260703,-0.010008,0.486332,0.873717
0.318028,0.186178,-0.930453,-0.028699,0.129155,0.991209
0.915136,-0.381237,-0.275932,0.008181,0.793327,0.608741
0.398344,0.674003,-0.963333,0.256462,-0.162452,-0.952804
0.230107,-0.645558,0.448858,-0.222815,0.435260,0.872297
0.005366,-0.546220,0.827100,0.165012,0.725679,0.667953
0.086677,-0.337066,0.677390,-0.514665,0.481753,-0.709249
0.137212,-0.189486,0.317624,0.817159,-0.159669,-0.553856
0.053698,-0.380727,0.861396,0.846734,-0.509521,-0.153069
-0.115391,-0.422050,0.605756,-0.281949,-0.376859,0.882316
0.137496,-0.023893,0.441308,0.097678,0.185721,-0.977735
0.458759,0.349533,-0.539895,0.918124,-0.038563,-0.394412
-0.240414,-0.346785,0.178505,0.056727,0.686342,-0.725064
0.046946,-0.425103,0.521909,-0.251739,0.946093,-0.203802
-0.030811,-0.736344,0.279591,0.005508,-0.551526,0.834139
-0.067486,-0.397929,0.622428,-0.152799,0.295099,-0.943170
0.229255,0.207907,-0.485061,0.738720,0.581319,-0.341116
0.089449,-0.093611,0.067137,0.584414,-0.401541,-0.705142
0.234727,0.388719,-0.958849,0.123991,-0.090978,-0.988104
0.239419,-0.120174,0.355450,-0.085966,-0.375506,0.922824
0.067771,-0.396963,0.687620,0.080914,-0.714794,0.694638
0.672554,0.010764,-0.899867,0.340944,-0.077741,-0.936864
0.051992,-0.765758,0.256967,-0.799823,-0.091718,-0.593187
-0.017094,-0.740922,0.218032,-0.007899,0.533863,0.845534
0.605317,-0.530597,-0.180721,0.615041,-0.738374,-0.276638
0.355201,-0.673394,-0.061211,0.834209,0.289848,0.469130
-0.090942,-0.255439,0.567182,0.862193,0.284930,0.418854
0.666158,0.074680,-0.578881,0.943882,0.323875,0.064742
0.007570,-0.408921,0.609828,-0.606388,-0.652346,0.454685
0.413839,-0.391161,0.432830,0.434583,0.805866,0.402141
0.146167,0.018753,-0.609750,-0.745039,0.365495,-0.557971
-0.249370,-0.176714,-0.378693,0.578355,0.814504,0.045709
0.601123,-0.054631,-0.899558,-0.291516,0.102397,0.951070
0.109777,-0.438285,0.446668,-0.295234,-0.800014,0.522316
-0.165358,-0.292945,0.783217,0.860914,0.451715,0.234053
-0.158747,-0.561893,0.067060,0.723227,-0.643507,0.250680
-0.206014,-0.422510,0.700581,-0.531765,0.066167,-0.844303
-0.348875,-0.219359,0.349009,0.211372,-0.391241,0.895686
-0.072107,-0.217322,0.673474,0.903031,-0.213228,0.372919
-0.607875,-0.390956,0.026966,0.387286,0.412570,0.824497
0.507872,0.034326,0.159102,0.468024,0.552541,-0.689675
-0.231458,0.032289,0.217130,-0.512911,-0.055599,-0.856640
0.276662,-0.409989,0.090122,-0.090768,0.885648,0.455401
0.566438,-0.000890,0.152866,-0.410097,0.623073,-0.666033
0.441914,-0.158239,0.229963,-0.133332,-0.722851,0.678018
0.109208,-0.312078,0.189147,0.267428,-0.049242,-0.962319
-0.035005,-0.513855,0.268562,0.713478,0.619477,0.327410
-0.851096,-0.105265,-0.179742,0.803580,0.400964,0.439872
0.077721,-0.570292,0.728590,-0.638966,0.659202,0.396453
0.422439,0.594923,-0.966631,-0.254988,0.059069,0.965138
0.215822,-0.567745,0.432160,-0.465243,-0.696962,-0.545703
0.311632,0.784842,-0.976474,-0.140074,0.073159,0.987435
0.336011,-0.703824,0.489210,-0.592307,0.397823,0.700649
-0.018374,-0.383374,-0.594032,0.977920,0.198519,0.065292
-0.435020,-0.212843,0.349885,0.281587,0.959099,0.028935
0.516472,0.172744,-0.781878,-0.228065,-0.711998,0.664112
0.271474,-0.182668,-0.078449,-0.544842,0.401605,0.736112
-0.086677,0.123992,-0.359573,0.023275,-0.736787,0.675724
0.289812,-0.248823,0.669789,0.772964,0.199167,-0.602378
-0.117097,-0.230249,0.549145,0.829014,0.504679,0.240906
-0.161520,-0.181090,-0.027404,-0.719134,-0.099268,0.687744
0.020576,-0.328872,0.064200,0.348252,0.574618,-0.740631
-0.572479,-0.179614,-0.251040,0.426598,0.244235,0.870841
0.322862,-0.872727,0.020885,0.118847,-0.549426,0.827047
0.344255,0.232793,-0.946275,0.211107,-0.098184,-0.972519
0.102242,-0.265565,-0.033176,0.433680,0.900717,0.025113
0.182132,-0.743926,0.028409,0.160350,0.649146,0.743570
0.207008,0.391366,-0.961065,-0.110977,0.082806,0.990367
-0.234728,-0.582403,0.577000,0.477793,-0.567180,0.670836
0.119727,-0.822294,0.252200,0.889818,0.078338,0.449541
-0.054978,-0.547186,0.688290,-0.491007,0.301903,-0.817170
0.405167,-0.789116,0.140781,0.335341,-0.332358,0.881524
-0.039767,-0.463628,0.515544,-0.597548,0.592952,-0.539764
-0.131738,-0.540775,0.535308,0.875761,-0.077872,0.476422
0.168770,-0.025977,-0.409975,0.321212,0.945535,-0.052791
-0.228687,0.216610,-0.329142,-0.301845,0.406608,0.862299
-0.181777,-0.452685,0.336511,-0.332875,0.734627,-0.591200
0.294787,0.627900,-0.640517,0.945826,0.199967,-0.255784
-0.142401,-0.166280,-0.201283,0.588571,0.780912,0.209191
0.226909,-0.473145,0.565971,0.040992,0.892853,0.448478
0.139628,-0.184702,0.419509,0.874189,-0.191246,0.446340
-0.034081,-0.423525,0.789917,-0.290818,0.346337,0.891895
-0.049788,-0.328260,0.684657,0.946440,-0.292621,-0.136470
0.013540,-0.001756,-0.017509,-0.698313,-0.002985,-0.715786
0.925797,-0.329382,-0.244263,-0.769825,-0.391833,-0.503821
-0.164505,-0.084551,-0.615342,-0.744623,-0.162213,0.647475
0.119869,-0.439046,0.444374,-0.232394,0.972351,-0.022940
-0.155123,-0.007556,0.027043,0.193021,0.097155,0.976373
-0.167774,-0.481947,0.851862,-0.593869,0.799930,-0.086214
-0.083692,-0.178546,0.457593,0.214792,-0.627832,0.748125
0.333381,0.390499,-0.955963,-0.210771,0.107498,0.971607
0.436583,-0.216151,-0.001379,0.159400,0.252395,0.954405
-0.323502,0.214219,-0.414613,-0.112258,-0.975158,-0.190960
-0.417321,-0.565151,0.087571,0.143368,0.744195,0.652395
-0.675824,0.119717,-0.403481,-0.152624,-0.130099,0.979684
-0.035289,-0.792169,0.382094,-0.551271,-0.352055,-0.756411
-0.074665,-0.299458,0.540230,0.889110,-0.224969,0.398588
-0.264793,0.388769,-0.612276,-0.378832,0.032730,-0.924887
0.600483,-0.244903,0.265367,-0.052137,0.357492,0.932460
0.179857,0.013920,0.102233,-0.276875,0.230428,0.932868
0.410783,-0.457723,0.466972,0.621648,0.311749,-0.718587
-0.072959,-0.530852,0.651442,0.740306,-0.631873,-0.229528
0.557198,0.287195,-0.932154,-0.155642,0.144223,0.977228
-0.464373,-0.508460,0.490833,0.517755,0.853684,-0.056164
-0.044600,-0.129182,-0.486994,-0.041048,-0.000601,0.999157
0.098831,-0.860818,0.267712,-0.322517,0.464885,0.824539
0.040620,-0.440168,0.130397,0.975388,-0.215777,0.045372
-0.189949,-0.156204,0.328317,0.592424,-0.678596,-0.434213
0.011194,-0.779599,0.242563,-0.514520,0.479815,0.710666
0.585914,-0.493551,-0.230246,-0.289180,0.525743,0.799981
-0.828139,0.078497,-0.210096,-0.521648,0.265137,0.810916
0.693735,0.291112,-0.913808,-0.400350,0.074412,0.913336
0.870997,-0.288416,-0.251401,0.185160,0.721283,-0.667433
0.318100,-0.308161,0.299020,-0.525510,0.772011,0.357543
0.118447,-0.203276,-0.126944,0.831621,-0.537932,-0.137972
0.518889,-0.496502,-0.089143,-0.308403,0.605828,-0.733389
-0.099328,-0.168672,0.419792,0.465634,0.677739,-0.569082
0.452291,0.126588,-0.933829,-0.353439,0.206512,0.912378
0.049291,-0.162413,0.476996,0.154638,0.676305,0.720207
-0.310139,-0.667185,0.250319,-0.072196,0.804250,0.589889
0.527347,-0.377370,0.231122,-0.420058,0.246800,0.873293
-0.515904,-0.213504,0.245037,0.894036,0.354684,-0.273675
-0.095064,-0.518080,0.336228,-0.627558,0.478010,0.614555
-0.234657,-0.298085,0.627633,0.532625,-0.043444,0.845236
0.311845,0.542505,-0.962354,0.085966,-0.120546,-0.988979
0.352429,-0.167349,0.232668,-0.052541,-0.468307,0.882002
-0.328334,-0.623265,0.237641,-0.303256,0.670706,0.676897
0.542201,0.497468,-0.940992,-0.040680,-0.057135,0.997537
-0.768578,0.026642,-0.189611,0.895299,0.388561,0.217853
-0.370767,-0.157375,-0.226304,-0.800180,0.425941,0.422240
0.022708,-0.597821,0.471404,0.824621,0.047128,0.563720
-0.191585,-0.383374,0.688213,0.582428,0.310784,0.751126
-0.556274,-0.243633,0.013180,0.018486,-0.781326,0.623849
-0.373609,-0.558638,0.341923,0.613231,-0.435531,0.658984
-0.644835,-0.068471,-0.211229,0.672822,0.064999,0.736944
0.009702,-0.435894,0.939807,0.966159,-0.184912,-0.179844
-0.161662,0.064147,0.207493,0.654077,0.418012,0.630436
-0.604251,-0.232082,-0.234395,0.575321,0.318918,0.753191
0.692313,-0.108927,-0.050775,-0.371148,0.928518,0.010201
0.309499,-0.706318,0.481634,-0.375337,0.360713,0.853820
-0.289954,0.243583,-0.378229,0.408351,0.381149,-0.829443
0.163154,-0.521387,0.638894,0.478679,0.657442,0.581925
0.134938,-0.443780,0.646650,0.694652,0.371328,-0.616096
0.002949,0.321697,-0.427651,0.649068,0.345504,-0.677744
0.355414,-0.352127,-0.908809,-0.207701,0.118841,0.970947
0.251786,-0.092695,0.352616,-0.116133,-0.126023,0.985206
-0.440705,-0.256355,0.023874,-0.166765,-0.639483,0.750501
0.222645,-0.762960,-0.067756,-0.785817,0.416365,0.457310
-0.764811,0.040840,-0.194352,0.921936,0.387301,-0.005562
0.312911,-0.786062,0.032506,0.289459,0.412254,0.863863
-0.234515,0.172439,-0.664300,0.995296,0.069035,0.067975
-0.180639,-0.384035,0.699293,0.131586,0.126672,0.983178
0.225417,0.078448,-0.403069,0.834375,0.410764,0.367547
-0.156118,0.114120,-0.374441,0.492627,0.700169,0.516799
0.484701,0.015650,0.176830,0.468024,0.552541,-0.689675
-0.089876,-0.203022,0.723540,0.899444,-0.409577,0.152472
0.048225,-0.445815,0.977093,0.324955,-0.872734,0.364333
-0.401542,0.080432,-0.365448,0.553790,0.601676,-0.575589
0.084403,-0.181904,0.428089,0.809481,-0.512725,0.286100
-0.342691,-0.148927,-0.243929,0.673510,0.697351,0.245124
0.511780,-0.372689,0.222232,-0.430919,0.394181,0.811745
0.656420,-0.118342,-0.116920,-0.170444,-0.966321,-0.192804
-0.068837,-0.636957,0.742994,-0.558681,0.410074,0.720913
-0.291233,-0.453042,0.572387,-0.287646,-0.843290,-0.454006
0.207506,-0.126688,0.093291,0.903383,-0.152590,0.400768
0.066918,-0.421948,0.471971,0.929088,0.195351,0.314060
-0.596290,-0.580877,0.387119,-0.626400,0.191580,-0.755592
-0.488255,-0.094627,0.370344,0.139351,-0.549147,0.824026
-0.137780,-0.306785,0.823544,-0.587270,0.396601,-0.705565
0.063862,-0.835781,0.248103,0.272126,0.402113,0.874215
-0.177298,-0.176459,-0.224345,-0.510716,-0.859748,-0.001589
-0.155975,0.039110,0.220377,0.653438,0.386293,0.650997
-0.167916,0.002213,0.225067,-0.435136,-0.018742,-0.900170
-0.171470,0.024912,0.226200,0.678793,0.079392,0.730026
0.452219,0.169029,-0.938364,-0.210492,0.080681,0.974260
0.277516,-0.038293,0.101434,-0.263480,0.743586,0.614539
-0.430754,0.120634,-0.354600,0.618471,0.504956,-0.602091
-0.404741,-0.535228,0.363181,-0.009220,-0.787258,0.616555
-0.184477,-0.642657,-0.008671,0.330691,0.577930,0.746083
0.177228,-0.300933,-0.620032,-0.349979,0.042128,0.935810
0.402893,0.290503,-0.229963,0.004297,-0.739188,0.673485
0.393298,-0.426986,-0.077135,-0.014669,0.040485,0.999072
-0.351150,-0.472582,0.451280,-0.816054,0.558386,0.149201
-0.262731,-0.205771,-0.051368,-0.135462,0.961108,0.240670
0.676321,0.204245,-0.526135,-0.495263,-0.706389,0.505696
-0.598423,-0.134577,0.033253,-0.284532,-0.163671,-0.944592
0.009560,-0.259458,0.616450,-0.646639,-0.692579,0.319675
-0.067629,-0.710747,0.196078,0.069326,0.854164,0.515361
-0.191655,-0.388259,0.682595,-0.419971,-0.505265,-0.753878
0.232667,-0.444746,-0.184405,0.770942,0.037643,0.635792
0.394932,-0.330245,0.345427,-0.682167,0.168324,0.711558
-0.289314,-0.064551,-0.205020,-0.181559,-0.225427,0.957193
-0.336508,0.199310,-0.387170,0.561287,0.767075,-0.310729
0.455773,-0.385104,0.233931,-0.331393,0.881348,0.336756
-0.225417,-0.627235,0.533195,-0.472654,-0.598164,0.647146
-0.404314,-0.488004,0.600835,-0.751184,0.500693,-0.430149
-0.006646,-0.291774,0.059304,-0.536075,0.737720,0.410357
0.088809,-0.063943,-0.737506,-0.012501,-0.413071,0.910613
0.422367,-0.081498,-0.270392,0.693017,-0.495615,-0.523539
-0.104233,-0.209333,0.633457,-0.616618,0.557353,0.556004
0.096414,-0.399457,0.045828,0.376050,0.330792,-0.865542
0.042610,-0.872575,0.257791,0.485523,-0.070568,-0.871371
0.279861,-0.100022,0.345504,-0.026519,-0.357631,0.933486
-0.307935,-0.027148,-0.085149,-0.663232,0.414321,0.623267
0.210278,-0.811355,0.115735,0.030143,0.992534,0.118183
-0.458190,0.304549,-0.426620,0.883450,0.120286,0.452822
0.208146,-0.099003,0.344267,0.336230,-0.129895,-0.932779
0.021430,0.030559,-0.459216,0.488169,0.390040,-0.780743
0.040620,-0.006183,-0.028409,0.738556,0.118706,0.663660
-0.591954,0.160379,-0.518327,-0.264103,0.515791,-0.814990
-0.108853,-0.196866,0.309739,-0.695982,-0.590879,0.408008
0.068624,-0.526882,0.041035,0.975420,-0.114985,-0.187972
0.279648,-0.062213,0.353003,-0.123593,-0.245099,0.961588
0.133516,-0.338541,0.343031,0.876344,0.462938,0.133074
-0.487687,-0.282918,-0.009547,-0.163801,-0.825645,0.539889
-0.476101,0.237374,-0.316129,-0.066975,-0.369170,0.926946
0.096983,-0.638482,0.500110,0.649386,0.243767,0.720330
0.885071,-0.275032,-0.296340,-0.475590,-0.654442,-0.587809
-0.121433,-0.183276,0.215816,-0.449867,-0.363795,0.815643
0.110132,-0.779956,0.029981,-0.693259,0.455820,0.558229
0.383773,-0.178394,-0.921589,0.210779,-0.190619,-0.958768
-0.139913,-0.335997,0.812825,0.590902,-0.461450,0.661739
-0.101461,-0.500981,0.643300,0.732591,-0.658512,-0.172254
-0.553502,-0.195694,0.036732,0.410484,0.067296,0.909381
-0.445183,-0.204550,-0.258616,-0.286271,-0.660224,0.694372
-0.083194,-0.393043,0.695376,-0.193405,0.138870,0.971241
0.455561,-0.392841,0.229473,-0.327356,0.936555,-0.125310
0.781300,-0.089642,-0.142069,0.081755,-0.974158,0.210554
0.534951,0.507699,-0.945424,-0.091201,-0.079643,0.992643
-0.657486,-0.388921,0.023693,0.673728,-0.136349,0.726292
0.042397,-0.438894,0.616527,-0.081990,-0.325486,-0.941986
0.314901,-0.731253,-0.069688,-0.278451,0.427871,-0.859879
-0.289954,-0.652835,0.103933,0.864097,0.400757,0.304515
-0.158747,-0.481133,0.582025,-0.356679,0.369069,0.858236
-0.237428,-0.490141,-0.087803,0.481010,0.850366,0.213322
0.062867,-0.731253,0.241094,-0.624679,-0.524311,-0.578683
-0.129606,-0.299865,0.738021,0.971180,-0.042839,-0.234466
0.338143,-0.656702,-0.159282,0.741627,0.129670,0.658160
0.262447,-0.105163,0.339629,-0.004307,-0.273240,0.961936
0.239561,-0.488156,0.401188,0.223497,0.416642,0.881169
-0.276592,-0.628406,0.111715,0.902399,0.430828,0.007975
0.099400,-0.279051,0.922569,0.877247,-0.389731,0.280263
0.111837,-0.491209,0.030573,0.891138,-0.421255,-0.168575
0.221081,-0.357982,0.285131,0.916802,-0.253617,-0.308469
-0.494865,-0.187960,-0.285311,0.929244,0.316586,0.190469
-0.293507,0.245161,-0.393870,-0.349224,0.720564,-0.599025
0.114467,-0.333298,-0.177732,-0.275542,0.454474,0.847071
0.523224,-0.664079,0.040262,-0.777548,0.305136,-0.549828
0.335868,0.165926,-0.451022,-0.125462,-0.664358,0.736809
0.167420,-0.641892,-0.202649,0.269463,0.845280,-0.461401
0.112051,-0.835731,0.243748,0.750870,-0.106679,0.651778
0.215964,-0.416046,0.521522,-0.717394,-0.696660,-0.003313
0.552650,-0.286378,0.400956,-0.776486,-0.053576,0.627853
-0.723729,0.011985,-0.403430,0.210322,-0.066905,0.975340
-0.895234,0.041908,-0.221537,-0.374547,-0.102725,0.921500
-0.558549,-0.570596,0.394385,-0.542639,0.187539,-0.818762
-0.309783,-0.207299,0.451383,-0.175453,-0.769723,0.613793
0.122002,-0.300884,0.128490,0.022099,0.866215,0.499182
0.320302,-0.530802,-0.085432,-0.428044,0.735845,-0.524699
0.318170,0.511718,-0.963719,-0.140846,0.199376,0.969748
0.061516,-0.366020,0.909968,0.886441,-0.206140,0.414401
-0.157042,-0.245922,-0.074352,0.858535,0.396972,-0.324548
-0.063506,-0.127859,0.021632,0.586586,0.085989,0.805309
-0.296848,-0.075798,-0.204813,0.211549,0.119540,-0.970030
0.088240,-0.358998,0.599443,0.822762,-0.328051,0.464161
0.069334,-0.034631,-0.031733,0.711001,0.222207,0.667160
0.053698,-0.562707,0.216254,-0.476055,0.096288,0.874128
-0.317034,-0.386377,-0.047812,-0.356883,0.890501,-0.282208
0.807954,0.157326,-0.894997,0.209007,-0.122115,-0.970260
-0.300757,-0.438845,0.670665,0.826562,0.218508,0.518701
0.037137,-0.448513,0.494028,0.246565,0.091618,0.964786
0.573830,0.133763,-0.799116,-0.424479,-0.892040,0.155185
0.162728,-0.154679,0.095945,-0.126868,0.570767,0.811252
-0.319379,-0.339914,0.172346,0.165305,0.986193,-0.009903
-0.109279,-0.089437,0.033485,-0.350779,-0.132972,0.926969
-0.177796,-0.149539,0.189971,0.356915,0.166272,0.919220
-0.215608,0.015547,-0.210173,0.807665,0.386344,0.445438
0.442695,-0.339405,0.027326,-0.857668,-0.070302,-0.509375
0.388607,-0.017734,0.366402,-0.096958,-0.530921,0.841856
0.176232,-0.357013,0.354033,0.198296,0.759110,-0.620025
0.377447,-0.333758,-0.910973,-0.185869,0.194419,0.963148
0.872775,-0.210249,-0.220867,0.841704,0.455823,-0.289412
-0.226341,-0.461898,-0.064406,0.597120,-0.087815,-0.797331
-0.044387,-0.626881,0.507762,0.935763,-0.113087,0.334004
0.323856,-0.473399,0.346148,-0.027645,0.893152,0.448904
0.225915,-0.765808,0.033768,-0.606284,-0.537088,-0.586478
-0.012260,-0.484084,0.204324,-0.181234,-0.112595,0.976973
0.805608,-0.038498,-0.878893,-0.356842,0.116427,0.926881
-0.153631,-0.434571,0.815504,-0.645898,-0.303709,-0.700412
-0.242190,0.065064,-0.699860,0.949094,-0.304745,0.079689
-0.567575,-0.051372,-0.160390,-0.522056,0.823856,-0.220722
0.337005,-0.405613,0.467024,-0.362109,-0.218507,-0.906163
0.347311,-0.139360,-0.180051,0.147866,0.863004,-0.483074
0.477096,-0.125110,-0.273948,0.783551,-0.386573,-0.486424
0.219446,-0.445563,0.559736,-0.072183,0.837779,0.541218
-0.647820,-0.013969,-0.099811,-0.113033,0.959902,0.256538
0.500693,0.249230,-0.305874,0.732788,0.538418,0.416086
0.146025,-0.388005,0.702874,-0.098931,0.989846,-0.102066
-0.025268,-0.455841,0.252586,-0.076084,0.979394,0.187079
-0.496571,-0.237424,0.223289,0.648812,0.532884,-0.543210
0.186681,-0.375081,0.673680,-0.290830,-0.316036,0.903072
0.594158,-0.485559,0.388923,-0.575547,0.520230,0.630957
-0.161733,-0.154269,0.495677,0.171527,-0.922404,0.346048
-0.625004,-0.143942,-0.413711,0.773273,0.579774,0.256732
-0.254984,0.355742,-0.606066,-0.351712,0.220531,-0.909761
0.042823,-0.318796,0.567775,-0.368603,-0.914686,0.165774
0.275738,-0.346378,0.707899,0.730366,-0.475446,0.490424
-0.881730,-0.130250,-0.183581,0.744959,0.578876,0.331570
-0.282064,-0.242664,0.063066,-0.519027,-0.596986,0.611734
-0.544334,0.004098,-0.371839,0.164176,0.784043,-0.598600
-0.137567,-0.399761,0.603669,0.064103,-0.485844,0.871692
0.047727,-0.357165,0.393509,0.804115,0.593918,0.025701
0.304239,-0.271317,-0.272994,-0.371504,-0.914539,0.160011
0.085326,-0.538486,0.690686,-0.311921,-0.931106,0.189070
-0.119230,-0.534924,-0.029774,0.377349,0.528959,0.760138
-0.243114,0.121041,0.019519,0.877322,0.328834,-0.349534
0.327908,-0.310195,-0.914941,-0.204638,0.214248,0.955103
-0.405736,-0.508715,0.472177,0.624480,0.480984,0.615369
0.109208,-0.693291,0.017303,-0.382763,0.216232,0.898185
0.554568,-0.631512,0.054305,0.958267,0.047710,-0.281864
0.075163,-0.233150,0.429919,-0.505427,-0.104241,0.856550
0.343473,0.130505,-0.382197,-0.499799,0.657606,-0.563698
0.093287,-0.064399,0.538993,-0.364174,0.755605,-0.544461
-0.171400,-0.227550,-0.467179,0.579087,0.553012,0.599029
-0.145883,-0.608254,0.522630,-0.071341,-0.302354,0.950522
0.487615,-0.085315,0.256709,0.540804,0.409695,-0.734630
0.183767,-0.360933,0.202520,0.289655,0.136166,0.947396
0.314688,0.438639,-0.512117,-0.397192,0.691800,-0.603035
-0.572409,-0.236915,0.015834,0.119770,-0.549289,0.827005
0.371619,0.517315,-0.493745,-0.383535,0.289712,-0.876908
-0.047088,0.041501,-0.422420,-0.176943,-0.826267,0.534765
-0.358258,0.080787,-0.163895,-0.481636,-0.138643,-0.865335
0.778314,0.285971,-0.906052,-0.390452,0.057309,0.918838
-0.740858,0.088064,-0.257740,0.486076,-0.723228,0.490583
0.125058,-0.349940,0.375730,0.848742,0.230838,0.475764
-0.092718,-0.706979,0.354626,0.764967,0.243932,-0.596089
-0.411991,-0.464646,-0.106613,-0.504057,-0.863114,-0.030998
0.705392,-0.333553,0.140214,-0.385835,0.399765,0.831456
0.452433,-0.488004,0.468287,-0.548313,0.819096,-0.168626
0.615836,0.494722,-0.944986,-0.373530,0.060892,0.925617
0.673763,0.148980,-0.906129,-0.360094,0.278519,0.890371
-0.079853,0.167044,-0.327647,0.556807,0.669091,-0.492223
0.048154,-0.395537,0.547238,-0.423577,0.744771,-0.515654
0.216958,-0.374928,0.363748,0.219377,0.965604,-0.139584
-0.165998,-0.503932,-0.020885,0.853678,-0.428198,-0.296446
-0.316180,-0.448768,0.634333,0.062008,-0.990155,0.125491
0.905967,-0.304139,-0.294588,-0.096879,-0.935948,-0.338549
0.492306,-0.055444,0.141451,-0.244285,-0.456671,0.855439
-0.493301,-0.312537,-0.012175,-0.236780,-0.771303,0.590785
0.105938,-0.438031,0.444632,0.246111,0.949336,-0.195423
-0.578024,0.089083,-0.228339,0.821881,0.353148,-0.446987
0.376879,-0.672425,-0.073115,0.832773,0.533500,-0.147873
0.182203,-0.284294,0.637863,0.803230,-0.477455,-0.356173
0.168414,-0.412126,0.325225,0.306205,-0.043404,0.950976
-0.545826,-0.235135,0.277607,0.792150,-0.161983,0.588438
-0.062938,-0.441084,0.830810,0.744744,-0.665858,0.044600
0.537297,-0.307956,0.381888,-0.809823,0.022374,0.586247
-0.420449,-0.285565,0.221408,0.112939,-0.861830,0.494462
-0.643057,0.017836,-0.200278,0.632814,0.002601,0.774299
0.637799,-0.205211,0.278406,-0.611706,0.354122,0.707399
-0.141192,-0.001551,0.020318,0.465842,0.261089,0.845473
-0.051850,-0.496197,0.615909,-0.345258,-0.412603,-0.842945
0.067629,-0.034323,0.564245,-0.415215,0.751555,-0.512603
0.210562,-0.029745,0.111458,0.622226,-0.427897,-0.655544
0.020648,-0.423731,0.470477,-0.628209,0.763442,-0.150035
-0.587690,-0.330347,-0.095456,-0.576283,-0.813799,-0.075026
-0.195920,-0.396301,0.562519,-0.227357,0.878478,0.420221
-0.354988,0.044095,-0.171496,-0.614302,-0.339023,-0.712529
0.245246,-0.380423,0.714135,0.977032,0.178991,0.115630
-0.290166,0.297423,-0.631885,0.182588,-0.410763,0.893272
-0.055474,-0.522863,0.109190,0.136350,0.846037,-0.515393
0.061445,-0.354621,0.554711,0.181427,-0.505377,0.843610
0.557412,-0.623014,-0.199299,-0.500707,0.848337,-0.172097
0.059028,-0.200326,0.489828,-0.730740,0.298187,-0.614087
0.157823,-0.426122,0.341072,0.341388,0.389533,0.855405
0.318597,-0.468206,0.429352,0.645166,0.220363,-0.731574
-0.126053,-0.026794,0.016246,-0.606775,-0.508628,-0.610836
0.145101,-0.405510,0.325483,-0.086929,-0.426535,0.900284
0.215680,-0.145010,-0.140601,-0.399226,0.914555,0.064872
-0.242760,0.093357,-0.667444,0.951646,-0.297811,0.075357
-0.144817,-0.289994,0.417525,-0.367679,-0.333698,0.868019
-0.190873,-0.260679,0.429635,-0.152495,-0.417383,0.895844
-0.051850,-0.520776,0.821921,0.625679,0.453017,0.635060
0.113899,-0.510749,0.640311,0.580229,0.658871,0.478774
0.127758,-0.058190,0.104011,0.672177,0.049476,-0.738735
-0.006148,-0.578536,0.830140,0.094863,0.900146,0.425133
-0.024983,-0.687082,0.487380,0.874090,-0.428997,0.227878
-0.071609,-0.032494,-0.004445,-0.074424,0.056836,-0.995606
-0.131028,-0.173607,0.209787,0.542890,0.310336,-0.780360
0.161804,-0.235489,0.748251,0.366266,0.536472,-0.760294
-0.533885,0.149896,-0.508948,0.526697,0.487761,0.696189
-0.441416,0.342815,-0.626860,0.210890,0.247082,0.945767
-0.507872,-0.548205,0.373282,0.216823,0.286946,0.933086
0.046448,-0.185364,-0.051703,-0.646897,0.432828,-0.627841
0.577241,-0.651357,0.044874,0.975354,-0.017460,0.219956
-0.004655,-0.845807,0.397194,0.763005,0.062387,-0.643375
-0.079853,-0.768811,0.394591,-0.272192,-0.109074,-0.956041
-0.441274,-0.154779,0.367381,-0.032045,-0.232245,0.972129
-0.015956,-0.530901,0.842483,-0.113825,0.815889,0.566894
-0.011266,-0.431517,0.867967,0.900078,0.243428,-0.361390
-0.019012,-0.377929,0.966090,0.091639,-0.995150,-0.035757
-0.256761,-0.033662,0.352152,0.300819,0.617753,0.726560
0.521163,0.243021,-0.186364,0.266662,0.733860,0.624772
-0.601976,-0.017380,-0.115967,0.014825,-0.890854,0.454048
0.574469,0.047303,0.160545,-0.410097,0.623073,-0.666033
0.425708,-0.097224,-0.186802,0.562137,-0.558011,-0.610431
0.491311,-0.228416,-0.472899,-0.156743,0.550206,0.820186
0.244962,-0.465917,0.507994,0.970772,-0.152382,-0.185422
0.163296,0.222565,-0.467410,0.880811,0.472917,0.022861
-0.007641,-0.542251,0.355579,0.909936,-0.305477,-0.280536
0.026476,-0.376301,0.627917,0.010841,-0.160733,0.986938
-0.573119,0.000791,-0.108030,0.200472,0.979327,0.027013
-0.427769,-0.229485,0.198449,-0.256927,-0.811838,0.524316
-0.296279,-0.326785,-0.134339,-0.657708,0.713869,-0.240439
-0.444117,0.163329,-0.330714,-0.279010,-0.588132,0.759114
0.345321,-0.256660,-0.916384,0.235283,-0.225335,-0.945445
0.325350,0.605406,-0.969414,-0.108752,0.106667,0.988329
-0.080565,-0.351823,0.500651,-0.462942,0.767600,-0.443254
0.211344,-0.631307,0.461793,-0.294908,0.382568,0.875598
0.342763,-0.372841,0.103573,0.623206,0.149259,-0.767682
-0.118021,-0.069285,0.023126,0.280153,-0.274691,-0.919815
-0.363374,0.413350,-0.587152,0.200346,-0.154769,0.967423
0.886918,-0.369074,-0.241867,0.929155,0.297986,-0.218805
0.368563,-0.668303,-0.047786,0.505522,0.676374,0.535692
-0.238992,0.141904,-0.551670,-0.695633,0.648314,-0.309489
-0.277089,-0.092186,0.343494,0.046412,-0.160550,0.985936
-0.542557,-0.232945,-0.359728,0.111889,0.978687,0.172202
-0.714063,0.015445,-0.247716,0.464866,0.356174,-0.810580
0.165856,-0.125315,-0.399745,0.347048,-0.556508,-0.754888
0.358470,-0.353146,0.073785,0.351158,0.935951,0.026126
0.038629,-0.520981,0.823492,0.021136,0.972290,0.232819
-0.153559,-0.198391,0.564477,0.816794,0.410643,-0.405240
0.126550,-0.166231,0.491349,0.843103,-0.341889,0.415077
0.380647,-0.497163,0.584137,0.770242,-0.447489,-0.454400
0.329685,-0.446221,0.580195,0.011680,0.938222,0.345838
-0.176872,-0.536247,0.580324,-0.929082,0.320097,-0.185321
0.491027,0.449582,-0.952047,-0.169608,0.025979,0.985169
-0.276876,0.343579,-0.622428,0.410001,-0.376482,0.830759
-0.501191,-0.407396,-0.109035,0.690740,0.602328,0.400100
-0.282918,-0.025673,0.347566,-0.448434,-0.396057,0.801278
-0.015460,-0.823210,0.399513,0.266133,0.845442,0.463035
0.086179,-0.218952,0.304843,0.924360,-0.133824,-0.357280
-0.311987,-0.210911,0.436232,-0.011401,-0.246760,0.969010
0.032019,-0.571156,-0.040416,-0.389506,0.918892,-0.062629
0.233733,0.720873,-0.578185,0.689677,0.704678,0.166659
-0.362878,-0.190607,-0.172372,0.903913,0.424873,-0.049224
0.319948,-0.111167,-0.431645,0.861698,0.452386,0.229835
0.210064,-0.023434,0.107953,-0.407840,0.343343,0.846039
0.033583,-0.219204,-0.584163,0.124249,0.472874,0.872326
-0.072035,-0.233150,0.719933,0.875896,-0.223579,0.427574
0.272611,-0.326838,0.317289,-0.259167,0.814899,0.518432
0.497637,-0.455536,-0.248026,0.142412,0.879973,0.453174
-0.324710,-0.354469,0.718438,0.914637,0.075999,-0.397067
0.234017,0.151269,-0.475347,0.587168,0.534304,0.608073
-0.169622,-0.190044,0.416030,-0.172818,-0.867349,-0.466733
0.291162,-0.549528,0.499002,0.094855,0.991978,0.083564
0.837237,-0.228774,-0.849054,0.401484,-0.222343,-0.888467
-0.375173,-0.202463,0.349034,-0.087214,-0.890039,0.447465
0.086961,-0.225314,0.280699,0.808638,-0.130097,-0.573741
0.249440,-0.229842,0.212492,-0.348246,0.458104,-0.817842
0.355059,0.557417,-0.965935,-0.074953,0.120784,0.989845
-0.396852,-0.202515,0.460427,0.415779,-0.359703,0.835309
0.190731,-0.377879,0.696098,-0.347968,-0.300231,-0.888133
-0.053414,0.277066,-0.374415,0.629298,-0.777003,-0.015825
0.281424,-0.304701,0.166729,-0.481267,-0.053021,0.874969
0.127972,-0.544999,0.644485,0.386622,0.685117,0.617364
0.415331,-0.130760,-0.193089,0.689863,-0.449218,-0.567708
-0.500835,-0.515433,0.542368,-0.875444,0.390581,0.284682
0.138278,-0.336659,0.636265,-0.444236,0.861583,-0.245620
0.279790,0.130405,-0.402605,0.040956,0.986332,0.159597
0.551654,0.138189,-0.149645,-0.101856,0.730373,0.675411
0.159387,0.030102,0.454449,-0.107579,-0.438000,0.892515
0.421870,0.013665,-0.074198,0.776918,0.277052,-0.565368
0.475888,-0.527848,-0.084685,-0.309744,0.841503,-0.442642
0.162728,0.061094,-0.399255,0.795982,0.120037,-0.593299
0.311561,-0.210200,-0.385083,-0.700198,-0.064922,-0.710991
0.515690,-0.197629,-0.013206,0.509964,0.303833,0.804750
-0.403604,-0.114425,0.480423,-0.445532,-0.617088,0.648616
-0.371833,-0.543269,0.438989,0.530483,0.830151,-0.171571
-0.361314,-0.196915,0.345839,0.224170,-0.311312,0.923489
0.071111,-0.465153,0.485474,-0.680345,0.196787,-0.705979
-0.028963,-0.493144,0.525697,0.735306,-0.010385,0.677656
-0.152493,-0.684284,0.219475,0.576475,0.173797,0.798418
-0.119514,-0.425613,0.315305,0.144722,-0.508348,0.848904
0.009062,-0.692527,0.241687,-0.006339,-0.050486,0.998705
0.876399,-0.124858,-0.370267,0.917088,0.323852,-0.232528
-0.127119,-0.781736,0.393973,-0.195428,-0.113915,-0.974080
-0.538861,0.111269,-0.354652,0.461100,-0.151263,-0.874361
-0.467146,-0.552479,0.378950,0.023914,0.473041,0.880716
0.275383,-0.363119,0.700658,-0.256700,0.838330,0.480945
0.690252,-0.058700,-0.893760,-0.317358,0.105003,0.942475
0.007711,-0.500319,0.818081,0.385333,0.576482,0.720546
-0.248374,-0.475688,0.656493,0.411146,-0.889479,0.199465
-0.007854,-0.155033,-0.815015,-0.189093,0.898186,-0.396869
0.370838,-0.793694,-0.101846,0.462267,-0.180224,0.868233
-0.014250,-0.220223,0.457980,0.598867,0.438200,-0.670328
0.509506,0.206739,-0.167940,0.401623,-0.604026,-0.688368
0.071822,-0.622250,0.215687,0.625413,0.050835,0.778636
-0.521447,-0.316964,-0.239935,0.288700,0.691594,0.662080
0.377163,-0.036920,0.364392,-0.096958,-0.530921,0.841856
0.247806,-0.176356,-0.204350,-0.535830,0.747614,-0.392377
-0.120438,-0.035190,0.213935,0.416499,0.190166,0.889025
0.305661,0.474213,-0.960112,-0.154219,0.075499,0.985148
-0.799425,0.010814,-0.400518,-0.417672,-0.100873,0.902981
-0.605957,0.154424,-0.528093,0.222388,-0.665146,0.712828
-0.340631,-0.056361,-0.073167,-0.283514,0.341572,0.896074
0.025054,0.316609,-0.415618,-0.537309,0.185872,0.822649
-0.092292,-0.364188,0.912571,-0.072340,-0.997325,0.010461
0.128398,-0.142159,0.381682,0.969077,0.177509,0.171407
-0.080565,0.192032,-0.306389,0.033530,0.999427,0.004561
-0.046448,-0.744078,0.544507,0.925558,0.240315,-0.292558
-0.163936,-0.143227,0.300849,0.873356,-0.484013,-0.054601
0.029177,-0.658535,0.392375,-0.864337,0.479221,-0.152544
0.289242,-0.177832,0.198526,0.949740,0.069874,-0.305142
0.347454,-0.109285,-0.004934,0.548839,-0.046446,-0.834636
0.094780,-0.404902,0.689037,-0.203615,0.861435,-0.465264
-0.675895,-0.245668,0.058686,0.716858,-0.111384,0.688265
0.454493,0.141295,-0.789144,0.105030,0.422689,0.900168
0.121646,-0.145874,0.084118,-0.148704,0.434227,0.888445
0.450727,-0.122159,0.246892,0.244671,0.460122,-0.853477
0.414549,-0.651919,-0.154721,-0.388810,0.587250,-0.709904
0.291375,0.006437,-0.409124,-0.696824,-0.122327,-0.706734
-0.554426,0.081345,-0.354162,-0.066647,0.369068,0.927010
-0.033228,-0.304089,0.047039,-0.182597,-0.875396,0.447594
-0.424855,-0.565353,0.375704,-0.660898,0.204102,-0.722188
-0.431181,0.100482,-0.361119,-0.272906,-0.471752,0.838434
0.553290,-0.045368,-0.191620,0.143573,-0.982535,-0.118372
0.341697,0.597619,-0.589420,-0.319365,-0.701084,0.637563
-0.101603,-0.395080,0.949444,0.824353,-0.349544,-0.445265
0.333097,-0.795120,0.127330,-0.063525,0.772483,-0.631850
0.682861,-0.450346,-0.052811,-0.542110,0.840269,-0.008122
0.327340,-0.397674,0.420462,-0.771799,0.391615,0.500963
0.228401,-0.694717,0.467410,0.669655,-0.004038,-0.742661
0.417037,0.319203,-0.236095,0.359147,-0.754670,0.549077
-0.050002,-0.171778,0.633663,0.997458,-0.035309,-0.061886
0.025268,-0.084045,0.431954,-0.395284,-0.052951,0.917032
0.322080,-0.081653,-0.414999,0.682483,-0.005492,0.730881
0.437080,-0.104756,-0.255498,0.899737,-0.405521,0.161329
0.557127,-0.044148,-0.432212,0.015343,0.604870,0.796177
0.449874,0.011578,-0.058299,0.737816,-0.098079,-0.667838
0.092220,-0.414061,0.511834,-0.193463,-0.978112,0.076606
-0.359110,-0.542049,0.358723,-0.072762,-0.712561,0.697827
0.306017,0.072900,-0.049126,0.930705,-0.231813,0.282933
0.489179,0.112390,0.006687,0.705122,0.378523,0.599603
-0.118093,-0.405309,0.768762,0.636055,0.234899,-0.735022
0.157184,-0.162311,0.326385,0.559733,0.011066,-0.828599
0.662248,-0.013867,-0.897162,-0.308581,0.072992,0.948393
0.352784,0.272180,-0.262507,0.917553,-0.396975,-0.022518
-0.068623,-0.714816,0.188889,0.069326,0.854164,0.515361
0.450016,-0.013817,-0.071956,0.789716,0.088127,-0.607109
-0.013682,-0.404240,0.720061,0.111669,-0.985569,0.127215
-0.031167,-0.503015,0.626164,-0.461836,0.886937,0.007062
-0.579729,0.013258,-0.569063,-0.525223,-0.406947,0.747352
-0.445041,-0.244854,0.252226,0.541147,-0.023257,0.840606
-0.572906,-0.347803,-0.079274,0.634962,0.739731,0.222757
0.581293,0.070201,-0.579242,0.209958,-0.546562,0.810671
-0.275099,-0.455027,0.063736,-0.735814,0.646853,-0.200398
0.218380,-0.505255,0.514462,0.449099,-0.836116,0.314992
-0.201464,-0.496654,0.092364,-0.391753,0.399271,0.828923
-0.259107,-0.653341,0.239806,-0.133066,-0.483313,-0.865276
-0.101887,-0.095391,0.040159,-0.083353,-0.040519,0.995696
