-0.730168,0.454032,-0.455055,0.780566,0.426026,0.457403
0.537245,0.552252,-0.966158,-0.091257,0.233841,0.967983
0.265048,-0.265318,0.770128,0.249180,-0.964386,-0.088709
-0.087953,0.143006,-0.949275,0.225323,-0.080396,-0.970961
0.388740,0.378408,-0.958147,0.064793,0.145451,0.987242
0.112649,0.727593,0.606976,-0.113953,0.826515,0.551260
0.232917,-0.145886,-0.948844,-0.122350,-0.012127,0.992413
0.314434,0.890600,0.665230,0.675845,-0.545543,0.495597
-0.140880,0.249064,0.838217,0.928910,0.336106,-0.155432
0.273080,0.846678,0.814997,0.689080,0.723168,0.046870
0.152697,-0.439507,0.667334,0.993756,-0.036983,-0.105264
0.086655,-0.735432,-0.565631,-0.326158,-0.918188,0.224837
0.306755,-0.242492,0.841082,0.992032,-0.098211,-0.078917
-0.404568,0.253330,-0.105354,-0.775669,0.607475,-0.171210
-0.397011,0.717102,0.606900,-0.259977,0.893379,0.366451
0.070942,0.065422,0.925725,-0.732309,0.670264,0.120292
0.577409,-0.668569,0.661098,-0.563238,0.653271,0.505965
-0.576940,0.736123,0.190479,-0.006752,-0.863218,0.504785
-0.260202,-0.475819,0.012421,0.856973,-0.480026,0.187545
0.048496,-0.432821,-0.938501,-0.039619,0.076217,0.996304
0.550361,-0.208830,0.869322,-0.505201,-0.861157,0.056392
0.187309,0.357197,0.577824,0.701516,-0.694794,-0.158544
-0.023330,-0.665225,-0.939059,-0.039420,0.082157,0.995840
0.076379,0.730591,0.752915,-0.678635,0.200177,-0.706671
0.590879,0.156262,0.725056,0.780925,0.616446,0.100752
-0.690589,-0.122485,0.373124,0.685539,0.338316,0.644653
0.487628,-0.384287,0.029558,0.299965,0.948741,0.099557
0.139466,-0.006744,-0.943977,-0.039896,-0.147752,0.988219
0.314311,-0.034757,0.622389,0.214545,-0.248917,0.944463
0.522239,0.145196,0.349245,0.053335,-0.869746,0.490609
0.298246,0.338406,-0.271877,0.712586,0.697820,0.072585
-0.255479,0.596057,0.816924,0.123600,-0.341065,0.931879
0.741272,0.184047,-0.956246,0.119968,0.222453,0.967534
0.858706,-0.425558,0.744093,-0.589430,0.355687,-0.725299
0.717881,-0.253444,-0.952013,0.051792,-0.031909,-0.998148
-0.639673,-0.045592,0.567076,0.041500,-0.993572,0.105324
-0.188139,-0.518474,0.336874,-0.437839,0.549710,-0.711419
0.184122,0.348550,-0.955029,-0.015461,0.204821,0.978677
-0.004431,0.737507,-0.695042,0.797589,0.309419,0.517794
-0.630220,0.348205,0.459263,-0.498760,0.828048,-0.256076
-0.686096,-0.280535,0.091006,-0.466124,0.720799,-0.513007
-0.332389,-0.337021,0.083477,-0.142532,0.973495,-0.178864
-0.011519,0.786155,0.694281,-0.273375,0.704279,0.655178
-0.113594,-0.243645,0.446791,0.907742,0.404950,0.109638
-0.259849,0.298403,0.387244,-0.257043,-0.884325,-0.389741
0.674407,0.772436,-1.000000,0.582409,0.237650,0.777382
-0.298599,-0.457720,0.246958,-0.060176,0.727968,0.682966
-0.167465,0.559399,-0.961012,0.130647,0.131215,0.982708
-0.553664,-0.377945,0.616153,0.982685,0.031684,-0.182554
-0.198060,-0.503372,-0.945371,0.079316,-0.216241,-0.973113
0.641916,0.339213,0.837964,-0.523464,-0.765824,0.373495
0.089726,-0.508904,-0.939211,-0.035804,-0.178982,-0.983201
0.895207,-0.299670,-0.940732,-0.077279,0.110681,0.990847
0.441076,-0.096777,-0.942583,-0.045496,-0.084276,0.995403
-0.680782,0.541070,-0.051004,0.531868,0.367874,0.762749
0.611198,0.567354,0.183989,0.768783,-0.615896,0.172178
-0.964913,-0.295176,0.112148,0.937524,0.250725,0.241218
-0.206807,-0.328723,-0.953559,-0.054690,0.363219,0.930097
0.902064,-0.445847,-0.941670,-0.098925,-0.095056,-0.990544
-0.047436,0.671452,-0.972673,-0.134099,0.117144,0.984020
0.704764,0.840453,0.716107,0.858292,0.485725,-0.165547
0.292931,0.423253,-0.956931,-0.222892,-0.204931,-0.953059
-0.769740,0.484005,0.567684,-0.551731,-0.829553,0.086223
-0.390868,0.143006,0.774691,0.902941,0.342937,-0.259021
-0.677833,-0.007319,0.080004,-0.109073,0.846329,-0.521373
-0.347272,0.073953,0.589637,0.655977,-0.635770,0.406805
0.144903,0.332411,0.453737,0.943569,-0.215228,-0.251705
0.536769,0.070032,0.306708,-0.104460,0.855626,0.506945
0.465888,0.100007,0.298444,0.299829,-0.842597,-0.447362
0.522002,-0.058043,0.510191,0.170012,0.817396,0.550418
0.623016,-0.077757,-0.949554,0.003063,-0.002418,0.999992
0.135212,0.172979,0.329345,0.977540,-0.148026,0.150012
-0.631280,0.309702,-0.178488,0.658391,0.387897,0.645025
-0.235275,-0.102656,0.437006,0.908826,-0.355572,0.218183
-0.508655,-0.478241,0.722369,0.614924,-0.713941,0.334899
0.541146,0.022192,0.404482,0.090371,-0.813015,0.575187
0.411188,-0.102311,0.659932,0.792792,-0.342313,-0.504283
0.558509,0.588334,0.852337,0.087235,-0.986109,-0.141346
-0.530157,-0.376447,0.063020,0.219904,0.788532,-0.574334
-0.288324,-0.031874,0.721735,0.394170,-0.899531,0.188346
0.177978,0.919650,0.738846,-0.327308,0.940477,-0.091502
0.396066,0.181855,-0.876090,-0.394589,0.903410,0.167779
-0.145725,-0.266240,0.659907,0.816391,-0.404331,0.412338
0.309112,0.486772,0.148195,0.699860,0.694555,0.166702
0.354482,-0.041327,0.940098,0.704722,0.642330,0.301296
0.100124,0.308664,-0.030699,-0.043569,-0.982802,0.179449
-0.055108,-0.292178,-0.945701,-0.102993,0.230321,0.967649
-0.661529,-0.037294,0.455055,0.873621,-0.438402,-0.211164
-0.826922,0.341403,0.108497,0.807003,0.404333,-0.430420
0.512195,0.180586,0.615063,-0.091368,-0.836893,0.539687
-0.326246,-0.387629,0.471101,0.249335,0.567699,0.784570
-0.106506,0.718832,-0.678311,0.654430,0.508398,0.559690
0.453010,0.791573,0.829903,0.027914,0.875392,0.482607
-0.520351,0.040982,0.613922,-0.363599,0.820060,-0.441924
0.497550,0.722289,0.642694,0.978898,-0.129490,0.158086
-0.244490,-0.761946,0.491609,-0.625403,-0.742649,-0.239464
0.788178,-0.293214,0.754664,-0.797999,0.220918,-0.560708
-0.565360,0.641017,-0.215195,-0.585003,-0.123788,-0.801529
-0.130128,-0.393970,0.711849,0.930319,0.358994,-0.075038
-0.590049,-0.313850,0.009101,0.557830,-0.682583,-0.472130
-0.029597,0.116490,0.566974,0.705286,0.701964,0.099086
-0.242010,0.716181,-0.971710,-0.058921,0.081913,0.994896
-0.096577,-0.763675,0.438932,0.363796,0.907997,0.207832
0.350581,0.397891,0.029634,0.963378,0.193445,0.185693
-0.200779,0.120411,0.207209,-0.797761,-0.120187,-0.590875
-0.537714,-0.612658,-0.567253,0.651081,0.369379,0.663063
-0.180221,-0.152688,-0.941746,-0.180515,-0.055729,0.981992
0.102136,0.719869,-0.967349,0.038685,0.295001,0.954714
-0.377045,-0.249409,-0.319256,0.470600,-0.802292,0.367239
0.324003,-0.277999,-0.949351,0.080886,-0.103466,-0.991339
0.222634,-0.265202,-0.943470,0.150587,0.192839,0.969606
0.537952,0.037870,-0.117547,0.971882,0.219751,0.084591
0.472500,0.799527,-0.972166,0.006095,0.045407,0.998950
0.143129,0.339213,-0.039926,0.051107,-0.984425,0.168210
-0.130958,-0.320536,0.127281,-0.458654,0.887616,0.042125
0.652905,-0.217936,0.878904,0.962491,0.215915,0.164289
0.321753,0.230965,0.875735,-0.699333,0.146993,-0.699519
0.222281,0.612313,0.262041,-0.092842,0.991677,-0.089206
-0.694958,-0.440659,0.720696,0.415235,0.907511,-0.063266
-0.260318,0.065538,0.571664,0.719723,-0.655949,0.227442
-0.311831,-0.365611,0.119017,-0.383982,0.921469,0.058764
0.554731,-0.821199,-0.929452,0.055732,0.166609,0.984447
-0.212237,0.492306,-0.960403,0.066266,0.035240,0.997179
-0.319035,0.235461,-0.588369,-0.807435,0.405259,-0.428735
0.305218,0.236614,0.105937,0.520093,-0.853211,0.039158
0.670622,-0.591906,0.720163,0.170943,0.982211,0.077714
0.300611,0.301056,-0.731368,0.840681,-0.394612,0.370860
0.217435,-0.244222,0.165078,0.038467,0.968232,0.247079
0.759818,0.350742,-0.361894,-0.568103,0.822777,0.017212
0.452418,-0.165369,0.887726,0.510642,0.808256,-0.293200
0.028414,-0.409533,0.371121,0.974164,-0.044913,0.221330
-0.350935,-0.166752,0.398626,0.001867,0.984931,0.172938
0.555084,0.199148,-0.250634,0.118579,0.986418,-0.113661
0.245319,-0.523775,0.589510,0.556508,-0.749883,-0.357735
0.278402,-0.337021,0.907346,0.490149,-0.006755,-0.871612
0.022386,0.715373,0.369651,-0.564486,-0.815627,0.126921
-0.477584,-0.062654,0.589155,0.745613,0.077911,0.661809
-0.208696,0.506139,-0.634303,-0.601596,-0.306644,-0.737599
0.712328,-0.376102,0.770762,0.922888,-0.030825,0.383833
0.299544,-0.203296,0.683736,0.288451,-0.777355,-0.559030
-0.584144,0.147042,0.676131,0.983473,-0.169577,0.063444
0.364757,0.006169,-0.950289,0.020596,0.006498,0.999767
0.554017,0.093781,0.394215,0.006024,0.844791,0.535063
-0.001597,-0.821660,0.655318,0.830469,0.538783,0.141541
0.503931,0.327570,-0.959618,0.098289,0.068192,0.992819
0.081102,0.487924,-0.959821,-0.098995,0.094563,0.990585
0.417807,0.108536,-0.151592,-0.350394,-0.468694,-0.810895
0.279815,0.567007,0.268886,0.129089,0.990688,0.043284
0.187194,0.263244,0.302018,0.849656,0.464708,0.249263
-0.029597,0.350856,0.854847,0.948820,0.313136,0.041058
0.468253,0.040291,0.616178,-0.127708,-0.207215,-0.969924
-0.759703,0.058045,0.111412,-0.046443,-0.673442,0.737780
0.220507,0.219783,-0.098205,0.065217,0.964758,0.254931
0.515627,0.242953,-0.445827,-0.606996,0.791594,0.070246
0.440607,-0.364690,0.448084,0.963646,-0.230644,0.134867
0.149273,-0.124790,0.640793,0.383714,0.743270,-0.548008
-0.348923,0.368380,0.833046,0.461960,0.871537,-0.164366
0.764902,0.080984,-0.950796,0.037553,0.149999,0.987973
-0.863782,0.405038,0.136053,-0.308101,0.070748,0.948719
-0.800458,0.449998,0.624696,0.830854,0.023477,0.555994
0.673462,0.754223,-0.978655,0.200709,0.115074,0.972869
0.061612,0.166984,-0.694813,-0.475239,0.353508,-0.805718
0.877490,-0.064268,-0.937817,-0.000680,-0.247375,0.968920
0.352709,0.217823,-0.872288,0.288342,-0.936004,-0.201879
0.339123,0.249064,0.023829,0.431412,-0.859469,0.274219
0.241779,0.150614,0.031332,0.609603,-0.786306,0.100535
-0.709610,-0.441581,0.413912,0.595242,0.730406,0.334955
0.545984,-0.374373,0.110398,0.588609,-0.015705,0.808265
0.476877,-0.671911,-0.933913,0.026227,-0.004910,-0.999644
0.646055,0.499683,0.347571,0.462809,0.397127,-0.792526
0.621949,0.003863,0.773499,-0.043418,-0.444489,0.894731
0.844530,-0.460717,0.674990,-0.598208,0.798016,0.072929
0.121273,0.199032,0.292867,0.357725,-0.922284,-0.146373
0.466126,0.196842,-0.368536,-0.552617,-0.749783,-0.363922
0.490815,0.503833,0.768227,0.107603,-0.990762,-0.082533
-0.768558,-0.202490,0.641756,-0.592486,0.663312,-0.457140
0.114185,0.436625,0.818419,0.759373,-0.034537,-0.649738
0.717527,0.215171,-0.957311,0.118244,0.137548,0.983412
0.650425,0.427863,0.684319,0.031337,0.997043,0.070164
-0.073308,0.103926,0.849701,0.916087,-0.166785,-0.364648
0.524251,0.134361,0.044033,0.893209,0.438205,-0.100767
-0.706063,-0.436624,0.691467,0.264844,0.795548,0.544941
-0.686456,0.132399,0.135115,-0.272789,0.049499,0.960800
0.423475,-0.558245,-0.934775,-0.103182,0.196674,0.975025
-0.599265,-0.548676,0.596583,0.777187,0.253436,0.575978
0.490462,0.772783,-0.968820,0.031974,-0.049802,0.998247
-0.449347,0.492536,-0.058482,0.036252,0.216453,0.975620
0.462109,-0.079255,0.701151,0.755443,-0.651817,-0.066631
-0.093274,-0.343247,0.788633,0.729502,0.326245,-0.601159
0.283478,0.846446,0.793500,0.712487,0.591667,0.377216
0.013531,-0.451841,0.346862,0.658948,0.164146,-0.734059
-0.278871,-0.499914,-0.426232,-0.084928,-0.494259,0.865156
0.400789,0.251370,-0.247313,0.646770,0.692426,-0.319743
-0.014000,0.237535,-0.335074,-0.648300,0.495182,-0.578362
-0.228425,0.283532,-0.956474,0.021560,0.061086,0.997900
0.044126,-0.639402,0.565250,0.881604,0.039120,0.470366
0.425010,-0.417373,0.684014,0.968104,-0.125824,0.216665
0.350228,0.450805,-0.386230,0.508990,0.738656,0.441947
0.158135,0.709725,-0.962305,0.102726,0.089428,0.990682
-0.114416,0.831922,-0.972648,0.018875,0.185522,0.982459
0.777542,-0.223701,-0.946284,-0.116539,-0.005402,0.993171
0.239414,-0.722404,-0.936879,0.131057,-0.219383,-0.966796
-0.035740,-0.362844,-0.018480,-0.141440,-0.786566,0.601089
-0.185182,-0.356850,-0.944687,0.047989,0.128827,0.990505
0.344084,0.559399,0.523803,0.796889,-0.551895,0.245724
-0.252646,0.237421,-0.608599,-0.808238,0.336607,-0.483164
0.328610,0.122485,1.000000,0.178424,-0.746540,0.640970
-0.120913,0.166409,0.575695,-0.159922,0.770503,0.617050
0.458208,0.316041,-0.100461,0.981817,0.152768,0.112682
-0.649595,-0.340135,0.648803,0.550574,0.763406,0.337755
-0.115245,-0.324110,0.502788,0.049577,-0.992278,0.113692
0.644750,0.575538,0.176080,-0.414142,0.905167,-0.095708
0.048027,-0.724480,-0.937766,-0.016694,-0.001778,0.999859
-0.065982,-0.475474,-0.938299,0.013345,0.238874,0.970959
-0.039872,0.032683,-0.398094,-0.495480,0.670247,-0.552511
-0.114301,0.208370,0.621857,0.896373,-0.440742,0.047552
-0.410834,-0.238227,0.682493,-0.028887,-0.870484,0.491348
0.136986,-0.081215,-0.942253,-0.019217,0.063970,0.997767
0.413668,0.280304,0.552854,0.938952,0.257890,0.227732
0.372913,0.057928,0.770407,-0.720727,0.187966,0.667249
0.836728,0.212981,-0.960505,0.054194,0.243059,0.968496
0.472622,-0.248832,0.683710,-0.594720,-0.124817,0.794185
-0.666606,0.437432,-0.465220,0.820125,0.190683,0.539476
0.347863,0.084789,0.368029,-0.260496,0.952874,-0.155476
0.072240,0.035795,0.863035,0.595323,0.800179,0.072831
-0.584259,0.725403,0.621198,-0.244412,0.960105,-0.135874
0.309942,-0.056545,0.026592,0.359611,0.759406,0.542201
0.356487,0.402962,0.076024,-0.646930,0.402786,-0.647492
0.761001,-0.110957,0.685130,0.407214,0.172641,-0.896868
0.170537,0.669723,-0.967882,0.124946,0.158671,0.979394
0.649595,-0.612542,-0.936803,0.022800,0.133854,0.990739
0.255717,-0.219898,0.099194,0.984445,-0.103480,0.141986
-0.280875,0.010319,0.035236,-0.133454,-0.981864,0.134663
-0.141709,0.734971,0.599523,0.089848,-0.985409,-0.144553
-0.560752,0.370454,0.601754,0.284310,0.813161,0.507876
0.048733,0.512594,-0.355024,-0.662063,-0.114767,-0.740608
0.216491,0.143928,0.656383,-0.076160,-0.854137,0.514441
0.560521,-0.481469,-0.940022,0.046926,0.076211,0.995987
0.087722,0.140009,0.761762,-0.495895,-0.236922,-0.835438
-0.093389,0.527812,-0.964130,0.057226,0.177966,0.982371
-0.336996,-0.229235,-0.366280,0.429232,0.849262,-0.307431
-0.402326,0.128827,0.654279,0.570456,-0.615400,0.543932
0.534880,-0.980287,-0.924584,-0.070647,0.127718,0.989291
-0.207514,-0.345206,-0.014576,-0.099073,-0.813469,0.573108
0.869334,-0.132400,-0.949250,0.055386,0.008986,0.998425
0.029950,-0.449651,0.580460,0.587356,0.613738,0.527579
0.741863,0.066460,0.546187,-0.085652,0.992123,-0.091408
-0.105439,-0.244336,0.286757,0.792345,0.607631,0.054525
-0.149150,-0.207447,0.374392,-0.456147,0.708595,0.538353
0.303798,-0.575767,-0.940808,-0.048479,0.194392,0.979725
0.828817,-0.568160,-0.932139,-0.046358,0.151352,0.987392
0.715869,-0.556631,-0.937944,0.132147,-0.060441,-0.989386
0.513147,0.138971,0.342704,-0.335847,0.936944,0.096655
-0.191801,0.107961,0.749087,0.840252,-0.378296,-0.388418
0.340306,-0.109805,-0.937969,0.109848,0.017339,0.993797
-0.208343,-0.078102,-0.944788,-0.232089,0.027659,0.972301
0.201493,-0.151190,-0.945143,0.230200,0.135115,0.963718
-0.030065,-0.642283,-0.937183,0.058598,-0.000986,0.998281
0.753797,-0.625108,0.761838,0.131393,0.541596,0.830307
0.359443,0.710530,-0.972774,0.288093,0.039429,0.956790
-0.658573,-0.480892,-0.438273,-0.490845,-0.721372,0.488563
0.165691,0.599401,0.736463,0.436853,-0.823869,0.361109
0.107212,0.336793,0.925167,0.574169,0.556419,-0.600606
0.392995,0.198687,0.803412,0.885138,-0.405722,0.227861
0.308291,0.060696,0.744043,0.417543,-0.051764,-0.907181
0.906671,0.119027,-0.942076,0.178038,0.602652,0.777890
0.219094,0.585336,0.574655,0.790941,0.298861,-0.533942
-0.907025,0.302899,0.529710,0.947454,-0.270544,0.170693
0.675820,0.696120,0.364378,-0.761946,0.195607,-0.617395
-0.264457,-0.564124,-0.042714,-0.012115,0.737992,0.674701
0.519405,0.204682,-0.698743,0.481829,-0.871411,-0.092107
0.889655,-0.344169,0.751166,-0.037183,-0.662945,0.747744
0.345620,-0.090668,-0.949452,0.081743,-0.089055,0.992667
-0.604348,-0.619805,0.620031,0.600345,0.790688,0.119994
0.341719,0.551329,-0.963065,-0.277570,-0.356191,-0.892235
-0.604348,0.091822,0.089460,-0.094782,-0.235884,0.967148
0.107919,-0.420370,0.776998,-0.902814,0.141232,-0.406178
-0.044126,0.280074,0.881616,0.926757,-0.206657,0.313710
-0.445568,0.623956,-0.080308,-0.340698,-0.443247,-0.829130
-0.700510,0.399504,0.597419,0.091752,0.771971,0.629001
-0.251578,0.346706,-0.059547,-0.366688,-0.437443,-0.821087
0.441790,0.491959,0.825999,0.702658,0.696412,-0.145884
0.588398,-0.280996,0.538836,0.962020,0.118190,0.246065
-0.104970,-0.284108,0.584973,0.907948,-0.417552,0.035778
-0.396298,-0.225891,0.389602,-0.084116,0.945320,0.315110
0.381537,0.057584,0.737959,0.487079,-0.872309,0.042789
-0.087131,-0.729091,-0.939363,0.103333,0.105715,-0.989013
-0.488335,0.560207,0.448438,0.741749,0.437085,0.508690
0.090909,-0.744308,0.458528,0.589554,0.789813,0.169178
-0.057949,-0.479279,0.427905,0.961319,-0.229627,0.152111
-0.287372,-0.727938,0.487959,-0.647583,-0.718353,-0.254175
0.386966,-0.063808,0.795072,0.916111,-0.359667,-0.177145
-0.158841,-0.188772,0.438552,-0.360652,-0.001487,0.932699
-0.242363,-0.235230,-0.592831,0.132119,-0.053523,0.989788
-0.105201,0.458298,0.655116,-0.489627,0.868101,0.081646
0.457855,-0.623263,0.713953,0.256121,0.344868,-0.903033
-0.734300,-0.131592,0.026110,0.652531,0.748823,-0.116048
0.398309,0.284801,-0.221279,0.699089,0.713650,0.044473
-0.052397,-0.485157,0.697019,0.871163,0.341599,0.352683
-0.037507,-0.639863,0.637700,0.775509,0.047532,0.629544
0.110760,-0.597671,0.736869,-0.223945,-0.614490,-0.756473
0.122571,0.860512,-0.974245,-0.204111,0.069051,0.976509
0.183653,0.397430,0.530597,0.967646,-0.228513,-0.106969
0.138168,0.648510,0.568495,0.776292,0.619054,0.118927
-0.541968,0.322958,-0.071791,-0.430306,-0.665938,0.609396
0.027116,0.569083,-0.680694,0.789352,0.235536,0.566962
0.684329,0.004900,-0.948920,0.148232,0.247556,0.957467
-0.171359,0.370223,0.775096,-0.481026,-0.053720,0.875059
0.379410,0.124907,0.855531,-0.379385,0.919916,-0.099101
0.989725,-0.336445,0.706018,0.950919,0.307396,0.035515
0.190266,0.400312,0.941087,-0.287391,0.948716,-0.131694
0.243077,0.115569,0.893987,0.194394,-0.881164,-0.430999
-0.046960,-0.086633,-0.941695,-0.077317,0.095314,0.992440
0.046844,0.172057,0.701480,0.771461,-0.433297,0.465942
0.070589,0.774051,-0.974980,0.084431,0.212231,0.973565
0.363344,0.666609,0.712254,0.878645,-0.361973,-0.311383
-0.379641,-0.062309,0.577013,-0.534236,0.353396,-0.767921
0.409774,0.104042,0.968820,-0.574783,0.798049,-0.180951
0.804950,-0.209868,-0.948996,-0.122686,-0.023147,0.992176
0.230790,-0.707878,0.536681,0.071240,0.197692,0.977672
0.555438,0.532308,-0.961823,0.074476,0.078051,0.994164
0.133438,-0.171248,-0.935865,-0.106155,-0.076812,-0.991378
0.373973,0.415413,-0.960911,0.094944,0.103017,0.990138
0.981331,0.050321,0.721912,0.933387,0.337268,0.122633
-0.514560,-0.577382,0.596887,0.230739,-0.948564,0.216764
0.188023,0.219667,-0.709237,-0.421338,-0.025380,-0.906548
0.391697,0.479855,0.869474,0.547148,-0.542395,0.637523
0.602812,0.382559,0.180288,0.991198,0.025516,0.129903
0.045071,0.247565,-0.690098,0.672456,-0.173071,0.719617
0.733946,-0.211597,-0.949655,-0.113084,0.004332,0.993576
-0.047666,0.452304,0.825745,-0.427607,-0.426087,0.797246
-0.595839,-0.078562,-0.403772,-0.355997,0.593604,0.721734
-0.591823,-0.571041,-0.017365,-0.557852,-0.818755,0.135798
-0.567249,-0.195919,0.644824,0.936751,0.334726,-0.102257
0.591592,-0.625914,0.675345,-0.609600,0.635259,0.474167
0.051567,-0.227275,0.547835,0.900660,0.202907,0.384239
-0.655854,0.330106,0.439084,0.729247,-0.592274,0.342652
0.347632,0.126521,0.315605,0.123761,0.984572,0.123698
0.090909,0.419795,0.915078,0.168546,-0.984332,0.051799
-0.287733,0.763907,0.780952,0.986202,0.163714,0.024558
0.304743,-0.330796,0.893911,0.945778,-0.324802,-0.002867
0.121035,-0.199377,-0.431708,0.184306,-0.323875,0.927974
0.571388,-0.028301,0.749392,0.927915,0.127608,-0.350272
0.394055,0.180586,-0.315352,0.962713,-0.142042,0.230236
0.439071,0.382790,0.855329,-0.627651,-0.374795,0.682336
0.466357,-0.170556,0.873428,-0.184431,-0.951212,-0.247346
0.440607,0.189925,-0.742116,0.713971,-0.346325,-0.608527
0.337234,0.075336,0.453559,0.665532,-0.744359,0.054737
0.190857,0.459104,0.649488,0.990837,-0.134169,0.015497
0.434225,0.824775,0.069459,-0.619192,0.785194,-0.008476
-0.354360,0.240533,0.743054,-0.265511,0.713101,-0.648838
-0.370195,0.461871,-0.217780,-0.287854,-0.596046,-0.749580
-0.589105,-0.065421,-0.571715,0.158799,-0.255487,0.953682
-0.083345,0.205718,0.770457,0.604999,0.709334,-0.361693
0.130957,0.386017,-0.145153,0.237817,0.946371,0.218689
0.484196,0.131938,0.286453,-0.338540,0.931846,0.130588
-0.334040,0.005822,0.057240,0.107103,0.723952,0.681486
0.203144,-0.289872,0.687918,0.841847,-0.531107,0.096015
-0.163918,-0.254596,0.723712,0.672898,-0.739698,-0.007453
-0.067042,-0.105884,0.805212,0.879195,0.460356,0.122839
0.205862,0.237074,0.262016,0.261367,0.952887,-0.153925
0.387442,-0.130785,0.214967,0.801908,-0.474346,0.363234
0.133322,0.090898,-0.943419,0.421864,-0.232677,-0.876295
-0.723080,-0.200645,0.635292,0.372464,-0.834139,0.406796
0.617341,0.251370,-0.616812,-0.383079,0.916002,0.119123
0.247093,0.251484,-0.228478,0.038899,0.722889,0.689869
0.547289,0.445387,0.817583,0.767429,-0.638946,0.052927
0.160492,-0.018041,0.907144,0.852387,-0.427032,-0.301795
-0.460927,-0.178511,0.615063,-0.220220,-0.744982,0.629687
0.013531,-0.524352,-0.942278,-0.092034,0.182467,0.978895
-0.251110,-0.019079,-0.948793,-0.419904,0.202655,0.884654
-0.182348,0.623034,0.745817,0.815483,-0.553363,-0.169637
0.126472,0.840337,-0.976374,-0.148749,0.165172,0.974983
-0.481831,0.030262,0.126141,-0.189778,-0.902392,0.386876
0.264219,0.252406,0.909476,0.403840,0.316231,-0.858435
-0.624545,0.095971,0.695118,-0.292673,0.918785,-0.264908
-0.099295,0.531617,-0.108345,-0.102729,0.850081,0.516535
-0.140173,-0.478932,0.745057,0.708482,0.639771,-0.297903
-0.321162,0.322152,0.679375,-0.216405,0.580043,-0.785315
0.040347,-0.486886,0.796770,-0.668789,0.706132,-0.232590
0.576111,0.188773,-0.754360,0.925506,0.318127,0.205510
0.602459,0.672027,0.262624,0.912690,-0.310709,0.265439
-0.015535,0.842182,-0.971025,0.055436,0.167274,0.984351
0.226297,0.188887,0.143581,0.586348,-0.805472,-0.086081
0.885761,0.037179,-0.955612,-0.010014,0.252849,0.967454
0.564653,0.439853,0.091209,-0.774038,0.630702,-0.055499
-0.143360,0.527351,0.686955,0.976387,-0.212263,0.040149
0.131671,0.897400,-0.975056,-0.252183,0.148800,0.956171
0.271898,0.691396,-0.972876,-0.025894,0.157879,0.987119
-0.593474,-0.152111,0.703204,0.859671,0.454666,-0.232904
-0.771045,0.479048,0.029431,0.922749,-0.095406,0.373407
0.571626,0.222203,-0.959973,-0.184443,0.193503,0.963606
-0.086179,-0.262204,-0.948236,-0.085112,-0.019258,0.996185
-0.335460,-0.107382,0.287137,0.168842,-0.939094,-0.299323
0.069529,-0.408957,0.519621,0.346274,0.938055,-0.012113
-0.813812,-0.038446,0.087660,-0.014122,-0.851695,0.523847
-0.667081,-0.331834,0.095113,-0.687738,0.694372,-0.211811
0.351057,0.087210,0.468870,0.992233,0.031574,0.120318
-0.407762,-0.487463,0.556454,0.894702,-0.227721,-0.384254
0.966802,0.010663,-0.953103,-0.163051,0.406338,0.899057
-0.197707,-0.499337,-0.941848,-0.123243,0.217689,0.968206
-0.030656,-0.806098,-0.942608,0.011146,0.215976,0.976335
0.482545,0.508445,-0.964637,0.022930,0.209717,0.977493
0.632463,0.253213,-0.561017,-0.434134,0.900846,0.002146
-0.577294,0.176898,0.189465,-0.178603,0.036766,0.983234
0.971171,-0.316042,-0.944281,-0.118089,0.162192,0.979668
0.709019,0.731166,0.540103,0.922866,-0.227377,0.310834
0.148681,0.325841,0.522409,0.840297,0.495308,-0.220390
0.027116,0.720330,0.625963,0.326514,-0.168201,0.930106
0.185305,-0.362384,-0.941898,-0.031008,0.247488,0.968395
-0.858699,0.557670,0.501065,0.334697,0.825135,0.455116
0.248506,0.188657,0.015210,0.661359,-0.717464,0.218748
0.527439,0.415413,0.068394,-0.017425,-0.987734,0.155169
0.869810,0.215748,0.745868,0.864165,-0.050844,0.500633
0.158603,0.322613,0.743054,0.050409,-0.143157,0.988415
0.436115,0.634100,-0.975360,0.119769,0.250271,0.960739
0.624315,-0.431552,0.739505,-0.607378,0.226179,0.761534
-0.232203,0.194421,0.604238,0.119304,0.953523,-0.276697
0.121865,0.258747,0.246654,0.370057,0.927036,0.060506
0.425602,-0.000864,0.319915,-0.745080,0.414655,0.522415
0.455966,0.678715,-0.976602,-0.016540,-0.013672,0.999770
0.102136,-0.556170,0.765337,0.767137,0.463234,-0.443752
0.189559,0.514785,0.730329,0.721393,-0.228126,0.653874
0.626088,0.480663,0.770178,0.767972,-0.591811,0.244904
-0.166283,0.063923,0.639779,0.882652,0.445050,-0.151180
0.566189,-0.920801,0.290053,0.873501,0.382177,-0.301557
-0.464114,-0.021615,0.632149,0.986474,-0.148789,0.068777
-0.220623,0.734279,0.812056,0.747440,-0.000041,-0.664329
-0.597491,-0.251715,-0.429933,0.774970,-0.306434,-0.552739
0.096815,0.312813,0.675573,0.969416,-0.093991,0.226713
-0.096577,0.352010,0.280141,-0.605630,-0.694786,-0.387924
0.038336,0.065306,0.477667,-0.524405,-0.846669,0.090279
0.329555,0.952736,-0.988111,0.017633,0.190525,0.981524
-0.423828,0.167330,0.323945,0.901580,-0.413418,0.127434
0.593128,0.367917,0.752155,0.786989,-0.511148,0.345509
-0.023922,-0.098392,0.570346,-0.595677,0.781059,-0.187392
-0.190266,0.373912,-0.959035,-0.105061,0.094355,0.989979
-0.476401,-0.433051,0.662923,-0.444643,0.893629,0.060986
0.625850,0.536688,0.817025,0.942164,-0.330428,0.056082
-0.095279,-0.213210,-0.940681,-0.018127,-0.145568,0.989182
0.545278,-0.526197,-0.935814,-0.070640,-0.208191,-0.975534
-0.390038,0.302785,0.734106,0.122347,0.273736,0.953992
0.679130,-0.738544,-0.930820,-0.045814,0.120698,0.991632
0.572571,0.065653,-0.957387,0.072119,-0.094903,0.992871
0.113471,0.409995,0.602464,-0.086648,-0.638426,0.764790
0.136156,-0.162372,-0.429604,0.184306,-0.323875,0.927974
-0.346327,0.505794,0.616888,-0.425078,0.044392,0.904067
-0.020972,-0.292639,-0.944509,-0.017646,0.294258,0.955563
0.795144,-0.632139,-0.933102,0.253808,-0.106235,-0.961403
-0.572448,0.706497,-0.217223,-0.640557,0.654337,0.401908
0.020143,-0.697389,-0.042613,-0.484143,0.575432,-0.659154
0.353415,0.427979,0.911707,0.912650,0.388496,0.127042
0.180344,-0.051011,0.794362,-0.238224,0.742124,0.626499
0.221928,0.762753,-0.972419,-0.056471,0.142350,0.988204
0.150217,0.265317,0.330384,0.794874,-0.559932,0.233778
0.589819,-0.072569,0.812994,-0.181910,0.976649,0.114308
-0.078146,0.011817,0.822146,0.147002,0.436998,0.887369
0.089135,-0.215516,0.793652,0.822356,0.567721,0.037738
0.105208,-0.103810,-0.353453,0.096313,0.013388,0.995261
0.413076,-0.041213,-0.943419,0.012623,-0.051825,0.998576
0.173017,-0.647703,0.622719,0.322214,0.007793,0.946635
0.484909,-0.141736,0.826556,0.000426,-0.991460,0.130409
0.560636,0.597325,0.223332,0.359396,-0.715615,0.598941
-0.204319,-0.034871,0.226551,0.807439,0.282502,0.517915
-0.572448,0.160759,0.664951,-0.630878,-0.419337,0.652801
0.066097,0.418296,-0.959719,0.048482,0.094910,0.994305
0.067280,0.819011,0.557671,0.847046,-0.527746,-0.063221
-0.017425,0.255520,-0.665813,-0.621493,0.338714,-0.706413
0.543980,0.104963,-0.079649,0.994551,0.051588,0.090591
0.243192,-0.857512,-0.926739,-0.103925,0.120119,0.987305
0.233270,0.766327,-0.972597,0.048797,-0.083280,-0.995331
0.067993,0.092513,0.784552,-0.111994,-0.961778,0.249880
-0.039165,0.886795,-0.274691,-0.625438,0.136297,-0.768278
0.304743,-0.214594,0.233649,-0.667448,0.743800,-0.035709
0.426308,0.380598,-0.094631,0.644133,0.763634,-0.044219
0.365111,0.526083,0.126420,0.769391,0.632896,0.086490
0.501090,-0.211020,0.578154,0.944348,-0.258200,-0.203812
-0.133323,0.106807,-0.954091,-0.126485,0.183013,0.974940
0.201608,0.181741,0.811549,0.229430,-0.139429,-0.963287
0.286903,-0.159030,-0.943292,-0.120894,-0.023572,0.992386
-0.057473,0.111533,0.657346,0.364714,0.646119,-0.670458
0.129775,0.014468,0.501851,0.830367,-0.497540,0.250885
0.398785,0.623956,-0.972825,0.233101,0.332787,0.913738
0.390038,0.082253,0.254005,-0.190821,0.950910,-0.243633
-0.549648,0.383134,0.106824,0.870033,-0.438970,0.224385
-0.330615,-0.262321,0.680465,0.170781,0.759731,-0.627409
0.172542,0.449190,0.553032,-0.508669,0.860962,-0.000653
0.146201,-0.239840,-0.946132,0.056935,0.001824,0.998376
0.843700,-0.022998,-0.939845,-0.183931,-0.088435,0.978953
-0.371961,-0.502334,0.573489,0.876769,-0.437182,0.200368
0.640856,0.332641,0.723408,0.794880,-0.561115,0.230903
0.406464,0.394086,0.949985,-0.316149,0.112295,-0.942040
0.441790,-0.109112,0.846507,0.452814,0.863265,0.223009
0.577531,0.178973,-0.782042,0.916901,0.103409,-0.385487
0.319864,-0.455876,0.495285,0.946049,0.295378,0.133200
0.253943,0.046402,0.839612,-0.246559,0.800757,-0.545890
0.494716,0.271429,-0.956474,-0.170344,-0.207106,-0.963374
0.494832,0.399159,0.710404,0.453827,0.830527,-0.322901
-0.496836,-0.588909,0.584744,-0.584818,0.562089,-0.584845
0.883987,-0.226814,0.755983,0.028093,-0.130859,0.991003
-0.156714,-0.204103,0.175700,0.853573,-0.021269,0.520538
0.578829,-0.032335,-0.937665,-0.065444,-0.006799,0.997833
0.397602,-0.970372,0.209846,0.926601,0.288387,-0.241335
-0.635181,-0.536456,0.711620,0.730327,0.492050,0.473824
-0.476163,-0.395239,0.600259,0.777326,0.624003,-0.079906
-0.411065,-0.471208,-0.040534,0.035550,-0.088671,0.995426
0.563355,-0.507291,0.719707,0.977684,0.152840,-0.144133
0.654087,-0.020578,0.782828,-0.578593,-0.585478,0.567842
0.855043,-0.454262,0.723408,-0.180020,0.895640,0.406721
0.603641,0.878841,-0.977794,-0.081106,-0.048310,-0.995534
-0.269064,-0.294138,0.193673,0.807627,-0.301708,0.506666
0.445684,0.103695,0.317228,-0.013773,0.979131,0.202764
0.250518,-0.377254,0.113364,0.931658,0.079607,0.354508
0.503809,-0.270044,0.924939,-0.723100,0.295296,0.624441
0.473805,0.191308,-0.958528,0.229342,0.253624,0.939722
0.586393,0.534382,0.493434,0.794661,-0.606008,0.035610
0.361095,-0.489192,-0.941949,-0.097128,0.198023,0.975373
-0.768327,0.437316,0.053716,0.925910,-0.117171,0.359112
0.480064,-0.083635,0.729264,-0.697640,0.654379,0.291696
0.940576,-0.242146,0.786326,0.837564,0.526455,-0.146058
0.191686,0.156493,-0.358117,-0.502884,0.356451,-0.787433
-0.845352,0.255750,0.083021,0.876049,0.327364,0.354078
0.429856,0.235576,-0.253980,-0.505459,-0.859501,0.075960
-0.384839,0.136090,-0.572222,0.796853,-0.385341,0.465337
-0.009983,0.077757,0.488111,-0.613163,-0.773744,-0.159220
0.560283,-0.110726,-0.950010,0.119984,0.091940,0.988509
-0.143836,0.522278,-0.146446,-0.441387,0.863847,-0.242787
-0.335692,-0.355006,-0.017289,0.057280,-0.818123,0.572183
0.066097,-0.331834,0.762117,0.952183,0.105624,0.286689
0.549409,0.464177,0.084998,-0.736171,0.676746,-0.008164
-0.242125,0.097009,0.814997,0.136714,0.850505,0.507889
0.515036,0.218284,-0.725639,-0.607876,0.787026,-0.105248
-0.002181,0.230274,0.792055,0.732870,0.131621,-0.667515
0.184951,0.094473,-0.933026,-0.038449,-0.469129,0.882292
0.551183,-0.610121,0.661732,0.357884,-0.425319,-0.831278
0.312184,0.347051,-0.227591,0.666970,0.744291,0.034389
-0.619822,0.550637,0.458071,0.775817,0.492371,0.394561
0.596553,0.468557,0.461544,0.928838,-0.332378,-0.163663
0.363344,0.946972,-0.981672,0.067424,0.326565,0.942767
-0.436115,0.752724,-0.088496,0.113490,0.732968,0.670729
-0.147737,-0.547754,0.346431,-0.353645,0.846415,-0.398141
0.720714,-0.263819,0.633948,-0.719765,0.425116,0.548831
0.654203,-0.225891,-0.950035,0.029007,0.030273,0.999121
0.481362,-0.149576,0.385419,0.810138,0.140519,0.569150
-0.560752,0.420833,-0.504056,0.780277,0.271444,0.563459
-0.100947,-0.689549,0.615038,-0.115684,0.897600,0.425360
0.651607,-0.325379,-0.941619,0.064346,0.195195,0.978651
0.441429,0.087556,0.418728,-0.360354,-0.920184,-0.152990
0.333449,-0.317885,-0.945523,-0.035110,0.137169,0.989925
-0.226060,0.752839,0.582007,0.185563,0.982457,-0.018561
0.475810,0.020693,-0.950314,-0.109186,-0.150425,-0.982574
0.304981,-0.592483,0.603250,0.340704,0.912047,0.228235
0.431861,0.035103,0.280470,-0.612962,0.788838,0.044847
0.567725,0.548561,0.464383,0.919538,-0.386624,-0.070511
0.622302,0.693125,0.243891,0.593331,-0.751640,0.288089
-0.709372,-0.254596,0.657220,0.194412,0.910469,0.365036
0.608718,0.705229,-0.976704,0.129930,0.072168,0.988893
0.388502,-0.531615,-0.941315,0.047732,0.117978,0.991868
0.499677,-0.017119,-0.946537,-0.115742,-0.059067,-0.991522
0.387327,0.675140,-0.973611,0.413138,-0.054988,0.909007
-0.767613,-0.073491,0.694078,-0.660610,0.655613,-0.365740
-0.573155,-0.611504,0.188856,0.248031,-0.952489,0.176766
-0.699450,0.000749,0.394266,0.866327,0.496221,0.056952
0.347863,0.025997,0.570118,0.926280,-0.368387,0.079348
-0.334393,-0.718600,0.549407,0.875568,0.181337,0.447771
-0.465650,0.236844,0.594986,0.794100,0.419401,0.439895
-0.285130,0.391550,0.690200,0.875963,-0.057138,0.478983
0.925571,0.293216,-0.962001,-0.042950,-0.062330,-0.997131
0.150924,0.091475,0.053032,-0.783971,0.271471,-0.558295
-0.091147,0.023807,0.724371,0.946442,-0.053617,0.318391
0.211883,0.109574,0.405749,0.102471,0.475273,0.873851
0.519874,0.391205,0.843338,0.289252,-0.917039,0.274541
-0.041408,-0.025765,0.643227,0.799932,0.432496,0.416000
-0.726858,0.292755,0.131008,-0.013709,-0.144487,0.989412
-0.162620,0.227968,-0.955207,-0.070265,0.075132,0.994695
-0.147737,0.170903,0.745234,0.970223,0.242196,-0.002982
-0.630098,-0.315811,0.066138,0.247410,0.246990,0.936902
-0.594895,-0.573231,0.732889,-0.093031,-0.420145,0.902676
0.354129,0.705343,0.465119,0.731079,-0.680960,0.042616
0.305096,-0.406191,-0.946208,0.120168,0.037579,0.992042
0.026993,0.681827,0.307316,0.527829,-0.820018,0.221286
0.719893,0.164679,-0.956119,0.012724,0.269599,0.962889
0.309351,-0.052279,0.631464,0.914084,-0.151133,-0.376310
-0.249213,-0.261859,0.762447,0.578498,-0.617428,0.533031
-0.114416,-0.611967,-0.936093,-0.081144,0.112097,0.990379
-0.316554,-0.284799,0.236691,-0.657795,0.745413,0.108004
0.407171,0.095395,0.767618,0.593312,0.558704,-0.579509
0.690357,0.492536,-0.968997,0.087283,0.172149,0.981196
0.755095,0.001557,-0.935561,-0.259450,-0.474435,0.841188
0.129775,-0.389821,0.760520,0.961690,-0.228476,-0.151498
0.076733,0.136781,0.375152,0.870384,-0.422538,0.252771
0.416386,0.876995,-0.976171,-0.014363,0.397231,0.917606
0.329432,0.065653,0.404406,-0.357485,0.878212,0.317723
-0.113471,0.343593,-0.953990,-0.153841,0.112998,0.981613
-0.069169,0.537149,0.757554,0.616471,0.787374,0.002298
-0.454661,-0.308548,0.546390,-0.150239,0.984170,0.094010
0.078622,0.305783,0.704091,-0.626787,0.672779,0.393072
0.480180,0.137011,0.262776,-0.143953,0.958562,-0.245838
0.008209,0.570120,-0.964992,-0.094642,0.119758,0.988282
-0.657866,-0.395353,-0.011433,-0.721421,-0.550672,0.419896
0.565951,0.235461,0.647004,0.439727,0.846173,-0.301052
0.689052,0.423253,-0.965017,0.138797,0.249322,0.958423
-0.384839,0.081908,0.628726,0.784791,-0.562015,0.261233
0.115721,0.471670,0.876546,-0.533633,0.738309,0.412475
-0.609309,-0.418295,0.479061,0.246518,0.732254,-0.634849
0.043181,-0.668683,0.784248,0.696773,-0.388712,0.602835
-0.449231,0.411147,0.352439,-0.467245,-0.866894,-0.173716
0.184122,0.290795,0.301460,-0.330207,0.942086,0.058630
-0.247677,-0.270389,0.427145,0.656406,0.749558,-0.085406
-0.111582,-0.170096,0.733320,0.620439,-0.775532,0.116641
0.266468,0.416336,0.839713,-0.079466,0.680654,0.728283
-0.198767,0.692893,0.689110,0.824271,0.475714,0.307039
0.112296,-0.409993,0.772080,0.956090,-0.039933,0.290340
0.329079,-0.573924,0.617015,0.416491,0.900702,0.123580
0.215431,0.686437,-0.969529,0.057925,0.164664,0.984647
-0.264925,-0.565276,0.359993,-0.101314,0.983233,0.151622
0.129775,-0.219435,-0.426688,-0.174159,0.161258,-0.971424
0.352593,0.043635,0.283284,0.220717,0.960116,0.171643
-0.888472,0.348897,0.644824,-0.732423,-0.412748,-0.541475
-0.436115,-0.356965,0.547810,0.251410,0.940021,0.230552
-0.130604,-0.005706,0.012421,0.353358,-0.789045,0.502539
0.457148,0.292408,-0.137827,0.991074,0.069259,0.113906
0.387918,0.148538,-0.849650,-0.750906,0.637403,0.172796
-0.398785,0.098969,0.257529,0.697091,0.365747,0.616679
0.572571,0.140700,-0.417258,0.758267,-0.633904,-0.152305
0.653850,-0.162258,0.736032,0.374834,0.616943,0.692013
-0.689997,0.209523,0.128042,0.410007,-0.145098,0.900467
0.212006,0.213097,0.866406,0.995054,0.009970,0.098830
0.145256,0.264396,-0.065301,0.072591,-0.968697,0.237397
0.707130,0.027840,0.413937,-0.673171,0.286380,0.681782
-0.024160,0.523432,0.221304,-0.665656,0.744634,0.049225
-0.057005,-0.543144,0.716462,0.729915,0.683272,0.019097
0.776598,-0.049628,-0.951506,0.273527,-0.095671,-0.957095
0.751670,0.016427,0.455790,0.796632,0.456083,-0.396693
-0.806248,0.257363,0.505222,0.716781,0.684620,0.132362
-0.607297,0.502334,0.594656,0.332624,0.839050,0.430531
0.848546,-0.325955,-0.947475,0.209133,-0.109196,-0.971771
0.543504,-0.471555,0.607940,-0.083041,-0.715373,0.693791
-0.457379,0.092052,0.264855,-0.700458,0.123929,-0.702852
-0.324472,0.514440,0.769849,-0.108286,-0.863292,0.492951
-0.741626,0.483197,0.528772,-0.139391,-0.759083,0.635895
0.282649,0.001096,0.782929,0.453805,0.749175,0.482491
0.434225,0.224971,-0.377712,-0.465462,-0.335868,-0.818864
0.098704,0.024382,-0.947551,-0.367969,-0.156162,0.916631
0.516334,0.150844,-0.667892,-0.651445,0.752993,-0.092849
-0.022148,0.150384,-0.950542,-0.036852,-0.054562,0.997830
0.477822,-0.164678,-0.947526,-0.022691,0.196499,0.980241
0.286435,-0.534152,0.263182,0.848746,0.382667,0.364960
-0.363575,-0.509135,0.265692,0.109469,0.661484,0.741927
-0.252170,-0.312237,0.001344,-0.108157,0.862195,-0.494895
0.226297,0.509828,-0.955384,0.041809,0.163846,0.985600
0.389094,0.111419,0.900248,0.947893,0.184506,-0.259725
0.252292,0.670644,-0.966107,0.019664,0.144033,0.989377
0.026763,-0.072223,0.913608,0.673091,0.679083,-0.292907
-0.111698,0.029800,-0.945473,-0.019608,0.342862,0.939181
-0.135919,-0.819470,-0.069535,0.040869,-0.980032,0.194595
0.462225,0.151882,0.294793,0.185268,-0.948689,-0.256250
-0.032899,0.792497,-0.969580,0.046162,0.210610,0.976480
0.121980,0.656118,-0.963294,0.115017,0.045354,0.992328
-0.098589,0.161912,0.753397,-0.182678,-0.968740,0.167846
-0.766077,-0.291371,0.458756,0.830217,0.071447,0.552843
0.225475,-0.022884,-0.724878,-0.362069,0.482529,-0.797541
0.202437,0.877572,-0.975563,0.139050,0.213961,0.966895
-0.356602,-0.156146,0.336215,-0.272356,0.952186,0.138438
-0.522946,-0.645858,0.645280,-0.235499,-0.921283,-0.309481
-0.255717,0.109460,-0.952799,0.004812,0.156201,0.987714
0.549770,-0.823158,0.690479,-0.634426,0.695177,-0.337983
-0.114063,0.531847,0.694433,0.410258,-0.911891,-0.011960
-0.519521,-0.190270,0.479188,0.879424,0.387129,0.277029
-0.811325,0.075106,0.126724,-0.331934,0.770480,0.544224
0.136632,0.377486,0.880577,-0.585342,-0.730551,-0.351667
-0.549172,0.405499,0.712913,0.787277,0.359318,0.501084
-0.082163,0.099429,0.732331,0.120223,-0.938062,0.324940
-0.202077,0.319155,0.803387,0.270800,0.453555,0.849091
0.501920,0.163641,-0.668678,-0.669712,0.741703,-0.036928
0.615453,0.877688,-0.982813,-0.135974,-0.005523,-0.990697
0.366056,0.868119,0.473231,-0.065136,0.894104,-0.443098
0.115483,0.177128,-0.703103,-0.494172,0.268333,-0.826917
-0.140057,0.454610,0.265742,0.252693,0.915816,0.312134
0.682202,0.133668,-0.954370,-0.067996,0.100713,0.992589
0.493534,0.806907,0.796745,-0.637753,0.555769,0.533284
0.622663,0.550754,0.785870,0.915085,-0.298983,0.270608
-0.044004,-0.479739,-0.943470,-0.026277,0.164812,0.985975
-0.554608,-0.022191,-0.427981,0.496551,-0.563744,-0.660023
-0.289031,-0.081790,0.016706,0.665768,-0.198582,0.719249
0.324471,0.209523,-0.033234,0.695080,0.382835,0.608523
0.807315,-0.282265,0.680871,-0.590404,-0.079631,0.803170
0.445806,0.121794,0.176055,-0.395551,-0.916810,0.054759
-0.481954,-0.127557,0.588268,0.728908,0.286759,0.621661
0.333686,0.027610,-0.941416,0.124416,-0.149993,0.980828
-0.745289,-0.133438,0.466589,0.946412,-0.287123,0.147868
0.288202,0.103235,0.893810,0.193897,-0.948325,-0.251165
0.123516,-0.636866,0.619981,-0.426994,0.398906,-0.811511
0.676296,-0.717447,-0.934420,-0.013771,0.082882,0.996464
0.552719,-0.087094,0.837051,0.298711,0.763287,0.572856
0.485025,0.092974,-0.010672,-0.680969,0.729961,-0.058643
0.396066,0.161105,-0.287467,0.966662,-0.249918,0.055732
-0.737725,-0.035102,0.684040,0.873866,-0.421427,0.242399
0.362984,-0.599053,-0.938070,-0.100044,0.256192,0.961435
0.114654,-0.337483,-0.937741,-0.067349,0.057097,0.996094
-0.041054,-0.056661,-0.094301,0.076438,-0.688617,0.721085
-0.660109,0.709725,0.504386,-0.528108,0.812356,-0.247348
-0.114063,-0.351662,0.486387,-0.052114,0.956835,0.285920
0.389923,-0.405844,0.381084,0.950317,-0.279681,-0.136658
0.642860,0.426941,0.642567,-0.602237,-0.241844,-0.760804
0.015773,0.685631,0.288861,-0.135852,0.990680,0.009905
0.758520,-0.560205,0.745260,0.606960,-0.776922,-0.167308
0.493649,0.096663,0.181986,0.230195,0.973138,-0.003560
-0.651009,-0.058851,0.721836,0.723893,0.689718,0.016368
0.292809,0.599632,0.646192,0.228445,-0.837355,0.496638
0.197116,0.400542,0.941315,-0.287391,0.948716,-0.131694
-0.110637,0.368841,0.292207,0.312168,-0.785229,0.534758
0.706185,-0.617038,-0.938780,-0.021284,0.116396,0.992975
0.554255,-0.163179,0.913811,0.700474,0.604046,0.380085
0.782150,-0.556056,-0.937817,-0.124481,0.132588,0.983323
-0.487030,0.393972,-0.212761,0.329026,0.379120,0.864876
-0.454308,-0.115683,0.094783,0.905827,-0.287849,0.310839
-0.087361,0.700502,0.644697,0.517730,-0.746489,-0.417984
0.189321,-0.586489,0.318064,0.845165,0.076296,0.529032
-0.697792,0.201107,0.443419,0.398552,0.313385,-0.861943
0.562879,0.201107,0.625837,-0.339185,-0.879282,0.334390
0.450529,-0.672949,0.654355,-0.413783,0.761280,0.499237
-0.018369,-0.280073,0.285540,0.039640,0.866300,0.497949
-0.265755,-0.107038,0.441239,0.905411,-0.317484,0.281841
0.310418,0.270160,-0.949047,0.149298,0.522571,0.839422
0.627855,-0.051471,0.861336,0.680761,0.732384,0.013358
-0.179038,-0.294022,-0.947323,-0.089382,0.169457,0.981476
0.365471,0.698312,-0.970163,-0.341626,0.007170,-0.939809
0.020381,-0.112572,-0.940428,0.134442,0.238008,0.961913
0.189559,-0.758832,-0.126825,0.868035,-0.016131,0.496242
-0.414728,-0.275923,0.665484,0.394196,-0.197528,0.897548
0.488688,0.295292,-0.791295,0.253543,0.938316,0.235116
-0.351288,-0.296675,0.480658,0.807063,0.499129,0.315467
-0.746234,-0.160528,-0.456956,0.908796,-0.263877,-0.323201
-0.588752,0.440430,-0.073489,0.187090,0.149397,0.970916
-0.181166,-0.806214,-0.937741,0.099674,0.364837,0.925721
-0.803530,0.390858,0.512269,-0.477182,0.507956,-0.717131
-0.330500,0.181279,0.043424,-0.601707,-0.766577,0.224295
0.401503,0.352010,-0.023144,0.850373,-0.051957,0.523609
-0.183884,0.327570,-0.015641,-0.023029,0.669306,0.742630
0.062319,0.053202,-0.947348,0.487746,0.062433,-0.870750
-0.264457,0.434435,0.319636,0.067396,-0.961664,0.265818
0.442143,-0.597210,-0.933583,-0.030497,0.311608,0.949721
0.449938,0.133207,-0.012092,0.260802,0.947917,0.182852
0.492704,0.687014,-0.976627,-0.067093,0.049710,0.996508
-0.416624,-0.163756,-0.318090,-0.319294,0.947641,0.005274
0.679368,-0.106346,-0.952545,0.010359,-0.013187,0.999859
-0.532638,-0.404576,0.048139,0.310117,0.885125,-0.346960
0.031839,-0.473514,0.768227,0.218445,0.857336,-0.466108
0.472500,0.286416,-0.275248,0.999917,0.006863,-0.010901
-0.189321,-0.137471,0.673748,-0.667725,0.730452,-0.143469
-0.054755,0.521240,0.811118,0.826946,0.351146,0.439154
0.970111,-0.390743,0.657448,-0.725826,0.671370,0.149800
-0.066220,0.211943,0.798672,0.032277,-0.087621,0.995631
0.478290,0.462909,-0.962837,0.243720,0.163352,0.955990
0.242954,0.848638,0.656865,0.074462,-0.780756,0.620384
0.134973,-0.827310,0.127966,0.246897,-0.237417,0.939508
-0.219801,0.121564,-0.953736,-0.038137,0.139934,0.989426
0.402094,-0.261859,0.853123,-0.626608,0.638699,0.446571
0.006082,-0.809786,0.662695,0.724562,0.684421,0.081099
0.422054,0.883683,-0.974650,0.123440,-0.413874,-0.901926
0.892019,-0.524352,-0.939186,-0.015094,0.208999,0.977799
-0.358852,-0.412299,0.639247,0.355457,-0.930330,0.090198
0.171597,0.236960,0.278062,-0.184831,0.977197,-0.104516
-0.418514,-0.212404,0.013841,-0.134334,-0.610389,0.780628
0.422768,0.131824,0.318191,0.043344,0.923834,0.380333
0.406464,0.213442,0.903595,0.967949,0.222711,-0.116078
0.184122,0.286183,-0.720442,-0.393174,-0.222100,-0.892236
0.929472,-0.319614,0.711899,-0.611575,-0.752007,-0.245888
0.253114,0.492420,-0.959567,-0.234475,-0.056331,-0.970489
0.565951,0.373337,0.748352,0.818715,-0.389206,0.422166
0.040701,0.273042,0.246654,-0.521483,-0.719689,0.458371
0.403746,0.240418,0.815098,0.905021,-0.425203,0.011775
0.294468,0.577267,0.210049,0.067349,-0.997686,0.009341
0.059009,0.073030,-0.947830,0.445422,0.098144,-0.889925
-0.758167,0.194191,0.493612,-0.247265,-0.530186,0.811026
-0.444263,0.370684,0.779178,0.896605,-0.211981,-0.388797
0.563002,0.201338,-0.323641,0.356806,0.927646,-0.110282
0.871815,0.156609,0.732534,0.053690,0.095634,0.993968
0.480417,0.180126,-0.145381,0.264848,0.048242,0.963083
-0.494118,-0.235690,0.103706,-0.632440,-0.283588,0.720831
-0.047904,0.430053,0.861717,0.983273,-0.174415,0.052480
-0.470258,-0.522277,0.565986,-0.105508,-0.801275,-0.588920
-0.063739,0.797107,-0.662416,0.569847,0.661447,0.487608
0.553310,0.873884,-0.978199,-0.238864,-0.089648,-0.966906
-0.059838,-0.334255,0.791574,-0.515206,0.105424,0.850558
-0.324472,-0.000172,0.586291,-0.265650,0.646782,-0.714914
0.523069,0.329413,0.817811,0.280674,-0.467887,-0.838036
0.901588,-0.558706,-0.935358,-0.054283,-0.225407,-0.972751
0.128008,-0.361115,-0.942380,0.056012,0.105771,0.992812
0.541615,0.424521,0.624087,0.842062,0.339098,-0.419456
0.578123,-0.430975,-0.939921,0.205381,-0.095714,-0.973991
0.472738,-0.798374,0.674990,0.900573,-0.074121,-0.428339
-0.430210,0.629373,0.628372,0.154534,-0.518013,-0.841298
0.920848,-0.302898,0.827418,0.993565,0.074598,-0.085233
-0.506643,-0.222088,0.223281,-0.364938,0.914514,-0.174597
0.356610,0.095971,0.475385,0.931413,0.353925,-0.084898
0.535709,0.672259,0.253397,0.411307,-0.911417,0.012058
-0.515029,-0.033603,0.361286,0.853453,0.363099,0.373868
0.065513,-0.283416,0.257377,0.464389,-0.860045,0.211341
0.505467,0.068303,0.761636,-0.533253,0.838649,0.110945
-0.116075,0.722289,-0.967755,0.063977,0.035762,0.997310
0.274379,0.178857,0.761914,0.767451,0.614266,-0.183566
-0.446037,-0.579111,0.626597,-0.514079,-0.093098,-0.852675
0.111467,0.831000,0.469504,0.162092,0.941478,-0.295542
0.532284,0.181049,0.868865,-0.129400,0.896036,0.424706
-0.489633,0.217477,0.673114,0.814638,-0.268927,-0.513851
0.529328,0.144159,-0.770762,-0.786331,0.462714,0.409365
0.422054,0.272350,-0.256616,0.473986,0.787184,0.394561
-0.819956,0.312352,0.053083,-0.772519,-0.386503,-0.503815
0.140295,-0.279612,-0.433736,-0.195881,0.332685,-0.922470
0.556498,-0.429246,0.610601,-0.076194,-0.750405,0.656573
0.466003,-0.086633,-0.946765,0.055281,-0.072887,0.995807
0.785575,-0.057696,-0.940732,0.337687,0.219298,-0.915356
-0.619584,0.324919,0.450492,-0.700560,0.637069,0.321494
0.304390,-0.184390,0.099574,0.958641,-0.284617,-0.000222
0.008447,-0.186466,0.737655,0.784428,0.589519,-0.192717
0.481838,0.094473,0.229289,0.959692,0.165524,-0.227143
0.555676,-0.493689,0.723433,0.963872,0.099503,-0.247084
0.498379,-0.080984,0.737959,0.944175,-0.231947,-0.233954
0.284776,-0.305551,-0.950112,0.181084,0.156529,0.970931
0.257959,0.267509,-0.943394,0.005989,0.855671,0.517485
0.522478,0.610929,0.281814,0.644475,-0.140004,0.751698
0.648766,-0.100697,-0.939642,-0.256335,0.082094,0.963096
-0.199596,-0.361231,0.689997,0.781035,0.598304,-0.178931
-0.686688,-0.280073,0.539013,0.514633,0.835232,0.193756
-0.556851,-0.626260,0.648677,0.703005,-0.363346,0.611363
0.273556,0.503372,0.596481,0.973914,-0.130752,0.185458
0.244490,0.163181,0.743029,0.835027,0.358315,0.417540
-0.155056,0.619576,0.733142,0.327007,0.942519,0.068739
0.246971,-0.392933,-0.941695,0.205824,0.209027,0.956004
0.558271,-0.211136,0.778214,0.774278,0.609940,0.168721
0.550361,-0.111418,0.877662,-0.391518,0.793193,-0.466433
0.527085,0.155571,-0.745843,0.879444,-0.450290,-0.154328
-0.509477,-0.305781,0.610069,-0.683637,0.152137,-0.713789
0.543857,0.219667,0.640894,0.057618,-0.998337,-0.001847
-0.060667,-0.720445,0.317481,0.114109,-0.139292,0.983655
0.965028,-0.489998,0.723484,0.838364,-0.530515,0.125299
0.371492,0.770707,0.780394,0.994351,-0.015937,0.104939
-0.388503,-0.392241,0.698844,0.628687,-0.762634,0.152122
0.459391,0.344861,0.758619,0.238001,-0.902911,0.357920
0.454545,-0.516053,0.556860,0.464206,0.820919,-0.332574
0.009276,-0.418871,0.387574,0.845283,-0.439068,0.304492
0.620651,0.798029,0.825619,0.685011,0.444058,0.577557
0.187432,0.372760,0.378676,0.964109,0.198463,-0.176371
-0.651132,0.571619,0.492750,0.918319,-0.361691,-0.160844
0.379056,-0.397429,0.484663,0.953318,0.300136,0.033208
-0.380232,0.306704,-0.053336,-0.115398,0.303914,0.945685
-0.144074,-0.033489,-0.942000,-0.047978,0.119206,0.991710
-0.019905,0.538533,-0.964206,-0.066963,0.229386,0.971029
0.735367,-0.598593,-0.936423,-0.095066,0.092072,0.991204
0.097406,0.021270,0.083122,-0.783257,0.196238,-0.589915
