-0.918239,-0.159118,0.512534,0.371425,-0.656478,0.656567
-0.529652,-0.246528,0.481149,-0.437240,0.406299,-0.802336
0.054023,-0.564197,0.278176,-0.412026,0.011706,0.911097
-0.344471,-0.171698,0.667377,0.447132,0.797036,0.405964
0.060493,0.553770,0.519427,0.839302,0.124131,-0.529305
-0.425043,-0.521904,0.373333,0.277666,0.492897,0.824593
-0.016774,-0.207182,-0.156347,0.796050,0.566161,0.213929
-0.148196,0.203336,0.208789,0.248340,-0.061636,0.966710
-0.510502,0.501048,0.589191,-0.165770,0.970124,-0.177141
0.123894,0.131004,0.570490,0.474814,0.832791,-0.284624
-0.107912,-0.734138,0.427504,0.491120,-0.822251,-0.287584
-0.297056,-0.068415,0.653138,-0.614379,0.030144,-0.788435
0.059042,0.077833,0.819889,-0.518998,0.786435,0.334906
0.208691,0.202657,0.961270,-0.690474,0.695611,0.198421
0.081365,0.563748,-0.392485,0.718756,-0.371618,0.587614
0.220977,-0.211493,0.707234,-0.136029,0.894163,0.426579
0.249504,0.305712,0.752457,-0.311581,0.926175,-0.212408
0.078459,0.731875,0.235461,0.898141,0.205249,-0.388865
0.451196,-0.517482,0.355109,-0.216420,-0.314384,0.924297
-0.176460,-0.004927,0.656673,-0.525088,-0.078820,0.847390
0.043854,0.501048,0.376842,-0.602148,0.798258,0.014226
-0.400608,-0.182811,0.682167,0.155252,-0.987874,-0.001371
-0.521461,-0.966100,0.182317,0.418848,0.576611,-0.701489
-0.186763,-0.724506,0.559235,0.906117,-0.266920,0.328185
-0.118477,0.052437,0.881505,0.770579,-0.389366,0.504582
-0.005943,0.511712,0.468540,0.970002,-0.156693,0.185858
0.427683,-0.092336,0.545974,-0.009345,-0.033536,0.999394
0.113196,-0.685956,0.487742,0.303576,0.719019,0.625182
0.529523,0.427361,0.589792,0.078920,-0.258721,0.962723
0.068817,-0.468851,0.523037,0.164271,0.563617,0.809538
-0.688810,-0.420441,0.354181,0.875575,-0.372842,0.307177
0.225069,0.285984,0.773939,0.867046,-0.010466,-0.498119
0.200105,0.044390,0.616339,-0.946361,0.317255,0.061244
-0.007265,-0.085991,0.625288,-0.699785,-0.682912,0.209599
0.127723,0.562156,0.460443,0.425175,-0.000837,0.905111
0.140010,0.076926,0.645894,-0.481020,0.221005,-0.848397
0.243695,0.092004,0.748822,-0.312445,-0.392598,0.865011
-0.116760,-0.068533,-0.111225,0.875725,0.435502,-0.208434
0.775195,0.091894,0.101599,-0.203146,0.120803,0.971668
0.218333,0.090641,0.935501,0.843849,-0.234193,0.482776
-0.232598,-0.131682,0.630703,-0.212207,-0.715972,0.665096
-0.753267,-0.093022,0.314248,0.655863,0.683548,0.320321
-0.312111,0.368065,0.745964,0.716294,0.629419,0.301256
-0.411173,-0.221243,0.455605,0.871294,-0.269687,0.410019
-0.611676,0.557735,0.188634,-0.544159,0.377254,-0.749380
-0.225730,-0.596049,0.182668,0.298815,-0.142294,0.943643
0.215955,0.137695,0.598942,0.189146,0.969956,-0.153003
-0.066040,-0.506715,0.518049,0.762585,0.574697,0.296964
0.597282,0.921891,0.233480,0.732100,0.670179,0.122020
0.541672,-0.218863,0.511431,0.682270,0.646100,-0.342144
0.514597,0.557963,0.598817,0.225003,-0.558590,0.798343
0.179899,0.040985,0.980146,-0.032694,-0.152292,0.987795
0.255183,0.272269,0.686002,0.510977,0.178132,0.840935
-0.026416,-0.344822,0.604607,-0.446416,-0.839761,0.309053
-0.023244,-0.256389,0.736513,0.178172,0.877772,0.444715
-0.228370,0.226807,-0.163742,0.294384,0.699806,0.650853
-0.085984,0.175670,0.874336,-0.171815,-0.860728,0.479194
0.817197,-0.034744,0.538379,0.685547,0.112929,-0.719217
0.387665,0.452299,0.573248,-0.743560,0.299243,0.597973
-0.862899,-0.357859,0.453199,0.084803,0.991202,0.101622
-0.399552,-0.166488,0.309511,0.843585,-0.121388,-0.523097
0.093252,-0.395723,0.658127,-0.523290,0.480818,0.703549
0.223750,0.141093,0.810789,-0.418192,0.464991,0.780320
-0.507990,0.375546,0.496290,0.246478,0.229215,-0.941652
-0.540088,-0.059122,0.343302,0.923488,0.321017,0.210044
0.142388,-0.485285,0.644540,0.508047,0.465214,-0.724889
0.184123,-0.719399,0.497117,-0.049649,0.719760,0.692445
-0.587769,-0.633920,-0.255715,0.660031,0.364952,0.656634
-0.274995,0.396409,0.451569,0.098869,-0.823651,0.558411
-0.300619,0.642425,0.187857,0.391291,0.226356,0.891995
0.559504,0.073300,0.620325,0.450865,0.571823,-0.685375
-0.633600,0.442439,0.439236,-0.788534,0.609572,-0.081459
-0.608637,-0.582223,0.212348,0.618728,0.336062,0.710097
-0.433230,0.475771,-0.991402,0.222496,-0.114352,-0.968204
-0.389511,-0.266934,0.607390,-0.373130,-0.896141,-0.240218
0.810461,0.424413,0.405745,0.756239,0.641839,-0.127063
-0.807160,-0.254576,0.458739,0.746064,-0.027968,-0.665286
0.326775,0.144158,0.627770,-0.167663,0.899785,0.402835
0.414608,-0.212857,0.462975,0.449664,-0.065255,-0.890811
0.321624,0.315801,0.784894,0.155372,-0.143968,-0.977309
-0.424116,-0.983559,0.186228,0.124966,-0.757683,0.640546
-0.269976,-0.465107,0.221323,0.025354,-0.947123,0.319868
0.301413,-0.019098,0.862754,0.735527,0.668261,0.111475
-0.584069,-0.185420,0.293518,0.735972,0.625355,0.259376
0.007794,0.396748,0.637145,0.547677,0.673856,-0.495952
-0.161406,-0.094606,0.639752,0.158805,-0.433405,0.887097
0.111741,0.042120,0.973102,0.031182,0.507370,0.861164
0.150574,0.043705,0.798130,-0.492415,0.381788,0.782154
0.057059,0.001536,-0.957811,-0.367611,0.077961,0.926706
-0.112269,0.248002,0.715807,0.616625,0.553380,0.559950
-0.178311,0.186894,0.807380,0.787078,0.616845,-0.003169
0.571524,-0.194035,0.772536,-0.374460,0.671102,0.639845
0.252015,0.251406,0.598215,-0.533380,-0.765522,-0.359836
-0.289127,0.520327,0.160884,-0.439469,-0.197878,0.876191
0.533486,0.485292,0.346360,0.351446,-0.608607,-0.711395
-0.016641,-0.461820,0.316630,-0.754492,-0.599622,-0.266824
0.024832,0.012075,0.719267,0.184106,-0.304224,0.934640
0.077930,-0.217389,0.584102,0.903526,0.175868,-0.390784
0.266546,0.515337,0.504512,0.455241,-0.779186,0.430842
0.334700,0.700363,0.415948,0.922089,-0.151305,-0.356172
-0.060888,0.144158,0.736564,-0.696439,-0.621099,-0.359457
0.438780,-0.468962,0.359019,0.387235,0.176948,-0.904842
-0.302336,0.051870,0.450667,0.203417,-0.971694,-0.120135
0.365077,-0.681424,0.330442,-0.407947,0.865781,-0.289833
-0.221368,-0.045290,0.582397,-0.923340,0.003108,-0.383971
-0.709682,0.344144,-0.242605,-0.185355,-0.982636,-0.008329
0.048477,0.464658,0.447458,-0.499783,-0.835344,0.228947
0.110024,0.857039,0.549183,-0.076909,-0.543653,0.835779
0.486199,0.166606,0.770881,0.013927,0.259845,0.965550
-0.399153,-0.146421,0.664168,-0.002479,0.399063,0.916920
-0.867917,-0.043137,0.394565,0.375722,-0.926681,-0.009770
-0.296129,-0.373615,0.601900,-0.648971,-0.101432,-0.754021
0.351343,-0.130090,0.715833,0.408906,0.881357,-0.236654
0.743497,-0.133266,0.513862,0.658790,0.069953,-0.749068
0.413552,0.143812,0.466434,-0.309117,0.772704,-0.554414
0.182011,0.664422,0.268525,0.413205,0.265777,-0.870990
0.214899,-0.434494,0.662764,0.794436,0.598159,0.105253
-0.536388,-0.593558,0.532588,0.984896,0.135797,-0.107419
0.418308,0.221700,0.718064,0.270231,-0.698975,0.662125
-0.765816,-0.344366,0.516018,0.660405,-0.304980,0.686187
0.278034,0.822461,0.502808,0.861753,-0.433211,0.264026
-0.542333,0.540394,0.434298,0.937730,0.300120,-0.174900
-0.455420,0.148123,0.521784,-0.196382,-0.638554,0.744099
0.366136,0.325779,0.344104,-0.530236,0.435840,0.727250
0.472067,0.270339,0.348792,-0.051811,-0.461083,0.885843
-0.069474,0.176238,0.738093,-0.163527,-0.977764,-0.131289
0.831728,-0.153901,0.374862,-0.553137,0.829296,-0.079425
0.329153,0.712376,0.325955,0.931626,-0.047922,-0.360245
-0.041342,0.336097,0.427229,0.013219,0.850361,0.526034
-0.379475,0.583358,0.502106,-0.496104,-0.674986,-0.546146
0.189541,0.000623,0.920435,0.419348,0.208293,-0.883607
-0.673755,-0.237117,0.496365,-0.603146,0.131330,-0.786745
0.271827,-0.199135,0.780758,-0.104166,0.532174,0.840202
-0.266808,0.357070,0.731299,0.673604,0.646478,-0.358223
0.378684,0.167284,0.784217,-0.095449,-0.644524,0.758602
0.010039,-0.216483,0.732026,-0.769353,0.452287,0.451147
-0.516838,0.196083,-0.990575,0.242255,-0.010085,-0.970160
-0.046095,0.068422,0.773363,-0.580304,0.582773,0.568879
-0.041210,-0.643898,0.552216,-0.549823,0.786973,0.279943
0.194692,0.535744,0.362454,0.866461,0.106181,-0.487822
0.088233,0.026814,0.718590,-0.153186,-0.599434,0.785629
-0.023776,0.518735,0.453299,0.453081,0.860011,-0.234730
-0.075814,-0.346857,0.579464,-0.555153,-0.381056,0.739325
0.042665,-0.369761,0.163542,0.734483,-0.386867,-0.557555
0.411439,0.022164,0.566379,0.041422,-0.661998,0.748360
0.194164,-0.305933,0.554773,0.426978,0.034059,-0.903621
-0.488440,-0.357859,0.245438,0.178048,0.976686,0.119928
0.277244,0.437221,0.791286,0.926640,0.156311,-0.341914
0.088233,-0.330305,0.437882,-0.524010,0.149602,-0.838471
0.085061,0.619071,0.525970,0.168629,-0.590346,0.789339
-0.104739,-0.424406,0.344605,0.749531,0.325133,-0.576621
-0.631754,0.316479,0.554673,0.931459,-0.308366,-0.193119
0.530051,0.269661,0.348441,0.021468,-0.629649,0.776583
-0.168669,0.377926,0.168555,-0.299552,0.786716,-0.539765
-0.731078,0.102661,0.473604,0.971264,-0.196603,-0.134140
-0.032757,0.596962,0.661060,0.706220,0.033238,-0.707212
0.433234,-0.137799,0.736363,0.832762,0.467430,-0.296675
0.254526,0.456043,0.561641,0.303568,-0.464903,-0.831692
-0.931447,-0.239836,0.437606,0.949454,-0.243480,-0.198129
0.456347,-0.465336,0.193949,-0.594553,-0.336849,-0.730095
0.134197,0.147327,0.679134,-0.128166,0.873631,0.469405
0.530974,0.515905,0.079515,0.049413,-0.789587,0.611646
-0.345132,-0.781414,0.487040,0.831548,0.535991,-0.145743
0.396646,0.176356,0.613732,-0.177741,0.745455,-0.642421
-0.077004,0.688911,0.327760,-0.773378,-0.172349,0.610068
-0.310660,-0.847511,0.200617,0.124728,0.222541,0.966912
0.267997,0.164447,0.839592,-0.537244,0.365355,0.760187
0.251487,0.599689,0.361651,0.709775,-0.364936,0.602529
0.180822,0.600367,0.535345,0.977976,0.121832,-0.169467
0.131557,0.461032,0.456658,-0.356655,-0.330317,0.873893
-0.180423,0.235872,0.807756,0.895334,0.053975,0.442112
0.429139,0.402982,0.819663,0.636436,-0.654790,-0.407675
0.498219,-0.043476,0.884864,-0.742689,-0.619428,0.254406
-0.107912,0.273854,0.525745,-0.253029,0.780196,0.572076
-0.867123,-0.167277,-0.183871,-0.261990,-0.962382,-0.071982
0.043854,0.215922,-0.228918,0.987114,0.138943,-0.079384
0.230881,-0.276912,0.642861,-0.074568,0.997192,0.006950
-0.714172,-0.145058,0.492755,0.225074,0.339061,0.913444
0.262979,-0.074539,0.630402,0.875097,0.322539,0.360796
-0.191125,-0.050168,-0.325454,0.687180,-0.387865,0.614283
0.508256,0.110937,0.693798,0.967666,0.036709,0.249549
0.334434,0.583587,0.499925,0.325727,-0.770611,-0.547777
-0.246598,-0.588907,0.442520,0.352730,0.547677,0.758704
-0.695679,-0.074650,0.448060,0.731082,-0.539103,0.418194
-0.181612,0.204470,0.732102,0.785291,0.583102,0.208110
-0.349489,0.068311,0.512133,-0.432423,0.460071,-0.775464
-0.185574,0.293243,0.223704,-0.026810,-0.637449,0.770026
-0.589220,0.403322,0.545347,-0.404885,0.503919,0.762977
-0.548013,0.451393,0.515041,0.800082,-0.444376,0.402989
-0.934620,-0.152877,0.530006,-0.791929,0.221180,-0.569147
-0.365738,-0.128956,0.366264,-0.346917,-0.937491,0.027561
-0.008056,0.593904,0.508699,-0.513225,-0.674985,0.530091
-0.212254,0.000173,0.843151,0.042088,-0.962251,0.268891
-0.753929,0.171027,0.244335,0.228228,-0.957200,-0.177989
-0.745476,-0.171698,0.212699,-0.721870,0.080108,0.687377
0.412233,0.335412,0.720495,0.102277,0.184183,0.977556
0.605996,0.410809,0.363156,0.595910,-0.417098,-0.686236
-0.070401,-0.577912,0.475383,-0.589964,0.803565,0.078898
0.177126,0.828696,0.205254,0.057346,0.998354,0.000208
-0.067495,-0.295277,0.579916,-0.070479,0.346757,0.935303
0.730554,-0.281784,0.174722,0.666403,0.185967,-0.722027
-0.418965,0.295962,0.460067,0.884614,0.466152,-0.012651
0.358212,0.308204,0.852802,0.943125,-0.230932,0.239136
0.102893,0.765664,0.394866,0.883019,-0.187569,-0.430227
0.122310,0.306280,0.549308,-0.641752,0.761587,0.090222
0.054418,0.111843,0.767246,0.323220,0.919038,-0.225605
0.235110,-0.051524,0.628622,0.939184,0.213419,0.269047
0.217805,-0.347653,0.641206,0.666949,0.278314,0.691173
-0.755646,0.139169,0.306954,0.574329,-0.350748,0.739677
-0.072908,0.101076,0.584879,0.221878,0.356287,-0.907651
-0.100249,-0.064222,0.609195,-0.739856,-0.461141,0.489859
-0.112269,0.341086,0.486463,0.604909,-0.426762,-0.672279
0.175409,0.402304,0.474957,0.999932,-0.008935,-0.007475
0.551713,0.595489,0.108744,-0.033024,-0.804936,0.592442
0.409194,0.302993,0.767221,0.924892,-0.112003,0.363359
0.052968,-0.170564,-0.266570,-0.590249,0.716606,0.371595
0.372078,0.037359,0.513913,-0.186477,-0.839149,-0.510937
0.212654,0.099035,0.707485,-0.511899,-0.851462,-0.113897
0.199445,0.106743,0.974832,0.573834,0.689981,-0.441181
0.126273,-0.480185,0.641783,0.419513,0.312942,-0.852101
-0.089551,-0.196416,-0.123458,0.939136,0.335035,-0.075994
0.363758,0.531889,0.581821,0.062916,-0.728408,0.682248
-0.792496,-0.088261,0.509877,-0.565829,-0.638980,-0.521098
0.135386,0.628710,0.516645,0.394994,-0.799615,0.452322
-0.358869,0.331336,0.675348,-0.327337,-0.939539,0.100580
-0.191653,-0.567823,0.513511,-0.405118,0.913772,0.030005
0.032362,-0.161153,0.674145,-0.570340,0.360240,0.738201
0.250959,-0.297997,0.804322,-0.190592,0.845284,0.499169
0.666757,0.159236,0.270982,0.856688,-0.013473,0.515659
0.087705,0.845933,0.543367,-0.616034,0.656870,-0.434768
0.285431,0.713400,0.488719,0.350065,0.604146,0.715865
-0.417248,0.474297,-0.565903,-0.271148,-0.589831,0.760644
-0.193898,0.285188,0.558909,0.784244,0.060960,-0.617450
-0.798308,0.129530,0.452547,0.946004,-0.057175,-0.319071
0.037380,0.291423,0.358343,-0.258244,-0.082789,0.962526
-0.240523,0.593336,0.184047,0.319932,-0.296370,0.899894
0.126934,0.086566,0.968064,-0.578386,0.151911,-0.801494
0.112269,0.081798,0.693598,-0.482416,-0.280297,0.829884
0.135120,-0.021029,0.698511,0.829663,-0.266312,-0.490650
-0.501388,-0.063993,-0.316379,0.222994,-0.806390,0.547730
0.482104,-0.260471,0.755640,0.302130,0.924957,0.230589
-0.090212,-0.140408,0.377018,0.705805,0.705273,0.066549
-0.031701,-0.661128,0.447082,-0.074191,-0.948348,0.308435
-0.758419,0.097789,0.291788,0.791020,-0.306372,0.529550
0.211992,0.027042,0.957234,0.252899,0.965670,0.059350
-0.197332,0.250272,0.661686,-0.394497,-0.144612,0.907447
0.546823,-0.166488,0.536473,0.068904,-0.929760,0.361661
-0.422665,-0.131564,0.675474,-0.630961,0.627945,0.455602
-0.094175,-0.294142,0.519628,0.919972,-0.329292,0.212646
0.357680,0.119669,0.614183,-0.471600,-0.185323,-0.862119
0.480649,0.423278,0.348215,-0.573108,0.399352,0.715587
0.849294,-0.279514,0.202848,0.943607,-0.271672,0.189212
0.641395,0.406726,-0.051238,0.903611,-0.284195,0.320501
-0.505084,0.187690,0.520129,0.834769,0.538136,0.116494
-0.069212,-0.037691,0.788755,-0.794126,0.195428,-0.575475
-0.444061,0.400374,0.157199,-0.347888,-0.453743,-0.820421
0.068022,0.211272,0.535922,-0.561159,-0.072411,-0.824535
-0.018491,-0.199135,0.557380,-0.203036,0.940832,-0.271315
0.222033,-0.168751,0.779454,0.290770,0.329426,0.898293
0.146612,-0.504107,0.274466,-0.509596,-0.081594,0.856536
-0.120460,0.305595,0.653489,0.090994,-0.992146,0.085832
-0.678906,-0.290966,0.480422,-0.487972,0.588397,0.644727
0.188879,0.107539,0.834403,0.013498,-0.883217,0.468770
0.250564,0.567263,0.559335,0.227055,0.910670,-0.345146
0.494652,0.924838,0.488895,0.951062,-0.146141,-0.272255
0.153348,-0.105034,0.757044,-0.694222,0.567039,0.443309
0.967112,-0.049822,0.262108,0.310176,0.766599,0.562243
-0.682602,0.085431,0.267121,0.555782,0.825683,0.096712
-0.673227,-0.338809,0.508423,0.565719,0.344633,0.749126
-0.310922,-0.137799,0.478818,-0.232361,0.919789,-0.316221
0.258222,0.340518,0.190013,-0.672154,0.708827,0.213947
-0.035135,0.161388,0.701544,0.437698,-0.798025,0.414217
0.345398,-0.127482,0.725835,-0.033080,-0.995502,0.088777
0.095364,-0.113877,0.525820,-0.601579,0.106726,-0.791651
0.603356,-0.214213,0.348867,-0.052330,0.571389,0.819009
0.299301,0.531779,0.347137,-0.525717,0.231927,-0.818432
-0.580239,-0.358876,0.420134,-0.334819,0.932146,0.137841
0.502839,0.596173,0.592525,-0.108157,0.471898,0.874994
-0.058248,-0.272262,-0.929008,-0.784133,-0.588842,0.195961
0.100781,0.066042,0.824401,0.480582,-0.871159,0.100614
-0.024171,-0.246528,0.713677,-0.509744,0.353775,-0.784222
0.467178,-0.598775,0.350446,0.297232,0.169963,-0.939556
0.037247,0.286780,0.636443,-0.390772,-0.417133,0.820547
0.235637,-0.160136,0.510503,-0.137848,-0.142323,0.980175
0.158237,0.336547,0.540058,0.823433,-0.482272,-0.298951
0.252410,-0.177255,0.624235,0.918303,0.186526,-0.349182
0.181217,0.074885,0.892886,0.995079,0.098964,0.004816
-0.696340,0.294371,0.220570,0.457340,-0.720680,-0.521019
0.222694,-0.216483,0.779981,0.346343,0.616586,0.707014
-0.650771,-0.080663,0.396696,-0.382717,-0.882812,-0.272345
0.076213,0.172723,0.842399,-0.527709,0.806595,-0.266322
0.642189,-0.037353,0.566555,0.909964,0.175769,0.375593
0.030117,0.599689,0.524341,-0.379462,-0.503532,0.776186
-0.432307,0.332810,0.496691,0.540824,0.397770,-0.741140
-0.648131,0.399128,0.438409,0.831522,-0.032281,-0.554553
-0.263902,-0.032135,0.316555,0.172971,-0.609295,0.773848
-0.400608,-0.701491,0.481675,-0.625209,0.616549,-0.478520
-0.399552,0.432689,0.148175,-0.004859,-0.235201,0.971935
0.207502,-0.211383,0.777073,0.346343,0.616586,0.707014
-0.744948,-0.201972,0.466760,0.966172,0.013048,-0.257569
0.100253,-0.374750,0.521809,0.002774,0.750112,0.661305
0.216483,0.731537,0.467588,-0.422246,0.643308,0.638641
-0.301546,-0.137917,0.652111,-0.584567,0.633016,-0.507516
-0.511820,-0.115130,-0.286624,-0.121042,-0.991518,-0.047341
-0.143706,0.349929,0.484834,0.766046,-0.455534,-0.453499
-0.541406,0.484386,0.522410,-0.622374,0.530262,-0.575737
-0.770439,-0.113310,0.503534,0.942393,0.050539,0.330667
-0.300091,0.381670,0.599995,0.792563,0.277268,0.543108
0.518692,-0.438577,0.372405,-0.449149,0.402422,0.797698
-0.056664,0.409445,0.257671,0.446894,0.749199,0.488863
0.282130,0.584721,0.420209,0.902361,-0.430498,0.020419
-0.017435,-0.043587,0.558909,0.401400,0.466945,-0.787935
-0.076475,-0.229748,0.551313,0.859723,0.170469,0.481473
-0.330338,0.323738,0.163692,-0.335349,0.935349,0.112535
-0.045700,0.082483,0.847263,-0.430475,-0.850838,-0.301273
0.696344,0.496066,0.366690,-0.559491,-0.828755,0.011623
0.149651,0.119669,0.866289,0.109247,-0.993150,0.041454
0.031834,0.121821,0.773212,0.294155,0.806125,-0.513455
0.839653,-0.158323,0.261080,0.864423,0.017281,-0.502468
0.462821,-0.012414,0.536122,-0.088407,0.914345,0.395167
0.225202,0.179303,0.768951,0.230862,0.288726,-0.929161
0.262846,0.174764,0.777324,-0.124202,-0.383241,0.915259
-0.849424,0.181912,0.228041,0.905291,0.184485,0.382641
0.389116,0.263876,0.849218,0.989999,-0.112180,-0.085540
0.228902,-0.285866,-0.941241,-0.047733,-0.082028,0.995486
-0.361114,-0.419873,0.612930,-0.139157,-0.986334,-0.088208
0.351343,0.176356,0.377444,0.828856,-0.502052,0.246863
0.190331,-0.139840,0.731751,0.275342,0.551528,-0.787403
-0.003303,0.681314,0.357064,0.771467,0.121976,-0.624468
-0.406683,0.450258,0.477614,-0.411486,0.802268,-0.432488
0.265224,0.713172,0.285696,0.024301,-0.499780,0.865811
-0.300619,0.312396,0.570540,-0.250580,0.341641,0.905810
-0.296523,-0.499574,0.615010,0.310700,-0.654436,0.689333
0.157838,0.264104,0.741126,-0.067630,-0.464998,0.882725
0.345003,0.435636,0.423920,0.779259,0.106735,-0.617546
0.193898,0.197440,0.438860,-0.604326,0.614189,-0.507506
0.559900,0.971885,0.148125,0.902456,0.344011,-0.259288
-0.460704,-0.665661,0.205630,0.684417,0.198908,0.701434
0.244352,0.856589,0.491477,0.940332,-0.187091,0.284205
0.403249,0.400263,0.450115,-0.605686,0.479331,0.635127
-0.483817,-0.104245,0.257946,0.974042,-0.107517,-0.199202
-0.124556,0.255710,0.615136,0.787613,0.521725,-0.327823
-0.357680,-0.179974,0.415923,0.385640,0.860701,-0.332378
0.267997,0.511027,0.472927,0.906524,-0.413485,0.085109
-0.654733,-0.299360,-0.521433,0.014169,-0.950519,0.310342
0.215427,0.743667,0.497042,0.870843,0.258641,-0.418016
-0.466650,-0.158205,0.655770,0.175930,-0.372005,0.911406
-0.048340,0.183607,0.722726,0.216943,0.890781,0.399305
0.166823,-0.233263,-0.938158,-0.323616,0.203332,-0.924083
-0.667942,0.339155,0.376867,0.906874,0.418912,-0.045747
0.124289,0.153341,0.833977,0.261234,0.611605,0.746791
-0.025755,0.295056,0.533039,-0.008437,-0.054346,0.998487
-0.217539,0.730063,-0.302592,-0.699792,0.706498,-0.105598
0.118610,0.623492,0.409180,0.928270,-0.369268,-0.044233
0.315811,-0.360350,0.663642,0.959155,0.019160,-0.282231
0.415140,0.107082,0.577158,-0.547147,-0.700118,-0.458765
0.170519,0.084863,0.811115,-0.142769,0.710885,-0.688665
-0.319245,0.173747,0.512684,-0.250082,-0.474873,0.843774
-0.106195,-0.648431,0.291111,-0.456114,-0.883449,0.107137
0.108706,-0.290399,0.584102,0.964217,-0.257257,-0.064063
0.032890,-0.202761,0.684197,-0.147713,0.935457,0.321094
0.441687,0.516355,0.572496,-0.247517,0.456981,0.854344
0.605207,0.319995,0.710593,-0.178831,-0.712761,0.678227
0.095364,-0.150614,0.133786,0.367791,-0.529616,-0.764354
-0.441554,-0.274415,0.455630,-0.782521,0.460946,-0.418556
-0.132347,0.094613,0.574401,0.715498,-0.191299,-0.671914
-0.139744,0.302875,0.560589,-0.459466,-0.292177,0.838763
0.785498,-0.289264,-0.160909,-0.141835,-0.864566,0.482088
-0.630826,-0.312618,0.351599,-0.749826,0.410524,0.518876
-0.334168,-0.784701,0.508348,0.385824,0.212952,0.897659
0.622906,0.031803,0.504738,-0.366442,0.325101,0.871797
0.593187,0.310245,0.340244,0.367802,-0.636367,0.678055
0.175143,-0.492655,0.347814,0.015668,-0.197780,0.980121
-0.710605,0.348109,0.320215,0.979470,0.069904,0.189082
-0.262318,0.363415,0.181390,-0.101740,0.990976,0.087267
0.034341,0.648549,0.524892,-0.121414,-0.231718,0.965176
-0.037380,0.371920,0.531861,0.844991,-0.435738,0.310036
-0.533880,-0.825741,0.207610,-0.217088,-0.382494,0.898093
-0.037509,-0.172944,0.533641,0.864480,-0.026578,0.501963
0.009906,-0.285527,-0.495212,-0.372171,0.922543,0.101999
-0.539822,-0.664076,0.317031,-0.476539,-0.832143,-0.283635
0.520671,0.725641,0.603705,-0.059664,0.308404,0.949382
-0.283580,-0.118188,-0.978692,-0.252282,0.088661,0.963583
-0.124422,0.489036,0.650632,0.902249,0.156476,-0.401823
0.045172,-0.510002,0.600546,-0.226666,-0.957708,0.177250
0.254921,0.036114,0.960869,0.765573,-0.626986,0.144173
-0.517632,0.463751,0.521633,-0.578196,0.356161,-0.734056
0.458459,-0.195170,0.791011,0.602130,0.145763,0.784979
0.315678,-0.035879,0.488669,0.025197,-0.753910,0.656494
-0.322809,0.192451,0.656121,0.449386,-0.405231,0.796140
0.092329,0.552524,0.515366,-0.009107,-0.124191,0.992217
0.577466,-0.210815,0.361350,0.736290,0.452562,0.503056
0.029850,-0.049372,0.705806,-0.127733,-0.612894,0.779773
-0.710605,0.028744,0.464203,0.639393,0.548403,0.538917
-0.194821,-0.134173,0.650456,-0.531671,-0.121545,-0.838184
0.031172,-0.549230,0.602076,0.854289,-0.472315,0.217048
0.680096,0.267052,0.653414,-0.691304,0.713481,0.114208
0.298378,0.177940,0.612930,0.423314,-0.821200,-0.382668
-0.054020,0.558759,0.394866,0.836695,0.519480,0.173443
0.903977,-0.097782,0.271984,-0.476301,0.483220,0.734599
0.077004,0.128056,0.771734,-0.493849,0.715919,-0.493531
-0.610354,-0.632675,0.220796,-0.789104,-0.110666,-0.604208
0.020208,0.571228,0.488870,0.129413,-0.975016,-0.180542
-0.005548,0.435408,0.649102,-0.207141,0.742541,-0.636965
-0.369699,0.378611,0.190163,-0.091487,0.995202,0.034679
-0.023244,-0.132699,-0.303645,0.837107,0.509562,-0.198993
-0.414873,-0.190063,0.668179,-0.055419,-0.970211,-0.235837
-0.328093,0.395274,0.474431,0.245737,0.510469,-0.824036
0.533614,0.245400,0.340519,0.180862,-0.632462,0.753180
0.220445,-0.196187,0.751053,-0.056723,-0.978486,0.198363
0.687359,-0.057987,0.573950,0.727754,0.673918,-0.127313
0.084932,0.761125,0.535320,-0.501221,0.415797,0.758874
-0.355830,0.480303,0.594580,0.148389,0.984346,-0.095093
0.440103,0.161727,0.495287,0.264422,-0.958258,0.108734
0.494124,0.140304,0.711646,0.948544,0.311902,0.054597
-0.008850,-0.082815,0.629349,-0.713361,-0.655007,0.249162
-0.657640,0.084524,0.254512,0.726309,0.686431,-0.035876
-0.202879,-0.235754,-0.969167,-0.270641,0.107080,0.956707
-0.573637,0.356164,0.493232,-0.103125,-0.664342,0.740281
0.249375,-0.144490,0.422014,0.872724,-0.478803,0.095399
0.250564,-0.676774,0.482277,0.292781,0.473947,0.830453
-0.097742,0.116154,0.643136,-0.272403,0.353458,-0.894910
-0.108702,0.230094,0.660583,0.708385,0.386269,-0.590751
-0.024832,0.326797,0.638750,0.678112,0.508325,-0.530820
-0.051117,-0.605805,0.604432,0.823436,-0.526084,-0.212578
-0.797780,-0.114216,0.481951,-0.580504,-0.719494,-0.381239
-0.447233,-0.335072,-0.547303,-0.208497,0.958244,-0.195698
-0.006206,0.106854,0.747042,0.503148,0.857627,0.106385
-0.163784,0.179303,0.592525,0.985561,0.066016,-0.155920
0.079909,-0.209113,0.683470,-0.344671,-0.914516,0.211809
0.211331,-0.146642,0.636494,0.175300,-0.213710,0.961040
0.356362,0.000401,0.845884,0.609721,0.676570,0.412909
-0.201956,-0.183150,-0.970320,-0.248208,0.118598,0.961419
-0.899221,-0.149479,0.516043,-0.443429,0.393850,-0.805142
0.364286,0.598775,0.588414,0.567813,0.034479,-0.822436
-0.213315,-0.631422,0.549634,0.386009,-0.816345,-0.429625
0.049267,0.522589,0.513862,0.592334,0.460818,-0.660899
-0.259541,-0.445379,0.596686,0.272549,-0.219072,0.936869
-0.147140,0.095748,0.714604,0.889139,0.243663,-0.387375
-0.182011,0.193018,0.814549,0.588379,0.598735,0.543440
-0.311317,0.175899,0.582974,0.210561,0.374634,-0.902947
-0.079515,-0.263647,0.568736,0.565815,0.624352,0.538553
-0.327299,-0.489029,0.362128,0.588166,0.039804,0.807760
-0.600317,0.189503,0.526346,-0.401949,0.787021,-0.468012
0.185180,0.651157,0.262960,0.473085,0.584408,-0.659286
0.866067,-0.187005,0.265442,-0.875159,-0.054906,0.480710
-0.452119,-0.915421,0.207310,-0.060902,-0.423427,0.903881
-0.726587,-0.097104,0.500977,0.708285,0.584907,0.395243
-0.443005,0.141432,0.501353,0.192597,0.979152,0.064556
-0.324925,-0.018310,0.527324,0.399037,0.804527,0.439893
0.345664,0.245961,0.857565,0.908669,-0.284004,0.306043
0.109629,0.100958,0.934122,-0.640180,-0.677215,-0.362699
-0.001187,0.128962,0.848190,-0.497575,0.217969,0.839588
0.180955,0.550254,0.532062,0.967024,0.041666,-0.251254
-0.614316,-0.676663,-0.244385,0.660031,0.364952,0.656634
-0.017565,0.684151,0.353504,0.745441,0.138382,-0.652049
0.495975,0.454680,0.460719,0.306885,-0.915425,0.260418
0.637961,0.206511,0.641457,0.165294,-0.788032,0.593028
0.181217,-0.374639,-0.057631,0.400032,0.864144,-0.305335
0.010305,0.092461,0.641006,-0.664560,0.193077,0.721860
-0.275128,-0.709421,0.436178,0.542669,0.632466,0.552718
0.069873,-0.328381,-0.857540,0.825637,0.563616,0.025708
-0.120988,0.367270,0.631079,-0.258125,0.956284,0.137451
0.500065,0.956240,0.467161,-0.736896,0.571964,0.360336
-0.078060,0.087354,0.857615,-0.239589,0.901030,-0.361582
0.816935,-0.128734,0.515241,-0.558921,0.167442,0.812139
-0.660941,0.043822,0.450567,0.445440,0.326857,0.833515
0.157443,-0.548206,0.579013,-0.620119,0.763881,-0.178714
-0.357285,-0.249476,0.589692,-0.207376,0.756256,0.620541
-0.467706,-0.598547,0.196004,0.417259,0.182545,0.890265
0.034341,0.381559,0.597989,0.021668,-0.856854,0.515104
0.311982,0.121254,0.772987,-0.394320,-0.021067,-0.918732
0.059437,-0.472927,0.505415,0.476236,0.027724,-0.878880
0.673755,0.102661,0.489597,0.242410,-0.073280,-0.967402
-0.248053,0.179643,0.843427,0.865342,0.489570,-0.107259
-0.484877,-0.293236,0.601675,0.556861,-0.818623,-0.140580
0.369438,-0.070006,0.325780,0.892291,0.358974,0.273779
-0.386738,0.061281,0.441517,0.292999,-0.949654,-0.110949
0.197200,-0.457281,0.678006,0.862235,0.504973,0.039415
-0.030378,0.036114,0.644966,-0.549475,0.588252,0.593327
0.314094,0.131343,0.814775,-0.247422,0.022673,-0.968642
-0.675605,0.556150,0.074952,0.412785,0.900801,0.134784
0.157838,-0.085991,0.702096,0.124840,-0.275126,0.953268
-0.083739,0.283375,0.615988,0.918524,-0.339981,-0.201808
-0.579977,0.461599,0.419207,0.839119,0.356218,-0.411082
-0.109496,-0.486877,0.426050,0.259478,0.963644,0.063721
0.315150,0.303560,0.552817,0.934852,-0.005027,-0.355003
0.555147,-0.116715,0.080768,-0.201640,0.574576,0.793224
0.057192,-0.624959,0.488444,0.272543,0.330701,0.903525
0.026154,0.749113,0.361225,-0.574314,0.120144,0.809771
0.073440,-0.296634,-0.580317,-0.708511,-0.705397,0.020677
-0.320962,0.256845,0.809887,-0.026941,0.918361,0.394825
0.243695,-0.363865,-0.946631,0.054272,-0.161691,0.985348
0.392817,-0.112064,0.679083,0.898610,-0.419689,-0.127912
0.132480,0.581317,-0.380177,0.333596,-0.757701,0.560894
0.449878,0.644238,0.600095,-0.418444,-0.414127,0.808334
0.263507,0.525537,0.580768,0.200743,0.033929,0.979056
0.345265,0.132139,0.752783,-0.719799,-0.603949,0.342251
-0.586846,-0.097782,-0.277951,-0.104594,0.972426,0.208441
0.157310,0.038944,0.794921,0.623023,0.773649,-0.115369
-0.623563,-0.440847,-0.617768,-0.087075,0.988378,-0.124607
0.425704,0.360357,0.799709,-0.700692,0.713295,0.015537
0.071590,0.484386,0.506041,0.351732,-0.462231,0.814020
0.213710,0.595606,0.463326,0.120065,0.179848,0.976340
-0.730022,0.357859,0.228542,-0.678634,0.648791,-0.344277
0.732533,-0.456942,0.348165,0.384484,-0.586459,0.712908
0.055213,0.629506,0.309962,0.643037,-0.748116,0.163785
-0.710210,-0.488122,0.355861,0.847330,0.529899,0.035212
0.216616,-0.057419,0.944676,0.142355,0.988237,0.055874
-0.146213,0.103228,-0.305625,0.142434,0.010774,0.989746
-0.472857,-0.348109,0.625865,-0.515018,0.020059,-0.856945
0.651432,-0.385295,0.365988,-0.314915,0.315952,0.894988
-0.447495,-0.777449,0.206106,0.843472,-0.091002,0.529409
0.308810,0.162066,-0.952171,-0.350019,0.065189,0.934472
0.150841,0.062755,0.812268,0.216155,-0.602144,0.768570
-0.234315,0.200955,0.817307,0.874760,0.295885,0.383728
-0.671643,-0.485285,-0.594981,0.141943,-0.936615,0.320320
-0.410379,0.158779,0.513035,0.270733,-0.553925,0.787319
-0.783648,0.013099,0.477690,0.892086,0.029533,0.450900
0.405760,-0.140975,0.464504,0.557778,0.398314,-0.728169
0.370627,0.389039,0.302492,-0.486109,0.637061,0.598206
-0.052435,-0.508985,0.529429,0.430254,0.662393,-0.613284
0.715362,-0.191316,0.356136,0.419596,-0.221955,-0.880156
-0.278562,-0.235982,0.434022,0.088288,0.845181,-0.527138
0.702681,0.227146,0.344881,-0.133966,0.351748,-0.926459
0.101443,-0.216026,-0.079414,0.711564,0.666948,-0.221035
0.318057,0.821555,0.393086,0.690740,0.073988,-0.719309
-0.273411,0.285078,0.706382,-0.637588,-0.727517,-0.253378
0.547879,-0.257634,0.772611,-0.548214,0.602967,0.579562
0.625808,-0.113088,0.228316,0.392794,0.463883,-0.794057
0.069079,0.066152,0.859596,0.136818,0.990568,0.007464
0.137631,-0.089278,0.827359,0.167872,-0.720721,0.672592
-0.098137,0.420330,0.334679,0.799176,0.497062,0.338004
0.103554,0.157873,0.828562,0.851137,0.435601,0.292947
0.762385,0.125226,0.221698,0.838349,0.531215,-0.122397
0.201033,-0.422136,0.409054,-0.786342,-0.434619,0.439058
0.185578,0.077265,0.970245,-0.529777,-0.374249,0.761101
-0.470741,-0.153444,0.666449,-0.118684,0.934096,0.336718
0.083477,-0.394928,0.647498,-0.346505,-0.263772,0.900199
-0.545635,0.655462,-0.566881,-0.202980,-0.691685,0.693088
0.559372,-0.145507,0.493131,0.419691,0.839087,-0.346111
0.501782,0.101298,0.776973,-0.492818,0.415461,0.764541
0.235372,0.460008,0.425624,-0.233539,0.644640,-0.727941
0.220578,-0.358427,0.591146,0.502585,0.240516,-0.830398
0.373400,0.637664,0.589542,-0.148809,0.527439,0.836459
0.199316,-0.653302,0.486062,-0.325327,-0.399842,-0.856907
0.228241,0.847517,0.521834,0.774968,-0.527117,0.348673
0.588297,-0.377020,0.378572,-0.105780,-0.166984,0.980269
-0.321620,-0.434494,0.449213,-0.620470,-0.637491,0.456752
0.212392,0.044612,0.953625,0.293059,0.717045,0.632426
-0.563995,0.581206,0.378522,0.408153,-0.543116,-0.733782
0.237089,0.921323,0.424270,0.540802,0.427150,-0.724621
0.084400,0.117510,0.778351,-0.379079,0.344564,0.858822
0.102366,0.055157,0.928206,0.167734,-0.782065,0.600200
0.373795,-0.080545,0.612729,-0.788958,0.422918,-0.445742
-0.584996,-0.776314,0.411762,0.831107,0.089192,0.548914
-0.403909,-0.158890,0.366414,0.332957,0.772075,-0.541332
0.526351,0.311947,0.353855,0.489216,0.156652,-0.857979
0.598071,-0.607618,0.379901,0.857823,-0.066989,-0.509560
0.142255,0.131115,0.759676,0.958753,0.261425,-0.111579
0.503899,-0.492087,-0.935601,0.291566,0.109671,-0.950243
-0.236295,0.061392,0.548305,-0.369966,-0.637544,0.675769
0.294677,0.440286,-0.629575,0.804293,-0.543672,-0.239862
-0.786421,-0.001529,0.472200,0.762951,0.180479,0.620753
0.717211,-0.304121,0.370225,0.859582,-0.490559,0.143075
-0.381853,-0.489707,0.505089,0.182895,-0.852567,0.489570
0.299035,0.487444,0.802492,0.003609,0.913880,0.405968
0.033285,-0.090523,0.684498,-0.593587,-0.747144,0.299047
0.335361,-0.323164,0.779354,-0.557431,0.182470,-0.809923
0.102366,-0.663281,0.492204,0.375649,0.795009,0.476286
-0.698190,-0.399010,0.495212,-0.273071,0.889084,0.367370
-0.050851,-0.631651,0.510177,0.880817,0.336865,0.332692
-0.496498,0.240411,0.505490,0.959143,-0.205990,-0.193940
0.231409,-0.040190,0.934623,-0.671570,0.596836,0.439067
-0.483027,0.552635,-0.994285,-0.227286,0.063506,0.971755
-0.617089,0.645490,0.386744,0.695827,-0.623337,-0.356756
-0.058643,0.198007,0.660609,0.314714,0.894481,-0.317581
-0.408928,-0.504446,0.480272,0.282725,0.708201,0.646930
0.089685,-0.687998,0.502908,-0.421764,-0.801089,-0.424702
0.033285,0.134630,0.940640,0.056498,0.996215,0.066065
0.387004,0.057309,0.613607,-0.699146,0.453139,-0.553046
-0.586846,-0.935716,0.172115,0.896484,0.441484,-0.037529
0.242373,0.778362,0.553193,-0.196159,-0.093321,0.976121
0.188614,-0.394706,0.445528,-0.599294,0.234845,-0.765306
-0.026944,0.111393,0.726311,0.910330,-0.140513,-0.389301
0.198255,0.706598,0.401459,-0.490234,0.550095,0.676067
-0.048211,0.048127,0.449112,-0.485485,0.850498,-0.202378
0.163123,-0.404110,0.674020,0.395983,0.829029,0.394852
-0.030113,0.808629,0.226461,0.001659,0.996301,0.085912
0.666492,-0.597640,0.400958,-0.044286,0.565259,0.823724
-0.076870,-0.357859,0.278778,-0.423257,0.905982,0.007113
0.298378,0.173857,0.698260,-0.519201,0.852033,0.066858
0.325586,0.270450,0.784368,-0.188857,-0.032094,0.981480
0.022059,0.333031,0.530332,0.556123,0.229378,0.798820
0.071195,0.117289,0.794896,-0.278737,0.901846,-0.330120
0.270376,0.898419,0.472751,0.863687,-0.190635,0.466587
-0.244881,0.195059,-0.981124,0.196204,-0.061055,-0.978661
0.223618,-0.379511,0.509826,0.999121,0.018224,0.037750
0.018891,0.133841,0.686353,0.278542,0.320605,0.905332
-0.861972,-0.193468,0.286724,-0.889632,0.316748,0.328977
-0.169197,0.304010,0.644941,0.648701,-0.550045,0.525963
0.051912,0.229866,0.553845,-0.727335,0.685152,0.039375
-0.102495,0.329862,0.604632,0.252712,0.013060,-0.967454
0.176066,-0.102086,0.463476,0.341000,0.396693,-0.852264
0.460837,0.139052,0.614760,0.587016,0.056008,-0.807635
-0.241845,0.080891,0.499799,-0.321482,0.366348,-0.873177
0.208030,0.559554,0.585280,-0.106039,0.052904,0.992954
-0.144762,0.532796,0.329239,0.898696,0.382396,-0.214755
-0.322680,0.156060,0.825980,0.972984,0.183208,-0.140485
-0.297713,-0.459890,0.607591,0.652133,-0.164236,0.740100
0.074101,0.139397,0.603880,0.394400,-0.869293,-0.297956
-0.500327,0.378839,0.170009,0.134623,0.753157,0.643919
-0.102495,-0.250493,-0.226461,-0.135986,0.939824,-0.313431
0.532030,-0.233263,0.767647,0.425291,-0.613633,-0.665268
-0.069607,0.210933,0.748045,0.382064,0.687154,0.617938
-0.157310,-0.377808,0.566906,0.089048,-0.403353,0.910702
0.238939,0.470325,0.560789,-0.331879,0.516788,0.789168
0.412362,0.099823,0.322395,-0.275374,0.375656,-0.884902
0.133403,0.169097,0.540058,-0.003542,0.815084,0.579331
0.118876,0.615784,0.525569,-0.011838,-0.566081,0.824264
-0.430590,-0.280767,0.584954,-0.092991,0.994898,-0.039122
-0.334168,0.158101,0.652963,0.562985,-0.023402,0.826136
-0.133669,-0.597073,0.509275,-0.702334,-0.617649,-0.353887
-0.322680,-0.694571,0.483982,-0.333467,0.603156,-0.724571
0.500993,0.448563,0.346711,-0.548461,0.278853,0.788309
0.321358,0.281562,0.741427,0.270095,-0.869320,0.413923
-0.445649,0.159458,0.531661,0.651181,0.679760,0.337476
-0.809405,-0.124312,0.465005,0.983457,-0.077018,0.163952
0.194954,0.173069,0.676151,0.249814,0.479638,-0.841154
-0.531502,-0.205827,0.482077,0.173363,-0.661955,0.729219
0.330471,0.380196,0.798506,-0.155709,-0.105764,0.982125
-0.071058,0.359451,0.622581,-0.525975,-0.772692,0.355383
-0.437192,0.437449,-0.990173,0.223642,-0.130774,-0.965858
0.096686,-0.540726,0.494360,-0.136613,-0.334599,0.932406
-0.743626,0.279978,0.412113,0.933316,-0.322895,0.157034
-0.153215,0.084407,0.642084,-0.503534,0.851571,-0.145880
0.298906,0.193925,0.791487,-0.628498,0.669346,-0.396190
-0.619867,-0.194485,0.498546,0.718697,0.120767,0.684756
-0.285826,0.356953,0.163216,0.063818,0.997231,0.038178
-0.087568,0.151071,0.775018,-0.148779,-0.296303,-0.943435
0.364153,0.323510,0.366139,0.473767,0.617499,0.627885
-0.388722,0.072505,-0.982503,-0.263916,0.039382,0.963741
0.343548,0.534498,-0.952472,-0.273256,0.041633,0.961040
0.184917,0.386659,0.138574,-0.805977,0.434110,-0.402429
0.127857,-0.257295,0.641908,-0.073972,0.543159,0.836365
0.316340,-0.780396,0.300386,-0.181527,-0.967905,0.173805
-0.013868,-0.546172,0.219367,0.345380,0.900001,-0.265915
-0.097871,0.301519,0.214680,0.960830,-0.128303,-0.245651
0.044382,0.461371,0.599318,0.639604,-0.685163,-0.348510
-0.049662,-0.542311,0.520831,-0.557646,-0.313927,-0.768428
-0.156782,-0.290060,0.574351,-0.605230,0.409096,0.682889
0.422798,0.192112,0.764013,-0.189709,0.966692,0.171806
0.048606,0.283943,0.564424,0.706322,-0.427672,0.564098
-0.318980,-0.386880,0.597438,0.189529,0.589948,-0.784882
-0.060360,-0.126921,0.737316,0.908504,0.400702,-0.118566
0.165234,0.054368,0.463727,0.856044,0.460417,-0.234959
0.421742,-0.026925,0.880402,-0.058802,-0.858003,0.510268
0.447894,0.362059,0.558182,-0.177965,-0.369945,0.911849
-0.381720,-0.360807,-0.706332,-0.332925,0.839674,-0.429078
-0.127329,-0.689133,0.513762,0.561682,-0.775528,0.288217
0.381458,0.106065,0.510403,-0.614191,-0.539018,-0.576393
-0.447628,-0.139958,-0.984959,0.273347,-0.064559,-0.959747
0.127329,-0.267951,0.647122,-0.311359,0.738162,0.598475
-0.391889,-0.639926,0.486864,0.929843,0.302114,-0.210045
0.242107,0.572134,0.122681,-0.713027,0.614611,-0.337411
-0.132609,0.064907,0.700942,0.869946,0.480092,-0.112721
-0.063133,0.471688,0.341773,-0.248663,0.603384,0.757690
-0.529519,-0.066491,-0.059009,0.733939,0.668055,0.122620
-0.365604,-0.327135,0.614810,0.638396,-0.230478,0.734391
0.323603,0.469418,0.800737,0.184144,0.913479,0.362833
0.030511,0.123295,0.934298,-0.466554,-0.882033,-0.065918
0.020342,0.536200,0.427153,0.111731,0.421200,0.900059
0.526879,0.964972,0.525444,-0.791839,0.535640,0.293397
-0.002114,0.252541,0.549910,-0.551609,0.831571,-0.064937
-0.172103,-0.368059,0.253560,0.012196,-0.998908,0.045099
-0.042004,0.722243,0.348817,0.710998,0.100807,-0.695930
-0.605996,-0.680061,0.225734,0.927509,0.114609,0.355798
-0.199179,-0.593108,0.532463,-0.024677,0.531106,0.846946
0.371683,0.357299,0.811315,-0.672835,0.459825,0.579529
-0.369567,0.497762,0.162664,-0.245558,-0.354192,0.902358
-0.272089,0.110709,0.512534,0.389822,-0.520137,0.759932
-0.013074,0.770875,0.346937,0.407183,0.193630,-0.892586
0.215165,0.141093,0.615186,0.686007,0.645183,-0.336354
0.481971,0.178618,0.620475,-0.415647,0.885961,-0.205693
-0.410250,0.438695,0.464203,-0.096993,-0.338987,0.935778
0.147007,-0.345729,0.647448,0.644932,0.435561,-0.627973
-0.656584,0.133045,0.601399,0.184770,-0.146387,0.971818
0.649715,-0.600471,0.395042,-0.044286,0.565259,0.823724
0.030117,0.190070,0.725885,0.761898,-0.510892,-0.398122
0.281734,0.168301,0.762208,-0.089413,-0.745716,0.660238
0.241450,-0.263758,0.428231,0.817974,-0.078748,0.569840
-0.347510,0.717483,-0.313146,-0.675400,0.688475,0.264268
0.028004,0.525198,-0.403565,0.679723,-0.375002,0.630357
-0.099721,-0.592423,0.427229,-0.562738,-0.580434,-0.588576
0.602300,-0.379171,0.354557,0.457577,0.413851,0.786988
-0.101572,-0.625527,0.549860,-0.376994,0.919929,-0.107734
-0.701625,0.057766,0.453825,0.094217,0.425508,0.900037
0.981112,-0.056064,0.388699,-0.655553,0.753991,-0.041809
-0.068156,0.311151,0.123634,-0.229253,0.432150,-0.872175
-0.472063,0.082483,0.567282,-0.360433,-0.930143,-0.070154
0.262318,0.100737,0.764088,-0.614913,-0.582865,0.531179
0.277244,-0.418171,0.691843,-0.045258,0.095256,0.994424
-0.287281,-0.026807,0.583175,-0.439550,0.733918,0.517842
-0.311450,0.226461,0.583801,-0.002667,-0.501336,0.865248
-0.561750,0.347770,0.238920,-0.037902,-0.923498,0.381727
0.216354,0.115469,0.983255,-0.278472,-0.851625,0.444059
-0.362037,0.593675,-0.321794,0.607829,-0.239238,-0.757172
0.656322,-0.520887,0.174722,0.456233,-0.769412,-0.447053
-0.010039,0.164793,0.742028,-0.633957,-0.627581,-0.451930
-0.039097,0.080780,0.837962,0.836171,0.320604,0.445007
-0.283580,-0.680517,0.508022,-0.543057,0.775843,0.321181
0.092591,0.125447,0.975659,-0.167455,0.855810,0.489436
0.314622,0.240978,0.835706,-0.552266,0.714176,0.430064
-0.307226,-0.387558,0.604181,0.321434,-0.230122,0.918545
-0.279618,0.484843,-0.985536,-0.212618,0.074180,0.974316
0.396513,0.680296,0.581194,0.616629,0.381890,0.688425
-0.491746,0.372377,0.254913,0.330870,-0.842131,0.425840
0.229164,0.505131,0.463326,-0.706029,0.396288,-0.586923
-0.052302,-0.013320,0.777248,0.823500,0.285372,0.490317
0.201295,-0.249019,0.594004,0.261547,-0.426656,-0.865770
0.021926,0.408311,0.251930,-0.194278,0.105882,0.975215
-0.265752,-0.027942,0.640855,-0.285498,-0.120657,-0.950754
0.324002,-0.020461,0.759776,0.720384,-0.279928,-0.634576
-0.487517,0.211161,0.543066,0.940562,0.173268,0.292099
0.073440,0.032260,0.814850,-0.412553,0.286379,-0.864747
0.558710,0.189731,0.627544,0.429014,0.753362,-0.498391
0.115442,-0.167962,0.685751,0.528541,0.838225,-0.134253
-0.260335,0.213314,0.449564,0.114032,0.708750,0.696183
-0.788006,-0.334276,0.509701,0.824306,0.302724,0.478412
-0.023244,0.085652,0.825604,-0.446826,-0.845104,-0.293505
0.133274,0.230661,0.664670,0.098205,0.994372,-0.039750
0.111084,0.154475,0.858042,-0.018242,0.759041,0.650787
-0.443799,0.272608,0.216710,0.199784,-0.953376,-0.226187
-0.443271,0.418856,0.674120,0.980788,0.077351,-0.179083
0.135520,-0.699221,-0.943372,0.246229,-0.064888,-0.967037
0.290582,0.468741,0.539456,0.953793,0.051104,-0.296085
-0.041871,0.234737,0.693497,-0.206777,-0.885718,0.415628
0.057986,0.454458,0.529630,0.788014,-0.237785,-0.567885
-0.167613,-0.386424,0.496165,0.964310,-0.256653,0.065078
0.174087,0.665557,0.538278,-0.630186,-0.429529,0.646816
-0.131952,0.058223,0.637596,-0.619462,0.127015,-0.774683
0.077402,0.194949,0.474882,-0.311822,0.688681,-0.654588
0.313300,-0.712936,0.485837,-0.629635,-0.316371,-0.709556
0.393079,-0.580064,0.222827,-0.609244,0.537408,-0.583107
-0.322680,-0.513289,0.479871,0.922440,-0.171247,-0.346091
0.615771,-0.254236,-0.096335,-0.474095,-0.661594,-0.580971
-0.108174,-0.455358,0.485611,-0.120221,0.410311,0.903987
0.236033,0.379746,0.559034,-0.278120,-0.372438,0.885403
0.318851,0.277819,0.344756,-0.242585,0.087183,0.966205
0.341435,0.237463,0.729871,0.882512,-0.163318,0.441022
-0.459253,-0.948303,0.238168,0.927285,0.300031,-0.223882
-0.479593,-0.391074,0.630001,0.808668,0.124108,0.575024
0.366794,0.122160,0.761832,0.831235,0.397130,-0.389021
0.035796,0.596852,0.502933,0.536449,-0.808488,-0.242012
0.470878,0.149368,0.703574,0.760266,0.307203,-0.572383
0.278034,0.244037,0.840043,0.420007,-0.795816,-0.436201
0.255183,-0.096876,0.756041,0.902585,-0.417379,0.105528
0.087572,0.504342,0.529128,-0.103998,0.834031,0.541827
0.490823,-0.386652,0.533616,-0.633285,0.605618,-0.481847
-0.138687,0.580189,0.215407,-0.482278,0.751579,0.450041
-0.148990,0.298910,-0.976938,-0.191122,0.067955,0.979211
0.145423,0.844570,0.535070,0.751630,-0.656409,0.064655
0.226919,0.089395,0.953875,-0.537438,-0.751138,-0.383344
-0.356491,0.452417,0.592374,0.153267,0.978292,0.139476
-0.194688,0.759084,0.182743,-0.410437,0.540178,-0.734676
-0.039625,0.385524,0.408001,0.990232,-0.072143,0.119316
0.198788,0.063094,0.636494,0.779716,-0.533533,0.327696
0.082421,-0.109802,0.741026,0.070307,0.996901,-0.035302
0.160877,0.460693,0.498621,-0.579371,-0.053318,-0.813318
0.465594,0.930616,0.493131,-0.476842,0.806192,0.350251
-0.639940,0.109580,0.358894,-0.580853,-0.049897,0.812478
0.370627,0.770308,0.429284,0.705380,0.282742,-0.649997
-0.392151,0.032599,0.498947,0.730682,0.670170,0.130293
0.327170,-0.002775,0.646169,0.922141,-0.148970,-0.357020
0.259806,-0.015133,0.676226,-0.208919,0.874082,0.438558
-0.192971,0.245511,0.607365,0.954706,-0.078868,-0.286909
-0.045833,0.388472,0.641783,0.961648,-0.273940,0.013761
0.452518,0.089395,0.607164,-0.366228,0.271913,-0.889910
0.278828,0.001647,0.696656,0.770223,0.187860,0.609480
0.270770,0.901823,0.305801,-0.512959,-0.224864,0.828438
0.565845,0.285078,0.707435,-0.088936,-0.157719,0.983471
0.276583,-0.155603,0.635616,0.547597,0.231247,-0.804153
0.529918,0.698889,0.607340,-0.062713,0.119335,0.990871
-0.280013,-0.640383,0.480748,0.059134,-0.036220,0.997593
-0.225597,-0.741397,0.489396,0.304017,0.284189,0.909291
0.218071,0.054140,0.933245,0.850660,0.441273,-0.285754
-0.297185,-0.092115,0.540334,0.006758,0.593667,0.804683
0.177126,0.542089,0.513988,-0.781859,0.562719,0.268408
-0.080571,-0.584603,0.348792,-0.264765,-0.320020,-0.909663
0.045172,-0.007196,0.818735,0.938394,-0.345071,-0.018518
0.557521,-0.051296,0.513010,0.063307,-0.051012,0.996690
-0.126667,-0.596395,0.491126,0.001000,-0.909998,0.414611
0.001320,-0.399467,0.574125,0.703560,0.430581,-0.565334
-0.560560,-0.288814,0.459516,-0.559925,0.725547,-0.400082
0.620790,0.643221,0.243733,-0.285892,0.909800,-0.300883
0.105006,-0.297886,0.655871,0.782997,0.499879,-0.370184
-0.561750,-0.424634,0.324025,0.757937,-0.272826,-0.592535
-0.076475,-0.015133,0.634613,-0.587287,-0.759743,-0.279077
-0.510368,0.178397,0.455580,0.426233,-0.760865,-0.489295
-0.713777,0.490849,0.400356,-0.625077,0.662115,0.413379
0.170519,-0.111497,0.783616,0.587982,-0.212960,-0.780336
-0.565841,0.322714,0.562068,-0.421371,0.808401,0.411015
-0.346055,-0.190859,0.346761,0.364933,-0.882020,0.298102
-0.257295,-0.289831,0.560564,-0.159839,-0.173732,-0.971735
0.420686,0.947514,0.447232,0.321102,-0.902113,0.288247
0.704398,-0.106854,0.504788,-0.195691,0.071315,0.978069
0.485538,0.195855,0.601449,-0.592019,0.735779,0.328852
0.174614,-0.019666,0.771683,0.631394,0.463806,-0.621470
-0.399947,0.158669,0.484408,0.953273,0.208286,-0.218833
0.680229,0.776321,0.243257,0.978505,0.137572,-0.153632
0.518692,-0.031346,0.446455,-0.004303,0.561613,0.827389
0.076608,0.623264,0.530507,0.002846,-0.430805,0.902441
-0.665169,-0.473044,0.326682,0.916291,0.395286,-0.064494
0.199445,0.098357,0.379600,0.779380,-0.596305,0.192319
-0.735173,0.116265,0.479018,0.816634,-0.508783,-0.272487
0.644568,0.062077,0.499198,0.485135,-0.435208,-0.758444
-0.578389,0.620316,0.192846,0.201021,-0.455805,0.867083
0.109367,-0.364094,-0.949313,0.095204,-0.039997,0.994654
-0.199445,0.214898,0.748245,-0.422026,-0.664340,0.616885
-0.165763,-0.186437,0.741026,0.925734,-0.341941,0.161534
-0.399947,0.339951,0.150456,0.286350,0.692863,0.661774
-0.099326,-0.286434,0.747042,0.108189,0.556872,0.823522
0.621056,-0.532789,0.390379,-0.210466,0.614181,0.760582
0.178710,0.818607,0.545021,-0.274957,-0.119661,0.953981
-0.156649,-0.360011,0.398451,0.999372,0.029548,0.019538
-0.328621,0.000062,0.815201,-0.544873,0.708307,-0.448792
0.199578,0.439034,0.561691,0.004791,0.200342,0.979714
-0.366000,-0.953513,0.278652,-0.652379,0.749582,0.111926
0.078459,-0.502633,-0.944249,-0.214318,-0.100735,0.971556
-0.513275,0.039629,-0.989998,0.239720,-0.055153,-0.969274
-0.531369,-0.638563,0.396571,0.296465,-0.739353,-0.604537
-0.186897,0.227713,0.587912,0.928257,0.056896,-0.367562
0.005154,0.123634,0.637747,-0.317767,0.286431,0.903870
0.034212,0.135536,0.938058,0.131400,0.991268,-0.011069
-0.801876,-0.111954,0.206733,0.738299,-0.113368,-0.664878
-0.206313,0.666124,0.171212,0.253640,-0.168355,0.952535
-0.205785,-0.387108,0.382984,-0.725641,0.605699,0.326457
-0.626864,0.253448,0.253459,0.848457,-0.521807,0.088537
0.062081,-0.162287,-0.037150,0.778906,0.625983,-0.038078
-0.787873,0.041103,0.323524,-0.743869,0.654403,0.135699
-0.334962,-0.637546,0.503660,-0.359579,0.381869,-0.851398
0.290582,0.451171,0.817883,-0.162824,0.978587,0.125923
0.012151,-0.373726,-0.725158,-0.586980,-0.802883,-0.104086
0.056402,-0.600588,0.276321,0.561111,0.630829,-0.535919
0.363492,0.111843,0.846636,-0.193876,-0.034328,0.980425
-0.026150,-0.203107,0.723829,-0.220848,-0.204466,0.953635
0.028661,0.106404,-0.955931,-0.228561,0.127360,0.965163
-0.563201,0.116265,0.455154,0.013032,-0.792938,0.609163
-0.146745,-0.391302,0.540985,0.302383,-0.871691,0.385640
-0.137760,0.078172,0.630527,0.544768,-0.316315,0.776642
0.218200,0.026475,0.932142,0.970370,0.055924,-0.235061
-0.186897,0.074885,0.591221,-0.808199,-0.434715,0.397286
-0.096025,-0.096537,0.547754,-0.694718,-0.405223,0.594274
