-0.179320,0.753773,0.239081,0.876606,-0.194564,-0.440122
0.595396,-0.168467,0.366717,0.933844,-0.044743,-0.354871
0.313059,-0.528197,0.153904,0.061532,-0.534478,0.842940
-0.299431,0.790786,0.443474,0.881725,-0.431741,-0.190160
-0.504621,-0.923829,-0.080151,0.311630,0.810780,-0.495502
-0.118649,-0.594996,0.373633,-0.291167,0.558265,0.776892
0.175469,-0.013186,0.602326,-0.561026,0.826753,-0.041591
-0.054049,0.658141,-0.982099,0.092740,-0.118019,-0.988671
0.375809,-0.539634,0.407026,0.823695,0.091413,0.559617
0.730366,0.711119,0.520077,0.301696,0.627686,0.717628
0.383662,-0.203893,-0.037200,-0.533867,-0.351702,-0.768955
-0.421851,0.155520,0.381561,0.880476,-0.425321,0.209439
-0.389975,0.430660,0.407492,-0.434149,0.477068,-0.764147
0.509468,0.351708,-0.068313,0.586372,0.808484,0.050212
-0.320836,-0.327641,0.070437,-0.463525,0.482688,0.743073
0.321217,-0.213821,0.480131,0.800563,0.021568,-0.598861
-0.252773,-0.053613,0.167271,-0.040789,-0.561317,0.826595
-0.216739,-0.805957,-0.278353,-0.458427,0.882217,0.107414
-0.008008,-0.487133,0.206414,-0.526886,-0.454280,-0.718346
-0.257931,0.620174,0.194109,0.231726,0.873714,-0.427700
0.484524,0.270452,0.520854,0.427876,-0.805601,0.409791
0.079534,-0.969182,0.225299,-0.539589,-0.780717,-0.315157
-0.607254,0.411914,0.185068,-0.437816,0.223513,-0.870838
0.033415,-0.529865,0.385187,-0.218076,-0.936159,0.275770
-0.077687,0.041938,0.719885,-0.351079,0.710728,-0.609598
-0.662920,0.051390,0.330423,-0.160769,0.971461,-0.174402
-0.110334,-0.296346,-0.419020,0.231040,0.259669,0.937653
-0.610795,0.110404,0.357546,-0.314867,0.293900,-0.902487
0.237756,0.067037,0.564090,-0.714154,0.624930,0.315352
-0.680320,-0.275377,0.373426,0.645011,0.763001,-0.042308
0.274637,0.357108,-0.963681,-0.064767,0.281785,0.957289
0.101555,0.184671,0.040775,0.735995,-0.347923,0.580742
0.060441,0.177521,0.902492,0.892327,0.352762,0.281623
-0.606021,-0.173788,0.243951,-0.115798,-0.743443,0.658698
0.352172,-0.089675,0.697762,-0.511432,0.520813,0.683514
-0.823915,0.299841,0.297860,0.061623,-0.724205,0.686825
0.643132,0.292057,0.811642,0.892859,-0.230116,-0.387105
-0.438019,0.634233,0.207217,-0.027253,-0.817999,0.574574
-0.330228,-0.129309,-0.511398,-0.576110,0.729413,-0.368855
-0.093087,-0.746307,-0.425755,0.009227,-0.994192,0.107224
-0.449570,-0.309611,-0.118569,0.753490,-0.432961,-0.494771
0.044348,0.042176,0.786850,0.105538,0.947087,0.303129
-0.056437,-0.424940,0.450288,0.958925,-0.034936,-0.281500
0.015860,0.174423,0.776255,-0.594431,0.572275,-0.564936
0.145673,0.815329,0.439433,-0.600216,0.486009,-0.635245
0.151216,0.247021,0.331278,0.909648,-0.358702,-0.209461
-0.757699,0.374663,0.268276,0.393454,-0.584061,0.709977
-0.487912,0.012549,0.344516,0.550638,-0.725062,-0.413621
-0.022867,-0.076648,0.141288,-0.281745,-0.328078,-0.901657
0.333308,0.045035,-0.001632,0.286128,0.488911,-0.824074
0.135125,0.208420,0.776929,0.648829,-0.731521,0.209517
0.022559,0.583558,0.580540,-0.643258,-0.070817,-0.762368
0.345935,0.232883,0.537511,0.897034,-0.441456,0.021126
-0.676163,0.245353,0.377701,0.596973,0.699077,0.393592
0.192330,0.040746,0.360085,0.880090,0.463838,-0.101471
-0.418618,-0.289119,0.126030,-0.377519,0.543062,-0.750042
0.508547,0.098411,0.384410,-0.774727,0.271713,0.570938
-0.485372,0.817553,0.240221,0.102339,-0.376138,0.920895
-0.311057,-0.096982,-0.513108,0.523475,-0.743163,0.416752
0.071604,-0.523669,0.008134,0.473786,0.025486,0.880271
-0.288190,-0.350278,0.075333,0.922889,0.154854,-0.352557
-0.695412,-0.139237,0.226543,-0.256541,-0.687428,0.679433
-0.819218,-0.143924,-0.083959,0.946221,-0.323165,0.015195
-0.216739,-0.750198,0.391871,0.631427,0.658424,-0.409606
0.439636,0.262192,0.637920,0.943283,-0.281863,-0.175417
0.008623,0.871167,0.415419,0.827843,0.193742,-0.526441
-0.842008,-0.163781,-0.289700,0.975339,0.077764,0.206560
0.898983,0.106115,-0.028185,0.333672,-0.814881,0.473953
-0.814521,0.309452,0.151003,0.848322,-0.017754,-0.529183
0.719895,-0.181891,0.566214,0.853963,-0.387418,-0.347354
0.708499,-0.272518,0.169214,-0.336781,0.912369,0.232727
0.039035,-0.391263,-0.742060,-0.522300,0.666806,-0.531575
0.889744,-0.235742,0.277162,0.335531,0.864565,-0.374095
-0.540730,-0.809452,0.256023,-0.166805,0.597618,0.784238
-0.054898,0.319062,0.610487,-0.110128,-0.790907,-0.601946
-0.778104,0.830977,-0.019688,0.979848,-0.199139,-0.015529
0.065135,-0.345830,-0.740324,-0.523321,0.692226,-0.496949
-0.693102,-0.550595,-0.072250,-0.347402,-0.741283,-0.574292
-0.807515,-0.221287,-0.310062,0.923990,0.276057,0.264640
0.489604,-0.302939,0.329050,-0.121887,-0.397962,-0.909269
-0.190408,-0.192295,0.450650,0.854627,0.515509,0.062145
-0.807129,-0.261636,0.265997,-0.639216,0.444068,-0.627859
0.168077,0.127720,0.495026,-0.704904,0.594553,-0.386805
-0.618725,-0.979587,0.416921,-0.703232,-0.503194,-0.502256
-0.384202,0.096267,-0.612714,0.384849,-0.115036,0.915783
-0.308284,-0.679190,0.314310,0.743032,0.547972,-0.384227
0.316137,0.024146,-0.943008,-0.341483,0.015948,-0.939752
-0.186096,0.179110,0.507875,0.087303,-0.854365,0.512288
0.230595,0.642415,0.637350,0.036877,-0.990978,0.128848
-0.447183,0.444877,-0.426610,0.828919,-0.301165,-0.471375
-0.523947,0.050516,0.299648,-0.184223,0.680246,0.709455
-0.347322,0.072914,0.282887,-0.253888,0.064639,0.965071
-0.718742,-0.215013,0.258691,0.811379,-0.323400,0.486905
0.077840,0.357347,0.406041,0.063414,-0.217548,0.973987
-0.094473,-0.211676,0.405471,-0.165452,-0.846663,-0.505754
-0.608486,0.264971,-0.155096,-0.434477,-0.631803,-0.641915
-0.159994,-0.554567,0.211310,0.300012,-0.557679,-0.773943
0.559206,-0.835346,0.038547,-0.825431,0.475577,-0.304121
-0.401063,-0.618269,0.327781,0.737843,0.554344,0.385085
-0.057360,0.567275,0.180042,-0.155048,-0.283409,-0.946382
0.195563,-0.421366,0.352624,-0.056500,0.354081,0.933507
-0.841855,-0.450993,-0.453655,-0.400505,-0.072939,0.913387
0.564211,-0.708181,0.321227,0.164381,-0.484228,0.859362
0.812595,-0.247816,0.496580,-0.040849,-0.742353,0.668762
-0.013936,0.571088,0.591420,0.736143,-0.054783,0.674606
-0.272560,-0.152899,0.385524,-0.700678,0.703620,-0.118195
0.011086,0.213502,0.710663,-0.626668,0.523195,-0.577542
-0.277950,0.282367,0.535205,0.215871,0.976007,0.028465
-0.071143,0.246307,0.636055,0.391286,0.542907,0.743066
0.052200,0.706989,0.452282,0.971644,-0.223196,-0.078051
-0.194950,0.367513,0.647635,0.374777,-0.466970,0.800925
-0.042116,0.835425,0.357805,-0.567512,0.805814,0.169099
-0.531952,-0.941064,0.375550,-0.422942,0.524857,0.738678
-0.258546,-0.433916,0.468421,0.564585,0.817505,0.113708
0.245689,-0.398332,-0.633957,-0.429137,0.226335,0.874422
-0.774330,-0.374504,0.281928,0.624386,0.761189,-0.175309
-0.332462,0.529865,0.490415,0.806481,0.541786,-0.236764
0.650369,-0.220016,0.517331,0.017795,-0.699230,0.714675
0.758928,-0.460604,-0.031035,-0.471159,0.882019,0.007121
-0.109410,-0.101668,0.509663,-0.518753,-0.829496,0.206960
0.318294,-0.408657,-0.395109,0.895205,-0.234305,0.379090
-0.050664,-0.098650,0.619761,0.062793,0.977437,0.201679
-0.184247,0.345432,-0.311305,0.171466,0.952039,0.253418
-0.458579,0.220095,0.551837,0.908717,0.360998,0.209555
0.054588,0.172915,0.962929,0.396551,0.917773,-0.020973
0.188634,0.181095,-0.895316,0.794214,-0.599581,-0.098625
0.363412,0.611437,0.506399,0.524261,-0.819625,0.231008
0.473438,0.309770,0.625615,-0.592143,-0.748564,-0.298361
0.532185,0.117076,-0.951479,0.031002,0.099039,0.994600
-0.632506,-0.055998,0.346977,-0.071581,-0.938690,0.337249
-0.527718,0.183082,0.606212,0.813294,-0.576423,0.079305
-0.015400,0.148690,-0.442671,-0.274247,0.845740,0.457725
-0.019556,0.199365,-0.137661,0.415091,0.541742,-0.730900
0.514628,0.256394,0.334983,-0.395071,-0.913519,0.096963
0.576147,0.686814,-0.977229,0.006721,0.135766,0.990718
-0.306515,-0.085783,-0.278068,-0.271893,0.681433,-0.679502
0.217737,0.033042,-0.507513,0.727189,0.644751,-0.235567
0.169926,-0.040906,0.776281,0.889591,0.123198,0.439829
0.471666,0.264971,0.387415,0.647850,0.749945,-0.133692
-0.382739,0.673392,0.212657,-0.583699,0.304680,-0.752639
0.093933,0.192295,-0.957463,0.003474,0.049248,0.998781
0.181012,0.093169,-0.901404,-0.509366,0.825458,-0.243237
0.533646,0.206910,0.795969,-0.039373,-0.182581,0.982402
0.271479,-0.531534,0.142480,0.136882,0.545355,-0.826953
-0.084694,-0.027085,0.566914,-0.924554,0.381037,-0.003175
0.177085,0.325655,0.656261,0.366396,0.768852,0.524043
-0.415770,0.608021,0.007254,-0.598218,0.163064,-0.784567
-0.727826,-0.050676,0.279312,0.256068,0.958634,-0.124297
-0.535956,-0.194758,-0.655666,0.036961,-0.289522,0.956457
0.140513,0.577203,0.664681,-0.094127,-0.545009,0.833130
-0.753696,-0.286259,-0.282809,0.878762,0.042915,-0.475328
-0.303049,0.666481,0.497979,0.514900,-0.381672,0.767597
-0.399985,-0.990548,0.054816,0.141881,0.893540,0.425977
-0.301663,0.812470,0.228175,-0.058963,-0.705170,0.706583
-0.376195,-0.805004,0.357235,-0.231126,0.960765,-0.153335
-0.023793,0.657585,0.570981,-0.688375,0.080036,-0.720926
-0.516092,-0.165846,0.254184,-0.022548,-0.936476,0.350006
0.195103,-0.427482,-0.352365,0.992676,-0.085371,-0.085480
-0.128659,0.080460,-0.221232,0.037604,-0.898879,0.436580
0.628578,-0.278873,0.482954,0.844190,-0.175600,0.506467
-0.467355,-0.891739,-0.004922,-0.209464,0.737607,0.641920
-0.118727,-0.902700,-0.584167,0.495455,-0.343469,0.797843
-0.019173,0.288880,0.776825,0.909224,0.413150,0.051170
-0.706498,-0.672994,-0.175224,0.782083,0.126530,-0.610193
0.449260,-0.279745,0.490311,0.085135,-0.580898,0.809512
0.255849,-0.450834,0.166054,0.331863,0.541419,-0.772485
0.220355,0.642096,0.461919,0.614284,0.675006,0.408684
-0.731136,-0.340032,0.309932,0.520754,0.820516,-0.235730
0.350860,0.128117,0.590177,0.278685,0.821921,0.496769
0.212582,-0.466641,-0.338324,0.881676,-0.363999,0.300253
0.113564,0.030183,-0.948319,-0.233292,-0.113254,0.965789
0.701568,0.610325,-0.359955,0.001600,0.366000,0.930613
-0.345550,0.523669,0.447283,-0.296599,-0.797729,0.525030
-0.211273,-0.215013,0.178462,-0.405466,0.065022,0.911794
-0.007084,0.081810,0.780011,0.356285,0.674593,0.646518
-0.839238,0.442017,0.120900,-0.263771,-0.029075,0.964147
-0.224053,0.258777,0.561914,0.150969,0.949065,0.276557
0.713349,0.468387,0.615383,0.941388,-0.019824,-0.336743
-0.562134,0.035743,0.289078,-0.016825,0.703734,0.710264
-0.170389,-0.449563,0.123750,-0.749526,0.534402,-0.390674
0.031643,0.221128,0.961038,0.664954,0.746344,-0.028403
0.668461,-0.064416,0.609502,0.192511,-0.725629,0.660607
0.223127,-0.238999,0.404513,-0.053811,-0.678739,0.732406
0.344394,0.301668,0.531812,0.520014,0.123168,-0.845231
-0.296275,-0.608023,0.339387,0.482153,0.416037,-0.771001
-0.463198,0.499205,0.465598,-0.304799,0.631576,-0.712889
0.832844,0.595710,0.428916,0.851993,0.333655,-0.403463
0.287339,0.718824,0.324776,-0.707025,0.667516,0.233534
-0.130275,-0.144559,0.768924,0.783434,0.621098,-0.021643
0.261780,0.434392,0.522123,-0.694510,0.264842,0.668965
0.239373,0.491659,0.431947,0.460872,0.016001,-0.887322
0.842854,0.110325,0.610279,-0.226114,-0.240556,0.943931
0.384432,-0.753694,0.372261,-0.631106,0.535963,-0.560758
0.027794,0.746385,0.440236,0.861247,-0.099345,-0.498382
0.282489,-0.055124,0.446272,-0.720326,-0.667011,0.190333
-0.363412,-0.138681,0.169033,0.477473,-0.224641,0.849444
0.047428,-0.611120,0.403088,-0.301131,0.775271,-0.555226
-0.877272,-0.235981,0.175846,0.852514,0.520054,0.052563
-0.808053,-0.056076,0.264028,-0.656134,0.285500,0.698554
-0.155682,-0.608023,0.367572,0.424384,-0.086011,-0.901388
0.941789,0.130659,0.490337,0.842411,-0.132830,0.522207
-0.532645,0.520730,0.154733,-0.165312,0.429067,0.888016
-0.650138,-0.605401,0.405704,0.115903,0.983179,-0.141161
0.112641,-0.411120,-0.222864,0.965613,0.254984,-0.050745
0.355405,-0.300556,-0.712295,0.638071,0.695376,0.330632
-0.468203,-0.067355,0.360888,-0.543252,0.622591,0.563255
-0.148137,-0.339953,-0.419641,0.231040,0.259669,0.937653
-0.197645,0.390548,0.440858,-0.702620,0.624264,0.341495
-0.272174,-0.701191,0.492254,-0.562503,-0.647004,-0.514759
-0.184863,-0.537649,0.499819,-0.430404,0.099427,-0.897144
-0.578071,-0.773075,0.036008,-0.626347,-0.633807,0.453848
-0.668619,-0.672120,0.186933,-0.531932,0.405285,0.743500
-0.431015,0.564655,0.460650,-0.427400,-0.806360,-0.408795
-0.337928,0.363860,-0.232164,-0.512039,-0.592529,-0.621872
0.742377,0.120095,0.523418,-0.331967,-0.799917,-0.499930
0.561748,0.470532,0.193798,-0.594936,0.518520,-0.614157
0.254387,-0.563622,0.433060,-0.034410,-0.405356,0.913511
-0.292346,-0.345433,0.192866,0.423154,0.168277,-0.890294
0.265938,0.503892,0.444537,0.953531,-0.293343,-0.068767
0.320832,-0.322796,0.427620,0.916031,-0.152922,-0.370813
-0.028643,0.256871,0.437853,0.936026,0.057981,-0.347122
-0.042501,0.158142,-0.548754,0.866043,-0.482190,0.132147
-0.281338,-0.358301,0.113181,0.788440,-0.178522,-0.588636
-0.418926,0.097061,0.301642,0.957659,-0.234261,0.167365
-0.694874,-0.341064,-0.406611,0.686402,0.712313,0.146501
-0.473823,0.509531,0.465235,-0.493433,0.633149,-0.596361
-0.838545,-0.147339,-0.213823,-0.620875,0.699178,-0.354493
-0.564754,-0.062670,0.280866,0.488450,0.550069,-0.677378
0.459345,0.551866,0.364100,-0.653530,0.710352,0.261340
-0.353250,-0.300635,0.458577,0.984080,0.144583,0.103355
-0.147907,-0.301191,0.184861,-0.519386,0.760875,0.388983
-0.139437,0.832803,0.079711,0.820698,0.161565,-0.548043
-0.271406,-0.107864,0.479949,0.845772,-0.220533,0.485835
-0.919850,0.061557,-0.203539,0.495673,-0.015777,0.868366
0.471201,0.741859,-0.980752,-0.048978,0.122372,0.991275
-0.611949,-0.897697,-0.619553,-0.030422,0.826777,0.561707
0.290652,0.686973,0.533677,-0.732102,-0.444486,0.516197
0.976903,0.275854,0.462411,-0.593699,-0.507607,-0.624385
-0.227441,-0.372439,0.330941,-0.438130,0.711134,0.549846
-0.250464,-0.567911,0.203694,0.370489,-0.328122,0.868950
0.098320,0.704686,0.703746,0.326042,0.170968,-0.929767
0.330456,-0.159016,0.389306,0.876618,0.222048,-0.426891
-0.421236,-0.646228,0.434770,0.760490,0.589825,0.271589
-0.194642,-0.774583,-0.271929,-0.458427,0.882217,0.107414
-0.735988,0.716759,0.171312,0.892601,0.450764,-0.008645
-0.503004,0.432724,-0.230765,0.556281,0.509212,-0.656700
-0.429088,-0.579031,0.078701,-0.769332,0.573411,0.281651
-0.695490,-0.365052,0.233123,-0.705711,0.631152,-0.321898
-0.465275,-0.912311,0.531553,-0.135648,0.814669,0.563839
0.501000,0.286417,0.725999,-0.646274,-0.759750,-0.071478
-0.012012,-0.123034,0.148490,-0.308334,-0.328723,-0.892676
-0.408223,0.343050,0.444122,0.628853,0.112142,0.769395
-0.767479,0.047657,0.326900,-0.102983,-0.868757,0.484412
-0.094704,0.465052,0.764934,-0.671777,-0.678853,-0.296436
-0.484216,0.891739,0.272395,-0.095427,-0.791212,0.604051
0.163998,0.188165,-0.343013,0.942351,0.323429,-0.085834
-0.539884,0.462828,0.476556,0.729905,-0.517813,0.446217
0.615951,0.005878,0.469121,-0.040785,0.075838,0.996286
0.989144,0.230659,0.784545,-0.651246,0.544248,0.528841
-0.657530,-0.071168,0.106031,0.632958,0.597030,-0.492868
0.604249,0.841303,0.213331,0.449907,0.893074,0.001585
-0.187173,-0.098729,0.626418,0.056579,0.860794,0.505798
0.716662,0.300318,-0.489638,0.848532,-0.442048,-0.290839
-0.621421,-0.518110,0.383167,0.308077,0.159963,-0.937817
-0.034033,0.624304,0.623646,-0.599922,0.469637,-0.647715
-0.308132,0.668625,0.182944,0.027382,-0.226888,0.973536
0.745380,0.207069,0.697036,0.995892,-0.087964,-0.021482
-0.343088,0.110404,0.491192,0.441867,-0.349128,0.826356
-0.414922,0.273947,0.438345,0.529118,-0.478968,0.700446
0.075685,-0.558380,0.024636,-0.633327,0.110812,-0.765909
-0.518942,-0.119698,0.364800,-0.596537,0.449925,0.664614
0.455266,-0.036776,0.164447,0.666763,0.745269,-0.001240
-0.721745,0.437808,0.281229,-0.315538,-0.338053,0.886655
-0.598091,-0.796347,0.228667,0.581955,0.697065,0.418843
-0.103943,-0.591819,-0.050464,-0.379617,-0.529185,0.758850
0.251540,0.620254,0.629708,0.505465,0.511084,-0.695197
-0.615107,-0.033280,0.277265,-0.817361,0.210561,-0.536269
-0.019481,0.396902,-0.249935,0.824686,0.555858,-0.104475
0.455421,-0.183240,0.442283,0.448562,-0.117857,-0.885947
0.643057,-0.169818,-0.067354,0.986260,-0.082619,0.143060
-0.400678,0.307942,0.321123,-0.600821,-0.342778,-0.722162
-0.090700,-0.128833,0.648412,-0.573905,0.789857,0.216237
0.230059,-0.594043,-0.151547,0.392196,0.650804,-0.650104
-0.536957,-0.646545,-0.474069,0.009928,-0.754344,0.656404
0.465581,0.522795,0.566784,-0.106776,0.129694,0.985788
-0.241222,0.426052,0.437620,0.669115,0.340370,-0.660631
-0.530105,-0.646942,0.395549,-0.597527,0.216950,0.771942
-0.699493,-0.524464,-0.106238,-0.427283,-0.861772,0.273457
0.807515,-0.147339,0.393451,-0.553484,0.720553,0.417684
-0.646290,-0.988324,-0.130770,0.922741,0.196490,-0.331574
-0.408301,-0.595632,0.321900,0.458722,0.888380,-0.018850
-0.012860,0.265608,0.806150,0.178115,0.327939,0.927756
-0.482677,-0.192852,0.290736,0.970827,0.011096,0.239524
-0.266169,-0.372756,0.477100,0.635593,-0.658234,0.403422
-0.199262,0.887291,0.246827,-0.738041,-0.387898,0.552115
0.135663,0.411994,0.108751,-0.231969,-0.682891,0.692712
0.902216,-0.131692,0.422828,-0.027032,-0.532474,0.846014
-0.050201,-0.201191,0.727475,-0.578812,-0.765018,-0.282354
0.259237,0.095075,0.537330,-0.633716,0.734411,0.242993
-0.721282,-0.694996,-0.598156,0.666839,0.632366,-0.394257
-0.705652,0.276569,0.257681,0.847691,-0.368869,0.381254
-0.476516,0.924861,0.268095,-0.027781,-0.795552,0.605248
0.715276,-0.351946,0.254054,-0.164162,0.955940,-0.243372
-0.614259,0.017791,0.301306,-0.034911,-0.980363,0.194088
-0.536957,0.550834,0.490855,0.757661,0.489751,0.431387
-0.568602,0.300318,0.461116,0.837320,-0.400194,0.372478
-0.751541,-0.063861,-0.137195,0.681492,-0.720815,0.126470
0.175622,0.757427,0.376431,0.894680,-0.225820,0.385424
-0.284494,-0.393248,0.487410,0.866474,0.474174,0.156143
-0.136434,-0.185386,-0.415963,0.896975,0.036515,0.440571
-0.567216,0.631771,-0.987539,-0.013321,0.188458,0.981991
-0.442949,0.220889,-0.433501,-0.125106,-0.146384,0.981285
0.043962,0.358538,0.546474,-0.182535,-0.769438,0.612084
-0.220590,-0.627641,0.405886,-0.752755,0.657512,-0.032209
0.124190,-0.098808,0.717579,-0.077057,-0.949542,-0.304028
-0.774330,-0.710564,0.165302,-0.361232,0.932476,-0.000711
0.580997,0.163860,0.604502,0.460950,0.543519,0.701507
0.839311,-0.227561,0.459251,0.415576,0.734305,0.536742
-0.450263,0.131215,0.547433,0.982077,-0.063961,-0.177296
0.346241,-0.199841,0.162116,-0.061202,0.298603,0.952413
-0.375962,0.721366,0.524351,0.738889,-0.284573,0.610787
-0.330536,-0.552343,0.230610,0.453982,0.507593,0.732291
0.407685,-0.861557,0.464950,0.137691,-0.373756,0.917250
0.829226,-0.277521,0.461815,0.526527,-0.698938,-0.483999
-0.022945,-0.417633,0.482643,-0.239352,0.807647,0.538903
-0.496690,0.628832,0.342806,0.350579,-0.779202,0.519556
-0.915306,0.455282,0.145951,-0.762977,0.482098,-0.430635
0.006544,0.589516,0.594969,-0.505883,0.586244,-0.632772
-0.575609,0.270452,0.461660,-0.776595,-0.625045,-0.078854
-0.046967,-0.507307,-0.016061,0.238880,0.728896,-0.641597
-0.068295,-0.261398,-0.427361,0.019629,0.037239,0.999114
-0.244996,0.456235,-0.981400,0.004500,0.086639,0.996230
0.038805,0.457267,0.580773,0.896746,-0.263505,0.355543
-0.032261,-0.369023,-0.484794,0.862477,0.382114,0.331848
0.078688,0.103733,0.683384,0.741414,0.044729,0.669556
0.155527,-0.171962,0.593959,-0.273287,-0.842515,-0.464202
-0.618263,-0.862590,-0.130045,0.975482,-0.043942,-0.215650
-0.114568,-0.779905,-0.530827,0.693746,-0.720218,0.001872
-0.453419,-0.082129,-0.464406,-0.183005,-0.728812,0.659805
-0.109102,-0.481891,0.232786,-0.188896,-0.318615,0.928872
0.983674,0.397061,0.651702,-0.731156,0.623172,-0.277610
-0.813058,0.281493,0.338920,0.019461,0.916694,0.399116
0.143748,-0.385226,0.092145,0.875628,-0.365411,-0.315832
0.310056,0.417792,0.639112,-0.630219,-0.492908,0.599888
-0.292116,-0.177760,0.458292,-0.354832,0.753397,-0.553613
-0.766708,-0.126370,0.280011,0.009530,-0.486967,0.873368
0.613258,0.450198,0.791125,0.886932,-0.331192,-0.321968
-0.229288,-0.204210,-0.673903,-0.583302,0.281069,-0.762076
0.050276,0.783956,0.434641,-0.620685,-0.348657,0.702274
0.364183,0.563463,0.591083,0.454623,0.326191,0.828804
0.026871,-0.296187,0.309259,0.872706,-0.334009,-0.356121
0.034261,0.135822,0.801124,0.818218,0.227379,-0.528033
0.912301,-0.156235,0.420341,0.342930,-0.225164,0.911976
0.043424,-0.280619,0.385110,-0.278816,0.257914,-0.925063
0.423851,0.018110,0.759779,0.880843,-0.452715,0.138439
-0.575224,-0.502224,0.387881,-0.438837,-0.036832,0.897812
0.798041,0.389594,0.466893,-0.608037,0.577900,0.544356
-0.462580,-0.231692,0.209782,0.440341,-0.578983,0.686206
0.724745,-0.586179,-0.487021,0.207375,-0.963899,0.167013
0.590236,0.215489,-0.308222,0.163957,-0.855356,-0.491411
0.036110,-0.242097,0.599736,0.313742,-0.808896,-0.497245
-0.674392,0.055361,0.361069,-0.723626,0.688871,0.042684
-0.452188,0.408579,0.584944,0.951863,0.258418,0.164854
-0.035419,0.224702,-0.956971,-0.152431,0.173399,0.972984
-0.534032,0.126609,0.332703,0.358496,-0.578387,0.732768
-0.233447,-0.782288,-0.038754,-0.206378,-0.978385,-0.013102
0.890745,-0.262033,0.464043,0.498918,0.646694,0.576947
-0.815137,0.026608,0.096912,0.971996,0.151016,0.180051
-0.560209,0.392931,0.163852,-0.111695,-0.465383,0.878034
-0.218202,-0.763860,-0.276618,-0.458427,0.882217,0.107414
-0.757699,-0.802780,-0.178255,0.851244,0.123385,-0.510059
-0.031338,-0.006275,0.688539,0.435654,0.534310,-0.724375
-0.520636,0.162430,0.479483,0.800947,0.433076,-0.413436
0.784493,0.246703,0.258769,-0.250306,-0.318124,-0.914409
-0.603944,0.125179,-0.009248,-0.446762,0.777237,-0.443064
-0.827842,-0.127324,-0.225947,-0.288670,0.934088,-0.210118
-0.457808,-0.686101,0.480001,-0.396636,0.889509,0.226833
0.136586,-0.554091,0.354956,0.870526,-0.379665,-0.313112
-0.981367,0.098967,0.219833,0.906518,-0.392096,-0.156478
0.507776,-0.279667,0.161209,0.476422,0.180665,-0.860454
0.710191,0.066481,0.259857,-0.621418,0.437088,-0.650226
-0.199877,0.157505,0.363038,-0.012630,-0.692566,0.721243
0.148135,0.261636,0.625175,-0.271404,0.768766,0.579085
0.700337,0.374582,0.654577,0.869136,-0.265134,-0.417500
0.274637,0.510802,0.650743,0.077710,-0.056217,0.995390
-0.339084,-0.612549,0.422206,0.324972,0.941512,0.089154
0.313674,0.045433,-0.483084,-0.610963,-0.745540,-0.266260
0.970047,0.173551,-0.045619,0.593989,-0.615145,0.518434
0.681398,0.085703,0.267421,-0.288686,0.164391,0.943205
-0.701187,-0.062431,0.078701,0.774167,0.515956,-0.366681
-0.676856,-0.962271,0.373400,-0.519056,-0.839105,-0.162739
-0.648907,-0.496029,0.039454,-0.641579,0.050498,0.765393
-0.309593,0.145194,0.714782,0.991839,0.017360,0.126309
-0.182476,0.379985,0.686933,0.302760,0.946018,-0.115699
0.130195,0.265290,-0.099554,-0.431563,0.895894,0.105483
0.265243,-0.347816,0.371639,0.731962,0.244224,-0.636071
0.114490,-0.003971,0.693306,-0.513938,-0.810227,-0.281781
-0.733216,0.282208,0.431584,0.343161,-0.661893,0.666437
0.408220,0.703733,0.798145,-0.593024,0.792576,0.141938
-0.443256,-0.544082,0.373478,-0.749156,-0.099451,-0.654885
-0.540037,-0.734154,0.351433,-0.314759,-0.811500,0.492336
-0.219281,-0.135107,0.543029,-0.515690,-0.295086,0.804356
-0.257393,0.289515,0.481244,0.910438,-0.149091,0.385842
-0.222051,-0.721604,0.185068,-0.616567,0.740495,-0.267416
0.466967,-0.402463,0.124165,0.783300,-0.264149,-0.562732
0.543961,-0.777681,0.332211,-0.611843,0.535006,-0.582596
0.169078,0.064575,0.390679,-0.738881,-0.631657,0.234659
-0.347014,0.540746,0.229081,0.328365,0.635028,-0.699225
0.002462,0.180143,0.913061,-0.652568,0.512404,-0.558210
-0.061056,0.345830,-0.274416,0.810971,0.450494,-0.373338
-0.759931,-0.175140,0.293586,-0.588167,0.734784,0.337864
-0.696258,-0.554011,-0.085203,0.114336,0.694367,0.710480
-0.839929,-0.415727,-0.458085,0.119932,-0.207842,0.970782
-0.816754,-0.627323,0.247008,0.657824,0.751774,-0.045865
-0.533954,0.226688,-0.469898,0.224121,0.083683,-0.970962
0.833460,-0.304528,0.009533,0.434269,0.276295,-0.857363
-0.615800,0.189912,0.021061,0.335741,-0.748143,0.572328
-0.078688,0.102462,0.478032,-0.718236,0.506075,-0.477519
-0.654835,0.450278,0.176545,0.386212,-0.133482,-0.912701
0.475746,0.274980,0.256153,-0.132603,-0.906784,0.400198
-0.555823,-0.442336,-0.544946,0.300803,0.740032,0.601557
0.154912,-0.330024,0.336615,-0.614752,0.262796,0.743652
-0.225440,-0.756235,0.472955,0.643414,0.746323,-0.170351
0.051817,0.197537,0.649837,0.817108,0.465012,0.340731
-0.351478,0.612708,0.503212,0.410417,0.556967,0.722043
0.454956,-0.047261,0.646987,0.749967,-0.494769,0.439037
-0.571991,-0.912629,0.273483,-0.096075,0.752475,0.651576
0.187866,-0.425258,0.346666,-0.068801,0.236082,0.969294
0.679782,0.159888,0.260194,0.076267,-0.057567,0.995424
-0.671621,0.073233,0.329957,-0.226123,-0.973367,0.037750
-0.455035,-0.629786,0.113492,0.551032,0.802806,0.227743
-0.525023,0.452104,0.175690,0.027397,-0.265229,0.963796
-0.791269,0.246624,0.359101,0.196208,0.980390,0.018366
-0.724978,-0.105163,-0.185042,0.492740,-0.813786,0.308154
-0.534187,0.095473,0.285477,0.450540,-0.278677,-0.848147
0.395208,-0.125258,0.185431,-0.142903,-0.191792,0.970976
0.354479,-0.077442,0.313378,-0.376461,-0.322954,-0.868319
-0.304128,-0.160048,0.164292,-0.064192,-0.178542,0.981836
0.903292,-0.313741,0.449536,0.997540,0.018681,0.067571
-0.255776,0.216600,-0.727579,0.171034,-0.016608,-0.985125
-0.471666,-0.559730,0.149189,0.745491,0.009426,0.666449
-0.416846,-0.961160,0.034713,-0.224066,-0.902426,-0.367997
0.114951,-0.063542,0.635615,0.732184,0.653804,-0.190909
0.065753,-0.011199,0.145977,0.180416,-0.206923,0.961578
-0.194179,0.197458,0.735817,0.600929,-0.108775,0.791866
-0.899060,-0.164337,0.233226,0.880104,0.359929,-0.309626
-0.738065,-0.665529,0.171701,-0.701945,0.690463,0.174740
-0.278488,-0.781414,0.067535,-0.423326,0.905921,-0.010134
-0.717356,-0.362986,0.215248,0.904241,-0.142875,0.402412
0.000615,-0.136935,0.247604,-0.400548,0.799235,-0.448091
0.024947,0.188562,0.944277,0.689769,0.695482,-0.201305
0.005235,0.141779,-0.964898,0.043714,-0.058904,-0.997306
0.017322,0.595632,0.433423,-0.038096,0.001740,0.999273
-0.136511,0.248292,0.553624,-0.438861,-0.864932,-0.243501
-0.093548,-0.352979,0.098544,0.791825,0.560830,0.241832
-0.148368,-0.285306,0.076291,0.541183,0.354233,0.762653
-0.449645,0.158062,0.422077,0.024190,-0.385342,0.922457
-0.333308,-0.779586,0.247215,0.893865,-0.435624,0.106004
0.650829,-0.225496,0.600306,-0.295921,0.038207,0.954448
0.321452,-0.049324,0.469820,0.002105,0.256511,-0.966539
-0.415845,-0.995393,0.048106,0.141881,0.893540,0.425977
-0.479366,-0.312311,0.085047,-0.346086,0.190052,0.918752
-0.357331,-0.098173,0.575255,-0.760358,0.624883,0.177137
-0.422699,0.063066,0.454925,0.430043,0.898570,-0.087374
-0.131276,0.272517,0.736154,0.456791,-0.459580,0.761661
0.057283,0.445830,-0.973550,-0.062175,0.050766,0.996773
0.795964,0.258538,0.241956,-0.103151,-0.323492,0.940592
0.020172,0.409134,0.396197,-0.504874,0.201873,-0.839255
-0.488991,-0.361636,-0.071939,-0.806018,0.562254,0.184949
-0.090700,0.289992,0.624009,0.395308,0.859368,-0.324374
0.062981,-0.242494,0.588078,-0.804163,0.515241,-0.296392
0.400678,0.081810,0.656572,0.981121,-0.191586,-0.026373
0.594855,0.363224,0.830838,-0.693693,0.692124,0.199386
0.381735,-0.718984,-0.652479,0.371063,0.745475,-0.553696
-0.352864,0.142733,-0.026605,0.467417,0.298810,0.832006
0.935478,0.182605,0.013186,0.168575,-0.258465,0.951198
0.112563,0.327959,-0.970468,-0.063356,0.338228,0.938929
0.015475,0.254010,0.854593,0.876906,-0.471792,-0.091912
-0.524793,0.098967,0.355940,0.941251,0.157712,0.298620
0.856172,-0.261636,0.280011,0.056089,-0.702857,0.709116
-0.317371,-0.093488,0.390964,-0.598026,0.435305,0.672960
-0.450646,-0.826846,0.363841,-0.738278,0.590664,-0.325671
0.622342,0.204686,0.570100,0.635829,0.757650,0.147271
-0.048354,-0.538046,0.374307,0.245044,-0.315961,0.916582
0.591467,0.013106,-0.958007,0.032518,0.035635,0.998836
0.336541,0.675457,-0.038677,0.671316,0.416556,-0.613039
-0.446027,-0.854727,-0.022590,0.197101,0.799654,0.567190
-0.508392,0.589038,0.452127,-0.536926,0.468039,-0.701890
-0.670080,-0.078872,0.234781,-0.102354,0.842271,0.529248
0.192946,-0.532327,0.365111,0.712691,0.252246,0.654556
-0.131044,-0.036696,-0.616756,-0.526083,0.764026,-0.373499
-0.370574,0.047577,-0.593233,0.291159,0.927394,0.234875
-0.117340,0.515329,-0.333869,0.902172,-0.288464,0.320740
0.832384,0.638205,0.537666,-0.727958,-0.633432,-0.262377
-0.203111,0.645830,-0.989327,-0.025471,0.167348,0.985569
-0.279797,-0.760286,-0.058054,-0.367332,-0.914248,-0.170930
-0.541576,0.524860,0.492202,0.760492,-0.442218,0.475494
-0.242071,-0.412392,0.528962,0.496143,-0.718855,0.486918
0.162534,-0.075139,0.133206,0.264478,0.244005,0.933013
-0.063751,-0.558777,0.409383,0.537798,0.811401,-0.228914
0.881276,-0.248372,0.359981,0.530154,0.809535,-0.252171
0.905219,-0.277443,0.364048,0.449372,0.812016,-0.372417
0.692484,-0.135107,0.463888,-0.151482,-0.088942,-0.984450
-0.278335,0.225179,0.609891,0.535970,0.823778,0.184730
-0.608794,-0.746624,-0.129138,0.945739,0.118021,-0.302734
-0.226595,-0.223431,0.172504,-0.332206,-0.079068,0.939887
0.914768,0.426290,-0.367649,0.970602,-0.185866,-0.152924
-0.151141,-0.287769,-0.388451,-0.707598,-0.652225,0.271860
0.195333,-0.038443,0.481737,0.818500,-0.063331,0.571005
-0.921775,0.252264,0.419357,0.005192,-0.988771,0.149351
-0.078303,-0.093010,0.440573,0.867070,-0.303312,0.395211
-0.037959,0.280937,0.881509,0.758127,0.555956,-0.340816
0.084539,0.189991,0.956583,0.394570,0.913935,-0.095070
-0.535803,-0.189595,0.145407,0.343159,0.773730,0.532526
0.001694,0.722637,0.656417,0.751883,-0.602131,0.268532
-0.157532,-0.782367,-0.315346,0.876193,0.457798,0.150689
-0.660456,0.053376,0.313973,-0.019282,-0.947517,0.319124
-0.134587,-0.132089,0.461738,-0.464133,0.288332,-0.837523
0.454265,-0.881652,0.484120,0.137691,-0.373756,0.917250
0.224744,0.423749,0.512486,0.622649,-0.620072,-0.477304
-0.173777,0.354011,0.681234,-0.512318,0.087849,0.854291
0.221436,-0.042256,0.439589,0.790164,0.593435,-0.153219
0.084539,0.474185,0.571110,0.763557,-0.301337,-0.571118
-0.049355,0.111676,0.721413,-0.813434,0.438232,0.382462
-0.580844,-0.943527,0.316616,-0.579766,0.811755,-0.070177
-0.246305,0.687132,-0.991788,0.006227,0.192631,0.981252
0.099553,-0.173153,0.611600,-0.249901,0.896208,0.366553
0.195488,-0.134074,0.293197,0.699779,0.529884,0.479095
0.446798,-0.070533,0.143620,0.765242,0.643374,-0.021781
0.143286,0.536854,0.573286,0.370020,0.425977,-0.825608
-0.562982,-0.462669,-0.441790,0.744372,0.620049,-0.247889
-0.698567,0.259173,0.401896,0.652766,0.754906,-0.063352
-0.228673,0.631850,0.416766,0.609372,0.722854,0.325802
-0.254390,-0.654487,0.372649,0.908316,-0.418055,0.013859
0.632276,0.114217,0.598181,0.930546,0.351389,-0.103004
0.026563,0.185385,0.925755,0.404750,0.903071,0.143666
0.901060,-0.308817,0.249184,-0.574147,0.739615,-0.351175
0.345010,0.768308,0.253096,0.160490,-0.828047,0.537197
0.186710,0.140985,0.457308,0.949368,0.099660,-0.297940
0.018093,0.791739,0.420833,0.850782,0.126378,-0.510097
-0.489606,0.314297,0.402777,-0.342976,0.112625,0.932568
-0.902371,-0.357823,-0.160717,0.954873,0.296863,-0.009477
0.120879,-0.028753,0.717968,0.249048,0.874038,0.417172
-0.387280,0.822478,0.513030,0.988707,0.098077,0.113307
0.814366,0.401509,0.434330,-0.467355,0.879033,-0.094231
-0.045659,0.370373,0.783897,0.856095,0.508925,0.089981
0.223513,-0.597458,-0.140304,0.296592,0.713057,-0.635281
-0.711272,-0.470294,0.213590,0.944495,0.258010,0.203371
-0.863644,-0.199365,0.337962,0.987842,0.153626,0.023805
0.596857,0.393566,0.789804,0.795246,-0.439925,-0.417193
0.075530,-0.057903,0.593052,-0.230881,-0.336183,-0.913058
0.574836,0.657268,0.595306,0.932397,0.101407,0.346919
0.242761,-0.351946,0.219833,-0.135176,0.369392,-0.919390
0.616106,0.322081,-0.968162,-0.015161,0.133231,0.990969
-0.264552,0.274980,0.507538,0.809556,-0.567897,-0.148703
-0.074069,0.234153,0.815139,0.338164,-0.348801,-0.874061
0.829301,-0.236537,0.491814,-0.325852,-0.816276,0.476983
0.198183,0.382922,0.540853,0.736668,-0.673891,0.056494
-0.326224,-0.772042,0.401508,0.884213,-0.296405,-0.360987
0.058131,-0.119380,0.592327,0.348796,0.409836,0.842838
0.062443,0.335504,0.661598,-0.322870,-0.718819,-0.615674
-0.452265,0.602065,0.177400,0.966475,0.006765,-0.256673
0.830842,-0.052820,0.548547,0.981514,0.118880,0.149993
0.150215,-0.114773,-0.128750,-0.192500,-0.417142,0.888221
-0.084924,-0.030341,0.425133,0.979461,0.076963,0.186370
-0.321374,-0.686101,0.479561,-0.070929,0.942653,-0.326152
-0.718509,0.037967,0.381250,0.795155,0.302560,-0.525533
0.207577,0.885624,0.480182,-0.646081,0.760167,0.068744
-0.868801,0.234868,0.381923,-0.193959,-0.974337,-0.114221
0.930243,-0.138285,0.513445,0.324101,0.627816,-0.707676
0.460656,-0.196982,0.153360,-0.114131,0.340335,0.933352
0.012472,0.216044,0.728796,0.231672,-0.960167,-0.156230
-0.494841,0.792613,0.242811,-0.158897,-0.213535,0.963927
-0.008931,0.417712,-0.978136,-0.046302,0.136328,0.989581
0.237141,0.359015,0.549609,-0.759273,0.412472,-0.503361
0.181627,0.162669,-0.867002,-0.580022,0.801815,0.143763
0.737603,0.501509,0.024040,0.496476,-0.765246,0.409769
0.683785,0.610882,0.463007,0.423725,0.850891,-0.310550
-0.181092,-0.107467,0.600073,-0.505445,-0.693887,-0.512881
-0.128351,0.229546,0.600979,-0.559489,0.571225,0.600562
-0.839929,0.083082,0.165510,0.995732,0.043951,0.081149
0.266474,0.757982,0.256360,0.815565,0.476543,-0.328269
-0.035879,0.683876,0.648956,0.752814,-0.640441,0.152009
0.177008,0.040905,0.378970,-0.689756,-0.664776,-0.286896
-0.316447,-0.080938,0.201207,-0.645375,0.700638,-0.304297
0.104866,0.776410,0.297705,-0.155612,0.334008,0.929636
0.459115,-0.257506,0.492902,-0.284959,-0.251088,0.925069
0.188789,0.337251,0.498316,0.924102,-0.145076,-0.353537
0.047351,0.622558,0.601264,0.888031,0.372378,0.269695
0.660839,-0.178951,0.314673,-0.080748,-0.685012,0.724043
-0.215970,-0.340270,0.170198,-0.358740,0.928069,0.099966
-0.401987,-0.815171,0.463111,0.643880,-0.760088,-0.087666
0.575531,0.886417,-0.430573,0.165700,0.986142,-0.008149
-0.360024,-0.146863,0.149189,-0.422823,0.583000,-0.693780
0.315291,-0.313026,0.391068,0.857145,0.119742,-0.500963
0.653296,-0.588960,0.310062,0.041260,0.762754,0.645371
-0.139744,0.317157,0.735713,-0.789943,0.382937,-0.478904
-0.789805,0.196584,0.368349,0.371702,0.792603,-0.483340
0.611101,0.420890,0.790995,0.802085,-0.326945,-0.499766
0.680628,0.487053,0.498368,-0.407732,-0.657472,0.633628
0.202338,0.887530,0.503808,-0.530171,0.827003,0.187040
-0.429013,-0.963384,-0.552614,0.506754,0.813455,-0.285468
0.412455,0.862271,0.687141,-0.812907,-0.399742,0.423543
-0.785571,-0.223352,-0.394384,0.998253,-0.019868,-0.055651
0.792040,0.282049,0.209704,0.581150,-0.019129,0.813572
-0.216894,-0.488165,0.197425,-0.630650,-0.400072,-0.664998
0.133431,-0.168547,0.305140,0.843543,0.514994,-0.152368
0.170156,-0.599762,-0.398658,0.633990,0.685537,-0.357905
-0.373500,-0.168467,-0.496891,-0.121516,0.905806,-0.405893
-0.260781,-0.414933,0.218667,-0.447713,0.549139,0.705691
-0.431398,0.461080,0.451039,-0.239437,0.756011,-0.609194
-0.804667,-0.664496,0.122507,-0.516082,0.851425,-0.093463
-0.740375,-0.437332,-0.061266,0.979007,0.202108,0.026423
0.532335,0.004766,-0.954277,-0.053642,-0.006120,0.998541
-0.323529,-0.537252,-0.560567,0.627846,0.596946,0.499464
0.020094,-0.953614,0.235273,0.433577,0.840967,0.323706
0.855171,-0.420175,-0.130822,0.779191,0.335105,0.529685
-0.131969,-0.768705,-0.061499,-0.126602,0.991471,-0.030946
-0.610102,-0.447180,0.139967,-0.590241,-0.146689,-0.793787
0.396674,0.131135,0.567691,0.612168,0.755688,0.232779
-0.227519,-0.264416,0.514922,0.820479,0.151621,0.551203
0.048814,0.496029,-0.976737,-0.149012,0.000712,0.988835
-0.852403,0.256632,0.335630,-0.070030,0.957736,-0.278994
0.239528,0.455441,0.550956,0.877979,-0.474825,0.060772
0.813365,-0.007864,0.611134,0.921144,-0.069996,-0.382877
-0.698260,-0.384432,0.268406,0.512863,0.782023,0.354136
0.167461,-0.014218,0.324595,-0.735056,0.509694,-0.447108
-0.363490,0.382764,0.403554,-0.293186,0.171333,-0.940578
0.294581,-0.294678,0.152272,-0.339957,0.614598,0.711828
-0.418310,-0.570611,0.419123,0.414770,0.907124,-0.071359
-0.876424,0.309690,0.113207,0.985416,0.035392,0.166438
-0.120111,-0.291739,0.629682,-0.569224,0.580258,0.582481
-0.619111,-0.779428,-0.093078,0.941840,-0.297950,-0.155445
-0.451572,-0.129389,0.263173,0.706799,-0.670387,0.225867
-0.594472,-0.824861,0.377856,-0.378393,0.050850,-0.924247
-0.487297,0.654487,0.207269,-0.308734,-0.731801,0.607578
-0.402372,0.604210,0.341796,0.332860,-0.820973,0.463904
-0.857100,0.541143,0.143620,0.811808,-0.218688,-0.541427
0.010548,0.226450,0.728252,0.100613,-0.987567,-0.120783
-0.648292,-0.161398,0.254158,-0.362732,0.099666,-0.926549
0.177241,-0.013741,-0.945625,-0.001628,-0.132132,0.991231
-0.272560,0.678712,0.390990,-0.576732,-0.803155,-0.149405
-0.171235,0.143765,0.627869,0.444066,0.891059,-0.093906
-0.773715,0.165290,0.295192,0.661727,0.673622,0.329167
-0.010240,-0.585783,0.355215,0.310085,-0.527340,0.791050
-0.144672,-0.476013,0.077120,0.808464,-0.204104,0.552021
-0.183016,-0.480778,0.196285,-0.415474,-0.098839,-0.904219
-0.719357,-0.331453,0.198979,-0.726139,0.171802,-0.665737
-0.677780,-0.035980,0.363271,-0.614801,-0.617953,0.490054
-0.645827,0.077045,-0.036345,-0.502790,0.849273,-0.161050
-0.490993,-0.289278,0.150743,0.704327,-0.212485,0.677329
0.126885,-0.155759,0.592793,0.211187,0.853801,0.475840
-0.627426,-0.178793,0.108984,0.461823,0.874212,0.149908
-0.667925,-0.450278,0.170976,0.772662,0.218284,0.596109
0.032569,0.246466,0.330112,0.062829,0.994542,0.083301
-0.232446,-0.185782,0.436014,0.447400,-0.841306,-0.303377
-0.124422,0.080223,-0.470105,0.368929,-0.635690,0.678078
0.686789,0.049166,0.599606,-0.533871,-0.636867,0.556222
0.051199,-0.550913,0.026993,-0.668504,0.112623,-0.735131
-0.572836,-0.150755,0.259520,0.351614,0.628177,-0.694090
-0.614491,-0.659968,0.387959,0.919166,0.228999,-0.320458
-0.808208,-0.418903,0.167608,0.482303,0.707705,-0.516273
-0.132277,0.710008,0.405342,-0.131268,0.859283,0.494370
-0.041347,-0.925655,-0.604865,-0.717778,0.189419,-0.670012
-0.458116,0.327959,0.405186,-0.112417,0.133349,0.984673
-0.485217,0.491740,0.449536,0.154367,-0.604140,0.781784
-0.827534,-0.546228,-0.104114,0.801005,-0.356280,0.481097
-0.076379,0.677521,0.607637,0.998234,-0.054394,-0.023889
-0.808053,0.095154,-0.379721,0.990145,-0.126670,0.059723
0.839621,-0.283876,0.246645,-0.681644,0.646332,-0.342952
-0.290114,-0.312629,0.563727,-0.299175,-0.936457,0.183146
-0.393827,0.142970,0.335734,-0.627538,0.647365,0.432567
0.370264,0.251072,0.528263,0.525160,0.149302,-0.837804
-0.188789,0.032487,0.408761,0.563053,-0.015159,0.826282
-0.057823,0.384432,0.428294,-0.620957,0.558499,-0.549992
-0.063213,-0.480461,0.441350,0.864526,-0.073029,-0.497254
0.098012,-0.396663,0.450857,0.166990,0.931760,0.322393
-0.238375,-0.753535,-0.232786,-0.179827,0.974361,-0.135218
-0.091163,-0.674583,0.384591,-0.259401,-0.138155,0.955837
-0.312828,0.710167,-0.003912,-0.378727,0.809981,0.447769
-0.789575,0.499444,0.195741,0.832007,0.536877,-0.139738
0.877657,0.234074,0.494638,-0.019117,-0.996659,0.079404
-0.977671,0.068625,0.291617,0.842670,0.523347,-0.126548
-0.641670,0.339951,0.286099,0.734960,0.160322,-0.658886
0.291113,0.066164,0.163878,0.501368,0.248169,-0.828880
-0.730521,0.074821,0.355370,-0.642216,-0.574654,0.507278
-0.572298,-0.969580,0.408891,0.736087,0.392577,0.551415
0.300817,-0.350993,0.020154,-0.519021,0.412083,-0.748869
-0.320911,0.661001,0.491399,-0.586106,0.165007,-0.793254
0.087772,-0.078396,0.723512,0.450504,-0.240985,-0.859635
-0.449878,-0.494599,-0.022849,0.129967,0.979988,-0.150770
-0.794580,-0.356473,0.270193,-0.207843,-0.907460,0.365127
0.207342,0.695473,0.605746,-0.874766,-0.021493,-0.484069
0.359484,-0.087371,0.310554,-0.376461,-0.322954,-0.868319
-0.393519,-0.659730,-0.494793,-0.525721,-0.780088,-0.339235
-0.692254,-0.660365,0.048443,0.730233,-0.111521,-0.674035
0.344855,0.277839,0.516450,-0.321112,-0.105802,0.941113
0.187481,0.337410,0.471219,0.982698,-0.185117,0.005983
-0.407685,0.563859,0.181390,0.994348,-0.081267,-0.068318
-0.720511,-0.606910,0.293120,-0.637795,0.704381,0.311553
0.118647,-0.465052,0.162686,-0.232187,0.623528,-0.746526
-0.011166,0.209611,0.860681,-0.181145,0.641235,0.745657
-0.161766,0.444797,0.474613,-0.517182,0.208002,-0.830215
-0.340085,-0.403416,0.086809,0.783842,-0.342116,-0.518217
0.108252,0.025178,0.637273,0.850336,0.480245,-0.215158
-0.172391,-0.460286,0.236154,-0.420243,-0.632720,0.650431
-0.367031,0.117156,0.280840,0.014695,0.001809,0.999890
-0.662458,-0.973869,-0.091627,0.714995,0.572908,-0.400697
0.059129,0.629865,-0.977359,-0.084761,0.132842,0.987506
-0.695182,-0.506910,-0.084659,0.079348,-0.289716,0.953818
0.765169,-0.116441,0.591938,0.890893,-0.056139,-0.450732
0.919157,0.534948,-0.356717,0.885802,-0.233638,-0.400958
0.291193,0.579666,0.536682,0.890729,-0.077537,-0.447872
0.999460,0.498888,0.619320,0.898007,-0.278537,-0.340589
-0.266094,-0.768070,0.455857,-0.356129,-0.707681,0.610213
-0.375579,0.617156,0.522253,0.635352,-0.274276,0.721873
0.646520,-0.179588,0.088726,-0.331250,-0.943231,-0.024278
-0.513474,0.258379,0.597663,0.906826,-0.410403,-0.096104
-0.259470,0.029865,0.358116,0.909488,0.399738,-0.114198
0.009009,-0.030580,-0.605280,0.213147,-0.941706,0.260306
0.771405,-0.183797,0.326486,-0.088929,-0.920754,0.379873
-0.167001,-0.981413,-0.585850,0.812020,-0.268188,0.518361
-0.641130,-0.136854,0.242190,0.441297,-0.110583,-0.890522
0.153756,-0.383400,0.345941,-0.462063,0.274585,0.843268
-0.275870,0.034552,0.459095,0.852949,0.051077,0.519490
-0.337465,0.380063,0.658878,0.101962,-0.960470,0.259039
-0.187020,-0.798729,-0.571266,-0.289269,-0.753219,0.590749
0.057360,0.523828,0.606264,0.235464,0.397554,0.886853
-0.557131,-0.691342,0.457826,0.093295,-0.980278,0.174215
-0.723747,0.311437,0.455443,-0.032943,-0.821688,0.568985
-0.092164,-0.018189,0.692633,-0.231799,-0.316583,-0.919807
0.402064,-0.610405,-0.610642,-0.096770,-0.310417,0.945662
0.125961,-0.131137,0.610564,0.767478,0.638441,0.058058
-0.149677,-0.261398,0.323740,0.960952,-0.276711,-0.001761
0.435091,0.819857,0.260971,-0.380429,0.741552,-0.552606
-0.594858,0.056712,0.283042,-0.474251,0.872436,-0.118072
-0.241608,-0.679905,0.182918,0.756816,-0.497530,0.423903
-0.592701,-0.548213,0.251256,-0.353274,0.790607,0.500139
0.231675,-0.179905,0.389254,-0.324949,0.028922,0.945289
-0.545042,-0.467276,0.309569,-0.639101,-0.126887,-0.758584
-0.341316,-0.740668,0.157893,0.916473,0.319739,0.240507
-0.360024,0.486655,-0.035387,0.811036,-0.168150,0.560308
0.098627,0.201906,0.648542,0.164031,-0.531321,0.831139
-0.655143,0.696506,0.169085,0.925749,0.293407,-0.238540
-0.088698,0.034552,-0.248718,-0.542714,0.839336,-0.031233
0.826068,-0.121048,0.614580,0.911343,0.027599,-0.410721
-0.649523,-0.556632,0.221077,-0.054315,-0.421312,0.905288
0.350860,-0.141461,0.775789,-0.255939,0.919881,-0.297178
-0.603558,-0.539634,-0.092249,0.722539,0.608221,-0.328639
-0.463198,0.073868,0.195974,0.880989,0.354437,0.313422
0.446027,0.840270,0.530827,0.447924,0.752015,0.483567
0.203649,-0.006434,0.578364,0.566512,-0.804920,-0.176546
-0.724437,-0.731930,0.363142,0.027429,-0.967391,0.251800
-0.171775,-0.242335,0.297031,-0.869408,0.111898,-0.481258
-0.190331,0.921127,0.044790,-0.534483,0.839706,-0.096031
0.003386,0.372041,0.567691,0.911899,-0.383542,-0.146070
0.173697,0.182684,0.586343,-0.222716,-0.949942,-0.219107
-0.507008,-0.686814,0.452982,0.303108,-0.949742,0.078200
0.186172,-0.051390,0.144008,0.121409,0.037038,0.991911
-0.716815,-0.854805,-0.169888,0.863847,-0.028680,-0.502937
0.427779,-0.086814,0.673488,-0.121280,0.879833,0.459549
-0.529259,-0.775299,-0.055282,-0.494643,0.586933,0.640966
-0.063058,0.057347,0.741283,0.036295,-0.822673,0.567355
0.163380,-0.033519,-0.954303,-0.021993,0.033907,0.999183
-0.374731,0.354249,0.545982,0.186421,-0.517434,0.835170
-0.059595,-0.404924,0.205637,0.202069,-0.741315,0.640016
0.313134,-0.032804,0.677711,-0.457647,0.588305,0.666676
-0.403143,-0.094838,-0.483032,-0.616104,0.776913,-0.129696
-0.684093,-0.365845,0.370473,0.970103,0.162930,-0.179870
-0.256007,-0.765766,-0.042511,0.550233,0.809539,0.204674
-0.352172,-0.762907,-0.526087,0.335858,-0.095866,0.937021
-0.259703,0.860682,0.073390,-0.124227,0.671293,-0.730707
0.440561,0.489436,0.580333,0.856133,0.154195,-0.493214
-0.547737,0.602780,0.353350,-0.748852,0.468975,-0.468278
-0.067062,0.473153,0.211258,-0.064315,0.239297,0.968814
0.148521,-0.383002,0.345811,-0.619425,0.192859,0.760998
0.862643,-0.307705,0.473758,-0.262660,0.060214,-0.963008
-0.493995,-0.704130,0.471582,0.191701,-0.959795,-0.205045
0.296503,0.516203,0.617559,-0.044202,0.989157,0.140049
0.287109,-0.640508,-0.627662,0.576779,0.668360,-0.469703
0.139359,0.891421,0.141832,-0.243527,0.944403,0.220902
-0.249693,-0.115569,0.169603,0.209064,-0.011066,-0.977839
0.169771,-0.103971,0.682633,0.866599,0.344319,0.361180
0.337773,-0.212947,0.482436,-0.784704,-0.167000,0.596951
-0.864567,-0.480143,-0.318844,0.972769,-0.216935,-0.081609
-0.294734,-0.739158,0.092405,0.497866,-0.866906,0.024577
-0.105481,-0.133757,0.446376,0.815332,-0.368021,0.446984
-0.448414,0.382128,-0.493653,-0.766275,0.214153,-0.605773
-0.458501,0.684034,0.208487,-0.065978,-0.654432,0.753237
-0.206729,-0.218348,-0.583959,0.632542,-0.531586,0.563300
-0.113797,0.639237,0.198643,-0.024800,-0.511215,0.859095
-0.332845,0.570373,-0.981322,0.026451,0.110186,0.993559
-0.788189,-0.098888,0.294881,0.294122,-0.720134,0.628410
0.262010,-0.486418,0.155381,-0.280656,-0.680701,0.676667
-0.480675,0.245194,0.553883,0.948257,0.173746,0.265747
0.146749,0.726608,0.432024,0.189251,-0.276705,0.942135
-0.530721,-0.820731,0.469198,0.961466,-0.197587,0.191159
-0.536111,0.925179,0.264365,0.461147,0.619670,-0.635101
0.148751,-0.579111,0.368245,-0.286962,0.615438,0.734090
-0.057978,-0.208261,0.725843,-0.779611,-0.578275,-0.240427
0.051199,-0.099127,0.556422,-0.398047,0.890842,0.218996
-0.446798,-0.883400,-0.038677,0.438888,0.414763,0.797088
-0.733446,0.008737,0.336226,0.656223,0.637888,-0.403076
0.346321,0.898093,0.418812,-0.072563,-0.943781,0.322508
0.118647,-0.002938,0.704109,-0.448517,-0.839338,-0.307154
-0.058361,0.306116,0.678877,0.752628,0.654339,-0.073426
0.683320,-0.470215,0.304699,0.543530,-0.580161,0.606620
-0.400908,0.724702,0.219548,-0.434790,0.530620,-0.727599
-0.684939,-0.452899,0.189032,0.662718,-0.302103,0.685229
0.376810,-0.309055,0.450158,-0.173305,0.856194,0.486720
-0.565907,-0.193010,0.066603,0.428107,-0.788228,0.442064
0.077918,0.177284,0.720118,0.919298,-0.184097,-0.347850
-0.607945,-0.678872,0.081343,-0.024546,-0.951180,0.307658
-0.452495,-0.593964,0.079970,-0.769332,0.573411,0.281651
0.202032,-0.470294,0.365914,0.189428,0.430651,0.882415
0.189482,-0.543526,0.364256,0.652401,0.317053,0.688368
-0.062365,0.125972,0.675949,0.472432,-0.217419,-0.854130
-0.634894,-0.147737,0.245091,-0.157867,0.237958,-0.958360
-0.314060,-0.271088,0.410730,0.629019,0.478339,0.612803
-0.380429,0.398252,0.551111,-0.566142,-0.821536,0.067545
-0.863181,-0.215965,0.219134,0.548238,0.428634,-0.718128
0.177934,-0.048213,-0.441065,-0.481573,-0.379737,-0.789865
-0.401524,0.620810,0.528859,-0.674410,0.595645,-0.436323
0.326762,-0.515647,0.152920,0.137879,-0.489347,0.861121
-0.349476,0.518030,-0.983343,0.005472,0.112985,0.993582
-0.300587,0.646703,0.319906,0.057693,0.954881,0.291330
-0.737142,-0.357347,0.214833,-0.056811,0.718627,0.693071
-0.431167,-0.033043,0.283664,-0.413051,0.771744,-0.483529
-0.193486,0.109452,-0.694161,-0.182236,0.054969,0.981717
0.233292,0.168784,0.581058,0.227320,0.757090,0.612487
0.279872,0.113582,-0.832781,-0.269288,0.961855,0.048163
-0.162611,-0.214456,0.450961,-0.734117,0.104664,-0.670908
0.361180,-0.046704,-0.174576,0.342247,0.603665,0.720039
-0.947797,0.403177,0.153412,0.987859,-0.128879,-0.086746
0.254848,-0.023749,0.578442,0.341637,-0.156989,0.926628
0.359408,-0.261795,0.449640,-0.623144,-0.647608,-0.438515
-0.263551,-0.797061,0.492591,-0.359501,-0.556363,-0.749146
0.185864,-0.080381,0.769002,0.868488,-0.493706,-0.044540
0.150292,0.673392,0.692736,0.187387,0.776175,-0.602029
-0.087544,-0.501351,0.024222,0.233850,0.869253,-0.435561
-0.025562,0.198093,0.737319,0.910229,0.383652,-0.155867
-0.375038,-0.151390,0.547899,-0.613203,-0.763316,-0.203300
-0.529875,0.937251,0.259753,0.461147,0.619670,-0.635101
-0.209965,0.499444,0.485182,0.618715,0.183199,0.763956
0.265088,-0.099444,-0.942101,0.052113,0.008963,0.998601
0.321912,0.620889,0.651806,0.460594,0.622271,-0.632955
0.017785,0.135424,0.740117,0.820342,0.534665,-0.202911
