0.005147,-0.126623,0.608162,0.788223,-0.303230,-0.535497
0.760106,1.000000,0.455938,-0.463557,-0.886025,-0.008669
0.557400,0.191701,0.574745,0.279162,-0.680275,0.677713
0.582517,-0.532178,0.476984,-0.337977,0.922921,0.184357
0.022989,0.451356,0.754585,-0.034830,-0.997981,0.053104
-0.878407,0.495671,0.582419,0.261581,-0.681725,0.683247
0.517737,0.407973,-0.931935,-0.107150,-0.137044,0.984753
-0.563578,0.443241,0.565197,-0.240874,0.554569,-0.796513
0.389145,-0.015839,0.362823,0.018497,0.931356,-0.363639
-0.228435,0.227587,0.737337,-0.782615,0.580279,-0.225364
-0.255060,-0.453385,0.696657,-0.331742,0.680916,0.652917
-0.148427,-0.398611,0.683465,-0.094853,-0.812077,0.575789
0.307073,0.516272,0.387257,-0.591077,0.730784,0.341443
0.498526,-0.433717,-0.149233,0.254898,-0.768463,0.586934
0.747617,-0.010848,0.491254,0.235833,0.435467,0.868764
0.005834,-0.293751,0.832762,0.727081,0.558277,-0.399600
-0.111918,0.283456,0.660237,0.495088,-0.611279,-0.617435
-0.070471,-0.421393,0.528290,-0.274925,-0.959179,-0.066278
0.840114,0.437936,-0.918383,-0.498271,0.191402,0.845631
0.191792,-0.107432,0.807199,0.879392,-0.003749,-0.476083
-0.170247,-0.042992,0.828014,-0.136207,-0.856324,0.498153
0.493994,-0.041115,0.351941,-0.177159,-0.920638,0.347909
-0.324505,-0.481309,0.688598,-0.245509,0.758967,0.603070
0.745007,0.288913,0.544870,0.739381,0.582450,-0.337739
-0.905853,0.422641,-0.223561,0.087391,0.996063,0.014851
-0.212930,0.525787,-0.953417,0.095095,0.196028,-0.975976
-0.415084,-0.002733,0.584370,0.355731,0.931455,-0.076466
0.555477,0.200749,-0.933808,-0.076257,0.130068,0.988568
0.889933,0.192320,-0.913609,0.536539,0.000824,-0.843875
-0.524325,0.368030,0.600000,-0.361967,0.729640,-0.580177
-0.128252,0.301713,0.715085,0.479281,0.735225,0.479305
0.253003,-0.394707,0.668810,-0.523385,0.551284,0.649734
0.948945,0.467899,-0.526057,-0.112985,0.904375,0.411509
-0.877582,0.415621,0.545332,-0.097338,-0.971602,0.215671
0.468332,0.438555,-0.933526,-0.342039,0.157821,0.926338
-0.417827,0.006162,0.603978,0.522233,0.826015,-0.212066
-0.251629,0.036906,0.875034,0.957515,-0.276635,-0.081474
0.014617,0.320590,0.663600,-0.303855,0.695168,0.651471
-0.293763,-0.219787,0.726891,-0.752802,-0.284186,-0.593740
-0.241887,0.617542,0.622201,-0.614147,0.092832,0.783713
-0.042201,0.276427,0.727790,0.244004,-0.638238,0.730147
-0.478075,0.509091,0.550465,0.984829,-0.025550,-0.171639
0.074588,-0.796985,-0.916740,-0.095919,-0.120349,0.988087
0.286350,0.010533,0.848547,-0.695798,0.713859,0.079183
-0.669527,0.092764,0.610420,-0.493254,-0.778010,-0.389103
0.278254,0.243817,0.648970,0.821864,-0.399200,0.406422
0.133877,0.366467,0.668733,-0.078683,-0.995520,-0.052427
0.272629,0.254893,0.764902,0.187050,0.872831,0.450754
-0.175600,0.001952,0.960270,-0.635134,0.772325,-0.010922
0.007480,0.476480,0.755791,-0.714164,0.655138,0.246502
0.049337,-0.365687,0.713828,-0.211218,0.649868,0.730109
-0.174226,0.386754,-0.960475,0.166058,0.135975,-0.976696
0.186305,-0.151909,0.672121,0.646915,0.475228,-0.596372
-0.740752,-0.089336,0.141380,0.372108,0.734787,0.567119
-0.557127,0.381449,-0.966532,-0.220933,0.047685,0.974123
-0.137722,0.031753,0.851293,-0.044114,0.633608,0.772396
0.242708,-0.561988,0.801142,-0.046425,-0.994865,-0.089936
0.071983,-0.014905,0.807148,0.897095,0.384759,-0.217212
-0.313251,0.008505,0.680950,0.023638,0.492703,0.869876
-0.674331,0.209958,0.313648,0.236111,-0.120921,-0.964173
-0.230634,-0.282199,0.799525,-0.733330,-0.679517,0.021988
0.813217,0.200130,-0.121720,-0.549331,0.835303,0.022478
0.269609,-0.126623,0.568970,0.739195,-0.422583,0.524418
0.464488,0.717411,-0.169073,-0.736350,0.669538,0.097504
-0.193853,-0.478195,-0.931729,0.178258,-0.073679,-0.981222
-0.168325,0.019277,0.884992,-0.460281,-0.211004,0.862333
-0.469702,-0.322619,0.564453,-0.501916,0.636188,-0.585956
-0.042477,-0.442927,0.665910,0.942098,0.010054,-0.335188
-0.244493,-0.782784,0.432172,-0.268648,-0.959460,0.085232
-0.159128,-0.034097,0.853859,0.419399,0.042103,0.906825
-0.095727,0.235388,0.810177,0.236846,0.299193,-0.924331
0.360871,-0.296561,-0.919384,0.285899,-0.395620,-0.872781
-0.162014,0.258646,0.756381,0.831412,-0.018946,-0.555333
-0.184383,-0.172195,-0.588887,-0.575543,0.816952,-0.036608
0.392027,-0.016457,0.544973,-0.033189,0.970108,0.240395
0.043847,-0.031601,0.724222,-0.391198,-0.250388,-0.885590
0.264667,0.036906,0.841027,-0.651320,0.492669,0.577114
-0.825292,0.223997,0.447007,0.852577,-0.504924,0.134772
-0.526796,-0.328543,0.788617,-0.020620,0.575213,0.817744
0.069788,0.439336,0.784229,-0.153497,-0.715462,0.681582
-0.503053,0.534834,0.527802,0.091075,0.704800,-0.703536
0.241473,-0.144576,0.319859,0.175688,-0.552275,0.814939
0.804983,0.367096,-0.923491,-0.371190,-0.081830,0.924944
-0.183968,0.015686,0.916920,-0.900900,0.298713,-0.314882
-0.133190,0.291570,0.903189,0.864087,0.421443,0.275207
0.710149,0.028324,-0.917433,-0.170673,0.371135,0.912759
-0.707406,0.007105,0.704922,0.782566,0.550633,0.290505
-0.096137,0.049544,0.829477,0.518740,-0.607540,-0.601501
0.101761,0.009600,0.818723,0.313058,0.814120,-0.489085
0.216770,0.045801,0.511377,-0.574915,0.800024,0.171564
-0.451316,0.050954,0.849445,-0.561963,-0.302169,-0.769994
-0.222810,-0.745965,0.719140,-0.453208,0.804001,0.384949
-0.042477,0.094326,0.716291,0.605657,-0.054919,0.793828
-0.467097,0.498795,0.438640,0.030483,0.897325,0.440317
0.318193,-0.034715,0.767674,0.609900,0.620639,-0.492776
0.790023,0.904035,-0.932422,-0.172323,-0.071863,0.982416
-0.007070,0.113680,0.486173,0.162701,0.982925,-0.085946
0.438140,-0.302171,0.557703,-0.839904,0.296614,0.454512
-0.196047,0.562302,0.790568,-0.121766,0.194140,-0.973387
-0.429629,0.310761,-0.131319,0.776625,0.529295,-0.341615
-0.070471,0.219939,0.457196,-0.108267,0.415270,0.903233
-0.052081,0.010219,0.762746,0.695762,0.464651,0.547737
-0.437314,0.304046,0.535476,-0.073674,0.962256,-0.261985
0.196872,0.728639,0.278075,-0.694528,-0.619062,-0.366596
0.424143,-0.484119,0.569458,-0.516950,0.199839,0.832362
0.289235,-0.812433,0.655797,-0.043378,0.911917,0.408075
0.398887,0.381135,0.506962,-0.628191,0.777853,0.017945
0.092019,-0.427479,0.775938,-0.107049,0.652616,0.750089
-0.407398,-0.234607,0.563401,0.730779,-0.644113,-0.226007
-0.382968,0.667010,0.410921,-0.410978,0.648300,0.640940
0.885816,0.377077,-0.063150,0.883877,0.213908,-0.415938
-0.044123,0.110717,0.728919,-0.083371,-0.781363,-0.618483
-0.247240,0.108993,0.733821,0.505543,0.331763,-0.796467
0.545325,-0.181710,-0.921797,-0.285544,0.361287,0.887658
0.094214,-0.133652,0.107450,0.453179,0.810751,-0.370556
0.028065,0.476633,0.564556,0.235927,-0.204074,-0.950101
0.619570,0.094640,0.571126,0.735289,-0.160937,-0.658368
-0.335072,-0.113203,0.922028,-0.279266,-0.529799,-0.800827
-0.151995,0.037839,0.932756,-0.761675,-0.148419,0.630732
0.800728,0.624408,0.343086,-0.143234,-0.339361,0.929687
-0.110821,0.514243,-0.424909,0.621156,-0.628389,0.468286
-0.033695,0.145356,0.620943,0.134166,0.958881,-0.250093
0.948945,0.288294,0.393237,0.880503,-0.216257,-0.421839
0.365675,-0.183587,0.319807,-0.059252,-0.755503,0.652460
0.129622,-0.855815,0.654001,0.774949,0.432100,-0.461241
-0.496193,-0.283142,0.765698,0.779236,0.401854,0.480941
-0.621492,-0.080907,0.525877,-0.542391,-0.036280,-0.839342
-0.063335,-0.103841,-0.928316,0.071227,0.173300,0.982290
-0.244082,-0.275027,0.804504,-0.555408,-0.831483,-0.012551
-0.094076,0.355391,0.497928,-0.651678,-0.121519,-0.748698
-0.050984,-0.147224,0.780866,0.838476,0.457818,-0.295567
0.047691,-0.496605,0.689163,-0.244697,0.969511,0.013078
0.026281,0.594912,0.546718,0.791079,0.328033,0.516322
0.023123,0.368496,0.840180,0.899713,-0.406133,-0.159916
-0.411377,0.337752,0.449419,0.834507,0.120541,-0.537650
0.232552,-0.676677,0.347603,-0.435448,0.896546,-0.081180
0.618749,0.653590,-0.926442,0.305341,-0.262610,-0.915316
0.109723,0.488490,0.738980,0.586255,-0.725030,0.361437
-0.225281,-0.557464,0.549105,0.966578,0.256042,0.013016
-0.079120,0.645942,-0.152210,-0.065398,0.769584,0.635187
-0.276470,-0.360534,0.760077,0.976365,0.178972,0.121159
-0.004599,0.496605,0.691729,0.406733,0.048854,-0.912240
-0.056336,-0.030658,0.896721,0.049923,0.425322,0.903664
0.468056,0.523910,0.264113,0.909027,-0.057866,-0.412701
0.558774,0.760784,0.299788,0.882056,-0.160821,-0.442848
0.875111,0.346810,-0.914790,-0.418179,-0.099522,0.902896
0.169012,0.177814,0.660802,0.782867,-0.619837,-0.054054
0.045907,0.065621,-0.238216,0.188491,-0.982022,0.010202
0.205244,-0.327762,0.322502,0.220958,0.455308,0.862480
-0.136897,0.415154,0.559217,-0.532024,-0.269626,-0.802653
0.127976,-0.120699,0.799320,0.371067,0.189703,-0.909023
-0.098880,0.156280,0.474983,0.137914,-0.923490,0.357976
0.948811,0.362410,-0.913507,-0.200589,0.108214,0.973681
-0.202225,0.014591,-0.276047,0.246396,0.934300,-0.257628
0.319700,-0.077317,0.759564,0.756366,0.018176,-0.653896
-0.086805,0.060154,0.870311,-0.103330,-0.618217,0.779186
0.318741,0.266912,0.716137,-0.648441,0.679640,0.342948
-0.042339,-0.021925,0.736824,0.911378,-0.001175,0.411570
0.364029,0.387373,0.490946,0.709629,-0.568511,-0.416200
-0.200302,-0.348524,0.593558,0.928009,-0.149063,0.341437
-0.828860,-0.026296,-0.971049,-0.296029,0.242233,0.923953
-0.021339,0.107127,0.725608,0.509638,0.644869,0.569572
0.125232,-0.220254,0.736901,0.436120,0.078887,-0.896424
0.835176,0.755793,-0.920693,0.049607,-0.076081,0.995867
-0.365126,-0.619408,0.723016,-0.345996,-0.413702,-0.842103
0.951965,0.449012,-0.913609,-0.024926,0.148917,0.988536
0.130857,-0.797452,0.374655,0.825919,0.541378,-0.157376
-0.493173,-0.509872,0.721887,-0.598741,-0.415110,-0.684976
0.211146,0.231959,0.649792,-0.481712,0.760033,-0.436237
-0.197559,-0.767803,0.743702,-0.446653,0.882149,0.149380
-0.599257,0.433565,0.311261,-0.067815,-0.481940,0.873576
-0.689702,0.331047,0.394726,-0.045112,-0.202922,0.978155
-0.478623,0.228368,-0.964838,-0.144758,0.031517,0.988965
-0.230495,-0.016305,0.884171,0.357033,-0.565564,0.743415
0.644686,0.301552,0.589195,0.403157,0.787564,-0.466056
-0.085294,-0.115080,0.830683,0.279409,0.946589,0.160933
0.024907,-0.321838,0.759872,0.941046,0.317984,-0.115405
0.424825,0.416402,0.282310,0.837593,-0.106426,0.535829
0.353462,0.441365,-0.092871,0.545279,-0.809624,-0.217209
0.669661,-0.258950,0.610651,0.988305,-0.147958,0.036897
0.829957,0.653276,0.551620,-0.226061,0.014552,0.974004
-0.696562,0.441212,0.550234,-0.668979,-0.735320,-0.108497
0.714953,0.580712,0.341110,-0.164844,-0.233636,0.958249
-0.226789,0.005543,0.814232,0.349106,0.594389,-0.724449
-0.954846,0.452603,0.360590,0.646362,-0.760269,0.064867
0.271255,-0.089174,0.355432,0.073721,-0.852974,0.516721
-0.526658,0.210111,0.694886,-0.193273,-0.674758,0.712283
0.082002,0.253178,0.729176,0.816222,0.526429,0.238019
0.804158,0.778422,-0.921976,-0.210035,0.315430,0.925413
0.164618,-0.795270,0.534322,-0.736438,-0.486862,0.469707
-0.674465,0.087459,0.717292,0.827204,0.559291,0.054097
0.471352,0.697591,0.373192,0.171171,-0.985062,-0.018820
-0.237632,0.363658,0.755457,0.629221,0.052670,-0.775440
0.772729,0.700401,-0.930112,-0.215233,-0.015788,0.976435
-0.352913,0.515643,0.442746,0.880639,-0.179245,0.438574
-0.519521,0.502224,0.405274,-0.295379,0.100974,0.950029
0.204830,-0.402821,0.695220,0.596132,0.655210,0.464034
-0.528719,0.266284,0.420084,-0.571409,-0.804874,0.160216
-0.339737,-0.530311,0.690420,0.863691,0.097503,0.494500
-0.512250,-0.220254,0.741649,-0.676370,0.714932,-0.177189
0.039319,-0.453851,0.775348,-0.202334,0.712652,0.671706
-0.138271,0.096670,0.829965,0.954306,-0.120062,0.273651
-0.852331,0.233207,0.509246,-0.331666,-0.728734,0.599120
-0.279766,0.103688,0.719346,0.722208,0.002394,-0.691672
0.010638,0.041115,0.934604,0.880064,0.331382,0.340107
0.316543,-0.306228,0.701251,0.321063,0.770744,0.550338
0.206065,-0.134118,0.749888,-0.694162,0.412426,0.589952
-0.866190,0.643133,0.317549,0.246107,0.796538,-0.552231
0.081176,-0.417174,0.755406,0.208026,0.696056,0.687191
-0.091333,0.048296,0.809561,-0.750573,-0.315825,0.580427
-0.160502,-0.240855,0.757023,-0.088258,-0.098040,0.991261
0.167366,-0.359915,-0.926904,-0.176819,0.406817,0.896234
-0.169561,0.585236,0.674174,-0.310196,-0.620188,0.720517
0.525012,0.264255,-0.021059,-0.451718,0.265564,0.851720
0.475055,0.100098,0.566968,0.198367,0.302070,0.932419
-0.588828,-0.416088,0.542150,0.085125,-0.979771,0.181117
-0.537912,-0.193253,0.682490,-0.145364,0.691806,-0.707300
0.050162,-0.315752,0.831736,0.899871,0.341398,-0.271439
0.093255,-0.028792,0.520231,-0.488934,0.867406,-0.092462
-0.149248,0.606931,0.415079,0.170016,-0.687346,0.706151
-0.198380,0.198720,0.663086,0.837243,-0.527072,-0.145673
0.112605,-0.054383,0.685749,0.960235,0.279192,-0.000956
-0.843544,0.593665,-0.369034,-0.530713,-0.841274,0.102965
0.123859,-0.444327,0.745063,-0.408005,-0.898000,0.164707
0.346735,-0.401259,0.303792,-0.366584,0.266809,-0.891307
-0.553011,0.028791,0.682156,-0.588278,0.780155,-0.212808
-0.190971,0.572597,0.767674,-0.143101,-0.816232,0.559721
0.290605,0.264731,0.594636,0.854918,-0.507974,0.105251
-0.001579,0.631113,0.700635,-0.386785,0.729116,-0.564612
-0.201676,0.109622,0.571768,0.531531,0.355230,0.768952
-0.290743,0.669505,0.619480,-0.137424,0.210991,0.967780
-0.203046,0.016772,0.969278,-0.740054,0.666635,0.088988
-0.539696,0.594598,0.329561,-0.537755,-0.768988,0.345655
-0.864267,0.018648,0.150696,-0.601807,-0.609587,-0.515977
0.093255,-0.447137,-0.047956,0.745993,0.444855,0.495578
0.079668,0.565264,0.675329,0.104512,-0.864738,0.491228
0.797846,0.885464,0.427193,-0.178525,-0.935191,0.305853
0.268923,0.271436,0.366006,0.841615,0.525154,-0.126090
-0.799903,-0.025820,0.463510,0.950055,0.068355,-0.304506
-0.094491,-0.016620,0.835740,0.931752,-0.046330,-0.360129
0.719342,0.368810,-0.927854,-0.270425,-0.221038,0.937023
-0.508816,0.057811,0.668168,0.962086,0.180449,-0.204522
0.200851,-0.350239,0.360411,0.856858,0.463893,0.224939
-0.098470,0.086840,0.817106,0.807107,-0.380280,-0.451626
0.192755,0.481157,0.309310,-0.245987,0.481304,0.841330
-0.129073,0.572445,0.547283,-0.360416,0.711351,-0.603391
0.098331,0.618322,0.774168,-0.529774,0.846394,0.054373
0.421395,-0.365525,0.566712,0.672598,0.038198,-0.739021
0.093527,-0.085431,0.643632,0.686702,0.726937,0.001849
-0.839427,0.330267,-0.981521,0.185382,-0.173658,-0.967200
0.329995,-0.128965,0.762490,0.374754,0.660692,0.650419
-0.631373,0.636580,0.424370,0.077022,-0.669474,0.738832
-0.065395,-0.298895,0.816773,-0.369357,-0.120774,0.921406
-0.227886,-0.050163,0.353661,-0.123188,0.770785,0.625072
0.073629,-0.880778,0.513378,-0.646685,0.691790,0.321286
-0.744048,-0.020991,0.528932,0.380197,0.665827,0.641969
0.029850,-0.094641,0.540199,0.945606,-0.177851,-0.272392
0.137855,-0.009905,0.523414,0.731632,-0.616713,0.290482
0.956358,0.307018,0.422599,0.871797,0.352740,-0.339918
0.712620,0.219473,-0.215425,-0.139335,0.942536,0.303662
0.138957,0.132870,0.432044,0.529879,-0.712497,-0.459975
0.057572,-0.459623,0.794007,0.893918,0.410003,-0.181129
-0.099705,-0.201996,0.672634,0.060050,0.996006,-0.066076
-0.074588,0.032848,0.750145,-0.567723,-0.813771,-0.124368
-0.082822,0.266760,0.678049,0.831054,0.354842,0.428295
0.889661,0.251464,-0.911094,-0.587932,0.085075,0.804424
-0.749674,0.123822,0.254976,0.963742,0.265968,0.021489
0.582102,0.648276,0.312493,0.910883,0.132056,-0.390965
0.535856,-0.019115,-0.925313,-0.143455,0.266063,0.953222
-0.315994,-0.456185,0.388771,0.863882,0.234884,-0.445576
0.117271,-0.137709,0.494899,-0.708588,0.213986,-0.672393
0.190695,-0.001172,0.626975,0.277196,-0.280508,0.918955
0.050296,0.384573,0.727764,0.813322,-0.427231,0.394944
-0.708365,0.094793,0.727892,0.817884,-0.390232,0.422831
0.893091,0.550130,-0.917254,0.278306,-0.216434,-0.935790
0.689836,-0.015057,-0.918999,0.294600,-0.120161,-0.948036
0.725520,0.688848,0.494001,-0.048796,0.886730,-0.459705
-0.421257,0.072793,0.732461,0.521444,0.821875,0.229386
-0.302822,-0.237264,0.832300,-0.674870,-0.466205,-0.572017
-0.396282,0.240693,0.450985,0.706656,0.611631,-0.355732
-0.238730,-0.047830,0.731203,0.008303,-0.039157,0.999199
-0.099567,-0.117108,0.920719,-0.117495,-0.885642,0.449259
0.048927,0.206520,0.906680,0.240763,-0.953994,0.178687
0.038770,-0.410469,0.417491,0.853295,-0.422492,-0.305594
-0.149110,-0.500977,0.693244,-0.220548,0.105736,-0.969628
-0.005148,-0.188425,0.576182,0.890325,-0.047321,0.452859
-0.851916,0.153309,0.645557,0.556525,0.823224,-0.112168
0.066631,-0.704144,0.709926,-0.592768,0.451939,0.666617
-0.350304,0.080288,0.406173,0.310332,-0.867044,0.389780
-0.278115,0.166109,-0.004735,0.986740,0.159498,0.030079
0.068553,-0.255674,0.674097,0.120256,-0.960279,0.251800
0.744869,0.180624,-0.166763,-0.527700,0.827846,0.190274
-0.166131,0.282360,0.875855,0.228042,0.971317,0.067375
0.911754,0.376611,0.420366,0.827693,0.450731,-0.334315
-0.009813,-0.100260,0.927674,-0.116274,-0.762319,0.636671
-0.437453,0.567454,0.399859,-0.444289,0.078953,0.892398
-0.045497,-0.040963,-0.027603,-0.332662,0.894910,0.297442
-0.422631,0.617694,-0.630619,0.416361,0.535798,0.734550
0.026968,-0.116175,0.545743,0.956593,-0.291356,0.006371
0.258628,-0.108527,0.749015,-0.629820,0.519673,0.577293
-0.953477,0.617542,0.604158,-0.101462,-0.660259,0.744153
0.918618,0.309666,-0.908681,0.493351,-0.097346,-0.864366
-0.753652,0.146290,0.633597,-0.608935,-0.781344,-0.136747
-0.525289,0.226654,0.374553,-0.564479,-0.764310,0.311760
-0.224594,0.330733,0.588579,-0.491805,0.215298,-0.843667
-0.136072,-0.387840,0.776375,0.823206,-0.480745,-0.302021
0.243805,-0.235235,0.752429,0.393262,0.707349,-0.587369
-0.369658,-0.057973,0.483581,0.889223,-0.182612,0.419447
-0.190695,0.036277,0.977183,0.993433,-0.085709,-0.075798
-0.055377,0.025667,0.809997,0.641948,0.440128,0.627846
0.605435,-0.215882,0.580725,0.391336,0.851475,0.349065
-0.248061,-0.466956,0.577414,-0.454051,0.837969,-0.302730
0.423179,0.542644,-0.107706,-0.566547,0.816011,0.114673
0.514034,0.359286,0.603619,-0.755120,-0.607203,-0.247182
0.287862,-0.437622,0.718653,-0.693198,0.033436,0.719971
0.467922,0.199967,0.331306,0.801042,-0.064121,0.595164
-0.206342,-0.369896,0.753404,-0.318979,0.187736,0.928982
0.547930,0.407040,0.644889,0.329685,0.361076,-0.872314
0.416181,0.358668,0.238447,0.019407,-0.833720,0.551846
-0.079941,0.066554,0.879115,0.930556,-0.215578,0.295960
-0.063201,0.630332,0.415926,0.339501,0.631450,-0.697144
-0.101213,-0.480690,0.569535,0.898892,-0.011364,-0.438023
-0.968433,0.546539,0.344883,-0.613323,0.710392,0.345221
0.068004,0.683076,-0.950542,0.134394,-0.111229,-0.984666
0.924105,0.355544,0.404299,0.931623,-0.187592,-0.311269
-0.050297,0.419526,0.682695,-0.283435,0.202513,-0.937365
-0.219652,-0.103222,0.765236,0.975031,-0.211100,0.068927
-0.190556,0.124441,0.858531,0.976072,-0.194114,0.097997
-0.002400,-0.130680,0.880732,0.798678,-0.597355,-0.072669
-0.609141,0.389249,0.528496,-0.529772,-0.825903,-0.192939
0.244769,-0.455718,0.533141,-0.371917,0.489575,0.788666
0.705756,0.087622,0.465897,-0.349215,0.590377,-0.727670
0.688466,0.618636,0.481194,-0.656225,0.750611,0.077152
-0.399026,0.023953,0.837947,0.593834,0.007242,0.804555
0.055515,0.588674,0.688881,0.024630,-0.501846,0.864606
-0.670624,0.278455,0.717318,-0.613897,0.511573,-0.601185
-0.123449,-0.182958,0.680205,0.307186,0.945647,-0.106715
-0.098193,-0.444794,0.742932,0.545354,-0.467637,0.695633
0.885678,0.941951,0.405274,-0.378349,0.889355,-0.256708
-0.206204,0.189519,-0.027064,0.862066,0.493879,0.113687
-0.218278,0.000857,0.747270,0.871446,-0.355392,-0.338051
-0.005148,-0.101508,0.730254,0.802897,0.301701,0.514134
0.030398,-0.521730,0.408046,0.286417,0.417227,0.862489
-0.227199,0.467423,0.775297,-0.135775,0.210590,0.968100
-0.373498,-0.618789,0.456631,0.921372,0.290075,-0.258710
-0.147463,-0.188729,0.811639,0.326104,0.747086,0.579240
-0.206476,0.316066,0.718037,0.072585,0.972051,0.223265
-0.108764,-0.542797,0.501521,-0.427426,0.861358,0.274534
0.408634,-0.732230,0.183831,-0.257233,0.962207,-0.089384
-0.241749,0.047516,-0.100545,0.927035,0.264310,-0.265981
-0.367325,-0.219787,0.589041,0.124978,-0.756081,-0.642435
0.386536,0.292351,0.610651,-0.084864,-0.388910,0.917359
-0.425789,0.029887,0.649330,0.733290,-0.523263,0.434144
-0.024907,0.354924,0.435611,0.952705,-0.297421,-0.062406
0.162973,-0.355230,0.677305,-0.425806,0.860152,-0.280762
0.826527,0.338381,0.598383,0.782312,0.517406,-0.346813
-0.343582,0.013191,0.728431,0.686364,0.466428,-0.557986
-0.804983,0.140204,0.441720,0.914921,-0.337562,0.221296
0.805255,0.600998,-0.917741,0.051608,0.189312,0.980560
0.518424,0.278770,0.567584,0.149212,0.422786,0.893861
-0.066220,-0.292808,0.902214,0.905655,-0.149098,-0.396938
0.076372,-0.886083,0.321784,-0.672857,0.656091,-0.341773
0.042062,-0.818519,0.645326,-0.792833,-0.068910,0.605531
-0.023400,-0.154871,0.915842,-0.619291,-0.775547,0.122493
0.500448,-0.144576,0.337825,-0.218621,0.035690,0.975157
0.186029,-0.009286,0.819981,-0.573112,0.797710,-0.187618
-0.148837,-0.329324,0.786872,0.844037,0.494914,-0.206546
0.453649,-0.212921,0.570433,0.299331,-0.226800,-0.926802
-0.074727,-0.092298,0.741880,0.428805,-0.351135,-0.832364
-0.571673,0.005857,0.498569,-0.180224,0.973931,-0.137762
0.108764,-0.223997,0.638781,0.773461,0.259857,-0.578128
0.206065,-0.018334,0.555804,-0.245726,-0.228486,-0.942026
0.055787,-0.609427,0.760103,0.445114,0.779753,-0.440294
0.064298,-0.116327,0.730484,-0.051909,0.496919,0.866243
-0.402867,-0.195910,0.565505,0.827740,-0.551802,0.101791
0.066631,-0.145661,0.835894,-0.539166,0.576592,-0.613874
0.526934,-0.436213,0.544280,0.471573,-0.794785,-0.382016
0.189736,-0.276579,0.401065,0.086634,0.989528,-0.115453
-0.071569,-0.118203,0.956060,-0.307204,-0.916920,-0.254721
-0.234613,-0.608332,0.698479,-0.298360,-0.844243,-0.445235
-0.376795,0.081850,0.700071,0.964674,0.208862,-0.160561
0.374462,0.095574,-0.932191,-0.207108,0.190991,0.959494
-0.018047,-0.007257,0.804427,-0.566165,0.401408,-0.719951
0.318193,0.170785,-0.033045,-0.598302,0.641816,0.479695
-0.214848,-0.047202,0.775554,0.818469,-0.502424,-0.278708
0.759005,0.075764,0.334976,-0.574731,0.814823,0.075813
0.185342,0.223844,0.342316,0.741976,0.669195,0.040609
0.408634,0.473042,0.442336,0.582234,-0.787945,-0.200365
0.304058,-0.309352,0.538248,-0.398890,-0.527077,0.750384
-0.562342,0.212454,0.518306,0.979599,-0.002026,0.200953
-0.733615,0.410469,0.573000,-0.061182,0.961563,0.267682
-0.203595,-0.464299,0.668450,0.245678,-0.965696,0.084110
-0.230357,-0.021610,0.756073,0.980868,-0.155545,-0.117062
-0.115348,-0.184834,0.883016,0.038865,0.615672,0.787044
-0.405476,0.415936,0.594354,-0.146926,0.954124,-0.260884
0.491113,0.022077,0.559474,-0.321928,0.458778,0.828182
-0.206891,-0.118518,0.739878,0.310631,0.849284,0.426878
-0.564947,-0.109460,-0.954520,-0.212502,0.190103,0.958490
-0.208675,-0.016934,0.880706,0.053754,0.101928,-0.993338
0.299388,0.344619,0.403093,0.654816,-0.511874,-0.556059
0.007891,-0.540139,0.300327,0.897993,-0.312129,-0.310136
0.078982,-0.378325,0.755509,0.287105,0.735120,0.614141
0.088862,0.447298,0.769650,-0.811513,0.559463,-0.168665
-0.083924,-0.621751,-0.731768,0.984299,0.163242,-0.067131
0.479724,-0.111022,0.540687,0.143040,0.586282,0.797379
-0.529816,0.285017,0.779352,0.630778,0.491074,-0.600804
-0.333836,0.469766,0.770934,0.504360,-0.532494,0.679758
-0.535441,-0.008972,0.677459,0.078183,0.980084,0.182544
0.865369,0.542330,-0.919384,0.181248,-0.140910,-0.973290
-0.158307,0.111184,0.792518,0.977953,-0.002930,-0.208803
-0.269609,-0.054383,0.690061,-0.497947,-0.823916,-0.270577
-0.275234,0.484433,0.785153,0.050337,-0.619981,0.783000
-0.065257,-0.480528,0.686647,0.388742,-0.285715,0.875926
0.056884,-0.929465,0.492512,0.884294,-0.332601,-0.327719
-0.077474,0.489738,-0.654976,0.632219,0.722640,0.279447
0.059217,0.465242,0.837305,0.879783,-0.451231,-0.149574
0.623000,0.300770,0.578415,0.111319,0.703444,-0.701979
-0.030675,0.292818,0.670632,-0.299215,-0.845364,-0.442526
0.602277,0.153623,0.555239,-0.647756,0.746562,0.151847
-0.273588,-0.458842,0.446416,0.972514,-0.031437,0.230710
-0.574693,-0.121947,0.660468,0.958140,-0.119098,0.260353
-0.049614,-0.166729,0.763901,-0.029640,-0.720315,0.693013
-0.484801,0.406573,0.411485,-0.219445,-0.126275,0.967418
0.125232,-0.334162,0.688624,0.166298,0.616642,0.769479
0.182050,0.575255,0.709285,0.830604,0.392652,-0.394868
-0.082550,0.031287,0.920873,0.616448,0.774649,-0.141104
-0.523090,-0.272217,0.780225,0.849472,0.488329,-0.199832
-0.214027,-0.081688,0.959192,0.906687,-0.367414,-0.207184
-0.163932,0.066402,0.993815,-0.472526,0.876490,-0.092112
-0.760240,0.116489,0.717061,0.818817,-0.510154,0.263214
-0.048102,0.016934,0.741700,0.980653,0.045528,-0.190386
-0.226102,0.092612,0.798576,-0.461640,0.434140,-0.773570
-0.049337,-0.001638,0.880834,0.971349,0.182344,-0.152417
0.692856,0.505348,-0.920077,-0.079433,-0.235174,0.968702
-0.012971,0.077793,0.691781,0.837846,-0.161765,-0.521389
0.754888,0.311694,0.609727,0.569287,0.131751,-0.811513
0.494819,0.682143,0.394546,0.353261,-0.790578,-0.500194
-0.098059,-0.513301,0.682002,-0.460755,0.620216,-0.634852
-0.250942,-0.129432,0.731357,-0.298390,-0.347500,0.888936
-0.132231,0.601932,0.562579,-0.238510,0.507406,-0.828041
-0.125643,0.395964,0.411178,-0.576859,-0.121043,-0.807825
-0.391478,0.523139,0.531267,0.291609,-0.116101,0.949466
0.359363,-0.232892,0.558653,-0.495427,-0.364579,0.788438
0.717147,0.792623,0.340597,0.786706,0.045822,-0.615625
-0.479587,-0.212758,0.548104,-0.036175,-0.913779,0.404598
-0.032593,-0.301237,-0.936914,-0.129483,0.261986,0.956346
-0.277567,-0.254426,0.844543,0.987120,0.151714,-0.050773
0.339050,-0.552311,0.553212,0.712858,0.418636,-0.562651
0.025322,0.181091,0.736259,0.303448,0.256581,-0.917652
0.253141,-0.292971,0.542817,0.380759,0.318405,-0.868125
-0.046046,-0.184520,0.852936,0.768744,0.243024,-0.591585
-0.337543,0.201063,0.726019,0.922140,-0.135716,0.362270
-0.521033,0.347276,0.565095,0.915848,-0.270000,-0.297192
-0.117132,-0.360382,0.766365,0.185882,-0.938214,-0.291895
0.320111,0.143014,-0.941123,-0.195411,0.213109,0.957287
0.101761,0.471794,0.558781,0.948072,0.171886,-0.267609
-0.558635,0.399544,0.405249,0.291660,0.569766,-0.768311
-0.214027,-0.069831,0.945897,0.870100,-0.068427,0.488102
-0.590889,0.026296,0.397215,-0.302127,0.944074,-0.132072
0.385029,0.471794,0.431274,0.824169,-0.167600,-0.540977
0.062924,-0.507367,0.786539,0.590709,0.782401,-0.197260
-0.010086,0.442613,0.748938,-0.660309,0.750360,-0.030841
-0.441980,0.215263,0.576927,0.281793,0.920319,-0.271305
0.976805,0.525634,0.043952,-0.654091,0.743611,0.138593
0.185342,-0.350239,0.618685,-0.588038,-0.162363,0.792370
-0.025594,0.323552,0.836073,0.944286,0.017628,-0.328653
-0.228573,-0.050478,0.882169,-0.277194,-0.537310,-0.796531
-0.113841,0.470232,0.687135,0.472162,-0.068943,-0.878812
-0.293486,0.393935,0.741290,0.388576,0.903014,-0.183233
0.301997,0.662952,-0.949618,-0.131241,0.062886,0.989354
-0.074865,0.385192,0.792518,0.968050,0.064159,-0.242411
-0.228983,-0.029725,0.854116,-0.610644,0.791818,-0.011738
-0.210459,-0.564016,0.707565,0.619265,0.022510,-0.784859
-0.844097,0.096040,0.610805,-0.644939,-0.672014,-0.363938
-0.374734,0.105717,0.825858,0.101285,-0.679554,0.726600
0.092430,-0.587893,0.717626,-0.654237,0.629084,0.419794
-0.204143,-0.014905,0.948104,0.765527,-0.347816,0.541289
-0.191792,0.659981,0.426628,0.137089,-0.797390,0.587687
0.066220,0.199967,0.565557,-0.680248,-0.118502,0.723339
0.156246,-0.934151,0.091794,-0.781534,0.561874,0.271112
0.633294,-0.323400,0.595894,-0.510700,0.516473,0.687344
0.388731,0.161900,0.746680,0.910536,0.293686,0.290985
0.602963,0.177033,-0.931242,-0.091645,0.141983,0.985618
0.097234,0.216511,0.289445,0.220917,-0.972981,0.067105
0.208675,0.089802,0.480988,-0.358822,0.144979,0.922078
0.437314,0.776546,0.219198,-0.554240,0.831317,0.041606
-0.038770,-0.001952,0.863921,0.918489,0.355150,0.173915
-0.443765,-0.015991,0.662778,0.313319,0.949480,0.017855
-0.651137,0.389402,0.386590,0.830665,0.184282,0.525390
0.669251,-0.200587,0.351761,0.601414,0.233547,-0.764040
0.957317,0.458689,-0.917510,-0.022213,0.222695,0.974635
0.183009,-0.534054,0.772089,0.255414,0.645171,-0.720082
0.340562,-0.731136,0.251537,-0.527688,0.766249,-0.366617
-0.799903,0.329333,0.327097,0.513184,0.356138,-0.780902
0.251219,-0.610674,0.359461,0.486178,0.870368,-0.078040
-0.110959,-0.423260,0.800064,-0.386706,0.810800,-0.439387
0.251080,0.179996,0.522233,0.674508,-0.689256,0.264509
-0.697387,-0.059221,0.515200,0.514552,0.749611,0.416317
-0.206342,-0.083250,0.965223,0.817514,-0.573993,0.046926
0.204143,0.460251,0.692089,-0.583131,0.607944,-0.538853
0.281822,0.079659,0.482297,0.847599,-0.440504,-0.295859
-0.480135,0.092926,0.581521,0.062313,-0.608480,0.791119
-0.140604,0.000390,0.832788,-0.107987,0.605860,-0.788209
0.799216,0.219787,-0.148104,-0.544587,0.833228,0.095687
-0.349483,0.460404,0.787077,-0.476586,0.674956,-0.563293
-0.342485,-0.131775,0.919230,-0.577452,-0.487847,-0.654641
-0.017360,-0.350553,0.393879,0.811302,0.273847,0.516523
0.924930,0.502376,0.382124,0.854024,-0.101720,-0.510191
0.900914,0.698372,0.473930,0.002684,-0.984718,0.174136
-0.821175,0.390183,0.555239,-0.115066,-0.984947,0.128994
-0.262196,0.092764,0.800064,0.936925,0.342643,0.069045
0.149248,-0.048135,0.827937,0.512001,0.847520,0.139877
0.772319,0.604436,0.535605,-0.830182,0.049228,0.555315
0.259863,-0.636418,0.378916,0.016129,0.539993,0.841515
0.267825,-0.349143,0.542227,0.668231,0.447462,-0.594345
-0.218831,-0.431850,0.764132,0.898635,-0.410560,0.154582
-0.351539,0.356172,0.618890,0.294546,-0.951106,-0.092954
-0.398888,0.050477,0.571845,0.571914,-0.112866,-0.812512
-0.106842,-0.091203,0.882836,0.073701,0.243157,0.967183
0.948263,0.752050,0.419031,0.976183,0.178152,-0.123808
0.957456,0.536710,-0.919615,0.160330,0.280673,0.946317
0.243123,-0.008343,-0.938017,0.330706,-0.180174,-0.926375
-0.335758,0.485995,0.776529,-0.240368,0.835573,-0.494006
-0.752283,0.118832,0.501315,0.987945,0.082512,-0.130980
-0.387362,0.640789,0.485454,0.827652,-0.531587,-0.180020
-0.534892,-0.017401,0.681771,-0.117666,0.970037,-0.212562
-0.438278,-0.664352,0.430837,-0.698606,-0.669398,0.252696
-0.391889,-0.161110,0.395881,0.672457,0.698414,0.244990
0.818842,0.634085,0.346551,-0.327749,-0.225978,0.917341
-0.218831,-0.009753,0.794443,0.993232,0.100935,-0.057464
0.457079,0.463061,0.600873,0.871895,-0.353276,0.339109
-0.679956,0.393935,-0.165505,0.587511,0.430356,-0.685291
-0.612161,0.020991,-0.965069,-0.100697,0.156875,0.982472
-0.648389,-0.013648,0.518512,0.196662,0.746756,0.635358
-0.119880,0.073421,0.888329,0.168701,-0.507636,0.844894
-0.370207,0.114613,0.823009,0.101156,0.959937,0.261320
-0.181773,0.043306,-0.191068,0.923638,0.053540,0.379509
0.412336,-0.050792,0.307257,-0.234187,0.773467,0.588987
-0.149248,-0.026601,0.892640,0.844004,0.034632,-0.535218
0.964454,0.642037,-0.920565,0.415255,0.012877,0.909614
0.043847,-0.091203,-0.943073,0.028007,0.225377,0.973869
0.922869,0.411878,0.413359,0.761631,-0.630027,0.151603
-0.198791,-0.261760,0.749041,0.667816,-0.744215,0.012889
0.108626,-0.293437,0.472005,-0.575382,0.808023,0.126622
-0.199616,0.146918,0.529419,-0.575909,-0.760340,-0.300353
0.626845,0.597102,0.508964,-0.164150,0.799522,0.577770
-0.525289,0.067335,0.721219,0.217929,-0.965886,0.139894
0.020242,0.309666,0.720475,-0.375595,0.923107,-0.082470
0.661565,-0.243817,0.362541,0.939006,0.054153,-0.339610
0.108349,-0.599122,0.729535,0.936364,-0.349294,-0.034867
0.068138,-0.127099,0.431607,0.831122,0.003558,-0.556078
-0.522403,-0.250521,0.768495,0.795109,-0.575542,-0.191189
0.238453,-0.784661,0.645788,-0.216408,0.771847,0.597846
-0.420159,0.100574,0.798037,0.380851,0.914325,0.137706
0.523366,-0.289227,0.730613,-0.339671,0.617101,0.709795
0.937281,0.593512,0.447340,0.986194,0.147072,0.076096
-0.292804,0.106498,0.662342,0.315582,0.464594,0.827382
0.433612,-0.085898,0.326455,-0.184593,0.735819,0.651533
0.213613,-0.425451,0.778993,0.427209,0.890428,0.156941
0.167090,-0.466642,0.667450,0.389078,-0.638355,0.664170
0.640293,-0.189044,0.287648,0.968863,0.013041,0.247253
-0.681740,0.066554,0.606391,0.323931,0.939385,0.112363
-0.136897,-0.555435,0.554110,0.959517,-0.144271,-0.241894
0.249707,-0.803223,0.382740,0.283507,-0.601352,-0.746994
-0.354287,0.338219,-0.402810,0.208912,-0.304982,-0.929162
-0.177657,-0.723802,0.739185,0.608498,-0.793353,0.017910
-0.437314,-0.333381,0.541534,-0.408489,0.624899,-0.665311
0.012007,0.428107,0.819031,-0.540341,0.803133,0.251016
-0.344817,0.043611,-0.951440,-0.153645,0.169198,0.973532
-0.245866,0.059221,0.929599,-0.480452,-0.871694,0.096518
0.180538,-0.870168,0.335412,-0.757866,0.620500,0.201543
-0.003912,0.042211,0.467693,0.113480,0.958313,0.262217
0.726617,0.151595,0.482631,-0.209004,-0.711154,0.671250
0.046594,-0.941789,0.435303,0.054733,0.892214,0.448283
-0.621082,0.475070,0.416054,0.261572,0.208971,-0.942290
0.110549,-0.116642,0.867360,-0.147804,0.966423,-0.210190
-0.041242,-0.103536,0.785178,0.870374,0.312357,-0.380635
-0.073905,0.188262,0.569612,0.140199,-0.161336,0.976890
-0.173678,-0.188425,0.761874,-0.242583,-0.226841,0.943238
0.033556,0.746745,0.543176,0.479777,-0.831206,0.280910
0.010362,-0.185615,0.793237,0.116092,0.806315,0.579981
-0.131544,0.286417,0.579673,0.713149,0.126861,0.689438
0.112194,0.006162,0.715675,0.847256,0.113758,-0.518861
0.069788,0.742059,0.719038,-0.243482,-0.958507,0.148263
0.095039,0.247560,0.713340,-0.377756,-0.764264,-0.522687
-0.549991,-0.054687,0.572178,0.990993,0.069199,-0.114650
0.017770,0.315751,0.843953,-0.794339,0.603678,-0.067813
-0.187265,0.162519,-0.957780,-0.206561,0.219529,0.953488
0.036438,-0.103222,0.613757,0.751292,-0.372649,-0.544696
-0.207163,0.452451,0.645813,-0.443225,-0.090547,-0.891826
0.056336,-0.043458,0.777684,-0.482377,0.704697,-0.520302
-0.273999,0.283141,0.744960,0.872340,0.365965,0.324180
0.486447,-0.081526,-0.359076,0.567496,0.823301,0.011139
-0.269609,0.321219,0.725095,-0.149210,-0.892566,0.425514
-0.344131,0.272846,0.317908,0.048239,-0.617735,0.784905
0.441980,-0.162834,0.323349,-0.533039,0.120743,0.837431
0.508682,-0.144576,0.332178,-0.182288,0.115596,0.976426
0.037397,0.145509,0.427758,0.986381,0.010985,0.164111
0.169561,-0.001486,0.736721,-0.694650,-0.157122,0.701978
0.483293,0.462594,-0.930651,0.472741,-0.070488,-0.878378
-0.598847,0.145823,0.326635,0.473282,-0.387522,-0.791095
0.944556,0.786841,0.323889,0.892096,-0.000966,0.451845
-0.089139,0.110869,0.248123,0.824390,0.413807,-0.386193
-0.253552,-0.522663,0.707539,0.029709,0.277472,0.960274
0.151170,-0.357258,-0.128547,-0.246094,-0.744181,0.620994
0.178754,-0.674648,0.620995,-0.110967,0.946406,0.303318
-0.565772,0.329486,0.514405,0.466606,0.844397,-0.263195
0.845881,0.783261,-0.068823,-0.420136,0.270136,0.866321
-0.256295,0.580245,0.658261,0.704445,0.586515,-0.399697
-0.206614,0.259893,-0.132371,-0.638668,-0.769031,0.026376
0.078023,-0.397983,0.640783,0.862464,-0.134664,0.487875
0.357717,0.439803,-0.033353,-0.449335,0.714914,0.535720
0.914635,0.524072,0.553596,-0.674255,-0.648908,-0.352560
0.114117,-0.026763,0.833481,0.808143,0.588983,-0.001998
-0.225005,-0.105089,0.677819,0.997884,0.060570,-0.023653
-0.316270,0.221968,0.834816,0.826885,-0.465929,0.314913
-0.267963,0.538273,0.776247,-0.538140,0.355617,-0.764161
-0.599672,0.482099,-0.163965,-0.487701,-0.731517,0.476477
0.046180,0.082783,0.694604,0.416934,0.737283,0.531582
-0.120152,-0.640009,0.418107,0.172479,0.285440,0.942749
-0.195222,-0.134899,0.868746,0.963454,0.160506,-0.214461
-0.728129,-0.211673,0.511736,0.816851,0.524885,-0.239272
0.125232,0.013657,0.495797,0.006148,0.956869,0.290456
0.413571,0.318095,0.613192,-0.421843,0.106370,0.900407
-0.048512,-0.047354,0.950029,0.531364,0.577962,0.619365
0.390381,-0.400011,0.727456,0.071452,0.585701,0.807372
-0.554929,0.517672,0.419699,0.110165,-0.081207,0.990590
-0.210593,-0.294371,-0.920770,0.714974,-0.367641,0.594687
0.833392,0.863463,0.456452,0.734129,0.555312,0.390747
-0.056613,-0.021925,0.924748,-0.630052,0.430337,-0.646409
-0.070471,0.576188,0.398935,-0.620900,0.548492,-0.560035
-0.588280,-0.216045,0.677203,0.813358,0.566446,0.132620
0.249845,0.278770,0.655720,0.818172,-0.084287,0.568762
0.002400,0.552006,0.498030,0.257571,-0.286758,0.922728
0.266041,-0.037058,0.546795,-0.065021,-0.377131,0.923875
-0.388183,-0.071079,0.150260,0.054851,-0.996953,-0.055457
-0.335209,-0.112270,0.815695,0.826214,0.433778,0.359454
-0.035751,-0.111651,0.680257,-0.054961,0.369889,0.927449
0.154738,-0.498633,0.389695,0.810285,0.316532,0.493200
-0.288410,0.350553,0.749837,0.825836,0.551529,-0.117520
-0.040555,-0.111175,0.928701,0.342213,-0.654198,0.674474
-0.312974,0.451822,0.531704,0.669785,-0.448017,0.592173
-0.781789,-0.138176,-0.964787,-0.178794,0.399581,0.899093
-0.378302,-0.128347,0.741546,-0.564420,0.583692,-0.583724
-0.509779,-0.238350,0.752916,-0.138861,0.986889,0.082264
-0.351129,0.501129,0.773860,-0.607577,0.708903,-0.358199
0.417278,0.286103,0.607443,0.181229,0.943461,-0.277558
-0.119055,-0.334943,0.584139,-0.845276,0.515019,-0.142348
-0.076511,0.131775,-0.145820,0.994364,-0.048158,0.094450
-0.057161,-0.059373,0.791800,-0.611929,0.070400,-0.787773
-0.581005,0.032220,0.672711,-0.103096,0.903940,0.415047
0.048517,-0.248655,0.735207,0.652993,-0.244786,-0.716715
0.607080,0.238978,0.575438,0.245757,0.702529,-0.667875
0.081042,-0.183891,0.660545,-0.690691,-0.153212,-0.706733
-0.373909,0.556216,0.562785,0.454198,-0.041945,-0.889913
-0.616965,0.633923,0.463818,-0.294875,-0.903906,-0.309843
-0.279628,-0.265503,0.778146,0.474838,0.805135,-0.355368
0.449804,-0.511586,0.564838,-0.080153,0.481338,0.872863
0.630551,-0.082621,0.338056,-0.067149,0.480187,0.874592
0.068415,0.155033,0.916997,0.947388,-0.310932,-0.076007
-0.301038,0.179843,0.514302,0.052447,0.281597,0.958098
0.569478,-0.226178,0.577209,0.269901,0.550891,-0.789729
0.179303,-0.113518,0.803529,0.966119,-0.146851,-0.212246
0.480135,-0.039087,0.317138,-0.214305,0.815063,0.538280
0.450767,-0.542168,0.570741,-0.172049,0.665589,0.726217
0.390381,-0.272370,0.317369,0.404731,0.356600,-0.842039
0.061688,0.515024,0.554597,0.899537,0.430078,0.076589
-0.886503,0.390963,0.308155,-0.384875,-0.401940,0.830852
0.063472,-0.296399,-0.933962,-0.131438,0.376259,0.917144
-0.644000,0.345562,0.598768,0.294797,0.353452,-0.887787
0.825706,0.014591,0.396625,0.872300,-0.488814,-0.012441
0.546284,0.680734,0.437972,-0.594161,0.784201,0.178888
-0.350032,-0.400954,0.738877,0.741896,0.178383,-0.646351
0.149796,-0.835529,0.663831,0.820279,0.345299,-0.455973
0.441570,0.668562,-0.937915,-0.342895,-0.056967,0.937645
0.326427,-0.344153,0.681925,0.526544,-0.467078,-0.710345
-0.664724,0.250683,0.329432,0.288736,0.093306,-0.952851
-0.122213,-0.042363,0.805351,-0.523321,-0.749935,0.404639
-0.171207,-0.710849,0.743933,0.529768,-0.790779,-0.306617
-0.214438,0.267065,0.760590,-0.474324,-0.841182,0.259672
-0.675839,0.147538,0.456503,0.866906,-0.463812,0.182626
0.484252,-0.235550,0.701405,0.831468,0.073163,-0.550734
0.710011,0.441994,0.509708,0.857467,0.370622,-0.356917
-0.807727,-0.059688,0.508630,0.068354,-0.989234,0.129394
-0.489743,0.561054,0.561142,0.861407,0.264041,0.433889
0.857135,0.789499,-0.932243,-0.255069,0.521119,0.814478
-0.558912,-0.229931,-0.953827,-0.202832,0.175335,0.963388
-0.539558,0.349924,0.598973,0.694266,0.266735,-0.668467
0.468195,-0.396735,0.713725,-0.062636,0.806091,0.588468
0.353185,-0.214321,0.561168,-0.153356,0.453349,0.878041
0.130585,0.105098,0.506731,0.283903,0.917231,0.279440
-0.048512,0.365220,0.552775,0.579450,0.062846,-0.812581
0.874152,0.349305,0.579930,-0.041025,0.709982,0.703024
-0.188500,-0.679953,0.547899,0.928575,-0.369661,0.033164
-0.339188,-0.384725,0.356433,-0.493249,0.581987,0.646527
0.540245,-0.406259,0.327841,0.545348,0.763835,-0.345183
0.260412,0.583369,-0.941867,0.067273,0.022793,0.997474
-0.297331,-0.451661,0.764594,0.962899,0.226118,-0.147295
-0.864955,0.531872,0.576182,0.717687,0.694013,0.057200
-0.098880,-0.179682,0.878627,0.230543,-0.101632,0.967740
0.204968,0.302961,0.704767,-0.430625,0.498081,0.752647
-0.030809,0.695563,-0.348835,-0.360644,0.930276,0.067243
-0.293901,0.089802,0.832737,0.046007,0.081652,0.995598
0.114665,-0.297808,0.323709,0.525773,0.539417,0.657717
-0.119604,0.170948,-0.738800,0.932627,-0.360571,-0.013981
0.151032,-0.222435,-0.151774,-0.413868,0.561236,0.716748
-0.289370,-0.330733,0.638781,0.826555,0.518734,0.218455
0.839704,0.478976,-0.918871,0.241026,-0.211804,-0.947125
-0.075137,0.315599,0.654719,-0.114471,0.810398,0.574589
-0.094629,-0.108994,0.844235,0.879938,0.386288,0.276568
-0.047691,0.375982,-0.952313,-0.254805,0.100545,0.961751
-0.150345,-0.225711,0.586833,-0.295445,-0.574760,0.763127
-0.691897,0.097603,0.708104,0.758756,0.618280,-0.204985
-0.448296,0.350239,0.775348,-0.451376,0.863041,-0.226759
0.289235,0.672153,-0.951543,-0.065529,0.089578,0.993822
0.584849,0.206054,0.557344,0.058645,-0.515977,0.854592
0.472860,0.222283,0.543715,-0.026093,0.183170,0.982735
-0.015715,0.023486,-0.192634,-0.053590,0.904896,0.422245
0.329857,-0.678086,0.391800,-0.347215,0.679438,0.646379
-0.246553,0.196225,-0.285364,0.438935,0.853801,-0.279927
0.315860,0.307323,0.602053,-0.574790,0.742181,0.344650
-0.118645,0.103069,0.292807,-0.183670,-0.891357,-0.414425
0.665820,0.031915,0.589118,-0.590504,-0.061354,0.804699
0.081042,0.144890,0.682592,0.216016,-0.943291,-0.252071
-0.596514,-0.131775,0.358306,0.092747,0.986384,0.135814
0.246687,0.551530,-0.943664,-0.162174,-0.130767,0.978059
0.896521,0.588360,0.550132,0.317254,0.760290,0.566841
-0.147602,-0.019896,0.932551,-0.724995,-0.023609,0.688349
-0.184655,0.011000,0.942560,0.844202,-0.499969,0.193270
-0.783296,0.662638,0.363542,0.220952,-0.963068,-0.153887
-0.573319,0.569950,0.419288,0.092560,-0.449669,0.888386
-0.745695,-0.083869,-0.963426,0.260302,-0.336444,-0.905013
-0.429767,0.173909,0.741829,-0.699313,0.574635,-0.425154
-0.236535,-0.191225,0.549054,0.066859,0.944888,0.320495
-0.228301,-0.106346,0.585525,0.839077,0.266025,-0.474532
0.483842,0.075917,0.545075,0.046566,0.320307,0.946169
0.316543,-0.308885,0.400218,0.292246,0.751748,-0.591157
-0.123172,0.292818,0.899442,0.831435,0.550199,0.077434
-0.101490,0.044553,0.799731,-0.098178,0.872659,0.478360
0.288959,-0.070916,0.560603,-0.428703,-0.018841,0.903249
0.141977,-0.481309,0.720449,0.928650,0.156279,-0.336430
-0.140055,-0.082002,0.920103,-0.584554,-0.765741,0.268211
-0.249573,0.308885,0.774039,0.041753,-0.324069,0.945112
-0.795237,-0.066078,-0.981572,-0.296029,0.242233,0.923953
0.055515,0.116175,0.666423,0.403880,-0.879226,0.252671
-0.587321,0.329171,0.717318,0.027951,-0.913582,0.405692
0.676526,0.303266,-0.938993,-0.203788,0.000255,0.979015
0.169699,-0.551845,0.774219,-0.081343,-0.974231,-0.210375
-0.348248,-0.223530,0.516125,0.951853,-0.301705,-0.054314
0.621765,-0.494890,0.480501,0.957903,-0.272675,0.089830
-0.423590,-0.179996,0.575258,-0.413172,0.910063,0.032785
0.823646,0.463213,-0.913584,0.350217,-0.188320,-0.917542
-0.450629,0.122413,0.711774,0.473933,0.711087,0.519368
-0.111231,0.254274,0.820725,0.723803,0.689565,-0.024703
-0.099567,0.148632,0.888688,0.664839,0.352466,0.658602
0.756123,0.181405,0.502471,0.215565,0.871725,-0.440032
0.177108,-0.269874,0.689214,-0.073931,0.776821,0.625366
-0.119193,-0.807281,-0.924722,-0.171458,-0.167564,0.970837
-0.295685,0.242416,0.469747,0.902726,-0.001857,-0.430211
-0.248199,-0.034097,0.834918,0.083722,-0.995435,0.045820
0.793729,0.375049,0.035560,-0.467601,0.354804,0.809607
0.769161,0.237893,-0.108399,0.402474,-0.901605,0.158503
-0.543813,-0.473823,0.588887,0.988265,-0.090695,-0.122908
-0.323545,-0.104155,0.704870,0.836446,-0.397468,0.377329
-0.083786,-0.096041,0.795445,0.788641,-0.500497,0.357140
-0.854798,0.022077,0.437613,-0.741361,-0.668418,-0.060009
0.644959,0.216825,-0.934142,-0.128471,0.147133,0.980738
0.062237,0.468832,0.761591,-0.216176,-0.697116,0.683591
-0.182461,-0.076697,0.370934,0.869652,-0.370666,-0.326056
-0.569064,0.316847,0.548181,0.180742,0.964738,-0.191346
0.347422,0.455565,-0.525954,0.387529,0.893997,0.224923
0.203871,-0.754546,0.149798,0.357801,-0.916757,0.177583
-0.350170,-0.559797,0.709182,0.432087,0.575546,0.694296
-0.345366,-0.312628,0.542278,-0.584454,0.621055,-0.522210
-0.618611,0.596322,0.424703,-0.015526,-0.583393,0.812042
-0.724146,0.648123,0.336773,-0.059021,-0.956087,0.287079
0.704109,0.297656,-0.933782,-0.410244,-0.078255,0.908612
-0.349894,0.618161,-0.966327,-0.190548,-0.165794,0.967576
-0.507170,0.643752,0.400655,-0.206062,0.975236,-0.080330
-0.752555,-0.104937,0.527546,0.712352,0.193064,0.674745
0.288410,0.569635,-0.947385,-0.052968,0.148404,0.987507
-0.205927,-0.104318,0.705127,-0.560725,-0.649451,-0.513615
-0.590474,0.390811,0.591120,0.080170,0.992077,-0.096725
0.543541,0.197158,-0.932012,-0.112309,0.105435,0.988064
-0.199754,-0.316219,0.777376,0.863970,-0.503279,-0.016318
-0.149248,-0.284075,0.568893,0.732341,0.529621,-0.427993
0.370479,0.430136,-0.942996,-0.358190,0.316392,0.878405
0.175324,-0.142700,0.814796,0.834273,-0.401300,-0.378084
0.075003,-0.094174,0.868104,-0.422695,0.905458,-0.038407
0.336717,0.273465,-0.943843,-0.273258,-0.100865,0.956638
0.337266,0.649533,-0.946821,0.258853,-0.090225,-0.961694
0.224866,-0.319028,0.773577,-0.247549,0.423815,0.871264
0.604747,0.407354,0.635855,0.873795,-0.439199,0.208773
0.777533,0.032382,0.634649,-0.842536,0.426130,0.329464
-0.175873,-0.238664,0.676484,-0.464204,0.723134,0.511461
-0.057982,0.037372,0.941944,-0.583360,-0.600657,0.546720
-0.094629,-0.392059,0.668040,-0.461387,-0.622737,-0.631918
-0.488231,-0.206834,0.683670,-0.467279,-0.115615,-0.876518
0.205378,-0.189825,0.742522,-0.494391,-0.026535,0.868835
-0.507170,0.254588,0.395752,-0.632814,-0.674782,0.379758
0.910933,0.563083,0.564120,0.755357,0.559398,0.341335
0.506621,-0.234455,0.684646,0.757347,0.646445,-0.092382
0.233515,0.549035,0.703844,-0.742151,0.401300,-0.536815
-0.268374,-0.005067,0.811460,-0.434135,0.266830,-0.860423
0.201400,-0.077317,0.806506,0.822747,0.249644,0.510651
0.259315,-0.071545,-0.078268,-0.146741,-0.588772,0.794867
0.094076,-0.583207,0.645249,-0.538441,0.524464,-0.659560
-0.350719,-0.619570,0.486147,0.953496,-0.297244,-0.049916
0.003912,0.694467,-0.263240,0.077906,-0.950571,0.300574
-0.392300,0.450889,0.415412,-0.480170,-0.796066,0.368395
-0.017637,0.245530,0.341367,-0.258334,0.892574,0.369562
0.830096,0.064840,0.464126,0.856916,-0.070160,0.510660
0.271255,-0.249436,0.525724,-0.289803,-0.768666,0.570234
-0.179579,0.303580,0.636728,0.852498,0.477823,-0.211973
0.231731,-0.333077,0.684491,0.892498,0.324765,-0.313009
-0.183286,0.076069,0.023856,0.988783,0.149138,-0.008106
0.397380,0.427326,-0.939686,0.377936,-0.407279,-0.831437
0.138271,-0.138023,0.740776,0.576927,-0.135600,-0.805461
0.089276,-0.296561,0.753070,-0.679200,-0.733873,0.010833
0.426337,0.158928,-0.940584,0.064136,-0.099314,0.992987
-0.565772,0.181872,0.689702,-0.154331,-0.576292,0.802539
-0.438550,0.562302,0.525056,-0.162770,-0.048502,0.985471
0.671860,0.256302,0.561348,-0.752952,0.651923,0.089773
0.502505,-0.105089,-0.920590,-0.143971,0.110613,0.983380
0.495778,0.535929,0.332281,-0.488949,0.824370,-0.285208
-0.864406,0.350705,-0.985191,-0.180081,0.178938,0.967239
-0.483704,-0.001638,-0.968483,-0.196578,0.175748,0.964609
0.540794,-0.022239,-0.600128,0.926959,0.210312,-0.310669
-0.382558,0.479757,0.510555,0.946418,-0.080937,0.312636
-0.544223,0.221663,-0.965223,0.179966,-0.000786,-0.983672
0.338916,0.409688,0.455708,0.775915,-0.619094,-0.121155
-0.548893,0.034563,0.639500,0.920278,0.225222,-0.319943
-0.026830,0.001800,0.666192,0.908711,0.220474,0.354451
-0.513897,-0.505186,-0.035791,0.948050,0.056958,0.312980
-0.358404,-0.118356,-0.323221,-0.307620,-0.900036,0.308716
-0.246005,-0.274865,0.663728,0.115764,-0.875357,0.469413
-0.463529,0.550911,0.460379,0.879584,-0.436176,0.189955
-0.814863,0.353200,0.524209,0.059982,-0.879468,0.472163
-0.035613,-0.369744,0.716830,0.271274,0.517720,0.811404
-0.788377,-0.075136,0.492923,-0.010986,-0.999569,0.027220
0.185757,-0.047202,0.678486,-0.090422,-0.346688,0.933612
0.737322,-0.172500,-0.910889,-0.181256,0.389387,0.903063
-0.267000,0.589607,0.660571,0.810408,0.389277,-0.437838
0.082274,-0.333543,-0.929984,-0.250829,0.448409,0.857913
0.086390,-0.372553,0.497722,0.802890,-0.595738,0.021546
-0.173678,-0.166262,0.882733,0.551270,-0.747783,0.370030
0.815960,0.119451,0.478858,0.087803,-0.979913,0.179057
-0.154052,-0.201996,0.583523,0.075549,-0.629517,0.773305
0.250121,-0.767022,0.631235,0.150169,-0.224299,-0.962881
0.148288,0.190767,0.681951,0.665096,-0.561077,-0.492788
