0.261888,-0.248189,-0.932278,-0.166721,0.009917,0.985954
0.234198,-0.112681,-0.142751,0.160040,-0.496138,0.853367
0.248595,-0.242581,-0.937545,0.135831,-0.004799,-0.990720
-0.008775,-0.210170,-0.595599,-0.226782,0.970076,-0.086734
-0.237928,-0.210221,-0.465284,0.422539,-0.179807,-0.888330
-0.291473,-0.170021,-0.133817,-0.581260,-0.505171,0.637918
-0.038674,-0.217078,-0.569293,-0.471575,0.488336,-0.734265
0.369029,-0.134393,-0.290685,0.084628,0.134799,0.987252
-0.237192,-0.177709,-0.258341,-0.741970,0.653975,0.147642
0.101414,-0.189498,-0.538935,0.274108,0.551875,-0.787591
-0.068257,-0.191318,-0.450725,-0.698809,0.507545,-0.504048
0.250169,-0.233439,-0.924254,0.154701,-0.045147,-0.986929
0.219169,-0.237230,-0.932085,-0.070247,-0.081078,0.994229
0.473489,-0.088737,-0.072547,0.021573,0.590105,0.807038
-0.026115,-0.141766,-0.136436,0.803000,-0.206280,0.559141
-0.274658,-0.165764,-0.152015,0.467234,-0.430031,0.772506
-0.093637,-0.192459,-0.430238,-0.622246,0.642115,-0.447770
-0.080500,-0.191159,-0.437627,-0.622246,0.642115,-0.447770
-0.006569,-0.206845,-0.598081,-0.035587,0.995125,0.091973
0.260785,-0.228661,-0.926708,-0.191831,0.029305,0.980990
0.012874,-0.144727,-0.180831,-0.189194,0.561074,0.805855
0.022436,-0.148414,-0.212982,-0.352707,0.253530,0.900733
-0.286008,-0.164775,-0.139607,0.320869,-0.398527,0.859197
-0.080553,-0.188668,-0.434153,-0.622246,0.642115,-0.447770
0.001208,-0.153870,-0.173551,-0.764329,-0.155296,-0.625847
-0.069570,-0.194279,-0.442425,-0.684902,0.550240,-0.477646
0.328937,-0.121148,-0.115342,0.910242,0.110353,-0.399101
0.453628,-0.114862,-0.294821,0.045777,-0.123713,0.991262
-0.225580,-0.179890,-0.348811,-0.678976,0.728127,0.093933
0.476748,-0.126445,-0.308912,0.038786,-0.104154,0.993805
0.049971,-0.268652,-0.448878,-0.049443,0.026297,0.998431
-0.290264,-0.277015,-0.271687,-0.199812,-0.166120,0.965650
-0.388787,-0.286779,-0.283819,-0.370992,0.245352,0.895638
0.369450,-0.332485,-0.131666,0.659177,0.128439,-0.740938
0.329832,-0.335810,-0.131831,-0.459424,0.058994,0.886256
-0.431665,-0.459269,-0.607070,0.512185,-0.798145,0.317222
0.933689,-0.318204,-0.056141,0.865379,-0.158259,-0.475472
0.468342,-0.363390,-0.103292,-0.663858,-0.121790,0.737875
-0.379329,-0.440052,-0.145756,-0.238899,-0.516123,-0.822523
0.856657,-0.368636,-0.034881,-0.562802,0.392380,-0.727524
0.353844,-0.423637,-0.133376,-0.435135,-0.007879,0.900331
0.883189,-0.394397,-0.030745,-0.578850,0.490642,-0.651309
0.424885,-0.442753,-0.105939,0.546013,-0.086026,-0.833348
0.478746,-0.484979,-0.080516,0.732939,0.101220,-0.672722
0.331669,-0.508298,-0.166327,-0.601921,-0.084782,0.794042
0.643686,-0.568754,-0.013180,0.807309,0.565795,-0.167714
0.641954,-0.577532,-0.085921,-0.053069,0.954420,0.293709
0.471652,-0.594619,-0.108063,0.572672,-0.051136,-0.818188
-0.080973,-0.084739,0.254536,0.926006,-0.348453,0.145232
-0.084442,-0.088426,0.233773,-0.454208,0.890367,-0.030692
-0.352004,-0.088946,0.373242,-0.174035,-0.983590,-0.047574
-0.391730,-0.092218,0.374097,-0.059173,0.943398,0.326343
-0.446745,-0.095125,0.385650,0.052000,0.795783,0.603345
-0.218853,-0.125199,0.079579,-0.748145,0.603813,-0.275115
-0.283275,-0.136209,0.046352,0.289402,0.560153,0.776193
0.010456,-0.085101,0.141124,0.007172,0.947177,0.320632
-0.480848,-0.085361,0.395550,0.197188,-0.135251,0.970991
0.002311,-0.104787,0.026581,-0.506564,-0.502906,-0.700341
-0.440650,-0.109045,0.388711,-0.168836,0.418671,-0.892305
-0.567863,-0.167580,0.042492,0.190365,-0.320940,0.927771
-0.219642,-0.086296,0.372663,-0.070325,-0.299617,0.951464
-0.092639,-0.089412,0.272955,0.958291,-0.285656,-0.008939
-0.075877,-0.092788,0.240060,-0.365938,0.917733,0.154451
-0.103884,-0.096009,0.234104,-0.748712,-0.659474,0.067265
-0.387578,-0.099541,0.382838,-0.037598,0.948020,0.315980
-0.403133,-0.102657,0.369961,-0.204706,0.972413,0.111843
-0.031266,-0.116371,0.045718,-0.782959,0.621371,-0.029549
-0.235878,-0.126236,0.101831,-0.034129,-0.120078,0.992178
-0.087174,-0.088166,0.262312,0.951943,-0.302308,0.049136
-0.097682,-0.091647,0.244830,0.428341,-0.898702,-0.094116
-0.342703,-0.094503,0.369685,-0.117637,-0.961128,-0.249789
-0.415113,-0.097724,0.390421,-0.086464,-0.919890,-0.382525
-0.455363,-0.100891,0.392737,0.034132,-0.493784,0.868914
-0.034049,-0.109254,0.086941,-0.314409,0.150166,-0.937335
-0.579109,-0.162803,0.045056,0.131495,-0.305852,0.942955
-0.090484,-0.086090,0.266669,-0.752914,-0.557598,-0.349577
-0.072093,-0.089622,0.232725,-0.432840,0.852792,0.292223
-0.095370,-0.093048,0.223598,0.032458,0.676084,0.736109
-0.398404,-0.094919,0.384189,-0.106861,-0.938035,-0.329654
-0.407651,-0.098241,0.367534,-0.106505,0.993942,0.027126
-0.052547,-0.111539,0.077180,0.915710,-0.098094,0.389684
-0.020546,-0.115382,0.033585,-0.774897,-0.175397,-0.607265
-0.326941,-0.116628,0.201098,-0.060611,-0.751600,0.656829
-0.287427,-0.127951,0.104230,0.052847,0.000850,0.998602
-0.080606,-0.088062,0.266889,-0.274485,0.952933,0.128754
-0.079030,-0.091647,0.243313,0.427817,-0.890007,-0.157673
-0.111449,-0.095125,0.239150,-0.127067,-0.989807,0.064307
-0.373758,-0.096475,0.374786,-0.034833,0.728852,0.683785
-0.035995,-0.118393,0.050626,-0.897047,0.079505,-0.434724
-0.307236,-0.119278,0.195031,0.204874,-0.793336,0.573275
-0.238978,-0.127846,0.103155,-0.034129,-0.120078,0.992178
-0.101204,-0.104943,0.278746,0.995734,-0.021337,0.089771
-0.351427,-0.113045,0.384878,0.228656,0.451814,0.862311
-0.176711,-0.117512,0.231870,-0.008519,0.590577,0.806936
-0.299932,-0.127640,0.235841,-0.420537,0.571214,0.704885
-0.023488,-0.091023,0.338334,-0.389576,0.739220,-0.549349
-0.075245,-0.106863,0.253075,0.903582,-0.425793,0.047327
-0.400924,-0.118032,0.380825,-0.210632,0.882693,0.420103
-0.218380,-0.139221,0.103320,0.072222,0.170678,0.982677
-0.090694,-0.095023,0.269592,0.887299,-0.451023,-0.096327
-0.081603,-0.098346,0.240390,0.416631,-0.896236,-0.152251
-0.359572,-0.102552,0.385182,0.228656,0.451814,0.862311
-0.400714,-0.105878,0.386919,-0.108926,-0.929990,-0.351075
-0.185749,-0.096114,0.376137,0.152816,-0.040917,0.987407
-0.099679,-0.099851,0.279270,0.967895,-0.235885,-0.086816
-0.404340,-0.112836,0.394226,-0.061747,0.825352,0.561232
-0.233093,-0.132107,0.099460,0.181000,-0.079641,0.980253
-0.092849,-0.095023,0.263360,0.920266,-0.295545,0.256445
-0.366456,-0.104318,0.381873,0.108074,0.599354,0.793155
-0.408492,-0.107593,0.385099,-0.165570,0.889485,0.425915
-0.318743,-0.137769,0.069045,0.705084,0.568472,-0.423907
0.003048,-0.089051,0.333177,-0.250852,0.950787,-0.181870
0.118070,-0.087231,0.323802,0.262161,0.962801,0.065465
-0.093847,-0.111955,0.263249,0.953857,-0.256142,0.156680
-0.292890,-0.118082,0.361027,-0.202408,0.124828,-0.971313
-0.250697,-0.158647,0.741466,-0.184970,-0.284889,-0.940545
0.184752,-0.159893,0.407793,0.950383,0.166555,-0.262739
-0.166780,-0.179214,0.498042,-0.654661,-0.720808,-0.227716
-0.352898,-0.187473,0.562786,0.802072,0.562503,-0.200677
-0.158952,-0.191993,0.379171,-0.680250,-0.379404,-0.627147
-0.241396,-0.203783,0.337699,0.250405,0.840944,-0.479698
-0.151542,-0.205079,0.259444,-0.594730,0.801849,-0.057745
-0.528033,-0.213286,0.465643,0.623060,0.297775,0.723275
-0.188167,-0.084324,0.963327,-0.393702,-0.025792,-0.918876
-0.233199,-0.087751,0.966718,0.244396,0.140126,0.959497
-0.051758,-0.099696,0.722302,0.120426,-0.535741,-0.835751
-0.352477,-0.123069,0.741631,0.023741,0.331609,0.943118
0.147602,-0.122654,0.366955,0.717321,0.657284,-0.231145
-0.478220,-0.335759,0.414410,0.294610,0.788993,0.539162
-0.214230,-0.339602,0.205068,0.968368,-0.249359,-0.009149
-0.129841,-0.345210,0.103734,-0.334180,-0.123412,-0.934394
-0.274711,-0.354977,0.123118,0.420213,0.256265,-0.870488
-0.790238,-0.363336,0.403601,-0.155696,0.179220,-0.971411
-0.833798,-0.366506,0.407710,0.082258,-0.169190,0.982145
0.029898,-0.161142,0.946451,-0.226608,-0.147822,-0.962703
0.528716,-0.181085,0.420256,-0.307129,0.076858,0.948559
-0.225842,-0.205704,0.752606,-0.264647,-0.334609,-0.904433
0.280541,-0.196406,0.469172,-0.437829,-0.078046,-0.895664
-0.288424,-0.209340,0.766090,0.023725,0.209812,0.977454
0.213441,-0.203003,0.461176,-0.190263,-0.967437,-0.166931
-0.350587,-0.215521,0.758066,0.029085,0.178756,0.983463
0.207976,-0.205754,0.441350,0.709504,0.694162,0.121424
0.015028,-0.211676,0.529091,0.476198,-0.394355,0.785951
-0.159476,-0.240816,0.406441,0.719872,0.375882,0.583521
-0.341759,-0.246059,0.491838,0.919931,-0.324643,-0.219849
-0.371605,-0.249334,0.486847,0.875431,-0.404417,-0.264701
-0.395198,-0.254941,0.455882,0.535885,-0.298930,-0.789600
-0.521098,-0.275249,0.373160,-0.176971,0.691301,0.700560
-0.121172,-0.273794,0.101031,0.258252,0.008025,0.966044
-0.580055,-0.281431,0.363867,-0.043285,0.190789,0.980676
-0.148968,-0.276910,0.093697,0.317431,-0.024385,0.947968
-0.366560,-0.293271,0.110269,0.422946,0.316891,-0.848938
-0.077243,-0.236190,0.940357,0.024874,-0.048659,0.998506
0.058326,-0.257642,0.678707,0.344431,-0.397091,0.850697
0.042300,-0.260603,0.665637,-0.331400,-0.466468,0.820111
-0.013347,-0.264185,0.674516,0.260160,0.677899,-0.687583
-0.059535,-0.267562,0.678349,-0.181394,-0.762628,0.620882
0.249015,-0.265850,0.484393,0.233834,0.642599,0.729649
0.196363,-0.269277,0.492141,0.521016,-0.300055,-0.799067
-0.260418,-0.299973,0.553935,-0.318397,-0.069891,0.945378
-0.097788,-0.303869,0.412894,0.972907,-0.209767,0.097211
0.605486,-0.296387,-0.001379,-0.179806,0.640795,0.746359
-0.111398,-0.306829,0.398031,0.382815,0.558185,0.736126
-0.190480,-0.310465,0.422682,0.635032,0.265425,0.725454
-0.388157,-0.318099,0.495616,-0.384082,0.296387,0.874435
-0.431349,-0.324071,0.476452,-0.398571,0.612721,0.682433
-0.459356,-0.327188,0.470441,0.084156,0.299134,0.950493
-0.475224,-0.330199,0.457123,-0.240427,0.450044,0.860032
-0.519469,-0.333265,0.461976,-0.062831,0.316207,0.946607
-0.033419,-0.272082,0.949098,0.043840,-0.010768,0.998981
0.395565,-0.281066,0.593449,0.298461,0.177642,-0.937744
0.290159,-0.290988,0.584928,0.121801,-0.169410,0.977990
0.312542,-0.293429,0.551067,0.846849,-0.422920,-0.322469
0.298039,-0.296596,0.536674,-0.374629,0.759720,0.531488
0.258524,-0.299922,0.536894,-0.491056,0.819080,0.296600
0.265724,-0.302673,0.510092,0.455941,-0.724788,-0.516527
0.173716,-0.312386,0.494375,-0.539665,0.680023,0.496317
0.951659,-0.305530,0.031903,0.638158,0.762143,-0.109051
-0.059692,-0.320851,0.582529,0.456808,0.000570,0.889565
0.050128,-0.333785,0.407544,0.102933,-0.963325,-0.247809
-0.241501,-0.339551,0.555203,-0.304452,0.088313,0.948425
0.694446,-0.329993,0.009541,0.126316,0.507164,0.852543
0.676948,-0.333315,-0.005074,0.266400,0.489819,0.830126
-0.352004,-0.346199,0.575884,0.284353,-0.464999,-0.838403
0.579896,-0.337265,0.028015,0.196190,0.438335,0.877139
-0.115917,-0.346874,0.413969,0.968476,-0.245412,-0.042750
-0.330462,-0.351756,0.517951,0.907722,-0.397707,-0.133679
-0.358362,-0.354872,0.511746,0.059062,0.997644,0.034904
-0.406022,-0.358194,0.518364,-0.331745,0.940365,0.075222
-0.356052,-0.360534,0.466470,0.000821,-0.997487,0.070850
-0.330040,-0.363285,0.427646,-0.180712,-0.848111,0.498048
-0.384531,-0.366506,0.438317,-0.304271,0.238701,-0.922193
-0.472231,-0.370038,0.468538,0.176423,-0.112609,-0.977852
-0.170563,-0.388995,0.119037,-0.191053,-0.380574,-0.904799
-0.751196,-0.403381,0.390614,-0.158382,0.432691,-0.887521
-0.788136,-0.406446,0.390586,0.226101,-0.372220,0.900183
-0.367190,-0.411277,0.073319,-0.312731,0.047570,0.948650
0.356368,-0.332123,0.571941,0.527454,0.080908,-0.845722
0.338343,-0.335290,0.559395,-0.702494,-0.689373,-0.176823
0.247754,-0.347910,0.521315,0.927507,-0.103868,-0.359086
0.236090,-0.350871,0.506094,0.468294,-0.263363,-0.843410
0.204192,-0.354197,0.501351,-0.215720,0.311422,0.925463
0.159949,-0.357573,0.503502,0.033124,0.206592,0.977866
0.129157,-0.360895,0.497932,-0.715845,0.594312,0.366550
0.021333,-0.364845,0.537391,-0.439861,-0.192215,-0.877255
0.952499,-0.355132,0.007611,0.656572,0.737140,-0.159809
-0.135201,-0.372168,0.582695,0.160333,-0.119553,0.979796
-0.165783,-0.378087,0.556499,0.760492,0.268301,-0.591326
-0.161052,-0.380946,0.531186,0.164885,0.859076,-0.484563
-0.263202,-0.384788,0.568108,-0.192550,0.169705,0.966501
0.703326,-0.376479,0.004329,0.350089,0.481237,0.803647
-0.285745,-0.387749,0.559615,-0.278845,0.393462,-0.876033
0.623192,-0.380217,0.027271,-0.024394,0.432424,0.901340
-0.328150,-0.390916,0.562869,0.080929,0.279381,0.956764
-0.147023,-0.392371,0.433354,-0.186460,0.712692,0.676242
-0.395775,-0.397148,0.558678,-0.303429,0.095647,0.948041
-0.425097,-0.400369,0.553577,0.069687,0.431304,0.899511
-0.288634,-0.402395,0.449209,0.459856,0.504506,-0.730758
-0.412117,-0.411848,0.456102,-0.139083,0.193197,0.971252
-0.441649,-0.414964,0.451056,-0.145859,-0.145237,0.978586
-0.506122,-0.418185,0.468207,0.592938,-0.032530,-0.804591
-0.515317,-0.424208,0.427563,-0.190723,-0.297093,0.935607
-0.575534,-0.427429,0.441433,-0.392394,0.459194,-0.796974
-0.209080,-0.425923,0.214802,-0.659030,0.491279,-0.569494
-0.130787,-0.428833,0.142944,0.091407,0.342757,0.934966
-0.115654,-0.431794,0.109938,0.302756,0.356151,0.884022
-0.226998,-0.438337,0.131391,-0.227748,0.007835,-0.973688
-0.774579,-0.451737,0.383362,0.183836,-0.295391,0.937523
-0.873207,-0.457763,0.400430,-0.059460,-0.246379,0.967348
0.231096,-0.377411,0.525506,-0.682758,0.721510,-0.115174
-0.093532,-0.398293,0.575580,-0.257870,0.188540,-0.947605
-0.134622,-0.401409,0.577593,-0.193124,0.236287,0.952298
-0.116284,-0.406966,0.523107,0.768091,-0.524257,0.367684
0.775577,-0.398603,0.006508,0.220110,0.461889,0.859192
0.700488,-0.402344,0.026306,0.552248,0.379510,0.742290
-0.233776,-0.413667,0.547152,-0.754751,-0.246743,0.607840
-0.283485,-0.417041,0.553742,-0.227184,0.057005,0.972182
-0.339973,-0.420471,0.564192,0.178896,-0.192985,0.964755
0.566865,-0.413094,0.030028,0.316959,0.049284,0.947158
-0.363513,-0.423431,0.556389,-0.270335,0.187397,0.944352
-0.238191,-0.425403,0.460293,0.411481,0.674072,0.613442
0.311753,-0.421352,0.133734,-0.191870,-0.057953,0.979708
-0.278913,-0.428729,0.461424,0.395202,0.847606,-0.354090
-0.414324,-0.441298,0.451966,-0.358531,-0.109464,0.927078
-0.448058,-0.444310,0.450339,0.017163,0.072820,0.997197
-0.527193,-0.447635,0.476259,-0.567735,0.359432,0.740598
-0.570805,-0.453658,0.457757,0.307491,-0.090353,-0.947252
-0.599707,-0.456930,0.452573,-0.086245,-0.072336,0.993645
-0.077505,-0.454749,0.129157,-0.281877,-0.278993,0.917992
-0.636278,-0.460046,0.452104,0.182438,-0.016984,0.983071
-0.307815,-0.461866,0.223819,0.535431,-0.787217,0.305947
-0.349484,-0.465032,0.226797,-0.346051,0.693082,-0.632365
-0.213598,-0.467629,0.117962,0.056408,0.048772,0.997216
-0.641796,-0.471785,0.364143,-0.542683,0.260620,-0.798481
-0.707531,-0.474901,0.383114,-0.117299,-0.238372,0.964064
-0.577847,-0.481343,0.446810,-0.083875,-0.148995,0.985274
-0.626977,-0.484614,0.454007,0.186152,-0.024345,0.982219
-0.739899,-0.505806,0.364033,0.025113,-0.258687,0.965635
-0.873523,-0.515205,0.379943,0.053061,-0.053687,0.997147
0.353635,-0.361469,0.568163,0.787668,-0.260319,-0.558402
0.339710,-0.364585,0.554266,0.428038,0.240329,-0.871221
0.258524,-0.368532,0.576518,-0.173027,-0.098954,0.979934
0.338026,-0.388373,0.562180,-0.638857,0.460950,-0.615944
0.274393,-0.392060,0.575608,-0.303338,-0.287904,0.908349
0.268508,-0.395072,0.556417,0.879538,0.277674,-0.386405
0.200095,-0.398708,0.572851,0.039028,0.557486,0.829268
0.170406,-0.402033,0.566922,0.805976,-0.576564,-0.134076
0.233880,-0.404160,0.508962,-0.462434,0.579845,0.670771
-0.006673,-0.418445,0.556141,-0.685423,0.165241,0.709148
-0.028060,-0.421510,0.546793,0.085417,0.093982,0.991903
-0.005360,-0.424157,0.511167,0.973475,-0.126185,-0.190850
-0.157849,-0.428675,0.576297,-0.268591,0.163916,0.949205
-0.040881,-0.430444,0.486103,0.603395,-0.245939,-0.758571
0.813357,-0.421926,-0.008327,-0.540846,-0.246698,-0.804130
0.717829,-0.425923,0.023162,-0.508053,-0.316023,-0.801256
-0.267090,-0.438233,0.574091,0.730932,-0.068602,-0.678993
-0.307132,-0.444310,0.553384,0.032958,0.164579,0.985813
0.602176,-0.436416,0.018337,0.188536,0.284562,0.939936
-0.378173,-0.447841,0.572768,0.212107,0.335618,0.917808
0.543431,-0.440103,0.028153,-0.188863,0.146342,0.971038
-0.404919,-0.462696,0.476783,0.895468,-0.404706,0.185337
-0.442856,-0.468773,0.454558,0.117104,-0.306617,-0.944602
-0.498503,-0.472098,0.465422,0.960621,0.094942,-0.261139
-0.592402,-0.475576,0.500000,0.038901,-0.996748,0.070576
0.376332,-0.399488,0.578697,0.219136,0.236023,-0.946717
0.325521,-0.406082,0.561821,-0.815215,0.444828,-0.370880
0.259104,-0.409927,0.576077,0.177913,0.039956,0.983235
0.252851,-0.412732,0.557713,0.605168,-0.100128,-0.789776
0.180337,-0.416524,0.576490,-0.034224,-0.442360,0.896185
0.163102,-0.419640,0.563586,-0.228549,0.379747,0.896414
0.001104,-0.433040,0.566205,-0.690286,0.251493,0.678422
-0.071358,-0.439377,0.564523,-0.252369,-0.183881,-0.949999
-0.145446,-0.443114,0.584625,-0.526091,0.738859,0.421089
-0.168830,-0.446129,0.576325,-0.069180,0.480759,0.874120
-0.236457,-0.449762,0.592980,-0.147209,0.691988,0.706740
0.680520,-0.442493,0.036563,-0.104389,-0.013741,0.994442
-0.281909,-0.458695,0.552942,-0.130334,0.158429,0.978730
-0.142610,-0.459995,0.449374,-0.303836,0.504792,0.808002
-0.402081,-0.465448,0.579909,0.192007,0.127060,0.973134
0.534181,-0.456255,0.025589,0.373664,-0.321900,-0.869917
-0.434345,-0.468618,0.577538,0.102681,-0.255564,-0.961324
0.322683,-0.464513,0.102961,0.219468,-0.561016,0.798182
-0.509012,-0.489131,0.465615,-0.177932,0.727410,0.662733
-0.050812,-0.491937,0.136409,0.339736,0.035537,0.939849
-0.686040,-0.516401,0.369023,-0.356911,0.312034,-0.880483
-0.743052,-0.519672,0.381514,-0.023915,-0.125906,0.991754
-0.769219,-0.522633,0.375448,0.038937,-0.220999,0.974496
-0.844097,-0.528865,0.377379,0.109756,-0.157606,0.981384
-0.383848,-0.476771,0.576959,0.241355,0.054308,0.968916
-0.525248,-0.500509,0.483511,0.185657,-0.181549,0.965697
0.013768,-0.498429,0.130370,-0.466296,0.032530,-0.884030
-0.045715,-0.502015,0.142365,0.339736,0.035537,0.939849
-0.619516,-0.512764,0.451029,0.054118,-0.048336,0.997364
-0.650360,-0.527204,0.355347,-0.433622,0.307277,-0.847085
-0.750776,-0.533592,0.372774,-0.093950,-0.017226,0.995428
-0.778256,-0.536708,0.366735,-0.103346,-0.208562,0.972534
0.323735,-0.416990,0.571858,-0.635537,0.303134,-0.710072
0.287372,-0.420315,0.570286,0.241946,0.460916,-0.853826
0.236876,-0.423951,0.575663,-0.306512,0.158398,-0.938595
0.203826,-0.427274,0.571638,-0.028588,-0.415782,0.909015
0.175555,-0.430494,0.564992,-0.072934,-0.794091,0.603407
-0.022858,-0.449971,0.544698,0.800843,0.262197,-0.538427
-0.125637,-0.454229,0.581095,-0.419726,0.493972,-0.761460
-0.153014,-0.457244,0.575360,-0.330057,0.007727,-0.943929
-0.187378,-0.460464,0.573568,0.440118,0.488758,0.753268
0.771321,-0.447530,0.018282,-0.087151,0.327593,0.940791
-0.255636,-0.464097,0.590719,-0.554252,-0.117103,0.824070
0.721296,-0.451271,0.022528,-0.477445,-0.342011,-0.809367
-0.257369,-0.469604,0.547648,-0.019966,0.156010,0.987554
-0.142557,-0.471005,0.457343,0.553262,0.729422,0.402299
0.314485,-0.428364,0.571610,0.260942,-0.331907,-0.906503
0.289790,-0.431429,0.563724,0.354259,0.511079,-0.783134
0.168463,-0.441713,0.564578,-0.045918,0.297790,-0.953526
0.115758,-0.445349,0.571610,-0.109314,0.554606,-0.824902
0.010615,-0.455063,0.565682,0.266482,-0.018723,0.963658
-0.012874,-0.458179,0.556554,0.897031,0.002306,-0.441962
-0.019127,-0.460880,0.538576,0.521155,0.484562,-0.702565
0.009879,-0.463162,0.499173,-0.115185,0.872255,0.475293
-0.159529,-0.468618,0.574036,0.932564,-0.061454,0.355735
-0.220693,-0.472254,0.586914,-0.074031,-0.479990,0.874145
-0.240450,-0.475161,0.576821,0.813690,0.372386,-0.446360
0.687509,-0.461136,0.036232,-0.059507,-0.269117,0.961267
-0.182596,-0.476927,0.521342,0.482824,-0.864872,0.137393
-0.151542,-0.479212,0.480340,0.515158,-0.831964,-0.206030
-0.472178,-0.508092,0.469227,0.452555,0.427888,0.782372
-0.572488,-0.514739,0.484338,0.794089,0.127202,-0.594342
-0.774894,-0.544395,0.382838,0.086691,0.258140,-0.962210
-0.832905,-0.550523,0.373739,0.072336,-0.278458,0.957721
0.496190,-0.421092,0.592622,0.247198,-0.375106,-0.893414
0.328728,-0.437611,0.574505,-0.095900,0.144438,0.984856
0.310547,-0.440829,0.562069,-0.348993,-0.521033,0.778928
0.299248,-0.443685,0.545773,-0.294449,-0.512066,0.806900
0.223845,-0.447895,0.565158,0.826513,-0.543211,0.147642
0.191477,-0.451062,0.561518,-0.212901,0.450058,-0.867249
0.138564,-0.454698,0.569487,-0.509067,0.062818,-0.858431
-0.018076,-0.468149,0.569018,-0.539154,0.808766,0.234967
-0.016184,-0.470799,0.545415,0.428134,0.747725,-0.507552
-0.028270,-0.473550,0.530635,-0.740904,0.086638,-0.666000
-0.156062,-0.478432,0.582419,-0.470613,0.143193,-0.870643
-0.167149,-0.481238,0.566674,0.962653,-0.228642,0.144990
-0.158321,-0.483628,0.539955,0.613024,0.761317,0.211183
-0.165361,-0.486434,0.521398,-0.374943,0.917092,-0.135499
-0.171615,-0.489236,0.502316,0.294361,-0.954724,0.043041
0.650097,-0.475421,0.020239,-0.068529,-0.402088,0.913033
-0.415743,-0.501026,0.579937,0.201841,0.102845,0.974004
-0.450686,-0.517545,0.465836,-0.020121,0.181793,0.983131
0.127267,-0.512194,0.090057,0.202522,-0.377056,0.903777
0.066997,-0.515881,0.102520,-0.353359,0.470057,-0.808817
-0.054490,-0.523153,0.129267,-0.541633,-0.207825,-0.814520
-0.600547,-0.533021,0.444411,0.006881,0.024883,0.999667
-0.774841,-0.556756,0.369272,-0.189256,-0.240100,0.952121
0.008144,-0.494692,0.536977,-0.225742,0.403143,0.886857
-0.067469,-0.498743,0.557713,0.342284,-0.427114,0.836908
-0.096422,-0.501910,0.551756,-0.231565,-0.876680,0.421674
-0.136357,-0.505235,0.552253,0.553260,0.296669,0.778390
-0.189586,-0.508713,0.561463,0.989116,0.119603,-0.085698
-0.193579,-0.511363,0.541968,-0.629285,0.530571,0.567886
-0.272031,-0.515310,0.565323,-0.238152,0.395689,0.886969
-0.354527,-0.521907,0.569597,0.264875,0.288161,0.920220
-0.366087,-0.535253,0.464292,-0.047888,0.077407,0.995849
-0.441280,-0.541644,0.464705,0.148836,0.103409,0.983440
0.068573,-0.539824,0.105250,-0.356476,0.350021,0.866262
-0.584521,-0.557016,0.438482,-0.232819,0.164497,0.958507
-0.639220,-0.573846,0.334197,0.093251,-0.148726,0.984472
-0.767958,-0.580598,0.370264,0.059360,-0.318541,0.946049
-0.804792,-0.583714,0.370320,-0.000838,-0.313539,0.949575
0.491934,-0.445869,0.599487,0.076321,-0.258874,-0.962891
0.453262,-0.449245,0.598880,-0.346296,0.271869,0.897868
0.412380,-0.452777,0.598660,0.429261,-0.170839,-0.886876
0.362987,-0.459114,0.580792,-0.147107,-0.064827,0.986994
0.319216,-0.462541,0.583246,0.430581,0.283556,0.856853
0.292994,-0.465762,0.576104,-0.774687,0.582149,0.246906
0.289790,-0.468462,0.555396,0.811355,-0.259848,-0.523623
0.189533,-0.475630,0.567308,0.287977,-0.076843,-0.954549
0.130997,-0.482068,0.555203,-0.196512,-0.116152,0.973597
0.056907,-0.486069,0.575305,-0.197690,-0.932546,0.302120
0.048762,-0.488716,0.558071,0.357352,0.932912,-0.044432
0.072513,-0.490900,0.522032,0.188553,-0.780228,-0.596400
0.435187,-0.483628,0.592207,0.889207,-0.415708,-0.191045
0.367137,-0.490276,0.585370,-0.104677,0.538278,0.836241
0.269874,-0.500350,0.571583,-0.599621,0.627004,0.497314
0.224265,-0.503780,0.575250,-0.216558,0.342321,0.914286
0.252956,-0.505701,0.537721,0.042351,-0.736972,0.674595
0.206610,-0.509337,0.540920,0.543156,-0.314823,0.778375
-0.095633,-0.533227,0.557216,-0.192892,-0.087619,-0.977300
-0.136829,-0.536553,0.559064,0.139899,0.894573,0.424461
-0.227051,-0.540813,0.588816,0.464964,0.552387,0.691865
-0.271295,-0.544189,0.592125,-0.263978,0.264409,0.927579
-0.302244,-0.549902,0.565985,-0.019750,0.403209,0.914895
-0.299301,-0.560341,0.475046,0.404571,-0.285315,-0.868860
-0.425727,-0.570210,0.482932,0.012911,0.233178,0.972348
-0.557355,-0.582570,0.472923,0.484599,0.089074,-0.870189
0.031843,-0.574521,0.109717,-0.535850,0.359507,-0.763950
0.501917,-0.508922,0.602520,-0.001695,0.249759,0.968306
0.417897,-0.515985,0.603292,-0.181273,0.211370,0.960449
0.319479,-0.528345,0.570038,0.747433,0.192137,0.635946
0.319322,-0.531100,0.547593,0.806165,0.540998,0.239621
0.309232,-0.533956,0.530580,0.395323,0.050816,-0.917135
0.272975,-0.537333,0.528126,-0.313531,-0.704756,0.636410
0.222585,-0.540864,0.534495,0.418327,0.101019,0.902661
-0.133415,-0.568339,0.559781,-0.112094,-0.088216,0.989774
-0.178551,-0.571715,0.563420,-0.384353,0.215675,0.897640
-0.221323,-0.580338,0.521177,0.948471,0.007319,0.316780
-0.452577,-0.605061,0.479071,0.033749,0.237749,0.970740
0.052967,-0.603296,0.124331,-0.564600,0.551381,-0.614170
-0.269613,-0.614201,0.580516,0.000334,-0.339516,0.940600
0.465135,-0.547876,0.607980,0.222778,-0.131510,-0.965958
0.397823,-0.554575,0.600646,-0.205669,0.348415,0.914498
0.373285,-0.557745,0.591656,0.409756,-0.539098,-0.735849
0.270820,-0.567664,0.582529,0.493006,0.553974,0.670864
0.330723,-0.569170,0.526802,-0.429431,-0.207968,0.878828
-0.007514,-0.593998,0.561545,0.073671,0.251921,0.964940
-0.186171,-0.607708,0.575167,-0.033286,0.125054,0.991591
0.520676,-0.579973,0.618293,-0.331629,0.041127,0.942513
0.457200,-0.586675,0.607787,-0.215999,0.186702,0.958377
0.430825,-0.589791,0.600590,0.115430,-0.508114,-0.853520
0.372916,-0.593529,0.610627,-0.250615,0.551867,0.795383
0.317481,-0.599866,0.597419,-0.000870,0.863835,0.503774
0.327362,-0.607918,0.524514,0.557024,0.098231,-0.824666
0.119804,-0.622303,0.552639,-0.147988,0.046497,0.987896
0.097525,-0.625369,0.542795,-0.085515,0.089171,0.992339
-0.033419,-0.633003,0.572410,0.597339,0.504752,-0.623227
-0.046713,-0.635859,0.558374,0.699782,0.692898,0.173774
-0.116180,-0.639650,0.576628,-0.060472,-0.377429,0.924062
-0.124114,-0.642456,0.558485,-0.266263,-0.493701,0.827867
0.529451,-0.618512,0.628357,-0.265313,0.086811,0.960246
0.323263,-0.646767,0.542354,-0.729885,-0.184648,0.658159
0.171142,-0.657621,0.560304,0.176996,0.577787,-0.796765
0.169513,-0.660376,0.538631,-0.051103,-0.704634,0.707728
-0.003415,-0.671281,0.570645,-0.447994,-0.890601,-0.078305
-0.081446,-0.680630,0.548613,0.376064,0.505905,-0.776296
-0.123062,-0.684006,0.550047,0.598595,0.650733,-0.467151
0.247806,-0.691694,0.530249,0.092905,-0.324793,0.941211
0.241029,-0.694604,0.511223,0.133878,-0.243389,0.960645
-0.055436,-0.715533,0.546904,-0.448184,-0.587662,0.673635
-0.274184,-0.740465,0.495064,-0.118540,0.373579,0.919993
-0.018759,-0.779470,0.516793,-0.310531,-0.226175,0.923263
-0.144869,-0.811050,0.520350,-0.194867,-0.070587,-0.978286
-0.229520,-0.817698,0.525341,-0.151282,0.011171,0.988428
-0.039041,-0.818735,0.514587,-0.176144,0.099856,0.979287
-0.123904,-0.825487,0.518364,0.141148,0.074789,0.987159
-0.214334,-0.832084,0.527657,0.090756,-0.022461,-0.995620
-0.254637,-0.835409,0.528622,-0.154537,-0.162956,0.974456
-0.266250,-0.838056,0.513456,-0.236888,-0.065549,0.969323
-0.135358,-0.846159,0.523355,-0.105404,0.079871,0.991217
-0.228680,-0.853067,0.532538,-0.158101,-0.021065,0.987198
-0.109296,-0.859974,0.516076,-0.059088,0.203873,0.977213
-0.152646,-0.863350,0.518613,-0.095060,0.119989,0.988214
-0.094373,-0.902149,0.530442,-0.140552,0.235166,0.961739
-0.069150,-0.923392,0.532455,-0.127636,0.229562,0.964889
-0.093584,-0.926302,0.523852,-0.138535,0.248633,0.958640
-0.079134,-0.955229,0.543843,-0.127636,0.229562,0.964889
0.179234,0.561793,-0.132024,0.096519,0.947875,0.303672
0.845778,0.565534,-0.061132,0.871640,-0.434376,0.227072
0.279544,0.503571,-0.166906,0.822959,-0.386203,-0.416636
0.224002,0.427378,-0.626923,-0.464770,-0.013249,0.885332
0.459567,0.486015,-0.014283,0.649099,0.022423,-0.760373
0.202460,0.309007,-0.989660,-0.214216,0.249760,0.944315
0.171719,0.305114,-0.997904,-0.083118,0.285172,0.954865
0.189954,0.439272,-0.169966,0.939092,-0.247841,0.238077
0.466818,0.440984,-0.010175,-0.545302,-0.108978,0.831125
0.212546,0.389045,-0.201208,-0.230701,-0.482052,0.845223
0.386736,0.381203,-0.335218,0.327878,-0.013379,0.944625
0.122275,0.374710,-0.244196,-0.017241,-0.997528,-0.068121
0.241292,0.264030,-0.979650,-0.226777,0.181119,0.956958
0.209763,0.260445,-0.986075,-0.209434,0.231759,0.949961
0.174558,0.256862,-0.989660,-0.224560,0.373904,0.899872
0.132520,0.253486,-0.989522,-0.294759,0.159190,0.942218
0.397246,0.309787,-0.575828,-0.471497,0.091976,0.877058
0.239977,0.287143,-0.635664,0.574936,-0.192022,-0.795347
0.244024,0.231359,-0.977279,-0.364529,0.193164,0.910937
0.204246,0.227881,-0.978850,-0.243836,0.402179,0.882494
0.169880,0.224246,-0.984393,-0.172451,0.218120,0.960564
0.134885,0.220609,-0.988088,0.290294,-0.175765,-0.940657
0.270400,0.205444,-0.960872,0.729874,0.682355,0.040933
0.248964,0.201443,-0.974384,-0.370924,0.322417,0.870898
0.208133,0.198067,-0.975266,0.177873,-0.153125,-0.972067
0.173401,0.194485,-0.978933,-0.225665,0.319921,0.920177
0.138144,0.190849,-0.983704,-0.257405,0.274356,0.926537
0.188272,0.319551,-0.226300,0.867937,0.326377,-0.374385
0.325678,0.350351,-0.293691,0.666708,0.516879,0.536970
0.145867,0.346094,-0.230960,-0.602426,-0.715772,0.353205
0.142977,0.342093,-0.254040,0.778232,0.494540,-0.387022
0.183700,0.162438,-0.963133,-0.387314,0.539142,0.747873
0.158479,0.158593,-0.973915,0.531228,-0.406048,-0.743587
0.128894,0.154802,-0.981470,0.356716,-0.172176,-0.918210
0.152908,0.332485,-0.129515,0.896064,-0.059362,-0.439938
0.458727,0.308852,-0.041719,0.651182,0.313742,-0.691034
0.456992,0.336276,-0.047151,0.916886,0.169158,-0.361532
0.518049,0.297893,-0.308912,0.788175,-0.063273,0.612190
0.268351,0.169241,-0.963437,-0.156257,0.052930,0.986297
0.339392,0.278105,-0.167567,0.971761,-0.048026,0.231026
0.310230,0.144467,-0.956957,-0.472801,0.232506,0.849941
0.271558,0.141040,-0.958501,-0.105246,0.339624,0.934654
0.236982,0.137350,-0.963823,-0.136840,0.031239,0.990100
0.188744,0.134339,-0.958418,-0.165164,0.132578,0.977315
0.159582,0.130443,-0.967435,0.303966,-0.440142,-0.844914
0.122116,0.126705,-0.970579,-0.377110,0.535228,0.755856
0.146183,0.120628,-0.640214,-0.720382,0.577088,0.384733
0.086753,0.113356,-0.654745,-0.831089,0.509341,0.223297
0.437550,0.272599,-0.062069,0.790083,0.069116,-0.609091
0.253534,0.247200,-0.122870,0.763578,0.122220,0.634043
0.448426,0.239151,-0.267882,-0.044717,-0.040634,0.998173
0.293415,0.111746,-0.955027,-0.202206,0.173742,0.963808
0.206084,0.104942,-0.953041,-0.160170,-0.054833,0.985565
0.310913,0.058406,-0.944383,-0.283027,0.396563,0.873289
0.278966,0.054560,-0.951580,-0.499406,0.181306,0.847185
0.250067,0.050563,-0.961286,0.217904,-0.187397,-0.957810
0.161946,0.043966,-0.957315,-0.115444,0.177111,0.977397
0.215122,0.190639,-0.104037,0.424618,-0.408714,0.807869
0.123168,0.188408,-0.071362,-0.572560,0.672917,-0.468356
0.705690,0.271977,-0.011995,0.249140,0.518337,-0.818081
0.498819,0.250836,-0.035598,-0.170099,-0.411198,0.895535
0.411434,0.235930,-0.082171,-0.758340,-0.030091,0.651164
0.391678,0.232088,-0.094276,0.495274,0.162947,-0.853318
0.167621,0.215778,-0.081371,0.892343,-0.448772,-0.048250
0.425886,0.206430,-0.265731,-0.038791,0.354853,0.934117
0.340393,0.160413,-0.115756,-0.701701,0.301779,0.645403
0.222585,0.013476,-0.953593,0.244185,-0.106268,-0.963888
0.180706,0.010204,-0.952490,0.196758,-0.108359,0.974446
0.142084,0.006622,-0.954916,0.156011,0.295372,0.942558
0.097629,0.003401,-0.951883,-0.412266,-0.244677,-0.877593
0.055909,-0.000025,-0.951856,-0.058422,-0.034057,0.997711
0.518101,0.197132,-0.078310,0.117422,-0.059602,-0.991292
0.382692,0.183110,-0.094799,-0.686107,0.074900,0.723634
0.356368,0.179474,-0.102879,0.470903,0.212726,-0.856153
0.153854,0.166696,-0.078365,-0.455537,0.594431,-0.662674
0.069990,0.073831,-0.595213,0.932870,-0.359848,0.016224
0.359520,0.041471,-0.936414,-0.418252,-0.159318,-0.894250
0.308443,0.038409,-0.929245,0.484070,-0.870183,-0.091960
0.282539,0.034408,-0.939530,0.545253,-0.092007,-0.833207
0.229942,0.031187,-0.932333,-0.282214,-0.811807,-0.511200
0.216016,0.027034,-0.951001,-0.233419,0.097127,0.967513
0.180233,0.023344,-0.954971,0.349921,0.391692,0.850960
0.144186,0.019658,-0.959245,-0.300457,0.443767,0.844273
0.087489,0.016751,-0.948519,0.064611,-0.007565,0.997882
0.233303,0.082765,-0.623890,0.376415,0.420467,-0.825542
0.382535,0.207989,-0.082639,0.481251,0.126914,-0.867347
0.369818,0.204039,-0.100149,0.417565,0.261625,-0.870168
0.394148,-0.007767,-0.933684,-0.232715,0.229976,0.944963
0.355842,-0.011244,-0.935477,0.268954,-0.316329,-0.909725
0.315066,-0.014620,-0.935091,-0.276824,0.128621,-0.952274
0.283537,-0.018412,-0.942591,-0.442020,-0.027703,0.896577
0.257264,-0.022412,-0.952490,-0.242970,0.176171,0.953902
0.209500,-0.025735,-0.948574,-0.294120,0.268361,0.917320
0.177290,-0.029631,-0.955826,-0.085635,0.212147,0.973478
0.140034,-0.033267,-0.959135,-0.112255,0.312450,0.943278
0.295098,0.118653,-0.117520,0.021322,-0.703645,0.710232
0.303347,0.114446,-0.146970,-0.700577,0.451158,-0.552854
0.216280,0.134079,-0.214085,-0.360195,-0.628433,-0.689443
0.130734,0.127380,-0.210528,0.914487,-0.404575,0.005748
0.094530,0.054456,-0.637815,0.905901,-0.419656,0.056847
0.362304,0.028436,-0.934015,0.189078,0.349813,0.917541
0.297674,0.025579,-0.918519,-0.734716,0.074490,0.674273
0.285480,0.021163,-0.939640,0.576038,-0.242533,-0.780614
0.239871,0.017632,-0.937159,-0.044180,-0.025517,0.998698
0.041984,-0.012909,-0.096233,-0.109633,0.913631,0.391484
0.398612,0.058352,-0.114928,-0.347679,-0.052721,0.936130
0.202038,0.032852,-0.168588,-0.456947,-0.254437,0.852327
0.044139,0.027656,-0.120306,0.985784,-0.128627,0.108095
0.401136,-0.076117,-0.921331,-0.051558,-0.063125,0.996673
0.334033,-0.083440,-0.931479,-0.082555,0.095068,0.992042
0.037938,-0.014880,-0.371919,0.783759,-0.620614,-0.023665
0.030004,-0.019087,-0.392406,0.778075,-0.618678,-0.108798
0.031317,-0.023554,-0.420145,0.723712,-0.670826,0.161964
0.027114,-0.032487,-0.471626,0.919198,-0.360039,0.159519
0.043403,-0.037318,-0.508851,0.542896,0.785844,-0.296164
0.053911,-0.042045,-0.542436,-0.769834,0.595320,0.230106
0.021176,-0.045681,-0.547924,0.962056,-0.272528,-0.013298
0.347853,0.079750,-0.175977,-0.197949,-0.956247,-0.215424
0.266199,0.076998,-0.150940,0.029488,-0.422114,0.906063
0.228050,0.073622,-0.152650,0.291281,0.278456,-0.915214
0.040250,0.009478,-0.443776,0.750732,-0.642838,0.152184
0.053124,-0.004232,-0.533337,0.716869,-0.685364,0.127967
0.057433,-0.008908,-0.563806,0.839129,-0.523037,0.149311
0.059219,-0.017997,-0.619892,0.905502,0.254960,0.339207
0.060269,-0.022619,-0.647549,0.848904,0.509128,-0.141952
0.047396,-0.031397,-0.694314,0.945551,-0.119838,-0.302608
0.045084,-0.050198,-0.806651,0.665917,0.736261,-0.120312
0.030791,-0.054459,-0.824519,-0.806652,-0.573477,-0.142960
0.049392,-0.064587,-0.895384,0.877035,0.440090,-0.192692
0.042824,-0.069314,-0.920559,0.838904,0.460897,-0.289506
0.028637,-0.073727,-0.940164,0.874887,0.337359,-0.347509
0.545374,-0.081309,-0.065516,0.042644,-0.050377,0.997819
0.664023,-0.031191,-0.057464,-0.543346,0.129494,0.829461
0.594713,-0.018516,-0.081178,-0.241130,0.652315,0.718569
0.000578,-0.057940,-0.014614,-0.784567,-0.541804,-0.301502
0.017918,-0.066873,-0.138725,0.858463,-0.512872,-0.001834
0.029583,-0.046147,-0.021646,0.981039,-0.159747,-0.109741
0.020546,-0.050148,-0.041058,0.990232,0.067702,-0.121888
0.565499,0.002466,-0.086610,0.212124,0.861940,0.460503
0.482527,-0.004752,-0.087051,0.739336,-0.029501,-0.672690
0.011455,-0.033007,-0.019026,0.998041,-0.018002,-0.059915
0.013609,-0.037318,-0.045525,0.992569,-0.067018,-0.101561
0.008303,-0.041319,-0.066343,0.991700,-0.089787,0.092028
0.018969,-0.016646,-0.107015,0.995214,-0.059671,-0.077388
0.035626,-0.021167,-0.142034,0.993122,-0.109929,0.040305
0.021439,-0.025113,-0.158275,0.856671,-0.049461,-0.513487
0.026431,-0.038253,-0.237826,0.975257,-0.220797,-0.011099
0.015658,-0.042305,-0.255970,0.873809,-0.457190,0.165635
0.465715,0.778741,0.091629,0.866619,0.405972,-0.290100
0.376438,0.759058,0.001048,-0.445564,-0.156729,0.881424
0.242761,0.715843,0.521618,-0.029125,-0.329108,0.943843
0.745680,0.584960,0.115425,0.399348,0.435146,-0.806951
0.674533,0.578208,0.108614,0.577551,0.375054,-0.725099
0.664074,0.574676,0.091243,-0.597231,-0.417309,0.684959
0.646525,0.571091,0.077152,-0.507557,-0.410087,0.757769
0.716463,0.644481,0.130287,-0.431518,-0.770200,0.469664
0.667964,0.461707,0.017151,0.949223,-0.270434,-0.160753
0.562241,0.455424,0.030690,0.457686,0.184750,-0.869707
0.637435,0.514581,0.074285,-0.115120,-0.667201,0.735928
0.616679,0.507103,0.038907,0.198003,-0.763075,0.615232
0.408333,0.528035,0.744306,-0.289980,-0.477924,0.829156
0.225317,0.465657,0.455909,0.114119,0.365400,-0.923829
0.743945,0.437088,0.025892,0.175283,-0.886133,-0.429003
0.397772,0.559352,0.746429,0.313960,0.501956,-0.805896
0.261417,0.438854,0.462637,0.267796,0.433679,-0.860353
0.243499,0.435532,0.450946,-0.019588,0.763656,-0.645326
0.200831,0.432206,0.452159,0.213705,-0.304579,0.928204
0.364825,0.491157,0.729250,-0.414965,-0.301530,0.858420
0.348064,0.487886,0.717421,0.371730,0.388280,-0.843241
0.433766,0.531306,0.751641,0.299941,0.485090,-0.821415
0.285429,0.407692,0.469227,0.602898,0.302316,-0.738322
0.276285,0.404056,0.451690,0.534455,0.359280,-0.765033
0.212232,0.397303,0.442232,-0.222227,0.474990,-0.851469
0.433137,0.497909,0.736392,0.023574,-0.307767,0.951170
0.391309,0.494533,0.736723,0.297729,0.249863,-0.921372
0.266776,0.373154,0.440440,-0.200779,-0.435181,0.877671
0.704904,0.337421,0.008024,-0.083432,-0.359240,0.929508
0.407179,0.460201,0.726052,-0.223331,-0.466277,0.855984
0.087646,0.274780,0.124249,-0.781531,-0.226184,0.581420
0.057590,0.271197,0.118293,0.692789,0.263259,0.671370
0.385161,0.429765,0.722275,-0.008663,-0.208302,0.978026
0.344174,0.426598,0.723240,0.248776,-0.058472,0.966794
0.438233,0.382607,0.411708,0.245425,0.289442,-0.925197
0.115758,0.291505,0.397314,0.601655,0.437562,-0.668245
0.781148,0.278990,-0.007224,-0.145697,-0.434875,0.888626
-0.008355,0.277896,0.377875,0.291638,0.227798,-0.929008
0.456414,0.321317,0.406993,-0.301083,-0.207134,0.930830
0.402660,0.314514,0.392572,-0.053841,-0.233165,0.970946
0.427409,0.401200,0.714636,0.046083,-0.074004,0.996193
0.379171,0.397874,0.718331,-0.114109,-0.075909,0.990564
0.408125,0.259459,0.212458,0.502602,-0.371566,-0.780596
0.155799,0.231774,0.172338,0.844818,-0.029648,-0.534231
0.019704,0.222375,0.183726,-0.550671,0.138808,-0.823100
-0.259419,0.207729,0.235593,0.158945,0.970175,-0.183023
0.044401,0.377047,0.944990,-0.197959,-0.633249,0.748203
0.446062,0.372009,0.715850,0.038694,-0.040933,0.998412
0.414167,0.368738,0.711796,-0.033027,-0.038459,0.998714
-0.063475,0.367492,0.941130,-0.093046,-0.128144,0.987381
-0.108297,0.364271,0.944163,-0.440070,-0.182540,-0.879214
0.335136,0.227622,0.196768,0.749904,-0.272180,-0.602961
0.093321,0.199731,0.150885,-0.584824,-0.517777,-0.624411
-0.304240,0.183212,0.251806,-0.668279,0.721081,0.182883
0.399770,0.264965,0.389180,-0.127800,-0.035788,0.991154
0.058273,0.352326,0.944163,0.558601,0.484031,-0.673557
-0.049131,0.342664,0.939365,0.065161,-0.332358,0.940900
-0.108980,0.339497,0.950229,-0.318428,0.087794,-0.943873
0.457832,0.297062,0.412646,-0.298772,-0.194401,0.934314
-0.133939,0.191108,0.313517,-0.664972,-0.023135,0.746509
0.142873,0.183472,0.125297,0.059184,0.084629,0.994653
0.048079,0.180875,0.158082,0.732575,-0.092304,0.674399
0.139667,0.333575,0.932857,-0.244760,-0.711840,0.658314
0.104408,0.330253,0.930431,0.021628,-0.463982,0.885581
0.092113,0.326718,0.916285,-0.033513,0.025723,0.999107
0.404026,0.322566,0.734269,-0.231548,-0.071372,0.970202
-0.008775,0.320435,0.929190,0.358836,-0.108622,0.927059
-0.066997,0.317214,0.939117,-0.416215,0.229251,-0.879891
-0.121539,0.314149,0.948078,-0.063409,0.154567,-0.985945
-0.104093,0.310671,0.918381,0.306128,-0.262453,0.915098
0.010246,0.306725,0.837038,0.160496,-0.292994,0.942547
0.164417,0.248551,0.409144,-0.301296,-0.255254,0.918731
0.109769,0.238111,0.373656,0.541672,0.487146,-0.685040
-0.157586,0.149973,0.301384,-0.253105,-0.025137,0.967112
-0.007304,0.143896,0.188386,0.194406,0.007112,0.980895
-0.047239,0.140571,0.188551,-0.676998,0.120402,-0.726070
0.111765,0.312542,0.929659,0.089267,-0.459826,0.883511
0.105303,0.309216,0.913225,0.183028,-0.412137,0.892549
0.032999,0.305996,0.930183,0.063605,0.378144,-0.923559
-0.016604,0.302673,0.935477,0.280868,-0.013154,0.959656
0.406232,0.301944,0.714746,0.514162,0.125323,-0.848488
-0.046766,0.299399,0.930734,0.207283,0.030848,0.977795
-0.123431,0.296336,0.951304,0.237346,0.006066,0.971406
-0.012558,0.292805,0.873049,0.278179,-0.728054,-0.626541
0.020387,0.289324,0.834694,0.278581,-0.382092,0.881135
-0.019600,0.286154,0.835769,0.105576,-0.717039,0.688991
0.502075,0.258993,0.403271,-0.128296,-0.130386,0.983127
0.154223,0.232243,0.417885,0.014680,-0.186219,0.982399
0.020703,0.229803,0.471157,-0.488075,-0.470113,-0.735375
0.105933,0.221649,0.377792,-0.631120,-0.420546,0.651789
0.087804,0.218273,0.366211,-0.602879,-0.459980,0.651886
-0.005517,0.136989,0.347212,-0.564930,-0.577253,0.589603
-0.229416,0.128832,0.411901,0.055333,-0.195684,0.979105
-0.120278,0.119639,0.301219,0.088736,-0.277076,0.956742
0.037728,0.113356,0.183119,0.645530,-0.428437,0.632244
0.040881,0.109304,0.157227,0.456949,-0.228421,0.859663
-0.224318,0.105928,0.270887,-0.381345,0.505994,0.773658
0.151227,0.272497,0.886037,-0.180553,-0.243327,0.952991
0.063632,0.269277,0.911763,-0.395716,0.495758,-0.773067
-0.019284,0.266106,0.934374,0.392150,0.011265,0.919832
-0.106037,0.263095,0.960376,0.267967,0.106805,0.957490
-0.148075,0.256498,0.941598,-0.010319,0.052423,0.998572
-0.049025,0.252760,0.868499,0.035024,0.929656,0.366759
0.149282,0.191108,0.394943,0.555952,0.473602,-0.683095
0.385950,0.181085,0.213837,-0.653607,0.327406,0.682351
0.376229,0.177293,0.195666,-0.694346,0.363463,0.621111
0.210394,0.152154,0.128385,-0.620022,0.767145,-0.164502
-0.119332,0.153090,0.300943,0.041335,-0.169940,0.984587
0.251170,0.262990,0.975845,-0.700799,0.415727,0.579699
-0.000788,0.232919,0.923151,0.197058,-0.126921,0.972142
-0.094373,0.229907,0.952490,0.285094,0.000293,0.958500
-0.113078,0.226791,0.942922,0.309057,0.210144,0.927536
0.243707,0.214998,0.691447,-0.252677,0.057000,0.965870
0.130893,0.157712,0.403381,0.634024,-0.323506,0.702394
0.151332,0.153866,0.369740,-0.546482,-0.405066,0.732993
-0.285167,0.103177,0.285198,0.435557,0.032836,-0.899562
0.235407,0.223881,0.957922,-0.742695,0.615742,0.263185
0.205350,0.220660,0.953566,-0.615266,0.284792,0.735080
0.209657,0.217182,0.930789,-0.578735,0.096307,0.809809
0.068363,0.207314,0.942563,-0.292322,0.229173,-0.928454
0.129473,0.203833,0.891083,0.556983,0.365202,0.745920
0.022436,0.197236,0.906386,0.018914,-0.020853,0.999604
-0.149651,0.191004,0.955689,-0.313168,-0.216741,-0.924635
-0.234249,0.187992,0.980064,0.375418,-0.069359,0.924257
0.249121,0.182381,0.703000,0.325418,0.075587,-0.942544
0.169566,0.179370,0.724866,-0.471666,0.530347,-0.704459
0.161052,0.175784,0.707909,0.656451,-0.651224,0.380761
-0.190951,0.051964,0.400844,-0.263418,0.295557,-0.918290
-0.115548,0.039084,0.288369,0.727073,0.421818,-0.541696
0.042930,0.028280,0.145591,0.354672,0.694370,0.626145
-0.236508,0.092269,0.408261,-0.052092,0.127890,-0.990419
-0.278126,0.089048,0.410081,-0.008073,-0.138285,0.990360
-0.095370,0.082451,0.278608,0.428028,0.343875,-0.835788
0.070779,0.076012,0.156179,-0.317136,0.545882,-0.775524
0.023803,0.072792,0.160426,0.883061,-0.288345,0.370218
-0.061636,0.070401,0.189020,0.161919,0.213684,0.963391
-0.240030,0.069520,0.273507,0.220153,0.974675,-0.039265
-0.241343,0.065573,0.250621,0.432000,0.891240,-0.138081
-0.383901,0.048848,0.222412,-0.209304,0.317388,0.924909
0.394776,0.141402,0.383803,-0.175205,-0.176721,0.968542
0.091640,0.129301,0.464898,0.975931,0.218056,0.003269
-0.199937,0.019138,0.392461,-0.466831,0.307180,-0.829283
-0.106353,0.013685,0.313600,-0.154224,-0.568254,0.808271
-0.096526,0.009428,0.284316,0.743322,0.549309,-0.381747
0.004047,-0.000235,0.177356,0.849775,-0.152602,0.504574
-0.014345,-0.003817,0.165417,0.864426,-0.489621,0.114189
-0.435658,-0.003766,0.375310,-0.260279,0.110556,-0.959183
0.038095,-0.012909,0.085948,-0.244490,0.965756,0.086833
0.016131,-0.016595,0.074946,-0.585030,0.800388,0.130842
0.019600,-0.020802,0.048255,0.782312,-0.619530,0.064579
0.020177,-0.025009,0.023300,-0.731626,0.404585,0.548666
0.020913,-0.029060,-0.001075,0.979721,0.176197,-0.095396
0.044716,0.155115,0.890642,0.151105,-0.199382,0.968201
-0.110609,0.152361,0.952573,-0.428543,0.063316,-0.901300
-0.177815,0.149400,0.968400,0.066395,-0.106887,0.992052
-0.214387,0.146128,0.967132,0.116967,-0.403135,0.907635
0.197939,0.122185,0.621105,0.845407,0.435467,-0.309282
0.101938,0.061262,0.581730,-0.643207,0.737538,-0.205726
-0.121172,0.123275,0.965864,-0.563143,0.429744,-0.705826
-0.138458,0.120054,0.955330,-0.458459,-0.287761,0.840838
0.192213,0.085621,0.588513,0.872117,-0.461601,0.162287
0.143556,0.041005,0.350301,-0.146588,0.102194,0.983905
0.076244,0.034047,0.343104,0.257647,0.369867,-0.892645
-0.089118,-0.008024,0.265483,-0.782754,-0.549444,0.292246
0.031737,-0.017946,0.145977,-0.021663,-0.999050,0.037810
0.042194,-0.022203,0.115342,-0.201746,0.978248,0.048258
-0.441386,-0.017791,0.386119,0.259780,0.092188,0.961257
0.026062,-0.025944,0.100866,-0.393546,0.917458,0.058240
0.017918,-0.029891,0.081426,0.862895,-0.459899,0.209537
0.011245,-0.033682,0.062042,0.769183,-0.636711,-0.054376
0.020650,-0.037838,0.032538,0.977786,-0.166901,-0.126801
0.030057,-0.042200,0.001903,0.895691,-0.227984,0.381785
0.346384,0.090867,0.362378,-0.433876,-0.046403,0.899777
0.068887,0.090192,0.496774,0.969951,0.209229,0.124173
0.022069,0.030461,0.652981,-0.380043,-0.635165,-0.672408
0.178288,0.025995,0.544587,-0.587318,0.803942,-0.093457
0.116600,0.038875,0.440826,0.998529,0.053494,0.008883
0.145709,0.027240,0.356284,-0.010781,0.288724,0.957352
-0.194893,0.001167,0.373876,0.452556,-0.317771,0.833195
-0.211392,-0.008337,0.397535,0.439269,-0.312164,0.842375
-0.240083,-0.011558,0.392489,0.323665,-0.370137,0.870769
-0.093953,-0.017321,0.281862,0.940164,0.097527,-0.326466
0.032579,-0.022932,0.182154,-0.180455,0.781315,0.597480
0.029636,-0.026825,0.159847,0.084484,-0.571779,0.816046
-0.385897,-0.024489,0.388656,0.204062,0.111053,0.972639
0.040408,-0.030826,0.130122,-0.364904,0.931016,-0.007423
0.031003,-0.034617,0.112613,0.315512,-0.947198,-0.057164
-0.460512,-0.030931,0.388711,-0.278436,-0.071363,-0.957800
0.017654,-0.038409,0.096344,0.843413,-0.529481,0.091123
-0.508908,-0.033838,0.396101,-0.406341,0.162527,-0.899151
-0.565866,-0.036694,0.408013,0.362872,-0.221161,0.905214
0.018917,-0.046302,0.047427,0.888586,-0.419706,0.185099
-0.361884,-0.075286,0.067419,0.296907,0.885993,-0.356177
-0.366246,-0.066559,0.057382,0.251785,0.643781,-0.722600
-0.094846,-0.079699,0.228754,-0.080124,0.552283,0.829798
0.229098,0.115692,0.925523,-0.620769,-0.597546,-0.507528
0.074668,0.102292,0.923372,-0.123122,0.085309,0.988718
0.072933,0.057781,0.653560,0.589900,0.776934,-0.219980
0.173769,0.053625,0.576187,0.887173,-0.447758,0.111519
0.149178,0.050148,0.567584,-0.695885,0.649760,-0.305870
-0.037781,0.068220,0.914410,0.759595,0.465622,0.454105
-0.374178,0.042251,0.932058,0.376497,-0.196704,0.905294
0.175975,0.065415,0.966636,0.440487,0.279946,0.852996
0.119279,0.062092,0.975983,0.167952,-0.383461,0.908157
0.108612,0.048797,0.900789,-0.636382,-0.633235,0.440491
-0.003415,0.041991,0.917967,-0.634827,-0.607931,-0.476880
-0.320162,0.015866,0.925026,0.888395,-0.274905,-0.367671
0.099785,0.000181,0.611454,0.990434,-0.079791,-0.112578
0.109979,-0.003506,0.583660,-0.694984,0.713381,-0.089908
0.102411,-0.007142,0.565764,0.767598,-0.636966,0.071195
0.105984,-0.014154,0.521177,0.971979,-0.175161,0.156769
0.126635,-0.017997,0.487068,0.475151,-0.858048,0.194900
0.100835,-0.028851,0.434787,0.885635,-0.461828,0.048635
0.158320,-0.033112,0.378757,0.248697,0.802958,0.541671
0.102990,-0.036278,0.388408,0.966844,-0.253146,0.033610
0.105144,-0.040019,0.364943,0.933675,-0.291610,0.207881
0.101204,-0.043706,0.344124,0.956151,-0.213878,-0.200076
0.091797,-0.047291,0.327249,-0.801950,-0.392508,0.450348
0.101571,-0.051289,0.298103,0.927906,0.329566,0.174289
0.110556,-0.055239,0.269398,0.987215,-0.154833,-0.037864
0.100521,-0.059132,0.251723,0.968562,-0.101903,-0.226943
0.104671,-0.062923,0.226438,0.967429,-0.248595,-0.047764
0.115285,-0.010154,0.356560,0.992287,0.008082,0.123696
0.037465,-0.020438,0.334032,-0.127694,0.099743,0.986786
-0.057643,-0.023398,0.366597,-0.098940,0.995091,0.002118
0.092166,-0.036437,0.208763,0.947345,-0.313754,-0.063992
