-0.344905,-0.496840,0.594750,0.016889,-0.891851,0.452014
0.248084,-0.469559,0.645390,0.427771,-0.903685,0.019110
-0.214382,-0.483452,0.545781,-0.391311,-0.454464,-0.800211
-0.112638,-0.474523,0.525929,0.761505,-0.032761,0.647330
0.566679,-0.444105,0.589902,-0.502000,-0.659535,-0.559473
0.620843,-0.437992,0.563235,0.973969,-0.078848,-0.212527
-0.137462,-0.462951,0.418805,-0.501925,0.857720,0.111302
-0.248240,-0.462951,0.368678,0.752916,0.534120,-0.384492
0.034999,-0.447747,0.375169,0.527718,-0.817663,0.230091
0.124525,0.002850,0.197393,0.971053,0.079858,0.225119
0.068662,-0.369226,0.772608,0.002533,-0.760373,0.649481
-0.005998,-0.398484,0.729025,0.794883,-0.170466,-0.582325
-0.797597,-0.529073,0.585404,0.819901,0.532493,0.210270
-0.550471,-0.513204,0.585835,0.055085,0.992757,-0.106768
0.043276,-0.447414,0.636528,0.599190,0.714029,0.362124
0.107030,-0.456504,0.613013,-0.076586,0.881249,0.466407
0.374096,-0.455516,0.584838,-0.383947,0.911714,0.146159
0.584167,-0.444600,0.580932,0.243893,0.930539,0.273155
-0.244475,-0.582625,0.428233,-0.698343,-0.281787,0.657961
-0.289426,-0.608745,0.386671,-0.607703,-0.081574,-0.789964
0.034810,-0.580809,0.399977,-0.390633,-0.202063,0.898096
-0.050198,-0.611882,0.354294,0.887697,-0.381097,0.258378
-0.419197,0.260055,0.793617,0.561545,0.773417,0.294097
-0.191814,0.273442,0.791597,-0.545999,-0.824477,0.148740
0.028043,0.286497,0.789927,-0.913143,0.265906,0.308973
-0.300331,0.227982,0.712864,-0.559841,0.768123,-0.310748
-0.501949,0.185336,0.651531,0.487633,-0.688893,0.536321
-0.410169,0.181533,0.631841,0.598735,0.400049,0.693886
-0.263845,0.184348,0.618589,0.259554,0.943167,-0.207526
-0.206485,0.175086,0.592730,-0.400088,-0.891492,0.212534
-0.257641,0.151781,0.551518,0.739837,0.541108,-0.399804
0.308079,0.210791,0.598925,0.297037,-0.905338,0.303533
0.293410,0.192772,0.564259,0.556155,-0.640846,-0.529158
0.375973,0.186991,0.541983,0.970113,0.037572,0.239728
0.006411,0.121696,0.456165,0.084812,0.926602,0.366356
0.328955,0.147816,0.468071,0.076926,-0.773913,0.628602
0.570817,0.163353,0.468556,0.207498,0.052394,-0.976831
-0.525268,-0.397990,0.787988,0.092165,0.383439,0.918956
-0.305411,-0.385257,0.786129,0.759874,0.485504,-0.432294
-0.344152,-0.322454,0.775059,-0.454867,-0.020803,0.890316
-0.006377,-0.545266,0.706992,0.184952,0.191097,0.963989
-0.251247,-0.290382,0.830627,0.636148,0.646474,0.421172
-0.182603,-0.335015,0.765631,-0.231439,0.318441,0.919256
-0.186741,-0.331544,0.725955,-0.645845,-0.574078,-0.503308
-0.028192,-0.436670,0.710924,0.461601,0.884814,0.063467
-0.244290,-0.215008,0.851368,0.425302,-0.101924,0.899294
-0.131446,-0.289555,0.829927,0.580707,-0.666405,-0.467636
-0.244853,-0.213848,0.775382,-0.419476,0.058904,-0.905853
0.117752,-0.454355,0.787126,0.217466,0.949999,-0.224075
-0.097405,-0.310882,0.718009,0.870449,0.089080,0.484132
-0.105492,-0.197151,0.944809,0.600289,-0.211624,-0.771277
-0.144234,-0.170042,0.901038,0.188008,0.616693,0.764423
-0.176582,-0.147897,0.858021,-0.005211,0.959383,0.282059
-0.141789,-0.170546,0.825698,0.885248,0.233021,-0.402538
-0.201405,-0.130373,0.780123,0.538123,-0.571982,0.619080
0.003404,-0.266088,0.769806,0.357426,-0.413085,0.837620
0.005286,-0.266915,0.732554,0.489460,0.813680,-0.313615
-0.081794,-0.208561,0.681349,-0.735899,-0.211769,0.643122
0.200315,-0.395185,0.642777,0.874214,0.448832,0.185199
0.052488,-0.295668,0.428260,0.205447,-0.855695,0.474950
-0.068627,-0.094013,0.948633,0.917837,0.250967,0.307556
-0.104924,-0.068226,0.905078,-0.716807,0.640512,-0.275558
-0.207426,0.001034,0.815516,0.760388,0.578259,0.295680
-0.068254,-0.091037,0.796015,0.987428,-0.070529,-0.141460
-0.000356,-0.135498,0.766709,0.509598,-0.030835,-0.859860
0.132043,-0.222938,0.747746,0.267127,0.872389,0.409365
-0.016157,-0.123927,0.689403,0.797581,-0.048434,-0.601264
-0.087998,-0.075661,0.640110,-0.071638,-0.860001,0.505239
0.071858,-0.181291,0.624945,0.287006,0.743363,-0.604185
0.251092,-0.300138,0.611100,0.805359,0.411053,-0.427120
0.210094,-0.272202,0.488058,-0.643670,0.439682,0.626394
-0.080663,0.062859,0.798062,0.934978,0.224342,0.274749
0.061327,-0.031039,0.780473,0.745443,-0.441828,0.499102
0.103644,-0.058642,0.747476,0.917805,0.388759,-0.080633
0.042897,-0.017640,0.699908,0.771497,0.612880,-0.170793
-0.025185,0.028304,0.651531,0.393321,0.904047,-0.167322
0.139757,-0.080292,0.599626,0.816707,-0.388288,0.426875
0.037255,0.066985,0.824486,0.867546,-0.490552,-0.081995
0.117562,0.014755,0.761133,0.176216,0.731752,0.658397
0.138253,0.001367,0.725039,-0.057861,-0.996060,0.067202
0.116248,0.016733,0.684366,0.782011,0.569062,0.254219
-0.026878,0.112273,0.624891,-0.722531,-0.451048,-0.523932
0.126028,0.011112,0.607060,0.221513,-0.916866,0.332097
0.220626,0.081200,0.772284,-0.419656,0.717071,0.556506
0.040263,0.202367,0.670656,0.946793,0.305883,0.100091
0.178120,0.111779,0.613121,0.968849,0.042632,-0.243956
0.292657,0.138393,0.778964,0.850225,-0.479147,-0.218028
0.006222,0.329809,0.662117,0.998849,-0.001908,0.047936
-0.128812,-0.304758,-0.457202,0.771326,-0.527766,0.355694
-0.113579,-0.333854,-0.737335,0.996490,-0.040544,0.073233
-0.109814,-0.342289,-0.460084,0.907642,-0.352621,0.227693
-0.099099,-0.281292,-0.538468,-0.547334,0.836776,0.015242
-0.016157,-0.374684,-0.429620,-0.550452,0.234089,0.801377
0.080514,-0.187738,-0.938088,0.135054,0.199999,0.970444
0.060575,-0.403276,-0.945441,0.181411,0.285860,-0.940943
0.092739,-0.179970,-0.941428,-0.130638,-0.731503,-0.669206
0.067537,-0.449069,-0.939973,-0.200298,-0.118488,0.972544
0.232662,0.772961,-0.970168,-0.454591,0.206521,0.866427
0.174171,0.154596,-0.958667,-0.481859,0.064237,0.873891
0.136371,-0.243277,-0.940943,-0.205108,0.374248,0.904361
0.098754,-0.902966,-0.942209,-0.174106,0.199381,0.964331
0.527937,0.427993,-0.950370,-0.280185,0.203058,0.938224
-0.570972,0.074420,0.730130,0.318243,0.947089,-0.041756
-0.555734,0.122030,0.629551,-0.694672,-0.700796,-0.162223
-0.471105,0.090784,0.646036,0.787762,-0.394880,0.472759
-0.482578,-0.289393,0.434132,0.483051,0.188991,-0.854953
-0.515867,-0.234177,0.775274,-0.284494,-0.923923,-0.255793
-0.472798,0.100540,0.675773,-0.337495,0.730621,0.593540
-0.472798,-0.344932,0.798008,0.073051,0.104267,0.991863
-0.447785,-0.139796,0.743705,0.379806,0.717280,0.584172
-0.431043,-0.014008,0.697780,0.218329,0.927504,-0.303427
-0.417877,0.078062,0.655491,0.395514,0.915673,0.071499
-0.419570,0.029303,0.630171,0.205246,-0.688729,0.695360
-0.432547,-0.115835,0.615599,-0.143405,-0.442648,0.885154
-0.444020,-0.247242,0.598306,0.701926,0.119419,0.702167
-0.444582,-0.421960,0.458913,0.885707,0.418826,-0.200269
-0.380638,0.090290,0.854142,0.374358,0.789267,-0.486737
-0.366347,0.196415,0.811018,0.661334,-0.403895,0.632065
-0.409606,-0.298483,0.771800,0.751090,0.645786,0.137201
-0.373493,0.015582,0.706319,0.863607,0.160829,0.477825
-0.380638,-0.082935,0.685416,0.683728,0.642523,-0.345949
-0.364281,0.043841,0.640353,0.914425,0.303986,-0.267244
-0.368230,-0.025913,0.616030,-0.299574,0.669611,-0.679615
-0.397380,-0.325754,0.617834,-0.705965,0.708077,-0.015502
-0.326853,0.025661,0.857617,0.510268,-0.043661,-0.858907
-0.330802,-0.040623,0.834560,0.986763,-0.159451,0.029552
-0.315943,0.072271,0.790520,0.525423,0.024992,0.850474
-0.321396,0.000045,0.768055,0.869704,-0.409884,-0.274974
-0.345846,-0.256332,0.764742,-0.487119,-0.579918,-0.653001
-0.323840,-0.083107,0.713591,0.870364,0.077168,0.486325
-0.317825,-0.055827,0.678655,-0.702955,0.273018,-0.656746
-0.309360,-0.030705,0.614063,0.817454,-0.095494,-0.568022
-0.334940,-0.305919,0.613040,0.485495,0.589654,0.645447
-0.343590,-0.526097,0.479115,-0.573020,-0.726065,-0.380102
-0.328357,-0.410217,0.434428,-0.527959,-0.841622,0.113719
-0.296951,-0.040290,0.833402,0.941740,-0.057558,-0.331381
-0.285477,0.045163,0.792810,0.672764,0.688004,0.272102
-0.291871,-0.034337,0.771126,0.780854,0.377440,-0.497801
-0.320643,-0.340302,0.774466,0.070057,-0.312278,-0.947404
-0.292997,-0.092197,0.715127,0.921027,0.299216,-0.249355
-0.290178,-0.099793,0.685282,0.242975,0.959123,0.145073
-0.282653,-0.080958,0.618993,-0.174545,0.370235,0.912392
-0.299207,-0.267410,0.607976,-0.103166,0.771576,0.627716
-0.319139,-0.584935,0.486576,0.667461,0.407181,0.623458
-0.240336,-0.144760,0.726951,-0.225042,-0.948701,0.222086
-0.235447,-0.113686,0.692878,0.562558,0.011026,0.826684
-0.232628,-0.118972,0.662763,0.753284,0.635868,-0.168034
-0.233190,-0.149057,0.633753,0.875321,0.439786,0.200999
-0.239022,-0.229223,0.611989,0.499312,-0.031616,-0.865845
-0.267799,-0.625432,0.498185,0.427228,0.138667,0.893447
-0.248991,-0.467249,0.447330,0.574644,0.804222,-0.151696
-0.164546,-0.446748,-0.129393,-0.269781,0.908057,-0.320393
-0.246736,-0.119961,0.849267,-0.236045,0.848001,0.474528
-0.243722,-0.112526,0.818049,0.336883,-0.052382,0.940088
-0.233380,-0.036325,0.778426,0.943084,0.328679,-0.050614
-0.257830,-0.293358,0.775193,0.142296,0.975048,0.170390
-0.207426,-0.143105,0.901119,-0.160083,-0.955867,0.246358
-0.210250,-0.194679,0.875368,0.240800,-0.651011,-0.719861
-0.205359,-0.170042,0.841321,0.972439,-0.226186,0.056583
-0.196142,-0.098644,0.803126,-0.633148,-0.212606,0.744259
-0.188244,-0.043760,0.766305,-0.418235,0.767787,-0.485369
-0.214571,-0.318812,0.765093,-0.108194,-0.527733,-0.842492
-0.198776,-0.183108,0.719409,0.041213,0.974269,0.221587
-0.190311,-0.116330,0.680083,-0.468769,-0.675440,-0.569242
-0.194449,-0.187899,0.655975,0.789375,0.522360,0.322531
-0.188617,-0.153517,0.620043,0.530051,-0.023021,-0.847653
-0.211937,-0.477994,0.499263,-0.582246,0.591788,-0.557474
-0.233759,-0.723626,0.495249,-0.404267,0.859317,0.313278
-0.174699,-0.132693,0.953374,0.490506,0.834987,-0.249401
-0.174326,-0.150540,0.924849,-0.081583,-0.996384,0.023738
-0.170940,-0.127235,0.892257,0.451707,-0.293047,0.842665
-0.170561,-0.152528,0.863462,0.083627,0.948045,0.306948
-0.170188,-0.168721,0.835018,-0.445193,0.504548,-0.739753
-0.166991,-0.155505,0.801941,-0.321595,0.545528,0.773935
-0.165108,-0.157159,0.770480,-0.616956,-0.503882,0.604540
-0.174889,-0.265089,0.750628,0.790372,0.556592,-0.255964
-0.160971,-0.146909,0.706884,0.929002,-0.337964,-0.150784
-0.166050,-0.209883,0.683288,-0.503565,-0.776790,-0.378179
-0.163042,-0.207401,0.650938,-0.120860,-0.970108,0.210436
-0.160971,-0.206412,0.619962,0.664660,0.321262,-0.674550
-0.183538,-0.512043,0.495869,0.584119,0.401431,0.705449
-0.127681,-0.264262,-0.025717,0.820929,-0.531885,0.207782
-0.072014,-0.149885,0.979664,-0.541646,0.227422,-0.809258
-0.068254,-0.122282,0.946694,0.962567,0.251218,0.101760
-0.071824,-0.175339,0.921078,-0.226687,-0.970668,0.080102
-0.070699,-0.174673,0.889671,-0.289119,0.683989,-0.669753
-0.062233,-0.117479,0.851853,0.438798,0.673553,0.594796
-0.061292,-0.125420,0.822547,0.838668,-0.067625,0.540428
-0.057154,-0.102609,0.789604,-0.631874,-0.530701,-0.564881
-0.060730,-0.158642,0.764258,0.836516,-0.469895,-0.281849
-0.065058,-0.218318,0.740473,-0.102138,0.981680,-0.160849
-0.066182,-0.241451,0.711328,0.664022,-0.692763,-0.281344
-0.070699,-0.295013,0.685443,0.976777,-0.082633,-0.197684
-0.064678,-0.262779,0.649834,0.270221,-0.961938,0.040687
-0.059978,-0.253023,0.586562,0.909707,-0.323832,-0.259935
-0.058847,-0.262617,0.555316,0.798317,-0.146850,0.584059
-0.070510,-0.406424,0.508340,-0.652365,0.756737,-0.042055
-0.101727,-0.726098,0.512892,0.815126,-0.577851,0.040718
-0.112259,-0.954872,0.347291,0.455903,0.842835,-0.285975
-0.003559,-0.044921,0.952808,-0.044621,0.985690,-0.162556
-0.008443,-0.103103,0.928970,-0.085315,-0.335728,0.938088
-0.011646,-0.145910,0.902331,-0.654214,-0.744191,0.134850
0.002841,-0.041783,0.829065,0.941654,-0.316721,-0.113912
-0.005063,-0.140795,0.808378,-0.268799,0.422877,-0.865403
0.001710,-0.089382,0.770884,0.491793,0.862826,-0.116926
-0.013150,-0.255343,0.758843,0.871147,0.486427,-0.067024
-0.007128,-0.202780,0.722453,0.982643,-0.184203,0.021941
-0.031016,-0.462457,0.719571,-0.193422,-0.947014,-0.256422
-0.013522,-0.294014,0.670009,-0.587100,-0.802618,-0.105440
0.001900,-0.167237,0.623545,-0.418007,-0.908396,-0.009304
-0.010704,-0.311377,0.607679,-0.556215,-0.498131,0.665200
0.004155,-0.179970,0.560407,-0.077727,-0.961840,0.262340
-0.008069,-0.329224,0.515182,0.370292,0.801051,-0.470321
0.003777,-0.228557,0.471061,-0.345508,-0.906227,-0.243675
0.031050,-0.023098,0.827126,0.878513,-0.424325,0.219459
0.019199,-0.157159,0.811449,-0.148369,-0.750440,0.644070
0.028043,-0.083924,0.771611,-0.259259,0.496426,0.828460
0.012994,-0.252862,0.758655,0.451174,0.875149,0.174804
0.012053,-0.268237,0.728514,0.365022,0.883481,-0.293631
-0.003559,-0.442451,0.717389,0.127893,-0.561970,0.817211
0.004345,-0.367743,0.678278,0.650796,0.690153,0.316471
0.024278,-0.190381,0.626104,-0.449823,-0.892175,-0.041029
0.014498,-0.304597,0.608218,-0.585245,0.405866,-0.701970
0.033685,-0.123927,0.555262,0.970968,0.214516,0.105852
0.029920,-0.178809,0.529162,-0.264920,0.399126,0.877790
0.016754,-0.318318,0.512650,0.291346,0.859349,-0.420281
0.014877,-0.352862,0.485256,-0.451815,0.867058,0.209936
0.116058,0.190956,0.826021,0.770713,-0.630844,-0.089651
0.096877,-0.017974,0.818560,0.515135,-0.448797,0.730217
0.087470,-0.137647,0.769537,-0.662189,0.701137,-0.264410
0.083148,-0.187072,0.744460,0.349990,-0.737651,-0.577389
0.086345,-0.165088,0.710143,-0.142085,0.795595,0.588931
0.071107,-0.325925,0.696218,0.922662,-0.162721,0.349596
0.082207,-0.232694,0.653632,-0.110662,-0.983351,-0.144134
0.081266,-0.255999,0.625457,-0.076046,0.592307,0.802116
0.073931,-0.344438,0.604555,0.342014,0.066968,-0.937306
0.089163,-0.199471,0.555586,-0.363935,-0.754916,0.545576
0.083332,-0.270709,0.532582,0.238823,0.156184,-0.958421
0.074304,-0.367249,0.511222,-0.355137,-0.928365,0.109620
0.160631,0.284520,0.824567,-0.667808,0.212151,0.713460
0.126401,-0.102114,0.772015,-0.213681,0.976305,-0.034199
0.112299,-0.249058,0.757874,0.402454,0.741652,0.536641
0.122831,-0.149885,0.716069,-0.646603,0.715484,0.264552
0.104775,-0.339474,0.705484,0.791415,0.253586,-0.556199
0.114366,-0.258320,0.665511,-0.529663,0.284315,0.799138
0.120759,-0.202115,0.626939,-0.721700,-0.558550,0.408867
0.111921,-0.304930,0.606494,0.356097,-0.348129,-0.867180
0.114928,-0.284430,0.571882,0.868693,-0.446699,0.214087
0.121511,-0.217318,0.532960,-0.306847,0.050717,0.950407
0.105526,-0.391704,0.521835,0.650447,0.672207,-0.353633
0.106841,-0.380636,0.488488,0.533763,-0.813954,-0.229292
0.185644,0.356423,0.822924,0.573521,-0.112976,-0.811363
0.146524,-0.077155,0.777914,0.070864,-0.995477,-0.063283
0.129788,-0.252528,0.765604,0.984074,0.142578,-0.106163
0.135992,-0.193186,0.727140,0.953390,-0.269760,-0.135192
0.116621,-0.395013,0.717928,-0.069243,0.664660,0.743930
0.124525,-0.328074,0.679652,0.176890,0.131631,0.975389
0.150472,-0.063262,0.618804,-0.349652,0.936349,0.031532
0.120759,-0.381787,0.622790,0.531689,0.817624,0.220901
0.132232,-0.267238,0.578697,-0.480733,0.594802,-0.644288
0.144268,-0.148059,0.532663,0.274355,0.499508,0.821718
0.122831,-0.371214,0.525795,-0.558135,-0.506443,0.657267
0.116248,-0.439646,0.501229,0.451645,0.878523,0.155607
0.226648,-0.003264,0.788931,-0.198496,0.302107,0.932379
0.212912,-0.152357,0.775005,0.924892,0.376196,0.055249
0.205394,-0.227236,0.751571,0.307291,0.263301,0.914464
0.215926,-0.119961,0.708931,-0.525253,0.498166,0.689884
0.203512,-0.247404,0.691208,0.987252,0.136266,0.082255
0.232100,0.040048,0.626588,-0.498280,-0.321863,0.805060
0.193921,-0.367743,0.640649,0.926429,0.376317,-0.010674
0.195052,-0.360963,0.608865,0.349710,0.245639,0.904082
0.211598,-0.188566,0.558198,-0.694484,0.611605,-0.378988
0.202197,-0.284430,0.536757,-0.424914,-0.656917,-0.622823
0.201629,-0.304597,0.442455,0.440474,0.225431,0.869002
0.324633,0.107320,0.788203,-0.776594,0.621961,0.100325
0.286453,-0.298483,0.769429,0.793387,-0.418790,-0.441761
0.309394,-0.058308,0.711840,0.556499,-0.125478,-0.821318
0.323502,0.083016,0.632999,0.445842,-0.125147,-0.886320
0.297548,-0.196495,0.633753,-0.302750,-0.221683,-0.926930
0.276294,-0.425764,0.627558,-0.154653,-0.794365,-0.587424
0.309773,-0.074511,0.555155,0.901277,-0.105352,0.420238
0.284570,-0.336670,0.552757,0.258332,0.492191,0.831272
0.273666,-0.481464,0.344489,0.236394,0.374959,-0.896395
0.369016,-0.207895,0.771934,0.962573,0.270687,-0.013518
0.386131,-0.027396,0.719948,-0.668054,0.239567,0.704494
0.400423,0.118892,0.639302,-0.591128,0.305862,0.746335
0.399482,0.108480,0.609430,0.957199,-0.061019,0.282926
0.342499,-0.504275,0.648110,0.623960,0.495027,0.604667
0.366571,-0.247242,0.586454,-0.495247,-0.853332,0.162958
0.380679,-0.099138,0.538374,0.725388,0.687773,-0.027924
0.345880,-0.465756,0.548151,0.418436,0.320121,-0.849961
0.369389,-0.205424,0.485552,0.474798,0.651559,0.591640
0.487502,0.019880,0.732366,0.779429,0.526997,-0.338769
0.517778,0.339060,0.601053,0.272083,-0.505240,-0.818965
0.493518,0.076902,0.566091,0.925177,-0.377962,-0.034520
0.500479,0.147816,0.526710,0.868686,-0.404526,-0.285909
0.444244,-0.445427,0.563666,-0.617817,-0.356448,-0.700890
0.459104,-0.279304,0.512003,0.924625,0.343035,-0.165517
0.608996,0.349149,0.602292,0.807153,0.113359,-0.579356
-0.846308,0.228648,0.421714,0.432455,-0.729632,0.529735
-0.510788,0.157401,0.662440,0.575007,-0.167060,0.800910
-0.306731,0.280051,0.805011,-0.744436,-0.662496,-0.083150
-0.348480,0.092772,0.870035,-0.565677,-0.628778,-0.533523
-0.377631,0.043014,0.845227,0.220988,-0.836294,0.501774
-0.328730,0.060044,0.698130,0.935528,0.032448,0.351759
-0.320460,-0.101620,0.846573,0.327281,0.933730,0.145036
-0.401702,-0.300461,0.601242,0.384691,0.922564,0.029808
-0.089318,0.041036,0.833025,0.232500,0.486517,0.842166
-0.272311,-0.296829,0.602185,0.774153,0.555657,-0.303202
-0.105113,-0.083762,0.953509,0.762505,0.354552,0.541183
-0.119784,-0.114181,0.926896,-0.133322,0.889520,-0.437012
-0.097595,-0.091864,0.896485,0.335240,0.597593,-0.728352
-0.037221,-0.021444,0.860095,-0.040487,-0.934811,0.352829
-0.127308,-0.242944,0.587801,-0.505857,0.660550,0.554782
0.030109,-0.121454,0.962505,0.690178,-0.223829,0.688153
-0.019732,-0.198311,0.940445,0.218171,-0.924709,-0.311954
0.006790,-0.170546,0.909469,-0.714118,-0.684527,-0.146484
-0.004310,-0.196828,0.883583,0.799221,0.572607,-0.182667
-0.016909,-0.251540,0.771476,-0.456745,0.454563,-0.764693
0.221189,-0.168065,0.784298,-0.247058,-0.948742,0.197107
0.112299,-0.325592,0.770076,0.828530,-0.340766,0.444316
0.281936,-0.315342,0.772877,0.878278,0.110337,-0.465246
0.337610,-0.539818,0.797739,0.372468,0.927448,-0.033282
-0.706195,-0.302448,0.581390,-0.688593,0.207787,-0.694740
-0.738916,-0.132855,0.584811,0.598684,0.383482,0.703221
-0.670461,-0.255505,0.638063,-0.609633,0.688882,-0.392161
-0.484644,-0.505264,0.803907,-0.320835,0.841769,0.434155
-0.549340,-0.245426,0.792190,0.999757,-0.011260,0.018961
-0.831638,-0.295174,0.594454,0.412249,0.800362,0.435283
-0.569841,-0.434188,0.506482,0.736394,0.545218,0.400576
-0.531100,-0.399473,0.564609,-0.710161,-0.639102,0.295331
-0.578681,-0.189060,0.561350,0.926096,-0.133099,0.353031
-0.494987,-0.356827,0.622575,-0.135020,0.410853,0.901648
-0.555550,-0.110538,0.611666,-0.309664,0.184343,0.932806
-0.638486,0.198896,0.590440,-0.789500,-0.242975,0.563607
-0.604445,0.175914,0.626696,0.983047,0.171052,-0.066024
-0.537683,0.053930,0.677847,0.551572,0.793228,-0.257989
-0.398322,-0.277650,0.765308,0.754337,0.619702,0.216668
-0.499314,0.087818,0.736136,-0.343709,-0.884662,0.315018
-0.318388,-0.296163,0.861577,0.923442,0.381797,-0.038544
-0.363524,-0.095990,0.858775,0.513107,0.294652,0.806164
-0.402271,0.090623,0.859314,-0.148662,-0.985913,-0.076655
-0.385718,-0.437003,0.447600,-0.439802,-0.898037,0.010222
-0.426152,-0.251045,0.446873,0.484162,-0.534810,0.692506
-0.324782,-0.469731,0.518010,0.461441,0.784146,-0.414955
-0.302776,-0.458986,0.548771,-0.739410,-0.123060,-0.661913
-0.293185,-0.412204,0.573336,0.768829,0.628163,0.119635
-0.303717,-0.313354,0.587612,-0.531210,-0.536840,0.655454
-0.310680,-0.223604,0.603343,-0.673463,0.392854,0.626189
-0.349984,-0.037314,0.604339,0.969848,0.036055,-0.241029
-0.335124,-0.009216,0.630763,-0.340785,0.546746,-0.764810
-0.261400,-0.152033,0.687086,0.541741,0.480394,0.689738
-0.219651,-0.199966,0.727113,0.975185,0.097876,0.198582
-0.185421,-0.227902,0.763288,-0.440625,0.045109,0.896557
-0.216075,-0.070042,0.767436,0.681102,0.537480,-0.497207
-0.144986,-0.210711,0.821200,-0.223721,0.879522,-0.419989
-0.195390,0.008136,0.816432,0.754134,0.642125,0.137687
-0.115272,-0.157815,0.873725,0.182344,0.793001,0.581292
-0.094960,-0.144094,0.903031,-0.380285,0.809119,0.448006
-0.079912,-0.118478,0.929913,0.667921,0.407325,-0.622871
-0.066182,-0.089382,0.956175,0.998211,0.006051,-0.059483
-0.719362,-0.083269,0.412368,-0.228348,0.748430,0.622664
-0.107369,-0.325259,0.570158,0.021394,-0.983515,0.179557
-0.109062,-0.249219,0.589552,0.717587,-0.331338,0.612605
-0.093640,-0.225591,0.616649,0.008551,0.806857,0.590684
-0.055840,-0.264766,0.655652,-0.394852,0.913048,0.102150
0.052304,-0.508573,0.728999,-0.693645,0.124898,0.709406
-0.015405,-0.237486,0.715073,-0.663040,0.684148,0.303840
0.004534,-0.228235,0.744136,0.056214,-0.983127,0.174072
0.012053,-0.180958,0.766682,-0.529142,0.379044,0.759167
-0.037031,0.033268,0.762695,0.268890,-0.945781,0.182199
0.017511,-0.059630,0.808459,-0.678818,0.452729,-0.578137
0.016191,0.016571,0.827341,0.878782,-0.437808,0.189912
0.060391,-0.204597,0.552030,0.494321,-0.243900,0.834362
0.167967,-0.448897,0.626561,0.159871,0.576616,0.801221
0.149537,-0.322949,0.637255,-0.570518,-0.721243,-0.392834
0.099322,-0.105585,0.632434,0.764915,0.096498,0.636862
0.122831,-0.107401,0.663760,0.714251,0.530253,-0.456812
0.137685,-0.082441,0.690319,0.816639,0.387609,0.427620
0.230596,-0.286750,0.756635,-0.742612,0.449464,0.496498
0.197491,-0.120627,0.759220,0.340511,0.921675,-0.185923
0.199935,-0.055998,0.780150,-0.322463,-0.444045,0.835968
0.145209,0.311790,0.812877,-0.195650,-0.341187,0.919409
0.353967,-0.479154,0.631572,-0.455390,-0.767188,-0.451711
0.301124,-0.257159,0.624622,0.599015,-0.564350,0.568058
0.239808,-0.006896,0.613067,0.768175,0.511941,-0.384478
0.229466,0.093266,0.628420,-0.351863,-0.043109,0.935058
0.336857,-0.086739,0.721645,-0.072780,-0.034027,0.996767
0.325384,0.016571,0.736190,-0.075111,0.929746,0.360459
0.344755,0.098230,0.784810,-0.776594,0.621961,0.100325
0.356039,0.130625,0.809779,-0.677441,0.707271,-0.202093
0.415655,-0.240956,0.603262,0.847134,0.341897,-0.406781
0.302438,0.163353,0.566575,0.637417,-0.698034,-0.326265
0.361492,0.057400,0.615760,0.796170,-0.592225,0.124032
0.353967,0.148977,0.632568,-0.653953,0.579066,0.486855
0.448382,0.075752,0.739827,-0.647119,-0.733986,0.206158
0.348142,0.187647,0.346752,-0.067493,-0.398837,0.914535
0.667298,-0.473534,0.590279,0.200587,0.978555,-0.046858
0.436909,0.273937,0.494226,0.462726,-0.788263,0.405619
0.465308,0.263525,0.529269,0.903204,-0.198654,-0.380473
0.494837,0.246163,0.565040,-0.642237,0.744915,-0.180646
0.496904,0.308481,0.585700,0.784953,-0.494145,-0.373724
0.481109,0.422202,0.597740,0.802871,-0.160554,-0.574126
0.454024,-0.241623,0.501929,-0.175988,-0.931355,-0.318758
0.547687,-0.449725,0.569565,0.036616,0.969723,0.241446
0.520223,-0.299472,0.576272,0.626663,0.736759,0.253926
0.399297,0.122857,0.534737,-0.721232,-0.651610,-0.235007
0.403430,0.182855,0.557202,-0.251881,-0.749602,0.612089
0.411706,0.229476,0.581767,0.803807,-0.251877,-0.538937
0.443113,0.206826,0.618184,0.959236,-0.275360,-0.063591
0.620091,-0.459148,0.375089,-0.343570,0.566474,0.749044
0.419604,0.336750,0.332880,0.752896,0.333557,0.567351
0.606551,-0.001448,0.490266,-0.725869,0.317301,0.610274
0.546556,0.316582,0.501256,-0.023066,-0.806164,0.591243
0.538842,0.406837,0.517471,-0.032645,-0.541644,0.839974
0.547308,0.448817,0.541821,0.118900,0.830086,0.544812
0.594889,0.379557,0.586185,0.721599,-0.342254,-0.601795
0.621411,0.367329,0.619504,0.946884,-0.318443,-0.044784
0.634761,0.096242,0.464004,0.640239,-0.516577,-0.568544
0.588873,0.507664,0.521269,0.882374,-0.466663,-0.060341
0.612194,0.448483,0.387775,0.848532,0.138271,-0.510758
0.681027,0.454275,0.390469,0.890320,0.224292,-0.396263
0.859698,-0.156654,0.403129,-0.666106,0.066038,-0.742927
-0.486900,-0.270709,-0.964781,-0.288133,0.111191,0.951113
-0.410542,0.063847,-0.958667,-0.183475,0.049070,0.981799
-0.400199,-0.335176,-0.956943,0.375331,-0.139536,-0.916328
-0.305221,-0.296334,-0.957562,0.344900,-0.364553,-0.864953
-0.249933,0.171283,-0.957293,-0.309540,0.088246,0.946783
-0.231498,-0.487578,-0.960606,-0.123144,-0.053318,0.990955
-0.225672,-0.929742,-0.944795,-0.172475,0.089974,0.980896
-0.186741,0.055413,-0.948727,-0.341820,0.006391,0.939744
-0.162474,-0.883958,-0.944471,-0.193772,0.103871,0.975532
-0.345473,-0.208561,-0.295587,-0.147549,0.851457,0.503241
-0.150065,-0.371708,-0.689470,0.966996,-0.245472,0.068275
-0.121104,-0.317823,-0.786978,0.984202,0.170965,-0.046009
-0.149686,-0.294841,-0.558131,-0.204825,0.976607,-0.065469
-0.138965,-0.307906,-0.592097,-0.204825,0.976607,-0.065469
-0.129564,-0.340463,-0.620352,0.226350,0.829009,0.511380
-0.104362,-0.328235,-0.702507,0.963735,-0.266195,0.018847
-0.090070,-0.295668,-0.752904,0.984102,-0.166337,-0.062248
-0.078786,-0.314514,-0.787893,0.995670,-0.092120,0.012438
-0.258393,-0.550391,-0.330119,-0.641245,-0.766396,0.037977
-0.180909,-0.274845,-0.600420,0.978157,-0.199713,-0.057655
-0.170940,-0.307573,-0.630076,-0.796761,0.530857,0.288727
-0.127308,-0.290049,-0.569417,-0.204825,0.976607,-0.065469
-0.116024,-0.304930,-0.604757,0.076458,0.963587,0.256232
-0.081794,-0.301621,-0.722574,0.988973,0.004697,0.148022
-0.070131,-0.296163,-0.763355,0.977866,-0.201244,-0.057266
-0.058285,-0.310055,-0.800015,0.997984,0.062706,-0.009765
-0.003180,-0.768249,-0.944175,0.172629,0.030576,-0.984512
-0.002990,-0.950907,-0.928364,-0.124791,0.292104,0.948210
-0.097405,-0.284762,-0.584555,-0.204825,0.976607,-0.065469
-0.089502,-0.331706,-0.610036,0.076458,0.963587,0.256232
-0.043241,-0.278477,-0.786035,0.995670,-0.092120,0.012438
-0.090070,-0.303770,-0.611167,-0.236000,0.880826,0.410426
-0.056781,-0.301127,-0.730466,0.982570,-0.185136,0.016782
-0.045687,-0.310882,-0.766964,0.975314,-0.219176,-0.026905
-0.033645,-0.302781,-0.810493,0.998120,0.007736,-0.060806
-0.146300,-0.300299,-0.558050,-0.204825,0.976607,-0.065469
-0.106055,-0.285257,-0.718614,0.988973,0.004697,0.148022
-0.095901,-0.278477,-0.760176,0.985297,-0.165796,-0.041242
-0.086305,-0.298816,-0.794924,0.996489,0.083685,-0.002505
-0.229431,-0.303275,-0.594413,0.724629,-0.688514,-0.029361
-0.184669,-0.304930,-0.792472,0.996489,0.083685,-0.002505
-0.363151,-0.679488,-0.426711,0.465652,0.671171,0.576799
-0.264976,-0.843129,-0.935879,0.231375,-0.035291,-0.972224
-0.258956,-0.918835,-0.954411,-0.178355,0.063036,0.981945
-0.505335,-0.043599,-0.295587,-0.218095,0.824804,0.521664
-0.406782,-0.866928,-0.950209,-0.254725,-0.015300,0.966893
-0.463770,0.029959,-0.969845,-0.234656,0.095285,0.967397
-0.445524,0.207815,-0.968606,0.195085,-0.064707,0.978649
-0.430101,0.224511,-0.371681,-0.763701,0.296739,-0.573330
-0.394936,0.396748,-0.972000,0.173428,-0.202710,-0.963759
-0.391549,0.265503,-0.972000,0.229138,-0.024542,-0.973084
-0.333437,0.517421,-0.978518,-0.367564,0.039536,0.929157
-0.857592,0.124844,0.580932,0.708865,-0.364375,0.603938
-0.853643,0.012767,0.579532,0.891483,-0.107354,0.440152
-0.850635,-0.112031,0.580286,0.993535,0.045247,-0.104123
-0.851761,-0.303941,0.597956,-0.339460,-0.938660,-0.060700
-0.798911,-0.142943,0.434186,-0.465827,0.879564,-0.096807
-0.792328,0.361710,0.598494,-0.251152,-0.591381,-0.766284
-0.783679,0.151126,0.589228,0.102939,0.738544,0.666301
-0.778226,0.072776,0.579343,0.665302,-0.188864,0.722290
-0.780292,-0.137314,0.602642,0.739208,-0.122813,-0.662185
-0.773147,-0.191532,0.585565,0.381297,-0.378666,0.843341
-0.715034,0.060044,0.397391,-0.384724,0.181770,-0.904957
-0.708072,0.003516,0.381230,0.336665,-0.681837,0.649426
-0.444020,-0.507746,-0.203386,-0.426399,0.810576,-0.401434
-0.735346,0.299230,0.597740,-0.238910,-0.667946,-0.704820
-0.728763,0.247322,0.581255,-0.776821,0.551255,-0.304414
-0.723494,0.158723,0.572582,0.527062,-0.374869,0.762679
-0.734967,-0.227074,0.638467,0.894852,-0.126742,0.427990
-0.721427,-0.170042,0.593646,0.523704,0.838261,-0.151830
-0.714282,-0.216491,0.575814,0.824588,0.061014,0.562433
-0.710517,-0.322454,0.573013,-0.503899,0.858615,0.094163
-0.706195,-0.423282,0.567626,0.234303,-0.230115,0.944536
-0.689831,-0.318157,0.510818,0.693412,0.522235,-0.496437
-0.660681,-0.194185,0.415546,-0.389294,0.921042,0.011516
-0.630209,-0.387083,0.339506,-0.453724,-0.173439,-0.874101
-0.692839,0.242197,0.580366,0.948540,-0.313891,-0.041764
-0.688139,0.144175,0.574010,-0.436856,0.149760,-0.886978
-0.697918,-0.216996,0.635100,0.866953,-0.107812,0.486590
-0.687949,-0.216824,0.604501,0.851786,-0.142316,-0.504190
-0.676292,-0.183269,0.565579,0.299455,0.565589,0.768399
-0.674599,-0.334016,0.572932,-0.496075,0.494742,-0.713540
-0.666695,-0.362779,0.550522,0.935745,-0.227957,0.269103
-0.652404,-0.284762,0.500583,0.668513,0.743641,-0.009394
-0.656353,-0.531545,0.532744,0.408186,0.912219,0.035226
-0.597862,-0.413526,0.344409,0.169220,0.112319,-0.979157
-0.449662,-0.498817,-0.101676,0.891715,-0.414270,0.182278
-0.418445,-0.383774,-0.204652,-0.493695,0.699812,0.516264
-0.731959,0.242197,0.699073,0.189403,0.969670,0.154486
-0.722558,0.225006,0.673403,0.872114,0.471710,-0.130028
-0.711837,0.243519,0.638629,0.818444,0.574354,-0.016366
-0.700363,0.281211,0.600164,0.421324,0.634138,0.648348
-0.674972,0.230464,0.699046,-0.563017,-0.803904,-0.191704
-0.665944,0.226328,0.671194,0.482707,0.861227,-0.159005
-0.658609,0.180706,0.652043,0.968970,0.229031,-0.092965
-0.644317,0.270961,0.599275,0.498655,0.668855,0.551341
-0.636793,0.231453,0.578427,0.680284,0.479816,-0.554066
-0.630778,0.155918,0.567814,-0.326734,0.304973,-0.894560
-0.637734,-0.149713,0.614952,0.832995,-0.512230,-0.209139
-0.634164,-0.260963,0.612366,-0.677816,0.294569,0.673643
-0.620056,-0.175833,0.561080,-0.563323,0.247192,-0.788393
-0.617801,-0.314847,0.565471,0.777838,0.366525,0.510516
-0.612910,-0.407251,0.557983,0.888253,0.051926,-0.456410
-0.614225,-0.607423,0.578239,0.247504,0.517179,0.819309
-0.390608,-0.561801,-0.124544,0.894444,-0.324848,0.307316
-0.370485,-0.422949,-0.198995,-0.322006,0.481540,0.815127
-0.611780,0.114261,0.737887,-0.635324,-0.769171,0.068834
-0.596168,0.248150,0.676312,-0.096908,0.948256,-0.302356
-0.589591,0.194760,0.659666,0.257331,-0.548937,0.795266
-0.584133,0.125833,0.647598,0.327579,-0.712825,-0.620139
-0.574732,0.109136,0.621363,0.309182,0.716626,0.625183
-0.564389,0.126993,0.586319,-0.556604,-0.570574,-0.603852
-0.563447,-0.040128,0.597605,-0.839200,0.478005,-0.259333
-0.566082,-0.265917,0.624757,0.928435,-0.064025,0.365936
-0.555360,-0.237980,0.588016,-0.672514,0.654986,0.344554
-0.541632,-0.163273,0.538131,-0.351084,-0.933449,-0.073571
-0.536363,-0.239635,0.527626,0.995498,0.016592,-0.093316
-0.541064,-0.509400,0.565444,0.197219,0.658396,0.726374
-0.542573,-0.722133,0.589175,0.101385,0.702718,0.704207
-0.496307,-0.404931,0.414415,0.869509,0.485779,0.089286
-0.473360,-0.349391,0.336355,-0.635239,0.110314,0.764397
-0.469974,-0.471880,0.336005,0.346224,0.560932,-0.751987
-0.328357,-0.219639,-0.136989,0.906230,0.395872,-0.148436
-0.334372,-0.503115,-0.091467,-0.702815,0.703487,-0.105623
-0.317636,-0.411377,-0.153420,0.057079,0.997495,-0.041784
-0.304848,-0.386589,-0.196679,0.557363,-0.302588,-0.773167
-0.314629,-0.428407,-0.009555,0.112503,-0.739995,0.663137
-0.285667,-0.301792,-0.113124,0.893889,0.420017,-0.156678
-0.267799,-0.359147,-0.167696,0.996269,-0.053379,0.067819
-0.259524,-0.406252,-0.190564,-0.827067,-0.320017,0.462115
-0.557995,0.121696,0.736406,-0.337347,-0.831027,0.442257
-0.559309,-0.088222,0.759328,0.572259,0.592246,0.567243
-0.554041,-0.157653,0.747773,-0.699693,-0.439718,-0.563096
-0.560061,-0.468904,0.794911,-0.217912,0.564211,0.796354
-0.526020,0.037071,0.640353,-0.522817,0.852200,0.020404
-0.516992,0.032602,0.610993,0.933678,-0.095925,-0.345028
-0.507964,0.027477,0.581498,-0.521012,0.452304,0.723857
-0.512481,-0.251369,0.621013,-0.618879,-0.430953,-0.656710
-0.508905,-0.359147,0.618858,0.497893,0.633010,-0.592791
-0.490849,-0.182613,0.544138,0.434036,0.750770,-0.497954
-0.484271,-0.240624,0.527707,-0.713327,-0.624723,0.317625
-0.489534,-0.524110,0.570804,0.234775,0.725528,0.646908
-0.455493,-0.424765,0.450697,0.685234,0.726329,-0.053853
-0.427283,-0.245426,0.341580,0.886610,0.294626,-0.356536
-0.425964,-0.406746,0.351466,0.683184,0.509060,-0.523563
-0.522072,0.109136,0.732285,-0.360130,-0.929898,0.074809
-0.526961,-0.193852,0.776837,-0.342010,-0.857791,-0.383697
-0.509284,-0.001942,0.700770,-0.526646,-0.834618,0.161421
-0.523954,-0.505102,0.796661,-0.122591,0.586658,0.800502
-0.489913,0.043185,0.630467,0.501067,0.593288,0.630033
-0.482388,0.021201,0.606710,0.892513,0.337976,-0.298653
-0.477309,-0.060952,0.596609,0.008380,0.144972,0.989400
-0.479565,-0.299310,0.626157,0.078816,0.226219,0.970883
-0.476557,-0.424937,0.627343,0.779999,-0.613669,0.122522
-0.456056,-0.190543,0.537592,0.856676,0.368384,-0.361110
-0.453800,-0.324432,0.541767,-0.164350,-0.876399,0.452675
-0.457187,-0.586590,0.577835,0.388925,0.422887,0.818476
-0.412424,-0.419973,0.409028,0.740580,0.664860,0.097481
-0.400388,-0.360963,0.362456,0.760603,0.591751,-0.267049
-0.396812,-0.478650,0.362348,-0.592308,-0.727842,0.345569
-0.265538,-0.428569,-0.087831,-0.661643,0.737710,-0.134211
-0.253692,-0.397828,-0.130901,-0.712605,-0.630410,0.307858
-0.243912,-0.414686,-0.162389,0.140337,0.990040,0.011232
-0.481069,0.091611,0.732473,-0.266098,-0.924327,0.273518
-0.482010,-0.139634,0.759571,-0.281876,-0.671027,-0.685762
-0.466404,0.030130,0.687652,0.368575,0.861456,0.349351
-0.457187,0.043014,0.654171,0.817616,-0.552937,0.160515
-0.450414,0.011617,0.632730,0.194014,-0.733788,0.651087
-0.444210,-0.035831,0.615141,-0.062889,0.172706,0.982964
-0.436312,-0.046242,0.587127,0.140269,0.417381,0.897840
-0.439692,-0.312537,0.624730,0.114536,0.242254,0.963429
-0.428409,-0.249885,0.578212,0.414992,0.902037,-0.118789
-0.420138,-0.274351,0.553485,0.871190,0.431640,0.233913
-0.414117,-0.329890,0.536515,0.150340,0.967491,-0.203371
-0.416752,-0.569066,0.568165,0.734737,0.670779,0.101077
-0.392112,-0.415180,0.466185,0.706512,0.697624,0.119001
-0.377820,-0.484108,0.421257,-0.694199,-0.659584,0.288160
-0.221344,-0.398322,-0.139359,0.492123,0.869789,-0.035810
-0.212695,-0.416664,-0.169042,-0.028825,0.998986,-0.034571
-0.378572,-0.451713,0.470603,-0.650811,-0.749504,-0.121198
-0.364654,-0.516503,0.424677,0.704916,0.675207,-0.217232
-0.350925,-0.602459,0.384031,0.926341,-0.137165,0.350825
-0.227738,-0.296001,-0.102376,0.948068,0.296926,-0.114026
-0.216644,-0.452045,-0.128639,0.926471,-0.350011,0.138361
-0.203850,-0.386256,-0.183722,0.930557,0.313252,-0.189571
-0.501759,0.107814,0.868849,0.055452,-0.998165,-0.024331
-0.491417,0.157068,0.827934,0.301804,0.711593,0.634468
-0.463018,0.093266,0.727840,0.454840,0.888751,0.056945
-0.463959,-0.145254,0.756769,-0.425197,-0.757740,-0.495013
-0.454931,-0.116985,0.721106,0.548915,0.653018,0.521785
-0.442137,0.002194,0.660932,0.335719,0.665273,0.666861
-0.433298,0.017398,0.626696,-0.084422,-0.855058,0.511614
-0.426905,-0.025580,0.606871,0.398106,0.916673,-0.034958
-0.421831,-0.095002,0.594777,-0.351765,0.169954,0.920531
-0.424276,-0.346909,0.628959,0.282179,-0.729033,-0.623607
-0.413555,-0.298312,0.585700,0.400901,0.915745,0.026248
-0.405278,-0.294185,0.554751,0.602847,0.597025,-0.529280
-0.399257,-0.350884,0.537916,0.875629,-0.319617,0.362103
-0.400388,-0.573363,0.564043,0.129583,0.771442,0.622965
-0.511350,0.203517,0.834560,-0.759879,-0.483706,-0.434296
-0.482951,0.163515,0.727544,-0.431193,-0.486073,-0.760135
-0.479754,0.041531,0.727679,0.032664,-0.675490,0.736645
-0.478440,-0.144588,0.744810,0.679499,0.503733,0.533418
-0.481258,-0.429890,0.787045,-0.085385,0.738214,0.669140
-0.456624,0.057239,0.635342,-0.661651,0.455202,-0.595826
-0.451545,-0.001609,0.620582,0.733310,0.247550,-0.633227
-0.444210,-0.014170,0.592946,0.968389,0.239551,0.069555
-0.444020,-0.224431,0.615222,0.207555,0.856234,0.473059
-0.441954,-0.376833,0.623033,0.119047,0.765470,0.632364
-0.427846,-0.209550,0.551033,0.970336,0.239971,-0.029362
-0.423897,-0.304264,0.545242,-0.116414,-0.603074,0.789145
-0.423146,-0.489898,0.561808,0.337330,0.604198,0.721910
-0.390608,-0.464606,0.429284,-0.593270,-0.803324,0.051985
-0.381580,-0.442622,0.392489,0.872748,0.354822,0.335280
-0.258956,-0.326913,-0.107683,0.975843,0.212453,-0.050936
-0.252378,-0.377328,-0.127938,-0.725124,-0.625345,0.288338
-0.247298,-0.459309,-0.140814,-0.186706,0.977619,0.096961
-0.238080,-0.463113,-0.174914,-0.607080,-0.789203,0.092807
-0.542573,0.130292,0.736972,0.308694,0.839803,-0.446586
-0.540691,-0.039129,0.749820,0.946910,0.250729,0.201237
-0.538997,-0.226247,0.766197,0.440225,-0.859447,0.259911
-0.539749,-0.481303,0.799678,-0.242728,0.784958,0.570021
-0.517933,0.035578,0.641080,-0.522817,0.852200,0.020404
-0.511729,0.027154,0.613767,0.938547,0.165872,-0.302680
-0.505519,0.013433,0.587639,0.913106,0.397114,0.092403
-0.505519,-0.215341,0.614845,-0.038261,0.947550,0.317310
-0.503642,-0.373695,0.625349,0.272523,0.852511,0.446045
-0.490097,-0.175833,0.543707,-0.005421,-0.992454,0.122500
-0.484271,-0.215341,0.522374,0.363864,0.758401,-0.540769
-0.487089,-0.533039,0.572771,0.130503,0.811235,0.569971
-0.462828,-0.419811,0.451021,0.578632,0.815538,-0.009102
-0.447406,-0.382453,0.377863,0.741675,0.633376,-0.220800
-0.440823,-0.417491,0.354617,0.683184,0.509060,-0.523563
-0.337196,-0.269720,-0.123117,-0.713457,-0.627653,0.311496
-0.324592,-0.368893,-0.167399,0.850028,-0.507439,0.141273
-0.316694,-0.385096,-0.197756,0.557363,-0.302588,-0.773167
-0.399257,-0.428901,-0.014269,0.774009,0.350099,0.527581
-0.371610,-0.446426,-0.147709,0.525235,-0.849331,-0.052580
-0.362209,-0.384107,-0.201958,-0.260123,0.300896,0.917495
-0.566645,0.129637,0.733120,0.463237,0.876989,-0.127677
-0.568149,-0.186416,0.782143,-0.599129,-0.689756,-0.406548
-0.559120,-0.074007,0.725605,0.865421,0.304545,0.397868
-0.563258,-0.503115,0.802479,-0.740604,0.423909,0.521351
-0.544077,0.064503,0.631975,-0.469724,0.552131,0.688847
-0.537304,0.083682,0.596097,0.738675,0.667821,0.091512
-0.534486,-0.055171,0.600164,-0.767466,0.228884,-0.598839
-0.534297,-0.300965,0.631598,0.547326,0.212843,0.809402
-0.526020,-0.207895,0.578104,0.823098,0.478833,-0.305332
-0.520189,-0.213848,0.549983,-0.177718,0.962537,-0.204789
-0.514547,-0.264434,0.531720,-0.408416,0.027031,-0.912396
-0.515678,-0.547082,0.574495,0.229791,0.903002,0.363020
-0.491979,-0.371042,0.433459,0.689562,0.718122,-0.093837
-0.477309,-0.290049,0.349903,0.972446,0.072551,-0.221550
-0.602378,0.126993,0.752352,0.475634,0.875502,0.085251
-0.597110,0.109630,0.726655,0.529139,0.841330,0.110347
-0.592220,0.094426,0.701605,0.846534,0.486939,-0.215107
-0.586957,0.079222,0.675046,-0.419740,-0.904811,0.071666
-0.579243,0.171283,0.621605,0.619599,0.754478,-0.216470
-0.574732,0.111446,0.605929,-0.639632,-0.763371,0.090198
-0.569279,0.121202,0.574144,0.813773,0.450507,-0.367175
-0.568149,-0.099471,0.600218,-0.733910,-0.354264,-0.579546
-0.567396,-0.365100,0.636716,-0.115295,0.607330,0.786039
-0.558747,-0.182774,0.560623,0.942997,-0.119984,0.310420
-0.554609,-0.261952,0.549713,0.823237,-0.192297,0.534138
-0.551223,-0.410389,0.556313,0.704552,-0.518212,0.484833
-0.550281,-0.641968,0.584730,-0.063890,0.597209,0.799537
-0.520000,-0.269064,0.363425,0.990375,0.069864,-0.119482
-0.513606,-0.245749,0.324476,-0.630321,0.501887,0.592288
-0.494424,-0.745277,0.295682,0.821387,0.570111,-0.017250
-0.444399,-0.451218,-0.021138,0.774009,0.350099,0.527581
-0.411110,-0.434027,-0.203870,-0.493695,0.699812,0.516264
-0.614414,0.146656,0.734709,-0.367162,-0.853331,0.370158
-0.607831,0.234096,0.683234,-0.272097,0.940667,-0.202753
-0.603504,0.184015,0.665403,0.358553,0.281578,0.890030
-0.598614,0.184177,0.635801,-0.262712,-0.963314,0.054856
-0.594664,0.124672,0.621174,0.914857,0.209107,-0.345414
-0.589775,0.109630,0.594104,-0.690455,-0.716134,0.102098
-0.584885,0.074592,0.573228,0.272956,0.952961,-0.131762
-0.584133,-0.232200,0.619908,-0.379652,-0.723035,-0.577135
-0.580373,-0.321627,0.611801,-0.183496,-0.675193,0.714453
-0.573228,-0.182441,0.545081,-0.262489,-0.956908,-0.124203
-0.570031,-0.301954,0.545727,0.911834,0.023285,0.409897
-0.568149,-0.507413,0.568515,-0.366759,0.266188,0.891421
-0.566082,-0.702298,0.587612,0.141571,0.735094,0.663019
-0.536173,-0.165916,0.320166,0.965197,-0.070537,-0.251832
-0.533355,-0.309884,0.326712,-0.543472,0.535968,0.646047
-0.457375,-0.474351,-0.101380,0.924477,-0.304832,0.228951
-0.441012,-0.552701,-0.185285,-0.391923,0.795348,0.462404
-0.467340,-0.531222,-0.187197,-0.398289,0.799016,0.450487
-0.622881,0.175258,0.731881,-0.319895,-0.932531,0.167493
-0.618173,0.212284,0.693551,-0.563017,-0.803904,-0.191704
-0.614036,0.189302,0.670171,-0.189636,-0.961222,0.200225
-0.610087,0.072604,0.668797,0.639173,0.707890,0.300581
-0.604824,0.184177,0.611558,0.953904,-0.009152,-0.299972
-0.600307,0.190956,0.578912,0.167140,0.890660,-0.422835
-0.596547,0.104505,0.569700,0.410720,0.704585,0.578678
-0.595044,-0.195335,0.614602,0.123010,0.231274,0.965081
-0.592220,-0.399644,0.636851,0.922226,0.176212,0.344164
-0.585826,-0.195829,0.554993,0.962026,-0.060195,0.266238
-0.582440,-0.312033,0.553485,0.732292,-0.263900,0.627778
-0.579622,-0.462618,0.562131,0.999746,0.022442,0.002176
-0.577177,-0.660642,0.582037,-0.069262,0.675929,0.733705
-0.551033,-0.006734,0.284665,0.947050,0.096093,-0.306369
-0.549719,-0.295013,0.328005,-0.615787,0.588114,0.524336
-0.609145,0.220052,0.680891,-0.270737,0.933728,-0.234209
-0.605576,0.163686,0.665618,0.358553,0.281578,0.890030
-0.601627,0.148805,0.638871,0.972328,0.199252,0.121969
-0.597862,0.134429,0.611720,0.655186,0.699412,-0.285578
-0.593723,0.144678,0.578158,0.954783,0.071595,-0.288554
-0.590527,-0.058964,0.600030,0.922421,-0.385898,0.014934
-0.587709,-0.212859,0.609269,0.088305,0.427699,0.899598
-0.583381,-0.206080,0.576811,-0.389450,0.865016,0.316348
-0.579432,-0.207078,0.547074,0.973199,0.072188,0.218341
-0.576236,-0.314182,0.543141,-0.698461,0.523594,-0.487854
-0.573038,-0.538658,0.569754,-0.142530,0.508620,0.849112
-0.549529,-0.117813,0.302308,0.961553,-0.099357,-0.256015
-0.543509,-0.501137,0.338752,0.000139,-0.796635,0.604461
-0.473360,-0.259137,-0.242874,-0.410977,0.834158,0.367802
-0.613473,0.120213,0.735625,-0.608292,-0.782688,-0.131837
-0.630589,0.163020,0.732231,0.707271,0.424639,0.565199
-0.627391,0.195425,0.695329,0.859541,0.507214,0.062645
-0.623443,0.204344,0.662790,0.642316,0.559104,0.524245
-0.620056,0.048472,0.671113,0.093385,-0.933086,-0.347317
-0.616297,0.185336,0.606333,0.959708,0.100493,-0.262413
-0.613100,0.196576,0.573821,-0.155384,0.704652,-0.692330
-0.609714,0.104505,0.567222,0.567684,0.087241,0.818611
-0.606517,-0.184429,0.609376,0.185869,0.075299,0.979685
-0.603320,-0.406585,0.636178,0.977997,-0.139669,-0.154964
-0.599182,-0.197151,0.551518,0.939310,0.323553,-0.114064
-0.595795,-0.329890,0.554239,0.744685,0.061989,0.664531
-0.592409,-0.474029,0.560434,0.858793,0.439722,0.262906
-0.589401,-0.680153,0.583653,-0.152395,0.534698,0.831188
-0.573038,0.033096,0.270012,0.746155,0.137554,-0.651408
-0.570214,-0.301127,0.325688,0.627321,-0.551001,-0.550333
-0.503826,-0.517501,-0.194658,-0.639498,0.755742,0.141055
-0.631340,0.193277,0.705510,0.879657,0.471924,0.059082
-0.628333,0.161537,0.683261,0.997145,0.072987,0.019373
-0.625326,0.136083,0.659127,0.918452,0.243838,-0.311430
-0.623064,0.250299,0.600811,0.708461,0.360911,0.606487
-0.619304,0.186326,0.587208,0.942777,-0.054416,0.328954
-0.616108,0.143357,0.566980,0.199951,-0.297842,0.933440
-0.612532,-0.146909,0.610777,-0.351943,0.068777,-0.933491
-0.608962,-0.345426,0.630279,0.277529,-0.385982,-0.879770
-0.606327,-0.168721,0.553862,0.679344,0.711754,-0.178604
-0.602941,-0.318157,0.560892,0.994872,0.009871,0.100661
-0.599745,-0.435348,0.560946,0.985061,0.112883,-0.130049
-0.595985,-0.627913,0.580636,0.077269,0.629906,0.772818
-0.587898,-0.269387,0.392678,0.549271,0.646643,0.529296
-0.581315,-0.214342,0.312759,0.755061,-0.464723,-0.462511
-0.574542,-0.515514,0.329486,0.287557,-0.612436,0.736365
-0.524890,-0.456999,-0.202039,-0.608752,0.747008,0.267209
-0.521509,-0.491715,-0.227628,0.936731,-0.237238,-0.257398
-0.568710,-0.037152,0.288005,0.882648,0.159928,-0.441990
-0.564762,-0.290876,0.323749,0.743084,-0.488829,-0.457025
-0.519437,-0.154506,-0.264180,-0.445820,0.785330,0.429536
-0.611407,0.143357,0.737645,-0.355589,-0.886218,0.296940
-0.608962,0.150127,0.705726,0.722244,0.687134,-0.078804
-0.606327,0.114099,0.685201,0.939405,0.298749,-0.168127
-0.603504,0.045828,0.673053,-0.006052,0.999659,0.025394
-0.601816,0.141370,0.618454,0.920854,0.050209,-0.386662
-0.599372,0.185175,0.577808,0.495686,0.509164,-0.703596
-0.596547,0.114755,0.564474,0.179463,0.008054,0.983732
-0.591284,-0.198805,0.612932,0.168928,0.238794,0.956264
-0.587709,-0.381787,0.628582,0.485553,0.571194,0.661797
-0.586205,-0.229385,0.559626,0.893610,-0.186726,0.408161
-0.583191,-0.307240,0.549444,0.811958,-0.152815,0.563358
-0.579432,-0.483775,0.563558,0.993969,-0.033133,0.104532
-0.576046,-0.656182,0.578104,-0.072037,0.679992,0.729672
-0.568337,0.130130,0.734709,0.468192,0.738332,-0.485450
-0.566266,0.147151,0.701524,0.867984,0.465936,-0.171777
-0.560813,-0.218640,0.762291,0.909417,-0.392819,0.136577
-0.557237,-0.374523,0.772231,0.965567,0.220927,0.137376
-0.559120,0.073270,0.629309,-0.429244,0.537099,0.726136
-0.556864,0.051115,0.604124,0.860599,0.446307,-0.245313
-0.554041,-0.010699,0.588609,-0.623323,0.513868,0.589413
-0.550092,-0.204597,0.608083,0.328443,0.557678,0.762312
-0.546522,-0.372535,0.621120,-0.647856,-0.439712,0.622042
-0.545581,-0.159630,0.535222,0.142790,-0.323568,0.935369
-0.542383,-0.267571,0.532609,0.889722,0.032462,0.455347
-0.537867,-0.519318,0.566252,0.103105,0.723404,0.682683
-0.533545,-0.754862,0.596043,0.348839,0.725521,0.593238
-0.532224,-0.402126,0.441216,0.716077,0.673518,-0.183321
-0.529780,-0.160791,0.313352,0.866622,-0.271154,-0.418857
-0.521882,-0.494852,0.337648,-0.107230,0.800450,-0.589730
-0.507780,0.120042,0.835045,0.580484,0.761655,0.287958
-0.499877,0.092116,0.725174,0.470521,0.744847,0.473089
-0.495177,-0.113020,0.746911,0.682126,0.534624,0.498880
-0.494046,-0.034509,0.696891,-0.470354,-0.879358,0.074139
-0.492731,0.024672,0.651612,0.903249,-0.372349,-0.213299
-0.490475,0.006815,0.625349,0.685773,0.699337,-0.201603
-0.488404,-0.013020,0.600488,0.044448,-0.529452,0.847175
-0.485586,-0.102770,0.593403,0.295131,0.110383,0.949059
-0.480696,-0.350713,0.625619,-0.206891,-0.573688,-0.792514
-0.478250,-0.394025,0.606818,0.650443,0.452846,-0.609799
-0.478061,-0.228729,0.532852,0.797248,0.596007,-0.095765
-0.474112,-0.422616,0.551330,0.111399,0.023173,0.993506
-0.468470,-0.703781,0.593296,-0.516731,0.700911,0.491642
-0.467340,-0.429063,0.460529,0.443463,0.887036,-0.128482
-0.464895,-0.291047,0.360381,0.982614,-0.085707,-0.164693
-0.458879,-0.453367,0.337432,-0.489671,-0.665527,0.563290
-0.428598,-0.466422,-0.100141,0.773725,-0.632020,-0.043606
-0.383652,-0.651885,0.382657,0.926951,0.022645,-0.374499
-0.376128,-0.768421,0.316099,-0.090151,0.790531,0.605751
-0.363339,-0.241784,-0.139790,0.861286,0.503188,-0.070623
-0.357882,-0.391542,-0.167076,-0.044737,0.997933,0.046131
-0.354501,-0.444933,-0.188948,-0.533751,0.740530,0.408321
-0.433298,0.082027,0.865887,0.169208,0.980570,0.099248
-0.431795,0.115421,0.829577,0.249155,0.806075,0.536810
-0.426721,-0.129546,0.859772,0.845780,0.530335,0.058323
-0.424276,0.069800,0.722722,0.752692,0.330113,0.569632
-0.419570,-0.163929,0.750682,0.630783,0.725095,0.276314
-0.416373,-0.263939,0.746722,0.132426,0.938510,0.318845
-0.416373,-0.095173,0.674884,-0.642713,-0.519056,0.563472
-0.415621,0.003516,0.619181,-0.758783,0.344987,-0.552478
-0.413555,-0.033016,0.598656,-0.289157,-0.681676,0.672091
-0.410357,-0.146575,0.596286,0.425801,-0.601074,-0.676316
-0.405468,-0.390382,0.627423,-0.614071,0.776828,-0.139480
-0.405468,-0.250713,0.560138,0.966499,-0.087330,-0.241358
-0.401519,-0.423111,0.574495,-0.267915,-0.373134,0.888252
-0.399825,-0.436509,0.547747,0.380292,0.536417,0.753416
-0.390987,-0.493692,0.436233,-0.580220,-0.814399,0.009910
