-0.019268,0.023538,0.636067,-0.771627,0.608963,-0.183730
0.384254,0.397171,0.392794,0.056098,-0.689132,0.722461
-0.055271,-0.130884,0.928344,0.986032,-0.152108,-0.067859
-0.412873,-0.297670,0.634841,-0.622351,0.775623,0.105298
-0.588661,-0.036496,0.474414,0.149397,-0.967696,0.203088
-0.074700,0.465526,0.553266,0.119458,0.214824,0.969319
0.368737,0.166666,0.325382,0.879900,-0.348913,-0.322545
-0.116722,0.640989,0.587562,0.994136,0.025368,0.105115
0.440318,0.525082,0.163797,-0.599408,-0.800103,-0.023344
0.925777,-0.190560,-0.196641,0.771007,0.597809,0.219484
-0.298316,0.440085,0.391749,0.626844,0.552246,-0.549628
-0.054324,0.275796,0.556534,-0.660528,0.628969,-0.410000
0.177534,-0.482526,0.616047,0.183092,-0.953075,-0.241090
-0.858314,0.531384,0.404256,0.238614,0.971111,0.002523
0.010401,0.555872,0.378721,-0.513779,0.629775,-0.582593
0.356809,0.221113,0.278125,0.394113,-0.834185,-0.385760
-0.749248,-0.061935,0.401577,-0.333866,-0.182536,0.924778
0.138148,0.594151,-0.087624,-0.065626,-0.040069,0.997039
-0.007868,-0.172135,0.614231,0.973723,0.181931,-0.136987
0.377604,-0.255231,0.670975,-0.157304,0.831561,0.532693
0.634375,-0.771517,0.263463,-0.237638,-0.592762,0.769521
-0.059499,0.138967,0.563797,0.109774,-0.801810,-0.587410
0.142163,-0.542439,0.637088,0.384770,-0.530321,-0.755455
-0.080081,-0.235735,0.797447,-0.025173,-0.544546,0.838353
-0.058970,0.293628,0.508211,0.753048,0.134536,-0.644064
0.185132,-0.297314,0.739795,0.615059,0.764292,-0.193804
-0.593410,-0.575130,0.670249,0.803727,0.593778,-0.038088
0.745549,-0.834880,0.029178,0.193985,0.090828,-0.976791
-0.204986,-0.403470,0.557669,0.053230,0.986445,0.155217
0.415508,-0.614955,0.396471,-0.752279,0.658819,-0.005759
-0.599855,0.509747,0.371344,-0.716957,-0.561421,0.413254
-0.355752,-0.296362,0.667094,0.746311,-0.512368,0.424852
-0.132452,0.321090,0.446201,0.949219,0.301874,0.088631
-0.531650,-0.429981,0.206809,0.640870,0.736199,-0.217481
-0.809745,-0.217904,-0.351915,-0.109569,-0.792574,0.599850
0.258614,0.091537,0.392680,0.908313,-0.373782,0.187764
0.175634,0.900856,0.354230,0.417288,0.903754,-0.095394
0.115665,-0.706134,0.516722,0.966287,0.254967,0.035801
-0.179436,0.407870,0.456120,0.363199,0.530144,-0.766181
-0.074913,-0.125297,0.802962,0.020460,0.875654,0.482506
-0.024017,0.447100,0.554264,-0.093196,0.109829,0.989572
0.076388,0.161912,0.707746,-0.191862,0.979469,-0.061882
-0.283005,0.129457,0.717982,0.397705,-0.582279,0.709071
-0.060233,-0.155612,0.832560,0.056845,0.998002,-0.027567
-0.599326,0.385520,0.518289,0.233422,0.781109,-0.579123
0.317636,-0.045887,-0.668501,-0.072407,-0.517791,0.852437
-0.084095,-0.124109,0.886557,0.905408,-0.420951,-0.055098
0.161592,0.677128,0.034285,-0.409725,-0.887945,-0.208995
0.242678,-0.113529,0.666300,0.288807,0.844915,-0.450233
-0.334848,-0.021636,0.703955,0.874672,0.459963,0.152912
-0.342767,0.716238,0.134812,-0.660086,-0.022685,0.750847
-0.121156,-0.155967,0.955422,0.383591,0.856266,-0.345927
-0.273507,0.190323,0.734642,-0.500859,0.739168,-0.450301
0.661402,-0.807894,0.443954,-0.163978,-0.913775,-0.371653
0.195481,0.561221,-0.340521,0.766108,-0.246917,-0.593389
0.651800,-0.210177,-0.525529,0.038584,-0.903597,0.426642
0.045134,0.144911,0.520241,0.597850,-0.645021,0.475944
0.130654,-0.232763,0.632231,0.198339,0.800260,-0.565903
0.008074,0.446148,0.033627,0.864969,-0.199508,0.460462
0.576939,0.373989,0.072258,-0.617172,-0.637545,0.461124
0.090430,0.094745,0.711945,0.903312,0.213047,-0.372341
-0.201185,0.021992,0.898791,-0.496549,0.511672,0.701164
-0.423957,-0.263671,0.578642,0.378806,0.757653,0.531478
0.259355,-0.350214,0.742019,0.564872,0.796418,-0.215957
0.167501,0.887542,0.115361,0.383538,0.910610,-0.153912
-0.081453,0.440680,0.491914,0.732926,0.455374,-0.505424
0.239082,-0.577033,0.686705,-0.507749,0.787573,-0.349171
-0.340022,-0.007252,0.716825,0.950598,0.102766,0.292920
-0.265587,0.333689,0.490961,-0.590665,0.584937,0.555845
-0.261469,-0.348906,0.511479,0.778786,-0.501780,-0.376442
0.578421,-0.366501,0.424593,0.801091,0.531952,-0.274373
-0.605345,-0.659059,0.651024,0.942584,0.329288,-0.055722
-0.840155,0.462077,0.331941,-0.036286,-0.954265,0.296751
0.107320,0.020922,0.419849,-0.122256,0.134007,-0.983410
-0.205302,0.055753,0.709493,0.580171,0.315722,0.750814
0.490472,0.314075,0.015196,0.904969,0.416509,0.086900
0.256191,-0.187709,0.631550,-0.425711,-0.878463,0.216964
0.450564,-0.357109,0.041185,0.737925,0.162896,0.654929
0.335692,0.045887,-0.665982,0.166729,-0.390605,0.905334
0.484454,0.307893,0.180094,0.877966,-0.437819,0.193622
-0.117456,-0.536853,-0.704659,-0.461626,0.118018,0.879189
0.016626,-0.467071,0.447359,-0.660769,-0.263408,-0.702852
-0.114821,0.121374,0.765488,-0.651566,0.758463,0.013989
-0.165813,0.682715,0.573171,0.989220,-0.130037,0.067335
-0.162011,-0.117094,0.570992,0.742271,-0.669929,0.015129
0.133715,-0.141585,0.729059,0.876310,0.060923,0.477880
0.353536,0.034118,0.586722,-0.550645,-0.291520,0.782180
0.041545,0.154422,0.356250,0.936935,-0.284176,-0.203462
0.691708,-0.375654,0.165046,0.403033,0.578912,-0.708819
-0.156521,0.009748,0.688158,0.475500,0.067392,0.877131
-0.255663,-0.210652,0.656653,0.047501,-0.554671,0.830713
-0.122844,0.847597,0.455552,-0.632590,-0.301364,-0.713449
0.066251,-0.067641,0.454735,0.793138,-0.314825,0.521361
0.157152,-0.656206,0.169631,-0.631265,-0.635908,-0.443988
-0.061818,-0.018664,0.674925,0.481325,0.015539,0.876404
0.330942,-0.028531,0.441366,0.392837,-0.697937,-0.598801
-0.548121,-0.431644,0.452693,-0.377144,-0.258669,0.889299
0.474420,0.268068,0.056869,0.405402,0.777433,-0.480881
0.905504,-0.203044,0.112342,0.760456,0.531100,-0.373683
-0.386690,0.321802,0.614027,0.337466,-0.660804,0.670414
-0.197698,0.159771,0.703138,0.109948,0.631272,0.767728
0.770996,-0.539706,-0.063792,0.863940,0.464030,-0.195664
0.607561,-0.223966,0.509073,-0.284697,0.861077,0.421301
-0.098034,-0.007252,0.622902,-0.290769,0.741950,0.604122
-0.618227,-0.419045,0.012858,-0.113501,0.985146,0.128856
0.511480,-0.081313,-0.235204,-0.578263,0.064144,-0.813325
0.138574,0.723846,-0.990558,0.127201,0.113179,0.985399
-0.256610,-0.453994,-0.889099,0.806365,0.573070,-0.146174
-0.186930,-0.469329,-0.863633,0.829004,0.535871,-0.159986
0.192627,-0.442225,0.648255,0.908779,-0.329950,-0.255449
-0.101308,-0.096768,0.697123,0.827970,-0.455916,-0.326506
-0.548121,0.164527,0.318118,0.830666,-0.092458,-0.549041
-0.293457,0.413694,0.667775,-0.298111,0.740405,-0.602436
0.621706,-0.137423,0.468831,0.764152,-0.195885,0.614574
-0.230744,0.166191,0.714214,0.855612,0.390137,0.340177
0.600802,0.241917,0.282324,0.881804,-0.425345,-0.203725
0.163493,0.303852,0.616660,-0.709412,-0.589981,0.385561
0.696877,-0.706016,0.076343,0.873940,-0.270774,0.403622
-0.172573,0.099382,0.582636,0.694446,0.691922,-0.197456
0.266746,-0.705659,0.378925,0.247274,-0.962430,0.112178
0.294727,0.322753,-0.067219,-0.071223,-0.313413,0.946942
-0.239089,0.498336,0.513953,0.826756,-0.556462,-0.082616
-0.614315,-0.198408,0.537105,0.786772,-0.508694,-0.349600
-0.184288,0.409533,0.386620,0.053624,-0.765875,0.640749
-0.235918,-0.597837,0.753186,0.765320,-0.581987,-0.274910
-0.216070,0.217664,0.308222,-0.459056,0.505985,-0.730238
0.085468,-0.672611,0.563570,0.949749,0.063167,0.306572
-0.109859,-0.262126,0.487851,0.381740,0.633587,0.672936
-0.864649,0.523299,0.152449,-0.227375,-0.890408,-0.394302
-0.046404,0.012364,0.396856,0.867458,0.183586,0.462399
-0.840367,0.001188,0.520399,0.874187,-0.476906,0.091421
0.025177,0.804921,0.389820,0.950405,-0.275605,0.144124
-0.309084,-0.288279,0.718050,0.381809,0.762268,0.522657
0.037956,-0.283880,0.767372,0.044404,0.746054,0.664404
0.276780,-0.373514,0.283278,-0.177277,0.542673,-0.821023
-0.103312,-0.119948,0.794972,-0.542705,-0.839874,0.009043
-0.191364,-0.178198,0.667957,0.016461,0.977902,0.208413
-0.088316,-0.131004,0.984793,0.978540,0.121203,-0.166639
0.168242,0.049334,0.765851,-0.772615,0.634864,0.003644
0.222720,0.832382,-0.370777,0.851062,-0.517556,-0.088482
0.278784,-0.073823,0.582205,-0.893747,0.008632,0.448487
0.234758,0.107347,0.318867,-0.246229,0.558127,0.792380
-0.032253,0.787446,0.528389,-0.426927,0.894417,-0.133236
0.393444,0.055516,-0.339772,-0.263195,0.107734,-0.958708
0.333791,-0.594626,0.456801,0.119286,0.675744,0.727421
0.691180,-0.606633,0.075140,-0.387893,-0.742445,0.546181
0.419413,0.536733,0.400170,0.820064,-0.448431,0.355534
-0.165600,0.103066,0.872961,-0.349659,0.925319,-0.146708
0.891572,-0.495007,-0.495591,0.563183,0.642453,0.519692
0.494062,-0.595221,-0.449946,0.538592,-0.608746,0.582535
-0.009557,-0.365430,-0.393520,0.856175,-0.488620,-0.167974
0.584756,0.361863,0.291199,0.763064,0.562291,0.318689
0.735309,-0.327271,0.285979,-0.213554,0.776162,0.593268
0.574935,-0.298502,0.463655,0.634648,-0.769288,-0.073601
0.442857,0.327032,0.352210,0.850830,-0.499698,0.162451
0.200340,0.306110,0.405232,-0.418024,0.517853,-0.746380
-0.065936,-0.116976,0.854372,0.393398,0.305106,0.867265
0.364832,-0.095577,0.620155,0.895310,-0.114780,-0.430401
-0.711872,0.652995,0.113136,0.667567,0.492621,0.558282
-0.274454,0.338563,0.664370,0.819514,-0.565494,0.092807
-0.229899,-0.126843,0.519673,0.773673,-0.400340,-0.491079
-0.076807,-0.087257,0.738024,0.539336,-0.330571,0.774493
-0.092228,0.355681,0.535788,-0.420977,-0.418640,-0.804685
0.374015,-0.192583,0.328173,-0.374986,0.905860,0.196983
0.334319,-0.419163,0.383034,0.089889,-0.023572,0.995673
-0.162011,-0.147289,0.830767,0.954024,-0.299072,0.019855
0.659713,0.240014,0.309198,0.608432,0.556736,-0.565558
0.029823,0.316453,0.753209,-0.233435,-0.851496,0.469535
-0.050309,0.783999,0.565976,-0.495811,0.863628,-0.091203
-0.092228,0.419043,0.554151,0.346021,-0.483409,0.804105
0.190732,-0.196505,0.578142,0.348934,0.411822,0.841812
-0.063719,0.144556,0.748942,0.851007,0.316034,0.419415
0.308343,0.095696,0.256199,0.458771,0.046370,0.887344
-0.263370,0.330718,0.643352,0.981363,0.150192,0.119874
0.085255,-0.325606,-0.799557,0.394302,0.850509,-0.348080
0.825159,-0.535545,-0.467627,-0.400093,-0.782505,-0.477087
0.288708,-0.187589,0.653339,0.815193,0.576640,-0.054276
-0.438314,-0.009985,0.657743,0.212054,-0.849324,0.483407
-0.447607,-0.160723,0.376383,0.840399,0.414833,0.348774
-0.316585,-0.096291,0.580049,0.409626,0.858954,0.307254
-0.521726,0.388849,0.527731,-0.310904,-0.934723,0.172140
0.057913,0.314670,0.346105,0.806743,-0.589391,-0.042241
0.023070,0.591893,0.545594,0.811374,0.584135,0.021398
0.167185,-0.063720,0.432446,0.063876,-0.439893,-0.895776
-0.080191,-0.173442,0.811088,-0.314679,-0.949119,-0.012256
0.690864,-0.415121,0.361947,0.320664,0.864632,0.386763
-0.103312,0.754398,0.420961,0.180923,0.784305,0.593407
-0.867394,-0.011413,0.587970,-0.725760,0.629862,0.276669
-0.653063,-0.481930,0.672405,0.859321,0.214559,-0.464255
0.714089,-0.019258,0.493662,-0.517554,-0.836534,0.179858
-0.032465,-0.497623,0.673586,0.573751,0.235002,-0.784592
0.564696,0.178317,-0.224468,-0.078228,-0.022368,-0.996685
-0.366836,-0.363052,0.684912,0.865216,-0.032103,-0.500371
0.109118,0.331075,0.769801,0.919746,0.077797,-0.384726
0.484454,-0.333928,0.350349,-0.171908,0.917753,-0.358019
-0.212584,0.350809,0.372615,0.321522,0.589758,-0.740816
0.450880,-0.127675,0.455575,0.411065,-0.362521,-0.836423
0.394391,0.433428,-0.272746,-0.444536,0.493791,-0.747368
0.580000,0.141583,0.002917,0.423698,0.844168,0.328421
0.409915,-0.382669,0.685116,0.813253,-0.413405,0.409532
0.686321,-0.071920,-0.530704,-0.574423,0.802594,-0.160875
0.273081,-0.353662,-0.158645,-0.177785,-0.469979,0.864588
0.249747,0.190323,0.393020,-0.614987,-0.071385,-0.785299
0.656440,-0.801950,0.038143,-0.111220,0.983436,-0.143123
-0.391968,0.354018,0.719026,0.940734,0.272221,-0.202277
0.555932,0.178910,0.444453,-0.807621,0.208554,0.551591
0.760544,-0.598550,0.413834,0.772985,0.409168,-0.484847
0.063397,-0.343914,0.902151,0.730593,-0.548672,0.406440
0.404637,-0.332145,0.374227,-0.371093,0.033693,-0.927984
0.965369,-0.511175,0.146388,0.974318,0.058662,0.217399
-0.631102,0.000118,0.297055,0.435828,0.388955,0.811645
-0.075016,0.931169,-0.996187,0.088321,0.045078,0.995072
-0.007868,-0.143010,0.861113,0.721863,-0.605480,-0.335125
0.417197,-0.403470,0.469534,0.513963,0.118977,-0.849521
0.164969,-0.104138,0.387165,0.861315,0.507983,0.009514
0.758115,-0.234902,-0.565136,0.810366,-0.556674,0.182815
0.028979,-0.391939,-0.382875,-0.704182,-0.705754,0.077707
-0.254715,-0.012839,0.649867,0.292662,0.777658,-0.556415
-0.119467,-0.476224,0.719140,0.259325,0.875464,0.407815
0.101939,0.102473,0.720207,0.878612,0.199228,-0.433992
-0.561209,-0.587969,0.686886,0.913574,-0.187573,-0.360831
-0.512009,0.426651,0.492027,0.954352,-0.286155,-0.085606
0.191467,0.729077,-0.008001,0.808405,0.522731,0.270615
0.819456,-0.129339,-0.173535,0.748285,0.080206,0.658511
0.051366,0.006895,0.693196,0.590461,-0.239973,-0.770564
-0.353220,-0.339872,0.562957,0.790656,0.540521,0.287577
0.563007,-0.729196,0.082154,-0.295316,-0.750615,0.591072
0.084939,-0.021042,0.719094,-0.280144,-0.270245,0.921133
-0.256823,-0.354137,0.623969,-0.638024,0.600794,-0.481635
0.000052,-0.381241,0.472349,0.938139,0.342361,0.051819
0.131285,0.817403,0.193577,0.945267,0.314483,-0.087007
-0.021485,-0.074656,0.664212,-0.360354,0.539965,-0.760646
-0.308240,-0.230266,0.666844,0.165536,0.392972,0.904528
0.699416,-0.825250,-0.271157,0.800977,0.598394,0.018959
0.327141,-0.192226,0.309062,0.490835,-0.866403,0.091793
0.794962,-0.461009,0.155490,0.255695,0.011770,0.966686
-0.417835,0.257965,0.502514,0.460050,-0.175046,-0.870467
0.171200,0.697099,0.068172,0.022149,-0.996604,0.079309
-0.425013,-0.501546,0.625603,0.493307,0.752294,0.436695
0.093807,0.202212,0.728332,0.266570,0.497655,-0.825397
0.468086,0.157988,0.023095,0.891067,-0.029115,0.452938
-0.291453,0.272824,0.631936,0.940251,-0.289635,-0.178996
-0.218816,0.214931,0.582500,-0.274249,0.823904,-0.495953
-0.200553,-0.127556,0.539465,-0.627636,0.593083,0.504307
0.599429,0.360913,0.267026,0.543706,0.815790,-0.197158
-0.184082,0.527698,-0.982795,-0.068252,-0.199370,-0.977545
-0.076917,0.287447,0.541735,0.783251,0.495201,0.375890
0.059176,0.396457,0.542189,0.951268,0.230709,-0.204602
0.206462,0.235615,0.621835,0.783774,0.460930,-0.416223
0.183025,0.070495,0.752369,0.921958,-0.121871,0.367614
-0.217759,-0.181407,0.766373,0.170748,-0.791261,0.587155
-0.339913,-0.435450,-0.741860,0.097609,0.867916,0.487025
-0.190519,0.099500,0.756795,0.681437,0.721026,-0.125559
-0.215542,-0.504637,-0.659649,0.163809,-0.955303,0.246094
0.689066,-0.148241,0.200908,-0.127028,-0.919282,0.372537
0.502188,-0.716477,0.089122,-0.136894,-0.766027,0.628063
0.703108,0.084640,0.018465,0.063594,0.853973,0.516416
0.368209,-0.122564,0.322022,0.003476,0.992713,0.120455
0.911632,-0.367332,-0.210259,0.878425,-0.263751,0.398503
0.077967,-0.161318,-0.380083,-0.678298,0.654754,-0.333481
-0.001424,-0.357228,0.674539,0.594746,0.565497,0.571394
0.697933,-0.382311,0.156126,-0.287831,0.531748,0.796491
0.003854,-0.247385,0.685116,0.436229,0.528943,-0.727959
0.455945,0.555872,0.250684,0.607853,0.463721,0.644576
-0.020853,0.376960,0.364104,0.470535,-0.373564,0.799404
-0.047564,-0.253805,0.768303,-0.432278,0.570526,0.698309
0.055271,-0.051236,0.690859,-0.250202,-0.085234,0.964435
-0.217656,0.458393,0.650752,-0.602035,0.795447,-0.069418
-0.359973,0.605445,-0.985678,-0.038561,0.164483,0.985626
-0.034792,0.252733,-0.355342,-0.118090,-0.053591,0.991556
0.136885,-0.573229,0.674721,-0.586032,-0.630660,0.508758
-0.826532,0.660603,0.424343,0.291786,-0.734082,-0.613176
0.444752,-0.168806,0.466742,0.185063,-0.851006,-0.491468
0.711344,0.014622,0.514021,-0.257734,-0.870441,0.419411
-0.020112,-0.426653,0.539965,-0.494856,-0.862718,0.104092
-0.305076,0.037327,0.597367,0.093903,-0.503568,0.858837
-0.314575,0.186875,0.727402,0.432748,-0.791527,0.431526
0.463336,0.268901,0.039823,-0.651471,-0.728471,0.211935
0.640291,-0.603542,0.123373,0.537824,0.623632,-0.567300
0.743332,-0.371255,0.331828,-0.186818,0.972243,0.140862
0.418357,-0.623038,0.379833,0.007660,0.558218,0.829659
-0.395448,0.349024,0.649118,0.572600,-0.754698,-0.320251
-0.061187,0.683665,0.339772,-0.644054,0.743864,0.178496
-0.370322,0.330598,0.708313,0.961859,0.244284,0.123098
0.422687,0.539349,-0.233842,0.237175,0.211577,0.948147
0.161592,-0.305754,0.731215,-0.321621,0.869252,-0.375448
0.209311,0.135996,0.721977,-0.570633,-0.509338,0.644168
0.395029,-0.244770,0.452965,0.178719,-0.841225,0.510293
-0.336852,-0.208036,0.503285,-0.192937,-0.632107,0.750477
0.044187,-0.357346,0.819531,-0.276346,-0.951545,-0.134891
0.065511,-0.046482,0.554900,-0.319496,0.553406,-0.769197
-0.047351,0.776867,0.558009,0.492761,-0.854540,-0.164158
-0.171303,-0.143367,0.843001,0.478748,0.794968,-0.372594
-0.339706,0.286971,0.660852,0.963140,0.245608,0.109720
-0.206991,-0.427961,0.723952,0.778628,0.377748,0.501044
0.033310,-0.307300,0.779288,0.313182,0.858990,0.405034
0.447709,0.314432,0.301504,0.505001,0.097128,0.857637
0.818612,-0.166905,0.074210,-0.500613,-0.481279,-0.719553
0.636592,-0.309320,0.315690,0.180070,0.720502,0.669665
0.568285,0.244055,0.294694,0.256648,-0.082856,0.962947
-0.867078,0.641346,0.411587,0.765776,-0.634863,-0.102648
0.214060,0.161436,0.378608,-0.520962,0.419157,-0.743576
0.591619,-0.297907,0.368235,0.068805,-0.962168,0.263626
-0.084308,-0.017355,0.676990,0.096123,-0.297412,0.949898
-0.132026,0.553614,-0.982137,0.067564,0.219588,0.973250
-0.294624,-0.432953,0.457845,-0.462800,-0.099332,-0.880880
0.514966,-0.691512,0.417443,0.866448,0.420512,0.269142
-0.137517,-0.256896,0.605765,-0.557544,0.699592,0.446895
0.506099,-0.195554,0.296987,0.316451,0.948354,0.021995
0.427121,0.306943,0.273858,-0.024959,0.411163,-0.911220
0.354167,-0.636352,0.446564,0.649707,0.667923,0.362987
-0.406957,0.526866,0.388663,-0.356783,0.493870,-0.792968
-0.274248,-0.777699,0.448766,0.480440,0.875396,-0.053477
0.059808,0.727294,-0.994575,0.085952,0.010143,0.996248
0.419839,-0.548977,0.107235,-0.169540,-0.580008,0.796773
0.073643,-0.222540,0.689383,0.200238,0.079429,0.976522
0.117353,0.672849,-0.323271,-0.062310,0.490599,-0.869155
0.248374,0.763433,0.328900,0.859373,-0.418494,0.293838
0.566803,-0.622800,0.059343,-0.553008,0.753098,0.356408
-0.068997,-0.200191,0.941917,0.324748,0.872285,0.365593
0.873619,-0.118402,0.024638,0.872048,0.486123,-0.056715
-0.791057,0.377318,0.145617,0.436848,0.766454,0.470864
0.216702,-0.301475,0.418465,-0.447112,0.180223,-0.876134
-0.065092,0.221826,0.520876,0.858136,0.083513,-0.506585
0.181652,0.043152,0.736776,0.916266,-0.339993,-0.211806
0.425961,-0.573109,-0.171651,0.612491,0.442310,0.655146
0.005542,-0.364361,0.681099,-0.113227,0.656347,0.745914
0.463549,0.398122,0.393179,-0.122814,-0.978487,0.165770
-0.566809,-0.778174,0.495909,-0.451378,0.890952,-0.049623
-0.310251,-0.226106,0.463678,0.865301,0.173071,0.470426
0.191995,0.091297,0.283981,0.243567,0.108737,0.963769
-0.343186,0.325844,0.502673,-0.181365,0.670363,-0.719528
-0.013249,0.804208,0.429246,-0.669321,-0.626124,0.399972
-0.414245,0.283405,0.440799,0.020306,0.110392,0.993681
0.643984,-0.050998,-0.506304,-0.471130,0.121016,-0.873723
-0.310354,0.540775,0.675492,0.666488,-0.535008,0.519192
0.279100,0.020922,0.603246,-0.063227,-0.066718,0.995767
0.735206,-0.723014,0.355252,-0.127636,0.753965,0.644395
0.624136,-0.112220,0.218794,-0.646577,0.343297,-0.681238
-0.306236,-0.052189,0.682778,0.264352,-0.474427,0.839665
-0.268119,0.060272,0.648505,0.208438,0.159012,0.965023
-0.333791,0.489419,0.465267,-0.301528,0.947607,0.105458
0.363143,-0.027818,0.613777,0.993693,-0.081391,-0.077139
-0.066039,-0.013196,0.606696,0.491282,0.863832,0.111519
0.422055,-0.599857,0.376792,0.137464,0.324318,0.935907
-0.599958,0.594864,0.387074,0.264438,0.963882,0.031696
-0.011773,-0.766048,0.488101,-0.592652,0.634474,0.496193
0.160007,-0.436518,0.129183,0.475405,0.049008,0.878401
0.233701,0.429387,-0.215934,-0.633146,0.032851,-0.773335
-0.218816,-0.509034,0.748329,0.393641,0.901539,-0.179651
0.713876,-0.376487,0.355615,-0.086338,-0.104031,0.990819
-0.097293,-0.431764,-0.858208,0.780528,0.607926,-0.145608
-0.180911,-0.311461,0.139488,0.211690,0.977196,-0.016596
0.068256,-0.338445,0.572990,-0.810587,0.572854,-0.121602
0.688750,-0.309676,0.314736,0.286182,0.743047,0.604963
0.660029,0.240372,0.083629,0.820046,0.524323,-0.229371
0.413607,0.286376,0.245668,0.240202,0.965006,-0.105200
0.406641,0.558845,0.417942,-0.518279,0.472941,-0.712541
0.141003,0.013315,0.801873,-0.749233,0.653494,0.107678
-0.005542,0.352472,-0.599274,0.528493,0.492119,0.691747
-0.126117,0.696624,0.566362,0.998994,-0.044475,-0.005754
-0.677454,0.449833,0.108029,-0.519308,-0.695368,-0.496772
0.574194,-0.333691,-0.041911,0.398261,0.914975,0.064877
-0.834239,-0.123159,0.447540,0.824822,-0.024330,-0.564869
0.814391,-0.264622,0.391273,0.448659,0.852473,0.268321
-0.055271,-0.454352,-0.688158,0.895105,-0.422482,0.142462
0.210264,-0.007370,0.655405,0.536693,0.691190,-0.483960
0.387322,0.291488,0.310038,0.606686,0.635610,0.477422
0.568703,-0.045887,0.466629,-0.116473,-0.624263,-0.772483
-0.497548,-0.014859,0.519514,0.839203,-0.216381,0.498917
-0.006180,0.579054,0.515179,0.897691,-0.178584,-0.402813
0.067624,-0.290300,0.772025,-0.096416,0.825411,0.556238
-0.636070,0.580599,0.104557,0.120689,0.969909,0.211448
0.838885,-0.584166,-0.503603,0.518401,0.385945,0.763090
-0.105947,0.499999,-0.981274,0.043365,0.215792,0.975476
0.168977,0.604850,0.375543,-0.260699,0.007174,0.965393
0.286594,-0.546838,0.686886,-0.723870,0.665063,0.183585
0.052423,0.913813,0.378789,0.118712,-0.878622,0.462528
0.457846,0.436519,0.395222,0.686489,-0.585298,0.431462
0.298103,0.529244,0.118334,0.606563,0.420900,-0.674481
0.081034,-0.354375,0.500153,0.779775,-0.388129,0.491230
-0.005336,0.894437,0.371367,-0.368935,0.741846,0.559957
0.764559,0.034594,-0.580367,0.938923,0.302743,-0.163614
0.776062,-0.793509,0.073665,0.706216,0.576354,0.411188
0.547380,0.428674,-0.244147,0.591598,0.745756,0.306366
-0.305392,0.008083,0.565136,0.805701,-0.553871,-0.209933
0.681043,-0.512958,0.413993,0.240026,0.969295,-0.053428
0.063925,0.416310,0.543801,-0.140276,-0.708347,0.691785
0.470940,-0.589634,-0.444022,-0.554020,0.616281,-0.559696
-0.055168,0.657749,-0.988674,0.065309,0.118275,0.990831
-0.011348,0.437352,0.374704,0.151705,-0.625221,0.765561
-0.811014,-0.130409,0.456188,0.064484,0.811163,-0.581254
0.005123,-0.128270,-0.183476,0.590669,-0.787875,-0.174248
-0.194212,-0.057538,0.871146,-0.626811,0.774513,-0.085070
-0.028135,-0.611031,0.604335,0.803141,-0.423963,-0.418593
-0.364935,-0.231574,0.611803,0.755236,-0.169135,-0.633254
-0.584227,0.521754,0.231981,0.771424,0.269954,0.576220
0.530065,0.162149,0.295307,-0.064126,0.376599,0.924154
0.357859,0.213028,0.195597,0.791941,0.006752,0.610561
-0.154098,-0.061222,0.855144,-0.698959,0.678534,0.225938
0.020112,0.714574,0.411746,0.054782,-0.822641,0.565915
0.082723,0.936281,0.504534,0.912464,-0.213331,-0.349141
0.292400,-0.281859,0.678352,0.084865,-0.988501,0.125155
-0.284062,-0.089396,0.731079,0.815185,-0.520624,-0.253818
0.633318,-0.098311,0.478568,-0.636829,0.184133,0.748695
0.464181,0.198288,0.025773,0.839504,-0.212987,0.499869
0.193683,0.048263,0.546706,-0.212592,0.843768,-0.492809
0.516655,-0.424750,0.397401,0.265026,0.114824,0.957380
-0.067412,-0.298622,-0.330534,0.813792,0.576119,-0.076345
-0.296415,0.536971,0.411201,0.859644,0.499600,0.106826
0.271812,-0.206373,0.442479,0.881463,0.388516,-0.268475
-0.198439,0.347955,0.505623,0.377424,0.755666,-0.535275
0.507788,-0.104375,0.295670,0.046709,0.299114,0.953074
0.968218,-0.187709,0.204335,-0.142826,-0.945866,0.291443
-0.323551,-0.404066,0.575509,-0.134895,0.948808,0.285599
0.764765,-0.018308,0.216637,-0.297849,-0.882552,-0.363851
-0.049040,0.606513,0.495069,0.116569,0.777732,0.617693
-0.147022,0.119116,0.595642,-0.434770,0.122566,0.892162
-0.007971,0.456133,0.552131,0.658193,0.737077,-0.153295
0.842474,-0.368640,0.143755,-0.381748,0.285710,-0.878998
0.567756,-0.003328,0.460977,-0.190074,0.216307,0.957645
-0.529434,-0.749763,0.500199,0.506258,-0.857938,0.087440
-0.385737,-0.697099,0.410293,0.166880,0.985945,-0.007997
0.065195,-0.213980,-0.423095,0.612454,-0.782440,-0.112642
-0.426283,-0.035426,0.651660,0.889424,-0.211923,-0.404986
0.221561,0.698525,0.320615,0.790813,-0.611887,-0.014440
-0.338863,0.493818,0.372252,0.079414,-0.400074,0.913036
-0.147441,-0.343914,0.774681,-0.152082,0.988256,0.014864
0.034998,-0.273657,0.454894,0.881632,0.273527,0.384589
-0.114080,-0.602116,0.444499,0.850959,0.151219,-0.502993
0.573137,-0.764740,0.481791,0.521893,0.847934,-0.092931
0.068784,0.166904,0.760064,0.634792,0.115573,-0.763991
-0.300746,-0.200904,0.718686,0.813011,0.529519,0.242120
-0.033522,-0.222896,-0.593327,-0.686036,0.441381,0.578392
-0.135513,0.217547,0.698258,0.185907,0.799477,0.571205
-0.558045,0.575843,0.380219,0.247992,0.964986,0.085453
0.626249,0.206609,0.469580,0.779756,-0.291579,-0.554042
-0.045032,-0.348906,0.879249,-0.334166,0.941928,0.033225
0.210470,-0.129221,0.657629,-0.165182,-0.847219,0.504910
0.472313,0.230979,0.270612,0.815159,0.524764,0.245231
-0.332315,-0.137304,0.715077,0.979784,-0.056327,0.191963
-0.686534,-0.088208,0.392907,0.733063,0.653097,0.189955
0.275195,-0.355088,0.593599,0.683550,0.591963,-0.427012
-0.332315,0.588445,0.388458,0.229426,0.971939,0.051953
0.178269,0.140157,0.735641,0.821966,0.524018,0.223110
0.182703,0.107702,0.553810,-0.075245,0.746301,-0.661342
-0.194534,0.183904,0.456892,-0.426999,0.580482,-0.693335
-0.004170,-0.295887,0.468604,0.931802,0.237233,0.274709
-0.692552,0.084640,0.306928,0.399995,0.801599,0.444346
0.254393,-0.117690,0.574669,-0.622049,0.321564,0.713899
-0.521933,-0.222778,0.580866,-0.437213,0.897134,0.063202
0.082407,-0.514623,0.518062,0.941213,0.233666,-0.243966
0.406641,0.374109,0.401033,-0.094173,0.225210,0.969748
0.590665,-0.342844,-0.134949,0.202121,0.713410,0.670965
-0.084727,0.346172,0.532270,-0.758363,0.342234,0.554763
0.689169,-0.209939,0.206923,-0.106487,0.947683,-0.300928
-0.352904,-0.241559,-0.203813,0.052649,-0.988856,0.139258
0.008184,0.268783,0.729967,-0.498523,0.858491,0.120284
0.474420,-0.368284,0.076343,0.550304,-0.716111,-0.429361
-0.345088,0.296719,0.658492,0.837747,0.545385,-0.027131
-0.586547,-0.063362,0.528843,0.933144,0.347571,-0.091852
0.149239,0.047788,0.697691,-0.452168,-0.761420,0.464526
0.618542,-0.071445,0.495228,0.520117,0.512891,-0.682950
-0.113764,-0.765573,-0.188379,0.869195,-0.494424,-0.006758
0.507362,-0.299335,0.273336,0.000038,-0.439297,0.898342
0.080396,-0.314907,0.691403,0.972409,-0.202452,-0.115904
0.383835,-0.015812,0.579504,0.747799,0.212464,-0.629012
-0.510636,0.471707,0.083834,-0.354774,-0.265693,0.896405
-0.151984,-0.364243,0.693945,0.997679,-0.059624,-0.032901
0.177322,0.442343,0.397401,0.800384,0.041992,-0.598015
0.629310,-0.081431,0.213959,-0.598095,0.374513,-0.708535
0.057803,0.066451,0.651229,-0.490059,0.869620,0.060031
-0.139527,-0.174513,0.843659,0.370854,0.798876,-0.473567
-0.154304,-0.415716,-0.587675,0.664608,-0.375253,-0.646128
-0.119042,0.578339,0.557260,0.002166,0.890484,0.455009
0.181755,0.126128,0.410679,0.394820,-0.865991,-0.306882
0.657606,-0.753091,0.255813,0.528090,0.222211,-0.819599
-0.406538,0.548620,0.396856,-0.080375,-0.949654,-0.302816
0.328616,0.237636,0.315758,0.321489,-0.847130,0.423102
0.499552,0.010223,0.439823,-0.252602,-0.600280,0.758852
0.519297,-0.616618,0.036986,0.100830,0.839874,0.533334
-0.264427,-0.232644,0.700777,0.586679,0.809252,-0.030304
-0.312255,0.126961,0.710083,0.749936,-0.307570,0.585658
0.099194,-0.369829,0.637996,-0.711755,-0.681687,-0.169435
0.071845,0.630646,0.545639,-0.208006,0.072185,0.975460
0.223778,0.320375,0.390569,0.810066,-0.349959,0.470449
-0.046191,-0.092249,0.668933,0.847108,0.167592,-0.504303
-0.610197,-0.781858,0.763219,-0.265558,0.863822,0.428124
0.409174,0.614241,0.229098,-0.340707,0.067833,0.937719
-0.403684,0.063838,0.620155,0.633192,-0.700306,0.329603
-0.708708,-0.055397,0.608625,0.497807,-0.458896,-0.735937
-0.380350,0.419994,0.714555,-0.612924,-0.053171,-0.788351
-0.023386,0.611865,0.552766,0.116878,0.185014,0.975761
0.835399,-0.182478,-0.167497,-0.652761,0.156780,-0.741164
-0.035210,-0.338090,0.505669,-0.242965,-0.196879,0.949846
-0.509901,-0.138018,0.487147,0.182578,-0.794478,0.579198
-0.188090,-0.049928,0.804801,-0.339079,0.086431,0.936779
0.647257,-0.332145,0.324269,0.204491,0.864253,0.459620
0.351106,0.455540,-0.007002,-0.209920,-0.930995,0.298635
0.688010,-0.076557,-0.134427,-0.334882,-0.798620,-0.500060
-0.029404,0.260580,0.636611,-0.333305,0.561553,0.757342
-0.462280,-0.556704,0.441866,0.314474,0.546646,-0.776070
0.936442,-0.507966,-0.200159,0.953542,0.270616,0.132378
0.785882,-0.957086,-0.267707,0.804349,0.586496,0.095111
0.411391,-0.115669,0.077819,0.517512,-0.012988,0.855578
0.332734,0.139682,0.573784,0.902170,-0.327392,-0.280899
0.257564,-0.482288,0.691222,0.255877,-0.344370,0.903292
0.068572,-0.351046,0.838506,0.861643,0.484937,0.149689
0.068468,-0.356515,0.596278,0.711350,0.308951,-0.631293
0.060445,0.676770,0.448335,0.971054,-0.123346,0.204550
-0.285963,-0.778530,0.461454,0.519134,0.743090,-0.422276
0.488784,0.347123,0.091619,0.472007,-0.877904,0.080590
-0.700260,-0.156444,0.456687,-0.251246,0.804245,-0.538578
-0.274982,0.399905,0.648232,-0.444700,0.887827,0.118343
0.423003,0.569186,-0.011496,-0.515820,-0.856695,0.001720
-0.234861,-0.501546,-0.695897,0.330248,-0.931143,0.154627
0.910466,-0.184736,-0.193577,0.771007,0.597809,0.219484
-0.472100,0.076795,0.527731,-0.440357,0.311299,-0.842128
0.549281,0.083334,0.054145,-0.092169,-0.937227,0.336318
0.121471,0.242154,0.509119,0.966020,-0.033199,0.256325
-0.850497,0.549452,0.413448,0.903652,-0.341107,-0.258958
0.513910,0.440442,-0.980730,0.029516,0.265953,0.963534
-0.592779,-0.698882,0.567815,0.989869,0.134551,-0.045346
0.390486,-0.133737,0.624695,0.728871,0.097778,-0.677633
-0.338225,0.352472,0.682619,0.806567,-0.085261,0.584962
-0.591406,-0.412388,0.166998,0.834011,0.549829,-0.045978
-0.183444,0.800880,0.134517,0.399309,-0.312707,-0.861839
0.217443,0.015098,0.821710,-0.625140,0.766284,0.148351
0.085996,-0.143843,0.533201,0.691271,0.722418,0.016028
0.729612,-0.128031,0.217001,0.173871,-0.761220,0.624751
0.000896,-0.062649,-0.342314,-0.900774,0.409137,-0.145648
0.166657,0.024488,0.831266,-0.084376,0.995028,-0.052918
-0.149451,0.183429,0.692947,-0.025668,-0.522168,0.852456
0.557407,-0.776866,-0.015060,0.413342,0.899509,0.141537
0.278571,-0.288992,0.657970,0.290349,0.155148,0.944260
0.091803,0.066809,0.771480,-0.205860,0.420174,0.883785
0.600698,0.187470,-0.540033,0.484185,-0.591852,0.644419
0.226735,-0.574417,0.470465,0.715567,0.697141,-0.044259
0.039644,0.280790,0.521126,0.145587,-0.485555,0.861998
0.544635,-0.034713,-0.510980,-0.633269,-0.244308,0.734360
0.330620,0.652638,0.419304,0.721563,0.031624,-0.691626
0.111753,0.974560,0.145639,0.292904,0.953283,-0.073888
0.107532,0.074537,0.725382,0.459084,0.862914,0.211239
-0.076176,-0.275440,0.476026,0.681019,0.505682,0.529621
0.871827,-0.430099,0.150360,0.012383,0.697337,0.716637
0.411706,0.610199,0.191965,0.794393,0.577422,-0.188475
-0.196010,-0.807299,-0.344516,0.994292,-0.100840,-0.034853
-0.289765,-0.527460,-0.674267,0.341946,-0.787457,0.512820
-0.359129,0.044104,0.641400,0.365341,0.926619,-0.088901
-0.187562,0.264502,0.512818,0.374928,-0.155895,0.913852
0.018952,0.430100,0.549838,0.491835,-0.606957,0.624261
-0.619277,0.024013,0.312648,-0.296329,-0.647748,0.701863
-0.942461,-0.138969,-0.334324,-0.332885,-0.924646,0.184979
0.592991,0.173085,-0.616410,0.623607,-0.725836,0.290303
0.062450,-0.182597,0.763650,0.744151,0.613860,0.263467
0.068997,-0.239183,0.696283,0.646683,0.555543,0.522660
0.056218,-0.091416,0.425410,0.009272,0.330369,0.943806
0.011664,-0.213148,0.485831,-0.507789,0.038686,0.860612
0.362718,-0.310746,0.682006,0.866817,-0.274382,-0.416344
0.684207,-0.256181,0.499223,0.068621,0.870875,0.486692
-0.074384,-0.150975,0.938194,0.839286,0.543625,0.008417
-0.360817,-0.183310,0.751098,0.960173,0.054473,-0.274044
0.672705,-0.567047,-0.155422,-0.614631,0.731111,-0.296151
0.089586,-0.142890,0.841525,0.512385,0.611347,-0.603089
-0.128437,0.149667,0.417171,-0.724665,-0.687716,0.043683
0.486354,-0.700428,0.464518,0.424357,0.899319,-0.105578
0.506731,-0.291488,0.478432,0.425697,0.819418,-0.383844
0.740381,-0.050643,0.532270,-0.111829,-0.115303,0.987015
0.519084,-0.300405,0.441003,0.968476,0.198680,0.150267
0.372539,-0.300643,0.176372,-0.770344,-0.612123,0.178537
0.331361,0.359129,0.376292,-0.408459,0.454619,-0.791507
0.070472,-0.077865,0.766192,0.483965,-0.584020,-0.651689
0.429337,0.284118,0.279578,0.865475,-0.117387,-0.487004
-0.015363,0.064075,0.866220,0.640723,-0.539748,0.546028
0.024655,0.291370,0.772910,0.891150,0.005780,-0.453673
0.493005,-0.238468,-0.160143,0.243748,-0.175815,0.953769
-0.071001,0.524727,0.506758,0.928303,-0.369555,-0.041021
-0.033310,-0.439372,0.665800,0.762664,-0.643071,-0.069307
0.676294,-0.353424,0.339568,-0.213626,0.960289,-0.179468
-0.029507,-0.058251,0.778017,0.168211,0.796582,0.580657
0.057172,0.386946,0.540827,-0.269118,-0.588060,0.762732
0.031408,-0.019258,0.518970,0.867624,0.442947,-0.225888
0.709758,-0.277936,-0.156489,0.892583,0.408024,0.191862
0.261359,0.417023,0.227691,-0.150161,-0.298070,0.942659
-0.126646,0.755350,0.451194,0.805916,-0.327159,0.493423
0.302750,-0.583570,0.434262,0.756950,-0.652649,-0.032812
0.479279,-0.008678,-0.071327,0.644839,0.567525,0.511956
-0.597000,-0.430099,0.190444,0.834011,0.549829,-0.045978
-0.061077,0.405016,0.541758,-0.381592,0.846830,-0.370495
0.665101,-0.028649,-0.542166,0.157648,0.828594,0.537195
-0.095920,-0.094983,0.667344,-0.244399,0.536251,-0.807901
-0.297575,-0.469091,0.662396,-0.721284,-0.221946,0.656117
-0.427759,-0.018426,0.640765,-0.682023,0.493264,-0.539940
0.518452,0.149785,-0.232389,-0.230002,0.967010,-0.109499
0.500712,-0.711721,0.465403,0.429558,0.902661,-0.026139
0.173095,0.021042,0.728287,-0.250867,0.807753,0.533480
-0.186614,0.582620,0.526755,-0.307918,0.799345,-0.515980
-0.004807,0.315621,-0.783238,0.550362,-0.087550,-0.830323
0.650106,0.022110,0.493775,0.525982,0.105276,-0.843955
-0.016735,-0.490728,0.504806,0.694486,0.702514,0.155442
0.118410,-0.484664,0.544232,0.755915,-0.016516,-0.654462
-0.389854,-0.478007,0.614345,0.473086,-0.766027,-0.435193
0.676713,-0.796958,-0.393020,0.281577,0.884567,-0.371828
-0.082194,0.680574,0.462952,0.337813,-0.818455,-0.464774
0.419626,0.040538,-0.708926,0.699898,-0.619890,0.354793
0.527951,-0.384451,-0.051217,0.289773,0.064623,0.954911
-0.197486,-0.780790,0.294127,0.081988,0.996629,-0.002857
0.342658,0.641346,-0.285683,0.861461,0.484770,-0.151272
0.858630,-0.438064,0.398196,-0.712035,-0.411899,-0.568635
0.952804,-0.576082,-0.503989,-0.820826,-0.352942,-0.449085
-0.193368,-0.023420,0.701186,0.998828,0.028653,0.039011
0.033941,0.919400,0.367372,0.244621,-0.967088,0.070006
-0.463446,-0.336187,0.511797,-0.389021,0.705316,-0.592614
0.100457,-0.140039,-0.467786,-0.509811,0.859733,0.030857
0.330942,0.133738,0.548045,-0.833864,0.096671,0.543439
-0.301165,0.199358,0.622130,-0.513520,-0.276093,0.812447
0.410018,-0.239896,0.701890,0.359508,0.406557,0.839920
0.083354,0.261531,0.516155,0.909109,0.360535,0.208652
-0.118829,-0.000595,0.532611,0.993689,-0.055333,0.097570
0.806471,-0.366026,0.154900,0.292127,0.550358,0.782156
-0.769837,0.055873,0.353345,-0.780957,0.592372,0.197992
-0.594680,0.439253,0.245214,0.092702,0.414419,0.905352
0.367468,-0.295411,0.670408,0.836956,-0.431269,-0.336914
0.277302,0.405016,-0.980616,0.013523,0.244539,0.969545
0.524787,-0.290657,0.458866,0.388623,-0.909094,-0.150069
-0.472416,-0.037567,0.642218,0.950655,-0.076715,0.300617
-0.123159,0.053375,0.855507,0.992406,-0.114291,0.045473
0.062024,0.091537,0.589922,-0.747746,0.153717,0.645947
-0.035952,-0.112815,-0.183749,0.990033,-0.114886,0.081462
0.651272,-0.452093,0.391137,0.304139,0.640750,0.704939
-0.144277,-0.247028,0.782761,-0.668221,-0.727534,-0.155483
0.497226,0.083334,0.450445,0.693072,-0.665934,-0.276012
-0.472841,-0.438184,0.497997,-0.630777,0.669878,-0.391641
-0.300643,-0.354850,0.424252,0.796196,0.523320,0.303658
0.369265,0.344270,-0.278874,0.767606,-0.269143,0.581673
0.241827,0.082976,0.366691,-0.358452,-0.932693,-0.039945
-0.315419,-0.224916,0.704522,0.763991,0.634855,-0.115226
0.935804,-0.122564,0.071282,0.025082,0.285667,0.958001
-0.017051,-0.108774,0.693196,0.295466,-0.037354,0.954623
0.932008,-0.151093,0.060342,0.771374,-0.099271,-0.628592
-0.679781,-0.120661,0.400397,0.071831,-0.118725,0.990326
-0.141635,0.276628,0.512864,-0.216554,0.173771,0.960681
-0.088529,-0.266642,0.842184,-0.293542,-0.955025,-0.041962
0.575038,0.302901,0.259105,-0.041090,0.453171,0.890476
-0.647998,0.223371,0.243693,0.849654,0.204857,-0.485923
0.344140,-0.352829,-0.161301,-0.020212,-0.233223,0.972213
0.323867,0.270446,0.326380,0.875542,0.247586,0.414883
-0.063822,0.016286,0.842569,-0.006546,-0.998592,-0.052641
0.197170,0.829054,-0.423458,-0.814538,0.571202,-0.101269
-0.084521,0.936281,0.274130,-0.284276,-0.958201,0.032218
-0.646626,-0.480267,0.349600,0.795970,0.585071,-0.155317
-0.437154,0.293271,0.481745,0.538787,-0.699745,0.469111
0.466926,-0.186994,-0.021801,0.872143,0.339987,-0.351818
0.410333,0.201497,0.303478,0.257551,-0.788843,0.558028
-0.066039,-0.058726,0.830835,0.157779,0.918518,-0.362534
0.123578,-0.210652,0.645009,-0.353429,0.743094,-0.568243
0.629839,0.247979,-0.598025,0.654286,-0.756220,0.006375
0.387741,0.259628,0.307791,-0.363370,0.715807,-0.596308
-0.217230,0.159653,0.708812,0.308971,0.822082,0.478245
0.612414,0.212078,-0.549747,0.484185,-0.591852,0.644419
-0.675553,0.598788,0.354616,-0.236881,0.788286,-0.567884
0.682835,0.100095,-0.180276,0.181235,0.980539,0.075476
0.608509,-0.365906,0.349668,0.879567,0.459007,0.125198
0.161270,0.603662,0.159916,0.780670,0.293920,0.551512
0.524046,-0.277105,0.371299,0.058487,-0.533511,0.843769
0.727918,-0.392535,-0.130886,-0.377338,-0.762333,-0.525799
-0.307080,-0.321089,0.760949,-0.306046,0.912339,0.271981
0.963997,-0.275797,0.141440,-0.476880,0.547854,0.687344
-0.252815,-0.443771,0.722000,0.931294,0.157828,0.328302
-0.058441,-0.120781,0.789616,0.133765,-0.936581,-0.323918
-0.690439,0.186282,0.279510,0.419286,0.775122,0.472637
0.366307,-0.241322,0.339976,0.783684,0.620046,0.037166
0.165916,0.703281,-0.186359,0.937378,0.348038,-0.013871
-0.005755,-0.520923,0.684753,-0.391478,0.784280,-0.481300
-0.085784,-0.473372,-0.688112,0.861773,-0.473825,0.181212
0.019796,-0.073228,0.850809,0.622533,0.695880,-0.358056
0.200759,0.720637,-0.470079,0.816857,-0.417121,0.398440
-0.360817,0.067642,0.293151,-0.293592,0.921714,0.253472
0.743861,-0.379102,0.347693,-0.388630,-0.520280,0.760444
0.127696,0.369115,0.209079,-0.441265,-0.467792,0.765804
0.761601,-0.034475,0.489009,-0.303138,0.922670,0.238302
0.137729,0.888968,0.351552,-0.412317,-0.773797,0.480868
0.059279,-0.394793,0.672927,0.320992,0.903969,0.282497
0.149554,-0.582382,-0.247801,-0.049775,-0.956311,0.288083
-0.400939,-0.335354,-0.601929,-0.201507,0.971600,-0.124048
0.071214,-0.421896,0.427317,-0.614333,-0.360489,-0.701885
-0.271290,-0.474323,0.614663,-0.606308,-0.696800,-0.383224
-0.263898,0.239181,0.681666,-0.565067,-0.795549,-0.218637
-0.113132,0.878507,-0.991307,0.161047,0.133155,0.977923
-0.062237,-0.681169,0.614050,0.128262,0.913965,0.384990
-0.163809,0.589515,0.611462,0.677871,0.636278,-0.368296
0.092221,0.558963,-0.336140,-0.582021,0.253983,-0.772492
-0.337490,-0.036376,0.607082,-0.261128,0.951468,-0.162852
-0.258305,0.622325,-0.983703,0.021560,0.145794,0.989080
0.872987,-0.185331,0.068535,-0.102735,0.336541,0.936048
-0.976879,-0.179507,0.537491,-0.339764,-0.745476,0.573434
-0.507156,0.311817,0.334892,-0.598650,-0.267922,0.754874
-0.420051,0.149190,0.403348,0.758041,-0.649403,0.060421
0.240351,0.106634,0.748125,0.801064,-0.595049,-0.064916
-0.232960,-0.534832,0.734438,-0.602372,0.622086,0.500157
-0.115027,-0.270328,0.855462,0.025117,0.309408,0.950598
-0.013887,0.850808,0.323203,0.193836,-0.792154,0.578722
0.574407,-0.704946,0.076820,-0.533454,-0.800859,0.272124
-0.156843,0.568949,0.477206,-0.913203,0.376119,-0.156824
-0.085152,0.637778,0.468399,-0.462914,0.579525,-0.670717
0.189037,-0.453639,0.611962,0.805404,-0.449898,-0.385896
-0.116612,-0.235377,0.818918,0.762117,-0.299776,-0.573857
0.346247,0.130289,0.338342,0.892669,-0.324287,-0.313017
0.792217,-0.103185,-0.142371,0.720589,0.558585,0.410772
0.656021,-0.623752,0.404347,-0.686557,0.633923,-0.356063
0.471887,-0.462316,0.120059,0.388381,0.503107,-0.772038
0.773110,-0.175820,0.208852,-0.137426,0.545351,-0.826865
-0.274982,-0.078102,0.675061,0.986321,-0.036482,-0.160747
0.065620,0.213148,0.511252,-0.580709,0.260035,-0.771466
0.339809,-0.447457,0.009272,-0.169988,-0.973761,-0.151305
0.004485,-0.091894,0.690268,0.730582,-0.253237,-0.634130
0.401254,0.267475,0.170493,0.939737,0.171945,0.295515
0.195166,0.721350,-0.325314,0.103364,0.287067,0.952317
0.178166,0.728364,0.195665,-0.289193,0.852822,0.434812
0.581901,0.002734,0.456733,0.698292,0.668406,0.256168
0.088213,0.135876,0.566498,-0.813893,-0.065328,0.577330
-0.493321,-0.063005,0.536878,0.353643,0.614575,-0.705148
-0.184288,-0.053257,0.489848,0.152391,0.988084,-0.021620
0.205824,0.105444,0.741792,0.436052,-0.279584,-0.855390
0.158421,-0.538160,0.610872,0.808457,-0.572686,-0.135749
-0.281529,-0.241797,0.781853,0.814565,-0.285953,-0.504693
0.125163,0.751069,0.349713,-0.673739,-0.733200,0.092158
0.732145,-0.335116,-0.153515,0.539027,0.765864,0.350574
-0.293986,-0.007727,0.768530,0.602066,-0.052351,-0.796729
0.030880,0.153471,0.719117,-0.524794,-0.750671,0.401353
0.607561,0.220400,-0.365420,-0.594211,-0.760923,-0.260594
0.363878,-0.439729,0.098928,0.716138,0.355034,-0.600913
0.186930,0.856395,-0.079566,0.244490,0.969609,0.009123
0.703739,-0.216358,0.520672,-0.765762,0.343483,0.543717
-0.093388,-0.268545,0.676173,-0.192116,0.008334,-0.981337
0.400726,0.491916,-0.253884,0.160918,-0.495945,0.853313
-0.066039,0.753805,0.242059,-0.411543,-0.908555,0.071834
-0.553083,0.047550,0.684503,-0.029530,-0.985682,0.166012
-0.055271,0.300761,0.515179,-0.712258,0.062343,0.699144
0.067837,-0.519020,-0.348647,0.527649,0.831053,-0.175892
0.079765,0.172253,0.708744,0.227335,-0.827002,0.514186
0.074590,0.337255,0.783737,0.795829,-0.215354,-0.565931
0.097712,-0.289467,-0.773637,-0.518633,0.223364,-0.825305
0.369581,-0.152638,0.618453,0.950532,0.221297,-0.217984
0.869501,-0.430339,0.353640,-0.185641,0.916898,-0.353320
0.343289,0.102115,0.321387,0.902003,-0.001019,-0.431729
0.352479,-0.310391,0.670476,-0.068630,0.943548,0.324047
-0.034998,0.588325,0.303070,0.438975,0.193950,0.877317
0.101095,-0.439610,0.184906,0.605812,-0.096196,0.789771
0.698990,-0.269378,0.138898,0.330870,0.761913,0.556788
0.166025,-0.589634,0.101787,-0.626153,0.743379,-0.235200
0.228842,-0.253448,0.716280,-0.448609,0.107184,0.887278
-0.031093,-0.183548,0.813471,0.156333,0.987649,-0.010472
0.293141,-0.471944,0.356909,-0.199611,0.850460,0.486696
-0.158737,-0.180694,0.746105,0.445372,-0.700115,0.558107
-0.414136,0.360317,0.703637,0.962109,-0.080578,0.260487
0.319749,0.121969,0.122170,0.875056,0.043269,-0.482083
0.037427,-0.140039,0.803303,0.822512,0.563790,0.074935
0.402736,0.379220,0.305952,-0.103181,0.614086,0.782465
-0.020956,0.199596,0.366646,0.135166,-0.445256,0.885143
0.067096,0.149905,0.722022,-0.310378,-0.670245,0.674119
-0.319008,-0.082146,0.722476,-0.157893,0.471301,0.867724
0.423325,-0.099026,0.630846,0.344296,-0.912901,-0.219253
0.059176,0.754280,0.076593,0.680550,0.646326,0.345129
0.869082,-0.470637,-0.193894,0.957505,0.287220,0.026235
-0.712297,0.513671,0.354185,0.181513,-0.811349,0.555667
0.358285,-0.268427,0.655042,0.664026,-0.055206,-0.745668
-0.429550,0.558605,0.397832,-0.212272,0.967589,0.136795
0.189675,0.237398,0.310628,-0.136977,0.497239,0.856732
0.364935,-0.400737,0.404392,0.276888,0.942505,0.187129
0.042286,0.816214,0.556466,-0.008292,-0.967019,0.254570
0.428390,0.262126,0.125393,0.802204,-0.293200,-0.520099
0.280898,-0.120543,0.436396,0.890290,-0.205467,-0.406408
-0.346247,-0.192820,0.680054,0.765333,-0.628384,0.139278
0.834451,-0.381598,0.397401,0.342538,0.164048,0.925071
0.680728,-0.753924,0.435669,0.087038,0.785877,0.612227
0.217862,-0.010818,0.496022,0.888647,0.452115,0.076798
0.634801,-0.279126,0.331260,0.210025,-0.974448,-0.079628
0.083670,0.994531,0.385326,-0.173322,0.981675,-0.079210
0.603122,-0.106871,0.057731,-0.074604,0.979985,0.184565
0.979199,-0.252140,0.138331,0.904165,-0.045229,0.424782
-0.536503,-0.338445,0.466493,0.751944,0.654736,0.076824
-0.636489,-0.482881,0.671702,0.859321,0.214559,-0.464255
-0.057913,-0.119948,0.982886,0.771559,0.635110,-0.036483
0.300746,0.114479,-0.652840,-0.531047,0.842197,0.093239
0.046191,0.216595,-0.162980,-0.463609,0.858695,-0.218424
0.412976,0.537803,-0.258741,0.507679,0.816113,-0.276081
0.004801,-0.164884,0.995279,-0.733842,-0.669803,0.113316
0.296834,0.343794,0.645554,-0.330167,-0.898463,0.289402
-0.299476,0.358297,0.470851,0.861823,-0.160789,0.481049
-0.546749,0.611032,-0.973898,0.103107,0.099627,0.989668
-0.268119,0.575011,0.367667,-0.131537,-0.977158,0.166916
-0.062978,-0.184381,0.835034,-0.009685,-0.993620,0.112367
0.798661,-0.463624,0.158690,0.046110,-0.120701,0.991617
-0.103628,-0.134095,0.946683,-0.024826,-0.814337,0.579861
0.601330,-0.269615,0.484446,0.789077,0.381140,-0.481757
0.134559,0.451498,-0.087193,0.798497,0.266376,-0.539858
0.556988,-0.193176,0.447086,-0.037974,-0.639628,0.767746
-0.791167,0.647171,0.414447,0.221771,0.736178,0.639422
0.174152,-0.080480,-0.681076,-0.367629,0.924344,-0.102159
-0.126330,-0.150142,0.941781,-0.388710,-0.872358,0.296473
-0.106689,-0.555159,0.655087,0.814907,-0.062133,-0.576252
0.119357,0.032335,0.541236,0.343831,-0.613582,0.710843
0.414664,0.363171,0.277399,0.032097,-0.981874,0.186797
-0.589718,-0.581312,0.677490,0.873806,-0.220597,-0.433359
0.358072,-0.008797,0.156466,-0.256158,-0.908006,-0.331525
-0.588133,-0.779125,0.552539,0.656991,-0.736617,0.160495
0.739324,-0.528768,0.166158,-0.009489,-0.270195,0.962759
-0.253975,-0.277698,0.445588,0.195852,-0.486524,0.851432
0.306339,-0.388848,0.575759,0.978658,-0.106082,-0.175998
0.516229,-0.116976,-0.506463,0.246791,0.848047,0.468947
0.777962,0.075724,0.039959,-0.043466,0.257666,0.965256
0.095707,0.845339,0.396834,-0.564283,0.495606,-0.660272
-0.024868,-0.518427,0.436668,0.058133,0.458324,0.886882
0.473576,-0.131954,0.459956,-0.496763,-0.099652,-0.862146
0.040488,-0.365311,0.449311,0.807892,-0.019265,0.589016
0.735309,-0.193889,0.101402,0.335294,0.847556,0.411373
-0.817452,0.697337,-0.983340,0.038857,0.174565,0.983879
0.787571,-0.393367,0.399943,0.569649,0.676066,-0.467370
0.900858,-0.463980,-0.507348,-0.501156,-0.605852,-0.617888
0.463123,-0.423205,-0.421892,0.757893,-0.376169,0.533005
0.431664,-0.218022,0.245441,0.999514,0.009753,-0.029620
-0.229268,-0.124942,0.664938,0.395437,-0.317887,0.861730
-0.661724,0.018189,0.568314,0.880846,0.137356,0.453039
0.304547,-0.214455,0.341996,-0.284510,0.951545,0.116689
0.086628,-0.047075,0.419736,0.018503,0.482886,0.875488
0.153356,0.870422,0.185428,0.885952,0.461632,0.044550
0.077548,-0.665834,0.637428,0.839351,0.136782,-0.526100
0.754422,0.008558,0.218226,-0.093588,-0.995440,0.018442
0.688538,-0.080838,0.254474,0.029974,-0.862051,0.505934
0.804886,-0.879934,0.081042,-0.298357,0.004049,-0.954446
0.596787,-0.785427,0.435828,0.196471,0.919126,0.341476
0.640497,-0.341773,0.155717,-0.326015,0.494542,0.805694
-0.075963,-0.188302,0.817965,0.879900,-0.455356,-0.135743
-0.079978,-0.140752,0.720479,0.563574,-0.670467,-0.482554
0.775643,-0.427248,0.332259,-0.327648,0.746032,0.579726
-0.067837,-0.171422,0.844431,-0.062635,-0.960393,0.271517
0.097396,0.764503,0.382784,0.040958,0.997612,0.055606
0.258511,-0.284475,0.446110,-0.574792,-0.390588,0.719065
0.485929,0.296004,0.301595,-0.609120,0.671984,0.421201
-0.049993,-0.093082,0.716507,-0.563249,0.179770,0.806494
0.205824,-0.217429,0.612052,0.157931,-0.985432,0.063096
-0.709655,-0.281265,0.395199,-0.031984,0.330061,0.943418
-0.336646,-0.170352,0.736367,0.999656,0.018307,-0.018805
0.121155,0.559320,0.332963,0.913136,-0.103511,0.394294
-0.070582,0.944603,-0.317823,-0.412195,-0.280873,-0.866721
-0.564270,-0.012721,0.527390,-0.200852,0.125216,-0.971586
-0.101411,-0.064788,0.579913,0.827819,-0.430218,0.360040
0.172044,-0.316691,0.737207,0.702510,0.683582,-0.197980
0.165497,0.090346,0.738115,-0.621678,-0.767875,0.154544
-0.055484,0.701260,0.547909,-0.404279,-0.004930,-0.914622
