0.349719,-0.217256,-0.911598,0.673451,0.137154,-0.726397
0.366669,0.050373,0.421508,0.614834,0.749620,-0.245050
0.240884,0.164068,0.235220,0.883210,0.075237,0.462902
-0.180367,-0.633143,-0.946102,-0.363552,-0.053420,-0.930041
-0.346054,-0.096020,-0.522776,0.324638,0.745939,-0.581537
0.123865,0.114912,-0.511572,0.376260,0.310566,0.872913
-0.145397,-0.413702,0.068264,-0.072304,-0.152810,-0.985607
0.325407,-0.091534,0.453898,-0.447786,-0.836097,0.316907
0.081237,-0.154271,0.534577,0.294563,0.933333,-0.205236
0.434809,0.108537,-0.399177,0.667681,-0.707897,0.230397
0.172219,0.246497,0.339369,0.977898,0.083123,-0.191850
0.456734,0.509495,-0.143594,0.918917,-0.202113,-0.338736
0.253578,-0.071277,0.510183,-0.069121,0.909507,0.409903
-0.109476,0.388427,0.429955,0.742129,-0.040764,-0.669017
0.101333,-0.074332,0.940503,0.568869,-0.120552,0.813545
-0.070351,0.168172,-0.608143,0.736342,-0.119096,0.666046
-0.094799,-0.045255,0.260313,0.837556,-0.145806,0.526537
0.416589,-0.189105,-0.912365,-0.210057,0.232637,-0.949608
0.057153,-0.365886,-0.957107,0.058773,0.165140,0.984517
-0.413454,-0.246854,-0.166641,0.156478,-0.413627,0.896899
0.135506,-0.058916,0.266562,0.969235,-0.128445,-0.209964
0.323083,-0.110277,0.572672,-0.354218,-0.541781,-0.762236
0.361084,0.518885,-0.260632,0.964305,-0.226639,0.136935
0.769072,-0.259108,-0.909798,0.750611,0.185236,0.634249
-0.787273,0.421751,0.220560,0.996618,-0.026055,0.077930
0.731178,-0.196182,-0.931067,0.707897,0.078878,0.701898
0.136441,0.202095,0.481769,0.328680,-0.495802,-0.803834
-0.011100,-0.164064,-0.945024,0.815530,-0.514006,0.265911
0.737312,-0.496265,-0.933383,-0.333515,-0.129016,-0.933875
0.580943,-0.488961,-0.948957,-0.333964,0.227405,-0.914743
-0.563595,-0.218228,-0.122671,-0.547130,0.470603,-0.692229
0.252692,-0.196728,0.092021,0.919217,0.034180,-0.392264
0.326769,0.042780,0.600057,0.630534,-0.035997,-0.775327
0.213642,-0.029221,0.701890,-0.193303,-0.980541,0.034248
0.504490,0.489422,-0.446630,0.929992,-0.276308,0.242424
0.051303,0.060843,0.482693,0.021016,-0.286812,0.957756
0.684002,0.026542,0.160325,0.487781,-0.835239,-0.253861
-0.149153,0.000844,0.580169,-0.029513,-0.933770,0.356656
0.076197,-0.511758,-0.953763,0.355633,-0.126825,-0.925981
-0.743423,0.218137,0.070314,0.140674,0.907263,-0.396338
0.116634,-0.058500,-0.467748,-0.652670,-0.690166,0.312559
0.518928,0.245674,-0.970979,-0.604355,0.036325,0.795887
0.476506,-0.229087,-0.880976,0.787724,-0.575543,0.219638
0.010367,-0.000722,-0.491908,0.357654,0.932111,-0.057042
0.326176,-0.291782,-0.944261,-0.237647,-0.156053,0.958734
0.292141,-0.326231,-0.655933,-0.055006,-0.998468,-0.005960
-0.052536,0.100985,0.414596,-0.352831,0.884465,0.305338
-0.071744,-0.267504,-0.942082,0.356050,0.049843,-0.933137
-0.542565,0.627652,-0.043310,-0.641359,-0.762603,0.084239
0.327448,0.314221,0.586153,0.900981,0.415394,-0.125223
0.127832,0.150581,0.215405,-0.369377,-0.915816,0.157609
-0.336938,0.083548,0.167129,-0.394016,-0.906033,0.154454
0.502199,0.150809,-0.961350,0.131360,-0.446205,-0.885238
-0.652259,0.630915,-0.003043,0.477130,0.877675,-0.045090
-0.562128,0.283277,0.247212,0.731832,-0.678585,0.062803
-0.435554,0.267757,0.203097,-0.246260,-0.661317,0.708531
0.092717,-0.194813,0.935413,-0.540961,0.719402,0.435686
0.153066,-0.081223,0.582367,0.623626,-0.208746,0.753337
0.197279,-0.126755,-0.257329,0.138311,0.989908,-0.030852
-0.038032,-0.101714,0.250950,0.149806,-0.972421,0.178764
0.143277,-0.139535,0.797225,0.968939,-0.238747,-0.064481
0.321102,0.841054,-0.143178,-0.443138,0.861419,0.248165
0.097701,-0.072814,0.520296,0.813319,0.559570,0.159351
0.299608,-0.247752,-0.955658,-0.035326,0.665514,0.745549
0.142106,-0.124365,0.484925,0.827110,0.548963,-0.120533
0.040480,-0.101672,0.370135,0.133867,0.810273,0.570559
0.126325,-0.264793,0.493873,0.123929,0.992288,-0.002254
-0.213887,0.212168,0.304172,0.847796,0.029309,-0.529512
0.131064,-0.045097,0.958721,-0.107957,-0.211391,0.971421
0.296480,-0.016163,-0.212454,-0.304112,-0.237973,-0.922434
0.189508,-0.096479,0.550370,-0.228416,-0.533956,0.814074
0.364875,0.126269,0.175577,0.926742,0.362958,0.097012
0.571812,0.969122,-0.069420,-0.476239,0.681914,0.555148
-0.528819,0.173280,0.286530,-0.634928,0.135784,0.760545
0.619463,-0.239064,-0.965833,-0.286228,-0.386034,-0.876955
-0.520525,-0.143297,0.254421,0.439381,-0.630359,0.639994
0.232013,0.313048,0.109252,0.376498,0.906268,-0.192168
0.458266,-0.103469,0.584867,0.403285,0.854139,-0.328340
-0.626610,0.247648,0.092960,0.806090,-0.426656,0.410101
0.230871,-0.437973,-0.574850,-0.226608,-0.925952,0.302096
0.042776,-0.440182,0.081876,-0.723169,0.677177,-0.135860
0.356524,0.847708,-0.140213,0.578240,0.751692,-0.317170
0.234882,-0.076092,-0.625280,0.378057,0.820897,-0.428020
-0.029231,-0.419111,0.082948,-0.564004,0.620846,-0.544472
-0.309486,0.407339,0.683816,0.278958,-0.391533,0.876861
0.156219,0.146908,0.536434,0.751590,-0.659496,-0.013319
0.073416,-0.076749,0.931818,0.844460,-0.285876,0.452949
0.109795,-0.195685,0.936062,-0.540961,0.719402,0.435686
0.126316,-0.233512,0.364057,0.414064,0.904050,0.106036
0.415571,0.806251,-0.151405,0.752427,0.657674,0.036295
0.174175,0.117304,0.376439,0.710266,0.548331,-0.441425
-0.034796,-0.359159,-0.960813,0.245473,0.899924,0.360389
0.096964,0.584464,-0.544214,0.826435,0.220278,-0.518153
-0.302640,-0.584938,-0.951683,0.733484,0.672076,0.101562
-0.121610,0.037277,0.262906,0.943301,-0.331615,0.014631
0.153765,-0.111907,0.247580,-0.217854,-0.946134,-0.239521
-0.450077,0.165132,-0.043119,0.537606,-0.474393,0.697088
0.200218,-0.309279,-0.685950,-0.158401,0.711530,0.684568
0.066490,-0.006965,0.216949,-0.508170,-0.857776,0.077350
0.358277,-0.079449,-0.022499,0.953438,0.301571,-0.003397
0.767420,-0.586911,-0.942417,-0.287443,0.853608,-0.434430
-0.123820,-0.529919,-0.965092,-0.608695,-0.791700,0.051981
0.488694,0.004413,-0.922517,0.071534,0.315044,0.946377
-0.016125,-0.239114,-0.958829,-0.116569,0.631025,0.766954
0.524333,0.134849,0.482402,-0.832826,0.551118,0.051680
0.205528,-0.006624,-0.570812,-0.238957,0.165991,0.956737
-0.233908,-0.303560,0.134184,0.547620,0.548601,0.631782
-0.012904,0.026660,0.068340,-0.618878,0.435879,0.653451
0.119159,0.071289,-0.955973,0.524590,0.473083,-0.707812
-0.444594,0.489697,-0.152093,0.714470,0.176496,-0.677039
0.163220,-0.133413,0.527468,0.701577,0.198210,-0.684472
0.327704,-0.142627,0.726929,0.951877,0.126540,0.279136
0.056998,-0.639911,-0.944318,-0.325944,-0.182092,-0.927687
0.192099,-0.490848,-0.960071,0.663730,0.122259,0.737912
-0.604409,0.410894,0.014768,-0.033769,0.998174,-0.050078
-0.398510,0.430032,0.231189,0.726752,-0.639756,0.250089
-0.093201,0.114028,0.279989,0.265677,0.952990,0.145688
0.462681,-0.086346,0.275284,-0.618151,0.742133,-0.259089
0.602761,0.003577,0.189304,-0.683029,0.703288,-0.197121
0.298622,-0.111438,-0.318358,0.333211,0.406517,-0.850714
-0.148181,0.815026,0.134680,-0.432251,-0.878050,-0.205396
0.275409,-0.237419,0.487996,-0.061756,-0.985548,0.157737
-0.151364,-0.541109,-0.964806,-0.451090,0.008808,-0.892435
0.517182,0.034164,-0.963918,-0.423862,0.093386,-0.900899
0.234702,-0.122714,-0.968167,-0.347924,-0.372243,0.860455
0.048156,-0.185648,-0.553293,0.061132,0.441103,0.895372
-0.381229,0.279445,-0.448041,0.384591,0.921898,-0.046832
-0.084701,-0.222395,-0.964995,-0.282056,0.556304,0.781646
0.071303,0.091548,0.951297,-0.764732,0.643985,-0.021650
0.367675,-0.020175,0.040997,0.628504,-0.759329,-0.168530
0.019371,-0.443541,-0.967532,-0.114690,0.745123,0.656991
0.628645,-0.243699,0.109061,-0.053259,0.890964,0.450939
0.299293,-0.072588,0.207431,0.422526,-0.093991,-0.901464
0.268123,-0.200794,-0.496089,0.000324,-0.903014,0.429611
-0.235662,-0.702389,0.087582,0.364887,0.381047,0.849506
0.395051,0.043625,0.974332,0.862138,0.480441,-0.160918
0.135003,-0.398689,-0.965841,-0.067439,-0.026562,0.997370
0.266767,-0.186855,-0.731098,0.811601,-0.137087,0.567901
-0.308659,-0.088987,0.409280,0.341930,-0.896258,-0.282498
0.210942,0.239075,0.587272,0.929679,-0.268573,-0.252121
0.873305,0.768544,-0.124898,-0.741762,0.587867,-0.322802
0.451251,-0.453121,-0.935307,-0.574762,-0.037604,0.817456
-0.334078,0.269703,0.199790,0.478043,0.864139,-0.157287
0.125036,0.046725,0.157619,0.308655,-0.133244,0.941795
0.166288,0.006915,0.231836,0.434454,-0.632322,-0.641419
-0.323176,-0.081683,0.405389,0.275266,0.955010,-0.110385
0.510031,-0.179341,-0.913283,-0.130086,0.915430,-0.380875
-0.341517,-0.073199,0.217664,0.298303,0.834147,-0.463912
-0.011182,-0.016514,0.563183,-0.518111,0.670207,0.531398
0.728241,0.461250,0.442762,-0.852603,0.504634,-0.135692
0.136993,-0.138818,-0.946337,-0.180346,-0.074635,-0.980767
-0.544678,0.113804,0.419584,-0.045071,-0.204026,0.977927
0.111679,0.510777,0.274689,-0.385209,0.642116,0.662798
0.144811,0.076022,-0.426454,-0.053167,-0.993773,0.097918
0.723015,-0.244144,0.078194,-0.074675,-0.916667,-0.392613
-0.215384,-0.048863,0.557171,-0.005752,-0.993170,0.116536
-0.041484,-0.375845,-0.951212,0.742061,0.044843,-0.668831
0.011149,-0.100764,-0.945011,0.512043,-0.816346,-0.267192
0.364412,0.411125,-0.155311,-0.535657,0.306379,0.786895
0.195583,0.151568,0.170370,0.270134,0.864253,-0.424375
-0.034300,0.059535,0.644024,0.802912,0.586849,0.104597
0.344654,-0.024750,0.048412,0.670938,-0.645911,0.364198
-0.440663,0.607422,-0.278512,-0.643432,-0.759863,-0.092755
0.395364,-0.217406,-0.451594,0.351532,0.918580,0.180656
0.348626,-0.170565,-0.493544,-0.116147,0.634221,-0.764378
0.595882,-0.230888,0.573869,-0.570745,0.083051,0.816917
0.848561,-0.393050,-0.946079,0.965379,-0.259502,0.026505
-0.038690,-0.470679,-0.960018,0.449137,0.699826,0.555446
0.051824,-0.194947,0.652663,-0.642748,0.704284,0.301426
0.337254,0.515061,0.424444,-0.122276,-0.346672,0.929982
0.907237,0.231058,0.031490,0.289486,-0.929321,0.229263
0.006268,-0.119188,0.181469,0.853637,0.167178,-0.493311
-0.504780,0.328278,0.259597,-0.228140,0.920360,-0.317633
0.462189,-0.213185,0.548886,0.549345,0.490431,-0.676533
0.259272,-0.115389,0.524094,-0.652734,-0.460557,-0.601519
-0.377891,0.468899,-0.150132,0.340759,0.597373,-0.725967
0.515504,-0.046783,0.311724,0.596444,-0.795777,0.104853
0.172271,0.505066,0.435018,0.225214,0.890696,-0.394891
0.243149,-0.108644,0.628393,-0.329732,-0.650194,-0.684489
0.536452,0.742171,-0.104958,0.871782,-0.406994,0.272674
0.782630,0.824409,-0.123355,-0.616804,0.668915,-0.414856
0.858559,-0.471973,-0.947876,0.445593,-0.047355,0.893982
0.327351,-0.266142,-0.929380,0.720861,0.517715,-0.460794
0.235222,-0.072618,-0.413201,-0.339808,-0.870849,-0.355181
0.035094,0.589695,0.096145,-0.250350,-0.654856,0.713083
0.331881,0.687923,0.163453,0.935256,-0.181077,-0.304150
0.301743,-0.671206,-0.017910,0.975369,0.189665,0.112618
-0.560285,0.302298,0.204394,-0.237092,0.206708,0.949241
0.397582,0.088929,0.348155,0.272850,0.008707,0.962017
0.725371,0.036665,-0.971299,-0.595399,-0.515076,-0.616601
0.344801,-0.222702,-0.614020,0.920987,-0.098452,0.376948
0.148725,-0.274669,-0.971494,0.342086,-0.554884,-0.758341
0.587226,0.112317,-0.968345,0.777704,0.202913,0.594982
0.592465,-0.000245,-0.565382,0.798223,0.462923,-0.385411
-0.480752,-0.311073,-0.135681,-0.230783,-0.341010,0.911291
0.226138,-0.093790,0.201269,0.049018,0.265324,0.962913
0.250348,-0.361233,-0.174804,0.983995,-0.165556,-0.065924
0.109474,0.281558,0.119704,0.069546,-0.654167,0.753146
-0.174314,0.648456,0.464025,0.968856,0.232387,-0.085520
0.392316,-0.079229,0.096485,0.944753,-0.320493,0.068743
-0.620340,0.179343,0.173452,-0.086347,-0.710999,0.697872
-0.201812,0.107437,0.061959,0.910862,0.345497,0.225747
0.230897,0.125745,-0.636822,0.246050,-0.968974,-0.023415
-0.328865,0.365640,0.667440,-0.585571,-0.557849,0.588142
-0.032756,-0.232036,-0.417895,-0.243813,-0.042824,0.968876
0.274989,-0.182515,0.595958,0.194355,0.959537,-0.203751
-0.019543,-0.351039,-0.976862,0.322299,0.793798,0.515760
-0.177262,-0.565329,-0.965304,0.338812,0.665919,0.664649
-0.257198,-0.429791,-0.969439,-0.554310,0.321096,-0.767879
0.149749,-0.216240,0.805329,0.891998,-0.404615,0.201560
0.333992,-0.198791,-0.965714,0.279521,0.950355,0.136726
0.589624,0.505675,-0.438993,0.839604,-0.176857,0.513602
-0.002727,0.470641,0.262311,-0.193896,0.666419,0.719923
-0.219297,-0.066333,0.450343,-0.602495,-0.790578,-0.109483
0.217839,-0.423764,-0.956156,0.607256,0.209695,-0.766334
-0.542389,0.433838,0.008755,0.762362,0.117474,0.636399
0.339359,0.112435,-0.261578,0.996651,0.017478,-0.079881
0.354202,0.139678,0.497946,0.550174,0.305657,0.777099
0.158997,0.081812,-0.046769,0.356450,0.762976,-0.539270
0.415162,-0.068930,-0.722627,0.392943,0.539778,-0.744470
0.366170,-0.323780,-0.926655,-0.458878,-0.386444,0.800057
0.224929,-0.177383,-0.948556,0.215461,0.542624,0.811872
-0.051364,0.800531,0.121410,0.638749,0.749869,-0.172326
0.483664,0.100400,0.599295,0.662155,0.558338,0.499810
0.501877,-0.456189,-0.930800,0.235457,-0.491628,0.838368
0.468602,-0.474592,-0.482137,0.977725,-0.020391,0.208896
-0.572800,0.605371,-0.026296,-0.864204,0.295944,-0.406902
0.502973,0.081249,0.535618,0.979470,0.183803,-0.082796
0.518822,0.073874,0.163975,0.154597,-0.972835,-0.172315
0.301940,-0.488988,-0.057725,0.987863,0.110993,0.108658
-0.142201,0.437202,0.482198,-0.032310,-0.326613,0.944606
0.304151,-0.392080,-0.968890,0.993089,-0.116085,0.017296
0.595336,-0.141051,-0.016996,-0.412713,0.232902,-0.880582
0.463462,0.111419,-0.301829,0.774790,0.132740,0.618127
0.217575,-0.017186,0.174758,0.099123,0.887862,0.449307
-0.127084,-0.255152,-0.956462,0.852267,-0.517978,0.073079
-0.430199,0.172519,0.289521,0.350498,0.935138,0.051648
-0.079046,0.028067,-0.040069,0.797250,-0.053246,-0.601296
0.727930,0.475364,0.461597,-0.830223,0.435873,-0.347484
-0.104997,0.353170,-0.306877,0.253014,0.819307,0.514509
-0.244421,0.237817,0.647430,-0.213445,-0.956761,-0.197608
0.270283,0.285643,-0.276826,0.939334,0.070993,-0.335577
0.002085,0.007874,-0.020210,-0.685194,0.296698,0.665191
0.483601,-0.367534,-0.519246,0.903267,0.174611,-0.391945
0.291953,0.028458,0.031607,0.081264,0.854569,0.512940
-0.316374,-0.047335,0.528553,0.386719,-0.907619,-0.163330
0.187567,-0.280991,-0.939100,0.460015,-0.233119,-0.856762
0.561133,-0.302893,-0.943567,0.890796,0.021217,-0.453908
0.471952,0.817096,-0.125433,-0.526109,-0.441911,0.726584
-0.251752,0.181178,0.219055,0.013222,0.844860,0.534825
0.186720,-0.060275,0.497155,-0.705325,0.054652,-0.706774
0.294530,-0.502280,-0.081931,0.692363,0.711435,-0.120390
-0.338947,0.068143,0.253345,0.930282,0.257056,0.261719
-0.382025,0.639519,-0.388386,0.369141,-0.907859,0.198813
-0.076254,-0.652883,-0.940933,-0.213170,-0.014866,0.976902
-0.466398,0.413257,-0.020548,0.278478,0.339388,0.898480
0.444039,-0.076007,-0.588271,-0.028038,-0.607279,0.793994
-0.197294,-0.425135,-0.944029,0.238290,0.310280,0.920296
0.393764,-0.200836,-0.938107,0.156775,-0.955564,0.249639
-0.621670,0.203975,0.426535,0.840297,0.301774,-0.450371
0.123424,-0.075769,-0.964180,0.882018,-0.296657,-0.366112
0.223285,-0.160607,-0.946688,-0.134328,0.674121,0.726304
0.089298,-0.101791,0.932053,0.852102,0.499744,0.155493
0.226421,-0.006049,0.367460,0.771867,0.065550,-0.632396
0.130881,0.107781,0.235413,0.732082,0.409589,0.544327
0.284030,-0.564069,-0.963475,0.221609,0.131675,0.966204
0.812036,-0.230732,-0.962218,0.553987,0.204041,0.807134
-0.458300,-0.124129,-0.149802,-0.296634,0.529250,-0.794923
0.099281,-0.032182,0.940325,0.876362,-0.137725,0.461542
0.421368,-0.082957,0.563891,0.412996,0.801048,0.433308
-0.116050,-0.446602,-0.970369,-0.200850,-0.327427,-0.923283
0.775355,-0.512808,-0.948371,-0.727882,-0.107880,0.677163
0.303740,0.291851,0.168873,0.914833,-0.394465,0.086473
0.390703,0.054590,-0.271949,0.928237,0.051466,0.368412
0.783818,0.149159,0.168295,0.281790,0.910250,0.303380
0.313002,-0.174311,0.364783,-0.301037,-0.289768,-0.908521
0.307712,-0.136976,-0.202791,-0.544437,-0.028927,-0.838303
-0.013465,-0.031793,-0.972618,0.033534,0.273433,0.961306
0.273800,-0.030168,0.481580,-0.229228,-0.770219,-0.595161
0.085395,-0.562432,-0.944639,-0.242044,-0.263744,0.933731
-0.154079,-0.098335,0.505412,-0.484267,-0.315177,0.816180
0.265038,0.323136,0.182205,0.918523,0.093489,0.384155
-0.395713,-0.577470,0.125461,0.863970,-0.466924,0.188516
0.321727,-0.206774,0.013013,0.971474,-0.108235,0.211007
0.357794,-0.091527,0.620999,0.069568,0.119007,0.990453
0.244754,-0.600652,-0.942650,-0.748788,0.203283,-0.630866
-0.551382,0.236733,0.045917,0.692263,0.446588,0.566860
0.359402,-0.293426,-0.896587,0.094565,-0.956380,0.276395
-0.126734,0.420249,0.143725,0.997564,0.068889,-0.010948
0.523483,-0.654119,-0.934951,0.113192,-0.864042,0.490530
0.323231,-0.420298,-0.938104,-0.128980,-0.069129,0.989235
-0.378167,-0.038766,0.154116,-0.459929,0.083983,-0.883975
0.857546,-0.210410,-0.946950,0.983613,-0.014418,-0.179713
0.211151,0.204746,0.498504,0.711875,-0.702046,-0.019123
-0.184770,-0.116837,0.269153,0.305834,0.833790,-0.459630
0.099271,0.077404,0.970377,0.527476,0.130526,-0.839483
0.151427,0.000034,-0.955776,-0.606888,-0.020735,0.794517
-0.274811,0.169718,0.124269,0.920478,0.054843,0.386928
0.209049,-0.063376,-0.028641,0.804678,-0.444268,-0.393851
0.156313,-0.206697,0.611461,0.146948,-0.796275,0.586815
-0.067842,0.062802,0.220263,-0.516489,-0.665953,-0.538280
0.082883,0.176659,-0.959703,-0.618380,-0.621805,0.480587
0.029984,-0.037730,0.167370,-0.427750,0.897149,0.110241
0.457041,-0.249032,-0.949390,0.664507,0.675618,-0.319329
0.335765,-0.215461,-0.552860,-0.509344,0.783099,-0.356824
0.221131,-0.660403,-0.941168,-0.173602,0.632835,0.754574
-0.611689,0.124511,0.064074,0.775518,0.570903,-0.269521
0.000499,0.521385,0.457542,0.465243,0.810306,0.356304
0.163444,-0.255992,-0.532848,-0.680828,0.583839,-0.442273
0.426332,-0.347361,-0.377359,-0.614832,-0.324807,-0.718667
0.196179,-0.091961,0.934894,0.143251,-0.482034,-0.864363
0.356846,-0.196440,-0.674036,-0.437909,0.407502,-0.801360
-0.273480,0.145612,0.135859,0.176041,0.970700,0.163560
0.186009,-0.127103,0.352475,0.906282,0.392966,0.155662
0.179610,-0.228451,0.478889,0.283656,-0.898605,-0.334736
0.577887,-0.178915,0.595234,0.223656,0.834769,0.503130
-0.066806,-0.596077,-0.949885,-0.047968,0.538203,0.841449
-0.320854,-0.049992,0.550445,0.058859,-0.997558,-0.037611
0.334230,-0.498091,-0.163202,0.852703,-0.450711,-0.264117
0.075260,0.124622,0.276975,0.956699,-0.259800,0.131269
0.012945,0.072740,0.425974,0.759626,0.179655,0.625053
0.028673,0.384525,0.033396,-0.760429,0.387778,0.520937
0.270280,-0.552536,-0.945837,0.947941,0.013224,-0.318171
-0.252813,-0.502883,-0.961733,-0.091553,-0.145169,-0.985162
0.876142,0.262113,0.031396,-0.338426,0.920779,-0.193994
0.200051,0.034542,0.111426,0.430892,-0.797505,-0.422278
-0.290164,0.073729,0.292934,0.428414,0.150531,-0.890956
0.343978,-0.050156,0.241193,-0.300619,0.899425,0.317273
0.080930,-0.138705,0.540076,0.138672,0.975066,-0.173255
-0.399779,0.626417,-0.344285,0.274570,0.951574,0.138271
-0.055625,-0.111571,0.964623,0.893837,-0.297215,0.335736
0.137534,-0.087646,0.531076,0.440319,0.786114,-0.433755
0.187335,-0.488735,-0.952531,-0.421822,0.281324,-0.861930
0.080633,0.150218,0.483982,-0.212866,0.924397,0.316509
0.307581,0.211481,0.964811,-0.199530,0.795900,0.571604
-0.798471,0.620951,-0.039902,-0.551507,-0.675175,0.489877
-0.103977,0.010604,0.494218,-0.654353,0.636110,-0.408884
-0.740524,0.005851,0.248657,0.501196,0.862228,0.073242
0.164099,-0.023943,0.516564,0.895803,0.296226,-0.331341
0.040252,0.161310,0.467881,0.771386,0.027157,-0.635788
0.122327,-0.357147,-0.948455,0.277401,-0.860888,0.426522
-0.219405,0.150287,0.308218,0.851693,-0.463854,0.243841
0.184789,0.130520,0.049929,-0.588925,0.088141,0.803367
0.334201,-0.099690,-0.745536,0.101758,0.755278,-0.647457
-0.232919,-0.298948,0.094015,0.044920,0.954673,-0.294249
0.218247,-0.403962,-0.126746,-0.636673,-0.658315,-0.401582
0.157982,-0.139734,0.814372,0.936274,-0.343813,0.071996
-0.036645,0.149578,0.988984,0.198866,0.819054,-0.538147
0.434718,-0.371418,-0.947965,0.940933,0.312600,-0.130102
0.372727,-0.130450,-0.357335,-0.348073,-0.171015,-0.921737
0.367662,-0.157008,-0.040726,0.976023,0.197795,-0.090862
0.424837,-0.064484,-0.723069,-0.430023,-0.589496,0.683795
0.059586,-0.028546,0.520944,0.654973,0.258168,0.710183
0.372581,-0.007496,0.919475,-0.607266,0.093195,0.789014
0.141514,-0.020875,-0.616984,-0.718421,-0.694051,-0.046530
-0.481567,-0.015771,0.263629,0.128176,0.927935,-0.350012
0.004383,0.021607,0.346254,0.098629,0.802512,0.588427
-0.142074,0.083315,0.242549,-0.008689,0.964926,0.262378
0.306333,-0.552568,-0.953330,-0.561652,-0.087497,-0.822734
0.060441,-0.271758,-0.960627,0.125157,-0.787309,0.603722
0.091180,-0.612333,-0.953306,-0.111305,0.080845,-0.990492
0.019140,-0.031646,-0.421315,0.606826,0.086936,-0.790066
0.337442,-0.110753,-0.376525,0.918107,0.328628,0.221549
0.328083,0.022245,-0.118096,0.097078,0.988601,0.115081
0.799027,-0.002263,-0.943592,-0.042657,-0.405910,0.912917
0.241870,-0.382977,-0.169486,0.996156,-0.068013,-0.055209
-0.741377,0.253534,0.106474,0.859830,-0.387464,0.332512
-0.458008,0.444399,-0.132650,-0.466220,0.781867,0.413911
0.105927,-0.103711,0.526160,0.174546,0.903577,-0.391256
-0.292442,0.096863,0.456494,-0.013741,0.626327,0.779439
0.371166,-0.283728,0.183394,0.994238,-0.062879,0.086819
0.332283,-0.138810,0.330474,0.027172,0.300592,-0.953366
0.259168,-0.496268,-0.159431,0.904833,-0.424825,-0.028319
0.068093,0.086354,0.947838,-0.775961,0.538098,-0.329145
-0.202210,-0.276003,0.089519,0.218372,0.950982,0.218969
0.430626,-0.128241,-0.479768,0.796791,-0.571151,-0.197259
0.026438,-0.061624,-0.963388,0.111828,0.445543,0.888249
0.180376,-0.059002,0.390690,0.836679,0.503589,-0.215329
-0.486126,-0.230549,-0.133189,-0.346831,0.039331,-0.937103
0.241918,-0.150715,0.450830,-0.216718,0.677090,-0.703266
0.595960,-0.482816,-0.938682,0.785291,0.448984,-0.426300
-0.135486,0.121961,0.349268,0.496344,-0.018054,-0.867938
-0.032934,-0.285061,0.186745,-0.118218,-0.656123,0.745337
0.184075,-0.079299,0.811570,0.996431,-0.080763,0.024532
-0.176274,-0.215534,-0.136660,-0.117331,0.989492,-0.084494
0.149897,-0.327074,-0.537406,0.731918,-0.356047,0.580970
0.206080,-0.417667,-0.945470,0.936675,-0.304444,-0.173074
-0.117400,-0.055741,0.416584,0.748745,0.662225,0.028959
0.148408,0.048614,0.899862,0.048527,-0.925846,0.374771
0.479127,-0.471865,-0.945685,0.427268,-0.219759,0.877011
-0.416250,0.463894,0.281008,-0.244319,0.839080,0.486059
-0.163246,0.110560,0.415670,0.352142,-0.693183,-0.628882
0.031382,0.062608,-0.966605,0.962188,-0.261354,0.076735
-0.141259,-0.366759,-0.964019,-0.130115,0.234359,0.963403
0.282534,-0.126260,-0.498454,-0.473689,0.504914,0.721582
0.094497,-0.031698,0.940276,0.876362,-0.137725,0.461542
0.263879,-0.206906,-0.501235,0.216819,0.665261,-0.714435
0.229969,-0.150480,-0.189160,0.544484,0.795544,0.265796
-0.132239,-0.168578,-0.967039,-0.767876,0.492568,-0.409563
-0.267389,-0.440644,0.091448,0.896674,0.442589,0.009507
0.308421,0.583755,-0.331305,0.974263,-0.211252,0.078637
0.178470,-0.128449,-0.965214,0.948604,-0.272978,-0.160104
0.330212,-0.118434,-0.455204,-0.317408,-0.776481,0.544362
0.942045,0.164650,0.165629,0.780520,-0.047900,-0.623293
-0.622608,0.513428,0.003204,0.963488,-0.065940,0.259505
0.336524,-0.113379,0.129920,0.968941,0.076375,0.235203
0.262129,-0.097213,0.241766,-0.275741,0.960790,0.029135
-0.134622,-0.014899,0.184167,0.292921,0.634525,0.715245
0.677736,-0.257568,-0.946310,-0.017683,0.255952,0.966528
0.383321,-0.293554,-0.664161,-0.346003,0.910901,0.224816
-0.118409,0.074797,-0.986160,-0.870004,0.443050,0.216333
0.261478,0.226697,0.098420,0.891672,0.406722,0.198744
-0.111309,0.169281,0.354511,-0.659163,-0.285292,0.695782
0.790597,-0.302633,-0.940960,-0.243124,0.416669,0.875944
-0.324726,-0.105906,0.237149,0.184080,0.979738,-0.078922
0.218817,-0.404915,-0.933612,0.896734,0.054883,0.439154
0.295033,-0.055676,0.203436,-0.263343,0.435021,0.861050
0.062630,-0.512290,-0.936377,0.537949,-0.754976,-0.374996
0.234700,-0.147955,-0.483138,0.311238,-0.626237,0.714814
0.062035,0.101814,0.267813,0.799311,-0.111584,0.590466
0.242385,-0.573653,-0.955839,0.164168,0.705363,0.689573
-0.184725,0.145464,0.013313,0.736690,0.667922,-0.105674
0.195324,0.764278,0.199811,0.896983,0.057808,0.438270
0.239565,0.000143,-0.203266,0.131038,0.667317,0.733155
0.499081,-0.088005,0.823950,0.331404,-0.691247,-0.642144
-0.258556,-0.003597,0.138424,0.772069,0.487171,0.408136
-0.396674,0.331381,-0.102337,-0.210768,0.908122,0.361789
0.421099,0.723026,-0.442716,0.968799,0.113017,0.220581
0.188696,-0.036699,-0.952994,-0.198119,-0.247844,0.948326
-0.287249,-0.238027,-0.124496,0.674052,-0.385502,0.630113
0.259807,-0.402588,-0.937803,0.138014,0.619056,0.773125
0.357270,-0.107361,-0.934693,0.344676,0.297801,-0.890232
-0.034853,-0.116901,0.037963,0.268669,0.893487,-0.359858
0.492753,-0.558720,-0.960973,0.004909,0.006275,0.999968
0.214390,-0.058346,0.440926,0.232211,0.311355,0.921486
-0.694601,0.288494,0.098241,0.441016,-0.822100,0.360079
-0.402791,0.576510,-0.335593,0.628124,0.766082,-0.136305
-0.520702,0.117788,0.172727,0.279478,0.876608,-0.391728
0.821497,-0.246258,-0.954472,-0.637747,0.572321,0.515488
0.366960,-0.044575,0.954071,0.017391,-0.999612,-0.021769
0.665011,-0.221290,-0.973314,-0.233249,-0.200244,0.951576
-0.358518,0.476857,-0.149127,0.135852,0.512233,-0.848034
0.061680,0.208586,0.253089,-0.459793,0.822513,-0.334758
0.408393,-0.310818,-0.023899,0.997026,-0.057627,-0.051166
0.362722,-0.166433,-0.508470,0.881143,-0.472446,0.019533
0.186470,-0.094670,0.828488,-0.054022,-0.978641,0.198352
-0.025182,0.728320,0.131821,-0.005249,-0.453318,0.891334
0.484579,0.782180,-0.144494,0.263342,0.588734,-0.764227
0.198740,-0.119779,-0.519469,0.960074,0.040110,0.276856
-0.347107,0.449212,-0.159729,0.209947,-0.764447,0.609543
0.763022,0.167987,-0.958344,-0.694570,0.326638,-0.640999
0.338904,0.015573,-0.442148,0.375855,-0.800006,-0.467678
0.155274,0.002889,0.958890,-0.271028,0.438013,-0.857140
0.366007,-0.286830,0.098784,0.995641,0.080754,-0.046667
0.138651,0.561256,0.250708,-0.655610,-0.556392,-0.510493
0.610117,-0.460826,-0.944690,0.345322,-0.681221,0.645516
0.281129,0.566113,0.145302,0.585643,0.739185,0.332607
0.135510,-0.005133,0.268100,0.752029,0.629793,-0.194455
-0.253380,0.217154,0.290186,-0.591807,-0.050613,0.804489
-0.333877,-0.141594,-0.545169,0.458811,0.882365,-0.104524
0.076139,0.037222,-0.598875,0.981166,-0.079614,-0.175995
0.278696,0.462015,0.135627,-0.444807,-0.318314,0.837152
0.761814,-0.451444,-0.331817,-0.660510,-0.290423,0.692373
-0.074928,-0.664951,-0.950595,0.019324,0.621985,0.782791
-0.289888,-0.014783,-0.475549,0.783569,-0.580855,-0.220514
0.253284,0.059250,0.424364,0.356587,0.868518,-0.344270
-0.079988,-0.125434,0.337558,0.104031,0.994516,-0.010782
-0.053292,0.354363,0.465958,0.850346,0.326847,0.412410
0.310018,-0.145342,0.135591,0.789030,0.345385,0.508076
-0.341091,0.449595,-0.094917,0.053039,-0.846170,-0.530266
-0.603515,0.235789,0.035360,0.678890,0.304802,0.667985
-0.342384,-0.379788,0.078428,-0.569999,0.151901,-0.807482
0.083063,0.074932,0.933612,0.037011,-0.952966,0.300808
0.403600,0.033607,-0.561837,0.916668,-0.366889,-0.158468
-0.098790,-0.159382,-0.963807,-0.426652,-0.217570,0.877856
0.243382,-0.155021,-0.961603,-0.301506,-0.877878,-0.372054
0.788183,0.197153,-0.962285,-0.717305,0.006890,-0.696726
0.022922,-0.124887,-0.536290,-0.058841,-0.926703,0.371160
0.167154,-0.013639,0.916711,0.364972,0.911470,0.189785
0.255938,0.097625,0.428185,0.782920,0.582065,-0.219630
-0.381001,0.282007,-0.448607,0.384591,0.921898,-0.046832
0.232282,-0.041038,0.270696,-0.370291,-0.927403,-0.053003
0.464674,-0.076801,0.009457,0.711518,-0.557855,0.427247
0.208835,0.225230,-0.986557,-0.041353,-0.439816,0.897135
0.105492,-0.088629,0.318493,0.946269,0.312019,0.084971
0.220665,0.435806,0.400552,0.791294,-0.187395,-0.582011
-0.219849,-0.089043,0.274063,0.084365,0.801888,-0.591488
0.184035,0.326191,0.365138,0.851767,0.441580,-0.281959
-0.413221,-0.356129,-0.284826,-0.762407,0.614401,-0.203093
0.243391,-0.176070,0.207941,-0.049281,0.013413,0.998695
-0.046756,-0.051784,0.562376,0.777157,-0.566142,-0.274792
0.193080,-0.029316,0.532207,-0.399417,-0.107134,0.910488
0.057921,0.191306,0.265315,-0.630444,0.653956,-0.418189
0.396402,-0.050193,-0.148418,-0.396800,0.812435,-0.427199
-0.032867,-0.570677,-0.931809,0.187114,0.219470,0.957508
0.201875,0.129198,0.509487,-0.165217,-0.339992,0.925802
-0.585341,0.197974,0.190455,-0.022882,-0.655094,0.755201
0.315123,0.583068,0.135734,0.841879,0.521868,0.137451
-0.003470,-0.034136,-0.968636,0.103089,-0.081411,0.991335
-0.635781,0.186899,0.056850,0.882823,0.322648,0.341352
0.210261,-0.112380,0.451626,0.163431,0.071906,0.983931
0.279452,0.517356,0.234944,0.967731,0.237819,-0.083300
0.445438,-0.128389,0.546507,0.766961,0.559904,0.313493
0.164226,-0.198539,-0.485398,0.126686,-0.813062,0.568226
0.717567,-0.408935,-0.956305,0.371600,0.358484,0.856389
-0.157615,-0.333106,0.118270,0.719413,0.036625,0.693616
-0.151285,0.380571,0.471588,-0.595929,-0.779129,0.194489
0.317278,-0.105878,-0.429827,-0.355206,0.201008,0.912921
0.055856,-0.640093,-0.939448,-0.038211,0.713317,0.699799
-0.014613,-0.012857,0.956928,0.972169,0.113799,-0.204787
0.219458,-0.050564,0.073352,-0.131322,-0.232915,0.963590
0.260065,-0.316580,-0.546291,-0.074481,-0.542744,0.836589
0.198762,-0.139947,0.639004,0.911737,0.188675,-0.364880
-0.593826,0.165243,0.417419,0.715125,0.602243,-0.354823
0.247908,0.112692,0.438564,-0.207851,0.430444,0.878360
0.501436,-0.088473,0.807407,0.468685,-0.682958,-0.560271
0.085011,0.121659,0.499323,-0.632849,-0.625389,-0.456499
0.842107,0.213090,-0.055580,0.147523,-0.698154,-0.700584
0.267009,-0.009797,-0.988562,-0.148715,0.188410,0.970766
0.305473,-0.019605,0.925843,0.320520,0.891546,0.320021
0.044196,-0.051679,0.446983,-0.014792,0.782337,0.622679
0.301423,-0.090383,-0.211833,0.511683,0.136891,0.848199
0.687955,-0.012042,-0.363762,-0.590120,0.793741,-0.147425
0.414419,-0.091740,0.167763,-0.682382,0.727677,-0.069580
-0.171631,0.503131,-0.325394,-0.490235,-0.659774,-0.569532
0.102613,-0.102799,-0.192017,0.799760,-0.097304,0.592382
0.138751,-0.047718,-0.126619,0.099760,-0.898268,0.427975
-0.264945,0.185072,0.381578,-0.230422,0.956095,0.181075
-0.279526,0.396293,-0.382755,0.820492,0.486072,-0.300878
-0.120742,0.124550,0.630131,0.793979,0.605022,-0.059544
0.096263,-0.248705,0.686265,0.981323,-0.128669,-0.143001
0.743955,-0.117504,-0.946424,-0.695289,-0.059938,-0.716226
-0.290949,-0.287679,0.080232,0.493744,-0.696440,0.520756
0.075666,-0.014410,0.480534,0.410949,0.747927,-0.521274
-0.195295,-0.449224,-0.980958,-0.107685,-0.141556,-0.984056
-0.234524,0.393373,-0.110209,0.788866,0.613097,-0.042458
0.079022,0.121973,-0.983125,0.906051,-0.263548,0.331081
0.279281,-0.130666,-0.942628,-0.383934,0.022593,0.923084
0.349159,-0.114995,0.042060,0.765810,-0.178879,-0.617688
-0.165430,0.162783,0.351330,-0.176898,-0.562853,0.807405
0.870447,0.849288,-0.157500,-0.622206,0.766928,-0.157102
0.388462,-0.144395,-0.491736,0.988299,0.073122,0.133862
-0.212039,-0.220557,-0.509616,0.342938,0.917549,0.201239
0.445823,-0.081373,-0.640759,-0.421476,0.906594,-0.021120
0.151689,0.134988,0.173459,0.927412,0.297823,-0.226292
0.730757,0.007379,-0.966589,0.607556,0.674054,0.420151
-0.648574,0.294298,0.060797,0.926520,0.376150,-0.008432
-0.249537,0.437972,-0.152422,-0.217450,-0.177115,0.959868
-0.007382,-0.098867,0.083910,0.618897,-0.781142,-0.082359
0.349620,0.093354,-0.599544,-0.056448,0.949615,0.308294
0.187452,-0.024766,-0.200524,0.874301,0.285869,0.392271
0.245103,0.204528,0.332422,-0.804877,0.124343,0.580269
0.233405,-0.037346,0.504390,-0.270760,0.525608,0.806490
-0.675837,0.235643,0.033417,-0.461527,-0.592296,-0.660438
-0.310150,-0.090936,0.253343,-0.331177,0.936174,-0.117901
0.416630,0.817647,-0.075811,0.959402,-0.005538,-0.281988
0.328252,-0.005859,0.424267,0.610812,0.383652,0.692618
0.195005,0.087035,-0.989271,0.385581,0.188654,0.903181
0.660171,-0.059964,-0.951921,0.295650,-0.287912,0.910877
-0.307175,0.021650,0.311883,0.685063,-0.300358,-0.663681
0.011898,-0.229187,0.739071,0.934579,-0.352478,-0.048170
0.266734,0.104081,0.432078,0.791485,0.166271,0.588138
0.308455,-0.534891,-0.104445,0.968793,-0.242482,-0.051414
0.150362,0.008583,0.579867,0.984259,-0.158850,-0.077466
0.171118,0.151024,0.961479,-0.633761,0.612189,0.472833
0.568486,0.243887,0.446318,0.553125,-0.758941,0.343599
0.297214,0.245656,0.197529,0.590447,-0.786667,-0.180350
0.160516,0.266151,-0.522412,0.708391,-0.294789,-0.641312
0.272533,-0.045817,0.232057,0.060083,0.956441,0.285677
-0.503091,0.254802,0.277362,-0.479326,0.280299,0.831672
-0.347043,0.155862,-0.046340,0.647816,0.490033,-0.583268
0.099538,-0.047702,0.100833,0.574965,-0.778812,0.250734
0.287329,-0.462640,-0.595833,0.823391,-0.030231,0.566669
0.181304,0.530751,0.440434,-0.730826,0.676038,0.094160
-0.531930,0.465377,0.212405,0.678664,0.660491,-0.321198
0.122621,-0.215504,-0.958284,-0.214871,0.049543,0.975385
0.038683,-0.467330,-0.960556,-0.635689,0.225837,0.738171
-0.112296,0.086645,-0.522025,-0.119205,0.814529,0.567743
-0.206153,0.638029,0.450517,-0.309317,0.086280,0.947037
-0.419070,0.013392,0.294114,0.549015,0.152194,-0.821839
0.214772,-0.410150,-0.949581,-0.687551,-0.013811,0.726005
0.349668,0.018372,0.004873,0.655977,0.568709,-0.496251
0.453827,-0.340012,-0.373800,-0.692343,-0.235499,-0.682057
-0.530109,0.603641,-0.180519,-0.524837,-0.138426,0.839872
0.803262,0.178470,0.270688,0.814172,0.576788,-0.066630
0.187896,-0.693648,-0.085423,0.847034,0.109042,-0.520234
0.148430,0.361514,-0.105424,-0.728260,-0.169713,-0.663954
0.242997,0.224941,0.504161,0.919505,-0.320015,0.228259
0.245945,0.164601,0.038413,0.593044,0.741480,-0.313857
0.099762,-0.002142,0.591572,-0.559340,-0.040439,0.827951
-0.562277,0.555651,0.002902,-0.170921,0.980859,-0.093277
0.325114,-0.038349,0.058203,0.786530,0.045525,0.615872
0.199942,-0.051651,0.839396,0.176421,0.984023,-0.023968
-0.047197,0.366848,0.449541,0.969398,0.186399,0.159756
-0.067754,0.062213,0.395611,-0.013448,-0.943254,0.331800
-0.755259,0.105449,0.125954,-0.497510,-0.845366,-0.194526
-0.115197,0.749762,0.117648,0.560690,0.551711,-0.617448
0.256703,0.172873,0.491012,0.880786,0.386883,0.273016
0.463411,-0.127635,-0.735942,0.984989,0.135869,0.106474
0.236245,0.419607,-0.232901,-0.794091,-0.598980,0.103158
0.225438,-0.466528,-0.939330,0.497778,0.677682,-0.541262
-0.783908,0.316230,-0.015719,0.505623,-0.789856,-0.347093
0.176536,0.453619,-0.100864,0.818374,0.053604,0.572181
0.147028,0.015932,-0.616361,0.503694,0.795877,-0.335963
0.458823,-0.149791,-0.950286,-0.373805,-0.756192,-0.537069
0.360041,-0.172575,0.351719,0.662541,-0.035242,-0.748196
0.277326,-0.503288,-0.087884,0.472713,0.820536,-0.321346
0.235047,-0.116874,-0.571768,-0.144730,0.653259,-0.743173
0.428935,0.059662,-0.966853,0.808671,-0.157104,0.566895
-0.015239,0.747047,0.128064,0.819137,0.538847,0.196616
0.418832,0.155640,0.538537,-0.046706,0.420254,0.906204
0.085528,-0.209358,-0.371375,0.256768,-0.896446,-0.361185
-0.708697,-0.050734,0.253827,0.301608,0.951220,0.064912
0.068301,0.199683,-0.981359,0.759313,0.335260,0.557714
-0.045287,0.387749,0.108192,-0.366798,-0.684632,0.629872
-0.010711,-0.279047,-0.949423,0.483733,0.597495,0.639532
0.738621,-0.098756,-0.934678,0.593020,0.109472,0.797711
0.167320,0.685710,0.226622,-0.753983,0.579794,-0.308785
-0.317020,0.107858,0.161651,-0.032119,-0.615302,0.787637
0.669627,0.223769,-0.973211,0.499492,-0.506696,-0.702686
-0.711551,0.153717,0.068983,-0.536726,-0.731211,-0.421018
0.266461,-0.083429,0.696212,0.794185,0.602769,0.077069
0.384530,0.159968,-0.964230,0.273285,0.377517,0.884758
-0.768641,0.183199,0.126205,-0.704653,-0.647591,-0.289983
-0.075322,-0.300967,-0.954673,-0.608298,0.314889,-0.728573
0.414624,-0.195159,0.565724,0.608627,0.793096,-0.023928
-0.140396,-0.567624,-0.944759,0.795757,0.083296,-0.599861
-0.421588,0.590617,-0.149583,0.845536,0.262970,-0.464667
0.276142,-0.042950,0.943943,-0.515019,-0.478404,0.711256
0.191263,-0.055583,0.631150,0.644135,0.270615,-0.715442
0.005882,-0.335544,-0.421881,-0.214588,0.727170,-0.652055
0.520326,-0.081114,-0.919035,0.315069,0.428730,0.846713
0.160659,0.080763,-0.974444,0.768657,0.203538,0.606414
0.068166,0.598498,0.218010,-0.077090,-0.759602,0.645803
0.295746,0.666996,-0.188646,0.767204,0.205530,-0.607582
-0.472624,-0.179371,-0.140948,-0.651647,0.189895,-0.734368
0.205168,0.045313,0.360630,0.637543,0.026833,-0.769947
-0.516437,0.528884,-0.173857,0.897304,0.318295,-0.305832
0.130629,-0.085464,0.237064,0.539871,-0.093086,0.836585
0.563556,0.912630,-0.098993,0.977077,0.196520,-0.081850
-0.291467,-0.138519,0.070690,0.181136,-0.001174,0.983457
0.350147,-0.436397,-0.008196,0.817121,-0.130104,-0.561592
0.325180,-0.900557,-0.106777,0.830184,-0.474065,-0.293355
0.462438,0.182505,-0.965703,0.239131,0.527419,0.815258
0.063498,-0.227966,0.417650,0.581835,0.570743,0.579414
-0.388264,-0.584130,0.088265,0.232042,-0.939342,0.252571
0.441544,-0.444768,-0.934523,-0.533266,-0.021575,0.845672
0.331735,-0.694055,-0.011580,0.865854,0.037281,0.498906
0.504402,-0.403478,-0.936800,-0.597805,0.542987,0.589741
0.117413,-0.030061,0.786750,0.694316,0.668894,-0.265530
0.348820,-0.066644,-0.955427,0.265242,0.380531,0.885914
0.483568,-0.171821,-0.819961,0.712120,0.596755,-0.369822
0.480844,0.879634,-0.146708,0.758715,-0.043763,-0.649951
-0.542590,0.465933,0.225164,-0.788616,0.103856,0.606052
0.628506,-0.379628,-0.930570,0.631427,-0.376473,0.677914
0.407159,0.748128,-0.161145,0.087651,-0.361578,-0.928212
0.226949,-0.046851,0.735324,0.996418,-0.052436,-0.066341
0.061014,0.026756,0.342601,0.428479,0.903483,0.011126
0.783510,-0.321243,-0.917937,-0.621393,0.508625,-0.595963
0.174761,-0.310316,-0.954320,-0.804455,-0.051600,0.591768
0.412357,-0.367149,-0.934750,0.520587,0.269293,0.810229
0.149745,-0.087818,0.073424,0.697529,-0.594207,0.400465
-0.302127,0.053829,0.449963,0.635148,0.729779,0.253001
0.500329,-0.409110,-0.932151,-0.582461,0.655741,0.480356
0.508549,0.085361,-0.328249,0.575998,0.816832,0.031803
0.145216,-0.337972,-0.443640,-0.686122,0.719211,0.109418
-0.384889,-0.038174,-0.087912,0.912142,0.374282,0.167061
0.334535,-0.157485,0.059701,-0.782308,0.147006,-0.605296
0.126799,-0.458820,-0.941512,-0.699806,0.215621,-0.681013
-0.118649,-0.581240,-0.948513,-0.122236,0.292302,0.948482
-0.598163,0.572565,-0.011852,0.523887,0.625847,-0.577805
-0.060414,-0.527801,-0.961489,-0.471187,-0.054478,0.880350
0.069014,-0.134523,-0.187234,0.129534,0.809115,0.573195
0.219178,-0.111184,0.034742,0.261870,-0.829862,0.492699
0.258953,0.507258,0.460656,-0.759085,0.534097,0.372197
0.319635,-0.028859,0.480865,-0.124424,0.764408,0.632612
-0.100025,-0.076300,0.557850,0.108277,0.990453,-0.085316
0.078119,-0.553713,-0.944430,0.125980,-0.458859,0.879532
0.056572,0.081007,0.556740,0.145467,-0.959078,-0.242916
-0.031405,-0.441953,-0.946548,0.713992,-0.327412,-0.618883
-0.359100,0.263416,0.260804,0.209951,-0.465124,0.859989
0.066013,0.436345,0.446186,0.765171,0.613278,0.195969
-0.195171,-0.004982,0.289007,-0.002002,-0.384475,0.923133
0.699870,0.207421,-0.021700,0.467886,0.611602,0.637986
-0.137686,0.110220,0.650812,0.182585,-0.598094,0.780350
0.215174,-0.117797,-0.364449,0.586676,0.171494,-0.791455
0.328358,-0.006118,0.638972,-0.013579,-0.666228,0.745624
-0.013912,0.117475,0.443122,0.892262,-0.292154,0.344260
0.052029,0.247654,0.447164,0.476221,-0.757644,-0.446306
0.632875,0.241723,-0.954818,-0.553573,-0.799948,-0.231604
-0.418238,0.483550,-0.145436,0.188605,0.592007,-0.783553
0.151437,-0.065563,-0.610928,0.865626,0.385308,0.319733
0.206905,0.154018,-0.944400,0.149460,0.908641,-0.389913
0.826540,0.064766,0.163508,0.535636,0.306948,0.786688
-0.798912,0.024003,0.229413,-0.702998,-0.484745,-0.520401
-0.111210,0.164737,0.650018,0.731391,0.153031,0.664566
0.313263,-0.307007,-0.158290,0.973798,0.035588,-0.224611
-0.350765,-0.085100,-0.133616,0.014907,-0.942083,0.335049
0.181873,0.008180,0.930644,-0.163490,0.965160,-0.204298
0.472416,0.120324,0.466549,-0.515762,0.671693,0.531807
0.307951,-0.096674,0.539540,0.278840,-0.411579,0.867670
0.408679,0.902567,-0.138296,0.697987,-0.454835,-0.553118
-0.036774,0.035424,-0.981888,0.577611,0.706720,0.408548
0.263097,0.193149,-0.957513,-0.546896,0.824169,0.147143
-0.458784,0.234286,0.272270,0.687074,0.114120,0.717570
-0.498308,0.771612,-0.183080,0.752291,0.040540,0.657583
0.341277,0.014517,0.483740,-0.640490,0.467819,-0.609030
0.398479,0.026351,0.032355,0.233474,-0.969732,0.071476
-0.707305,0.563228,-0.017869,-0.519070,-0.242897,0.819492
-0.172401,-0.452062,-0.964716,-0.119324,-0.060904,-0.990986
0.311693,0.239768,0.422040,0.924976,-0.278526,-0.258539
0.767582,-0.477782,-0.956480,-0.413734,-0.212571,0.885233
-0.720231,0.619112,-0.020568,-0.579611,-0.799445,0.157919
0.146716,-0.021994,0.565087,0.802290,0.571511,0.172356
-0.637492,0.115071,0.054901,0.872007,0.233161,0.430396
-0.039865,0.071923,-0.962494,0.113596,-0.202299,0.972713
0.254005,-0.161833,0.646817,0.365525,0.928067,-0.071293
-0.410156,0.251939,0.310042,-0.125511,0.916630,0.379521
-0.069294,-0.219253,0.096396,-0.251191,0.430182,-0.867091
0.504126,-0.046500,-0.479715,-0.093935,-0.395827,0.913508
0.049532,-0.337931,-0.957584,0.284696,-0.065449,0.956381
-0.038445,0.195972,0.174180,-0.537395,0.829787,-0.150532
-0.339663,-0.393759,0.151752,0.746933,-0.424892,0.511428
-0.115766,-0.184357,-0.970431,-0.068865,-0.331567,0.940915
0.187719,-0.276842,0.206480,-0.594310,-0.082163,0.800028
-0.821685,0.169616,0.141464,-0.487022,-0.499294,-0.716599
0.392393,0.317136,-0.402216,0.991761,0.039908,0.121731
0.088187,-0.046537,0.955934,-0.414409,-0.251592,0.874624
0.706333,0.153715,-0.969976,-0.619664,0.140693,0.772154
0.417131,0.095423,-0.395680,0.667681,-0.707897,0.230397
0.326655,-0.013321,0.930419,0.234994,0.685020,0.689583
-0.304448,0.322794,0.260786,-0.103817,-0.682237,0.723722
0.555176,0.272052,-0.291903,0.234742,0.909632,-0.342734
0.713157,0.041918,-0.943882,0.929118,0.323783,-0.178620
0.477236,0.251596,-0.962761,0.254353,-0.287403,-0.923420
0.032760,-0.155411,0.944238,0.591179,-0.129496,0.796077
-0.195577,-0.033618,0.136104,-0.357224,-0.912521,0.199238
0.002602,-0.071217,0.948130,0.608260,0.693726,-0.385699
-0.538666,0.236484,0.159497,0.885768,-0.431812,-0.170156
0.572052,-0.114529,-0.922376,0.511978,0.001594,0.858997
-0.059905,-0.083447,-0.988068,-0.244814,-0.239450,0.939537
0.653630,-0.152759,-0.957193,-0.017521,0.093231,0.995490
0.021501,-0.066168,0.907262,0.996675,0.051012,0.063528
0.388092,-0.263686,-0.902519,0.775264,-0.040216,0.630355
0.259233,-0.348642,0.136579,-0.824713,-0.084829,-0.559153
-0.232626,0.478292,-0.345475,0.727639,0.685656,-0.020413
-0.338695,-0.400477,0.124046,0.959660,-0.254827,0.118814
-0.219220,0.183177,0.685853,0.324538,-0.296367,0.898244
0.299164,-0.499175,-0.967032,0.053464,0.015990,0.998442
0.442615,0.059576,-0.909820,-0.613566,-0.559462,-0.557260
0.418691,-0.099485,-0.623525,-0.606353,0.694697,-0.386952
0.106672,-0.053915,-0.598028,0.985857,0.092145,0.139982
-0.322199,-0.044878,0.512086,0.826843,-0.549590,0.119502
0.436170,0.007238,0.074358,0.324171,0.945675,0.024730
0.534064,0.899334,-0.062691,-0.556740,0.568350,0.605821
0.216084,-0.905741,-0.139744,0.830184,-0.474065,-0.293355
-0.460019,0.330831,0.280919,0.115381,0.555717,0.823326
-0.198594,0.460664,-0.327208,0.304461,0.947294,0.099688
0.316040,-0.403445,-0.944517,0.569671,0.323292,-0.755617
0.126458,-0.222419,0.292079,0.993154,-0.098459,0.062851
-0.182157,-0.439324,0.060962,0.457985,0.093027,0.884079
-0.099357,-0.477424,0.104120,-0.590207,0.536564,-0.603120
0.342924,-0.082442,-0.549200,-0.108068,0.878294,0.465748
0.691595,0.221541,0.276174,-0.142095,0.908777,0.392344
0.591264,-0.244779,-0.916274,0.776313,0.062842,0.627208
0.338218,0.299298,-0.477039,0.916146,-0.169123,-0.363419
-0.289644,-0.354541,0.138315,0.838373,-0.368969,0.401239
0.100686,0.503985,0.427845,0.002989,0.762846,0.646574
0.458858,-0.396168,-0.931477,-0.389549,-0.075654,0.917893
-0.386749,-0.050285,0.282273,-0.396829,-0.663827,0.633925
0.011383,0.081976,0.452006,0.909683,-0.048510,-0.412461
0.052501,-0.102048,0.466224,0.588463,0.784390,-0.196072
0.544805,0.050797,0.173681,-0.343694,0.934454,0.093118
-0.237731,-0.456292,-0.965630,-0.231847,0.257039,0.938178
0.411556,-0.102284,0.948916,0.931895,-0.115011,0.344012
-0.019712,-0.029959,0.932995,0.451338,0.535616,0.713729
0.837797,-0.214183,-0.976794,-0.352825,0.008663,0.935649
-0.108615,-0.160058,0.004869,-0.300724,0.548777,0.780006
0.113401,-0.010713,0.549070,-0.498751,0.745676,0.441831
0.235438,-0.194162,-0.918853,0.013788,0.913971,0.405544
-0.546298,0.366335,0.278499,-0.397849,0.559388,0.727187
-0.245649,0.215151,-0.195286,-0.769478,-0.603099,0.210178
0.080798,0.358523,0.436576,0.930154,0.027448,-0.366143
-0.334839,-0.109022,-0.008460,0.860699,-0.171605,-0.479322
0.304416,0.736998,-0.182923,0.372952,0.588417,-0.717407
0.263427,-0.212451,-0.631635,-0.718441,-0.435241,0.542594
0.250961,0.046218,0.010512,0.245323,0.802834,0.543391
-0.786855,0.001595,0.246391,-0.135793,0.550119,0.823972
0.184631,0.090111,0.113452,-0.670743,0.082831,-0.737050
0.410134,0.907774,-0.153882,-0.662167,0.156898,0.732747
0.196023,-0.482115,-0.943371,-0.055666,-0.772556,0.632502
0.191255,-0.108003,-0.570372,0.267615,-0.657516,0.704312
0.044426,-0.018966,-0.978410,-0.685848,0.137351,0.714666
0.211441,0.428844,0.253402,-0.591465,-0.325229,-0.737832
0.422572,-0.138683,0.361199,0.939603,0.051968,-0.338297
0.233377,-0.111794,0.538328,0.419109,-0.896518,-0.143536
0.129499,0.341518,0.225549,0.928597,0.051346,0.367520
0.371639,-0.344810,-0.907103,-0.210808,0.775358,-0.595299
0.050330,0.322665,0.447212,-0.468106,0.666300,-0.580449
-0.006644,-0.158545,-0.394781,0.223354,0.894069,-0.388271
0.669038,0.127480,-0.963469,0.253136,-0.842070,-0.476277
0.158313,0.151959,0.548093,0.905054,-0.267590,0.330566
-0.475745,0.539570,-0.018849,-0.525866,0.569090,0.632140
0.517228,-0.598632,-0.951799,-0.651114,0.144933,0.745013
-0.019484,-0.102180,0.383454,0.793294,-0.113134,0.598235
0.570073,-0.141532,-0.014863,0.187033,-0.266738,0.945447
-0.505283,0.121136,0.030189,-0.365451,-0.629033,-0.686122
0.624134,0.262199,-0.265189,-0.419802,0.818633,-0.391927
-0.369367,0.223277,-0.441950,0.363392,0.654955,0.662556
0.213024,-0.041361,-0.276297,-0.264904,0.618429,0.739845
0.164607,-0.136127,0.225230,-0.636348,-0.768472,0.067172
0.271456,0.475004,0.424516,-0.441705,0.125788,-0.888298
-0.050442,-0.622965,-0.968044,0.458296,0.714667,0.528409
0.680233,-0.087545,-0.950469,-0.250601,-0.822715,0.510235
0.329665,0.012463,0.469078,0.707307,-0.564335,-0.425726
0.352164,-0.565108,-0.948901,0.501247,-0.024091,-0.864969
0.466503,0.198106,-0.968699,-0.377889,-0.577988,-0.723277
0.100165,0.182896,-0.927011,0.323000,0.911658,-0.254068
0.073793,0.065568,-0.983292,-0.398867,0.043717,0.915966
-0.191658,0.704040,0.096240,0.979675,-0.168845,0.108294
-0.243983,-0.243094,0.175788,-0.004622,-0.531737,0.846897
0.723744,0.103576,-0.028819,0.996737,0.068872,-0.042103
0.387504,0.019418,-0.145274,-0.371326,0.698322,-0.611933
-0.011982,0.193162,0.448738,-0.648729,0.097497,-0.754748
0.015459,0.089240,0.604497,0.452287,-0.768267,0.452992
0.163309,-0.246756,0.284800,-0.266492,-0.666770,-0.695988
0.336510,-0.127169,-0.288452,0.734763,-0.135288,0.664696
0.199759,0.053998,0.439267,0.728130,-0.260943,-0.633826
0.166198,0.054008,0.240547,0.503993,0.476080,0.720652
-0.338250,0.293988,0.676729,-0.328851,-0.729894,0.599259
-0.593364,0.546293,-0.012386,0.153977,0.286524,-0.945619
0.355392,-0.384443,-0.270225,0.947887,0.181122,-0.262117
-0.388432,-0.047817,0.285177,-0.396829,-0.663827,0.633925
0.200672,0.139459,0.408370,0.812216,0.535618,-0.231126
-0.087168,0.155484,0.463830,0.804630,0.154782,0.573248
0.102644,0.471114,0.114845,0.913470,-0.108118,0.392280
-0.286896,0.034887,0.251963,0.883631,0.241419,0.401141
0.866484,-0.419283,-0.949466,0.996816,0.069679,-0.038761
0.567177,-0.492222,-0.943407,0.161839,0.090750,0.982635
-0.367244,-0.037740,0.278675,0.245608,-0.044089,-0.968366
-0.200223,0.704121,0.458274,0.876728,-0.302480,-0.373971
0.333687,0.005390,-0.362083,0.753489,-0.575805,-0.317337
0.258144,0.298861,0.145845,0.766641,-0.641905,-0.014788
0.316511,-0.022021,0.064242,0.911833,0.296954,0.283510
0.153869,-0.021657,0.517217,0.952656,0.110468,-0.283271
0.215251,0.056553,0.436032,0.834346,-0.527111,-0.161312
0.266211,-0.069539,0.247690,0.487588,0.857982,0.161632
