0.150347,-0.323547,-0.968509,-0.159969,-0.084292,0.983516
0.554335,-0.313578,-0.892414,0.682312,0.215785,-0.698489
0.031638,0.351817,0.097100,-0.462740,0.860362,0.213654
0.515049,-0.347163,0.119512,-0.806415,0.374726,-0.457467
-0.191469,-0.015416,0.075202,0.472663,0.467003,0.747327
0.183413,-0.335128,-0.974111,0.267509,-0.055698,0.961944
0.175993,-0.282465,0.339111,0.141051,-0.363874,0.920707
0.244071,0.142745,-0.943981,0.438474,0.242439,0.865427
0.585131,-0.619888,-0.888846,-0.508200,-0.277591,0.815277
0.375612,-0.688158,-0.929602,0.188394,0.500861,0.844776
0.658699,-0.061374,-0.933909,0.350960,0.630535,0.692281
0.643893,0.269203,0.418963,0.268299,0.786178,-0.556723
0.716153,-0.245356,0.149138,0.607613,0.210775,-0.765755
0.572365,-0.345065,-0.903789,0.302277,-0.527047,-0.794261
0.523775,-0.658889,-0.928239,0.451345,-0.248901,-0.856934
0.562692,0.053672,-0.966222,0.092615,-0.408285,0.908144
0.331553,-0.364834,-0.939110,-0.470221,-0.865134,-0.174459
0.197119,-0.363069,-0.954744,0.790692,-0.500183,0.353018
0.390786,-0.210859,-0.960433,0.177115,-0.000715,0.984190
0.620443,0.571075,0.480702,0.848219,-0.529508,0.012098
0.200347,0.035178,-0.965735,0.883727,-0.465771,0.045649
0.449352,-0.214841,-0.916415,-0.540893,0.099980,0.835128
0.224075,-0.695267,0.144461,0.501216,0.822884,-0.267663
0.162493,-0.155222,-0.937908,0.840138,-0.186038,0.509468
0.409949,-0.387117,-0.901182,0.025282,-0.071365,0.997130
-0.002584,-0.302493,0.305099,0.983611,-0.075463,0.163751
0.613180,-0.436499,-0.894030,-0.600698,-0.518574,-0.608476
0.243036,0.130238,0.410489,-0.083363,0.068725,0.994147
0.468758,0.222673,0.437258,0.717860,0.253913,-0.648232
0.578206,0.060123,-0.943236,-0.055459,0.461170,0.885577
0.225254,-0.435471,-0.938305,-0.227647,0.903088,-0.364156
0.274999,-0.054076,-0.928090,0.176966,0.758058,-0.627719
0.440489,-0.190137,-0.969573,-0.124444,-0.375918,0.918259
0.280646,-0.498853,-0.936799,0.033044,-0.908912,0.415676
0.643658,-0.732962,-0.897232,-0.569036,-0.605844,-0.556014
0.417659,0.116231,0.406131,-0.786669,0.586886,-0.191615
0.657939,0.302749,0.433991,-0.697261,0.602250,-0.388745
-0.689151,-0.021349,-0.005738,-0.697653,-0.715986,0.025407
0.359579,-0.304911,-0.931182,0.819073,0.121648,-0.560644
0.454205,-0.041459,-0.904065,-0.028675,-0.099911,0.994583
0.169423,-0.308322,-0.930119,-0.377359,-0.840635,-0.388502
0.668452,0.623429,0.274418,0.880414,0.121961,0.458255
0.275044,0.085840,0.411319,-0.101340,0.290904,0.951370
0.327939,0.084226,-0.942948,0.619720,0.312200,0.720054
0.347896,-0.419171,-0.897985,-0.086184,0.091656,0.992054
0.159533,-0.267788,0.329688,0.803058,0.580548,-0.134398
0.519588,-0.787130,-0.890624,0.590218,0.784322,0.191003
0.315702,-0.472653,-0.903901,-0.004066,-0.371407,0.928461
0.252238,-0.066327,-0.980448,0.539729,-0.380217,-0.751085
0.451677,-0.223584,-0.939975,-0.219454,0.606935,-0.763852
0.054685,0.079846,0.422974,-0.658563,0.701007,-0.273649
0.237717,-0.086894,-0.965034,0.315795,-0.111808,0.942217
0.198584,0.154486,-0.965207,-0.494909,-0.713115,-0.496520
0.592106,0.255666,0.280772,0.940657,0.304806,-0.149193
0.281670,-0.300388,-0.914437,0.651343,-0.017298,0.758586
0.439748,-0.554418,-0.887022,0.429481,0.437373,-0.790095
0.597801,-0.823928,-0.872441,-0.711741,0.037588,0.701435
-0.018984,0.306633,-0.004324,-0.092421,-0.088319,0.991795
0.469376,-0.085482,0.281546,0.190634,-0.622742,0.758848
0.258308,-0.440430,-0.963036,0.814935,0.071663,0.575105
-0.025792,-0.464100,0.197845,0.051931,0.940228,-0.336562
0.248728,0.006871,0.373229,0.845626,0.510414,0.156187
0.204130,-0.418844,-0.940248,-0.686847,-0.606429,-0.400606
-0.175347,-0.084241,0.352929,-0.657110,-0.750932,0.065631
0.480008,0.154844,-0.942744,0.780289,-0.569396,0.258722
-0.793967,0.342519,-0.022999,0.582249,0.354665,0.731573
-0.073063,-0.044112,0.327877,0.769798,-0.242162,0.590567
0.187915,0.270437,-0.932789,0.558098,0.757504,-0.338696
0.380726,0.179618,-0.934789,-0.170369,0.818373,0.548853
0.581956,-0.842371,-0.889388,0.713437,0.699998,0.031789
0.154420,-0.300196,-0.931259,0.338395,0.523366,0.782033
0.455395,0.463512,0.457289,-0.485107,0.432330,-0.760106
0.354183,0.110865,0.384927,-0.159043,-0.781617,0.603143
0.168767,-0.436319,-0.916605,-0.239384,0.833208,-0.498457
-0.135410,-0.601295,0.105410,0.991264,0.051701,0.121335
0.097684,0.266220,0.416773,-0.465047,-0.747981,-0.473556
0.952167,0.637231,0.152209,0.381102,-0.349594,-0.855888
-0.136186,-0.297722,0.110202,-0.862834,-0.115258,-0.492173
0.334638,-0.122412,-0.940526,0.240425,0.334993,-0.911030
-0.106093,0.350212,0.426253,-0.425015,0.227621,0.876100
0.243459,0.206716,0.508062,0.363142,0.359717,0.859495
0.235760,-0.040946,-0.941665,0.904684,0.091685,0.416102
0.341058,0.067613,0.438257,0.193846,0.081588,0.977633
0.310071,0.115179,0.366974,0.266021,0.946430,0.183036
0.579665,-0.329963,-0.902079,0.945073,0.172929,-0.277367
0.624377,0.274788,0.435198,-0.183206,-0.350646,0.918413
0.407268,-0.347190,-0.925905,-0.331885,0.381230,0.862854
0.518061,0.025330,-0.911826,0.153389,0.988166,0.000365
-0.094509,0.147535,0.031538,0.686652,-0.419777,0.593545
0.632880,-0.362324,-0.917353,0.082381,-0.949128,0.303923
0.596041,-0.275280,0.121195,-0.698439,0.433689,-0.569295
-0.255366,0.179753,-0.006557,0.366955,0.593972,0.715920
0.384144,-0.035168,0.411292,-0.459521,0.830192,-0.315628
0.263419,0.040561,0.412969,0.005457,-0.874985,0.484118
0.347046,-0.085111,-0.931160,0.414803,-0.904283,-0.101043
0.474436,-0.297866,-0.915638,-0.724840,0.612402,0.315548
0.448554,0.047956,-0.957613,-0.504151,0.567515,-0.650967
0.455472,0.125387,-0.941950,0.073872,0.997130,-0.016593
0.953975,0.351762,0.070293,0.730661,-0.519934,0.442496
0.200280,0.176105,-0.959741,0.556345,0.514687,-0.652363
0.280133,-0.023064,-0.966340,-0.126487,0.318584,0.939418
0.100366,-0.194142,0.346037,0.203187,0.948995,-0.241089
0.843489,0.778848,0.356606,0.890053,0.225576,0.396133
0.259488,-0.088922,-0.956210,-0.291413,-0.629806,0.720016
0.321550,-0.562411,-0.957620,-0.227742,0.433711,0.871796
0.396071,-0.213874,-0.916250,-0.573523,0.602730,0.554786
-0.531001,1.000000,0.331474,-0.655455,0.330003,0.679321
-0.117426,-0.021290,0.424459,-0.102766,-0.977377,0.184861
0.578624,0.306679,0.422628,0.803100,0.227830,-0.550566
0.565605,-0.124912,-0.940711,0.100977,-0.882295,0.459739
0.400316,0.310214,0.395719,0.944125,-0.155394,-0.290657
0.327563,-0.219746,-0.977355,-0.012047,0.300649,0.953659
0.596357,0.073131,-0.917363,-0.718725,0.135734,-0.681917
0.266829,-0.344069,-0.960786,0.656008,0.285536,-0.698658
0.407371,-0.336306,-0.923574,-0.155435,0.712884,0.683839
0.197382,-0.147858,0.371297,-0.580150,0.396093,-0.711714
0.479903,-0.248399,-0.906078,-0.387889,-0.661091,0.642263
0.512052,0.008706,-0.960965,0.449718,-0.140944,0.881980
0.252502,-0.046874,-0.912485,0.054236,0.457409,-0.887601
-0.140928,-0.385772,0.054474,0.857689,0.437667,0.269846
0.702960,0.275678,0.250034,-0.663349,-0.335334,-0.668969
-0.604798,0.131142,0.051582,0.005634,0.068514,0.997634
0.064256,0.025457,0.402088,-0.604417,0.252321,-0.755655
0.434220,0.002511,-0.968463,-0.561787,-0.383371,0.733091
-0.083129,-0.096533,0.348088,0.704901,0.478828,0.523295
0.490793,-0.693062,-0.907990,0.966872,0.237734,0.092961
-0.085428,0.280747,0.003080,0.356482,-0.833259,-0.422610
0.481355,-0.643677,-0.899631,0.999674,0.025531,-0.000827
0.488260,0.105648,-0.968604,-0.412877,0.078194,-0.907424
0.641180,-0.431271,-0.877221,-0.403574,0.450480,0.796364
0.377906,-0.321010,-0.918736,-0.280481,-0.921994,-0.266942
0.222945,-0.355466,-0.931556,0.728843,0.280660,0.624514
0.403873,-0.374385,-0.957541,0.223450,0.206507,-0.952588
0.382269,0.179138,-0.952511,0.992122,-0.092870,-0.084081
0.686667,-0.191511,-0.886850,0.285545,-0.032143,-0.957826
0.585805,-0.298478,-0.917876,-0.141283,0.238482,0.960815
0.084270,0.269025,0.433385,-0.366809,-0.811971,-0.454043
0.258107,0.000063,-0.993866,0.556742,0.328268,-0.763072
-0.190767,-0.026678,0.365483,0.792204,0.525272,0.310647
0.261829,0.128295,-0.943838,0.722642,0.482068,0.495377
-0.690300,0.299852,-0.009203,-0.426060,-0.198577,0.882632
-0.214340,0.190617,0.043216,-0.352166,-0.741468,0.571144
-0.008009,-0.459140,0.242433,-0.293216,-0.868970,-0.398642
-0.110476,-0.340168,0.301727,0.212200,-0.975046,0.065234
-0.624235,-0.025738,-0.018102,-0.167187,-0.434630,-0.884955
-0.082950,-0.340867,0.280954,0.069420,-0.948378,0.309451
0.318905,-0.373235,-0.925263,0.247476,0.822387,0.512285
-0.136785,-0.286811,0.129669,-0.565356,-0.525173,-0.636054
0.374699,-0.106955,-0.933267,0.870575,-0.279543,-0.404914
0.314269,0.203237,-0.916234,-0.000972,0.580671,0.814138
0.653704,0.334422,0.400648,0.413299,0.729366,0.545169
0.517454,-0.741957,-0.870950,0.557246,-0.562652,-0.610655
0.392870,-0.244952,-0.949600,0.244317,0.386148,-0.889494
0.264147,-0.363562,0.254260,0.460354,0.563492,-0.685967
0.234051,-0.065752,-0.974714,0.281032,0.774436,0.566807
0.384343,-0.473001,0.161649,-0.216283,-0.355243,0.909409
0.324072,0.112535,-0.980843,0.434136,0.146265,0.888894
0.472615,-0.031716,-0.952529,0.003786,-0.201844,0.979410
0.570118,-0.147596,-0.954171,0.064657,-0.203114,0.977018
0.231277,-0.176055,-0.979893,-0.063601,0.147007,0.987089
0.573162,0.275155,0.342387,0.918396,0.183866,0.350345
0.360774,-0.644626,-0.939054,-0.463109,0.451876,-0.762455
-0.578234,-0.092006,0.037904,0.103671,-0.004966,-0.994599
0.504223,-0.575621,-0.927195,0.531474,0.749264,0.395145
0.497254,-0.252853,0.220502,-0.116779,-0.981946,-0.148808
0.435612,0.037362,-0.971808,-0.359455,0.322493,0.875666
0.753674,0.158815,0.195347,-0.511258,0.859389,0.008078
0.367209,0.193177,0.445511,0.629486,0.763503,0.144263
0.303676,-0.462783,-0.929818,-0.186732,-0.897840,-0.398766
-0.231322,-0.011757,0.037111,-0.047217,-0.465518,0.883778
0.339022,-0.095860,-0.966375,0.069297,-0.202160,0.976898
0.158983,-0.425066,-0.947820,0.951871,-0.027056,-0.305302
0.340972,-0.673937,-0.934955,0.745423,0.438959,0.501656
0.175787,-0.274374,0.322274,-0.640375,-0.394880,0.658779
0.516147,-0.728154,-0.879977,-0.648994,0.427151,0.629562
0.545387,-0.363107,-0.880006,0.433040,-0.319188,-0.842968
0.579103,-0.299455,-0.875497,-0.550606,0.151816,0.820844
0.478611,-0.588153,-0.889647,-0.644689,0.332189,0.688496
0.396200,-0.320832,-0.964943,-0.253612,0.141380,0.956918
0.426506,-0.724024,-0.897107,0.992194,-0.086273,0.090040
-0.464920,0.291577,0.002925,0.101537,-0.555928,0.825006
0.816941,-0.144471,0.129546,0.357959,0.391704,0.847605
-0.124698,0.140141,0.038907,-0.481917,0.518945,-0.706012
0.642031,-0.084250,-0.940268,-0.465615,0.466199,0.752238
0.514042,0.422052,0.481363,0.903159,0.143556,-0.404594
0.421735,-0.192585,0.235054,0.228348,0.726798,-0.647782
-0.273531,-0.059039,0.035679,0.330309,0.440529,-0.834764
0.340715,-0.059959,0.315060,-0.142408,0.801654,0.580577
0.519178,-0.449150,-0.918083,-0.597447,-0.041271,-0.800846
-0.727541,0.173700,-0.007488,0.150109,-0.982787,0.107692
0.424108,0.107134,-0.978155,0.051405,0.462528,0.885113
0.142003,-0.449516,-0.925828,0.566753,0.182549,0.803410
0.586774,-0.225120,-0.916118,-0.577510,0.749724,0.323104
0.577063,0.605173,0.384146,0.265681,-0.420670,-0.867439
0.472884,0.111377,-0.943796,-0.504764,0.068105,0.860567
-0.009361,-0.003304,0.145882,-0.642550,0.763530,-0.064437
0.343972,0.086526,-0.909000,0.332474,0.434241,0.837195
0.565354,-0.577343,-0.905501,-0.373083,0.451721,0.810406
0.665119,-0.599072,-0.874665,0.355929,0.346074,0.868071
0.122202,-0.247252,-0.967631,0.974000,0.221960,0.045367
-0.198644,-0.025018,0.339399,0.731433,0.678657,-0.066563
0.519219,-0.151395,-0.916903,-0.358828,0.755635,-0.547958
0.289539,-0.071688,-0.924618,-0.168531,-0.636990,0.752224
0.244930,-0.637456,-0.912902,0.119106,-0.533856,0.837145
0.500031,-0.045050,-0.946235,-0.275014,-0.866431,-0.416731
0.394201,-0.309426,0.215216,0.018451,-0.706024,0.707947
0.383293,0.170557,0.432686,0.978043,0.034660,0.205500
0.416513,-0.118910,-0.927506,0.126612,0.296828,0.946500
0.376965,-0.839622,0.041441,0.259872,0.677903,0.687688
0.247772,-0.633576,-0.899719,-0.465710,0.201194,0.861763
0.378811,0.138285,-0.959622,-0.255561,0.318135,0.912951
0.262940,-0.426461,-0.941105,0.797479,-0.156782,-0.582621
0.667916,-0.850307,-0.855948,0.783881,0.211827,0.583661
0.331728,-0.051619,0.284239,-0.672700,0.362030,-0.645298
0.366917,0.051798,-0.958022,-0.300035,-0.848979,-0.434987
0.327323,-0.257338,-0.936252,0.210361,-0.450148,-0.867822
-0.549000,0.013216,0.498060,-0.694638,0.629034,-0.348991
0.296753,-0.643239,-0.933090,0.136001,-0.189626,-0.972392
0.382268,0.156334,-0.952359,-0.568424,0.822590,-0.015478
0.567996,-0.138725,-0.925587,0.221589,-0.480797,-0.848370
0.510312,0.160178,-0.922444,0.562848,0.815127,0.137007
0.100489,-0.306806,0.352060,0.340976,0.665576,-0.663885
-0.561617,-0.076678,0.042845,-0.201620,-0.069285,0.977010
0.485412,-0.368754,-0.911354,-0.337420,0.261938,-0.904177
0.634841,-0.315321,-0.888359,0.551563,0.274380,-0.787714
0.416548,0.082507,-0.949840,-0.163142,-0.835596,-0.524561
0.329342,-0.089912,-0.927563,-0.635792,0.215831,0.741071
0.418301,0.056265,-0.967936,0.207114,0.004899,-0.978305
0.197922,-0.161294,0.330160,-0.365595,0.717043,0.593456
0.281539,-0.560812,-0.906557,0.907332,0.419914,-0.020492
0.454875,-0.810068,-0.946250,0.135700,0.774582,0.617745
0.546970,0.048691,-0.929199,0.608018,0.594185,0.526553
0.255761,0.020158,-0.961275,0.562382,0.312778,0.765439
0.186848,0.198246,-0.934177,0.848721,-0.323307,0.418505
0.273355,0.143026,-0.953301,-0.725247,-0.604110,-0.330255
0.515859,-0.702829,-0.896274,-0.303501,0.689927,0.657182
0.298339,-0.139752,-0.919153,-0.677947,-0.170912,-0.714967
0.189756,0.162544,0.411274,-0.393914,-0.336218,0.855446
0.523100,-0.261260,-0.895819,0.350161,-0.864162,0.361401
-0.079317,0.177249,0.037126,0.122045,0.384852,0.914874
0.558216,-0.068018,-0.897662,-0.036519,-0.065517,0.997183
0.208174,-0.279931,-0.939236,0.018366,0.857582,0.514020
0.350109,-0.246270,0.216636,-0.289314,0.042941,-0.956271
0.266721,-0.308579,-0.969407,-0.007371,0.318359,0.947942
-0.165080,-0.383050,0.097948,-0.201369,0.965792,-0.163389
0.376162,-0.253304,-0.951558,0.698134,-0.163752,-0.696990
0.642235,-0.792417,-0.869901,-0.620838,0.616651,0.484047
0.574690,-0.160370,-0.894259,-0.341215,0.052644,0.938510
0.006341,0.176136,0.032683,-0.163181,0.782382,-0.601041
0.401015,-0.120695,-0.928720,-0.043477,-0.942036,0.332682
0.234931,-0.334836,-0.944080,-0.463714,-0.130008,0.876394
0.429764,-0.377252,-0.941927,0.877607,0.219183,0.426338
0.334381,-0.273684,-0.961136,-0.123588,-0.339627,-0.932405
0.596427,-0.083510,-0.941587,-0.760413,0.272002,0.589735
0.233103,0.088036,0.418142,0.237987,0.338132,0.910510
-0.286035,-0.048384,0.036941,-0.335419,0.913964,-0.228395
0.443127,-0.439099,-0.914611,-0.769544,0.638582,-0.003828
0.595213,-0.033908,-0.952091,0.536197,0.825662,-0.175427
0.329534,-0.588534,-0.950145,0.263370,0.133497,0.955413
0.237125,0.042998,-0.978876,0.788821,0.142150,-0.597958
0.482450,0.049312,-0.974501,0.137484,0.540366,0.830122
0.652094,0.010216,0.206506,-0.192116,-0.907071,0.374584
0.927553,0.297208,0.095574,-0.244510,-0.816322,0.523291
0.244008,-0.364948,0.235787,-0.557851,0.007969,0.829903
0.647589,-0.822564,-0.851106,0.347653,0.903235,0.251602
0.466409,-0.164083,-0.921063,0.387908,0.896577,-0.213724
-0.031869,0.006135,0.353014,0.081766,-0.858539,0.506186
-0.152898,-0.048190,0.066965,-0.004913,0.037726,0.999276
0.353550,-0.306427,-0.938757,0.818537,-0.269799,-0.507155
0.399674,-0.568531,0.226481,0.553219,-0.101276,0.826857
0.021198,-0.292884,0.302562,0.225358,0.945826,-0.233725
-0.562400,0.039276,-0.011730,0.358187,0.886904,0.291724
0.494789,-0.230734,-0.888145,-0.698744,-0.130409,0.703385
0.718594,0.655738,0.259093,0.235074,0.895776,-0.377260
0.212153,-0.309672,-0.924884,-0.546106,0.673135,0.498655
0.594910,-0.232608,-0.898239,0.491977,-0.838021,0.235963
0.236418,0.102518,0.367912,-0.600954,0.671370,-0.433724
0.563001,0.030149,-0.918721,-0.126853,0.766272,0.629870
0.293981,0.211869,0.445035,-0.129763,-0.580533,0.803830
0.496019,-0.835107,0.024510,-0.359515,-0.930818,0.065777
0.329382,-0.408098,-0.908117,0.342149,0.878950,-0.332236
0.683537,-0.208679,-0.907290,0.973115,-0.216295,-0.079138
0.161018,-0.545465,-0.924611,-0.609737,0.314257,-0.727642
0.398954,-0.372722,-0.923541,-0.208962,-0.059886,0.976088
-0.094802,-0.120647,0.372675,0.235852,-0.356491,0.904040
0.460268,-0.110653,-0.920539,-0.419391,0.443021,0.792366
0.777937,-0.088963,0.096493,0.938054,0.159686,-0.307497
0.248299,-0.280162,-0.947994,-0.186408,-0.610547,0.769730
0.315545,-0.554564,-0.955452,-0.444947,0.224333,0.867004
0.806148,0.330925,0.236526,-0.790314,0.110580,0.602641
0.507229,-0.417137,-0.884553,-0.038008,0.746134,0.664710
0.405282,0.213034,0.405618,-0.713936,-0.541778,0.443590
-0.044580,0.336325,-0.026858,-0.084189,0.510460,0.855770
-0.174911,-0.286294,0.049458,0.988207,0.104551,-0.111875
0.381426,0.071807,-0.964045,0.614740,0.104969,0.781714
0.702704,0.000699,0.227283,0.682885,-0.068619,0.727296
-0.072729,-0.133706,0.313067,0.877849,0.372870,0.300581
0.750237,-0.163136,0.131326,0.716416,0.691889,0.089650
0.355887,-0.044641,-0.970634,0.119552,-0.279707,-0.952613
0.248359,-0.484338,-0.914682,-0.008823,0.969539,0.244780
-0.569863,-0.124317,-0.007853,0.331139,0.637555,0.695608
0.199802,-0.299011,-0.947575,-0.717335,0.438830,-0.541163
0.502764,-0.414911,-0.898736,0.016017,-0.795116,0.606246
0.049207,-0.221369,0.313822,-0.069002,-0.742243,0.666569
0.483582,-0.422949,-0.896917,0.374913,-0.629790,-0.680297
-0.055425,-0.057304,0.024387,-0.529424,0.828779,-0.181207
-0.338207,0.532476,0.019424,-0.059007,0.511265,0.857395
0.278491,-0.097644,0.338925,0.157007,-0.133792,0.978493
0.388665,0.192686,0.439886,-0.155476,0.947512,0.279373
0.668922,-0.109913,-0.937204,-0.622109,0.601011,-0.501764
-0.257084,-0.045307,0.074916,-0.311110,0.583694,0.750008
0.255595,0.023236,-0.901864,0.584328,-0.561054,-0.586327
0.595521,-0.238293,-0.899553,-0.236890,0.953254,-0.187591
0.609765,0.036461,0.271476,0.989946,0.075582,0.119556
0.517890,-0.573874,0.052322,0.480729,0.752458,-0.450229
0.011974,0.393716,0.442805,0.611452,0.161709,-0.774582
0.312738,-0.203395,-0.932422,0.810883,0.526387,-0.255705
0.459419,-0.229123,-0.943280,-0.341075,0.524832,-0.779884
-0.356758,0.008596,0.307178,0.766530,-0.554278,-0.324356
0.334354,-0.705671,-0.913088,0.944677,-0.166243,0.282751
0.247127,-0.174718,-0.918167,0.117656,-0.354982,0.927440
0.013162,-0.272737,0.351205,0.502656,-0.116579,0.856590
0.238630,-0.476281,-0.901045,-0.506476,0.454106,-0.732987
0.454186,-0.504111,-0.878382,0.199555,0.164873,0.965917
0.282576,0.023656,0.403990,-0.415448,-0.433930,0.799442
0.801262,0.310669,0.215860,0.375425,-0.695453,0.612700
-0.062781,0.356857,0.413618,-0.114532,0.283748,0.952035
0.425415,-0.302402,-0.925320,0.898267,0.320177,-0.301004
0.678916,0.224339,0.280464,-0.123069,-0.887903,-0.443264
0.372605,-0.839701,0.073727,0.036032,0.329941,0.943314
0.244384,-0.470420,-0.942097,0.911622,0.341044,-0.229423
0.576964,-0.488571,-0.906786,-0.451138,0.544082,0.707425
0.619625,-0.298367,-0.876490,0.125200,0.327869,0.936391
0.383266,-0.510653,-0.908621,0.913061,-0.392096,0.112163
0.249971,-0.389294,-0.945235,0.635065,-0.400302,0.660644
-0.424485,0.548769,0.450518,-0.003016,-0.363122,0.931737
0.485669,0.005778,-0.919275,0.311768,-0.883447,0.349745
0.235022,0.179216,-0.924255,0.851567,0.001939,0.524243
0.267677,-0.441509,-0.971048,-0.779999,-0.022602,0.625373
0.411326,0.025218,-0.950978,0.860731,0.104131,-0.498296
0.474460,0.200794,0.299057,0.178662,-0.827280,0.532623
0.324033,-0.050993,-0.971085,-0.270093,0.137065,0.953028
0.423528,0.026892,0.321335,-0.499957,0.736820,-0.455126
0.600401,-0.103040,-0.911823,-0.134376,-0.870859,-0.472808
0.213435,-0.251707,0.319444,0.357207,-0.610059,0.707271
0.487411,-0.011686,-0.922839,0.264186,0.650120,0.712425
0.047549,0.414908,0.010805,0.391075,-0.605850,-0.692825
0.547859,0.231555,0.345995,0.459841,-0.805720,-0.373312
0.387920,0.627177,0.436620,0.758303,0.491717,0.428009
-0.641698,0.289305,0.015912,0.334366,0.139827,-0.932013
0.318087,-0.377576,-0.942365,0.776382,-0.069645,0.626403
0.491940,-0.614069,-0.909841,0.472086,-0.292647,-0.831560
0.349180,0.139102,-0.932923,-0.023578,0.984945,0.171252
0.314632,-0.200221,-0.945279,0.100854,0.219730,0.970334
0.386675,-0.046891,-0.960205,0.185828,0.516279,0.836017
0.730734,0.228986,0.340260,0.668529,-0.649001,0.363135
0.310015,-0.742411,-0.933077,0.198218,-0.921804,-0.333148
0.092492,-0.421201,0.182203,0.036822,0.356323,0.933637
0.224527,-0.247616,-0.961890,-0.513463,-0.020134,-0.857875
0.474624,-0.560121,-0.914776,0.359094,0.684404,0.634541
0.247641,-0.413464,-0.962853,-0.335488,-0.654132,0.677908
-0.078595,0.347996,-0.023963,0.288490,-0.468045,-0.835289
0.278194,-0.324069,-0.962663,0.988538,0.014855,0.150237
0.541908,-0.205345,-0.931259,0.057977,0.997851,-0.030517
-0.080847,-0.447198,0.271944,0.840925,-0.076380,-0.535734
0.523576,-0.541412,0.066048,0.497043,0.507164,-0.704083
0.380710,-0.183655,-0.954525,-0.101699,0.837650,-0.536656
-0.339907,0.319444,-0.003516,-0.480816,0.061323,-0.874674
0.568554,-0.334465,0.170088,0.976494,-0.184221,-0.111905
0.517462,0.021703,0.291553,-0.200019,0.887602,-0.414916
0.325007,-0.596760,-0.949048,-0.349165,0.085609,-0.933143
0.444923,-0.393670,-0.881072,0.282088,-0.113678,-0.952630
0.425892,0.015459,-0.945077,0.829339,0.307426,-0.466568
0.430365,-0.519847,-0.903130,0.405704,0.031835,0.913450
0.295952,0.161834,-0.924313,0.879153,-0.380529,-0.286857
0.511676,-0.581400,0.084598,-0.506377,0.862104,-0.018963
0.181064,-0.316129,0.326369,-0.096747,-0.532929,-0.840611
0.405389,-0.627583,-0.918905,0.210858,-0.467579,0.858434
0.213497,-0.124308,-0.936876,-0.210886,-0.959763,-0.185426
0.184151,-0.031357,-0.912453,-0.179351,-0.202922,0.962630
0.400095,0.184336,-0.934201,0.472317,0.816037,-0.333168
-0.276908,-0.021822,0.046208,0.256621,-0.581014,0.772378
0.180343,0.088595,-0.942571,0.788821,-0.251977,-0.560597
0.486800,-0.260758,-0.905658,0.080155,0.164315,0.983146
0.370285,-0.077650,0.310480,-0.676751,0.607001,0.416603
0.440379,-0.203423,-0.975531,-0.044869,0.038604,0.998247
0.389063,-0.089867,-0.930530,0.222211,-0.599175,-0.769163
0.327131,-0.180971,-0.948072,0.115848,-0.032772,0.992726
0.435010,-0.101662,0.286242,0.162375,0.399066,-0.902431
0.485563,0.059194,0.323029,-0.109742,-0.803221,0.585484
0.834620,0.872963,0.276926,-0.017387,-0.752491,0.658373
0.584876,-0.114772,-0.946320,-0.562850,-0.072330,0.823388
0.304334,-0.055617,-0.967025,-0.658971,-0.728794,-0.186055
0.343658,-0.048009,0.279653,0.697346,-0.295064,0.653181
0.150059,-0.225853,0.328267,-0.445881,-0.765695,0.463575
0.557277,-0.293562,-0.894842,0.968186,0.201845,-0.147904
-0.004985,-0.303049,0.344308,-0.303146,0.154761,-0.940293
0.472623,0.060692,-0.951623,0.289320,-0.332981,0.897451
0.161097,-0.226759,-0.973713,0.020546,0.212157,0.977020
0.321161,-0.403048,-0.908510,0.243367,0.379438,0.892636
-0.565642,0.444271,0.312349,0.881497,0.112482,-0.458596
0.276427,0.161086,0.434293,-0.341102,-0.733379,0.588052
0.285356,-0.065173,-0.965284,0.971666,-0.219234,-0.088329
0.248215,0.136166,-0.971378,0.245028,0.846719,0.472259
0.119572,-0.452787,0.250882,-0.202724,0.116871,0.972237
0.187409,-0.116909,-0.947555,0.824110,0.493875,-0.277363
0.406259,-0.191834,-0.927581,0.176364,0.884899,0.431102
0.025350,0.428436,0.498592,0.022829,-0.746079,0.665466
0.453922,-0.712576,-0.888240,0.294730,0.948680,0.114629
0.242804,-0.435771,-0.923557,0.280062,0.956112,0.086104
0.718728,-0.005160,0.152900,-0.549549,0.330806,-0.767179
0.511830,-0.719899,-0.922775,0.308559,-0.307084,0.900273
0.495219,-0.548106,-0.926486,0.780366,0.513832,0.356379
0.211378,-0.324010,-0.947781,-0.148213,-0.259482,0.954307
0.019083,-0.182107,0.309099,-0.577745,-0.467442,0.669110
0.651735,-0.522225,-0.899806,0.119083,-0.046579,0.991791
0.411882,0.129141,-0.960247,0.013724,0.740232,0.672211
0.380258,-0.134234,-0.924768,0.861250,0.504714,0.059267
0.264772,-0.249097,-0.952360,0.317943,-0.944319,-0.084700
-0.867943,-0.553745,-0.061236,0.679622,0.364988,0.636315
0.350491,-0.043994,-0.906964,0.519830,0.654451,0.549064
-0.116970,-0.371509,0.290215,-0.150776,0.912579,-0.380087
0.488132,-0.256639,0.266861,0.617792,-0.563525,0.548428
-0.323566,-0.074830,0.021374,0.559481,-0.828813,-0.007068
0.307169,-0.040434,0.368232,0.751428,-0.656327,0.067754
-0.395328,0.287890,0.033106,-0.212169,-0.976755,-0.030564
0.382135,0.108636,0.420253,-0.567837,0.251121,0.783900
0.328787,-0.455308,-0.930357,0.026863,-0.002351,0.999636
0.437450,-0.722227,-0.924979,0.695618,0.312959,-0.646662
0.234845,-0.165055,-0.949348,0.076275,0.101332,0.991924
0.380405,0.172980,0.337584,-0.563134,0.103380,-0.819874
0.241119,-0.283446,0.334382,0.012966,-0.346306,0.938032
0.312690,-0.507731,-0.930555,0.628923,0.644732,-0.434484
-0.476316,0.549567,0.377241,-0.703070,0.585421,0.403700
0.100323,-0.526236,0.177067,0.428934,-0.533456,-0.729000
0.500418,0.329170,0.491633,-0.690302,0.574156,-0.440259
0.188038,-0.240727,-0.969821,-0.105652,0.802692,0.586961
0.576169,-0.377273,-0.888650,0.398219,0.167980,0.901778
0.482849,-0.533789,-0.919714,0.615892,0.579874,0.533314
0.353818,-0.698626,-0.894510,0.115036,0.024087,0.993069
-0.243174,0.260938,0.050671,-0.167883,0.024762,0.985496
0.466597,0.503032,0.416659,-0.418543,-0.758303,-0.499798
0.312572,0.015485,-0.973340,-0.236032,-0.398124,-0.886446
0.003877,-0.475615,0.259381,0.001901,-0.979009,0.203809
0.062412,0.017820,0.269427,0.465104,-0.885163,-0.012832
0.574923,-0.597132,-0.863288,0.970494,-0.236338,0.047806
0.311205,0.111329,-0.945908,-0.026139,0.168612,0.985336
-0.036877,-0.274169,0.277611,0.602508,-0.126826,-0.787971
0.461404,0.033034,-0.914018,-0.093632,0.023257,0.995335
0.521973,-0.495773,-0.893454,0.133252,-0.988673,0.069064
0.352999,0.016939,0.406458,-0.055844,-0.648489,0.759173
-0.064932,0.003243,0.372073,0.837419,0.006951,0.546518
0.481019,-0.544509,-0.913023,0.723530,0.395736,0.565595
0.669855,-0.467042,0.046598,-0.489002,0.109007,-0.865445
0.421727,0.015281,-0.947340,0.876041,0.230350,-0.423664
-0.380373,0.497010,0.411960,0.896059,-0.223867,-0.383357
0.252945,0.033051,0.405574,0.299216,-0.544336,0.783689
-0.364460,0.610326,0.427100,0.188293,0.076389,0.979138
0.583633,-0.572069,-0.927380,-0.409963,0.587527,0.697670
0.600859,-0.259346,-0.912243,0.914421,0.116213,0.387722
-0.020530,0.224292,0.461174,0.542860,-0.449015,-0.709711
0.467682,0.147954,-0.934877,0.884112,0.257720,-0.389777
0.234446,-0.110943,-0.961101,0.733223,0.342092,0.587671
0.170070,-0.293714,0.349177,-0.136292,-0.625401,0.768309
-0.077155,-0.048790,0.132638,0.841041,0.380529,-0.384509
0.414496,-0.622838,0.184203,-0.656541,-0.718183,0.230580
0.294976,0.151442,0.434887,-0.124557,-0.830993,0.542159
0.023846,-0.543846,0.196117,-0.406135,-0.886222,-0.222855
0.291335,-0.113257,0.339137,0.725977,0.026794,0.687197
0.366831,0.285898,0.470491,-0.577318,0.693526,-0.430959
0.312391,0.088805,-0.923836,-0.093843,-0.983975,0.151616
0.246307,0.194375,-0.938638,0.162845,-0.489905,0.856432
0.233988,-0.218131,-0.953750,0.507998,0.755109,-0.414424
0.128189,-0.235468,0.263205,-0.075733,0.155549,0.984921
-0.033208,-0.187985,0.342044,0.881028,0.242168,0.406379
-0.216733,-0.163972,0.167583,0.725550,0.568992,0.387073
-0.609582,-0.113558,0.019146,0.567186,0.760713,-0.315618
0.430448,-0.497180,-0.903947,0.843864,0.443411,0.302126
-0.326347,-0.131992,0.054874,0.155721,0.447167,0.880791
0.249707,0.152902,-0.945469,0.688903,-0.115806,0.715543
-0.381456,0.208847,0.908700,0.778412,0.593154,0.205532
0.623533,-0.205685,0.103101,-0.307565,0.385548,-0.869917
0.603890,0.228587,0.293030,0.912777,0.272535,-0.304241
0.292150,0.411875,0.500256,0.526236,-0.731795,-0.433073
0.441561,0.378899,0.437435,0.948860,0.099896,0.299477
0.360835,0.320738,0.496442,-0.368123,0.667853,-0.646883
0.079649,0.438991,0.508716,-0.269104,-0.817531,0.509143
0.569063,-0.418549,-0.902376,-0.384762,-0.285567,0.877730
0.328300,-0.061117,-0.962343,-0.163987,0.295920,0.941031
0.474412,0.491447,0.479214,-0.107560,-0.849780,0.516047
-0.126687,-0.039053,0.367436,-0.193370,0.106359,0.975344
0.028486,0.316610,0.463917,0.771080,-0.632048,-0.077143
0.368789,-0.703474,-0.896086,0.047075,0.437891,0.897795
0.340732,-0.090019,-0.926047,0.037874,-0.288578,0.956707
0.440243,-0.048185,-0.960276,0.527409,-0.203587,0.824859
0.471651,-0.377780,-0.928903,0.152528,-0.586316,0.795593
0.405697,0.024900,-0.926260,-0.677324,-0.719815,-0.151980
0.255488,-0.528034,-0.935068,-0.449843,-0.172101,-0.876369
0.348067,-0.347942,-0.905341,-0.533812,0.320623,0.782461
0.089022,0.252627,0.414475,0.295398,-0.641916,0.707591
0.318333,0.156527,0.365051,0.307814,-0.894220,0.324995
0.262443,-0.282362,-0.970895,-0.375585,-0.250245,-0.892364
0.415926,-0.467454,-0.929193,-0.259566,0.855978,0.447132
0.669411,0.054541,-0.938117,-0.621108,-0.370512,-0.690612
-0.405574,0.044706,0.298126,-0.601020,0.767568,0.222743
0.278230,-0.535482,0.143913,0.421261,-0.538848,0.729508
-0.269496,-0.742196,0.042503,-0.485516,0.698686,-0.525464
-0.062407,0.480868,0.892477,0.920862,-0.132045,-0.366849
-0.228814,-0.350061,0.153202,0.583431,0.792075,-0.179513
-0.019326,-0.386204,0.208804,0.409429,-0.497326,0.764876
0.049149,-0.479803,0.221678,-0.688033,-0.641639,-0.338983
0.137690,-0.428421,0.227858,0.483004,-0.653459,-0.582837
-0.185133,-0.377537,0.270026,0.247418,0.073185,-0.966141
0.485957,-0.573667,-0.912132,-0.627512,-0.591067,-0.506822
-0.053130,0.118004,0.017132,-0.269257,-0.889165,0.369982
0.237512,-0.447885,-0.932930,0.679967,0.606362,-0.412274
0.383986,-0.253590,0.273509,0.633324,-0.663862,-0.397728
0.428216,-0.394250,-0.948479,-0.027065,0.675536,0.736831
0.264956,-0.231258,-0.974198,-0.482754,0.078791,-0.872204
0.348852,0.494291,0.474884,-0.445584,0.389817,0.805914
0.220733,0.124244,-0.943794,-0.359026,-0.102127,0.927723
-0.021014,0.120007,0.049412,-0.099331,-0.767515,0.633288
0.293010,-0.297985,-0.970163,-0.118685,0.416841,0.901198
-0.814364,0.399638,0.006486,-0.382890,-0.922877,-0.041151
0.488165,-0.309080,-0.936266,0.148020,-0.078176,0.985890
0.294353,0.106359,-0.938714,0.620995,-0.716754,0.317221
0.327571,-0.293028,-0.928309,0.145796,0.987800,-0.054727
-0.591403,0.485245,0.378398,-0.629887,0.529468,0.568248
0.456510,0.041644,-0.938066,-0.524320,-0.555823,0.645097
0.706877,-0.046370,0.137575,0.804768,0.562184,0.190522
0.402078,0.113445,-0.933679,-0.003258,0.933436,0.358729
0.302342,-0.133882,0.374091,0.827957,0.560348,0.022311
0.219127,0.250435,-0.927031,-0.135279,0.036056,0.990151
0.325373,-0.415144,-0.905299,-0.684043,0.333649,0.648662
0.386109,-0.756503,-0.943926,0.854117,0.505892,-0.120656
0.570740,-0.115898,-0.912927,0.281679,-0.897775,0.338611
0.557070,-0.305869,-0.928584,0.379859,-0.226662,0.896845
-0.621510,0.774290,0.477763,-0.422665,-0.786759,0.449849
-0.053783,-0.096799,0.147546,0.973647,-0.175883,-0.145181
0.276044,0.084921,-0.967434,0.711756,0.345619,0.611515
0.221800,-0.238283,0.331384,-0.533342,0.227219,-0.814812
0.272370,0.255551,0.515278,0.183890,0.153602,0.970871
-0.604402,-0.053529,-0.016384,0.379839,0.851997,0.360310
0.385183,-0.469376,-0.902534,0.292915,0.641276,0.709201
0.607305,-0.000028,-0.905724,-0.240054,0.114547,0.963978
0.416761,-0.349732,-0.934502,0.795689,0.582894,0.164659
0.439465,0.189564,0.461097,-0.483657,0.786747,-0.383543
0.264975,-0.020425,-0.940603,-0.478329,0.231843,-0.847024
0.474217,-0.522435,-0.901377,-0.109098,-0.503602,0.857019
-0.229617,-0.138391,0.146106,-0.668518,-0.462341,-0.582515
-0.298873,0.579906,0.010534,0.167089,0.905422,0.390246
0.089389,-0.155329,0.347606,-0.632408,0.158628,-0.758220
0.551919,-0.757023,-0.861277,-0.066573,-0.116419,0.990966
0.513785,-0.938124,0.000351,0.031610,-0.953748,0.298940
0.661966,0.121457,0.344662,0.931592,-0.332955,0.145866
0.307854,-0.626968,0.125405,0.545950,0.824296,-0.149913
0.172793,-0.304171,-0.926731,-0.426954,-0.287462,-0.857366
0.350602,-0.006020,-0.953358,-0.158807,-0.469465,0.868552
0.746599,0.182636,0.172605,0.928450,-0.011623,0.371275
0.235991,-0.175106,-0.926126,0.387770,0.886917,-0.251023
0.587686,-0.157577,-0.919506,0.872174,-0.047619,0.486872
0.510283,-0.005638,-0.968180,-0.060454,-0.016763,0.998030
-0.079824,0.023976,0.079443,-0.249768,-0.965796,-0.069668
0.626727,-0.349460,-0.876187,0.040670,-0.524685,0.850324
0.104689,-0.259084,0.357576,0.477395,0.140948,-0.867311
0.679605,-0.184697,-0.941559,0.746514,-0.066647,-0.662024
0.276853,-0.029955,0.297564,0.719118,0.082550,0.689968
-0.050731,0.536100,-0.017175,-0.434981,0.059779,-0.898453
0.054525,0.004234,0.021233,0.576652,-0.555505,-0.599071
0.570313,0.101526,-0.959208,0.324730,0.475647,-0.817502
0.496550,-0.762587,-0.943007,0.324331,0.275230,-0.905018
0.140962,-0.322024,0.320264,-0.620493,0.448158,0.643539
0.269814,0.178763,-0.936649,-0.337374,0.866280,-0.368427
-0.041707,0.000579,0.403063,-0.294039,-0.690652,0.660712
0.462471,-0.168650,0.264179,0.542137,-0.399436,0.739283
0.360270,-0.452377,0.182017,0.862936,-0.503095,0.047301
0.621131,-0.340718,0.095685,-0.360583,0.630230,-0.687597
0.464819,-0.527042,-0.929485,0.503807,0.253232,0.825865
0.394376,-0.329495,-0.934146,-0.557362,0.128924,0.820199
0.447551,0.179116,0.389587,0.240307,-0.958625,-0.152614
0.414521,0.158560,-0.939643,-0.687838,0.654856,0.313117
0.548429,0.517351,0.447405,0.203146,-0.975301,0.086718
0.483040,0.058159,-0.967652,0.593624,0.625363,0.506489
0.556779,0.421534,0.431602,0.844736,0.080283,-0.529127
0.014186,0.116588,0.002542,-0.200872,0.899955,-0.386952
0.389861,-0.007660,0.296515,-0.573308,0.611564,0.545258
0.083465,0.368098,0.483021,0.248112,-0.815629,0.522676
0.663241,0.040900,0.267024,-0.839078,0.537725,0.082459
0.186591,-0.119624,-0.937074,0.871502,0.305161,0.383875
0.309159,0.433825,0.416755,-0.208758,-0.741332,0.637845
-0.060348,-0.034751,0.189913,0.801824,-0.535329,-0.265520
0.477925,-0.307201,-0.926354,-0.211029,0.425183,0.880163
-0.558961,0.859488,0.311551,-0.507244,0.270342,0.818303
0.565990,0.017010,-0.946839,0.286726,-0.937948,-0.195043
0.038643,0.087578,0.399819,0.755110,-0.631072,-0.177644
0.349193,-0.135608,-0.949580,0.159968,-0.472839,0.866507
-0.115726,-0.140100,0.214414,0.170719,0.840228,0.514657
0.316489,0.238175,-0.936860,0.719664,-0.649246,0.246097
0.499496,-0.134028,-0.905350,0.262754,-0.234853,0.935844
-0.106695,-0.654254,0.112956,0.942045,0.335286,0.011558
0.290946,-0.207632,0.304001,-0.135488,-0.303490,-0.943153
-0.053948,-0.144109,0.316603,-0.630478,-0.775032,-0.042704
-0.160199,-0.335995,0.185571,0.340650,0.827768,-0.445822
-0.139908,-0.068255,0.078909,-0.008087,0.916760,0.399357
0.255738,0.086040,-0.952960,-0.374321,-0.462235,-0.803880
0.286611,-0.028233,-0.962407,-0.239846,0.654027,0.717441
0.337476,-0.468733,-0.900151,-0.027350,-0.350046,0.936333
0.543940,0.098280,0.238537,-0.593233,-0.102546,-0.798473
-0.193464,-0.114027,0.072935,0.023011,-0.870786,0.491124
0.247879,-0.465514,-0.891498,-0.120996,0.126533,0.984555
0.295004,-0.398487,-0.913644,0.028089,-0.096385,0.994948
0.531592,-0.050923,-0.956964,0.031480,-0.972641,0.230173
0.489378,-0.367901,-0.916959,0.001013,-0.465434,0.885082
0.415555,0.083197,0.420240,0.981902,-0.109778,-0.154330
0.482313,0.077568,-0.941802,0.274586,-0.373481,0.886067
0.612012,-0.022530,0.196113,-0.496649,0.485499,-0.719465
0.280686,-0.473099,-0.952536,-0.061680,0.206617,0.976476
-0.113314,-0.094210,0.095589,-0.504702,0.469712,0.724325
0.480988,0.061717,-0.891858,-0.095525,-0.085883,-0.991715
0.198527,0.240490,-0.980518,-0.204324,0.814823,0.542508
0.384395,-0.415327,-0.913106,0.790294,-0.481428,0.379029
0.305139,-0.071445,-0.931139,0.602290,-0.728910,0.325479
-0.799048,0.076317,0.000580,0.986698,0.046344,-0.155820
0.487605,0.152265,-0.957239,0.886827,0.395317,0.239295
0.264910,-0.564016,-0.947431,0.231467,-0.023860,0.972550
0.415557,-0.155462,-0.948830,-0.541363,0.732630,-0.412527
-0.460083,0.736848,0.435995,0.268557,0.927702,-0.259318
-0.008982,-0.005685,0.122566,-0.509160,0.794201,0.331664
0.269949,-0.495343,-0.942049,-0.271287,-0.674052,-0.687064
0.299498,-0.510339,-0.947984,-0.617056,-0.703734,0.352137
0.374654,-0.038202,-0.962744,0.559056,0.637131,-0.530585
0.451978,0.507049,0.494965,-0.473849,0.840844,0.261628
0.282329,0.173383,0.488093,-0.619936,-0.784285,-0.024011
0.573144,-0.669565,-0.878417,0.076426,0.192693,0.978278
0.501788,-0.139304,-0.956379,-0.113765,0.391670,0.913046
0.609841,-0.062082,-0.979095,-0.130194,0.206563,0.969733
0.388782,0.053219,-0.923808,0.986909,0.126718,0.099768
0.275227,-0.109729,-0.933083,0.162316,-0.018391,0.986567
0.355414,-0.225244,-0.955697,0.807195,0.587488,-0.057391
0.751199,-0.110511,0.152516,0.150278,-0.064938,0.986509
0.202220,0.097408,0.414766,0.214343,0.183945,0.959282
0.296227,-0.053222,-0.947296,-0.193751,0.930205,0.311734
-0.290891,-0.276584,0.043957,0.227910,-0.322209,0.918825
-0.017003,-0.177929,0.282824,0.841846,0.288684,-0.456023
0.594334,0.248501,0.280492,0.985149,0.055278,-0.162563
0.181150,-0.592846,-0.945883,0.592973,0.488944,0.639778
0.327411,-0.460431,-0.954437,-0.286157,-0.125058,0.949987
0.135022,-0.372202,0.257707,0.323645,-0.370333,0.870694
0.502089,-0.571632,-0.932976,0.919064,-0.252682,0.302444
0.285995,-0.152531,-0.911151,-0.050021,0.043843,0.997785
0.441752,-0.392108,-0.883075,-0.582279,-0.090091,0.807982
0.505545,-0.296836,-0.906516,0.259173,-0.026025,0.965480
0.228029,-0.063590,-0.925697,-0.117522,0.902143,-0.415123
0.530252,-0.259703,-0.866918,-0.526515,-0.755197,0.390460
0.436740,0.014593,-0.962032,0.577903,0.290029,0.762831
0.261310,-0.070767,-0.989149,0.121086,0.586206,0.801062
0.207817,0.262552,-0.941559,-0.701211,-0.663922,-0.259830
-0.019113,-0.221257,0.301166,-0.504047,0.010170,0.863617
0.225471,-0.393890,-0.969953,-0.299659,-0.159710,0.940583
-0.208533,-0.042229,0.332638,0.765877,0.630884,0.124166
0.428236,0.151053,-0.921284,-0.624806,0.013222,0.780668
0.442118,-0.432895,-0.911703,0.779780,-0.521788,0.345950
0.336815,-0.265306,0.242767,-0.291656,-0.914987,-0.278812
0.037518,0.310077,0.465468,-0.749722,0.661713,-0.007301
0.027112,0.012647,0.357502,0.453385,-0.263678,-0.851420
0.489261,-0.108734,-0.920919,-0.016718,0.871194,0.490655
0.459405,-0.323041,-0.894139,0.006388,0.288934,0.957328
0.436848,-0.476570,-0.908090,-0.698238,0.273248,-0.661664
0.184310,-0.331739,-0.967578,0.457924,-0.099655,-0.883388
0.040870,-0.076827,0.369149,-0.001181,-0.861914,0.507053
0.274687,-0.337352,-0.947243,-0.203469,0.850158,0.485624
0.598409,0.368552,0.413010,0.638006,0.482235,0.600331
-0.215275,-0.053148,0.091235,-0.104818,-0.272086,0.956547
0.247822,0.008692,0.405297,0.579556,-0.672213,0.460700
0.267820,-0.409113,-0.928429,0.989533,0.133178,-0.055565
0.298357,-0.514833,-0.929426,-0.133832,0.458386,0.878619
0.530682,-0.717874,-0.889137,-0.260821,0.805783,0.531682
0.482039,0.422832,0.363740,-0.171361,0.176082,0.969345
0.285407,-0.203945,0.297535,-0.231728,-0.787267,-0.571413
0.530820,-0.022647,-0.924812,-0.030982,-0.066582,0.997300
0.356986,0.090550,-0.963453,0.837563,-0.474784,0.270310
-0.314592,0.528287,0.016455,-0.055291,0.075945,0.995578
0.299211,-0.698080,-0.944496,0.333158,0.107418,-0.936732
-0.178080,-0.081950,0.369582,0.445851,0.864729,0.231217
0.406725,-0.126201,-0.923810,0.404926,0.051704,0.912887
0.576649,-0.756721,-0.923655,-0.585826,0.151934,0.796067
-0.347599,0.059555,0.315991,0.900100,0.169566,-0.401331
0.074494,0.114486,0.364731,-0.701832,0.285408,-0.652667
0.435468,-0.086209,-0.947893,0.365927,0.930276,-0.026138
0.446229,-0.407607,-0.938050,0.475882,-0.459179,-0.750127
0.494187,-0.583576,-0.864757,-0.404179,0.538430,-0.739414
0.384783,0.187294,0.450307,0.440317,0.666667,0.601395
-0.194524,-0.606450,0.141541,0.671531,-0.305393,0.675116
0.372220,-0.515007,-0.898673,0.202396,0.045954,0.978225
-0.017965,0.388264,0.524263,-0.537033,0.292146,-0.791357
0.366975,-0.422935,-0.921618,0.077604,-0.086214,0.993250
0.466978,-0.258474,0.295644,-0.703283,0.307163,-0.641127
0.186027,0.129451,0.417353,-0.050815,-0.059478,0.996935
0.335829,-0.113159,-0.932869,0.861468,0.476879,-0.174526
0.381267,-0.351822,0.268868,0.909888,-0.034122,-0.413448
0.376438,0.022487,-0.932077,-0.000196,0.312582,0.949891
0.251577,-0.391267,0.235085,-0.314799,0.910180,0.269209
0.413484,-0.452483,-0.909026,0.961643,0.273603,0.019591
0.269851,-0.361910,-0.935035,0.520962,0.072808,-0.850469
0.498790,-0.069171,-0.896817,0.105868,0.229596,0.967511
0.583970,0.121387,0.304241,0.225088,-0.239389,0.944473
0.242583,-0.021112,-0.983422,-0.561902,0.118923,0.818611
0.588506,0.784359,0.313976,0.682322,0.406711,0.607472
0.443073,-0.255325,-0.915625,0.944648,-0.305759,0.118957
0.389802,-0.553620,0.162357,0.730153,0.400639,-0.553502
0.462497,0.086293,-0.924673,0.238614,-0.383169,0.892325
0.483553,-0.326862,-0.896741,0.542554,-0.202089,0.815350
0.571932,-0.007765,0.229199,-0.263739,0.737147,0.622138
0.518863,-0.531900,-0.904719,0.267395,0.201065,0.942376
0.618012,-0.687706,-0.868931,-0.295557,0.499779,0.814166
0.640346,-0.176691,-0.918901,-0.554814,-0.389328,0.735259
0.340836,0.227873,0.384306,-0.626374,0.200347,-0.753337
0.522737,-0.011307,0.251250,-0.362415,0.302271,-0.881639
0.400905,-0.084962,-0.962214,-0.339955,-0.281643,0.897278
-0.555609,-0.308555,-0.050808,-0.230131,-0.248723,0.940838
0.456858,-0.131675,-0.942626,0.980709,0.154821,0.119332
-0.439418,0.699650,0.480373,0.739841,0.462656,-0.488452
0.311401,-0.091365,0.299914,-0.682535,0.710115,-0.172867
0.495233,-0.556337,-0.887884,-0.507314,-0.232736,0.829739
-0.691211,-0.008377,-0.006135,0.969426,0.230074,0.085318
0.207703,0.012279,0.429517,-0.683390,0.684173,-0.254726
0.363160,0.013097,0.320520,0.145647,0.822765,-0.549404
0.246528,-0.272241,-0.917838,-0.022118,0.539287,0.841832
0.319070,-0.004195,-0.920931,0.532408,-0.663848,-0.525212
0.328003,-0.520079,-0.937833,-0.369726,0.887549,0.274880
0.538092,-0.448867,-0.869691,0.117839,0.220395,0.968267
0.187079,0.190448,-0.923392,-0.482674,-0.170540,-0.859035
0.424785,0.016318,0.363874,0.875606,-0.297269,0.380717
0.079322,-0.510174,0.225558,0.813750,0.472458,-0.338517
0.059521,-0.064014,0.343949,-0.117228,-0.096254,0.988429
0.664342,-0.045708,-0.928896,0.723621,-0.599732,0.341605
0.278791,0.466492,0.490030,-0.076069,0.882600,0.463929
0.481777,-0.078519,-0.924448,-0.285259,0.329177,0.900150
0.450210,-0.735016,-0.901658,0.022356,0.969114,0.245599
0.197033,-0.405212,0.226501,-0.567388,0.757920,-0.321913
0.323987,-0.024312,0.334240,0.651782,-0.228413,0.723193
0.224648,-0.487819,-0.914806,0.988516,0.095264,0.117308
-0.058786,-0.078170,0.097999,-0.553928,0.674617,0.487909
-0.425569,0.278758,0.369813,0.564344,0.441183,-0.697763
-0.083963,-0.009055,0.105754,0.378868,0.722713,0.578053
0.509148,0.595792,0.407891,0.344229,0.923494,-0.169308
0.588549,-0.115578,-0.874889,0.006129,0.056347,0.998392
0.634179,-0.966509,-0.048665,0.459361,0.341403,0.820019
0.241068,0.326503,0.511495,-0.143920,-0.123953,0.981796
0.604797,-0.489843,-0.872246,-0.276297,0.917906,-0.284794
0.597615,-0.390137,-0.892572,0.613587,0.142095,0.776737
0.133718,-0.477035,0.234605,-0.444786,0.895251,0.026292
0.196462,0.186647,-0.916026,0.187901,-0.186654,-0.964289
0.428678,-0.620762,-0.917163,0.244406,0.366149,-0.897887
0.168029,-0.254382,-0.928763,0.803683,-0.245281,0.542155
0.551000,0.081585,0.363950,-0.034126,0.848751,-0.527691
0.337683,-0.100034,0.299975,-0.337410,-0.937803,-0.081731
0.492910,-0.578658,-0.927875,0.874338,-0.289122,0.389797
0.501440,-0.753342,-0.946914,0.441949,0.428760,-0.787938
0.681011,-0.019939,0.227194,0.759779,0.010626,0.650095
0.708883,0.181298,0.179191,0.266406,0.372092,0.889143
0.674609,-0.985466,-0.040053,0.459361,0.341403,0.820019
0.049656,0.209649,0.470122,-0.350982,-0.111857,0.929677
-0.142288,-0.649460,0.141329,0.776868,0.628268,0.041894
0.093853,0.109888,0.424894,-0.172462,-0.884719,0.433046
0.250050,-0.267241,0.316457,-0.468951,-0.402592,0.786133
0.386472,-0.341148,-0.913990,0.350614,0.323076,0.879029
0.253282,0.282774,-0.950728,0.725959,-0.676323,0.124783
0.237451,-0.450816,-0.962282,-0.173235,0.789203,0.589193
0.295845,-0.354613,-0.954094,-0.128421,0.683034,-0.719008
0.625070,-0.755642,-0.898315,-0.458936,0.161269,0.873711
-0.716089,0.169791,-0.021766,-0.255873,0.956204,-0.142135
0.259957,-0.136183,-0.903683,0.033073,0.223001,0.974257
0.497773,0.516681,0.504595,0.094756,0.962723,-0.253348
0.368191,0.063358,-0.949917,-0.323674,0.568693,0.756191
0.344763,0.050806,0.380415,-0.470449,0.571504,0.672354
0.265432,0.242433,0.461103,-0.512474,0.837455,-0.189841
0.774661,0.273799,0.292749,-0.128399,0.919600,0.371281
0.530001,-0.452173,-0.930835,0.125078,0.719457,0.683182
-0.222798,-0.133942,0.022057,0.120018,0.190503,0.974322
0.834732,0.648235,0.092022,0.381102,-0.349594,-0.855888
0.203755,-0.027007,-0.907626,0.130532,-0.502243,0.854817
0.413960,0.458345,0.486464,-0.045513,0.565221,0.823683
0.553713,-0.105059,-0.953676,-0.578996,0.738545,0.345420
-0.304242,0.588111,0.422741,0.859938,0.113483,-0.497623
-0.018484,0.403771,-0.059660,-0.686017,0.716772,0.124974
0.421092,-0.338189,-0.888055,-0.247691,0.131938,0.959813
0.154468,-0.244311,0.307352,0.827382,0.555654,-0.081773
0.509402,-0.565118,-0.881763,-0.296712,-0.876404,-0.379313
0.157806,-0.287362,-0.937719,0.817321,0.541782,0.196108
0.505110,0.177941,0.437454,0.521168,-0.129046,0.843641
0.358000,-0.320082,-0.967860,-0.080665,-0.431385,0.898554
0.400894,0.027327,-0.962555,0.469514,-0.274129,-0.839291
-0.089120,-0.072411,0.365918,-0.284558,-0.205927,0.936280
0.622175,0.232902,0.237833,0.080913,-0.670185,0.737770
0.415871,-0.282503,-0.958249,0.220345,0.214362,0.951576
0.343505,0.230880,0.457063,-0.704919,0.072202,-0.705604
0.584252,0.294231,0.373418,-0.560741,-0.596545,0.574198
0.722556,0.100878,0.169302,0.896532,0.434520,-0.086157
0.399012,-0.712460,0.076185,-0.047606,-0.640985,0.766075
0.545899,-0.697885,-0.916444,-0.162521,0.614992,-0.771604
0.429486,-0.006312,-0.902752,0.199174,0.292301,0.935355
0.429598,-0.641716,-0.921135,0.181303,0.475908,-0.860605
0.381772,-0.316600,-0.903388,0.210108,0.192047,0.958631
0.627788,-0.194995,-0.933459,-0.565916,-0.362666,0.740413
0.424793,-0.131375,-0.930273,0.111239,-0.054746,0.992285
-0.572571,0.293712,0.348683,0.294745,-0.071319,0.952911
0.093899,-0.044012,0.366489,0.794881,0.590628,-0.139008
0.480361,-0.291828,-0.913158,0.854683,-0.188115,-0.483869
-0.024160,0.124362,0.025684,-0.004612,-0.959291,0.282382
0.463119,0.002139,-0.926118,0.362831,0.726637,-0.583398
0.574999,-0.790307,-0.877062,-0.037205,-0.393705,0.918483
0.724381,0.086008,0.158599,-0.499309,-0.262975,0.825551
0.281877,-0.468136,-0.909436,-0.756575,0.554070,0.347276
0.434288,-0.032458,-0.936482,0.369415,0.171447,-0.913312
0.163417,-0.032727,-0.917044,0.936483,0.074788,-0.342645
0.456661,-0.660770,-0.928816,-0.502104,0.327079,-0.800569
-0.154017,-0.367837,0.055804,0.368379,0.646402,0.668178
0.281580,-0.360552,-0.925423,0.545098,0.837068,-0.046738
0.371306,-0.051601,0.258987,0.976556,-0.053223,-0.208582
0.195429,0.162208,-0.957474,-0.686012,-0.465581,-0.559127
0.264279,-0.425433,-0.915139,-0.141351,-0.593574,0.792269
0.404666,-0.402787,-0.922329,0.425516,-0.391513,-0.815876
0.362640,-0.514137,0.197875,0.973150,0.098802,0.207885
0.562386,0.600543,0.326669,-0.875198,0.482977,0.027586
0.359818,0.470310,0.490103,-0.095916,0.329184,0.939382
-0.119619,0.191986,0.421863,0.074784,-0.464568,0.882374
0.210532,-0.321313,-0.923780,-0.066320,0.811413,0.580699
0.224710,-0.175023,0.336639,0.180263,0.640273,0.746697
0.421236,0.095468,-0.909456,-0.194224,0.767969,-0.610328
0.620818,-0.745710,-0.874722,0.382926,-0.194997,0.902964
0.239272,0.046586,0.412903,-0.704574,-0.568244,0.425057
-0.126344,0.182128,-0.016655,-0.538101,0.093147,0.837718
0.342674,-0.549206,-0.953442,0.022443,0.223388,0.974471
0.373750,-0.550673,-0.894669,-0.462731,-0.164793,-0.871047
0.342893,-0.090968,-0.969216,-0.053043,-0.131488,0.989898
0.289573,-0.329325,-0.943427,-0.332973,0.207566,0.919807
0.260094,-0.149451,-0.941606,0.933114,0.024155,-0.358767
0.246170,0.159499,-0.936838,-0.643111,0.528410,-0.554248
0.712935,0.117895,0.225852,-0.265640,-0.513581,0.815886
0.250297,-0.167692,0.315496,0.908150,-0.413920,-0.062718
0.380345,0.109457,-0.943420,0.323975,0.785721,-0.526955
-0.177570,0.030876,0.346511,0.025217,-0.764732,0.643855
0.138716,-0.457040,0.196218,0.122680,-0.774906,-0.620056
0.741206,-0.103818,0.088423,-0.591868,0.062735,-0.803590
0.296009,-0.284021,-0.935397,0.406118,0.430608,-0.806005
-0.219692,-0.772396,0.027928,0.429419,-0.728653,0.533539
