-0.421172,-0.359123,0.445092,-0.623363,-0.273341,0.732601
-0.199305,-0.083505,-0.098239,-0.231707,-0.851312,0.470723
-0.319367,0.382144,0.704716,0.165287,-0.909435,0.381586
-0.133751,-0.475017,-0.378950,-0.683782,0.236899,0.690160
0.262548,-0.092640,0.283664,0.034204,0.956190,0.290740
0.082589,0.146312,0.203851,-0.559160,-0.820367,-0.119737
0.028085,-0.092061,-0.020811,0.778082,0.527015,-0.341824
0.278487,-0.262086,0.691657,0.241793,0.907589,-0.343248
0.035927,-0.728547,0.399747,-0.524172,-0.806428,-0.273710
0.101740,-0.112533,-0.972019,-0.185563,0.508013,0.841123
-0.484671,0.231667,0.671907,0.106092,-0.832885,0.543182
0.028345,-0.215473,0.108739,-0.213915,-0.079632,0.973601
-0.213831,-0.268446,0.861142,-0.609243,0.790587,-0.061604
-0.337491,-0.021630,0.696630,0.237893,0.933310,0.268960
0.805130,-0.033885,-0.945376,-0.180600,-0.022553,0.983298
0.029886,-0.090558,0.837844,-0.177196,-0.641662,0.746238
-0.099555,0.043606,-0.114411,0.617230,0.013393,0.786669
0.025257,0.115780,0.509228,-0.823562,0.519012,-0.228850
0.715018,-0.390008,-0.274094,0.171714,-0.792367,0.585380
-0.060480,0.003932,0.808729,0.850320,0.450950,0.271292
-0.043385,-0.840734,0.277963,0.960565,0.251802,0.117939
-0.066780,0.126765,-0.975800,-0.367812,0.424176,0.827520
-0.177455,0.084084,0.607539,-0.559225,0.011462,-0.828937
0.017545,-0.067657,0.775890,0.537650,0.293015,-0.790617
-0.366029,-0.448297,-0.326770,0.905362,0.212301,0.367759
-0.656149,0.300834,0.531479,0.889322,0.455488,-0.040463
-0.008420,-0.040944,0.341371,0.850715,0.517975,-0.089364
0.239796,0.229126,-0.136662,0.880524,-0.401705,-0.251615
-0.149430,0.078303,0.105918,0.620562,0.373186,-0.689662
-0.468089,-0.122254,0.241489,-0.311236,0.913595,-0.261679
-0.002509,-0.049966,0.743983,0.498899,0.611881,-0.613760
-0.222317,-0.171987,0.747473,0.994372,0.037978,-0.098904
-0.189408,0.234095,0.283955,0.356954,0.681457,-0.638905
-0.744844,-0.165047,-0.170024,0.407389,0.880167,-0.243599
-0.005851,-0.128381,-0.196550,-0.558616,0.717322,0.416410
-0.092875,-0.086279,-0.226538,0.501533,0.864964,-0.017374
-0.529277,-0.155447,0.654048,-0.632282,0.222313,-0.742157
0.134520,-0.747282,0.382382,-0.725585,-0.688131,0.001309
-0.651908,-0.178348,0.474237,0.991870,-0.126481,0.014004
-0.077960,-0.396715,0.253821,-0.567064,-0.288520,-0.771489
0.185551,-0.261740,0.535056,0.767184,0.434925,0.471453
-0.662320,0.632320,0.324879,-0.566043,-0.693688,0.445413
0.101740,0.028456,-0.975829,-0.142592,0.262183,0.954425
-0.766180,0.320615,0.447070,0.136404,-0.980363,0.142413
0.511922,-0.349064,-0.164003,0.257390,0.549837,0.794626
-0.757440,-0.160883,-0.168977,0.344112,0.934574,-0.090329
-0.477861,0.232825,0.154957,-0.517317,-0.761590,0.390339
-0.132723,0.013879,0.253356,0.874720,0.464044,0.139741
0.076932,0.256071,-0.606318,0.989461,-0.144072,-0.014508
-0.321038,0.046267,0.594828,0.686940,0.719344,-0.103232
-0.282602,0.087903,0.327235,-0.046275,0.996267,0.072876
-0.705510,-0.027065,0.675746,0.477290,0.620032,0.622700
0.144546,-0.024404,-0.966202,0.310591,0.000654,-0.950543
0.191078,-0.229471,-0.201204,-0.064504,0.997135,0.039522
0.256507,-0.289264,0.650878,0.436566,-0.103801,-0.893664
0.121923,-0.716977,0.437675,0.600326,-0.680469,0.420203
-0.079117,-0.045455,-0.352802,-0.502020,0.063821,0.862498
0.154828,-0.101782,-0.934294,0.328989,0.921457,-0.206598
-0.027960,0.241155,0.350591,0.196543,0.414284,-0.888673
0.266663,0.413721,0.125056,0.838117,0.107216,0.534850
-0.499585,0.270762,0.693838,0.375492,-0.413610,0.829417
-0.429657,0.383994,0.591513,0.864851,-0.092322,0.493467
0.051736,0.028456,0.308532,0.046648,0.364627,0.929984
0.192106,-0.111495,0.249662,0.639393,-0.044685,0.767580
0.142746,-0.088362,-0.934556,0.232772,-0.946643,0.222898
-0.008805,-0.094955,0.304926,0.543240,-0.531466,-0.649950
0.892923,-0.181235,-0.941886,-0.238798,0.175892,0.955007
0.001222,0.135328,-0.294338,0.962181,-0.199167,0.185849
-0.576708,0.628501,0.357281,0.520443,0.835695,-0.175366
0.114980,-0.421464,0.666584,-0.260276,0.853778,0.450909
-0.032459,-0.169904,0.804424,0.932932,-0.313759,0.176616
0.600104,-0.067431,-0.953084,-0.120728,0.127658,0.984443
-0.917476,-0.335065,-0.231250,-0.345504,0.910634,-0.226653
0.073076,-0.445290,-0.302424,0.983264,-0.109682,-0.145472
-0.015360,-0.148967,-0.029304,0.512143,-0.005979,-0.858880
-0.061638,0.003586,0.734384,0.220362,0.463163,0.858441
-0.108684,0.093685,-0.014616,0.974854,0.220844,-0.029795
-0.036316,-0.116931,0.866436,0.221463,-0.592815,0.774290
-0.050838,-0.560951,0.718881,0.987663,0.137666,-0.074636
-0.174242,-0.002082,-0.155190,0.179767,-0.714244,0.676417
0.043898,-0.068356,-0.275171,0.436851,0.899165,0.025752
-0.509353,-0.041749,0.717572,0.081215,0.969136,0.232764
-0.057522,0.007172,0.458472,0.829322,-0.521584,-0.200436
0.005721,-0.209112,0.356787,-0.287818,0.446814,-0.847064
0.183880,-0.116465,0.349428,0.135939,0.895315,-0.424183
0.016902,0.177077,0.612280,-0.824869,0.305882,0.475424
0.057263,0.452462,0.392999,0.676530,0.628526,-0.383749
-0.145574,-0.082926,0.228778,0.956160,0.034612,0.290792
-0.393406,0.488324,0.486540,0.147663,-0.650567,0.744955
-0.245712,0.079806,0.541135,0.775978,0.622258,0.103214
-0.096601,-0.211308,-0.980280,-0.123847,0.076510,0.989347
-0.462950,-0.556439,0.305973,0.647566,0.369255,0.666565
-0.240185,-0.028336,-0.988395,-0.374202,0.314141,0.872518
-0.533906,0.168288,0.656782,0.196857,0.880195,-0.431861
-0.466418,-0.052853,0.732785,0.398054,0.872028,0.284816
0.009319,-0.025442,-0.412196,0.545063,0.827356,0.135603
0.277459,-0.102360,-0.054580,0.467145,0.779298,0.417695
-0.002379,-0.038742,0.270080,-0.576871,0.697844,-0.424538
0.185806,0.330095,0.726967,0.893105,0.210196,0.397720
0.198018,-0.298053,0.451317,0.776872,0.589995,-0.219942
-0.017031,-0.193617,-0.197685,0.754239,0.385501,0.531518
-0.628897,-0.241035,0.241023,-0.003142,-0.996017,0.089103
-0.170257,0.070904,0.497244,0.202323,-0.909100,0.364146
-0.641109,0.208540,0.500153,0.799022,-0.480583,-0.361391
-0.399447,0.539674,0.490758,0.322199,-0.846445,0.423933
0.140561,0.235140,-0.974026,-0.022727,-0.159603,0.986920
-0.054823,0.043260,0.682989,0.222439,-0.239534,-0.945063
0.062151,-0.278280,0.287154,0.709521,-0.693892,0.122857
0.149300,0.058755,0.674990,0.409605,0.339651,0.846676
-0.006491,-0.852763,0.256992,0.855140,0.409058,-0.318445
-0.002634,-0.014112,-0.000218,-0.123180,-0.804901,0.580484
0.080529,0.079114,0.042335,0.890571,-0.449981,-0.066340
-0.476704,0.159499,0.626242,0.663877,-0.018160,0.747621
-0.619000,0.332644,0.178110,0.360389,-0.747915,0.557442
0.297897,-0.189332,-0.225491,0.933029,0.311434,-0.180182
-0.490457,-0.136013,0.424180,-0.224246,0.957544,-0.181173
-0.867217,-0.163890,-0.122322,0.828325,0.499733,0.253269
0.397647,-0.274926,0.662920,-0.090449,0.889675,0.447546
0.085418,-0.073326,0.618970,0.574824,0.278843,0.769301
0.223987,-0.281054,0.143032,0.750719,0.616501,-0.237378
-0.003023,0.163890,-0.979814,-0.076782,0.102355,0.991780
-0.064207,-0.155447,0.116563,-0.313595,0.705008,-0.636099
0.111637,-0.187715,0.831445,-0.383245,-0.794754,-0.470627
-0.172696,-0.139020,0.466063,-0.285535,0.928963,-0.235578
0.090556,-0.584543,-0.256381,0.534113,-0.836359,0.123395
-0.048653,0.650477,-0.087797,0.930900,0.100580,0.351154
-0.139278,0.044644,0.684734,0.721521,0.094701,0.685886
-0.474259,0.270303,-0.298759,0.213008,0.447880,0.868350
0.143773,-0.142726,0.105045,0.984939,-0.165466,-0.050159
0.057652,0.088016,0.156266,0.940078,-0.290933,-0.177798
0.005976,-0.871386,0.322087,-0.628727,0.489568,0.604174
-0.427986,0.387693,0.108477,-0.868004,0.414902,0.272809
0.065364,-0.143651,0.620802,0.581934,0.807874,-0.093232
-0.000065,0.517698,0.515190,0.412178,0.883556,-0.222348
-0.080534,-0.193497,0.601867,-0.725317,-0.081456,0.683579
-0.038242,-0.051929,0.878419,-0.034313,-0.998510,-0.042422
-0.456780,-0.023592,0.083928,-0.290899,-0.921077,0.258835
0.103282,-0.032268,-0.624845,0.328625,0.939595,-0.095740
0.052509,-0.030419,-0.785518,0.510010,0.857037,-0.073334
-0.007008,-0.117510,0.981123,0.656635,0.742964,0.129749
0.059837,-0.086279,-0.350911,0.515553,0.242213,0.821911
0.055467,-0.163770,-0.634677,-0.028045,-0.091631,0.995398
-0.306512,-0.117969,0.695729,0.996663,0.065661,-0.048491
-0.182723,0.030885,0.635113,0.101202,-0.985662,-0.135014
0.000834,-0.029720,0.121333,0.175433,0.968200,0.178359
-0.082460,-0.644575,0.273803,0.935301,-0.017444,0.353424
-0.831997,-0.291580,0.278370,-0.715152,-0.093771,-0.692650
-0.072178,-0.006014,0.210861,-0.100009,0.987720,0.120031
0.258947,-0.519773,-0.957767,0.034929,-0.244204,0.969095
-0.190824,0.271806,0.706956,-0.748813,-0.498491,0.436791
-0.190824,0.006594,0.638778,-0.195902,0.850507,-0.488119
-0.053541,-0.022555,-0.066244,0.209234,0.977848,-0.005879
-0.473232,0.363408,0.050566,0.841706,0.471967,-0.262255
0.047366,-0.527179,-0.141170,-0.743816,0.369944,0.556667
0.469246,-0.167709,0.433778,0.866787,0.444630,0.225798
0.221414,-0.443440,-0.962450,0.236419,0.257270,0.936973
0.062406,-0.440779,-0.956022,-0.372425,-0.368219,0.851889
0.432995,-0.082693,0.344338,0.273165,0.930223,0.245085
0.342758,-0.670942,-0.048821,0.912844,0.208238,0.351217
0.030016,-0.027524,0.668911,0.368794,-0.929292,0.020202
0.245967,0.174649,0.680837,-0.764509,0.641255,-0.065710
0.066521,0.192226,0.702477,0.178053,-0.968926,-0.171695
0.025002,-0.026254,0.772429,-0.253457,0.959151,0.125652
-0.240185,-0.045335,0.617603,0.588019,0.808073,-0.035372
-0.338263,-0.423547,-0.041433,-0.900740,0.434255,-0.009487
-0.093001,-0.044643,0.764198,-0.099064,0.958009,-0.269082
-0.204577,0.191535,-0.536656,0.850044,0.513884,0.115535
0.137477,-0.053199,-0.965213,-0.311548,0.045897,0.949121
0.405359,-0.259537,0.053097,-0.261034,-0.886666,0.381686
0.117937,0.121675,0.579675,-0.378577,0.546563,0.746959
0.115882,0.194429,0.722139,-0.481404,-0.405658,0.776976
0.704608,-0.187249,-0.945347,-0.039948,0.289714,0.956279
0.031427,-0.000692,-0.172641,0.746805,0.112469,0.655464
0.681471,-0.365025,-0.938715,0.034978,0.165483,0.985592
0.057008,-0.090677,0.905993,-0.631105,0.773805,0.054148
-0.053541,-0.209804,-0.005832,-0.493760,-0.817327,-0.296947
0.004819,-0.515615,0.696717,-0.202014,-0.928264,-0.312276
0.009189,-0.139020,0.216882,-0.001524,-0.238407,0.971164
-0.630055,-0.264973,-0.292244,0.234766,-0.969244,0.073826
0.343402,-0.716052,0.395064,0.090706,-0.954453,0.284240
-0.919406,0.057484,0.271389,-0.521625,0.618656,0.587513
0.308822,-0.115427,-0.322378,0.063419,0.900175,-0.430886
-0.468603,0.246357,0.475371,0.867202,0.494142,-0.061522
-0.061124,-0.058868,0.699597,-0.679512,-0.720195,-0.139938
-0.266021,-0.437080,0.575661,0.880178,-0.398772,-0.257426
0.175011,0.189106,-0.972804,0.269183,0.212468,-0.939360
-0.604858,-0.390813,0.401696,-0.496168,0.340252,0.798778
0.342245,-0.356808,0.507657,0.806371,0.122756,-0.578530
-0.212160,-0.091369,-0.173892,-0.325689,0.424057,0.845045
-0.249698,-0.071243,0.444889,-0.017959,-0.843039,0.537553
-0.249823,0.290196,0.600384,0.077305,0.754134,0.652155
-0.075520,-0.705067,-0.158476,0.334553,0.132254,-0.933050
-0.190310,-0.067657,0.333983,0.846010,0.502801,0.177363
-0.274506,-0.653478,0.601518,0.986397,-0.034490,0.160720
0.049037,0.045688,0.511293,0.047823,-0.119301,0.991706
-0.273992,0.477099,0.485726,-0.512942,0.666642,-0.540813
-0.055467,-0.603744,0.247044,0.894309,0.095504,-0.437140
0.033997,-0.560838,0.365483,0.650730,0.702301,0.288659
0.481713,-0.598542,-0.946249,-0.044594,-0.028303,0.998604
-0.208563,-0.408857,0.432644,-0.676190,0.549137,-0.491136
0.087987,0.072288,0.111909,0.961272,0.024102,-0.274546
-0.054568,-0.082001,0.868588,0.223681,-0.959187,0.172994
-0.683786,0.075295,-0.103823,0.234745,-0.952095,-0.195985
-0.191338,-0.529953,0.377060,0.491654,-0.059263,0.868772
0.033483,-0.058522,-0.277323,0.456285,0.889649,-0.018139
-0.210104,0.138335,0.723506,0.791007,0.611286,-0.025235
0.083617,0.136944,0.139425,0.972818,-0.162741,0.164744
-0.373227,0.054244,0.633979,0.935964,0.333888,-0.111760
0.199434,0.109420,0.651459,0.586084,0.324104,-0.742605
0.391221,-0.188294,0.263071,-0.429729,-0.826131,0.364473
-0.007648,0.259432,0.439682,0.737114,0.336831,-0.585839
0.818883,-0.069626,-0.940140,-0.120930,0.027386,0.992283
-0.161258,-0.498729,0.564695,-0.396433,-0.728185,-0.559095
0.012147,-0.108834,0.674816,0.867594,0.434162,0.242455
0.434023,-0.423081,-0.956661,0.193994,0.128311,-0.972575
0.183751,0.303609,-0.967191,0.282557,0.527367,-0.801277
-0.322709,-0.057484,0.799101,0.201776,0.976561,-0.074929
-0.334533,-0.380753,0.492125,-0.698826,-0.089208,-0.709707
-0.285431,0.458364,0.476738,-0.679372,0.620337,-0.391964
0.079761,-0.219059,0.649685,-0.461291,-0.188364,-0.867023
-0.543545,0.278859,0.589215,-0.462403,0.629922,-0.624005
0.148144,-0.030186,0.203531,-0.112407,0.468330,0.876374
-0.012406,-0.031576,-0.049170,-0.357164,-0.924307,0.134499
-0.289416,-0.625607,0.609750,0.328428,-0.676542,-0.659110
-0.452150,-0.435343,0.234566,-0.578329,-0.790019,0.203486
-0.416029,0.261860,0.648405,0.433124,0.429365,-0.792496
-0.206633,-0.021397,0.448321,-0.136046,0.145836,0.979910
-0.067808,-0.057943,-0.452946,0.178677,0.983465,0.029505
-0.347133,0.285452,0.273600,0.623423,0.712733,-0.321491
0.562825,0.035854,-0.969838,-0.093846,0.099566,0.990596
-0.057267,-0.212931,0.214497,0.425220,-0.888834,0.170770
-0.296485,0.165168,0.632437,-0.190184,-0.980889,-0.041063
0.317437,-0.307421,0.687614,0.053246,-0.968584,0.242921
0.071919,-0.541749,0.347682,0.826790,-0.558647,0.065820
0.067290,0.192113,0.148354,0.938934,-0.324298,0.115039
0.068577,-0.003586,0.695438,0.977906,0.202490,0.051931
0.172312,0.065468,0.144341,-0.438425,-0.572704,-0.692671
-0.684558,0.137869,-0.058274,-0.081735,0.435684,-0.896381
-0.363969,0.209811,0.555329,0.794456,0.069868,-0.603290
-0.261266,-0.292737,0.508500,0.686544,-0.446282,-0.574011
0.338004,-0.138328,0.369177,-0.512331,0.833980,0.204923
0.044926,0.406781,0.360335,-0.735033,0.542101,-0.407252
0.078988,-0.681355,0.435174,0.943023,0.259627,0.208093
-0.321936,0.414300,0.460130,-0.567290,-0.702249,0.430150
0.063948,-0.185520,0.648900,0.302731,-0.531883,0.790856
0.211132,0.133245,0.693606,-0.698527,0.695769,-0.167228
-0.180154,0.060379,0.548000,0.030372,0.759885,0.649348
-0.400734,0.246590,0.688428,0.354773,0.924539,-0.139153
-0.263706,-0.145267,0.500473,0.610053,-0.782027,-0.127549
0.286588,-0.189798,0.379852,0.673978,0.621510,-0.399349
0.198536,0.036087,0.819083,0.799664,-0.595552,-0.076521
0.072562,-0.080964,0.217318,-0.070285,0.744010,0.664461
0.417829,0.095189,0.740056,0.920196,0.389686,-0.037188
-0.053152,0.204721,-0.675601,0.874624,0.009448,-0.484710
0.101740,0.102248,0.756228,-0.080602,-0.952341,0.294193
0.067678,-0.501737,-0.263943,0.552561,-0.630186,-0.545474
-0.203934,0.006360,0.778072,-0.096176,0.685321,0.721862
-0.426315,0.366875,0.277527,0.985863,0.147442,0.079588
0.010731,-0.037125,0.028955,0.830101,-0.509851,-0.225798
-0.266150,0.289384,0.686334,-0.024325,0.965978,0.257479
-0.287361,-0.333681,0.484941,0.886630,-0.059420,-0.458647
0.010476,-0.243230,0.691947,0.514577,0.062902,-0.855134
0.156628,-0.752718,0.410538,0.661752,0.151978,-0.734158
0.440453,-0.378092,-0.953084,0.296159,0.246431,-0.922801
-0.534804,0.020938,-0.017146,0.841942,0.354715,-0.406584
-0.000194,0.016660,0.062986,-0.219491,0.884331,0.412045
-0.175654,-0.022322,0.634211,-0.401046,0.679781,-0.614052
-0.135936,-0.263935,0.679208,0.667665,-0.364313,0.649230
0.083617,0.002894,-0.467867,0.920829,-0.306744,-0.240796
0.242111,0.241042,-0.972077,-0.192315,0.052067,0.979951
-0.156888,0.016307,0.379794,-0.482509,0.642161,0.595663
-0.087348,0.057139,0.633659,-0.671502,0.236367,0.702293
0.073849,-0.060950,-0.428659,0.991421,-0.092965,0.091876
0.056365,-0.079460,0.635433,0.792246,0.605443,-0.076061
-0.322450,-0.532035,0.342680,-0.305564,0.485070,-0.819352
-0.444179,0.304999,0.607481,0.901441,0.332079,0.277719
0.051222,-0.664815,0.401608,-0.391953,0.766022,0.509494
0.363455,0.250057,0.731447,-0.729328,0.596967,0.334232
0.002634,-0.046493,0.845872,-0.412764,0.806300,-0.423681
-0.182982,0.025562,0.773040,-0.366031,0.437986,0.821091
0.156115,0.164815,0.627463,-0.577362,0.798418,0.170827
0.351887,0.132667,-0.965969,-0.433903,0.125393,0.892191
-0.124238,0.006481,0.552304,-0.795777,0.572810,-0.196540
-0.540587,0.152560,0.352569,-0.718821,-0.363542,-0.592566
0.224627,0.113352,0.760242,-0.746375,0.519048,0.416550
-0.017549,0.106638,0.430055,0.779685,-0.611845,0.133183
-0.740988,-0.243463,0.224066,-0.554062,-0.429530,-0.713106
-0.609746,-0.253410,0.374878,-0.676743,0.633667,0.374814
-0.020632,-0.026141,0.011591,-0.434992,0.890843,-0.131077
-0.257665,0.089986,0.509053,0.329010,0.908773,-0.256680
0.382222,-0.121209,0.292360,-0.457664,-0.883196,-0.102516
0.195963,0.080618,0.673739,0.986722,-0.155835,0.045768
-0.029117,-0.067311,0.912945,-0.616265,-0.718668,0.322076
-0.840867,-0.286257,0.429008,0.123842,0.487446,0.864326
0.448549,-0.350214,-0.948692,0.311102,0.114865,-0.943409
0.088501,-0.162499,0.242768,0.227758,-0.912194,-0.340629
0.124493,-0.178460,-0.099228,-0.213995,-0.484581,0.848167
-0.529148,0.405856,0.244281,0.821817,0.453436,-0.344983
0.150458,0.026141,0.349311,0.744336,0.249729,0.619355
-0.141204,0.051936,0.721470,-0.471098,-0.880091,0.059216
0.052124,-0.714894,-0.163537,0.365984,0.121511,-0.922654
-0.500613,0.242658,0.343640,0.683058,0.278636,0.675125
-0.032071,-0.065115,0.653001,0.874776,0.442092,0.198295
0.061249,0.158108,0.642995,0.758296,-0.378238,0.530965
0.097629,0.057251,0.683338,-0.516160,0.011095,-0.856421
0.026414,-0.500925,0.653699,0.704043,0.709047,0.039694
0.703066,0.006939,-0.957040,-0.441422,-0.073114,0.894316
0.055078,-0.096226,0.042219,-0.285940,-0.194942,0.938209
-0.325538,0.038749,0.596981,0.796844,0.585624,0.148605
0.774277,-0.286836,-0.241954,0.618113,-0.620547,0.482553
-0.022044,-0.060372,-0.308532,0.264807,0.930529,-0.252967
-0.042098,0.132546,0.748171,0.164943,0.792012,0.587801
-0.369371,-0.322344,0.752069,0.557594,0.572760,0.600862
-0.089533,-0.070438,0.272175,0.983460,0.096039,-0.153567
-0.744071,0.162965,0.420922,0.054506,-0.762154,0.645098
-0.018702,-0.295858,0.310830,-0.534468,-0.038096,-0.844329
0.481971,-0.054823,-0.956923,-0.129801,-0.211378,-0.968747
-0.026414,-0.089753,0.766757,-0.477971,-0.191229,0.857307
-0.325278,-0.430021,0.511991,0.834476,-0.447719,0.321243
0.152388,0.016081,0.195678,-0.203345,0.160995,0.965780
-0.318724,0.161582,0.711203,-0.679204,0.420072,0.601849
-0.037987,-0.065228,0.860270,-0.082781,0.876334,0.474538
-0.047111,0.500466,0.504719,0.481369,0.710362,-0.513488
0.089788,-0.212007,-0.061590,0.635894,0.667945,-0.386637
-0.337749,-0.108142,0.730341,0.771552,0.203739,0.602659
0.328107,-0.661116,-0.074563,0.999331,-0.035848,-0.007213
-0.364613,0.177769,-0.176335,-0.465124,-0.705042,0.535328
-0.649979,-0.230622,0.505156,0.980702,0.100848,-0.167492
-0.124881,-0.028336,0.267288,0.976802,-0.181028,-0.114396
-0.305100,-0.082813,0.507337,-0.709235,-0.111997,-0.696019
-0.258951,-0.261161,0.702157,-0.763581,-0.584292,-0.274859
-0.121410,0.010872,0.678684,0.728189,0.659620,-0.186124
-0.034770,-0.202985,0.621850,0.737406,0.528483,-0.420640
-0.270520,0.214781,0.286485,-0.153843,-0.465898,0.871362
0.161642,0.188873,-0.974142,-0.274006,-0.097411,0.956782
-0.182598,-0.001158,0.741452,-0.147346,-0.027820,0.988694
-0.223603,-0.581888,0.249342,0.273878,0.959478,-0.066271
0.421556,-0.062221,-0.960239,-0.181865,0.085207,0.979625
-0.497142,0.316563,-0.166039,-0.231134,-0.958864,0.164793
-0.498942,0.395211,0.616498,0.960387,0.228060,-0.160145
-0.114211,-0.589753,0.242187,0.891392,0.315031,-0.325846
0.184778,0.431877,-0.501491,0.939397,-0.336448,-0.065851
-0.342762,-0.191414,-0.228574,-0.315744,0.919330,-0.234814
-0.497142,0.325817,0.212490,0.709142,0.563109,-0.424294
-0.372070,-0.104789,-0.035442,0.225632,0.541502,0.809856
-0.200207,-0.103511,0.304460,-0.523448,0.828486,-0.199030
-0.676587,0.198594,-0.273774,0.460422,0.807359,0.369031
-0.276561,-0.417766,0.535696,0.208420,0.842122,0.497385
-0.572338,0.460792,0.193205,-0.442133,-0.748216,0.494663
0.037728,0.174881,0.140647,0.906914,-0.083950,-0.412867
0.084903,-0.152673,0.459025,0.989080,-0.091136,-0.115823
0.008032,-0.028795,0.509169,-0.019156,0.493418,0.869581
-0.055596,-0.401804,0.668300,0.891699,0.398390,0.214846
0.228742,-0.218367,0.649074,0.155689,0.824876,0.543452
-0.159202,0.049387,0.271040,0.414428,0.905518,-0.091030
0.010605,-0.003932,0.333605,-0.666347,0.271919,0.694292
-0.077835,-0.346748,-0.379096,0.527744,-0.083936,-0.845246
0.570282,-0.060950,-0.955236,0.176436,-0.065547,-0.982127
-0.459478,-0.369183,0.295618,-0.299794,0.907773,-0.293379
-0.197379,0.215360,0.698550,0.816475,-0.370240,0.443047
-0.841381,-0.003932,-0.479705,0.038804,0.605790,0.794678
0.055467,0.434652,0.409258,0.791067,-0.565579,0.233097
0.884696,-0.242651,-0.941740,-0.161440,0.205427,0.965265
0.468218,-0.504165,-0.953724,-0.029731,0.023987,0.999270
0.129506,-0.011909,-0.967511,0.403397,-0.215274,-0.889342
-0.169358,-0.294933,-0.985748,0.320081,0.169642,-0.932078
-0.125525,0.052049,0.469525,0.395130,0.401795,0.826095
0.017031,0.126073,0.623915,-0.389846,0.751782,0.531831
-0.121410,-0.079686,0.472375,-0.809739,0.570621,-0.136799
-0.389420,0.152440,0.623071,0.923144,0.035406,0.382821
-0.188125,-0.086626,0.813528,0.818217,-0.015560,-0.574698
0.015230,0.082354,0.582961,-0.718352,0.212887,0.662306
-0.540587,-0.331133,0.312314,0.809167,-0.252229,0.530687
0.096986,-0.267055,-0.946947,-0.243892,-0.543274,0.803349
0.013818,-0.073213,0.920565,-0.471278,-0.876424,0.098881
-0.325149,-0.123871,0.453324,0.544259,-0.808441,-0.224065
-0.021017,0.249485,-0.099257,0.890362,-0.285478,0.354623
0.132205,-0.074716,0.342883,0.696142,0.096407,-0.711402
-0.027317,-0.042102,0.918646,0.811726,0.560977,-0.162499
0.019475,-0.025442,0.039950,0.710832,-0.543796,-0.446099
-0.083617,-0.088016,0.510740,0.418128,0.178197,-0.890738
-0.100073,-0.396482,0.525487,-0.010030,0.937074,0.348987
-0.041199,-0.498151,0.706636,0.960030,0.269840,-0.074355
-0.493285,0.324547,0.192362,-0.750331,-0.573580,0.328647
0.105083,-0.047651,0.736857,0.937593,-0.277804,0.209149
-0.473102,-0.276077,-0.997324,-0.124469,0.174020,0.976844
-0.060096,-0.020818,0.126307,-0.588623,0.716555,-0.374262
-0.136579,0.026028,0.328631,-0.045984,0.973765,0.222860
0.028988,-0.018157,-0.226044,0.812345,0.495134,-0.308119
-0.484545,0.339809,0.594072,-0.086605,-0.737297,0.669995
0.700496,-0.099121,-0.951368,0.012374,0.229304,0.973276
-0.048653,0.044876,-0.979523,0.008946,0.135434,0.990746
-0.139792,-0.136591,0.129390,-0.597930,0.629532,-0.496154
-0.241467,0.069859,-0.670802,0.151496,0.824334,0.545457
-0.313840,-0.290655,0.461148,0.976935,-0.213436,0.006612
0.198791,-0.257342,-0.938570,0.938361,-0.197710,0.283530
-0.834438,-0.245200,-0.077762,0.492588,0.613462,0.617269
-0.485828,-0.294241,0.490292,0.355273,0.704093,0.614845
-0.240699,-0.148275,0.242827,-0.388864,0.921053,-0.021115
-0.082719,-0.011683,0.226538,-0.146415,-0.988854,0.027040
-0.012790,-0.161574,-0.483021,-0.217948,0.910764,0.350724
0.071405,0.520359,-0.302221,-0.923205,0.241774,0.298726
0.101097,-0.037591,0.333256,0.693201,-0.047546,-0.719174
0.034256,-0.106519,0.036983,-0.020484,-0.150201,0.988443
-0.834696,0.126652,-0.045215,-0.246111,-0.877256,0.412130
-0.449966,0.254920,0.522665,0.866964,0.436673,-0.240188
-0.031428,0.272611,-0.321796,0.998532,-0.042497,-0.033592
-0.464108,0.056093,-0.052922,0.777608,0.575489,0.253257
-0.544831,0.291234,0.574090,-0.712425,0.633446,0.301988
0.141463,0.733291,-0.312663,0.971491,-0.233562,-0.040680
0.126937,0.380175,0.136982,0.752828,-0.643108,0.140223
0.271547,-0.444019,0.143846,-0.678962,0.078668,0.729946
-0.181440,-0.132427,0.405477,0.078707,0.976691,0.199699
-0.046343,-0.023592,0.795436,0.933158,0.064446,0.353641
0.268460,0.215826,-0.956371,0.359868,0.719934,0.593455
0.097755,-0.269484,-0.072439,0.964494,0.241596,0.106687
-0.048269,-0.169438,0.345821,0.384769,0.131509,-0.913596
-0.079247,-0.094955,0.402743,0.834755,0.313520,0.452648
-0.102513,0.170716,0.491078,-0.029025,0.999258,-0.025335
-0.481329,0.282445,0.069414,0.790575,0.593423,-0.151134
-0.483902,0.278972,-0.170635,-0.231134,-0.958864,0.164793
-0.239412,-0.180310,0.453702,0.421451,0.205066,-0.883361
0.519121,-0.002887,-0.962042,-0.136958,0.154438,0.978464
-0.082848,-0.080152,-0.334245,0.893114,-0.373815,0.250220
-0.234014,0.069859,0.623304,0.134876,0.936053,-0.324981
-0.023331,0.517239,-0.075493,0.609410,-0.040553,0.791818
-0.414617,0.130697,0.546836,-0.034913,0.760266,0.648672
0.085802,-0.036546,-0.586015,0.287479,-0.953197,-0.093658
0.054180,-0.357733,0.571385,0.989140,-0.146833,0.006547
-0.191208,0.139373,0.708003,0.973404,0.005978,-0.229018
0.312165,0.012608,0.134742,-0.265895,0.735601,0.623049
-0.343661,0.056905,0.563677,0.634082,0.437367,0.637691
-0.453437,0.308699,0.588575,0.317247,0.897536,-0.306240
-0.025775,-0.054477,0.890287,0.160842,0.927446,-0.337601
-0.250596,-0.670137,-0.179564,-0.440605,0.449411,0.777108
0.037728,0.036200,0.060659,-0.346771,0.906032,0.242601
0.242495,-0.431644,-0.085150,0.788164,0.533163,0.307465
-0.156373,-0.084776,0.762540,0.043946,0.010656,0.998977
0.404460,-0.121555,0.465744,-0.537419,-0.707800,-0.458475
-0.087089,0.072867,0.596632,0.917421,-0.363891,-0.161002
0.066007,-0.059913,-0.405012,-0.153009,-0.698752,-0.698809
-0.773893,-0.141568,-0.169762,0.344112,0.934574,-0.090329
0.065364,-0.090445,0.682436,0.660971,0.031518,-0.749749
-0.072692,0.033313,0.274269,-0.236807,-0.852294,0.466388
0.093130,-0.163078,-0.260337,0.807253,0.283275,0.517781
-0.108299,-0.563146,0.261384,0.883717,0.405758,0.233248
0.014332,-0.893128,0.248353,0.907252,0.364895,-0.209152
-0.060480,-0.024058,0.477320,-0.324582,-0.835947,-0.442538
-0.020118,-0.062221,0.810154,0.437418,0.843385,0.312037
0.024359,0.098775,-0.978331,0.148748,0.217305,0.964703
-0.348674,0.404579,-0.377496,0.726139,0.686775,0.032603
-0.650752,0.328938,0.551286,0.618642,0.751721,-0.228469
0.038496,-0.073213,-0.066389,0.304623,0.573462,-0.760490
-0.484545,-0.053778,0.596632,0.947985,-0.023050,-0.317479
0.140690,0.131968,-0.974491,-0.146932,0.160968,0.975961
-0.179511,-0.308925,0.327002,0.934336,-0.168331,0.314136
0.028729,-0.132779,0.957999,-0.327422,0.835687,0.440933
-0.678901,0.261281,0.229738,-0.333818,-0.683098,0.649572
0.378621,-0.202985,-0.957563,0.013036,0.126832,0.991839
-0.570283,0.313788,0.711523,0.098440,-0.728678,0.677745
-0.376695,0.000120,-0.254665,-0.457480,-0.637122,-0.620312
0.267817,-0.339576,0.647765,0.337549,-0.899771,0.276536
0.452664,-0.396136,-0.951571,-0.091551,-0.254036,0.962852
-0.193393,-0.114157,-0.659371,0.685788,0.715124,-0.135251
-0.310882,-0.365830,0.469292,0.977071,-0.071677,-0.200488
0.299184,0.073912,0.231047,-0.012687,0.779680,0.626049
0.032969,-0.032614,0.684967,-0.218222,0.967415,-0.128405
-0.163188,0.171528,0.135760,0.641935,0.021373,0.766462
-0.220775,0.420427,0.460915,0.925077,-0.014747,0.379494
0.055467,-0.579686,0.338869,0.764725,-0.644331,-0.005824
-0.044797,-0.010638,-0.130321,-0.672947,-0.712295,-0.199445
-0.010091,0.446222,0.488082,0.367095,0.379208,-0.849378
-0.152133,-0.166431,0.086430,-0.050032,0.806717,0.588816
-0.074877,-0.014224,0.446750,-0.736669,0.673023,-0.066017
-0.778137,0.293662,0.424877,0.023828,-0.965098,0.260801
-0.382352,0.157995,0.548407,0.350122,-0.414779,-0.839865
0.122822,-0.249478,0.603758,0.788079,0.615570,-0.002109
0.376436,-0.396136,-0.267317,0.732138,0.680577,-0.028082
-0.513209,0.023599,0.676124,-0.370939,0.714195,0.593573
0.207146,0.165972,0.666090,0.990240,0.042659,0.132687
0.150458,-0.307887,0.616410,0.811563,0.274781,-0.515618
-0.892154,0.112194,-0.039775,0.451633,0.777464,-0.437696
-0.224631,-0.045681,-0.302686,-0.324300,-0.284206,0.902251
0.165243,0.039787,0.414377,0.759535,0.643829,-0.092682
-0.271418,-0.398451,0.559401,0.553993,-0.819594,-0.146138
-0.331449,-0.248320,0.739096,-0.333137,-0.132737,-0.933488
0.467061,-0.324194,-0.168395,0.303111,0.534767,0.788764
-0.013948,-0.158454,-0.064470,0.762569,0.464628,-0.450121
-0.461534,0.397760,0.276276,-0.779315,-0.494350,0.385079
-0.453308,0.644350,0.338084,0.932502,-0.289906,0.215395
-0.179126,-0.076333,0.654979,0.402372,-0.914241,-0.047534
0.093385,0.282099,0.636829,0.740213,0.563272,-0.367163
0.707436,0.022209,-0.951222,0.245614,0.228127,-0.942142
-0.059193,0.034930,-0.619290,0.924515,0.321996,0.203937
-0.097116,0.068356,0.548872,0.843461,0.530611,-0.083820
0.056494,-0.722299,-0.151496,0.365984,0.121511,-0.922654
-0.111128,-0.051470,0.143526,0.782500,-0.578969,-0.229101
-0.152003,0.500466,0.475837,0.362570,0.858556,-0.362525
-0.021405,-0.148042,0.511205,0.528512,0.461121,-0.712771
-0.356128,-0.588249,0.222757,-0.632669,-0.137376,0.762141
-0.067679,-0.051696,0.871526,0.147411,-0.989070,-0.003190
0.181436,-0.355883,-0.941566,0.985649,0.023898,0.167107
-0.738544,0.088136,-0.055918,0.136489,0.984959,0.105957
0.181052,-0.305225,0.739096,-0.586192,-0.792196,0.169717
-0.897811,-0.327667,0.298352,-0.351341,0.775564,0.524461
-0.089019,-0.165852,0.747531,-0.144969,0.962514,-0.229241
-0.054310,-0.084776,0.797967,0.987914,0.135861,-0.074620
0.229001,-0.042448,-0.958465,-0.176533,0.396041,0.901104
0.145703,0.822231,-0.314030,0.971491,-0.233562,-0.040680
-0.523880,-0.118322,0.470601,-0.468880,0.106050,-0.876872
-0.220386,-0.631389,0.426157,0.650443,0.731414,0.204836
-0.016392,-0.915563,0.336484,0.738623,-0.503093,-0.448701
0.167299,0.269957,-0.971815,-0.208635,-0.391656,0.896145
-0.116781,-0.366987,0.338957,0.673419,0.153891,0.723066
-0.410761,0.383994,0.585376,0.996753,-0.079552,0.012446
-0.127321,0.052395,0.407949,0.899663,0.399193,-0.176780
-0.212803,0.299677,0.741772,0.506314,0.679413,-0.531079
-0.041843,-0.024517,0.909862,0.844775,0.528883,-0.081477
0.355484,-0.055282,-0.253327,-0.048288,0.945878,0.320911
-0.118326,-0.200203,0.318538,-0.625526,-0.301491,-0.719598
-0.313067,-0.038396,0.630750,0.438329,-0.623414,0.647474
-0.507423,0.486820,0.645351,0.987842,-0.063736,-0.141799
-0.263451,-0.184016,0.261384,-0.878586,0.327038,-0.348041
-0.079761,-0.162153,0.078315,-0.602820,-0.652696,-0.458907
-0.680188,-0.170716,-0.163392,0.055281,0.973738,0.220859
-0.070636,0.139373,0.474644,0.326954,-0.848478,-0.416156
0.195064,-0.258845,-0.946598,-0.688467,0.398269,-0.606131
0.082075,-0.150124,-0.929815,-0.664683,0.745159,0.054171
0.089917,-0.168281,-0.361673,-0.802327,0.561062,0.203669
0.278875,-0.165274,0.093556,0.022768,-0.923248,0.383529
-0.217562,-0.365251,0.740696,0.078658,0.933841,-0.348933
-0.102898,-0.137170,0.903056,0.980149,-0.169274,0.103220
-0.069993,0.153019,0.758293,-0.075701,-0.739172,-0.669249
-0.204318,-0.499654,0.224648,0.096966,0.662729,0.742555
-0.059582,-0.223337,0.461439,0.154403,0.527843,-0.835190
0.670546,-0.062221,-0.948750,-0.255195,0.043074,0.965930
0.104184,-0.097963,-0.967133,0.057263,0.294064,0.954069
0.057781,-0.086978,-0.252774,0.725058,0.434555,0.534278
-0.885470,-0.299444,0.282151,-0.696080,-0.096383,-0.711465
-0.221673,0.281054,0.581623,-0.386481,-0.887630,0.250489
-0.047111,0.008097,0.653757,-0.364956,-0.913000,-0.182314
0.067549,0.515037,0.545004,-0.509489,0.547329,-0.663967
-0.619259,-0.231900,0.450502,0.399140,-0.709149,0.581201
-0.338134,-0.556785,0.575573,0.924928,0.238695,-0.295861
-0.660903,-0.331020,0.441573,0.674651,-0.512559,-0.531158
0.051352,-0.123871,0.157400,-0.002213,0.637538,0.770416
-0.577096,0.079001,0.547476,0.787499,-0.286678,-0.545583
0.104439,0.231667,0.179331,0.929438,-0.368634,-0.015934
-0.468862,-0.077257,0.622635,-0.221900,-0.939735,-0.260112
0.027317,0.158108,0.612135,-0.746011,0.636216,0.196715
-0.307924,-0.519201,0.578802,0.790935,-0.540360,-0.287113
-0.067294,0.198241,0.274385,0.317258,0.925082,0.208738
0.070507,0.459176,-0.287445,-0.944663,0.160967,0.285834
0.032200,-0.127569,-0.118541,0.980054,0.168609,0.105194
-0.746515,-0.235712,0.392883,0.739079,0.673619,0.000416
0.126164,-0.217322,-0.113538,0.928737,0.363109,-0.074835
-0.701525,-0.448297,0.349893,-0.170820,-0.928576,0.329495
0.088117,0.215939,0.633280,0.930123,0.276042,0.242223
-0.223603,0.015502,0.305537,-0.497389,-0.834250,0.237973
-0.627226,-0.213277,0.229883,-0.266061,0.233033,0.935365
-0.150847,0.168980,0.736362,0.795126,0.204027,-0.571093
-0.453951,-0.139598,0.455156,-0.433198,0.459658,-0.775276
-0.002250,-0.185866,0.570745,0.863463,0.475827,-0.167395
0.088501,0.500233,0.447274,0.891564,-0.421340,0.166088
0.214086,0.123758,0.788107,0.701143,0.692874,-0.168294
0.124108,0.129772,0.030293,0.949115,-0.297732,-0.102650
-0.031043,0.235952,0.626358,-0.487784,0.404190,0.773755
-0.077835,-0.039554,-0.350649,0.440531,-0.039503,-0.896868
-0.045570,-0.149086,0.313652,0.446796,0.233506,0.863625
-0.597146,-0.231088,0.424848,-0.829031,0.269133,0.490178
0.056624,0.243470,0.469845,0.973827,-0.148396,-0.172160
-0.323992,-0.352417,0.728654,-0.425022,0.718886,-0.550053
-0.170127,0.026833,0.533835,0.935703,0.202448,0.288920
0.237097,-0.289843,0.666090,0.554715,0.705712,0.440752
-0.267048,0.120517,0.049897,-0.629901,-0.776191,-0.027421
-0.217044,-0.094143,0.753639,-0.660331,0.692127,0.291417
0.013689,0.026254,-0.153706,0.955835,-0.275225,-0.103101
0.158943,0.187602,0.662687,0.178381,0.787854,0.589462
-0.139149,-0.240110,0.651692,0.735372,0.677324,-0.021438
-0.004819,-0.123524,-0.176510,0.949502,-0.154611,-0.273023
0.014716,-0.007977,0.117116,-0.373338,-0.925070,0.069739
0.003533,0.860281,-0.027094,-0.645954,0.230836,0.727638
0.235555,-0.602586,0.298527,0.729381,-0.515118,0.450175
-0.249568,0.044763,0.014499,0.724135,0.137491,-0.675814
0.031172,-0.157530,0.110048,-0.196776,0.862128,0.466920
0.454720,-0.766017,-0.093032,-0.730429,-0.597232,0.331342
0.071405,-0.148388,0.474091,0.093729,-0.664952,0.740982
0.033099,0.006939,0.843574,-0.595546,-0.637090,-0.489328
-0.354975,0.131968,0.645264,0.961606,0.191962,-0.196124
0.031557,-0.179618,0.690202,0.851825,0.438542,-0.286486
0.833280,-0.083159,-0.943107,-0.079029,0.135192,0.987663
-0.349188,-0.502428,0.504079,-0.500624,-0.706477,-0.500266
-0.232214,-0.355883,-0.972194,-0.146583,-0.188581,0.971057
0.148018,-0.669785,0.400503,0.496611,0.500455,-0.709170
-0.223988,0.284873,-0.013278,0.940587,0.337398,0.038194
0.339416,-0.171062,-0.178226,0.467684,0.832658,0.296569
0.097755,-0.080964,-0.292971,-0.062172,-0.969967,0.235157
-0.380551,0.455823,0.598726,0.864405,-0.213162,0.455374
-0.018188,-0.048921,0.729498,-0.100172,0.989065,0.108240
-0.218974,0.205879,0.698812,0.695105,-0.251560,0.673459
0.267562,0.088136,0.799741,0.811129,0.257108,-0.525325
-0.338263,0.445410,0.439711,0.087305,-0.633442,0.768849
-0.315895,0.048582,0.502974,0.203837,0.862406,0.463363
-0.125136,-0.042794,0.542997,-0.012950,-0.983043,0.182915
0.783146,-0.333328,-0.229592,-0.831193,-0.240550,-0.501252
-0.083487,-0.014458,0.188174,-0.204627,0.978834,-0.003358
-0.035158,-0.057710,0.483196,0.717416,0.664884,0.207951
-0.088246,-0.695233,0.283315,0.306253,0.519032,0.798007
-0.425157,-0.191880,0.312023,-0.484839,-0.812457,0.323797
-0.204962,0.022442,0.646806,-0.560826,0.721829,-0.405508
-0.382866,-0.657988,0.383517,-0.339079,0.817796,-0.465011
0.468218,0.111616,0.170925,0.265374,-0.904478,0.333912
0.036057,-0.155793,0.775919,0.852161,-0.220951,0.474345
-0.814513,-0.103864,-0.175259,-0.143996,-0.979695,0.139508
-0.688156,-0.072979,0.669435,0.568354,0.244612,0.785582
-0.091075,-0.314360,-0.969285,-0.049025,-0.191602,0.980248
-0.044412,-0.135088,-0.188988,0.859763,-0.321011,-0.397188
-0.429143,-0.568468,0.434127,-0.183663,-0.981807,-0.048198
0.181181,0.138335,-0.117465,0.783340,-0.596148,-0.176029
0.188380,0.132088,0.723302,0.777928,-0.152705,-0.609516
-0.196995,-0.086978,0.421067,-0.498551,-0.860672,0.103398
0.153800,0.235599,0.736391,0.659898,-0.087545,-0.746237
-0.306641,-0.046959,0.692035,-0.277288,0.949904,-0.144202
-0.034770,0.039208,0.753901,-0.046280,-0.616078,0.786325
-0.027701,-0.810315,0.306845,0.713922,0.580999,0.390840
0.212030,-0.210729,-0.168220,0.171051,0.863282,0.474853
-0.105087,-0.161462,-0.323046,0.191604,-0.944707,0.266114
0.212030,-0.497105,-0.057780,0.719940,0.669562,0.182684
-0.029631,0.261048,0.537383,-0.598536,-0.343917,-0.723516
0.267946,-0.096925,-0.380085,0.775667,0.489651,0.398224
0.066776,-0.736291,0.426419,-0.363205,0.926329,-0.099985
0.200462,-0.428058,-0.960792,0.325471,-0.005242,0.945538
-0.019090,-0.058409,0.767892,0.245372,0.229332,0.941913
0.475028,-0.282325,-0.944242,-0.561111,-0.121491,0.818776
0.128733,0.378904,0.138058,0.752828,-0.643108,0.140223
0.109068,0.055169,0.281889,0.268799,0.736631,-0.620582
0.420144,-0.642839,-0.951019,0.202818,0.121312,-0.971673
-0.326436,-0.092986,0.767077,0.441427,-0.896896,0.026823
-0.315381,-0.481610,-0.028839,0.481504,-0.470052,-0.739733
-0.109069,-0.035043,0.210715,0.888443,-0.402504,-0.220586
-0.113827,-0.158567,0.005250,0.777615,0.528189,0.341073
-0.097759,-0.024637,0.548901,-0.589154,0.807937,-0.011643
0.031043,0.023021,0.185992,0.050436,0.996687,0.063807
-0.070378,0.149553,0.446925,-0.679230,0.664317,0.311977
-0.296230,-0.298865,0.457309,0.939769,-0.329911,-0.089407
-0.012535,-0.035854,-0.265165,0.262345,0.964908,-0.011269
-0.556914,0.301646,0.696310,0.856616,-0.404906,0.319781
0.274376,-0.426442,0.481043,0.824626,0.427100,-0.370915
0.032844,-0.193497,0.744536,0.738460,0.537629,0.406979
-0.057138,-0.013646,0.077093,-0.087921,0.992362,0.086531
0.296869,-0.317488,-0.334390,-0.472430,0.765935,0.436067
-0.353558,-0.155560,-0.995346,-0.291182,-0.112727,0.950003
0.028085,-0.110338,-0.082881,0.896364,0.436734,0.076129
0.044024,-0.165627,-0.628365,0.756859,0.325807,-0.566582
0.262035,-0.114502,-0.373889,0.653201,0.477300,0.587803
0.310752,-0.405503,0.504486,0.818940,0.362503,-0.444892
-0.403817,0.037591,0.667602,-0.122285,0.571881,0.811171
0.369626,-0.728426,0.403499,-0.148358,0.963692,-0.222010
0.150332,-0.204255,-0.878943,0.716600,-0.309322,0.625144
-0.312424,-0.095301,0.352627,-0.231382,-0.210264,0.949869
-0.153290,-0.008676,0.284653,-0.680044,-0.692763,-0.240039
-0.320779,0.157184,0.713239,-0.629498,0.286475,0.722263
-0.273219,-0.334952,-0.980658,-0.297404,-0.002904,0.954747
-0.184524,-0.148620,-0.184712,0.291860,0.944991,0.147684
0.003921,0.027531,0.145882,0.781493,-0.596823,-0.181853
0.151360,0.001271,0.916290,-0.575620,0.815403,0.061480
-0.062665,0.030765,0.325053,0.524333,-0.845904,-0.097576
0.107911,0.557025,-0.292564,-0.882961,0.294361,0.365693
0.089658,-0.493173,-0.966405,0.193735,0.308846,-0.931172
-0.250851,0.000466,0.559430,0.682535,0.546925,0.484788
-0.077446,-0.270875,0.640290,0.857883,0.513145,-0.026795
-0.101744,-0.018043,-0.512427,0.256134,0.965245,0.051944
0.714120,-0.112074,-0.950088,-0.111336,0.221805,0.968714
-0.719907,-0.378784,0.350213,0.851553,-0.094682,0.515647
-0.703196,-0.243809,0.461468,-0.682242,0.726011,-0.086332
0.193907,0.253995,-0.168249,0.883710,-0.443704,0.148943
0.303425,-0.245659,-0.949623,-0.116717,-0.395442,0.911045
-0.670801,-0.270641,0.404255,0.969949,-0.233444,0.068580
0.182852,-0.136132,-0.823621,0.811333,0.567314,-0.141045
-0.425801,-0.363176,0.279010,0.715917,-0.676465,0.172792
-0.178228,-0.121675,0.758497,0.190573,-0.968116,-0.162586
0.303938,-0.762198,-0.087739,0.972555,0.231973,0.018010
-0.153031,-0.168168,0.533253,0.711943,0.466653,0.524760
0.026030,0.078648,0.135120,0.794045,-0.147821,-0.589611
-0.204063,0.237802,0.151932,0.817390,0.515592,0.256980
0.215632,-0.037704,0.781068,-0.506520,0.605167,-0.614175
-0.266279,-0.276310,0.713500,-0.411506,-0.197598,-0.889729
0.266020,-0.145035,0.074446,-0.210572,-0.749024,0.628190
0.119738,-0.035854,0.661029,-0.096404,-0.819666,0.564672
-0.150074,0.041410,0.834877,-0.390001,-0.825545,-0.407891
-0.304970,0.457905,0.471386,0.920584,-0.384909,-0.066111
-0.052768,-0.088129,0.767862,-0.682873,0.064457,-0.727688
0.083872,0.068476,0.279417,0.181314,0.808387,-0.560032
0.002505,-0.039900,-0.563008,0.349921,-0.936328,-0.029077
-0.090686,-0.511563,0.683629,-0.158505,0.675647,0.719984
-0.596248,-0.245079,0.248615,0.602086,0.771296,-0.206385
0.092616,-0.152440,0.607277,0.923888,-0.346470,-0.162450
-0.214734,0.004744,0.548960,0.289880,0.736728,0.610901
-0.022044,-0.091948,0.211792,-0.544779,-0.082598,0.834502
-0.079761,0.023246,0.555940,0.861573,0.492564,0.122772
-0.483518,0.240576,0.537238,0.978639,0.200488,0.045492
0.457164,-0.301639,0.005861,0.704767,0.708076,0.043957
-0.093903,-0.080964,0.033696,-0.384984,-0.916372,0.109769
-0.178098,-0.116585,0.474993,0.005058,0.170408,0.985361
0.153286,-0.043027,-0.252454,0.205360,-0.949660,0.236584
0.040167,-0.659838,0.442009,0.534910,0.838468,-0.104127
-0.581981,0.400999,0.198906,-0.363270,-0.814414,0.452510
-0.682115,-0.252598,0.351231,0.276042,0.951252,-0.137553
0.120636,-0.410015,-0.962072,0.252025,0.157588,-0.954803
-0.072049,0.127690,-0.711232,-0.603644,-0.770891,0.203326
-0.038755,-0.021397,-0.174881,0.531708,0.835100,-0.141047
-0.645738,0.259544,0.408211,0.916288,-0.381746,0.121187
-0.000449,-0.016766,-0.969896,0.736833,-0.335651,-0.586869
-0.623241,0.146199,0.511002,0.330716,-0.913473,0.237053
-0.079117,-0.669439,0.251291,0.900619,0.389351,-0.193107
-0.220131,-0.048688,0.345763,0.894055,0.410642,0.178994
-0.547016,-0.558755,0.317229,0.804486,0.571703,0.161115
-0.191079,-0.103864,-0.742005,-0.171372,-0.740807,0.649489
0.047495,0.001850,-0.397507,-0.011926,0.848900,-0.528419
-0.144032,0.040831,0.425372,0.994420,0.008162,-0.105178
0.190820,-0.161116,-0.911956,0.962022,0.237698,0.134211
0.217942,-0.266018,-0.157429,-0.214359,-0.728387,-0.650771
0.231056,0.113352,-0.973502,-0.070883,-0.015109,-0.997370
-0.344559,0.255612,0.695438,0.119158,0.403206,-0.907318
0.011888,-0.031110,-0.265136,0.435975,0.899875,-0.012257
-0.458964,0.309969,0.658004,0.931876,0.356284,0.068324
-0.116526,0.111961,0.655415,-0.494889,0.213226,0.842389
-0.210234,0.059334,0.647300,0.048537,-0.662615,0.747386
0.200721,0.000925,0.780399,-0.330877,-0.133097,0.934241
0.084131,-0.125953,-0.886185,0.775990,-0.606206,-0.174222
0.071790,0.333915,0.009380,0.952740,-0.144948,-0.266977
-0.251239,0.544184,0.485522,0.345560,-0.785635,0.513191
-0.349573,0.181934,0.662832,-0.560511,-0.026303,0.827729
0.289541,0.077498,0.484533,0.967080,0.253932,0.016553
0.945885,-0.126991,-0.942031,-0.206148,0.047727,0.977356
-0.005337,-0.183091,0.033842,-0.122708,-0.688416,0.714861
-0.099300,-0.122134,0.634270,-0.608364,0.259568,0.750012
0.245324,0.218367,-0.965126,-0.234272,0.408862,0.882014
-0.132848,-0.628494,0.409578,0.353825,0.806056,0.474428
0.129890,-0.361319,-0.944271,0.498904,0.439208,-0.747122
-0.277718,-0.283716,-0.046523,-0.880336,0.473967,0.019068
-0.268335,0.050545,0.316967,0.581519,0.813482,0.009123
-0.710264,-0.287760,0.255654,-0.690501,0.532398,-0.489654
-0.091973,-0.015382,0.558296,0.724927,0.613224,-0.313747
0.384791,-0.131502,0.354809,-0.090039,0.990424,0.104659
-0.318724,-0.227043,0.128925,0.481628,0.633756,-0.605300
0.053152,0.035741,0.031428,0.931555,-0.216577,-0.292062
-0.049555,0.032043,0.674205,-0.698414,-0.268229,0.663530
-0.018447,-0.069626,0.663298,-0.690720,-0.546112,0.473991
0.237227,-0.169213,-0.167028,0.424192,0.466453,0.776198
0.216400,-0.383069,-0.964515,0.294379,-0.140197,0.945350
-0.212419,0.080039,0.701953,-0.530623,-0.374228,0.760522
0.310238,0.322697,-0.126976,0.919996,-0.342044,-0.191347
-0.005976,-0.010526,0.463708,-0.040937,0.716265,0.696627
0.076674,-0.462176,-0.137098,-0.846074,0.276658,0.455653
0.039913,-0.018736,-0.716845,0.550553,0.827031,-0.113627
0.021789,-0.083159,-0.173078,0.999377,0.032039,0.014815
-0.238768,-0.243004,0.739707,-0.479894,0.264232,-0.836591
-0.022433,-0.438816,0.661960,0.880215,0.473300,-0.034776
-0.057397,-0.142952,0.003854,0.404968,-0.210955,0.889662
-0.469117,0.334952,0.067233,0.840645,0.479140,0.252472
-0.624398,0.248094,-0.141839,-0.762369,-0.032036,-0.646349
0.162156,0.328359,0.341400,-0.542599,0.495984,-0.677927
0.444564,-0.214894,-0.188610,0.432828,0.763576,0.479179
-0.144935,-0.061183,0.714518,-0.624506,0.104225,-0.774034
0.088760,0.055056,0.705909,0.874068,-0.482606,0.055645
0.050453,0.194429,0.092363,-0.209251,0.968002,0.138517
-0.146990,0.103752,0.691482,-0.446577,0.148311,-0.882368
-0.117812,0.163311,0.665043,0.425413,-0.816515,0.390290
-0.472333,0.010180,0.719114,0.098340,-0.918298,0.383480
0.639693,-0.455582,-0.175172,0.339903,0.401172,-0.850604
0.068192,-0.267521,0.725571,-0.042415,-0.971406,0.233606
-0.180283,0.079227,0.518157,0.727503,0.627779,0.276826
-0.207661,-0.018270,0.132968,0.345274,0.938025,-0.029897
-0.218715,-0.422622,0.537325,0.730099,-0.552100,-0.402667
-0.207790,0.014923,0.445441,0.307730,-0.196388,0.930986
0.221673,-0.454545,-0.098675,0.724160,0.587105,0.361801
0.172053,-0.268792,-0.953520,-0.235153,0.528190,-0.815916
0.061508,-0.035967,0.727724,0.021695,-0.090874,0.995626
0.291342,0.539787,0.067873,0.900949,0.261465,-0.346304
-0.064850,-0.404812,0.514638,-0.118421,0.901426,0.416422
0.008675,-0.034810,0.205044,-0.447139,-0.760877,-0.470247
0.143648,0.201248,0.491631,0.988587,0.112751,-0.099918
-0.587762,0.405856,0.073079,0.620064,0.775559,0.118439
0.072562,-0.098196,-0.381074,0.858420,-0.398379,-0.323125
0.375796,-0.134396,-0.325897,-0.013315,-0.927783,0.372882
0.050453,-0.018623,0.767223,0.000368,0.904520,0.426431
0.091329,-0.104556,-0.962304,-0.054750,0.775126,0.629430
-0.011762,-0.053552,0.721325,-0.250465,-0.926993,-0.279197
0.332477,-0.485542,-0.957621,0.240081,0.091103,-0.966468
0.229640,-0.512954,-0.967394,-0.176630,-0.108464,0.978283
0.194550,0.324081,0.723942,0.923725,0.151827,0.351682
-0.498298,0.210849,0.474819,-0.157923,-0.916057,0.368645
0.927373,-0.178460,-0.937697,-0.159090,0.172010,0.972164
0.053796,-0.127344,0.232792,-0.057895,0.845091,0.531479
0.273089,0.133245,0.637905,0.982865,0.126526,0.134041
-0.395077,-0.608601,0.210832,0.442593,0.325502,-0.835560
0.245453,-0.098541,0.134248,0.786061,-0.553517,-0.275186
-0.465904,-0.142373,0.293117,0.394793,0.588178,-0.705822
-0.096856,0.001158,0.422114,0.787141,0.616588,-0.015103
-0.217432,-0.283370,0.852998,-0.682298,0.671631,-0.288758
0.209202,-0.105135,0.646660,-0.679169,-0.651882,0.337312
0.038626,0.349297,0.374791,0.837660,-0.372972,-0.399021
-0.344175,0.265213,0.722750,0.449082,0.789831,-0.417723
0.055337,-0.117164,-0.816466,-0.202594,0.924297,0.323466
0.161387,0.407706,-0.587644,0.960867,-0.276979,0.004106
0.137603,0.029035,0.404982,-0.551148,-0.826423,0.115159
0.019475,-0.090211,0.796716,0.260413,0.412790,0.872806
-0.511279,-0.235020,-0.997906,-0.149312,0.042558,0.987874
0.606529,-0.347440,-0.937784,0.385210,-0.030024,0.922340
0.559742,-0.323036,-0.928099,0.232862,0.324295,0.916847
-0.458321,0.362830,0.277468,0.843930,0.318490,-0.431678
-0.017549,-0.161342,-0.919693,-0.664224,0.724345,-0.184745
0.096986,0.041869,0.285322,0.055564,0.935289,0.349495
-0.437499,0.046959,0.460072,-0.450424,-0.879237,0.155111
-0.546502,-0.347673,0.342069,0.925127,0.105054,-0.364833
-0.126293,-0.020931,0.175550,0.951356,-0.023190,0.307221
-0.042871,0.043260,0.445761,0.910540,-0.399933,-0.104742
-0.044797,-0.060259,-0.976237,-0.225324,0.150453,0.962597
0.002763,0.187144,-0.225055,0.994743,-0.004970,-0.102280
0.320006,-0.183438,0.640290,0.303866,0.771925,0.558388
0.031942,0.127231,0.235119,0.710887,-0.299063,0.636554
0.314993,-0.114961,-0.090589,0.523636,0.837110,-0.158280
0.121535,0.166205,-0.965533,-0.499992,0.255828,0.827381
-0.145962,0.071709,0.505068,0.711429,-0.588646,-0.383880
-0.324635,-0.311706,0.736537,0.814241,-0.024225,0.580022
-0.064337,-0.107331,0.408793,0.458813,-0.038780,0.887686
-0.155860,-0.051004,0.735664,-0.066777,-0.809749,0.582964
0.014846,-0.057597,-0.287910,0.318664,0.945562,-0.066074
-0.234658,0.443328,0.444365,0.657209,0.168341,-0.734668
-0.049041,0.527644,0.520397,-0.265768,-0.922974,0.278362
0.021660,-0.057484,0.701662,0.985107,0.075348,0.154551
0.308951,-0.385264,-0.957214,-0.145151,-0.068105,0.987063
0.217303,-0.221254,-0.231861,0.497554,0.773963,0.391689
-0.891381,0.072521,0.268859,-0.521625,0.618656,0.587513
-0.144805,0.047883,-0.975597,-0.434357,0.128832,0.891480
-0.081946,-0.052508,-0.281860,-0.069394,0.956682,0.282744
-0.115753,-0.046260,0.759602,-0.089890,0.991307,0.096076
-0.002379,-0.030299,-0.331860,-0.783341,-0.601631,0.156259
0.343531,-0.422855,0.694536,0.445797,0.256279,-0.857663
-0.367571,-0.069513,-0.044109,0.085759,0.701600,0.707391
-0.305100,-0.110917,0.742616,0.667582,0.216951,-0.712226
-0.007777,-0.075874,0.807013,-0.080231,-0.987467,0.135909
0.490457,-0.144230,-0.052922,0.131851,0.990786,0.030957
-0.053282,0.013879,-0.107023,0.401415,0.903384,0.150872
0.129506,-0.144808,0.752825,0.936277,-0.180493,0.301342
