-0.110130,0.715190,0.488809,-0.529737,0.713741,-0.458207
0.689216,0.275021,-0.337599,0.023839,0.868936,0.494351
0.071829,0.216376,0.641618,0.193086,0.977523,-0.084657
0.185281,0.861300,0.041076,-0.360255,0.749777,-0.555024
0.257700,0.297531,-0.015479,0.779094,-0.470496,-0.414302
0.296093,0.104302,0.366455,-0.163237,-0.274088,0.947750
0.276077,0.555259,0.515502,0.286067,0.957197,0.044039
-0.932037,0.086734,-0.060866,-0.326807,0.899543,-0.289862
0.797934,0.173557,-0.129005,0.117718,-0.158073,0.980385
0.204477,0.371455,0.680576,0.131174,0.987454,0.087907
0.181821,0.423148,0.603223,0.403041,-0.069655,0.912527
0.447391,0.446110,0.376557,-0.048845,-0.866433,-0.496899
-0.379248,0.546754,0.375461,0.411237,-0.682062,0.604711
0.247418,0.231655,-0.757662,0.979223,-0.175631,0.101375
0.457944,0.309604,-0.242145,-0.565383,0.742849,0.358493
-0.017240,-0.109696,-0.131316,-0.158079,0.322721,0.933200
0.200382,0.393138,-0.986046,-0.222631,-0.010256,0.974849
0.226858,0.450962,-0.988801,-0.208921,0.062525,0.975932
-0.561751,0.161662,0.293487,-0.644058,0.545988,-0.535804
-0.287721,0.776029,0.043861,0.491472,0.642712,0.587687
-0.010416,-0.059929,-0.981395,-0.103101,0.180598,0.978138
-0.087293,0.179962,0.044868,0.687748,0.646791,0.329642
0.020697,0.188746,0.376913,-0.103667,0.912675,0.395319
0.066551,0.149131,0.011717,-0.426004,0.778933,-0.460201
-0.518990,0.140532,0.156083,-0.468672,-0.684131,-0.558848
0.272712,-0.022415,0.765572,0.302246,0.889706,-0.342155
-0.630441,0.280421,0.068065,0.214025,-0.720851,-0.659217
0.562661,0.058556,-0.960272,-0.336382,0.127440,0.933063
0.316108,0.318025,0.514643,-0.113827,0.551027,-0.826688
-0.498703,0.384902,0.177562,0.023293,-0.874592,0.484299
-0.079925,-0.173104,-0.988772,-0.016816,-0.061817,0.997946
0.570941,0.462304,0.338073,-0.139104,-0.486116,0.862752
0.008325,0.326256,0.559496,-0.390634,0.649498,-0.652348
0.502526,0.280784,0.381179,0.489602,-0.261779,0.831722
-0.471138,0.363587,0.060836,0.977853,0.208403,-0.019260
0.076651,0.714732,0.213734,-0.265793,-0.626566,0.732646
0.016605,0.151052,0.562340,0.432756,-0.894144,-0.115013
0.072920,-0.183072,0.240753,-0.026079,-0.176104,0.984026
0.353410,0.219029,0.669496,0.300783,0.948183,-0.102362
-0.117682,0.892957,0.128205,0.780950,-0.399015,0.480524
-0.818952,0.658739,-0.020990,0.411013,0.384133,0.826747
-0.671291,0.620035,0.029522,-0.421438,-0.268401,-0.866228
0.180550,0.503113,-0.326282,0.830331,-0.239821,-0.503028
-0.337942,-0.189203,0.149180,-0.848639,0.509944,-0.140604
0.086930,0.539617,-0.548327,-0.701910,-0.669990,0.241736
0.089842,-0.027999,0.563051,0.920843,0.282266,-0.269024
0.385070,0.397896,0.297101,0.846153,0.390103,-0.363103
-0.110038,0.215371,0.572294,0.188536,0.881986,0.431921
-0.161170,1.000000,0.167074,0.900553,-0.434282,-0.020101
0.320839,-0.231839,0.679983,-0.398179,0.567148,0.720969
-0.214392,0.281885,0.374513,0.645015,0.205294,0.736077
-0.098211,0.172736,0.454325,-0.354674,0.905540,0.232818
0.231498,0.213635,-0.037373,-0.457161,0.887835,-0.052466
-0.121411,0.124522,0.658920,0.253542,0.736951,-0.626593
-0.545467,0.422232,0.139818,0.776682,-0.152603,-0.611128
0.246963,0.486919,0.212668,-0.579529,-0.803801,-0.134354
0.224218,0.282069,0.904279,0.858514,0.464129,0.218032
-0.401537,0.350503,0.193559,-0.615613,-0.783456,0.084961
-0.081743,-0.011621,-0.982373,0.051255,0.099193,0.993747
-0.029796,0.173194,0.658949,0.179008,-0.689595,0.701723
-0.332848,0.454252,0.602097,0.815463,-0.558116,-0.153385
-0.699769,0.394786,0.173918,0.149333,-0.975906,0.159082
-0.351316,0.338882,0.203958,0.523642,0.648345,-0.552674
0.151164,0.201830,0.948777,-0.048910,-0.995723,0.078387
-0.461492,0.676123,0.124383,0.449058,0.878882,0.160978
0.111404,0.149863,-0.375994,0.935182,0.274548,-0.223737
0.302917,0.297894,0.298582,-0.697685,0.709850,0.096692
0.160623,0.297347,-0.333422,0.372115,-0.628464,0.683054
0.294455,-0.737331,-0.185679,-0.494240,0.028657,0.868853
-0.070007,0.560748,-0.072331,0.819540,-0.347356,0.455739
-0.483965,0.484629,0.106993,-0.434129,-0.590342,0.680462
0.277079,0.196798,0.334281,-0.363624,-0.866515,-0.341949
0.525360,0.599815,0.161741,-0.056983,-0.497789,0.865424
0.223310,0.602473,0.695033,0.071303,-0.924254,0.375062
-0.312832,0.248765,0.415278,0.602083,0.570015,0.559088
0.263430,0.192861,0.684872,0.563521,-0.780434,-0.270863
-0.005413,0.415006,-0.874417,0.928599,0.369352,-0.035813
-0.129054,0.154984,0.540120,0.091044,-0.126572,0.987770
0.023518,0.339888,0.686145,0.738643,0.586978,-0.331457
0.254059,-0.699816,-0.148973,-0.389436,0.161223,0.906833
-0.330026,0.279690,0.428669,-0.638219,-0.147100,-0.755670
0.478234,0.227997,0.231273,0.697125,0.309136,-0.646879
0.639539,0.785634,0.058644,-0.378049,-0.672762,0.635980
0.349043,0.222508,0.712098,0.330596,0.737056,0.589454
-0.069099,0.591310,-0.064925,0.814179,-0.269081,0.514498
0.109494,0.241628,0.403072,0.993819,-0.078604,0.078390
0.196742,0.151142,-0.781570,0.695192,0.476684,-0.538034
-0.059818,0.614914,-0.087499,-0.671205,-0.739315,0.053834
0.178184,0.236412,-0.816173,0.957113,-0.277990,-0.081580
-0.090753,-0.211434,-0.987676,0.057915,0.060214,-0.996504
0.493427,0.149774,-0.177117,0.207652,-0.953761,-0.217303
0.135968,0.238886,0.726585,0.558192,0.229528,-0.797332
-0.036345,0.495697,0.360322,0.967257,0.250025,0.043601
0.118956,0.273374,0.620791,0.920691,-0.196976,0.336941
0.390984,0.379323,-0.491120,-0.420206,0.888307,0.185303
0.173453,0.188103,0.820024,0.894257,0.052228,0.444495
-0.422189,0.244649,0.109156,-0.686719,0.721019,-0.092462
0.463314,0.366608,0.009554,0.911460,-0.280434,-0.300993
-0.840330,0.657181,-0.018501,0.155102,0.048192,0.986722
0.411272,0.209882,0.154513,0.314495,-0.904190,-0.289021
0.589230,0.005216,-0.239598,-0.137781,0.316617,0.938494
-0.030795,0.567248,0.341480,0.949931,0.307870,0.053359
0.018695,0.334219,-0.526256,0.506365,0.764634,-0.398660
0.816859,0.267248,0.218445,0.117254,0.936137,0.331510
0.632898,0.160384,-0.167015,-0.085785,0.905204,0.416229
-0.179911,-0.333119,0.067472,-0.117713,0.619256,-0.776316
-0.557750,0.305857,0.190775,0.749597,-0.614477,0.246013
-0.104399,-0.295152,-0.320861,-0.725347,0.604256,-0.329767
0.434200,0.087739,0.101394,-0.161103,0.029437,0.986499
-0.537187,0.509061,0.102816,0.906579,0.371341,0.200549
-0.746439,0.240528,0.055474,-0.161911,0.708794,0.686583
-0.975617,0.610430,-0.014976,0.238073,-0.149447,0.959680
0.110494,0.213450,0.396051,0.985325,0.029086,0.168191
0.019789,0.150505,0.707772,-0.645924,-0.190520,-0.739246
0.043534,0.855716,0.056392,0.488737,-0.391736,0.779538
0.554474,0.146658,0.355849,0.263932,-0.794434,-0.547005
-0.561387,0.363497,0.137833,0.968092,-0.038310,-0.247649
0.293000,0.619030,0.567939,-0.361091,0.875797,-0.320301
0.044170,0.120312,0.472041,0.905756,-0.188754,-0.379445
0.411455,0.010063,0.416878,0.508475,0.726625,0.462027
-0.216757,-0.354713,0.490379,0.242130,0.775905,0.582533
0.095756,0.055350,0.082967,0.827106,-0.365068,0.427342
0.109222,0.200456,0.644077,0.044077,0.967635,-0.248476
-0.473320,0.532112,0.035032,0.968204,0.151383,-0.199158
-0.493244,0.066329,0.343199,0.411800,0.632391,0.656127
0.062458,-0.006405,0.788206,0.963574,-0.219088,0.153379
-0.028977,0.439252,0.726170,0.714065,-0.335562,0.614418
-0.137151,0.178041,0.227807,0.009177,-0.769002,0.639180
0.461676,0.282342,-0.932690,-0.032518,0.323063,0.945819
-0.507893,0.168983,0.159579,0.665574,0.094987,0.740263
-0.550198,0.625982,0.017938,0.576544,0.189816,0.794711
0.167720,0.214913,0.823579,0.924373,-0.296748,0.239741
0.056544,0.841811,-0.417500,-0.408100,0.895149,0.179339
0.342582,0.259654,-0.978699,-0.064378,0.204153,0.976820
0.370513,0.305399,0.779555,-0.057489,0.939374,0.338041
-0.367692,0.577400,0.241375,0.908789,-0.376401,0.180069
0.237048,0.495245,0.520597,-0.627873,0.751024,-0.204299
0.346949,0.262580,0.808737,0.777347,0.261937,0.571945
-0.316108,0.571274,0.353982,0.798082,0.111647,0.592115
-0.031889,0.589936,-0.075590,0.823621,-0.198938,0.531104
-0.319201,0.714916,0.272956,-0.286654,-0.739265,0.609358
0.710048,-0.217018,-0.235243,0.575997,0.674965,0.461139
0.260520,0.610704,0.554904,0.733144,0.520746,-0.437405
-0.365602,0.613172,0.382157,-0.717309,0.484043,-0.501169
0.168267,0.256270,0.880342,0.467128,-0.594999,0.654039
0.126142,-0.106496,0.640048,-0.080425,-0.966754,0.242731
0.368603,-0.004026,0.519886,0.684283,0.635162,0.358226
0.430196,0.045472,-0.957991,0.220669,-0.244107,-0.944308
0.102034,0.224792,-0.164822,0.867478,-0.443735,-0.224903
0.306099,-0.590394,-0.140944,-0.289028,0.404517,0.867657
-0.055633,0.116927,0.643573,0.399892,-0.902429,0.160338
0.538279,0.695975,0.511680,0.696180,-0.692102,0.190598
0.265979,-0.210250,0.665704,0.633115,0.767316,0.101938
0.066914,-0.090391,-0.978047,0.258681,0.108552,-0.959844
0.491242,0.538701,0.582485,0.886095,-0.230207,-0.402295
-0.526270,0.550780,0.165711,-0.575017,0.444286,0.686997
-0.022063,0.593136,0.436105,-0.438985,0.660660,-0.608950
-0.025792,0.086186,-0.976922,-0.232683,0.179618,0.955822
0.237137,0.115643,0.714231,-0.891287,0.453178,-0.015398
0.490334,-0.015278,-0.952095,-0.252393,0.256847,0.932913
-0.683118,0.471730,-0.037432,0.946850,-0.225697,-0.229208
-0.685576,0.046662,0.108030,0.617471,0.786539,0.009302
-0.129510,-0.535406,-0.123080,-0.542825,0.287580,-0.789074
0.400627,-0.536780,-0.207543,-0.368319,-0.871507,-0.323754
-0.025065,-0.182340,0.107912,-0.608159,-0.750515,-0.258591
-0.562845,0.335040,-0.016279,0.891102,-0.258069,-0.373279
0.450939,0.106496,0.332148,0.202023,0.659378,-0.724160
0.126961,0.549769,0.625561,-0.185328,0.686107,-0.703499
-0.639084,0.269717,0.099439,0.951349,-0.260661,-0.164288
0.162172,0.222508,0.745130,0.860257,-0.497059,-0.113537
-0.217849,0.499266,0.353034,-0.079926,-0.815951,0.572569
-0.280261,0.590757,-0.022767,0.377058,-0.719838,0.582804
-0.058182,0.740715,0.483150,0.778015,-0.528069,0.340346
0.524177,0.569716,-0.218326,-0.746963,-0.070500,0.661117
0.626076,-0.097897,-0.952688,-0.330668,-0.087103,0.939719
0.170177,0.362671,0.779585,0.252838,-0.723962,0.641835
-0.058818,0.038978,0.504777,-0.646758,0.608603,-0.459681
0.118409,0.291310,-0.722052,0.889729,-0.446926,0.092947
-0.806397,0.688838,-0.019716,-0.748981,-0.047825,-0.660863
0.135149,0.202103,0.169888,0.746366,0.634617,0.200497
0.449121,-0.001374,-0.151906,0.555999,-0.582638,-0.592788
-0.419460,0.545653,0.230029,-0.746000,0.605855,0.276447
0.646364,0.177125,0.262883,-0.385960,0.869921,0.307038
0.575125,0.444463,0.057222,-0.623554,0.769183,0.139775
-0.263066,0.079871,0.697403,0.818001,-0.372480,-0.438330
-0.319384,0.686185,0.261758,-0.178103,-0.751579,0.635145
-0.580584,0.465509,0.140944,0.938481,-0.052279,-0.341350
0.010416,0.127174,0.117747,0.681326,-0.177103,0.710231
0.077923,0.005121,0.242442,0.611722,0.079987,0.787019
0.308920,0.319030,0.582396,-0.260534,-0.657086,0.707361
-0.491426,0.416653,0.265224,0.650555,0.581111,0.488967
-0.932037,0.142726,-0.018323,0.905308,-0.391845,-0.163933
0.289907,0.543185,0.627753,-0.299567,-0.942886,-0.145693
-0.579492,0.122143,0.069398,0.799681,-0.596930,-0.064688
0.548196,0.403754,0.323142,-0.360958,-0.901803,0.237614
-0.358321,0.784629,0.294850,-0.241973,0.783592,-0.572217
-0.561479,0.181151,0.274645,-0.728517,0.060172,-0.682380
-0.083929,0.162215,0.444400,-0.582484,-0.779128,-0.231674
0.315836,0.417932,0.463123,0.061491,-0.708631,0.702894
0.140244,0.042451,-0.965930,0.397955,0.330432,-0.855831
0.267253,0.573653,0.539765,0.390948,0.750459,-0.532890
0.414456,0.334856,0.745930,0.137467,0.812379,0.566696
0.344947,0.124427,0.297960,0.167891,-0.366556,0.915122
0.515717,0.156357,0.280570,-0.718872,0.527168,-0.453118
-0.125870,0.037604,0.519471,0.432241,-0.770604,0.468334
0.160898,0.083986,-0.420077,0.921776,0.381671,0.068239
0.099577,-0.079781,0.441497,-0.376439,0.670560,-0.639252
-0.428286,0.523607,-0.103171,0.830302,0.540090,-0.137484
-0.532728,0.442542,0.196166,0.586019,0.545767,-0.598933
-0.705136,0.647029,-0.100594,0.086785,-0.959721,0.267216
-0.466043,0.238244,0.100001,0.882591,-0.459122,-0.101195
0.245600,0.203840,0.598542,-0.719402,0.421842,0.551824
-0.146341,0.440442,0.743560,-0.773940,0.111830,-0.623306
0.303281,0.505581,0.378394,-0.438057,0.451961,0.777070
0.420278,0.209240,0.315736,0.268517,0.322188,0.907796
-0.365510,0.762672,0.289132,0.183975,-0.586904,0.788477
0.171815,0.539801,0.517576,0.740386,0.121996,-0.661018
0.460401,0.217839,-0.968271,0.321962,-0.143257,-0.935851
-0.340216,0.852427,0.034855,0.348085,-0.680496,0.644796
0.310921,0.238518,0.694589,-0.592347,0.786682,0.173943
-0.358230,0.511071,-0.110133,-0.532820,0.512773,0.673177
0.407271,0.259285,0.391311,0.716542,0.567034,0.406252
-0.141882,-0.298263,0.465731,0.016311,0.769479,0.638464
0.000593,0.067245,0.692397,0.124568,0.872668,0.472159
0.314562,0.179599,0.821179,0.309439,0.493197,0.813022
0.285084,0.126164,0.085989,0.303523,0.631048,0.713899
-0.261884,0.562948,0.124413,-0.085704,-0.964272,0.250669
0.430832,0.247117,0.683005,-0.093556,-0.783146,0.614760
0.212573,0.183530,0.421558,0.668981,-0.720181,0.183858
0.551017,0.260201,-0.961753,0.026894,-0.014389,0.999535
0.199019,0.341261,0.355938,-0.152790,0.825375,0.543518
0.158257,0.211803,0.832556,0.247725,0.934800,-0.254521
-0.006415,0.218844,0.854716,0.970760,-0.205880,0.123448
0.348043,0.439615,0.581774,-0.215172,-0.955795,-0.200390
0.611336,-0.388475,0.198833,0.516990,0.845517,-0.133499
0.154073,0.237602,0.535380,-0.700692,0.298566,-0.647989
0.027702,0.141447,0.500333,0.586495,-0.641156,0.494917
0.196378,0.183714,0.290050,-0.077993,0.769736,0.633580
-0.005049,0.528181,-0.099320,0.843218,0.162235,0.512507
-0.039075,0.166604,0.565332,0.830130,0.248741,0.499011
0.290814,-0.154989,0.633264,0.457648,0.837663,0.298125
0.205385,0.018389,-0.791583,0.674060,0.717657,-0.174962
-0.302551,0.069719,0.311470,0.433807,-0.876708,-0.207830
0.325023,-0.090391,-0.970522,-0.098713,0.172948,0.979972
0.295909,-0.011621,0.046616,0.843712,0.532943,-0.064201
0.277896,0.291673,0.671125,-0.707909,0.201053,0.677084
-0.025336,0.136595,0.513220,0.801743,-0.575659,0.160702
0.367875,0.592226,0.389504,0.985395,0.039473,0.165644
0.125778,-0.367886,0.240931,0.062081,0.540500,0.839050
-0.301368,0.771729,0.014413,-0.442501,-0.065649,0.894362
0.106945,-0.041172,-0.973544,-0.185914,-0.139230,0.972651
0.219398,0.392407,0.772416,0.190043,-0.816238,0.545563
-0.356411,0.821317,-0.029463,0.930444,-0.160732,0.329301
-0.210116,-0.409422,0.047653,-0.527350,-0.651256,0.545681
0.246691,0.850411,0.445022,0.676570,0.731149,-0.087606
-0.348951,0.751878,0.014798,0.269230,0.546273,-0.793159
0.731065,0.280237,-0.381742,-0.126412,0.951516,0.280424
-0.070554,0.356908,0.512895,0.654912,0.750619,0.087527
-0.186280,0.281974,0.758491,-0.154999,0.936237,-0.315333
0.309103,0.331382,-0.990253,-0.192669,0.111302,0.974931
-0.894008,0.688106,-0.012458,-0.011463,-0.561118,0.827657
0.721967,0.130374,0.378957,0.923531,-0.179128,-0.339123
0.055178,0.330741,0.588203,-0.638876,-0.748669,0.177008
0.429469,0.151695,0.492868,-0.716937,0.193492,-0.669748
0.164535,0.228271,0.185649,-0.666101,0.163243,0.727778
-0.358050,0.357092,-0.061814,0.002087,0.967998,0.250949
0.142157,0.794602,-0.438504,-0.472497,-0.778135,-0.413826
-0.419915,0.315278,0.425676,0.634114,0.310007,0.708375
-0.539825,-0.000458,0.364796,-0.551962,-0.615905,-0.562138
0.591959,0.087096,0.084863,0.353829,0.915327,-0.192306
-0.297731,0.063771,0.631308,-0.753356,0.657425,0.015723
-0.175907,-0.151695,-0.249700,-0.614018,0.534241,-0.581007
0.128783,0.223423,0.544683,0.997999,-0.061682,-0.013879
0.182096,0.033031,0.677999,0.596621,0.457353,-0.659448
0.318018,0.031288,-0.690678,-0.072275,0.997377,-0.003860
0.199107,0.458646,0.566636,0.268465,-0.825741,0.496064
-0.150708,-0.266517,-0.088003,-0.661664,0.387957,-0.641631
-0.476322,0.243644,0.286406,-0.447550,-0.062953,-0.892040
0.141063,0.217292,0.530907,-0.492315,0.869787,0.033128
0.139791,0.104938,-0.466619,0.775670,0.624743,-0.089620
-0.027977,0.539343,-0.446652,0.883436,0.375858,-0.279771
0.359868,0.463404,0.400435,0.801113,-0.139353,0.582064
0.216669,0.689938,0.204936,-0.668297,0.014377,-0.743756
-0.156802,0.442179,0.502555,0.830364,-0.164618,0.532350
0.157441,0.077402,-0.346132,0.725541,0.457458,0.514123
-0.264613,0.670449,0.462323,-0.114162,-0.918217,0.379268
0.114042,0.215097,0.382275,-0.220096,0.746673,0.627724
0.728061,0.228360,0.235598,-0.248643,0.899852,0.358391
0.504436,0.653708,0.482351,-0.639917,0.766278,0.057663
0.324932,0.622140,-0.080360,0.818073,0.248401,-0.518704
-0.581678,-0.085360,0.428521,-0.245052,0.868422,0.431038
-0.773462,0.088107,-0.029078,-0.146718,0.988487,0.036972
0.198744,0.008784,-0.939119,0.838069,-0.520514,0.163421
0.507346,0.289389,0.724896,0.877831,0.101644,-0.468060
0.333303,0.846842,0.180850,-0.698821,-0.166520,-0.695643
0.236773,0.040072,0.727118,0.748992,0.372911,0.547676
-0.133966,-0.337330,-0.116770,-0.491958,0.861112,-0.128311
0.595959,0.121043,0.204699,-0.381779,0.735427,0.559814
0.113043,-0.050961,0.409264,0.957705,0.277640,0.075612
0.383343,-0.152331,0.129212,0.600445,0.769121,0.218901
0.120775,0.186641,0.643870,0.037642,0.991728,-0.122715
0.219579,-0.142911,-0.967204,-0.106810,0.005248,0.994266
-0.864167,0.624519,-0.008132,-0.369650,0.016775,0.929020
-0.391348,0.696248,0.008458,-0.324726,-0.202867,-0.923795
-0.089387,0.510702,0.649943,-0.044981,-0.492688,0.869042
-0.039622,0.396617,-0.606364,0.893405,-0.259719,0.366570
0.125961,0.307410,0.409353,-0.580784,0.775064,0.248931
-0.669744,0.613909,-0.066998,-0.202234,0.979309,-0.007392
-0.381250,0.302836,0.261432,0.727937,-0.279703,0.625998
-0.422916,0.366608,-0.007569,0.771833,0.540325,0.335146
-0.378429,0.513634,-0.134693,-0.015065,-0.108766,0.993953
0.104491,0.172646,0.487920,-0.600747,-0.675772,-0.427124
-0.558749,0.623698,0.095558,-0.430185,-0.469557,0.771011
0.105127,0.259285,0.175014,0.860665,0.483218,0.160488
0.417641,-0.057456,0.501015,0.119556,0.729826,0.673098
-0.032617,0.122417,0.318520,0.282042,0.956400,-0.075837
-0.273164,0.470814,0.336651,0.575816,-0.097849,0.811703
0.073739,0.100275,0.263861,0.851909,-0.345413,0.393626
0.474047,0.133669,0.324683,0.139984,-0.789472,0.597611
0.375700,0.224792,0.732924,0.911597,-0.360631,0.197324
0.332303,0.603567,0.316832,0.474158,0.611985,-0.632968
0.161717,0.371824,0.099498,0.439491,0.576928,-0.688478
-0.632806,-0.148763,-0.138989,0.052097,-0.003768,0.998635
-0.131237,0.241539,0.571346,-0.334635,0.725163,-0.601796
0.471590,0.480788,0.336829,0.959067,0.011445,0.282949
0.288996,0.415922,0.612526,0.330174,0.942364,-0.054178
-0.140699,0.679507,-0.098372,0.103894,0.947729,0.301690
-0.530363,0.731931,0.050971,-0.036819,0.710938,0.702290
0.224582,-0.009605,0.630479,0.976706,-0.122633,0.176087
0.446572,0.386186,0.311055,-0.386275,0.919704,-0.070256
0.255606,0.114911,0.472989,-0.390968,-0.695565,0.602772
-0.083109,0.426626,0.464664,0.486146,-0.873830,-0.009189
-0.519809,0.589389,0.154720,-0.587135,0.473766,0.656368
0.274258,0.707227,0.615814,-0.355453,0.842990,-0.403758
0.034527,-0.298905,0.610896,0.086326,0.770873,0.631113
0.147251,0.199450,0.991764,-0.280978,-0.868823,0.407673
-0.254879,0.412990,0.118458,-0.461755,-0.213512,-0.860927
0.205477,-0.195793,-0.157357,-0.413297,-0.202767,0.887734
0.356139,0.468525,0.532862,0.116239,0.991961,0.050026
0.338670,-0.540075,-0.156616,-0.109786,0.300050,0.947585
0.231678,-0.037877,-0.957813,-0.015290,-0.201398,0.979390
0.196198,0.408964,-0.097780,0.922632,-0.370793,-0.106129
0.337762,0.037788,0.522789,0.359755,0.713263,0.601525
0.270710,0.303110,0.248071,0.686044,0.208965,0.696906
0.162625,-0.164683,0.373861,0.941484,0.206052,0.266741
-0.216302,-0.060750,0.548416,0.777152,0.329054,0.536431
0.498067,0.501371,0.508628,0.528235,0.387336,-0.755605
-0.571213,0.665965,0.166304,-0.552444,0.411681,-0.724793
-0.052085,0.718116,0.113837,0.843601,-0.052821,0.534367
0.374245,0.012537,-0.967412,0.020798,0.155174,0.987668
0.630168,0.149494,-0.149150,-0.014037,0.808565,0.588239
0.147068,0.202014,0.688516,0.843202,0.317513,-0.433815
0.335121,0.443642,0.624494,-0.619048,0.047488,0.783916
0.007323,0.156905,0.548653,0.269925,-0.958500,0.091748
-0.113042,0.256543,0.334222,0.678898,0.265197,0.684667
0.549287,0.106038,0.362070,0.151631,-0.591917,-0.791607
-0.132694,-0.184357,-0.981543,0.012204,-0.053719,0.998481
0.704225,-0.152331,-0.269312,0.550781,0.661934,0.508414
0.341127,0.184172,-0.716304,-0.632607,-0.170039,0.755576
-0.368331,-0.581979,-0.070702,-0.131487,0.643983,0.753656
0.435291,0.767340,-0.101868,0.075184,0.993580,0.084536
0.431287,0.659655,0.463864,-0.765842,-0.193225,0.613311
-0.241232,-0.205398,-0.228814,-0.513625,0.775675,-0.366766
-0.537823,0.095060,0.151669,0.221995,0.949525,0.221633
0.320384,-0.016105,-0.566991,0.675675,0.728417,-0.113456
-0.545194,0.449773,0.166867,-0.388390,0.905250,0.172267
-0.745259,0.253154,0.024752,-0.414851,-0.419571,-0.807378
0.410089,0.578500,0.391429,-0.729050,-0.493542,0.474238
0.292089,0.571453,0.603845,0.871473,0.372315,0.319242
0.216394,0.328177,-0.746463,0.458999,-0.871995,0.170128
-0.058910,0.002468,0.423692,0.831281,0.418948,0.365316
-0.161989,-0.085544,0.521338,0.857643,-0.255474,0.446298
-0.602693,-0.301189,-0.568502,0.165297,-0.068531,0.983860
0.115408,0.166331,0.173977,0.562235,0.743801,0.361457
-0.144247,0.742541,0.023271,-0.576237,-0.792297,-0.200541
0.713960,-0.070997,0.033699,-0.430711,-0.901845,0.034119
0.115864,0.017015,0.669466,0.214620,0.505472,-0.835725
-0.327844,-0.047120,0.628849,-0.970445,0.227624,0.080155
-0.322930,-0.075481,0.606808,-0.659511,-0.662852,-0.354504
0.198380,0.352882,0.555526,0.810340,-0.583894,-0.049162
0.490334,0.595515,0.351524,0.630660,0.457206,-0.627080
-0.204930,0.031288,0.404761,0.201294,0.493878,0.845911
0.410636,0.216560,0.677999,0.006706,-0.908852,0.417066
0.039438,0.256175,-0.581330,-0.653778,-0.751452,0.088847
0.502162,0.669075,0.482647,-0.639917,0.766278,0.057663
0.052904,0.171362,0.263743,0.476125,-0.861500,0.176417
-0.445661,0.009700,-0.564443,-0.329282,0.157805,-0.930952
-0.008325,-0.559927,0.300330,-0.380114,-0.467056,-0.798356
-0.051813,0.452152,-0.010739,0.795719,0.596603,0.104384
0.690851,0.260111,0.226177,0.079334,-0.030305,-0.996387
-0.102942,0.713085,0.357834,-0.700674,0.189728,-0.687793
0.107856,0.325525,0.910945,0.739658,-0.551953,0.385039
0.021425,0.718300,0.051889,0.872713,0.080374,0.481572
0.554293,0.012537,0.033047,0.139965,0.897017,0.419249
0.104128,-0.019394,-0.973870,-0.302560,-0.054549,0.951568
-0.074466,0.430011,0.264217,-0.573264,-0.734007,-0.364145
0.235774,0.238791,0.002089,-0.598163,0.727981,0.335029
0.286450,0.361571,0.456221,0.153087,-0.966502,0.206005
0.226220,0.411437,0.615725,-0.304441,-0.733611,0.607562
0.310103,0.647760,0.537632,-0.444545,0.694145,-0.566164
0.154345,-0.164136,0.618895,0.812065,0.171497,0.557799
-0.469500,-0.277679,0.167578,-0.397162,-0.702104,-0.591026
0.135879,0.085818,-0.149150,0.928566,0.325478,-0.178406
0.377518,0.395428,0.123584,0.670431,-0.659546,0.339885
0.512169,0.402927,0.261284,0.470809,0.754550,-0.457158
-0.117318,0.718116,0.326727,-0.001765,-0.965658,0.259811
0.289815,0.532938,0.085781,0.128237,-0.711361,0.691028
0.118318,0.181520,0.978462,-0.280978,-0.868823,0.407673
0.277623,0.028273,-0.957546,0.275098,-0.112646,0.954794
0.566574,0.050319,0.420877,-0.572659,-0.703135,0.421500
-0.243778,-0.077950,0.575553,-0.922325,-0.112692,-0.369619
0.322750,0.405033,0.686827,0.962332,0.235418,-0.136001
0.538462,-0.339614,0.173207,0.804196,0.351324,-0.479417
-0.022335,0.251512,-0.129449,0.354690,0.880038,0.315797
0.072376,0.147116,0.846717,0.346875,0.373254,-0.860441
-0.201656,0.021773,0.079738,-0.506911,0.810933,0.292282
0.316380,0.482340,0.644877,0.395895,0.693409,0.602040
-0.566574,0.735684,0.053963,-0.521618,-0.711407,0.470973
0.205385,-0.073924,0.628642,-0.576295,0.483923,0.658561
0.203475,0.309973,0.272334,0.916512,-0.299637,0.264996
0.142065,0.309057,0.796679,-0.563790,-0.273014,-0.779490
0.332759,0.032388,0.841769,0.887231,0.148994,-0.436603
0.103308,0.320494,0.774460,0.974288,0.167272,0.150937
0.208206,0.640803,0.333304,0.819805,0.142353,0.554666
0.269708,0.505124,0.502081,0.893518,-0.322689,0.312246
0.475869,-0.161484,-0.952806,-0.248096,0.073075,0.965975
0.405813,0.335314,0.638863,0.923491,-0.219325,-0.314739
0.222308,0.399543,-0.133508,0.856934,-0.514941,0.022374
-0.630168,0.366150,-0.066139,-0.435154,-0.792141,-0.427964
0.562481,-0.079508,-0.947770,-0.051609,-0.051842,0.997321
-0.762178,0.263401,0.025286,0.488214,0.333469,0.806502
0.070374,0.552606,0.403931,-0.529266,0.315000,-0.787815
0.002958,-0.546843,0.085752,0.485548,0.074893,-0.870996
0.372787,0.190304,0.364500,0.304547,-0.863700,-0.401588
0.220853,0.435684,0.829030,-0.772930,-0.634482,-0.003530
0.120503,0.217566,0.595106,0.911664,-0.003693,0.410920
0.168267,0.190304,-0.232310,-0.256506,-0.954868,0.149770
-0.279806,0.228728,0.409293,0.614403,0.490050,0.618352
-0.402448,0.463220,0.246945,-0.439332,-0.130314,0.888823
0.057819,0.323146,0.688545,0.726332,0.672178,0.143591
0.044625,0.530649,0.403220,-0.229408,0.462706,-0.856315
-0.714235,0.238518,-0.046646,-0.223906,-0.785584,0.576823
0.135332,0.100002,0.465286,0.157462,-0.164485,0.973730
0.666651,0.627725,-0.250826,0.469887,0.298936,0.830568
0.225856,0.414822,0.472841,0.104150,-0.858597,0.501959
0.138061,0.577400,0.029374,0.768932,0.133707,0.625193
0.333303,-0.127079,0.575523,-0.445357,-0.702968,-0.554520
0.494610,0.265780,-0.168911,0.722854,0.481124,0.495986
-0.702132,0.664133,-0.053726,-0.377070,-0.925623,0.032272
0.599508,0.586184,0.380616,0.044991,0.964490,0.260259
-0.428011,0.430647,0.144470,0.705335,0.649533,0.283917
-0.408725,-0.013173,0.341421,0.467527,0.293254,0.833919
-0.376882,0.665144,0.002177,-0.677739,0.228895,-0.698768
-0.558114,0.759014,0.058822,-0.042877,-0.940614,0.336761
-0.624710,0.501371,0.037077,0.331703,0.923202,0.194093
-0.274167,0.539433,-0.107349,-0.705369,-0.701023,-0.104981
0.258247,0.393412,0.570161,0.768945,0.633930,-0.082805
0.377066,0.656634,0.341362,-0.092265,-0.469782,0.877948
0.116863,0.168252,-0.000311,-0.776474,0.618379,-0.121222
-0.012509,0.468435,0.718793,0.865290,0.443053,-0.234472
0.509167,0.535680,0.345006,-0.669389,0.413976,0.616881
-0.536004,0.572368,0.122636,-0.206382,0.770715,-0.602830
0.129965,0.326714,-0.758343,0.632714,-0.725020,0.272063
-0.733339,0.573653,0.037314,-0.486015,-0.872446,-0.051261
0.241141,0.117290,0.830037,0.435382,-0.755753,-0.489162
-0.646364,0.183530,0.345302,0.964963,-0.035644,0.259955
0.271618,0.113538,0.626746,0.583724,0.080120,-0.807990
0.174816,0.151052,0.666741,-0.624755,0.746059,-0.230387
-0.486875,0.480514,0.148617,0.736165,0.515676,-0.438336
-0.174361,0.380881,-0.128027,-0.161409,-0.758601,0.631246
0.023974,0.322051,0.286080,0.272372,0.860807,0.429913
-0.420006,0.574200,0.380379,0.238732,-0.773094,0.587650
0.136606,0.275848,0.562340,-0.675373,0.594697,0.436127
0.382524,0.130559,0.333630,-0.324104,0.552493,-0.767924
-0.206113,0.000642,0.518583,0.720455,-0.158577,0.675128
-0.799844,0.654071,0.021790,0.411662,-0.096932,0.906167
0.186827,0.887925,0.119140,-0.147869,0.988593,-0.028599
-0.745348,0.103749,0.048245,0.238475,0.969067,-0.063551
-0.535824,0.524154,0.059474,0.838572,0.352541,0.415346
-0.278990,0.396338,0.563969,-0.375209,0.901607,-0.215228
0.515717,0.412990,0.545157,0.458289,0.712996,-0.530668
0.859891,-0.307867,-0.247300,0.411552,0.704634,0.578028
-0.212482,0.237144,0.396140,0.136698,-0.870757,0.472330
-0.382158,0.906219,0.054467,0.565034,-0.698195,0.439614
-0.356683,0.641718,0.043713,-0.353605,0.809288,0.469059
-0.270618,0.886094,0.146306,-0.693344,-0.208692,0.689726
-0.062730,0.641171,0.320209,-0.653493,0.117754,-0.747717
0.136695,0.078866,-0.205647,0.874765,0.428660,0.225915
-0.403631,0.828543,-0.109689,-0.255643,0.706610,-0.659810
-0.085475,0.067429,0.708661,-0.760416,-0.403928,-0.508536
-0.161989,0.300184,0.460131,0.987053,0.156340,-0.035823
-0.133694,0.491219,0.666178,0.859726,-0.492778,0.134317
-0.061184,0.199177,0.679539,0.348086,-0.372668,0.860206
-0.934039,0.151968,0.081071,-0.665123,-0.629646,-0.401443
0.232317,0.181883,0.948955,0.784594,0.471284,0.402870
0.230859,0.373923,0.295057,0.806047,-0.055063,-0.589285
0.175455,0.374839,0.316980,0.118754,0.986089,0.116301
-0.462583,0.610157,0.395310,0.032596,-0.819017,0.572842
0.246874,0.421684,0.577864,0.288201,0.938982,-0.187758
0.093119,0.759835,0.021671,-0.610523,0.240864,-0.754484
-0.536368,0.599815,0.098165,0.986456,0.128119,0.102420
-0.615884,0.154073,0.167044,0.700733,0.697705,0.148930
0.280353,0.273927,0.681761,-0.654593,0.662204,0.364684
0.466771,-0.051324,-0.956213,-0.058020,0.207628,0.976486
-0.139880,-0.024247,0.402065,-0.070598,0.280896,0.957138
0.394349,-0.074476,-0.513754,0.487737,0.844255,0.222139
-0.114589,0.261022,0.704691,0.060793,-0.894815,0.442278
0.107856,0.167704,-0.197737,0.978417,0.063020,0.196796
-0.139788,0.156452,0.350398,0.496084,0.700410,-0.513154
0.422100,0.487829,0.106045,-0.361692,0.472259,-0.803835
-0.413909,0.355350,0.187071,-0.632926,-0.770871,0.071853
0.772735,0.347392,-0.420462,-0.173437,0.925896,0.335613
0.009236,-0.012715,-0.240249,-0.542288,0.446069,-0.712002
0.631623,-0.073013,-0.948333,-0.267697,0.000602,0.963503
0.469136,0.530744,0.689464,-0.902128,0.188599,0.388067
-0.329663,0.761756,0.272216,0.271349,-0.282351,0.920134
0.304100,0.237418,0.669111,-0.375237,0.818229,0.435544
-0.002136,-0.538338,0.284244,0.311681,0.828280,0.465625
0.126325,0.035041,0.667333,0.400886,0.781531,-0.478016
-0.095118,-0.082892,0.028070,0.766711,-0.021926,-0.641618
0.218215,0.108691,-0.235391,0.062223,-0.899702,0.432046
-0.256880,0.350872,-0.056985,-0.642567,-0.375085,-0.668147
0.614520,-0.044646,-0.951681,-0.113805,0.070240,0.991017
0.026156,0.050230,0.471833,-0.201432,0.850024,-0.486709
0.502615,0.736141,0.115377,-0.133085,-0.592787,-0.794287
-0.542282,0.215734,0.054852,-0.565383,0.565177,0.600764
-0.256153,0.498171,0.195485,-0.561450,0.812022,-0.159356
0.390620,0.132111,-0.339377,0.189295,-0.487111,-0.852579
0.150889,0.250959,0.649350,0.235084,-0.787303,0.569991
-0.906108,0.228818,0.052126,-0.428980,-0.605913,-0.669959
-0.542646,0.532938,0.152320,0.787863,0.600038,-0.138658
-0.659738,-0.138063,0.063858,0.199944,0.538162,0.818782
0.182096,0.157547,0.758936,0.982698,0.133235,0.128656
0.018243,0.373560,-0.353508,0.740191,0.672274,-0.012827
0.098122,0.649129,-0.194122,0.776741,-0.400591,0.486004
0.315381,-0.020405,0.509043,-0.517562,-0.002974,0.855641
0.492244,-0.201466,0.312566,-0.656635,0.465732,0.593232
0.507621,-0.172736,-0.500096,0.503485,0.830824,0.237138
0.433472,0.161026,-0.165296,-0.035667,0.945463,0.323771
-0.046990,0.564500,0.345124,0.929054,0.360367,-0.083631
0.317746,0.196614,0.251803,0.981251,-0.025102,-0.191095
0.365146,0.413085,-0.029403,0.714427,-0.478879,-0.510165
-0.120139,0.449952,0.102342,0.079664,0.168209,0.982527
0.190101,0.361481,0.844791,0.979209,-0.193767,-0.060037
-0.467678,0.658918,-0.111526,0.991502,-0.080030,-0.102563
0.285811,0.527449,0.525130,0.743346,-0.631808,-0.219672
0.511805,0.478225,0.000044,-0.602977,0.558092,0.570046
0.166901,0.261117,0.862448,-0.127735,-0.952246,0.277330
0.342218,-0.037236,0.520953,0.800078,0.446142,0.401039
-0.120047,0.801650,0.365536,0.196935,-0.727997,0.656686
0.397262,0.078039,0.879483,0.625912,0.779513,0.024351
-0.020153,0.661665,-0.099557,0.676057,0.124290,0.726291
0.297184,0.458831,0.481936,0.485746,-0.444809,0.752459
0.709048,-0.474382,-0.093395,0.669826,0.636603,0.382191
0.001137,0.033209,0.713994,0.310430,0.590525,0.744925
0.361051,0.030283,0.329186,0.688783,0.416025,0.593718
-0.635899,0.418479,-0.077812,0.132313,-0.958235,0.253532
0.590685,0.560111,0.390126,0.361263,0.932460,0.002629
0.063641,-0.041077,-0.962405,-0.293843,-0.383453,0.875568
-0.485328,0.255169,0.018946,0.080246,0.942296,0.325021
0.359779,0.099723,-0.416137,-0.649592,0.755328,0.086653
0.277260,0.309604,0.821179,0.016827,0.329200,0.944110
0.190012,0.616009,0.544831,0.641786,0.423278,-0.639489
-0.168358,0.018478,-0.644729,-0.624565,0.215678,0.750601
0.254787,-0.003842,0.316861,0.036356,0.188038,0.981489
0.340216,0.093781,-0.969071,-0.081886,0.075770,0.993757
0.444662,0.210155,0.674592,-0.120169,-0.863396,0.490006
-0.386253,0.831291,0.036277,0.138728,-0.645095,0.751403
0.668381,0.101738,0.438475,-0.396516,0.886651,0.237961
0.232861,0.046935,0.093306,0.130509,-0.132502,-0.982553
0.401537,0.320767,-0.002622,-0.805815,0.077178,0.587116
0.043717,0.001005,0.671659,-0.605564,0.089890,-0.790703
-0.613609,0.637056,-0.046083,-0.529434,-0.845559,-0.068766
0.159532,-0.125343,-0.962642,0.291162,0.033037,-0.956103
0.026520,-0.131106,0.058407,-0.608517,0.463716,0.643952
0.429196,0.348856,0.728955,0.432742,0.901478,0.008426
-0.562934,0.384354,0.174806,0.683973,0.621052,-0.382722
0.152982,0.157184,0.939356,-0.247486,-0.961853,0.116577
0.683302,0.097070,0.470678,-0.373221,0.885786,0.275844
-0.385617,-0.090028,0.447096,0.246266,0.733639,0.633346
-0.229768,-0.392043,-0.087618,-0.699967,0.701267,-0.135166
0.042259,0.633577,0.271919,0.769765,0.013776,0.638178
-0.020789,0.489571,0.426358,0.714996,0.452092,0.533286
0.703134,0.117106,0.352649,0.482695,0.300310,-0.822690
0.173634,0.220492,0.193974,0.597679,-0.798633,0.070460
0.176363,0.525249,0.614007,-0.496248,0.255376,-0.829772
0.149162,0.313083,-0.015094,-0.410505,0.589293,-0.695859
0.454671,0.482340,0.672192,0.878645,0.336738,-0.338513
0.019789,-0.515186,0.286703,-0.559410,-0.490489,-0.668193
0.468589,0.054346,0.010562,0.232305,0.971035,-0.055906
0.652913,-0.449499,-0.095884,-0.629723,-0.470030,-0.618483
0.288452,0.509150,-0.093188,0.136347,0.008651,0.990623
0.182277,0.068982,0.555111,-0.680083,0.565812,0.466202
0.490790,0.545196,0.586307,-0.768430,0.348956,0.536419
0.435291,0.011894,-0.963116,-0.057618,-0.009638,0.998292
-0.156347,0.468709,-0.085900,-0.089289,-0.727301,0.680485
-0.482599,0.421043,0.046349,-0.900742,-0.144483,-0.409620
-0.433197,0.495977,0.165474,0.511029,-0.851291,-0.118968
0.171723,0.331746,0.104327,0.406372,0.118590,-0.905979
0.470135,0.556632,0.562636,0.860687,0.366234,-0.353681
0.110222,0.239433,0.490498,0.960741,0.245472,0.129310
-0.184826,0.027815,0.004992,-0.079012,0.736774,0.671507
-0.497520,0.700732,0.054822,-0.440972,-0.379281,-0.813443
0.755173,0.628914,0.437556,-0.747516,-0.224949,0.624994
0.395807,0.618025,0.443511,0.972648,-0.211266,-0.096556
-0.326026,0.725526,0.273934,0.308781,0.690487,-0.654127
-0.174636,0.156905,0.614392,-0.476368,-0.685751,-0.550290
0.320656,0.006768,0.832259,0.923868,0.160193,-0.347573
0.104216,-0.299910,0.589862,0.356020,0.524732,0.773244
0.304372,0.558006,0.519383,0.715395,-0.196266,-0.670589
0.289088,0.288748,0.806248,-0.065012,-0.990382,-0.122136
-0.422644,0.420858,0.210594,0.968213,-0.219286,0.120324
-0.274258,0.489750,0.091854,-0.537105,0.634275,0.556069
0.532092,-0.118022,0.379194,0.842629,0.081281,-0.532325
0.330665,0.094328,-0.693848,-0.482563,-0.770566,-0.416366
0.080200,-0.231839,-0.977099,-0.065950,0.050329,0.996553
0.413182,0.018026,0.483565,0.551578,0.805982,0.214837
0.325934,0.299084,0.697196,0.769561,0.606402,-0.200130
0.371604,0.698169,0.344858,0.406432,0.204814,-0.890429
0.316200,0.571090,0.272719,0.995324,0.094542,-0.019807
0.050722,0.586368,0.029611,0.771439,-0.065740,0.632898
0.019698,0.047298,0.449496,0.975138,0.078345,-0.207285
0.132694,-0.115096,-0.967441,0.336049,0.106110,-0.935848
-0.358050,0.344645,0.416670,0.827832,0.265023,0.494425
0.251239,-0.153705,0.649765,0.447861,0.552005,0.703357
0.254243,-0.146937,0.649232,0.380132,0.615423,0.690474
-0.260065,-0.210887,-0.149387,0.278111,-0.605142,-0.745961
-0.082018,0.098812,0.614066,-0.363321,-0.278319,-0.889121
0.218396,0.429368,0.540061,0.940405,-0.045458,-0.337005
-0.451667,0.646476,0.019923,0.931139,0.159139,-0.328108
0.411635,0.453246,0.523649,-0.028670,-0.794810,0.606181
0.505344,0.281337,0.726496,0.877831,0.101644,-0.468060
0.661829,0.189477,0.364677,-0.476228,-0.181792,0.860325
0.031889,0.318388,0.297931,-0.179384,0.862447,0.473293
0.516628,-0.027083,-0.950614,-0.490753,-0.000335,0.871299
-0.494246,0.304026,0.492838,0.783411,-0.434097,0.444777
0.426831,-0.120859,-0.049608,0.652942,0.703375,-0.280947
0.025792,0.755262,-0.442859,-0.621287,0.778717,-0.087195
0.305827,0.378223,-0.984772,0.279488,0.074933,-0.957221
-0.790473,0.053798,-0.030826,-0.390825,-0.715923,-0.578541
0.582769,-0.168067,-0.949459,-0.019521,0.040797,0.998977
0.384798,0.106223,0.888637,0.535490,0.838573,0.100225
-0.809490,0.265780,-0.022797,0.760775,-0.574363,-0.302206
-0.498431,0.188746,0.268009,-0.478938,-0.770747,-0.420200
-0.042079,0.463315,-0.507829,0.925331,0.376354,0.046047
0.148434,0.382523,0.707002,0.743567,0.572985,0.344668
-0.099485,-0.271090,-0.116592,-0.658959,0.309188,-0.685694
-0.600419,0.534033,-0.023893,0.801220,0.534146,-0.269694
0.472046,0.447026,0.555970,0.340031,0.531887,-0.775548
0.158713,0.236507,0.791139,0.946600,-0.187859,0.262025
0.125234,0.092681,0.084626,-0.490724,0.697416,-0.522303
-0.729427,0.353798,-0.005821,0.886913,-0.461896,-0.006125
0.298641,0.271090,0.827875,-0.497056,0.685099,0.532517
0.251150,0.472004,-0.213497,0.910941,0.183075,0.369690
0.081383,0.083439,0.810603,0.737367,-0.674938,0.027385
0.107492,-0.258369,0.585181,-0.275148,-0.484905,-0.830157
-0.489060,-0.321225,-0.156498,-0.059383,0.381240,0.922567
-0.749898,0.680422,0.046053,0.740535,0.670648,-0.042893
-0.171088,0.195698,0.200581,-0.682980,-0.670994,0.288627
0.086111,0.273469,0.608023,0.767120,0.303473,0.565183
-0.588319,0.533028,0.121480,0.134697,-0.760714,0.634958
0.264613,-0.149042,-0.141892,0.799170,0.425830,-0.424260
-0.721603,0.190762,-0.065517,0.319287,0.856337,-0.405886
0.150980,0.234949,0.472308,-0.087387,0.946012,0.312131
-0.861165,0.212076,0.047564,-0.115817,0.433957,0.893458
0.156347,0.156357,-0.920929,0.824550,-0.560424,-0.077736
-0.211663,0.757093,0.102934,0.753271,0.481685,-0.447842
-0.707410,0.423511,-0.062792,0.613956,0.673154,0.412216
0.365965,-0.041262,0.516657,0.280511,-0.897222,-0.341036
0.248057,0.350687,0.484306,-0.372885,-0.533833,-0.758933
-0.429832,0.388654,0.097720,0.563436,0.752460,-0.341093
0.111951,0.216650,-0.286169,0.926817,0.158436,-0.340453
0.157441,0.031473,0.311736,0.479162,-0.388979,0.786828
0.006779,0.583715,-0.161653,0.770472,0.390131,0.504155
0.599053,-0.437879,0.099290,0.974742,-0.082638,-0.207482
0.281899,0.376576,0.240398,0.925638,-0.073552,-0.371193
0.298550,0.629919,0.573331,-0.555714,0.783168,-0.278980
-0.027794,0.376123,0.065014,-0.528080,0.834813,-0.155625
-0.306191,-0.114364,0.142692,0.542049,-0.827208,-0.148022
0.460037,0.195882,-0.950732,-0.069578,-0.209453,0.975340
-0.443298,-0.150868,0.134841,-0.493189,0.789111,0.366153
-0.248146,0.192403,0.211542,0.253170,0.943346,-0.214483
0.210300,0.294142,0.528389,-0.832663,0.548807,-0.074048
-0.498886,0.583621,-0.060688,0.724915,-0.654080,-0.216050
0.398353,0.243549,-0.377979,-0.165527,0.971846,0.167678
-0.460037,0.539064,0.182539,0.817378,-0.103460,-0.566736
0.370605,0.019394,0.055356,0.287338,0.952043,0.105125
0.011327,0.266237,0.301663,0.262278,-0.247436,0.932730
0.190920,0.289479,0.793094,0.796320,0.309400,0.519756
0.646544,0.135405,-0.303174,-0.017759,0.851219,0.524510
0.164535,0.210798,0.867899,0.974085,-0.160023,-0.159846
-0.181913,0.144832,0.163578,0.459907,0.698063,0.548812
0.147704,0.065050,-0.185620,0.893624,0.446281,0.047635
0.150344,0.446663,-0.992149,-0.144383,0.151076,0.977921
-0.576491,0.011710,-0.135730,0.987878,-0.146242,0.052067
-0.272529,0.654618,0.327290,-0.585397,0.810387,0.024164
0.171179,0.108964,-0.162127,0.905679,0.384403,-0.178827
-0.843152,0.156452,-0.019568,0.188268,-0.456962,0.869333
0.220489,0.346114,0.410804,-0.696240,0.639119,-0.326767
0.415639,0.313815,-0.968389,-0.337469,0.208136,0.918038
-0.177729,0.860569,0.138159,-0.443048,0.671104,-0.594414
0.483054,0.074197,0.351464,-0.016328,0.923224,0.383915
0.071645,0.151695,0.497934,-0.250951,0.874392,0.415285
0.296456,-0.808691,-0.142751,-0.115927,0.067562,0.990957
-0.645817,0.236412,0.070435,-0.242202,0.217093,0.945626
0.231953,-0.010336,-0.953991,0.269112,-0.248897,0.930392
0.152163,0.260017,0.600586,-0.242693,0.881134,0.405836
0.438747,0.144737,-0.185620,-0.177756,0.975217,0.131738
0.550289,0.582710,-0.217527,0.229276,0.226370,0.946673
0.230679,0.794418,0.323379,0.432547,0.300953,0.849900
0.627439,0.059650,0.346487,0.079049,0.512469,0.855060
0.120958,0.272006,0.748241,-0.234711,-0.888444,-0.394434
0.255062,0.041993,-0.577301,-0.523202,-0.770779,0.363538
-0.040621,0.184446,0.348650,0.787109,-0.035439,-0.615794
-0.293180,0.821591,0.032751,-0.270704,0.314745,0.909755
0.271346,0.052425,0.806278,-0.552310,-0.458351,0.696325
0.184462,0.285084,-0.402746,0.950900,0.072756,-0.300826
-0.637901,-0.414090,-0.140470,-0.082399,0.555162,0.827650
0.095756,0.120222,0.867336,0.527982,0.676146,-0.513868
-0.043262,0.426900,-0.383549,0.583017,-0.638229,0.502748
-0.271618,0.320494,0.621088,-0.220953,-0.974883,0.027994
0.153529,0.212992,0.311381,0.979204,-0.091999,-0.180820
0.365055,0.381612,0.038795,0.319488,-0.826337,0.463784
0.465951,-0.067155,-0.025286,-0.683128,0.527472,-0.505083
0.271165,0.582615,0.559703,0.881012,0.335352,-0.333701
-0.305918,0.348308,-0.666563,0.652762,-0.741874,-0.153379
-0.118682,-0.069166,0.450296,0.844239,-0.424152,0.327652
0.030251,0.113264,0.696722,0.714992,-0.443424,0.540519
0.150617,0.221045,0.328238,0.776894,0.515569,-0.361420
0.139516,-0.172551,0.327882,0.924470,0.380384,0.025741
0.295182,0.285453,0.286110,-0.531944,0.846763,0.005297
-0.113950,0.524154,0.233761,-0.497305,0.302524,-0.813122
0.312013,0.263859,0.832970,-0.603915,0.783657,0.145494
0.494974,0.158647,-0.157090,0.137683,-0.980638,-0.139257
0.113950,0.177857,-0.020605,-0.534477,0.692611,0.484381
-0.100759,0.147395,0.604260,0.369104,0.831527,0.415121
0.315017,0.300547,-0.990520,-0.226077,0.030094,0.973644
-0.743893,0.317657,-0.005525,0.967075,-0.251918,-0.036099
-0.002411,0.111985,0.127938,0.879382,0.259595,0.399122
0.115680,0.540807,0.579908,0.825201,-0.464520,0.321349
0.510350,-0.217566,0.351198,-0.568070,0.048805,0.821532
0.356775,0.091581,0.320417,-0.486855,0.873103,0.025751
-0.245053,-0.319857,-0.125183,-0.531034,0.606678,0.591561
0.562481,-0.046572,-0.945992,-0.114215,-0.154853,0.981313
-0.232589,0.197714,0.228162,0.253374,0.838422,0.482545
-0.845062,0.748036,0.052126,0.765741,-0.185862,0.615708
-0.027794,0.476672,0.687064,0.986141,-0.106891,-0.126886
-0.146977,0.703932,0.277133,-0.708799,0.701264,-0.076368
0.252513,0.629919,0.584618,0.355249,-0.814236,0.459149
0.216669,0.108786,0.476662,0.009477,-0.422746,0.906199
-0.074558,0.762761,0.092003,-0.145512,0.187044,0.971515
0.021336,-0.051146,-0.327023,-0.854808,0.409557,-0.318694
-0.550653,0.442363,-0.082522,-0.240146,0.677971,-0.694755
0.565574,0.268069,0.361596,0.737783,0.390781,0.550425
0.390073,0.555443,0.535232,0.222325,0.223057,-0.949114
0.114406,0.173099,0.190567,0.770412,-0.629822,-0.098945
-0.898195,0.103749,-0.014294,-0.401353,-0.464369,-0.789480
0.206388,0.107228,0.844998,-0.242418,0.761901,-0.600616
0.169996,0.192956,0.196996,-0.777372,0.325147,-0.538491
0.304553,0.099907,0.758551,0.836965,-0.241781,0.490950
-0.564116,0.577126,-0.063710,0.336494,0.839920,0.425800
0.334030,-0.076124,0.518583,0.481498,0.832382,0.274408
0.830869,0.219581,-0.124798,0.041122,0.135657,0.989902
-0.605422,0.538612,-0.037047,0.432873,0.767512,0.472806
0.196290,0.030373,0.759558,-0.555294,-0.481647,0.677986
0.085203,0.406769,-0.989009,-0.132910,0.272319,0.952983
0.189101,0.353613,0.764920,0.466040,0.362864,-0.806930
0.509894,0.691401,0.522108,0.864901,-0.479610,0.148054
0.548196,0.246386,-0.957517,-0.004800,0.038291,0.999255
0.580220,0.470267,-0.208728,0.063127,-0.418806,0.905879
-0.097394,0.730099,0.347228,0.916070,0.117486,-0.383422
-0.045172,0.457915,0.619725,0.779272,-0.626598,-0.010529
0.409545,0.518392,0.137745,0.132149,-0.695320,0.706446
-0.171632,-0.007505,0.518079,-0.715139,0.238713,-0.656956
0.172998,0.118391,0.599342,0.988964,0.078531,0.125631
-0.108584,0.630466,-0.071887,-0.550410,-0.810636,0.199796
-0.057180,0.192772,0.447185,0.295261,-0.939442,-0.173981
-0.346858,0.024336,0.329749,-0.423470,0.898391,0.116475
0.452305,-0.036325,0.281488,-0.002933,0.446750,0.894654
0.253332,0.196709,-0.520153,0.988642,-0.011508,0.149848
0.301004,0.333488,-0.245167,-0.532303,0.781797,-0.324727
0.373606,0.235954,0.533692,0.982999,0.083135,-0.163714
-0.737432,0.096980,-0.026115,-0.482405,0.869285,0.107838
-0.038619,0.417016,0.641796,-0.690834,0.700695,0.178255
-0.115589,0.358555,0.513961,0.692335,0.514745,0.505677
0.271254,0.274106,-0.973900,-0.196823,0.303916,0.932146
0.098394,0.080971,0.385297,-0.570459,0.167513,-0.804062
0.502251,0.123606,0.313129,0.236166,0.701884,0.672000
0.708320,-0.054619,0.053460,0.702992,0.182284,0.687440
0.021788,0.067429,0.011273,-0.668611,0.623840,-0.404701
0.311013,0.112075,0.326727,0.960220,-0.219612,-0.172474
-0.922212,0.072003,-0.072953,0.456434,-0.870232,0.185374
0.384798,0.426900,0.523501,0.009834,-0.829495,0.558428
-0.237137,0.663402,0.289784,0.559329,0.817861,0.135110
-0.103580,0.525986,0.735502,0.455548,0.832587,0.315080
-0.021061,0.013815,0.394955,0.419404,0.778458,-0.467016
0.023701,0.296889,-0.987439,-0.129882,0.008796,0.991490
-0.723513,0.564869,0.002918,0.728415,0.679011,-0.091405
0.681208,-0.066971,0.041520,0.593589,0.649730,0.474871
-0.135149,0.153342,0.206565,-0.239954,-0.871734,0.427202
0.451758,0.131290,-0.335852,-0.178794,0.748041,0.639114
0.431651,0.422690,0.660875,0.607443,0.567328,-0.556014
-0.056725,0.615099,0.218682,0.832426,0.272071,0.482747
0.353774,-0.025709,-0.507651,0.604086,0.796715,-0.018022
0.600782,0.129369,-0.950495,0.364647,0.091929,-0.926597
0.508348,0.069897,0.401680,0.261549,0.956831,0.126750
0.071193,0.196429,0.920011,-0.532575,-0.715894,-0.451509
0.624710,0.624061,0.378690,0.687949,0.132567,-0.713549
0.223854,0.344009,-0.200077,-0.977961,0.002174,-0.208775
0.188554,0.795881,0.255744,0.389460,0.883781,-0.259331
-0.263794,0.625708,0.298464,0.179595,0.535083,0.825489
0.397717,0.409606,0.314817,0.447355,0.881235,0.152638
-0.035254,0.234402,0.629087,0.922173,0.076296,0.379178
-0.408998,0.759651,-0.062318,0.789378,-0.612762,-0.037485
-0.095029,0.521407,0.271001,0.838799,-0.335977,0.428411
-0.640722,0.081976,0.095943,-0.939329,0.242829,-0.242270
0.522994,0.689664,0.496660,-0.689907,0.723113,-0.033707
0.556567,0.164957,0.356797,-0.204438,0.855050,0.476545
0.328480,0.239065,-0.702055,0.905876,-0.195521,-0.375714
-0.260337,0.317383,0.400673,-0.402793,-0.688796,-0.602759
0.348587,0.352334,0.672577,0.879286,0.067549,-0.471479
0.406816,0.185725,0.430120,0.914592,0.385262,0.122858
0.415367,0.458646,0.537721,0.214287,-0.974449,0.067301
-0.839331,0.050230,0.008340,-0.320767,0.606225,0.727736
0.267070,0.485730,0.522879,0.752330,-0.398697,0.524443
0.288268,0.489845,0.485491,0.054798,-0.082343,0.995096
-0.654643,0.049404,-0.131286,-0.840190,0.433663,0.325603
0.342038,0.498171,0.628287,0.342168,0.910623,-0.231702
-0.345311,0.401006,0.142277,0.906208,0.115953,0.406623
-0.041715,0.415553,0.021908,0.774640,0.587334,0.234461
-0.779193,0.136595,0.057370,-0.176281,-0.944671,0.276626
0.148706,0.107775,-0.499711,0.965229,-0.114032,0.235224
0.255606,0.196614,-0.967234,-0.070425,-0.263130,0.962187
0.019059,-0.003295,0.401650,0.482956,-0.431658,0.761857
-0.474594,0.449131,0.026500,-0.141212,0.843143,0.518814
0.335213,-0.020310,-0.961694,-0.092138,-0.065191,0.993610
0.802121,0.255259,0.221911,0.117254,0.936137,0.331510
0.000682,0.072460,0.051297,-0.682170,0.551699,0.479866
0.240777,0.673833,0.596706,0.754727,-0.611349,0.237990
-0.119956,-0.310247,-0.098728,-0.637640,0.302118,-0.708618
0.116955,0.230739,-0.127464,0.853858,-0.520264,0.015853
0.280081,0.624703,0.562962,0.290810,-0.844500,0.449721
-0.130873,0.841722,0.389118,-0.006254,-0.936773,0.349880
0.392167,-0.083260,0.329126,-0.224904,0.087804,0.970417
-0.445753,-0.321683,-0.144944,-0.140596,0.459521,0.876968
0.057999,0.377586,0.585952,0.553591,0.328670,-0.765188
0.320475,0.119306,0.850924,0.627370,0.494010,-0.601965
0.208753,0.231565,0.873172,0.744364,-0.210704,-0.633661
0.240597,-0.130100,0.642833,0.539842,0.807366,0.238183
0.307373,0.525891,-0.078078,-0.048213,-0.062888,0.996855
0.682938,0.594325,0.406568,0.723676,0.342255,-0.599295
-0.027158,0.523423,0.710438,-0.655530,-0.734454,0.175664
-0.419460,0.602378,0.031981,0.673264,-0.281406,0.683758
0.455215,0.138700,-0.139789,0.408413,-0.852613,-0.325958
0.134513,0.115006,0.387193,0.432966,-0.530831,0.728532
0.656190,0.514270,0.370484,0.462541,0.644042,-0.609316
