-0.011123,-0.066246,0.480096,0.310820,-0.853437,-0.418374
-0.062785,0.909107,0.302588,0.010411,0.075116,0.997120
0.028616,-0.037654,-0.492414,0.334984,-0.926153,0.173284
0.078207,0.374752,0.788853,0.277635,-0.588689,0.759187
0.139989,0.477190,-0.006471,-0.689414,0.723096,0.042903
-0.266307,-0.095607,0.655348,0.127353,0.234484,0.963742
-0.219774,-0.096107,0.561480,-0.178487,0.325115,0.928678
0.062853,0.360129,0.790173,0.247526,-0.580887,0.775437
0.705790,-0.830026,0.368940,-0.081479,-0.904672,0.418245
0.946504,-0.513862,0.230820,-0.412425,-0.885503,-0.213988
-0.145900,0.895753,0.456821,-0.396697,-0.838135,-0.374381
-0.458179,-0.444711,-0.222264,0.486110,-0.411143,-0.771141
-0.598050,0.378600,0.148739,-0.043600,0.745044,0.665589
-0.458009,-0.062629,0.244853,0.672371,0.212838,-0.708955
0.268142,0.788659,-0.961507,-0.187137,0.041766,0.981446
0.078070,0.662633,-0.965862,0.188994,-0.180948,-0.965163
-0.383931,0.646470,-0.989376,-0.171174,0.100149,0.980138
0.358322,0.703115,0.087928,-0.147287,0.792498,0.591822
-0.215664,-0.424123,-0.499763,-0.086772,0.443632,0.891998
-0.044784,0.781117,0.165632,0.407236,0.889045,0.209184
-0.143148,-0.584130,0.507914,-0.054725,0.053187,0.997084
0.030248,-0.469609,0.540710,0.240597,0.957396,-0.159705
-0.183023,0.477806,-0.069029,0.937019,0.340030,-0.079839
-0.291748,-0.098685,0.492861,-0.058283,0.335297,0.940308
-0.772905,-0.316683,0.521781,0.326502,0.202064,0.923345
0.196985,0.772150,-0.247098,0.486986,-0.608228,-0.626819
0.217975,-0.091951,0.647043,0.435055,0.285261,-0.854022
-0.675151,0.143286,0.274032,0.011710,0.186372,0.982409
-0.151265,0.572894,0.510439,-0.018553,0.145853,0.989132
0.093796,0.491967,-0.224302,0.453798,-0.026998,-0.890696
-0.506716,0.096723,0.274022,0.048950,0.753666,0.655433
-0.301326,-0.852539,0.506926,0.007427,0.163296,0.986549
0.493674,0.339426,-0.943669,-0.119867,0.080377,0.989531
-0.553555,0.124199,0.272983,0.284242,0.463332,0.839362
0.132043,-0.117735,0.920124,-0.265392,-0.947302,-0.179404
0.098179,0.735247,0.627562,0.276789,0.925965,0.256858
0.908226,-0.529947,0.707262,-0.320595,0.732469,0.600590
-0.173988,0.091990,0.179925,0.280087,0.855216,0.436071
-0.244434,0.525908,0.307650,0.028341,0.236749,0.971157
-0.295314,-0.380794,-0.340426,-0.577089,0.632944,0.516091
-0.326019,0.881630,0.288752,-0.573471,0.697140,0.430264
-0.754292,0.103265,0.273014,0.009938,0.302983,0.952944
-0.592751,0.025302,0.576012,-0.228702,-0.023551,-0.973212
-0.367354,0.357090,-0.248294,0.780969,0.375209,0.499306
-0.026477,0.175418,-0.162419,-0.462795,-0.021542,0.886203
-0.304655,0.306563,0.248772,0.108569,0.878295,0.465629
0.369054,0.488273,0.501208,-0.048923,0.092659,0.994495
-0.226025,0.952013,0.476416,0.102522,0.056138,0.993145
-0.470034,0.180960,0.670858,0.067040,-0.284685,0.956274
-0.282374,0.791622,0.179592,0.233589,0.646070,0.726656
-0.046040,0.205587,0.104861,0.093964,0.204283,0.974392
-0.407570,-0.164720,0.061690,-0.746755,-0.416497,0.518543
0.230849,-0.078099,0.952224,-0.457696,-0.888683,0.027516
0.122940,0.658323,-0.963762,-0.138400,0.147255,0.979368
0.114482,0.379332,0.045245,-0.532378,0.009393,0.846455
0.275989,0.220172,0.582312,-0.565698,0.552939,0.611755
0.378294,0.468571,0.702501,-0.066269,-0.324995,0.943391
-0.185740,0.766725,-0.981050,-0.152231,0.125417,0.980355
-0.059694,0.341735,0.093666,0.783033,-0.621770,0.016181
0.383728,-0.124276,0.600430,0.084122,0.170955,-0.981681
-0.502708,-0.557000,-0.214177,0.317604,-0.202173,-0.926420
0.152625,-0.046236,0.440885,0.933449,0.349473,-0.080882
-0.335802,0.668559,0.301912,0.026353,0.137766,0.990114
-0.017034,0.086987,-0.028415,0.210535,0.159825,0.964433
0.191415,0.615031,-0.223917,0.036603,0.131873,0.990591
0.537591,0.493159,0.506895,0.213183,-0.250526,-0.944346
-0.108061,0.298443,0.320000,-0.326238,0.039603,0.944458
-0.349557,0.193082,-0.267255,0.453321,0.884110,-0.113357
-0.408997,0.458026,0.151629,-0.023460,0.244588,0.969343
0.039214,-0.090951,0.763770,0.781271,-0.143960,-0.607364
-0.540172,0.001019,0.567010,0.037439,-0.106797,0.993576
-0.067982,0.078291,0.827607,-0.728214,-0.646360,-0.227867
0.319126,0.394300,-0.953586,-0.144072,0.150050,0.978125
0.077867,0.163181,-0.036419,-0.226266,0.824353,-0.518888
0.239714,0.126354,0.822773,0.856200,-0.485491,-0.176691
0.232037,0.380987,0.553600,0.869266,-0.168229,-0.464840
-0.197731,-0.068516,-0.237545,0.091733,0.120761,0.988434
0.041523,0.500471,0.540981,0.345396,0.359115,0.867028
-0.145321,-0.065284,0.454181,-0.093627,0.338176,0.936414
0.194879,0.412040,-0.083853,-0.707659,0.563950,0.425651
-0.482193,0.234564,0.450823,0.583199,0.145395,0.799212
-0.666864,0.247071,0.230352,0.448325,0.839339,0.307434
0.233905,-0.060935,0.606907,-0.183461,0.686799,0.703313
0.252245,-0.227598,0.603871,0.526279,0.330153,0.783600
0.054362,0.464068,0.338275,0.939554,0.342380,-0.003638
-0.299527,0.220096,0.057033,0.367205,-0.184555,0.911647
-0.343205,0.099224,0.452330,0.278232,0.306049,0.910451
-0.439023,-0.286822,0.243928,-0.174187,0.409019,0.895747
0.162918,0.813480,-0.968274,0.150488,-0.003706,-0.988605
-0.610447,0.248494,0.564141,0.799550,0.576616,0.168029
-0.309919,0.160295,0.691180,0.209113,0.319645,0.924175
-0.184212,0.161911,-0.238148,-0.014780,0.583330,0.812101
-0.630113,0.246416,0.459773,-0.193434,0.279974,0.940318
0.012618,0.307563,0.647178,0.426726,0.176681,0.886955
-0.283663,0.657091,0.302484,0.005863,0.241735,0.970325
-0.593227,0.497662,-0.997671,-0.161841,0.066313,0.984586
-0.296944,0.782041,0.489847,-0.643164,0.566631,0.515042
0.109048,0.310642,0.433702,-0.582306,0.446464,0.679404
-0.289064,0.798626,-0.323680,0.671194,-0.741175,-0.012596
-0.337500,-0.660977,0.622229,0.039384,0.060943,0.997364
-0.480665,-0.046505,-0.207732,-0.278188,0.226095,0.933538
-0.409167,0.761183,-0.420833,-0.693736,0.711769,0.110066
-0.302889,0.708502,0.209094,-0.311556,0.161675,0.936373
-0.477234,0.019876,0.574255,0.037822,-0.117867,0.992309
-0.633918,-0.297404,0.527758,0.051478,0.215941,0.975049
-0.086934,-0.151790,0.503454,0.012920,-0.980870,0.194236
-0.264371,0.758066,0.194218,0.216922,0.778821,0.588543
-0.212438,0.615031,0.223106,-0.306185,0.514015,0.801273
0.237879,0.401304,-0.240186,0.714214,0.347647,0.607486
-0.261518,0.120429,0.743894,0.047977,0.319577,0.946345
0.165702,0.490235,0.018197,0.976406,-0.196989,-0.088474
0.285295,0.095800,0.530325,-0.479323,0.189437,-0.856950
-0.708880,-0.175379,0.316029,-0.044601,0.381968,0.923099
-0.146341,0.576741,0.229032,-0.356854,0.311416,0.880724
-0.279587,0.139938,0.716815,0.157598,0.980123,0.120506
0.171069,0.575779,-0.963066,-0.213857,-0.005545,0.976849
0.782349,0.009332,0.504868,0.225998,0.502242,0.834672
0.129528,0.239297,-0.956319,-0.062484,0.158298,0.985412
-0.176264,0.245069,-0.167295,0.525732,0.051387,0.849097
-0.056433,0.620110,0.247743,0.281072,-0.671605,-0.685526
0.003550,0.333885,-0.237815,0.745172,-0.445283,-0.496429
-0.416470,-0.533719,-0.350447,-0.602102,0.594466,0.532995
-0.670668,0.214592,0.255467,-0.583821,-0.764995,-0.271912
-0.012448,-0.105843,0.477518,0.911113,-0.323880,0.254902
-0.138563,0.870240,0.465054,0.816056,0.117539,0.565895
-0.569926,0.071133,0.290561,-0.147147,0.366725,0.918619
-0.323131,-0.287014,0.520284,0.098822,0.354891,0.929670
-0.806124,-0.134858,0.309636,0.193122,0.447819,0.873019
0.084353,-0.017759,-0.407163,-0.093784,-0.987687,-0.125218
-0.668325,-0.474804,0.326206,0.205412,-0.006863,0.978651
0.084693,0.057741,-0.134716,-0.502114,0.019258,0.864587
-0.086120,0.782041,0.463017,-0.081122,0.397872,-0.913847
-0.127864,0.227561,0.758073,0.774424,0.593182,0.220005
-0.214986,0.510054,-0.073509,0.849160,0.499249,0.172273
0.303534,0.606449,-0.959958,-0.160851,0.133502,0.977908
0.191006,0.190310,0.897951,0.985816,0.109706,0.127010
-0.000866,0.065823,0.794061,0.383607,0.711327,0.588948
-0.212065,0.171031,-0.060100,0.094996,0.038928,0.994716
-0.637246,-0.267735,0.518371,0.039332,0.301585,0.952628
0.458044,0.072711,0.713228,0.366377,-0.416387,0.832100
-0.195930,-0.074134,0.648893,0.073426,0.164599,0.983624
0.943245,-0.135782,0.507997,-0.012303,0.147291,0.989017
0.026375,-0.537759,-0.018613,-0.507903,0.131381,0.851337
0.124060,-0.190464,0.966798,0.718204,-0.573967,-0.393375
-0.225378,0.821638,0.468859,-0.449775,-0.022186,0.892866
0.004433,0.288169,-0.223325,0.475814,0.028388,-0.879088
-0.169402,0.130125,0.114581,-0.111787,-0.700596,0.704747
0.039181,0.123084,0.861173,0.370575,0.560288,-0.740777
-0.150757,0.624343,0.226797,0.012293,0.842281,0.538899
0.351188,-0.087988,0.499867,0.213419,0.690056,-0.691574
-0.605182,0.413580,-0.993867,0.124581,-0.158149,-0.979525
-0.579742,-0.217170,0.322370,-0.088663,0.329287,0.940058
0.082112,0.004829,0.770537,-0.342745,-0.892391,0.293536
-0.574036,0.218671,0.270020,0.236997,-0.039409,0.970711
-0.107858,0.436708,0.501510,0.137409,0.265672,0.954221
-0.632864,0.231754,0.570960,-0.731834,-0.457205,-0.505354
0.113259,-0.026879,-0.443723,-0.051029,-0.998625,-0.012035
-0.761017,-0.278202,0.525294,0.364365,0.403502,0.839300
-0.300986,0.715545,0.299417,0.113334,0.281487,0.952849
0.515921,-0.512554,0.776244,-0.035372,-0.900598,0.433212
-0.083029,0.039617,0.719809,-0.183992,-0.219655,0.958070
-0.779392,-0.224059,0.495886,-0.629394,0.766733,0.126424
-0.195693,-0.275239,0.660608,0.075514,0.340222,0.937308
-0.294192,-0.964174,0.018394,0.820491,-0.506986,0.264121
-0.149704,0.240991,0.748281,0.960907,0.270269,0.060109
-0.479883,0.587247,0.021243,-0.702215,0.389107,0.596229
0.486269,0.368365,-0.136203,-0.349817,0.882798,0.313521
-0.174871,-0.210551,0.873158,-0.618118,-0.574229,-0.536835
-0.348029,0.178381,0.746368,0.699531,0.412984,0.583181
-0.085371,-0.448791,0.184707,-0.707153,0.222107,0.671270
0.069070,-0.042464,0.570908,-0.720620,-0.470676,0.509089
-0.641797,-0.275008,0.519358,0.064435,0.318123,0.945857
-0.008984,0.082524,0.601075,0.784977,0.449268,-0.426578
0.057691,0.008870,0.827555,0.336816,0.812863,-0.475194
0.275887,0.489427,0.065485,0.923408,-0.191168,-0.332824
-0.246233,0.574241,-0.015629,-0.190863,0.258961,0.946842
0.142265,0.681796,0.541989,0.189128,-0.038553,0.981195
0.009085,0.471495,0.549868,0.249669,0.119979,0.960870
0.283970,0.506898,0.561054,0.366462,0.020025,-0.930217
-0.261348,0.739826,0.520949,0.131803,-0.210170,0.968740
-0.242328,0.442287,0.604651,0.325377,-0.846043,-0.422305
0.016797,-0.373405,0.185913,-0.675267,0.265304,0.688207
-0.239577,0.655514,0.215279,-0.313284,0.553452,0.771715
0.299222,-0.435437,0.444326,-0.248304,-0.466375,0.849023
0.057318,0.417621,0.038197,0.581106,0.369928,-0.724892
-0.288759,-0.795893,0.513444,-0.146354,0.193561,0.970111
0.124331,0.102957,0.602229,-0.195680,0.276665,-0.940833
0.600259,-0.632425,0.521136,0.436901,-0.847426,0.301640
0.304554,0.211513,-0.169332,-0.415284,0.883803,-0.215482
-0.383116,-0.838262,0.639495,0.038284,0.259749,0.964917
0.001002,0.292402,-0.230518,-0.349113,-0.056459,0.935378
-0.314030,0.614377,0.297286,-0.126299,0.217938,0.967756
-0.279826,0.885440,0.294282,0.415456,0.418981,0.807373
-0.460252,0.654975,0.025068,-0.672172,0.629751,0.389357
-0.667306,0.036846,0.203875,0.781309,-0.252948,-0.570591
0.051101,0.439478,0.353285,0.947301,0.316136,0.051757
-0.678175,-0.004329,0.281600,-0.001764,0.319268,0.947663
-0.267224,0.552653,-0.004485,-0.016055,0.632485,0.774406
0.091520,-0.304908,0.726877,-0.428014,0.639348,-0.638778
-0.201297,0.044657,0.437122,0.044544,0.725389,0.686897
-0.354142,0.222173,-0.048519,-0.722106,0.584565,-0.369928
-0.458110,-0.315721,-0.896298,0.237844,-0.556024,-0.796409
0.131160,0.010563,-0.116525,0.981095,0.062972,-0.182996
0.447312,-0.091605,0.800891,0.286937,0.818192,-0.498227
-0.380975,0.784926,0.298503,-0.108873,0.048282,0.992882
-0.406484,0.751755,-0.993971,-0.252611,0.121570,0.959900
0.251669,0.143324,0.858085,0.681408,-0.731789,-0.012945
0.462290,0.177150,-0.937660,0.134918,-0.204670,-0.969488
-0.613912,0.151252,0.582249,-0.210898,-0.213259,-0.953961
-0.020226,0.070209,-0.017895,-0.014697,0.959792,0.280327
-0.678515,0.359360,-0.994407,-0.130499,0.289916,0.948113
-0.205068,-0.124930,0.063925,-0.091456,0.965854,-0.242410
-0.266477,-0.235525,0.600566,0.041640,0.439079,0.897483
-0.178540,0.564928,0.287276,-0.667888,0.744199,0.009668
0.063703,0.016913,0.753302,0.795494,0.558999,-0.233901
-0.219944,0.829488,0.466613,-0.491454,-0.014625,0.870780
-0.360053,0.640659,-0.984272,-0.207372,0.076415,0.975273
-0.387327,0.499817,0.012334,0.472919,0.879725,-0.049305
0.355774,0.118619,0.550700,-0.392856,0.826605,0.402975
-0.286313,0.020799,0.356570,0.136007,0.984893,0.107182
-0.504304,0.139399,0.462331,0.096237,0.376092,0.921571
-0.599749,0.234949,0.462175,0.046662,0.263951,0.963407
0.347384,-0.035999,0.513267,-0.163465,-0.589201,0.791279
-0.374013,0.332653,0.555201,0.780845,-0.408760,-0.472436
-0.105752,0.252612,0.645660,-0.444498,-0.101804,0.889976
0.192331,-0.156793,0.620545,0.798362,0.602075,0.011093
-0.609395,0.163335,0.582551,0.217777,0.159308,0.962909
0.627634,0.576433,0.139945,0.044773,0.817015,0.574875
0.024540,0.174725,0.505793,-0.631772,-0.763511,0.133844
0.030859,0.276586,-0.225321,0.475814,0.028388,-0.879088
-0.064313,0.912954,0.310904,0.121828,-0.037645,0.991837
-0.074299,0.193158,0.605607,-0.203863,-0.235919,0.950148
-0.213321,0.273738,0.056378,-0.008430,0.043073,0.999036
-0.231220,0.052586,0.132222,0.134731,0.379499,0.915329
-0.353972,0.415850,0.569619,0.954858,0.257513,-0.148098
0.310396,0.006600,0.644901,0.088142,-0.844412,0.528394
-0.610108,-0.083717,0.294282,-0.263884,0.662348,0.701185
-0.048317,-0.251188,0.478880,-0.059460,-0.472672,0.879230
0.195863,0.324573,-0.051347,0.776080,-0.245726,-0.580792
0.247287,0.702499,-0.231724,0.451480,0.091886,0.887538
-0.619007,0.023801,0.274604,-0.514525,0.369561,0.773750
-0.282610,0.884402,-0.026502,-0.299297,-0.740522,0.601705
-0.260194,0.375869,0.026087,0.796446,0.603568,0.037139
-0.065026,0.296134,-0.178002,-0.773174,-0.607639,-0.181594
-0.978091,-0.241299,0.320717,0.159265,0.211932,0.964220
-0.178404,0.853000,0.473796,0.236945,0.244985,0.940127
-0.093796,0.539530,0.489670,0.758625,0.132398,0.637933
-0.181292,0.153253,-0.169207,0.221566,0.067187,-0.972828
0.219267,0.187039,-0.216589,0.190409,0.360572,0.913089
0.056163,0.398573,0.248045,0.295407,0.181293,0.938012
0.350508,0.664325,0.085111,-0.498654,0.681153,0.536074
-0.220386,-0.020799,-0.112886,-0.301338,-0.827094,0.474458
0.236351,0.076328,0.699538,-0.520780,0.028458,-0.853217
-0.157277,-0.008177,0.647968,0.654175,0.410003,0.635573
-0.438887,0.199854,0.665390,0.462329,0.789769,0.403134
-0.790058,-0.164336,0.311840,0.203581,0.288103,0.935709
-0.257783,-0.196775,0.503277,0.169367,0.162160,0.972121
-0.091825,0.435937,0.501489,0.127639,0.213529,0.968563
-0.689553,0.301715,0.463079,0.005082,0.729518,0.683943
-0.345448,0.187347,-0.258232,0.317816,0.945055,-0.076578
0.019173,0.315760,-0.226360,-0.291809,-0.016467,0.956335
-0.341270,-0.510938,0.617655,0.160164,0.156307,0.974636
0.131566,-0.044388,0.280519,-0.204651,0.967289,0.149900
-0.779732,-0.345237,0.525450,0.382464,0.132238,0.914459
-0.082927,0.012718,0.638508,0.212648,0.302705,0.929059
-0.096479,0.161565,0.778864,0.853007,0.507046,0.123630
0.014691,0.329537,0.344907,0.752652,0.012187,0.658306
-0.368986,0.560811,0.069268,-0.782835,-0.070400,0.618234
-0.382505,0.187732,0.695650,-0.419623,-0.456743,-0.784412
0.008101,-0.052200,0.546438,-0.215089,-0.767510,0.603876
-0.049538,0.883401,0.311330,0.460759,-0.267060,-0.846392
0.113294,0.782888,0.376186,-0.150346,0.407447,0.900768
-0.148344,-0.207974,-0.053655,0.284421,0.008240,0.958664
-0.497376,-0.203201,0.675401,0.294055,-0.724685,-0.623188
-0.415892,0.018259,0.562155,-0.226086,0.052411,-0.972696
-0.087206,0.389644,0.643477,0.110119,0.979897,0.166362
0.065911,0.213553,0.003903,0.363554,-0.916827,0.165096
-0.765636,-0.337425,0.525408,0.384806,0.095345,0.918060
-0.089957,0.405114,0.738925,0.784956,0.506597,0.356657
-0.080651,0.287361,0.080017,-0.707019,0.465383,0.532487
-0.266716,0.038309,0.121670,0.936739,-0.013629,0.349762
-0.407672,-0.244069,0.454482,-0.109745,-0.481970,0.869288
-0.575837,0.306062,0.423941,-0.744332,0.194120,0.638974
-0.058572,0.797895,0.467684,-0.076648,0.205856,0.975576
-0.041183,-0.300675,-0.858293,-0.332080,0.322450,0.886425
-0.173412,0.526716,0.616273,0.833677,0.540619,-0.112759
0.078648,0.072711,-0.135506,-0.557294,0.053535,0.828588
0.339606,0.544455,0.719622,-0.090770,-0.757863,0.646068
0.588813,0.714390,0.123406,-0.657921,0.643523,0.391174
-0.066147,0.684259,0.227816,-0.554837,0.173807,0.813601
-0.088667,0.131665,0.787200,0.579564,0.680932,0.447702
0.831905,0.453486,0.425927,0.963818,-0.213639,-0.159415
0.375949,0.409231,0.576937,-0.439971,0.309433,0.843017
-0.552502,0.036923,0.218948,-0.494978,0.257971,0.829727
0.675765,0.382834,0.426197,-0.462665,0.287763,0.838530
-0.226228,-0.190310,0.587520,0.611009,0.546540,0.572679
-0.556170,-0.494006,-0.227919,-0.572316,0.529246,0.626381
0.143352,0.222442,-0.162492,0.177481,0.897637,0.403421
-0.201162,0.135897,0.687022,0.174554,0.085254,0.980950
-0.390621,0.263348,0.297297,-0.278761,0.660882,-0.696798
-0.325034,0.734015,0.297962,0.081466,0.137800,0.987104
0.523326,-0.251034,0.611938,-0.086046,0.469038,0.878976
0.287640,-0.044811,0.767845,0.099271,0.504820,-0.857497
-0.252959,0.285244,-0.160299,0.061338,0.313906,0.947471
-0.100656,0.485848,0.260955,-0.571398,0.143088,0.808103
-0.082247,0.811056,0.530170,0.803495,0.498806,0.324942
0.017409,0.740519,0.656897,0.915702,0.336013,-0.220420
-0.039179,0.865853,0.153625,0.826854,-0.541856,-0.150682
-0.026477,0.693418,0.330509,0.189747,-0.197681,-0.961727
0.145425,-0.292710,-0.226901,-0.208597,0.976457,-0.054939
0.045530,0.417390,-0.271038,-0.603283,0.490451,0.628893
0.029872,-0.762376,0.320208,-0.290901,-0.890291,0.350369
-0.238014,-0.666326,0.389689,-0.025336,0.528532,-0.848535
-0.205373,0.422585,0.317401,0.326452,0.362337,0.873007
0.156599,0.781771,0.375676,-0.131777,0.290117,0.947875
-0.534228,0.042502,0.203990,-0.363882,0.491547,0.791184
-0.123788,0.428935,0.315010,0.393927,-0.143854,-0.907815
0.075796,-0.325034,0.077314,-0.649188,0.760384,-0.019259
-0.008169,0.656283,0.329990,-0.113837,0.123418,0.985804
-0.408284,-0.184461,0.246724,-0.035823,-0.016375,0.999224
0.155003,0.419968,0.438910,0.942458,-0.267956,-0.199929
0.025185,0.815288,0.176183,0.612508,0.021459,-0.790173
0.200687,0.066053,0.715349,-0.724114,0.073621,-0.685740
0.109998,-0.003791,-0.119404,0.843916,-0.331459,-0.421831
0.004296,-0.630808,0.197035,0.923329,0.381659,0.042436
-0.452542,-0.102726,-0.216713,0.002541,-0.071556,0.997433
-0.068221,0.576357,0.349668,0.262427,0.298179,0.917726
-0.459062,0.042849,0.380697,-0.303374,-0.907838,-0.289474
-0.211080,0.933427,0.472809,0.576485,0.184255,0.796062
-0.077763,0.612991,0.479441,0.413666,0.279842,0.866354
-0.043833,0.647048,0.326653,-0.568704,-0.095887,0.816935
-0.395105,-0.225521,0.250758,-0.085130,-0.022852,0.996108
0.492553,-0.652512,0.384429,-0.150031,-0.831398,0.535040
-0.029872,-0.542147,-0.037501,0.706501,-0.117325,-0.697919
-0.093626,0.287629,-0.009735,0.826449,0.472674,0.305877
-0.147869,-0.325188,0.787513,-0.378798,-0.474993,-0.794288
-0.619041,-0.099686,0.430906,-0.606177,-0.514639,-0.606380
0.018970,-0.056740,-0.789747,0.086875,0.993854,0.068605
-0.011702,0.819175,0.659412,0.314387,-0.710479,0.629588
-0.098007,0.170954,0.750755,0.505697,0.861822,-0.039156
-0.019140,0.584553,0.543985,-0.475018,-0.154044,-0.866388
0.260874,0.164912,0.809581,0.877455,-0.430589,-0.211343
-0.370887,0.403498,-0.139602,0.974084,-0.050600,0.220454
0.440518,-0.062090,0.414139,-0.199612,0.962749,0.182397
-0.208329,0.426317,-0.156120,-0.617956,0.457261,-0.639564
0.009834,0.600062,-0.969615,0.115082,-0.183238,-0.976309
0.354891,0.159833,0.525928,-0.583526,0.695266,0.419646
-0.696007,-0.021415,0.277598,0.119398,0.365836,0.922988
-0.283935,-0.007716,-0.212721,0.094104,0.192132,0.976847
-0.429920,0.418275,0.630504,-0.375409,-0.621492,-0.687616
-0.132279,0.094376,0.106462,-0.580821,-0.806611,-0.109659
-0.300851,0.370288,0.066430,0.097549,0.112582,0.988842
0.167570,0.525330,0.628924,-0.659900,0.292881,-0.691919
-0.102083,0.804513,0.544078,0.800693,0.334556,0.496955
0.030588,0.264734,0.543475,-0.740898,-0.391445,0.545748
0.140093,0.020491,0.917223,-0.424438,0.358510,-0.831458
-0.364875,-0.195352,0.327412,-0.052568,0.345022,0.937121
-0.379617,0.222519,-0.257494,-0.425424,-0.901307,0.081610
0.062549,0.532180,-0.962276,0.153031,0.536927,0.829633
-0.479849,0.626653,-0.243886,-0.649596,0.752776,-0.106555
-0.581271,-0.243337,-0.218106,-0.461684,0.300009,-0.834771
-0.145186,0.642775,0.310530,-0.413048,-0.180174,0.892709
-0.637620,0.241337,0.568289,0.913498,0.276913,0.298062
0.178304,0.321917,0.389835,0.999889,0.008478,-0.012274
-0.127150,0.146364,-0.165028,-0.044743,-0.015779,0.998874
-0.309647,0.866738,0.295613,-0.010659,0.252244,0.967605
0.206971,0.418852,-0.238959,0.698499,0.162503,0.696916
0.108267,0.283705,0.057012,0.639280,-0.153307,-0.753537
0.715063,-0.505012,0.683935,-0.091433,-0.978593,-0.184380
-0.217092,0.683451,0.297255,-0.035052,0.676123,0.735954
-0.227654,-0.186886,-0.210383,-0.762952,0.623722,-0.169929
0.613981,0.583437,0.143573,0.036210,0.797546,0.602170
0.401662,0.346352,0.596304,-0.041550,0.036537,0.998468
0.930269,-0.484810,0.702719,-0.246648,0.844280,0.475769
-0.127082,0.799434,-0.980270,0.162955,-0.164503,-0.972823
-0.032725,-0.068324,0.638352,-0.164856,-0.241607,-0.956268
-0.217975,0.099995,0.105547,-0.010863,-0.655298,0.755292
0.216683,0.737363,0.503495,0.263755,-0.195395,-0.944592
-0.345379,0.298020,0.256974,0.060403,-0.420548,0.905258
-0.205509,0.379178,-0.977640,-0.170935,0.098292,0.980367
0.004568,0.209282,0.658404,0.155036,0.069217,0.985481
0.071923,0.899101,-0.973742,-0.165387,0.117940,0.979151
-0.333355,0.329190,-0.278877,-0.406490,0.863198,0.299423
-0.168623,0.291863,-0.182929,0.598982,-0.579898,-0.552213
-0.789582,-0.264964,0.526832,-0.100338,0.700372,0.706691
-0.364332,0.057241,0.459160,-0.122780,0.123493,0.984720
-0.392321,0.191696,0.291850,-0.413925,-0.133612,0.900452
-0.042371,0.905258,-0.982318,-0.182971,0.122269,0.975485
-0.274390,0.519865,0.302546,-0.122145,0.065073,0.990377
0.479204,-0.239913,0.714933,-0.413599,-0.851235,0.323010
-0.034831,-0.025033,0.871796,0.349713,0.912408,0.212632
-0.426251,0.063283,0.288450,0.216451,0.018801,-0.976113
-0.710034,0.292825,0.464784,0.197432,0.602917,0.772989
0.291782,0.536644,-0.956434,-0.052131,0.117797,0.991668
-0.495338,-0.863660,-0.243096,0.463744,0.155922,0.872141
-0.179764,0.598983,-0.020047,-0.440973,-0.092771,-0.892713
-0.086086,0.287784,-0.184260,0.409371,0.854853,0.318813
0.052867,0.298482,0.540398,0.132343,0.045392,0.990164
0.025017,-0.076944,-0.497674,-0.562737,0.792017,-0.236720
0.162408,-0.578935,0.548725,0.559038,-0.293973,-0.775278
0.036767,0.130049,-0.137991,0.597419,-0.027716,-0.801450
0.171884,0.443634,-0.961257,-0.142821,0.145347,0.979018
0.033575,0.126662,0.649215,-0.245760,-0.316555,0.916185
-0.211793,0.167491,-0.244437,0.098413,0.612705,0.784161
-0.050149,0.218979,-0.252265,0.594497,0.161875,-0.787636
0.008476,0.775537,0.654101,-0.452575,-0.705813,0.544980
-0.349727,0.289708,-0.977910,-0.122287,0.172236,0.977436
0.670601,0.687992,0.360697,-0.496171,-0.344110,-0.797122
0.020771,0.698959,0.652365,-0.007692,-0.040753,0.999140
-0.124874,-0.042080,0.359221,-0.315219,-0.335949,-0.887567
-0.435118,0.212284,0.451166,0.056583,0.645491,0.761669
-0.381688,0.485310,0.144956,0.102155,0.215511,0.971143
0.201231,0.649279,0.536126,-0.209959,0.087049,0.973827
0.142334,0.239066,-0.135984,-0.101684,0.034655,0.994213
-0.204218,-0.509206,0.411820,-0.070557,-0.222066,0.972475
-0.357538,0.787274,0.285405,0.080393,-0.621294,-0.779443
-0.337261,0.322648,0.158428,-0.171883,0.296099,0.939564
-0.025218,0.057164,0.797949,0.082686,0.851039,0.518551
-0.162101,0.878552,0.553631,0.680315,0.221279,0.698718
0.188493,0.239837,-0.174665,-0.663650,0.741191,-0.101020
-0.052426,0.088450,-0.161848,-0.189655,0.177724,0.965632
0.209755,0.653166,0.645951,-0.294936,0.715375,-0.633444
0.672266,0.230870,0.591751,-0.142264,0.460836,0.876008
-0.221574,0.223905,0.686783,0.281323,0.411184,0.867056
-0.076608,0.073365,-0.034621,-0.354077,0.816827,0.455437
-0.769814,-0.261886,0.524598,-0.217790,-0.563082,-0.797187
-0.390316,0.517403,0.137731,0.268622,0.388721,0.881328
-0.086424,-0.182498,0.497549,-0.003676,-0.999966,-0.007437
-0.334985,0.184731,-0.239281,0.292932,0.501386,0.814127
-0.349795,0.583322,-0.034808,0.553874,-0.703206,-0.445787
0.421837,-0.189310,0.611616,-0.088615,-0.147453,0.985091
-0.224903,0.636080,0.224271,-0.389233,0.316423,0.865086
0.535248,0.628384,0.134197,-0.416255,0.583671,0.697180
-0.263353,0.714467,0.206495,0.136399,0.403046,0.904958
-0.208872,-0.156946,-0.168428,-0.726387,0.686047,0.041245
-0.002020,-0.003521,-0.933367,0.050407,0.712528,0.699831
0.170628,-0.099686,0.714642,0.698385,0.714008,-0.049511
0.496154,0.410348,0.510980,-0.237524,0.306584,0.921732
-0.376254,-0.186269,0.325894,-0.144627,0.421669,0.895142
-0.153949,0.112770,-0.168594,-0.086159,0.064674,0.994180
-0.203878,-0.119158,-0.184873,0.733512,-0.673852,-0.088789
0.220863,0.569392,-0.957245,-0.205102,0.150435,0.967110
0.150417,-0.064360,0.735256,0.963755,0.258700,0.065198
-0.009425,0.364093,0.468983,0.637172,0.272901,0.720789
-0.435897,0.000404,0.570087,0.175660,-0.022486,0.984194
-0.570878,-0.328459,0.225892,-0.474430,-0.062274,0.878088
-0.261110,0.831643,-0.003332,-0.735077,-0.120522,0.667185
-0.125554,0.825794,-0.979854,-0.148602,0.174948,0.973299
0.062513,0.502703,0.541219,0.384189,0.342033,0.857562
-0.168961,0.428588,0.350801,0.415750,0.624321,-0.661343
0.126539,0.002329,0.656128,-0.665409,-0.729570,-0.157981
0.073111,0.524985,0.533880,-0.477722,-0.746460,-0.463226
-0.671110,-0.133127,0.505138,0.210448,0.364198,0.907233
-0.100182,0.374598,0.511853,0.575935,-0.037893,-0.816617
-0.230542,0.061052,0.652656,0.233428,0.207939,0.949880
0.152150,-0.755526,0.726690,-0.314186,0.281197,0.906761
-0.352173,0.650626,-0.986653,-0.221782,0.063291,0.973040
-0.016115,0.173494,0.388223,-0.039399,0.102065,0.993997
0.027801,0.260308,0.483235,0.228051,0.405190,0.885333
-0.166278,0.514209,-0.973690,0.207747,0.098419,-0.973219
0.621249,0.348700,0.700037,0.016321,0.428284,0.903497
-0.249393,0.053394,0.440657,-0.160636,-0.919032,-0.359967
-0.245929,0.129971,0.643934,0.402603,0.496098,0.769284
-0.271469,0.063744,0.316403,-0.286640,0.186930,0.939625
0.200754,0.433975,0.034424,0.916201,-0.064780,-0.395448
-0.542754,0.557924,-0.235165,-0.649596,0.752776,-0.106555
-0.066454,0.286321,0.659631,0.347748,0.144371,-0.926406
0.121207,0.557078,0.367132,-0.761564,0.554197,0.335985
-0.248748,-0.244569,-0.225393,0.627065,0.565993,-0.535202
-0.602364,0.390261,-0.992588,-0.076280,0.148066,0.986031
-0.137951,-0.195544,0.747980,0.944323,0.328632,-0.015979
-0.291068,0.423315,-0.031617,-0.618372,0.128706,-0.775274
0.227350,0.841340,0.420875,-0.870671,0.212941,0.443383
-0.210095,0.633887,-0.976756,-0.262948,0.034212,0.964203
-0.166007,0.314413,-0.040079,-0.444557,-0.806161,0.390479
0.414534,0.360822,0.585763,-0.041550,0.036537,0.998468
0.214272,0.719201,0.497560,0.269916,-0.182281,-0.945473
0.500468,0.234602,-0.936953,-0.000914,0.143846,0.989600
-0.003855,0.536836,0.355333,-0.353631,-0.933113,-0.065159
-0.216242,-0.050661,0.745994,0.333834,0.093139,0.938019
0.218008,0.523329,-0.953617,0.221605,-0.063591,-0.973061
-0.552264,0.178420,0.265186,0.395211,0.005241,0.918576
0.388788,-0.440825,0.654974,0.064880,0.994528,0.081881
-0.465754,0.571469,-0.993929,-0.177171,0.117156,0.977182
-0.468946,0.124353,0.657406,0.034131,-0.103029,0.994093
0.034798,0.858350,0.179613,0.571524,0.102637,0.814141
0.211387,0.154291,0.884863,-0.955460,-0.118473,-0.270297
-0.094339,0.404845,0.602530,0.320890,0.343818,0.882507
0.584261,0.244223,0.720505,-0.221931,0.142971,0.964524
-0.606440,-0.304254,0.313066,-0.149993,-0.112771,0.982235
-0.037955,0.794009,0.639735,0.514701,-0.741076,0.431148
-0.082486,0.226791,-0.031565,0.951637,0.109700,-0.286973
0.239508,0.404884,-0.160112,0.696296,0.604034,0.387705
0.029704,-0.192311,0.761015,-0.117152,0.440588,-0.890032
-0.050829,0.682181,0.467996,0.236641,0.926593,0.292279
-0.467962,0.374983,0.149186,-0.073638,0.385925,0.919586
0.316814,0.321917,0.817378,-0.589007,-0.177554,0.788382
-0.570368,0.400765,-0.995260,0.088979,-0.147222,-0.985093
-0.475672,-0.148019,0.251995,-0.169772,0.707608,0.685907
0.244977,-0.082255,0.559328,0.964108,0.107778,0.242653
-0.375303,-0.531064,0.066805,0.280908,-0.001959,-0.959733
-0.136627,0.121813,0.584079,-0.282437,-0.493692,0.822495
0.191176,-0.457564,0.277920,0.898580,0.435957,0.049947
-0.409745,-0.335077,0.601189,-0.116116,0.179334,0.976912
0.024576,0.076136,0.747106,0.576455,0.730132,0.366888
0.490345,0.553460,0.423058,-0.584132,-0.748791,-0.313214
0.017917,0.703077,0.324480,0.227584,0.088711,0.969709
-0.244706,0.324765,-0.261860,0.330488,0.565362,0.755740
0.245249,0.341235,-0.140517,-0.518430,-0.696327,-0.496346
0.112817,0.422815,-0.219094,0.041345,-0.155738,0.986933
0.201571,0.570893,0.550450,0.522545,-0.053051,-0.850960
-0.033166,0.233563,-0.959771,-0.205961,0.138947,0.968645
0.495984,0.142555,0.317775,-0.618515,0.351513,0.702764
0.056062,0.546688,-0.963367,-0.253443,-0.396375,-0.882413
0.007354,-0.123006,0.240446,-0.529886,0.846666,-0.048752
-0.308663,0.238451,-0.052064,0.540010,0.274150,0.795758
-0.097329,0.746137,0.211453,0.842627,0.235077,-0.484478
0.280539,-0.474573,0.341050,0.087215,-0.188442,0.978204
-0.142537,0.158832,0.363930,0.936655,0.086508,-0.339403
-0.402137,0.571970,-0.029122,0.204652,-0.856787,-0.473322
0.536540,0.060089,0.668436,-0.016438,-0.760369,0.649283
-0.619380,-0.319454,0.521905,0.098823,0.127963,0.986843
0.128917,0.706694,0.605649,0.858746,0.497896,0.121055
0.152115,-0.044735,0.419253,0.446163,0.882786,-0.147061
-0.030212,0.307448,0.730516,0.872386,0.476006,-0.111183
-0.083539,-0.330306,0.134644,-0.634158,0.448271,0.629998
-0.049606,0.152907,-0.036056,-0.053862,0.318697,0.946325
0.242805,0.233948,0.796494,0.931040,-0.364018,-0.025593
-0.934887,-0.150135,0.313056,0.004878,0.210653,0.977549
-0.167671,0.145056,0.334855,0.807928,-0.413212,-0.420130
0.100012,0.346661,-0.221412,0.284032,-0.131862,-0.949704
-0.286008,0.048545,0.290862,0.853384,-0.323796,-0.408525
0.267259,0.175726,0.827232,0.842737,-0.498444,-0.203344
0.017510,0.222519,0.658841,0.162866,0.047313,0.985513
-0.301293,-0.108498,0.498963,-0.048489,0.292660,0.954986
-0.250649,0.137359,0.052938,-0.328911,0.096525,0.939415
-0.243414,0.934850,-0.005442,0.890200,0.219284,-0.399322
-0.679397,0.292940,0.462559,0.347079,0.390230,0.852793
-0.209448,0.621919,0.508537,0.125305,0.138486,-0.982405
0.199837,0.872049,0.483786,-0.526426,0.271863,0.805584
0.039351,0.262809,-0.960031,-0.069279,0.090140,0.993517
-0.516702,0.623188,0.138344,-0.235447,0.437797,0.867697
-0.199769,0.424240,0.644506,0.845787,0.417072,-0.332708
0.061904,-0.034576,-0.617593,-0.051014,-0.997065,0.057091
-0.090977,0.574971,0.308337,0.045114,0.905660,0.421598
-0.262366,0.139477,-0.228408,0.025653,0.678434,0.734214
-0.225515,0.496854,0.309532,0.112925,0.470909,0.874924
-0.111899,-0.435515,0.017324,0.817571,-0.345673,0.460529
-0.193587,-0.166875,0.499805,-0.064979,0.159656,0.985032
0.488886,0.555308,0.148126,0.410562,-0.585996,-0.698604
0.000188,0.675639,0.185289,-0.313374,0.521716,0.793479
-0.218313,0.801050,-0.000192,-0.457848,-0.178660,0.870893
0.173990,0.018952,0.507830,0.927458,-0.364075,-0.085273
-0.417488,-0.202471,0.453162,-0.263631,-0.494024,0.828516
0.031131,0.043311,0.752169,0.722061,0.572967,0.387734
-0.103986,0.404652,0.511219,0.063224,0.155589,0.985797
0.151198,-0.645238,0.710526,0.136032,0.323909,0.936258
-0.406619,0.204818,0.633737,-0.424637,-0.883986,-0.195581
-0.105174,0.390761,0.602021,-0.380549,-0.438824,-0.814012
0.019921,0.126084,-0.230362,-0.145882,-0.382468,-0.912380
0.076304,-0.053547,-0.858792,0.087130,-0.994723,0.054169
0.170661,0.488773,-0.004226,-0.689414,0.723096,0.042903
0.192128,0.381910,-0.094518,-0.494177,0.868953,-0.026623
-0.345516,0.022954,0.298201,0.286490,-0.312611,-0.905648
0.365793,0.691455,-0.032428,0.893813,-0.374691,-0.246382
-0.010037,0.679834,0.467435,0.240195,-0.918495,-0.314123
0.013978,0.024763,0.320582,-0.092366,-0.990670,0.100207
0.112241,-0.066707,-0.748884,-0.019264,-0.994533,0.102633
-0.092675,-0.600946,-0.045702,0.663242,-0.149698,-0.733281
-0.327752,0.217133,-0.172128,0.153809,-0.011165,0.988038
0.123686,0.369057,0.050900,-0.432107,0.125771,0.893009
-0.080379,0.078868,0.092813,0.553689,0.826222,0.103854
-0.316611,0.235256,0.684059,0.215587,0.630776,0.745415
0.153236,-0.532758,0.548070,-0.485082,0.481079,0.730246
-0.216922,-0.341158,-0.508236,0.213464,0.332626,0.918582
-0.025083,0.518211,0.336445,-0.123105,-0.967535,-0.220727
0.108165,0.340888,0.401789,-0.215552,0.853207,0.474947
-0.487594,0.402305,-0.987526,0.176405,-0.107320,-0.978450
0.073111,0.115502,0.723291,-0.300967,-0.069691,-0.951085
0.019411,0.346545,-0.960966,-0.088906,0.081449,0.992704
-0.264406,-0.744175,0.508891,-0.119889,0.281112,0.952157
-0.524820,-0.778039,-0.234822,-0.662107,-0.642618,0.385559
0.052258,-0.107498,0.521105,-0.355013,0.774290,-0.523871
0.001919,0.055241,0.726087,0.835694,-0.541905,0.089186
-0.464328,-0.821214,-0.263616,0.383647,0.259153,0.886372
-0.596658,0.033267,0.281766,0.477422,-0.404558,-0.780000
0.068221,0.374676,0.797169,0.472186,-0.437927,0.765023
-0.910908,-0.257845,0.312796,-0.067971,0.246985,0.966633
-0.387192,-0.317145,-0.883481,0.237844,-0.556024,-0.796409
-0.062853,0.574971,-0.971039,-0.107862,0.085881,0.990449
0.063838,-0.384065,0.721285,0.875704,0.170538,-0.451729
-0.175688,-0.161295,0.844281,-0.628679,-0.508748,-0.588165
0.081262,0.412811,-0.963087,-0.032560,0.098272,0.994627
0.170254,0.392916,-0.138469,0.812465,0.194790,0.549506
0.148107,0.694687,-0.232535,-0.242137,0.078239,0.967082
-0.524412,-0.793277,-0.101660,0.910454,-0.283683,-0.300995
0.063635,0.894676,0.165091,-0.257353,0.769010,0.585144
-0.218450,-0.598253,0.607187,0.375892,0.300796,0.876486
0.094849,0.708117,0.630795,0.137868,0.891518,0.431495
-0.062582,0.548804,0.546999,-0.210857,-0.083197,0.973970
-0.188357,0.789775,-0.981892,0.155354,-0.126892,-0.979675
-0.283290,0.587940,0.302619,0.604829,-0.412408,-0.681250
0.071923,0.501510,-0.230955,0.796344,-0.319565,-0.513531
-0.294839,-0.454948,0.616772,0.121547,0.133331,0.983590
-0.527333,-0.644508,-0.341268,-0.581749,-0.523226,-0.622738
-0.068185,0.169146,0.049663,0.808520,0.588425,-0.007147
-0.187202,0.814019,0.474358,0.105702,0.145003,0.983769
0.046007,0.055895,0.264365,-0.724209,-0.318285,-0.611732
-0.091147,-0.452100,-0.064850,0.473802,-0.157451,-0.866441
-0.278230,0.452061,0.305717,-0.632601,0.252142,0.732284
-0.057588,0.209705,0.099809,0.009035,0.228640,0.973469
-0.057146,0.732399,0.545700,0.511097,0.145808,0.847066
0.208090,0.667943,0.501791,-0.357480,0.071089,0.931211
-0.462051,0.444596,0.066545,-0.192943,0.517329,0.833753
-0.021483,0.670406,0.532176,0.732264,0.416575,0.538753
-0.405329,-0.296827,-0.137720,-0.762886,0.637702,-0.106494
-0.377546,0.187425,0.650130,-0.367652,-0.857412,-0.360106
0.088939,-0.092220,0.303794,0.325795,-0.942333,0.076586
-0.147699,0.226907,0.783292,0.731538,0.681683,0.012657
0.105447,0.759491,-0.970550,-0.064520,0.057477,0.996260
-0.046482,0.619187,0.344054,-0.398828,-0.475952,-0.783840
-0.201670,0.678911,0.297536,0.050207,0.671274,0.739507
-0.707182,0.249072,0.437382,0.807011,0.462308,0.367430
-0.207276,0.092452,0.736004,0.553002,0.241495,0.797414
-0.202962,0.287361,0.055058,-0.003669,0.081247,0.996687
0.259107,-0.161141,0.694008,0.786519,0.515990,-0.339326
0.240833,0.544070,0.557082,0.453442,0.088585,-0.886873
-0.068627,-0.140168,0.579266,0.221402,0.133471,0.966005
-0.589015,-0.107151,0.429918,-0.126572,-0.886252,-0.445574
-0.532021,-0.075212,-0.218959,-0.276868,0.342758,0.897698
-0.230202,-0.041233,0.740796,0.333834,0.093139,0.938019
0.077765,0.038078,0.853075,0.546608,0.341841,0.764438
0.256560,-0.041656,0.601397,-0.167382,0.396108,0.902819
0.608445,-0.469994,0.720266,0.731207,0.645341,0.221071
-0.034526,0.767879,0.145766,0.820032,0.263328,-0.508140
0.203675,-0.074443,0.649371,0.391538,0.475783,-0.787610
0.244672,0.799203,-0.958450,-0.192757,0.057241,0.979576
-0.072669,0.562465,0.341632,0.999816,0.010841,0.015843
0.138156,-0.046082,0.302193,-0.107518,0.984623,-0.137688
-0.045632,-0.435283,0.685588,-0.298104,0.130289,0.945600
-0.535349,0.343159,0.154384,0.003293,0.627920,0.778271
-0.468268,-0.832644,-0.107502,-0.568555,0.766786,0.297968
0.212643,-0.089720,0.939344,-0.088010,-0.995816,0.024590
-0.207004,0.358359,-0.974646,-0.170504,0.096337,0.980636
0.085135,0.224059,-0.218522,-0.216328,-0.012668,0.976239
-0.970517,-0.125430,0.311029,0.014680,0.166419,0.985946
-0.008814,0.429089,-0.963003,-0.125103,-0.072434,0.989496
-0.105549,0.611837,0.344959,0.393646,-0.516010,-0.760774
-0.121138,0.144517,0.787533,-0.391458,-0.815950,-0.425424
-0.126810,0.116695,-0.225560,-0.351627,0.291953,0.889450
-0.158263,-0.021685,-0.195164,0.924187,0.121333,-0.362155
0.005385,0.520636,0.360479,0.195972,0.912691,0.358595
0.448941,-0.254729,0.558475,0.432199,0.814816,-0.386366
-0.321230,0.616994,-0.036357,-0.606003,0.686881,0.401191
-0.215496,0.163489,0.057459,-0.176913,0.026902,0.983859
-0.031334,0.345661,0.041212,-0.335929,0.075776,-0.938834
-0.044274,0.781848,0.157825,0.526448,0.774212,0.351352
0.022843,0.540338,0.540357,-0.398996,-0.367891,-0.839916
0.068051,0.299675,0.415615,0.713007,-0.643002,-0.279589
-0.097430,0.350432,0.603123,-0.603253,-0.191513,-0.774215
0.005826,-0.049853,-0.878324,-0.115101,0.986766,0.114212
0.145085,0.568468,-0.965935,-0.163732,0.009213,0.986462
0.195523,-0.054202,0.989875,0.974118,-0.126094,0.187600
0.104597,0.213207,-0.022313,-0.667191,0.634161,-0.390763
0.248103,0.827217,0.422850,-0.870671,0.212941,0.443383
0.010989,0.782888,0.163771,-0.705692,0.650566,0.280646
0.364639,0.072134,0.595139,-0.130649,0.249719,0.959464
-0.669650,-0.388413,0.316403,-0.107141,0.374275,0.921107
-0.130615,0.420083,-0.023810,0.924869,0.093551,0.368600
-0.007217,0.299829,0.093791,0.698221,0.477978,0.532940
-0.178947,0.711465,-0.016783,-0.192452,-0.289468,0.937641
0.015201,-0.845150,0.277515,0.149385,-0.859629,0.488592
-0.123583,0.307641,-0.179218,0.123799,0.702568,0.700766
-0.004500,0.055125,-0.164457,-0.089089,0.496756,0.863306
0.098722,0.791776,-0.971320,-0.056329,0.035562,0.997779
0.226636,0.433245,-0.047407,-0.823728,0.315769,0.470916
0.092099,0.585016,-0.968523,-0.088423,0.048400,0.994906
-0.151232,0.097069,0.753343,-0.787717,0.188286,0.586558
-0.071956,0.165066,0.049341,0.759022,0.645399,0.085706
-0.287909,0.658360,-0.980727,-0.183033,-0.000550,0.983107
-0.237097,0.255959,0.316871,0.682095,0.052510,-0.729376
-0.391166,0.359321,0.223470,0.355237,-0.918540,0.173467
-0.013739,0.173186,0.723987,0.456060,0.308625,0.834722
-0.373503,0.209012,0.624578,-0.109286,-0.946327,-0.304174
-0.538474,0.610951,-0.003436,0.634165,-0.507119,-0.583665
-0.395955,-0.134666,0.306600,-0.493406,0.568349,0.658430
0.126846,0.205702,-0.085973,0.932387,-0.256265,0.254916
-0.483008,0.274277,0.454919,0.203030,0.043933,0.978186
0.159010,0.499278,-0.222067,0.220257,-0.065339,0.973251
0.154051,0.168799,0.507394,0.796578,-0.055511,-0.601982
-0.367016,0.192581,-0.233439,0.287387,0.488494,0.823883
-0.341405,0.200662,-0.239427,0.445217,0.822102,0.354866
-0.254045,0.705308,0.489784,0.723923,0.279109,-0.630899
0.112411,0.347969,0.780423,0.389917,-0.347759,0.852659
-0.297725,0.281511,0.250342,0.012641,0.878910,0.476819
-0.453628,-0.177881,0.305654,-0.054105,0.553692,0.830962
-0.279486,0.348624,0.294854,-0.691787,0.373215,0.618176
0.360870,0.485618,-0.951818,-0.149473,0.047961,0.987602
-0.234821,-0.149366,-0.210341,0.944320,0.139922,-0.297794
0.177657,-0.073980,0.588694,-0.282909,0.692599,0.663528
-0.184246,0.736941,-0.979095,0.131514,-0.143501,-0.980873
0.204050,0.134242,0.697792,-0.594557,0.324138,-0.735824
0.098654,0.206126,-0.215923,-0.124403,0.038309,0.991492
-0.143182,-0.036230,0.451946,0.056685,0.228223,0.971957
-0.020668,0.232833,0.662833,0.261044,0.263721,0.928605
0.286315,0.798087,0.430272,-0.067580,0.097067,0.992981
-0.810913,-0.296788,0.526250,-0.350606,-0.433316,-0.830249
0.215836,0.758913,0.504982,-0.392297,0.252304,0.884560
-0.385017,0.068093,0.458900,0.224179,-0.128435,-0.966048
-0.158195,-0.143016,-0.070079,0.070871,0.684961,0.725124
-0.178711,-0.015220,0.368213,-0.315219,-0.335949,-0.887567
0.244706,0.839724,0.420532,-0.870671,0.212941,0.443383
0.133401,-0.029573,0.258180,0.310890,0.945403,0.097774
0.076169,-0.068708,0.278336,0.339687,-0.910619,-0.235342
-0.373775,0.210666,-0.243855,0.292956,0.936072,0.194800
-0.065264,0.503511,0.536469,-0.099561,-0.231698,0.967680
-0.603383,0.208397,0.462091,-0.089348,0.543966,0.834337
-0.695192,-0.135551,0.299667,-0.149982,0.575377,0.804019
-0.044036,0.797048,0.465626,-0.507993,0.589147,-0.628370
-0.131226,-0.121428,0.485054,0.048941,0.913280,0.404382
-0.399351,-0.305332,0.246257,0.136952,0.167834,0.976256
-0.228741,0.135243,0.316310,0.684271,-0.177920,-0.707190
-0.408725,-0.456410,0.619682,-0.136852,0.297534,0.944852
-0.011973,-0.242646,0.010089,0.278481,0.137089,0.950608
0.437564,0.679026,0.495242,0.446691,-0.291540,-0.845856
0.079090,0.570777,-0.970446,-0.027801,0.090386,0.995519
-0.520541,-0.759067,-0.207773,-0.190759,-0.441639,0.876679
-0.250208,0.130086,0.303004,0.609287,-0.154773,-0.777698
-0.220998,-0.125930,0.563621,-0.295223,-0.448082,-0.843840
0.287741,-0.082831,0.927670,0.438019,-0.850989,-0.289753
-0.267462,-0.027918,0.313326,0.494345,-0.283052,-0.821891
0.103308,-0.549997,0.242535,0.848009,0.067991,-0.525602
-0.216582,0.365786,-0.030744,-0.327614,-0.774140,0.541642
-0.078443,0.407385,0.656200,-0.576749,-0.502489,-0.644100
0.178304,0.724819,-0.229032,-0.184456,0.203668,0.961507
0.039757,0.043195,0.763562,0.625100,0.780431,0.013292
0.242873,-0.430704,0.350998,0.191396,-0.074781,0.978660
-0.097940,0.248994,0.695505,0.861637,-0.507043,-0.022097
0.422721,0.587439,0.113916,-0.091759,0.794110,0.600808
-0.012788,-0.621995,0.689995,0.650167,0.377165,-0.659568
-0.080651,0.295750,-0.195892,0.610294,0.738676,0.286180
-0.146273,0.547535,0.309251,-0.477045,0.146623,0.866562
0.069954,-0.488580,0.504504,0.552114,0.181019,-0.813881
-0.191006,-0.011794,0.733146,-0.346892,-0.076053,-0.934816
-0.602058,0.290670,0.451842,0.147635,0.309600,0.939336
-0.294058,0.107036,0.537425,-0.299445,0.684873,0.664290
0.039417,-0.023993,0.112918,-0.167595,0.704375,0.689759
-0.338857,0.387451,-0.159987,0.796681,0.533866,0.283347
0.095699,0.054624,0.843615,-0.578996,-0.599804,0.552266
0.009255,0.781117,0.190861,-0.551333,0.350357,0.757154
-0.127354,0.417660,0.632500,0.724577,0.150136,-0.672642
0.018460,0.655205,0.650015,-0.141583,0.219456,0.965294
-0.455258,0.001673,0.287827,-0.179809,-0.142876,0.973270
-0.209755,-0.481923,-0.079580,-0.267115,0.177947,0.947093
-0.290898,0.764647,0.291663,0.271532,0.025569,0.962090
0.160675,0.444249,-0.225487,0.277843,-0.254185,0.926387
-0.051101,0.469725,0.544213,-0.135337,-0.098222,0.985919
-0.373911,0.727897,-0.244915,-0.723618,0.648164,-0.237193
-0.195183,0.886133,0.469711,0.370991,0.217004,0.902926
-0.282135,0.010717,-0.105225,-0.685643,-0.718391,-0.117511
-0.422345,0.102265,0.663228,0.067369,-0.049208,0.996514
0.220965,0.262617,-0.952941,-0.093858,0.177688,0.979601
-0.562251,0.186578,0.268034,0.247124,-0.022863,0.968714
-0.501587,0.059204,0.569027,-0.056863,0.023301,0.998110
-0.166585,0.634733,0.223751,0.008911,0.910857,0.412626
-0.490617,-0.851576,-0.248315,0.426282,0.106657,0.898281
-0.318139,0.416659,0.027033,0.414106,0.361846,0.835215
0.045667,0.436823,0.046087,0.023113,-0.428875,0.903068
0.022706,0.733785,0.650826,0.910536,0.369548,0.185362
-0.514970,0.575010,0.012750,-0.764276,0.275938,0.582872
-0.423637,-0.029304,0.075162,0.429507,0.398111,0.810575
0.150960,-0.483885,-0.850133,-0.339536,0.135907,0.930723
-0.597201,-0.092606,0.429035,-0.126572,-0.886252,-0.445574
-0.155952,-0.123968,0.838428,-0.463155,-0.130547,-0.876610
-0.610005,0.136436,0.467050,0.023582,0.337427,0.941056
0.444152,-0.536951,0.612801,0.467342,0.846831,-0.253907
0.047230,0.079368,-0.138074,0.729389,-0.097485,-0.677117
-0.635548,0.338349,0.452871,-0.014235,-0.149291,0.988691
0.314845,-0.190425,0.736898,-0.050444,0.440225,0.896469
-0.651716,0.264195,-0.245466,-0.157141,0.108852,0.981559
-0.618735,-0.092144,0.433401,-0.529781,-0.451166,-0.718179
0.040097,0.249379,0.655265,-0.314262,-0.364601,-0.876530
-0.269297,0.894406,-0.026430,-0.228640,-0.752449,0.617692
-0.181020,0.911992,0.455231,-0.497232,-0.816490,-0.293436
-0.223647,0.006754,0.127980,0.232631,0.494575,0.837424
0.261655,0.681296,0.505699,-0.223664,0.059303,0.972860
0.187440,0.107844,0.899614,0.957569,-0.149109,0.246635
0.153610,-0.075135,0.943648,-0.051798,0.982632,0.178189
-0.534263,-0.096030,-0.208335,-0.010336,0.076883,0.996987
-0.811966,-0.194312,0.319896,-0.136665,-0.194367,-0.971362
-0.123516,0.430397,0.318378,-0.393192,0.144807,0.907982
0.143862,0.057241,0.595701,0.170799,-0.162247,0.971856
0.308051,-0.082446,0.934012,0.499819,-0.840201,-0.210340
-0.552434,-0.622458,-0.219374,0.466914,-0.151032,-0.871310
-0.154254,-0.229716,0.724102,0.968401,0.040614,-0.246069
0.032149,0.252842,-0.224312,-0.460870,-0.033618,0.886831
-0.128815,-0.978373,0.211162,-0.395168,0.877412,0.272012
-0.610651,-0.099609,0.426966,-0.028367,0.976628,0.213055
-0.728410,-0.224906,0.313867,-0.021089,0.113814,0.993278
-0.079529,0.565890,0.250446,0.463556,-0.531938,-0.708631
-0.194775,-0.292132,0.670452,-0.215872,0.161361,0.962996
0.123042,0.009332,0.541126,0.688853,-0.688304,0.227418
-0.387836,0.234218,0.435106,0.155928,0.364736,0.917962
0.227791,-0.913378,0.307131,-0.396908,-0.521191,0.755529
-0.143826,0.883093,-0.983222,-0.108072,0.227835,0.967684
-0.423535,0.516826,-0.989501,0.203249,-0.071922,-0.976482
-0.201637,0.599292,-0.015577,-0.454984,-0.113077,-0.883291
-0.141552,0.013873,0.741358,-0.346026,0.230110,-0.909569
-0.336786,0.428242,0.572623,0.957998,0.262529,-0.115403
-0.111865,0.375676,0.370302,0.016332,0.547709,0.836510
-0.145661,0.703153,0.481208,0.787012,0.494222,0.369265
0.113360,-0.102072,0.867711,0.974403,-0.222571,0.031634
0.040470,0.115618,0.852919,-0.275643,-0.405099,0.871731
-0.170831,0.853539,0.472466,0.236299,0.281831,0.929911
0.269434,0.692186,0.559733,0.444277,-0.263348,-0.856310
0.162611,0.592557,0.630057,0.111381,0.071093,0.991232
0.176333,0.331191,0.402247,-0.514168,0.832593,0.205963
-0.342017,0.625460,0.203709,0.448541,-0.334564,-0.828781
-0.143928,0.467646,0.633539,0.510330,0.788032,0.344339
0.047162,0.410886,0.380739,-0.013787,0.893629,0.448595
-0.381078,-0.172955,0.400459,0.198298,0.489718,0.849031
0.853438,0.048467,0.645826,0.277378,-0.959013,0.057932
-0.031164,-0.112770,0.832305,-0.009119,0.005264,0.999945
-0.022637,0.618070,0.540627,0.605804,0.323742,0.726769
-0.301088,-0.270890,0.253876,-0.179687,-0.028779,0.983303
-0.146103,-0.036731,0.646408,0.453491,0.286175,0.844067
0.604471,-0.814288,0.628206,0.315321,0.643586,-0.697402
-0.155716,0.349316,-0.182981,0.527636,0.308220,0.791581
-0.011055,0.455332,-0.277130,0.394180,-0.591873,-0.703070
-0.189986,0.447675,0.357173,0.325190,0.884219,0.335275
-0.262843,0.843072,0.286028,0.861510,0.164357,0.480403
-0.158228,0.519904,0.229811,0.228938,-0.381296,-0.895657
0.062752,0.347008,0.728260,-0.194622,-0.006830,0.980855
-0.132957,0.738056,0.476666,0.318355,0.355181,0.878918
0.595470,-0.741173,0.399128,-0.407686,-0.816212,0.409379
-0.041726,0.847921,-0.978440,-0.165742,0.256054,0.952348
-0.947014,-0.224213,0.314033,0.074574,0.176619,0.981450
-0.164273,0.992957,-0.989979,-0.109751,0.110066,0.987846
0.591326,-0.549766,-0.188771,0.153922,0.642621,0.750564
0.082316,0.808130,0.185486,-0.066628,0.490155,0.869085
-0.252552,-0.214285,-0.187222,-0.733963,0.651158,0.193110
-0.370785,0.657669,-0.396248,-0.619715,0.782736,0.057250
-0.358457,0.008870,0.374294,0.046503,0.712133,0.700502
0.156736,0.481730,0.735911,0.125886,-0.643110,0.755355
-0.441944,0.028957,-0.213210,-0.274871,0.561175,0.780723
0.016660,0.247493,0.397184,-0.824818,-0.267115,0.498321
0.150282,0.581975,0.627427,-0.489457,0.268552,-0.829645
0.463343,-0.654858,0.391196,-0.150031,-0.831398,0.535040
-0.051032,0.615493,-0.972245,-0.011282,0.088521,0.996010
0.590306,-0.750447,0.384232,0.278039,0.805111,-0.523919
-0.077730,0.302677,0.086576,-0.800901,0.190127,0.567811
-0.473056,0.195967,0.456291,0.298585,0.640798,0.707265
