-0.292224,0.422561,0.869839,-0.376555,0.920616,-0.103311
-0.498850,-0.721925,-0.083851,-0.787685,0.136374,-0.600795
-0.102364,-0.402769,-0.958670,-0.760411,0.618350,0.198544
0.066321,-0.271150,-0.959549,0.030203,-0.021966,0.999302
0.202750,-0.277581,-0.968612,-0.319951,-0.175949,0.930953
0.303070,-0.004564,-0.646295,0.970702,-0.234467,0.052556
0.356543,-0.273199,-0.938268,0.040234,-0.151298,0.987669
0.060132,-0.197834,-0.555684,0.958418,-0.256571,0.124928
0.156728,-0.126760,-0.492145,0.858648,-0.370012,0.354705
0.229513,0.020475,0.185263,0.291658,0.768636,-0.569329
-0.205415,-0.113778,0.574389,0.913150,-0.375674,-0.158198
-0.467370,0.212108,0.333448,-0.666366,0.178500,-0.723944
-0.281788,0.307097,0.890333,0.214982,0.955099,0.203886
-0.312741,0.535577,0.474842,0.493812,0.834746,0.243617
-0.539647,-0.442444,-0.267445,-0.523701,0.785988,0.328573
-0.235218,-0.046242,0.708003,0.872804,0.482390,-0.074255
0.000060,-0.371604,-0.974839,-0.106638,0.245969,0.963394
0.450501,0.010092,-0.935487,-0.556382,0.048473,-0.829512
0.317010,-0.227066,0.125555,-0.063965,0.948654,0.309781
-0.536285,-0.413854,-0.320502,0.232258,-0.176611,0.956486
0.165490,0.023057,0.341060,-0.458089,-0.849753,-0.260911
0.065403,0.112010,0.444000,0.991819,0.116041,-0.053186
0.380230,-0.321874,-0.945454,-0.061045,0.110341,0.992017
0.501018,0.009403,-0.416392,-0.341019,-0.097968,0.934937
-0.281380,-0.022215,0.293619,0.678791,0.446112,-0.583290
0.176348,0.427092,0.226477,-0.505130,0.847939,0.160756
0.380768,-0.155051,0.217418,0.858584,0.396506,-0.324987
0.059364,0.121742,0.437999,0.915061,-0.257604,0.310327
0.503974,-0.009286,-0.947763,0.272751,-0.130756,-0.953158
0.603993,-0.419660,0.194054,-0.117169,0.397118,0.910257
0.026589,0.260095,-0.087486,0.910166,0.238432,-0.338746
0.460093,0.227321,-0.965406,-0.557482,0.723338,-0.407425
0.595788,-0.234432,-0.940234,0.545709,0.099123,-0.832091
-0.019153,-0.451887,-0.960988,-0.329017,-0.119665,0.936711
-0.136732,0.696292,-0.057098,-0.571349,0.501912,-0.649342
0.446441,0.349865,0.034481,0.379915,0.501425,-0.777328
0.531761,-0.093574,-0.946943,-0.510998,0.273753,-0.814826
0.771156,-0.442998,0.209303,-0.339400,-0.625899,0.702181
0.334875,0.481487,0.072657,-0.783383,-0.178973,0.595214
0.190049,0.753252,0.026989,0.358709,0.460049,-0.812209
0.444983,-0.368439,-0.924473,-0.024438,0.415682,0.909182
-0.002257,-0.476735,-0.954221,-0.226653,0.008791,-0.973936
-0.043118,0.440469,0.482414,0.568203,0.226121,0.791211
-0.016351,0.613567,-0.032547,0.822673,-0.381454,0.421547
0.504130,-0.051481,-0.941052,0.351827,-0.430147,-0.831379
0.260515,0.025207,-0.945345,-0.678691,0.269531,0.683178
-0.095907,0.666169,-0.062985,0.554511,-0.643245,0.527972
-0.099782,0.076117,0.672431,0.359734,-0.878615,0.314048
-0.066852,0.262651,0.857651,-0.566957,-0.586422,-0.578505
0.498661,0.059589,-0.945292,-0.059701,0.250805,0.966195
0.103470,-0.058206,-0.591558,0.988100,-0.001715,0.153800
-0.321186,0.360583,0.474482,0.106657,0.688410,-0.717437
0.211579,0.076934,0.196458,0.767213,0.317513,-0.557288
0.112782,-0.217484,-0.585439,0.891320,-0.161090,0.423790
-0.160733,0.765790,0.509093,-0.498741,0.633431,-0.591627
-0.683761,-0.328677,-0.358315,-0.586051,-0.280620,-0.760129
0.197998,-0.050119,-0.938558,-0.664024,0.216226,-0.715764
-0.095852,0.351276,0.512302,0.168735,0.954475,-0.245981
-0.243647,0.774181,0.486032,-0.254795,-0.102242,0.961575
0.240834,-0.206744,-0.210312,0.912518,0.304390,-0.273236
0.484595,0.180799,-0.961146,-0.400719,0.402732,0.822940
0.283509,0.030314,0.474382,-0.546504,0.508974,-0.665041
0.446373,0.049466,-0.937683,-0.525609,0.739153,0.421175
-0.014795,0.617918,0.496683,-0.252081,0.155917,0.955063
0.443744,0.295789,0.059944,0.746701,-0.644568,0.164225
0.062823,0.012898,0.585253,0.737166,0.668882,-0.095822
-0.219606,0.394595,-0.063991,-0.019141,-0.557978,0.829635
0.401414,-0.009364,0.204890,-0.057574,0.997767,0.033849
0.106649,-0.175269,-0.512632,-0.013485,0.784340,0.620185
-0.038697,-0.100377,0.617408,0.480639,-0.823773,-0.300640
0.212950,-0.079625,-0.875322,0.147572,0.980358,0.130846
-0.052811,0.671494,-0.055940,0.997861,-0.053607,0.037426
-0.140734,-0.320386,0.506597,0.962947,0.222877,-0.151853
0.376585,-0.348708,0.161747,0.664010,0.381479,0.643090
0.192071,-0.138036,-0.795739,-0.393982,0.919106,-0.004720
0.203514,-0.238953,-0.943178,0.035349,0.773052,0.633357
0.373494,0.054507,-0.972121,-0.366732,0.170742,0.914524
0.049581,0.040372,0.491201,0.361606,0.420062,-0.832339
0.111125,-0.362779,-0.970164,0.138109,0.186331,0.972732
0.505086,-0.119763,-0.940585,-0.024946,0.271572,0.962095
0.445469,0.067799,-0.938470,0.248631,0.389418,0.886869
-0.160300,-0.154532,0.418552,-0.699890,0.325844,-0.635594
-0.001716,0.554193,0.189284,-0.676597,-0.073549,0.732671
0.531658,-0.091705,-0.941520,-0.509235,0.620792,-0.596068
0.300217,0.068744,0.127952,0.739339,-0.432159,0.516349
0.136408,0.265406,0.440720,-0.688601,0.113073,-0.716270
-0.112933,0.278589,-0.089718,0.958621,-0.283364,-0.027400
-0.031318,-0.269891,-0.976948,-0.697420,0.319361,-0.641571
0.439102,0.172393,0.170663,0.748236,-0.531180,-0.397479
0.530636,0.073777,-0.927430,0.340561,-0.187363,-0.921365
-0.256091,-0.204965,0.716087,0.372736,-0.925857,0.062098
0.058484,0.083148,0.501570,0.996052,-0.082646,-0.032391
0.261603,0.086345,-0.000408,0.578287,-0.783402,0.227741
0.492841,-0.483934,0.099385,0.871502,0.276309,0.405140
-0.010054,-0.070284,-0.505021,0.044245,-0.973362,0.224965
0.408150,0.282130,0.050136,0.360713,-0.779957,0.511422
0.427391,0.063786,0.283003,0.437576,0.757424,-0.484599
-0.390973,0.671338,0.740819,0.173644,-0.266327,-0.948113
0.467877,-0.221860,-0.927915,0.068567,0.142368,0.987436
-0.035523,0.279983,0.468777,0.828628,-0.408571,0.382681
-0.307032,0.522503,0.754630,0.204907,-0.877704,0.433184
-0.114824,-0.481966,-0.957695,-0.134961,0.272182,0.952734
0.137638,0.030949,0.340461,-0.596056,-0.792551,-0.128763
-0.076951,0.541656,0.010428,-0.223104,0.244909,0.943527
-0.476490,-0.681905,-0.179453,-0.499983,0.840587,0.208398
0.440828,0.138719,-0.948030,-0.272980,0.762345,0.586781
0.292749,0.355519,0.079706,0.802921,0.088807,0.589432
0.217158,-0.091403,-0.919092,-0.550345,-0.045725,0.833684
0.416564,0.056344,0.276849,-0.755932,0.593798,0.275629
0.240827,-0.056523,-0.910007,0.062944,0.901843,0.427455
-0.467758,-0.620353,-0.280453,-0.119123,-0.708049,0.696043
0.478199,0.035430,-0.437238,-0.287100,-0.009109,0.957857
0.792768,-0.260151,0.258339,-0.213959,-0.492826,0.843412
-0.130376,0.259895,-0.147804,0.937022,-0.176725,0.301261
-0.014815,0.290168,0.501811,0.403483,0.805727,0.433596
-0.195419,-0.527147,-0.304100,0.193583,0.643999,0.740129
0.027629,0.210255,0.472826,0.981339,-0.077954,0.175773
-0.444493,0.186328,0.340341,-0.147233,-0.976864,-0.155113
-0.335120,0.475078,0.793732,-0.151911,0.617772,0.771544
-0.227812,0.712159,0.158045,-0.728389,-0.343350,0.592925
-0.190328,0.461267,0.478497,0.097553,0.547649,0.831002
-0.312648,0.670714,0.397409,0.755854,0.609457,-0.239263
-0.396279,0.481397,0.743006,-0.004499,-0.553563,0.832795
-0.091217,0.300407,-0.101128,0.899288,-0.208773,0.384311
-0.030229,0.276070,0.160848,0.481067,0.210919,0.850933
0.448644,0.113399,-0.959488,0.746957,-0.103995,0.656689
0.253090,-0.343700,-0.958835,-0.266056,-0.300114,0.916049
0.160687,-0.150290,-0.621903,-0.657867,0.734970,-0.164410
-0.065172,0.463288,0.458789,-0.290957,0.281622,0.914348
-0.119949,0.557726,0.471028,0.233595,0.228369,-0.945135
0.518124,0.020343,0.195483,-0.325165,-0.070308,0.943040
-0.203398,0.084519,0.900419,-0.178070,0.803384,0.568213
-0.233258,0.823458,0.459205,0.320046,-0.483214,-0.814908
0.481783,-0.006935,-0.947351,-0.026553,0.045465,0.998613
-0.063945,-0.040406,0.420475,0.742322,-0.412169,-0.528274
-0.100047,-0.237639,-0.503552,-0.575448,0.309479,0.757022
0.214125,-0.340582,-0.948605,0.751183,0.049466,-0.658238
0.075397,-0.216202,-0.983769,-0.783407,0.056241,0.618959
-0.358607,0.423954,0.500547,0.270544,0.426118,-0.863267
0.443514,-0.261078,0.178541,0.807223,0.484219,-0.337525
-0.457978,-0.944880,-0.020874,-0.344155,-0.235209,-0.908974
-0.905351,-0.792546,-0.031626,0.323881,0.448414,0.833082
0.945562,-0.473304,0.225143,0.547126,-0.675312,-0.494577
-0.025023,0.339288,0.455490,0.139569,0.605357,0.783622
0.236180,-0.101006,0.076100,0.887416,0.454575,0.076517
-0.116140,0.473399,0.834083,0.058745,0.897171,0.437760
-0.375355,0.682233,0.732648,0.514354,0.621752,0.590647
0.169771,-0.167991,-0.965594,-0.057137,-0.812468,0.580199
-0.266301,0.519464,-0.060372,-0.333401,0.824941,-0.456417
-0.157868,-0.197279,-0.539094,-0.719326,0.693391,0.042178
0.244608,0.126086,0.317828,-0.255726,0.935041,-0.245565
-0.340985,0.463491,-0.063505,-0.176785,0.801790,0.570859
0.096149,0.282496,0.903124,-0.561060,-0.811486,0.163406
0.488023,0.215475,-0.956457,0.463570,0.682689,0.564835
0.301694,0.375688,0.156778,-0.671453,0.165801,-0.722261
0.403851,-0.286718,-0.939682,0.079396,-0.140780,0.986852
-0.026144,-0.277144,-0.986822,0.095396,-0.082323,0.992030
0.116040,-0.160699,-0.559753,-0.534095,0.464958,-0.706085
-0.216033,0.310058,0.442142,-0.277263,-0.027431,0.960402
0.398662,-0.390004,-0.940280,-0.593209,0.789228,0.158815
0.335879,0.057833,0.203177,0.753519,-0.123444,-0.645733
-0.074212,0.621825,0.202192,-0.111540,-0.271652,0.955910
-0.043913,0.576937,0.190296,0.336055,0.817778,-0.467233
0.121325,-0.178543,-0.962871,0.026140,-0.085523,0.995993
0.158128,-0.002694,-0.110207,0.989601,-0.104355,-0.098994
-0.031196,0.370896,0.879716,0.911558,0.389739,0.131018
0.432671,0.004509,-0.438519,-0.033001,0.212954,0.976505
0.200890,-0.112072,-0.685130,-0.380224,-0.917700,0.115137
0.462412,-0.111554,-0.935188,-0.346152,0.084600,-0.934356
0.648719,-0.136899,0.038070,0.751215,0.536274,0.384820
0.317376,0.113140,0.199672,-0.064331,-0.212686,0.975001
-0.180509,0.337838,0.442801,0.893508,-0.444293,-0.065175
0.386447,0.077826,0.283374,-0.741507,0.611153,0.276873
0.552756,-0.112625,-0.929813,0.021567,-0.174541,0.984414
-0.205993,-0.468767,-0.966356,-0.079582,0.536563,0.840099
-0.372734,0.601624,0.731200,-0.239508,0.302704,-0.922500
-0.072089,0.575435,0.002524,0.806339,0.557098,0.198644
0.147668,-0.399602,-0.953806,-0.220394,0.361817,0.905823
0.248971,0.716182,0.072320,-0.885684,0.354578,0.299729
0.154399,-0.201191,-0.956492,0.038643,-0.151173,0.987752
0.086084,-0.072513,-0.438744,0.908267,0.236147,-0.345376
-0.595701,-0.772868,-0.204722,-0.728429,0.631818,0.264948
-0.310306,0.655372,0.743369,0.715088,0.558295,0.420662
0.259176,0.310326,0.396314,0.523628,0.571799,0.631553
0.030952,0.502694,0.454333,-0.029028,-0.199502,0.979467
0.163212,-0.046123,-0.911258,0.855980,-0.200260,-0.476649
0.011079,-0.225753,-0.980082,-0.194435,0.051499,0.979563
-0.061060,0.711621,0.170215,0.143103,0.977632,-0.154136
0.077824,-0.091480,-0.409527,-0.413277,-0.871667,0.263437
0.424730,-0.263931,0.137817,-0.623598,-0.695094,0.357729
-0.048631,0.147771,0.516750,0.781237,0.277349,0.559237
0.157780,0.104203,0.352627,0.759338,-0.342666,0.553161
-0.203535,0.449201,0.438995,0.485701,0.620493,-0.615697
0.154229,0.052079,0.419551,0.772574,0.634819,0.011553
0.509670,0.249072,-0.944829,0.884356,0.462524,-0.063138
-0.307032,-0.114155,0.766813,-0.530936,0.504966,0.680526
-0.468450,-0.887166,-0.016738,0.608503,0.432048,-0.665627
0.484832,0.244641,0.152382,0.983574,0.173762,-0.048867
0.457510,-0.283167,0.098744,0.691615,0.408623,0.595563
-0.075200,0.403875,0.175662,0.709804,0.169637,-0.683668
-0.236827,0.558897,0.313943,0.899913,0.332505,0.282130
-0.570665,-0.478390,-0.268736,0.015677,0.944202,0.328994
0.152201,-0.135508,-0.636537,0.620460,-0.743433,0.249672
-0.226817,-0.174908,0.551158,0.937215,-0.131212,0.323126
0.208580,-0.155825,-0.601542,-0.648062,0.761587,0.001373
0.155149,-0.080102,-0.581461,0.937833,0.275118,0.211610
-0.291820,0.470041,0.736047,0.759070,-0.461361,0.459303
0.101035,-0.363213,0.378290,0.421813,0.872806,-0.245525
0.395702,-0.018872,-0.951118,0.433414,0.815680,-0.383170
0.042115,-0.206974,-0.981492,0.335630,0.407218,0.849427
0.179817,0.025074,0.189835,0.759510,-0.550883,0.345938
-0.039959,0.062862,0.143597,0.001079,-0.422798,0.906223
-0.068416,-0.350297,-0.978291,0.219056,0.350940,0.910415
-0.037480,-0.049160,0.619272,0.351591,0.898872,0.261558
0.587207,-0.253492,-0.925084,0.430039,0.303379,0.850310
0.451658,0.317478,0.037026,0.915074,-0.186924,-0.357350
0.028648,0.642286,0.229690,0.369292,0.816419,0.443940
-0.223464,0.071259,0.102657,0.621010,0.201013,-0.757589
-0.021696,-0.420084,-0.977581,-0.237573,0.543659,0.804980
0.477820,-0.204378,-0.922952,-0.109528,0.171154,0.979137
-0.164172,0.246476,0.871894,0.886068,-0.132358,0.444258
-0.400902,-0.931713,-0.007290,0.908032,-0.013863,0.418671
0.485400,-0.242689,-0.938850,0.067135,0.677575,0.732383
-0.250158,0.617812,0.268017,-0.629322,-0.575246,-0.522538
0.181655,-0.100799,-0.947052,-0.790374,0.570740,-0.222631
-0.221279,0.113774,0.912663,0.449872,0.580572,0.678639
0.145490,0.629409,0.458977,0.382679,0.072979,0.920995
0.089219,-0.165735,-0.961167,0.164805,-0.052457,0.984930
-0.142794,0.514677,0.784295,-0.734906,0.511138,-0.445703
-0.207369,0.309445,0.478017,0.719571,0.639305,-0.271119
0.389167,0.083853,0.299501,0.820888,-0.529541,-0.213844
-0.053020,0.424415,0.475371,0.968836,-0.225386,-0.102748
-0.300015,0.489852,0.490386,-0.453025,-0.459964,-0.763676
0.277544,-0.266356,-0.970292,-0.408506,-0.025058,0.912411
0.224859,0.021899,-0.032185,-0.822136,0.517052,0.238223
-0.389219,0.286314,0.892387,-0.580086,0.554005,-0.597142
0.214677,0.011883,0.158891,-0.609982,0.033724,0.791697
-0.205936,0.094067,0.665351,0.847891,0.126963,0.514744
0.129886,-0.156131,-0.642387,0.985057,-0.083504,-0.150630
0.498090,0.111736,-0.956642,-0.614257,-0.107126,0.781801
0.109653,-0.350274,-0.971436,0.125658,-0.066552,0.989839
-0.153451,-0.443984,-0.957201,-0.154235,0.518999,-0.840745
0.140244,-0.186272,-0.653166,0.617877,0.626935,-0.474531
-0.247142,0.260616,0.910959,0.376349,0.605267,-0.701436
-0.186101,0.168908,0.923398,-0.763866,0.109340,0.636045
-0.105555,0.412077,0.774781,0.948934,0.255977,-0.184390
0.269670,-0.128431,-0.908901,0.716910,0.646407,-0.261149
0.491691,-0.265490,-0.440667,-0.619960,0.238359,-0.747553
0.133987,0.178479,0.218839,0.929350,0.368598,-0.021058
0.678334,-0.217763,0.256195,0.081204,-0.995732,0.043862
0.093724,0.102323,0.093431,0.932941,0.308997,0.184772
0.599293,-0.314589,-0.938167,-0.152089,-0.218740,-0.963858
0.659022,0.140343,-0.432139,0.203401,-0.343353,0.916917
-0.155510,0.309453,0.726623,-0.821208,0.037675,0.569383
0.534098,-0.171664,-0.945006,0.089331,0.239716,-0.966724
-0.166550,0.357486,-0.074566,0.039205,-0.436524,0.898838
0.177251,0.294323,0.211500,-0.208378,0.005508,0.978033
-0.025882,0.291020,0.865520,-0.434179,0.878604,-0.198855
0.362726,0.084676,-0.959999,0.880033,-0.132565,-0.456035
-0.052933,-0.268248,-0.989674,0.093460,0.388796,0.916571
0.015532,-0.259525,-0.970231,0.592056,0.484055,-0.644329
0.628811,-0.283285,0.208824,0.285789,0.563234,-0.775301
0.302037,-0.324767,-0.955531,0.705570,0.583373,-0.402303
-0.314159,0.343338,0.292055,0.885941,0.458213,-0.071760
0.126825,0.024778,0.056675,0.805410,0.546037,0.230562
0.340926,-0.067062,-0.936149,0.142958,0.092709,0.985377
0.416602,0.158198,-0.967621,0.027839,0.201534,0.979086
0.907966,-0.336682,0.258990,-0.277201,-0.080497,0.957434
-0.454739,0.542446,0.288483,-0.424576,-0.608548,-0.670377
-0.073519,-0.411580,-0.982133,-0.575292,-0.112623,-0.810157
-0.230469,0.265585,0.491112,0.059600,0.808084,0.586044
0.309654,-0.308499,-0.943632,-0.455942,-0.272400,0.847299
-0.217878,0.605635,0.715374,-0.601493,-0.796074,-0.066874
0.284652,0.021786,-0.955191,-0.091425,0.533542,0.840818
-0.038792,0.346951,-0.079462,0.459412,0.014708,-0.888102
0.028106,0.615562,0.491644,-0.121611,0.133484,0.983561
-0.013059,-0.017855,0.506264,-0.480353,0.851866,0.208770
0.232980,0.028727,0.196172,0.030617,-0.996628,-0.076120
-0.096026,-0.111270,-0.306659,-0.025712,0.877874,0.478202
0.111476,0.114644,0.531192,0.947837,-0.318476,-0.013348
0.501850,-0.162354,0.329202,0.862664,0.016696,-0.505502
-0.303617,0.359248,0.057428,0.655670,0.233082,0.718171
0.499921,-0.384303,0.195690,-0.344253,-0.208382,0.915460
0.468456,-0.089090,-0.933089,-0.271961,0.326415,-0.905257
0.355106,-0.035552,-0.938802,-0.347421,0.207089,0.914556
-0.254097,-0.116505,0.757771,-0.638816,-0.441431,-0.630121
-0.082775,0.309792,-0.047704,0.420341,0.192176,-0.886782
-0.231426,-0.752770,-0.109221,0.309821,0.894263,0.322961
0.126035,-0.226979,-0.954174,0.164894,-0.162863,0.972772
0.090009,-0.166738,-0.434289,0.985079,-0.170836,-0.020862
0.441462,0.108426,-0.956196,-0.042225,0.182288,0.982338
0.415378,0.016074,-0.940503,-0.318602,-0.110904,0.941378
0.282849,0.546102,0.075811,0.729962,0.626068,-0.274214
-0.033827,0.171790,0.189517,-0.572665,0.049926,-0.818268
-0.303328,0.613564,0.398635,0.825102,0.544525,-0.150662
-0.068791,0.586238,-0.045149,-0.228126,-0.919001,0.321551
-0.170577,-0.154782,0.721804,-0.497337,0.113068,0.860158
0.017883,-0.295114,-0.426931,0.952429,-0.034628,0.302787
0.294250,0.093971,0.214314,0.825531,0.564152,0.015229
0.229455,0.225114,0.038584,0.186890,0.407878,0.893704
0.169228,-0.179627,-0.638303,-0.060124,-0.508242,0.859113
0.499177,-0.037913,-0.426417,-0.142848,0.215606,0.965975
-0.137844,0.381584,0.516532,-0.007217,0.454537,0.890699
-0.336932,0.638791,0.762919,0.787979,0.544559,0.287306
-0.031293,0.251477,0.856000,-0.720510,-0.692126,-0.042742
-0.019771,0.306166,0.154570,0.245886,0.010593,0.969241
0.081744,0.252691,0.017868,0.843862,0.512392,-0.159224
-0.406931,0.297534,0.911165,0.260575,0.457413,-0.850220
-0.014262,0.229353,0.835862,-0.065021,-0.940656,-0.333074
-0.065758,0.343600,0.478890,0.365541,0.361583,0.857693
0.131682,0.279347,0.836947,0.279773,-0.896845,-0.342630
-0.246503,0.562238,0.746894,-0.309415,0.372834,0.874790
-0.010317,-0.261404,-0.417525,0.963028,-0.268964,0.015374
-0.038515,0.540130,0.476048,-0.406548,-0.371531,0.834676
0.189346,-0.110648,-0.927013,-0.244929,0.508738,0.825346
0.321325,-0.326844,-0.951373,0.622800,0.267946,-0.735068
0.152933,0.124846,0.193793,0.451971,0.406697,-0.793927
0.048481,-0.386529,0.751766,-0.371130,-0.880840,0.293910
-0.325322,0.311225,0.888144,-0.151160,-0.458765,0.875606
0.377044,0.046385,-0.962099,-0.307225,0.330393,0.892442
-0.353906,0.046289,0.555375,0.423044,-0.634709,0.646667
0.431666,-0.222175,-0.943178,0.580393,-0.076943,-0.810694
0.093931,0.116609,0.426885,0.933841,0.355649,-0.038143
0.327611,-0.332251,-0.945086,0.497125,0.259216,-0.828054
-0.174116,0.496042,0.781497,0.634428,0.484559,-0.602248
-0.801358,-0.326113,-0.328868,-0.035599,0.308233,0.950645
-0.491633,-0.714056,-0.178688,-0.599342,0.738794,0.308176
-0.018647,0.663147,0.466600,0.140778,0.200117,0.969606
0.379432,0.228367,-0.966333,-0.542384,0.629199,0.556712
-0.217657,-0.509331,-0.956616,0.611625,-0.109099,-0.783590
0.241732,0.039385,-0.965971,0.884855,0.145825,0.442455
0.054610,0.094569,0.512299,0.930830,-0.364512,0.026217
-0.182533,-0.227495,0.839839,0.423623,0.749358,0.508927
-0.242785,0.228608,0.793837,-0.099607,0.987935,0.118589
-0.006271,0.620873,-0.047281,0.893990,-0.084828,-0.439984
0.447243,0.242402,-0.944431,-0.790293,0.601321,-0.117684
0.226446,-0.098257,-0.624677,0.380832,-0.895804,-0.229133
0.823279,-0.329498,0.230915,-0.190924,-0.349904,0.917123
0.421220,0.173402,-0.951746,-0.217004,-0.370657,0.903063
0.640560,-0.234281,0.244003,0.365944,0.497403,-0.786559
-0.212033,0.498340,0.443544,0.819130,0.345135,0.458158
-0.122882,0.323487,0.930637,-0.359486,-0.753468,0.550505
-0.315735,0.555998,0.461076,0.580095,0.560405,0.591131
0.485160,-0.243824,-0.930780,0.248766,0.082170,0.965072
0.102714,-0.248053,-0.986938,-0.696736,-0.165330,0.698015
-0.182638,0.746634,0.185718,-0.233865,-0.889206,0.393218
0.150967,-0.092093,-0.388535,0.910455,0.409776,-0.056182
0.433275,0.142511,-0.966399,-0.057483,0.089322,0.994343
-0.106720,0.345358,0.100788,0.536137,0.843349,0.036326
0.101457,-0.120635,-0.459145,0.991153,0.064184,0.116172
0.120629,0.045507,0.089041,-0.665569,-0.735443,0.127052
0.524461,-0.107189,-0.946523,-0.237621,0.249184,0.938852
0.512994,-0.134838,0.413695,0.454169,0.613006,0.646494
0.599431,-0.294047,-0.919215,-0.099073,0.304277,0.947417
-0.212478,0.183151,0.892889,0.049397,0.892891,0.447555
0.975285,-0.318920,0.222154,0.751480,-0.653558,-0.090219
-0.568286,-0.648807,-0.288908,0.434389,-0.098915,-0.895278
-0.184518,0.549123,0.747115,0.848764,0.282406,0.447042
-0.337264,0.517174,0.774932,-0.162208,0.894644,0.416294
0.127732,-0.414853,-0.956317,0.092864,0.133740,0.986656
0.510987,-0.377356,-0.928805,0.381644,0.196962,-0.903080
0.383067,0.035112,-0.962808,-0.288755,0.479974,0.828399
-0.010175,-0.313941,-0.435709,0.890614,0.103897,0.442732
-0.327091,0.666262,0.740521,0.878172,0.397331,0.266350
0.234966,-0.121080,-0.758578,-0.008227,0.999503,0.030435
-0.198436,-0.483339,-0.968158,0.225731,0.111595,-0.967777
0.486938,-0.092192,-0.927771,-0.332651,0.279012,0.900831
0.551433,-0.306349,0.204279,-0.134899,-0.481227,0.866154
-0.211774,-0.475232,-0.970635,-0.604266,0.507585,0.614183
0.345871,-0.163440,-0.928671,-0.120966,0.301729,-0.945689
-0.092655,-0.318126,0.735462,0.810116,0.557940,-0.180042
0.098735,0.005918,0.866739,-0.653514,0.649263,-0.389073
-0.075120,0.290886,0.848555,-0.742337,-0.656457,0.134161
0.411905,-0.165375,0.215662,-0.243645,-0.153327,0.957668
0.051746,-0.234360,-0.975380,-0.087888,0.418004,0.904184
0.163758,-0.032512,-0.193986,0.248867,0.966359,-0.064932
0.229646,0.150066,0.225370,0.547945,0.746665,0.377158
-0.190359,0.298587,0.889847,-0.317208,0.910999,-0.263552
0.365810,-0.294845,-0.946658,0.001048,0.315778,0.948833
-0.403138,-0.049543,0.532595,0.193687,-0.742459,0.641279
-0.067904,0.550857,0.190195,-0.775623,0.549724,-0.310181
0.135167,-0.284237,-0.954636,-0.166695,0.007826,0.985977
-0.165732,0.618559,0.114920,-0.375337,0.657158,-0.653655
-0.161314,0.017684,0.138816,-0.650702,0.123755,0.749181
-0.207237,0.233485,0.130540,-0.308139,0.754063,0.580034
0.145934,-0.034536,-0.420906,0.962563,-0.107493,-0.248831
-0.358494,0.478313,0.448182,0.881416,-0.229099,0.413061
-0.020787,0.418304,-0.045614,-0.320166,0.585976,-0.744396
0.705590,-0.258137,0.272036,0.249444,0.821979,-0.511985
0.189607,-0.028447,0.168855,0.420334,0.905823,-0.052943
0.130896,-0.086081,-0.548898,-0.760173,-0.540921,-0.359920
0.142739,-0.461501,-0.960132,0.218896,-0.308808,-0.925593
0.145918,-0.109427,-0.386795,0.181640,-0.947888,0.261755
-0.173650,-0.496471,-0.972334,0.160610,-0.351365,-0.922360
0.208455,-0.198187,-0.954498,0.433967,0.590995,-0.679998
0.189322,-0.078442,-0.674697,-0.126081,-0.974074,0.187839
0.255911,-0.247568,-0.964055,0.017444,-0.540369,0.841248
0.493344,-0.291829,-0.924608,-0.628079,0.132957,0.766706
0.276460,0.152007,0.340255,-0.164866,0.906424,-0.388864
0.126065,-0.169600,-0.971094,-0.304966,-0.900774,0.309195
0.212598,0.095822,-0.004085,0.614721,-0.624474,-0.481821
-0.234489,0.296209,0.897323,-0.526983,-0.080988,0.846008
-0.024197,0.751335,-0.046883,0.008707,-0.942582,0.333861
-0.068317,-0.356509,0.740335,0.151767,0.733493,0.662536
0.038827,-0.435301,-0.961332,0.382751,0.414085,-0.825854
-0.221210,0.341306,-0.087701,-0.055161,-0.601244,0.797160
-0.112648,-0.282490,0.638636,0.936728,-0.330933,0.114120
-0.320143,0.486238,0.069872,-0.528797,0.550356,0.646128
-0.203056,0.885887,0.480905,-0.358812,-0.436024,0.825310
0.048873,0.667553,-0.028906,-0.056171,0.903638,0.424597
0.026539,0.116789,0.514795,0.515792,0.747179,0.419145
0.433430,0.086494,-0.949365,0.012622,0.068257,0.997588
-0.125637,-0.496070,-0.952362,-0.105531,-0.039042,0.993649
0.047892,-0.287771,-0.969761,-0.424599,-0.540781,0.726135
0.135215,-0.143306,-0.616057,0.857000,-0.510509,-0.070228
0.263771,-0.241810,-0.954325,-0.069421,-0.606885,0.791752
-0.062111,0.326587,-0.115781,0.431964,0.631133,-0.644266
0.347270,0.291264,0.160577,0.002460,-0.730391,0.683024
-0.339529,0.488787,-0.064611,-0.270801,0.586325,0.763473
-0.166000,-0.303829,0.843608,0.461703,-0.100455,0.881328
-0.294788,0.097563,0.608764,0.782909,-0.583345,-0.216246
0.093359,-0.423822,0.754493,-0.275395,0.483483,-0.830904
0.306899,-0.320175,0.186403,0.025094,0.494690,0.868707
-0.089181,0.444506,0.468272,0.026417,0.203356,0.978749
-0.277021,-0.349175,0.773120,0.651670,0.714390,0.254898
0.206609,-0.032912,-0.922323,-0.093646,0.731977,0.674863
0.208207,-0.175606,-0.940521,0.253579,-0.418502,0.872097
0.327823,0.342398,0.088910,0.827905,-0.098403,0.552169
0.081128,0.616164,0.207497,-0.041527,0.801770,0.596188
0.352208,0.022579,-0.950187,0.171230,-0.631564,-0.756179
0.291627,-0.359939,-0.941749,0.184666,-0.014967,-0.982687
0.185680,0.263804,0.436063,-0.747526,0.174739,-0.640836
0.119931,-0.211737,-0.960799,0.093320,-0.045976,0.994574
-0.220117,0.675649,0.463067,-0.252920,-0.288998,0.923316
0.428857,0.037734,-0.955020,-0.141824,0.406590,0.902536
0.228560,-0.075688,-0.885695,-0.021810,0.940865,0.338079
0.263529,-0.120237,0.088431,0.472908,0.678059,0.562667
0.491250,-0.047985,-0.952261,-0.144356,-0.050088,-0.988257
0.271889,-0.098608,0.084172,0.466075,0.577129,0.670594
0.138801,0.062701,0.184991,0.895936,0.346397,0.278042
0.289279,-0.374489,-0.949082,0.085334,-0.286518,0.954267
0.025990,0.304989,-0.027699,0.944469,-0.038337,-0.326356
0.004975,-0.317804,-0.962754,0.081695,0.183606,0.979599
-0.199507,0.299150,0.921294,-0.106213,0.958022,-0.266294
-0.252357,0.286217,0.901816,0.229544,0.651507,-0.723082
-0.081802,0.419312,0.457447,-0.301002,-0.047919,0.952419
-0.276034,0.827671,0.189242,0.473087,0.537025,-0.698422
-0.081511,-0.338739,-0.966299,-0.067037,0.296179,0.952777
0.087750,-0.294624,0.338343,0.446633,0.846984,-0.288334
0.252221,-0.020684,-0.938659,-0.100195,-0.364913,-0.925635
0.228807,0.214133,0.044207,-0.550678,-0.194482,-0.811745
-0.001752,0.608108,0.204270,-0.297504,-0.080895,0.951287
0.220860,0.623445,0.032342,-0.212507,-0.094003,0.972627
0.194880,-0.108356,-0.962449,-0.311085,-0.582667,0.750816
-0.230712,0.605582,0.468514,0.202963,-0.032805,-0.978637
0.018404,-0.452056,-0.967742,0.819344,-0.515779,0.250296
-0.015890,0.317344,0.482506,0.116199,0.535026,0.836806
-0.070033,0.181521,0.685529,0.688747,-0.491382,0.533077
0.235050,-0.196660,-0.951942,-0.170852,-0.441914,0.880637
0.007986,0.604274,0.201285,-0.488125,0.243212,0.838202
-0.248696,0.360056,0.696711,0.728497,0.684254,-0.032988
-0.132689,0.851309,0.486461,-0.150716,0.474099,0.867476
-0.095017,0.411579,0.779666,0.895302,0.196966,-0.399548
0.228382,-0.150894,-0.767953,0.531206,-0.846867,-0.025249
0.060551,0.659888,-0.019541,0.006826,0.950138,0.311755
-0.162670,0.806483,0.523414,0.980911,-0.170464,0.093569
-0.461760,0.133330,0.359733,0.810135,0.370574,0.454265
0.352459,0.040756,-0.959681,-0.300153,0.096326,0.949015
-0.337657,0.617951,0.739031,0.147905,-0.498866,0.853965
-0.068752,-0.417434,-0.981015,-0.559757,-0.491246,0.667345
0.024644,-0.434492,-0.959784,-0.588142,-0.116240,0.800361
-0.270407,-0.001883,0.319381,-0.605010,-0.670892,0.428797
0.129007,-0.036793,-0.260629,0.448577,0.869305,-0.207577
0.463338,-0.124755,-0.929753,-0.035021,-0.857644,0.513051
0.602602,-0.193931,0.228482,0.787477,0.308112,-0.533804
-0.107164,0.123571,0.436947,-0.095515,-0.308004,0.946578
-0.017242,0.298237,0.483356,-0.582370,0.790265,0.190597
-0.334469,0.423599,0.305154,0.745802,0.462168,-0.479771
-0.154403,0.575974,-0.127244,0.172150,0.951523,0.254888
-0.218359,-0.330169,0.742123,-0.016665,0.637259,0.770470
0.124007,-0.279283,-0.955900,-0.160949,0.250569,0.954626
-0.033177,0.509291,0.473493,0.487479,0.168323,-0.856756
0.173947,0.027971,-0.002527,0.881319,-0.466537,0.074974
-0.148041,0.050503,0.130677,-0.650702,0.123755,0.749181
0.255023,0.112896,0.228074,0.425074,0.881366,0.206168
0.001256,0.519668,0.465345,0.001501,-0.403659,0.914908
0.611399,-0.251354,0.211810,0.576519,0.454575,-0.678961
-0.247799,-0.750443,-0.089522,0.219529,0.842608,0.491751
0.508405,0.184618,-0.968871,-0.439027,0.383482,0.812525
-0.028530,-0.137005,-0.503078,-0.332828,0.249512,-0.909378
0.722026,-0.101025,0.229140,-0.404357,-0.463151,-0.788661
-0.209735,-0.338480,-0.287328,0.320043,-0.641436,0.697232
-0.157880,0.598957,0.461085,0.277074,0.102561,-0.955359
-0.219816,0.533701,0.470961,-0.291642,-0.067032,-0.954176
0.180865,0.907027,0.032156,0.743165,0.120448,-0.658178
-0.212369,0.315879,0.434247,0.267604,-0.147317,-0.952200
-0.031495,0.001505,0.563136,0.732386,-0.462090,0.500084
0.139395,0.088106,0.319557,0.995741,-0.087946,0.027654
0.223313,0.340872,0.389388,0.422351,0.892183,0.160087
-0.042805,0.605165,-0.020315,-0.547246,0.418679,-0.724727
0.358041,-0.035495,-0.941993,-0.297706,0.339524,0.892241
-0.043316,0.638162,-0.051181,0.847429,0.440109,-0.296931
0.122769,-0.109235,-0.596644,-0.467477,-0.615203,0.634816
-0.420017,0.544633,0.660112,-0.021529,-0.990793,0.133662
-0.033062,0.358292,0.451125,0.846043,0.532906,-0.014926
-0.338537,0.618535,0.402994,0.782863,0.616508,-0.083925
0.441502,0.190993,-0.946226,0.063381,0.151680,0.986396
0.479021,-0.105680,-0.936465,0.975551,-0.188128,0.113614
0.198821,-0.234053,-0.299170,0.857883,0.511884,0.044846
-0.074591,0.114488,0.439084,0.003091,-0.246519,0.969133
0.122693,0.657581,0.151645,0.433328,-0.881571,-0.187243
-0.211686,0.267218,0.502669,-0.088622,-0.102051,0.990824
-0.312713,0.037959,0.941258,-0.008575,0.479725,0.877377
0.289267,0.371032,0.099824,0.701338,0.232753,0.673759
0.404274,0.010119,-0.959997,0.159870,-0.859671,-0.485189
0.175212,0.019047,0.187956,0.839866,-0.156372,0.519782
-0.118750,0.426845,-0.049388,0.213064,0.906562,-0.364348
0.584144,0.200175,-0.411471,0.118042,-0.256409,0.959333
0.122798,0.862307,0.007104,-0.480429,0.509428,0.713913
0.329850,-0.277413,-0.934071,0.095634,-0.062685,0.993441
0.638321,0.201640,-0.415677,0.120232,-0.309390,0.943304
0.317874,0.092293,-0.982599,-0.465269,0.163927,0.869858
0.520778,-0.152024,0.225632,-0.227771,-0.147563,0.962468
-0.157760,0.464453,0.824237,0.999315,0.029051,0.022943
-0.285954,-0.234312,0.791984,-0.398665,-0.689706,0.604460
0.291270,-0.227822,-0.146116,0.916166,0.399645,-0.030388
-0.136676,0.496043,-0.049206,-0.448766,0.185022,0.874286
-0.310541,0.680270,0.458703,0.396406,-0.049744,-0.916727
-0.211817,0.480568,0.777338,0.190356,0.980310,-0.052502
0.530723,-0.081256,-0.947267,-0.567115,0.220212,-0.793654
-0.073671,0.016568,0.477815,-0.374926,0.520688,-0.767017
-0.387029,0.458573,0.299394,-0.407366,-0.639395,-0.652094
0.529158,-0.003252,-0.948657,-0.174154,0.593948,0.785427
-0.090616,0.257450,0.709985,-0.336308,0.443062,0.831019
0.136387,0.053613,0.294680,0.668752,0.614156,0.419025
0.454249,-0.523815,0.170417,0.463614,-0.082011,-0.882234
0.111847,-0.046898,0.849008,-0.653514,0.649263,-0.389073
0.488186,0.123502,0.324429,0.980140,0.184839,0.071832
-0.110916,0.197311,0.729153,0.499694,-0.767898,0.400796
-0.170995,0.540331,0.813267,-0.436194,-0.480043,0.761113
0.229854,-0.140781,-0.738171,0.164616,-0.966052,0.199110
-0.145850,-0.393319,-0.962220,-0.365319,0.929569,0.049426
0.142195,-0.138065,-0.643115,-0.708213,0.666461,-0.232948
-0.655201,-0.477396,-0.309550,-0.575917,0.626978,-0.524612
0.152627,0.230945,0.450327,-0.685998,0.419093,-0.594784
0.493132,-0.101051,-0.927014,-0.226989,0.110060,0.967658
-0.440285,0.282127,0.914351,0.552263,0.666713,0.500500
0.106430,-0.051432,0.833873,-0.653514,0.649263,-0.389073
-0.207371,-0.187285,0.783179,0.370734,-0.294145,0.880928
0.257321,-0.065232,-0.922347,0.177548,0.734980,0.654432
0.030246,0.101294,0.553984,0.983571,-0.081042,0.161307
-0.072530,-0.339726,0.820684,0.450753,-0.235166,0.861115
0.416599,-0.207418,-0.949124,-0.389225,0.135113,0.911180
-0.075102,0.512587,0.463836,-0.278202,-0.150312,-0.948689
-0.387525,0.572220,0.733327,0.802346,-0.514616,-0.302341
0.702717,-0.246920,0.218548,0.045394,-0.673940,0.737390
-0.182876,0.688066,0.157538,-0.594580,0.240616,0.767188
0.115285,-0.376355,-0.954874,0.146171,0.761097,0.631954
0.100370,-0.429716,0.264093,0.864716,0.501885,0.019404
0.511601,0.080791,-0.422212,-0.172298,0.162467,0.971554
0.428083,0.287746,0.156897,0.691253,0.682931,-0.236167
-0.433773,0.395210,0.442768,0.584007,0.374237,-0.720335
0.215611,0.046068,0.066585,-0.646109,0.738477,0.192860
-0.317228,-0.006558,0.946040,0.239458,-0.686561,-0.686508
-0.075509,0.321582,0.857469,-0.567625,-0.299906,-0.766719
0.507986,0.144795,-0.934406,0.033867,0.264342,0.963834
-0.247120,0.367527,0.383011,0.802326,0.574740,0.161081
0.297803,0.026430,0.204749,-0.448047,-0.090244,-0.889444
-0.199463,-0.816515,-0.187185,0.610747,0.763659,-0.209315
-0.205681,0.441757,0.083951,-0.036642,-0.646606,0.761944
-0.096363,0.582970,-0.102854,0.384930,0.920692,0.064462
0.275279,-0.213901,0.088783,0.371270,0.323190,0.870464
-0.228026,0.345506,0.470501,-0.151878,-0.848604,0.506759
0.008285,0.467484,-0.075873,0.973675,-0.204327,-0.101032
0.070456,-0.291923,-0.964220,-0.129576,-0.136186,0.982173
-0.173309,-0.406337,-0.312120,0.093991,0.959623,0.265122
-0.428706,0.728469,0.768701,-0.470299,0.542078,-0.696398
-0.013004,0.482004,0.018072,0.007113,0.999939,-0.008485
-0.166782,0.211667,0.937078,-0.747459,-0.275536,0.604471
0.181177,-0.098945,-0.884982,-0.673692,0.586375,-0.449782
0.259295,-0.255399,-0.960251,-0.156263,0.527941,-0.834782
0.443391,-0.017905,-0.936612,-0.003647,0.162762,0.986659
0.452332,0.170935,-0.967726,-0.267658,0.911029,0.313663
0.941207,-0.470313,0.257911,-0.259428,0.617522,0.742539
0.471110,-0.251439,-0.928378,-0.032004,0.174062,0.984214
-0.052696,0.275894,0.834350,-0.192643,-0.979878,-0.052225
0.134907,0.135212,-0.035579,-0.540119,-0.099313,-0.835708
0.008868,0.319630,0.911031,-0.491845,0.204694,-0.846279
-0.409337,0.257658,0.925578,0.272623,0.961926,0.019380
-0.190964,0.411168,-0.070840,0.119944,-0.661233,0.740529
0.062258,0.672768,0.470360,0.088374,0.829898,-0.550871
0.270637,-0.325034,-0.942412,-0.166511,0.021677,0.985801
-0.111540,0.563030,0.458106,-0.062846,-0.163616,0.984520
0.478341,-0.120109,-0.925218,0.315596,-0.234764,-0.919394
-0.118878,-0.091221,0.664070,-0.268473,-0.761491,-0.589962
-0.069091,0.563030,0.180988,0.486798,0.738393,-0.466694
0.144408,0.102947,0.338960,0.904123,-0.353482,0.240027
-0.071843,0.342594,-0.009825,-0.606814,0.594278,0.527836
-0.142858,0.647584,0.201793,-0.744723,0.236942,0.623896
-0.405773,0.401893,0.459486,0.614183,0.433958,-0.659136
0.530795,-0.043042,0.317725,-0.695762,-0.582100,0.420803
-0.244221,0.415567,0.906865,0.133769,0.858738,0.494646
-0.159396,0.370573,0.449117,0.984724,-0.111888,0.133412
0.394297,-0.159418,0.191090,0.842758,0.271174,-0.464998
-0.007499,0.305921,0.841757,-0.329409,0.895843,0.298255
0.166260,-0.182878,-0.592251,0.887707,-0.459288,0.032108
-0.140132,0.283898,0.702100,0.569323,0.711101,-0.412561
0.413153,0.121213,-0.949617,0.153465,-0.024666,0.987846
0.476937,-0.208377,-0.946409,-0.014966,-0.332117,0.943119
-0.023842,0.427925,-0.053216,-0.227049,-0.712019,0.664438
0.611667,-0.073321,-0.920949,-0.676270,-0.114820,0.727650
0.448008,-0.290864,-0.933719,0.080506,-0.264559,0.961003
0.179365,-0.147187,-0.666983,-0.189109,0.772654,0.606006
0.490941,-0.244277,-0.932796,-0.182352,0.382439,0.905808
0.121322,-0.078474,-0.295351,-0.555945,0.782791,0.279577
-0.064198,0.373240,0.473219,0.529256,0.479172,0.700201
0.583537,-0.277917,-0.923461,0.189324,0.162038,-0.968453
-0.296799,0.171398,0.798465,-0.455018,0.267107,-0.849478
0.046418,-0.379243,-0.975512,-0.300303,0.302264,0.904685
-0.077392,-0.479027,-0.963548,-0.165336,0.434115,0.885555
0.048304,0.047484,0.432594,0.003620,-0.995650,0.093099
-0.053640,0.529821,-0.019972,0.779488,-0.590400,-0.209348
-0.099892,0.612432,0.050727,0.856364,-0.301165,-0.419452
0.027483,0.558700,0.469219,0.169777,-0.343421,0.923709
-0.295060,0.260603,0.913203,0.019079,-0.831216,0.555622
-0.161422,0.155657,0.640890,0.178649,0.953549,-0.242546
-0.167131,-0.475657,-0.957073,0.148934,0.198754,0.968667
-0.122601,-0.236099,0.762485,-0.523210,0.781725,0.339349
0.074492,0.263845,-0.051648,-0.296036,0.014798,0.955062
0.079639,0.130945,0.516552,-0.640519,0.321274,0.697508
0.469585,0.058944,-0.953230,-0.210384,0.202108,0.956499
0.471149,0.015089,0.309404,0.908602,0.374491,-0.184930
0.255761,0.060151,0.084474,0.024865,-0.013038,0.999606
-0.308119,0.542884,0.470945,0.538075,0.715018,0.446346
-0.266285,0.524791,0.334051,0.860727,0.495867,0.115177
0.389993,-0.066197,-0.921577,-0.084882,0.414661,0.906008
0.460302,-0.111765,-0.933179,-0.300365,0.064448,-0.951644
0.097885,-0.087396,-0.497940,-0.734804,0.608763,0.299114
-0.008757,-0.051723,0.641354,0.500128,-0.864012,0.057917
-0.164107,0.281696,0.400728,0.898971,0.092015,-0.428234
-0.121903,0.441583,0.457465,-0.206659,-0.168412,0.963810
-0.568905,-0.889167,0.040148,-0.214558,-0.434026,0.874978
-0.526622,-0.375141,-0.321472,0.278263,-0.511048,0.813264
-0.367479,0.106225,0.472641,0.051515,0.681465,0.730035
0.495959,0.201854,-0.947327,-0.389937,0.028130,0.920412
-0.323769,-0.148729,-0.148371,0.930139,-0.173554,-0.323606
-0.053011,0.367211,0.160689,-0.555843,-0.522444,0.646599
0.132605,-0.129627,-0.486461,0.847219,-0.049761,0.528909
-0.173573,0.298402,0.922351,-0.333164,0.686499,-0.646314
0.427421,-0.083174,-0.953549,-0.364393,0.596661,0.714992
0.079635,0.671447,0.469954,0.088374,0.829898,-0.550871
0.848733,-0.221820,0.259843,-0.400174,0.021137,0.916196
-0.121175,0.381342,0.769113,0.976958,-0.211987,-0.024779
-0.128544,0.075675,0.158967,-0.429367,0.731343,-0.529888
-0.158367,0.535577,0.809617,-0.540500,-0.139497,0.829699
0.123494,0.615074,0.024850,0.816372,0.426274,0.389651
-0.215040,0.692087,0.155226,0.394791,0.431982,0.810883
-0.269332,0.451147,0.372318,0.914266,0.160938,0.371775
-0.168039,0.346193,0.499593,0.874695,0.250405,-0.414977
0.084564,0.081522,0.365976,0.714922,0.696848,0.057353
0.402560,-0.030499,-0.935685,0.159477,0.224394,0.961361
-0.022911,-0.069350,0.612521,0.803590,-0.563057,-0.192897
0.125118,-0.138067,-0.598422,0.058123,-0.963668,0.260703
0.140619,-0.169805,-0.945363,0.848155,-0.284175,-0.447076
-0.208922,-0.512398,-0.950928,0.384239,-0.167892,-0.907839
-0.377324,0.486967,0.732704,-0.493057,0.862380,-0.114871
-0.077584,1.000000,0.454374,0.815639,-0.216300,0.536608
0.387757,-0.360683,-0.926625,0.303266,0.593366,-0.745618
0.048793,-0.283179,-0.965584,0.574572,0.535122,-0.619283
-0.164007,0.334274,0.540492,0.474067,0.850669,-0.227207
-0.065755,0.333606,0.893127,0.226268,-0.102710,0.968635
0.068350,0.280215,0.820307,-0.149712,0.173349,0.973415
0.146927,0.648330,0.212194,-0.671941,0.401849,0.622104
-0.687851,-0.437743,-0.311798,0.057758,-0.186558,0.980745
0.601977,-0.306480,0.219633,0.168760,-0.851306,0.496787
0.122139,0.047394,-0.192810,-0.466588,-0.456656,0.757470
0.635514,-0.260646,-0.927698,-0.606648,-0.015523,0.794819
-0.193324,0.565882,0.794168,0.915088,0.335540,-0.223669
0.408651,0.356286,0.033403,0.197030,-0.146648,0.969368
-0.225207,-0.172657,0.785567,-0.301234,0.168902,-0.938472
0.339386,-0.289469,0.125861,0.527169,0.842382,0.111738
0.291372,0.018351,0.234825,0.446914,-0.870099,0.207836
-0.052319,0.591813,0.041814,0.985340,-0.118387,-0.122840
0.497239,-0.306880,-0.439072,-0.619960,0.238359,-0.747553
-0.090153,0.127125,0.647852,0.961757,-0.114849,0.248662
0.097786,-0.439806,-0.962105,-0.122056,0.223994,0.966917
-0.219603,0.373019,0.698995,0.682082,0.603660,-0.412746
0.030965,0.211355,0.586580,0.299012,-0.399067,0.866798
0.221459,0.799285,-0.000337,0.982875,0.183771,0.013610
-0.488586,-0.043493,0.668804,-0.567619,0.749648,0.340349
0.006455,0.690774,0.193428,0.419826,0.809663,0.410113
-0.005358,-0.496359,-0.946653,0.355867,-0.448396,0.819939
0.418113,0.130887,-0.954393,-0.125344,0.176957,0.976205
0.081007,0.375212,0.174071,-0.593429,-0.799242,0.095151
-0.211447,0.394643,0.683914,0.677005,0.564447,-0.472296
-0.032207,0.566776,0.209784,-0.399534,0.523674,0.752422
0.178353,-0.159172,-0.962326,-0.230989,-0.503824,0.832350
-0.246203,0.577370,-0.154123,-0.161782,0.877096,0.452249
0.101657,-0.391379,-0.948273,0.647598,0.494815,-0.579461
-0.151480,0.639040,0.465355,0.206271,0.177606,-0.962241
-0.051617,0.269068,0.848424,0.526984,0.830934,-0.178430
0.546044,-0.179848,-0.943078,0.162791,0.232778,0.958808
0.832635,-0.300181,0.257267,0.493493,0.578400,-0.649553
-0.195030,0.201432,0.874630,0.220169,0.621214,0.752077
0.005447,0.289718,-0.049411,0.966875,-0.163412,-0.196087
-0.008278,0.230902,0.580446,0.889837,-0.131471,0.436927
-0.319651,0.179606,0.365079,-0.526539,-0.482220,0.700158
-0.053594,0.263713,0.727632,0.935462,-0.192417,0.296456
0.897935,-0.389801,0.259691,-0.032561,0.024433,0.999171
-0.095294,0.503290,-0.033386,0.760760,-0.153459,-0.630630
0.521346,0.010919,-0.421296,-0.256754,-0.069319,0.963988
0.184424,-0.108399,-0.941619,0.878963,0.207307,-0.429474
0.457099,0.101588,-0.966812,0.079379,-0.851166,-0.518860
-0.143861,0.543365,0.695001,0.944785,0.319994,0.070602
0.440369,0.005729,-0.953353,-0.442771,-0.214590,0.870577
-0.085068,0.443525,0.457845,-0.254892,0.141304,0.956589
-0.335361,0.661625,0.773800,0.332037,0.672783,0.661146
0.097194,-0.117686,-0.427538,0.924273,-0.193208,0.329226
-0.296272,0.535461,0.355876,0.901905,0.007348,0.431873
-0.112191,0.731509,-0.004924,-0.337258,0.379920,-0.861347
0.147269,-0.085764,-0.353152,0.839542,0.429316,0.332953
-0.201998,0.053987,0.399959,0.597881,0.689575,0.408686
0.007110,0.553161,0.476216,0.082505,0.439408,-0.894491
0.150067,0.260962,0.458389,-0.622383,0.199564,-0.756845
0.148987,0.569794,0.027232,0.033545,0.263535,0.964066
-0.022288,-0.044943,0.914548,-0.541345,0.247769,-0.803465
0.216308,-0.003994,0.111047,-0.736288,-0.661469,-0.142613
-0.475431,-0.880796,0.031048,-0.721753,0.090836,-0.686165
-0.457963,0.496950,0.678198,-0.697172,-0.658784,-0.282764
-0.331277,0.524627,0.696098,-0.708125,-0.581614,0.400355
0.378532,0.119844,-0.965924,0.310087,-0.012092,-0.950631
0.433965,-0.360096,0.121347,0.844275,0.374965,0.382884
0.208272,0.045199,-0.081640,0.882350,0.207107,0.422569
0.157209,-0.430776,-0.966600,-0.231845,0.254417,0.938893
-0.415929,0.542245,0.741454,0.206366,-0.633295,0.745889
0.545348,-0.005938,-0.916783,-0.007955,0.315018,0.949052
-0.024481,-0.445781,-0.969479,0.276576,0.586342,0.761386
0.263773,-0.358919,-0.940767,-0.691287,-0.266228,-0.671748
0.217238,-0.202281,-0.965171,0.331147,0.688247,-0.645490
0.464441,-0.077933,-0.923810,0.228242,0.527048,0.818612
0.087612,0.150680,0.457750,0.944188,-0.311970,-0.105757
0.079791,-0.103283,-0.964823,-0.273352,-0.342402,0.898910
0.163235,-0.110623,-0.637437,0.837148,-0.532599,-0.124585
0.307005,0.025180,0.254298,-0.386126,0.812144,0.437411
0.030606,0.538146,0.232166,-0.190559,-0.017226,0.981525
-0.149386,0.278536,0.678407,0.951285,0.263497,0.160081
0.123594,-0.103468,-0.345730,0.737361,0.675285,0.016993
0.439326,0.063514,-0.426133,0.528021,-0.101991,-0.843085
-0.048313,0.004554,0.420295,-0.770647,0.543846,0.332166
0.235400,-0.102337,-0.684692,-0.522720,-0.850919,-0.051975
0.175431,-0.134289,-0.691595,0.070242,0.976863,0.201999
0.426162,0.044580,-0.953681,-0.160729,0.381579,0.910255
0.428591,-0.163284,-0.936880,0.745344,0.561015,0.360173
0.160700,-0.062495,-0.287557,-0.316600,-0.822645,0.472249
-0.414126,0.318385,0.912554,-0.021900,-0.419086,0.907682
-0.501599,-0.788901,-0.104567,-0.666381,-0.317695,-0.674542
-0.280712,0.376701,0.347600,0.804592,0.175505,-0.567301
-0.051156,-0.127519,0.738532,0.958487,0.224663,0.175584
-0.281269,-0.004816,0.501520,0.071436,0.894159,0.442014
0.412959,-0.112874,0.454608,-0.579528,0.240041,-0.778799
-0.153626,0.200242,0.740953,-0.658667,0.734703,0.162386
0.368404,-0.363739,-0.932757,0.519112,0.640531,-0.565900
0.315487,-0.280573,-0.952496,-0.207031,0.121714,0.970734
-0.187992,-0.465842,-0.972618,-0.179254,0.450311,0.874693
0.469622,0.199442,-0.967785,0.519944,-0.315969,-0.793613
0.104895,-0.170690,-0.667373,0.996768,-0.067481,0.043581
-0.093003,0.264498,0.868714,0.309773,0.569606,0.761308
0.021674,-0.230849,-0.976938,0.093954,0.096000,0.990937
-0.420602,0.447161,0.726477,0.386142,0.030303,0.921941
0.424810,0.090304,-0.950006,-0.391662,0.147213,0.908256
0.168737,-0.253905,-0.976499,-0.048720,0.065257,0.996678
-0.278569,0.336942,0.914876,0.373858,0.485618,-0.790193
0.244972,-0.147851,-0.931023,-0.065565,-0.854240,0.515728
-0.355477,0.429368,0.458234,0.456767,-0.282419,-0.843566
-0.152584,0.875408,0.469892,0.884231,0.042993,0.465066
-0.125232,0.336017,0.670895,-0.417691,-0.907425,0.045987
0.038713,-0.433039,-0.952748,0.476163,0.143799,-0.867520
0.138505,0.024384,0.602323,0.775802,0.630466,0.025357
-0.162717,-0.406687,-0.320956,0.182652,0.836214,0.517092
-0.683812,-0.408780,-0.300890,0.081300,0.255631,0.963350
-0.013201,-0.445720,0.753725,0.296415,0.926355,0.232390
-0.179752,0.321229,0.447627,0.570228,0.573771,-0.587901
0.015327,0.502225,0.224093,-0.158047,-0.371740,0.914784
-0.388262,0.426559,0.492351,0.555442,0.576194,-0.599571
0.342204,-0.027524,-0.958580,0.375317,0.776370,0.506347
0.188023,0.160159,-0.047727,0.847715,-0.026715,-0.529779
-0.098550,0.412877,0.822230,0.909033,-0.322894,0.263437
-0.192698,0.586359,0.805779,-0.556944,-0.830069,0.028270
-0.299972,0.394295,0.945590,-0.183889,-0.215455,-0.959043
-0.274991,0.617678,0.436002,0.457424,-0.300683,-0.836871
-0.092199,-0.495293,-0.956148,-0.003804,-0.007767,0.999963
-0.346257,0.179782,0.321451,0.947301,-0.047888,-0.316745
0.514856,0.022218,-0.950896,0.577512,0.762098,0.292723
-0.215651,0.480434,0.302353,0.415436,-0.790810,0.449480
0.200432,-0.084929,-0.898883,0.939436,-0.253236,-0.230936
0.373902,-0.235264,-0.933754,0.429802,-0.030602,-0.902404
0.107257,0.053906,0.216133,0.979315,0.199910,0.031287
-0.240082,-0.285651,0.491277,0.959503,0.280820,-0.022249
0.146429,-0.129437,-0.966089,-0.180839,-0.417061,0.890706
0.048242,-0.436031,-0.956499,-0.497372,-0.370276,0.784548
0.039577,-0.434589,-0.954168,0.476163,0.143799,-0.867520
0.667265,-0.104020,0.238719,0.596522,0.654225,0.464920
0.405707,-0.002837,0.228815,-0.721172,0.320383,-0.614219
-0.220143,-0.457781,-0.984555,-0.529853,0.195091,0.825345
-0.532955,-0.971263,-0.000178,-0.306738,-0.586617,-0.749528
-0.086436,0.250906,-0.158716,0.522217,0.671888,-0.525220
-0.154493,0.092011,0.656064,-0.026583,0.779294,0.626095
-0.137895,0.311004,0.764589,0.998346,-0.023866,-0.052296
-0.182363,0.469415,0.450885,0.693552,-0.106151,-0.712543
-0.112894,0.522158,0.450684,0.101310,0.104710,0.989329
0.165717,0.053931,0.198393,-0.506886,-0.754846,-0.416263
-0.408147,-0.365973,-0.235750,0.326098,0.943969,-0.050828
0.079176,-0.377933,0.258853,-0.741816,-0.454414,0.493170
-0.122904,0.656046,0.467774,-0.103642,-0.202575,0.973767
-0.127887,-0.336034,-0.376983,0.774647,0.631641,0.030860
0.049469,0.697533,-0.044685,0.251159,0.903615,0.346985
0.357634,-0.090155,-0.928742,0.088631,0.487423,0.868656
0.035703,-0.471414,-0.962332,0.076178,-0.057848,0.995415
0.336302,-0.204097,0.439509,0.525897,-0.181001,0.831066
0.526045,-0.100039,-0.922580,0.197474,0.593394,0.780312
0.095094,-0.068905,-0.371270,-0.248238,0.863773,0.438490
-0.199740,0.406693,0.492301,-0.383125,0.080483,0.920184
0.156304,-0.502615,0.279110,0.883197,0.468924,-0.008544
0.343839,0.298756,0.091828,0.995293,0.088248,-0.040063
-0.218706,0.542976,0.700199,-0.360948,-0.204473,-0.909894
0.293826,-0.026956,0.458845,0.114076,0.015857,0.993346
-0.094802,0.763413,0.478492,0.355989,-0.724038,-0.590797
0.481105,0.048518,-0.401363,0.221431,0.019111,-0.974989
0.378261,-0.006807,0.178866,0.311351,0.943475,0.113649
0.057434,-0.368223,-0.961795,-0.092948,0.020508,0.995460
-0.084046,0.231457,0.698003,-0.472732,-0.304092,0.827075
0.468204,-0.318582,0.184646,-0.560605,-0.056305,0.826167
0.614156,-0.137360,0.359300,0.862314,-0.498379,-0.089627
0.263239,0.255787,0.099999,-0.849742,0.154410,-0.504080
0.085921,0.273261,0.216478,0.913300,0.295787,0.279988
0.490158,-0.420462,-0.929542,0.101412,0.001445,-0.994844
0.256078,-0.152577,-0.931389,-0.480746,-0.477270,0.735593
0.247912,0.023870,-0.954900,-0.100336,0.733649,0.672081
-0.534338,0.343139,0.341180,0.304676,-0.599980,0.739727
-0.085166,0.108899,0.177566,0.407612,-0.625024,0.665731
0.335938,0.072851,-0.977348,-0.286145,0.381414,0.879002
-0.362726,0.471982,0.116001,-0.437752,0.730388,-0.524315
-0.314215,0.476723,0.728261,0.984102,0.177588,0.002320
-0.103982,-0.441471,-0.970330,-0.265824,0.419820,0.867807
0.003178,-0.323107,0.795675,-0.492418,0.100628,-0.864522
0.510662,-0.521654,0.176272,-0.400183,0.450577,-0.798019
-0.070253,0.064822,0.354213,-0.481657,-0.314794,-0.817870
0.180109,0.118235,0.202120,-0.584591,0.347210,0.733280
