0.084786,0.022458,0.979126,-0.380231,0.577037,0.722809
-0.074453,-0.009712,0.928183,0.353349,0.759014,0.546847
-0.098394,-0.018991,0.906701,0.564660,0.668895,0.483465
-0.119884,-0.038228,0.858082,0.127386,-0.592610,-0.795353
-0.105749,-0.135213,0.810910,-0.196886,0.472569,0.859019
-0.172964,-0.155938,0.768822,0.844732,0.337092,0.415687
0.379610,-0.151799,0.641818,0.218356,0.416804,-0.882380
-0.028441,-0.171198,0.689327,-0.598894,-0.038625,0.799896
-0.128828,-0.182805,0.681313,0.759918,0.472263,0.446646
0.269411,-0.182472,0.580875,0.950873,0.127433,-0.282137
0.230614,-0.192753,0.561246,-0.623106,0.367388,0.690481
0.082771,-0.205352,0.560673,0.178018,-0.664471,0.725802
-0.482212,-0.228728,0.637542,-0.220686,-0.860771,0.458662
-0.261815,-0.242824,0.541885,0.846486,-0.200590,0.493179
-0.325134,-0.253591,0.526936,0.534259,0.642701,0.549093
0.174649,-0.252600,0.404579,0.111328,0.979974,0.165099
0.459084,-0.255919,0.323703,0.925689,0.341165,-0.163419
-0.099261,-0.277969,0.401212,-0.583275,0.808475,0.078475
-0.239749,-0.290406,0.399629,0.054958,0.741213,0.669016
-0.433027,-0.353076,0.269157,0.226097,0.558115,0.798366
-0.171234,-0.439122,-0.043941,0.846008,0.278407,0.454709
-0.070988,-0.088957,0.935590,0.080685,0.780992,0.619307
0.167580,-0.100564,0.841213,0.916172,0.380373,-0.126274
0.184747,-0.170035,0.859529,0.190450,-0.980311,0.052138
0.132964,-0.180478,0.841785,0.437352,-0.440377,0.784087
-0.005793,-0.212314,0.787543,0.412975,0.345292,-0.842748
0.168156,-0.217283,0.729091,-0.839417,0.530667,0.117352
-0.059592,-0.251274,0.689529,0.584080,-0.704500,0.403151
0.213160,-0.254260,0.612424,0.389859,0.451732,0.802464
0.217197,-0.262881,0.585017,0.861433,0.209866,0.462481
-0.435910,-0.297530,0.651280,-0.795845,-0.204082,-0.570071
-0.338551,-0.324064,0.551077,0.893868,0.157941,0.419589
0.190659,-0.360038,0.312996,0.845198,-0.168836,0.507085
-0.284171,-0.429508,0.234376,0.494471,0.424250,0.758624
0.596833,-0.245303,0.750910,0.810815,-0.077573,0.580140
0.036613,-0.270177,0.823940,0.192033,0.889340,-0.414966
0.232775,-0.330196,0.600438,0.035362,-0.413332,0.909894
-0.490866,-0.376452,0.650808,-0.295835,0.249168,0.922170
0.187199,-0.427019,0.330370,0.242023,0.058311,0.968517
-0.290809,-0.495832,0.253602,0.065437,0.892063,0.447148
0.169310,-0.288909,0.740910,0.697614,-0.341958,0.629603
0.269556,-0.322566,0.613872,-0.198825,-0.238906,0.950470
0.197583,-0.333181,0.600673,0.625431,-0.030794,0.779671
-0.515243,-0.379103,0.651516,-0.386246,0.564712,-0.729325
0.516346,-0.417568,0.263231,-0.201085,0.161285,0.966205
-0.351100,-0.495660,0.259864,-0.467784,-0.733497,-0.493113
0.525291,-0.313782,0.739697,0.866524,0.488827,0.100914
0.186332,-0.386561,0.611313,0.936276,0.322422,0.139398
0.515484,-0.459685,0.300134,0.868644,-0.041270,0.493715
0.281815,-0.475603,0.315757,0.328698,0.749933,0.574072
0.618613,-0.560981,0.268753,0.566687,-0.035346,0.823175
0.227149,-0.479742,0.620438,0.404005,0.914723,-0.007927
-0.056999,0.660614,0.580101,-0.063090,-0.488504,-0.870278
-0.275372,0.647347,0.593771,0.740308,0.097770,0.665120
-0.382252,0.523171,0.684310,0.488781,-0.710563,0.506155
0.243881,0.525326,0.543165,0.425663,0.853587,-0.300334
0.585437,0.521835,0.452323,-0.132179,0.398596,0.907552
-0.597169,0.490009,0.642896,0.917352,0.387082,0.092916
-0.807178,0.442589,-0.589768,-0.633381,0.759906,-0.146190
-0.273356,0.413738,-0.989499,0.866291,0.466874,0.177675
-0.180611,0.422361,-0.986570,-0.226359,-0.784290,0.577625
-0.343023,0.385556,-0.693943,0.193899,0.966337,-0.169104
-0.055701,0.416724,-0.736165,0.743896,-0.328616,0.581919
0.223975,0.426338,-0.482528,-0.690249,-0.303473,0.656856
-0.233546,0.336972,-0.991048,-0.708977,0.142067,-0.690774
-0.152628,0.344602,-0.982361,-0.417441,-0.243561,0.875455
-0.057717,0.353558,-0.979937,0.292122,-0.153576,-0.943970
0.013821,0.359528,-0.968624,-0.549113,0.361236,0.753646
0.101086,0.367978,-0.965055,0.452244,0.787165,-0.419341
-0.339559,0.306300,-0.722967,0.204829,-0.814615,0.542630
-0.233687,0.212624,-0.990139,-0.023269,0.106224,0.994070
-0.156088,0.219920,-0.981856,0.685379,-0.696856,-0.211298
-0.063488,0.228876,-0.978557,-0.505474,0.606011,0.614204
0.016563,0.235838,-0.969533,0.262781,0.576032,0.774037
0.056373,0.237659,-0.941721,0.455339,-0.311849,0.833916
0.177101,0.250592,-0.952698,-0.087506,-0.159907,0.983246
-0.268593,0.271813,-0.990812,0.344727,-0.045092,0.937619
-0.189264,0.279443,-0.983304,0.799406,0.360060,-0.480944
-0.112673,0.286405,-0.974449,0.185070,-0.237742,-0.953534
-0.018919,0.295199,-0.971654,0.757487,-0.014301,-0.652694
0.035315,0.299176,-0.952698,-0.492243,0.517575,0.699866
0.147530,0.310449,-0.958119,0.637933,0.542689,-0.546379
0.191235,0.312939,-0.932732,-0.032014,0.367728,0.929382
-0.281574,0.246120,-0.678320,0.925056,0.345006,0.158881
-0.353984,0.232853,-0.604784,0.990400,0.136568,0.021376
-0.297297,0.237164,-0.588623,0.177984,0.178422,0.967723
-0.291240,0.234847,-0.548892,-0.624766,-0.768255,-0.139469
-0.304507,0.229706,-0.502629,0.099007,-0.540133,0.835735
-0.202822,0.240149,-0.504852,0.153002,0.311310,-0.937911
-0.237728,0.228714,-0.406804,0.670188,0.240463,-0.702158
-0.158830,0.236000,-0.401181,0.701437,0.397417,-0.591646
-0.234554,0.223239,-0.329733,0.961794,-0.272004,-0.031094
-0.257056,0.310945,-0.674414,0.882156,0.429778,-0.192594
-0.277247,0.304640,-0.621855,0.968306,0.240709,0.066652
-0.267585,0.302819,-0.583404,0.995282,0.088059,-0.040741
-0.197051,0.302991,-0.490878,-0.374211,-0.866040,0.331573
-0.381821,0.272643,-0.331013,-0.664807,0.742589,-0.081198
-0.230804,0.289553,-0.354851,0.985162,-0.056315,0.162123
-0.241910,0.161561,-0.985291,-0.418862,-0.104468,0.902021
-0.168492,0.168027,-0.973237,0.468553,0.127915,-0.874126
-0.084691,0.175323,-0.967681,0.307848,-0.164274,-0.937147
-0.159983,0.160731,-0.890071,0.938006,-0.235985,-0.253882
0.074979,0.189582,-0.950610,-0.384935,-0.922629,0.024102
0.196860,0.202848,-0.961890,-0.095486,0.088988,-0.991445
-0.237873,0.138681,-0.723135,0.947508,-0.013060,0.319466
-0.266718,0.130393,-0.666704,0.822894,0.479499,-0.304837
-0.252152,0.128237,-0.630407,-0.710687,-0.539697,-0.451278
-0.256044,0.124260,-0.587579,0.891884,0.448971,-0.054480
-0.221428,0.125414,-0.561855,0.616696,0.714629,-0.330138
0.673856,0.248933,-0.953237,-0.307519,0.399897,0.863432
-0.275949,0.114475,-0.495963,0.204340,-0.265223,0.942286
-0.257201,0.112987,-0.464010,-0.388653,0.730546,0.561473
-0.295567,0.104366,-0.405794,-0.724585,-0.686541,-0.060321
-0.280712,0.102210,-0.371080,-0.245897,0.959396,0.138179
-0.276816,0.099386,-0.332090,0.762398,-0.317616,0.563800
-0.177437,0.198366,-0.751519,0.866779,-0.415585,-0.275650
-0.307972,0.177145,-0.649835,0.845272,0.508966,0.162691
0.347014,0.266176,-0.940341,-0.220439,-0.123573,0.967541
-0.271045,0.178471,-0.624684,0.948013,0.252082,0.194231
-0.256911,0.176811,-0.588555,0.904074,0.370426,-0.213155
-0.245228,0.175161,-0.551182,0.115508,0.927854,0.354605
-0.243785,0.171842,-0.509868,-0.720460,-0.416013,0.554860
-0.237583,0.169191,-0.472394,0.414889,-0.788018,-0.454856
-0.261528,0.162057,-0.422124,0.814155,0.484583,-0.319891
-0.291096,0.154760,-0.367814,0.992852,0.085527,0.083246
-0.244075,0.158080,-0.348622,0.999117,0.035107,0.023061
-0.264412,0.079158,-0.992159,-0.178762,0.216442,0.959790
-0.237006,0.078996,-0.958927,0.312152,-0.576310,-0.755267
-0.223449,0.077002,-0.921452,0.797892,-0.548874,0.249209
-0.231235,0.071366,-0.872832,0.817855,-0.557996,-0.140549
-0.304798,0.057107,-0.794785,0.403818,0.914805,-0.007877
-0.257201,0.059931,-0.771990,0.557056,0.768232,-0.315450
-0.245805,0.057280,-0.734953,0.412885,-0.902060,-0.125751
0.366338,0.138842,-0.965223,0.875375,-0.240556,-0.419346
-0.216093,0.053293,-0.662697,0.924978,-0.131424,0.356573
-0.386724,0.025939,-0.546266,-0.492250,0.857275,0.150897
0.529187,0.153273,-0.949600,-0.136445,0.197404,0.970780
-0.336240,0.029259,-0.526064,0.771129,-0.505628,-0.386911
0.592647,0.158414,-0.933102,0.736319,0.302621,-0.605190
-0.296721,-0.005067,-0.962092,-0.650276,-0.472595,0.594806
-0.193591,0.004881,-0.963641,-0.392140,-0.772752,-0.499080
-0.023533,0.020303,-0.951890,-0.575857,-0.119257,-0.808806
0.245470,0.046168,-0.941183,-0.360237,-0.765355,-0.533348
-0.263404,-0.029769,-0.670441,0.956208,0.144594,0.254478
0.377735,0.060093,-0.955291,0.873137,-0.487473,-0.001413
-0.236429,-0.030436,-0.639061,-0.409989,0.824102,-0.390850
-0.447883,-0.064093,-0.503269,0.406871,0.518542,-0.752044
0.636498,0.083803,-0.937277,-0.352849,0.251708,0.901189
-0.217533,-0.039220,-0.522865,0.998531,-0.033500,0.042582
0.736454,0.094084,-0.938321,-0.237769,0.094126,0.966750
-0.140655,-0.032916,-0.514212,-0.457563,0.859523,0.227720
-0.334655,0.025778,-0.484649,0.098368,-0.979520,-0.175683
0.718569,0.171842,-0.943775,-0.437966,0.230116,0.869041
-0.188252,0.041857,-0.506367,0.314404,0.309848,0.897298
0.787228,0.176983,-0.929533,-0.247633,0.132184,0.959794
-0.124646,0.046664,-0.493740,-0.729401,0.213454,-0.649932
-0.358596,0.010851,-0.352764,0.519456,-0.852001,0.065267
-0.096228,-0.053144,-0.932530,-0.586486,-0.050521,-0.808382
0.067334,-0.034413,-0.962934,0.143585,0.079451,-0.986444
0.094739,-0.034747,-0.930509,-0.217096,-0.783739,0.581913
-0.668711,-0.151799,-0.501350,0.143180,-0.987253,-0.069501
0.336916,-0.008881,-0.948893,-0.295214,-0.235509,-0.925950
-0.514662,-0.134222,-0.528825,0.115295,0.992274,-0.045813
-0.417594,-0.124770,-0.531013,0.209920,0.857582,-0.469561
0.516923,0.007704,-0.942866,-0.274238,-0.026631,0.961293
-0.099116,-0.083817,-0.628185,0.749148,0.660978,0.043420
0.698233,0.025110,-0.935189,0.211514,0.454989,0.865013
-0.537023,-0.206181,-0.545188,0.069857,-0.979965,0.186519
0.354370,-0.078180,-0.941486,-0.154412,-0.077006,0.985001
-0.062766,-0.142348,-0.712293,0.887045,0.257432,0.383250
0.460959,-0.067241,-0.943944,-0.676823,0.566062,0.470622
-0.278259,-0.181804,-0.533606,0.791849,-0.157293,0.590113
0.630441,-0.052153,-0.931486,0.485395,0.200322,-0.851036
0.712654,-0.044694,-0.923102,-0.625827,0.303491,-0.718494
-0.360185,-0.210654,-0.334885,0.947277,-0.293407,-0.128758
-0.059161,-0.179820,-0.342494,0.802765,0.566846,0.185079
0.004305,-0.175337,-0.328723,0.913583,-0.007268,-0.406588
-0.317634,-0.196396,-0.982866,0.393847,0.310960,0.864979
-0.231957,-0.188442,-0.977647,-0.315103,0.326987,0.890949
-0.140224,-0.179982,-0.973809,0.223848,0.055413,-0.973047
-0.119597,-0.181804,-0.937479,0.633316,-0.337275,0.696532
-0.521009,-0.245303,-0.710206,0.263142,0.962287,0.068987
-0.350665,-0.143339,-0.978725,0.992788,-0.112834,-0.040510
-0.259363,-0.134556,-0.976469,0.509493,-0.118763,-0.852240
-0.186377,-0.128919,-0.964247,-0.235375,-0.221064,0.946430
-0.092482,-0.119630,-0.963371,-0.330989,0.367079,0.869310
0.000123,-0.110846,-0.959971,0.068753,0.137119,0.988166
0.155897,-0.097751,-0.939331,-0.079158,-0.670337,0.737822
0.272153,-0.085142,-0.948018,0.388257,-0.038012,-0.920767
-0.294700,-0.273496,-0.978321,0.358443,-0.099442,-0.928240
-0.222581,-0.267688,-0.966065,0.496957,0.107630,-0.861075
-0.119307,-0.256910,-0.969365,-0.253376,-0.310925,-0.916038
-0.036659,-0.249786,-0.963136,-0.014403,-0.182704,0.983062
0.059978,-0.240334,-0.961553,-0.107422,-0.298328,-0.948399
0.143925,-0.232866,-0.956065,-0.050860,0.433953,0.899499
0.219794,-0.226734,-0.944819,-0.190705,-0.165541,-0.967589
0.330138,-0.215127,-0.949196,-0.044685,0.022850,0.998740
0.505963,-0.199219,-0.939398,-0.835349,0.400285,-0.376781
0.602314,-0.190092,-0.938859,0.286818,0.721407,-0.630323
0.030411,-0.278131,-0.644448,0.720938,0.520379,-0.457662
0.039352,-0.163235,-0.964179,0.153477,0.154191,0.976048
0.127915,-0.155108,-0.960610,0.260841,-0.437707,0.860450
0.210418,-0.147650,-0.954516,0.020156,0.689147,0.724341
-0.164742,-0.211484,-0.700239,0.824823,0.539530,0.169040
0.376727,-0.132734,-0.940812,-0.423064,-0.113411,0.898975
-0.315327,-0.242824,-0.547646,0.767812,0.623699,0.146510
0.588321,-0.111837,-0.944954,0.384216,0.259082,-0.886146
-0.015024,-0.203854,-0.636569,0.706057,0.535976,-0.462831
0.661738,-0.105867,-0.932563,0.973424,0.016843,-0.228390
0.365330,-0.279457,-0.336871,0.520753,0.593416,0.613737
-0.257488,-0.342633,-0.978994,-0.008712,-0.518812,0.854844
-0.167194,-0.334011,-0.975055,0.229325,-0.838519,0.494263
-0.112387,-0.331188,-0.956233,0.256647,0.092545,0.962064
0.004449,-0.318589,-0.963809,0.092051,-0.020666,-0.995540
-0.037812,-0.301679,-0.489599,-0.223697,0.834402,0.503720
-0.106326,-0.316434,-0.418555,0.988454,0.149105,-0.026963
0.089549,-0.310959,-0.956974,-0.162577,0.280026,0.946126
0.167294,-0.304827,-0.946637,-0.131267,-0.110995,0.985114
0.277057,-0.293219,-0.952496,0.099973,-0.171930,-0.980023
0.367060,-0.284597,-0.949499,-0.203903,0.409866,0.889063
0.458507,-0.276472,-0.945223,-0.025327,0.408314,0.912490
-0.391628,-0.406295,-0.527646,0.137251,-0.834554,0.533555
0.541015,-0.269014,-0.938758,0.305370,-0.554541,-0.774102
0.713375,-0.394363,-0.356871,0.648437,0.464163,0.603392
0.615585,-0.337320,-0.937445,0.289095,0.437295,0.851585
-0.401725,-0.510090,-0.979095,-0.206987,0.012854,0.978259
-0.303354,-0.500305,-0.978792,0.279613,0.452361,0.846868
-0.220706,-0.493343,-0.970812,-0.357362,-0.661897,0.658927
-0.117000,-0.483061,-0.974280,-0.447958,0.040947,0.893116
-0.041853,-0.476594,-0.964684,0.309134,0.100359,-0.945708
0.033295,-0.470624,-0.953371,0.767938,0.491196,-0.411094
0.148252,-0.458025,-0.961654,-0.075504,0.068585,0.994784
0.220371,-0.452885,-0.948725,0.578675,-0.006693,0.815531
0.583707,-0.418732,-0.934280,0.197304,0.621883,-0.757847
-0.377639,-0.429670,-0.981318,0.172158,-0.686384,0.706568
-0.279123,-0.419723,-0.982732,0.321100,-0.254743,-0.912141
-0.201814,-0.413591,-0.972361,0.959776,-0.216487,-0.178783
-0.103874,-0.403977,-0.970812,0.013215,-0.162743,0.986580
-0.032332,-0.398340,-0.957647,-0.563047,-0.055347,0.824570
0.065027,-0.388555,-0.958186,-0.212418,0.158586,0.964225
0.154889,-0.380267,-0.955055,-0.175748,0.046988,0.983313
0.244171,-0.372475,-0.949870,0.332499,-0.009182,-0.943059
-0.361339,-0.467477,-0.636872,0.236059,0.395709,0.887519
0.332013,-0.364187,-0.946233,0.131767,0.019681,0.991085
0.410620,-0.357387,-0.936368,-0.393045,0.164762,0.904637
-0.216525,-0.556012,-0.971351,-0.201886,0.615925,0.761498
-0.129259,-0.548555,-0.965526,-0.125164,0.551297,0.824867
-0.033199,-0.538768,-0.965493,0.304147,0.088617,-0.948495
0.048872,-0.531635,-0.957311,0.445995,0.197110,-0.873061
0.132964,-0.524176,-0.949769,0.261891,-0.019992,-0.964890
0.248929,-0.512245,-0.956772,-0.226012,0.404898,0.885989
0.326097,-0.506103,-0.947950,0.848065,0.305507,0.432957
0.419565,-0.496985,-0.946435,-0.460476,0.843940,0.275186
-0.308403,-0.564462,-0.973270,0.858895,-0.053694,-0.509329
-0.332926,-0.678863,-0.973439,-0.210072,0.049842,0.976415
-0.250999,-0.671901,-0.965055,-0.111461,0.179543,0.977415
-0.156955,-0.663117,-0.964112,-0.423370,0.812060,0.401643
-0.069113,-0.654657,-0.960812,-0.144262,0.331156,0.932483
-0.357012,-0.631615,-0.978961,-0.659915,0.241484,0.711476
0.184456,-0.581210,-0.956570,0.141933,-0.004759,0.989865
-0.413984,-0.774695,-0.980543,-0.117379,0.008997,0.993046
-0.342442,-0.769392,-0.969499,-0.137810,0.041591,0.989585
0.018584,-0.736230,-0.953270,0.471179,0.107919,-0.875410
-0.146572,-0.824604,-0.957984,-0.124741,-0.124206,0.984384
-0.003487,0.745668,-0.476165,0.004694,-0.515986,0.856584
-0.194022,0.868853,-0.663101,0.204375,0.101965,0.973568
-0.392349,0.488016,-0.647512,-0.270732,-0.343824,0.899160
-0.327300,0.332003,0.055823,0.639700,0.741605,-0.202005
-0.258932,0.338298,0.065655,0.487393,0.647221,-0.586134
-0.180611,0.345928,0.070133,0.428320,0.484354,-0.762852
-0.253592,0.333987,0.135150,0.836671,-0.211935,0.505040
-0.497354,0.299833,0.269191,-0.122959,-0.958024,-0.258982
-0.230659,0.479060,-0.309363,0.971034,-0.099977,-0.217021
-0.252874,0.470114,-0.221551,-0.125357,-0.097584,0.987301
-0.527212,0.431316,-0.067712,0.799717,0.082542,0.594676
-0.191571,0.463810,-0.055153,0.758178,0.046930,0.650356
-0.361916,0.438613,0.052322,0.786883,0.605784,-0.117649
-0.258641,0.449551,0.046564,0.608979,0.466246,-0.641685
-0.169214,0.455350,0.085521,-0.604985,0.769157,-0.205888
-0.151906,0.455026,0.115790,0.109374,0.964410,-0.240730
-0.151475,0.452203,0.151043,0.714973,-0.685947,-0.135242
-0.620679,0.368970,0.645421,-0.252487,0.950303,0.182140
-0.467787,0.385718,0.619798,0.252996,0.205107,0.945476
-0.095075,0.430820,0.512895,0.129974,0.954837,0.267196
-0.334365,0.397993,0.636768,0.242166,0.916656,-0.317957
-0.421921,0.384564,0.702930,0.980923,-0.186515,-0.054789
-0.273788,0.400644,0.679697,0.460044,-0.480649,0.746550
0.003582,0.433633,0.608754,0.721303,0.025445,0.692152
-0.102576,0.417392,0.681212,-0.370143,0.878553,0.301891
-0.098539,0.415732,0.711381,-0.827640,0.560817,-0.022273
-0.129404,0.409428,0.755556,0.845358,0.470940,0.252162
-0.089449,0.411917,0.773502,0.084581,-0.996115,0.024496
-0.127384,0.404783,0.819630,-0.055442,-0.915705,-0.398009
-0.099116,0.405785,0.840304,0.770446,-0.298688,0.563204
-0.034783,0.411249,0.847879,-0.138967,0.710133,0.690216
0.058539,0.420873,0.846465,0.366413,0.925254,-0.098216
0.073250,0.420539,0.871819,0.928765,0.354994,0.106658
-0.627313,0.477734,0.676802,0.974305,0.193003,-0.116100
-0.244938,0.284918,-0.308285,0.976636,-0.067172,-0.204132
-0.345185,0.268665,-0.227376,-0.107350,-0.887326,0.448474
-0.360331,0.260712,-0.143403,-0.451373,0.858227,-0.244354
-0.324412,0.262199,-0.120810,-0.548734,0.584539,0.597666
-0.181042,0.278279,-0.141382,0.339097,-0.757304,0.558125
-0.090462,0.287235,-0.139766,0.716526,0.655085,-0.239698
-0.236575,0.265519,-0.041113,0.782259,0.535165,-0.318856
-0.193591,0.268008,-0.021955,-0.373005,-0.581278,0.723176
-0.199648,0.264193,0.016968,0.931733,0.326505,-0.158960
-0.421630,0.232853,0.144309,-0.277153,-0.927341,0.251446
-0.363069,0.237832,0.156430,-0.408489,-0.726128,-0.553060
-0.675635,0.195056,0.318619,0.869262,-0.363357,0.335194
-0.575966,0.204832,0.315016,-0.596121,0.493155,0.633591
-0.484228,0.214122,0.314747,0.140133,0.767539,0.625497
-0.264266,0.239491,0.262558,-0.271631,-0.377352,-0.885337
-0.371723,0.313100,0.254107,-0.243865,-0.578372,0.778470
0.094162,0.370295,0.106362,0.914344,0.395241,0.088093
-0.310714,0.316086,0.302188,-0.007896,0.920333,0.391055
-0.481059,0.291708,0.404983,0.904833,0.412635,-0.104926
-0.471824,0.290058,0.435252,-0.071013,-0.087896,0.993595
-0.470526,0.288065,0.468350,-0.295818,0.268968,-0.916596
-0.354851,0.300006,0.458586,0.761524,0.307768,-0.570404
-0.440668,0.286901,0.524646,-0.439969,0.867347,-0.232671
-0.508029,0.275962,0.584714,0.222971,0.635467,0.739233
-0.490430,0.275466,0.611987,0.475892,0.386267,-0.790143
-0.410815,0.283258,0.615690,-0.525659,-0.188757,-0.829490
-0.424372,0.279281,0.653031,0.204031,-0.973054,0.107411
-0.476441,0.270163,0.704984,0.815389,-0.339620,0.468828
-0.364944,0.281760,0.696667,-0.537421,-0.208017,-0.817256
-0.194458,0.300835,0.665185,-0.806586,0.581728,-0.104931
-0.088872,0.309619,0.692492,0.923038,0.380151,0.059043
-0.096228,0.306472,0.727980,0.008747,-0.275182,0.961352
-0.065508,0.307798,0.748250,0.274637,-0.287404,0.917591
-0.080073,0.303487,0.784681,0.224590,0.482031,0.846880
-0.044159,0.305804,0.803940,-0.215917,0.752406,-0.622306
-0.026851,0.305308,0.828687,0.576807,0.408474,-0.707420
-0.041562,0.301331,0.866028,0.457563,-0.865856,-0.202312
-0.065508,0.296190,0.906263,-0.230000,0.872133,0.431838
0.042670,0.307130,0.899361,-0.160171,0.985621,-0.053827
0.123012,0.315094,0.901348,-0.469605,-0.585332,0.660952
0.327396,0.338298,0.859664,0.184643,-0.606466,0.773373
-0.408649,0.349743,-0.294110,0.294735,-0.947372,-0.124971
-0.481059,0.337640,-0.224581,0.331015,-0.229545,0.915280
-0.197196,0.368808,-0.264851,0.503787,-0.843451,-0.186517
-0.544520,0.320558,-0.079833,0.835808,0.153380,0.527161
-0.403455,0.335819,-0.101450,0.859686,0.366207,-0.356135
-0.256334,0.352395,-0.125052,-0.230480,0.312549,0.921516
0.087529,0.394178,-0.227982,-0.699923,0.109127,-0.705833
-0.308980,0.340291,-0.027645,-0.545244,-0.837941,0.023738
-0.334801,0.333987,0.021076,-0.573116,-0.805086,0.152884
-0.339273,0.205834,-0.245187,0.560686,0.808983,-0.176572
-0.209455,0.219586,-0.261518,0.763565,0.109946,-0.636302
-0.199217,0.217937,-0.225895,0.854905,0.509586,-0.097261
-0.269606,0.205166,-0.156972,0.583048,0.105579,0.805548
-0.266287,0.202677,-0.119261,0.119837,0.429531,0.895065
-0.201814,0.208485,-0.108588,0.437727,0.805646,0.399160
-0.219121,0.202848,-0.064211,0.770864,-0.311957,-0.555384
-0.178735,0.205166,-0.042359,0.341437,0.845451,-0.410651
-0.144982,0.206491,-0.019564,0.995779,0.019843,-0.089609
-0.218400,0.193893,0.048180,0.028175,0.157753,0.987077
-0.491874,0.155256,0.195757,-0.596103,-0.676781,-0.432006
-0.723663,0.122105,0.325387,-0.660129,0.418720,-0.623621
-0.695826,0.122763,0.348888,-0.164288,0.329742,0.929667
-0.554186,0.199863,0.410976,-0.474305,-0.175427,0.862705
-0.511348,0.202848,0.429562,0.713621,0.454332,0.533223
-0.404322,0.213788,0.421750,-0.391846,0.428868,-0.813959
-0.342442,0.219262,0.432929,0.064244,0.688858,-0.722044
-0.500528,0.196382,0.528754,-0.392764,0.652582,0.647976
-0.316480,0.217107,0.492390,0.814138,0.425360,0.395283
-0.508029,0.190411,0.598485,-0.089664,-0.668014,0.738727
-0.502980,0.188418,0.629091,-0.413107,-0.910446,0.020762
-0.387446,0.200693,0.619158,0.453201,0.820938,0.347375
-0.475143,0.187265,0.684445,0.736360,0.340971,0.584391
-0.407065,0.193063,0.692660,0.121090,0.496740,0.859411
-0.276816,0.207321,0.677408,-0.596289,0.325744,0.733710
-0.136905,0.222409,0.658687,0.517323,0.516778,0.682142
-0.090462,0.226053,0.673536,0.807640,-0.430234,-0.403258
-0.135030,0.218098,0.721751,-0.540177,0.323160,-0.777031
-0.124355,0.217269,0.750371,-0.616741,-0.072737,0.783799
-0.037526,0.225557,0.750068,-0.262559,-0.295253,-0.918634
-0.061903,0.219758,0.791415,-0.094655,0.481113,0.871534
0.014257,0.226882,0.796230,0.277585,0.205003,0.938573
0.043392,0.228046,0.817913,0.356264,0.784898,0.506962
0.016418,0.222409,0.858452,-0.229672,0.861483,-0.452877
0.109886,0.232195,0.855758,0.869926,-0.044696,-0.491153
0.080174,0.225728,0.897947,0.715616,-0.676000,0.175833
0.126907,0.229372,0.911651,-0.249863,-0.583555,0.772679
0.122290,0.226224,0.944614,-0.139441,-0.827022,0.544602
0.166572,0.229534,0.960371,-0.814282,0.514346,-0.269060
0.179839,0.229038,0.986769,0.857994,0.212232,0.467765
-0.068537,0.089105,0.667677,-0.668431,-0.130534,0.732230
-0.261238,0.061418,0.771583,0.890958,0.453989,0.009359
-0.188111,0.068047,0.776499,0.389956,0.332632,-0.858656
0.004590,0.090431,0.737644,0.396735,0.807149,-0.437163
-0.096519,0.074351,0.807004,0.685222,0.530511,0.499027
-0.056564,0.077002,0.823604,0.760546,-0.233058,-0.606014
0.014543,0.083307,0.830203,-0.441778,-0.894122,0.073331
-0.073295,0.069211,0.893368,0.200851,0.430329,0.880043
0.078299,0.085958,0.871078,0.999693,-0.024390,0.004295
0.209119,0.100217,0.855152,0.993423,-0.111916,-0.024214
0.096038,0.083307,0.925489,0.869606,-0.488543,0.071488
0.113922,0.082639,0.950540,0.830253,0.081439,-0.551405
0.155176,0.085624,0.966163,-0.267843,0.384418,0.883449
-0.246382,0.154437,-0.307040,0.855415,-0.312612,-0.412964
-0.272489,0.147303,-0.255659,-0.668098,-0.740873,0.068938
-0.220566,0.150622,-0.237746,0.991205,0.131899,-0.010742
-0.217823,0.147971,-0.200911,0.106044,0.734247,0.670549
-0.242200,0.141332,-0.153032,0.929629,-0.323801,-0.175904
-0.251140,0.136859,-0.110170,0.469611,0.751978,0.462595
-0.200661,0.140674,-0.093807,-0.710451,0.701766,0.052761
-0.222295,0.134704,-0.046298,-0.020852,-0.980057,0.197618
-0.200370,0.134208,-0.016971,0.557887,-0.756934,-0.340313
-0.211476,0.129067,0.025588,0.887037,-0.454720,0.079973
-0.725252,0.052301,0.341010,-0.157360,-0.278948,0.947326
-0.563561,0.137021,0.330875,-0.185627,0.590238,0.785597
-0.385285,0.157584,0.296296,-0.704201,0.000419,-0.710001
-0.412109,0.148790,0.377272,0.106590,-0.877283,0.467988
-0.388313,0.148628,0.403535,0.011199,-0.992961,0.117910
-0.373312,0.147636,0.432963,0.370089,0.381832,0.846900
-0.545818,0.122601,0.533097,0.045579,0.689885,0.722483
-0.390329,0.140179,0.506464,0.616491,0.162524,0.770406
-0.518413,0.121103,0.589663,0.522632,-0.114471,0.844839
-0.411823,0.132053,0.581818,-0.163227,-0.771736,0.614638
-0.308403,0.142323,0.576599,-0.659364,0.647952,0.381310
-0.295136,0.141666,0.605421,0.822373,0.192352,-0.535448
-0.474566,0.115962,0.706398,-0.383913,0.856504,-0.344980
-0.330474,0.132053,0.684478,0.570252,-0.114189,0.813495
-0.219985,0.143326,0.675253,-0.354958,-0.640987,-0.680544
-0.110512,0.154933,0.667879,0.862881,0.449619,0.230822
-0.094788,0.154265,0.693940,0.868470,0.009601,-0.495649
-0.201092,0.138023,0.765960,-0.685452,0.234786,-0.689225
-0.059306,0.153769,0.746802,0.378876,0.247843,-0.891643
-0.014592,0.156754,0.763065,0.289185,0.895772,0.337587
-0.054833,0.149124,0.808856,0.305896,-0.507827,-0.805319
0.037767,0.158242,0.806398,0.121502,-0.962793,0.241387
0.079161,0.160569,0.824109,0.918425,-0.395124,0.019288
0.037336,0.152939,0.869799,0.758612,-0.133450,0.637729
0.115366,0.160397,0.873940,-0.569905,0.821690,-0.005859
0.120705,0.158747,0.903806,-0.772760,-0.189582,0.605723
0.195131,0.165204,0.909092,-0.712288,0.494346,0.498264
0.234219,0.168027,0.925220,0.968277,0.211779,-0.132628
0.198591,0.160903,0.967712,-0.078879,-0.759023,0.646268
-0.518272,-0.018333,-0.205120,0.149379,0.769293,0.621187
-0.339127,0.002391,-0.240945,0.865998,-0.448402,0.221320
-0.295999,0.004385,-0.219531,0.643179,-0.765709,0.003248
-0.717461,-0.004571,0.339158,0.196204,0.741310,-0.641844
-0.570195,0.011681,0.316498,-0.434882,-0.861955,-0.260599
-0.579716,0.007532,0.354747,0.860583,0.393565,-0.323271
-0.711550,-0.013516,0.441043,-0.499226,0.739402,-0.451729
-0.579716,0.001066,0.424545,-0.590480,-0.799133,0.112788
-0.509182,0.007532,0.430875,0.685783,-0.206148,-0.698000
-0.443410,0.013007,0.440370,-0.172714,0.388101,0.905289
-0.306242,0.028257,0.422255,0.099544,0.035159,0.994412
-0.247390,0.033236,0.434613,-0.616074,0.512475,-0.598183
-0.537600,-0.008881,0.579495,0.887311,-0.418548,0.193639
-0.793621,-0.045524,0.710068,-0.746874,0.319638,-0.583105
-0.401294,0.003221,0.594377,0.583944,0.330027,0.741681
-0.405331,-0.000088,0.628485,0.912822,0.152173,0.378946
-0.335954,0.003221,0.669630,0.216874,-0.459201,0.861452
-0.272489,0.008362,0.679293,0.162614,0.931281,-0.325995
-0.133876,0.023450,0.659765,-0.614611,0.732282,0.293286
-0.069258,0.029259,0.667845,-0.534128,-0.843310,-0.059464
-0.318646,-0.006392,0.792694,-0.796038,0.236982,-0.556923
-0.240325,0.001238,0.795421,-0.319686,0.222940,0.920923
-0.008677,0.028591,0.743367,-0.016219,0.824929,0.565003
0.024931,0.026931,0.796297,0.770864,0.627447,0.109908
0.145369,0.039702,0.783873,-0.171357,0.661882,0.729760
-0.013725,0.016154,0.872291,0.960376,-0.259659,-0.101271
-0.036518,0.010518,0.912291,0.462298,0.778011,0.425417
0.121999,0.022287,0.949530,0.769798,0.631197,-0.094878
0.153446,0.023784,0.969395,0.868227,-0.476514,-0.138260
-0.312875,0.091099,-0.277915,0.998704,-0.050805,0.003020
-0.246382,0.096401,-0.267443,-0.566313,-0.635827,-0.524417
-0.297152,0.086120,-0.206096,0.240880,-0.731778,0.637556
-0.258932,0.083803,-0.144648,0.482280,0.875490,-0.030374
-0.299027,0.075019,-0.088992,0.822358,-0.390684,-0.413634
-0.243785,0.079158,-0.072998,0.934870,0.307454,-0.177455
-0.217246,0.075849,-0.010103,-0.216357,0.237013,0.947108
-0.167770,0.078996,0.007810,0.888346,0.254447,-0.382228
-0.591399,0.015658,0.252087,-0.389797,-0.918555,0.065691
-0.561110,0.070870,0.310201,0.382067,0.880374,0.281010
-0.595871,0.062916,0.360067,0.758211,0.636243,-0.142513
-0.587503,0.061085,0.392491,0.852330,0.521318,-0.041970
-0.539330,0.064737,0.409158,0.987845,-0.046622,-0.148283
-0.470961,0.071032,0.416397,-0.698832,0.379120,0.606550
-0.419179,0.074513,0.430067,-0.466882,0.183000,0.865178
-0.314319,0.085129,0.424579,0.825607,-0.396684,-0.401267
-0.213496,0.095744,0.419360,0.052728,0.749085,0.660372
-0.450334,0.061752,0.545219,0.809578,0.073034,-0.582452
-0.490866,0.053961,0.594680,-0.124657,0.432441,0.893003
-0.328022,0.072034,0.566734,-0.264102,0.000657,0.964495
-0.292684,0.074017,0.586094,-0.670744,0.656116,0.345854
-0.510049,0.042515,0.700404,0.803973,0.534160,0.261343
-0.443555,0.048658,0.708687,0.325122,-0.377888,0.866889
-0.297443,0.065072,0.686094,0.528759,0.435065,-0.728788
-0.139788,0.082477,0.660741,-0.220373,0.618044,-0.754624
-0.167770,0.018481,-0.233504,0.521229,0.678416,-0.517756
-0.195035,0.010851,-0.184076,0.446849,0.309314,0.839435
-0.446438,-0.026955,-0.041988,-0.751530,-0.494589,-0.436560
-0.191285,0.004719,-0.108891,-0.608447,-0.233262,-0.758539
-0.199794,-0.000260,-0.068116,0.834520,0.373648,-0.404925
-0.177868,-0.000594,-0.038554,0.071688,0.905491,0.418267
-0.161282,-0.002244,-0.007106,-0.131728,-0.505542,0.852687
-0.085989,0.004547,0.000369,0.844520,0.418541,0.334078
-0.435188,-0.046020,0.177440,-0.688116,-0.221482,-0.690971
-0.201237,-0.017504,0.118989,0.138271,-0.107634,0.984528
-0.229651,-0.024962,0.167440,0.508013,-0.162789,-0.845826
-0.346193,-0.044199,0.249056,0.796558,0.368563,0.479225
-0.807610,-0.109682,0.467845,-0.740499,-0.669591,-0.057529
-0.617506,-0.087136,0.428215,-0.451021,0.407267,-0.794175
-0.515820,-0.076693,0.424107,0.699854,-0.208644,0.683134
-0.464614,-0.073212,0.438047,-0.522067,0.661056,-0.538935
-0.369848,-0.063922,0.434949,-0.066512,-0.112743,0.991396
-0.240611,-0.049663,0.420134,0.314979,-0.642529,0.698531
-0.195035,-0.046678,0.436229,0.183492,0.760105,0.623354
-0.425095,-0.083817,0.593098,-0.378901,0.845474,-0.376308
-0.313743,-0.072048,0.584849,-0.211298,-0.373908,0.903076
-0.250999,-0.066907,0.593771,-0.351492,-0.699997,0.621657
-0.205128,-0.063587,0.608923,-0.224924,0.973144,0.048988
-0.201092,-0.066249,0.641145,0.550982,0.832861,-0.052548
0.043102,-0.037064,0.582357,-0.140672,-0.976559,0.162925
-0.148587,-0.065419,0.687105,0.984728,0.170122,-0.037015
-0.174840,-0.071714,0.729866,0.518335,-0.819117,-0.245716
-0.339273,-0.096749,0.823132,-0.157630,0.052951,0.986078
-0.297011,-0.094098,0.838755,0.619887,0.776530,-0.112878
0.017140,-0.058619,0.788014,0.950879,-0.052648,-0.305053
0.168592,-0.041709,0.764479,0.669957,0.128391,-0.731214
0.115656,-0.051657,0.815960,0.419514,0.119897,-0.899796
0.192824,-0.044694,0.820438,-0.415824,0.104430,-0.903430
-0.160851,-0.128423,-0.235861,-0.221067,-0.666079,0.712368
0.049163,-0.103388,-0.283773,0.840226,0.534596,-0.090704
-0.013003,-0.123444,-0.142494,0.725793,0.305013,0.616597
-0.064064,-0.134060,-0.082763,-0.500675,-0.789525,-0.354929
-0.246236,-0.167383,0.066329,0.620638,-0.623674,0.475227
-0.174263,-0.160917,0.074847,-0.558368,0.721050,-0.410260
-0.160991,-0.162738,0.106901,0.956163,0.176259,0.233850
-0.302637,-0.185619,0.199763,-0.220433,0.975247,-0.017393
-0.544233,-0.229719,0.401447,0.666837,-0.738097,-0.102672
-0.404899,-0.213973,0.382323,0.994714,0.003752,0.102613
-0.147003,-0.182137,0.317272,-0.636362,0.768377,-0.068120
-0.247967,-0.199715,0.392289,0.525944,0.724743,0.445119
-0.067669,-0.178323,0.356498,-0.322664,0.660619,0.677842
-0.450911,-0.237511,0.572424,-0.567644,0.538718,-0.622545
-0.339413,-0.225409,0.562559,-0.036309,0.944991,-0.325075
-0.303931,-0.224255,0.583232,0.937788,0.321028,-0.132269
-0.319078,-0.229558,0.622795,0.770971,0.363847,-0.522703
0.037767,-0.187936,0.555353,-0.441933,-0.579962,0.684353
-0.018919,-0.202194,0.642525,0.528390,0.376856,0.760778
-0.035506,-0.207507,0.680775,-0.333808,0.330185,0.882921
0.134408,-0.198055,0.749697,-0.203452,-0.222138,0.953552
0.158640,-0.197722,0.772290,0.819564,-0.279759,0.500050
0.491252,-0.156768,0.685421,-0.533290,0.782526,-0.321334
0.534091,-0.154117,0.701280,0.868577,0.447555,-0.212766
-0.345185,-0.072877,-0.303571,0.899828,-0.221792,-0.375655
-0.280857,-0.071552,-0.251585,0.829944,0.507183,-0.232289
-0.352394,-0.085476,-0.183403,0.175017,0.642127,0.746352
-0.191571,-0.066907,-0.211147,0.266160,0.941062,0.208716
-0.019496,-0.047174,-0.244817,-0.693075,0.608331,-0.386756
-0.452210,-0.110178,-0.025894,-0.612556,0.785075,-0.091826
0.054212,-0.044199,-0.196366,0.814118,0.481766,-0.324212
-0.064931,-0.064255,-0.108217,-0.493263,-0.744271,-0.450281
-0.012717,-0.060774,-0.092493,0.666049,0.389155,0.636347
-0.233401,-0.098409,0.071951,0.652142,-0.754323,-0.075552
-0.172097,-0.093106,0.083366,-0.760812,0.645617,0.065899
-0.183639,-0.098247,0.125352,0.990153,-0.062937,0.125043
-0.162145,-0.099077,0.153770,0.961318,-0.261466,0.086624
-0.343164,-0.127422,0.262491,0.235992,0.891675,0.386295
-0.743282,-0.184961,0.455320,-0.011619,0.998725,0.049124
-0.562694,-0.163568,0.418148,-0.537027,0.552002,-0.637884
-0.352109,-0.138371,0.371515,-0.191569,0.480409,-0.855867
-0.362206,-0.143339,0.409663,-0.114465,0.991863,-0.055729
-0.242777,-0.130407,0.398754,-0.629923,0.605469,-0.486420
-0.412109,-0.156768,0.499125,-0.431437,0.618417,0.656828
-0.491442,-0.173678,0.596970,0.782126,0.557839,0.277660
-0.468219,-0.173850,0.620775,0.650280,0.742078,-0.162654
-0.361770,-0.162738,0.614276,-0.526659,0.342844,-0.777874
-0.265710,-0.152791,0.610505,-0.430984,-0.361205,0.826912
0.002715,-0.120459,0.543704,-0.467855,0.719457,0.513315
0.035601,-0.119134,0.565421,-0.498433,-0.062835,0.864648
-0.225469,-0.157598,0.696196,-0.062669,0.524960,-0.848816
-0.097241,-0.143339,0.680573,0.195676,-0.775260,0.600569
-0.067092,-0.142176,0.701313,0.325646,0.430173,0.841965
0.013535,-0.134556,0.704849,-0.216126,-0.178120,0.959981
0.336340,-0.098409,0.651886,0.814154,-0.538332,-0.217607
0.333888,-0.101728,0.685859,0.958482,0.240225,0.153634
0.152438,-0.129243,0.783940,-0.746704,0.110316,-0.655944
0.502498,-0.085810,0.690034,0.906394,-0.282269,-0.314285
0.223113,-0.125934,0.821044,0.048108,0.742191,0.668460
0.161232,-0.137045,0.875085,0.759509,-0.343654,0.552312
-0.288067,-0.220935,-0.165558,-0.091526,-0.217984,-0.971651
0.224121,-0.160917,-0.262528,-0.327855,0.838713,0.434824
0.028105,-0.200039,-0.066803,0.634749,0.459243,0.621441
-0.271045,-0.253096,0.164309,0.885772,-0.404578,0.227431
-0.366388,-0.269843,0.239090,-0.057347,0.883785,0.464365
-0.298164,-0.268356,0.283467,0.358267,0.871811,0.334052
-0.430284,-0.290234,0.371582,0.963835,-0.135746,-0.229335
-0.367541,-0.288413,0.417070,-0.486950,0.152305,-0.860048
-0.150753,-0.262547,0.366935,0.209865,0.900664,0.380475
-0.140800,-0.264540,0.398518,-0.427731,0.881004,0.202186
-0.376626,-0.304169,0.557475,-0.716641,-0.193273,-0.670128
-0.479038,-0.321574,0.630404,-0.676424,-0.437581,-0.592430
-0.415719,-0.316595,0.640269,0.998673,0.051248,-0.005163
0.192679,-0.236682,0.443299,-0.070254,-0.757570,0.648962
0.020028,-0.263711,0.541212,0.068283,0.774425,-0.628970
0.105704,-0.255585,0.543670,-0.385674,0.908681,-0.159858
-0.089309,-0.285265,0.648889,0.894995,0.001681,0.446073
-0.041708,-0.282614,0.664681,0.848555,-0.459376,0.262540
-0.240325,-0.131570,-0.280743,-0.837793,0.420704,0.348011
-0.441390,-0.163902,-0.157275,0.205098,0.782304,0.588163
-0.432304,-0.357883,0.415825,0.850178,0.470030,-0.237210
-0.330614,-0.347267,0.411952,-0.439643,0.852812,-0.281825
-0.374320,-0.368498,0.567104,0.695881,0.509054,0.506571
-0.433889,-0.380095,0.622357,0.462781,0.757895,0.459814
-0.375332,-0.375795,0.632694,0.158892,0.508810,0.846089
0.022044,-0.324226,0.516767,-0.037480,-0.967684,0.249366
0.145800,-0.321908,0.605185,0.924478,-0.157286,0.347278
0.489087,-0.295871,0.675758,-0.151886,-0.201583,-0.967623
0.581832,-0.287087,0.675489,0.104962,-0.585313,0.803985
0.681788,-0.277140,0.671347,0.990616,0.128567,0.046378
-0.418747,-0.288078,-0.218622,0.933338,0.274999,-0.230771
-0.475433,-0.304665,-0.116803,0.575446,0.367055,0.730844
-0.065939,-0.254593,-0.210204,0.766389,0.287293,-0.574552
0.014979,-0.247459,-0.205692,0.494719,0.389148,0.777057
0.094308,-0.248785,-0.120978,-0.716628,-0.657080,-0.233860
0.418843,-0.206505,-0.215726,-0.417930,-0.887956,-0.192012
-0.429853,-0.334669,0.202086,0.936579,0.332205,0.111619
-0.446153,-0.340639,0.244006,0.801795,0.548316,0.237641
-0.321098,-0.326714,0.230706,-0.032482,0.541692,0.839949
0.439469,-0.241165,0.716701,-0.319372,0.826003,-0.464456
0.625678,-0.219276,0.682930,0.666038,0.201351,0.718228
0.576783,-0.443929,0.635354,0.374523,-0.924333,-0.073082
0.621496,-0.441450,0.652391,0.066098,-0.207894,0.975915
0.593514,-0.449403,0.695354,0.992606,-0.112826,0.044767
0.103829,-0.312284,-0.268487,0.823274,0.483504,-0.297394
0.451007,-0.275318,-0.295491,0.711081,0.487685,0.506485
0.164552,-0.324721,-0.101685,-0.752642,-0.626711,-0.201902
-0.345329,-0.447916,0.565993,0.290903,0.794250,0.533425
-0.242632,-0.436967,0.559663,0.861322,-0.494098,0.118281
0.172343,-0.401983,0.605791,0.440366,0.209832,0.872954
0.709048,-0.346114,0.574849,-0.117598,-0.982627,0.143577
0.674142,-0.354240,0.619428,-0.647628,0.697746,-0.306152
0.738043,-0.349423,0.629630,0.676296,-0.619329,-0.398818
0.737466,-0.352914,0.661684,0.808127,0.418649,0.414323
0.299413,-0.445761,-0.265188,0.573278,0.444019,0.688622
-0.214218,-0.524672,-0.015018,0.960492,0.231394,0.154634
-0.374756,-0.572922,0.270066,-0.591009,-0.596026,-0.543563
0.017140,-0.525168,0.186430,-0.334941,-0.620401,0.709166
-0.327155,-0.442775,-0.150137,0.757214,0.088475,0.647147
-0.240902,-0.447582,-0.034345,0.751574,0.334880,0.568324
-0.179021,-0.442937,-0.021416,0.973301,0.194131,0.122467
-0.274509,-0.481401,0.238147,0.320537,0.559250,0.764523
0.001562,-0.450891,0.202019,0.448746,-0.149906,0.880997
-0.422783,-0.549546,0.708923,0.410904,0.792407,0.450832
0.554858,-0.443271,0.611347,-0.563303,0.819866,0.102512
0.721453,-0.590004,0.636095,0.995540,-0.048309,0.081029
0.614863,-0.515888,0.615017,0.602205,0.781552,-0.162869
0.595245,-0.522851,0.655185,0.137383,0.782876,0.606821
0.746983,-0.505112,0.632593,-0.447876,0.418408,-0.790153
0.845786,-0.495325,0.629091,-0.039783,-0.395079,0.917785
-0.133876,-0.591987,-0.056803,0.867455,0.200745,0.455217
0.049018,-0.604758,0.202962,0.138349,-0.791085,0.595856
0.636784,-0.553857,0.261312,0.566687,-0.035346,0.823175
0.755637,-0.654495,0.627004,-0.536929,0.791594,-0.291695
-0.258932,0.588988,-0.301450,0.907983,-0.177088,-0.379744
0.101954,0.621482,-0.257612,0.098060,0.321012,0.941985
0.365762,0.649836,-0.286938,-0.011792,-0.949568,0.313341
-0.409657,0.545545,0.067743,-0.557305,-0.723584,0.407231
-0.083683,0.582684,0.008147,-0.786231,0.565768,0.248491
-0.741693,0.494644,0.309999,0.962416,0.083937,0.258284
-0.645778,0.504096,0.306498,0.954246,0.288418,-0.078929
-0.560964,0.488684,0.619226,0.468289,0.711553,0.523831
-0.238159,0.523333,0.595791,0.407939,-0.027557,0.912593
0.097767,0.563123,0.502525,0.111488,-0.952783,0.282445
0.102962,0.556161,0.601818,-0.504986,0.857698,-0.096659
-0.050075,0.534444,0.690068,-0.509472,-0.758107,-0.407077
0.239554,0.568598,0.615859,0.143084,0.504785,0.851304
-0.134885,0.513224,0.848183,-0.405188,0.480736,-0.777635
-0.089449,0.516705,0.863839,0.167485,-0.972480,0.161963
0.119548,0.509904,-0.257746,-0.314910,0.113089,-0.942360
-0.218831,0.710847,-0.304784,-0.606926,0.177885,0.774595
-0.173541,0.707700,-0.204750,-0.670068,0.416641,-0.614344
0.044836,0.733070,-0.257376,0.152515,0.937616,0.312436
-0.251576,0.936330,0.002961,0.971040,-0.041838,0.235226
-0.052958,-0.781495,-0.956940,-0.052708,-0.170343,0.983974
-0.132578,-0.789459,-0.963270,-0.238294,-0.042679,0.970255
-0.215371,-0.796421,-0.968523,0.214059,0.074195,-0.973999
-0.301770,-0.800894,-0.965459,-0.518636,0.481864,0.706275
-0.382833,-0.809677,-0.974415,-0.206122,0.021103,0.978299
0.104982,-0.617853,-0.948657,-0.020671,0.024717,0.999481
0.023056,-0.625979,-0.955425,-0.396500,0.302072,0.866915
-0.059738,-0.632445,-0.959196,0.068520,-0.366135,0.928036
-0.142821,-0.638416,-0.960072,0.233988,-0.774380,-0.587865
-0.221283,-0.646036,-0.967782,0.131682,0.176850,-0.975389
-0.301624,-0.651844,-0.970206,-0.079446,0.229681,0.970018
-0.383696,-0.659798,-0.976974,-0.340839,0.352566,0.871508
-0.008677,-0.465656,-0.954785,-0.623516,0.035676,0.780996
-0.091615,-0.473275,-0.960240,-0.316720,0.725421,0.611108
-0.173255,-0.478416,-0.960509,-0.274615,-0.406490,0.871408
-0.253883,-0.486876,-0.970307,0.029263,-0.977107,0.210728
-0.336530,-0.494334,-0.975762,-0.004700,0.189001,0.981966
-0.419900,-0.500467,-0.978792,-0.152647,-0.004127,0.988272
-0.225901,-0.319257,-0.966402,-0.497981,-0.062284,0.864948
-0.494902,-0.179152,-0.507983,-0.428813,-0.016977,-0.903234
-0.303790,-0.327545,-0.975021,-0.279617,0.004112,-0.960103
-0.657892,-0.184627,-0.493471,-0.145586,0.951872,0.269711
-0.737221,-0.190425,-0.495660,0.117176,-0.958946,-0.258248
-0.812513,-0.199543,-0.508589,-0.219014,0.942745,0.251524
0.653951,-0.131074,-0.938590,-0.012648,-0.176341,0.984248
-0.178590,-0.181641,-0.929095,0.865736,-0.226502,0.446316
-0.436631,-0.052982,-0.504144,-0.320180,-0.557778,0.765747
-0.241910,-0.199877,-0.971317,-0.523299,0.134153,0.841523
-0.329320,-0.203530,-0.964415,-0.469160,-0.317946,0.823893
0.763283,0.129897,-0.936705,-0.296049,0.251478,0.921474
0.680490,0.125748,-0.933472,-0.161868,0.446941,0.879797
-0.472545,0.178967,-0.554953,-0.587227,-0.468022,-0.660394
-0.297152,0.047656,-0.980812,0.947811,-0.310476,-0.072525
0.680490,0.245623,-0.946402,0.155306,0.635504,0.756317
-0.240180,0.415237,-0.983876,-0.683652,-0.262807,-0.680847
-0.233110,0.446566,-0.972597,-0.505651,-0.856968,-0.099613
-0.215657,0.301493,-0.981082,-0.622351,0.782118,0.031165
-0.696693,0.501778,-0.607579,-0.606370,0.715407,-0.347143
-0.594858,0.670066,-0.599700,-0.714290,0.604604,-0.352481
-0.545677,0.555826,-0.651283,0.737025,0.324237,0.593013
-0.598899,0.192729,0.592357,0.673683,0.406664,-0.617070
-0.591830,0.133378,0.417744,0.353281,-0.383801,-0.853164
-0.624284,0.100712,0.328552,-0.281267,0.912631,0.296638
-0.708521,0.104366,0.355521,-0.392093,0.367516,-0.843324
-0.774579,0.097231,0.346666,0.095079,0.293600,0.951188
-0.637701,-0.068232,-0.158891,0.355140,-0.867104,-0.349294
-0.714147,-0.073373,-0.160137,-0.306439,0.856751,0.414817
-0.783814,-0.081995,-0.171282,-0.403528,0.810272,0.425000
-0.859247,-0.088299,-0.176433,0.334786,-0.635844,-0.695428
0.785494,0.355876,0.463703,0.692217,0.161248,-0.703445
0.716694,0.349743,0.458148,0.372183,0.347699,-0.860573
0.645152,0.346090,0.461919,0.301571,-0.293062,0.907287
0.576061,0.339958,0.456195,0.007563,0.230691,0.972998
0.508991,0.332661,0.447172,0.387288,0.010095,-0.921903
0.449999,0.320730,0.424175,0.830873,-0.312108,0.460694
-0.035360,0.418212,0.801044,-0.142560,-0.987745,-0.063531
-0.166476,0.405451,0.787273,-0.576410,0.601129,-0.553530
-0.097672,0.318241,0.519697,0.269144,-0.911835,-0.310030
-0.218254,0.345594,0.622155,0.112372,0.993242,0.029043
-0.314460,0.358861,0.679731,-0.711011,0.296774,-0.637486
-0.391341,0.359022,0.693973,-0.550020,-0.681076,0.483337
-0.455238,0.353224,0.688755,-0.062204,0.492752,0.867944
-0.494757,0.328846,0.625421,0.158715,-0.787728,-0.595226
-0.576828,0.332338,0.650909,0.380180,0.283684,0.880333
-0.569333,0.221579,0.325218,-0.128523,-0.681318,-0.720616
-0.636543,0.214779,0.318888,0.780128,-0.444563,0.440186
-0.786842,0.211470,0.336498,-0.193056,0.637766,0.745643
-0.716599,0.031414,-0.203740,0.196591,0.864754,0.462118
-0.750782,-0.009044,-0.314986,-0.534137,0.746668,-0.396464
0.667509,0.467787,0.450875,0.333027,-0.249963,-0.909182
-0.017330,0.409762,0.409090,-0.392318,0.814275,0.427836
-0.108636,0.416562,0.445555,-0.602037,-0.753580,-0.263947
-0.290373,0.480892,0.670371,0.746598,0.565887,-0.349805
-0.627889,0.454358,0.655320,0.942874,0.323628,0.079077
-0.674337,0.433300,0.602896,0.852758,-0.389606,0.347867
-0.674478,0.143660,-0.255255,0.082289,-0.983996,0.158052
-0.737366,0.129229,-0.285726,-0.581511,0.799802,-0.148867
-0.310714,0.361684,-0.039564,0.992883,-0.025437,0.116344
0.692463,0.166864,0.716869,0.738256,0.495342,-0.457837
0.421294,0.186101,0.822257,0.097282,0.932578,-0.347613
0.347591,0.184107,0.829630,0.935216,-0.291218,0.201405
0.208979,0.216773,0.948452,0.230415,0.967657,0.102704
0.346147,0.143154,0.714007,0.845293,-0.267116,0.462740
0.145078,0.211966,0.946432,-0.186591,0.962540,0.196724
0.098925,0.197374,0.913132,0.885996,0.386997,0.255430
0.038920,0.189420,0.900573,-0.555766,-0.708336,0.435183
0.000699,0.169515,0.850742,0.302841,-0.299506,0.904756
-0.044159,0.150946,0.807172,-0.546003,0.040830,0.836788
-0.096373,0.137021,0.776330,-0.583167,0.722165,0.372014
-0.143398,0.118785,0.732728,0.364704,0.549067,0.752008
-0.182772,0.097393,0.679327,-0.146260,-0.247107,-0.957886
-0.239458,0.086292,0.658115,0.922044,0.385224,0.037913
-0.319509,0.088114,0.678115,0.788650,-0.344696,0.509132
-0.390188,0.086292,0.685589,0.863980,-0.307391,-0.398809
-0.466198,0.086616,0.699866,0.969248,-0.066124,0.237036
-0.536878,0.082639,0.702424,0.886442,-0.321801,0.332664
-0.560097,0.045834,0.601347,0.883926,0.130771,-0.448971
-0.628466,-0.011867,0.450134,0.032277,0.622103,0.782270
-0.703472,-0.014680,0.456229,0.214707,0.930278,-0.297463
-0.775446,-0.017008,0.462592,-0.637349,0.726347,-0.257305
-0.843529,-0.024294,0.453838,0.283118,0.851748,0.440874
-0.531974,-0.268679,-0.298588,0.718534,-0.674344,0.170204
-0.870498,-0.065086,0.343366,0.988316,0.005932,0.152300
-0.945069,-0.067899,0.348585,0.564339,0.448634,-0.693000
0.880982,0.240483,0.454040,-0.279058,0.951794,0.127336
0.788668,0.245452,0.486262,0.104001,-0.013580,0.994484
0.461972,0.328846,0.790102,0.856300,-0.439119,0.271892
0.409321,0.317745,0.766970,-0.237195,0.755418,0.610805
0.349607,0.308121,0.750001,-0.415955,0.890560,-0.184077
0.228162,0.332338,0.844008,0.512572,0.689465,0.511769
0.135702,0.340959,0.885657,-0.303993,0.518074,0.799492
0.066326,0.337974,0.889260,-0.139682,-0.156888,-0.977689
0.000554,0.332338,0.885018,-0.414598,0.015370,0.909875
-0.048777,0.318575,0.855220,-0.158489,-0.942159,-0.295326
-0.098394,0.305470,0.825691,0.015290,0.998109,0.059536
-0.141954,0.286405,0.778081,-0.762504,0.542116,-0.353125
-0.187389,0.269496,0.737946,0.703203,-0.697041,-0.140142
-0.213496,0.238661,0.652728,-0.651348,0.650277,0.391007
-0.278114,0.230363,0.641650,-0.435501,0.844100,0.312785
-0.362347,0.235008,0.670674,-0.640449,0.334092,-0.691525
-0.430429,0.231031,0.671044,0.464577,0.591379,-0.659120
-0.516537,0.239157,0.711448,-0.683158,-0.154365,-0.713769
-0.553609,0.212624,0.640808,0.446622,-0.154252,-0.881326
-0.012141,-0.180812,0.684714,0.817902,0.443305,0.366766
-0.213496,-0.148642,0.807610,-0.386943,-0.310277,-0.868334
-0.232969,-0.183625,0.715825,-0.021943,-0.953520,0.300531
-0.398842,-0.225074,0.631515,0.813816,-0.517234,0.264899
-0.462884,-0.233535,0.619057,0.765563,0.548674,0.335962
-0.535003,-0.237016,0.623333,0.352548,0.790214,0.501270
-0.431006,-0.368326,0.244006,0.114394,0.875246,0.469957
-0.525482,-0.355232,0.297609,0.783190,0.621616,0.014413
-0.323404,-0.508097,-0.157645,0.757214,0.088475,0.647147
0.514185,0.004881,0.716364,0.600258,0.256366,-0.757606
0.468750,-0.011361,0.679899,-0.564559,-0.762499,0.316019
0.416822,-0.025953,0.648216,0.824350,-0.315395,0.470078
0.357975,-0.035405,0.633165,0.198051,0.962528,0.185246
0.101518,0.065072,0.958991,0.992458,-0.100721,0.069869
0.292058,-0.042205,0.625219,0.677033,0.386895,-0.626050
0.129936,0.005873,0.788082,0.524983,-0.669805,-0.525122
0.025072,0.022620,0.853300,-0.218284,-0.699829,0.680141
-0.068105,0.034562,0.903166,-0.417715,-0.597895,-0.684132
-0.071565,-0.007222,0.787543,0.204517,0.943476,-0.260817
-0.114979,-0.027117,0.739361,-0.716750,0.688315,-0.111768
-0.206572,-0.016006,0.787240,0.817592,0.554156,0.156379
-0.255612,-0.033250,0.747744,0.589561,0.404592,-0.699087
-0.360908,-0.013850,0.820674,-0.236785,0.965619,0.107301
-0.365957,-0.110846,0.551145,0.729479,-0.238437,0.641100
-0.463170,-0.095758,0.611347,-0.692541,0.666626,0.275676
-0.460142,-0.152629,0.451784,-0.047673,-0.639712,0.767134
-0.518848,-0.164398,0.428754,-0.702151,-0.590349,0.398086
-0.596592,-0.165390,0.440942,0.734654,0.139740,-0.663895
-0.789580,-0.077522,0.719765,0.162199,-0.345016,0.924476
-0.680103,-0.160745,0.468047,-0.009246,-0.116222,0.993180
-0.825499,-0.165390,0.481380,-0.448575,0.224382,-0.865120
-0.891125,-0.172028,0.474411,0.041732,0.997620,-0.054889
0.862517,-0.317921,0.585589,0.691492,0.678551,0.247806
0.771791,-0.312284,0.616061,0.857975,-0.219376,0.464492
0.614863,-0.270015,0.758081,0.810815,-0.077573,0.580140
0.409181,-0.325723,0.643805,0.409019,-0.175740,-0.895443
0.197151,-0.293219,0.768788,0.944313,0.206114,-0.256494
0.117386,-0.289404,0.792290,-0.551333,-0.791216,-0.264592
-0.315182,-0.400658,0.569024,0.111096,0.047282,-0.992684
-0.420622,-0.380267,0.641549,0.865811,0.197407,0.459785
