0.356042,0.895284,0.635188,0.769206,-0.610468,0.188816
0.895121,0.000890,0.493064,-0.310424,-0.071903,0.947875
-0.406884,-0.772524,-0.993601,-0.084402,0.048415,0.995255
0.523398,-0.525987,0.576479,-0.047653,0.996357,-0.070721
-0.167978,-0.521414,0.685419,0.621351,0.775743,-0.110207
0.061626,-0.669081,0.632992,0.942238,0.332094,0.043602
0.128031,-0.393954,0.618817,0.442786,-0.712657,0.544114
-0.893536,0.116534,0.476461,0.831039,-0.183813,0.524964
0.405785,0.794254,0.513498,0.890026,0.413989,0.190961
-0.023399,-0.383533,0.709565,-0.557515,0.747379,-0.361388
0.085884,-0.768332,-0.563192,-0.762336,-0.503179,0.407008
0.499753,-0.589275,0.310051,0.258605,0.884975,-0.387224
-0.407744,-0.325073,0.559993,-0.060241,-0.422114,0.904539
0.089070,-0.250604,0.901102,0.916962,0.278265,-0.285918
0.430776,-0.641379,0.663304,0.737019,-0.649952,-0.185380
0.665398,0.313000,0.544393,-0.115988,-0.909938,0.398196
-0.010417,-0.089720,0.818528,-0.587151,0.545805,-0.597788
0.374542,-0.036853,0.500163,0.705956,-0.416488,0.572856
0.065425,0.003686,0.811265,-0.201363,-0.586173,0.784763
0.329943,-0.166606,0.602914,0.787091,0.497265,-0.364987
0.466431,0.412503,0.608215,0.855320,0.406628,0.321063
-0.142612,-0.895669,0.724184,0.931505,0.354569,0.081113
-0.205345,-0.027704,0.895918,0.807960,0.579625,0.106000
-0.105978,-0.530311,0.516067,0.552408,0.669993,-0.495938
0.641879,-0.264329,0.441222,0.371200,-0.674896,-0.637751
0.477581,0.737070,0.458363,-0.412174,-0.640738,-0.647740
0.697994,-0.121871,0.101186,-0.744286,-0.658809,-0.109586
0.915095,-0.081332,0.239059,0.982574,-0.093221,-0.160803
0.055255,-0.388613,0.912008,-0.569804,-0.816273,0.094980
0.580007,0.528783,0.734669,-0.299081,0.934046,0.195216
0.465571,0.540092,0.470085,-0.044762,-0.790070,0.611380
-0.014216,-0.494853,0.635281,-0.330542,0.943731,-0.010644
0.120679,-0.813699,-0.566718,-0.762336,-0.503179,0.407008
0.519974,0.707711,0.493835,0.318129,0.694184,0.645680
-0.150577,-0.214893,-0.779996,0.793881,-0.607273,0.031184
0.254595,-0.120602,0.715940,-0.257623,-0.917478,-0.303091
-0.448178,-0.209937,0.599015,-0.709400,0.686936,0.157703
-0.029037,0.075611,0.710172,-0.061642,0.603068,0.795304
0.668098,0.346802,0.533651,0.957218,-0.287327,0.034317
0.480520,0.825900,0.455327,0.757228,0.342540,0.556122
-0.016295,0.705043,0.739737,0.751343,0.307800,0.583732
-0.412889,-0.440209,0.476764,0.860218,0.205612,0.466636
-0.204732,-0.609609,0.585283,0.825370,0.530488,-0.193251
-0.198607,-0.018300,0.916608,0.534362,-0.842559,0.067473
0.345991,-0.571482,0.299636,-0.321155,0.820897,0.472215
0.375155,-0.200028,-0.072066,-0.820591,0.500544,-0.275838
0.238420,0.377937,0.637406,0.729849,-0.682432,0.040080
0.039820,-0.142332,0.697866,0.872875,-0.129332,0.470492
-0.611616,-0.239547,0.456214,0.572927,0.593952,0.564779
-0.437641,-0.328377,0.690930,-0.645186,0.754001,-0.123360
-0.203625,0.043205,0.902994,-0.668496,0.500288,-0.550295
0.033935,0.586223,0.610551,0.914498,-0.153362,-0.374398
0.086251,-0.553693,0.793027,0.356903,0.147072,0.922491
0.640526,0.207904,0.236047,0.551589,0.807882,0.207548
0.072776,-0.428136,0.641609,0.734474,-0.570323,0.367802
0.445598,0.461050,0.175611,0.775693,-0.603619,0.184240
0.389610,-0.344390,0.422563,-0.208985,0.951694,0.224955
0.613576,0.302199,0.530008,-0.556946,0.486162,-0.673393
0.219434,-0.482780,0.514735,0.712480,0.093861,0.695386
0.207791,0.764392,0.618374,-0.132031,0.978537,-0.158219
0.752883,0.592451,0.322521,0.525366,-0.677145,0.515233
-0.276401,-0.196724,0.812807,0.315203,0.931750,0.180246
0.155228,-0.213117,0.774088,0.879118,0.471463,-0.069818
0.504412,0.517598,0.746556,-0.646530,-0.762673,-0.018149
0.055008,-0.162030,0.783990,-0.136238,-0.741838,0.656594
0.273462,-0.442369,0.558685,-0.570392,-0.327282,0.753352
0.485545,0.507053,0.570314,0.015095,-0.957741,0.287235
-0.105365,-0.262549,-0.557190,0.855821,0.264637,-0.444452
0.319160,-0.126699,0.486245,0.387478,-0.010855,0.921815
0.247244,-0.204092,0.789407,-0.459574,-0.422519,0.781197
0.385325,-0.721185,0.556490,0.803353,-0.281762,-0.524627
-0.333495,0.406402,0.746672,-0.556077,0.662982,-0.501232
-0.295148,-0.114502,0.679557,-0.623991,-0.779054,-0.060919
0.240507,-0.295971,0.520877,0.841875,0.119211,0.526341
-0.062852,-0.729573,0.512097,0.318840,0.060683,0.945864
0.442659,-0.514806,0.506866,-0.418079,0.825210,-0.379786
0.434328,-0.197104,0.706880,-0.021033,-0.999778,-0.001158
0.865718,-0.006355,0.495633,0.284271,0.142901,-0.948034
0.092749,-0.864151,-0.181612,0.441815,0.241813,-0.863902
0.251410,0.496124,0.790598,0.346475,-0.870455,-0.349662
0.150824,-0.540476,0.544113,0.936415,0.345705,0.060123
-0.250550,0.040537,0.718392,0.925166,-0.312537,-0.215381
-0.604266,0.164061,0.575008,0.662269,0.573746,-0.481887
0.294782,0.749266,0.579702,0.942069,0.241689,-0.232576
0.307031,-0.560553,0.142123,-0.086750,-0.996228,-0.002239
-0.432496,-0.128735,0.572650,0.762409,0.617672,-0.192908
0.668711,0.019315,0.319579,0.799312,0.559727,-0.218647
-0.132809,0.325072,0.639508,-0.525989,0.547926,0.650472
-0.537368,0.557121,0.454159,0.455080,-0.665847,0.591228
-0.111863,-0.148685,-0.542361,0.902771,-0.236054,-0.359560
0.147877,-0.471215,0.784807,-0.915474,0.116601,0.385112
-0.158907,-0.733637,0.654220,-0.599783,0.063263,-0.797658
0.240746,-0.765791,0.658517,0.284956,-0.956605,0.060888
0.633916,-0.265981,0.516627,0.623659,-0.498157,-0.602403
0.254468,-0.039649,0.580006,0.976281,0.189512,0.104697
0.055008,-0.400434,0.583765,0.621941,-0.774023,0.118652
-0.700073,-0.553945,0.591915,-0.769127,0.614729,0.174792
-0.311570,-0.795910,0.350100,-0.296402,0.938758,0.175723
0.107451,-0.133564,-0.131194,0.024729,0.973692,0.226523
-0.220780,-0.237515,0.831465,0.606489,0.783509,0.135222
0.192723,-0.058586,0.741978,0.832119,0.335641,0.441501
0.306665,-0.736182,0.557751,0.357897,0.926678,-0.114793
0.858614,-0.000126,0.396642,0.531713,-0.097062,0.841344
-0.517154,0.157705,0.754542,0.862662,0.470612,0.185306
0.254842,-0.595628,-0.135888,0.722990,-0.658727,-0.208241
-0.176675,-0.110814,0.900962,-0.176244,0.193319,0.965177
0.548764,-0.438557,-0.997128,-0.001095,0.002343,0.999997
0.101933,-0.072435,0.683574,0.526651,0.850054,-0.006909
-0.789390,0.138772,0.586054,-0.069696,-0.964026,0.256507
-0.531490,-0.501717,0.542548,-0.262617,0.887943,-0.377610
0.405905,-0.162030,0.738125,-0.515997,-0.667165,0.537250
-0.215388,-0.101665,0.926276,-0.690081,-0.679358,0.249523
-0.551463,-0.543016,0.419130,-0.307730,0.601680,0.737077
-0.277874,0.610497,0.470062,0.112781,-0.986192,0.121270
0.033449,-0.583175,0.352576,-0.365475,0.919509,-0.144673
0.261213,-0.402722,0.558101,-0.134827,-0.509203,-0.850020
0.054769,-0.356083,-0.999533,-0.047053,-0.127249,0.990754
-0.028177,-0.420131,-0.136635,0.911668,0.342225,-0.227472
0.170176,-0.457494,0.808323,-0.269253,0.657347,0.703845
-0.003185,0.786629,0.712251,0.276452,0.961016,0.004729
0.313769,-0.456474,0.492317,-0.577472,0.799584,-0.164899
0.162952,-0.167366,0.786091,-0.379662,-0.656800,0.651514
0.388750,-0.152497,0.489024,0.122676,0.260363,0.957686
0.509191,-0.400558,0.532740,-0.067488,-0.993494,-0.091736
0.156581,-0.109162,0.719280,0.213595,0.717312,0.663205
-0.295275,-0.063667,0.847578,0.049859,0.995872,0.075843
0.871723,-0.295339,0.559339,-0.303228,-0.952146,-0.038354
0.280319,-0.224806,0.687941,0.918564,-0.391600,-0.053765
-0.243199,-0.187827,0.622904,-0.775949,0.630697,0.011154
0.167970,-0.515822,0.554201,-0.474527,-0.784021,0.400170
-0.129137,-0.514934,0.763416,0.316061,0.837055,-0.446591
0.190636,0.386581,0.523609,0.450046,-0.428770,0.783336
-0.407131,0.038761,0.825697,-0.366993,-0.879318,-0.303506
0.609657,-0.370824,0.359255,0.097421,-0.917063,0.386659
-0.026831,0.110814,0.770282,0.912827,0.210237,0.350067
0.294655,0.676705,0.584046,0.822141,-0.353982,-0.445848
0.673609,-0.334734,0.508290,-0.187681,0.088269,-0.978256
0.444379,0.511245,0.629583,0.844348,0.526982,0.096787
0.866698,-0.220485,0.267199,0.514157,0.067312,0.855051
0.657927,-0.196088,0.296436,-0.534911,0.661585,-0.525525
-0.172262,-0.489896,0.594811,0.040331,-0.975182,-0.217702
0.507844,0.075611,0.315889,-0.767640,0.636459,-0.075154
-0.506618,-0.554073,0.431834,0.104029,-0.206099,0.972986
-0.620440,0.167237,0.570805,-0.436596,-0.592226,0.677239
0.448664,0.970642,0.571015,0.415599,0.783027,-0.462759
-0.967291,0.132291,0.522605,-0.666443,0.740041,-0.090514
0.225431,0.436012,0.595115,-0.627571,0.695796,0.349319
-0.047904,0.305755,0.832936,-0.586529,-0.808957,-0.039656
0.481499,-0.060491,0.473238,0.931473,0.274890,0.238315
0.227024,0.320752,0.475386,-0.331108,-0.183768,0.925525
0.321732,0.497013,0.577227,-0.351892,-0.931341,0.093680
0.381893,0.425084,0.564826,-0.461104,0.082540,0.883499
0.526464,0.013979,0.497104,0.266557,-0.115931,0.956821
0.417787,-0.361163,0.551539,0.872888,0.256355,0.415148
-0.404805,-0.283518,0.660268,-0.238662,0.860208,0.450647
0.609530,-0.139408,0.659684,0.354854,0.392375,-0.848599
-0.646292,0.095185,0.550465,0.295219,0.950050,0.101248
0.184878,-0.009787,0.594227,0.829412,0.524888,0.191231
0.187084,0.331297,0.630283,0.552651,-0.210149,-0.806483
0.144572,-0.299659,0.740717,-0.682741,-0.364585,-0.633200
-0.466065,-0.426104,-0.089160,-0.457591,0.889160,-0.002172
0.065791,-0.022368,-0.234225,0.920501,-0.387404,-0.050959
-0.127051,-0.402722,0.773574,0.515395,0.794977,-0.319968
-0.636121,0.317576,0.538415,-0.402085,0.915547,0.010032
0.408724,0.082092,-0.338658,0.813382,0.107577,0.571696
-0.749084,-0.075231,0.446032,0.653551,0.492442,0.574780
-0.460553,-0.207268,0.717342,-0.250376,0.121775,0.960460
0.481993,-0.495997,0.324646,-0.256639,-0.584601,0.769661
0.179120,-0.122635,0.005581,-0.195209,0.838136,-0.509335
-0.193455,-0.571990,0.369413,-0.271384,-0.924742,0.266838
0.245158,-0.540604,0.490542,0.823553,-0.516030,-0.235527
-0.554888,-0.558901,0.435500,-0.141653,-0.232472,0.962232
0.309117,-0.612405,0.523586,-0.674325,-0.363492,-0.642775
-0.183166,-0.247935,0.842768,0.899244,0.255269,-0.355245
-0.667237,-0.460542,0.457592,0.906511,-0.216707,0.362319
-0.087971,-0.009915,0.847392,0.863820,-0.488481,-0.123294
0.114555,0.262800,0.627038,-0.589365,0.465102,0.660552
-0.112230,0.104585,-0.575569,0.993334,-0.114846,0.009911
0.235848,-0.104205,0.703003,0.062577,-0.072366,0.995413
-0.179733,0.078788,0.872192,0.973857,-0.111541,-0.197892
0.162212,-0.431696,-0.998646,0.042835,0.040959,0.998242
0.296247,0.567542,0.662043,-0.348078,0.171589,0.921628
0.222739,0.475663,0.731143,0.964881,-0.207213,-0.161452
-0.567997,0.099885,0.761524,0.877807,0.464715,0.116171
-0.078534,-0.094041,0.752487,0.706796,0.707338,-0.010567
0.170423,-0.486084,0.812666,0.671012,-0.253256,-0.696853
-0.233642,-0.191768,0.879758,0.075733,-0.986693,0.143882
-0.231683,0.307408,0.693662,-0.750921,-0.535488,-0.386484
0.049616,-0.692466,0.377656,-0.296256,0.877897,0.376203
0.334841,0.689666,0.550698,-0.182973,0.058312,0.981387
-0.151437,-0.313000,0.821680,0.940769,0.109866,0.320753
-0.200320,-0.063795,-0.050161,0.986586,-0.109426,-0.121133
0.285098,0.383529,0.668255,0.843187,0.027315,-0.536926
-0.147144,0.335237,0.628392,0.628079,-0.433307,-0.646345
0.294169,0.316940,0.626430,-0.654291,-0.082689,-0.751708
0.128644,-0.334734,0.600369,0.818040,0.560537,0.128871
0.226658,-0.632230,0.124539,0.030487,-0.823360,0.566700
0.206078,-0.228494,0.770001,0.938236,0.257124,-0.231517
0.221027,0.462574,0.478072,0.644142,0.103395,-0.757885
0.432122,0.470959,0.649479,0.814924,-0.486724,0.314641
0.201666,-0.474775,0.612699,0.340921,-0.935610,-0.091689
0.402352,0.360019,0.533628,0.223495,-0.923497,-0.311773
0.161479,-0.268525,0.706483,0.872777,0.461664,-0.158517
0.459933,-0.375396,0.495586,-0.666184,0.152731,0.729981
0.053662,-0.276273,0.719303,0.511052,-0.705029,0.491691
0.144691,-0.143984,-0.661226,-0.907427,0.418591,-0.036847
-0.005511,-0.165206,0.894353,0.284457,0.923117,0.258725
0.850770,-0.312112,0.472374,0.884261,0.171845,0.434227
0.078780,-0.271445,0.660502,0.994352,0.106113,-0.001849
-0.355062,-0.860086,0.393092,-0.441976,-0.763545,0.470803
0.107690,-0.791461,-0.185862,-0.789568,0.383330,-0.479208
-0.021566,-0.449614,0.684788,-0.533919,0.266694,-0.802375
-0.044965,-0.134071,0.871375,0.523841,-0.679137,-0.514164
0.141386,0.237006,0.716781,-0.206649,0.418967,0.884174
0.343665,-0.213497,0.594461,0.559394,0.528295,-0.638736
-0.109904,-0.536408,0.751249,-0.248500,0.952988,0.173384
0.328963,-0.704919,0.139461,0.598244,0.756026,0.265573
-0.143472,-0.950185,0.713839,0.355801,-0.934369,-0.018965
0.062852,-0.574786,0.734015,0.416557,0.874469,0.248564
-0.032223,-0.419115,0.805287,-0.418291,-0.215926,-0.882275
0.081839,-0.286570,0.812339,0.861035,-0.327874,-0.388739
0.540673,-0.363324,0.383518,-0.464674,0.556221,-0.688982
0.180840,0.624730,0.717435,0.656864,-0.729682,-0.189984
0.163686,0.430040,0.676031,0.967650,0.241891,0.071705
0.316954,-0.149321,0.651161,0.395700,0.151132,-0.905859
-0.275795,-0.635530,0.725655,-0.071912,-0.558463,0.826407
-0.358367,0.515946,0.347765,-0.625195,0.527907,0.574844
0.294655,0.707840,0.526995,0.575142,0.237765,0.782738
0.118107,-0.199264,0.730793,-0.434115,-0.834156,0.340188
0.106344,-0.665525,0.250082,0.896640,0.438880,-0.058484
0.236828,-0.389629,0.579585,0.141379,-0.983231,0.115188
-0.175082,-0.063035,0.923497,0.812653,-0.076783,0.577668
0.305565,-0.333589,0.515506,0.248403,0.313406,0.916555
0.232543,0.485320,0.566158,0.123010,-0.363689,0.923363
0.392916,-0.501209,-0.124235,0.956701,-0.152996,0.247620
-0.985665,0.059854,0.469595,0.829085,-0.301886,0.470620
0.326264,0.545556,0.787259,0.682247,-0.705835,-0.190619
0.001466,0.612149,0.398183,0.116656,-0.664299,0.738308
-0.201913,-0.154149,0.665663,0.055017,0.948940,0.310623
0.392302,0.980810,0.564990,-0.073562,-0.869952,0.487619
0.735235,0.618373,0.630937,0.016934,-0.914731,0.403708
0.074488,-0.867835,-0.195811,-0.375000,0.328964,0.866693
-0.338401,0.475663,0.765985,0.584264,-0.681171,0.441182
-0.155108,0.109418,0.896478,0.979599,-0.095556,0.176789
0.115782,0.020712,0.661412,0.003976,-0.937279,0.348558
-0.240013,-0.197356,0.630751,0.759988,0.389825,-0.520053
-0.241120,0.028720,0.874340,-0.248114,0.321100,0.913966
0.370616,0.009023,0.513685,0.926466,0.142352,0.348421
0.617741,-0.341594,0.468941,-0.306568,-0.951582,0.022543
-0.097647,-0.348458,-0.416305,0.729740,-0.438890,-0.524267
0.462505,-0.215277,0.653332,0.229315,0.675020,0.701258
0.722739,-0.136740,0.497548,-0.697279,0.641806,-0.319198
-0.731810,0.269665,0.556770,-0.585018,0.603064,0.542280
0.529897,-0.229510,0.433912,0.129193,-0.853980,0.504011
0.012742,-0.495869,0.497828,-0.567599,-0.019167,0.823082
0.136241,0.406658,0.594321,0.061341,0.077860,0.995075
-0.526711,-0.104969,0.646770,0.804101,0.331745,0.493322
-0.665525,0.136483,0.498669,0.759341,0.600745,0.250015
-0.295148,-0.348458,0.763299,0.838071,-0.532946,-0.116644
-0.608797,-0.632354,0.436598,-0.194145,0.954901,0.224659
0.242952,-0.414283,0.553898,0.092693,-0.699644,0.708453
0.917548,0.016519,0.374317,0.953318,0.286802,0.094493
-0.131957,-0.566273,-0.994699,0.090207,0.061626,0.994015
-0.072409,-0.459778,0.794592,0.805455,0.575913,0.139881
-0.417548,-0.158345,0.706576,0.644960,-0.127205,-0.753555
0.164172,0.297751,0.719677,0.857780,0.497182,0.130477
0.080007,-0.567162,0.734109,0.386946,0.892933,0.230095
-0.009071,0.050197,0.812760,-0.166802,0.261613,0.950650
0.147877,-0.092137,0.798725,0.245117,-0.545359,0.801562
-0.114682,-0.466771,0.540166,0.810748,-0.568025,0.141549
0.303232,-0.178294,0.632595,0.693709,0.080139,-0.715783
-0.578047,-0.047021,0.360282,0.969965,-0.084582,0.228066
-0.434089,0.397762,0.736888,0.782219,0.432731,0.448193
0.248957,0.523447,0.569310,-0.472295,0.881439,-0.001942
-0.199707,0.414791,0.652538,0.390416,-0.816787,0.424776
0.260720,0.498917,0.570548,-0.322179,-0.577654,0.750011
0.103525,0.695387,0.694947,0.667037,-0.610904,0.426447
0.472676,0.284278,0.133926,-0.166859,-0.633799,0.755286
0.273948,0.788409,0.567652,0.050936,0.892523,0.448116
-0.339627,-0.748763,0.592289,-0.724839,-0.276960,-0.630794
0.272116,-0.579111,0.317617,-0.036618,-0.811973,0.582545
0.380300,0.938872,0.625893,0.852391,-0.522897,-0.003028
-0.667611,0.359639,0.554131,-0.543282,0.784882,0.298001
0.366211,-0.136487,0.708117,-0.492300,-0.870009,0.026915
-0.151437,-0.104590,0.999066,0.724899,0.673064,-0.146647
0.216981,-0.617105,0.135561,0.162364,0.770252,-0.616725
-0.123745,0.038376,-0.324296,0.996430,0.084423,0.000349
0.301639,-0.495237,0.327005,0.058232,-0.050918,0.997004
0.459813,-0.336510,0.452011,0.784566,-0.458746,0.417143
-0.191623,-0.848901,0.643945,0.827026,-0.354602,0.436216
0.248224,-0.574662,0.438910,0.837235,-0.334319,-0.432745
-0.344278,0.459906,0.692051,0.320858,0.946677,-0.029212
0.135135,-0.603508,0.268390,0.947271,0.304884,-0.098607
-0.056115,-0.376032,0.803255,0.017437,0.128582,0.991546
0.462019,0.856526,0.459694,0.757228,0.342540,0.556122
0.349057,0.250219,0.602914,-0.281251,-0.522649,0.804820
0.108184,-0.176642,0.771332,-0.122356,-0.911526,0.392618
-0.229357,-0.303723,-0.650997,0.757713,-0.578673,-0.301676
0.216861,0.677721,0.576223,0.928353,-0.153902,-0.338343
0.351016,-0.273353,0.492994,0.187428,0.032370,-0.981745
-0.094708,-0.835684,0.679861,0.726971,0.523396,-0.444487
0.254468,-0.380100,0.256971,0.526136,-0.803519,0.278458
0.133542,-0.654976,0.495236,0.428808,-0.883804,-0.187120
-0.367071,0.000890,0.856032,0.991467,0.124717,-0.037927
-0.567264,0.069511,0.749031,-0.095599,0.976362,-0.193849
-0.021439,0.162025,0.650694,0.748804,0.645585,0.150043
-0.270030,0.168125,0.719817,0.113933,-0.302791,0.946222
0.422812,-0.063414,-0.164402,0.909297,0.093727,0.405455
-0.428944,0.090480,0.828990,0.102934,-0.962720,-0.250151
0.260600,-0.620157,0.524637,0.430061,0.183748,0.883903
0.240993,0.565638,0.800523,-0.582002,0.812641,-0.029793
0.090170,-0.554965,0.451147,0.164496,-0.984327,-0.063573
-0.134529,-0.680394,0.316403,-0.001108,-0.601221,0.799082
0.344398,0.498409,0.598361,-0.255010,-0.885313,-0.388833
0.069096,-0.139536,0.807902,-0.718548,-0.188399,0.669473
-0.154009,-0.414791,0.581290,0.290984,-0.384003,0.876282
0.373562,0.519250,0.599598,0.361664,0.910395,0.200947
-0.880053,0.336253,0.209121,0.782420,-0.296020,-0.547896
0.001346,-0.490917,-0.560693,-0.505744,-0.549108,0.665359
-0.058321,-0.889820,0.526458,0.942957,-0.301614,-0.140932
-0.204365,-0.074087,0.872425,0.631558,0.635546,0.444090
-0.018381,-0.262296,-0.995983,0.028971,-0.252681,0.967116
-0.487257,0.708219,0.535613,0.267896,0.960685,-0.072907
0.385198,0.496376,0.585026,0.535598,0.835892,0.120081
0.531124,0.133179,0.497688,-0.069040,-0.947587,0.311948
-0.115169,-0.589147,-0.191163,-0.616226,0.518679,-0.592653
0.187331,-0.592452,0.578511,-0.329907,0.695927,-0.637846
0.068244,-0.326217,0.786255,0.862069,0.027650,0.506036
0.564811,0.422163,0.526879,0.695519,0.695124,0.181810
0.235115,-0.263692,0.776960,0.845744,0.422525,-0.325867
-0.463492,-0.487992,0.511746,-0.052454,0.906106,0.419786
0.409337,-0.300167,0.525898,0.699871,-0.684251,0.204893
0.489950,0.037488,0.461632,-0.207797,-0.908612,-0.362276
-0.424772,0.659676,0.500654,0.355071,0.719733,-0.596581
-0.005025,0.754098,0.336229,0.593100,-0.794910,0.127870
0.000367,0.573006,0.147611,-0.203109,-0.773211,0.600743
-0.608064,-0.154785,-0.270679,0.346362,0.876164,0.335215
-0.408477,0.041301,0.709729,-0.196669,-0.533451,0.822649
0.268931,-0.510614,0.393443,-0.647456,0.748992,0.140752
-0.420733,-0.515058,0.581897,0.243875,0.039227,-0.969013
0.006124,-0.409327,0.150717,0.804352,0.475554,0.356182
0.675815,-0.243235,0.182546,-0.253091,0.505638,-0.824788
-0.074496,-0.023511,-0.239573,0.895706,-0.427940,0.120741
0.693335,0.559281,0.523026,0.775231,0.574888,0.261765
-0.282899,-0.046133,0.818738,-0.037521,0.970688,0.237397
0.462386,0.746598,0.589020,-0.170478,0.396748,0.901958
0.459813,0.434360,0.185699,0.775693,-0.603619,0.184240
0.171522,-0.196596,0.859698,-0.757731,-0.606426,0.241020
0.303359,0.582791,0.543249,0.992274,0.124033,-0.002912
-0.196521,0.682170,0.227336,-0.232179,0.972216,0.029814
-0.244919,-0.880928,0.374714,-0.171933,0.982016,0.077994
-0.768684,0.263185,0.540003,0.777933,0.520189,0.352454
0.091523,-0.448850,0.781397,0.965166,0.184166,-0.185841
0.191010,-0.294575,0.707463,0.917196,0.391395,-0.074576
0.851383,-0.050197,0.494068,-0.283454,0.083297,0.955362
0.325284,-0.654212,0.171267,0.907846,-0.287403,-0.305312
-0.089317,-0.640107,-0.998412,0.100912,0.106758,0.989151
0.130970,-0.145888,0.785204,-0.374135,0.282736,-0.883223
-0.263292,-0.608337,0.612325,-0.447084,-0.885321,-0.127760
0.025238,-0.420891,0.801270,0.846872,-0.285166,0.448875
0.278727,0.598804,0.321003,-0.492379,-0.845475,-0.206724
-0.644818,-0.603252,-0.998809,-0.039484,0.114604,0.992626
0.715388,-0.054010,0.488300,0.257136,0.195400,-0.946414
0.513356,-0.216293,0.500350,-0.382885,0.104281,0.917891
-0.055382,-0.475663,0.813017,-0.574276,0.771327,0.274339
0.249570,-0.178803,0.525361,0.917267,0.062746,0.393299
-0.611497,0.184011,0.576643,-0.729418,-0.390885,0.561389
0.072409,-0.416699,0.663607,-0.505418,0.862396,-0.028739
0.428690,-0.159869,0.486759,-0.318287,0.006535,-0.947972
0.303973,-0.379973,-0.998202,0.011143,-0.022852,0.999677
-0.172876,-0.015123,0.996404,0.851297,0.522101,-0.052001
0.379933,-0.532724,0.538532,-0.693992,0.566510,-0.444344
-0.091276,0.164821,0.793260,0.981114,0.187672,-0.046839
0.224698,-0.014615,0.567395,0.998876,0.047378,-0.001175
0.783999,0.243231,0.508897,0.363054,-0.789999,0.494057
-0.456014,-0.692339,0.544650,-0.037700,0.903483,0.426962
-0.143959,-0.166730,-0.922984,0.971659,-0.217814,0.091848
0.349790,-0.569198,0.125636,-0.491858,-0.863050,0.114982
0.013842,-0.358115,0.860189,-0.323071,0.856461,0.402616
-0.444259,0.228618,0.702653,-0.598259,0.799277,-0.056950
0.070936,-0.046005,0.722316,0.933835,0.341115,0.107667
-0.586258,-0.574914,0.625823,-0.722278,0.550762,0.418301
0.366084,-0.501969,0.576549,0.216657,-0.717998,0.661467
-0.014088,-0.939892,-0.266499,0.893634,0.284123,-0.347407
0.205465,0.298895,0.387441,0.005858,-0.985943,0.166978
0.715141,0.072943,0.178039,0.959909,0.264642,0.092403
-0.080493,-0.500445,0.595815,0.193048,0.954756,-0.226215
0.720413,-0.004322,0.046845,0.233922,-0.971925,-0.025346
0.530996,-0.237387,0.297277,0.692898,0.361842,0.623669
-0.051583,-0.079044,0.798982,0.813103,0.580557,0.042637
-0.175815,-0.070151,0.933983,-0.761818,0.468856,0.446999
-0.211589,-0.917651,0.521368,-0.628531,0.131802,0.766536
0.446338,-0.359639,0.111648,-0.026439,-0.278641,0.960031
0.564692,0.068495,0.474639,-0.544128,-0.838859,0.015470
0.175448,-0.190495,0.775746,0.938013,0.091436,0.334322
0.033449,0.095816,0.639274,-0.386996,0.753567,0.531386
-0.097401,-0.380737,0.719864,-0.251973,0.937539,-0.239854
0.321860,-0.584955,-0.996731,0.039984,0.024112,0.998909
-0.486891,-0.531835,0.428985,0.062885,-0.462632,0.884317
-0.050723,0.237766,0.735323,-0.393493,-0.902472,-0.175237
0.322345,0.477823,0.710709,0.262132,-0.799679,-0.540185
0.043492,-0.306139,0.887441,0.312374,-0.949959,0.000427
0.316715,0.330665,0.614894,0.977360,0.207262,-0.042545
-0.653515,-0.532979,-0.998412,-0.046919,0.119029,0.991782
0.403945,0.415427,0.669259,0.815835,-0.261596,0.515734
-0.370257,0.542636,0.337654,-0.593586,0.611766,0.522875
-0.012010,0.279577,0.672365,-0.414247,0.199460,-0.888040
0.230210,0.546448,0.744407,0.369322,-0.245507,-0.896286
0.475861,0.750411,0.463337,0.494249,0.605108,0.624149
0.483092,-0.189859,0.645276,-0.480478,-0.834880,-0.268543
-0.512256,0.102045,0.723834,0.825962,0.549432,0.126141
0.587844,-0.215401,0.505278,-0.130196,0.231616,0.964055
0.769416,-0.144364,0.456775,0.283928,0.892265,-0.351067
0.134521,0.661836,0.606184,-0.324077,0.915794,-0.237265
-0.469617,-0.495617,0.575872,-0.028483,-0.630905,0.775337
0.330676,0.483032,0.683013,0.967048,0.088402,-0.238753
0.045945,-0.611513,0.269324,-0.546471,0.188802,-0.815918
-0.669443,-0.574534,0.428028,-0.147147,-0.751520,0.643090
-0.218574,0.040285,0.909556,-0.075268,-0.989046,0.126974
0.071183,-0.017919,0.810565,0.002809,-0.518347,0.855166
0.075595,-0.640743,-0.161949,0.812380,0.551266,-0.190117
-0.010290,-0.407803,0.637406,0.372603,0.201314,-0.905892
-0.214655,0.757911,0.624189,-0.159509,0.940586,0.299759
0.225558,-0.029736,0.828546,0.230054,-0.379716,0.896042
0.014582,-0.432712,0.642824,0.303381,-0.507912,0.806216
0.337660,-0.039269,-0.155364,-0.413255,-0.204783,-0.887291
-0.526958,-0.173974,0.521905,-0.499151,-0.290662,0.816311
0.381399,-0.329393,0.416211,-0.296268,0.913939,0.277381
0.399047,-0.584191,-0.104549,0.892984,-0.283532,0.349557
0.630969,0.321513,0.530218,0.118023,-0.867072,0.484001
0.634155,0.735542,0.469735,0.038397,0.673897,0.737827
0.305931,-0.156185,0.601023,-0.709275,-0.626959,0.322260
0.164545,-0.647859,-0.075826,0.641230,-0.541889,0.543305
0.387898,0.601600,0.425506,0.856950,0.398048,-0.327405
-0.099854,-0.257084,-0.992947,0.025532,-0.439926,0.897671
0.009430,0.079931,0.700061,0.375643,-0.369463,0.849935
-0.214775,-0.666669,0.314348,0.130141,0.706446,-0.695699
-0.014582,-0.159613,0.872916,0.736875,0.563604,0.373316
-0.155108,-0.024780,0.948788,0.529570,0.146090,0.835591
-0.285838,0.050705,0.875998,-0.481175,0.809831,0.335627
-0.525978,0.099757,0.703283,0.671163,0.544280,0.503289
0.162459,0.463334,-0.215170,-0.293755,0.514992,0.805290
0.246265,-0.118058,0.529074,0.727525,-0.544080,0.417954
0.277014,0.299403,0.643081,0.218051,-0.972582,-0.080860
0.084292,-0.420891,0.747817,-0.626950,0.734563,0.259520
-0.543499,-0.668321,-0.994909,-0.018742,0.105899,0.994200
0.039080,-0.270809,0.686073,0.477184,-0.843092,-0.247975
0.590663,0.334349,0.544230,0.985809,0.045792,0.161503
-0.898187,0.328249,0.561557,0.436938,0.805108,0.401106
-0.055995,-0.255816,0.799262,0.217090,0.950889,0.220640
-0.287678,0.321260,0.747349,0.795278,-0.143965,0.588903
0.620433,-0.431568,-0.999439,0.018803,0.003872,0.999816
0.455895,-0.482148,0.581897,0.842345,0.239208,-0.482943
0.180346,0.758035,0.726029,0.013242,-0.955133,0.295881
0.075468,-0.223662,0.828780,-0.138393,0.845780,0.515270
0.015928,-0.246031,0.949232,0.732943,-0.663460,0.150386
-0.833742,0.326469,0.204147,0.782420,-0.296020,-0.547896
-0.004659,0.648111,0.742119,0.708022,0.388252,0.589886
0.778854,-0.294319,0.495750,-0.601817,-0.454201,-0.656900
0.801519,-0.058330,0.492831,0.307318,-0.413399,-0.857121
0.439354,-0.177278,0.657863,-0.263877,0.964505,-0.009929
0.093849,-0.166606,0.789688,-0.054170,0.629823,0.774848
0.044838,0.714192,0.719467,0.844702,0.431643,0.316485
0.185858,-0.296479,0.707977,0.730789,0.664926,0.154341
-0.033083,-0.315036,0.881883,0.546377,-0.703986,0.453736
0.308377,0.420635,0.684274,0.900415,0.018203,-0.434651
-0.379567,0.689414,-0.243239,0.230419,0.971575,-0.054303
0.655228,-0.246155,0.429008,-0.444263,0.834210,0.326688
0.300660,-0.148176,-0.081920,0.294328,0.564669,-0.771051
0.103039,-0.873935,-0.987693,-0.066299,0.130574,0.989219
0.245038,0.099757,0.757578,0.704847,-0.392449,-0.590909
0.506491,0.124159,0.493485,0.103738,-0.920525,0.376660
0.231563,0.613545,0.635444,-0.677924,0.076773,-0.731112
0.105858,-0.881944,0.632385,-0.311397,0.939820,0.140605
0.207544,0.513026,0.633973,-0.094224,0.308216,-0.946639
-0.150943,0.016139,0.927280,0.559443,-0.816253,0.144065
0.453809,-0.459778,0.330064,-0.569954,-0.567221,-0.594485
0.316715,0.899605,0.535356,-0.478274,0.876999,0.046125
-0.039701,-0.847505,0.496917,0.900218,-0.292210,-0.322832
0.113942,-0.219089,0.873803,-0.475355,-0.879005,-0.037254
0.184265,0.139660,0.732871,0.050349,-0.831856,0.552703
-0.291350,-0.093277,-0.697118,0.938620,-0.344168,0.023259
-0.417667,0.001650,0.741581,0.535019,0.408992,-0.739243
0.106838,-0.443261,0.786442,0.894870,-0.401098,-0.195777
-0.908724,0.225694,0.471066,0.935644,-0.236819,-0.261702
0.091396,-0.344898,0.762879,0.643288,0.487017,0.590758
-0.107571,-0.193927,-0.860656,0.923704,-0.371550,0.093384
0.106472,-0.280341,0.701228,-0.308740,0.496893,0.811035
0.553909,-0.562969,0.628182,0.351035,-0.926956,-0.132394
0.152169,-0.733130,0.313624,-0.030861,-0.368867,0.928970
0.201420,-0.623970,0.544440,-0.689319,-0.698187,-0.193325
0.156454,0.040029,0.612816,0.989432,0.073222,0.125150
-0.165159,-0.789554,-0.998342,0.015840,0.188229,0.981997
-0.048644,-0.356971,0.805170,-0.197292,0.031771,0.979830
0.245898,-0.308936,-0.097356,0.802377,-0.529785,0.274807
-0.889857,-0.031264,0.530078,0.428133,0.901177,-0.067692
-0.353349,-0.417463,0.761898,0.986285,-0.155638,0.054949
0.458467,-0.102681,0.616459,-0.541957,0.087488,0.835840
0.430776,-0.167622,-0.181659,0.989359,-0.071931,0.126468
-0.059181,-0.411235,0.706646,0.095791,-0.765766,0.635946
0.578047,0.727537,0.464411,0.038503,0.592403,0.804721
0.129504,-0.013091,0.625286,0.857504,-0.147559,0.492863
-0.453935,-0.600840,0.537644,0.232289,0.534229,-0.812798
-0.330803,-0.064178,0.839405,0.523166,0.808553,-0.269332
0.239647,-0.709112,0.322218,-0.164195,-0.338422,0.926559
0.889610,-0.076252,0.507519,-0.488246,0.619788,0.614393
-0.342320,-0.066971,0.746649,-0.158975,0.818556,0.551990
0.275668,0.514422,0.555766,0.459599,0.382333,0.801618
-0.086991,0.707711,0.609897,-0.233619,-0.932855,0.274231
0.894022,-0.415427,0.274018,0.866906,-0.136675,-0.479368
-0.154989,-0.772144,0.316520,-0.377665,0.340046,-0.861242
0.683659,-0.328249,0.450493,-0.407848,0.747917,0.523718
0.138201,0.031768,0.824296,0.481444,0.692109,-0.537770
-0.112962,-0.517094,0.559782,-0.550833,0.808519,-0.207077
0.642493,0.683822,0.409883,0.717886,0.693540,-0.060349
-0.377608,-0.013091,0.767409,0.848750,0.396396,0.349992
0.337907,0.398398,0.563612,-0.578850,0.373011,0.725118
0.700933,-0.174990,0.261338,0.315798,-0.625633,0.713341
0.811196,0.128731,0.394867,0.014367,0.467025,0.884128
-0.515928,-0.069007,0.419317,0.360351,0.888563,-0.283908
0.400640,-0.620409,0.130797,-0.671060,-0.265943,-0.692064
0.582826,0.275129,0.497782,0.831650,0.482069,0.275622
-0.402352,0.529419,0.391014,0.397896,-0.811347,0.428245
0.665891,0.175370,0.501308,-0.313302,-0.209425,-0.926274
0.464345,0.572498,0.733268,0.054599,0.995451,-0.078077
0.441433,-0.501333,0.598571,-0.348040,0.811886,0.468731
0.198967,-0.596772,0.754285,0.990806,0.123820,-0.054524
0.066651,0.213113,0.707604,-0.633457,0.506005,0.585399
0.529530,0.596008,0.350964,0.185078,-0.645581,0.740926
0.073875,-0.243235,0.726472,-0.204412,0.270364,-0.940808
0.009190,-0.049690,0.813110,-0.339446,-0.346899,-0.874321
0.120433,-0.197612,0.696745,0.110802,-0.164665,0.980106
0.033815,0.729189,0.636098,0.280323,0.930678,0.235067
-0.555501,0.188715,0.557774,0.826319,0.403721,0.392690
-0.468757,-0.019064,0.707393,-0.623693,0.109738,-0.773928
0.346851,-0.494601,0.546168,-0.470590,0.852501,0.227566
-0.512623,-0.412507,-0.310098,-0.692098,-0.717831,0.075626
-0.379687,0.420127,0.752440,-0.622490,0.752608,-0.214681
-0.843545,0.004194,-0.057751,0.888929,0.440324,0.126172
0.516048,-0.005847,0.471533,-0.038762,0.643661,0.764329
0.195542,-0.426864,0.771473,-0.555665,0.624290,0.549089
-0.297108,-0.221377,0.691817,-0.270443,0.920895,0.280737
0.365471,-0.529803,0.565037,-0.854658,-0.146432,0.498114
0.333129,-0.459526,0.586661,-0.112584,-0.564637,0.817625
-0.090790,-0.486468,0.485918,-0.150705,0.459275,0.875417
0.766724,-0.354683,0.161319,0.892952,-0.393961,0.217788
-0.028790,-0.262677,0.894423,-0.448268,0.491940,-0.746359
0.803359,-0.193163,0.363201,-0.622122,0.507317,-0.596317
0.521073,-0.512774,0.489305,0.378448,-0.885152,-0.270707
-0.239774,0.292411,-0.699897,-0.667229,0.707997,-0.231400
0.436534,0.287582,0.580029,0.435670,0.747234,0.501829
0.838521,-0.479352,0.504811,-0.449274,-0.852701,-0.266561
0.260107,0.125427,0.556536,-0.747267,-0.593613,-0.298690
0.214409,-0.310460,-0.060600,0.623595,-0.465365,0.628144
0.132562,0.176134,0.728434,-0.557697,-0.622915,0.548590
0.242586,0.604524,0.482439,-0.389157,0.126901,0.912388
0.535528,0.234462,0.579936,0.942686,-0.309099,-0.125701
0.333615,-0.611133,0.140489,0.465984,0.543779,0.697971
0.467164,-0.573770,0.110317,-0.542215,0.604962,-0.583115
-0.266239,-0.301183,0.279015,0.484714,0.160110,-0.859893
0.186471,0.383021,0.614334,-0.608992,0.791006,-0.058637
0.549863,0.737830,0.472841,-0.074222,-0.737852,-0.670869
0.180227,-0.475155,0.782215,0.707626,-0.695517,0.124586
-0.034182,-0.419624,0.784106,0.200750,-0.965229,0.167431
0.296621,0.584951,0.657933,-0.288910,0.700788,0.652248
0.702766,0.522938,0.545140,-0.799691,0.401391,0.446520
0.014335,0.327869,0.700878,0.890893,0.213074,-0.401136
0.272729,0.242851,0.504297,0.145565,0.637079,0.756929
-0.399167,-0.608085,0.302251,-0.184237,-0.874054,-0.449540
0.549377,0.746474,0.462519,0.083519,0.703388,0.705883
0.768437,-0.100393,0.474196,0.875349,0.480521,-0.053503
-0.168830,0.117802,0.864229,-0.285748,-0.944144,0.164133
-0.205218,0.014107,0.953645,0.716392,0.694421,-0.067543
0.088704,-0.544924,0.520644,-0.444880,-0.217545,0.868767
-0.185372,0.172066,0.891318,0.978921,0.081297,-0.187364
0.352856,0.293046,0.665919,0.771437,0.634974,0.041139
0.421219,0.468675,0.550021,0.217188,0.011237,0.976065
0.250303,0.081968,-0.057797,-0.558196,0.744640,0.365963
0.020093,-0.737834,0.317197,0.411534,-0.112993,-0.904363
-0.416202,0.349090,0.759913,0.927101,0.035589,0.373119
-0.072162,-0.038253,0.788403,0.500628,0.556670,0.662941
0.416322,0.838860,0.561020,0.398181,0.315357,0.861395
-0.132570,-0.137375,0.908645,0.163079,0.803954,-0.571895
-0.020093,0.031132,0.777241,-0.180266,0.627440,0.757511
0.454788,0.315924,0.610994,0.427984,-0.408886,0.806004
0.585399,0.100901,0.350824,-0.205837,0.821020,0.532500
0.276895,0.628286,-0.178366,0.781493,0.428055,0.453915
0.320633,0.475407,0.679884,0.943778,-0.173138,-0.281613
0.095935,-0.428008,0.786091,0.817540,0.026833,-0.575246
0.896475,-0.155929,0.269955,0.956314,-0.273645,0.102873
-0.069717,-0.440209,0.781491,-0.208203,-0.967084,0.146287
0.407011,0.279070,0.131218,-0.135853,-0.741662,0.656872
0.379687,0.962637,-0.288964,-0.718154,0.640482,0.272099
-0.827864,0.105477,0.476788,-0.155232,-0.412754,0.897517
-0.347958,-0.251496,0.717762,0.432463,-0.592892,-0.679305
0.321613,0.683313,0.554131,0.025845,0.005068,0.999653
-0.259374,0.115642,0.858391,0.505844,-0.778893,-0.370739
-0.135755,-0.631594,-0.336626,0.607323,0.777616,0.162701
0.384465,-0.272589,0.468988,0.645441,-0.720004,0.254952
0.247117,0.691066,0.568236,-0.454897,0.700272,-0.550171
-0.347464,-0.532724,0.649106,-0.255954,0.758046,0.599878
0.614675,-0.400942,0.291019,-0.174568,0.941178,0.289325
0.076328,-0.228746,0.873219,0.780801,-0.459792,-0.423014
-0.084905,0.445673,0.649643,0.459797,-0.132624,0.878065
0.428324,0.491548,0.348956,0.024894,0.666302,0.745267
-0.085398,-0.351762,0.612115,-0.385625,0.835978,-0.390428
0.437394,-0.391537,0.369273,-0.298243,0.890775,0.342886
-0.120193,-0.017031,0.828663,-0.766205,0.328032,0.552562
0.353708,-0.342230,0.578067,-0.439653,-0.485215,-0.755825
-0.271383,0.705807,-0.577040,0.888329,0.453619,0.071422
-0.494369,-0.103065,0.691070,0.887448,0.004981,-0.460880
-0.593729,-0.392174,0.661623,0.812319,-0.541604,-0.216339
-0.116642,-0.962637,0.730349,0.141812,0.935301,0.324192
-0.338274,-0.102429,0.699734,0.558734,0.806481,-0.193402
0.333615,-0.429660,0.297721,0.498206,0.863709,0.076142
0.591156,0.296351,0.533044,-0.678685,0.485579,-0.550998
-0.030876,-0.220485,0.899911,0.352406,0.667533,-0.655904
0.092622,-0.347694,0.829527,0.215938,-0.975806,-0.034263
0.568244,-0.286694,0.504974,0.205006,0.343399,0.916542
-0.203259,-0.299911,0.868876,0.964027,0.183592,0.192211
-0.111003,-0.369424,0.038555,0.975732,-0.195537,-0.098550
-0.228624,-0.044733,0.925272,0.546825,-0.622311,0.560099
-0.055868,0.126191,-0.782518,-0.711460,0.686317,-0.150976
0.321613,-0.483800,0.331138,-0.591843,0.348170,-0.726980
-0.318308,0.291394,0.702770,0.544121,-0.809232,0.221530
0.493509,-0.635530,0.615198,0.359063,-0.862027,0.357748
0.160134,0.850934,0.490355,-0.580851,0.771707,-0.258997
-0.184511,-0.436017,0.639438,0.572793,0.813375,-0.101632
0.237688,0.737194,0.563098,0.917553,-0.378210,-0.122691
0.005392,0.734653,0.731960,0.833212,0.267955,0.483692
0.262313,-0.523066,0.516253,0.811111,0.214813,0.544017
0.788657,0.568814,0.483303,-0.573833,-0.658182,-0.487352
-0.062852,-0.650147,0.547289,0.055775,0.966894,0.249007
0.425385,-0.181855,0.671944,0.483675,-0.815355,0.318207
-0.265131,-0.408059,-0.153099,0.609272,0.139520,-0.780591
0.667118,0.036217,0.457312,0.396321,-0.900687,-0.178024
-0.843545,-0.013091,0.515670,-0.714447,0.452913,0.533325
0.197501,0.545304,0.770305,-0.529004,0.779720,0.334949
-0.255821,-0.495237,0.740017,0.926108,0.044970,0.374568
-0.550723,0.209937,0.760310,0.847820,0.168860,0.502680
0.112716,0.508197,0.687287,0.987058,0.146472,-0.065288
0.240507,0.426483,0.655271,0.933740,0.179964,-0.309424
-0.218088,0.328629,0.795666,-0.220822,0.833315,0.506777
0.814015,0.395602,0.247023,0.926433,0.032655,-0.375041
-0.066771,-0.001398,0.860562,0.349630,-0.471959,0.809329
-0.690150,0.661328,0.012727,0.052216,-0.996984,0.057413
0.797967,-0.109674,0.274322,0.561761,-0.452129,-0.692823
0.481866,0.217817,0.570151,-0.840774,0.490558,0.229023
0.310344,-0.403482,0.342744,0.861654,-0.299462,-0.409726
-0.213922,-0.423436,0.525221,-0.097694,-0.953762,0.284242
-0.195542,-0.977379,0.747466,0.994030,0.107876,-0.016360
0.304458,-0.673401,0.103872,0.419181,0.837994,-0.349361
0.262193,-0.491424,0.526645,0.956321,-0.215937,-0.197032
0.258267,-0.233323,0.716688,0.396065,0.107237,-0.911939
0.369150,0.252256,0.573444,0.229973,-0.213660,0.949453
-0.358248,-0.202312,0.674396,-0.482397,0.699060,0.527834
0.315242,0.722961,0.552426,0.115541,-0.202975,0.972343
0.102426,0.253144,0.581710,0.098631,0.622474,-0.776401
0.241972,-0.532215,0.565550,0.456584,-0.654200,0.602954
0.115901,0.035200,0.622601,-0.396286,-0.172601,-0.901758
0.302619,-0.438685,0.335902,0.706358,-0.280647,0.649843
-0.255702,-0.222265,0.649783,0.228579,0.961365,0.153392
0.034429,-0.471851,0.854771,-0.080984,0.839784,0.536847
0.231683,0.260260,-0.323432,0.540392,-0.012398,0.841322
-0.214289,-0.566526,0.489748,0.834760,-0.365228,-0.412049
0.459933,0.118818,0.484517,-0.326793,0.721382,-0.610585
-0.682552,0.392045,0.447387,0.295825,0.487347,0.821572
-0.395495,0.277037,0.727056,0.141287,-0.809376,0.570042
0.583678,0.668444,0.358180,-0.269220,-0.551641,0.789439
0.312789,0.119962,0.362547,0.018508,-0.164253,0.986245
-0.025605,0.298767,-0.074027,0.854550,0.290666,0.430416
-0.020826,-0.449105,0.754495,-0.528873,0.794074,0.299565
0.197254,-0.101921,0.813110,0.551323,-0.800136,-0.236271
0.219800,-0.484308,0.609243,0.574597,-0.794950,-0.194661
0.070689,-0.385437,0.682967,0.895066,-0.444940,0.029765
0.584292,-0.320625,0.447247,-0.476169,0.708515,0.520835
0.139427,0.038504,0.823642,0.481444,0.692109,-0.537770
0.314628,-0.655356,0.329994,0.981171,0.028315,-0.191055
-0.281553,-0.069895,0.858274,0.217585,-0.975490,-0.032788
0.604512,-0.156437,0.660081,-0.137517,-0.542104,0.828983
0.114802,-0.453934,0.582434,0.036231,-0.240900,0.969873
0.141139,-0.290506,0.645136,-0.660780,0.745715,-0.085315
0.596421,0.295970,0.523236,0.059412,-0.859986,0.506847
-0.288164,-0.047274,0.890290,0.911688,-0.164322,0.376594
0.512989,0.321896,0.601747,0.857216,-0.162474,0.488655
0.252142,0.224934,0.581547,0.970291,-0.182792,0.158499
-0.231316,-0.920831,-0.986689,-0.216029,-0.061674,0.974437
0.147024,-0.736434,0.244500,-0.869281,0.296989,0.395155
0.079633,-0.367772,0.934053,-0.808841,0.568767,-0.149270
-0.071676,0.201296,0.780393,0.910514,0.398357,0.110794
0.553176,0.283390,0.557190,0.816105,-0.225759,0.531982
-0.595569,0.071671,0.741838,0.371283,-0.846061,0.382530
0.370130,-0.188463,0.650437,-0.382753,0.747432,0.542997
-0.113695,-0.733637,0.331932,-0.406410,0.913287,-0.027145
-0.183659,-0.934300,-0.281257,0.971842,0.190654,-0.138469
0.052069,-0.390773,0.681869,0.735254,-0.676586,-0.040399
0.265005,-0.584827,0.325580,-0.598825,-0.551216,0.581008
0.205465,0.192399,0.735089,-0.436240,0.284684,-0.853610
0.110024,0.327361,0.756364,0.783729,-0.516347,-0.345188
0.068857,0.249331,0.670683,-0.411026,0.510523,-0.755264
0.290370,-0.399798,0.587829,0.080251,-0.756193,0.649408
-0.161973,0.025796,0.873640,0.938712,0.302878,0.164572
0.225192,-0.601728,0.546728,-0.485720,0.016177,-0.873965
-0.433962,-0.190368,0.831909,0.874866,-0.245687,-0.417429
0.501593,0.484560,0.727593,-0.826063,0.451667,0.337071
0.487138,-0.378829,0.370604,0.018559,0.881636,0.471566
-0.151309,0.282502,0.826468,0.690018,-0.624272,0.366278
-0.365479,-0.308552,0.724744,-0.204677,0.729306,0.652855
0.218693,-0.732113,0.534001,0.852372,-0.504781,0.136593
0.191129,-0.535519,0.545374,-0.145737,0.989274,0.009850
0.555135,0.439825,0.342534,0.184714,0.898386,0.398477
0.508211,0.088448,0.571178,0.790913,-0.590712,-0.159741
-0.147391,-0.424324,0.544136,0.314348,0.915968,-0.249374
-0.041533,-0.648116,0.495189,-0.225752,0.165396,0.960042
0.095561,-0.771128,0.626500,-0.167302,0.643191,0.747205
-0.002819,-0.850553,0.711527,0.508879,-0.742090,-0.436285
0.868417,0.009659,0.502896,-0.270670,-0.059231,0.960848
0.154861,-0.702631,0.750012,-0.418641,-0.015648,0.908017
0.201546,-0.522939,0.566998,-0.492140,0.752195,0.438178
0.862166,-0.302963,0.568166,0.270006,0.962516,-0.025681
-0.259867,0.010802,0.738102,-0.243612,-0.734016,-0.633935
0.272969,-0.612277,0.127388,0.000804,-0.838998,0.544134
-0.074122,-0.384293,0.722316,-0.032715,0.999349,-0.015204
0.431637,0.520778,0.287726,0.482713,0.870203,0.098666
-0.929183,0.214637,0.557424,0.946288,0.031352,-0.321802
-0.351016,-0.821579,0.591262,-0.226508,-0.784173,-0.577725
0.165765,-0.385057,0.616692,0.784434,-0.572497,-0.238559
0.472189,-0.058078,0.487016,0.218618,0.339230,0.914948
0.769177,-0.109038,0.495867,-0.131746,0.169175,-0.976741
0.026098,0.079552,0.647378,0.752234,-0.383635,-0.535694
-0.234502,0.004446,0.807202,0.620448,0.685075,-0.381729
-0.111123,0.149064,0.826234,0.927054,0.065325,-0.369193
-0.079147,-0.520143,0.597660,0.152422,0.962087,-0.226176
0.142485,0.778752,0.502102,-0.633942,0.758957,-0.148664
0.443885,0.271445,0.604245,-0.252331,0.262602,-0.931327
0.189043,0.112210,0.578534,0.973725,-0.020562,0.226797
0.002819,-0.208921,0.943861,-0.446757,-0.890374,-0.087424
-0.238301,0.020839,0.907221,0.068086,-0.846223,0.528461
0.647144,0.570594,0.489912,0.452777,0.481599,-0.750371
0.146284,-0.311224,0.868315,0.966170,-0.212296,0.146446
0.276528,0.006479,0.503153,0.953530,0.301259,-0.004835
0.001712,0.208664,0.695320,0.953884,-0.091223,-0.285979
0.393656,-0.481128,-0.267339,-0.154307,0.714867,0.682023
0.285958,0.335109,0.677782,0.548958,-0.067487,-0.833121
-0.190150,-0.828188,0.513614,-0.582947,0.151428,0.798275
0.481133,0.513534,0.742796,-0.650699,-0.744625,0.148742
0.611003,-0.303595,0.508570,-0.476947,0.875852,0.073520
0.618107,-0.252128,0.507753,0.971696,-0.034341,-0.233725
-0.605245,0.104713,0.758675,0.113532,-0.916441,0.383726
-0.256308,-0.440465,0.758722,-0.792627,-0.437590,0.424567
-0.281673,-0.550516,0.537714,-0.215110,0.805572,0.552070
0.653643,0.289870,0.517608,-0.637126,-0.725520,0.260176
-0.479294,0.384417,0.346598,0.189346,-0.826335,-0.530395
0.117247,-0.579111,0.720307,0.126746,0.991918,0.005765
0.777261,0.580123,0.626781,0.240636,-0.855443,0.458598
0.137954,-0.235735,0.850241,0.464029,0.821229,-0.332053
-0.150090,-0.606940,0.499369,0.396553,0.163353,-0.903361
0.301639,0.622949,0.603171,0.849683,0.361900,0.383493
-0.350283,-0.099505,0.773271,-0.575979,0.694908,-0.430525
0.707918,0.590799,0.490169,0.172472,0.628345,0.758575
0.211836,0.012327,0.518145,0.953426,-0.059966,0.295606
0.242099,-0.424832,0.588249,0.662196,-0.637542,0.393747
-0.178754,-0.089212,0.946313,0.672530,0.593077,0.442679
-0.312549,0.359131,0.597030,-0.413366,0.407379,0.814353
-0.272849,-0.714832,0.321494,0.180631,0.219000,0.958859
0.293555,0.142964,0.511933,0.940237,0.223093,0.257263
0.859713,-0.300547,0.270912,-0.409172,-0.191921,0.892045
-0.375275,-0.795274,0.675097,0.848673,0.519593,0.098876
0.252389,-0.134580,-0.997945,0.010609,-0.073304,0.997253
-0.009803,-0.781041,0.738709,-0.375998,0.873364,-0.309614
-0.100713,-0.399034,0.798538,-0.580705,-0.696237,0.421942
-0.421346,0.654848,0.299776,0.422559,0.904717,-0.054139
0.651923,0.273221,0.521134,-0.503389,-0.824327,0.259007
0.064565,-0.341214,0.768694,0.689939,0.085636,0.718784
-0.419754,-0.445673,0.552006,0.945025,-0.145955,-0.292618
0.492530,0.917014,0.393069,-0.699217,-0.693092,-0.175270
-0.333623,-0.174483,0.672832,0.325051,0.945682,-0.005314
0.352490,0.218833,0.567512,-0.087743,-0.412198,0.906859
-0.445358,-0.480496,0.573887,-0.172385,-0.272765,0.946511
0.324185,-0.431313,0.333777,0.789562,0.116111,0.602586
0.125578,-0.443769,0.689365,-0.458243,0.073583,-0.885776
0.584292,0.185283,0.504203,0.936165,-0.333039,0.112603
0.787184,-0.176135,0.466723,0.854101,-0.260557,-0.450134
0.385445,-0.421783,0.461375,-0.584154,0.805946,-0.095990
0.221640,-0.417971,0.627248,0.154431,0.123907,0.980203
0.300293,0.070911,0.488861,-0.155049,0.703331,0.693748
0.730823,0.589399,0.494722,0.070927,0.993559,-0.088371
0.376621,-0.543400,0.321213,-0.481045,0.748613,-0.456261
0.258147,-0.534503,0.481481,-0.636610,0.768697,-0.061908
0.256188,0.737706,0.741044,0.987778,-0.050996,-0.147289
-0.095441,-0.568690,0.819462,0.941896,0.060771,-0.330362
-0.331663,-0.395222,0.601677,0.292266,-0.002168,-0.956335
0.387285,0.534883,0.666690,0.715163,0.698957,-0.001115
-0.090790,-0.425724,0.639251,-0.293502,0.920038,-0.259588
0.520213,-0.094549,0.025104,0.022201,0.996400,-0.081814
0.047904,-0.294955,0.878310,0.848427,-0.446823,0.283762
0.441926,0.184139,0.509901,-0.458596,-0.706501,0.539023
0.102912,-0.210829,0.823712,0.084165,0.915406,0.393634
0.898801,-0.054266,0.494419,0.671734,0.735651,-0.087124
-0.198361,0.419491,0.669702,0.911103,0.158056,0.380670
0.627417,-0.172450,0.228597,-0.016614,-0.944323,0.328601
0.125578,-0.002415,0.558194,0.329216,-0.831714,0.447067
0.354935,-0.391665,0.492831,-0.346523,0.135547,0.928197
-0.023526,-0.345787,0.878497,0.433509,-0.556855,0.708507
-0.037980,-0.939892,-0.997758,0.117432,-0.001673,0.993080
0.581473,-0.071927,0.478889,-0.554026,0.076165,-0.829008
0.510656,-0.086672,0.484727,0.098775,0.226718,0.968939
0.423425,0.362687,0.572650,-0.071443,0.625166,0.777215
0.629623,0.693226,0.225959,0.417100,0.802967,-0.425761
0.160747,0.460666,0.707744,0.779296,-0.025878,0.626122
0.679120,-0.435760,0.145953,-0.761709,0.613562,0.208184
0.159393,-0.234082,0.847321,-0.663285,-0.629671,0.404434
-0.717960,0.274873,0.238429,0.838096,-0.261195,-0.478929
0.111003,0.296987,0.692214,0.160821,-0.962864,-0.216864
-0.665278,0.502985,0.253211,0.904548,-0.288569,-0.313879
0.237560,-0.058330,-0.465345,0.579368,-0.797551,0.168063
0.600340,-0.153261,0.489421,-0.048602,0.533035,0.844696
0.101080,0.432584,0.534632,0.724684,-0.543345,0.423802
-0.641266,-0.477064,0.456891,0.776508,-0.508142,0.372594
-0.082460,-0.945992,0.224651,-0.599867,0.756311,0.261061
0.216487,0.848901,0.747069,0.512545,-0.601054,0.613214
-0.000000,-0.326217,0.881439,0.207975,-0.932179,0.296292
0.298087,-0.262804,0.624982,0.004180,-0.952187,0.305486
0.022419,-0.510614,0.772734,-0.276878,0.563329,0.778460
0.415828,0.843053,0.465999,0.585654,0.242236,0.773519
0.327124,0.871647,0.479473,0.228495,-0.811017,0.538556
0.776895,0.596516,0.534492,0.925377,-0.324437,-0.196004
-0.088704,-0.004574,0.827752,0.876372,0.262353,-0.403910
0.018134,-0.649132,0.429966,-0.226063,0.721242,-0.654756
0.375768,-0.417335,0.492504,0.388314,-0.259824,-0.884140
-0.348444,0.094549,0.719070,-0.177521,-0.260223,0.949089
-0.245165,0.312492,0.718206,0.369826,-0.494364,0.786659
-0.818308,0.171558,0.597006,-0.256548,0.953556,0.157841
0.601200,0.009531,0.473448,0.834195,-0.196020,0.515456
0.073142,-0.646335,0.413572,-0.737455,-0.199154,-0.645366
0.738548,0.238275,0.157349,-0.772162,-0.617757,0.148800
-0.078900,-0.267125,0.787492,-0.335737,-0.886634,0.318059
0.253616,0.418859,0.491313,-0.339365,-0.232103,0.911570
0.509923,0.608461,0.489118,0.304104,0.886954,0.347611
0.033815,-0.099761,0.656905,0.842544,0.304327,-0.444414
0.076941,0.384929,0.589580,0.442754,0.423051,-0.790568
-0.202160,0.221881,0.880272,0.999602,0.023594,-0.015468
-0.273096,0.187063,0.814068,-0.573928,0.794262,0.199387
0.046924,-0.721441,0.533161,0.436208,-0.882448,-0.176093
-0.841340,0.306263,0.486899,0.822311,-0.486010,-0.295971
-0.191990,-0.043209,0.831932,-0.675672,-0.084632,-0.732328
0.237321,0.252508,0.705432,-0.029853,-0.943342,-0.330477
-0.758514,0.454821,0.493625,0.962667,-0.143454,-0.229551
0.880547,0.009274,0.187684,0.960334,0.176796,-0.215644
-0.138447,-0.925911,0.704731,-0.463462,0.869763,-0.169457
0.147264,0.058074,0.627388,0.414676,0.016118,0.909827
-0.305931,-0.628670,0.118467,-0.020089,0.996092,0.086012
