0.619766,-0.345747,0.609672,0.010041,-0.562035,0.827053
-0.321417,-0.355786,-0.507262,0.393013,0.108254,-0.913138
0.832888,-0.242590,0.814238,0.965183,0.214545,-0.149643
0.151153,-0.387401,0.700905,0.328446,0.942794,0.057122
0.867338,-0.213065,0.402507,0.719665,0.608538,-0.334311
0.757437,0.140091,0.764077,0.818532,0.416062,-0.396103
-0.743212,0.242050,-0.990708,-0.151516,-0.135117,0.979176
0.302677,0.505317,0.238827,-0.548805,0.411248,-0.727797
0.037788,-0.448363,0.931851,-0.646180,-0.036856,-0.762295
0.492547,0.586718,0.482869,-0.741152,-0.161766,-0.651556
0.872162,-0.113436,0.407790,0.718857,0.695147,-0.003991
0.265693,-0.262252,0.635525,-0.533302,0.613814,0.582083
0.573133,-0.224661,0.797761,0.854682,-0.510582,-0.093940
0.109963,-0.879692,-0.251261,0.184701,-0.977742,0.099532
0.138227,0.414654,0.956209,-0.303352,-0.046924,-0.951723
-0.404663,-0.539147,0.248594,-0.431278,-0.887505,-0.162276
-0.632878,-0.220715,-0.947954,-0.129965,-0.289957,0.948174
0.156657,0.394095,0.699173,0.764897,-0.609990,-0.206987
0.257468,-0.119831,-0.030338,0.227794,-0.915663,-0.331166
-0.170698,-0.166089,0.820777,-0.451823,-0.292055,0.842947
-0.677532,-0.624374,0.404155,-0.066304,0.944408,0.322020
0.776979,0.315262,0.653734,0.033129,-0.145822,0.988756
-0.595152,-0.160234,0.049413,0.619354,0.072971,0.781714
-0.199147,-0.214980,0.704982,0.316291,-0.900548,0.298285
-0.091966,-0.655453,0.444157,-0.374615,0.813544,-0.444759
0.498732,0.393555,0.680488,0.994166,-0.091259,0.057503
0.097037,-0.068014,0.525267,0.067176,0.996044,-0.058164
-0.960357,-0.329729,0.118547,0.963220,0.224802,-0.147215
0.012431,0.466292,0.627202,0.658132,0.297972,-0.691429
0.006308,-0.407424,0.910108,0.469009,-0.823977,-0.317951
-0.434165,0.210315,-0.967064,-0.139614,-0.057972,0.988508
0.394705,0.645291,0.589662,-0.673352,0.739110,-0.017680
0.106933,-0.554807,0.816871,-0.720591,0.692801,0.027835
0.668501,-0.500779,0.549829,0.438263,0.781722,-0.443664
0.427918,-0.480457,0.472881,-0.393343,0.693275,0.603864
-0.163893,-0.079132,0.830596,0.097248,-0.014584,-0.995153
0.037912,-0.245220,0.953084,0.046748,-0.234961,0.970880
-0.127095,0.257649,0.791153,0.895564,0.443947,-0.029601
0.014905,-0.219522,0.574408,0.821155,0.477392,0.312732
-0.670605,-0.288491,-0.206706,-0.414173,-0.350683,0.839930
-0.319377,0.505798,0.178373,0.321915,-0.098957,0.941583
0.523965,-0.282873,0.736271,-0.555256,-0.810644,0.185865
0.558166,0.530122,0.406822,-0.291673,0.865701,0.406802
-0.080649,-0.824529,0.829084,0.896774,-0.102308,-0.430500
-0.035500,0.181150,0.641419,0.826158,0.332816,-0.454638
0.447090,-0.421111,0.587216,0.880812,-0.057461,0.469967
-0.628735,-0.176368,0.466494,-0.657530,0.592414,-0.465510
-0.316285,0.594309,0.264307,0.943950,0.280180,-0.174519
-0.408004,-0.511357,0.259432,0.332682,-0.887621,0.318514
-0.045024,-0.230338,-0.038644,0.459647,0.346142,-0.817869
0.105448,0.591142,0.324693,-0.417588,-0.746578,-0.517921
-0.805925,-0.419436,0.601434,-0.570928,-0.027306,-0.820546
0.197414,-0.149655,0.281378,0.778276,0.625658,0.053285
-0.465768,0.279762,-0.960626,-0.301795,0.042713,0.952416
0.397242,-0.157305,0.583292,0.811525,0.531392,0.243002
0.296494,0.065026,0.806985,-0.278882,0.715460,-0.640579
-0.389511,0.207743,0.796776,0.044892,-0.488770,0.871257
-0.342012,0.439277,0.347607,0.560359,0.743166,0.365653
-0.534232,0.171465,-0.379083,-0.569137,-0.431858,0.699701
0.385243,-0.049727,0.946952,0.172269,-0.904078,0.391109
-0.443751,-0.218384,0.218546,0.352207,-0.230537,-0.907085
-0.128518,-0.577937,-0.458375,-0.532217,0.320284,0.783685
-0.441834,-0.234521,0.455538,-0.228636,0.973296,0.020489
0.349309,-0.796919,0.865876,-0.707945,0.152637,0.689576
-0.042859,0.075185,-0.227939,0.542582,0.082668,-0.835925
0.125054,0.012370,0.186085,0.043903,0.805989,0.590300
-0.074526,0.321062,0.634421,0.032973,0.952027,0.304232
0.417898,-0.284963,0.881147,-0.566952,-0.731270,-0.379222
-0.406456,0.510756,0.180258,0.351408,0.100403,0.930823
-0.472385,-0.145829,-0.954884,-0.265462,0.198815,0.943400
0.123074,-0.104710,0.169047,0.860870,0.330825,0.386597
0.032407,-0.319628,0.520630,0.722781,-0.096616,0.684290
0.203599,-0.471972,0.553328,-0.680018,0.664410,-0.310056
-0.195251,0.654793,0.176640,-0.272559,-0.526846,0.805074
-0.779454,0.189278,-0.988704,0.094802,0.090714,0.991354
-0.400458,0.134053,0.492636,-0.473555,0.878185,-0.067360
0.235945,-0.778031,-0.214571,0.955253,0.054622,-0.290702
0.048425,-0.130530,-0.040241,0.732014,0.217531,-0.645628
-0.113488,0.069684,0.665370,0.213931,-0.845487,0.489271
-0.113922,-0.193582,0.786108,0.988993,-0.066044,0.132406
0.544188,-0.176908,-0.548640,0.762406,0.646540,0.026896
0.253942,-0.097480,-0.053490,-0.366740,0.930159,0.017513
0.244790,0.591321,0.586248,0.027164,0.360268,0.932453
-0.681056,0.183240,-0.981077,0.268517,-0.070586,-0.960685
0.216463,0.173202,0.953593,-0.034923,0.980440,-0.193696
-0.693611,-0.061681,0.052827,0.821348,-0.006951,-0.570385
-0.214238,-0.370129,-0.484160,-0.067670,0.400796,0.913665
-0.744820,-0.311202,-0.969476,-0.086249,0.271435,0.958584
0.440533,-0.557017,0.760816,0.652557,0.281427,0.703540
0.513080,-0.162324,0.300827,-0.304747,-0.874737,0.376783
-0.089741,0.409573,-0.022898,-0.683417,0.481438,0.548779
0.236810,0.138657,0.961747,0.533041,0.447999,0.717749
0.392602,-0.059051,0.910924,-0.118200,-0.971024,-0.207703
-0.307873,-0.137701,0.792427,-0.390720,-0.786205,0.478768
0.327107,0.546676,0.579844,0.790944,-0.072002,0.607637
0.424515,-0.703324,-0.365664,0.261520,-0.754782,0.601590
0.209846,-0.248628,0.055019,0.721869,0.663229,0.197566
-0.305770,-0.284726,0.807392,0.924109,0.331613,-0.189881
0.173480,-0.449917,0.956056,-0.348705,0.624324,-0.699016
0.058074,-0.753229,0.197007,-0.434181,-0.775467,0.458407
0.016018,0.063173,0.044708,0.736348,0.583601,-0.342348
0.128765,0.092279,0.783662,0.510213,0.860047,-0.001428
-0.246460,-0.519306,0.114708,0.572587,0.465200,0.675080
-0.401694,-0.407424,0.586333,0.834145,-0.541652,-0.103996
0.350609,0.252808,0.946646,0.826169,0.235348,0.511913
-0.197848,0.175412,0.747567,0.517364,0.851332,-0.086998
-0.567630,-0.509742,0.350359,0.652099,-0.736105,0.181427
-0.774630,-0.168419,-0.972975,-0.230848,0.228291,0.945829
-0.928073,-0.389017,0.092270,0.802404,0.582302,0.130663
0.175582,-0.166687,0.289175,0.768145,0.640110,0.014611
-0.090915,0.286397,-0.032240,0.682691,-0.213592,-0.698793
0.080894,0.103036,0.547451,-0.894516,-0.136778,0.425598
0.451295,0.021872,0.843981,-0.643197,-0.710109,0.286433
0.431813,-0.049308,0.761852,0.715301,0.674534,-0.182616
0.198095,-0.802537,-0.222571,0.889495,0.182039,-0.419119
0.242995,-0.030302,0.144434,0.718793,0.686797,0.107914
-0.208300,-0.241755,0.759253,-0.803632,0.585758,-0.105184
0.476466,-0.318673,0.853034,0.727113,0.636070,-0.258306
0.671284,0.313471,-0.331895,0.379427,0.535221,0.754701
0.399901,0.681506,0.497562,0.424524,0.320279,0.846877
-0.850207,-0.340965,-0.972159,-0.390897,0.198228,0.898835
0.236130,-0.111225,0.232559,0.930090,-0.000865,0.367331
-0.138166,0.094070,-0.037879,-0.434754,-0.228180,0.871162
-0.162904,0.366481,0.604457,-0.369898,0.210872,-0.904825
0.840249,-0.364989,-0.246556,0.183126,0.954499,0.235366
-0.261922,-0.322018,0.880229,-0.652302,-0.712713,-0.257959
-0.173789,-0.763509,-0.188514,-0.687270,-0.495781,-0.530906
0.046385,0.038787,0.931715,0.090773,-0.620218,0.779160
0.439112,-0.278211,0.526830,0.995126,-0.063454,0.075490
0.214546,-0.080088,0.212940,0.801893,0.571565,-0.174017
0.319252,0.185331,0.857451,0.840415,-0.477280,0.256722
0.765476,-0.429957,0.798933,0.892633,0.370891,-0.256216
-0.410044,-0.490736,0.929795,0.655928,-0.527510,-0.539900
-0.463109,0.631246,0.187070,0.477343,-0.224314,0.849604
0.086895,-0.475616,0.920555,0.771792,0.016588,0.635659
-0.512585,0.461390,0.388578,0.144718,0.671812,0.726447
0.930360,-0.330685,0.856890,-0.694086,-0.163185,0.701153
0.652173,0.464560,0.418270,-0.442809,0.325288,0.835529
0.400828,0.121443,0.126786,0.166316,0.504762,0.847086
-0.165936,-0.377421,0.385589,0.681696,0.472265,-0.558799
-0.543139,-0.135312,-0.961135,-0.065959,0.013016,0.997737
0.628486,-0.255737,0.324982,0.305925,-0.952013,-0.008986
-0.091719,-0.222451,0.778872,-0.379746,0.925053,-0.008418
0.457046,-0.304866,0.540538,0.997175,0.023890,-0.071219
0.486981,-0.300623,0.494029,0.960367,0.032118,0.276884
0.747664,-0.359193,0.848024,0.606445,-0.336885,0.720232
0.272805,-0.218446,0.655654,0.771526,-0.319044,-0.550416
0.331188,-0.470477,0.699376,-0.458364,0.809819,0.366191
-0.518214,0.284423,-0.270558,0.294337,-0.402784,0.866678
-0.831467,-0.212409,0.602759,0.075526,0.624704,0.777201
0.066299,0.000478,0.380238,-0.204615,-0.380244,0.901968
-0.329829,-0.301039,0.917922,0.870591,-0.017516,0.491696
-0.366009,-0.776597,-0.147186,0.421441,-0.895471,-0.143246
0.155606,0.288848,0.223336,0.996834,0.079505,-0.001369
-0.239162,-0.177627,0.749724,-0.148665,-0.986593,0.067331
-0.563362,0.429895,0.098605,0.299951,0.700137,-0.647948
0.681860,-0.023010,0.417829,-0.029697,0.175105,0.984102
0.285979,-0.183839,-0.207997,0.987702,0.030531,-0.153339
0.527428,0.345028,0.121978,0.015580,-0.208864,0.977821
0.060054,0.080445,0.044589,-0.701788,-0.638619,0.315690
-0.124127,-0.711513,0.157276,0.054137,0.929536,0.364735
-0.121529,0.228244,0.612050,0.368889,0.538985,0.757242
0.659903,-0.777732,0.822001,-0.325022,-0.362333,-0.873542
-0.846435,-0.438803,0.383550,-0.186417,0.702681,-0.686649
-0.105510,0.207626,0.474818,-0.345509,0.570719,-0.744918
0.562002,0.140988,0.826621,0.742771,-0.207695,-0.636517
-0.505102,-0.239063,0.482309,-0.546134,0.836017,0.053040
-0.496072,-0.205058,0.578485,0.731768,0.630116,0.259749
0.282330,0.160110,0.880960,-0.519194,0.849074,-0.097529
-0.483023,0.328292,0.157208,0.289652,-0.250581,0.923748
-0.113737,0.538968,0.293693,-0.130963,-0.893431,0.429685
0.034140,-0.167464,0.842928,-0.489295,-0.758121,0.431095
-0.136001,0.310122,0.780571,0.529286,-0.387156,-0.754962
0.586802,0.125149,0.833500,0.240329,0.113576,-0.964024
0.428041,-0.339053,0.515041,0.960759,-0.270831,0.059946
0.546910,-0.691253,0.466580,-0.274125,0.908248,-0.316134
0.813963,-0.466114,0.848176,-0.079855,-0.965071,0.249523
0.129754,0.203143,0.272732,-0.606141,-0.559982,-0.564813
0.331065,0.171228,0.202544,0.440418,0.323718,-0.837400
0.025171,0.066576,0.909820,0.937229,-0.083662,0.338530
0.315666,-0.099151,-0.149870,0.263494,0.873881,0.408538
-0.787062,0.237688,-0.985341,-0.199408,0.258197,-0.945289
-0.349434,0.175172,0.788657,0.847944,0.233114,0.476076
0.352031,0.010936,0.074909,-0.459730,0.778779,-0.426793
-0.628795,-0.293273,0.609179,0.460943,-0.756254,0.464340
0.620692,-0.121505,0.301405,-0.722165,-0.267482,0.637912
0.279484,0.239362,0.866097,-0.369993,0.470156,0.801285
-0.428784,0.769064,-0.980177,-0.224162,0.113330,0.967940
-0.448327,-0.250298,0.444990,-0.140361,0.980801,0.135383
0.592244,-0.362479,0.702094,-0.623727,-0.742913,0.242992
0.003773,0.021993,0.477111,0.570281,0.809814,0.137769
0.547776,-0.496237,0.931273,0.319201,0.714913,0.622102
0.887376,-0.442027,0.868679,-0.604326,0.526585,0.597912
-0.790835,0.281972,-0.972686,0.189195,-0.374528,0.907708
-0.769868,0.225975,-0.985782,0.008807,-0.312920,0.949739
-0.723483,-0.395470,0.073703,0.696618,0.717441,-0.001484
-0.275589,-0.138121,0.396613,-0.006221,0.668532,0.743658
0.075206,0.547394,0.400452,-0.730949,-0.667282,0.143000
-0.491063,0.375626,0.049940,-0.168997,-0.612106,0.772507
-0.218072,0.635846,0.309422,-0.632433,-0.564878,0.530039
0.270517,0.115946,0.855090,0.455583,-0.649836,0.608406
0.530335,0.195253,-0.258277,-0.499068,0.484452,0.718497
-0.063023,0.713541,0.224763,0.499365,0.851989,-0.157321
-0.561135,0.213959,-0.969068,-0.396864,0.250950,0.882906
0.268043,0.290103,0.967862,-0.496125,0.102794,-0.862145
0.120847,-0.063235,0.551528,0.336943,0.940924,-0.033653
0.080772,0.280601,0.725739,0.830614,-0.525651,-0.183771
0.502071,-0.390330,0.472474,-0.512748,0.840214,-0.176438
0.296863,0.316400,0.440047,0.375110,0.705273,0.601567
-0.225183,0.682345,0.176742,-0.467169,-0.553007,0.689882
0.562062,-0.354173,0.277454,0.908976,0.385607,0.158333
-0.290618,0.224836,0.457967,-0.587278,-0.142861,-0.796678
0.107490,-0.764045,0.251448,0.811822,0.326500,-0.484089
-0.156719,-0.154317,0.412359,0.430015,-0.661477,0.614439
-0.556436,0.092815,-0.505733,0.969294,-0.245013,0.020928
-0.225061,0.171764,0.450290,0.615171,0.159445,0.772102
-0.054240,0.543031,0.616025,-0.473733,-0.254678,-0.843040
-0.192405,-0.682885,-0.207403,0.998711,-0.021706,0.045888
-0.562064,-0.375809,-0.202409,-0.557201,0.064257,0.827887
-0.105387,0.750479,0.361332,0.934185,-0.354385,0.041358
0.185106,-0.508487,-0.024426,-0.657949,-0.679769,0.324065
-0.678583,-0.024265,-0.390600,-0.360258,-0.296616,0.884439
-0.655081,0.001434,-0.963666,-0.412866,0.002191,0.910789
0.359082,-0.070224,0.731532,0.796869,0.600471,-0.066589
-0.086525,-0.686412,0.202782,-0.126810,0.573429,0.809382
-0.672398,0.503945,-0.985765,-0.231292,0.125504,0.964755
0.697816,0.371683,0.026108,-0.299036,-0.930136,0.213130
0.284803,-0.673025,0.827912,0.905194,0.163669,0.392221
0.704928,-0.296797,0.870208,0.673314,0.700404,0.236817
0.725153,0.209118,0.479812,0.930412,-0.138477,-0.339350
0.503122,-0.024623,0.452854,0.866570,-0.358177,0.347513
-0.190859,0.712826,0.359719,0.709782,0.486123,-0.509798
-0.307625,-0.187308,-0.106096,0.522474,0.674357,-0.521790
0.752551,-0.060842,-0.160453,0.924754,-0.354435,-0.138585
-0.410476,0.667761,0.199470,-0.410374,0.911914,-0.002230
-0.185725,0.718024,0.378505,0.980315,0.132465,-0.146410
-0.387593,-0.223523,-0.355846,-0.453921,-0.163190,0.875971
-0.012802,0.063767,0.654940,0.810878,0.420525,0.406984
-0.402870,0.015120,-0.957959,-0.215218,0.043848,0.975581
-0.189685,0.218321,0.642337,-0.452310,-0.693259,-0.561077
0.848350,0.034724,0.752510,0.902140,0.406148,-0.145559
-0.452534,-0.332359,0.542933,-0.800330,0.435943,-0.411613
0.226544,0.398994,0.084439,-0.643101,-0.720575,-0.259215
0.322902,-0.223344,0.554212,0.141354,0.688878,0.710961
0.423588,-0.199557,-0.318306,-0.239581,0.963359,-0.120587
0.505658,-0.310724,0.808378,-0.683043,0.729327,-0.039171
0.779144,0.009623,0.691937,0.603617,0.582668,-0.544192
0.348814,-0.273250,-0.385521,0.822508,-0.565430,-0.061395
0.473684,-0.212886,-0.069661,0.469273,0.880791,-0.063170
-0.333540,-0.551998,0.889453,0.771088,0.303054,0.559983
-0.017255,0.014763,0.948820,-0.284730,-0.200549,0.937395
0.728617,0.103514,0.727421,0.748382,0.413315,-0.518743
0.237059,-0.689998,-0.150804,0.999055,0.018207,0.039469
0.573009,0.748863,0.191316,-0.183645,-0.746473,0.639572
0.692497,-0.324469,0.753546,-0.259689,-0.859849,0.439569
0.088750,-0.029704,0.566747,0.058253,0.989378,0.133183
0.127527,-0.056599,0.482394,0.672584,-0.735185,0.084462
-0.185665,-0.211332,0.689932,0.150133,-0.952606,0.264580
-0.924300,-0.323572,-0.983625,0.150708,-0.001288,-0.988578
-0.023564,0.164892,0.821185,0.581534,0.715401,-0.387324
0.213062,-0.080865,0.055375,0.231581,0.969008,-0.085981
0.432123,-0.264525,-0.829050,0.988928,0.147287,-0.018107
-0.511659,0.499940,0.383262,-0.268896,-0.801413,-0.534258
0.215288,-0.837497,-0.123881,0.084814,-0.985503,0.146938
0.222029,-0.676611,0.833330,0.007197,-0.421364,0.906863
0.203661,-0.178940,0.215794,0.915452,0.234946,-0.326724
-0.106314,-0.772771,0.823869,-0.432276,-0.559232,-0.707387
-0.527615,0.305821,-0.971004,0.426380,-0.169864,-0.888451
-0.075453,-0.774744,0.824922,0.891473,-0.399419,0.213872
0.470900,0.432583,0.527051,0.823269,0.566907,-0.029076
0.251839,-0.319749,0.928097,-0.146955,-0.589415,0.794352
0.074155,0.038368,0.695605,-0.089016,-0.228337,0.969504
-0.573381,-0.416806,0.591225,0.856396,0.508936,0.087007
-0.569175,-0.472866,0.370097,0.871434,-0.091055,0.481987
-0.217824,0.238465,0.458375,-0.259837,-0.718712,0.644932
-0.119736,-0.370370,0.408758,0.820080,-0.413944,0.395120
-0.761520,-0.422544,-0.552717,0.451975,-0.032986,-0.891420
0.149051,-0.269723,0.854393,-0.561509,0.201419,0.802582
0.180654,0.437785,0.115795,0.944360,0.228635,-0.236454
0.700353,0.023547,0.528698,0.976189,0.023932,-0.215597
-0.296431,0.688740,0.335904,-0.619755,0.653237,-0.434955
0.439729,-0.275880,0.881113,0.872511,0.082961,-0.481500
0.703506,0.024324,0.507261,-0.860461,-0.192122,0.471907
-0.175522,-0.349092,0.866488,0.354023,-0.935127,-0.014335
-0.491188,0.107100,0.278371,0.187212,0.886283,-0.423620
0.131981,0.106680,0.483498,-0.621804,0.336065,-0.707403
0.864865,-0.558035,0.803316,-0.468337,0.531426,-0.705866
0.380357,-0.066222,0.944217,0.362547,-0.592374,0.719481
-0.764117,-0.274804,0.610198,0.163329,0.355811,0.920175
-0.530831,0.168956,-0.354878,-0.530187,-0.414585,0.739609
-0.084360,0.564068,0.333203,0.261645,0.104411,0.959500
0.549507,-0.834211,0.888468,0.790330,0.239212,-0.564053
-0.279362,0.060659,0.800853,-0.813906,0.423357,0.397903
0.478323,-0.155809,0.106759,0.998956,0.043793,-0.012978
0.435339,0.464140,0.575292,0.422418,0.113635,0.899250
0.110397,0.541656,0.437380,0.617510,0.784740,-0.053513
0.153379,-0.500359,0.819571,0.840848,-0.525961,-0.127829
0.416042,-0.690057,0.089314,-0.588881,0.727546,0.351990
-0.318758,-0.313949,0.345637,-0.356100,0.650107,0.671233
0.818480,-0.685694,0.815206,0.185730,-0.380398,0.905981
0.192590,0.766255,0.135109,0.375593,-0.353090,0.856888
0.489702,-0.208104,0.124543,0.990603,-0.102599,0.090434
0.310779,0.186947,0.822697,0.292561,-0.109746,0.949928
0.299895,-0.692986,0.853935,-0.050399,0.983693,0.172653
0.231616,-0.878437,0.239999,0.824421,0.565607,0.020449
0.729790,-0.543929,0.888570,-0.202657,-0.968291,0.146091
-0.340776,0.125984,0.257716,0.254086,0.932341,-0.257255
-0.503494,0.191010,-0.529887,0.785396,0.342411,0.515663
-0.410973,0.134951,-0.189584,0.324273,0.309284,-0.893975
0.462552,-0.273010,0.611218,0.985059,-0.072865,0.156044
0.294946,0.172782,0.129979,-0.450163,-0.845957,-0.285851
-0.786505,-0.244921,0.619252,0.157810,0.605458,0.780075
0.662255,0.299245,0.844202,-0.233238,0.561262,0.794094
-0.100316,-0.705833,0.843063,0.106761,0.205981,0.972715
-0.521182,-0.107939,0.040801,-0.698738,-0.028694,-0.714802
0.746798,-0.025283,0.899917,0.957454,-0.233051,0.170203
0.066609,-0.474303,0.937202,-0.787104,0.074436,-0.612313
0.809201,0.034724,0.858708,0.052104,-0.554102,0.830817
0.220793,0.087617,0.932021,0.267071,0.042490,0.962740
0.977859,-0.320464,-0.654448,0.409105,0.904246,-0.122359
-0.446101,0.092158,0.497308,0.454269,-0.887946,-0.072050
0.200198,-0.324112,0.907510,0.074484,-0.859936,0.504938
0.425072,0.844669,0.503151,0.298247,-0.281879,0.911917
-0.397304,-0.588695,0.203615,-0.331682,0.863378,-0.380218
0.469788,-0.349570,0.696744,-0.632808,0.759560,0.150407
0.354133,-0.086960,0.608194,0.849233,-0.379616,0.367009
0.158450,-0.039626,0.116628,-0.410263,-0.880850,-0.236192
0.824663,0.023368,0.865163,-0.337411,-0.503889,0.795141
0.740490,0.231709,0.912707,-0.313763,0.378218,0.870921
0.185972,0.144873,0.972686,0.426248,0.417391,0.802557
-0.423898,0.528090,-0.968745,-0.223348,0.125335,0.966647
0.712104,-0.377063,0.823444,-0.329179,-0.882932,-0.334772
-0.463109,-0.282694,0.537718,-0.742708,-0.603491,-0.290145
0.136618,-0.057318,0.470096,0.816081,-0.510822,0.270320
0.320118,0.648457,0.591327,0.852270,-0.376791,-0.362857
-0.626508,0.510161,0.386557,-0.675480,0.521743,-0.521067
-0.409178,-0.245158,0.326205,0.316737,0.232208,-0.919650
0.108170,-0.178940,0.953933,-0.327953,0.217939,0.919211
-0.113056,-0.368994,0.632722,-0.321492,0.595541,-0.736188
0.391676,-0.497073,0.504000,0.926220,0.362525,0.103399
-0.443689,0.463484,0.378777,-0.517387,-0.672590,-0.529088
-0.664977,-0.300802,0.568786,-0.283969,-0.519914,-0.805637
0.468550,-0.418003,0.608823,0.762445,0.057899,0.644457
0.501144,-0.149535,0.430399,0.927567,-0.122810,0.352899
0.018740,0.567596,0.266736,-0.199166,0.665803,0.719054
-0.575980,0.739422,-0.988212,-0.324697,0.171277,0.930181
-0.097409,0.160409,0.695877,-0.602388,0.050892,-0.796579
0.662810,0.611880,0.431163,0.903989,0.372017,-0.210729
-0.133280,0.212587,0.156682,-0.166802,0.657966,-0.734342
0.103592,-0.210555,0.500195,0.939348,-0.337686,0.059937
0.073351,0.078052,0.054322,-0.323556,0.230861,0.917614
0.446843,-0.261118,0.865010,-0.555888,-0.805634,0.204797
-0.550003,0.045003,-0.961645,-0.117901,0.288822,0.950095
0.058693,-0.913222,0.819996,0.211912,0.486869,-0.847379
0.482466,0.385191,0.358496,0.484127,-0.773889,0.408311
0.367987,-0.860150,0.858623,-0.350926,0.919988,-0.174565
0.223760,-0.830866,-0.118446,0.329813,-0.905434,0.267232
0.065186,0.359849,0.236619,-0.018973,-0.961423,0.274418
0.477023,-0.316820,0.703113,0.916306,-0.363236,0.168647
-0.649081,-0.096882,-0.172649,-0.201099,-0.416315,0.886702
0.548456,-0.583256,0.955666,0.039427,-0.324546,-0.945048
0.121591,-0.071063,0.823478,-0.015233,-0.410370,0.911792
0.781372,0.055760,0.929286,0.773602,-0.331097,-0.540292
-0.321974,-0.284905,0.867388,0.038589,0.945510,0.323297
-0.379430,-0.616068,0.020604,-0.153061,0.091101,0.984009
-0.188819,0.311676,0.426441,-0.184804,-0.950440,0.250022
-0.063145,0.142002,0.735336,0.042908,-0.926485,0.373878
-0.764921,-0.557495,-0.008086,-0.168667,0.080549,0.982376
-0.752861,0.012490,-0.975489,-0.291741,0.121966,0.948689
0.411837,-0.722989,0.401777,-0.232812,0.642651,0.729930
0.549012,0.446926,0.548147,-0.040931,0.896605,0.440935
-0.406396,-0.303254,0.133393,-0.407539,-0.387176,-0.827047
0.690332,0.062035,0.901021,-0.245121,-0.735425,0.631717
0.336756,-0.712410,0.881860,-0.007160,-0.997577,0.069202
0.472014,-0.795661,0.881554,0.486731,0.822942,-0.293017
0.350300,0.113673,0.370454,-0.019923,-0.763601,0.645381
-0.235141,0.262311,0.845000,-0.143380,-0.880284,0.452264
-0.132723,0.278507,0.279119,-0.088763,0.788831,-0.608166
0.367617,0.653060,0.621460,0.764070,-0.625173,-0.159236
-0.433237,0.124252,0.498293,0.376247,-0.915871,0.140067
-0.464469,-0.374674,0.354844,-0.091358,-0.949793,0.299244
-0.090420,-0.207509,0.467259,0.044749,0.871775,0.487859
0.546663,-0.047097,0.118377,0.552999,0.156057,-0.818436
-0.365205,0.448958,0.192234,-0.441780,-0.494030,-0.748842
0.053374,0.406585,0.985205,-0.435415,0.327681,-0.838474
0.617973,-0.130172,0.309558,0.777522,0.184718,-0.601114
0.508503,-0.430256,0.888230,0.389312,-0.914820,-0.107430
-0.130498,0.062812,0.781064,-0.310246,0.907989,0.281609
0.420372,-0.504784,0.924785,-0.285954,0.529224,0.798845
0.457603,-0.164597,-0.149089,0.840064,0.498383,0.214257
-0.428043,0.017871,-0.358428,0.771602,0.409277,-0.486953
0.483455,-0.278988,0.264680,0.830786,0.256209,0.494117
0.415920,0.018465,0.979192,-0.222299,-0.866807,0.446350
0.027830,0.532511,-0.048734,-0.751524,0.541559,0.376729
0.304781,-0.481114,0.808259,0.468778,0.715092,0.518547
0.559465,-0.473942,0.795875,0.778307,0.447539,-0.440394
0.199022,-0.051401,0.144061,0.812227,0.582995,-0.020101
0.626321,0.121563,0.822425,0.049979,0.810382,0.583766
-0.177562,0.329547,-0.302373,-0.523751,0.577424,0.626312
-0.320613,-0.491035,-0.200099,0.709393,0.518384,0.477535
-0.267488,0.053309,0.067690,0.812242,0.387168,-0.436307
0.494402,0.435213,0.564998,-0.326972,0.876401,-0.353569
-0.674748,-0.453624,0.272528,0.672004,-0.080878,-0.736118
0.549879,-0.327635,0.775254,0.821078,-0.568836,0.047503
0.742965,-0.791119,0.782049,-0.207791,0.499919,0.840776
-0.135012,0.568851,0.622462,0.313965,0.030915,0.948931
-0.912921,-0.384771,-0.980041,-0.307809,0.131179,0.942362
-0.039892,-0.432167,0.424912,0.347364,0.492708,-0.797858
0.722679,0.160409,0.830239,0.072065,-0.316132,0.945974
0.033645,-0.499644,0.391602,0.345894,0.870697,-0.349634
0.614200,-0.211033,0.916206,0.808835,0.269323,-0.522735
0.332736,0.745697,0.571436,-0.381741,0.126094,0.915628
0.530397,-0.222389,0.169982,0.886788,0.414386,0.204676
-0.780753,0.191787,-0.984559,0.094802,0.090714,0.991354
-0.326985,-0.238049,0.449287,-0.052141,0.998160,-0.030960
-0.249057,-0.375210,0.883847,-0.845672,0.529382,-0.067774
0.551302,0.299066,0.903840,0.136329,0.435874,0.889622
0.302492,-0.160890,-0.080617,0.913837,-0.197151,0.355013
-0.157029,-0.339651,0.025581,0.510539,-0.858137,0.054314
0.654090,0.006752,0.893003,-0.303347,0.661671,-0.685691
0.099325,-0.227350,0.512629,0.979136,-0.189166,0.074220
-0.130373,-0.338874,0.494709,-0.634324,-0.344242,-0.692192
-0.645001,-0.387941,0.380459,0.427801,0.471662,-0.771052
0.446843,-0.630411,0.543459,-0.221798,-0.964494,0.143376
-0.374234,0.535739,0.326307,-0.666242,-0.204701,-0.717091
0.685198,0.473045,0.469297,0.816315,-0.098196,-0.569199
0.481537,0.145052,-0.259228,0.392123,-0.763984,-0.512414
-0.083865,0.066160,-0.393470,-0.294223,0.260959,0.919420
0.332549,0.036876,0.754582,0.787030,0.614758,-0.051540
-0.044345,0.121862,0.692276,0.450415,-0.065404,0.890420
-0.733564,-0.311381,0.106215,-0.744795,0.103130,-0.659276
0.014348,-0.819689,0.847004,0.087343,0.225412,0.970341
0.057394,0.188439,0.603812,0.950904,-0.281560,0.128470
0.327230,-0.452547,0.543137,-0.303010,0.951709,0.049341
0.794916,0.060003,0.911841,0.845347,-0.008965,-0.534142
-0.547776,-0.293332,-0.536376,0.355216,0.656403,-0.665550
0.495516,-0.180016,0.483158,0.995190,-0.088893,-0.041167
0.089122,0.548948,0.266226,0.272043,0.586240,0.763096
0.636773,0.263328,0.852083,-0.331521,0.904260,0.269086
0.555569,0.410590,0.761818,0.431297,0.900877,-0.049020
-0.180159,-0.708343,0.204192,-0.450040,-0.700435,-0.553945
0.136496,0.419615,0.655178,-0.531836,0.764457,0.364356
0.166800,0.264284,0.230606,0.331514,-0.872910,0.357949
-0.020780,-0.853099,0.835012,-0.780175,0.475324,0.406686
0.361989,0.408558,0.301744,-0.005144,0.540767,0.841157
0.603623,-0.743785,0.803774,0.118044,0.703267,0.701057
-0.453645,0.239599,-0.967149,-0.157877,-0.024442,0.987156
0.520626,-0.611822,-0.335259,0.590831,-0.606159,0.532438
0.214978,-0.348136,0.591242,0.851288,-0.210265,0.480725
-0.377080,0.648099,0.317202,-0.553400,-0.204448,0.807434
-0.713093,-0.469342,0.348474,0.279051,-0.923994,0.261470
0.782608,0.245757,0.844643,-0.201363,-0.399356,0.894409
-0.149298,-0.877901,0.851047,-0.179712,0.189393,-0.965315
-0.653473,0.135728,0.336685,0.556825,0.287495,-0.779289
-0.649391,-0.627960,-0.961101,-0.199080,-0.024239,0.979684
0.475539,0.296618,-0.314943,-0.539345,0.659676,0.523387
-0.152576,-0.389495,0.624858,0.216227,-0.514211,0.829959
0.403921,0.158917,0.210460,0.221903,0.934903,0.276976
-0.396685,-0.067058,-0.101765,0.406898,0.758344,-0.509262
0.330694,-0.111645,0.946221,0.112454,-0.434622,0.893565
0.202363,0.107877,0.736661,0.618638,0.733983,-0.280279
0.294823,0.448480,0.954562,0.746092,0.649016,-0.148746
-0.248129,0.471790,0.269980,-0.736122,0.596908,-0.319102
0.421238,-0.275639,0.938272,-0.301914,0.287733,0.908877
0.414434,-0.098075,0.935741,0.618944,-0.178691,0.764838
-0.145465,-0.384235,0.232101,-0.230446,-0.809118,0.540577
0.237429,-0.090904,0.004348,0.834764,-0.541867,0.097714
-0.501083,-0.107162,0.805592,-0.067951,-0.872054,0.484669
-0.706475,-0.240259,-0.967149,-0.332632,-0.175221,0.926636
-0.605108,0.368334,-0.978275,-0.249443,0.018617,0.968211
-0.184427,0.416266,0.839734,0.652297,0.702205,-0.285336
0.492918,-0.130530,0.266889,0.973528,-0.222070,-0.054109
0.135258,-0.738047,0.823139,-0.305694,0.384628,0.870984
0.007916,-0.230578,0.441813,-0.309628,0.949198,-0.056167
0.085162,-0.020800,0.201984,0.415918,0.442273,0.794611
0.432061,-0.212886,0.482597,0.995373,-0.061027,0.074218
0.322840,0.631542,0.217034,0.873227,-0.406460,0.268822
-0.337622,0.284901,0.393368,-0.531464,-0.502852,-0.681679
-0.169584,-0.060842,0.357290,-0.496324,0.814862,0.299437
0.240954,0.457206,0.950960,-0.419315,-0.871502,-0.254283
0.084050,-0.417583,0.916241,-0.636988,-0.499352,-0.587276
0.350175,0.049245,0.628102,0.476460,0.259439,0.840046
0.622363,-0.651328,0.782592,0.757559,-0.552422,-0.347757
0.713340,0.095087,-0.282550,0.961797,0.199211,-0.187781
0.341146,0.742767,0.586621,0.979457,-0.177717,-0.095292
0.168223,-0.785921,0.442204,0.386635,0.921388,-0.039478
0.595769,0.437486,0.555468,0.303409,0.894834,0.327437
-0.290556,0.104112,-0.952591,-0.285607,0.095910,0.953535
-0.449008,-0.148101,-0.128111,0.525543,0.615063,-0.587794
-0.470964,0.212168,-0.248917,-0.545299,-0.691113,-0.474355
0.722554,-0.011418,-0.221416,0.900159,-0.349705,-0.259655
-0.228709,-0.278926,0.242598,0.532778,-0.824494,0.190673
-0.441896,-0.219460,0.491957,0.161515,-0.840020,0.517958
-0.812852,-0.316222,0.614190,0.055769,0.035750,0.997803
0.046695,-0.235838,0.567631,0.987857,0.110871,0.108836
0.288329,-0.570525,0.843267,0.766502,0.475905,0.431264
-0.049107,0.469160,0.258463,-0.164199,-0.455919,0.874744
0.149608,0.004542,0.439945,0.937780,-0.346189,0.026866
0.157586,0.141404,0.842129,0.549146,0.818044,0.171002
0.435586,0.472625,0.660868,-0.106243,-0.374301,0.921201
0.073288,0.531734,0.385504,-0.781744,-0.622646,0.034476
0.588842,-0.113976,0.953305,0.370760,0.139733,0.918157
-0.388707,0.345265,0.348542,-0.429632,0.754537,-0.496075
-0.293092,0.130945,0.438484,-0.679633,0.335644,-0.652259
0.119673,-0.852202,-0.124832,0.493344,0.821293,-0.286512
0.676479,-0.097838,0.852117,0.262605,-0.380120,0.886875
-0.629909,-0.016795,0.068540,0.883031,0.048272,-0.466825
-0.413817,0.240916,0.508519,0.052383,-0.355019,0.933390
0.656997,-0.226573,0.279305,-0.694090,0.685686,-0.219258
0.470096,-0.597358,0.508756,0.380563,0.912362,0.150889
0.404229,-0.243787,0.630650,0.820350,0.521644,0.234338
-0.076876,0.231293,0.809142,-0.541209,-0.840107,0.036243
0.383449,0.329189,0.757538,0.818926,-0.418416,0.392795
-0.023193,-0.672186,-0.446451,-0.098571,-0.881310,-0.462143
-0.394458,-0.525102,-0.303307,-0.205230,0.663162,0.719790
-0.530831,-0.423562,-0.400452,-0.817528,0.402704,0.411676
-0.097162,0.342457,0.226189,0.576223,0.492045,-0.652578
-0.268230,-0.032214,0.272324,0.817401,-0.235979,0.525519
-0.973591,-0.273429,-0.980738,-0.455848,-0.010847,0.889991
0.363597,-0.462586,0.757606,0.494798,0.526845,0.691092
0.035933,0.229918,0.013317,0.818332,-0.263674,-0.510695
-0.729977,-0.117620,-0.530142,0.661056,-0.029348,-0.749762
0.182139,0.400610,0.970410,-0.844080,0.497012,0.201265
-0.712104,-0.054148,-0.393555,-0.355740,-0.320358,0.877963
0.598861,0.726392,0.426882,-0.651009,-0.750764,-0.111983
-0.582040,0.008127,-0.959216,-0.256695,0.294237,0.920615
-0.611108,0.325064,-0.981910,-0.161513,0.115399,0.980100
0.543199,0.598734,0.156104,0.758530,0.299734,-0.578612
-0.753540,-0.067955,-0.973484,-0.247842,-0.049040,0.967559
0.515864,0.433360,0.758217,0.826229,-0.561205,-0.048937
0.694290,-0.360509,0.245248,0.139921,0.047513,0.989022
0.166738,0.692325,0.581033,0.141733,0.528904,0.836763
-0.144536,-0.519427,-0.219701,-0.492955,-0.314274,-0.811312
-0.273548,-0.335883,0.422925,0.594180,0.231034,0.770437
-0.249242,-0.007890,-0.418865,0.931318,-0.287870,-0.223109
-0.287279,-0.157604,-0.079479,0.694936,0.476082,-0.538898
-0.789474,0.010458,-0.984084,-0.123262,-0.037152,0.991678
0.618033,-0.286875,0.861799,0.222418,-0.561897,-0.796744
0.176264,0.382739,0.993511,-0.291037,0.602139,-0.743456
-0.164697,-0.652462,0.057923,0.897188,-0.412531,0.157709
-0.392480,-0.530421,0.026431,-0.155830,-0.180299,0.971190
0.082937,0.174573,0.966265,0.721788,-0.145447,0.676659
0.223947,0.133634,0.153250,0.749127,-0.512030,0.420278
-0.152452,0.390090,-0.205619,-0.221284,0.778654,0.587138
0.398106,-0.059288,0.625605,0.900807,-0.126002,0.415536
0.327107,0.453740,0.494522,-0.014769,0.890126,0.455475
0.563610,0.141765,0.857043,0.301554,0.792306,0.530392
0.263033,-0.535024,0.458766,0.046883,0.282145,0.958225
0.048673,0.292252,0.069831,-0.472933,0.508959,-0.719233
0.474178,-0.223407,-0.064497,0.715261,0.698520,-0.021712
0.481043,0.209060,0.397394,-0.502645,0.733672,-0.457245
-0.357289,-0.383936,0.365511,0.009602,0.916832,0.399158
-0.519142,0.419196,0.405089,0.415687,0.779858,0.468001
0.535531,0.294882,0.885088,0.361915,0.574638,-0.734036
0.286598,-0.289147,0.827640,-0.462864,0.861022,-0.210710
0.417775,-0.060721,-0.233714,-0.164483,0.986263,-0.015213
-0.819841,-0.042493,-0.427749,0.338845,0.528136,-0.778625
0.174221,0.001554,0.449984,0.957729,-0.275142,0.083973
-0.746243,-0.387642,0.600347,-0.728501,0.296317,-0.617643
0.443687,-0.365230,0.874250,0.779880,0.075464,0.621363
0.415423,-0.274746,0.865095,0.815093,0.577724,0.043107
-0.505845,0.631363,0.302458,-0.612450,0.468912,-0.636417
0.370771,-0.253826,0.241324,-0.015829,0.848262,0.529341
-0.602326,0.619172,0.318765,-0.684168,0.039156,-0.728272
0.068958,-0.023667,0.142702,-0.086423,0.995052,-0.049025
-0.548148,-0.515064,-0.953882,0.195382,-0.006710,-0.980704
0.478323,-0.167942,-0.097994,0.636408,0.765642,-0.093682
-0.492362,-0.356625,0.591225,0.051838,-0.020707,0.998441
0.377573,-0.465636,0.467293,-0.346376,0.937049,0.044318
0.394458,-0.750957,-0.360568,-0.366926,0.858437,-0.358402
0.035313,-0.782634,0.832294,0.089731,0.585297,0.805839
0.182881,0.251553,0.968082,0.123766,0.126865,0.984168
0.505596,0.394095,0.533794,-0.117565,0.935859,0.332185
0.909702,-0.239125,0.450629,0.886783,0.308343,0.344297
0.822251,-0.438325,0.840227,-0.279355,0.868306,-0.409884
-0.172738,0.856860,0.357408,-0.535845,0.294165,0.791415
-0.210713,-0.431748,0.507720,0.333156,0.003919,-0.942864
-0.061537,-0.842458,0.845323,-0.632206,0.279747,-0.722536
0.460387,0.473942,0.493689,0.027053,0.806792,0.590216
-0.730225,-0.186888,-0.972007,0.226121,-0.248209,-0.941946
0.579194,-0.564309,0.955683,-0.224682,0.394321,0.891083
0.508690,-0.219223,0.110343,0.995283,-0.096928,-0.004121
-0.217577,0.632381,0.172801,-0.419635,-0.366285,0.830507
0.136990,0.267629,0.221331,0.183535,0.930834,-0.316012
-0.577835,-0.257054,-0.213416,-0.477497,-0.328853,0.814771
-0.468922,-0.041479,-0.960982,-0.124371,0.193392,0.973207
-0.151835,-0.270084,0.483939,-0.542104,-0.533166,-0.649506
0.426495,-0.053192,0.758981,0.715301,0.674534,-0.182616
-0.574679,-0.550801,0.190926,0.540274,0.835746,0.098148
-0.220978,0.164593,-0.047884,-0.234956,0.334190,0.912750
-0.390872,0.172782,0.803927,0.040444,-0.122230,0.991677
-0.438618,-0.585288,0.948803,0.643893,-0.709838,-0.285537
0.068836,0.237330,1.000000,0.414793,0.305779,0.856998
-0.135507,0.270379,0.071869,-0.016732,-0.701254,0.712716
-0.306821,0.297034,0.079683,-0.266080,-0.587058,0.764568
0.357844,0.074346,0.926177,0.431592,0.557548,0.709132
0.372873,0.613077,0.278167,-0.643387,-0.358764,0.676270
-0.361185,-0.042971,-0.063801,-0.058783,0.992079,0.111010
0.899622,-0.311023,0.870157,-0.521395,-0.626618,0.579221
-0.049601,0.021515,0.486929,0.765045,0.619813,0.174754
-0.519204,0.598671,0.304955,0.832524,-0.114263,0.542078
0.404725,0.877419,0.499091,0.332769,-0.429522,0.839509
-0.611850,-0.497131,0.238691,-0.432631,-0.852010,-0.294804
-0.800050,-0.476156,-0.971548,-0.322096,-0.049532,0.945410
0.493908,-0.167464,-0.748994,0.994458,0.040819,-0.096888
0.747664,0.162981,0.554280,0.571661,-0.395661,-0.718788
0.399592,-0.200994,0.664334,0.465217,0.871562,0.154766
-0.265818,-0.308992,0.765963,0.841160,0.061010,0.537333
-0.143857,0.205474,0.749044,-0.020114,-0.990075,0.139094
0.548642,0.589049,0.471132,-0.085674,0.959100,0.269792
0.139465,-0.430672,-0.225459,0.829511,0.493924,-0.260673
-0.458409,-0.521039,0.191062,0.158286,0.866390,-0.473618
-0.120725,-0.195256,0.781064,-0.030959,-0.988033,0.151101
0.274105,0.729143,0.128093,0.081506,-0.432131,0.898120
-0.223515,0.347538,0.611048,0.520972,-0.383680,0.762481
-0.196797,0.274622,-0.275144,0.519231,-0.565948,-0.640392
-0.516792,0.415850,0.066739,0.247423,0.659519,-0.709801
-0.689962,-0.269723,-0.972567,-0.296210,0.125271,0.946872
-0.789040,-0.155929,0.078850,0.055763,0.452388,0.890076
-0.893624,-0.385789,0.253011,0.222534,0.570314,0.790709
0.241759,-0.379037,0.674475,0.055636,0.687184,0.724350
-0.216401,0.296257,0.287663,-0.054779,-0.761527,0.645814
-0.314430,-0.098195,0.820862,-0.311593,0.463675,-0.829407
0.522851,-0.204759,0.000408,0.724343,0.685461,0.073966
0.248623,-0.094730,0.156325,0.922198,0.322078,0.214049
0.389449,0.575067,0.499856,0.092632,-0.030307,0.995239
0.013729,-0.441013,0.205840,-0.132246,0.050941,0.989907
0.267178,-0.010520,0.102003,-0.367334,0.928905,0.046914
0.199641,0.120608,0.893836,0.628545,-0.699899,0.339224
0.111386,-0.117500,0.285913,0.811993,0.582113,0.042568
0.672336,0.625567,0.438110,0.834500,0.549123,0.045530
-0.421918,0.311738,0.074536,0.720430,0.559238,-0.410163
0.465706,-0.268231,0.690646,0.852462,-0.492756,0.174643
0.744386,-0.772833,0.785174,-0.721315,0.620457,-0.307794
-0.363102,-0.108475,0.536427,0.593274,0.740345,-0.316095
-0.368793,-0.047874,-0.073653,0.333013,0.817051,-0.470669
0.523470,-0.306661,-0.815308,-0.079779,0.971502,0.223202
0.189189,-0.408799,0.892256,-0.059459,0.619835,0.782476
0.536397,-0.229922,0.113893,0.967793,0.246982,-0.048745
0.058136,0.242587,0.193847,0.079505,0.804628,-0.588433
0.617106,-0.925114,0.824107,-0.496428,-0.273776,-0.823775
-0.335457,0.168241,0.030151,0.587891,0.019842,0.808697
0.223885,0.138715,0.156189,0.746221,-0.494818,0.445319
0.246149,0.732488,0.503457,0.104355,-0.623775,0.774606
0.341023,0.364332,0.583904,0.749352,0.605345,0.268383
0.624343,0.218861,0.541013,0.426007,-0.228185,0.875471
0.277012,0.108533,0.849892,-0.535348,0.740666,-0.405976
0.562496,0.724240,0.190688,-0.183645,-0.746473,0.639572
0.394767,-0.113615,-0.329908,0.754888,-0.625063,0.198596
-0.679757,-0.261176,-0.969527,0.494814,0.063694,-0.866662
-0.101800,0.163995,-0.229264,0.539875,-0.031300,-0.841163
0.389386,-0.236911,0.917650,0.881733,-0.401164,0.248222
0.155483,0.257050,0.225969,0.837634,-0.473356,0.272587
-0.039892,0.185331,0.248696,0.056842,-0.961193,0.269956
-0.605542,-0.545840,-0.005317,-0.583092,-0.098491,0.806414
-0.537510,-0.239902,0.198655,-0.446713,0.888263,0.106942
0.341827,-0.223465,0.847021,0.153484,0.859103,-0.488246
-0.625581,0.018943,-0.384739,0.276792,-0.310408,-0.909414
0.349805,-0.461331,0.522940,-0.445242,0.888215,-0.113284
0.196300,-0.009444,0.436157,0.934416,-0.348666,-0.072789
-0.638938,-0.230038,0.453636,-0.401437,0.110907,-0.909147
0.465953,0.229320,0.888383,0.887862,0.043508,-0.458048
0.219927,0.611045,0.260994,-0.177749,-0.542077,0.821315
0.072360,-0.046320,0.946289,0.962379,0.047577,-0.267514
0.350053,-0.510880,0.021573,-0.427237,-0.805245,0.411156
-0.093264,0.477466,-0.249614,0.877748,0.374847,-0.298411
0.145153,-0.113794,0.409217,0.914872,-0.402601,0.030366
0.177932,0.109132,0.846597,0.951031,-0.219175,-0.217949
0.823736,-0.460438,0.845578,0.214261,0.879310,-0.425330
0.107180,-0.158202,0.405446,0.533468,-0.805523,-0.257963
-0.349558,-0.621685,0.167400,-0.093385,0.990100,0.104793
0.107613,-0.161489,0.178781,0.740734,-0.651478,-0.163978
0.408374,-0.190773,-0.808921,-0.079083,0.980935,0.177515
0.603500,-0.900192,0.815971,-0.568892,-0.323628,-0.756061
0.662625,-0.048651,-0.201576,0.816681,-0.512157,-0.265947
0.762507,-0.575844,0.561720,0.614165,0.411807,-0.673214
-0.212938,0.107698,0.773318,-0.087801,0.992849,0.080879
0.127095,0.202964,0.978903,-0.335019,-0.152826,-0.929735
-0.288887,0.709357,0.349204,0.269480,-0.210516,-0.939714
0.424824,-0.526598,-0.252688,-0.448253,0.641671,-0.622357
0.647163,-0.528750,0.404155,-0.184637,0.860995,0.473917
0.130496,0.052353,0.952455,0.924908,-0.098663,0.367165
-0.358588,0.488044,0.332048,0.457138,0.608242,0.648896
0.335580,0.176787,0.356219,0.792181,0.497438,0.353559
-0.343003,-0.205773,0.812386,0.415338,-0.056759,0.907895
-0.093142,0.380109,0.785225,-0.465984,0.526411,0.711161
0.627249,-0.418780,0.452022,-0.645599,-0.670854,0.364908
0.137113,-0.083674,0.482580,0.672584,-0.735185,0.084462
-0.191353,-0.369593,0.800615,-0.463079,0.792311,0.397241
-0.726884,-0.361823,0.100202,0.902995,0.116299,-0.413612
-0.328778,-0.278689,0.915867,0.942810,-0.056203,0.328558
0.440905,0.042373,-0.138472,-0.696545,-0.569303,0.436713
0.565650,-0.325188,0.259381,-0.716310,-0.573827,-0.397017
-0.422909,-0.075367,-0.505206,0.021599,0.857518,0.514000
-0.477951,-0.482850,0.619354,-0.275903,0.528018,0.803165
-0.232976,0.138117,-0.027433,0.042897,0.996611,0.070187
0.511781,0.515538,0.422058,0.006147,0.999981,-0.000512
0.017193,-0.673262,0.465645,0.664015,0.612478,-0.428899
-0.371205,-0.612778,0.154100,-0.187810,0.978602,0.084058
0.298656,-0.478126,0.474274,-0.047653,-0.987500,0.150243
-0.449255,0.207207,-0.273276,0.134087,-0.901051,0.412466
0.253880,-0.869952,0.848159,0.164836,0.531933,0.830588
-0.252768,-0.183004,0.510064,0.637899,0.768219,0.054081
-0.113056,0.248624,0.798627,0.968416,0.232315,0.090557
-0.310904,-0.442687,0.912249,0.942815,-0.232644,0.238698
-0.231431,0.150790,-0.057193,-0.325089,0.216878,0.920479
0.027088,-0.265780,0.591191,-0.694151,-0.645382,-0.318804
0.097904,-0.122282,0.928386,-0.258916,-0.109529,0.959670
0.253572,-0.150191,-0.005894,0.586941,-0.780861,0.213906
0.586306,-0.586780,0.950145,-0.056978,0.186356,0.980829
0.207804,0.424635,0.949601,-0.017790,0.408160,0.912737
0.478013,-0.666331,-0.335887,-0.562525,0.608955,-0.559232
-0.293896,-0.176368,-0.332914,0.132514,-0.181939,0.974340
0.477209,-0.473825,-0.237400,-0.171178,0.662772,-0.728993
-0.429216,-0.111944,0.272919,0.329898,-0.941385,0.070442
-0.528728,0.197168,0.306959,0.323073,-0.650724,0.687155
0.431009,0.331878,0.814561,0.194826,0.471466,0.860094
0.121591,-0.729085,0.468550,-0.588972,-0.725600,0.355832
-0.304904,0.271693,-0.059656,-0.477501,0.574934,-0.664413
0.094810,-0.171648,0.944879,-0.711987,0.165482,0.682415
0.588533,-0.117022,0.903127,-0.630061,0.276633,-0.725602
0.151770,0.407840,0.681847,0.864400,-0.460722,-0.201367
0.342879,-0.143560,-0.291060,0.820055,-0.571977,0.018781
0.168593,-0.107162,0.075419,-0.645780,0.725973,-0.236498
-0.656565,-0.534069,-0.009376,0.536251,0.066252,-0.841455
-0.801163,-0.022412,-0.397479,-0.428944,-0.483729,0.762898
-0.667449,-0.287057,0.486046,0.242128,0.814450,0.527301
0.798998,-0.625450,0.800649,-0.002869,-0.163091,0.986607
0.001051,-0.487869,0.945525,0.287218,0.005681,0.957848
0.618467,-0.640990,0.511151,0.192447,-0.978253,-0.077364
0.205826,-0.272116,-0.296920,-0.545096,0.682756,0.486533
-0.628857,-0.471432,-0.960269,-0.149528,0.038103,0.988023
-0.525882,0.570704,0.308233,-0.898055,0.021374,-0.439363
0.062032,-0.084987,0.675477,-0.614241,-0.646504,-0.452483
0.360690,0.141345,0.851404,-0.437223,0.861257,-0.258984
-0.834869,-0.433842,0.280036,0.434789,0.816898,0.378993
0.067041,-0.188800,0.438348,0.699630,-0.681759,-0.213826
0.188322,0.099330,0.087106,0.304063,0.521477,-0.797250
0.450676,-0.174519,0.444276,0.964912,-0.072253,0.252435
0.574679,-0.581162,0.412291,-0.310002,0.726610,0.613137
-0.564104,-0.113976,-0.382854,0.068942,0.389670,0.918370
-0.030986,-0.707628,0.202799,-0.336507,-0.659821,0.671862
0.457171,0.317593,0.730784,-0.749897,0.150056,-0.644312
0.766837,-0.287772,0.616806,0.299005,-0.486995,0.820629
0.041870,-0.076323,0.457118,0.753038,-0.621825,0.215099
0.460077,-0.763687,0.881435,0.302100,0.953051,-0.020701
0.499658,-0.227886,0.114131,0.947568,0.311192,-0.072623
-0.606469,-0.260162,0.555689,0.224836,-0.298211,0.927642
-0.206011,0.389732,-0.279849,0.233417,-0.726084,0.646775
-0.560518,0.156407,0.337212,-0.389105,0.356826,-0.849278
0.169584,-0.090666,0.304836,0.835616,0.536842,-0.116391
0.585626,0.159274,0.904945,0.487538,-0.700717,-0.520867
-0.291050,0.318432,-0.001274,-0.732299,-0.234081,-0.639487
-0.528294,-0.304567,0.476176,-0.489590,0.583377,0.648053
-0.261612,-0.391286,0.876017,0.803115,-0.582415,-0.125695
-0.638938,0.465038,0.194595,0.216845,-0.655098,0.723758
-0.199209,0.077516,0.791816,0.211923,-0.658658,-0.721983
-0.674376,-0.516435,-0.959946,0.144948,0.034116,-0.988851
0.703506,0.421049,0.512001,0.958226,0.134539,-0.252392
0.338302,-0.523249,0.797625,-0.578471,-0.641968,-0.503239
0.434288,-0.106863,-0.266056,-0.020969,0.999554,0.021286
-0.217515,-0.247431,-0.368161,0.132056,0.117695,0.984230
0.407632,0.013088,0.615566,0.926197,-0.024617,0.376236
-0.507082,0.162860,0.270473,0.639775,0.612676,0.464021
-0.009401,0.026954,0.944064,-0.398167,-0.417572,0.816760
-0.065805,-0.381784,0.615753,-0.493122,0.514298,-0.701661
-0.207806,-0.339830,0.263423,0.227522,-0.973653,0.015300
-0.182881,0.425411,0.221042,-0.389525,-0.738626,0.550184
-0.753232,-0.369235,0.602572,-0.508437,0.390259,-0.767587
-0.059497,0.189216,-0.003958,0.829100,-0.154645,-0.537287
0.075266,0.250057,0.070272,0.436492,-0.727248,0.529703
0.577401,0.606503,0.387712,-0.706743,0.702793,-0.081216
-0.133467,-0.455776,0.052182,0.739606,0.219943,-0.636089
-0.233596,-0.178221,0.833143,-0.040026,0.451704,0.891270
0.351042,0.671766,0.285302,-0.207195,-0.111037,0.971978
-0.512463,-0.086960,0.803112,-0.172797,-0.865591,0.469994
0.687735,-0.850947,0.812182,-0.656443,0.014964,-0.754227
0.893746,-0.557316,0.805847,-0.604424,0.519288,-0.604162
-0.173419,0.405928,0.223302,-0.312909,-0.688180,0.654596
0.256973,-0.463724,0.249919,0.995947,-0.089285,-0.010850
0.282268,0.272170,-0.338639,-0.580058,0.528569,0.619796
0.506710,0.123475,0.522261,-0.024294,-0.792292,0.609659
-0.160802,-0.290464,0.861324,-0.275689,0.756366,-0.593217
0.090728,-0.007649,0.109731,0.436057,0.829991,0.347807
0.302924,-0.290224,0.757283,-0.804721,0.578108,0.134965
0.241264,-0.427206,0.927367,0.570301,-0.097076,0.815679
0.750696,0.148276,0.843132,0.918261,0.130254,-0.373940
-0.123261,0.133576,0.118564,0.223617,-0.802992,0.552448
0.240645,-0.303370,0.685618,-0.599545,0.664070,0.446718
0.328653,-0.016196,0.943351,0.882500,-0.461166,0.092304
0.137362,-0.642066,0.497240,-0.157649,-0.441343,0.883382
-0.139033,0.463783,-0.248476,0.952403,0.300254,0.052682
0.812542,-0.413042,0.815325,0.524554,-0.488454,0.697321
0.205145,0.092578,0.908393,0.350414,0.933307,-0.078408
-0.087514,0.135429,0.727999,-0.044031,-0.882387,0.468459
0.248129,0.377957,0.528257,-0.028454,0.880788,0.472654
0.632691,-0.208582,0.631703,-0.316534,0.475684,-0.820689
0.502752,0.244024,0.119906,0.931189,-0.119173,-0.344507
-0.412641,-0.201531,-0.950060,-0.311381,0.051566,0.948885
-0.631270,-0.226814,0.464864,-0.059163,0.073965,0.995504
0.085905,-0.085465,0.527713,0.836014,-0.530899,0.138658
0.555507,-0.957985,0.272392,-0.416214,0.414037,0.809530
0.280785,0.599033,0.564166,0.648165,0.453527,0.611716
-0.707774,0.109431,0.295578,-0.327727,-0.931942,-0.155174
0.514378,-0.120250,0.084048,0.982043,-0.059890,-0.178901
-0.393903,0.034545,-0.209951,-0.016484,-0.606176,0.795160
-0.274785,-0.618636,0.193898,0.490114,0.816180,-0.306005
-0.448636,0.124015,-0.524961,0.804565,0.507046,0.309160
0.222092,0.734520,0.557643,-0.256233,0.567547,0.782454
0.451852,-0.163163,-0.121231,0.811706,0.576782,-0.091956
-0.279796,0.345028,0.550712,0.732162,-0.647160,-0.212422
0.431876,-0.105309,-0.363626,-0.433884,0.899258,-0.055490
0.451171,-0.229622,-0.487167,-0.886861,0.306250,-0.345961
-0.711362,-0.036518,0.047613,0.599379,0.333360,-0.727747
0.129754,-0.821662,-0.151976,-0.209207,-0.905643,0.368840
0.083988,0.256992,0.974435,-0.619454,-0.346107,-0.704618
0.559217,-0.015481,0.314433,0.762873,0.637125,0.109982
0.373492,-0.172844,-0.259245,0.651038,-0.739174,0.172544
0.679076,-0.307197,0.260875,0.228724,0.052361,0.972082
0.043788,0.326439,0.677056,-0.608803,0.704572,0.364606
-0.221907,-0.225318,0.416912,-0.447898,0.500415,-0.740927
0.005134,-0.381784,0.446196,0.414377,0.549000,-0.725872
0.541468,0.224899,0.843216,0.615274,0.742672,0.264340
-0.711115,-0.342759,0.314060,0.288833,0.870629,-0.398222
0.146144,-0.840784,-0.292436,-0.301636,0.937226,-0.174997
0.554146,0.247909,0.831054,0.007144,-0.534063,0.845414
0.602201,-0.593594,0.447589,0.788499,-0.614949,-0.010364
-0.164203,-0.151030,0.616568,-0.225318,0.870052,-0.438453
-0.516296,-0.459839,0.587624,-0.421204,0.895922,0.141109
-0.509122,-0.395412,0.514243,-0.505717,0.813787,0.286357
0.009152,-0.483328,0.950892,-0.614972,0.413427,-0.671481
0.149421,-0.812696,0.870327,-0.271076,0.379787,-0.884466
-0.519265,-0.478367,0.559410,-0.521816,0.794257,0.311229
-0.156472,0.665193,0.349323,0.981230,0.192835,0.001336
0.340342,-0.453383,-0.370862,-0.082032,0.440042,0.894222
0.550188,0.004002,0.872076,-0.443809,-0.758445,0.477279
0.535840,-0.220656,0.778278,-0.751978,0.633317,0.182863
0.220050,-0.083794,0.046644,0.145347,0.988270,0.046875
0.028881,-0.094967,0.694111,-0.784427,0.551164,-0.284417
-0.295814,-0.417105,0.893275,-0.526977,0.844700,-0.093689
-0.444555,-0.266615,0.229773,0.497609,0.248361,0.831085
0.215350,0.153598,0.338163,0.652690,0.025368,-0.757201
-0.169709,0.698720,0.344822,-0.656287,-0.663944,0.358420
-0.425568,-0.229261,0.213959,0.248262,-0.551949,-0.796064
-0.059869,0.284004,-0.225561,0.759745,0.344543,-0.551433
0.681612,-0.518949,0.564216,0.320394,0.884224,-0.339846
-0.536829,0.236134,-0.352551,-0.479553,-0.449131,0.753863
0.559342,-0.580148,0.534847,-0.574434,0.348029,-0.740879
-0.822066,-0.281257,0.082774,0.633970,0.604127,-0.482818
