-0.135812,0.664557,0.519578,0.749202,0.052994,-0.660219
-0.138338,0.645964,0.580228,0.281218,-0.875881,-0.392109
0.013420,0.864461,0.564418,0.756696,-0.559287,0.338541
-0.372726,0.286555,0.705591,0.278313,-0.860833,0.426039
-0.203430,0.530615,0.685629,0.306143,-0.132056,0.942782
-0.160095,0.732114,0.491167,-0.154964,0.100139,-0.982832
-0.145929,0.746062,0.516987,0.899956,0.400392,-0.172524
-0.182182,0.685333,0.556557,-0.336126,0.420329,0.842818
-0.430396,0.370382,0.394833,-0.336042,-0.805002,0.488924
-0.208822,0.640156,0.594036,-0.468199,0.856031,0.219090
-0.086236,0.815357,0.587824,0.450129,0.831284,0.326115
-0.219783,0.605292,0.684540,0.128870,-0.441315,0.888050
-0.583333,0.307037,0.226838,-0.402593,-0.656942,0.637453
-0.311181,0.830466,0.323702,-0.355513,0.093275,-0.930005
-0.189098,0.810125,0.497614,0.972909,0.226076,0.048351
-0.180494,0.816225,0.524024,-0.626916,-0.773612,0.092202
-0.109336,0.915738,0.531826,-0.139465,-0.320444,0.936945
-0.178642,0.807509,0.581936,-0.398389,0.345292,0.849741
-0.611832,0.428921,0.204139,0.384307,0.312662,-0.868649
-0.504925,0.538170,0.412881,0.269762,-0.296377,0.916182
-0.661577,0.276384,0.605754,0.603509,0.115865,0.788893
-0.780959,0.287423,0.620622,0.910960,0.238832,0.336319
-0.406787,0.833658,0.539804,0.269992,0.733929,0.623260
-0.492446,0.737780,0.417592,0.605014,0.135834,0.784543
-0.858019,0.596859,0.532768,0.952185,0.237217,-0.192538
-0.102255,0.346991,-0.644285,0.827246,0.339589,0.447598
-0.022159,0.245439,-0.636512,0.778120,0.466338,0.420782
0.397204,0.559379,-0.977830,0.016651,-0.994628,0.102170
0.264331,0.430668,-0.957633,-0.005066,-0.124884,0.992158
0.218126,0.378805,-0.972178,-0.247643,-0.639584,0.727740
-0.036325,0.209120,-0.620702,0.700142,0.566048,0.435191
-0.158238,0.090438,-0.602978,0.882929,0.429418,0.189833
0.071929,0.252710,-0.831652,0.927473,-0.287693,0.238804
0.309014,0.452019,-0.965818,0.106195,0.394652,0.912673
0.225716,0.366454,-0.965995,-0.264365,-0.752009,0.603816
0.188279,0.322732,-0.984366,-0.641814,0.019689,-0.766607
0.146463,0.117889,-0.988400,0.889997,0.247338,0.383052
0.074462,0.043363,-0.991786,0.665777,-0.504411,-0.549828
-0.058751,0.046706,-0.564880,0.330182,0.828609,0.452091
-0.453831,-0.346113,-0.532877,-0.424938,0.747458,0.510621
0.574425,0.565480,-0.959370,-0.092228,-0.744558,0.661156
0.459254,0.440403,-0.980303,-0.061030,0.565073,0.822781
0.266858,0.258810,-0.934580,-0.693246,-0.166125,0.701293
0.294008,0.271304,-0.981275,-0.301850,0.244391,0.921498
0.204638,0.181084,-0.979096,0.187199,0.480420,-0.856827
-0.026543,0.059634,-0.264044,0.653431,0.756855,-0.014108
-0.010863,0.012134,-0.459066,0.974332,0.079225,-0.210713
-0.072409,-0.073582,-0.529815,0.713495,-0.691410,-0.113481
0.076314,0.004580,-0.756899,0.984573,0.143462,-0.100172
-0.023847,-0.095518,-0.749303,-0.180967,0.952248,-0.245915
0.036181,-0.052949,-0.807628,-0.658193,-0.750208,-0.063008
0.021176,-0.077501,-0.836304,0.962386,-0.270876,0.020977
0.165010,0.037698,-0.932166,0.568859,-0.735983,-0.367054
0.155906,0.018377,-0.963728,-0.405424,0.668389,0.623609
0.078676,-0.060946,-0.965023,0.865059,-0.403487,0.298112
0.054902,0.003418,-0.371566,-0.691858,-0.704521,-0.158059
0.046638,-0.014600,-0.398858,0.635805,0.760194,-0.133629
0.019153,-0.060069,-0.452678,0.952155,-0.120778,-0.280737
0.035676,-0.055857,-0.491982,-0.715248,0.698462,-0.023898
0.062657,-0.073147,-0.631419,0.701080,0.691029,-0.175972
0.071595,-0.076632,-0.668515,0.727018,-0.685052,0.046359
0.082216,-0.089267,-0.741413,-0.718532,0.693539,-0.052115
0.076144,-0.105396,-0.772032,0.870791,-0.490257,0.037032
0.069233,-0.122970,-0.802240,0.943172,-0.319627,0.090917
0.119144,-0.100599,-0.891860,0.927941,0.366096,0.069994
0.129935,-0.102346,-0.931401,-0.617269,-0.751917,0.231515
0.122010,-0.120939,-0.963463,0.879021,0.457653,-0.133704
0.075640,-0.173387,-0.979273,0.330149,0.077824,-0.940715
0.002459,-0.249074,-0.982041,0.706169,-0.159529,-0.689838
0.068729,-0.031739,-0.468929,-0.607680,-0.781988,-0.138632
0.050682,-0.058180,-0.494455,-0.680385,0.582591,0.444595
0.062152,-0.088691,-0.629858,-0.037857,-0.997321,0.062586
0.063500,-0.097265,-0.663068,-0.333292,0.922995,-0.192345
0.070412,-0.112082,-0.734376,0.667456,0.683250,-0.296095
0.071426,-0.121959,-0.769412,0.926137,-0.376403,0.024309
0.101946,-0.105396,-0.815665,0.793738,0.605875,-0.053805
0.166023,-0.069512,-0.911881,0.832014,-0.552521,0.049740
0.134659,-0.108012,-0.932784,0.659905,0.697867,-0.278400
0.119484,-0.132271,-0.961991,0.918379,0.395461,-0.013788
0.080364,-0.178175,-0.980922,0.274365,0.039951,-0.960795
0.000942,-0.259821,-0.982629,-0.653694,0.211788,0.726520
0.035506,-0.031597,-0.359642,0.846426,0.531649,0.030215
0.052200,-0.027234,-0.398328,-0.649913,-0.754998,0.087131
0.065862,0.051069,-0.272023,0.962142,-0.266088,0.058988
0.004312,-0.032616,-0.343360,-0.623826,-0.761121,-0.177585
0.069403,0.017215,-0.400566,0.826535,0.461326,0.322519
0.024211,-0.051060,-0.478027,0.960169,-0.279020,-0.014923
-0.021824,-0.102346,-0.492130,0.885496,-0.451400,-0.110160
0.039217,-0.076047,-0.616521,0.854535,0.298060,-0.425359
0.030448,-0.093488,-0.645521,-0.597451,0.791414,-0.129289
0.044615,-0.090287,-0.685768,0.999917,0.002947,-0.012578
0.054228,-0.091306,-0.722924,0.997374,-0.058167,0.043147
0.050008,-0.105538,-0.755751,0.906033,-0.404564,0.124225
0.054228,-0.111931,-0.792318,0.941457,-0.310805,0.130612
0.074122,-0.103800,-0.836009,0.960748,-0.276994,0.015407
0.094356,-0.095376,-0.878729,0.977809,-0.128016,0.165833
0.136681,-0.067189,-0.931195,-0.786533,0.576499,0.221391
0.107679,-0.103508,-0.954512,0.839017,0.522035,-0.153397
0.085423,-0.133291,-0.979597,0.803221,0.186985,-0.565573
0.010384,-0.211594,-0.982541,-0.267874,0.118814,0.956100
-0.076289,-0.021569,-0.545301,0.817962,-0.573398,-0.046402
0.142079,0.135472,-0.806568,0.984453,-0.083866,0.154333
0.544075,0.503598,-0.977948,0.402606,0.417833,-0.814447
0.443745,0.403065,-0.970028,0.462769,-0.533205,-0.708193
0.130779,0.107577,-0.871722,-0.826716,0.546913,-0.132014
0.258089,0.224088,-0.926513,0.220059,-0.052881,0.974052
0.281359,0.236147,-0.972590,0.321455,-0.299949,-0.898163
0.212223,0.163944,-0.978979,0.170280,-0.939580,0.296974
0.152026,0.100023,-0.987811,0.957106,-0.253944,-0.139502
0.084239,0.029416,-0.992963,0.436323,-0.472320,-0.765857
-0.065328,0.084621,-0.583635,0.874456,0.485065,-0.006133
-0.047621,0.093488,-0.625589,0.917304,0.322764,0.233189
0.330765,0.405681,-0.961696,0.170835,-0.373420,0.911797
0.282373,0.352941,-0.975711,0.435564,0.300196,-0.848626
0.219814,0.286989,-0.985132,0.540120,0.463397,0.702519
-0.112038,0.161621,-0.368562,0.805699,0.417274,-0.420394
-0.093317,0.139392,-0.576127,-0.152788,0.835980,0.527060
-0.085732,0.139392,-0.612458,0.767367,0.626930,0.134558
-0.033289,0.175276,-0.704670,0.718076,0.659481,-0.222378
-0.088094,0.110042,-0.750452,0.250495,0.555509,0.792882
0.345437,0.510859,-0.973179,0.240218,0.281211,0.929094
0.245780,0.410035,-0.966495,0.062330,-0.809104,0.584350
0.203285,0.363262,-0.983277,-0.835348,0.051825,0.547273
0.270568,0.523211,-0.965877,0.257635,0.382557,0.887285
-0.118444,0.182972,-0.621026,0.675157,0.555790,0.485036
-0.173078,0.259537,-0.626119,0.701055,0.463540,0.541898
-0.359069,0.215806,-0.409693,0.126983,0.595686,0.793116
-0.109171,0.446938,-0.656179,0.810127,0.338993,0.478308
-0.405943,0.257356,-0.423324,0.214774,0.619864,0.754745
-0.264805,0.142007,-0.395472,-0.478645,-0.834739,-0.272231
-0.036830,0.131837,-0.598944,0.408956,0.908279,0.088224
-0.077977,0.088256,-0.616197,0.900888,0.414034,0.130296
0.502758,0.655842,-0.945150,-0.383033,0.617216,0.687263
0.405463,0.552844,-0.976977,0.035547,0.981596,-0.187632
0.283217,0.428921,-0.958605,0.019379,-0.092869,0.995490
0.244602,0.387664,-0.977654,-0.804791,0.479811,-0.349418
-0.036156,0.002106,-0.345274,0.422623,0.882241,0.207462
-0.002429,0.025789,-0.461275,0.987362,0.055664,-0.148387
-0.048805,-0.029850,-0.545390,0.807068,-0.586242,-0.070438
-0.052849,-0.043948,-0.647965,0.901505,0.432240,0.021385
0.416424,0.408589,-0.968321,-0.046263,0.604020,0.795626
0.285239,0.275223,-0.945091,0.978810,-0.061184,-0.195414
0.280180,0.266941,-0.979361,0.658570,0.168809,-0.733341
0.195699,0.180214,-0.979302,0.148095,-0.687009,0.711398
0.134993,0.117020,-0.988312,0.914009,-0.239907,0.327156
0.055910,0.035667,-0.990373,0.665777,-0.504411,-0.549828
-0.058412,0.057604,-0.416405,0.589310,0.716878,0.372558
0.398383,0.488489,-0.976535,0.342991,0.222831,0.912526
-0.081517,0.007045,-0.796234,0.986292,0.109132,0.123763
0.237855,0.323308,-0.980274,-0.343261,-0.172994,0.923171
0.152530,0.235419,-0.978036,0.971952,-0.233802,0.025403
0.392985,0.439676,-0.969498,-0.398714,-0.188184,-0.897560
0.298727,0.342779,-0.964611,-0.617546,-0.514506,0.594912
0.256401,0.298321,-0.983630,0.272064,0.592966,0.757873
0.170407,0.210140,-0.982335,-0.892068,0.407708,0.194908
0.109701,0.147088,-0.991432,-0.707365,0.529206,-0.468588
0.025055,0.031739,-0.380457,-0.522796,-0.850823,-0.052767
0.031122,0.036243,-0.418172,-0.674425,-0.586208,-0.448900
0.041749,0.043363,-0.491835,-0.440682,0.892381,-0.097241
0.013925,0.001671,-0.728753,0.880288,-0.046133,-0.472192
-0.038178,-0.052665,-0.740647,0.816694,0.482327,-0.316813
0.313058,0.297452,-0.975917,0.617065,0.055537,-0.784950
0.224532,0.206221,-0.973591,-0.116570,-0.664563,0.738083
0.141405,0.120647,-0.973767,0.594919,-0.302799,-0.744570
0.095199,0.071551,-0.990461,0.779217,-0.472339,-0.411966
0.091999,-0.064866,-0.415640,0.721253,0.690807,-0.050784
0.103968,-0.054988,-0.455887,0.881514,-0.014628,-0.471932
0.112402,-0.051060,-0.530168,0.303177,0.943014,0.137142
0.085423,-0.084044,-0.623734,-0.342924,-0.899446,0.270924
0.089637,-0.082440,-0.660389,-0.681225,0.697744,-0.221554
0.067211,-0.109173,-0.723630,0.981891,0.181482,0.054352
0.073113,-0.105254,-0.763494,0.867263,-0.495791,0.045238
0.097392,-0.083025,-0.810513,0.865881,-0.500167,-0.009143
0.118135,-0.066169,-0.894304,0.729770,-0.621455,0.285008
0.131622,-0.055564,-0.937613,0.919347,-0.361997,-0.154143
0.105317,-0.084044,-0.964081,0.889557,0.456738,-0.008850
0.056250,-0.135472,-0.979980,0.476664,0.036594,-0.878323
0.799030,0.318511,-0.973620,0.470158,0.145058,0.870580
0.655701,0.172660,-0.945121,0.968608,0.137995,0.206775
0.467518,-0.020700,-0.933756,0.350194,-0.425158,0.834628
0.468532,-0.022154,-0.971235,0.668214,0.170783,-0.724102
0.391976,-0.101326,-0.974327,0.044964,-0.113394,0.992532
0.293164,-0.203312,-0.966790,-0.218922,0.329344,0.918480
0.511192,-0.139826,-0.954689,0.423359,0.513971,-0.746057
0.455380,-0.198081,-0.965848,0.697617,-0.055211,-0.714341
0.374778,-0.281031,-0.965494,-0.128688,-0.248999,0.959916
0.276131,-0.383159,-0.957751,-0.399289,0.087948,0.912597
0.219474,-0.442292,-0.968497,0.197277,-0.242188,-0.949962
0.140221,-0.524080,-0.969881,-0.113478,0.757650,0.642720
0.533448,-0.334498,-0.961608,-0.312527,0.313544,0.896670
-0.952282,0.125595,-0.123430,0.455021,0.890229,0.021158
0.860406,-0.069804,0.685600,-0.428947,0.436218,0.791024
0.603428,-0.329116,0.751932,0.401190,0.669994,-0.624624
0.589261,-0.345830,0.730557,-0.237230,0.562163,0.792272
0.784189,-0.159732,0.574104,0.036381,-0.973437,0.226048
0.443909,-0.501993,0.674118,0.408917,0.857449,-0.312359
0.469371,-0.479045,0.637433,0.810608,0.162341,0.562636
0.765474,-0.575357,0.152586,0.921583,0.384009,0.056753
-0.054872,-0.874622,-0.134324,-0.434829,-0.037777,0.899721
0.634118,-0.359919,0.105568,0.960721,0.277307,-0.010808
0.089971,-0.943633,-0.111712,0.342778,0.322058,-0.882486
0.446271,-0.078379,0.844321,0.554734,0.824636,0.110664
0.485560,-0.040748,0.804074,-0.084337,0.996203,0.021621
0.305303,-0.223937,0.843261,0.863806,-0.395838,0.311690
0.422327,-0.108588,0.773484,0.552313,-0.390866,-0.736325
0.385904,-0.147088,0.760294,0.990488,0.014115,-0.136872
0.467179,-0.067189,0.702794,0.058040,0.891194,0.449893
0.361286,-0.175710,0.714041,0.830518,0.436258,-0.346293
0.318626,-0.220603,0.702146,0.734374,-0.675647,-0.064774
0.544913,-0.178326,0.784112,-0.319315,0.577727,0.751179
0.533448,-0.191981,0.760824,0.859571,-0.468992,0.202938
0.675260,-0.052514,0.681243,-0.197611,0.622246,0.757469
0.485226,-0.245297,0.724345,0.927098,-0.129802,-0.351625
0.453691,-0.279142,0.709536,0.374994,0.765426,-0.522975
0.397369,-0.342194,0.647709,-0.533301,-0.036826,0.845123
0.492476,-0.252266,0.554879,-0.059081,0.992836,0.103855
0.296030,-0.453473,0.574281,0.771329,0.081459,-0.631202
0.231953,-0.313723,0.652301,0.894092,-0.016747,-0.447571
0.338860,-0.210433,0.555968,-0.140775,0.640450,-0.754987
0.352013,-0.015185,0.928730,0.965445,-0.117138,-0.232798
0.313568,-0.055857,0.916836,0.340457,0.600861,-0.723226
0.327899,-0.046413,0.831867,0.848789,0.022011,-0.528274
0.293668,-0.083167,0.817205,-0.370937,-0.011458,0.928587
0.269724,-0.109466,0.798509,0.899377,0.433291,0.058140
0.329248,-0.050918,0.750254,-0.510496,-0.006166,0.859858
0.265340,-0.117020,0.747133,-0.686036,0.138209,0.714320
0.208349,-0.176437,0.740480,0.776593,0.196982,-0.598416
0.201098,-0.185588,0.716543,0.914878,0.366284,0.169808
0.143257,0.069077,0.937445,0.952955,0.036061,-0.300960
0.137355,0.061523,0.913950,0.876104,0.474652,-0.084542
0.088623,0.010973,0.905412,-0.446009,0.654235,0.610780
0.209696,0.131695,0.834899,0.800031,-0.593211,0.089728
0.156750,0.076055,0.828098,0.853521,0.063522,-0.517171
0.125216,0.042787,0.812200,0.424995,-0.613369,-0.665701
0.045119,-0.039878,0.814025,0.272547,-0.303104,-0.913152
0.067715,-0.018669,0.778224,-0.432461,-0.801042,0.413894
0.049503,-0.038425,0.758439,0.678680,0.464616,-0.568793
0.041579,-0.048010,0.734797,0.830539,0.427670,0.356797
0.009371,-0.082297,0.718928,0.751304,0.464577,-0.468733
0.067375,-0.025062,0.670555,0.975255,0.151735,0.160791
0.027077,-0.068058,0.657777,0.960250,0.041156,-0.276091
0.057598,-0.039010,0.618031,0.092117,0.992848,-0.075944
0.062657,-0.035374,0.587618,-0.551470,-0.829701,0.086472
0.136177,0.037263,0.532061,0.628089,-0.266937,-0.730923
0.288440,0.074743,0.961116,0.731797,0.528869,-0.429849
0.248816,0.033193,0.949722,0.527893,-0.800690,0.283239
0.239708,0.022447,0.926286,0.133571,0.548592,0.825352
0.221162,0.001964,0.906207,0.994321,-0.101382,0.032371
0.221162,0.000217,0.879680,0.843583,-0.426853,-0.325828
0.297548,0.073874,0.800246,-0.684118,0.556996,-0.470890
0.229427,0.003418,0.797538,-0.231217,-0.482388,-0.844891
0.190137,-0.037839,0.785584,0.269316,-0.947100,0.174557
0.176814,-0.052807,0.762472,-0.432440,-0.396729,0.809692
0.149330,-0.082440,0.745072,0.420122,0.667002,-0.615310
0.175126,0.104376,0.978958,-0.069321,0.832231,0.550078
0.158773,0.086367,0.958378,0.896830,0.143665,0.418398
0.114759,-0.009368,0.126501,0.339177,-0.937269,-0.080539
0.104473,-0.031012,-0.058600,-0.499157,-0.865990,-0.030055
0.089637,-0.049615,-0.115098,-0.728569,-0.684872,-0.011741
0.112737,0.190385,0.901143,0.917732,-0.069694,-0.391039
0.031632,0.107143,0.904411,-0.665163,0.422002,-0.616014
-0.000577,0.069804,0.834752,-0.158168,0.869707,0.467539
0.048660,0.118182,0.790619,-0.113001,0.469099,0.875886
0.055406,0.123706,0.761707,-0.443705,-0.851192,0.280353
-0.026713,0.039152,0.764121,0.726345,0.682685,0.079780
-0.116422,-0.052807,0.770628,-0.362993,-0.315966,-0.876585
-0.032446,0.030577,0.711803,-0.461670,0.877129,0.132309
-0.027052,0.034798,0.681714,0.037998,0.393059,0.918728
-0.053353,0.006610,0.663342,0.059436,-0.870723,0.488169
-0.171221,0.031597,0.859012,0.040991,0.991695,0.121903
-0.144076,0.057169,0.823123,-0.195306,-0.585284,-0.786955
-0.064149,0.134887,0.767095,0.389794,-0.036912,0.920162
-0.091969,0.105103,0.749695,0.154955,-0.971168,-0.181169
-0.237995,-0.043363,0.775780,-0.491762,-0.616191,-0.615206
-0.110520,0.082732,0.701911,0.535577,0.587251,0.606872
0.009541,0.201566,0.630632,0.877045,0.045573,0.478242
-0.047116,0.142734,0.623507,0.227736,-0.927650,-0.295974
-0.141040,-0.001521,0.859071,0.011895,-0.824084,0.566343
0.012911,0.151743,0.776016,0.712037,0.675654,0.191037
-0.003783,0.133583,0.755436,0.975044,0.024976,-0.220604
-0.149135,-0.014457,0.781168,0.533604,-0.836381,0.125432
-0.173583,-0.041040,0.762649,0.114868,0.818461,0.562963
-0.086575,0.045252,0.702647,0.353662,0.019688,0.935166
-0.012716,0.118040,0.648356,-0.744586,-0.666697,0.033262
-0.155541,-0.006318,0.858364,0.558293,0.760183,-0.332312
0.021176,0.166852,0.767478,-0.535877,-0.668525,0.515665
-0.617564,-0.499377,-0.142155,-0.091138,-0.065992,0.993649
-0.019462,0.123990,0.754788,0.791307,-0.518019,0.324791
-0.189433,-0.047283,0.790207,-0.042126,0.948759,0.313180
-0.167511,-0.028689,0.756201,0.826922,0.538522,-0.161847
-0.071061,0.064573,0.693167,0.049903,0.962538,-0.266517
-0.024017,0.108880,0.649416,-0.331940,0.638237,0.694600
-0.190781,0.100023,0.832043,0.078766,0.807311,0.584845
-0.077977,0.209847,0.764327,0.458136,0.867443,-0.194047
-0.149135,0.136775,0.763797,0.573084,-0.577347,-0.581588
-0.255532,0.028547,0.776251,0.848579,0.233394,0.474806
-0.173413,0.108012,0.718810,0.768723,0.579433,0.270781
-0.081682,0.196485,0.658661,0.750605,0.652905,-0.101521
-0.087250,0.185881,0.604517,-0.670398,-0.632631,0.387741
-0.236142,0.035667,0.631515,-0.533200,-0.049933,-0.844514
-0.255872,0.013730,0.611848,0.554352,-0.830987,0.046409
-0.245415,0.019245,0.552258,-0.618343,-0.276067,-0.735825
-0.633923,-0.022588,0.096706,0.196520,0.979855,-0.035561
-0.292799,0.193577,0.709624,0.190743,0.638848,0.745312
-0.306960,0.177599,0.686719,0.738739,-0.320165,0.593092
-0.365136,0.114990,0.652390,-0.100245,0.933693,0.343756
-0.387057,0.091014,0.633517,-0.180271,0.682429,-0.708373
-0.285883,0.190092,0.568363,0.658655,0.011638,-0.752355
-0.331414,0.140987,0.529294,0.058860,0.615138,0.786219
-0.529039,-0.065007,0.490136,-0.648642,-0.525834,0.550239
-0.737794,-0.015185,0.492521,0.165549,0.878106,0.448913
-0.504755,0.147239,0.659750,-0.575335,-0.780546,-0.244412
-0.569336,0.080994,0.656806,0.933725,-0.209400,0.290359
-0.632740,0.106123,0.676208,0.658620,-0.537247,0.526864
-0.536964,0.195465,0.556674,-0.476103,0.865106,-0.157850
-0.783490,-0.058907,0.538008,0.140624,0.980067,0.140331
-0.501045,0.096387,0.640201,-0.405224,0.361173,-0.839850
-0.456867,0.136048,0.597451,0.142648,0.933364,0.329367
-0.413867,0.170771,0.526526,0.456470,0.589482,-0.666443
-0.478789,0.211736,0.720400,0.496879,0.127675,0.858377
-0.556523,0.126606,0.667287,0.435202,-0.251892,0.864378
-0.610484,0.070390,0.659574,0.475635,-0.530476,0.701688
-0.733410,-0.062835,0.595390,0.481283,0.801458,-0.355011
-0.362105,0.160459,0.711744,-0.591246,-0.275732,-0.757892
-0.432079,0.078813,0.656394,0.769061,0.555432,-0.316291
-0.310167,0.187184,0.557793,0.165096,0.927029,0.336690
-0.338325,0.155662,0.541247,0.027694,0.146568,0.988813
-0.251318,0.205636,0.312102,0.485646,0.808310,0.332839
-0.427864,0.183123,0.722167,-0.035039,-0.065032,0.997268
-0.494978,0.105981,0.664579,0.591520,0.447483,0.670718
-0.325342,0.156247,0.708712,-0.436555,0.177497,0.881995
-0.397174,0.071985,0.654009,0.077711,-0.469083,0.879729
-0.310506,0.149562,0.596391,-0.033496,0.952704,0.302048
-0.277624,0.174983,0.557646,0.616528,0.700477,-0.359478
-0.290437,0.157693,0.535624,0.204447,0.101418,0.973610
-0.288919,0.148542,0.717633,-0.241988,0.377266,0.893931
-0.248281,0.180791,0.676591,0.113981,-0.723838,0.680491
-0.247947,0.169175,0.623125,-0.373186,0.303976,-0.876545
-0.338160,0.078228,0.629425,0.773365,0.617399,-0.143959
-0.308479,0.100165,0.591386,0.130941,0.968576,0.211459
-0.296844,0.105396,0.560826,0.908316,0.121874,-0.400136
-0.414207,-0.036394,0.466995,-0.067753,0.750812,0.657032
-0.195675,0.143754,0.272856,0.446315,0.240565,-0.861935
-0.230410,0.141715,0.716720,0.504754,0.863162,-0.013226
-0.203260,0.160308,0.680683,-0.219559,0.011435,-0.975532
-0.302916,0.046848,0.637728,0.649830,-0.034319,0.759304
-0.346250,-0.000217,0.627129,-0.161978,-0.933573,0.319696
-0.301902,0.027527,0.556733,0.985286,0.107224,0.133099
-0.119623,0.158712,0.755848,0.606181,0.110356,-0.787634
-0.347938,-0.059776,0.808696,0.689587,0.716010,-0.108629
-0.182687,0.085499,0.725346,0.265317,0.885988,0.380306
-0.143567,0.114263,0.686483,-0.238613,-0.970303,-0.039698
-0.033794,0.208394,0.622653,-0.594274,-0.580020,0.557149
-0.077807,0.159439,0.611524,0.143181,0.989690,-0.003500
-0.159251,0.061523,0.560502,0.145140,-0.782527,0.605464
-0.250139,-0.030001,0.565595,0.601266,-0.111425,-0.791242
-0.175271,0.117313,0.817205,0.327611,-0.886295,-0.327342
-0.069038,0.206221,0.755053,-0.078604,-0.960735,0.266100
-0.227034,0.053392,0.783141,0.380744,0.324880,0.865729
-0.306287,-0.027093,0.785525,-0.334514,-0.649657,-0.682676
-0.173753,0.086944,0.714659,-0.650320,0.419607,0.633257
-0.040540,0.200697,0.642173,0.874551,0.437147,0.209912
-0.048805,0.185295,0.619886,0.982479,-0.130690,0.132872
-0.139183,0.094499,0.624744,-0.656163,0.694156,0.295971
-0.231758,0.001671,0.630603,0.889798,0.360761,0.279482
-0.230579,0.168155,0.709095,-0.406875,-0.903537,-0.134436
-0.284030,0.111062,0.701322,-0.259893,0.964098,-0.054501
-0.317757,0.055422,0.636256,0.408726,0.398527,0.821048
-0.354180,0.013872,0.622536,-0.072138,-0.948360,0.308884
-0.215065,0.131837,0.547901,0.843601,0.409881,-0.346892
-0.322816,0.024769,0.559295,0.309668,0.370897,0.875523
-0.110350,0.146361,0.265584,0.452316,0.678220,-0.579161
-0.223494,0.091306,0.773808,-0.735724,-0.309412,-0.602473
-0.240022,0.068350,0.754670,0.873161,0.333145,-0.355816
-0.187915,0.107285,0.710743,0.238499,0.625351,0.743004
-0.068194,0.208252,0.644323,0.708947,0.640292,0.295670
-0.058581,0.208544,0.614822,0.763011,0.413387,-0.496915
-0.154867,0.112223,0.621888,-0.235627,0.964364,0.120343
-0.253340,0.014165,0.629808,0.379618,-0.093060,0.920451
-0.334451,0.174841,0.692195,-0.665204,0.746531,-0.013949
-0.418762,0.073147,0.644794,0.903091,0.316452,0.290320
-0.342710,0.134160,0.592976,0.263417,-0.925558,-0.271943
-0.295495,0.168448,0.549697,0.620588,0.764311,0.175215
-0.260086,0.191688,0.510274,0.792999,0.582545,0.178306
-0.178302,0.203605,0.290727,-0.603381,0.797444,0.003782
-0.488906,0.155520,0.659367,-0.530013,-0.740975,-0.412362
-0.532749,0.107285,0.648238,-0.789064,0.572001,-0.224036
-0.665282,-0.045837,0.591121,0.380799,0.923028,0.054865
-0.553827,0.137210,0.667199,-0.533589,0.129906,-0.835707
-0.574230,0.110193,0.647856,0.918653,0.033157,0.393673
-0.717051,-0.053241,0.594125,0.305704,0.946966,-0.099001
-0.703059,0.166267,0.685129,0.503271,0.210505,0.838096
-0.479967,0.078379,0.388827,-0.121579,-0.426307,0.896371
-0.446580,0.009803,0.068324,0.331854,0.916876,0.221834
-0.656349,0.183264,0.591828,-0.108351,-0.986813,0.120254
-0.738803,0.065593,0.487369,0.228674,0.573959,0.786308
-0.639147,0.147088,0.425276,-0.059331,-0.997548,0.037124
-0.462939,0.027962,0.060463,0.331854,0.916876,0.221834
-0.760050,0.663831,0.198633,-0.115773,0.177306,0.977322
-0.687374,0.492993,0.213560,0.678022,0.054969,-0.732983
-0.736780,0.440111,0.204257,-0.705335,-0.020145,0.708588
-0.799170,0.375028,0.198398,0.495757,0.543457,-0.677407
-0.304094,0.765090,-0.193826,-0.008158,0.500455,0.865724
-0.434441,0.638267,-0.173364,-0.844643,0.430191,-0.318611
-0.521618,0.550370,-0.170508,-0.796981,0.564467,-0.214938
-0.356537,0.914719,0.504916,0.299628,-0.952777,-0.049389
-0.589066,0.654822,0.426630,0.041153,-0.209171,0.977013
-0.401224,0.818699,0.331857,-0.487563,0.190043,-0.852154
-0.460917,0.756516,0.326293,-0.307792,0.002036,-0.951452
-0.136146,0.904699,0.539952,-0.477312,0.829595,-0.289735
-0.231418,0.809983,0.546929,0.978701,-0.172632,0.111095
-0.313537,0.726883,0.548549,0.952404,0.206664,0.224091
-0.244572,0.781361,0.497820,0.764086,-0.058908,0.642419
-0.778601,0.271153,0.605754,0.885119,0.203648,0.418440
-0.786860,0.254882,0.582083,0.615945,0.708469,-0.344505
-0.418762,0.581466,0.426041,0.609869,0.721889,0.327011
-0.437647,0.555894,0.405255,0.694489,0.357739,0.624266
-0.466984,0.520879,0.388003,0.887830,-0.434299,0.152129
-0.504421,0.478460,0.373635,0.626762,0.129781,0.768327
-0.398522,0.566357,0.309216,-0.576439,-0.289860,0.764002
-0.145254,0.697534,-0.098375,0.749132,0.260677,0.608974
-0.161948,0.673424,-0.122341,0.810140,0.488205,-0.324545
-0.234624,0.641318,0.678181,0.432265,0.893471,-0.121885
-0.275092,0.596567,0.666816,-0.709483,-0.486747,-0.509620
-0.201912,0.654822,0.616736,-0.510340,0.652370,-0.560328
-0.161104,0.683444,0.576342,0.194307,-0.820196,-0.538074
-0.229566,0.613130,0.574310,0.686119,0.643800,0.338765
-0.194491,0.636379,0.535535,0.813076,0.176599,0.554725
-0.213376,0.601798,0.488281,0.616940,0.447727,-0.647245
-0.493964,0.339144,0.560414,0.320707,0.945850,-0.050152
-0.379302,0.408004,0.413735,-0.249334,-0.512557,0.821655
-0.107653,0.617634,0.206877,0.763050,0.236270,-0.601607
-0.385374,0.357889,0.279039,0.960585,0.003557,-0.277963
-0.091804,0.518706,-0.147838,0.888412,0.149815,0.433911
-0.150818,0.545431,0.656512,-0.489423,-0.471335,-0.733695
-0.248112,0.449120,0.664549,0.030445,0.483508,0.874810
-0.478115,0.232219,0.718163,-0.615890,0.423164,-0.664539
-0.193142,0.481661,0.594331,0.823677,-0.544936,-0.156849
-0.179655,0.485439,0.564211,-0.207951,0.724122,0.657574
-0.287066,0.360939,0.521109,-0.340294,-0.021651,0.940070
-0.399876,0.250528,0.534799,-0.392513,0.822320,-0.411976
0.235324,0.815498,0.284957,0.786631,0.601072,0.141156
-0.111193,0.493569,0.379641,-0.185551,0.666991,0.721591
-0.241031,0.367616,0.399279,0.418804,-0.457768,0.784253
-0.327364,0.252710,0.320522,0.950429,0.309390,-0.031037
-0.125525,0.425578,0.220185,0.096586,0.712192,0.695308
-0.095344,0.443161,0.180674,0.857581,0.026588,-0.513661
-0.042562,0.393329,-0.128612,0.802335,0.569228,0.179548
-0.213886,0.438798,0.666787,0.498612,0.150207,0.853712
-0.423820,0.239773,0.713687,-0.695085,0.657644,-0.290451
-0.151661,0.470471,0.567892,-0.396349,-0.895473,-0.202575
-0.258064,0.348445,0.525231,0.433209,-0.194252,-0.880111
-0.308479,0.294109,0.516016,0.566118,-0.124588,-0.814855
-0.369355,0.230773,0.512129,-0.586534,0.302809,-0.751189
-0.057908,0.505194,0.375490,0.169575,-0.529257,-0.831343
-0.118614,0.396530,0.230460,0.393097,-0.910991,-0.124784
-0.097536,0.407135,0.195306,-0.801207,-0.446343,-0.398555
0.006334,0.407419,-0.134029,0.798662,0.512683,0.315112
0.357072,0.855159,0.611878,0.782636,-0.423439,0.456268
-0.184204,0.319681,0.666845,0.814065,0.568105,0.120643
-0.166837,0.318954,0.609022,0.184197,-0.977391,0.103821
-0.162453,0.314592,0.581994,0.901200,-0.183749,0.392525
0.168889,0.582336,0.726230,0.835349,-0.516989,-0.186851
0.196544,0.599182,0.690693,-0.424993,0.811401,-0.401259
0.022693,0.432414,0.724404,-0.625526,0.396456,0.671967
-0.105122,0.265487,0.613085,-0.455899,-0.371326,0.808872
0.014769,0.365878,0.545987,-0.290799,0.254200,-0.922398
0.286757,0.706835,0.738271,0.888012,-0.389110,0.245006
0.162483,0.584801,0.754111,-0.690230,0.438883,0.575295
0.190472,0.519283,0.785614,0.312508,0.671658,-0.671725
0.155232,0.478895,0.772129,-0.661995,-0.682369,0.310056
0.195699,0.507659,0.733914,0.603965,-0.406155,0.685759
0.037195,0.354546,0.761648,-0.293599,-0.119503,0.948430
-0.083200,0.236289,0.776693,0.871530,0.490158,-0.013428
-0.045094,0.262587,0.737683,0.418794,-0.836945,0.352328
0.200084,0.485439,0.766447,0.890936,-0.418405,0.176550
0.144776,0.426891,0.759234,0.127502,-0.263142,0.956295
0.028256,0.312127,0.773808,0.132385,-0.311945,0.940832
0.130105,0.448685,0.873880,-0.764212,0.616392,0.189844
0.244092,0.539765,0.784583,0.803669,0.585739,0.105004
0.230435,0.519576,0.763297,0.993405,0.100726,0.054784
0.172260,0.458563,0.758115,0.927477,-0.111325,0.356922
0.115269,0.398703,0.752521,0.406646,-0.322220,0.854876
-0.056220,0.224815,0.760147,0.020233,-0.988948,0.146879
0.274613,0.667759,0.749812,0.901738,-0.261473,0.344239
0.185583,0.577396,0.753934,0.796428,-0.516714,-0.314178
0.175466,0.561560,0.731088,0.954842,-0.183241,-0.233878
0.037025,0.418467,0.728084,0.779198,-0.298500,-0.551133
-0.103433,0.246751,0.619945,0.760630,0.004343,0.649171
0.023707,0.359050,0.548961,-0.139084,0.083158,0.986783
0.178837,0.632743,0.736888,-0.400246,0.887666,-0.227712
0.123698,0.574488,0.729409,0.593744,0.203551,-0.778482
0.296534,0.732256,0.643027,0.788297,0.592842,0.164699
-0.117770,0.334205,0.761118,0.728848,-0.384253,0.566684
-0.039526,0.372271,0.575017,0.161998,0.967229,-0.195512
0.384221,0.866784,0.617413,-0.422891,-0.710484,0.562473
-0.170717,0.298755,0.626186,0.122194,0.064914,0.990381
-0.046273,0.412216,0.554084,0.391545,-0.153477,0.907269
0.125551,0.537300,0.297734,-0.606285,-0.141160,0.782619
0.377809,0.902517,0.609169,-0.068060,-0.814330,0.576397
-0.159081,0.351930,0.611466,-0.605825,0.795443,-0.015731
-0.085732,0.417882,0.557499,-0.498347,0.327902,-0.802577
-0.238669,0.260699,0.559471,0.534848,-0.836938,-0.116065
-0.107484,0.373140,0.427808,0.628494,-0.680525,0.376671
-0.098715,0.347425,0.224718,-0.629525,0.699833,0.337537
-0.167007,0.441415,0.654421,-0.624752,0.223279,-0.748219
-0.311345,0.292655,0.652772,0.201417,-0.667525,0.716827
-0.184204,0.412943,0.578785,-0.692302,-0.247239,-0.677931
-0.075445,0.496185,0.371957,0.160082,-0.444414,-0.881402
-0.154867,0.395511,0.228399,-0.173569,0.955605,0.238102
-0.116757,0.427759,0.183912,-0.033134,0.910483,0.412217
-0.190781,0.318954,-0.061514,-0.642631,0.540757,0.542777
-0.091464,0.410762,-0.131851,0.833675,0.526635,0.166257
-0.162453,0.482388,0.205788,0.846930,-0.174962,0.502093
-0.129740,0.482530,-0.113862,0.875571,0.211969,0.434102
-0.132441,0.560106,0.647149,-0.103772,0.553985,0.826034
-0.259916,0.430809,0.667169,-0.173884,-0.229405,-0.957673
-0.193482,0.490811,0.588619,-0.398602,0.878350,0.263852
-0.230240,0.451877,0.575076,0.839091,-0.111432,0.532456
-0.377110,0.298029,0.544839,0.481088,-0.818713,0.313471
-0.439499,0.233097,0.540982,0.882302,-0.314428,0.350255
-0.344567,0.306310,0.304741,0.990568,0.136967,-0.003846
-0.078142,0.672839,0.637610,0.697444,0.698945,0.158266
-0.157059,0.591193,0.638493,-0.309571,0.295548,0.903779
-0.291955,0.454635,0.659838,-0.008053,0.989321,0.145531
-0.523810,0.220745,0.717162,0.347330,-0.877451,0.330821
-0.218605,0.523929,0.577843,0.958418,0.225479,-0.174913
-0.257220,0.483257,0.564918,-0.123886,0.851057,0.510249
-0.461925,0.272314,0.557146,-0.864917,0.423455,0.269452
-0.324668,0.392168,0.273180,-0.641675,0.766812,-0.015901
-0.317757,0.396672,0.240176,0.434323,-0.900230,-0.030812
-0.167177,0.524373,-0.127523,0.851652,0.023825,0.523566
-0.207474,0.452170,0.660839,-0.371374,-0.322848,-0.870546
-0.415895,0.241520,0.709418,-0.644579,0.764143,0.024566
-0.437307,0.218280,0.689545,-0.323816,0.910489,-0.257201
-0.178472,0.475702,0.565654,0.495159,0.786822,-0.368414
-0.318595,0.329701,0.534564,-0.672947,0.165094,-0.721032
-0.369520,0.276819,0.526055,-0.254640,0.951700,0.171538
-0.361765,0.271153,0.321287,0.950429,0.309390,-0.031037
-0.193817,0.436910,0.225690,-0.016418,0.921178,0.388795
-0.112203,0.496619,-0.147602,0.881726,0.202200,0.426234
0.150004,0.648145,0.711038,-0.236628,0.970692,-0.041999
0.269724,0.765959,0.640436,0.895598,0.374229,0.240534
-0.079659,0.402631,0.574663,0.706548,0.627806,-0.326572
-0.252162,0.221906,0.526997,0.966498,0.158873,0.201595
-0.183026,0.273919,0.269382,0.718711,0.412721,-0.559567
-0.067180,0.387229,0.194011,0.894627,-0.097472,0.436052
0.173274,0.476430,0.860572,-0.937842,-0.194067,0.287732
0.099753,0.401035,0.860749,0.935899,-0.311801,-0.163930
0.182042,0.478460,0.778901,0.883539,0.323670,-0.338521
0.195699,0.489216,0.748075,0.970316,-0.075275,-0.229826
0.091659,0.383310,0.757880,0.131443,-0.197614,-0.971427
-0.045094,0.230480,0.617118,0.185307,-0.217102,0.958399
0.159107,0.321854,0.902880,0.992689,-0.031785,-0.116443
0.158773,0.319096,0.876471,0.936858,0.196774,-0.289097
0.058102,0.216099,0.886775,0.988295,-0.135350,-0.070374
0.109871,0.265052,0.842878,0.988580,0.146744,0.034289
0.470889,0.621562,0.687514,-0.042848,0.651519,0.757421
0.160121,0.310238,0.772159,0.948076,-0.316948,0.026368
0.188619,0.404519,0.889101,0.978915,-0.178876,0.098636
0.152870,0.366161,0.875117,0.906667,-0.409905,-0.099663
0.118135,0.329408,0.860690,-0.284104,-0.231091,0.930528
0.131962,0.341760,0.828746,0.956162,0.243273,-0.163010
0.417943,0.627512,0.700262,0.064249,0.785853,0.615067
0.145619,0.351780,0.771658,0.115511,0.777770,0.617844
0.167202,0.318954,0.906796,0.976967,0.112326,0.181436
0.191820,0.342053,0.872408,0.558585,-0.747225,0.360053
0.091659,0.239489,0.881152,0.986447,-0.156548,0.049148
0.143762,0.290625,0.835517,0.870903,0.243987,0.426613
0.487752,0.635944,0.684687,0.469873,0.223032,-0.854093
0.170407,0.314450,0.772483,0.901936,-0.431502,0.017810
0.135673,0.216533,0.945159,-0.734881,0.448519,0.508704
0.163661,0.243409,0.909681,0.975083,0.105962,0.194898
0.141065,0.216675,0.837814,-0.121071,-0.878364,0.462406
0.470385,0.548482,0.691636,0.875687,0.086105,0.475140
0.523332,0.304129,0.744690,-0.459706,-0.417509,-0.783809
0.557902,-0.413962,-0.946710,-0.640590,0.666579,0.381204
0.608146,-0.360646,-0.918976,0.980543,-0.193695,0.031892
0.081542,-0.704219,-0.968733,-0.294003,0.026401,0.955440
0.136511,-0.635935,-0.958075,-0.262294,0.116068,0.957982
0.195360,-0.550956,-0.965936,0.187078,-0.374821,-0.908026
0.251008,-0.473814,-0.969263,-0.035110,0.240765,0.969948
0.502084,-0.305149,-0.948919,-0.177512,-0.147136,0.973057
0.553178,-0.242247,-0.936759,0.933377,-0.191540,-0.303514
0.446945,-0.376624,-0.956338,-0.621191,0.022759,0.783328
0.705781,-0.402480,-0.275585,0.911292,0.393707,-0.120591
0.335319,-0.236581,-0.964817,0.364130,0.070700,0.928661
0.391806,-0.155662,-0.971294,0.014334,-0.011177,0.999835
0.448293,-0.081712,-0.966819,0.522728,-0.116542,-0.844496
0.502084,-0.011256,-0.962491,0.831569,-0.274193,-0.483022
0.306487,-0.394926,-0.974209,0.070405,-0.209111,0.975354
0.578136,-0.049464,-0.930900,0.854461,0.141454,-0.499888
0.695160,0.123990,-0.957368,-0.684041,0.230116,-0.692195
0.753164,0.205059,-0.961196,-0.372251,0.473275,0.798398
0.619108,-0.353233,-0.286008,0.895124,0.396196,0.204405
0.334305,-0.526253,-0.962521,-0.491328,0.287069,0.822307
0.389444,-0.454786,-0.955572,-0.398946,-0.231546,0.887259
0.260112,-0.712793,-0.517950,-0.857594,0.365639,-0.361719
0.362804,-0.321712,-0.969439,0.073788,-0.357311,0.931066
0.416764,-0.249216,-0.966554,0.173596,0.027366,-0.984437
0.474265,-0.167721,-0.971854,-0.410278,0.053401,0.910396
0.527381,-0.105981,-0.953953,0.820999,0.296556,-0.487868
0.005660,-0.561126,-0.965435,-0.196107,0.413393,0.889184
0.061138,-0.480642,-0.973738,-0.205143,0.094702,0.974140
0.119653,-0.397692,-0.980421,0.186479,0.101796,-0.977171
0.173608,-0.327812,-0.975298,-0.043846,-0.278111,0.959548
0.230605,-0.248489,-0.977506,-0.221505,0.147101,0.964001
0.501919,0.101911,-0.942765,0.281481,0.945627,0.162965
0.561947,0.191688,-0.958458,0.340760,0.128424,-0.931338
0.486909,-0.276819,-0.290689,0.233763,0.378408,0.895635
0.286248,-0.174841,-0.972914,-0.161219,-0.045609,0.985864
0.343414,-0.095953,-0.974268,-0.301492,0.251341,0.919745
0.393325,-0.039728,-0.953600,-0.068263,-0.748798,0.659274
0.449646,0.041040,-0.960666,0.032363,-0.563206,0.825683
0.056420,-0.614584,-0.968291,-0.155151,0.067439,0.985586
0.112567,-0.534977,-0.974533,-0.266128,0.679638,0.683570
0.169564,-0.455504,-0.977153,0.442447,0.066933,-0.894293
0.225546,-0.382432,-0.972266,-0.233020,0.032787,0.971919
0.281359,-0.309068,-0.967379,-0.162129,0.051748,0.985412
0.556214,0.056584,-0.951421,-0.493042,-0.252265,-0.832629
0.612531,0.130817,-0.947653,-0.660769,0.590314,-0.463588
0.548794,-0.199101,-0.507881,-0.600045,-0.797574,0.061819
0.537832,-0.337690,-0.283652,0.553692,0.742647,0.376697
0.034833,-0.422821,-0.981776,-0.193867,-0.067176,0.978725
0.088119,-0.354546,-0.974945,-0.136054,-0.064052,0.988629
0.145280,-0.275799,-0.976240,-0.253964,0.383585,0.887899
0.198227,-0.206797,-0.970028,-0.270334,0.346491,0.898256
0.079010,-0.258952,-0.979037,0.216144,-0.219113,-0.951457
0.132636,-0.188061,-0.974739,0.656569,0.513863,-0.552143
0.183895,-0.129514,-0.953011,0.243392,0.657808,-0.712775
0.354205,0.105254,-0.959665,-0.756538,0.319758,0.570443
-0.019292,-0.496043,-0.983248,-0.132551,0.187826,0.973217
0.254379,-0.134302,-0.963374,0.330723,0.604112,-0.725031
0.315760,-0.040898,-0.981098,-0.167444,0.343706,0.924028
0.367528,0.016780,-0.958811,-0.362170,0.569956,0.737552
0.421149,0.088106,-0.954954,0.114858,0.212970,0.970284
0.475947,0.161186,-0.953511,0.835007,-0.409126,0.367939
0.325203,-0.119485,-0.400595,0.793704,0.442008,0.417927
-0.032785,-0.411489,-0.978007,-0.394894,0.010891,0.918662
0.025560,-0.327954,-0.984955,0.224384,0.729601,0.646014
0.080364,-0.083894,-0.829120,0.977196,-0.205704,0.052659
0.042593,-0.197354,-0.977595,-0.184259,0.107070,0.977029
0.098740,-0.122394,-0.974739,0.805253,0.346156,-0.481397
0.135673,-0.110477,-0.903284,0.816262,-0.574346,0.061989
0.196204,-0.130090,-0.711559,0.949488,0.294271,-0.108983
0.588252,0.315461,-0.956397,0.459611,-0.156223,-0.874272
0.644405,0.390714,-0.953747,-0.147804,0.491046,0.858504
0.703084,0.474107,-0.959576,0.364224,-0.357262,0.860061
0.535306,0.248348,-0.964552,0.334881,0.143345,-0.931293
0.671215,0.215371,-0.955661,0.652813,0.110247,0.749454
0.726354,0.292513,-0.958075,0.772480,-0.071232,0.631032
0.785203,0.379240,-0.970912,-0.544524,-0.172418,-0.820832
0.617759,0.265780,-0.954247,0.590610,0.463230,-0.660755
0.676948,0.351203,-0.962197,-0.219534,-0.301908,-0.927716
0.733100,0.425578,-0.958428,-0.574451,0.102913,-0.812043
0.394168,0.416427,-0.969057,-0.396490,-0.339135,-0.853102
0.523332,0.340164,-0.968527,-0.048500,0.024706,0.998518
0.579654,0.416578,-0.967084,-0.158447,0.659505,0.734811
0.635127,0.491681,-0.967702,0.461293,0.428892,-0.776699
0.687909,0.554875,-0.950979,0.403053,-0.367802,0.838016
0.433288,0.330428,-0.971412,-0.356678,0.118104,0.926732
0.488092,0.400884,-0.963374,-0.334912,0.352103,0.873989
0.539855,0.464371,-0.951716,0.970671,-0.074432,0.228600
-0.949415,0.128352,0.485484,-0.058799,-0.181597,0.981614
-0.745719,0.213190,0.579492,0.534280,0.683485,-0.497387
-0.725820,0.202151,0.653332,0.605160,0.787319,0.117940
-0.684847,0.145784,0.623331,0.688489,0.724289,0.037246
-0.652639,0.169175,0.662577,-0.732853,0.530794,0.425657
-0.591428,0.215806,0.734797,0.385787,-0.689353,0.613157
-0.807604,0.002541,0.578491,0.963146,0.166996,-0.210860
-0.675404,0.018962,0.667258,-0.466194,-0.055565,-0.882936
-0.629199,0.085055,0.661399,-0.494888,0.866169,0.069543
-0.560907,0.210867,0.596509,-0.172271,0.504811,0.845865
-0.519256,0.200555,0.727289,-0.461086,0.467211,-0.754396
-0.759546,-0.010964,0.504827,0.226699,0.943425,0.241987
-0.710644,0.058472,0.499410,-0.017743,0.834704,0.550413
-0.570181,-0.100891,0.520196,-0.208189,-0.976882,-0.048563
-0.513524,-0.008933,0.491785,0.198559,0.501251,-0.842213
-0.460243,0.073874,0.470292,0.518522,0.786517,0.335449
-0.461591,0.001379,0.607609,-0.375906,-0.202390,0.904286
-0.395152,0.186900,0.421507,0.898583,-0.160862,0.408255
-0.437812,0.144623,0.720489,0.448533,0.099749,0.888183
-0.632235,-0.004429,0.497055,0.116851,0.990041,0.078512
-0.585356,0.062108,0.492079,0.209916,0.973965,-0.085604
-0.517908,0.185295,0.430016,-0.355712,-0.508416,-0.784208
-0.549103,0.029416,0.651300,0.944454,-0.208553,0.253993
-0.509309,0.076197,0.664903,0.046436,-0.138456,0.989279
-0.463613,0.136918,0.666728,0.452539,0.830481,0.324821
-0.429213,0.026366,0.645883,0.583125,0.780418,-0.225639
-0.379472,0.097841,0.637286,-0.083668,0.994890,-0.056512
-0.360751,0.088549,0.705561,-0.872873,0.346206,0.343852
-0.321802,0.135180,0.718663,0.103633,0.760280,0.641276
-0.545058,-0.116870,0.236554,-0.302662,0.899463,0.315219
-0.341027,-0.026658,0.605695,-0.264606,0.949564,-0.168263
-0.309492,-0.001086,0.640083,0.642907,0.541436,0.541772
-0.326525,-0.110477,0.809520,0.673167,0.698416,-0.243028
-0.257555,0.017215,0.742864,0.991207,0.101830,0.084490
-0.235638,0.015912,0.804221,-0.681124,0.731648,0.027569
-0.211354,0.021577,0.858011,0.004584,-0.979410,0.201830
-0.308649,-0.056442,0.518901,-0.699401,0.571224,0.429584
-0.223833,0.111789,0.414618,0.162254,-0.907194,-0.388165
-0.229566,0.030870,0.556351,0.353568,-0.662522,0.660344
-0.221471,-0.011549,0.661104,0.510904,0.812555,-0.280590
-0.222485,-0.077359,0.786674,0.401015,0.839959,0.365590
0.133984,0.155369,0.917395,0.950130,0.206616,-0.233587
0.011058,-0.093488,0.776045,-0.306915,0.167560,-0.936871
0.062997,-0.014457,0.759705,0.431529,0.901774,-0.024214
0.087779,-0.006752,0.811640,-0.723943,0.289266,-0.626284
0.097731,-0.038283,0.899524,0.881931,0.017377,0.471059
0.132971,0.000217,0.918455,0.000904,-0.666108,0.745854
0.162817,0.024335,0.950311,-0.528957,0.818078,-0.225727
-0.160260,0.030001,0.742688,0.402303,0.649203,0.645513
-0.162453,-0.033193,0.860602,0.250782,-0.578828,0.775930
-0.107988,0.054695,0.832985,0.026010,0.903268,0.428288
-0.038517,0.179780,0.773160,0.818170,0.489629,0.301432
-0.227203,-0.156389,0.565625,0.852452,0.503420,0.141046
-0.146099,0.002106,0.470557,0.863367,0.427908,-0.267380
-0.116926,0.015761,0.521226,-0.764029,-0.098352,-0.637642
-0.099559,-0.062250,0.721018,0.847573,0.446991,0.286039
-0.078311,-0.064138,0.781168,-0.664942,0.524438,0.531805
-0.032949,-0.001964,0.781197,0.139537,-0.242004,0.960189
0.005660,0.043798,0.794682,-0.414760,0.671395,0.614169
0.051022,0.105981,0.793887,-0.250997,-0.136947,-0.958251
0.087105,0.142876,0.817352,0.803866,0.483738,-0.346117
0.103125,0.128352,0.888041,0.895208,0.442840,-0.049950
-0.181173,-0.173822,0.420212,0.715978,0.645485,0.265939
-0.176619,-0.230037,0.543809,0.077478,0.929307,0.361089
-0.116926,-0.130968,0.508449,0.417833,-0.871449,0.256891
-0.077807,-0.088691,0.530471,-0.492465,-0.856312,-0.155591
-0.049648,-0.074601,0.577578,0.368185,0.521532,-0.769704
-0.039022,-0.107143,0.669760,-0.192161,-0.140532,-0.971249
-0.007153,-0.083167,0.707917,0.889103,0.455791,0.041834
0.198906,0.063411,0.970479,-0.493958,-0.867979,-0.051162
-0.124007,-0.208686,0.412528,0.319837,0.797341,0.511812
-0.076963,-0.146512,0.415766,0.265160,0.805812,0.529487
-0.065832,-0.180791,0.513012,-0.147123,0.976838,-0.155376
-0.031437,-0.149704,0.543661,-0.131146,0.654442,0.744651
-0.044420,-0.251256,0.708093,0.822792,0.000406,0.568342
0.000267,-0.190819,0.707475,0.520765,-0.268778,0.810285
0.037699,-0.152612,0.731294,0.511338,0.412837,0.753724
0.086266,-0.082590,0.724257,-0.312423,-0.416132,0.853947
0.118974,-0.056149,0.758733,-0.392864,-0.799096,0.455086
0.088793,-0.188496,0.721666,0.748358,0.316641,-0.582836
0.130274,-0.138806,0.733502,0.303638,0.951371,-0.051927
0.170407,-0.088833,0.743247,-0.574255,0.556777,-0.600192
0.149664,-0.031597,0.792385,-0.337637,-0.501508,0.796550
0.143597,-0.102346,0.915334,-0.496250,0.462142,-0.734956
0.195869,-0.023023,0.897964,0.902711,0.320764,-0.286746
0.225881,0.001813,0.929525,0.785142,-0.360909,-0.503285
0.267362,0.053826,0.937651,0.960161,-0.269265,-0.074745
0.309517,0.107719,0.944364,-0.654050,0.722611,-0.223721
0.001785,-0.018811,0.167984,-0.113167,0.985241,0.128428
-0.028735,-0.180356,0.398572,-0.272503,0.798764,0.536393
0.085756,0.149704,0.062082,0.875814,0.001499,0.482646
0.002120,-0.162348,0.443618,0.991559,0.091550,0.091814
-0.046612,-0.370666,0.718104,0.259541,-0.946909,-0.189740
0.089467,0.013730,0.333270,-0.671269,0.728414,-0.137149
0.008866,-0.278708,0.686748,0.938717,-0.196573,0.283141
0.042593,-0.250378,0.720783,-0.540740,0.780486,0.313755
0.204129,-0.057887,0.770657,0.794810,0.044472,-0.605227
0.244766,-0.065007,0.891457,-0.695669,-0.225788,0.681956
0.283047,-0.022296,0.908827,-0.222088,0.176498,0.958919
0.404960,0.181234,0.834988,0.694645,0.478083,0.537499
-0.068364,-0.548774,0.503709,0.283728,0.893922,0.346990
0.093177,-0.060361,-0.007253,0.851386,-0.251637,0.460240
0.121506,-0.057887,0.061700,0.231177,-0.940731,0.248159
0.048660,-0.351495,0.430576,-0.327649,0.401064,0.855449
0.094021,-0.295129,0.438996,0.798668,0.192785,-0.570055
0.128252,-0.268972,0.478183,0.817697,0.574225,-0.040459
0.156915,-0.259528,0.533415,0.849638,0.500681,0.165630
0.188953,-0.172225,0.733825,0.884595,0.135973,-0.446098
0.237516,-0.103649,0.727937,-0.458773,0.707452,-0.537624
0.261629,-0.097699,0.779549,0.722647,0.128399,-0.679187
0.299231,-0.058180,0.801012,-0.750874,-0.604351,-0.266361
0.326211,-0.045252,0.846676,0.411103,0.809820,-0.418552
0.342400,-0.060503,0.917837,-0.629705,-0.628750,0.456229
0.460268,0.193870,0.739007,0.907866,-0.400853,-0.122863
0.123698,-0.396672,0.446739,-0.449121,0.841850,0.299297
0.267872,0.030870,0.008793,-0.416060,0.685649,-0.597310
0.152026,-0.389410,0.505093,0.923425,0.362656,0.125568
0.190811,-0.346548,0.524377,0.995275,0.028790,-0.092728
0.226725,-0.312845,0.552140,-0.160021,0.668627,0.726176
0.246119,-0.328105,0.630367,0.788860,0.580434,0.201982
0.296365,-0.252559,0.617177,0.556261,0.322036,-0.766072
0.332453,-0.218998,0.646472,0.989830,-0.140469,-0.022454
0.376971,-0.161328,0.652390,0.395938,-0.845710,0.357782
0.019487,-0.012853,-0.007754,0.937516,-0.200184,-0.284589
0.039727,-0.032031,0.081867,0.026381,-0.969739,0.242714
0.025055,-0.229168,0.418681,-0.333985,0.674907,0.657993
-0.043406,-0.497488,0.752345,-0.692666,0.417876,0.587872
0.065189,-0.184134,0.436464,0.825764,0.477787,-0.299721
0.015612,-0.398268,0.715424,-0.025370,0.377557,0.925639
0.131962,-0.203889,0.647061,0.591461,0.776589,0.216984
0.142753,-0.236874,0.738301,-0.618752,0.565363,-0.545445
0.131452,-0.399137,0.733678,-0.771648,-0.222239,0.595961
0.173778,-0.345386,0.739537,-0.498337,0.772709,0.393168
0.229591,-0.255033,0.712716,-0.489129,-0.284468,-0.824518
0.281529,-0.174256,0.693049,0.697674,0.505876,-0.507287
0.306317,-0.171498,0.750755,0.170479,0.038188,-0.984621
0.330261,-0.167570,0.805722,0.981038,0.177020,-0.078917
0.401079,-0.038566,0.742776,-0.443138,0.143265,-0.884932
0.409514,-0.074885,0.832485,0.335357,0.942090,-0.001655
0.383882,-0.316773,0.647443,0.504176,-0.080065,-0.859881
0.393664,-0.180942,0.731470,-0.688247,-0.719789,0.090664
0.010554,-0.580447,0.502825,-0.308028,-0.891539,-0.332079
0.177828,-0.073147,-0.026802,-0.522953,-0.714987,-0.464019
0.542217,-0.136483,0.712804,0.993862,-0.071469,0.084446
0.586395,-0.076632,0.712745,0.952476,0.232707,-0.196561
0.578640,-0.157843,0.846823,-0.652844,0.706602,0.272963
0.427051,-0.150724,0.759263,-0.692434,-0.557944,0.457420
0.483198,-0.058038,0.728909,0.137742,-0.843723,0.518805
0.485900,-0.112223,0.837431,0.458435,0.851401,0.254859
0.247298,-0.569257,0.514956,0.858863,0.310244,0.407558
0.448967,-0.202000,0.598040,-0.260446,0.900871,-0.347276
0.444588,-0.276677,0.728909,0.276490,0.959879,-0.046752
0.501579,-0.182972,0.697082,-0.072183,-0.971931,-0.223920
0.351508,-0.045394,0.051071,0.227369,0.429395,0.874027
0.235159,-0.460735,0.538656,0.967247,0.107069,-0.230153
0.277818,-0.411054,0.552994,-0.826689,-0.026975,0.562011
0.314072,-0.374878,0.578550,-0.604908,0.313384,0.732035
0.337846,-0.378078,0.644470,0.866453,-0.481355,0.132502
0.516755,-0.219725,0.544927,-0.495252,-0.004448,-0.868738
0.497700,-0.339144,0.721754,-0.488590,0.675543,0.552197
0.385904,-0.457109,0.657925,-0.689238,-0.278296,0.668956
0.429578,-0.399581,0.660310,0.704009,-0.504541,-0.499810
0.895821,0.101618,0.640642,0.913682,-0.300743,-0.273382
0.385569,-0.203747,-0.088866,0.461204,-0.765623,0.448455
0.520970,-0.414973,0.654127,0.793079,0.606497,0.056453
0.599384,-0.262145,0.567568,0.049752,0.610712,0.790289
0.574595,-0.397541,0.759234,0.387051,0.884148,0.261674
0.631586,-0.305583,0.731294,0.042406,0.945791,0.321994
0.748441,-0.109608,0.660839,-0.702951,-0.132568,0.698774
0.798691,-0.036536,0.652419,0.593046,0.522611,-0.612515
0.512880,-0.085348,-0.201863,-0.316460,0.563101,0.763394
0.458580,-0.310380,0.299501,-0.673209,0.637289,0.375037
0.472747,-0.600495,0.657159,0.953983,-0.235387,-0.185766
0.510688,-0.563015,0.682715,0.559236,0.738836,0.376000
0.877099,-0.065442,0.684481,0.842467,-0.092940,-0.530671
0.532270,-0.305149,0.746986,0.774033,0.618612,-0.134877
0.601406,-0.180942,0.688662,0.006148,0.827706,0.561128
0.704432,-0.028405,0.664608,-0.237350,0.869676,0.432814
0.465496,-0.505921,0.683833,0.251144,0.830692,0.496867
0.429917,-0.251398,-0.101761,0.379409,-0.921325,0.084905
0.360612,-0.190234,-0.177250,-0.100644,-0.992053,0.075505
0.138029,-0.627512,-0.141419,0.707026,-0.229737,-0.668831
0.290802,-0.770321,0.512806,0.860030,0.465589,0.208748
0.680993,-0.138230,0.113429,-0.488551,-0.281764,-0.825789
0.789083,0.183264,-0.208723,-0.768025,0.573961,-0.284088
0.539691,-0.634632,0.674824,0.579746,-0.198001,-0.790374
0.744396,-0.032031,0.076950,-0.192254,0.933376,0.303065
0.643731,-0.322873,0.572426,-0.420592,-0.084925,-0.903266
