-0.408530,0.102400,0.681011,-0.344651,-0.487773,0.802055
0.132826,-0.020862,0.942392,0.115232,0.600545,0.791244
-0.243229,0.486989,-0.641667,-0.702721,0.010808,0.711383
-0.537776,0.484858,0.629557,-0.076254,0.059537,0.995309
0.650946,-0.461080,0.411706,-0.420597,0.446051,0.790023
0.098665,-0.520526,0.408442,0.219812,0.827772,0.516214
-0.076303,0.628533,0.559490,0.919481,0.176956,0.351058
-0.403631,-0.399619,0.685645,0.444799,-0.142540,-0.884215
-0.595556,-0.316734,0.741609,-0.025788,0.999400,0.023121
0.502864,0.513122,-0.667206,-0.741917,-0.450168,0.496898
-0.390314,0.018170,0.326913,-0.370788,0.377011,0.848752
-0.692896,0.075258,-0.012359,0.970815,0.124091,-0.205233
0.169502,-0.374720,0.745596,-0.622919,0.485764,-0.613192
0.526100,-0.161059,0.254828,-0.780410,0.169270,0.601920
-0.527227,0.378646,-0.220367,0.595586,0.004649,0.803278
0.146143,-0.104306,0.949518,-0.748315,0.516094,-0.416739
-0.218865,0.083446,-0.304164,-0.402319,-0.043411,-0.914470
-0.542422,0.071670,0.468193,0.087534,0.935840,-0.341382
0.416441,-0.088941,0.723245,-0.314576,0.640532,0.700543
-0.189978,-0.295536,0.003015,0.920482,0.374151,0.112801
0.347107,-0.759758,0.458226,-0.445178,0.065039,0.893077
-0.242730,-0.163301,0.607181,-0.050298,0.205220,0.977422
-0.166236,-0.350607,-0.306556,0.675442,0.448493,0.585348
-0.445075,0.229363,-0.236763,0.750523,0.287004,0.595267
-0.742888,0.046096,0.510228,0.266877,0.625426,-0.733225
0.280288,-0.694593,0.286996,-0.628979,0.391387,0.671716
-0.663756,-0.394459,0.703685,0.152193,0.936612,0.315587
0.585637,0.516824,0.480602,-0.341239,-0.544221,0.766407
-0.361175,-0.749103,0.619241,0.483877,-0.874718,-0.027041
0.126671,-0.254262,0.743852,-0.577400,0.733101,0.359405
-0.233055,0.416442,0.588493,-0.733355,0.596984,0.325268
0.501852,-0.095783,-0.961279,-0.081181,0.130529,0.988115
-0.204046,0.690893,0.284280,0.095586,-0.692621,0.714940
-0.534134,0.054397,0.537189,0.149532,-0.679152,0.718605
-0.104813,-0.677659,0.576109,0.268884,-0.785376,-0.557571
0.293474,0.394908,0.339322,0.180390,0.862776,0.472309
-0.132826,-0.073800,0.909052,-0.744559,0.568687,0.349609
0.018277,-0.155003,0.762440,0.090659,-0.983354,0.157469
-0.127805,0.434612,0.657090,-0.022341,0.490008,0.871432
-0.498332,-0.281629,0.741136,0.812150,0.326224,0.483725
-0.261068,-0.565612,-0.096853,-0.645584,0.643391,0.411423
0.166995,0.504824,0.548676,-0.438647,0.419225,-0.794883
-0.362555,-0.671603,0.587098,0.148990,0.590877,0.792885
0.607240,0.629767,-0.195301,0.743608,0.598803,-0.297458
0.047547,0.284208,0.662497,0.793048,0.168696,-0.585334
-0.262578,0.677770,0.307453,0.353233,-0.536418,0.766474
-0.496071,-0.324585,0.742706,-0.570856,0.701167,-0.427186
0.927025,-0.235868,0.534647,0.890380,-0.234741,-0.390025
-0.639009,-0.545425,0.397379,0.556395,0.244645,0.794086
-0.077437,-0.097466,0.806444,0.819634,-0.479284,0.313827
0.419960,-0.907806,0.558717,-0.459735,-0.864686,-0.202391
-0.092379,-0.269964,-0.943239,-0.086042,0.107105,0.990518
-0.195751,0.437977,0.432686,0.675170,0.209193,-0.707378
0.098413,0.005943,0.824857,0.841829,0.430505,-0.325560
-0.156692,-0.054845,-0.287320,-0.110956,-0.338772,0.934303
0.400994,-0.222520,0.542621,0.986711,0.020026,-0.161248
0.227030,-0.074136,0.923380,0.934368,-0.243430,-0.260189
-0.047416,-0.105205,0.934468,-0.078150,-0.910127,0.406893
0.270490,-0.624159,0.528144,-0.720265,-0.648428,-0.246495
-0.080320,-0.456371,-0.520295,0.950651,-0.218320,-0.220453
0.064749,-0.473868,0.346722,-0.388725,0.882329,0.265310
0.787230,-0.169919,0.546284,-0.714620,0.629526,-0.304985
-0.454872,-0.125168,0.687190,0.274358,0.814839,0.510651
-0.340200,-0.383356,0.620761,0.806481,-0.507131,0.303983
-0.591409,-0.354531,0.670471,-0.661362,-0.702251,-0.263524
0.881311,-0.300582,0.449630,-0.413119,0.470215,-0.779891
0.163100,-0.819987,-0.942417,-0.140551,0.144403,0.979486
-0.453117,0.451100,0.698777,-0.652841,-0.747019,0.125545
-0.183823,-0.666667,0.570902,0.191088,0.757176,0.624636
0.726060,-0.435957,-0.953305,-0.006221,0.180939,0.983475
0.531497,-0.177995,0.589440,0.010754,0.973840,0.226981
-0.129813,-0.027367,-0.958139,-0.076740,0.156522,0.984689
0.584379,0.537910,-0.228565,0.707356,0.625135,-0.329931
0.057842,-0.196276,0.801859,0.128223,-0.981273,0.143740
-0.398732,0.544078,0.400693,0.517596,0.403687,-0.754408
0.089121,-0.719381,0.616425,0.867051,-0.396908,-0.301141
0.152552,-0.355989,0.700172,0.787003,-0.111576,-0.606776
-0.163093,-0.377188,0.609797,-0.649569,0.209834,-0.730774
0.437547,0.213212,0.784990,0.347842,0.732786,-0.584833
0.331031,0.046433,-0.968754,-0.036876,0.181730,0.982657
-0.447466,-0.323464,0.449630,-0.628553,0.207385,-0.749609
0.599198,-0.372365,0.782548,-0.698719,-0.398115,0.594387
0.391572,0.259981,0.349338,0.747761,0.440593,0.496721
0.109843,-0.098476,0.927591,0.181763,0.940288,0.287787
-0.355394,-0.275683,0.683253,-0.384003,0.763196,-0.519685
0.059222,0.420031,0.442927,0.758365,-0.455618,0.466149
0.809585,-0.514917,-0.952483,0.001367,0.180488,0.983576
-0.017770,0.083557,0.868338,0.936485,0.344840,-0.063877
0.009483,-0.098924,0.678992,0.653547,-0.144676,0.742930
0.048926,0.500898,0.540303,0.490293,0.616526,0.616042
0.556873,0.504824,0.477263,0.690217,0.211717,-0.691936
0.163354,-0.075035,0.924077,0.360968,-0.929959,0.069847
-0.694904,0.241476,0.681758,0.370099,-0.779732,0.505019
0.100551,-0.185284,0.899634,0.691765,-0.659975,-0.293077
-0.011990,-0.406011,-0.832083,-0.760690,0.646669,0.056308
-0.046282,-0.169358,0.916552,0.362151,0.786576,-0.500144
0.313828,-0.575706,0.398276,0.785769,0.529580,0.319550
-0.534134,-0.357784,0.478858,-0.319160,-0.783233,-0.533557
0.389187,0.921714,0.496499,-0.436878,-0.899278,-0.020910
0.715511,-0.101054,0.749333,-0.463107,0.885930,-0.025674
0.747787,-0.527142,0.460469,0.127402,-0.497505,0.858054
-0.849901,0.094773,0.483717,-0.217377,0.976066,-0.006485
0.346609,-0.475886,0.387362,-0.325031,0.838771,-0.436827
0.804441,0.399282,-0.204196,0.534655,0.767670,-0.353308
0.200903,-0.539031,0.828396,0.755785,0.624983,0.195411
-0.601207,-0.363616,0.688909,-0.046674,0.327321,0.943760
-0.358913,-0.309331,-0.951362,-0.053400,0.044303,0.997590
0.173772,-0.020188,0.538161,-0.366555,0.496917,-0.786582
-0.469699,-0.860251,-0.058132,0.865673,-0.451059,0.217156
0.359542,-0.161170,0.678170,0.134295,-0.881987,0.451734
-0.711233,0.207604,-0.254753,-0.773200,0.626076,-0.100944
-0.187587,-0.235419,0.847607,-0.285268,-0.825130,-0.487629
0.031087,0.709736,0.510727,0.843351,-0.484669,0.232066
-0.171257,-0.829744,-0.457753,0.741458,-0.668021,0.063144
0.249638,0.152983,-0.971246,-0.026211,0.170034,0.985089
-0.231300,0.432930,0.725587,-0.246655,-0.723933,0.644269
-0.175658,0.302378,-0.979294,-0.088818,-0.082161,-0.992653
0.278156,-0.559107,0.608502,0.374678,0.107558,0.920895
-0.077437,-0.480148,0.543692,0.384611,-0.388250,-0.837458
0.598447,-0.275572,0.525328,0.233261,0.835294,-0.497869
0.755951,-0.805743,0.346373,0.475918,0.879309,-0.017819
0.630101,-0.188313,0.810057,0.186971,-0.795017,0.577053
0.733473,-0.967586,0.400967,0.188988,0.981695,0.023613
-0.313192,-0.209624,-0.440909,0.193688,0.933522,0.301698
0.346233,-0.641319,0.404007,0.959051,0.282694,0.017489
-0.049049,-0.894684,0.638950,-0.018011,0.994206,0.105968
0.495948,-0.739009,0.534348,0.564127,0.699052,0.439416
-0.113729,0.646253,-0.986295,-0.120252,0.048510,0.991557
-0.124286,0.305070,-0.436499,0.933067,0.103121,-0.344603
-0.184574,0.717250,-0.989236,-0.086800,0.201981,0.975536
0.580355,-0.232279,0.700097,0.737870,-0.622940,0.259795
-0.514033,-0.130663,0.592555,0.325501,0.916648,-0.231958
-0.031838,-0.748093,-0.940423,0.021243,0.042019,0.998891
0.528737,-0.503590,0.608676,0.349814,0.583670,0.732775
0.164603,0.057424,-0.969900,-0.073726,0.135686,0.988005
-0.393833,-0.092195,0.661501,-0.168972,0.958448,-0.229840
-0.501353,-0.080417,-0.965539,0.008806,0.152634,0.988244
-0.676444,-0.109579,0.595968,-0.063533,-0.920797,0.384832
-0.409028,0.068079,-0.139461,0.725459,0.154692,-0.670656
0.043023,0.192688,-0.973613,-0.040430,0.042113,0.998295
-0.379888,-0.733288,0.572422,-0.297841,-0.604488,0.738840
0.117755,-0.510878,0.621334,0.661297,-0.616483,0.427358
0.089749,0.543516,0.479555,-0.556706,-0.067341,-0.827976
0.263207,-0.753926,0.544689,0.573708,0.306245,0.759653
0.212963,-0.689546,0.618568,-0.424677,-0.030527,-0.904830
0.296494,-0.597017,-0.203648,0.904715,0.424504,0.035872
0.251524,0.050919,0.629083,-0.563976,-0.700453,0.437374
0.646929,0.095783,-0.106047,-0.705711,0.608594,0.362747
0.617789,-0.163975,0.707448,0.943251,-0.197028,0.267317
-0.065125,-0.057537,0.960432,0.454787,-0.798247,-0.394931
-0.077054,0.570883,0.040839,0.639867,0.100978,0.761823
0.028450,0.528265,-0.980764,0.003385,0.039369,0.999219
0.682102,0.440893,0.449082,-0.093082,-0.651309,0.753082
0.404137,-0.130439,0.873595,-0.722429,0.151016,0.674753
-0.139856,0.117318,0.749084,-0.788370,0.218705,0.575014
0.582999,-0.466464,0.122543,-0.499730,0.378497,0.779108
0.200780,-0.811126,0.613286,-0.683529,0.581127,0.441678
-0.387555,-0.001795,-0.970448,0.172848,-0.090795,-0.980755
0.507762,-0.215008,0.763760,-0.283261,-0.935331,0.211942
0.396348,0.345782,0.531632,0.989122,-0.026907,-0.144614
-0.239334,-0.185173,0.652879,0.375438,0.359791,-0.854164
0.172645,-0.558210,0.616650,0.962628,0.202949,0.179328
-0.021159,-0.489905,-0.510752,0.958862,-0.204744,-0.196632
0.262326,-0.625617,0.585777,0.070698,-0.697791,0.712804
0.625325,-0.252018,0.787282,-0.401003,0.666644,0.628317
-0.262824,0.075146,0.676276,-0.346665,-0.845569,0.406001
0.328900,0.652310,0.436449,-0.516611,0.775620,-0.362665
-0.354390,-0.616196,0.584531,0.041058,0.204481,0.978009
-0.014757,-0.293518,-0.037600,0.321517,0.922870,-0.211984
0.079822,-0.552265,-0.935290,0.115179,-0.181741,0.976578
-0.271242,0.385262,0.735504,0.486433,0.581334,0.652253
-0.183823,0.244729,0.644507,-0.349131,-0.767728,-0.537309
-0.277267,0.406459,0.726061,0.421352,-0.426786,0.800198
-0.367201,0.337035,0.681783,0.859166,0.484782,0.163767
-0.070652,0.063145,0.706003,0.904578,-0.106144,0.412882
0.104944,-0.277141,0.904368,-0.573569,0.641870,-0.508942
-0.554733,-0.605989,0.010714,0.033477,-0.887713,0.459179
0.005842,-0.085015,0.946279,0.947571,-0.240375,-0.210546
-0.854547,0.063594,0.556201,0.360178,0.772308,-0.523271
0.056332,-0.256393,0.887449,0.293663,0.527527,0.797169
0.469201,-0.341521,0.438442,0.467457,0.876966,-0.111422
0.163982,-0.320547,-0.248349,0.937542,0.099289,-0.333401
0.724681,-0.055182,0.759026,0.863114,0.439544,-0.248667
-0.474973,0.463661,0.369771,0.656427,-0.071697,0.750975
0.662629,0.413301,-0.509805,-0.745722,0.448651,0.492555
-0.097531,-0.069986,-0.279595,-0.735908,-0.384637,0.557220
-0.210701,0.371242,0.409812,0.880005,-0.352750,-0.318055
-0.528729,-0.083446,0.684673,0.972439,-0.227551,-0.050829
0.124286,-0.082547,0.895074,0.621113,-0.339799,-0.706226
0.878919,-0.740578,-0.935664,0.186735,0.079358,-0.979200
0.380901,0.387282,0.550395,0.976949,0.020863,0.212451
0.175658,-0.201099,0.928961,0.894663,-0.321849,0.309824
-0.175029,0.867317,0.071811,-0.370770,0.359967,-0.856127
-0.372352,-0.220838,-0.391075,-0.181768,-0.973096,-0.141581
0.585131,0.765815,0.378516,-0.011533,-0.410276,0.911888
0.062741,-0.342755,0.685745,0.848129,0.458699,0.265088
-0.112227,-0.043180,0.855406,0.674298,-0.613842,0.410513
-0.249760,0.173956,-0.970847,-0.055830,0.121407,0.991031
-0.140109,-0.342193,0.173099,-0.627786,-0.154103,-0.762979
0.678583,0.251345,0.220467,0.816017,-0.509051,0.273830
-0.152046,0.542058,0.610919,0.988537,0.052907,0.141409
-0.446961,0.051367,0.557446,0.624176,0.642611,-0.444361
-0.436159,-0.790601,0.277129,0.382496,-0.819535,0.426683
-0.379635,-0.465231,0.408018,0.873920,-0.030357,-0.485121
-0.655844,-0.102961,0.582563,0.002245,0.996750,-0.080522
-0.506627,0.137729,0.691277,0.381178,0.415344,0.825950
-0.622933,-0.424966,0.262677,-0.491704,0.653729,0.575209
-0.376124,-0.456932,0.465128,0.715979,-0.034969,-0.697246
0.109590,-0.045872,0.951985,0.179131,0.862024,0.474158
-0.192232,0.292508,0.738370,0.774917,0.562717,-0.287842
0.029454,0.439659,0.451250,-0.879112,0.460396,-0.123276
-0.853420,-0.055293,-0.393815,0.555131,0.829946,0.054945
-0.784339,-0.419358,0.504896,-0.538134,-0.747538,-0.389357
0.224270,0.173956,0.794035,-0.113804,0.767946,-0.630323
0.180810,-0.058771,0.950166,0.182389,0.606985,0.773501
-0.236950,0.678780,0.162186,0.107920,-0.019035,0.993977
-0.671415,0.264580,-0.975232,0.040364,0.111811,0.992909
0.691769,0.415321,-0.548501,-0.503558,0.696652,0.510984
0.507632,0.301817,0.459771,0.661109,0.357302,-0.659750
0.321609,-0.102288,0.042833,-0.180381,-0.153787,-0.971500
-0.078311,-0.122813,0.630030,-0.499803,-0.862786,0.076137
0.366580,0.665546,0.524381,-0.704105,0.466121,0.535693
0.103434,-0.119000,0.959111,-0.439561,0.702867,-0.559253
0.712246,0.491252,-0.184960,0.750286,0.542742,-0.377494
0.372858,0.139636,0.759176,0.062141,-0.902457,0.426274
0.078695,-0.180013,0.865422,0.287820,0.863848,0.413433
-0.045407,0.495176,0.641118,0.416622,0.784568,0.459215
0.787728,0.420479,-0.383600,0.828321,0.557384,0.056632
-0.368205,-0.737662,0.629557,0.747590,0.216432,0.627906
-0.104315,0.579632,-0.978796,-0.084190,0.025955,0.996112
0.759593,0.154778,0.433957,0.205835,-0.369383,-0.906194
0.181063,-0.043742,0.943588,0.059889,0.950747,0.304128
-0.429374,-0.143562,0.574016,0.307663,0.897921,0.314771
0.258056,0.736317,0.441756,0.067206,-0.160254,0.984785
0.505370,-0.434051,0.393517,-0.500339,0.827132,-0.255956
0.152422,0.803948,0.458799,0.849455,0.140646,-0.508571
-0.861079,0.027030,0.461067,-0.456170,0.860182,-0.228025
-0.140109,-0.238336,0.828520,-0.161977,0.943013,0.290672
0.103940,-0.729588,0.351307,-0.495893,0.356753,-0.791718
0.609502,0.233850,0.798545,-0.725052,0.675158,-0.135875
0.185586,-0.216577,0.857474,0.790385,-0.037772,0.611445
0.255541,0.796209,0.473999,0.627510,-0.188427,0.755464
-0.145008,-0.041274,0.709341,0.837850,0.292963,0.460630
0.513037,-0.088830,0.692971,-0.249576,-0.887081,0.388328
-0.609118,-0.179454,-0.268806,-0.379158,-0.810029,0.447316
0.199523,-0.716017,-0.356191,0.974659,0.220040,0.040265
0.676444,-0.134813,0.734583,-0.240401,-0.821547,0.516979
0.439808,-0.917788,0.580296,0.454933,0.873665,0.172469
-0.314702,-0.552041,0.396532,0.280800,-0.914037,0.292726
-0.192485,-0.074810,0.826377,0.063139,-0.974967,0.213197
-0.564776,0.435733,0.621508,-0.604543,-0.738425,0.298759
0.405517,-0.369897,0.548426,-0.462977,-0.855533,-0.231767
0.622182,-0.857896,0.413849,-0.740540,-0.600277,0.302106
-0.035855,0.746300,0.542970,0.846814,-0.529691,0.048307
0.704326,-0.065500,0.504996,-0.335558,0.384560,0.859950
0.160463,0.344661,0.400992,-0.261633,0.843248,-0.469553
0.239219,-0.542284,0.478584,0.831070,-0.294626,0.471718
-0.119257,0.377636,0.597214,0.969505,0.169764,0.176749
-0.652701,-0.412405,0.685446,0.345192,0.402864,0.847669
-0.423977,-0.418237,0.346598,-0.693973,0.564408,0.447040
-0.536396,0.176089,0.691227,0.264669,0.290136,0.919658
-0.487661,-0.544191,0.291032,0.223288,-0.462054,0.858283
-0.394332,-0.871131,0.380784,0.981089,0.074471,-0.178658
0.569177,0.372252,0.472653,-0.092539,0.021194,0.995483
0.257051,0.498878,0.489946,0.356757,0.323052,-0.876563
-0.077307,-0.366420,0.688237,0.907895,0.166642,-0.384652
-0.274507,0.811126,-0.991977,-0.057551,0.239744,0.969129
0.020285,-0.126963,0.951611,0.015970,0.844702,0.534999
0.140362,0.135823,0.599930,-0.120981,-0.987935,-0.096690
-0.587139,0.183042,0.697581,0.458622,0.474114,0.751586
0.572197,-0.135262,0.482546,0.341326,-0.933862,-0.106761
0.167371,-0.794078,0.624573,-0.287584,0.452767,-0.843977
0.586388,-0.657583,0.340019,-0.184916,0.340468,0.921894
-0.091375,0.211530,0.594822,0.819139,-0.509360,0.263750
-0.162717,-0.168124,-0.954676,-0.161274,0.122108,0.979326
0.134336,-0.230821,0.783769,-0.400104,0.350269,-0.846893
-0.571186,-0.342082,0.484863,0.667929,-0.084597,0.739401
0.123911,-0.563593,0.575910,0.906242,-0.142312,-0.398086
0.110594,-0.493944,0.807764,-0.186043,0.680801,0.708447
-0.564025,0.628982,0.393517,0.790770,-0.162407,0.590175
-0.406015,0.351055,0.615304,-0.581077,0.357193,0.731275
0.010112,-0.795199,0.605387,0.013654,0.934932,0.354565
0.112733,0.159040,0.884036,0.015656,-0.993693,0.111033
0.482011,0.460856,0.636733,0.050402,0.021270,0.998503
0.316335,0.857896,0.273914,-0.576481,0.814602,0.063978
0.606482,-0.855990,0.410510,-0.740540,-0.600277,0.302106
0.370973,0.188200,-0.967633,-0.144742,0.052351,0.988084
0.486151,0.131562,0.409713,-0.429466,0.874210,-0.226533
0.170506,0.984409,0.460170,0.713533,0.309575,-0.628517
0.319976,0.319201,0.852715,0.755809,-0.394474,0.522631
-0.529864,-0.243944,0.742083,0.885208,-0.220007,0.409881
-0.187211,0.332661,0.767174,0.321441,0.677941,-0.661114
-0.579350,-0.080641,0.596641,0.278433,0.880346,-0.384013
0.440437,-0.485420,0.628161,0.236146,0.762353,-0.602539
0.491180,-0.747420,0.408118,-0.404466,-0.309009,0.860767
0.055205,0.142441,0.910523,0.678022,0.595376,-0.431061
0.478615,-0.441903,0.597189,0.453948,0.709376,0.539182
0.407027,-0.157021,0.772008,0.056177,-0.715965,0.695872
-0.550708,-0.413301,0.477288,0.111135,-0.363455,0.924959
-0.591662,0.293629,0.521715,0.907473,-0.014337,0.419867
0.193245,0.660162,0.411756,0.412993,0.413508,0.811449
0.147653,-0.060005,0.955548,0.443453,-0.184700,0.877060
-0.796774,0.199754,0.516308,0.368732,-0.754068,0.543524
0.422475,0.431920,0.330028,-0.016971,0.775820,0.630727
-0.202283,-0.151974,-0.037924,-0.152499,0.472775,0.867887
0.046665,-0.594662,0.576882,0.233902,-0.908550,-0.346161
-0.993215,-0.039929,0.524008,0.976202,-0.065867,0.206619
-0.230418,-0.427097,0.552164,0.212049,0.828477,0.518325
0.124792,-0.286451,0.591882,0.633172,0.677356,0.374543
0.203923,-0.285779,0.848354,0.118872,0.360571,0.925126
0.191612,-0.418910,0.735355,0.591825,-0.244380,0.768129
0.041137,-0.331314,0.911719,0.571028,0.365413,0.735120
0.704579,-0.352624,0.435701,-0.238626,0.594799,0.767640
0.158830,-0.103409,0.901577,-0.914695,0.393648,0.091514
-0.560637,-0.248878,-0.960481,-0.009609,0.198316,0.980091
0.074171,-0.844773,0.622032,0.416614,0.188403,0.889346
0.213721,-0.038471,0.865099,0.815277,-0.569685,-0.103837
0.179054,0.517721,0.553111,-0.206750,-0.153902,-0.966214
0.272376,-0.585913,0.604789,0.948969,-0.046195,0.311967
0.836218,-0.974315,0.435751,-0.344968,0.591142,0.729074
0.214848,-0.603186,0.841701,0.356428,0.902423,0.242059
0.322867,-0.221400,0.776020,0.989029,-0.092474,0.115199
-0.283799,-0.643113,0.585603,0.146567,0.202974,0.968153
0.206185,-0.496524,0.777440,0.910112,0.407978,0.072454
-0.315959,0.031741,0.680961,0.004813,-0.391217,0.920286
0.600578,0.700539,0.431216,0.488280,0.812674,0.318031
-0.260064,0.375617,0.723868,0.586115,0.090569,-0.805150
0.274761,-0.052153,0.717514,0.961433,-0.194693,0.194271
-0.574704,-0.445716,0.692448,0.599960,0.029412,0.799489
0.299131,-0.431809,0.607181,-0.037669,-0.162779,0.985943
-0.623814,-0.039929,0.443550,0.151437,-0.658668,0.737037
0.138101,-0.002579,0.785837,0.777137,-0.009307,0.629262
0.890855,-0.100269,0.524232,0.684584,0.169500,-0.708953
-0.169624,0.187865,-0.971570,-0.052340,0.274943,0.960035
0.345229,0.264693,0.449331,-0.286985,0.189084,-0.939088
-0.751175,-0.448407,0.430992,0.735859,0.668390,-0.108468
0.317592,-0.362607,0.817507,-0.557569,0.139202,0.818376
-0.220375,-0.275683,0.843794,-0.439909,-0.531892,-0.723582
-0.591785,0.274900,0.406424,0.865421,0.108199,0.489224
0.230173,-0.178219,0.797498,0.301362,0.856656,-0.418714
0.228034,0.290377,0.845514,-0.455793,0.781587,0.425880
-0.060226,-0.297555,0.640969,0.726796,0.339019,-0.597356
0.472965,-0.118776,0.752797,0.336788,0.940096,0.052851
0.246625,0.693472,0.457105,-0.375840,-0.247809,0.892936
0.309803,-0.748206,0.525054,0.948704,0.050502,0.312105
0.413804,0.526917,-0.168315,0.602460,0.741677,-0.294885
-0.188468,-0.201547,-0.273366,0.170055,0.389780,0.905071
-0.190607,0.562135,0.607779,0.999945,-0.001868,0.010344
-0.112978,-0.294415,0.590387,-0.423389,-0.867750,-0.260292
0.465176,-0.027254,0.671368,0.224177,0.003784,0.974541
-0.506627,0.470728,0.372088,-0.648650,-0.014793,-0.760943
-0.229038,0.562361,-0.984477,-0.042528,0.081644,0.995754
0.435162,-0.651974,0.490693,0.418118,0.665443,0.618356
0.344348,-0.649844,-0.113871,0.852861,0.395182,-0.341262
-0.067011,-0.368550,0.650836,-0.533014,0.810236,0.243750
-0.062863,0.119897,0.523160,0.757033,-0.644977,-0.104427
0.707470,0.385711,0.467446,0.608804,-0.442666,0.658335
0.388060,0.392666,0.650761,-0.341059,0.466529,-0.816106
-0.000567,-0.342755,0.358358,-0.197937,-0.489433,0.849280
-0.012373,-0.074136,-0.514091,0.836018,0.077307,-0.543228
0.584126,0.284769,0.796078,-0.497425,0.664682,-0.557464
0.609502,-0.274563,0.533102,-0.302659,0.881193,0.363175
0.249140,-0.356326,0.812573,0.385679,0.048652,-0.921350
-0.717895,0.227793,0.574689,-0.093589,-0.978372,0.184468
-0.493810,0.654666,0.295866,0.002556,-0.754957,0.655769
0.900653,0.235981,-0.283956,-0.367522,0.715680,-0.593910
0.774289,0.216577,0.542247,0.994165,-0.067054,0.084500
-0.147392,-0.446277,0.534049,0.242819,0.544405,0.802909
0.434656,0.087035,-0.963845,-0.054616,0.092245,0.994237
-0.392829,0.677433,-0.989884,-0.009917,0.068197,0.997623
0.107704,-0.316397,0.528842,-0.103821,-0.954207,0.280553
0.436665,0.288134,0.442853,0.511871,0.379533,-0.770677
-0.632102,-0.671376,0.033738,0.904882,-0.424356,0.033324
0.062741,0.080530,-0.025590,-0.375732,-0.228631,0.898083
0.629219,0.154330,0.436449,-0.009968,0.509034,0.860688
0.237832,-0.283648,0.734832,0.926168,0.285585,-0.246279
0.367960,0.126626,-0.965216,0.053934,-0.016859,-0.998402
-0.191228,-0.364851,0.848354,0.332823,-0.442330,0.832810
-0.612890,-0.030956,-0.477487,-0.245583,-0.967874,-0.053935
0.621684,0.259646,0.219595,-0.663082,0.687613,-0.295822
-0.293727,-0.324023,0.716268,0.813214,-0.069899,0.577751
-0.290330,-0.726110,0.604515,0.162723,0.518195,0.839640
0.353141,0.339838,0.332943,0.054084,0.782850,0.619855
0.285938,-0.150404,0.816037,0.533675,0.541913,-0.649247
0.771153,-0.386833,-0.953031,0.027620,0.124428,0.991844
0.448724,0.560341,0.542297,0.712899,-0.400974,-0.575321
0.689385,-0.789143,0.340518,0.549386,0.832144,-0.075576
-0.304528,-0.484410,0.526126,-0.319430,-0.095559,0.942779
-0.302014,-0.644347,-0.308275,0.706407,-0.664805,-0.242950
0.274262,-0.417004,0.580121,0.421586,-0.286020,-0.860499
-0.151915,-0.288919,0.846087,0.487872,0.489240,0.722928
-0.004838,0.108232,0.848678,0.097076,-0.975482,0.197510
0.284811,0.216240,0.660504,-0.852453,0.522714,-0.009663
-0.215599,-0.506393,0.566392,-0.270810,-0.821015,-0.502590
-0.038370,0.101727,0.753420,-0.209893,0.873261,0.439727
0.094771,0.846007,0.495577,-0.411615,0.603687,-0.682741
0.857315,-0.778600,0.331074,0.449512,0.764523,0.462000
0.252405,0.156909,0.724690,-0.082581,0.988760,0.124633
-0.019526,0.842081,0.564373,0.762465,-0.514619,0.392191
0.252528,-0.026020,-0.474323,-0.043392,0.981622,0.185839
-0.069142,-0.179454,-0.125283,0.429692,-0.247004,0.868536
0.299377,0.054397,0.472803,0.222244,-0.068687,0.972569
0.241857,-0.620009,-0.197120,0.962178,0.217886,0.163519
-0.534510,-0.403769,0.685869,0.696101,0.298279,0.653049
0.317722,-0.051817,-0.961852,0.017239,0.176583,0.984135
0.027951,0.737999,0.524730,0.884635,-0.316882,0.342062
-0.010112,0.841297,0.569407,0.861518,-0.317241,0.396416
-0.100543,0.540265,0.571774,0.789333,0.352249,0.502867
-0.103434,-0.878308,0.560237,-0.510858,0.563117,0.649556
-0.481130,-0.197734,0.721152,-0.127266,0.991221,0.035849
0.703575,-0.031852,0.613809,0.333055,-0.855105,-0.397328
-0.002698,-0.493718,-0.924675,-0.228319,-0.436974,0.870014
-0.230794,-0.242373,0.690205,-0.360118,-0.079199,-0.929539
-0.427120,-0.242821,-0.100416,0.171842,0.983333,-0.059386
-0.668026,0.031965,-0.498169,0.175386,0.983685,-0.040054
-0.245490,0.294528,0.526923,0.895569,0.146752,-0.420023
0.299760,-0.256617,-0.624698,-0.334722,0.210863,-0.918422
0.424736,0.038358,0.435253,-0.579860,0.361509,0.730119
-0.387930,-0.634142,-0.637630,0.491587,-0.870031,0.037262
0.041260,0.806751,0.526375,-0.655407,0.741705,0.142530
-0.242984,-0.785443,-0.944310,-0.047289,0.168690,0.984534
0.020285,-0.537124,0.809733,-0.437299,0.723334,-0.534377
0.771276,0.322341,-0.481698,0.729977,-0.431273,-0.530224
-0.047914,-0.616644,0.239404,-0.388033,0.626428,-0.676031
0.165232,-0.491028,-0.939202,-0.351311,-0.054382,-0.934678
0.316465,-0.106998,0.747265,0.420555,0.504269,0.754219
0.122783,-0.204015,-0.942342,0.176060,0.381856,0.907297
-0.102805,0.300134,0.755538,-0.126978,-0.766768,0.629241
-0.449851,-0.830866,0.373359,0.994845,-0.039799,-0.093267
-0.926902,0.117429,0.510253,-0.473551,0.554640,-0.684196
-0.424100,-0.771310,0.644233,0.945160,0.085311,0.315268
0.100927,-0.315388,0.748860,0.198707,-0.469508,-0.860278
-0.384917,-0.849261,-0.498044,0.670168,-0.740202,-0.054555
-0.918982,0.089727,0.497247,-0.480721,0.847077,-0.226645
-0.044779,-0.800359,-0.937881,-0.003445,0.002941,0.999990
-0.290330,0.043966,0.541450,0.211354,-0.880416,0.424497
0.263460,-0.599933,-0.053746,-0.491998,-0.711837,-0.501225
-0.156186,-0.828398,0.611068,-0.145290,0.866675,0.477247
0.660743,-0.601053,0.447288,0.450879,0.641260,-0.620881
0.129691,-0.283760,0.567339,-0.506686,0.634876,0.583267
-0.033471,0.524114,0.547056,-0.698401,-0.715238,0.025906
-0.722288,-0.402422,0.487629,-0.128174,0.989949,-0.059777
0.310187,0.256729,0.811527,-0.354783,0.932970,-0.060788
0.078817,-0.164872,-0.960805,0.141763,0.525271,0.839044
0.304406,-0.932929,-0.276331,0.545885,-0.019925,-0.837623
0.066636,-0.547555,0.835995,-0.734582,0.616520,0.283358
-0.845754,-0.062135,-0.418085,-0.516929,-0.846032,-0.130442
0.555868,-0.363841,0.456183,0.756400,0.627922,-0.183228
0.317216,-0.141207,0.836095,0.481066,0.102510,-0.870671
-0.331154,0.442351,-0.980216,-0.088730,0.107992,0.990184
-0.004707,0.014917,0.743677,0.041042,-0.157061,0.986736
0.394838,0.385711,0.647896,0.240490,-0.497699,0.833343
-0.083838,-0.387506,0.556076,0.941190,-0.058161,-0.332835
-0.734094,-0.164760,-0.960955,-0.039095,0.336628,0.940826
-0.196380,0.507179,-0.153689,0.666861,0.083704,-0.740466
0.608873,0.742149,0.523235,0.117369,-0.414177,0.902597
0.264464,-0.597802,0.516807,0.940996,0.336076,0.039748
0.186966,-0.051256,0.920888,0.977368,-0.087662,-0.192527
0.003711,-0.578287,0.516782,0.011381,0.738326,0.674348
-0.177413,0.505496,0.642563,0.438966,0.501726,0.745372
-0.087986,-0.048901,0.908479,-0.658410,0.580679,0.478862
-0.189978,-0.452782,0.674208,0.042829,-0.856080,0.515065
-0.202536,-0.218484,0.685944,-0.437906,0.016037,-0.898878
-0.535637,-0.403656,0.455735,0.857408,0.179332,0.482382
-0.311313,-0.486878,0.312710,0.660046,0.588084,-0.467436
0.310187,0.713100,0.458899,0.182938,-0.502863,0.844786
-0.026686,0.078062,-0.966187,0.040280,0.200926,0.978778
0.535392,-0.203343,0.607256,0.423908,-0.591543,-0.685841
0.133455,-0.116308,0.850497,0.178591,0.126246,0.975791
0.931923,-0.309107,0.229661,-0.332517,-0.898246,-0.287378
-0.128809,-0.065948,-0.080806,-0.470237,0.874522,-0.118699
0.659992,-0.889861,0.415593,-0.352783,-0.728632,0.587060
0.772158,-0.050584,0.503501,0.813426,-0.219856,-0.538518
0.414310,0.230372,0.302644,0.893919,0.138211,0.426388
-0.740251,-0.014468,0.491391,0.680824,-0.004373,-0.732434
-0.109084,0.687192,0.544191,0.911012,0.389546,-0.135316
0.241979,-0.074360,0.719258,0.962992,-0.047349,0.265337
0.554358,-0.567632,0.621633,0.841922,0.438911,-0.313886
0.452366,-0.145020,0.874442,-0.583976,-0.786118,-0.202461
-0.368588,-0.465679,0.585553,0.350866,0.506720,0.787482
-0.379260,0.737327,-0.980066,-0.055053,0.121731,0.991035
0.109091,-0.270749,0.859393,0.787351,-0.611231,-0.080465
0.632984,-0.580418,0.653577,0.439726,-0.512066,-0.737854
-0.311183,0.737327,0.041063,-0.370770,0.359967,-0.856127
0.779571,0.248654,-0.290036,-0.139212,0.731508,-0.667470
0.808956,-0.887955,0.355094,-0.533259,-0.772834,-0.344038
0.148903,-0.732839,-0.941544,-0.010737,-0.045966,0.998885
-0.639009,0.442799,-0.982982,-0.071368,0.091384,0.993255
0.435661,-0.059444,0.515137,0.567046,-0.819937,-0.078493
0.518181,-0.686854,0.485610,-0.499144,0.329724,0.801335
0.858572,0.131449,0.471109,0.659570,-0.638635,-0.396374
0.301393,0.061574,0.428450,0.321280,0.054639,0.945407
-0.480500,-0.161508,-0.054344,-0.123890,0.952398,-0.278548
0.512531,-0.374720,0.425585,0.751807,-0.430662,-0.499315
-0.426239,-0.783872,-0.164927,0.887263,-0.452473,-0.089624
-0.797778,-0.173060,0.114768,0.879807,0.367489,0.301481
-0.579603,0.443809,0.622480,0.485773,0.448730,0.750111
0.041643,-0.204912,0.624673,-0.271494,0.918810,0.286495
-0.489540,0.122476,0.478409,0.324828,0.903541,-0.279465
-0.278900,-0.862271,-0.162883,-0.299149,0.889779,0.344679
0.061361,-0.139412,0.791468,0.242033,-0.858931,0.451285
-0.116750,0.328174,-0.604615,0.569644,0.279378,-0.772951
0.085724,-0.246188,0.979045,0.472009,0.861659,0.186416
-0.624313,-0.613167,0.404430,0.384864,0.546416,0.743848
-0.646300,0.149394,0.465403,0.429786,0.857342,0.283282
0.288452,0.206483,0.797922,-0.173431,-0.770464,0.613439
0.156945,0.278151,-0.358259,0.967606,0.178330,-0.178710
-0.269731,-0.097466,-0.531084,0.487446,0.179249,0.854556
-0.777555,0.002244,-0.307353,0.764690,0.618905,-0.179458
-0.949004,0.163863,0.528019,-0.394768,0.899502,-0.187230
0.394715,0.869785,0.479904,-0.599148,0.768988,0.222888
0.033602,-0.766824,0.374231,-0.448550,0.403573,0.797453
-0.213844,-0.343988,0.617572,-0.325802,-0.608612,-0.723494
0.527104,-0.414984,0.536092,0.841509,0.384889,-0.379110
-0.172767,-0.183826,0.599208,-0.240312,0.272230,0.931741
0.502105,0.250449,0.818728,-0.452983,0.890189,-0.048687
-0.598823,0.479699,0.625869,-0.034900,-0.171631,0.984543
0.470833,-0.002916,0.705429,0.291523,0.185614,-0.938383
-0.362056,-0.213998,0.723469,-0.207305,0.825103,0.525576
0.263583,0.742036,-0.433608,-0.326819,-0.936292,0.128630
-0.062863,0.368550,-0.984402,-0.045066,0.075101,0.996157
-0.632608,-0.468932,-0.953829,-0.002700,0.076688,0.997051
0.467944,0.414311,0.642514,0.188580,-0.173606,0.966591
-0.082957,0.186968,0.182394,0.381065,-0.353738,0.854201
-0.144885,0.605989,0.023447,-0.591738,0.080464,-0.802105
0.246372,-0.405900,0.335360,0.293848,0.617510,0.729612
0.289204,0.098811,0.768271,0.392009,-0.573899,0.719005
0.279537,0.360028,0.848877,-0.607796,-0.228789,-0.760421
-0.364693,-0.810790,0.554930,-0.770202,-0.296925,-0.564468
0.374238,-0.500225,0.750804,-0.144469,0.576170,0.804461
0.642153,-0.158703,0.791443,0.977992,0.206409,0.030463
0.210831,-0.604755,0.461914,0.651166,0.570237,-0.500811
-0.643279,0.386609,0.387138,-0.225060,-0.331906,0.916071
-0.312187,0.197847,0.612912,0.945556,0.130991,-0.297934
-0.048167,0.772207,0.594772,0.807231,0.053594,0.587798
0.253157,-0.066286,0.700197,0.501316,0.674671,0.541758
0.105948,0.099259,-0.969701,-0.003270,0.194092,0.980978
0.714124,0.214895,0.433633,0.044604,-0.237752,0.970301
0.103817,-0.297555,0.815588,-0.191563,0.283058,-0.939778
-0.401369,0.165096,0.318317,0.735495,-0.268964,0.621857
-0.255165,-0.287797,-0.954576,0.157672,-0.129983,-0.978899
0.232811,-0.596905,0.864974,0.653570,-0.235687,0.719234
0.472712,-0.017833,-0.122667,-0.696092,0.684331,0.217131
-0.551468,-0.461193,0.691426,-0.678974,-0.023540,-0.733785
0.490927,0.422611,0.650163,-0.274332,0.155000,-0.949061
0.405011,0.921490,0.479256,0.026440,-0.769115,0.638563
0.554235,-0.765366,0.341016,0.784270,0.279856,-0.553715
0.512408,-0.036451,0.477861,-0.617811,0.216571,0.755914
-0.271364,-0.804061,0.141106,0.621048,0.715578,0.319763
0.136721,0.247870,-0.967359,0.059306,0.126741,0.990161
-0.474345,0.409937,0.644183,-0.581389,-0.808848,-0.088041
-0.834577,0.161619,0.516632,-0.652258,0.437079,-0.619291
-0.363689,-0.813930,-0.252610,-0.672562,0.730760,0.116831
0.387179,-0.249664,0.639947,-0.506749,-0.700791,0.502094
-0.255664,-0.162405,0.360825,0.172291,0.984377,0.036296
0.310432,-0.453791,0.695537,0.920258,0.082287,-0.382562
-0.207059,0.610588,0.299878,0.039588,-0.741516,0.669766
0.191864,-0.571893,0.845838,0.624804,0.728441,0.281058
-0.361926,-0.677098,-0.095607,-0.031984,0.580230,0.813825
-0.146641,-0.298116,-0.945132,-0.139938,0.076985,0.987163
-0.263453,-0.585352,0.584980,-0.419100,-0.160575,-0.893628
-0.290836,0.265927,-0.972741,-0.052498,0.192594,0.979873
-0.120261,-0.712315,-0.940273,-0.199745,0.087643,0.975920
0.805690,0.445154,-0.152294,0.956591,0.290578,0.022322
-0.960557,0.139860,0.519672,-0.547378,0.221295,-0.807097
0.516931,0.205811,0.783121,-0.424375,0.675672,-0.602804
-0.531620,0.104419,0.492164,-0.046411,-0.940743,0.335929
-0.104813,0.217474,0.759300,0.748134,0.173158,-0.640556
-0.091375,-0.109579,0.907831,0.969556,0.121671,0.212504
0.102054,-0.484747,0.565644,0.878617,-0.473045,-0.065271
-0.072285,0.666105,0.597488,0.740475,0.087557,0.666356
-0.050429,0.158367,0.731393,-0.338822,0.818501,0.463956
-0.560130,-0.231942,0.756236,0.828262,-0.437734,0.349814
0.022171,-0.374048,-0.259437,0.537442,0.842291,-0.041251
-0.927277,0.075931,0.294272,0.827156,0.169409,0.535829
0.103189,-0.174631,0.618518,-0.081999,-0.979681,-0.183033
-0.287065,0.460408,0.745048,0.167217,0.985792,-0.015909
-0.544430,-0.857111,-0.072434,0.868677,-0.463416,0.175059
0.719276,-0.824921,-0.261431,0.890029,-0.243723,-0.385290
-0.386550,0.188200,0.541674,0.064505,-0.147399,0.986971
0.742014,-0.760655,0.315102,0.471905,0.395441,0.787992
0.180181,-0.037909,-0.962151,-0.033305,0.171325,0.984651
-0.211705,-0.218596,0.573692,-0.613441,-0.702797,-0.360230
-0.173021,-0.330754,0.616824,-0.587782,-0.089822,-0.804018
0.123159,-0.105764,0.975731,0.905544,0.370622,-0.206472
0.641907,0.470952,-0.190068,0.725083,0.593050,-0.350066
0.412930,-0.140870,0.879999,-0.671062,0.740745,-0.031182
-0.236321,0.528152,0.535619,0.646136,-0.050773,-0.761532
0.480378,0.294976,0.808586,0.799039,0.593209,-0.098182
-0.553975,0.475326,0.602895,0.914684,0.180175,0.361788
0.516172,-0.088604,0.677522,-0.786955,-0.335264,-0.517977
-0.169379,-0.096793,0.851718,-0.782657,0.588124,0.203861
-0.787475,-0.054621,-0.487977,0.197082,0.979701,-0.036677
-0.705077,0.019515,0.488700,0.663623,0.141991,-0.734468
0.200780,0.057424,0.803329,0.961991,-0.237249,0.135226
-0.497328,-0.428555,0.560810,0.993004,0.112503,-0.035859
0.501476,0.082549,0.669001,-0.555081,0.677707,-0.482284
0.033855,-0.420255,0.783619,0.991890,0.011990,0.126536
0.722166,0.186070,0.234769,0.891692,-0.400184,0.211512
0.177421,-0.468147,-0.373932,0.883845,0.420515,-0.204901
0.073167,-0.064379,1.000000,-0.086981,0.298487,0.950442
0.449728,0.383693,0.641891,0.183147,-0.080224,0.979807
0.231430,-0.165769,0.778287,0.417453,-0.844329,0.335918
0.087733,-0.218035,0.585428,0.511110,0.857672,0.056264
-0.918354,0.121018,0.521740,-0.566398,-0.068862,-0.821250
-0.099792,0.363728,0.552289,-0.264916,-0.134872,-0.954793
0.065378,0.348250,-0.061271,0.975418,0.069851,-0.208998
0.069020,-0.038246,0.812922,0.879268,0.315283,-0.357050
-0.032589,0.132683,-0.457977,0.845384,0.526001,-0.092996
0.312946,-0.008636,0.668826,-0.229332,-0.208463,0.950763
0.180687,-0.586250,-0.608851,-0.622114,-0.737790,0.261992
0.179054,-0.307201,0.779259,-0.417120,-0.013921,-0.908745
0.067134,-0.361597,0.883612,0.893241,-0.388289,-0.226612
0.283178,-0.704689,0.470187,0.839397,0.517740,0.165400
-0.061606,-0.374048,0.700620,0.923520,0.276873,-0.265430
-0.626827,0.150629,0.679989,0.677570,0.668716,-0.306134
0.456383,-0.471063,0.485286,0.924283,-0.312323,-0.219446
-0.303770,0.093427,-0.122667,0.054202,-0.812993,-0.579746
0.034728,-0.132234,0.781626,-0.001378,-0.187219,0.982317
0.113485,-0.854756,0.612862,-0.227427,0.659761,0.716235
-0.283929,-0.807650,0.529465,0.850165,0.321871,0.416677
-0.257549,-0.121131,-0.959236,0.053407,-0.153174,-0.986755
-0.879923,-0.040488,0.421698,0.333605,-0.904995,0.263990
-0.400235,0.449865,0.731393,0.643115,0.347043,-0.682616
0.092003,-0.667115,-0.943787,-0.066740,-0.008212,0.997737
0.076932,-0.336249,0.872673,-0.119924,-0.973546,0.194491
0.396225,-0.980148,0.073805,0.375918,0.875820,0.302696
0.328271,0.204015,0.651932,-0.397421,0.292425,-0.869795
-0.428876,-0.345558,0.664366,-0.677956,0.259301,-0.687851
0.718402,-0.145693,0.614208,-0.338944,0.349782,0.873367
0.314326,0.107446,0.718511,0.814624,-0.251347,-0.522697
0.449858,0.219493,0.444522,-0.243235,-0.349471,0.904824
0.368841,0.771983,0.464406,0.952784,0.236197,0.190822
-0.390568,-0.825594,0.320534,0.893973,0.144308,0.424249
0.187219,-0.573014,0.493409,0.595339,0.717723,0.361172
0.385040,0.131562,0.780455,-0.310654,-0.457776,0.833028
0.432771,-0.495851,-0.960332,0.094555,0.114146,0.988954
0.257427,0.241363,0.804375,-0.356741,0.405452,-0.841632
0.184827,0.344661,0.834027,0.918074,-0.322095,-0.231074
0.439180,-0.015141,0.481300,0.040218,0.876827,0.479122
-0.134582,-0.242597,0.627364,0.652704,0.040829,-0.756512
0.294233,-0.088717,0.057907,-0.655879,-0.270844,-0.704603
0.191489,-0.433715,0.722747,-0.153801,0.130753,0.979413
0.241726,-0.907133,-0.129295,0.388279,-0.870271,0.303096
0.283301,0.989458,-0.279047,0.937551,-0.149939,-0.313872
-0.062741,0.149732,-0.967757,0.023430,0.178877,0.983592
0.624068,0.344550,0.251065,0.786466,-0.536828,0.305429
0.027445,-0.101840,-0.111056,-0.668098,0.380831,-0.639228
-0.348740,0.311013,-0.978496,0.110764,-0.171408,-0.978954
0.486028,-0.403432,0.623303,-0.332822,-0.023123,0.942706
-0.541793,-0.463661,0.231356,0.695658,0.190893,0.692546
-0.126172,-0.597129,0.538335,0.742208,0.220546,-0.632840
-0.133455,0.040490,0.745646,0.873028,-0.313334,-0.373688
0.243359,-0.158143,0.752473,-0.421720,0.880842,0.215106
-0.557493,0.228242,0.692971,0.287585,0.701057,0.652544
0.603974,0.170367,0.228017,0.809585,-0.559373,0.177970
-0.383154,-0.710969,0.620238,0.906717,0.104187,0.408669
-0.786095,-0.099035,-0.965066,0.046630,0.266758,0.962635
0.085602,0.710408,0.155608,0.610570,0.113408,-0.783800
-0.284304,-0.332885,0.503675,-0.590296,0.461584,0.662186
-0.174025,0.355764,0.627289,0.796083,-0.209510,0.567765
-0.083838,-0.733962,-0.936411,-0.100544,0.068032,0.992604
-0.110594,-0.420255,-0.123290,-0.494628,0.838806,0.227481
0.219870,0.081764,0.886328,-0.067128,-0.791431,0.607561
0.054454,-0.104306,0.779508,-0.077297,-0.681531,0.727696
-0.420711,-0.141094,0.516159,0.461761,-0.279659,-0.841765
0.585253,0.458053,0.453268,-0.348996,0.556511,-0.753988
0.843623,-0.343316,0.458575,0.840500,-0.105529,0.531435
0.891982,-0.500225,0.627688,-0.325999,0.705900,0.628833
0.331162,-0.506617,-0.095059,0.805815,0.499138,-0.318629
-0.368833,0.616869,-0.985648,-0.006299,0.144565,0.989475
-0.354521,0.701773,-0.987591,-0.050008,0.099133,0.993817
-0.254031,-0.246074,0.715745,0.865554,0.244765,0.436928
0.393964,-0.758076,0.526798,0.806861,0.562814,-0.179488
-0.189472,-0.778600,-0.164254,-0.125916,0.824422,0.551791
-0.468066,0.314715,0.617796,-0.165660,-0.367226,0.915260
0.497459,-0.316959,-0.954601,0.086992,0.237820,0.967406
0.097914,-0.418013,-0.675977,-0.118043,0.960624,0.251531
0.645418,-0.628758,0.664740,0.022457,0.510459,0.859609
0.764744,-0.956258,-0.928936,0.048501,0.267879,0.962231
-0.203287,0.410050,-0.981063,0.078761,0.201425,0.976332
0.186590,-0.959175,-0.334064,0.983936,0.021571,-0.177211
-0.994472,-0.144123,0.474796,0.904786,0.425008,-0.027016
0.289587,0.068529,-0.019635,-0.580490,0.800336,-0.149979
-0.633236,-0.712876,0.403209,0.120940,-0.814104,0.567987
0.173527,-0.522768,0.624947,0.677003,0.093661,0.729996
0.128058,-0.695603,0.620761,-0.486502,0.628264,0.607125
-0.249385,0.508412,0.649814,0.941971,0.281766,-0.182481
0.797909,-0.417115,0.588294,0.196907,0.274213,-0.941294
0.635621,-0.809443,0.335684,0.323392,0.372773,0.869746
-0.056585,-0.895020,0.592081,0.823298,0.419897,0.381926
0.384411,-0.059332,-0.962001,-0.025606,0.102025,0.994452
0.105450,-0.189323,0.885257,0.369190,-0.510443,0.776625
0.889092,0.172050,0.517330,0.981565,-0.178437,0.068488
-0.551721,0.028825,-0.970224,-0.048055,0.173940,0.983583
-0.027445,0.429565,0.634216,0.676133,0.681960,-0.278881
-0.100674,-0.020076,0.620263,0.810580,-0.242908,0.532876
-0.355394,0.495514,-0.983306,0.040310,-0.171644,-0.984334
0.360423,0.424966,0.546907,0.990731,0.020458,-0.134291
0.362685,0.219717,-0.672863,0.396471,-0.477901,-0.783850
-0.113982,0.422275,0.531657,-0.235696,0.810666,0.535974
-0.177038,0.368999,0.243316,-0.279974,-0.711301,0.644722
-0.907429,-0.050135,0.427977,0.407914,-0.837314,0.364021
0.111729,-0.732504,0.624798,-0.379497,0.127216,0.916405
0.048045,-0.568304,0.807764,-0.276247,0.200878,0.939859
0.629473,-0.563258,0.666609,0.161258,-0.414871,-0.895476
-0.556114,-0.278040,0.661226,0.458893,-0.024555,-0.888152
0.348495,-0.105653,-0.961304,-0.034793,0.068366,0.997053
-0.056708,0.633580,-0.401540,-0.776274,0.473565,0.416094
0.009736,0.666330,0.137343,0.999445,0.015544,0.029449
0.516931,-0.365074,0.634465,-0.735944,0.239764,0.633166
-0.598439,0.085352,0.432911,-0.522946,-0.840149,-0.143796
0.345229,-0.161284,0.834475,0.749379,0.182645,-0.636452
0.470833,-0.852961,-0.034186,0.634827,0.674156,0.377503
0.154185,-0.168350,0.887698,0.222906,0.543836,-0.809046
0.340330,0.412405,0.451374,0.057958,-0.043653,0.997364
0.521201,-0.906236,0.340617,0.888264,-0.217083,-0.404799
0.362808,-0.310454,0.763935,0.384467,-0.543263,0.746358
0.238713,-0.690556,-0.942840,-0.027689,0.118570,0.992560
0.126548,-0.048901,0.861361,0.401031,0.572579,-0.715071
0.617666,0.509758,-0.214686,0.808053,0.548796,-0.214180
-0.448095,0.504935,0.269454,-0.070170,-0.675847,0.733694
-0.096902,-0.108121,0.169611,0.896025,-0.308057,0.319749
0.141750,-0.263122,0.922906,-0.110940,-0.590213,0.799588
0.178295,-0.251683,-0.947375,0.274956,0.241719,0.930576
-0.532754,-0.546994,0.390078,-0.406379,0.011084,-0.913637
-0.192363,-0.616532,-0.404306,0.776706,-0.508687,0.371437
0.158072,-0.463324,0.360800,0.092811,0.021392,0.995454
-0.219363,0.586250,-0.988563,-0.050961,0.063413,0.996685
-0.273879,-0.100157,0.617347,0.513551,0.197321,0.835063
0.385922,-0.052714,-0.962151,-0.018755,0.129237,0.991436
0.234190,-0.749664,0.472105,0.883226,0.462620,-0.076772
0.020162,-0.243383,0.840829,0.492913,-0.416303,-0.764021
0.067264,0.040040,0.897167,0.834401,0.328947,-0.442231
-0.233562,-0.826492,0.600678,0.353683,0.879011,-0.319763
0.281292,0.072118,0.566367,-0.790020,0.529395,-0.309207
-0.006217,-0.260207,0.770239,0.786678,0.521504,0.330411
-0.061353,-0.144235,0.795007,0.655410,-0.611582,0.443177
0.402251,0.671152,-0.202277,0.552126,0.824896,-0.121254
-0.357403,-0.405563,-0.251588,0.497707,0.648238,0.576260
0.200029,0.301817,0.534548,0.531720,0.704026,-0.470766
0.304659,0.080754,0.755687,0.830006,-0.533400,0.163019
-0.907054,0.113055,0.547754,-0.826389,0.040738,0.561625
0.193751,-0.057200,0.766925,0.918057,-0.060079,0.391870
-0.337056,-0.377747,0.400792,0.887114,-0.163661,0.431559
-0.383660,-0.310902,0.405452,-0.659835,-0.634950,0.401816
0.062864,-0.311127,-0.937857,-0.027860,0.389689,0.920525
0.564408,-0.194370,0.710986,0.827106,0.356475,0.434535
0.021420,-0.036116,0.938081,-0.510561,0.828211,0.231073
-0.151662,0.715904,-0.980963,-0.058653,0.249165,0.966683
0.454252,-0.241589,0.849600,0.494005,0.656228,-0.570371
0.065631,-0.193360,0.672564,0.661610,0.675141,0.326276
0.624321,-0.209062,0.795779,0.948158,-0.288129,0.134082
-0.367331,0.177545,0.698926,0.122804,-0.649928,0.750008
-0.156814,-0.808209,0.601126,-0.450217,0.851980,0.267273
0.796774,-0.461306,0.569083,0.796413,-0.494764,-0.347757
0.551974,0.060453,0.625570,0.200261,0.870590,0.449409
0.136092,-0.162405,0.944933,0.700723,-0.667750,0.251190
0.473969,0.182818,0.788204,0.102632,-0.542277,0.833908
-0.081079,-0.243720,-0.546109,0.769498,0.256074,0.585064
-0.233308,-0.237999,-0.954800,0.166794,-0.154262,-0.973850
-0.952016,-0.001682,-0.972118,0.013697,0.205707,0.978518
0.082083,-0.612607,0.604789,-0.626154,0.635461,0.451796
0.249262,-0.000448,0.955872,-0.654274,0.753106,-0.068969
-0.544683,-0.426201,0.688984,-0.564569,-0.125574,-0.815777
-0.859699,-0.003365,0.400867,-0.213400,0.803606,-0.555587
-0.230165,-0.206707,0.699250,-0.229380,0.970546,-0.073654
0.220498,-0.583782,0.757083,-0.297909,-0.272062,0.915004
-0.351124,-0.348587,-0.954451,-0.032724,0.024942,0.999153
0.478370,-0.539031,0.641517,-0.314008,0.194182,0.929351
0.764875,0.031067,0.494182,0.254701,0.868689,0.424862
-0.115363,-0.220054,0.514415,0.446156,-0.733149,-0.513261
-0.037112,-0.680911,0.530586,0.030780,-0.951386,0.306460
-0.929915,-0.078623,-0.955199,0.095479,0.258066,0.961398
0.336305,-0.352063,0.564548,0.745488,-0.223444,0.627949
0.127805,-0.791162,0.383849,0.494276,-0.189987,-0.848290
0.245621,-0.138626,0.813969,0.676433,0.276310,-0.682708
0.290085,-0.107559,0.739865,0.196058,0.706443,0.680073
-0.154928,0.544526,-0.137468,0.864484,0.076007,-0.496881
0.393082,-0.594324,0.478060,0.874357,0.474007,0.104000
-0.932422,-0.001907,0.454314,-0.663853,0.529352,-0.528285
0.138607,0.115523,-0.971320,-0.077565,0.192741,0.978179
-0.055703,-0.053052,0.128149,0.970636,0.189285,-0.148447
0.165615,-0.902872,-0.161413,-0.211065,-0.813424,-0.542026
-0.173021,0.344774,0.730546,-0.595264,0.259205,0.760575
0.622059,-0.290264,0.418508,0.190121,0.968986,0.157861
0.188346,-0.432144,0.577604,0.279789,0.550011,-0.786897
0.031463,0.364626,0.556101,0.944842,-0.119917,0.304786
-0.027192,-0.423396,-0.010465,-0.436619,-0.893997,0.100663
0.467438,-0.228690,0.510727,0.966895,0.003679,0.255146
0.266596,0.261890,0.842848,-0.180645,0.873221,-0.452605
-0.283929,-0.228129,0.701144,0.766755,0.004256,0.641926
-0.102176,0.306752,-0.175990,-0.604416,-0.584709,0.541107
0.195131,0.074473,0.769367,0.587276,-0.146285,0.796058
0.756710,-0.377188,0.478235,-0.271648,0.370410,-0.888259
0.530999,0.184276,0.790447,-0.118323,-0.797473,0.591638
-0.111598,0.642777,0.610969,-0.595004,0.262039,-0.759807
-0.203287,0.330306,0.732813,0.822021,-0.062432,-0.566025
0.323625,0.741477,0.460893,0.664226,0.496352,0.558962
-0.159827,0.108681,0.737473,0.916680,-0.233055,-0.324627
0.050184,-0.747197,0.608028,-0.584754,0.346607,0.733435
0.109966,-0.494056,0.800787,0.054535,0.631054,0.773819
0.440682,-0.609017,0.435328,-0.604953,0.712260,-0.355974
0.407150,-0.415881,0.599133,0.250646,-0.897950,0.361748
-0.013002,0.697398,0.541450,0.654490,-0.437214,0.616837
0.275389,-0.835800,0.560960,0.718577,0.695421,0.005990
0.062365,-0.545536,0.809932,-0.487304,0.165470,0.857412
-0.644161,0.537012,0.392968,0.113437,-0.272967,0.955312
0.412424,-0.788918,0.415070,-0.354574,0.591725,0.723974
-0.073665,-0.756729,0.613286,-0.121887,-0.607954,-0.784561
0.334174,-0.415769,-0.952408,0.246271,0.029337,0.968757
0.293474,0.725100,0.466673,0.100382,-0.592565,0.799243
-0.037872,0.560790,0.524930,0.891897,0.353667,0.281850
0.549712,-0.282414,0.627489,-0.053590,0.411636,0.909771
0.083716,-0.119000,0.822764,0.649955,0.034343,-0.759196
-0.457387,-0.576829,-0.949717,-0.047703,0.135756,0.989593
0.118261,0.072229,0.908604,0.932577,0.359966,-0.026907
-0.182941,-0.850044,0.151372,0.854431,0.491499,0.168452
0.535139,-0.412292,0.544938,0.847441,0.341637,-0.406359
-0.482387,0.348811,0.502629,-0.175462,0.677461,0.714325
0.046036,0.248094,-0.975830,0.111177,0.008164,-0.993767
0.422973,-0.162069,0.877532,0.408349,0.547613,-0.730323
-0.300128,0.267385,-0.972118,-0.037411,0.175251,0.983813
-0.437416,0.269515,-0.975058,-0.014454,0.235697,0.971719
0.134712,-0.510430,0.828844,-0.306462,0.933191,0.187708
0.327137,-0.301257,0.582189,-0.338709,0.478417,0.810181
-0.075927,0.339838,0.240102,-0.384863,-0.740407,0.551069
-0.361680,-0.232503,0.361299,-0.260177,0.963430,-0.064111
0.325258,-0.026357,-0.089253,-0.257195,0.965933,-0.028708
0.774419,0.427321,0.447338,0.949206,-0.139906,-0.281842
-0.080320,-0.318865,0.685820,0.791403,0.410935,0.452563
0.259435,-0.119336,0.774475,-0.002486,0.326946,0.945040
-0.220375,-0.095222,0.682232,0.835548,0.176318,-0.520357
0.195759,0.260655,0.826203,0.854256,0.451858,-0.257044
-0.754816,-0.351166,0.482845,0.919996,-0.032689,-0.390562
-0.103556,-0.616982,-0.941619,-0.089405,-0.028293,0.995593
-0.583996,-0.394683,0.691052,0.331038,0.355296,0.874173
0.295107,0.113279,0.763835,0.188461,-0.889508,0.416243
-0.554856,-0.663864,0.317071,0.808445,-0.587739,0.031307
0.120645,-0.657357,0.604615,-0.182266,0.494985,0.849570
0.401124,0.652760,0.468891,0.777174,0.574260,0.257344
-0.368335,0.392215,0.738195,0.222163,0.893829,-0.389504
0.549835,-0.326491,0.732963,-0.923604,0.112254,-0.366543
-0.290583,-0.474652,0.317594,0.533673,0.504681,-0.678594
0.220498,-0.067744,0.788777,0.206340,0.774353,0.598165
0.144886,0.521646,0.422171,0.762103,-0.644032,0.066496
0.035863,-0.557088,0.808188,-0.668997,0.521213,0.529887
-0.953151,-0.079183,0.320983,0.854581,-0.437055,-0.280488
-0.242478,0.491588,-0.980440,0.085940,0.156987,0.983854
0.246127,0.200314,-0.972766,-0.008050,0.149671,0.988703
