-0.220381,-0.197533,0.929537,0.776407,0.036709,-0.629162
0.477766,-0.051044,0.323229,-0.405235,0.174146,0.897473
-0.148543,-0.025868,0.624180,0.322032,0.681106,-0.657564
0.393050,0.722194,0.393191,0.102489,0.928616,0.356606
-0.483269,-0.519833,0.657747,0.774974,0.533710,-0.338480
0.094196,0.346179,0.517772,0.676265,-0.304272,0.670883
-0.006436,-0.097776,0.600375,0.540745,0.802076,0.253513
0.164070,-0.207016,0.855044,0.048312,-0.958023,0.282591
-0.014102,-0.047508,-0.070613,-0.832491,0.332325,0.443305
0.188837,-0.421282,0.083229,-0.138354,-0.321588,0.936717
-0.087514,-0.095966,0.922829,0.972657,0.172462,0.155550
-0.545771,0.260047,0.323805,0.577962,0.720998,-0.382260
0.731905,-0.300053,0.437747,0.596555,0.652828,0.466839
0.505478,0.594156,0.403855,0.476334,0.007867,0.879229
-0.077491,-0.496894,0.327209,-0.532266,-0.050625,0.845062
0.190996,-0.114243,-0.368736,0.900477,0.298132,0.316637
-0.004079,-0.410157,0.435620,0.851465,-0.362184,-0.379248
0.235515,0.914383,0.375995,0.826579,-0.523907,0.205641
-0.013022,0.892396,0.311990,-0.210095,-0.104529,0.972077
0.738290,-0.057943,0.534118,-0.182150,0.958110,0.221014
0.163479,-0.561476,-0.922753,-0.066666,0.033418,0.997216
-0.334381,0.908521,-0.998473,0.127664,-0.171340,-0.976906
0.043979,-0.067942,-0.366233,-0.643759,0.573250,-0.506910
0.137831,-0.160543,0.762628,-0.099262,-0.654271,0.749718
-0.132525,-0.043108,0.646433,0.443098,0.315616,0.839078
0.285441,-0.072600,0.668160,0.076951,0.491564,0.867435
-0.392756,0.615022,0.256696,0.817246,0.529526,0.227400
0.362782,-0.112522,0.284305,-0.370391,0.341907,0.863661
-0.067072,-0.304879,-0.932065,0.573623,0.029333,-0.818594
-0.247311,-0.219178,0.788486,0.835834,-0.548779,-0.014966
0.080634,-0.120968,0.648661,0.370891,0.906311,-0.202584
-0.070512,0.242628,0.668936,0.960716,-0.135428,0.242247
-0.724927,0.444389,0.182979,-0.310221,0.755907,0.576514
0.310403,0.703054,0.332391,0.522991,0.134934,0.841589
-0.016756,-0.249438,0.904956,-0.089686,-0.952347,0.291533
0.225786,0.797723,0.374994,0.928253,-0.117998,0.352737
0.151099,-0.133814,0.763254,-0.362469,-0.541952,0.758224
0.829296,-0.286428,0.508210,0.977027,-0.200398,-0.072516
-0.057736,-0.238492,0.042678,0.929907,-0.343111,-0.132472
-0.214389,0.021558,0.660776,-0.320223,-0.101864,0.941850
0.219695,-0.303589,-0.150588,0.374097,0.921109,-0.107746
0.429609,-0.212621,0.409963,0.336169,-0.462600,-0.820361
-0.057640,0.150112,0.623004,0.732834,0.608645,0.304148
0.106481,0.070442,0.438423,-0.533965,-0.506589,0.676941
0.841973,0.004655,0.511715,-0.126070,0.974675,-0.184700
0.204462,-0.570270,-0.925382,-0.237628,0.084237,0.967697
-0.003785,-0.455509,0.547134,0.982994,0.016502,0.182893
0.196991,0.114847,0.499224,-0.156242,0.811846,0.562578
-0.413591,0.136056,0.194869,0.928652,0.229646,0.291322
-0.082110,-0.266425,-0.210763,0.969764,0.205526,-0.131595
0.250652,0.062943,0.599599,-0.598790,0.751679,0.276460
-0.100291,-0.075873,0.687259,0.829524,-0.458807,0.318411
-0.085844,-0.153649,0.620100,-0.088191,0.673598,0.733818
-0.040734,-0.212021,0.887760,-0.401948,-0.589754,-0.700448
-0.691120,0.313846,0.314493,0.179204,-0.970451,0.161590
0.270305,0.751423,0.248436,0.983772,-0.057298,-0.170025
0.082503,0.176756,-0.021777,0.945281,-0.322441,0.049751
-0.476683,-0.379981,0.636345,-0.280771,0.178703,0.942992
-0.435997,-0.074063,0.651314,-0.519640,0.826831,0.215233
-0.145694,0.858253,-0.981252,-0.223495,0.144707,0.963903
0.067072,0.352905,-0.958773,0.107440,-0.119047,-0.987059
0.088006,-0.686757,0.467484,0.677000,0.313089,0.666068
0.200923,-0.458098,-0.925582,-0.140053,0.072929,0.987455
0.073754,-0.318935,0.445232,0.430856,-0.229085,0.872859
0.184119,-0.370324,0.709737,-0.513126,-0.313767,0.798906
-0.147266,0.063116,-0.271364,0.931492,0.101802,-0.349227
0.212323,-0.018538,0.593041,0.326083,-0.631194,-0.703750
-0.350597,0.053802,0.281126,0.456520,0.882578,0.112452
-0.137243,-0.354458,0.835319,0.940826,-0.169043,-0.293719
0.390594,-0.043282,-0.608160,0.409923,0.519152,0.749963
-0.055871,0.056301,0.477647,0.861629,0.506399,0.033996
-0.366124,0.084067,-0.365607,0.726098,0.318275,-0.609494
-0.209672,-0.219778,0.719750,0.961584,0.149130,0.230471
-0.014693,0.355236,0.222979,0.876345,0.005088,-0.481658
-0.663897,0.097002,0.409387,-0.648884,0.255839,0.716587
-0.231388,-0.101912,0.762428,-0.211347,-0.039032,0.976631
-0.553437,0.462839,0.192240,0.996352,0.010944,0.084629
0.101370,-0.431280,0.685933,-0.223451,0.030464,0.974239
-0.508033,-0.025437,0.636045,0.568029,0.569670,0.593987
-0.340277,0.516728,0.267484,0.639856,0.299741,0.707629
0.103731,-0.310225,-0.597347,0.153038,-0.834055,0.530029
0.158665,0.140629,-0.949387,-0.156355,0.124439,0.979831
0.026977,0.405241,0.708160,-0.756209,0.647941,-0.091217
-0.024029,-0.110364,0.642428,0.801997,-0.589180,0.098322
-0.060196,0.159769,-0.958824,0.118674,-0.143550,-0.982502
-0.706353,0.017501,0.633992,-0.032097,-0.706401,0.707084
0.240823,-0.522591,0.574293,0.419285,0.244232,-0.874386
-0.469410,0.755043,-0.984831,-0.072528,0.136871,0.987930
0.203085,-0.221420,0.702128,0.117238,0.990559,-0.071043
-0.604638,-0.114243,0.326108,-0.056088,-0.971910,0.228571
-0.031794,-0.123468,0.801627,0.915375,-0.399496,-0.049921
-0.257726,0.101054,-0.962078,0.107875,0.014973,0.994052
-0.006043,0.435853,0.555469,-0.685509,0.206143,-0.698271
-0.699278,-0.223057,0.712766,-0.522712,0.677898,-0.516940
-0.541545,0.267030,0.189937,0.913636,0.364797,0.179422
-0.346273,-0.128557,0.312015,0.363772,-0.082470,0.927830
0.193455,-0.076994,-0.940100,0.001663,0.007647,0.999969
0.258905,-0.425160,0.653166,0.555666,0.682721,-0.474476
-0.103338,-0.066479,0.664330,0.783614,-0.419067,-0.458619
0.178811,-0.079410,-0.942728,0.061818,0.029487,-0.997652
-0.129970,0.084840,0.710989,0.948933,0.293449,-0.115823
-0.387942,0.057338,0.143830,0.827387,0.500554,0.254708
-0.052431,-0.065359,0.763254,0.922483,0.377406,0.081184
-0.027370,0.007070,0.659224,0.002901,0.622171,0.782876
0.045451,-0.578206,-0.925782,-0.172500,-0.092865,0.980622
0.023045,0.290570,0.304330,0.894033,0.399133,-0.203466
-0.200923,-0.397653,0.312716,0.703300,0.357928,-0.614212
-0.279347,-0.381702,0.690889,0.935448,-0.338273,0.102514
-0.230900,-0.074926,0.604756,-0.476965,0.829822,0.289654
-0.344800,-0.116311,0.677998,-0.210509,-0.976398,0.048305
0.150313,0.910847,0.392666,0.878991,-0.412009,-0.240049
-0.014888,-0.077857,0.815519,0.418222,-0.776958,0.470559
0.024716,-0.116658,0.618648,0.125500,0.983486,0.130400
-0.015871,-0.245043,0.314143,0.460576,0.234174,0.856173
-0.303328,-0.016985,0.519074,-0.710512,-0.674194,0.201580
-0.502137,-0.464219,0.678423,0.831442,0.536466,0.144600
-0.471084,-0.271256,0.793842,0.879249,-0.407017,0.247506
-0.101469,-0.423176,0.837447,0.797505,0.490786,0.350877
0.174882,-0.034057,-0.380601,0.778433,0.389102,-0.492587
-0.078178,0.939475,0.315269,-0.070179,-0.636849,0.767788
0.154734,-0.218915,0.427559,0.032787,0.951627,0.305501
0.269420,-0.328160,0.102328,0.220569,0.910021,0.351015
-0.213699,-0.233403,0.758824,0.388463,-0.619213,-0.682401
-0.047911,-0.190723,0.585507,0.953516,0.039421,-0.298753
0.049384,-0.254784,0.591965,0.781399,0.603437,-0.158994
-0.436489,0.136834,0.199574,0.801000,0.253102,0.542530
0.133998,-0.002934,0.584180,-0.442796,0.778847,0.444216
-0.257532,0.350063,0.090864,-0.678614,-0.062326,-0.731846
0.154242,0.068979,0.296546,0.760592,0.120592,0.637932
-0.698099,0.248664,0.213467,0.573774,-0.156937,-0.803837
0.275808,-0.081741,0.785232,-0.057593,-0.979029,0.195410
0.290846,0.092687,0.242103,0.401215,-0.784662,-0.472581
0.400128,-0.331607,0.285432,-0.680118,-0.253218,0.687983
-0.072381,-0.243923,-0.891965,0.809883,0.551914,0.198697
-0.124074,-0.066995,0.542778,-0.193555,0.565211,0.801918
-0.511965,-0.364719,0.643129,0.936908,-0.114395,0.330329
-0.231388,-0.359720,0.680651,0.670731,-0.551395,-0.496069
-0.062454,-0.202533,0.779124,0.750179,-0.657163,0.073265
-0.115229,0.476890,0.480926,-0.811254,0.096324,0.576705
-0.289766,-0.131314,0.762328,-0.168755,0.286088,0.943226
-0.209279,0.038025,0.394343,-0.654074,0.705866,0.271919
-0.033953,-0.084756,0.757422,0.836811,0.513450,0.190045
-0.476488,0.213657,0.196345,0.758915,0.318577,0.567940
0.013217,0.460508,0.319725,0.978948,-0.158904,0.128107
0.230111,0.316951,0.600676,0.838269,0.375943,-0.394932
0.106580,-0.633731,-0.928260,-0.146330,-0.024377,0.988935
-0.564935,0.238923,0.227610,0.779206,0.504897,0.371371
0.330353,-0.060270,0.665557,0.119324,0.210546,0.970274
-0.090660,0.276429,0.636871,-0.550487,0.831350,0.076299
0.044861,-0.281861,0.608035,0.124202,0.447125,0.885807
-0.558745,-0.194344,0.217447,-0.136224,0.753577,0.643090
0.089284,0.177098,0.847184,0.845222,0.398492,0.356096
-0.109627,0.626058,0.482128,0.386689,0.918849,0.078665
0.139795,-0.167700,0.591815,0.876362,-0.479868,-0.041430
-0.234828,-0.100623,0.764430,-0.211347,-0.039032,0.976631
0.092328,0.111832,0.127034,-0.735385,0.630682,0.247888
-0.232177,-0.632179,-0.624656,0.119618,-0.611585,0.782084
0.207410,0.117263,0.501076,0.332785,-0.834943,-0.438319
-0.000246,-0.120794,0.656295,-0.490175,0.811959,0.316940
0.184611,-0.441027,-0.925156,0.144209,-0.096242,-0.984856
-0.053510,-0.125278,-0.531039,-0.482658,0.606256,0.632056
0.476584,-0.264873,0.465507,-0.456160,0.708832,0.538029
-0.306864,-0.098897,0.659775,0.901952,0.296751,0.313723
-0.044666,-0.194860,0.945382,0.471451,0.849871,0.235486
-0.032283,-0.481033,0.556370,0.857849,0.234660,0.457197
-0.325243,-0.693309,0.421176,-0.400370,-0.594754,-0.697117
-0.491427,0.199259,0.314793,0.742149,0.629128,0.231110
-0.011940,-0.219609,0.600350,-0.598870,-0.623166,-0.503010
0.414769,-0.276340,0.456896,-0.512513,0.500539,0.697704
-0.153360,-0.193223,0.791840,0.674622,0.105447,-0.730593
-0.026386,-0.224693,0.069337,0.391552,0.876273,-0.280772
0.067564,0.261599,0.259124,0.266435,-0.697300,-0.665421
-0.002603,0.436453,0.224631,0.768605,0.528295,0.360764
-0.381260,-0.221420,0.699499,0.585800,0.005633,0.810436
-0.524348,-0.418261,0.636045,0.374867,-0.208113,0.903418
-0.533880,-0.381875,0.651139,-0.654844,0.463346,-0.597068
0.524837,-0.017501,0.397897,-0.503527,0.803803,0.316799
0.120241,-0.052249,0.653417,-0.575365,0.383174,0.722588
-0.668615,0.356183,0.199499,-0.119123,0.942369,0.312650
0.169378,0.238660,0.459199,0.855194,0.319228,-0.408333
-0.086435,0.027420,0.739024,-0.758410,0.628353,-0.173168
0.561004,-0.014659,0.415594,-0.653401,0.409168,0.636905
-0.633138,-0.029057,0.448886,0.290645,0.329271,0.898391
-0.299103,0.259526,-0.966934,0.088934,0.053493,0.994600
-0.414769,0.799533,0.249186,0.270882,-0.480257,0.834252
0.061275,-0.058717,-0.941877,0.237904,-0.098202,-0.966312
-0.660065,-0.360236,0.507209,-0.013230,-0.871876,0.489547
-0.075623,-0.044924,0.657196,0.876101,0.110604,-0.469270
-0.111297,-0.270135,0.922628,0.854020,0.393348,-0.340482
-0.024620,-0.297122,0.556120,-0.712511,-0.421098,0.561252
0.479829,-0.492500,-0.919875,0.089555,0.195945,0.976517
0.067663,-0.449473,0.548110,0.499043,0.420190,-0.757889
-0.846985,0.371097,0.181126,0.177305,0.919956,0.349635
0.091347,-0.610797,0.446633,0.912215,0.404441,0.065513
-0.104810,0.121057,0.775645,0.259387,-0.812181,0.522572
-0.047026,0.880929,0.295970,0.199581,-0.023384,0.979602
0.218318,0.293932,0.644656,-0.037303,-0.962082,0.270199
0.098914,0.076652,0.358148,-0.397513,0.483959,0.779594
-0.665865,-0.410504,0.660526,0.555987,0.505727,-0.659635
-0.213504,0.222972,0.666108,0.688606,-0.293429,-0.663115
-0.271190,-0.383428,0.575419,0.784079,0.080215,0.615456
-0.210458,0.451888,-0.974768,0.170594,-0.136830,-0.975795
-0.025601,-0.118642,0.595795,-0.443238,-0.218692,0.869318
-0.277482,0.656581,0.177597,0.282448,0.954247,0.098164
-0.750674,0.309620,0.290663,0.691729,0.235121,-0.682810
0.163284,-0.539489,0.669337,-0.073233,0.969925,0.232127
-0.693283,0.043713,0.632591,0.055156,-0.745992,0.663667
0.063239,-0.554145,-0.190363,0.877120,0.431361,0.211158
-0.087415,-0.110880,0.599574,0.193692,0.461357,0.865814
0.198269,-0.374460,0.581076,0.657863,-0.064209,-0.750395
-0.036904,0.851011,-0.978448,-0.153718,0.073408,0.985384
-0.327012,0.878598,-0.995494,-0.157728,0.241459,0.957507
-0.765910,0.342301,0.297647,0.691729,0.235121,-0.682810
0.064223,-0.603292,0.452390,0.912828,0.400860,0.077819
-0.414476,-0.534747,0.648335,0.516777,-0.199408,-0.832573
-0.594123,0.541389,0.095594,-0.044784,0.301539,0.952401
0.170851,0.398689,0.494043,-0.109201,0.990154,0.087583
-0.051645,0.818847,0.301852,-0.425590,0.702091,-0.570913
-0.218219,-0.264099,0.695144,0.446356,-0.618635,-0.646573
-0.607094,-0.237371,0.604180,0.362129,0.923795,0.124364
-0.481302,-0.027589,0.286057,0.506013,-0.653244,-0.563225
-0.120436,-0.057770,0.760701,0.841624,-0.141979,-0.521067
-0.122106,0.300226,0.427985,0.966197,0.257169,-0.018113
0.166331,0.190465,0.555269,0.488977,-0.684695,0.540458
0.276300,-0.231077,0.715119,-0.053998,0.884891,-0.462659
0.226277,-0.171410,0.799700,0.765099,-0.578817,-0.282127
0.164463,0.784361,-0.964456,-0.192332,0.157205,0.968656
-0.247898,-0.048803,0.827785,0.370688,-0.695244,0.615813
-0.028747,0.314709,0.318298,0.752352,-0.041962,0.657424
-0.464696,-0.278929,0.654969,0.908062,0.303110,0.289047
0.020490,-0.228745,0.493417,0.950504,-0.221314,-0.218086
0.096458,-0.229003,0.379750,0.197796,-0.719220,0.666032
0.015281,-0.127520,0.759324,-0.635983,0.458232,-0.620926
-0.227460,0.287896,0.220225,0.642757,0.262602,0.719656
-0.128101,-0.201843,0.819750,-0.169945,0.984501,-0.043313
0.438160,0.576479,0.376996,0.809067,0.551914,-0.201993
0.384109,0.297895,0.480175,0.490969,-0.652262,-0.577498
-0.314038,-0.038798,0.643129,-0.579692,-0.798320,-0.163222
0.077686,0.676757,0.315695,-0.755518,0.475978,-0.450152
0.006634,0.090966,0.622653,0.673790,-0.354326,0.648429
-0.037690,0.927229,0.297497,0.453871,-0.295894,0.840505
-0.077686,0.181324,0.416571,0.779088,-0.033666,-0.626010
-0.026584,-0.023969,-0.076395,-0.849896,0.524634,0.049362
-0.425680,-0.028279,0.295094,-0.483488,0.108924,0.868548
0.274827,0.151922,-0.949612,0.191720,-0.089394,-0.977370
-0.161122,-0.233576,-0.801427,0.958698,0.279619,-0.052063
-0.274042,-0.380844,0.710113,0.690110,-0.281258,-0.666814
-0.320327,0.772205,0.233517,0.663442,0.077655,0.744187
0.333988,0.330144,0.261927,-0.450127,0.682437,0.575904
0.520809,-0.011812,0.367509,0.810361,-0.027880,-0.585267
-0.077392,0.002071,0.542028,0.789965,-0.176577,0.587177
0.040341,-0.184340,0.736996,-0.176776,-0.900671,0.396916
-0.027370,0.075183,0.788460,0.829875,0.006381,-0.557913
0.047416,0.136056,0.847509,0.500619,0.301369,-0.811516
0.219104,-0.420071,-0.926984,-0.092257,0.050085,0.994475
0.238070,0.715122,0.247334,0.987933,-0.140110,-0.066013
-0.519238,-0.101223,0.448110,0.114757,-0.151324,0.981800
-0.020295,-0.207363,0.545357,0.060251,-0.950450,0.304982
-0.295464,-0.176756,0.285482,0.231410,-0.232464,0.944675
0.098521,-0.161753,0.571915,-0.606253,-0.425564,0.671828
-0.763843,0.043282,0.630738,0.336344,0.210514,0.917909
0.045650,0.065011,0.554318,0.911922,-0.399830,-0.092381
0.280034,0.062853,0.603880,-0.731725,0.458199,-0.504610
0.121419,-0.205122,-0.330613,-0.038836,-0.984250,0.172463
0.473537,-0.241333,0.721627,-0.636075,-0.429921,0.640762
-0.134589,-0.026558,-0.289437,-0.216262,-0.022493,0.976076
-0.117293,-0.862479,-0.926108,-0.160345,0.006809,0.987038
-0.424106,-0.406620,0.672891,-0.614648,-0.254185,0.746725
0.198368,-0.429038,0.461802,-0.096651,0.690334,0.717006
-0.817995,0.021384,0.470113,0.562903,-0.633015,0.531443
-0.434231,-0.010517,0.443930,-0.042156,-0.400496,0.915328
-0.575351,0.527074,0.187234,0.899961,0.077452,-0.429035
-0.444254,0.518712,-0.982353,-0.015877,0.236803,0.971428
0.009681,0.943696,0.287109,-0.714564,0.169417,-0.678746
-0.036706,0.894122,0.306083,-0.051245,-0.391316,0.918828
0.363469,-0.357646,-0.922979,-0.123625,0.167097,0.978159
0.285735,0.800743,0.376445,0.886085,0.240489,0.396255
0.308241,0.931108,0.373842,0.819061,-0.425388,0.384948
0.030612,0.259873,0.271890,0.443434,0.596537,0.668962
0.010563,0.289359,0.284180,0.855872,0.286237,0.430756
-0.016069,0.128041,0.292416,0.990519,-0.003053,-0.137343
-0.053216,-0.268151,-0.246508,-0.634442,-0.669781,-0.385846
-0.201415,0.166410,-0.290263,0.916796,0.209797,-0.339809
0.091935,0.001207,0.853392,-0.654347,0.299432,-0.694384
-0.721094,-0.075962,0.353066,0.097375,-0.994417,0.040651
-0.431085,-0.389980,0.672691,0.697353,-0.078034,-0.712467
-0.277383,-0.384207,0.792090,-0.385557,-0.454866,0.802772
-0.620755,-0.285565,0.660501,0.762462,-0.078323,0.642275
-0.338904,-0.354458,0.602353,0.957979,-0.034864,0.284711
0.110314,-0.955253,-0.923529,-0.266808,0.139404,0.953614
-0.034445,-0.089756,0.644030,0.389860,0.854520,0.343226
-0.513441,0.159853,0.484155,-0.762789,-0.189060,0.618392
-0.122106,-0.187702,-0.778949,0.982174,-0.122304,0.142746
-0.141172,-0.176925,0.954869,-0.005601,0.993481,0.113860
0.575450,-0.018795,0.420175,-0.473719,0.184897,0.861048
-0.093510,-0.204948,0.375620,-0.131786,-0.133158,-0.982294
-0.400227,-0.386706,0.417322,-0.798736,0.417051,-0.433692
0.040440,0.393174,0.524581,0.688777,-0.492076,0.532398
-0.101370,-0.088893,0.596245,0.274027,-0.330656,0.903092
0.227261,-0.677963,-0.920776,0.091864,-0.162940,-0.982350
-0.373496,-0.455599,0.675194,0.774614,0.465756,-0.427837
-0.055871,-0.219694,0.903630,0.166658,0.970289,0.175395
-0.016363,-0.352647,0.508636,-0.087383,0.793125,0.602757
-0.721391,0.011296,0.636621,0.745864,0.265785,0.610774
-0.102156,-0.147007,0.798298,-0.407526,0.844087,0.348481
0.635202,-0.239265,0.423805,-0.442506,-0.050687,0.895332
0.217925,-0.023795,0.626358,-0.499153,0.851705,0.159515
-0.174783,-0.402741,0.787685,0.040644,0.998605,0.033700
-0.310403,-0.030694,0.378673,0.592726,-0.785606,0.177482
0.085745,-0.402136,0.575219,0.337476,-0.697081,-0.632604
-0.086237,-0.576911,0.008260,0.859656,0.502340,-0.092982
-0.213699,0.254184,0.267735,0.913223,0.399309,-0.081090
0.135569,0.305310,0.304781,-0.244383,0.949093,0.198743
-0.340082,0.715643,0.216345,-0.488945,0.848729,-0.201475
-0.052137,-0.185635,0.664305,0.796623,-0.324900,-0.509738
0.201316,-0.352042,0.584506,0.782325,0.465252,-0.414136
0.014102,-0.959131,-0.920300,-0.109149,0.114642,0.987392
0.010170,0.660375,0.202278,0.483914,0.250296,-0.838558
0.053216,-0.341180,0.676045,0.956503,0.134272,-0.258986
-0.059898,-0.157874,-0.940526,0.047927,0.336760,0.940370
-0.168494,0.290480,0.655519,0.111133,-0.432838,-0.894595
-0.300281,-0.049145,0.506308,0.722171,0.691677,0.007199
-0.124760,-0.250043,0.809987,0.762044,-0.487700,0.425955
-0.414575,0.330918,-0.980175,-0.269912,0.142992,0.952208
0.310892,-0.528454,-0.315594,0.255343,0.175165,0.950851
-0.006043,0.824109,-0.975795,0.286744,-0.177399,-0.941439
0.052431,-0.018364,0.414393,-0.627607,0.709214,-0.321130
0.441306,0.160716,0.323279,0.871593,0.323961,0.367934
0.516385,0.729867,0.405582,-0.011372,-0.981509,0.191079
0.154932,0.120799,0.506358,-0.632510,0.546217,-0.549161
-0.447004,0.409293,-0.972916,-0.260193,-0.101095,0.960250
0.255957,-0.414729,0.642829,-0.112079,-0.973549,0.199100
-0.110314,-0.359115,0.684581,0.453937,0.390122,0.801090
0.019113,0.813158,0.280350,0.059735,-0.735444,0.674947
-0.051054,0.194344,0.530363,0.659331,0.743888,0.109148
0.198860,-0.226761,0.712340,-0.303910,0.712598,0.632332
-0.237285,-0.310915,0.480851,-0.013023,-0.869784,0.493261
-0.123189,0.299363,-0.968235,0.210642,0.106388,-0.971757
-0.185298,0.457924,0.458498,0.884093,-0.201803,0.421491
0.042896,0.314535,0.678298,0.261752,-0.915256,0.306254
-0.226967,0.218746,-0.319074,0.867106,0.333337,-0.370153
-0.331631,0.819278,0.233041,0.442550,-0.156891,0.882912
-0.050070,-0.130367,0.912641,0.959356,-0.088689,0.267900
-0.689450,-0.300395,0.689387,-0.566791,0.700713,-0.433300
-0.052431,-0.231335,0.951865,0.916861,0.348668,0.194412
0.059605,0.623469,-0.963855,0.261041,-0.122609,-0.957510
0.387942,-0.354115,-0.920751,-0.072413,0.170872,0.982629
-0.525233,0.327555,0.477797,-0.631841,0.484693,0.604855
-0.334381,0.114589,-0.958999,0.048685,0.106653,0.993104
0.164757,-0.414987,0.640175,0.642529,0.308804,-0.701282
0.515894,-0.590362,-0.910914,0.011383,-0.011372,0.999871
-0.492507,-0.026642,0.707359,0.740403,0.660999,-0.121999
0.689942,-0.295222,0.437121,-0.493048,0.103027,0.863880
0.228539,-0.403431,0.588711,-0.186250,0.470576,0.862479
0.028648,0.066306,0.793166,0.700199,0.568959,-0.431287
0.041127,-0.418866,0.681051,-0.622295,-0.413485,0.664665
-0.825265,0.010086,0.446233,0.751054,-0.638721,-0.167194
-0.319640,-0.312641,0.743930,0.375550,-0.798269,0.470881
-0.281608,-0.447147,0.683805,-0.329375,-0.553030,0.765291
0.103827,-0.361788,-0.929462,0.065593,0.000950,0.997846
0.053315,0.293585,0.279174,0.630939,0.699012,0.336597
-0.458209,-0.137524,0.318123,-0.090473,-0.335137,0.937816
0.151884,-0.172962,-0.034919,-0.673278,-0.609335,0.418817
0.048400,-0.447752,0.381202,0.850112,0.115935,0.513681
0.025208,-0.087256,0.398022,0.788022,-0.223147,0.573783
0.112278,0.215126,0.591740,-0.616084,-0.220693,0.756131
0.157583,-0.249701,-0.531915,-0.124145,0.967179,0.221704
-0.226083,0.131403,0.275494,0.967905,-0.170382,0.184744
-0.573093,-0.240902,0.274418,0.544903,0.457869,-0.702451
-0.081420,-0.033625,0.579249,0.901212,-0.030204,-0.432325
-0.000051,0.361183,0.555870,0.775656,-0.509438,0.372600
-0.043880,0.275135,0.657797,-0.398669,-0.692391,0.601380
-0.193749,0.161752,0.029036,0.215201,0.146459,-0.965525
-0.005257,0.071221,-0.123079,0.973004,-0.230783,0.001530
-0.148151,-0.124157,0.903229,-0.373360,0.721557,0.583059
0.296544,-0.357131,-0.924130,-0.228825,0.035903,0.972805
-0.720701,-0.110969,0.323404,-0.135314,-0.987766,0.077514
0.061371,-0.176067,0.813617,0.425002,0.861893,-0.276610
-0.131346,-0.204690,-0.343004,-0.743569,0.604296,0.286237
-0.513441,0.000087,0.728611,-0.333396,-0.941705,0.045153
-0.088990,0.658565,0.205982,0.140236,-0.213554,0.966814
-0.022259,-0.028110,-0.539424,0.912617,-0.341434,-0.224840
-0.741635,0.213915,0.190939,-0.774203,0.126751,0.620116
-0.373789,-0.548630,0.689186,-0.131604,-0.813460,0.566537
0.213699,0.347300,0.314768,-0.663361,0.546110,0.511582
-0.028747,0.935591,0.307334,0.959118,0.137250,0.247496
-0.594810,-0.030178,0.639049,-0.077137,0.270993,0.959486
-0.036805,0.272114,0.623780,-0.381482,-0.682787,0.623116
0.442583,-0.077341,0.673567,0.783810,-0.039046,-0.619772
0.113460,-0.335228,-0.928260,-0.186764,-0.036455,-0.981728
0.043583,0.413435,0.722728,-0.542361,0.774438,-0.325714
0.443861,-0.025610,0.354018,0.989862,0.120011,-0.075959
-0.034742,-0.195465,-0.280701,0.937204,-0.289573,0.194410
-0.216746,0.406536,-0.973742,-0.233604,0.128944,0.963744
-0.111492,-0.160974,0.763730,0.136694,-0.483346,0.864691
-0.040833,-0.014833,0.699174,0.293153,0.922379,0.251552
-0.510885,0.010001,0.231014,-0.709063,-0.003137,-0.705138
0.413885,-0.245043,0.455645,0.461916,-0.210521,-0.861577
0.192078,-0.125110,-0.938623,-0.060384,-0.027448,-0.997798
-0.046828,-0.659254,-0.933041,-0.025806,0.069371,0.997257
-0.072183,0.058543,0.619525,0.937928,-0.343675,-0.046686
-0.373004,-0.066564,0.676671,0.919852,0.386964,-0.064271
0.093606,0.088724,0.540751,-0.784308,0.456167,-0.420444
0.010860,0.389895,0.525807,-0.339460,0.691700,-0.637431
0.144612,0.731504,-0.963154,0.210604,-0.212995,-0.954085
-0.338706,-0.501120,0.684506,0.706062,-0.300200,0.641371
0.151293,-0.159080,-0.430113,0.258467,-0.898496,0.354823
-0.678641,-0.001897,0.381477,-0.370481,-0.386368,0.844667
0.158468,0.194691,0.344005,-0.113204,0.444021,0.888837
0.161320,0.262546,-0.951690,-0.134604,0.146138,0.980064
-0.105401,0.111569,0.434518,0.899210,-0.110151,-0.423424
0.007027,0.005002,0.805156,0.850863,-0.380443,-0.362346
-0.368976,-0.146492,0.642854,0.142195,0.972877,0.182459
-0.135572,-0.336954,0.806833,0.960682,0.178649,-0.212543
-0.361112,-0.047508,0.667209,0.908305,0.228105,0.350643
-0.620656,0.253405,0.315644,-0.366326,-0.735080,0.570493
-0.060783,-0.216073,-0.722728,0.492761,-0.858918,0.139454
-0.532995,0.289880,0.199675,0.801592,0.434723,0.410447
0.377622,0.503277,0.280651,-0.837972,0.169826,-0.518616
0.355018,-0.607344,-0.907760,0.060938,0.167275,0.984025
0.260969,-0.433696,0.594593,-0.175014,0.749502,0.638449
-0.082209,-0.069669,0.763630,0.993003,-0.031803,-0.113722
-0.165252,0.497672,0.461252,-0.160060,-0.392191,0.905852
0.736326,-0.080530,0.500701,0.180803,-0.913636,0.364115
0.289667,0.490173,0.438473,0.735121,-0.675315,-0.059548
0.134196,-0.238228,-0.247484,0.197828,0.499753,-0.843274
0.424304,0.563718,0.461927,0.215944,-0.132363,0.967393
0.330548,0.313677,0.388386,0.587418,-0.114783,0.801102
0.244164,-0.402999,-0.927059,0.181059,0.026847,0.983106
0.324652,-0.673221,-0.915920,-0.184108,0.162967,0.969302
-0.153948,-0.221246,-0.234543,0.635887,0.770052,0.051649
0.107561,0.323761,0.436346,-0.347916,0.802625,-0.484508
-0.707531,0.406362,0.323905,0.712990,0.701122,-0.008560
0.553829,0.523106,0.269186,0.669978,0.429479,0.605539
-0.284164,0.363340,-0.299599,0.875918,0.407263,-0.258659
-0.384010,-0.248922,0.781777,-0.375696,-0.542625,-0.751273
-0.681982,-0.129593,0.216095,0.965393,0.047689,-0.256401
0.388629,-0.520176,-0.916070,-0.142660,0.058867,0.988020
-0.059407,0.118984,0.641577,0.166078,-0.816534,0.552893
-0.080535,0.329539,0.461151,0.799170,0.382759,-0.463489
0.298314,0.872909,0.326608,-0.451697,-0.762849,0.462636
-0.782813,-0.043971,0.458223,0.242607,-0.781245,0.575151
-0.271978,-0.341180,-0.609962,0.834475,0.548387,0.054070
-0.087023,-0.271083,0.843254,-0.430506,-0.245291,0.868618
0.435409,-0.227367,0.414368,-0.245274,0.630206,0.736669
-0.134295,0.142265,0.666959,-0.592391,0.359845,-0.720822
-0.296841,-0.557771,0.659224,0.661135,0.377184,-0.648562
-0.253207,0.710727,0.214743,0.024701,-0.676195,0.736308
-0.343717,-0.011123,0.539399,0.497486,0.053049,0.865848
-0.153063,0.161063,-0.963179,-0.064826,0.085128,0.994259
0.195518,-0.463356,0.473091,0.772812,0.396854,-0.495247
-0.077098,-0.263841,-0.792441,0.952131,0.302729,-0.042439
0.058030,-0.082341,0.754443,0.122214,0.657168,-0.743770
0.081813,0.827383,0.282829,0.870113,-0.327267,0.368509
0.148837,0.011470,-0.332115,-0.434763,0.878729,-0.197022
0.014102,-0.238492,0.235820,0.957737,0.050332,-0.283209
0.250259,-0.414467,0.617547,0.099364,-0.933973,0.343250
0.125645,-0.334539,0.422453,0.740483,0.067415,0.668685
0.059701,-0.216673,0.495169,0.964260,0.264807,0.008949
-0.285048,-0.334802,0.688836,0.990588,0.006759,-0.136713
0.130066,0.425244,0.243429,-0.383502,-0.395575,-0.834534
0.301460,-0.024658,0.805257,-0.356665,0.929299,-0.095882
0.401504,-0.089582,0.675119,-0.358277,0.331218,0.872888
0.028549,0.494915,0.311690,0.799552,0.103809,0.591557
0.361211,0.677100,0.316846,0.849786,0.516473,0.105448
0.347550,0.337901,0.463605,0.400425,0.707293,0.582578
-0.744289,0.020006,0.625682,0.165299,-0.309170,0.936531
-0.213405,-0.013970,0.593091,0.446019,-0.850326,-0.279307
-0.382832,-0.085703,0.709887,-0.401572,-0.865865,0.298358
-0.218516,0.817468,0.213041,0.774550,0.301510,0.556025
-0.371234,-0.175804,0.380150,0.988146,-0.111414,-0.105618
-0.103533,-0.121226,0.662703,0.321790,0.935160,0.148079
0.055967,0.041040,0.550638,0.901284,-0.277913,0.332341
0.040440,-0.372824,0.551214,-0.091588,0.374431,0.922720
0.163086,-0.194949,0.857171,0.048312,-0.958023,0.282591
-0.078376,0.213657,0.654218,0.122435,-0.176217,-0.976707
-0.491721,0.032678,0.703504,0.654691,0.737870,0.164098
-0.096359,0.361098,0.556521,-0.584824,0.389367,-0.711600
0.000639,-0.159853,0.746608,-0.435118,0.891589,0.125465
-0.177140,0.013106,0.656471,0.258370,-0.440149,0.859950
-0.127808,-0.195812,-0.432466,0.951081,-0.211233,-0.225444
-0.141762,-0.222451,-0.312666,0.722328,0.676971,0.141254
-0.004373,-0.102175,0.587259,-0.932938,0.030533,-0.358741
0.252517,-0.505951,0.660626,-0.314133,0.686314,0.655968
-0.183333,-0.245043,0.899975,-0.343360,-0.915165,-0.211134
-0.172129,0.280050,0.659625,-0.267563,0.444232,0.855025
-0.216941,-0.217368,0.493567,0.963980,0.236671,0.121366
0.417130,-0.007155,0.670964,0.743592,-0.148734,-0.651881
-0.512751,-0.021642,0.627685,0.841567,0.478215,0.251148
-0.643752,-0.059149,0.702503,-0.362545,-0.930703,0.048510
-0.213993,-0.067858,0.814343,0.455771,-0.121480,0.881769
0.181564,0.251679,-0.531940,0.892450,-0.410953,0.186146
0.322687,-0.251248,0.713867,-0.007466,0.343402,0.939159
-0.319838,0.160026,-0.963029,0.042601,0.130502,0.990532
0.054986,-0.078462,0.395720,0.753386,-0.335032,0.565829
-0.718050,0.198743,0.210213,-0.504634,0.124178,0.854356
-0.252715,-0.086825,0.299149,0.320063,-0.128099,0.938696
0.310304,-0.398605,-0.926909,-0.197121,-0.129713,0.971760
-0.037885,0.220556,0.475820,-0.294978,-0.874346,0.385365
-0.043880,0.828935,0.303204,-0.480485,0.065474,-0.874555
-0.521793,-0.015433,0.442178,0.022024,0.051227,0.998444
-0.709595,-0.314194,0.687434,0.152373,0.759410,-0.632518
-0.223527,0.291343,0.649512,-0.659415,0.147969,0.737073
0.207017,-0.513797,0.682403,-0.314844,-0.926203,-0.207417
-0.151099,0.570701,0.481752,0.997598,0.045291,0.052403
0.389709,0.164684,0.552340,0.484624,-0.874721,-0.001717
0.351677,-0.466634,0.656145,-0.015343,-0.932963,-0.359644
-0.274729,-0.129246,0.592115,-0.060206,-0.191880,0.979570
0.024518,0.094929,0.544280,-0.637277,0.513541,0.574589
0.287406,-0.454130,0.473792,0.565685,0.727463,0.388326
-0.375952,-0.030694,0.721227,0.546713,0.828257,-0.122859
-0.577022,0.299363,0.151815,-0.280577,0.861411,0.423376
-0.209672,0.016811,-0.964456,-0.114246,0.263821,0.957782
0.016558,-0.144165,0.490914,0.936434,0.309823,0.164626
-0.149428,-0.198396,-0.523329,0.941193,-0.317268,0.116179
0.043781,-0.068027,0.420000,-0.394583,0.077649,-0.915574
-0.152571,-0.031904,-0.287234,-0.597544,-0.125073,-0.792021
-0.500859,0.067337,0.214994,0.888819,0.392651,0.236275
-0.062355,-0.150975,0.909212,0.937612,0.335418,-0.091535
0.301951,-0.359115,-0.924030,-0.228825,0.035903,0.972805
-0.714903,-0.103381,0.177071,0.315571,0.833146,0.454184
0.124070,-0.533711,-0.921802,0.006865,0.045395,0.998946
0.211537,-0.295053,-0.115970,0.443269,0.895754,-0.033731
-0.115229,-0.155459,0.876471,-0.263125,0.949370,-0.171646
0.357966,-0.287549,-0.927034,0.095881,-0.129115,-0.986983
-0.316791,-0.147697,0.818673,0.182132,0.595614,-0.782351
0.214878,-0.509487,-0.924406,0.167024,-0.064280,-0.983855
0.255564,-0.347390,0.091214,0.368948,0.779231,0.506633
-0.561202,-0.079841,0.445232,0.100044,0.012042,0.994910
0.449265,0.527248,0.417197,0.281259,-0.786064,0.550451
-0.133902,0.030867,0.045181,0.340021,-0.929336,-0.143947
-0.672841,-0.204174,0.207234,-0.119568,0.815719,0.565956
0.278462,0.927487,0.355594,-0.660779,0.410505,-0.628376
0.275121,-0.698571,-0.917997,0.237746,-0.189802,-0.952603
-0.043388,-0.486979,-0.604731,-0.642327,-0.536655,0.547191
0.008107,0.617001,0.319750,0.660125,-0.087025,-0.746098
0.553044,-0.119158,0.422478,-0.214169,0.213431,0.953194
-0.253402,-0.075789,0.232340,0.025563,-0.908109,0.417953
-0.577811,-0.000171,0.437547,-0.330766,0.914701,-0.232198
0.377817,-0.418519,-0.671064,0.189163,-0.672597,0.715424
0.375361,-0.219609,0.736771,0.197616,-0.489667,0.849220
-0.369858,-0.027421,0.792741,-0.303764,-0.895995,-0.323913
-0.400029,0.237802,-0.969937,0.079363,0.068203,0.994510
-0.573093,-0.250390,0.583654,0.357381,0.856868,0.371559
-0.037690,0.438179,0.308911,-0.766858,0.121460,0.630219
-0.168002,0.155890,0.624681,-0.625055,-0.639986,-0.446906
-0.007420,0.008449,-0.525607,0.856698,-0.495696,-0.142671
-0.441207,0.360751,-0.971640,-0.225621,0.031832,0.973695
0.152868,-0.394895,-0.932115,-0.019286,0.145406,0.989184
-0.060684,-0.096224,-0.209287,0.995605,-0.078260,-0.051441
-0.280430,0.383601,0.278798,0.922259,0.234192,-0.307558
0.049384,0.134850,0.820025,-0.176129,-0.495735,0.850427
-0.097441,-0.860321,-0.929487,-0.166680,-0.030405,0.985542
-0.150901,-0.268925,0.654793,-0.519962,0.852232,-0.057788
0.010563,0.225298,0.663680,0.973714,-0.184231,0.133942
-0.151000,0.015522,0.550638,-0.595556,0.728444,0.338647
-0.001721,0.137266,0.621026,0.694876,0.565337,0.444457
-0.063045,-0.153217,0.918949,-0.632925,0.527377,0.566815
-0.085352,-0.268236,0.683129,0.202330,0.425798,0.881906
-0.139798,-0.085530,0.852591,-0.461691,-0.856358,0.231284
0.406711,-0.074237,0.370989,-0.774057,0.355662,-0.523775
0.174684,0.412314,-0.941402,-0.198720,0.036199,0.979388
-0.636578,0.237112,0.153917,-0.488588,-0.822283,-0.291775
-0.658298,-0.043198,0.352065,-0.138071,0.960957,-0.239789
0.145496,0.329281,0.600150,0.854058,0.303699,-0.422318
0.467740,-0.416192,0.648911,-0.125715,0.982154,-0.139892
-0.181957,0.525006,0.451514,0.483881,0.486709,-0.727306
0.180679,0.215641,0.588285,-0.275371,-0.679179,0.680358
-0.227654,-0.243317,-0.600976,-0.697876,0.610569,0.374400
-0.189916,-0.363683,0.407985,-0.109296,0.982960,-0.147798
-0.822023,0.065616,0.484230,0.326480,-0.847459,0.418598
-0.077293,0.003365,0.317847,0.942752,-0.108010,0.315519
-0.066778,-0.332128,-0.935870,-0.161394,-0.376753,0.912145
-0.197189,-0.699429,-0.931715,-0.090278,0.055826,0.994351
-0.218711,-0.171841,0.924931,0.909852,0.242753,0.336511
0.011547,0.564065,0.207885,-0.090142,-0.068288,0.993585
0.235122,0.299190,0.397997,-0.703248,0.458959,-0.542954
-0.189230,-0.107948,-0.352441,0.863083,0.494412,-0.103174
-0.773179,-0.256337,0.665106,-0.210549,0.976311,0.049866
-0.269225,0.241075,-0.967635,0.101439,0.157353,0.982319
-0.603951,0.407140,0.183429,-0.467460,0.653433,0.595405
-0.115424,0.080620,0.765332,-0.412450,0.749650,-0.517600
0.213798,0.477412,0.331940,0.039938,0.928744,0.368563
0.344701,0.297121,0.049437,0.476037,0.423688,0.770634
0.284752,0.798154,0.328636,0.964100,0.262919,-0.037219
0.059898,-0.331265,0.657171,0.787497,-0.380378,0.484934
-0.341162,0.696413,0.166458,0.057519,0.731217,-0.679716
-0.028450,-0.282376,-0.301677,0.116072,-0.809479,-0.575561
0.072576,0.018537,-0.946308,-0.252907,-0.039126,0.966699
-0.095966,-0.722884,-0.928861,0.169117,-0.005957,-0.985578
-0.756081,0.415934,0.292741,0.479357,-0.312332,-0.820162
-0.477766,0.414640,-0.355444,0.812193,0.374971,-0.446923
0.245148,0.124678,0.497272,-0.323939,0.760344,0.562975
-0.192768,-0.265736,-0.642703,0.196960,0.374690,0.905988
-0.123189,0.686414,-0.973016,-0.219226,0.134282,0.966389
0.433049,-0.242112,-0.926809,-0.040250,0.092426,0.994906
-0.121518,-0.904553,-0.936621,-0.252377,-0.048134,0.966431
0.074639,0.318156,0.682829,0.221841,-0.871861,0.436629
-0.124074,-0.255648,0.787985,0.821529,0.466742,-0.327477
-0.231586,-0.279529,-0.682428,-0.590122,-0.759832,-0.272785
-0.223626,-0.139250,0.654118,-0.553236,0.730111,0.401083
-0.026386,-0.159943,0.938698,0.069995,0.977733,0.197834
-0.347355,-0.096829,0.681927,0.357026,0.866521,0.348818
0.100585,-0.188224,0.415319,0.957370,0.280071,-0.070737
-0.239153,-0.094845,0.530713,-0.726366,-0.407069,0.553794
0.363176,-0.270046,0.276871,0.705325,0.212824,-0.676183
-0.145889,-0.304968,0.758974,0.987147,0.137278,0.081829
-0.004571,-0.294880,0.675820,-0.596086,0.293538,-0.747340
-0.463907,0.077257,0.246383,0.678314,0.693120,-0.243875
0.213600,0.196933,0.434168,0.914452,-0.394595,-0.089848
-0.011940,-0.623901,-0.929036,-0.243231,0.087152,0.966045
-0.228932,-0.002760,0.858724,-0.481602,-0.875835,-0.031190
0.210850,0.203743,0.478073,0.868279,-0.333146,-0.367568
-0.249176,0.700981,-0.983454,-0.040062,0.125389,0.991298
0.366517,-0.281429,0.275970,0.677697,0.256500,-0.689155
-0.267849,-0.140024,0.587610,-0.089970,-0.208300,0.973918
-0.225885,-0.034920,0.424355,0.258534,-0.949491,-0.177843
0.258119,0.083204,0.599574,-0.123664,0.342032,0.931516
-0.482286,0.532589,-0.980300,0.009605,0.244168,0.969685
-0.270896,0.874719,-0.984606,0.187117,-0.166433,-0.968136
0.117094,0.237281,0.009962,0.585000,-0.717302,-0.378487
-0.218516,-0.358510,0.530463,0.987164,0.057813,0.148880
0.049482,0.137177,0.837647,0.951786,0.012729,0.306499
-0.774754,-0.047592,0.294393,-0.049205,-0.978272,0.201400
-0.474128,0.184171,0.534718,0.601395,0.126254,-0.788913
-0.027568,-0.226419,-0.297322,-0.430065,0.229982,-0.873013
0.283375,0.389722,0.481702,0.624125,-0.751787,0.212802
-0.196011,-0.019659,0.579349,0.356938,-0.930298,0.084497
0.075230,-0.068290,0.648736,0.704139,-0.245371,-0.666320
-0.179401,0.609934,-0.976345,-0.306713,0.141733,0.941190
-0.807870,-0.044319,0.318223,-0.125923,-0.992035,-0.003255
-0.232471,-0.037077,0.758423,-0.079033,0.107755,0.991031
0.015970,-0.047076,0.521877,0.929748,-0.105691,-0.352700
-0.085646,-0.212189,0.668511,-0.667398,0.638325,-0.383564
0.230210,0.693050,0.270188,0.257938,0.953673,0.154838
-0.603459,-0.247885,0.697997,0.931230,-0.261456,0.253872
0.225786,0.849112,0.392015,0.998081,0.060791,-0.011758
-0.174882,-0.349026,0.635469,0.103067,-0.975973,0.191975
-0.245934,0.605102,-0.237522,0.756303,0.282270,-0.590194
-0.015478,0.544662,0.570188,0.589108,0.346349,-0.730065
-0.513833,0.766342,-0.985357,-0.058204,0.120305,0.991029
-0.293695,-0.201243,0.766258,0.186266,0.185552,0.964819
-0.062847,0.820573,0.282153,0.155458,-0.867615,0.472310
-0.087514,0.338506,0.718023,-0.439730,0.784217,-0.437768
0.071889,-0.095450,0.414243,0.725626,0.561566,0.397631
0.326322,0.748492,0.330563,0.886395,0.136823,0.442249
-0.362783,0.055181,0.828160,0.229652,-0.968868,-0.092496
0.059308,-0.698913,-0.116370,0.725294,0.203160,0.657780
-0.349419,0.013795,0.519349,0.479653,0.837730,-0.261039
0.138223,-0.444389,-0.926258,0.079548,-0.142085,-0.986653
-0.032480,-0.199517,-0.196971,0.970575,-0.082441,0.226248
-0.046141,0.694776,-0.974068,-0.080275,0.180224,0.980344
-0.167609,-0.140713,0.587935,-0.178537,0.507016,-0.843243
-0.460665,0.197191,0.281827,0.579803,0.772609,-0.258658
-0.744877,-0.172789,0.206934,-0.420893,-0.650738,-0.631973
-0.050169,-0.180288,0.712366,0.081466,-0.907794,0.411427
0.053117,-0.593725,-0.351264,-0.117237,0.950813,0.286722
0.573288,-0.059838,0.406859,0.845140,0.419915,0.330772
-0.601789,0.536216,0.176020,0.927899,0.183797,-0.324379
0.290255,0.152269,0.582854,0.461850,-0.802661,-0.377399
-0.510687,0.553030,0.201827,-0.683984,0.131488,0.717549
-0.034052,0.207710,0.646183,-0.575685,0.363061,-0.732648
0.005356,-0.337301,0.688361,0.675415,0.045872,0.736009
-0.290846,0.021642,-0.353817,0.678446,0.391783,-0.621464
0.083975,-0.730731,-0.922478,-0.160586,0.141469,0.976831
-0.197387,-0.315225,0.428786,-0.176516,-0.925974,-0.333787
-0.019113,-0.257026,0.024856,0.823325,-0.555435,-0.116736
0.149623,-0.160974,0.326809,-0.311034,0.756080,0.575848
0.249176,-0.151233,-0.938423,0.221822,-0.151694,-0.963216
0.083484,-0.169252,-0.291264,0.793432,-0.037720,0.607489
0.569848,0.045871,0.415044,-0.534995,-0.807271,0.249189
-0.864086,0.066306,0.649787,-0.051334,0.648593,0.759403
0.220087,0.173304,0.475444,0.944646,0.296449,-0.140580
-0.016069,0.000087,-0.064155,-0.446490,0.502112,-0.740629
0.061275,-0.381875,0.632991,0.947472,0.061981,-0.313776
0.843446,-0.277203,0.412691,0.970930,-0.047635,0.234575
0.344701,-0.387396,-0.925957,-0.147235,-0.088129,0.985167
0.595400,-0.085446,0.330588,0.361612,0.435769,-0.824222
0.001131,0.232539,0.456821,0.374052,-0.800200,0.468791
0.129478,0.349631,0.257822,-0.179466,0.705210,0.685909
0.138125,-0.678652,-0.925332,-0.192491,0.153248,0.969258
0.238955,0.288496,0.434093,-0.805774,0.313268,-0.502584
-0.610534,-0.309278,0.671815,0.684701,0.015394,0.728661
0.264999,0.718484,0.377297,0.770537,0.611976,-0.178207
-0.756177,0.277808,0.173217,0.547793,0.371292,0.749710
-0.769347,0.512503,0.312441,0.937554,0.167575,-0.304814
0.858483,-0.062254,0.522753,0.796434,0.205939,0.568579
-0.311090,0.609070,-0.979174,-0.179553,0.213054,0.960400
0.009483,-0.034146,0.834143,0.922201,0.134965,0.362395
-0.071103,0.879635,0.297497,0.224656,-0.704165,0.673559
0.109429,-0.189602,0.376170,-0.371000,-0.889382,0.267130
-0.040047,0.280739,0.300125,0.720643,0.674516,0.160316
0.004766,-0.465855,0.546033,0.054121,0.106308,0.992859
0.059898,0.589152,0.289337,0.835828,-0.482622,0.261664
0.089871,0.122609,0.559700,-0.614158,0.674516,-0.409680
0.203379,-0.213400,0.437797,0.052431,0.982459,0.178955
0.120730,-0.348511,0.442278,0.455555,0.890108,0.013285
0.034544,-0.621743,0.639875,0.970178,0.233050,-0.066658
-0.511473,0.583289,-0.979474,-0.035779,0.161996,0.986143
-0.006241,0.267462,0.640976,0.821254,0.565482,0.075981
-0.062652,-0.231245,0.901076,-0.281862,0.482436,0.829343
-0.018721,-0.062422,0.484030,0.862384,0.496440,0.099201
0.032675,0.773326,-0.968736,0.215314,-0.049509,-0.975289
-0.124565,0.168652,0.533241,-0.527524,-0.815221,-0.239026
-0.197780,-0.122778,0.698098,0.557219,0.518726,-0.648406
-0.459780,-0.085961,0.622478,0.359429,-0.278959,0.890501
-0.160828,0.041645,0.404205,0.772362,-0.311560,-0.553522
-0.733969,0.479911,0.312416,0.808352,0.551258,-0.206598
-0.128887,-0.077084,0.893467,-0.418478,0.814978,0.400859
-0.406222,0.075873,0.308911,0.783479,0.621414,-0.002384
-0.171541,0.709091,-0.209237,-0.718807,-0.248739,0.649188
-0.866344,0.376528,0.151965,-0.230422,-0.969543,-0.083014
-0.004865,-0.468445,-0.592666,-0.326085,-0.336295,0.883501
-0.013121,0.548804,0.306683,0.954570,0.017970,0.297446
-0.114147,0.189255,0.542879,0.773175,0.594899,-0.219765
-0.024323,-0.106138,0.852791,0.663747,-0.729920,-0.163271
0.076115,-0.244181,0.356671,0.825672,-0.539698,0.164291
-0.063338,0.011554,0.443079,-0.734536,-0.366206,0.571270
-0.124467,-0.174946,0.895745,-0.433320,-0.292574,0.852429
-0.688370,0.064927,0.392966,0.983136,0.171003,-0.064827
-0.192865,0.084067,0.242428,0.990317,0.019362,0.137467
0.146381,-0.128299,0.033141,-0.042872,-0.984122,0.172236
0.495062,-0.282460,0.473742,0.343427,-0.648522,0.679321
0.154634,0.127520,0.419424,0.868265,-0.458692,0.188990
-0.215076,-0.233918,-0.473567,0.752660,0.655394,0.062946
-0.226476,0.224351,-0.976746,0.066696,0.198451,0.977839
0.444742,0.294964,0.324531,-0.681715,-0.370284,0.630995
-0.139894,-0.131488,0.906458,-0.374357,0.815830,-0.440770
-0.443468,-0.487758,0.634443,-0.149616,0.891744,0.427092
-0.315316,0.004655,0.842128,0.568556,0.822510,-0.014870
-0.025208,-0.059754,0.731940,0.661284,0.745762,0.080891
0.190801,-0.625022,-0.926558,-0.161923,0.036241,0.986138
-0.681589,0.388427,0.332866,0.631304,0.738416,-0.237057
-0.309911,-0.079067,0.296896,-0.279229,0.000786,-0.960224
0.269912,0.413777,0.460476,0.380009,-0.772317,-0.509038
-0.479928,-0.001550,0.732265,0.307103,0.941210,-0.140757
0.074051,-0.532679,-0.915795,0.152945,-0.154914,-0.976017
0.180481,-0.020348,0.575044,-0.526597,-0.504787,0.684022
0.056851,-0.442579,-0.929612,-0.106410,0.038199,0.993588
0.001226,-0.222193,0.570163,0.815985,0.568925,-0.102435
-0.562182,0.489910,0.184631,0.908278,0.406286,0.099811
0.457423,0.653218,0.441602,0.930181,0.099882,-0.353251
-0.061767,-0.311005,0.406233,-0.693077,-0.718891,-0.053295
-0.561300,0.903605,-0.999074,-0.078394,0.273265,0.958739
0.475112,-0.497589,0.075670,0.757389,0.383533,0.528454
-0.006634,-0.238834,0.884881,0.241921,0.684085,0.688114
-0.043979,-0.012591,0.782278,-0.637900,0.621925,-0.454194
0.086138,-0.164511,0.250939,0.414176,0.550569,-0.724798
-0.364846,-0.252801,0.410588,0.912242,0.039155,0.407776
-0.169870,0.197791,0.245682,0.954064,0.242244,-0.176294
0.062453,0.142955,0.845357,0.629274,-0.318014,0.709141
-0.634317,0.333159,0.168210,0.071606,-0.836441,0.543359
-0.124859,0.831866,0.300901,-0.108358,-0.841943,0.528574
0.122205,-0.349111,0.312816,-0.445142,0.116164,0.887893
-0.540169,-0.208569,0.273392,-0.480457,-0.506948,0.715657
0.166133,-0.699171,-0.917447,0.149205,-0.148524,-0.977588
-0.078472,0.052507,0.756270,-0.409249,0.912413,-0.004334
-0.114539,-0.157959,0.834093,0.010194,-0.909542,0.415488
-0.397671,0.818157,-0.990839,-0.090406,0.297055,0.950571
-0.208001,-0.182961,-0.241802,0.135990,0.990226,-0.030971
-0.398751,-0.048976,0.514443,-0.931630,0.219582,-0.289568
0.311681,0.469044,0.377597,0.945575,-0.316037,0.077510
0.040635,0.389548,0.521427,0.424419,-0.548658,0.720307
0.045059,-0.598035,0.443004,0.945640,0.321846,-0.046688
-0.220972,0.257715,0.247434,0.897795,0.437417,0.051291
0.028843,-0.240560,0.530363,0.223126,-0.084392,0.971130
0.278756,-0.753581,-0.913767,-0.164780,0.150703,0.974749
0.148639,0.767721,0.267760,0.837102,0.384719,0.388910
0.193257,-0.060443,0.658047,0.591545,-0.787433,0.173278
-0.821630,0.166494,0.388711,0.939392,0.253306,-0.231037
0.126038,0.682099,-0.958673,0.172409,-0.104423,-0.979475
-0.110512,0.106917,0.407509,0.973321,-0.159539,-0.164904
-0.409758,-0.419039,0.632290,0.854025,-0.281419,0.437544
0.247212,-0.526127,-0.921727,-0.147032,0.075739,0.986228
-0.774754,0.037767,0.434994,0.199105,-0.976056,-0.087592
-0.156995,-0.196844,-0.652115,0.460088,0.864457,0.202565
-0.136652,-0.092256,0.905256,-0.141284,0.864626,0.482141
0.086431,-0.666064,-0.165582,0.904961,0.303293,0.298426
-0.266079,0.373081,0.257697,0.924603,0.379402,0.034127
0.090364,-0.324450,0.428436,0.684945,0.252914,0.683290
0.033854,-0.206158,0.790188,0.690931,0.427307,-0.583115
0.324652,-0.280824,-0.633091,-0.294950,0.798686,-0.524504
-0.171637,-0.116400,0.816571,-0.399691,-0.734750,0.548079
0.214878,-0.472407,0.471915,0.849021,0.195811,-0.490735
0.055867,-0.355926,-0.932966,0.170108,0.043815,-0.984451
0.156797,-0.291859,0.561802,0.966155,0.030074,-0.256203
0.105695,-0.157269,0.409362,0.825688,0.526859,-0.201641
-0.189721,-0.175720,-0.517797,0.908948,-0.415629,0.032655
0.063731,-0.653818,0.465957,0.850579,0.334110,0.406061
0.105596,0.109243,0.546558,0.426263,-0.702276,0.570182
0.122991,0.109243,0.445507,0.945862,-0.262871,-0.190377
-0.102060,0.089756,0.169036,0.860833,-0.313860,0.400573
-0.453785,0.187445,-0.604856,-0.516051,0.476205,-0.711983
0.013808,-0.355062,-0.931990,-0.035202,-0.068940,0.997000
-0.405829,0.135366,0.308511,0.659135,0.741462,0.125598
-0.237383,0.303500,0.232941,0.931477,0.052399,0.360008
0.270503,-0.505346,-0.922528,-0.078936,0.194263,0.977768
-0.206133,0.387911,0.656796,0.380879,0.290665,0.877750
-0.405337,0.317730,0.099274,0.755307,0.589874,-0.285588
-0.105989,0.437490,-0.964706,-0.031171,0.167193,0.985431
0.078472,-0.457925,-0.579424,0.072235,-0.696976,0.713447
0.440517,-0.247717,0.456045,-0.289515,0.696830,0.656207
0.304507,-0.065443,0.796395,-0.394490,0.899669,-0.187011
0.431180,-0.512934,-0.917146,0.073699,0.225234,0.971513
0.277383,-0.159769,0.718598,-0.281540,0.958800,0.037920
-0.018232,-0.131314,0.735695,0.971835,-0.171178,0.161970
0.085451,0.050528,0.526834,0.844727,0.369853,-0.386840
0.057637,0.060701,0.246308,0.035930,-0.341563,0.939172
0.282982,-0.064496,0.639925,-0.442854,0.863949,0.239734
-0.059407,-0.229956,-0.125832,0.943111,0.311467,0.116317
-0.062652,-0.103986,0.940676,0.978027,-0.013723,-0.208027
0.304507,0.601140,0.360150,0.906353,0.422296,-0.013782
0.068743,-0.019053,0.641877,-0.200042,0.085725,0.976030
-0.248588,0.355236,0.085257,-0.678614,-0.062326,-0.731846
-0.006733,0.354631,0.524105,-0.626997,0.545102,-0.556542
-0.201907,-0.232629,0.642904,-0.022655,0.267932,0.963171
-0.609847,-0.270651,0.679800,0.944358,-0.228529,0.236564
-0.131050,0.089671,0.491414,0.964681,0.216342,-0.150289
0.034250,0.187965,0.842278,0.942955,0.202788,0.264031
-0.403370,0.194691,-0.964180,0.145508,0.373699,0.916066
0.099013,-0.217020,0.841327,0.745786,0.537863,-0.393074
0.045451,-0.076652,0.624506,0.196746,-0.976292,-0.090252
0.114342,0.287117,0.610062,-0.503727,0.622296,-0.599172
-0.417817,-0.095103,0.475294,0.867215,0.435078,-0.242167
0.384010,-0.064322,-0.928210,-0.304707,0.115553,0.945411
-0.074936,0.673048,0.208360,-0.230797,-0.911218,0.341196
0.459288,-0.120884,0.532215,-0.611819,-0.716861,-0.334346
0.099208,-0.148128,0.281151,0.834966,-0.538605,-0.112861
-0.469902,-0.094497,0.624756,-0.543527,0.270741,-0.794530
-0.048991,-0.069753,-0.191289,0.970429,-0.241381,-0.001679
0.480024,-0.228314,0.453292,-0.161599,-0.580090,0.798362
0.058819,-0.212021,0.433367,0.794103,0.166144,0.584634
-0.344407,-0.031473,-0.959099,-0.206316,0.017831,0.978323
0.104024,0.205637,0.572616,0.912627,-0.178921,-0.367559
-0.448480,0.210210,0.537747,-0.601768,0.404973,0.688384
-0.003881,0.236939,0.301101,0.885463,-0.146608,0.440978
0.401012,0.629589,0.262879,0.403258,0.414309,-0.815924
-0.151000,-0.057854,0.687960,-0.427226,0.896281,-0.118991
-0.309224,-0.476980,0.618373,0.060711,0.716558,0.694880
-0.031794,-0.065701,0.408636,0.048104,-0.935465,0.350129
-0.115229,0.176924,-0.239499,0.878432,0.197135,-0.435311
-0.414476,0.112090,0.549587,0.876364,0.478157,-0.057894
0.019506,-0.480775,0.426283,0.989836,0.095082,-0.105752
0.009582,0.045955,-0.206558,0.967482,-0.244572,-0.064519
-0.089872,-0.136145,0.910838,0.518256,0.687451,-0.508745
-0.063830,-0.550440,-0.440350,0.845411,0.400090,0.353848
-0.659870,0.192791,0.470839,0.390669,0.621262,-0.679273
-0.117488,-0.183392,-0.720501,0.964401,-0.043267,0.260881
