0.122065,-0.707362,-0.544314,0.351336,-0.022496,0.935979
0.739526,-0.047413,0.110098,-0.489526,-0.476156,-0.730507
0.016246,-0.565793,0.214440,0.333472,0.288625,-0.897492
-0.349009,0.654093,0.356064,0.546602,-0.622967,0.559588
-0.430987,0.239658,0.554370,0.272567,0.908774,-0.315969
0.669138,0.344850,-0.290685,0.812208,0.563837,-0.149684
-0.524462,0.657453,0.446923,0.946235,-0.083624,-0.312485
-0.251261,0.117670,0.799108,0.965455,-0.056255,0.254425
-0.328867,-0.063154,0.368804,0.360216,0.928908,-0.085873
-0.706373,0.258566,0.069292,0.530166,0.444577,-0.721994
-0.307020,-0.281025,0.437029,0.540850,-0.628274,-0.559244
-0.388337,0.186102,0.587513,0.877840,0.478673,0.016385
0.259715,0.044630,0.845022,0.712784,0.612183,0.342303
0.352905,0.619061,0.109128,0.543389,-0.831140,-0.118042
0.527314,0.722527,0.255764,0.253132,0.909316,0.330254
-0.163486,-0.027833,0.430530,0.057519,-0.548886,0.833916
-0.049967,-0.157116,0.339380,-0.660100,0.304454,-0.686714
0.093284,-0.554756,0.045462,0.968941,-0.247233,-0.005461
0.106202,0.600442,0.332460,0.855609,0.452997,-0.250453
0.242616,0.176504,0.052963,0.873361,-0.480181,-0.081656
0.088727,-0.058451,-0.043910,0.508151,-0.858515,0.068811
0.186567,-0.066417,0.806480,-0.543901,-0.012731,0.839053
0.097748,0.667339,0.024574,0.801595,0.411565,0.433658
-0.427664,0.026298,-0.296957,-0.700011,-0.705480,-0.110826
-0.327348,0.604473,0.135383,-0.555352,-0.103471,0.825153
0.016431,0.400230,0.675914,0.376761,0.850966,-0.365935
-0.086917,-0.051253,0.749410,0.071389,0.089429,0.993431
-0.245463,0.683079,0.139166,-0.647937,-0.191681,-0.737181
0.230359,0.464056,0.741423,0.101844,-0.692550,0.714145
0.525413,-0.293503,-0.263621,-0.306660,0.505959,0.806204
-0.205567,-0.021115,0.868432,-0.181935,0.886242,0.426000
-0.096322,0.148862,0.655802,-0.144029,0.893543,0.425248
0.026311,0.640944,0.585637,-0.293977,-0.524090,0.799317
-0.052820,0.020731,0.782746,-0.434629,0.390532,0.811531
-0.006650,0.266340,0.566657,-0.508440,-0.158339,-0.846415
0.426522,-0.482388,-0.360591,0.571177,0.820397,0.026547
-0.172699,-0.002399,0.020629,0.776688,0.617065,-0.126436
-0.166524,-0.588732,-0.286966,-0.203833,0.314583,0.927086
0.407998,0.569345,-0.173182,-0.144884,0.479008,0.865771
-0.702668,0.248680,0.033272,-0.458517,-0.481156,0.747162
-0.306736,0.272962,0.128852,0.757728,-0.589261,0.280393
0.088060,-0.254919,0.207456,0.931157,0.321097,-0.172753
-0.066590,-0.473846,0.569017,-0.703220,-0.349740,-0.619002
0.330102,-0.441981,-0.965338,-0.085343,-0.072601,0.993703
0.094803,-0.057107,-0.957739,0.259636,0.794633,0.548769
-0.331151,-0.469239,-0.525075,-0.203306,0.877155,-0.435046
-0.552959,0.494193,-0.271737,-0.420725,0.298831,-0.856557
0.023748,0.298685,0.688880,0.963836,0.265053,0.027702
-0.107535,0.099914,0.547353,-0.518807,-0.702386,0.487333
-0.349676,0.582877,-0.194038,-0.776404,0.481692,0.406410
-0.195212,0.280257,-0.413360,0.359991,0.509946,-0.781256
-0.016246,0.400518,0.689689,0.716103,0.550693,-0.428875
0.704854,-0.107208,0.019401,-0.688683,0.331982,0.644596
-0.294671,0.666955,0.477641,-0.146610,-0.934583,-0.324131
0.100978,-0.562722,-0.954279,-0.066289,0.114722,0.991183
-0.294386,0.395239,0.571378,0.374291,0.361123,-0.854105
-0.224660,0.011134,0.579461,-0.204636,-0.135139,0.969465
0.021847,0.656972,-0.045139,0.994934,-0.053035,0.085404
-0.402113,-0.416547,-0.961910,-0.016749,0.101163,0.994729
0.564740,-0.268068,-0.142368,0.334028,0.878025,0.342778
0.507932,-0.351857,-0.246387,0.384776,0.390783,0.836204
-0.352146,-0.028218,0.309762,-0.009817,-0.412631,0.910845
-0.189704,-0.052213,0.858441,0.117392,0.922733,0.367128
-0.295146,0.231020,-0.166715,0.930585,-0.193990,-0.310449
-0.163486,-0.803724,-0.259676,0.198812,0.319306,-0.926562
0.040847,0.211921,0.556795,0.989276,-0.117267,0.087077
-0.608440,0.507438,-0.280499,-0.478854,0.505770,-0.717562
-0.132327,-0.455706,0.056068,0.121196,-0.791911,0.598489
0.006459,0.163163,0.778608,0.934836,-0.257190,-0.244817
-0.279949,0.688550,0.399748,-0.346766,-0.700880,0.623314
-0.303982,0.534408,0.184790,0.811159,0.486359,0.324771
-0.262277,0.504175,0.345588,0.450220,0.233624,-0.861813
0.073623,-0.185527,0.862677,0.902079,-0.101909,-0.419366
-0.225043,0.399943,0.484463,0.223955,-0.240260,0.944521
-0.190371,0.169690,0.623371,0.328846,0.933984,0.139763
-0.191316,-0.049717,-0.140524,0.838794,0.120515,-0.530943
0.296097,0.333621,0.634462,0.611103,0.733525,0.297480
0.162819,-0.871581,-0.569341,0.505596,0.624146,-0.595663
-0.091289,-0.593723,-0.308889,0.325177,0.600622,-0.730420
0.105349,-0.074383,0.790248,-0.279153,0.192679,0.940717
-0.349485,0.349650,0.384389,-0.347007,0.606919,-0.715008
0.204999,-0.172953,-0.505190,-0.674500,0.392947,-0.625013
0.168993,0.472982,-0.197271,-0.189223,0.433298,0.881163
0.582882,0.466552,0.455136,-0.339560,-0.111337,0.933972
-0.132043,0.023802,0.358683,0.438602,0.773874,-0.456889
-0.384632,0.163451,0.235458,0.401461,0.532713,0.745014
-0.654035,-0.534024,-0.426488,0.087376,0.626698,0.774348
0.074568,0.395048,0.435477,-0.400717,0.915871,-0.024606
0.228365,0.109895,0.640638,0.552185,-0.833564,0.016227
-0.200251,-0.491410,-0.961328,0.044573,-0.046079,0.997943
-0.343118,0.736731,0.145504,-0.592911,0.157181,0.789779
-0.325452,0.288895,0.679115,0.657611,0.430921,0.617944
-0.312151,0.211153,0.638019,0.472085,0.539430,-0.697245
-0.608724,-0.127555,-0.145666,-0.303060,0.020592,0.952749
-0.102786,0.324024,-0.087949,-0.475459,0.476826,0.739307
-0.080934,-0.504271,0.595531,-0.704794,-0.469103,-0.532173
0.434025,0.418370,0.480745,0.143686,-0.807217,0.572498
-0.041606,0.130723,0.725677,-0.731491,0.558571,0.391048
-0.549921,-0.189558,-0.528600,0.905126,-0.049045,0.422306
-0.152179,-0.157789,0.376920,0.779078,-0.562779,0.276258
0.366583,-0.001151,0.131859,0.347645,0.727223,0.591852
0.092808,-0.260102,0.888900,-0.641420,0.519042,0.564957
-0.082360,-0.397927,-0.197077,0.880729,0.089384,-0.465109
-0.048923,-0.271715,0.259773,0.132622,-0.870352,-0.474236
-0.290589,-0.271331,-0.348854,0.288187,-0.949418,0.124715
0.186475,-0.087053,-0.949365,-0.588914,-0.778618,-0.216644
0.964951,-0.144832,0.033078,0.262621,0.113715,0.958175
0.813717,-0.444476,-0.522068,0.903816,0.232440,-0.359289
0.204999,0.078126,0.741423,0.681024,-0.536453,-0.498422
-0.309397,-0.308571,0.464513,0.664684,-0.640860,-0.384049
0.519904,0.690757,0.264849,0.269318,0.781948,0.562161
0.429375,0.033592,0.455977,0.107347,0.799430,0.591091
0.067158,0.353393,0.706664,-0.305135,0.173685,0.936337
0.413036,-0.047030,0.546286,0.543220,0.800482,0.253259
-0.486085,-0.525770,-0.128819,0.711980,0.098462,-0.695263
-0.524085,-0.272675,0.221683,-0.466787,0.315778,-0.826072
-0.094235,0.363951,-0.092055,-0.659085,-0.141231,0.738689
-0.051585,0.586236,0.331490,0.189025,-0.113981,0.975335
-0.035716,0.649582,0.585928,0.377928,0.836441,-0.396909
0.138119,0.354256,0.201992,0.388090,-0.850773,-0.354361
-0.119027,0.154045,0.731367,0.079460,0.832666,-0.548046
-0.524555,-0.045782,0.483170,-0.310890,0.811572,0.494671
-0.508407,0.119685,-0.671000,-0.036813,0.987535,0.153033
0.162627,0.237355,0.646587,0.570160,0.749753,0.335839
0.209840,0.203186,0.478191,-0.677022,0.735255,-0.032287
-0.229983,0.464344,-0.122256,0.799461,-0.593424,0.093331
-0.240807,-0.003455,0.848256,0.925923,0.377566,-0.010536
0.141824,-0.138593,0.797620,0.677721,0.402438,-0.615417
0.336659,-0.179384,0.835484,-0.553257,0.495626,0.669524
-0.171655,0.405318,-0.394380,0.859839,-0.015117,-0.510342
-0.622685,0.068145,0.488020,0.292479,-0.796273,0.529532
0.667428,0.102025,0.232839,0.061342,-0.873694,0.482593
-0.674931,0.095403,0.051314,-0.569816,0.799831,0.188629
-0.154458,0.541223,0.195622,-0.687372,0.172676,0.705481
-0.149993,-0.635186,0.261907,0.140900,-0.750920,0.645188
0.081125,-0.653422,0.232321,-0.095010,0.496275,0.862951
0.020896,0.539015,0.571927,0.925281,-0.332951,0.181655
-0.104967,-0.185431,0.744430,0.790734,0.379606,0.480249
-0.084546,-0.124676,0.787823,-0.656167,-0.644171,-0.393052
0.437828,0.396967,0.551460,0.104527,0.860191,0.499145
0.146764,0.103273,0.758754,-0.422477,0.883344,-0.203019
-0.526932,-0.021596,0.589808,0.904398,-0.288005,0.314830
0.419020,-0.324599,0.523943,0.396784,0.384138,-0.833667
0.034388,-0.482484,-0.193747,-0.625916,0.212835,-0.750287
-0.483708,-0.002783,0.474343,0.423341,-0.772671,-0.473035
0.251162,0.343987,0.555405,0.715382,-0.480955,-0.506863
-0.284791,0.244265,-0.150289,0.882410,-0.109136,-0.457648
-0.324217,0.067568,-0.727908,0.395176,0.740655,0.543384
-0.545074,0.104809,0.343292,-0.313667,0.270218,-0.910272
0.292299,-0.202227,-0.289262,0.258448,0.922046,0.288160
-0.367911,0.367597,0.545413,0.893087,0.208141,0.398841
-0.252113,0.019004,0.706890,-0.695427,0.678194,0.237559
0.161682,0.300317,0.414589,0.510050,-0.527932,-0.679070
-0.753302,0.194836,0.256216,0.330173,-0.456112,-0.826407
0.624488,-0.501008,-0.264720,0.669287,0.409782,0.619785
-0.306452,-0.168922,0.510557,0.237479,-0.886729,0.396630
-0.089387,-0.330934,0.265431,-0.393004,-0.057566,-0.917733
0.494161,0.454747,0.526918,-0.258854,0.749799,0.608931
0.109246,-0.434111,-0.342937,0.262988,-0.424155,-0.866562
0.446949,0.744985,0.232030,-0.408056,0.900355,0.151163
-0.565024,0.176696,-0.179487,0.332567,0.263938,0.905393
0.204900,0.395239,0.212759,-0.711219,0.454686,0.536124
-0.379124,0.585661,0.476865,-0.382390,0.487859,0.784711
0.153982,-0.114887,0.805154,0.770710,0.200316,-0.604880
0.203764,-0.331510,-0.946648,0.155413,0.468163,0.869868
-0.079983,0.667051,0.483687,0.866699,-0.050927,0.496224
-0.081978,-0.101257,0.622369,-0.378118,0.203113,-0.903201
0.138502,0.137633,0.729977,0.746471,-0.468601,-0.472434
0.779712,-0.113350,-0.608433,0.575602,0.418933,0.702266
-0.011967,-0.452443,0.322954,0.845667,0.402752,0.350196
-0.117983,-0.070448,0.328613,0.472020,0.848325,-0.239879
-0.021186,0.517420,0.487082,0.910174,-0.180197,0.372978
-0.406102,0.471350,-0.273418,0.248483,0.067183,-0.966304
0.561128,0.016412,-0.018301,0.335069,-0.909006,0.247866
0.062885,0.507726,0.127429,0.840435,-0.332650,-0.427801
0.084355,-0.296094,-0.951693,0.280827,0.183428,0.942067
0.040655,0.277378,-0.216542,0.536801,0.826094,-0.171503
0.452741,0.070448,0.461635,0.255481,0.857709,-0.446167
0.020136,0.338709,-0.397872,-0.067275,-0.471447,0.879325
-0.580227,-0.266628,-0.015617,-0.630123,0.765723,0.128894
0.423386,0.438046,0.490316,0.080387,-0.827306,0.555971
-0.172699,0.053460,0.749863,-0.866883,0.225371,-0.444659
-0.193786,0.427969,-0.990235,-0.028311,0.023059,0.999333
0.331627,0.347922,0.523394,-0.132271,-0.991146,0.011552
-0.147524,0.416547,0.387105,0.967229,0.199766,-0.156723
0.182486,0.425761,0.197853,-0.717555,0.654711,0.237630
-0.283938,-0.285440,0.452226,-0.622072,0.504870,0.598442
-0.329441,0.588348,0.174314,-0.496490,-0.460394,-0.735890
-0.093852,0.307419,0.133411,-0.576862,-0.628668,-0.521543
0.260950,0.845379,0.117761,0.008964,0.383836,0.923358
-0.387768,-0.350705,-0.965855,-0.156463,-0.057093,0.986032
-0.055759,0.773779,-0.078313,0.094187,0.128888,0.987176
-0.447708,-0.248680,0.216607,-0.325344,0.943076,-0.068984
-0.755488,-0.116806,-0.176286,-0.347174,0.754183,-0.557386
0.388337,0.448987,0.448960,0.970467,0.218030,0.103229
-0.518571,0.395719,0.617034,0.788092,-0.063493,0.612274
-0.607106,-0.212209,0.534581,-0.199653,0.737262,0.645433
-0.000383,0.220367,0.725321,0.912887,-0.353570,0.204023
-0.236059,-0.085420,0.857923,0.961809,-0.272498,0.025860
-0.045120,-0.455226,-0.962783,-0.087873,0.088409,0.992201
-0.322791,0.540071,0.499725,0.833864,-0.109638,0.540971
-0.293343,-0.402918,-0.480422,-0.599828,-0.076465,0.796467
-0.002754,0.004607,0.212856,-0.204503,0.010997,-0.978804
-0.366960,0.584413,0.527500,0.570756,0.636058,-0.519295
0.262469,-0.304732,0.504284,0.464960,0.429276,-0.774296
0.324026,0.320376,0.611149,-0.657167,-0.685733,-0.312893
0.383113,0.682983,0.079671,0.478570,-0.145875,-0.865847
-0.324403,-0.257415,-0.089436,0.858096,-0.511161,-0.048845
-0.246512,-0.042039,-0.328322,0.958208,0.218768,0.184333
-0.065546,-0.295230,0.802309,0.664725,-0.670840,-0.328808
0.050535,0.019004,0.833026,-0.549115,0.312184,0.775251
-0.385200,0.088684,-0.229832,-0.032944,-0.773864,0.632494
-0.158546,0.297533,0.242377,0.621229,0.265863,-0.737151
-0.012443,0.596027,0.523200,0.512694,0.856704,-0.056594
0.358506,0.739995,0.138617,-0.450767,0.842638,0.294568
0.433839,0.496497,0.462702,0.261399,-0.154135,-0.952845
-0.541276,0.359727,0.121286,0.218486,-0.783678,0.581475
-0.411703,0.516076,-0.179164,0.011134,0.765346,0.643523
-0.291824,0.348402,0.474957,0.942904,0.326083,-0.067831
0.103731,0.324407,-0.996799,0.010144,0.085339,0.996300
0.018426,-0.160380,-0.184531,-0.465461,0.835190,0.292923
0.232163,0.243305,0.552204,0.571005,-0.799572,-0.186113
-0.125010,-0.093291,0.622466,-0.693936,0.157207,0.702665
-0.611953,-0.117478,-0.203317,-0.210427,0.693738,-0.688802
-0.148098,-0.610999,-0.956058,-0.039867,0.236323,0.970856
0.615275,-0.504079,-0.096582,-0.702220,-0.370058,-0.608231
-0.483047,0.146463,0.299706,0.613953,0.758414,-0.218792
0.209747,0.401191,0.165939,-0.512103,0.808265,-0.290618
-0.261900,-0.019963,0.563100,0.771565,0.088770,-0.629926
0.211835,-0.506382,0.195363,0.132779,-0.493746,0.859409
-0.828351,-0.133218,-0.110745,0.270649,0.599987,0.752837
-0.052912,0.361071,0.578976,0.048906,0.057547,0.997144
-0.000191,0.562050,-0.046141,0.926220,-0.276729,-0.256003
0.187993,0.496401,0.181848,0.903855,-0.362707,-0.226913
-0.235873,-0.088588,0.609241,0.463367,-0.382686,-0.799276
-0.070486,-0.392936,0.253727,0.345084,-0.636651,0.689632
0.011683,-0.226221,0.012222,0.632600,-0.247480,-0.733874
-0.340173,0.912564,0.243380,-0.244179,0.957682,-0.152389
0.567210,0.377771,0.094804,0.901140,-0.427651,0.071136
-0.237485,-0.119205,0.580270,0.221873,0.138573,0.965179
-0.561702,0.009886,0.635464,-0.273556,-0.554630,0.785845
-0.343118,0.088204,-0.183044,-0.615553,0.515103,0.596459
0.074284,0.675592,-0.096162,-0.417445,0.616033,-0.668014
-0.401539,-0.218639,-0.131471,-0.009668,-0.592877,0.805235
0.039995,-0.022363,0.815824,0.755412,-0.600345,0.262561
-0.451981,-0.073616,-0.418825,0.310790,0.412011,0.856538
0.420347,0.539975,0.422640,0.581806,-0.718798,-0.380567
-0.056710,0.065745,0.855013,-0.444425,0.433560,-0.783908
0.098131,0.193108,0.590811,-0.246128,0.864451,0.438343
0.498718,0.449180,0.459566,0.629660,-0.239287,0.739101
-0.692029,-0.043286,0.483299,0.013133,0.800778,0.598817
-0.138027,-0.599290,-0.215701,-0.800983,0.577436,-0.158096
-0.507932,-0.276994,0.611181,-0.500963,0.469258,-0.727209
-0.384823,0.475669,-0.150322,0.472323,-0.560915,-0.679915
-0.514106,0.229004,-0.241925,0.001826,0.590706,0.806885
-0.228081,0.153662,0.543700,-0.617544,0.567767,0.544316
-0.323550,0.597562,0.494099,-0.385362,-0.347564,-0.854807
-0.114846,-0.385930,-0.960811,0.078798,0.035596,0.996255
0.467178,0.816393,0.122967,0.207328,-0.115230,0.971461
-0.520948,-0.019196,0.473922,-0.487102,0.864694,-0.122619
0.111617,0.114695,0.627542,0.238214,-0.691056,0.682419
0.095562,-0.368557,0.266984,-0.523403,0.827399,0.203618
-0.322692,-0.500432,-0.966243,-0.176729,-0.078519,0.981123
-0.273299,-0.294942,0.709283,-0.469245,0.801791,0.370055
0.010164,0.749976,0.429463,0.946125,-0.323712,0.007612
-0.420156,0.420002,0.581401,0.331064,-0.582333,0.742486
-0.463571,0.291486,0.572251,-0.557874,-0.772806,0.302569
-0.422058,0.309243,0.377502,-0.149724,-0.543425,0.825998
-0.498626,-0.271427,0.212500,-0.371285,0.565255,-0.736637
0.060513,0.410212,0.634462,-0.381282,0.865542,-0.324749
0.388812,-0.003455,0.536327,-0.447258,-0.769248,-0.456309
-0.027361,-0.193493,0.828144,0.908295,0.229885,-0.349503
-0.476965,0.376811,-0.291202,0.039242,-0.142541,0.989011
0.534341,-0.398694,-0.252886,0.632248,0.588622,-0.503773
-0.210698,0.517420,0.163579,-0.274657,-0.817140,0.506800
-0.390140,-0.310971,-0.089436,0.539532,-0.832855,0.123521
0.018617,-0.106440,0.011479,0.038886,-0.995073,0.091200
0.051962,0.383338,-0.714327,-0.155185,0.028847,0.987464
0.189321,0.690470,-0.181783,0.179027,0.163358,0.970187
-0.346823,0.388041,0.150095,0.543235,-0.276902,-0.792604
-0.006842,0.206642,0.742426,0.999888,0.005776,0.013821
-0.007502,0.328055,0.647622,0.930716,0.174353,-0.321509
-0.286977,-0.397255,-0.477997,-0.671208,-0.011516,0.741180
-0.521992,-0.031960,0.605975,-0.644340,0.596515,-0.478535
0.022989,0.125732,0.780645,0.199107,0.503770,-0.840578
-0.604920,0.085709,0.486274,-0.413447,0.884781,-0.214998
0.414839,0.506382,0.459857,-0.458511,0.323290,0.827799
0.153982,0.132930,0.793708,0.623177,-0.616110,0.481725
0.164529,0.079374,0.725806,-0.489692,-0.667565,0.560855
-0.198917,0.558787,0.126718,0.667281,0.556601,0.494906
0.622778,0.646608,0.264429,0.472459,0.754031,0.456312
-0.372474,0.338324,0.192583,-0.279003,0.959476,0.039543
0.249359,0.109224,0.246710,-0.121743,0.002734,0.992558
-0.461670,-0.008542,0.549682,-0.672668,-0.556911,-0.487205
0.005131,0.052596,0.814240,0.936410,0.323645,0.135609
-0.039803,-0.103081,0.900669,0.858100,-0.483752,-0.172188
-0.642445,0.176408,-0.221069,-0.083197,0.812428,0.577096
-0.229983,0.428448,0.522844,0.745290,-0.514082,-0.424574
-0.209365,0.381515,0.517283,0.932246,0.354331,-0.073255
0.367342,0.420578,0.467908,0.552168,0.245141,0.796879
0.316233,0.398023,0.613930,0.101127,0.718386,0.688255
-0.178305,-0.030617,0.575743,0.018471,0.897605,0.440415
0.249452,-0.216047,-0.966275,0.150006,0.190287,0.970201
0.246130,0.512237,0.190222,0.720939,-0.565257,-0.400913
-0.031350,-0.036280,0.731206,0.779136,-0.056953,-0.624262
-0.687472,0.007486,0.467682,0.068976,0.973792,0.216727
0.123114,0.792494,0.138908,-0.775335,0.421037,0.470727
-0.161491,0.164219,0.580205,-0.066692,-0.851338,0.520361
-0.389856,-0.174777,0.010347,-0.559731,0.724858,0.401599
0.006743,0.745081,-0.032787,0.775385,-0.049710,-0.629529
0.397457,-0.061234,0.556795,0.452052,0.716302,0.531564
-0.015295,-0.117958,-0.002684,0.459761,0.887599,-0.028066
-0.550489,-0.226509,-0.153878,0.692309,-0.641972,0.329514
0.396031,0.768500,0.118699,0.612499,-0.487517,0.622231
-0.726608,-0.421442,-0.098167,-0.016744,-0.188619,0.981908
0.451888,0.833094,0.098749,-0.681436,-0.290881,0.671590
-0.216589,-0.241482,0.016684,0.297745,0.826032,0.478559
-0.261518,0.658892,0.473049,0.074542,-0.891249,0.447346
0.202431,-0.425184,-0.959873,-0.119582,0.203366,0.971773
0.390708,0.669258,0.235134,-0.553035,0.745675,0.371647
-0.137835,-0.506959,-0.256992,0.944822,-0.193230,-0.264524
0.393938,0.859200,0.129143,0.796439,0.575879,0.184521
0.274343,0.165563,0.098684,0.916455,-0.397920,-0.042061
-0.089202,-0.329878,0.563391,0.316035,-0.020353,0.948529
-0.345397,0.490642,0.574385,0.276357,-0.231561,0.932741
-0.404768,0.298013,0.304718,0.029503,-0.736710,0.675565
0.393178,-0.148863,-0.324409,0.409816,0.912168,-0.000105
-0.023940,-0.273154,0.694571,0.804946,0.340973,0.485591
0.043409,0.125252,0.577683,0.790331,-0.181498,0.585180
0.549729,0.367886,0.434960,0.057688,-0.869935,0.489780
0.642821,-0.139169,-0.549261,-0.644009,-0.347473,-0.681553
-0.073999,0.395816,-0.296246,-0.113976,0.701030,0.703964
0.484943,0.408005,0.443884,-0.121629,0.492856,-0.861568
-0.410943,-0.439198,-0.950755,-0.083139,0.004850,0.996526
0.044836,0.677704,0.379442,-0.752941,-0.217711,0.621033
-0.549828,-0.063730,0.616581,0.288294,-0.268588,0.919101
-0.470314,-0.293886,-0.082840,-0.537947,-0.093682,0.837757
0.313004,-0.218255,-0.973066,0.145576,0.124926,0.981428
0.316709,-0.092332,0.014906,-0.023758,-0.996869,-0.075422
0.601882,0.446492,0.074078,0.930204,-0.119187,-0.347153
-0.436785,-0.045878,0.384421,0.540959,-0.822858,-0.173974
0.082453,0.605624,0.361399,0.890663,-0.275339,0.361812
-0.341692,-0.093099,0.593979,0.393023,-0.898148,-0.197134
-0.472123,0.317977,0.660103,0.438641,0.853386,0.281651
0.239196,-0.420194,-0.962363,0.124489,0.039801,0.991422
-0.270829,-0.106248,0.845054,0.913578,-0.387324,-0.123916
-0.503566,0.291871,0.668219,0.297090,0.951294,0.082325
0.450555,-0.079374,0.605555,-0.045063,0.913469,0.404405
-0.186475,0.151166,0.629288,-0.337840,-0.941180,0.006673
-0.295430,-0.347346,0.459566,-0.599253,0.676064,0.428758
-0.219436,0.832038,0.396126,0.995824,-0.058939,-0.069714
-0.260758,-0.051253,0.359395,0.116984,0.841913,0.526780
0.181059,0.359535,0.695929,-0.444549,0.729717,-0.519508
-0.488172,-0.056051,0.492870,0.264839,0.482712,0.834775
0.212310,0.106537,0.143273,-0.690766,0.314397,-0.651151
-0.596658,-0.425569,-0.356646,0.946687,-0.314504,-0.069789
0.147524,-0.371341,0.241375,0.646515,-0.517299,0.560732
-0.209840,-0.115750,0.405924,0.360336,0.602084,0.712497
-0.025076,0.598522,0.457982,0.917345,0.183698,0.353175
-0.544030,-0.001151,-0.178485,-0.048172,0.181614,0.982189
-0.755580,0.317113,-0.442688,-0.094572,-0.140671,0.985529
0.482664,-0.049813,0.590261,0.144810,0.977923,0.150656
-0.481997,-0.111143,-0.109063,0.568205,0.656423,-0.496239
0.143726,-0.030041,0.791897,0.339820,0.509550,0.790494
0.052721,0.021691,0.805865,-0.540414,-0.059713,-0.839278
0.546123,0.035416,-0.174443,-0.498371,0.125504,-0.857831
-0.058988,0.467511,0.573059,0.847031,-0.018782,0.531211
-0.010831,-0.848354,-0.257380,-0.048336,-0.681093,0.730599
-0.888766,0.080622,0.290555,0.723111,0.450387,0.523700
-0.092715,0.242730,0.545801,0.247358,-0.357397,-0.900601
0.244512,0.494578,-0.317425,-0.038367,-0.536037,-0.843322
-0.711029,-0.368174,0.400330,-0.470897,-0.026082,0.881803
0.297998,0.799213,-0.184822,-0.076688,0.495955,0.864955
0.148759,0.826375,-0.015165,0.992842,-0.046899,-0.109841
-0.687472,0.201939,0.286998,0.717115,0.345028,-0.605559
-0.233305,-0.283041,0.025382,0.507672,0.111975,0.854243
0.097464,0.352721,0.665018,-0.568250,-0.754275,0.328879
-0.102688,-0.440254,0.026579,-0.443717,0.668847,-0.596456
-0.147239,-0.088301,-0.531898,-0.031300,-0.768020,0.639661
-0.430326,-0.202803,0.221360,-0.055638,0.993348,-0.100814
-0.230551,-0.252039,0.136774,-0.777066,0.596093,-0.202095
-0.061934,-0.049141,0.670805,0.835804,-0.544235,0.072384
-0.060038,0.437854,0.584602,-0.679181,-0.256941,-0.687528
-0.372375,0.290335,0.562971,0.959400,-0.132330,0.249077
-0.447801,0.097323,0.272480,-0.711457,0.367667,-0.598874
-0.047213,-0.568097,0.202994,-0.302638,0.293092,-0.906922
-0.462713,-0.171993,0.331329,-0.516481,0.217472,-0.828223
-0.470222,0.598714,-0.345653,0.659110,-0.168408,0.732948
0.100125,0.601689,-0.342322,0.445298,0.329022,-0.832739
0.330577,0.294558,0.424742,-0.450797,0.886443,-0.104881
-0.096420,0.161244,0.561645,0.461566,0.153794,-0.873673
0.525128,0.500048,-0.255828,-0.672889,-0.735510,0.079022
-0.323643,-0.480564,-0.558606,0.256984,-0.494540,0.830295
-0.654319,0.238218,-0.028939,0.165069,-0.886085,0.433135
0.822553,-0.594299,-0.530637,0.541787,0.411877,-0.732683
0.050819,0.058835,-0.948524,0.378973,-0.249494,-0.891141
-0.463479,0.158268,0.001099,0.992664,0.033037,-0.116308
0.168327,-0.180823,-0.163579,0.167044,-0.985828,0.015491
0.023557,-0.490162,-0.666182,-0.111315,0.270215,0.956343
0.047114,-0.225741,0.836227,-0.817331,-0.059111,0.573128
0.007694,-0.316921,0.340253,0.715238,-0.372775,-0.591163
0.225611,-0.223438,0.812106,0.773091,-0.288162,-0.565060
-0.184289,0.476821,0.147153,-0.461198,-0.455552,-0.761426
0.259146,0.028218,0.837488,0.950903,0.177489,0.253536
0.500046,-0.299741,-0.063537,0.813482,0.419684,0.402632
0.370380,0.365199,0.459760,0.585337,-0.810064,0.034297
0.290490,0.249353,0.366379,0.972044,0.170093,0.161859
0.354900,0.351473,0.449995,-0.274598,0.608617,0.744434
0.149234,-0.261638,-0.741876,0.285609,0.957973,-0.026726
0.048164,0.255686,0.407023,0.265469,0.373365,0.888890
-0.380735,-0.071312,0.435251,0.643784,-0.740920,-0.191257
0.198633,0.113831,0.655059,-0.491960,0.845187,-0.208887
-0.189037,-0.698052,-0.280499,0.541353,-0.773041,-0.330672
-0.783509,0.148958,0.269991,0.094275,0.576450,0.811675
-0.439254,0.262598,0.366929,-0.157604,0.028532,0.987090
-0.639975,0.189941,-0.475539,0.882925,0.024379,0.468882
-0.700390,0.240234,0.233582,-0.455021,-0.814019,-0.361012
0.376746,0.336980,0.478902,0.818920,-0.473549,0.324225
-0.545074,-0.188790,0.200860,-0.662446,0.698371,0.271003
-0.218868,-0.727517,-0.650888,0.113055,-0.771132,0.626557
-0.155316,0.589404,0.625861,0.650127,-0.477418,0.591107
0.171179,0.035320,0.859443,-0.432683,-0.173579,-0.884678
0.059371,-0.283425,0.759272,-0.562533,0.140492,0.814751
-0.508691,-0.292159,-0.234294,0.962491,-0.271313,0.000088
-0.477724,-0.060946,-0.587319,0.984116,0.112658,-0.137198
-0.018617,-0.604857,-0.957254,0.103866,0.154343,0.982543
0.466517,-0.186006,0.543409,0.996969,-0.076812,-0.012334
-0.483615,0.390344,0.160022,0.009029,0.272851,0.962014
-0.294102,0.866590,0.173796,0.208720,-0.750719,0.626783
-0.599696,-0.566849,-0.217512,-0.093577,0.884960,0.456167
0.039136,0.781745,0.397711,0.873473,0.246528,-0.419844
-0.670849,-0.107016,-0.101465,-0.153626,-0.018207,0.987961
-0.186758,0.499472,-0.141818,0.460994,0.005342,-0.887387
0.019284,-0.289855,-0.150419,-0.748022,0.653113,0.117922
-0.630379,-0.142720,0.344941,-0.074722,0.275610,0.958361
0.170229,0.299453,0.244285,0.618179,-0.227291,-0.752458
0.126529,-0.807755,-0.550361,0.341712,-0.303454,0.889465
-0.227698,0.181687,-0.109742,0.830255,-0.075327,-0.552271
-0.216873,0.126116,0.553723,-0.232694,0.683901,0.691471
0.239387,0.347826,0.583147,-0.457560,0.888798,0.026009
-0.502516,0.025626,0.260226,0.540168,0.346240,0.767031
-0.297616,-0.130915,0.548129,0.747854,-0.655738,0.103546
-0.213737,0.075151,0.180942,-0.677725,0.376136,0.631831
-0.143535,-0.324407,0.562874,0.612258,-0.232992,0.755549
-0.110191,0.604185,0.500922,-0.491560,-0.723898,0.484087
0.562172,-0.435550,-0.279756,0.660878,0.557105,0.502866
0.267501,-0.292734,-0.971352,0.092257,0.134802,0.986568
0.749406,0.014877,0.110712,-0.239043,-0.840631,-0.486003
-0.861313,0.134562,0.286998,-0.467487,-0.529570,-0.707821
0.072098,-0.586620,0.233097,-0.097387,0.469583,0.877501
-0.553057,-0.286495,0.592427,-0.472277,-0.833395,-0.287067
0.128906,0.295902,-1.000000,0.066787,0.079548,0.994591
-0.088628,-0.617141,0.415301,0.020476,0.735667,0.677034
0.016907,-0.024666,0.857180,0.956125,-0.201820,-0.212352
0.025836,0.244265,0.444369,0.872419,0.133452,0.470187
-0.339698,0.650062,0.159893,-0.401060,-0.275741,0.873566
-0.155600,-0.052405,0.320658,0.295078,0.873330,-0.387587
-0.512211,-0.214800,0.613542,0.268409,-0.397106,0.877647
0.597795,-0.495249,-0.497332,-0.430460,-0.226143,-0.873821
-0.306927,-0.264036,0.213018,0.364025,-0.586707,0.723367
0.193600,-0.466840,0.196463,-0.419975,-0.567174,0.708473
-0.540992,0.164603,0.351926,-0.703062,0.678041,-0.214391
-0.687472,0.121989,0.040191,0.206486,-0.923917,-0.322087
-0.069535,-0.845859,-0.259126,-0.048336,-0.681093,0.730599
-0.271966,-0.016413,-0.357487,-0.698273,-0.707673,-0.107767
-0.020044,0.107496,0.856371,-0.520612,-0.821850,-0.231355
0.622308,0.441501,0.483752,-0.020932,-0.922306,0.385894
-0.785602,0.102025,0.265884,0.005369,0.612629,0.790353
0.301988,0.387657,0.583665,0.667602,-0.499813,-0.551810
-0.442670,0.103849,-0.500275,-0.755268,0.654283,-0.038520
0.295146,0.716767,0.136871,0.651284,-0.471933,-0.594229
0.367058,-0.318937,0.516345,0.407112,0.465808,-0.785673
0.400304,0.319224,0.407767,-0.217670,0.974616,-0.052369
-0.451790,-0.005182,0.479322,0.004737,0.772792,0.634642
0.330769,0.465208,0.468878,-0.455343,0.036114,-0.889583
-0.507172,-0.477685,-0.112135,0.340660,0.318098,-0.884740
0.181250,-0.076111,0.558509,-0.179523,-0.833243,0.522950
0.655745,-0.581342,-0.504543,-0.459268,-0.216233,-0.861578
0.117699,-0.600442,-0.350535,-0.627418,-0.416241,0.658096
0.426905,0.774258,0.099492,0.279700,-0.214310,-0.935863
0.025360,-0.175545,0.323989,-0.221005,0.942958,-0.248973
-0.498812,0.024187,0.606105,-0.591696,-0.081059,0.802076
-0.130617,0.044534,0.539884,0.927679,-0.372256,0.028948
-0.651942,-0.504751,-0.406829,0.929837,-0.232303,-0.285374
0.759001,0.054996,0.087690,-0.163978,0.695306,0.699758
-0.051770,0.661292,0.586381,0.439732,0.850311,-0.289148
-0.014912,-0.145504,-0.956640,-0.263094,0.004481,0.964760
0.747985,-0.624053,-0.549811,0.755392,0.268581,-0.597701
-0.641018,0.243593,0.033628,0.141283,-0.922969,-0.358005
0.342834,0.445341,0.476348,-0.398199,-0.234922,-0.886707
-0.303315,-0.301084,0.445824,-0.619167,0.489220,0.614245
0.002279,0.140129,0.597859,0.966567,-0.221538,0.129111
-0.054431,-0.236683,0.845119,0.881952,-0.208146,0.422890
-0.562937,0.026298,0.278495,0.427064,0.681181,0.594650
-0.487986,-0.154237,-0.069325,0.306629,-0.749001,-0.587346
-0.016623,-0.574239,-0.959097,0.111256,0.158319,0.981100
-0.014535,0.073520,0.775827,0.939656,0.091621,0.329626
-0.108196,-0.325079,-0.042584,0.420628,0.150776,0.894617
0.866154,-0.202610,-0.291719,0.154345,-0.488676,-0.858704
-0.340457,0.450715,0.376014,-0.698369,0.110885,-0.707097
-0.529593,0.456186,0.400815,0.606932,0.176140,-0.774989
0.365725,0.388137,0.593494,0.873835,0.414023,-0.254946
-0.698018,-0.336501,-0.123161,0.375590,-0.051147,-0.925374
-0.197966,0.682887,0.360591,-0.700135,-0.036460,-0.713079
-0.397074,0.656013,-0.265884,-0.342883,0.357871,0.868539
-0.115513,-0.239658,0.862256,-0.289983,-0.701007,0.651536
0.663439,-0.561186,-0.504284,-0.480299,-0.228290,-0.846875
-0.515915,0.660908,-0.278204,0.128336,0.279913,0.951409
-0.342834,-0.337364,-0.538365,-0.355975,-0.003288,0.934490
-0.318993,0.245609,0.582792,0.626533,0.775708,0.075721
-0.200436,-0.407812,-0.036473,0.149173,-0.007794,0.988780
-0.535101,-0.213744,0.164775,0.998130,-0.048588,-0.037091
0.513822,0.465496,0.375820,-0.285708,0.791682,-0.540010
0.308255,0.734139,0.440166,0.056375,-0.623665,0.779656
0.395173,0.723966,0.170046,-0.487054,0.691342,0.533690
0.006268,0.195700,0.582856,-0.471086,0.630253,0.617138
-0.170327,0.764277,0.281178,0.212277,0.543889,-0.811864
0.937115,-0.136673,0.029489,0.288712,-0.009977,0.957364
-0.099841,-0.019004,0.115853,0.038156,0.780373,0.624150
0.033437,-0.650446,-0.395609,-0.744279,-0.497350,0.445750
0.303223,0.298494,0.622757,-0.639911,0.766147,0.059438
-0.138879,0.087148,0.501471,0.863858,0.146659,-0.481913
-0.423101,-0.213168,0.599994,-0.684524,0.666486,-0.295337
-0.001426,0.226798,0.777185,0.909910,0.225447,-0.348193
-0.323359,0.795661,0.168300,0.745171,0.143926,-0.651157
0.476112,0.256071,0.554499,0.728959,0.071103,0.680855
0.543838,0.405701,0.244059,-0.657415,-0.586718,0.472829
-0.218010,0.407813,-0.134898,0.908625,-0.371388,-0.190974
-0.710936,-0.380363,-0.160022,0.967962,-0.235987,0.085795
-0.157403,0.475477,-0.137550,-0.662399,0.659798,0.354816
-0.689182,-0.366830,-0.148964,-0.479978,0.766295,0.427099
-0.390807,0.253959,0.657936,0.231924,0.935467,-0.266670
0.103448,-0.343795,-0.959324,0.083723,-0.244953,0.965913
-0.403441,0.510221,-0.171889,-0.201129,0.855803,0.476600
0.292485,0.294366,0.374398,0.853887,0.087380,0.513070
-0.160256,0.355408,-0.392861,0.865006,0.168620,-0.472581
-0.698302,-0.437854,-0.423061,0.403316,-0.453266,-0.794913
-0.404200,0.346866,0.648236,0.121351,0.959502,-0.254224
-0.233305,-0.251176,0.187312,-0.682067,0.728837,-0.059840
0.567778,0.500624,0.034404,0.080574,-0.535576,0.840634
0.131469,0.746136,-0.085912,-0.186992,-0.958551,0.214975
-0.048256,-0.297725,0.456042,0.375230,0.106813,-0.920757
-0.741236,0.175353,-0.433796,-0.174223,0.157214,0.972075
-0.013492,0.570976,0.580464,-0.568650,0.527129,-0.631485
0.146196,0.444764,0.730494,0.629166,0.291279,-0.720629
-0.397173,0.184471,-0.543376,-0.832473,0.550153,-0.065737
-0.003137,-0.148959,-0.450609,-0.162474,-0.979415,-0.119787
-0.587254,-0.430080,-0.197303,0.971166,-0.190384,0.143496
-0.000000,0.042518,0.603744,0.145389,0.904431,-0.401081
-0.106775,0.035512,0.075921,-0.406665,0.607395,0.682418
0.098131,0.396967,0.434410,-0.287445,0.942071,-0.172852
-0.068868,-0.040503,0.627122,-0.125582,0.366922,0.921736
-0.111901,0.599194,0.530313,0.783771,0.555651,-0.277408
-0.424435,0.196276,-0.023442,0.345316,-0.933935,-0.092320
-0.161682,-0.057107,0.381059,-0.226902,0.379550,0.896915
-0.375604,0.549573,-0.174896,0.728652,-0.585534,0.355268
0.410091,-0.135714,-0.117503,0.348706,0.925617,0.147099
0.130710,0.140896,0.429980,-0.641332,0.274867,0.716339
0.538614,0.825607,-0.003039,0.813464,0.377753,0.442244
-0.361736,0.563010,-0.277330,-0.183045,0.894242,-0.408442
0.048349,-0.163451,0.761050,0.220456,-0.782880,0.581806
0.247458,0.101161,-0.499596,0.931768,-0.218672,0.289813
-0.236818,0.480372,0.594076,-0.110571,-0.214670,0.970408
0.113043,-0.247145,-0.582210,0.640076,-0.763399,0.086746
-0.141732,-0.224398,-0.313286,0.028602,-0.982910,-0.181854
0.011491,0.276994,0.528179,0.830588,0.391406,0.396138
0.312627,0.336693,0.364601,-0.423763,0.276282,0.862608
0.584024,0.568001,0.068549,0.947741,-0.281916,0.149364
-0.048825,-0.167291,0.530895,0.991796,0.104824,0.073157
0.179633,0.218543,0.848256,0.962058,-0.257803,-0.089340
0.646816,0.065073,0.477932,0.088564,-0.929708,0.357490
-0.083503,-0.508782,-0.964271,0.014825,0.120138,0.992646
0.082836,-0.025050,0.764866,0.428068,0.760820,0.487762
-0.542893,0.052692,0.617648,0.111303,-0.872322,0.476094
0.073147,-0.371533,0.768455,-0.577188,0.340056,0.742439
-0.151704,0.004607,0.821677,0.203502,-0.929189,0.308537
-0.037333,-0.081197,0.770718,0.900864,-0.357767,-0.245858
0.103639,0.010078,0.774372,0.462665,0.861355,-0.209784
-0.012350,-0.286304,-0.542277,0.798314,0.594062,-0.098916
-0.043415,0.104329,0.758496,0.426765,0.528323,0.733994
-0.156360,-0.310682,0.775827,-0.716629,0.436928,0.543633
0.268643,0.163259,0.652181,-0.688148,0.709949,0.149752
0.427189,0.379499,0.559899,0.164764,0.957950,0.234916
-0.027929,0.751896,0.359880,0.851873,0.147015,-0.502692
0.282129,0.401958,0.458822,0.778614,0.338051,-0.528661
-0.106016,-0.224878,-0.041646,0.548052,0.426307,0.719654
0.784652,-0.595355,-0.554887,0.691423,0.255131,-0.675901
-0.447232,-0.320664,-0.036214,-0.286035,0.949813,-0.126644
-0.463664,-0.112871,-0.065541,0.636796,0.691855,-0.340333
-0.203480,0.094251,0.461538,0.678445,-0.272842,-0.682106
-0.323742,0.136961,0.588386,-0.572667,-0.281112,0.770084
-0.457588,0.551492,0.149287,-0.103193,-0.491101,0.864969
0.132518,-0.313658,-0.951628,0.039015,0.284904,-0.957762
-0.377129,0.622709,0.574935,0.884171,-0.032312,-0.466044
-0.094611,0.358191,0.564167,-0.486701,-0.788084,-0.376890
-0.110289,-0.307899,-0.968636,-0.079975,-0.016768,0.996656
-0.028688,-0.251272,0.075015,0.595005,0.100367,0.797430
-0.748930,0.202515,0.226792,0.514068,-0.307032,0.800915
0.376938,0.612727,0.175575,-0.752780,0.375293,0.540812
-0.234540,0.269220,0.038930,0.799260,-0.445668,0.403192
-0.561511,0.119013,-0.658454,0.116758,0.971574,0.205938
-0.335801,-0.340628,0.734633,-0.189961,0.620687,0.760699
0.557806,0.025339,0.080318,-0.721882,0.681396,-0.120773
0.125202,0.481524,0.352378,0.722942,0.616430,0.312039
-0.475353,-0.376428,0.122353,-0.691505,0.198808,0.694475
0.026311,0.706018,0.097779,-0.654071,0.742072,0.146698
0.155600,-0.215184,0.899764,0.857155,-0.344334,-0.383040
-0.480194,0.333813,0.589679,0.947305,0.319624,-0.021291
-0.084546,0.076207,0.619685,-0.043747,-0.669536,0.741490
-0.058803,-0.615510,-0.285220,0.842053,0.177163,0.509471
-0.440965,-0.116230,-0.041097,0.472898,0.839405,-0.267892
0.024984,0.647567,0.367899,-0.663949,-0.236576,0.709368
-0.345780,-0.134753,0.589356,-0.520784,0.852266,0.049265
0.333238,-0.092619,0.570990,0.100642,0.868725,0.484962
0.090906,-0.064113,0.795357,0.525500,0.286372,0.801149
0.820083,-0.512621,-0.522456,0.698024,0.180600,-0.692926
0.001426,0.574815,0.585411,0.640024,-0.059349,0.766060
-0.519522,0.396199,0.606751,0.764052,-0.277912,0.582228
0.300752,-0.049333,-0.979823,0.126935,0.068206,0.989563
0.148098,0.627699,0.152553,0.029686,0.394447,0.918439
0.597986,0.411459,0.315582,0.923391,0.280983,0.261528
-0.432320,0.402918,-0.414428,0.290351,-0.548546,-0.784087
-0.719482,0.123428,-0.158114,0.710891,0.702534,0.032868
-0.550396,-0.469047,-0.247745,0.913931,-0.027164,-0.404960
0.476205,0.729437,0.253921,-0.172502,0.911293,0.373884
-0.443243,0.556963,0.477706,-0.015493,0.945725,0.324597
-0.229791,0.591324,0.260969,-0.267944,0.180529,-0.946370
0.027453,0.297053,0.636046,0.889551,0.156249,-0.429285
0.338654,0.422881,0.380638,0.315850,-0.851563,-0.418425
-0.162158,0.116997,0.631390,-0.534792,-0.503598,-0.678518
-0.227037,-0.237067,0.161477,0.776642,-0.433881,0.456700
0.082552,0.023899,0.460859,0.720356,-0.614517,0.321644
0.167666,0.645072,0.015100,0.482696,0.016942,-0.875624
0.518380,0.621845,0.501698,0.762315,-0.245186,-0.598966
0.374845,0.073903,0.298283,-0.062775,-0.997967,0.010988
0.000568,0.210097,0.654380,0.830175,-0.358144,-0.427250
-0.207278,0.424609,0.252756,0.402938,0.608689,-0.683476
0.043601,-0.358575,0.046303,0.845191,0.014383,-0.534270
0.017289,0.005086,0.828693,0.655001,0.749680,0.094621
-0.695734,0.388905,0.192583,0.209374,0.730351,0.650193
-0.726417,0.263077,0.044718,0.310019,0.943475,0.117236
-0.599795,-0.279873,-0.143176,0.724501,-0.672362,-0.151747
-0.200534,0.517516,-0.507744,-0.786107,0.067566,0.614387
-0.309681,0.425185,0.493614,-0.122244,-0.211741,0.969650
-0.065929,0.286496,-0.053384,-0.676570,0.610398,0.411906
-0.441435,0.060850,0.604941,-0.546980,-0.324897,-0.771528
-0.221715,-0.458105,0.609144,0.896818,-0.032027,0.441239
-0.367719,-0.172761,0.019692,-0.498280,0.754234,0.427609
-0.387293,0.254055,0.637049,0.705565,0.618140,-0.346527
-0.795192,-0.464536,-0.419375,0.404449,0.450000,0.796192
0.843072,-0.038295,0.052187,-0.167511,-0.432323,0.886023
-0.762613,0.149535,0.256249,-0.366098,0.454432,0.812074
0.004273,0.119589,0.557312,0.244378,-0.856582,0.454474
0.562270,0.429120,-0.331684,0.935749,0.032222,-0.351193
0.647477,-0.369901,-0.508326,0.422604,0.091262,0.901708
0.053765,-0.618294,0.011996,0.951373,-0.062192,-0.301699
0.005317,-0.011901,0.887477,0.917812,0.345025,0.196415
-0.690892,0.097610,0.012449,-0.035513,0.706104,0.707217
0.098507,-0.357328,0.453714,-0.130681,-0.312606,0.940851
-0.500806,-0.014588,-0.192356,0.035996,0.152221,0.987691
0.127956,0.071792,0.198855,0.102275,0.602012,0.791910
-0.072672,0.104233,0.685744,-0.499788,-0.851452,-0.158878
0.499385,-0.492850,-0.635593,0.431375,0.901852,-0.024047
0.284599,0.294654,0.631358,0.369792,0.142436,-0.918132
0.011306,0.038680,-0.964400,-0.161668,0.520143,0.838639
0.151988,0.012094,0.748440,0.804001,-0.491105,-0.335257
-0.123398,0.368461,0.477253,-0.394389,-0.336345,-0.855178
0.004372,-0.185719,0.285285,0.941182,0.043999,0.335023
0.156360,0.800844,0.105604,0.885196,-0.211464,-0.414380
0.114846,0.127555,0.720083,0.925062,-0.243558,-0.291445
0.607582,0.300701,0.034339,0.560049,0.019334,0.828234
-0.036951,-0.461272,0.561063,-0.670453,-0.327963,-0.665532
0.178873,0.130531,0.661461,-0.427947,0.750827,-0.503110
0.270354,0.330262,0.594852,0.402419,0.850105,0.339677
-0.048825,-0.333045,-0.090083,0.819907,0.552377,0.150439
-0.464714,0.057011,-0.208782,-0.676270,-0.488049,-0.551785
0.328681,-0.621941,0.132085,0.831446,0.162036,0.531453
0.619931,-0.205970,-0.471530,0.905175,0.412643,-0.101906
-0.617177,0.336884,0.052543,0.295015,-0.741286,0.602878
0.032962,0.256263,0.826915,0.857362,-0.120993,0.500292
0.376839,0.306939,0.054774,-0.028453,0.312848,0.949377
0.069535,-0.434783,0.190060,0.182830,0.723699,0.665457
0.153037,0.035704,0.828726,0.236286,-0.652626,0.719895
-0.176879,-0.278433,0.784105,-0.097117,0.414690,0.904766
-0.503659,0.366638,0.597310,-0.741438,0.274021,-0.612521
0.581931,0.054036,0.461797,-0.295711,0.603289,0.740674
0.035339,-0.105864,0.833705,0.863687,0.352707,-0.360059
-0.249452,-0.492562,-0.958224,-0.091612,0.123016,-0.988167
0.057284,-0.254439,0.671129,-0.511936,-0.668274,-0.539751
-0.048448,-0.428064,-0.967989,0.083291,-0.049716,-0.995284
-0.168141,0.375852,0.546998,0.972229,-0.182823,-0.146105
-0.062694,0.364814,0.152876,0.407378,0.438737,0.800970
0.035431,-0.389865,0.031041,0.902599,0.396199,-0.168347
-0.223616,-0.074864,0.862612,0.937509,-0.330056,0.110180
-0.216299,0.029945,0.628642,0.513489,0.561996,-0.648451
-0.468128,0.023227,0.472920,0.481693,0.346569,0.804898
0.138879,-0.440158,-0.347496,-0.315418,0.344580,0.884181
-0.120070,0.465208,0.404566,-0.104904,0.833166,0.542981
0.110573,-0.277090,0.766838,0.537842,-0.121556,-0.834237
-0.143158,-0.396967,-0.956316,0.049145,-0.040759,0.997960
-0.222097,0.740186,0.395253,0.208906,-0.328779,0.921012
0.095377,-0.053268,0.058105,-0.310911,0.598302,-0.738491
-0.033153,0.085997,0.862483,-0.641664,-0.693061,0.328532
0.064311,0.737979,-0.058687,-0.678356,-0.206620,0.705082
0.448659,0.705346,0.427717,-0.187762,-0.948478,0.255215
-0.031350,-0.531145,-0.959033,0.039844,0.104575,0.993718
0.308823,0.348690,0.594238,-0.029459,0.498456,0.866414
-0.297616,-0.338228,0.726032,-0.675304,0.736925,-0.030120
0.208605,-0.453786,0.452065,-0.541326,-0.789840,0.288304
-0.609860,-0.359344,-0.390662,0.906736,-0.419139,-0.046396
-0.206327,-0.137634,-0.517735,0.870426,-0.484856,0.085286
0.046830,0.243114,0.658421,-0.298771,-0.596261,0.745123
-0.221999,0.754103,0.387719,0.657564,0.246055,-0.712086
-0.070770,0.542854,0.598377,0.971085,0.203888,-0.124193
-0.357654,-0.391688,0.734827,0.835147,-0.510659,-0.204343
-0.206234,0.917938,0.267404,0.563854,-0.307236,-0.766599
-0.078939,-0.474806,-0.192389,0.994589,0.017478,-0.102402
0.255627,0.277954,0.622175,0.725371,0.042239,-0.687061
-0.062224,0.347442,-0.047305,-0.786445,0.219061,0.577510
-0.602450,-0.121989,0.483752,-0.373539,0.897244,-0.235419
-0.561412,-0.391688,-0.418243,0.972534,0.158749,0.170223
0.433265,-0.039639,0.037055,0.088901,-0.995293,-0.038575
-0.577183,-0.046358,0.530281,-0.703310,0.641235,-0.306876
0.328583,0.079278,0.420506,0.073027,0.510561,0.856735
-0.070103,-0.366637,0.544670,0.525996,0.297010,0.796940
-0.327255,0.610039,0.148640,-0.627888,-0.189299,0.754933
0.117415,-0.065554,0.368804,-0.584534,0.773989,-0.243436
-0.174218,0.324599,0.528438,0.557285,0.812750,-0.169915
-0.394413,0.313562,0.159602,0.071216,0.554359,0.829225
-0.001044,-0.032633,0.997640,0.998000,0.024432,0.058298
-0.435167,-0.393512,-0.442979,-0.673068,0.168434,-0.720145
-0.275103,-0.276131,-0.363469,0.148856,-0.985181,-0.085204
-0.312528,0.510221,0.160669,0.913176,-0.046096,-0.404950
0.335900,0.386409,0.488570,0.107675,0.359896,0.926758
0.386528,0.695076,0.185404,-0.587992,0.799001,-0.125947
-0.395271,0.596410,0.529667,-0.350282,-0.742989,0.570324
-0.208229,0.470775,-0.130372,0.887810,-0.414209,-0.200559
0.111333,0.067377,0.397323,0.998529,-0.010191,0.053257
-0.041415,0.566369,0.597536,-0.614240,0.410295,-0.674068
-0.216873,0.744025,-0.142917,0.509483,0.667816,0.542631
0.538423,-0.351665,-0.246645,0.324152,-0.410359,-0.852368
-0.441151,0.849314,0.251883,0.519052,-0.802007,-0.295584
-0.403342,0.563106,-0.266434,0.853714,0.047796,-0.518544
0.050442,-0.340244,-0.973098,-0.102556,0.027707,0.994341
-0.200720,-0.340244,-0.266175,-0.489900,-0.866048,0.099795
0.019191,0.217103,0.562615,0.435098,-0.888362,-0.146637
-0.746652,0.188598,-0.423222,-0.218613,-0.021282,0.975580
-0.105726,0.236779,0.485918,-0.450473,-0.161255,-0.878106
-0.205475,0.538151,0.386232,-0.560696,-0.305689,0.769529
-0.587254,0.060466,0.512788,-0.763563,0.384582,0.518718
-0.717012,0.079086,-0.141850,0.893864,0.237538,0.380240
0.141732,0.051157,0.430821,0.798256,-0.602315,-0.002055
-0.496341,0.454362,-0.306658,0.153260,-0.074315,0.985388
0.293343,0.713408,0.139037,0.651284,-0.471933,-0.594229
-0.091956,0.055476,0.850066,0.133700,-0.587307,0.798245
-0.115704,-0.157597,0.548323,0.446492,0.492591,0.746993
-0.325260,0.776082,-0.152423,-0.191628,0.925249,-0.327404
-0.094803,-0.603225,-0.280305,-0.361413,-0.348575,-0.864798
0.875181,-0.321528,-0.534937,0.891443,-0.099429,-0.442089
-0.439823,0.392552,0.575775,-0.595401,0.216146,-0.773808
0.193977,0.171513,0.433957,-0.176292,0.711397,0.680320
-0.196354,-0.210385,0.022505,0.028541,0.092689,0.995286
-0.348725,-0.046838,0.127882,0.702931,-0.196649,0.683532
0.070295,0.144064,-0.969541,-0.242415,0.182936,0.952769
0.330102,0.420002,0.231028,0.789699,0.200634,0.579759
0.169660,0.381323,0.325799,-0.319518,-0.778629,0.540042
-0.647002,0.202515,0.364051,0.625983,-0.013871,0.779713
-0.002853,-0.267684,0.096712,-0.016744,-0.247988,0.968618
-0.511544,0.298973,-0.463446,-0.112623,0.864514,0.489828
-0.385107,-0.575103,0.158987,0.660069,0.021221,-0.750905
-0.232452,0.011229,0.768940,0.115873,0.987141,-0.110120
0.208414,0.723774,0.453164,0.141290,0.879096,-0.455222
-0.241950,-0.471062,-0.465904,0.247672,0.598133,-0.762165
0.266933,-0.063730,0.588968,0.350329,0.416855,-0.838750
0.041798,-0.577310,0.003136,0.926177,-0.208909,-0.313931
-0.856564,0.128227,0.282439,-0.530662,-0.425266,-0.733176
-0.539948,0.602265,0.205840,-0.638384,0.756721,0.140853
-0.174693,0.665227,0.510266,0.116175,-0.724109,0.679831
-0.738105,0.399654,-0.433472,-0.799156,0.477904,0.364634
0.386818,0.043094,0.125424,0.560675,0.666199,0.491754
-0.249928,-0.637873,-0.951208,0.109756,0.341914,0.933300
0.861973,-0.274115,-0.257057,-0.047081,0.322178,0.945508
-0.242616,-0.088684,0.575258,0.201943,-0.713522,-0.670898
-0.122447,0.751032,0.534387,0.947898,-0.088743,-0.305963
-0.393468,0.609080,0.449833,0.147970,-0.918489,-0.366718
0.380359,-0.039064,-0.025835,0.930278,-0.193189,-0.311866
-0.135841,0.329878,-0.084425,-0.548669,0.221787,0.806085
-0.064218,-0.452635,-0.055097,0.746177,0.214225,0.630339
-0.500429,0.181304,-0.001552,0.067955,-0.940027,0.334262
-0.112092,-0.059027,0.793384,-0.592487,-0.522011,-0.613566
-0.110666,0.475094,-0.289973,0.386019,0.626520,0.677099
-0.653652,0.398023,-0.449219,-0.492840,0.457373,-0.740215
-0.127863,0.777426,0.259191,0.930185,-0.192968,0.312279
-0.007027,0.249161,0.427361,0.762549,0.403509,0.505668
-0.088819,0.458393,0.339347,0.100371,0.003722,0.994943
-0.537571,0.166811,0.371100,-0.006860,-0.638434,0.769646
-0.674931,-0.108168,-0.181201,-0.046477,0.929609,-0.365605
0.164338,-0.210480,0.891454,0.782036,-0.432593,-0.448646
-0.012727,0.206353,0.566495,0.509266,0.396429,0.763867
-0.021470,-0.191093,0.948718,-0.131348,-0.737333,0.662637
0.336561,0.739322,-0.168979,-0.118646,0.286298,0.950766
-0.517243,-0.500816,-0.266854,0.856977,-0.509907,0.074732
0.653843,-0.075727,0.016135,-0.567012,0.790337,0.232087
0.114562,0.500528,0.728360,0.276156,0.516092,-0.810794
-0.610718,-0.392552,0.358748,0.873012,-0.392121,-0.289984
-0.034956,-0.150014,0.868561,0.223647,-0.964658,0.139345
0.633231,0.013437,0.102564,0.108767,0.827654,0.550599
-0.492167,-0.053172,0.500501,0.203527,0.729272,0.653252
0.348911,0.433247,0.430595,-0.213900,0.815033,0.538488
-0.502992,-0.048757,0.466195,0.927750,-0.024480,0.372398
-0.156360,0.398887,-0.102467,-0.397670,0.335546,0.853971
-0.092617,0.943949,0.286578,0.148645,-0.044880,0.987872
-0.138978,0.553508,-0.094222,0.903115,-0.075258,-0.422753
0.025934,-0.144640,-0.338765,0.748308,-0.619048,0.238359
-0.555904,0.305115,0.310247,0.217942,-0.907328,0.359525
-0.152846,0.631251,-0.146603,0.431195,-0.778007,-0.456921
-0.073999,0.021019,0.859411,-0.644878,0.228217,-0.729417
0.427757,0.445149,0.390533,-0.523947,0.795201,0.305181
-0.532347,-0.298397,-0.198015,0.889299,-0.176435,0.421921
-0.319179,0.840484,0.168623,0.436758,-0.492494,0.752789
0.212693,0.086284,0.447505,-0.526408,-0.074439,0.846967
0.145628,0.161340,0.821386,0.896523,-0.414003,-0.157631
-0.385676,0.483924,-0.247551,0.950673,0.069554,-0.302296
-0.667335,0.047029,0.364504,0.631630,0.504919,0.588303
-0.246130,0.337269,-0.140460,0.860946,-0.098805,-0.499009
0.518095,0.378827,0.036893,-0.195907,0.284123,0.938560
-0.374086,-0.604761,-0.510525,-0.569969,-0.602263,0.558940
0.475161,0.459257,0.492159,-0.651465,0.752574,-0.096047
0.460150,0.938670,-0.024833,-0.616552,-0.781035,-0.099234
-0.118174,0.293215,0.022957,-0.215811,0.962237,-0.165910
-0.511921,-0.131299,0.314935,-0.593866,0.222107,-0.773299
-0.448375,0.239754,0.549649,0.935135,0.064721,0.348330
-0.247458,0.181687,0.533417,-0.355354,-0.812751,0.461692
0.563980,0.520299,0.296666,-0.233481,-0.447775,-0.863125
0.108010,-0.077551,0.757687,0.820319,-0.304387,-0.484175
0.110573,-0.475477,-0.525981,0.245906,-0.040432,0.968450
0.131092,0.686342,-0.100947,0.029246,0.998739,0.040795
-0.101076,-0.216432,0.706923,0.447648,0.771529,-0.452056
0.035339,0.228813,0.446406,-0.072290,-0.993662,-0.086081
-0.097557,0.029849,-0.986290,-0.030550,0.197929,0.979740
-0.447899,-0.200308,0.573835,0.433808,-0.438410,-0.787151
-0.090246,0.505135,-0.103469,0.830643,-0.483033,0.276967
-0.258671,-0.206545,0.428202,-0.764385,0.371876,-0.526711
0.428326,0.282272,0.323148,0.166978,-0.558957,0.812210
-0.648712,-0.390825,-0.138455,-0.099848,-0.814661,-0.571277
0.088437,0.106728,0.726323,0.805367,-0.417124,-0.421179
-0.094426,0.462041,0.368901,0.514302,0.537264,0.668462
0.356610,0.370477,0.485724,-0.738047,0.005092,-0.674730
