-0.106956,-0.141194,0.525493,0.018328,-0.428723,0.903250
0.207307,-0.269321,0.896849,-0.544345,-0.771886,-0.328451
0.043670,0.732670,0.329394,0.950328,-0.136001,0.279966
0.050680,-0.117797,-0.421982,0.997295,0.056503,0.047017
0.409154,0.098694,0.578638,0.124147,-0.544510,0.829516
-0.153392,-0.610641,0.017461,0.357742,-0.422735,-0.832656
-0.429100,-0.177535,0.730508,-0.160215,-0.985326,-0.058851
0.164984,0.047605,-0.242676,-0.216957,-0.648238,-0.729875
0.774970,0.199440,-0.977948,0.013125,0.175791,0.984340
0.121312,0.027194,0.758792,0.945125,-0.269736,0.184340
0.190389,0.042626,0.111022,-0.269118,0.668816,-0.693008
0.012602,0.587057,0.297187,0.954498,-0.250390,-0.161979
0.027698,-0.410889,0.438038,0.745304,0.583155,0.323192
-0.492990,-0.157684,-0.235440,0.311242,-0.119945,-0.942731
0.693088,-0.167766,0.421856,0.742815,0.091130,0.663266
-0.667815,-0.176664,-0.962912,0.076516,0.154032,0.985099
0.427014,-0.209708,0.627624,-0.059261,0.992580,0.106173
-0.027969,-0.164032,0.878234,0.778764,0.365927,-0.509533
-0.106618,-0.239950,0.765070,0.028777,-0.887717,0.459489
0.206900,-0.140199,-0.963382,0.085109,0.152995,0.984555
-0.036394,-0.190603,0.813993,-0.222380,-0.875236,0.429546
0.217484,-0.270130,0.342390,-0.427472,0.874923,0.227546
-0.661883,0.607156,0.080212,0.779535,0.604460,-0.164178
-0.281172,-0.022526,0.411952,0.418596,0.898372,0.133063
-0.440424,-0.444928,-0.149335,0.018720,0.362193,0.931915
-0.034103,-0.465526,0.539792,0.958729,-0.129660,0.253036
0.124207,-0.189607,0.849574,0.719901,0.287532,0.631718
-0.133981,0.034910,-0.972501,-0.088775,-0.159932,-0.983128
0.238174,-0.381393,0.412141,-0.289372,-0.948999,-0.125162
-0.651843,0.123584,-0.172344,0.567027,-0.068202,-0.820871
-0.095228,0.035284,0.239741,0.831861,0.190090,0.521415
0.341084,-0.127815,0.409708,0.975574,-0.217309,0.032127
0.194095,0.405476,0.545364,0.973404,-0.158410,0.165499
0.247002,-0.002987,-0.967573,-0.084197,-0.154068,-0.984466
-0.504450,0.579092,-0.987726,-0.076572,0.150582,0.985628
0.298021,-0.169073,0.491262,0.319427,-0.946905,-0.036580
0.383881,0.149658,0.232600,-0.800800,0.583786,0.133839
-0.713441,-0.401244,-0.948817,-0.013537,0.124337,0.992148
0.599947,-0.622526,0.547954,-0.727602,0.660689,-0.184621
0.339266,-0.116552,0.038132,-0.439497,0.880403,-0.178137
-0.507280,0.489235,0.007950,0.796275,0.597102,0.097027
0.540640,0.142689,0.382727,-0.031725,-0.872881,0.486900
-0.157366,0.563971,0.075158,-0.794744,0.597298,0.107786
-0.339670,-0.461979,-0.215099,-0.390522,0.365709,0.844837
0.480728,-0.173055,0.556272,0.053391,0.998529,-0.009400
0.247339,0.437523,0.398815,-0.769423,0.603203,0.210082
0.159521,0.050716,0.331214,0.971492,-0.155459,0.178985
-0.388936,-0.171499,0.401405,-0.626673,0.736973,0.253281
0.840477,-0.117237,-0.960777,0.031864,-0.180523,0.983055
-0.195917,0.690666,0.258921,0.945710,0.208553,-0.249277
0.242350,-0.137959,0.953165,0.282880,0.949122,0.138368
0.028775,-0.503485,0.642048,-0.701935,0.052296,-0.710318
-0.398236,-0.163534,0.640149,-0.027172,0.996082,0.084152
0.006875,-0.375607,-0.939823,0.438149,0.490558,0.753245
0.522779,-0.240448,0.773341,-0.571163,-0.817284,-0.076289
0.479646,-0.669259,-0.948566,0.053353,0.155959,0.986321
0.030799,-0.286060,0.944783,0.766532,-0.642187,0.004953
0.687358,-0.139514,0.532054,-0.356791,0.904057,0.235330
0.076965,-0.249595,0.939808,-0.688146,0.670547,0.277168
0.453904,0.241818,0.126749,-0.716681,0.629360,0.300458
0.584312,-0.004480,0.457265,-0.501080,0.815355,0.290026
0.137551,-0.089856,0.239098,0.028878,0.258764,0.965509
-0.563959,0.660797,-0.989107,-0.017433,-0.047962,-0.998697
-0.446154,-0.313441,0.043783,0.621618,0.726993,-0.291670
-0.587142,0.552272,-0.988354,-0.067927,-0.018564,0.997518
0.488004,-0.055196,0.424697,-0.277042,0.960139,-0.037159
-0.313858,-0.115370,0.070826,-0.247728,-0.120729,0.961278
-0.050075,-0.300871,0.727400,-0.287783,0.956750,-0.042559
0.408681,0.364032,-0.032560,-0.358338,-0.388097,-0.849102
-0.277733,0.170628,-0.970806,-0.010728,0.164728,0.986281
-0.455455,-0.142812,-0.959976,-0.132533,0.070166,0.988692
-0.070494,-0.535719,-0.937657,-0.010565,-0.227717,0.973670
0.004449,0.187493,0.031116,0.944148,-0.157154,-0.289633
-0.063419,0.119975,0.245643,0.973527,0.072980,-0.216607
0.755020,-0.441195,-0.325486,-0.242842,-0.477932,0.844162
-0.986187,0.274923,-0.973977,0.112512,0.195882,0.974152
0.560520,-0.310019,-0.955723,-0.048045,0.069215,0.996444
0.889069,-0.403236,-0.953008,-0.003193,0.133202,0.991084
-0.356247,0.808961,-0.992764,0.072035,0.103185,0.992050
-0.000335,0.361481,-0.127345,-0.489967,-0.827890,-0.273003
-0.538147,-0.663845,-0.945678,0.009827,0.133057,0.991060
0.721997,-0.098942,0.594193,-0.271414,0.957465,-0.097955
0.057014,-0.118979,0.652674,0.683552,-0.109890,-0.721582
0.025341,-0.316116,-0.205070,0.838244,0.533331,0.113603
0.067393,-0.563348,0.741793,0.934946,-0.141442,-0.325377
0.199960,0.564406,0.217642,0.958786,-0.277294,0.061955
-0.204140,0.357063,0.099988,-0.326527,0.316258,0.890708
0.229413,0.463410,0.176708,0.788835,-0.364919,0.494544
-0.263040,-0.130864,0.557089,-0.336163,0.505870,-0.794412
0.498991,0.207468,0.138238,-0.720632,0.421355,0.550590
-0.765468,-0.025077,-0.967589,-0.082526,0.060806,0.994732
0.113693,-0.903235,-0.241468,0.297770,-0.547996,0.781686
-0.389274,-0.398568,0.406066,0.722766,0.518982,-0.456363
0.154133,0.208525,0.769841,0.464264,0.304478,-0.831716
0.271263,0.326323,0.503159,0.464542,-0.491685,-0.736510
-0.538349,0.642129,-0.988307,0.081227,0.010679,0.996638
0.297346,-0.470317,-0.949021,-0.066555,0.096025,0.993151
-0.161208,-0.319353,0.302319,0.621627,0.662769,0.417514
-0.203868,-0.390604,0.003602,-0.126942,-0.042656,0.990993
0.575279,0.035718,-0.972549,-0.073648,0.254544,0.964253
0.513006,-0.285874,-0.958752,0.095794,0.194317,0.976250
0.558768,-0.027007,0.221362,0.357739,-0.875858,-0.323877
0.266277,-0.279900,-0.958062,0.012873,0.250863,0.967937
-0.263110,-0.123086,-0.957606,-0.067610,0.229773,0.970893
-0.556814,0.342813,-0.979831,-0.003977,0.056135,0.998415
-0.116997,-0.661294,-0.938897,0.039512,0.165697,0.985385
0.142068,0.324207,0.541079,0.966786,0.116095,-0.227697
-0.025744,-0.274051,-0.951815,0.121544,0.236449,0.964012
-0.001080,0.253703,-0.356767,0.914143,-0.322488,0.245650
0.346477,-0.085563,0.231501,0.112973,0.113067,0.987144
0.159320,0.242688,0.454048,0.951185,-0.308603,-0.003462
0.065101,0.748165,0.331654,0.950328,-0.136001,0.279966
-0.336165,-0.351773,0.736724,0.506502,-0.338654,0.792949
-0.498654,0.152831,0.443720,-0.681507,-0.468794,-0.561944
0.413399,0.685439,-0.992937,0.073776,0.122648,0.989704
0.327671,-0.312383,-0.956837,-0.032339,0.133845,0.990474
-0.718225,-0.051213,-0.964324,-0.074962,0.118734,0.990092
0.719570,0.136030,0.098497,0.708905,-0.036822,0.704343
0.135532,-0.265276,-0.957073,0.128508,0.160242,0.978677
0.682977,0.018855,0.473275,-0.441084,0.897441,0.006683
-0.734938,-0.070877,0.266314,0.382006,0.818721,0.428680
-0.432942,-0.666459,-0.941628,-0.032694,0.092958,0.995133
-0.607969,0.229870,0.449276,0.641549,0.736561,0.214223
-0.421757,0.438581,-0.023394,0.012037,-0.955703,0.294086
0.705622,-0.145302,0.649818,0.478763,-0.709288,-0.517394
0.715934,-0.470255,0.311454,0.164466,-0.870450,-0.463970
0.347621,0.394400,0.484465,-0.166140,0.970396,0.175296
-0.597858,0.580647,0.018842,0.688842,0.635190,0.349329
0.478366,-0.591536,0.407840,0.803479,0.322688,-0.500294
-0.297815,-0.162663,-0.959631,-0.098329,0.168519,0.980782
0.631757,-0.540946,0.586361,0.429706,-0.878583,0.208435
0.479781,-0.189048,0.115166,-0.249968,0.018037,0.968086
0.182775,0.273305,0.363406,0.954153,-0.231027,-0.190312
-0.216945,-0.892719,-0.936778,-0.010309,0.054052,0.998485
-0.108033,-0.337585,-0.696857,0.984801,0.163976,-0.057269
0.071979,-0.324704,0.508856,-0.187955,0.289910,0.938416
-0.040100,0.716802,0.026204,0.542689,0.180485,-0.820314
-0.136610,-0.539888,0.242174,0.301050,0.415742,-0.858212
-0.043000,0.073180,-0.968986,0.023442,0.190747,0.981359
-0.284270,0.114063,0.040612,-0.578810,0.608235,-0.543166
-0.097857,0.732047,-0.989782,0.004539,0.059863,0.998196
-0.478301,-0.581269,-0.118729,-0.571962,-0.047576,0.818900
0.282517,-0.280647,0.882896,-0.233926,0.367669,0.900055
-0.102846,-0.253391,-0.100035,-0.365515,-0.027378,0.930403
0.292155,-0.369321,0.834585,-0.709809,-0.594612,0.377633
0.791280,0.029558,0.401279,0.246025,0.644924,-0.723563
0.691537,0.130554,-0.975531,-0.021251,0.116730,0.992936
-0.155276,0.437648,-0.151815,0.420823,0.871768,0.250855
0.036460,0.084630,-0.238266,-0.041528,0.826865,0.560865
-0.022914,-0.102116,0.405595,-0.287687,-0.009452,0.957678
0.379701,-0.499627,0.743441,0.244701,0.673831,0.697189
-0.047311,-0.472371,0.564293,0.954899,-0.188569,0.229367
0.524803,-0.237772,0.321201,0.580792,-0.483180,0.655147
0.852879,-0.290106,-0.958909,0.012589,0.060397,0.998095
-0.160735,-0.178407,0.795127,-0.236005,-0.940711,-0.243650
0.644023,0.197698,-0.976268,-0.118590,-0.042360,-0.992039
0.002832,-0.497200,0.769103,-0.456731,0.032168,-0.889023
-0.152985,-0.049845,0.606467,-0.577212,-0.753322,-0.315171
-0.610865,0.733977,0.017226,0.972564,0.222981,0.066319
0.441905,0.521593,-0.067765,0.585205,-0.663068,-0.466771
0.101497,-0.803173,0.569300,0.768722,-0.345450,-0.538266
-0.512874,-0.291039,-0.956335,-0.003473,0.229776,0.973237
0.102373,-0.062041,-0.966741,0.135302,0.153484,0.978844
0.472369,-0.170317,0.525619,-0.483608,0.868573,-0.108188
-0.765266,-0.002738,-0.967824,-0.070095,0.105877,0.991906
0.323833,0.379465,-0.980412,-0.038228,0.139871,0.989432
-0.099745,-0.489794,-0.933404,0.128956,-0.506683,0.852433
-0.055669,0.094088,0.244622,0.968010,0.248830,-0.032257
-0.660333,0.910642,-0.985152,0.074179,-0.042142,0.996354
-0.020960,-0.221344,0.604724,0.853915,-0.336402,-0.397068
0.211215,-0.543373,0.812517,0.991974,-0.095523,-0.082838
0.188031,-0.125513,0.841146,-0.479409,-0.315128,-0.819061
-0.249696,0.230989,0.141189,-0.755162,-0.618153,-0.218212
0.064295,-0.365650,0.517269,0.342867,0.328184,0.880191
-0.666063,0.934163,-0.992278,-0.086125,0.306320,0.948025
-0.200767,-0.032607,0.196673,0.249350,0.334593,0.908775
-0.230758,-0.057312,0.194946,-0.096218,0.063774,0.993315
0.224625,0.164592,0.763940,0.849629,0.053761,-0.524634
0.483422,-0.064779,0.116547,0.570735,0.176254,-0.801995
0.306375,-0.271126,0.880337,-0.463221,-0.085073,0.882150
-0.028846,-0.465028,0.775225,-0.699063,0.277602,-0.658975
-0.068067,0.322900,0.026015,0.595790,0.095073,-0.797493
0.367032,-0.639142,-0.947546,-0.014518,0.082077,0.996520
0.293841,-0.178904,0.326317,-0.521413,0.840459,-0.147503
0.091320,0.225327,-0.974416,0.099633,0.179518,0.978696
0.323495,0.417175,0.466996,-0.322239,0.852723,0.411127
-0.401067,-0.229433,0.368020,0.162807,-0.436826,-0.884691
0.646380,-0.561419,0.456418,0.850027,-0.520597,0.080199
-0.644763,-0.104853,0.264603,0.273933,0.849414,0.451061
0.516243,-0.285003,-0.956414,0.033178,0.166900,0.985415
-0.414880,-0.436776,-0.946792,-0.045075,0.194556,0.979855
-0.067730,0.160361,0.032623,0.848867,-0.054165,-0.525823
-0.723346,-0.167579,-0.959411,0.105468,-0.177488,-0.978455
0.045019,0.137586,0.741731,-0.750913,-0.347871,0.561351
0.089704,-0.159241,0.907805,0.746858,-0.601246,0.284088
0.428158,0.591786,-0.988166,0.027753,0.077351,0.996618
-0.246665,-0.347978,-0.943575,0.257187,-0.066926,-0.964041
-0.242485,0.076105,-0.965737,-0.002198,0.207425,0.978248
0.342433,-0.228189,-0.008185,-0.355975,0.895329,-0.267710
0.061666,-0.214685,0.683390,0.819571,0.423141,-0.386335
-0.512199,0.501369,-0.137453,-0.813568,0.047164,0.579554
0.198274,-0.135843,0.415625,-0.030085,0.796913,0.603344
-0.342162,0.140822,-0.392396,-0.049262,0.974199,0.220248
-0.145708,-0.043621,0.590771,0.599762,0.703386,0.381489
0.941030,-0.078656,-0.261934,0.592563,0.477561,-0.648694
0.032148,-0.079900,0.842040,0.132018,0.986867,-0.093089
-0.266545,-0.446857,-0.940640,-0.202162,0.215571,0.955332
0.668082,0.022776,0.457045,-0.419597,0.907163,0.031533
-0.019882,-0.175668,0.602229,0.928473,-0.088897,-0.360603
0.018599,-0.577847,0.710638,0.756409,-0.568297,-0.323858
0.091723,-0.491351,-0.949539,-0.214953,-0.243292,-0.945835
0.233724,-0.755693,-0.937532,0.059379,0.154624,0.986187
-0.509435,0.480834,0.007165,0.796275,0.597102,0.097027
-0.237903,0.456628,0.020255,-0.052340,-0.706351,0.705924
-0.717415,0.285875,0.184273,-0.446986,-0.859322,-0.248533
0.409219,-0.163720,0.598195,-0.309794,0.947713,0.076606
-0.727793,-0.191350,-0.288209,-0.368090,0.797783,0.477549
-0.433818,0.238270,0.105968,0.329746,0.206325,0.921248
-0.617602,0.234537,0.198258,0.415649,0.682461,0.601234
-0.035114,0.479465,0.396947,0.884036,-0.259588,-0.388710
0.716810,-0.372682,-0.330759,0.357351,0.408050,-0.840117
-0.255225,0.057063,0.122935,0.592807,0.727233,0.345994
0.188772,-0.634848,0.532494,0.878336,0.146777,-0.454953
0.840884,0.208525,-0.981526,0.041512,0.191961,0.980524
-0.261086,-0.198070,0.684458,-0.155424,-0.980633,-0.119172
0.778207,-0.265464,-0.959835,0.015387,0.199845,0.979707
-0.148740,-0.581891,-0.940310,0.011099,-0.098125,0.995112
0.252728,-0.389919,0.821887,0.741493,0.517346,-0.427250
-0.008291,-0.064841,0.832184,-0.590029,-0.727773,-0.349589
-0.085590,-0.441257,-0.389916,-0.554864,0.707190,0.438187
0.414209,0.423833,0.466259,0.069835,0.879060,0.471568
-0.349912,0.062290,0.202166,0.449145,-0.021854,0.893191
-0.398236,-0.097013,0.080965,-0.349881,-0.076097,0.933698
-0.194638,0.145302,0.138521,0.698033,0.399694,0.594134
0.124006,0.104418,0.799490,-0.599397,0.748445,-0.283818
0.102978,-0.132109,0.871972,0.941349,-0.191343,-0.277939
-0.172195,-0.934723,-0.933906,0.012932,0.178850,0.983791
-0.172462,-0.176167,0.616700,0.451925,0.675533,0.582597
0.156761,0.384132,0.564905,-0.205557,-0.358123,0.910766
-0.390890,0.291413,0.088719,0.692820,0.589670,0.415078
0.140587,0.241382,0.357159,0.772932,0.016353,-0.634279
-0.385226,0.296640,0.088672,0.692820,0.589670,0.415078
0.347353,0.155570,-0.029939,0.129309,-0.549850,0.825194
-0.488341,0.375607,-0.980585,0.063301,0.034284,0.997405
-0.361574,0.104232,0.329174,-0.659506,-0.748551,-0.068727
0.260144,-0.245613,0.673063,-0.138234,-0.986694,-0.085594
0.187830,-0.197448,0.490712,-0.055791,0.986279,0.155371
-0.333471,0.260797,-0.974369,-0.002662,0.102968,0.994681
0.224493,-0.309271,0.847754,0.700512,0.668401,-0.250046
-0.191602,0.755072,0.271493,-0.838070,-0.271282,0.473334
-0.057961,0.289795,-0.307750,0.994029,-0.008119,0.108814
-0.258120,0.529434,-0.986392,0.009429,0.089506,0.995942
-0.490970,-0.442439,-0.948142,-0.026350,0.181931,0.982958
0.191602,0.462851,0.570540,0.958782,-0.052824,-0.279190
0.342026,0.377910,0.483445,-0.321404,0.940122,0.113451
0.470954,-0.384816,0.287722,0.876731,-0.389571,0.282094
-0.316622,-0.136652,0.568625,-0.473707,0.198435,-0.858036
0.106483,-0.239514,0.546557,-0.279458,0.960121,-0.008367
-0.275845,-0.937834,-0.933106,0.043110,-0.176536,-0.983350
-0.379364,-0.189670,0.405831,0.646007,-0.570869,-0.506738
-0.376871,-0.312694,0.385160,0.827989,0.017129,-0.560482
0.159859,-0.220721,0.586361,-0.423494,0.453893,-0.783986
-0.546909,0.947044,-0.996060,0.089519,0.165075,0.982210
-0.431798,-0.310765,0.380640,-0.378481,0.146887,0.913880
0.139641,0.160673,0.209135,0.025575,-0.125589,0.991753
0.198611,0.118171,0.722080,0.839017,-0.426196,-0.338242
0.232782,0.314810,0.501024,-0.384396,0.789064,0.479185
0.518061,-0.278282,0.762307,0.860825,0.401318,-0.312929
-0.020351,0.113503,-0.272309,0.843443,0.073085,-0.532224
0.114977,-0.302053,0.974668,0.669027,0.735017,0.110242
0.551084,0.349223,-0.317842,-0.628820,0.328965,0.704533
0.040573,0.738146,0.097901,-0.206251,0.122432,0.970809
0.216945,-0.490230,0.789978,0.853195,0.013908,0.521407
-0.209060,-0.395706,0.008405,-0.126942,-0.042656,0.990993
-0.519612,0.555508,-0.986345,-0.070323,0.144199,0.987047
-0.066521,-0.121033,0.591744,0.446510,0.826119,-0.343738
-0.041178,0.737213,-0.991697,0.005821,0.048193,0.998821
0.035114,-0.053703,0.581762,0.078758,0.192813,0.978070
0.405176,-0.124579,0.238172,0.024339,0.435638,0.899793
0.260950,-0.472433,-0.950763,0.022270,0.062130,0.997820
0.127309,0.508837,0.210359,0.970499,-0.075665,-0.228923
-0.237092,0.711762,-0.989468,0.043688,-0.000163,0.999045
-0.230491,0.585190,-0.031289,0.944037,-0.310373,-0.111635
-0.423238,-0.703360,-0.939996,-0.086479,0.138478,0.986583
-0.367838,0.285999,0.576896,0.983120,0.120928,-0.137298
0.284808,-0.289608,0.206074,-0.131884,-0.319266,0.938443
0.089029,0.746734,-0.990112,0.039858,0.045343,0.998176
-0.339332,-0.730242,-0.938175,-0.099413,0.076106,0.992131
-0.361775,-0.506223,-0.180961,0.448472,-0.839030,0.308062
-0.055871,0.381456,0.398187,0.958697,-0.021017,-0.283653
-0.336099,0.342066,0.513204,0.890710,0.334065,0.308279
0.216406,-0.086123,0.821542,0.652701,-0.707209,-0.271728
-0.254279,0.461295,-0.984650,0.060864,0.076019,0.995247
0.764119,-0.086123,-0.961734,0.160573,-0.194353,-0.967700
0.486589,0.005165,-0.970461,-0.078928,0.225777,0.970976
-0.636203,0.569882,0.089457,0.890648,0.446954,-0.083539
0.371075,-0.158681,0.767675,0.166095,-0.548374,0.819572
-0.328279,0.027940,0.600675,-0.087106,-0.524700,0.846819
0.305902,0.344929,0.446294,-0.689810,0.712593,-0.127961
-0.151570,0.486932,-0.986706,-0.091801,-0.148115,-0.984700
0.572112,-0.390977,-0.955315,-0.009918,0.127955,0.991730
0.112751,-0.010205,0.822562,0.462161,-0.869877,0.172396
0.291415,0.302552,0.510802,0.437216,-0.566238,-0.698726
0.690460,0.467331,-0.989845,-0.013827,0.197112,0.980283
0.569417,-0.130678,0.512341,0.327238,-0.943406,-0.053865
0.161681,-0.229123,0.532666,0.117530,-0.965907,0.230673
0.717818,-0.529184,-0.946871,0.001973,-0.042651,0.999088
0.780700,-0.469010,-0.951517,-0.029363,0.246536,0.968689
-0.402412,0.348662,-0.096315,0.555169,-0.166464,-0.814909
-0.201779,0.660361,-0.988872,0.072257,0.089288,0.993381
0.230420,-0.042875,0.896064,0.799024,-0.586234,-0.133756
0.106684,0.044244,0.517175,0.988528,0.072725,-0.132374
0.001347,-0.251525,0.794295,0.614341,0.777538,-0.134238
-0.383946,-0.502676,-0.938944,-0.045333,0.129815,0.990501
0.454105,0.223958,0.139368,0.827376,-0.438869,-0.350489
-0.025069,-0.060548,0.868158,0.095134,-0.960789,0.260451
-0.553511,0.710018,-0.989939,0.015417,0.043497,0.998935
-0.009167,-0.128127,0.599466,-0.274944,0.161252,0.947842
0.301052,-0.649470,-0.947703,0.049536,0.063670,0.996741
0.110596,-0.140136,0.789774,0.900303,-0.418990,-0.117908
0.135663,0.157188,0.762354,0.572497,0.038775,-0.818989
0.116659,0.070753,0.736033,-0.280573,-0.919066,-0.276760
0.156827,-0.582763,-0.943810,0.168193,0.099953,0.980673
-0.612012,0.270939,-0.088923,-0.081857,0.666747,0.740776
0.504314,-0.724953,0.453796,0.439972,-0.853846,-0.278158
-0.408006,-0.089546,-0.960934,-0.014196,0.196517,0.980398
-0.281711,-0.339016,-0.315032,-0.671557,-0.444914,-0.592505
-0.003170,-0.533789,0.634530,-0.088985,0.978781,0.184580
-0.385160,0.101867,-0.353110,-0.386145,0.857585,0.339765
0.283126,0.620473,-0.987773,0.023528,0.063040,0.997734
0.684458,-0.208712,0.421574,0.825052,0.356282,0.438580
-0.470753,-0.325637,0.165752,-0.664597,0.342580,0.664040
0.756978,-0.130678,0.548158,0.293560,-0.944153,-0.149658
-0.438606,-0.494773,-0.128366,-0.474083,0.648127,0.595966
0.053645,-0.205102,0.677504,0.892742,0.177594,-0.414092
-0.029652,-0.182949,-0.957810,0.086876,0.266092,0.960025
-0.718966,0.488986,-0.987349,0.008189,0.082366,0.996568
-0.039828,-0.285127,0.387530,0.892157,-0.448722,0.051994
-0.274833,0.179714,0.581040,-0.465954,-0.625552,-0.625758
0.632094,-0.344803,-0.954985,-0.009088,0.060264,0.998141
-0.600215,-0.368886,-0.951830,0.010091,0.103819,0.994545
0.326256,-0.267890,0.761538,-0.059622,0.998173,-0.009785
-0.090782,0.238395,0.658293,0.885616,0.427455,0.181566
0.102842,0.253018,0.539431,-0.792562,0.536841,-0.289218
0.563622,-0.155134,0.598682,-0.079656,0.789320,-0.608793
0.068812,-0.742190,-0.934126,0.041261,0.057208,0.997509
-0.035114,-0.944181,0.553792,0.436387,-0.841359,-0.318877
0.383342,0.028127,0.394562,0.669530,-0.627328,-0.397730
-0.820868,0.564530,-0.980428,0.050549,-0.006682,0.998699
0.364741,-0.010268,0.408939,-0.491168,0.192312,0.849571
0.090308,-0.054760,0.454503,0.878525,-0.460018,-0.128750
0.369188,-0.626322,0.419706,0.940110,0.013834,0.340589
-0.320933,0.385252,-0.977477,-0.110690,0.139872,0.983963
0.202182,-0.616490,0.570602,0.877813,-0.233875,-0.418027
0.200499,-0.271002,0.757850,-0.069062,-0.955112,-0.288083
0.287910,-0.360299,0.853278,0.738422,0.667840,-0.093399
-0.385769,-0.247106,0.709586,0.063755,-0.978695,0.195173
-0.052971,0.478408,0.403382,0.884036,-0.259588,-0.388710
0.347148,-0.060174,-0.966333,0.066318,0.152211,0.986120
-0.378690,0.387119,0.499973,0.848221,-0.093551,0.521315
-0.353824,-0.357374,0.011089,0.389832,0.124345,0.912452
0.324709,-0.215744,-0.960494,-0.060900,0.166212,0.984208
0.059844,-0.367517,0.242472,-0.020827,0.088410,0.995866
0.232309,-0.708463,0.643021,0.995849,0.090474,-0.009984
0.841760,-0.451213,-0.955660,-0.019920,0.150615,0.988392
0.338995,0.050654,0.242708,0.209215,0.307903,0.928130
-0.058701,0.681270,0.089080,0.723506,-0.301654,-0.620922
-0.119559,-0.169632,-0.955911,0.130390,0.261382,0.956388
0.060050,-0.094088,0.422892,-0.700498,0.564075,0.437174
0.138900,-0.103361,0.805156,0.381236,-0.789666,-0.480715
0.480390,-0.157374,0.570555,-0.087497,0.994768,0.052736
-0.804558,0.715184,-0.980365,-0.429141,0.265007,-0.863487
0.413061,0.481332,-0.043265,0.399171,-0.685619,-0.608760
-0.206970,0.622588,-0.046419,-0.819520,0.295061,0.491250
-0.141529,0.101867,-0.005438,0.976596,0.181414,-0.115539
-0.087614,-0.550342,-0.216637,-0.051786,-0.313465,0.948187
0.110526,-0.173180,0.909767,0.848504,-0.524505,0.070251
0.008694,-0.674113,0.754569,0.924258,-0.269952,-0.269951
-0.507819,0.731986,-0.992074,0.108678,0.011602,0.994009
0.189850,0.252645,0.472882,0.964668,-0.196147,-0.175905
-0.035785,-0.287803,0.492156,0.212881,0.899004,0.382719
0.484565,-0.320846,-0.338042,-0.364713,-0.279491,0.888183
0.144359,-0.337398,0.802205,0.740935,0.284941,-0.608131
-0.410634,0.416802,0.515448,0.967395,0.162398,0.194355
0.423711,0.133230,0.409127,0.685824,-0.028045,-0.727227
-0.180957,0.528812,0.244073,0.958191,0.087793,-0.272326
-0.381721,0.330367,-0.102233,-0.389774,0.353163,0.850501
-0.903425,0.437213,-0.982829,-0.028390,0.083695,0.996087
0.162421,-0.026011,-0.967024,0.050353,0.127962,0.990500
-0.167678,0.776914,-0.993910,-0.026194,0.241181,0.970127
-0.149012,0.582204,0.245376,0.897570,-0.386468,-0.212157
0.124072,0.213068,0.207424,-0.358892,0.131189,-0.924114
0.574604,-0.612819,0.546196,-0.727602,0.660689,-0.184621
-0.100012,-0.338706,0.748903,0.293263,-0.115488,0.949031
0.348160,-0.524704,0.451191,0.654089,0.523793,0.545718
-0.180957,0.552769,0.242535,0.962741,-0.017374,-0.269867
0.514219,0.164530,-0.976410,-0.117046,0.048704,0.991932
-0.254414,0.544245,-0.025466,0.850382,-0.257732,-0.458720
0.533832,-0.226571,0.656316,0.177366,0.894146,0.411151
-0.336165,-0.249844,-0.952458,-0.105388,0.325402,0.939684
0.519073,-0.026633,0.206451,0.349439,0.892592,0.284907
0.188031,-0.621717,0.648138,0.946218,0.323253,0.013358
0.272073,-0.344555,0.854346,0.673821,0.708772,-0.208823
-0.631958,0.340635,-0.979737,-0.006937,0.094008,0.995547
0.373971,-0.740386,0.570744,0.361276,-0.596899,0.716374
0.238779,-0.137648,0.961154,0.485536,0.858468,0.165189
0.220651,0.047106,0.790873,-0.149995,0.612370,0.776212
0.740800,0.078096,-0.240777,0.884869,0.344459,-0.313616
-0.009097,-0.193092,0.411403,0.995000,-0.075214,0.065705
-0.339131,0.292907,-0.977304,0.040050,0.172783,0.984145
-0.071440,0.219850,0.717371,0.903725,0.398145,-0.157357
0.123130,0.005103,0.382492,0.093949,0.566171,0.818916
0.083838,0.080274,0.528099,0.720337,0.205100,-0.662607
0.272275,0.183012,-0.240589,-0.502555,0.767871,0.397256
-0.072785,0.207156,0.390952,0.939287,0.306651,0.153961
0.473513,-0.124455,-0.963790,-0.017990,0.110493,0.993714
-0.645504,-0.482452,-0.945835,-0.085580,0.101482,0.991150
0.321607,0.112508,0.216998,-0.295241,0.667288,0.683783
-0.293031,-0.384069,0.262280,0.690210,0.171897,-0.702895
0.292225,0.454636,0.391674,-0.744291,0.666825,0.037079
0.122994,-0.225140,0.614220,-0.055470,0.972951,0.224253
0.013815,-0.360983,-0.235754,0.405562,0.913433,0.034045
0.174214,0.201369,0.502233,0.807216,-0.360395,0.467458
0.225369,-0.778531,0.624124,0.949166,0.299197,0.097802
0.157436,0.225389,0.518132,0.959456,-0.254615,0.120892
-0.538822,0.168388,-0.975923,-0.025090,0.143505,0.989331
0.665590,0.210019,-0.980506,0.105539,0.203192,0.973434
-0.441703,0.206659,0.662735,0.625718,-0.623003,0.469409
0.161142,-0.755819,-0.219886,0.379036,-0.163646,0.910797
-0.033362,-0.320099,-0.947860,-0.118211,-0.204092,-0.971788
-0.159320,0.644493,0.258356,0.924588,0.258650,-0.279709
0.162150,0.075358,0.434993,-0.645571,0.296316,-0.703872
-0.206768,0.750156,-0.989406,-0.117191,-0.209846,-0.970686
0.038886,-0.185998,0.870496,0.664655,-0.201943,-0.719342
-0.782518,-0.360485,-0.952851,-0.002548,0.185609,0.982620
-0.439820,-0.088674,0.251073,0.930152,0.292004,0.222601
-0.318304,-0.208524,-0.288570,0.774742,0.614704,0.148031
0.348567,-0.216179,0.614110,-0.329013,0.811116,0.483572
0.941367,-0.132794,-0.947546,0.054274,-0.298240,0.952947
0.188233,0.094027,0.733349,0.801546,-0.560797,0.207440
0.107091,-0.154200,0.138897,0.845391,-0.213845,0.489474
0.467046,0.552707,-0.991085,0.036832,0.037521,0.998617
0.093949,-0.555756,-0.361805,0.068333,0.007851,0.997632
0.441839,-0.600435,0.749814,0.854693,0.517814,-0.036987
0.294245,0.137710,-0.020459,0.277446,-0.463022,0.841804
0.016715,-0.339701,-0.107506,0.836220,0.541720,0.085293
-0.005053,-0.323833,-0.948001,-0.043135,-0.466777,-0.883322
0.137148,0.591040,-0.989782,0.041313,0.041055,0.998302
-0.287235,0.172309,0.025576,-0.502497,-0.055327,-0.862807
0.242888,-0.808899,0.694456,0.971163,0.197797,-0.133109
0.201104,-0.862103,-0.935366,0.068785,0.107833,0.991787
-0.216406,-0.786185,0.645282,-0.367715,0.905455,0.211984
0.293097,-0.292719,-0.951391,0.105096,0.201361,0.973863
-0.490834,0.205725,-0.974746,-0.040594,0.130515,0.990615
0.249157,-0.330927,0.853074,0.683552,0.719498,-0.122797
-0.301793,-0.419103,0.732533,0.286933,0.416293,0.862768
-0.057352,0.442004,0.400243,0.918589,-0.066943,-0.389504
0.612279,-0.101120,0.572800,0.196871,-0.948067,0.249822
0.170644,-0.303547,-0.955864,0.117193,0.212869,0.970027
0.496630,-0.237834,0.766765,0.821846,0.441822,-0.359669
0.900932,-0.166957,0.355511,0.926617,0.374066,0.038156
-0.188097,-0.379153,0.239772,0.614385,0.535565,-0.579397
-0.082760,0.303112,0.392317,0.631174,0.105804,-0.768391
-0.556814,-0.243746,0.265780,0.012275,-0.169395,0.985472
-0.070157,0.491226,0.114271,0.067969,-0.100906,0.992571
0.045357,-0.129496,0.509955,0.897550,-0.321171,-0.302082
0.975064,-0.200249,-0.960259,-0.005916,-0.019884,0.999785
0.261695,0.460485,-0.986000,0.002850,0.169869,0.985463
-0.323022,-0.094088,-0.963037,-0.001638,0.206416,0.978463
-0.371006,-0.142127,0.084293,-0.322720,-0.126489,0.938004
-0.111809,-0.169695,0.791674,-0.498975,-0.604028,-0.621429
0.897427,-0.401120,-0.317528,-0.318267,-0.451715,0.833462
0.056208,-0.228874,0.314687,-0.106661,0.983448,0.146472
0.045493,0.095333,-0.256614,-0.121022,0.922253,0.367155
-0.554794,0.956504,-0.995354,0.089519,0.165075,0.982210
-0.078717,-0.170006,-0.955927,0.213640,0.262941,0.940861
0.214584,0.634163,0.209433,0.300652,-0.672460,0.676318
-0.191466,0.223335,0.169378,-0.508619,0.254923,0.822388
0.174823,0.448787,0.556006,0.980024,-0.040045,-0.194808
-0.036057,0.295334,0.300498,0.960612,0.096924,-0.260441
0.816553,0.103049,-0.973522,-0.050740,0.151657,0.987130
-0.059713,-0.258058,-0.069335,0.835684,0.548748,0.022532
0.263916,-0.899938,-0.934895,-0.007212,0.191473,0.981471
-0.355103,-0.363908,0.738340,-0.488505,0.263739,-0.831748
-0.353149,0.416739,0.498905,0.902088,0.061971,0.427079
-0.154602,0.695831,-0.990269,0.033361,0.036077,0.998792
0.042054,0.198631,0.740961,0.884804,-0.091346,0.456922
-0.064295,0.444743,0.404905,0.918589,-0.066943,-0.389504
0.258120,0.638145,-0.990096,-0.018824,0.128632,0.991514
-0.509168,-0.147915,0.603798,0.464062,0.788783,0.403073
0.214181,-0.312134,-0.956225,-0.029480,0.208231,0.977635
-0.811567,-0.153080,-0.966506,0.055400,0.209592,0.976218
0.523857,-0.004605,0.205949,0.349439,0.892592,0.284907
-0.781844,-0.288550,-0.957088,0.113515,0.214437,0.970119
-0.440288,-0.083074,0.081562,-0.697934,-0.218238,0.682099
-0.120028,-0.485749,0.247385,0.355671,0.486854,-0.797792
0.282451,-0.329558,0.856527,0.698568,0.705446,-0.119784
-0.048997,-0.117361,0.245517,-0.192075,-0.024967,0.981063
-0.295055,-0.665027,0.683594,0.373143,0.387341,0.843049
0.214247,-0.716863,0.604897,0.955863,0.149397,0.252993
-0.047446,0.464219,0.401468,0.880652,-0.193303,-0.432534
0.569351,0.311637,-0.981511,0.011131,0.187454,0.982210
-0.263312,0.011574,0.602182,0.638138,0.613871,0.464695
0.210540,-0.091288,0.223685,0.178732,-0.375362,-0.909482
-0.826664,-0.022091,-0.969551,-0.014519,0.028269,0.999495
0.271666,0.146111,-0.027381,0.245230,-0.492743,0.834905
0.435369,0.095769,-0.975452,-0.014929,0.139901,0.990053
-0.699015,-0.329247,-0.221942,0.509124,0.653160,-0.560513
-0.054386,0.459801,0.030394,0.769683,0.102295,0.630177
0.129666,-0.028811,0.513722,0.944046,-0.322056,-0.071113
0.323224,0.181332,-0.975970,0.013778,0.154042,0.987968
0.234061,0.655134,-0.085643,0.365559,0.706296,0.606228
-0.152245,-0.302551,-0.926325,0.270051,0.711960,0.648217
0.174486,-0.034536,0.796728,-0.616885,0.551879,0.561144
-0.223481,-0.802302,-0.937218,-0.027325,0.015273,0.999510
0.256302,0.656316,0.238956,-0.724004,-0.054195,0.687664
-0.669699,-0.286248,-0.266957,-0.530633,0.147466,0.834675
-0.024732,-0.341568,-0.953934,0.064511,0.455011,0.888146
-0.704811,-0.220162,-0.959678,-0.068513,0.209574,0.975390
0.110999,-0.242564,0.949649,0.890869,0.444277,0.094709
0.386575,-0.818232,0.518242,-0.739478,0.673041,0.013733
-0.047648,-0.411512,-0.870418,-0.425025,0.901594,-0.080509
0.244238,-0.037772,0.904775,-0.697956,0.672386,-0.246484
0.399919,-0.232980,0.623418,0.324578,-0.937601,-0.124717
0.661476,0.014437,-0.969347,-0.001779,0.256476,0.966549
-0.044415,0.141817,-0.285399,0.989545,0.058695,-0.131741
0.298354,-0.302302,0.465490,0.909899,-0.395966,0.123675
0.289930,-0.207405,0.523422,-0.711511,0.696491,0.093018
-0.698209,-0.498444,-0.171293,0.948504,-0.244690,-0.201164
0.276520,-0.145239,0.109139,-0.476906,0.625051,-0.617958
-0.157028,-0.112507,-0.142178,-0.220467,-0.054799,0.973854
-0.066854,-0.447106,-0.792427,-0.132441,-0.977316,0.165265
-0.236488,0.002303,0.602119,0.912492,0.370781,0.172855
-0.408343,0.411015,0.520581,0.967395,0.162398,0.194355
0.438873,0.540075,-0.073400,0.464693,-0.511803,-0.722577
0.143146,0.569135,0.203296,0.946599,-0.272558,-0.172227
-0.288313,0.199066,0.572517,0.039659,-0.974810,0.219484
0.649617,0.465152,0.112482,0.759959,-0.569924,-0.312487
-0.599339,0.645489,0.000793,0.978257,0.180288,-0.102515
-0.251720,-0.331176,-0.106941,-0.682817,0.496539,0.535920
0.375255,-0.096204,0.434177,-0.566213,0.690577,0.450007
-0.126770,-0.326758,-0.926310,0.536123,0.828342,0.162547
-0.022647,0.009459,0.659345,0.917241,0.363861,-0.162093
0.349036,0.721344,0.141676,-0.821847,-0.432227,-0.371143
0.193087,-0.309147,-0.954954,0.015350,0.207488,0.978117
-0.542660,0.312633,0.329849,-0.679018,-0.069308,0.730843
0.461789,0.206596,0.124395,0.772780,-0.535164,-0.341190
-0.414547,-0.951587,-0.933671,-0.013656,0.115889,0.993168
-0.044481,0.673491,-0.992623,-0.000916,0.050594,0.998719
0.425262,-0.598693,0.332988,-0.727564,0.604092,0.325151
0.115042,-0.236029,0.745027,0.965831,-0.249699,-0.069436
0.097384,0.165961,-0.972972,0.000079,0.122617,0.992454
0.005391,0.720660,-0.990755,-0.102325,0.032051,0.994235
0.729681,0.211450,0.438258,-0.705395,0.337121,0.623512
-0.139440,-0.310080,-0.943606,0.524371,0.455900,0.719160
0.452690,0.243124,-0.977854,-0.067330,-0.181087,-0.981160
-0.207645,-0.549658,0.652282,0.003460,0.695052,0.718952
0.029923,-0.193964,0.657634,0.759039,0.634723,0.144868
-0.173947,0.521407,0.037771,-0.304598,0.725135,-0.617575
0.702857,-0.124704,0.629131,-0.011816,0.949019,0.314998
0.425056,-0.300311,-0.952097,0.210230,0.209060,0.955038
-0.174552,0.032918,0.587020,0.759397,0.437636,0.481446
-0.664175,-0.071748,-0.317779,-0.626512,-0.238566,0.742003
-0.406793,0.179466,0.340491,0.808364,0.537452,-0.240195
-0.153795,0.680522,0.270787,0.950277,0.259146,-0.172676
-0.200434,-0.423646,0.740961,0.250344,-0.646229,-0.720913
-0.036998,0.227007,-0.341730,0.962142,-0.207795,0.176361
-0.420947,-0.035158,-0.230418,-0.019246,0.709669,0.704272
-0.723145,0.694461,-0.991917,-0.114323,0.010791,-0.993385
-0.706432,0.132795,-0.973208,-0.028210,0.130917,0.990992
-0.066385,0.242253,-0.973867,0.064463,-0.220807,-0.973185
-0.106483,-0.424953,-0.807416,0.461626,0.884362,-0.069324
-0.120028,0.324269,0.252046,0.834311,0.326018,-0.444565
-0.429034,-0.179465,0.158548,-0.690092,0.259796,0.675484
0.814735,-0.177909,-0.962080,-0.025285,-0.023045,0.999415
-0.105138,0.452458,0.015641,-0.049970,0.538394,0.841210
0.240465,-0.172184,0.369684,-0.186794,0.871660,-0.453120
0.486388,0.118730,-0.976504,0.013955,0.085049,0.996279
-0.026756,0.301431,0.399506,-0.413241,-0.166508,0.895269
0.177382,0.473118,0.207032,0.838336,-0.254599,0.482049
0.113356,0.035408,0.481122,0.915621,-0.354240,0.190139
-0.081481,0.113068,0.670677,0.985693,-0.078038,-0.149396
-0.179809,0.656565,-0.990049,0.074692,0.080311,0.993967
-0.439009,0.345239,0.335374,-0.590429,0.070093,0.804040
-0.749899,0.527629,-0.988166,-0.019306,0.115022,0.993175
-0.045357,-0.613503,0.671509,0.871882,-0.370830,0.319854
0.174079,-0.262725,0.522354,-0.183389,0.982600,0.029432
0.062004,-0.129433,-0.961829,0.037926,0.076706,0.996332
-0.784472,-0.339576,-0.243790,0.908080,0.357228,0.218585
-0.210812,-0.821095,-0.935272,-0.015894,-0.002043,0.999872
-0.510447,0.658992,-0.128617,-0.734568,0.039033,0.677412
0.223411,-0.167081,0.479349,0.184914,0.825423,0.533370
0.481669,0.369198,-0.983551,0.068517,0.129669,0.989187
-0.627713,-0.472682,-0.207754,0.925982,-0.211286,-0.312915
0.702993,-0.545301,-0.952851,-0.091564,0.036302,0.995137
-0.074336,-0.650840,-0.937249,-0.031660,0.121330,0.992107
0.304150,-0.135283,0.044677,-0.514345,0.841234,-0.166657
0.238508,0.486123,0.363877,0.742590,-0.658142,-0.124132
0.106820,-0.156751,0.891418,-0.748495,0.662815,-0.020783
-0.307926,0.212135,0.499910,0.923899,0.378798,0.054069
0.179673,-0.251898,0.277112,0.844247,-0.526258,0.101488
0.036595,-0.162725,0.503049,-0.444289,-0.394574,0.804313
0.092061,0.088426,-0.970901,-0.002330,0.137106,0.990554
0.051087,0.183136,0.749955,0.886808,-0.006564,-0.462092
-0.492924,-0.081393,-0.246459,-0.128368,0.711903,0.690446
0.327605,-0.303111,-0.956602,-0.031725,0.168110,0.985258
0.217887,-0.823957,0.662437,0.956473,0.150493,-0.250022
0.369726,0.426696,0.474499,-0.152004,0.958562,0.240945
0.260613,-0.173677,0.571120,-0.304404,-0.950415,0.063637
0.021635,-0.304418,-0.093051,0.894223,0.333680,0.298365
0.226986,-0.225202,0.621283,-0.053022,0.988352,0.142650
-0.562745,0.918979,-0.993125,-0.153184,-0.093135,-0.983799
0.216270,0.122341,0.714954,0.834598,-0.475922,-0.277387
0.565440,0.170691,0.409959,-0.459527,0.881144,0.111450
0.367168,-0.609770,-0.944705,-0.017318,-0.063709,-0.997818
-0.012536,-0.074548,0.813836,0.984464,0.079777,-0.156420
-0.347958,-0.426446,-0.946855,-0.131480,0.213707,0.968010
0.687761,0.210953,0.428432,-0.722404,0.333959,0.605478
-0.386711,-0.715992,-0.937814,-0.056946,0.095567,0.993793
-0.234871,0.210953,0.576441,-0.667134,-0.744257,-0.031835
-0.496293,0.815122,-0.992592,0.038684,-0.014897,0.999140
0.160266,0.369322,0.554577,0.855878,-0.488735,0.169149
0.638902,-0.300062,0.656755,0.464667,-0.184450,-0.866061
0.624007,0.329682,0.148252,-0.509436,0.756136,0.410771
0.692142,-0.118482,-0.313792,0.477154,0.374006,-0.795263
0.866626,0.006597,-0.970179,-0.057906,0.249096,0.966746
-0.029520,-0.282638,0.529323,-0.225614,0.928945,0.293530
0.769713,-0.013068,0.370736,0.359793,0.813450,-0.456999
-0.482208,0.050218,-0.346282,0.298807,-0.796471,-0.525688
0.268433,-0.343434,0.745309,0.987862,-0.077610,-0.134559
-0.338053,0.674612,-0.987695,0.048164,0.222541,0.973733
0.456870,0.694960,-0.993455,-0.001488,0.123645,0.992325
-0.164713,0.055259,0.634907,0.329680,0.678253,-0.656722
0.169904,0.079403,0.743065,0.955071,0.220018,0.198573
0.170780,-0.235905,0.889614,0.647350,0.743791,0.166474
0.238915,-0.345612,0.728452,-0.447987,-0.503455,-0.738810
0.127782,0.421157,0.209527,0.866082,-0.267963,-0.422017
-0.209463,-0.198879,0.810932,-0.278868,-0.808788,-0.517779
-0.091320,0.224082,-0.973490,0.077436,-0.236403,-0.968565
0.057286,-0.197822,0.813412,-0.011529,0.983280,0.181733
-0.209397,0.426447,-0.983331,-0.162005,-0.136490,-0.977305
-0.487062,0.016988,0.071438,0.992808,-0.060434,-0.103341
-0.069215,0.080398,0.675715,0.589234,0.129117,-0.797579
0.026756,-0.096453,0.661432,0.599873,0.186411,-0.778077
-0.011795,-0.601992,0.704108,-0.784772,0.539975,0.304236
0.735880,0.221158,-0.980208,0.067433,-0.155339,-0.985557
0.459765,-0.223398,0.756767,0.121459,0.990129,0.069940
0.698612,0.243809,0.430708,-0.649550,0.437656,0.621725
-0.106347,0.117175,0.674742,0.967262,0.236584,-0.091823
0.731705,0.194026,-0.975923,-0.046982,0.159116,0.986141
-0.418318,-0.243932,-0.097744,0.939082,0.192525,0.284710
0.248417,-0.049346,0.825827,-0.580066,0.797384,-0.166443
-0.087207,-0.463596,-0.857171,0.106817,-0.960142,0.258298
-0.294985,-0.214996,0.413537,0.378153,0.065548,0.923420
0.019273,-0.341070,-0.249770,0.193974,0.980065,0.042981
-0.695174,-0.065277,0.255170,0.461035,0.786837,0.410285
0.124545,-0.031113,0.849464,0.939350,0.293492,-0.177436
0.353688,-0.104418,-0.965172,0.068672,0.156117,0.985349
0.101090,-0.397635,0.639741,-0.508535,0.472503,-0.719815
-0.026419,-0.138892,0.765242,0.603621,0.746195,0.280775
0.228199,-0.181456,0.228629,-0.273793,0.592201,-0.757849
-0.296873,-0.473926,-0.939745,-0.115209,0.187733,0.975440
-0.690929,-0.442563,-0.220781,0.040785,0.364608,0.930268
0.055060,-0.257312,0.579627,0.504261,0.267936,-0.820933
-0.251045,0.219229,0.146667,0.126864,0.920049,-0.370695
0.102711,-0.038767,0.779525,-0.005315,0.257567,0.966246
-0.386308,0.252023,0.496394,0.937696,0.347451,-0.002105
0.111065,-0.677162,-0.939384,0.092247,0.105769,0.990103
0.016916,-0.229869,0.679984,-0.456362,0.730180,0.508498
0.002832,0.417113,0.319867,0.965148,-0.120566,-0.232278
-0.519949,0.001992,-0.329504,0.317795,-0.751895,-0.577634
-0.293706,-0.625513,0.014040,-0.494189,-0.297672,-0.816804
-0.134454,-0.361481,-0.864909,-0.023783,-0.995652,0.090062
0.247138,0.262103,-0.022421,0.113171,-0.074332,-0.990791
-0.553984,-0.539141,-0.943920,-0.132157,0.024062,0.990937
0.430922,-0.785190,0.655264,-0.133072,0.109868,0.984998
0.167205,-0.171810,-0.959082,-0.168986,-0.227521,-0.958998
-0.218426,-0.318419,0.757253,-0.240587,0.840670,-0.485172
-0.537740,-0.092532,0.606467,-0.458925,-0.858585,-0.228519
-0.652719,-0.185749,-0.292745,0.217832,-0.884498,-0.412569
0.579257,-0.143062,0.535335,-0.277842,0.889026,0.363920
-0.215732,-0.220721,0.496520,0.774527,0.629071,0.066164
0.266680,0.654636,0.228299,0.742646,0.024563,-0.669234
-0.068540,0.227256,0.402503,-0.128720,-0.185423,0.974192
0.019006,0.286808,0.301550,0.938481,0.204823,-0.278029
-0.694770,0.554760,-0.987192,-0.010183,0.056151,0.998370
0.184457,-0.435842,0.796571,0.158528,0.169186,0.972751
-0.345264,-0.717672,0.036516,0.669481,0.094832,0.736751
-0.290201,-0.384380,0.407400,-0.164857,-0.562051,0.810507
-0.488206,0.113566,0.201083,-0.339299,-0.875377,-0.344372
-0.133442,-0.326260,0.720275,0.014971,0.914189,0.405012
0.205419,-0.240074,-0.957748,-0.088850,-0.138510,-0.986367
0.216270,-0.584256,0.561986,0.964339,0.150379,-0.217801
-0.034979,-0.833229,-0.936983,-0.007937,0.092138,0.995715
-0.439749,0.333852,0.082566,0.583748,0.787248,0.198695
0.062070,-0.078469,0.468503,-0.604383,0.787008,-0.123852
0.063419,0.078345,0.528209,0.852664,0.161045,-0.497020
-0.087746,-0.218730,0.302241,-0.184003,-0.248156,-0.951084
-0.436245,0.520722,-0.981464,-0.051080,0.089100,0.994712
-0.423576,0.123460,-0.388644,-0.075883,0.973448,0.215966
-0.312578,0.274175,0.506533,0.840616,0.479375,0.252119
-0.598397,0.536777,-0.987412,-0.057126,0.077126,0.995383
0.370804,-0.062539,-0.968515,-0.029810,0.158548,0.986901
-0.525947,-0.337461,-0.230999,-0.029390,0.777816,0.627805
0.367974,0.116242,0.226635,-0.233756,0.333385,0.913352
0.150830,0.530367,-0.987962,0.019828,0.072798,0.997150
-0.014490,-0.404355,-0.515386,0.414099,0.906650,0.080676
0.016242,-0.418606,-0.794248,-0.844467,0.511935,0.157478
0.001619,-0.197884,0.438917,0.911173,-0.266716,0.314047
-0.012063,-0.402240,-0.938191,0.654242,0.443458,0.612628
-0.178530,-0.198319,0.706808,0.327331,0.830466,0.450756
0.554387,-0.613441,0.549398,-0.688923,0.629125,-0.359983
0.025477,0.600747,-0.988746,-0.043517,0.094676,0.994557
-0.622189,-0.129060,-0.964214,0.046018,0.101191,0.993802
-0.414612,-0.247853,-0.954562,0.118435,-0.223912,-0.967386
0.152043,0.289795,0.207440,-0.509867,0.165202,-0.844242
0.928632,-0.010392,-0.965187,0.196916,0.603250,0.772860
0.255562,0.460548,-0.985293,-0.033992,0.167115,0.985351
-0.022980,0.125016,0.708330,0.988552,0.145395,-0.040323
0.678868,-0.433541,-0.953180,0.078388,0.002228,0.996920
0.224493,0.455756,0.379980,-0.658151,0.637294,0.400866
0.646047,-0.034349,0.429217,-0.374524,0.927205,0.004802
0.114977,-0.129433,0.742170,0.824427,-0.257480,-0.504008
-0.114771,-0.728998,-0.935837,0.051145,0.082953,0.995240
-0.560791,-0.571064,-0.944830,-0.087296,0.107683,0.990345
0.134923,-0.120970,0.125964,0.893512,-0.196240,0.403888
0.482813,-0.048911,0.383057,-0.162157,0.755316,-0.634983
0.064024,-0.176913,0.950763,-0.634414,-0.685922,-0.356413
-0.277059,0.218295,-0.190049,-0.154892,0.931438,0.329290
0.213909,-0.167828,0.950340,0.377682,-0.881596,-0.283099
0.249359,0.026509,0.574589,0.950629,-0.307981,-0.038106
-0.059306,0.139764,0.056402,0.986315,0.066224,-0.150984
0.010043,0.365402,0.316806,0.862050,-0.029942,-0.505938
-0.045291,0.583074,0.107365,-0.730638,0.639333,0.239629
-0.654064,0.273741,-0.977775,0.038942,0.192106,0.980601
-0.617602,0.202551,0.452462,0.598176,0.769222,0.224685
0.443657,-0.035097,-0.968499,-0.079260,0.241922,0.967053
-0.694433,0.620411,-0.985701,-0.019381,0.083287,0.996337
0.352610,0.258993,-0.980365,-0.017387,0.074146,0.997096
-0.130879,-0.127878,0.149366,0.969476,0.198956,0.143292
0.111135,-0.331798,0.809833,0.722070,0.459644,-0.517052
0.612078,-0.234474,0.647887,0.029441,0.867382,0.496771
0.289053,-0.415308,0.736849,0.810437,0.558847,0.175732
-0.130678,0.519229,0.002849,-0.303463,0.035002,0.952200
-0.213103,-0.736341,-0.936951,-0.058666,0.066598,0.996054
-0.363795,-0.608338,-0.940200,0.125666,-0.086334,-0.988309
0.076154,0.065589,-0.236523,-0.063827,0.827752,0.557452
-0.189311,-0.407840,0.263630,-0.032697,0.732793,0.679666
0.221527,0.546733,0.202072,0.993828,-0.096704,-0.054357
0.246327,-0.567143,0.274271,-0.121644,-0.937083,0.327229
0.130003,-0.008650,0.757300,0.999006,0.030557,0.032444
0.301118,0.040262,0.221534,0.393279,0.509288,0.765479
0.028846,-0.449160,0.689590,0.961566,-0.180409,-0.206987
0.389878,-0.793342,-0.941048,0.028220,0.249658,0.967923
-0.492249,-0.238768,-0.959066,-0.033375,0.240692,0.970028
-0.411309,-0.355072,0.008719,0.731355,0.513084,0.449293
-0.470551,-0.324953,-0.222068,0.363398,-0.081315,-0.928078
-0.364741,0.047666,-0.068079,0.360705,0.392557,0.846044
0.260346,0.402490,-0.037551,0.927774,-0.190261,0.320992
-0.150628,-0.438644,0.739533,-0.489211,0.871807,0.025008
-0.537538,0.543000,-0.988495,-0.046365,0.061986,0.996999
-0.145301,-0.395332,-0.086851,0.423124,-0.046247,-0.904891
-0.456195,0.374113,0.329064,-0.590429,0.070093,0.804040
0.386912,-0.510267,0.741966,0.095871,0.757710,0.645511
-0.178595,0.475109,0.260867,0.868880,0.148187,-0.472322
0.202387,0.193902,-0.017179,-0.115238,0.122269,0.985784
-0.194971,-0.265276,-0.946635,-0.126595,0.504925,0.853829
0.496025,-0.259240,-0.959129,-0.024303,0.150276,0.988345
0.233185,-0.389919,0.735719,0.418876,0.765952,0.487710
-0.798627,0.298880,0.186408,0.733097,0.678951,0.039932
-0.624480,0.337711,-0.981024,-0.006937,0.094008,0.995547
-0.239384,0.337212,-0.024509,-0.202177,0.150020,0.967791
-0.501147,-0.429806,-0.948864,-0.021013,0.193569,0.980862
-0.222403,0.801556,-0.994915,0.085058,0.213116,0.973317
-0.040573,-0.619788,0.704532,-0.724042,0.636272,0.266311
-0.635800,0.667517,-0.991132,-0.028824,0.093079,0.995241
-0.163972,0.517362,-0.987663,0.172253,0.133689,0.975939
-0.348431,-0.051027,-0.065725,0.305472,0.049944,-0.950890
-0.077977,0.235470,0.705380,0.816361,0.414128,-0.402558
0.459630,-0.286248,0.751148,0.268616,0.105586,-0.957443
-0.199422,-0.412072,0.741762,-0.075784,-0.085267,0.993472
-0.095903,-0.868637,-0.934597,0.039301,0.131598,0.990524
-0.298560,-0.469073,0.745387,0.252959,0.647264,0.719069
-0.166263,-0.733417,-0.935711,-0.003319,0.050541,0.998716
0.223345,-0.240822,0.880871,0.241489,0.879178,-0.410767
-0.243633,0.324331,-0.027224,-0.577850,0.034229,0.815425
-0.332389,-0.154574,-0.241107,0.722613,0.550906,0.417533
0.090374,-0.237647,0.502327,-0.584530,0.033953,-0.810661
0.012671,0.052520,0.592341,0.616297,-0.045594,-0.786193
-0.398640,-0.391599,-0.048350,-0.758497,0.501988,0.415560
0.538213,-0.136154,0.536779,-0.356409,0.912712,0.199822
-0.172327,-0.242750,0.114758,0.547953,0.568866,-0.613302
-0.222334,-0.304667,-0.120173,0.712616,-0.386376,-0.585570
-0.296470,-0.200746,0.422060,-0.234323,0.159685,-0.958954
0.841353,-0.266833,0.097226,-0.441924,0.239895,0.864381
-0.017727,-0.421717,-0.922292,-0.682899,-0.199420,-0.702766
-0.148135,-0.122588,0.151297,0.927715,0.102388,0.358972
-0.496700,0.074176,-0.971230,-0.025869,0.234017,0.971888
-0.094216,-0.299565,-0.196829,0.393365,0.900265,-0.186513
0.591453,0.447791,-0.309115,-0.676083,-0.015638,0.736659
0.706362,-0.317983,-0.957559,0.021881,0.074598,0.996974
0.531607,-0.095768,0.598619,0.091353,-0.957764,-0.272660
0.195041,0.252396,-0.021385,-0.277288,0.186696,0.942473
-0.025004,-0.073117,0.611097,-0.303355,-0.930906,-0.203445
0.913330,-0.300808,-0.959945,-0.028586,0.075984,0.996699
0.474257,-0.079153,0.447455,-0.591553,0.495861,0.635757
-0.229075,-0.406658,-0.212227,-0.174237,0.120481,0.977305
-0.278881,0.751961,-0.991540,0.006600,0.191109,0.981547
0.279486,0.121780,-0.028825,-0.404613,0.531116,-0.744449
-0.071909,-0.361792,-0.920173,0.711800,0.702205,-0.015775
0.558969,-0.233043,-0.338623,-0.372981,-0.264505,0.889338
0.154601,0.109085,0.759592,0.990795,-0.086035,-0.104512
0.004045,-0.012259,0.677206,-0.716887,-0.626649,0.305588
-0.303278,-0.471250,-0.413349,-0.497323,0.618625,0.608254
0.220717,-0.316926,0.774142,0.010970,0.449149,0.893389
-0.166938,0.274300,0.672215,-0.330526,0.537787,-0.775589
0.765805,-0.372744,-0.956053,-0.035694,0.017256,0.999214
-0.024127,0.004294,0.225772,0.802270,0.182819,0.568278
0.152179,-0.247168,0.096896,-0.347437,0.611772,-0.710650
-0.130003,-0.194275,0.577226,0.850665,0.364614,-0.378716
-0.362314,-0.340261,0.007573,0.148134,-0.512143,0.846029
-0.722536,0.271624,-0.976127,0.000090,0.199403,0.979918
-0.084850,-0.624268,0.478093,0.909993,0.080465,0.406740
0.855034,-0.426571,-0.952615,0.034337,0.137845,0.989859
-0.117470,0.523709,0.258466,0.884129,0.059314,-0.463462
0.209191,-0.003547,0.710748,0.775915,-0.291713,0.559338
0.132430,0.089919,0.359733,0.843254,-0.095644,0.528938
0.287774,0.197387,-0.020161,0.111873,-0.060744,0.991864
-0.571437,-0.521593,-0.944297,-0.124831,-0.014276,0.992075
0.011256,0.095085,-0.970492,0.036469,0.153123,0.987534
-0.025275,-0.238705,-0.197269,-0.217074,-0.941092,-0.259276
0.190187,0.262290,0.478689,0.937000,-0.334945,-0.099208
-0.356045,0.207281,-0.975389,-0.065532,0.137269,0.988364
0.150558,-0.263036,0.697861,0.223562,0.536020,-0.814066
-0.117132,0.413690,0.096708,-0.326602,0.625595,0.708493
-0.077907,0.344742,0.387263,0.757099,-0.096185,-0.646180
0.192412,0.728625,-0.076680,0.454698,0.890638,-0.003658
-0.178665,0.312509,0.098701,-0.019577,0.151674,0.988237
-0.323627,0.461916,-0.982029,-0.020912,0.106307,0.994113
-0.136338,0.258619,0.682040,-0.028540,-0.590624,0.806442
0.381454,-0.184131,-0.961891,0.019179,0.251844,0.967578
-0.593140,0.210890,-0.973914,-0.005152,0.150524,0.988593
0.207912,-0.426633,0.795095,0.430831,0.236069,0.871009
0.261897,-0.212134,0.750269,0.305441,0.951026,0.047494
0.411984,-0.244680,-0.954075,0.185042,0.243660,0.952045
-0.150427,0.633043,0.260318,0.917306,0.397727,0.019033
0.446154,-0.674362,0.453059,0.665504,0.598474,0.446019
0.023589,0.588923,0.328735,0.925505,-0.181604,0.332356
