-0.103179,-0.097244,-0.399782,0.976615,0.182578,-0.113524
-0.272057,0.211800,0.090300,0.036673,0.449048,0.892755
0.298889,0.021161,0.825063,0.325758,0.944551,0.041279
-0.171899,-0.184759,-0.979445,-0.079147,0.200719,0.976446
-0.338827,0.563368,0.404467,-0.658918,0.228118,-0.716790
0.432639,-0.291195,-0.938219,-0.252440,0.104965,0.961902
0.479337,-0.331588,-0.936235,0.409427,-0.028512,-0.911897
0.519789,-0.033769,0.122873,-0.777281,0.591045,-0.215639
-0.164217,0.317375,0.239047,0.954479,0.222612,-0.198529
-0.140049,0.423277,0.066582,0.609962,0.590265,-0.528709
0.007424,0.255929,0.105365,-0.366661,0.641459,0.673862
0.533822,-0.261382,0.640064,0.604664,0.796188,-0.021590
0.038762,-0.245886,-0.901363,0.651219,0.713172,0.259420
0.046445,0.375828,0.769952,0.846779,-0.443950,0.293041
-0.026370,-0.014639,0.705180,0.969831,0.230241,0.080107
0.151313,0.804554,0.056894,0.924817,0.255882,0.281494
-0.216345,-0.211155,0.854157,0.170890,-0.327402,0.929303
-0.252496,0.215537,0.355192,0.855385,-0.505149,0.114631
0.094066,0.000642,0.742065,0.967494,0.049057,-0.248091
-0.384811,-0.080462,-0.229732,0.105006,0.917686,-0.383180
0.522658,0.202075,0.440145,0.159788,-0.621888,0.766631
0.254646,-0.009832,0.690030,0.169241,-0.618726,0.767160
0.212454,0.049370,0.433791,-0.217936,0.931495,-0.291242
-0.114239,0.332657,0.540335,0.854827,0.118532,0.505194
0.060577,0.431502,0.267479,0.294172,0.054989,0.954169
0.227406,-0.048085,0.415852,-0.300293,0.906327,-0.297314
-0.178143,0.005241,0.274005,-0.027805,0.768441,0.639316
0.311794,0.361512,0.628709,0.107897,-0.877462,0.467354
-0.156944,0.427125,0.581043,-0.386223,0.816223,-0.429664
-0.697781,0.148110,0.377501,0.138411,0.637954,0.757534
-0.177837,0.327530,0.074460,-0.552872,-0.543770,-0.631384
-0.311996,0.239689,-0.003450,0.798250,0.205465,0.566199
0.139843,0.185828,-0.799189,0.979460,-0.161994,0.120070
0.574377,0.168838,0.174276,-0.267461,-0.607948,0.747572
-0.065696,-0.209550,-0.747470,0.802364,-0.595493,-0.040012
-0.605917,0.554818,0.102835,-0.342909,0.826727,-0.446022
-0.008859,-0.128446,0.900874,0.541229,0.769936,-0.338038
0.751856,0.252512,0.252156,-0.403843,0.542428,-0.736670
-0.120284,-0.024364,0.797263,0.710834,-0.023440,0.702969
-0.437757,0.755827,-0.049707,0.653794,0.513198,0.556041
0.310665,-0.024579,0.727806,-0.032535,0.991106,0.129035
-0.070716,0.097993,0.253593,0.885926,0.191450,0.422472
0.086589,0.059094,-0.745314,0.992525,0.069985,-0.099981
0.767933,0.308616,0.249713,-0.492103,-0.379352,-0.783535
-0.091096,-0.109316,0.311235,0.363380,-0.865471,-0.344839
-0.033233,-0.399765,0.494164,0.924303,0.305322,0.229003
-0.166471,-0.221838,-0.330756,-0.605447,0.794920,-0.039200
-0.025245,-0.254540,0.807986,0.828682,0.170990,0.532962
-0.427825,-0.229534,0.655560,-0.263511,0.856648,-0.443527
0.342822,-0.337895,0.385321,0.864695,-0.475918,-0.160639
-0.325823,0.254116,0.500029,-0.147797,0.814993,0.560306
-0.345178,0.175895,0.069572,0.873942,0.386898,-0.294167
-0.344872,0.319195,0.520699,0.880378,0.051085,-0.471514
-0.236006,0.542210,0.613960,0.108893,-0.799623,0.590547
0.432742,-0.260952,-0.943480,-0.278101,0.150085,0.948754
0.490398,0.136037,0.217197,0.451077,-0.696094,-0.558554
0.115265,0.036228,0.592169,0.237866,0.237649,0.941777
-0.750831,0.179848,0.297637,0.506367,0.792898,0.338976
-0.343438,-0.338638,0.139691,0.652889,-0.680141,-0.333384
0.394234,-0.170012,-0.341421,-0.467862,-0.036066,0.883065
-0.415636,0.404363,0.539559,0.147664,-0.081106,0.985706
-0.386246,-0.112845,0.749598,-0.500942,0.233220,-0.833466
-0.096319,0.414407,0.562586,0.992971,-0.110240,0.043068
-0.043372,-0.171617,0.833659,0.415697,0.554513,0.720910
-0.028214,-0.091902,0.104330,0.835225,0.544210,-0.078958
-0.212145,0.345056,-0.359504,0.277620,0.215478,0.936214
0.678323,0.233382,0.439685,0.464622,0.619113,-0.633108
0.041835,-0.210085,0.787546,-0.188293,-0.478758,0.857518
-0.207025,-0.038041,0.659470,-0.188559,0.946571,-0.261628
-0.190639,-0.132399,0.506612,-0.504323,0.540280,0.673614
-0.568744,-0.231674,0.548931,-0.666354,-0.728358,-0.159587
-0.048492,0.183585,0.690432,0.012339,-0.507420,0.861610
-0.016847,-0.629191,0.646792,-0.701342,0.712767,-0.009074
-0.096831,-0.196408,0.447390,-0.512952,-0.856985,0.049566
0.443187,-0.091367,0.400845,-0.608668,0.626477,0.486878
0.476881,-0.150139,0.625748,-0.010817,0.996834,0.078770
0.619129,0.139135,0.232233,0.117231,0.210268,-0.970590
-0.127350,0.190211,0.150816,0.903781,-0.362760,-0.227122
-0.064162,-0.645438,0.627156,-0.134400,0.581050,0.802694
0.184391,0.498935,0.115542,0.134010,-0.840231,-0.525408
-0.542423,0.379356,0.526650,-0.156307,-0.599496,0.784967
0.218392,-0.234667,0.605020,0.403050,0.682574,-0.609626
-0.314762,-0.111344,0.807843,0.770096,0.631465,0.090576
-0.021251,0.346654,-0.658320,0.971138,-0.228622,0.067989
0.702185,-0.261591,0.172838,-0.713162,-0.686144,-0.143547
0.720109,-0.017203,0.123764,0.435100,-0.895373,0.094848
-0.070819,0.414407,0.069888,0.289511,-0.925056,-0.245876
0.593322,0.410878,0.579634,0.488677,0.866988,-0.097604
-0.256593,-0.137531,0.705698,0.662239,0.735473,0.143241
-0.024629,-0.194803,-0.423729,-0.535982,0.818087,-0.208463
0.221361,-0.183480,0.841364,0.503797,-0.843015,-0.188455
0.172818,-0.290015,-0.748908,0.349232,-0.772574,-0.530251
0.243176,-0.234132,0.589351,0.317897,0.874997,-0.365133
-0.094268,0.076939,-0.159384,0.842792,-0.031792,0.537300
0.042450,-0.414192,0.799132,0.229880,-0.649446,-0.724828
0.166574,0.521052,0.061379,0.341508,-0.711145,-0.614528
-0.211735,-0.451910,0.201702,0.975620,0.045092,-0.214783
0.098878,0.489954,-0.320693,0.999022,0.031828,0.030689
0.375801,-0.288952,-0.237925,0.943573,0.233391,0.234945
0.467458,0.223449,0.565662,0.220831,0.843469,-0.489688
-0.309846,0.159009,0.411683,0.771598,0.633693,-0.055408
0.287010,-0.167129,-0.952191,0.083358,0.197598,0.976733
0.141790,0.741288,0.044187,0.619628,-0.031504,0.784263
-0.183266,0.500748,0.595906,0.021854,-0.810624,0.585159
0.321213,0.145332,0.183073,0.204648,-0.931416,-0.300971
-1.000000,0.011117,0.037977,0.467136,0.559212,-0.684884
-0.377645,0.152597,0.466939,0.682905,0.649930,0.333515
-0.204668,0.204958,-0.300224,0.968023,0.134464,-0.211779
-0.434073,-0.237550,0.648833,-0.443433,0.876033,-0.189561
0.075120,0.785001,0.054910,0.428116,-0.026738,-0.903328
-0.567103,0.121499,0.702450,0.945527,0.254377,0.203154
0.430488,0.116797,0.390927,0.357838,-0.681446,-0.638423
0.403860,0.123958,0.520527,-0.075000,0.983123,0.166867
0.047569,0.480125,-0.560919,-0.403093,0.750924,0.523096
0.226484,0.879462,0.045538,0.177902,-0.250294,0.951685
0.102666,-0.105364,0.776277,0.273282,-0.909861,-0.312202
0.437348,0.245885,0.554508,-0.299569,0.899692,0.317510
0.612165,0.217996,0.431204,0.580321,0.102770,-0.807877
-0.069178,-0.111025,-0.977892,-0.564208,0.259572,0.783768
0.277280,0.230180,0.399408,0.037812,0.825024,0.563831
0.631111,-0.229000,0.147022,0.500926,0.865490,-0.000696
0.436223,0.428084,0.389087,0.799967,-0.131179,0.585530
0.155613,-0.445609,0.407572,-0.113933,-0.913889,0.389648
0.142096,-0.152917,0.709809,0.393255,-0.736734,0.550066
-0.029136,-0.148965,-0.811666,0.993999,-0.109255,0.005325
0.159098,-0.159114,0.905617,-0.177944,0.960369,0.214540
-0.024629,0.380426,-0.307383,0.523689,-0.562907,-0.639442
0.109530,0.025648,0.861747,-0.065313,0.972949,0.221597
0.070306,-0.470505,-0.337971,-0.083697,0.694801,0.714315
0.554612,0.194914,0.234677,0.788179,-0.489675,-0.372816
-0.020022,0.019876,0.592888,-0.230916,0.810656,0.538066
0.515695,-0.047231,0.204174,0.805451,-0.440054,0.396991
-0.363818,0.231784,0.415277,-0.572469,-0.596077,0.563002
-0.105535,-0.149500,-0.069457,0.768663,0.626129,0.130844
0.083824,0.086984,0.741433,0.209917,0.641346,0.737977
-0.499411,0.030240,0.277197,-0.182634,0.447413,0.875481
0.279943,-0.254436,-0.948425,-0.213537,0.020115,0.976728
-0.089662,-0.203250,0.997355,-0.716246,-0.148093,0.681953
0.037637,-0.019446,0.360970,-0.495041,0.861967,-0.109305
-0.243689,0.614339,0.066525,0.995603,-0.042748,-0.083355
-0.282399,-0.078864,0.804134,0.373628,0.905849,-0.199596
0.033949,0.478416,0.087885,0.500911,0.833250,0.234058
-0.004149,-0.052573,-0.970245,0.361610,-0.239971,-0.900918
0.009575,-0.128766,-0.701644,0.855145,-0.507847,0.104006
-0.189717,0.438767,0.070147,0.510126,0.451338,0.732164
-0.074607,0.670868,0.004629,-0.109311,0.690806,0.714730
-0.265810,0.090617,0.437673,-0.667309,-0.211720,0.714054
0.365456,-0.003630,0.099471,0.079555,-0.991084,-0.106877
-0.127041,-0.434385,0.823568,0.735782,0.632409,-0.242248
-0.365149,0.362581,-0.071067,0.853066,0.324459,0.408662
-0.056583,0.307866,0.098235,0.890345,0.053814,0.452094
-0.616056,-0.231138,0.576788,-0.248754,-0.070551,-0.965994
0.444724,0.132613,0.412316,-0.525123,0.848769,-0.061943
-0.148137,0.219816,-0.358642,0.868676,0.385498,-0.311117
-0.153156,0.304129,0.092514,0.551221,-0.447050,-0.704487
-0.087512,-0.146611,0.706905,-0.662851,-0.748092,-0.031405
0.503200,0.268543,0.567215,-0.682357,0.115554,0.721828
-0.201187,-0.178882,0.522137,-0.719576,0.496296,0.485696
-0.532797,-0.196303,0.309021,0.032941,0.951089,0.307155
0.012853,0.068500,0.275471,0.670597,0.122659,-0.731611
-0.517742,0.056420,0.691065,0.866172,-0.089917,0.491590
0.120078,0.726333,0.045222,0.115220,0.104999,0.987775
-0.514057,-0.334901,0.551029,-0.648490,0.644099,-0.405706
-0.328792,0.414087,-0.379341,0.388862,-0.242261,-0.888874
-0.033540,-0.470825,0.696700,0.133249,-0.786696,-0.602788
0.289775,-0.245781,0.610108,-0.191611,-0.877325,0.439984
0.120281,-0.164670,0.531250,-0.103083,0.923197,0.370244
-0.173537,0.685941,-0.366634,0.769889,-0.336923,-0.541991
-0.436939,-0.230708,0.643830,0.472038,-0.877932,-0.080092
-0.062318,-0.121180,-0.973292,-0.601772,0.308180,0.736815
-0.623123,-0.398056,0.163207,-0.151322,-0.450241,0.879991
0.512826,-0.074051,0.093463,-0.219508,0.964475,0.146986
-0.158995,-0.015389,0.808217,0.281124,-0.348270,0.894247
0.414102,0.115088,0.191295,0.732670,0.633829,0.247901
-0.185520,-0.580144,0.366692,0.879442,0.001310,-0.476004
-0.017872,0.652599,0.056118,-0.608483,0.463254,0.644317
-0.393618,-0.544024,0.520124,-0.142778,-0.974613,0.172465
-0.643300,-0.170867,0.562816,-0.362334,-0.709741,-0.604137
0.373957,-0.276234,-0.943968,0.161775,-0.285850,-0.944520
-0.416049,0.762877,-0.175195,-0.474635,0.595569,0.648089
-0.444927,-0.230389,0.495113,0.026677,0.545529,-0.837667
0.320088,-0.320043,0.250949,0.891543,-0.449033,-0.059328
0.484457,0.362790,0.326903,-0.576416,0.054378,0.815345
0.198218,-0.234987,0.550627,-0.491624,-0.867314,0.077923
0.108811,0.275379,0.651823,-0.617715,-0.438604,0.652728
-0.239591,0.130905,0.532256,-0.579049,-0.376888,0.722951
0.178144,-0.412692,-0.662632,0.918200,-0.328688,-0.221073
-0.019919,-0.182411,0.843003,-0.236081,-0.377464,0.895426
-0.464795,0.015819,0.297464,-0.160884,-0.986738,-0.021558
0.418609,-0.021586,0.774350,0.604076,0.415528,-0.680021
0.658764,-0.483647,0.554680,-0.757300,-0.039861,0.651849
-0.286703,-0.454799,0.138886,0.394921,0.429421,-0.812179
0.478213,0.353496,0.542577,-0.474441,0.879794,-0.029448
-0.206822,0.476172,-0.108067,-0.613442,0.284581,-0.736683
-0.185007,0.261597,-0.109763,0.626571,0.176472,0.759122
-0.542526,-0.198012,0.554048,-0.058350,0.815549,0.575739
-0.239901,-0.058449,0.733958,0.006781,-0.492114,0.870504
-0.482307,-0.042848,0.121809,0.549903,0.256919,0.794732
0.408673,0.111031,0.773114,0.734335,0.678576,0.016956
0.024117,0.582602,-0.295164,0.492981,0.704493,0.510548
-0.504634,0.031094,0.321613,0.341254,0.924813,-0.168124
0.469199,0.361616,0.538840,0.517855,-0.854636,0.037724
0.225458,0.109962,0.508682,-0.514726,0.836494,0.187975
-0.107892,-0.139344,0.690346,0.785917,0.617560,-0.030900
-0.347126,0.569565,0.405618,-0.658918,0.228118,-0.716790
0.975010,0.398695,0.223522,-0.341751,0.161616,-0.925790
0.028214,0.121291,0.607607,-0.615322,0.786317,0.055535
-0.034871,-0.101196,-0.621234,0.924101,0.374945,-0.073855
0.014082,0.400195,0.766473,-0.759183,0.630895,-0.160042
-0.261816,-0.065187,-0.992669,-0.048588,0.303785,0.951501
0.096422,-0.029171,0.833142,-0.534954,0.703814,0.467409
0.003327,-0.073196,0.447763,0.390440,0.915846,0.093712
-0.107789,-0.041778,0.553099,0.719122,-0.694877,-0.003225
-0.129910,0.203680,0.549189,0.798114,0.146173,0.584506
-0.016438,0.418040,0.064972,0.637239,-0.596985,-0.487376
0.354395,-0.033554,-0.449891,0.893079,-0.255454,0.370343
0.095703,-0.004915,0.517709,-0.311163,0.405278,0.859609
-0.182038,0.457043,-0.383567,-0.048825,0.364901,0.929765
-0.228840,-0.464198,-0.183274,-0.653693,0.756504,0.019670
0.508935,-0.044237,0.108268,-0.084448,-0.992528,0.088073
-0.408570,-0.279012,0.633653,-0.544228,0.668590,-0.506759
-0.098263,-0.611562,0.323655,0.218459,0.399281,0.890421
-0.022479,-0.012396,0.805801,0.940641,0.282685,-0.187840
-0.390343,0.379141,0.517796,-0.096171,0.858464,0.503777
-0.404066,-0.174499,0.500719,-0.078179,-0.875519,0.476817
-0.019713,-0.215537,-0.955641,0.874103,-0.058542,-0.482199
-0.341391,-0.118826,0.851311,0.723321,0.689848,-0.030290
0.060577,0.009082,0.698798,-0.653940,-0.362684,0.663945
0.057915,-0.152598,0.880319,-0.182157,0.868502,0.461003
-0.168518,0.190961,0.834205,0.693747,-0.663597,0.279919
0.031286,0.610172,-0.316784,0.947231,0.282132,0.152167
-0.176403,0.456619,-0.363385,0.934635,-0.303808,-0.184818
-0.593116,0.102161,0.697073,0.598903,-0.523159,0.606317
-0.335961,-0.648001,0.108929,-0.199725,-0.363296,0.910014
0.007221,0.122354,0.715645,-0.345732,-0.333856,0.876932
-0.418199,-0.237015,0.248361,0.588000,-0.547614,0.595294
0.381842,-0.031415,0.728812,0.948863,-0.283625,-0.138623
0.337496,0.124708,0.385637,0.292667,-0.832223,-0.470903
0.060474,0.636887,-0.363472,0.318064,0.924694,-0.209227
0.129807,-0.133788,0.604904,-0.305240,-0.922369,0.236780
-0.009884,0.167559,0.126064,-0.276884,0.168335,-0.946044
-0.004352,0.028962,0.945550,0.963711,-0.265567,-0.027123
0.010600,0.175360,-0.741835,0.933632,-0.279162,0.224498
-0.552871,-0.352746,0.139576,0.289142,-0.328295,0.899233
-0.039581,0.611672,0.043784,0.799987,-0.436730,-0.411446
0.167083,-0.009722,0.867985,-0.015037,-0.608600,0.793334
-0.057402,0.229860,0.103381,-0.339398,-0.456254,-0.822582
0.022070,0.416755,-0.522367,-0.332045,0.479069,0.812551
0.566182,-0.090832,0.172809,-0.107982,-0.991406,0.073847
-0.360130,-0.313958,0.483326,0.197621,-0.979000,0.050057
-0.360233,-0.044452,0.234849,0.447091,0.812284,0.374572
-0.162476,-0.141588,0.572850,-0.682157,0.668014,0.297355
0.840851,-0.123848,0.224097,0.393011,-0.560374,-0.729056
-0.308208,-0.596280,0.524149,0.893910,-0.444500,0.057842
-0.242664,-0.195553,0.903174,-0.130539,0.967203,0.217893
-0.114958,-0.040500,-0.279209,0.822909,0.528352,0.208960
-0.214910,0.658691,-0.182066,-0.501497,-0.762793,-0.408224
-0.397100,0.225692,0.399782,-0.620870,-0.735502,0.271214
0.360746,0.260952,0.044043,-0.533614,0.547893,0.644259
-0.000154,-0.208480,0.520239,0.346000,0.271969,-0.897952
0.168212,-0.123639,0.382992,0.399530,-0.257247,0.879886
0.029443,0.008658,0.680543,0.190978,0.947671,0.255826
-0.075119,-0.271107,0.819860,0.484810,-0.169138,0.858110
-0.069997,-0.291730,-0.763311,0.999348,-0.000155,-0.036092
0.354089,0.326676,0.368848,-0.621956,0.711207,0.327652
-0.187260,0.241509,0.103697,-0.862890,0.117522,0.491538
0.087512,-0.405641,-0.152139,-0.335512,-0.736710,0.587104
-0.347535,-0.380100,0.157084,-0.776779,0.286924,0.560615
0.009575,-0.100661,0.782572,-0.319619,0.928838,-0.187361
0.189820,0.476062,0.708745,0.351957,0.926708,0.131677
-0.085461,-0.680489,0.251524,0.768431,0.560535,-0.308729
0.086589,-0.353496,0.402599,-0.272050,0.399268,0.875542
0.543039,-0.247275,0.650759,0.717384,0.692927,0.072193
-0.099697,-0.078544,0.828973,-0.650364,0.383406,-0.655765
-0.128475,0.212335,0.526995,-0.092710,0.840582,0.533691
0.281068,0.545308,0.122154,0.943420,-0.330796,0.023093
-0.183369,0.049155,0.732521,0.347566,-0.100102,-0.932297
-0.253008,-0.080253,-0.992554,-0.099329,0.349305,0.931730
0.161964,0.169373,-0.290306,-0.612804,-0.407440,0.677099
-0.433254,-0.038576,0.400213,0.300507,0.938707,0.168893
-0.421474,0.295467,0.411914,0.902361,-0.245899,-0.353948
0.511904,0.123104,0.233153,0.174955,-0.694219,0.698176
0.338931,0.034408,0.820061,-0.440898,-0.863574,-0.244642
-0.205900,0.747172,-0.390553,-0.348295,0.904390,-0.246514
-0.099184,-0.297072,0.748448,-0.779221,-0.603211,0.170149
-0.402735,0.427125,0.507159,0.042962,-0.946511,0.319798
-0.347432,-0.422736,0.107549,0.899130,-0.287568,0.329953
-0.118850,0.133683,0.158061,0.987702,-0.117303,-0.103368
-0.165139,0.234347,-0.379744,0.938283,0.344609,0.029478
-0.005683,-0.243531,0.839783,-0.342245,-0.129576,0.930633
-0.186338,-0.105683,0.855825,0.196751,-0.789095,-0.581909
-0.638177,-0.119576,0.539213,0.116646,0.767502,0.630344
-0.288444,0.274100,0.056693,0.847515,-0.370232,-0.380325
-0.272364,-0.562723,0.307325,-0.154498,0.129044,0.979530
-0.129910,0.805409,-0.426777,-0.342732,0.846034,0.408363
0.439908,-0.340458,0.471625,0.260795,0.959506,-0.106460
0.099801,0.150889,-0.737782,0.996016,-0.083041,-0.032514
-0.187260,-0.022440,0.402024,0.806676,-0.574207,-0.139858
-0.188489,-0.076509,0.750517,0.192754,0.960135,-0.202453
-0.382867,0.546274,0.409470,0.590849,0.210450,0.778850
-0.129191,0.071813,0.800397,0.228402,0.813251,0.535215
-0.314556,0.134113,0.473494,-0.589891,-0.660216,-0.464912
-0.339340,0.125347,0.501236,0.722107,0.669682,-0.173455
-0.142096,-0.152702,0.785620,-0.731631,0.367203,-0.574350
-0.381945,0.648216,-0.035189,0.885535,0.350029,0.305463
-0.459266,-0.556312,0.527944,0.010113,-0.109441,0.993942
-0.268063,0.474033,0.560919,0.254680,0.817374,0.516756
-0.312406,-0.048190,0.731457,0.987916,-0.000045,-0.154990
0.793845,-0.232313,0.145325,0.915999,-0.112091,0.385203
-0.042347,-0.350072,0.701299,-0.370860,0.243140,0.896296
0.164730,0.053753,0.533924,-0.643144,0.484972,-0.592594
0.236929,-0.001816,0.220878,-0.574881,0.499699,0.647930
0.697372,0.178889,0.239794,0.161103,-0.518441,0.839801
-0.225049,-0.178458,0.499454,-0.600445,0.783301,-0.160955
-0.139127,0.475742,0.273804,-0.582858,-0.091111,0.807450
-0.366684,0.515391,-0.106284,-0.121633,0.661822,0.739727
-0.010293,0.002136,0.002472,0.910323,-0.137968,0.390227
-0.192892,0.363325,0.570578,0.565918,0.719555,-0.402464
0.305340,0.028316,0.828283,0.698163,0.694983,0.171951
-0.407138,0.272066,0.407400,-0.639318,0.133002,0.757352
0.790567,-0.082816,0.100075,-0.636992,0.621485,-0.456067
-0.058117,-0.319085,0.917606,0.325818,0.936608,0.128871
-0.209994,0.830304,-0.007302,0.451243,0.510012,0.732303
-0.092018,0.657302,0.287172,0.959082,-0.005704,-0.283071
-0.006299,-0.110816,-0.541370,0.009346,-0.963867,0.266221
-0.425059,-0.073731,0.777225,-0.631310,0.624120,-0.460350
-0.379795,-0.262876,0.421171,0.997537,0.040778,0.057079
-0.154182,-0.004810,-0.706072,0.937734,0.294621,-0.183992
-0.076347,0.070208,0.529238,0.854634,0.437506,-0.279624
-0.053817,-0.582172,0.533291,0.587977,0.766789,0.257521
0.597010,0.286173,0.214984,-0.668373,0.727514,0.154921
-0.088124,-0.478945,0.849643,0.509528,-0.808995,-0.293101
-0.310562,0.043063,0.794072,0.179889,0.621358,0.762597
-0.011112,-0.414831,0.737379,0.863382,-0.321041,-0.389236
0.147831,0.280616,0.066094,0.901674,-0.131857,0.411822
0.368734,0.170227,0.549419,-0.444892,0.892089,0.079047
0.243586,-0.261910,-0.289328,0.142650,0.801677,0.580486
0.132573,0.031206,0.388512,0.193481,-0.563360,-0.803238
0.275130,0.001281,0.195808,-0.668867,0.738770,0.082686
0.473193,0.147471,0.412316,0.724966,-0.672551,-0.148660
0.346510,0.033769,0.792922,-0.538966,0.822179,-0.183134
-0.184085,0.151104,0.542203,-0.356759,-0.117696,0.926753
-0.166264,0.572343,-0.164300,-0.682113,-0.625533,-0.378722
-0.565772,-0.068820,0.785763,-0.478071,0.531561,-0.699208
-0.358186,0.013465,-0.205094,-0.114837,-0.792054,0.599553
0.077679,-0.017522,0.816669,-0.695639,0.717849,0.027913
-0.347738,-0.068174,0.705094,-0.570783,0.688094,-0.448033
-0.009781,-0.333081,0.472343,0.973304,-0.118499,0.196566
-0.134826,-0.301240,0.829491,-0.484521,-0.608666,-0.628304
0.303189,-0.317376,0.504974,0.251404,-0.564518,-0.786203
-0.684880,-0.126417,0.369452,0.079121,0.762438,-0.642206
0.061499,-0.281686,0.861344,0.289624,0.735779,0.612166
-0.349069,0.086664,0.764892,-0.404136,0.831898,-0.380289
-0.057299,0.345160,-0.283492,0.356167,-0.921373,-0.155620
0.193508,-0.177708,0.845245,-0.041246,0.002561,0.999146
-0.560140,0.069993,0.661770,-0.579262,0.460068,-0.672899
0.509447,-0.065076,0.093549,0.250246,-0.968023,-0.017571
-0.158585,0.021585,0.282659,0.202688,0.822069,0.532091
-0.157560,0.215433,0.320291,0.772664,0.147125,0.617531
0.161761,-0.386727,0.418468,0.546617,0.410050,-0.730116
-0.126119,0.020842,0.341048,-0.399048,0.891737,-0.213463
0.043885,-0.655052,0.303157,-0.759735,0.633898,0.144831
0.369756,-0.403933,-0.935631,-0.247171,0.014858,0.968858
0.014797,-0.104509,0.924649,0.928228,-0.078862,0.363557
-0.326948,-0.096389,0.817761,0.462194,-0.718781,-0.519356
-0.236725,-0.448812,0.192876,0.927180,0.009502,-0.374495
-0.356445,-0.236911,0.238587,0.820864,-0.328024,0.467528
-0.142199,-0.218316,0.811120,0.460672,0.887043,-0.030595
0.641866,0.217677,0.433734,0.483707,0.461489,-0.743677
0.132263,0.136892,0.344526,0.843683,-0.464934,-0.268392
-0.183060,-0.463989,0.305514,-0.234100,-0.152245,0.960218
-0.074197,-0.063582,0.226426,-0.115343,-0.804412,0.582766
0.009678,-0.076190,0.195320,0.360767,0.313098,-0.878531
-0.470736,0.530561,0.117468,0.410857,-0.119623,0.903818
0.087408,0.820260,0.040593,0.400794,0.358155,-0.843261
-0.396384,-0.194699,0.631928,-0.282553,0.953585,0.104113
-0.221055,-0.003206,0.422953,0.322742,0.445808,0.834921
-0.028420,-0.284784,0.481773,0.976793,0.146235,0.156497
0.253008,0.675785,0.059280,0.403205,-0.740084,-0.538239
0.516307,-0.078753,0.407371,0.851794,-0.298728,-0.430359
0.472577,0.415901,0.047349,-0.505940,-0.188230,0.841780
0.116596,-0.386511,0.730250,0.883501,-0.312409,-0.349038
-0.151722,0.568390,0.032659,0.007431,-0.195814,0.980613
-0.331455,0.700362,-0.166945,0.463080,0.527123,0.712530
-0.365252,-0.151633,0.743302,-0.383628,0.828517,-0.407909
0.071535,-0.083566,0.440174,-0.083236,-0.986672,-0.139821
0.084130,0.635498,0.059999,-0.110857,0.747541,0.654900
0.629883,-0.030775,0.099931,-0.152575,0.987777,-0.031888
-0.190742,-0.154946,0.785677,0.253908,0.957129,-0.139410
0.150700,-0.430217,0.522424,0.496632,-0.353807,-0.792576
0.569663,-0.067535,0.123591,0.120401,0.992066,-0.036164
0.524911,0.019557,0.242267,-0.389772,-0.318406,0.864115
0.156229,-0.061978,-0.961074,0.005893,0.357172,0.934020
0.371704,0.348689,0.514576,0.433543,-0.794654,-0.424929
-0.122637,0.606115,0.257360,-0.747308,-0.060934,0.661678
0.034768,0.303268,-0.654496,0.928960,-0.326519,-0.174409
-0.190536,0.014000,0.658205,0.305620,0.949131,-0.075812
0.042756,0.185509,-0.528404,0.893223,-0.349513,-0.282831
-0.398944,0.102800,0.794589,-0.426223,0.410409,-0.806163
0.279327,-0.360970,-0.196412,-0.585646,0.692511,-0.421245
0.639406,-0.247594,0.531882,-0.190174,0.869258,0.456316
-0.065390,-0.215961,0.088000,0.465868,-0.162419,-0.869820
0.392287,0.124389,0.415335,-0.588650,0.579438,0.563688
-0.268576,-0.212328,0.404726,-0.573425,0.693775,0.435728
-0.070203,0.354245,0.134487,0.068400,0.767038,0.637945
-0.245326,0.688184,-0.412489,0.267057,0.253645,0.929701
-0.146090,-0.187537,0.854243,-0.142073,-0.735630,-0.662317
0.032824,-0.210620,0.891645,0.869167,-0.210197,-0.447623
-0.378463,-0.042424,0.837195,0.507549,-0.808861,0.296880
0.025758,-0.442935,-0.944198,-0.195538,0.102374,0.975338
0.449434,0.349432,0.341508,0.929930,0.069537,-0.361103
0.383686,-0.163066,0.517019,0.919698,-0.379159,0.101948
-0.056889,-0.168734,0.811695,0.236310,0.232460,0.943462
-0.084336,-0.265759,-0.910735,0.996642,0.044027,0.069036
-0.399456,-0.554394,0.527254,0.153186,0.496560,-0.854378
-0.057195,-0.118402,-0.629744,0.858596,0.476865,-0.188182
0.806031,-0.031095,0.085010,-0.521769,0.601998,0.604446
-0.735879,0.107072,0.295941,0.606236,0.789842,0.092887
0.465820,-0.048620,0.766531,0.710598,0.189896,-0.677488
-0.158482,-0.062728,0.509027,0.576538,0.172098,-0.798740
-0.586359,-0.359796,0.564484,-0.508925,-0.180865,-0.841596
-0.094781,0.580359,-0.317847,0.684417,-0.717914,-0.127168
0.188079,-0.311284,0.842313,0.860927,-0.508392,-0.018485
-0.189717,0.488565,0.581446,0.148565,-0.713627,0.684591
-0.120793,-0.243322,-0.965904,0.460607,-0.440009,-0.770865
0.319472,-0.353385,-0.203714,0.928303,-0.312532,0.201436
0.062521,0.034519,0.888167,0.442435,-0.733843,0.515485
0.020945,-0.009082,0.432210,-0.385248,-0.910316,0.151355
0.437758,0.319084,0.036281,-0.507521,0.111519,0.854392
-0.079317,0.045842,0.510091,-0.179465,-0.967302,-0.179216
-0.237441,0.374549,0.551374,-0.476567,-0.799293,0.366079
0.148344,0.925411,0.047033,0.091005,0.486355,0.869009
-0.055967,-0.041889,0.871378,0.773762,-0.290233,0.563079
-0.255159,0.100452,0.061408,0.983310,0.011362,-0.181584
0.538635,0.327315,0.592715,0.098920,-0.983498,0.151484
0.287522,0.101411,0.838575,0.821505,0.569611,0.025940
-0.556762,-0.226971,0.500776,0.852602,-0.337739,0.398750
-0.837472,0.077050,0.392997,-0.399684,-0.716053,0.572295
0.389727,0.113914,0.185200,-0.428044,-0.854119,-0.295396
-0.139330,-0.934706,0.113874,0.465393,0.774610,0.428238
-0.113421,-0.383844,-0.220475,0.345240,0.670016,-0.657182
-0.115880,-0.245886,-0.978496,-0.314516,0.314332,0.895698
-0.096625,-0.023829,0.787000,-0.700885,-0.380321,-0.603420
-0.346716,-0.562299,0.507331,-0.563969,-0.622068,-0.543112
0.023504,-0.070633,0.708084,-0.672019,-0.537904,-0.508969
-0.225971,0.635394,0.052639,0.281303,0.469006,0.837199
-0.025039,-0.114873,-0.275701,-0.262457,0.911272,0.317332
0.187464,0.041035,0.799189,-0.341276,-0.323888,0.882398
-0.211428,0.210515,0.349356,0.931005,-0.359838,0.061211
0.132673,0.327204,0.633337,0.622226,-0.781753,-0.041185
0.362280,-0.269183,0.517105,0.436067,0.097303,-0.894638
-0.237031,0.517099,-0.124023,0.221044,0.425129,0.877727
0.687336,-0.183904,-0.048269,-0.491530,-0.726862,-0.479655
0.131751,-0.561660,0.366404,-0.242451,-0.775626,0.582770
0.494186,-0.224088,-0.027254,-0.793992,-0.379430,-0.474984
0.417993,0.084636,0.521015,-0.553373,0.805589,-0.211673
-0.020123,-0.016883,0.304709,-0.409331,-0.858797,-0.308085
-0.250346,0.132724,0.045969,0.992814,0.116608,0.026876
-0.215935,-0.315021,0.820492,0.766081,0.616467,0.181900
-0.238669,0.352641,0.072850,-0.517989,0.437775,0.734875
0.018998,-0.352961,0.602777,0.959843,0.279335,0.025939
0.036306,-0.003956,-0.778289,0.957853,-0.267693,-0.104206
0.176403,-0.001706,0.752386,0.231057,0.791316,-0.566067
0.193711,-0.387581,0.422148,-0.172624,-0.799024,0.575988
-0.418096,0.797928,-0.139978,0.954228,0.295927,-0.043313
-0.175584,-0.657087,0.344641,0.875811,0.381225,-0.296010
0.068156,-0.345904,0.892738,-0.449019,-0.864173,0.227128
-0.241642,-0.208376,0.069055,0.182985,0.003038,0.983111
-0.135133,-0.236265,0.779698,0.597904,0.302756,0.742192
-0.005989,0.145756,0.692905,0.483308,0.433061,-0.760836
0.449537,0.235306,0.372556,-0.611029,0.539887,0.578935
0.535563,0.198012,0.214524,-0.638582,0.749346,0.175198
0.606943,-0.070417,0.204261,-0.050605,0.423871,0.904308
-0.425878,0.578115,-0.002185,0.456742,0.670898,0.584194
0.001586,-0.129515,-0.310746,0.277899,-0.956833,0.085109
-0.038150,0.025538,0.263742,-0.440116,-0.829311,-0.344299
-0.512622,0.464843,0.552610,-0.052122,-0.528623,0.847255
0.131342,0.145436,0.618215,-0.780554,0.277543,-0.560095
0.083824,0.102161,0.611028,-0.325122,0.944277,-0.051354
-0.362383,-0.286173,0.524034,0.781907,-0.481493,0.395962
-0.192380,0.355420,0.539242,-0.471937,0.355466,-0.806796
-0.292025,0.771428,0.005922,0.430977,-0.420601,-0.798345
0.162477,0.012826,0.446240,0.885294,-0.228453,0.405047
-0.144555,-0.230389,-0.205152,0.925280,-0.153198,0.346968
-0.103998,0.195344,0.516962,0.953540,-0.285596,0.095894
0.077886,0.664887,0.070607,-0.242053,0.615752,0.749840
-0.606636,-0.322613,0.559941,-0.404026,-0.041099,-0.913824
-0.343028,-0.049370,0.779468,0.596115,-0.351058,-0.722084
-0.143427,0.203465,0.117468,-0.541680,-0.448025,0.711235
-0.079317,-0.472644,0.829519,0.626570,0.779163,0.017778
-0.020841,-0.251012,0.616002,0.345760,0.764204,0.544465
0.167596,0.051398,0.389633,-0.122971,0.575130,0.808767
0.200674,-0.499574,-0.637305,0.974666,0.129883,-0.182091
-0.084848,-0.466872,0.714380,-0.264226,0.711796,0.650793
-0.104410,-0.185724,0.059194,0.608855,-0.790465,-0.066783
-0.266835,0.007373,0.421286,-0.377937,0.654840,0.654483
-0.188385,0.734669,0.032515,-0.151620,0.632808,0.759319
0.028520,0.187544,0.724298,0.996983,0.056053,-0.053685
0.302883,0.504166,0.083429,0.211238,0.330197,0.919972
-0.051770,0.083566,0.846941,0.528192,0.794383,-0.299948
-0.233959,-0.091791,0.689771,0.367380,-0.594571,-0.715204
0.029649,-0.227825,0.020613,0.323250,0.912858,-0.249400
-0.378564,0.524150,-0.012190,0.990879,0.049723,0.125243
0.314556,0.141699,0.868244,0.895932,0.414398,0.159938
-0.292232,-0.232743,0.597689,0.787957,-0.227999,0.571962
-0.188079,-0.187322,0.694400,-0.131962,0.990533,-0.037825
0.762711,0.351467,0.221165,-0.544739,0.751332,0.372503
0.085871,-0.047446,-0.705842,0.957179,-0.154715,0.244688
-0.711301,-0.222484,0.339811,0.505646,0.758518,-0.411063
0.351629,0.693311,0.070808,-0.438209,-0.510165,-0.740071
-0.061499,-0.133468,-0.051230,-0.730000,0.671384,0.127840
-0.460904,-0.535688,0.129542,-0.043926,-0.475262,0.878747
0.320088,-0.200680,0.401564,-0.375178,0.214588,-0.901773
-0.184701,-0.183050,0.832135,0.942166,-0.174374,-0.286210
-0.775921,0.156126,0.331101,0.558190,0.775861,0.294047
0.237135,0.086664,0.461448,0.089842,-0.844820,0.527454
-0.506272,0.699298,-0.026880,0.306428,-0.601634,-0.737657
0.710992,0.200471,0.239248,-0.609363,0.224251,-0.760518
0.008553,-0.414401,0.824402,-0.551439,-0.274270,-0.787839
-0.254443,0.583887,-0.369624,0.467451,-0.534803,-0.703900
-0.446874,-0.026503,0.638311,0.420246,-0.794565,0.438246
-0.054023,-0.133364,-0.289961,-0.449666,-0.893180,-0.005490
-0.160429,-0.199825,0.475650,0.804530,-0.569321,-0.169130
-0.102976,0.030671,0.528346,0.687919,0.217613,-0.692396
0.309231,-0.295683,0.234016,-0.732819,0.369571,-0.571309
0.034974,0.108142,0.687730,0.946588,-0.279220,-0.161270
0.273592,0.602267,0.087770,0.203815,-0.895059,-0.396646
0.111374,0.068284,0.541858,-0.535989,0.524627,-0.661424
-0.186132,0.334685,0.567330,0.845423,0.527516,-0.083585
-0.334837,0.025538,0.433015,0.418809,0.537078,-0.732220
0.144552,-0.415790,-0.936638,-0.256962,-0.854616,0.451223
-0.164730,0.057281,-0.149580,0.954404,-0.029284,0.297080
0.168927,0.427334,0.678386,0.844499,0.486840,-0.223178
-0.142915,0.222699,0.277426,0.937815,-0.294790,-0.183309
-0.464692,-0.501173,0.130089,0.072985,-0.083250,0.993852
-0.100722,0.198547,0.469957,0.228384,0.861632,0.453245
0.102873,-0.252936,0.819256,0.661084,-0.220362,0.717223
-0.446771,0.068500,0.282026,-0.160974,0.935430,0.314734
-0.109939,0.341847,0.128709,0.642657,-0.278400,-0.713782
-0.229453,-0.300705,-0.975161,0.224803,-0.258693,-0.939437
-0.223308,-0.555568,0.488069,-0.033146,0.422627,0.905697
0.171487,-0.197477,0.853841,-0.091704,0.583915,0.806619
0.801115,0.019452,0.099212,-0.218393,0.926495,0.306451
-0.328486,0.476277,-0.038150,-0.064151,0.997625,0.025099
-0.102257,0.052788,0.825408,0.428987,0.883962,-0.185958
-0.020535,-0.131009,-0.956532,-0.178516,0.600408,0.779514
-0.040403,0.026927,0.898862,0.731412,-0.639184,-0.237656
-0.487123,0.457897,-0.020555,-0.688087,-0.226931,0.689230
-0.140970,-0.096813,-0.072361,-0.548106,-0.828585,-0.114136
0.466842,0.197797,0.436724,-0.506626,0.818820,0.269932
-0.313328,-0.036117,0.347919,-0.072167,0.989181,0.127722
-0.123356,0.107072,0.174908,0.945151,0.059360,-0.321193
-0.327667,-0.177924,0.675512,0.758828,-0.590573,-0.274596
0.241229,-0.237335,0.832739,0.931759,-0.360538,-0.042856
-0.318756,0.312464,-0.080813,0.979642,-0.139499,0.144364
-0.029955,-0.141804,-0.200351,-0.689059,0.722277,-0.059275
-0.308002,0.309471,0.393371,0.900910,0.080132,0.426545
-0.400172,-0.040715,0.085557,0.694836,0.408540,0.591860
-0.052282,-0.107288,0.751869,0.126095,0.417745,0.899772
0.691740,0.244392,0.250949,0.047654,-0.628414,0.776418
-0.055355,0.139670,0.276621,0.956331,0.197937,0.215065
-0.415739,-0.011430,0.109102,0.555529,0.374758,0.742256
-0.126528,-0.647682,0.225017,-0.618414,-0.733428,0.282219
0.051870,0.588055,0.087138,-0.341050,0.067717,0.937603
-0.141071,0.450527,0.594066,0.464112,-0.428803,0.775066
-0.209481,-0.460565,0.518601,-0.295131,0.713960,0.634947
-0.438167,-0.138490,0.320147,-0.492952,0.870054,0.002035
0.251780,0.146290,0.838259,0.979101,0.107404,0.172703
0.134414,-0.197901,-0.947418,0.326637,0.190903,0.925670
0.362077,0.101196,0.393313,-0.177816,0.934698,0.307767
0.083721,-0.300920,0.525184,0.302657,0.039064,0.952299
0.089355,-0.511647,0.506842,0.215388,-0.515150,0.829596
-0.497771,-0.422632,0.129140,-0.059607,-0.049758,0.996981
0.112805,-0.224297,-0.933360,-0.088156,0.733391,0.674067
-0.021354,0.355635,-0.297809,-0.512674,0.694604,0.504669
-0.129091,-0.084310,0.501782,-0.638449,0.679631,-0.361228
0.241948,-0.066896,0.616318,0.065741,0.961507,-0.266802
0.567104,0.232528,0.414760,0.257506,-0.965221,-0.045146
0.129704,0.388442,0.632331,0.134585,-0.910717,0.390489
0.063650,0.368138,0.791255,0.390892,-0.676419,0.624228
-0.261509,-0.078114,0.645239,0.543163,0.801692,0.249528
-0.635618,0.078544,0.284499,0.467190,0.868400,0.166176
-0.301755,0.083566,0.474874,0.735387,0.676977,0.030120
0.144759,-0.478625,0.268083,-0.867154,0.273248,-0.416388
0.124378,-0.089012,0.717658,-0.264392,0.518415,0.813230
0.165855,-0.127376,0.653778,-0.141466,0.988038,-0.061379
-0.350710,0.366318,0.000719,0.724101,0.313172,-0.614493
-0.029442,-0.198116,0.996033,-0.029221,0.977523,-0.208796
0.169952,0.304872,0.672062,0.832408,-0.553965,0.014840
-0.485072,-0.775805,0.182268,-0.225495,0.973505,0.037933
0.101335,-0.219594,0.826357,0.926523,-0.262025,-0.269998
0.425572,-0.058664,0.576903,0.153277,0.973973,0.166978
0.256796,0.302204,0.014576,0.810612,0.459632,-0.362832
-0.131241,0.298246,0.542203,-0.690033,0.495685,-0.527400
-0.227918,0.375293,0.018629,-0.235512,-0.461808,0.855141
0.423215,0.357344,0.376495,0.182216,-0.499544,0.846908
-0.313943,0.622140,-0.158607,-0.003373,0.711728,0.702447
0.522658,0.111886,0.427409,0.352218,-0.139232,-0.925503
-0.076757,-0.154522,0.152311,0.999150,0.009739,0.040056
0.012237,-0.070417,0.440145,0.390440,0.915846,0.093712
-0.089149,0.304657,0.132532,0.934898,-0.055820,-0.350499
0.488554,0.356378,0.561264,-0.735897,0.569216,0.366672
-0.238260,-0.017953,0.434424,0.447306,0.759838,-0.471766
-0.011215,-0.313312,0.845101,0.505943,-0.136884,-0.851637
-0.862972,0.102481,0.124023,0.399140,0.803363,0.441921
-0.291106,-0.060269,0.175771,-0.623109,0.693317,-0.362004
-0.079726,-0.032165,0.392652,0.351604,0.891099,0.286911
-0.284346,-0.214898,0.442905,-0.419681,0.897591,-0.134901
0.354602,0.067215,0.809165,0.929903,-0.364200,0.051374
-0.064775,0.260743,0.256555,0.943544,-0.216921,-0.250342
0.027189,-0.251762,0.833918,-0.396036,0.075038,0.915164
0.111986,0.046911,0.842514,-0.472939,0.822078,-0.317044
-0.489273,0.543280,0.416743,0.330423,-0.026308,0.943466
0.454144,0.185828,0.169963,0.302461,-0.168342,0.938178
0.723078,-0.357768,0.569141,0.717978,-0.016433,-0.695871
0.224334,-0.335971,-0.948137,0.000889,0.104519,0.994522
-0.140049,0.582068,-0.097775,0.575142,-0.757205,-0.309600
-0.080036,0.520093,-0.377127,-0.646480,0.046856,-0.761491
-0.115162,0.326565,0.270383,0.390945,-0.629671,-0.671325
0.045522,0.217781,0.591651,-0.677637,0.711557,0.185727
-0.035690,0.238300,0.225448,0.996144,0.055085,0.068281
-0.141687,0.493378,0.594756,0.106818,-0.728765,0.676381
0.018179,-0.037291,0.917721,0.975248,-0.192121,-0.109452
-0.393824,0.199616,0.479128,0.947343,0.156633,0.279297
-0.395462,-0.164246,0.307182,-0.263992,0.856073,-0.444351
0.079317,-0.173645,0.213805,0.678690,0.320070,-0.661011
-0.290491,-0.061124,0.247039,0.164424,0.979590,-0.115620
0.250449,0.520628,0.112207,0.658548,-0.655077,0.370391
0.045829,0.170873,0.707969,-0.097179,0.553607,0.827088
-0.078907,-0.212648,0.928415,0.503693,0.818678,-0.275790
0.158176,-0.085595,0.844584,0.742735,-0.465256,-0.481541
-0.522352,-0.208591,0.565317,-0.138724,-0.397713,-0.906962
0.353576,-0.399980,-0.933935,-0.149493,0.024694,0.988454
-0.028111,-0.385872,0.696642,-0.126355,0.098693,0.987063
-0.175993,0.480229,-0.334148,0.789298,-0.603173,-0.114852
-0.119771,0.087094,-0.334148,0.929370,0.362824,0.068042
-0.558706,-0.185829,0.779381,0.433154,-0.705425,0.561029
0.204569,-0.251332,-0.749080,0.131916,0.989293,0.062428
-0.494495,0.132078,0.662057,0.442028,-0.608559,0.658989
-0.267960,0.508868,-0.351656,0.340916,-0.456426,-0.821858
-0.245123,-0.053538,0.740110,0.081552,0.717500,-0.691768
-0.149162,0.040076,-0.721682,0.988321,0.104669,0.110755
0.026680,-0.157300,1.000000,0.942030,0.203009,0.267146
0.323364,-0.123959,0.711477,-0.047192,-0.860421,0.507394
0.199343,0.767475,0.037603,0.841551,0.257050,0.475097
-0.147218,-0.196303,-0.013799,0.004971,-0.999563,0.029150
-0.024526,-0.340562,0.519089,0.981014,0.163387,-0.104481
-0.103282,-0.090082,0.842801,0.346358,0.435609,-0.830832
0.054023,-0.348682,0.654467,0.806826,-0.581484,-0.104442
-0.031902,0.332122,0.226196,0.884972,0.436832,-0.161253
0.739158,0.388331,0.269578,-0.742285,0.466163,-0.481357
0.412055,0.076516,0.232779,-0.026131,-0.609370,0.792455
0.244405,0.492524,0.104502,-0.410630,-0.554978,-0.723451
-0.653745,-0.215003,0.357779,-0.517881,-0.690010,0.505654
0.629167,0.216072,0.257791,-0.388480,0.896656,-0.212344
0.153157,-0.065826,0.689599,0.171323,-0.629912,0.757535
0.184391,0.491878,0.112379,-0.060176,0.541365,0.838632
-0.251880,0.739371,0.031767,-0.643654,0.372020,0.668812
0.434582,-0.010152,0.319170,0.063732,-0.724486,0.686337
-0.139433,0.363755,0.216249,-0.327068,0.839833,-0.433253
-0.074197,-0.205813,-0.385493,0.694256,-0.719439,0.020385
-0.680782,-0.263300,0.565116,-0.559061,-0.142466,-0.816795
-0.214604,0.790662,-0.012678,0.344334,0.229666,0.910323
-0.287316,0.099807,0.371550,0.253596,-0.634954,0.729741
0.020945,0.137531,0.109476,-0.474751,0.094769,-0.875003
-0.436529,-0.112205,0.708401,0.577448,-0.427054,0.695829
0.534947,-0.226867,0.656767,0.801706,0.571398,-0.175417
0.394234,0.209765,0.483124,0.905713,0.309410,-0.289739
-0.219314,-0.018272,0.382216,0.172399,-0.981564,0.082531
-0.272570,-0.584631,0.319515,0.499195,-0.019413,-0.866272
-0.287316,-0.026927,0.738788,0.362110,-0.428631,0.827739
0.024526,-0.235521,-0.798499,-0.600267,0.628370,0.494804
0.015516,-0.183800,0.939455,0.836210,0.335576,-0.433752
0.160223,-0.453619,0.270383,-0.823108,0.499853,-0.269517
-0.156535,0.342812,0.214725,0.666640,-0.662294,0.341990
-0.491014,0.578650,-0.023287,0.742370,0.273097,-0.611805
0.735061,-0.085699,0.089869,-0.498259,0.864045,-0.071864
-0.388908,0.621932,0.400615,0.388972,-0.156740,0.907818
-0.052076,-0.139879,-0.037374,-0.649601,0.744403,0.154538
-0.300526,-0.725792,0.150155,0.514524,-0.852159,0.095347
-0.106661,0.058671,0.145297,0.946979,0.302805,0.107422
0.134827,-0.006089,0.780733,-0.227064,0.938630,-0.259645
-0.204259,0.258499,-0.113644,-0.641286,-0.194334,-0.742284
-0.344769,-0.108997,-0.228007,-0.221350,-0.896878,0.382903
-0.349788,-0.954586,0.270958,-0.657819,-0.673651,0.336851
-0.179475,-0.194803,0.866807,-0.347316,0.870542,0.348608
0.169849,0.004490,-0.181118,0.420294,-0.810952,-0.407074
-0.174356,-0.420493,0.516329,-0.322041,0.058211,-0.944934
-0.339956,0.157724,0.468347,0.515810,0.541457,0.663901
0.477290,0.397632,0.538121,-0.440164,0.890988,-0.111334
0.672997,-0.083136,0.001121,-0.645103,0.713868,-0.272460
-0.241845,0.688608,-0.151995,0.112246,-0.603739,-0.789240
0.237338,0.171297,0.377760,0.684826,-0.401396,-0.608190
-0.464282,0.345910,0.378709,0.771268,0.407789,-0.488727
0.043575,0.003851,0.618129,0.899306,-0.372521,0.229077
0.022376,-0.175145,0.974298,0.861699,0.471864,0.186601
-0.345178,0.652168,-0.163667,0.324416,0.552042,0.768117
-0.287112,0.680384,-0.167577,0.148597,0.647999,0.747005
-0.077576,0.669479,-0.346395,-0.457854,0.661701,0.593735
-0.154078,-0.017203,0.356543,0.214573,-0.959992,0.179924
-0.344462,-0.122570,-0.985424,-0.198781,0.231792,0.952239
-0.316197,-0.564008,0.531279,0.250816,0.029383,0.967589
0.405498,0.097778,0.247326,-0.234803,0.958372,0.162449
-0.625276,-0.285854,0.172119,0.183097,0.133579,0.973977
0.039172,-0.394208,0.629283,0.988856,-0.122506,-0.084596
-0.012853,-0.031095,0.433676,0.581288,0.812723,-0.039819
-0.352860,0.101196,0.367842,0.960456,-0.117810,0.252278
0.158892,-0.287452,0.520872,0.359103,-0.758478,0.543835
-0.174662,-0.197901,0.071441,0.306843,0.334561,0.891020
-0.302370,-0.153022,-0.993991,-0.116294,0.181523,0.976486
0.681295,0.185404,0.440375,-0.583551,-0.204653,0.785866
-0.359208,-0.698118,0.205928,-0.231547,0.972499,0.025115
-0.124891,-0.146930,0.625144,-0.174834,0.608024,-0.774429
-0.030467,-0.120215,0.519664,0.158196,0.078337,-0.984295
-0.085361,0.564653,0.273402,0.506549,-0.237629,-0.828819
0.526037,0.360442,0.589035,0.861065,0.499790,-0.093683
-0.754312,-0.172367,0.340070,0.934332,0.259817,-0.243963
-0.116390,-0.087943,0.640898,0.028175,0.935015,-0.353486
0.213273,0.019981,0.524666,0.081735,-0.584567,0.807218
-0.198011,-0.257000,-0.274983,-0.403390,0.913969,0.044005
-0.509241,-0.337464,0.515611,0.410831,0.736010,-0.538058
-0.236006,0.475957,0.597804,0.496654,0.809818,-0.312296
-0.083517,-0.220025,0.938132,0.797588,0.585766,-0.143986
-0.310562,-0.044237,0.767249,0.743572,0.668288,-0.022162
-0.498592,0.114984,0.721797,0.241154,0.894111,-0.377372
-0.169133,0.108573,0.823482,0.810117,0.419973,-0.409064
-0.038456,-0.225797,0.840818,-0.475283,-0.465346,0.746699
-0.032415,0.210196,-0.094584,0.982626,0.066808,-0.173158
0.387474,-0.072557,0.750345,-0.043676,-0.876924,0.478641
-0.230784,-0.074481,0.802812,-0.348020,-0.000166,0.937487
0.046854,0.294939,0.754456,0.043662,-0.803483,0.593724
-0.067334,-0.179952,0.757245,0.920398,0.369336,0.128286
0.253931,0.322613,0.355336,-0.156370,0.554387,0.817437
0.790773,0.178458,0.244480,-0.052575,-0.343118,0.937820
-0.103179,-0.426584,0.832337,0.717112,0.696046,-0.035639
0.042756,0.665741,0.048356,0.053516,-0.867616,-0.494347
0.169336,-0.470720,0.581532,0.733551,-0.657296,0.172814
0.391365,0.076405,0.734418,-0.930723,-0.029795,0.364509
-0.209481,0.059310,0.510235,0.030630,0.317185,0.947869
0.385940,0.017737,0.826098,-0.421754,-0.861378,-0.283110
-0.381945,0.328170,-0.053444,-0.667327,0.299014,-0.682103
0.110349,0.511223,0.080928,-0.597535,0.440507,0.670005
-0.342619,-0.478840,0.487868,-0.191442,-0.828730,-0.525887
0.074810,-0.550866,-0.264374,0.252533,0.966969,0.034609
0.086693,0.389400,0.795078,-0.362364,-0.916688,0.168451
-0.070919,-0.454799,0.825983,0.759395,0.581362,0.292126
-0.339340,-0.157189,0.546947,-0.690369,0.569338,-0.446368
-0.250549,-0.006839,0.590013,-0.377895,-0.867377,0.323810
-0.373957,-0.146075,0.823568,0.983035,-0.008691,-0.183214
-0.426187,-0.111136,0.757101,0.818085,-0.259102,0.513423
-0.251267,0.346334,0.085010,-0.354431,0.270714,0.895038
0.141893,0.073626,0.520699,-0.606301,0.617554,0.501025
0.129192,0.071167,0.430801,0.616948,0.786999,-0.002559
-0.524502,-0.279547,0.541312,-0.639491,0.433299,-0.635062
-0.379692,0.225797,0.480853,0.947849,0.096593,0.303731
0.073379,0.127702,0.623304,0.317812,-0.496538,0.807741
-0.280555,-0.221949,0.644204,0.453669,-0.797631,0.397453
0.077270,-0.355205,-0.238414,0.816405,0.108083,0.567275
-0.191561,0.792801,0.024207,0.141967,0.840052,0.523601
0.548464,-0.201749,0.673471,0.828808,0.092436,-0.551846
0.531259,0.279762,0.566640,0.667016,0.047829,-0.743506
-0.134620,-0.258069,0.350391,0.963397,-0.079631,0.255980
-0.028624,-0.151528,-0.258797,0.079438,-0.960012,-0.268453
-0.026473,-0.351252,0.733699,-0.309130,-0.702312,0.641246
-0.075323,0.114873,0.111804,-0.001594,-0.383127,0.923694
-0.039684,-0.159329,0.849989,-0.125944,-0.780251,0.612656
-0.091402,-0.068174,0.598436,0.199813,0.976859,0.076294
-0.001999,0.136996,0.735798,0.927819,-0.347486,0.135670
-0.441752,-0.203784,0.546458,0.410363,0.598729,0.687842
0.179475,0.398910,0.708285,0.728767,0.564772,-0.387210
-0.024323,0.534305,-0.282659,-0.280323,0.479729,0.831432
-0.689896,-0.402967,0.542347,0.879420,0.361699,-0.309508
-0.374879,0.449138,0.534412,-0.547014,0.013009,-0.837022
0.629577,0.080149,0.470101,0.352523,-0.673753,0.649449
0.550411,0.320154,0.600621,-0.101376,-0.859322,0.501286
0.023707,-0.071272,-0.339984,0.662238,0.736124,-0.139866
-0.127553,0.754437,-0.368100,0.490868,-0.755641,-0.433653
0.910696,0.255721,0.250949,-0.055379,0.569273,0.820281
-0.169543,-0.009187,0.297321,-0.028554,0.934987,0.353531
-0.092734,0.136461,0.811954,0.661707,-0.276251,0.697015
-0.099903,0.356594,0.129456,0.821503,-0.394890,-0.411333
0.260075,-0.033554,0.721079,0.162831,-0.947878,-0.273885
-0.328383,-0.083886,0.034470,-0.162851,0.867365,-0.470273
-0.049310,-0.081851,-0.302927,-0.612290,-0.753050,-0.240866
0.009165,-0.298996,0.571642,0.951588,0.284733,-0.115788
-0.068053,-0.731884,0.234533,-0.752641,-0.626543,0.202424
-0.397819,0.434496,-0.087167,0.243351,0.933222,0.264342
0.381536,-0.220455,0.620716,0.155447,0.979287,-0.129741
0.565057,0.360442,0.618790,-0.776373,-0.036725,0.629203
-0.330430,-0.738086,0.329663,-0.236558,0.247429,0.939585
0.688052,0.245565,0.252242,0.047654,-0.628414,0.776418
0.286497,-0.007374,0.223005,0.629374,-0.757617,-0.172930
-0.072866,0.053642,0.123793,0.114404,0.239826,0.964051
0.055455,-0.119360,-0.959062,-0.403813,0.540719,0.737942
-0.424240,0.426375,0.428760,0.823431,0.515928,0.236179
0.639715,0.234986,0.439196,0.507119,0.489177,-0.709602
0.148447,-0.137316,0.743302,-0.395036,0.862577,-0.316080
-0.025448,-0.134003,0.873620,0.159431,0.608998,0.776983
0.131035,0.365033,0.105508,0.906208,0.018311,0.422435
-0.173231,-0.149389,0.831014,-0.652959,-0.701832,0.284740
-0.601104,-0.067215,0.368704,-0.574984,0.731710,-0.366053
0.152031,0.491774,0.114593,0.853327,-0.518725,-0.052499
-0.226893,-0.147576,0.799735,0.263884,0.938522,0.222580
0.595779,-0.262661,0.672321,0.726914,0.477756,-0.493301
0.124891,-0.275699,-0.088748,0.373476,0.926466,-0.046659
-0.441036,-0.047231,0.074460,0.541761,0.828339,-0.142650
0.105329,-0.499998,-0.187586,0.320514,0.868001,-0.379270
-0.003533,0.621182,-0.308331,-0.241297,0.737449,0.630828
-0.019204,0.265445,0.515524,0.627888,0.651152,-0.426331
-0.155410,0.283929,-0.336275,0.683570,0.565781,-0.461112
0.275436,-0.294078,0.243072,0.564952,-0.477180,0.673148
0.169646,0.424131,0.699574,0.365561,-0.866663,0.339501
-0.177940,-0.256464,0.826616,0.449976,-0.670480,-0.589897
-0.671975,-0.080677,0.314570,-0.013726,0.993439,0.113538
-0.223411,0.752513,0.034384,-0.347569,0.550608,0.758965
0.311894,-0.319404,-0.947993,-0.183123,-0.152496,0.971190
-0.108301,0.459821,0.551575,-0.719179,-0.694807,-0.005005
0.295610,0.205708,0.505002,-0.697759,0.615058,-0.367199
0.320701,0.028747,0.816582,0.196641,-0.978187,-0.066950
-0.184701,-0.661359,0.370486,0.952805,0.099473,-0.286825
0.315275,-0.302414,0.241002,0.728056,-0.674192,-0.124097
-0.047673,0.296217,0.254887,0.998884,0.010419,-0.046062
0.228224,0.194379,0.369710,0.858689,-0.395046,-0.326483
0.016950,-0.051294,0.650989,-0.118829,-0.888848,0.442526
-0.083824,-0.660393,0.320895,0.750473,0.118979,0.650103
-0.075529,-0.076405,-0.605710,0.906178,0.422712,0.012505
0.358596,-0.052253,0.730393,-0.438966,0.836349,-0.328375
-0.110349,0.120964,0.523689,0.840167,0.185668,0.509555
-0.237238,0.246420,-0.122729,0.721423,-0.044796,0.691044
-0.297251,0.548406,-0.116030,0.431045,0.578700,0.692320
-0.189717,0.090512,-0.733096,0.703341,-0.688230,0.177906
0.100619,-0.030025,0.788322,-0.722323,0.691531,-0.005921
-0.041938,0.042320,-0.374138,-0.083986,-0.095243,0.991905
-0.146090,0.090728,0.835039,0.708041,0.559401,-0.430985
-0.455169,-0.222588,0.637448,-0.367481,0.921340,0.126844
-0.021763,-0.137316,-0.819026,0.909877,-0.405930,0.085699
-0.072560,0.272600,0.112983,0.878927,-0.154493,0.451241
-0.009474,0.031310,0.781624,-0.133975,-0.256141,0.957310
-0.248605,0.429689,0.067934,0.673187,-0.423807,-0.605975
0.294179,0.600558,0.113903,-0.210705,0.811270,0.545384
0.136258,-0.207306,0.836879,0.046149,0.957550,0.284549
-0.148037,-0.142123,0.833257,-0.307790,0.815649,-0.489880
-0.257412,0.045952,0.733929,0.356826,-0.426179,0.831292
0.011315,0.129196,0.531307,-0.364976,0.928765,-0.064723
-0.076144,-0.018377,-0.388426,-0.724703,-0.364889,0.584518
-0.333708,-0.572343,0.514633,0.266318,0.875456,0.403301
0.396691,-0.132399,0.383251,0.444780,-0.822182,-0.355228
-0.372319,0.056636,0.795366,-0.172489,0.801652,-0.572365
