0.073717,0.050267,0.948261,-0.667050,0.737320,-0.106788
0.216170,0.053926,0.744706,0.328443,0.252220,0.910225
0.108185,0.107743,0.826717,-0.474555,0.879305,-0.040256
-0.279311,0.184089,0.450507,0.212068,0.539693,0.814714
-0.232264,0.176037,0.711318,-0.534510,0.193715,-0.822663
-0.147965,0.139038,0.728584,0.927506,0.164265,0.335783
-0.026750,0.084490,0.742648,-0.036755,-0.936894,-0.347677
0.333626,-0.078869,0.736759,0.496863,0.307297,0.811601
0.209145,-0.020367,0.770747,-0.327561,-0.922116,-0.205928
0.113739,0.024675,0.802133,-0.751792,0.006138,0.659372
0.047254,0.056122,0.831805,0.783534,-0.580267,-0.222181
-0.134734,0.118713,0.461341,0.178187,0.746120,0.641526
0.009679,0.054069,0.472175,-0.560955,-0.785499,0.261383
-0.275228,0.185990,0.522542,0.204608,-0.827976,-0.522102
-0.156949,0.133486,0.535863,-0.219058,0.962100,-0.162409
-0.129180,0.121641,0.558045,-0.776849,0.626013,0.067924
-0.099936,0.109207,0.580141,0.832342,-0.546518,0.092330
-0.075597,0.099700,0.602666,-0.692746,0.413483,0.590876
0.007226,0.063281,0.619131,0.223839,-0.083156,0.971072
-0.093729,0.110965,0.651576,0.284270,0.379567,0.880409
-0.220992,0.235129,0.443247,-0.472784,-0.512911,-0.716518
-0.042110,0.154105,0.451965,-0.358137,0.154285,0.920834
0.142655,0.072645,0.485124,-0.105050,-0.880341,0.462563
-0.054688,0.164781,0.526715,0.794544,-0.570152,0.208869
-0.029038,0.153954,0.548183,-0.698627,0.598835,0.391557
-0.131628,0.202218,0.581999,0.986562,0.156034,-0.048468
-0.139799,0.207484,0.606382,-0.128726,-0.560657,0.817982
0.014904,0.138163,0.617445,0.393304,0.091983,0.914796
0.179412,0.123828,0.499817,-0.031979,-0.994965,0.094988
0.003960,0.206172,0.540265,0.889910,-0.454562,0.037871
-0.145353,0.277680,0.601809,0.760897,-0.639124,0.112054
0.159156,0.139627,0.598779,0.700062,-0.612262,-0.367489
-0.033286,0.229863,0.640427,0.958293,0.278002,-0.066260
-0.027897,0.228693,0.663496,0.981744,0.048305,-0.183971
-0.087851,0.352857,0.616101,-0.268521,0.208480,0.940443
0.100997,0.268174,0.624248,0.013144,0.087894,0.996043
0.176471,0.235861,0.664896,0.882904,-0.457936,0.103806
-0.618938,0.409012,0.333337,0.492538,0.801120,0.340020
-0.060731,0.174582,0.648660,0.917105,0.170693,-0.360253
-0.019725,0.156739,0.669584,0.574230,0.714276,0.400088
-0.052729,0.172967,0.695968,0.986536,-0.163419,0.006479
-0.131957,0.210849,0.726211,0.863452,0.106868,0.492980
0.126153,0.159220,0.674758,0.884300,-0.436927,0.164644
0.242632,0.107600,0.689365,-0.055551,0.542089,0.838483
0.073063,0.186713,0.728298,0.312176,0.287148,-0.905589
0.040224,0.203387,0.754368,-0.446594,0.862068,-0.239567
0.023074,0.307958,0.702600,0.019591,-0.122605,0.992262
0.788914,-0.042013,0.660894,0.843833,-0.193873,-0.500358
0.151803,0.251946,0.739618,-0.066233,-0.558682,0.826733
0.028952,0.309565,0.774349,0.857536,0.108210,-0.502915
0.142819,0.242145,0.522513,0.008691,-0.692093,0.721756
-0.011559,0.392052,0.541465,0.954998,0.118555,-0.271888
-0.064325,0.421295,0.618131,-0.501641,0.709257,-0.495288
0.156868,0.321704,0.623219,0.198546,-0.381965,-0.902597
-0.005023,0.493543,0.644743,0.226078,0.963893,-0.140709
0.072246,0.459320,0.661495,0.668244,-0.293275,-0.683696
0.119129,0.439870,0.682018,0.869519,-0.482285,0.106478
0.045454,0.377422,0.705373,0.315665,0.690377,-0.650949
0.788426,0.037842,0.665611,0.914181,0.030132,-0.404185
0.048066,0.381376,0.776521,0.886240,0.281238,-0.368082
0.038758,0.636863,0.741133,-0.317168,0.944226,-0.088555
0.198850,0.479654,0.642914,0.830554,0.336238,0.443987
-0.052071,0.604104,0.784554,0.389577,0.620681,0.680430
-0.051582,0.605863,0.808737,-0.276604,0.781970,0.558581
0.153273,0.502755,0.670470,0.281739,0.589907,0.756725
0.023563,0.646084,0.766745,-0.262350,0.951605,-0.160061
-0.007640,0.662464,0.792700,-0.122989,-0.901421,-0.415108
0.347840,0.607175,0.865735,-0.177972,0.982243,0.059367
0.064892,0.576031,-0.971004,-0.193296,0.240072,0.951316
-0.105494,0.708969,0.378244,-0.619322,-0.655856,-0.431618
0.140366,0.651199,0.497215,0.211946,0.966898,0.142079
-0.072332,0.638479,0.498102,0.200034,-0.094217,0.975249
-0.162832,0.628089,0.484524,-0.639898,0.418476,-0.644522
-0.434014,0.613762,0.492185,0.574912,-0.640366,-0.509320
-0.584309,0.567105,0.392851,0.292910,-0.953422,0.072047
-0.044722,0.638184,0.786412,0.286378,0.912988,0.290587
0.057055,0.631891,0.753767,-0.278423,0.959499,-0.042930
0.002001,0.621805,0.736559,-0.382046,-0.903621,0.193674
0.311082,0.602060,0.635110,0.974534,-0.222281,0.029586
0.225153,0.591678,0.621047,0.207265,0.579137,0.788443
0.283638,0.583636,0.592261,0.916601,-0.289371,0.275874
0.296704,0.548529,0.498416,-0.259804,-0.949486,-0.176009
0.357800,0.540486,0.467973,0.921656,0.368836,-0.120461
-0.206778,0.511682,0.484266,0.332884,0.344819,-0.877661
-0.314598,0.501006,0.473633,0.844035,-0.162571,-0.511054
0.127299,0.499837,0.400255,0.905414,-0.350432,-0.239630
-0.791777,0.474236,0.481179,-0.123372,0.827195,0.548203
-0.448716,0.471166,0.418635,-0.697745,0.558859,0.448139
-0.247619,0.466051,0.371898,0.702051,0.193090,0.685449
-0.266892,0.456839,0.350231,0.335254,0.696134,-0.634824
-0.622209,0.441334,0.368096,-0.701808,-0.682011,-0.205732
0.283473,0.602649,0.864135,0.007851,0.979330,0.202118
-0.075268,0.560383,0.812024,0.398665,-0.849875,-0.344643
0.004614,0.553215,0.780952,-0.601853,0.788820,0.124642
0.164546,0.513583,0.651318,-0.680647,0.069514,-0.729307
0.116192,0.503193,0.633224,0.861932,0.129537,-0.490197
0.172388,0.495008,0.603552,0.440967,-0.891884,0.100451
0.000695,0.464881,0.553728,-0.891965,0.160650,0.422598
0.163728,0.459320,0.512194,-0.695596,0.661909,0.279326
-0.040639,0.437531,0.488726,0.829610,0.299157,-0.471437
0.079758,0.430515,0.451536,0.107261,-0.405186,0.907920
-0.294337,0.414278,0.469774,-0.172027,-0.429649,0.886458
0.183007,0.414136,0.393308,0.837961,0.487424,-0.245437
-0.424377,0.394096,0.438730,0.313547,-0.494594,-0.810595
0.200974,0.396587,0.343799,-0.485941,0.808273,-0.332500
-0.198772,0.380350,0.366267,0.699328,-0.025618,0.714342
-0.449205,0.367041,0.371012,-0.408573,0.325924,0.852550
-0.568136,0.355338,0.360778,0.078715,0.566257,0.820461
-0.534480,0.283384,0.386391,-0.117440,-0.882803,0.454827
0.075351,0.430364,0.665754,0.617725,-0.135812,-0.774578
0.330356,0.417206,0.592576,-0.656658,-0.421012,-0.625739
-0.064654,0.400095,0.611956,0.135099,-0.746255,0.651807
-0.204979,0.388098,0.603867,0.795803,0.551263,0.250612
-0.053053,0.381957,0.563876,0.644471,-0.762828,-0.052450
-0.036880,0.374057,0.539636,0.953803,0.095163,-0.284964
0.042677,0.396873,0.767660,0.873706,-0.472059,0.117468
0.086295,0.371424,0.694882,-0.679831,-0.364515,-0.636364
0.041371,0.361926,0.676502,-0.276907,0.683470,0.675419
0.303076,0.358123,0.626106,0.639988,-0.344797,0.686681
0.337709,0.350072,0.599951,0.383962,0.593570,0.707282
0.000041,0.333844,0.613100,-0.190638,-0.051636,0.980301
-0.266404,0.319660,0.619674,0.899305,0.103546,-0.424888
-0.126239,0.313805,0.581056,-0.030675,-0.457800,0.888526
-0.014501,0.306932,0.545381,0.887792,0.039959,0.458507
-0.809910,0.273298,0.587459,0.008926,0.994254,0.106671
-0.759756,0.265541,0.559531,-0.683351,0.576914,0.447438
0.037776,0.346270,0.784411,0.967671,0.064789,-0.243751
0.024381,0.337495,0.764058,0.904645,-0.403743,0.136412
-0.217068,0.306932,0.722724,-0.005189,0.993267,0.115729
-0.126568,0.299327,0.690051,0.758820,-0.558163,0.335629
0.173694,0.296845,0.634396,-0.312419,0.176988,0.933311
-0.020379,0.283536,0.632023,0.690715,0.687933,0.222850
-0.087851,0.273146,0.616901,-0.130843,-0.882973,0.450821
-0.205472,0.261890,0.607383,-0.508001,0.575288,-0.641076
-0.040799,0.256766,0.566020,-0.863688,0.141837,-0.483657
-0.066614,0.247849,0.546296,-0.768805,0.486640,-0.414873
0.276777,0.245216,0.484838,-0.298382,0.920265,0.253141
-0.748978,0.215384,0.575053,-0.419911,-0.845234,0.330536
0.018827,0.219767,0.748908,0.041724,-0.997339,-0.059778
-0.120520,0.207922,0.740704,-0.073616,-0.911025,0.405727
-0.096670,0.200174,0.716121,0.885164,-0.000555,-0.465279
-0.285682,0.186865,0.714177,0.683551,-0.236513,0.690521
-0.120196,0.181161,0.673272,-0.323902,-0.582839,-0.745242
-0.096346,0.172681,0.648460,-0.046016,-0.456651,0.888455
-0.061219,0.164050,0.621361,0.797877,0.079888,-0.597504
-0.095853,0.154105,0.601866,0.911850,-0.009034,-0.410423
-0.167568,0.134798,0.563876,0.879277,0.451357,0.152148
-0.121991,0.127193,0.536348,-0.224939,0.948474,-0.223160
-0.672521,0.097504,0.551556,0.723042,0.233744,0.650056
-0.106472,0.122373,0.767374,-0.294101,0.718799,0.629946
-0.413429,0.107011,0.777036,-0.303604,-0.951817,0.043231
-0.116438,0.104529,0.723467,0.688207,0.708090,0.158047
-0.286006,0.091952,0.718522,-0.196451,-0.928462,0.315223
-0.230953,0.083320,0.689622,0.323158,-0.501332,-0.802642
-0.181129,0.074840,0.661180,0.874036,-0.467576,0.132033
-0.021361,0.069137,0.621504,0.337203,-0.408761,0.848062
0.089236,0.093407,0.837779,0.614217,-0.711425,-0.341485
0.009843,0.082008,0.823286,-0.266596,-0.806281,0.528051
0.046924,0.055096,0.751566,0.141328,0.475861,0.868091
-0.278164,0.038565,0.763057,-0.104514,-0.849830,0.516590
-0.106472,0.033744,0.722838,-0.659819,0.470322,-0.586034
-0.131792,0.024675,0.703429,0.087336,-0.582425,-0.808179
-0.249414,0.012241,0.692995,0.788236,0.615000,-0.021446
-0.029038,0.007858,0.646945,-0.669102,-0.667083,0.327572
-0.049623,-0.002086,0.625963,-0.661236,0.587808,0.466100
-0.276858,-0.025776,0.604095,0.393639,-0.568848,0.722122
-0.031327,0.038565,0.909156,-0.433559,0.860641,0.267063
-0.040963,0.029504,0.887517,-0.402508,0.915059,0.025589
-0.080827,0.019266,0.868908,-0.118150,-0.980006,-0.160093
0.001348,0.012241,0.837665,0.804770,-0.576985,0.139404
0.013597,0.003181,0.814568,0.706031,0.266166,0.656259
0.199015,-0.001505,0.773262,-0.689609,-0.649123,-0.321060
0.035652,-0.014663,0.767402,0.316973,0.501797,0.804816
0.027975,-0.024026,0.745878,0.433459,0.818632,0.376770
-0.151395,-0.037336,0.741905,-0.003660,-0.402749,0.915303
0.058032,-0.041718,0.696511,0.902433,0.147469,-0.404806
-0.169203,-0.055759,0.697655,0.496459,0.122627,-0.859355
0.033040,-0.019349,0.964726,0.611888,0.757176,0.228642
0.005596,-0.029293,0.945088,0.913347,-0.375749,-0.156877
-0.018095,-0.038648,0.925879,-0.170825,-0.101184,-0.980092
-0.044722,-0.048449,0.906898,0.485707,0.873691,0.027430
-0.046029,-0.057223,0.884430,-0.619987,-0.773434,-0.131969
-0.058936,-0.066435,0.863963,0.603160,0.666084,0.438782
-0.047823,-0.075210,0.840066,0.754667,0.144140,-0.640079
0.000854,-0.083984,0.812253,0.555418,-0.377990,0.740698
0.016538,-0.092910,0.787812,-0.411183,0.836407,0.362424
0.022586,-0.101828,0.765087,0.960541,0.278052,-0.007005
-0.030345,-0.112209,0.748593,-0.263165,0.764914,0.587921
-0.192729,-0.125232,0.742848,0.200693,-0.670120,0.714606
-0.649324,-0.181093,0.678874,0.252893,0.548259,0.797156
-0.396932,-0.184895,0.629136,0.870719,0.024766,-0.491157
-0.002740,-0.097445,0.959838,-0.857526,0.369685,0.357745
-0.031327,-0.106951,0.941200,0.602515,-0.406120,0.687054
-0.004859,-0.115726,0.915960,-0.187849,0.479227,-0.857353
-0.055994,-0.126250,0.898637,0.966173,-0.255455,0.035377
-0.000941,-0.134007,0.870280,0.502548,0.693888,0.515719
0.014744,-0.142192,0.846869,0.927347,0.308170,-0.212272
0.005431,-0.151993,0.825945,0.952197,-0.304254,0.027403
-0.067919,-0.163106,0.810823,0.081848,0.882523,0.463092
0.033858,-0.169836,0.778208,-0.561151,-0.505494,0.655428
-0.003228,-0.180218,0.759170,0.506910,0.247080,-0.825829
0.018662,-0.189287,0.733844,0.579568,0.814921,0.002157
-0.131468,-0.201712,0.726812,0.903389,0.336005,-0.266437
-0.308715,-0.223796,0.701600,0.981869,-0.174308,0.074500
-0.529420,-0.247495,0.680218,-0.147478,-0.402030,0.903671
-0.480243,-0.255975,0.651775,0.725544,-0.168323,0.667273
-0.242554,-0.279085,0.556758,0.739272,0.436871,0.512465
0.058032,-0.152136,0.976046,0.942978,0.323118,-0.079917
0.015562,-0.162526,0.957865,0.273716,0.174861,-0.945782
-0.005517,-0.171881,0.938399,0.906499,0.411808,-0.093138
-0.017766,-0.181244,0.918046,0.909687,0.091335,0.405127
-0.086705,-0.192206,0.902582,-0.095870,0.759366,0.643562
0.053949,-0.206836,0.843468,0.090942,0.957717,-0.272960
-0.143718,-0.220439,0.841352,-0.002312,0.980879,0.194605
-0.093076,-0.229214,0.813310,-0.076132,0.989057,0.126374
0.044472,-0.234918,0.776950,0.121788,0.834177,-0.537881
0.011802,-0.245005,0.758341,-0.105451,0.907176,0.407323
0.008696,-0.254368,0.735644,0.812457,-0.513805,-0.275532
-0.156461,-0.266945,0.731099,0.463455,0.531203,-0.709248
-0.186682,-0.277032,0.711290,0.912825,-0.202843,0.354409
-0.317535,-0.289029,0.702343,0.944337,0.231853,0.233394
-0.109413,-0.294438,0.656749,0.305050,0.866696,0.394693
-0.223769,-0.306283,0.646659,0.388655,-0.669369,0.633160
-0.432054,-0.320029,0.647030,-0.678088,0.006319,-0.734954
-0.171491,-0.342702,0.549183,0.623353,0.661990,-0.416173
0.226295,-0.280691,0.864249,-0.036582,0.983815,0.175411
0.141349,-0.291510,0.851128,-0.590021,0.303644,0.748115
-0.192889,-0.308041,0.863934,0.919627,-0.070224,0.386463
-0.246801,-0.319298,0.846869,-0.703709,0.198798,-0.682109
0.154091,-0.319003,0.783067,0.394632,0.780923,-0.484174
0.135960,-0.329099,0.762000,0.777159,0.626222,0.062199
0.177942,-0.337873,0.734472,-0.234648,0.719723,0.653405
0.160298,-0.347817,0.713291,-0.380371,-0.921961,-0.072839
0.073228,-0.358635,0.700456,-0.605272,0.790472,-0.093803
-0.211350,-0.374140,0.708660,0.210797,-0.454469,0.865461
-0.207267,-0.383352,0.685191,0.849324,0.182322,0.495387
-0.089482,-0.390520,0.650175,0.067414,-0.863286,0.500193
-0.166262,-0.401927,0.635282,0.907179,-0.170944,-0.384454
-0.064813,-0.409390,0.600922,-0.364594,0.865032,-0.344660
-0.013519,-0.418013,0.571880,-0.079050,0.053105,0.995455
-0.211350,-0.431179,0.571137,0.608894,0.770943,0.186800
-0.102224,-0.438347,0.536577,0.676518,0.624437,-0.390387
-0.247290,-0.450629,0.529145,-0.415633,0.689559,0.593092
0.022586,-0.455021,0.476348,-0.409425,0.898873,0.156197
-0.003882,-0.465545,0.455624,0.741576,0.658441,-0.128533
0.246551,-0.374292,0.870681,0.485859,0.834493,0.259928
0.231524,-0.384236,0.849528,0.838534,0.539422,-0.076711
0.208980,-0.393885,0.828946,0.830318,0.109578,-0.546411
0.208652,-0.403097,0.806078,0.302302,0.939727,-0.159773
0.225477,-0.412604,0.782353,0.685222,0.728143,-0.016665
-0.036880,-0.427814,0.787898,0.943426,-0.325171,0.064886
0.479998,-0.425769,0.710318,-0.663430,-0.214904,0.716712
-0.024955,-0.456190,0.718579,0.820804,-0.524689,0.225793
-0.085234,-0.476078,0.678874,-0.119509,0.112837,0.986400
-0.062201,-0.485432,0.654119,-0.230254,-0.899084,0.372332
-0.250231,-0.498893,0.652147,0.038878,-0.620268,0.783426
-0.164956,-0.506784,0.619646,0.779502,0.530876,-0.332487
-0.131628,-0.515559,0.593519,0.808456,0.471945,0.351662
-0.032797,-0.532965,0.535777,-0.337866,0.858775,-0.385165
0.007879,-0.551103,0.484924,-0.603150,-0.590878,-0.535792
0.229890,-0.456628,0.830890,0.598420,0.800888,-0.021716
0.436705,-0.460430,0.787326,-0.323691,0.501450,0.802354
-0.060731,-0.529314,0.703457,0.873644,0.318346,-0.367971
-0.011559,-0.537499,0.675987,0.626510,0.621453,0.470405
-0.007801,-0.556950,0.629079,0.449901,0.301185,-0.840760
-0.327994,-0.573766,0.640684,0.169020,-0.134764,0.976356
-0.133593,-0.578890,0.597035,0.722004,0.117172,0.681895
-0.195177,-0.589709,0.581342,0.940267,-0.166638,-0.296866
-0.105494,-0.597171,0.547954,0.935348,-0.053106,0.349719
-0.106148,-0.606677,0.525458,-0.581017,0.424282,0.694553
0.149843,-0.603018,0.695110,-0.240178,0.829254,0.504632
0.039412,-0.614131,0.684648,0.024300,0.824960,0.564669
0.028793,-0.642507,0.617845,0.505389,0.201025,0.839149
-0.130162,-0.655522,0.611899,0.833065,-0.031980,-0.552249
-0.072332,-0.663859,0.582228,-0.060808,0.952138,0.299559
-0.099936,-0.674097,0.561789,0.700380,0.704327,-0.115722
-0.321623,-0.687692,0.563848,-0.204817,0.607180,0.767713
0.025198,-0.652594,0.726497,0.907866,-0.416334,0.049450
-0.022178,-0.662538,0.708517,-0.425614,0.513879,0.744836
0.292785,-0.682872,0.605525,-0.343704,0.938374,0.036366
-0.093405,-0.700564,0.625134,-0.084124,-0.655136,-0.750813
-0.262486,-0.731422,0.574510,0.782339,0.572324,0.245747
0.038430,-0.652889,0.728498,0.917842,-0.387360,0.086705
-0.009924,-0.662984,0.710575,0.941770,-0.192439,0.275746
0.259293,-0.682872,0.612528,-0.118171,0.944636,0.306103
-0.125421,-0.701295,0.630966,0.099695,-0.762349,0.639441
-0.225075,-0.729521,0.573652,-0.311306,-0.219828,0.924535
-0.049459,-0.675704,0.733415,0.587972,0.808880,0.001573
0.131711,-0.704804,0.623934,0.786657,-0.209430,-0.580784
-0.163485,-0.721183,0.632823,0.604465,-0.636454,0.479113
-0.242389,-0.748096,0.572137,0.612047,0.371032,0.698379
-0.013683,-0.887327,0.664896,0.422691,-0.408066,-0.809206
-0.047170,-0.201275,-0.696615,0.989819,0.040094,-0.136568
-0.023485,-0.383066,-0.926583,-0.587027,0.307587,0.748859
-0.596235,-0.065703,-0.964030,0.104788,0.053765,-0.993040
0.000202,-0.234328,-0.760418,0.997139,0.052370,0.054512
0.014250,-0.223215,-0.676120,0.887212,0.459925,-0.036389
-0.036880,-0.165740,-0.698188,0.989819,0.040094,-0.136568
-0.034427,-0.276595,-0.873872,-0.236838,0.971368,-0.018753
-0.054035,-0.285806,-0.900513,0.763695,0.586683,-0.269394
-0.055506,-0.305846,-0.928070,-0.481505,0.486803,0.728818
-0.030673,-0.317253,-0.897684,0.167535,0.911004,-0.376833
0.003471,-0.362884,-0.931185,0.098761,-0.336996,-0.936312
-0.414900,-0.117332,-0.964173,-0.248702,0.502955,0.827758
-0.555229,-0.054742,-0.969032,-0.166964,0.208823,0.963595
-0.691964,0.021167,-0.978437,-0.103898,-0.040496,0.993763
-0.560454,-0.036309,-0.973320,-0.108700,0.293126,0.949874
-0.677916,0.024818,-0.986555,-0.316550,0.006760,0.948552
-0.611425,-0.203328,-0.973263,-0.133014,0.223802,0.965515
-0.029691,-0.528288,-0.937102,-0.201619,0.015804,0.979337
-0.016625,-0.367562,-0.899484,-0.256747,-0.957330,0.132667
-0.686570,-0.021830,-0.979437,-0.127376,0.230242,0.964761
0.240837,-0.320324,-0.938389,-0.084335,0.459881,0.883966
-0.006330,-0.251297,-0.934415,-0.274266,0.819520,0.503156
-0.066614,-0.231553,-0.955626,-0.253339,0.333235,0.908171
-0.867417,0.223721,-0.989156,0.270538,-0.199675,-0.941774
0.351270,-0.458377,-0.925325,0.152091,0.117478,0.981360
0.100832,-0.305256,-0.920866,0.541494,0.577394,0.611065
-0.338448,0.000253,-0.974120,-0.259671,0.007435,0.965668
0.321048,0.625018,0.600465,0.899429,-0.383668,0.209349
0.266159,0.622385,0.609412,0.521017,-0.795622,0.309074
0.271712,0.610397,0.870280,0.007851,0.979330,0.202118
0.175818,0.656608,0.854616,0.355260,0.934556,0.019880
0.092666,0.641112,0.764830,-0.040396,0.997677,-0.054846
0.038918,0.660268,0.746221,0.210063,0.930125,-0.301233
0.227277,0.461516,0.629936,0.785366,0.452023,0.422937
0.571316,0.045589,0.696797,-0.413733,-0.490630,0.766882
0.040882,0.309128,0.758741,0.996631,-0.062619,0.052961
0.348492,0.084052,0.704144,0.110235,-0.187876,0.975987
-0.020543,0.296399,0.691995,0.524507,0.687105,-0.502771
-0.025279,0.263639,0.643371,0.917008,-0.353878,-0.184028
0.099202,0.161416,0.605839,0.851721,0.136311,0.505955
0.052967,0.073957,0.610470,0.392058,0.398984,0.828916
-0.097159,0.155855,0.600236,0.987355,0.061998,-0.145897
-0.094222,0.135824,0.575768,0.873216,-0.483371,0.062017
-0.069714,0.064013,0.654634,-0.235066,0.076440,0.968969
-0.036063,0.022631,0.626135,0.351888,-0.802328,-0.482126
-0.098470,0.045152,0.607183,-0.256318,0.559000,0.788555
0.023728,-0.055911,0.570737,-0.310500,0.775251,0.550069
-0.069061,-0.010860,0.555729,0.336039,0.831950,-0.441516
0.001348,0.143867,0.663810,0.916389,0.249574,-0.312960
-0.068573,0.173556,0.646630,0.966954,0.035114,-0.252521
-0.159237,0.142403,0.531689,-0.004261,-0.963522,0.267594
-0.393009,0.263639,0.505934,-0.564928,-0.751203,-0.341393
0.003143,0.070449,0.721666,0.817837,-0.575218,-0.016357
-0.267222,0.233808,0.723010,-0.067756,-0.293875,0.953439
-0.125915,0.120177,0.685191,-0.044160,0.858502,0.510906
-0.176392,0.042519,0.541208,-0.690128,0.092536,0.717747
-0.235529,0.065039,0.522914,-0.168323,0.634064,-0.754738
-0.452310,0.172967,0.494471,0.357752,-0.740377,0.569083
-0.650141,0.270521,0.465286,0.883358,-0.408701,0.229440
0.217311,0.072645,0.741933,0.456658,0.289752,0.841134
0.062768,0.159515,0.732929,-0.294989,0.216612,0.930624
0.029117,0.162737,0.711204,-0.103045,0.099312,0.989706
0.057708,0.124560,0.683362,-0.605897,0.286822,0.742039
0.117987,-0.123616,0.769746,0.746155,-0.384533,-0.543495
-0.090628,-0.001505,0.764773,0.278274,0.496955,-0.821949
-0.202531,0.055676,0.750737,-0.141313,-0.382969,0.912889
-0.103859,-0.030899,0.716178,0.999699,0.023148,-0.008138
-0.252190,0.050856,0.706687,0.112328,-0.460450,0.880550
-0.167897,-0.024169,0.674415,-0.457039,0.405185,-0.791795
-0.099283,-0.089982,0.642457,0.625013,-0.611410,-0.485321
-0.200407,-0.039532,0.628364,0.377967,0.923102,0.070874
-0.199754,-0.059999,0.603124,-0.016398,-0.252257,0.967521
-0.171163,-0.098757,0.575024,-0.823105,0.410233,0.392691
-0.375041,0.020873,0.570279,-0.162741,0.734738,0.658540
0.111451,0.089614,0.833606,-0.646890,0.738491,0.190167
0.501889,-0.191920,0.771833,0.653312,0.113793,-0.748488
0.368749,-0.121430,0.759427,-0.415907,-0.749543,0.514982
0.209634,-0.032506,0.749708,0.991740,-0.083040,0.097758
0.113575,0.014732,0.734958,0.822610,-0.268502,-0.501218
0.100179,0.000101,0.917074,0.925077,0.368861,-0.090414
-0.006170,0.052757,0.902296,-0.020204,0.946801,0.321184
-0.008783,0.036083,0.877941,0.534485,-0.843773,0.048707
-0.023813,0.028478,0.855616,0.044446,-0.930488,0.363615
0.128277,-0.092910,0.817484,0.729254,0.127367,-0.672284
0.218947,-0.173344,0.784039,0.111773,-0.341706,0.933136
-0.698007,0.221525,0.578883,0.330896,-0.428457,0.840793
-0.712056,0.213331,0.556215,0.074913,-0.724457,0.685237
-0.602606,0.118713,0.519741,-0.370073,-0.657089,0.656719
-0.642953,0.127344,0.499560,0.701950,0.705499,-0.097654
-0.693435,0.142841,0.479521,-0.049605,-0.997617,0.047964
-0.213149,-0.281709,0.302550,-0.282316,0.917503,-0.280153
0.008861,-0.111629,0.915331,-0.321913,0.359310,-0.875939
-0.040310,-0.097150,0.895264,0.970227,-0.225697,0.087866
0.189702,-0.271033,0.850071,0.098305,0.813637,0.573001
0.067016,-0.206978,0.836779,-0.651003,0.749998,0.117039
-0.010089,-0.175103,0.819227,0.767814,-0.640101,-0.027076
0.040224,-0.228482,0.789613,0.269389,0.962779,-0.022037
-0.023649,-0.203614,0.771776,0.939004,0.199878,-0.279856
-0.017931,-0.226286,0.747164,0.887644,-0.454574,0.073824
-0.206285,-0.117627,0.740447,0.151043,-0.474767,0.867054
-0.214780,-0.131516,0.717236,-0.147893,0.106928,0.983206
0.031734,-0.070827,0.984907,0.877999,-0.468091,0.100039
0.032387,-0.089840,0.960381,0.826625,0.464748,-0.317332
0.006901,-0.091741,0.939085,-0.692463,-0.245414,-0.678430
-0.281759,-0.105487,0.698827,0.955721,-0.087693,0.280903
-0.188153,-0.188117,0.664639,0.866372,-0.495641,-0.061149
-0.279471,-0.145120,0.648488,0.236669,0.512731,0.825285
-0.374547,-0.100078,0.633824,-0.489008,0.792021,0.365478
-0.348574,-0.352057,0.330135,-0.041449,0.995160,-0.089097
-0.248272,-0.441123,0.293461,0.912877,0.370219,-0.172026
-0.434831,-0.078280,0.615644,0.079732,0.976489,0.200282
-0.480408,-0.066729,0.595120,0.642609,0.759791,0.098851
-0.493151,-0.076379,0.572194,0.408078,-0.902047,0.140653
-0.537422,-0.065560,0.551356,-0.118481,0.213974,0.969627
-0.321293,-0.291367,0.429297,-0.476024,-0.809329,-0.344075
-0.396279,-0.231115,0.671414,0.251335,0.880944,0.400959
-0.446427,-0.216342,0.651261,-0.577846,0.412741,-0.704087
-0.161690,-0.431179,0.597664,-0.531368,0.831932,-0.159804
-0.618285,-0.140148,0.618131,-0.492416,0.778654,0.388876
-0.557188,-0.200989,0.587888,0.759914,-0.256751,0.597168
-0.194524,-0.467446,0.526744,-0.558654,-0.206374,0.803316
-0.245984,-0.452093,0.506220,0.815535,0.563931,0.129937
-0.047499,-0.236087,0.930367,-0.257487,0.966194,0.013051
-0.344655,-0.208737,0.739332,0.583975,-0.809382,-0.062239
-0.363116,-0.215173,0.717207,-0.557409,0.319630,-0.766245
-0.149924,-0.380138,0.671299,0.816089,-0.349963,-0.459918
-0.345797,-0.544230,0.314728,0.921041,-0.389462,0.001437
-0.080497,-0.270890,0.861219,-0.334836,0.710299,-0.619161
-0.185211,-0.219118,0.846383,-0.602875,0.461020,0.651154
-0.200407,-0.228330,0.824058,0.286214,-0.917444,0.276367
-0.040310,-0.356886,0.783925,0.980309,0.101331,0.169490
-0.231281,-0.265624,0.752424,-0.270105,-0.120733,0.955231
-0.331259,-0.316521,0.866193,0.629331,0.493019,-0.600729
-0.017602,-0.629493,0.714549,0.898044,-0.439820,0.008692
-0.047011,-0.630074,0.692195,-0.503867,-0.601402,-0.620027
-0.556700,-0.322073,0.692881,0.956462,0.036111,0.289614
-0.305285,-0.512782,0.643972,-0.204076,0.718045,-0.665406
-0.117255,-0.662690,0.599922,0.944686,0.322620,-0.059038
-0.186523,-0.635197,0.582399,0.887687,-0.382556,-0.256248
-0.126892,-0.697056,0.550984,0.503298,-0.125442,0.854959
-0.616326,-0.043477,-0.968632,-0.228965,0.186518,0.955398
-0.472895,-0.157260,-0.964887,-0.323580,0.103897,0.940479
-0.668438,-0.280834,-0.965516,-0.078723,0.296772,0.951698
-0.536280,-0.347380,-0.973291,-0.208949,0.103237,0.972462
0.011967,0.864134,0.299806,0.910742,0.336542,0.239348
-0.223928,0.726813,0.519855,0.487492,0.434309,-0.757448
-0.092588,0.778585,0.319645,0.919501,0.292322,0.262803
-0.132122,0.758251,0.403142,0.334420,-0.722027,0.605673
-0.482043,0.680887,0.227800,-0.543702,0.212473,-0.811938
-0.398562,0.654564,0.387277,-0.362772,-0.721668,0.589569
-0.200731,0.668167,0.396053,-0.508381,0.513163,-0.691529
-0.066449,0.679281,0.392108,0.688926,0.055667,0.722691
-0.111208,0.669042,0.425667,0.233360,0.972346,0.009318
-0.156296,0.653395,0.483923,-0.525227,0.687415,-0.501594
-0.162343,0.647690,0.509936,-0.409790,-0.353727,0.840803
0.221559,0.653689,0.624563,-0.204993,0.969846,0.131822
0.066857,0.621073,0.724839,-0.167601,0.976224,0.137467
-0.006494,0.607621,0.762629,0.490179,-0.864522,0.111020
-0.008129,0.602649,0.785354,0.914724,0.313193,-0.255325
0.280696,0.613173,0.843954,0.246448,-0.966629,0.069939
0.290986,0.609370,0.865021,0.007851,0.979330,0.202118
-0.655695,0.548386,0.364294,-0.462249,0.885999,0.036481
-0.663214,0.537273,0.416691,0.847008,-0.372262,-0.379471
0.058521,0.604550,0.363523,0.648934,0.446426,-0.616107
-0.279800,0.558767,0.458311,0.858690,-0.428363,-0.281349
-0.258562,0.556286,0.478607,0.665515,0.525876,-0.529664
0.090871,0.593143,0.431098,-0.181405,-0.975505,0.124429
-0.106148,0.564328,0.496672,-0.364053,-0.556955,0.746503
0.199179,0.590795,0.481465,0.555682,0.735117,-0.388355
0.265665,0.593723,0.492899,-0.212748,-0.977106,0.001473
0.250474,0.571934,0.592833,0.877221,-0.394817,0.273133
0.217147,0.563302,0.622676,0.111141,0.607358,0.786616
0.218947,0.558919,0.645401,0.540205,-0.242454,0.805851
-0.580715,0.583922,0.221826,-0.719101,0.229251,-0.656001
-0.719568,0.561695,0.278368,-0.862531,0.489992,0.126290
-0.733458,0.544146,0.356577,-0.687816,0.604024,-0.402573
-0.698495,0.463855,0.280854,0.936173,-0.333558,-0.110989
-0.692453,0.448350,0.356205,-0.558984,-0.797518,-0.226942
-0.662720,0.447038,0.375386,0.676879,0.615896,0.403122
-0.321947,0.453331,0.476320,-0.250310,0.067105,0.965837
-0.208902,0.461516,0.476663,-0.117730,-0.489226,0.864175
-0.020707,0.478922,0.461513,-0.382991,0.450874,-0.806245
0.296380,0.511967,0.421265,0.999309,0.011068,-0.035493
0.093483,0.477601,0.511537,0.468043,-0.568229,-0.676795
0.139225,0.477753,0.526744,-0.793548,0.606059,0.054540
-0.151071,0.433729,0.633195,0.583407,-0.217905,-0.782403
-0.046029,0.441191,0.635167,-0.109513,-0.533909,0.838420
0.229565,0.469121,0.604467,0.969705,0.090842,0.226759
0.289844,0.471611,0.615644,-0.741884,0.626908,0.237896
0.134489,0.448064,0.670413,0.636054,-0.551839,-0.539360
0.015721,0.429194,0.717750,-0.728241,0.682591,0.061112
-0.242554,0.373619,0.414033,0.919721,0.325528,-0.219417
-0.360828,0.354606,0.462913,0.985228,0.113818,-0.127953
-0.764986,0.301228,0.571766,0.701351,-0.537799,0.467845
-0.740647,0.299183,0.590089,0.080065,-0.897758,0.433152
0.272854,0.415305,0.405057,0.911435,0.309001,-0.271671
0.249492,0.407548,0.434957,0.918011,0.233792,0.320307
-0.049947,0.361774,0.544953,0.972646,0.197497,-0.122288
-0.107778,0.350366,0.580198,-0.350507,0.503144,-0.789931
-0.138000,0.342030,0.610613,-0.568790,-0.126903,0.812634
-0.091446,0.342467,0.624391,-0.281437,-0.726428,0.626973
-0.018419,0.345832,0.634024,-0.309691,0.839402,-0.446649
-0.409675,0.294943,0.736245,0.361097,-0.530557,0.766888
-0.110231,0.325650,0.700370,-0.471035,0.710050,-0.523407
0.119129,0.348171,0.677702,0.489005,0.748805,0.447398
0.100673,0.341012,0.704229,0.107140,-0.782870,0.612891
-0.020219,0.321999,0.751481,0.867570,-0.268840,-0.418386
0.137754,0.330916,0.766573,0.950625,0.255155,0.176657
-0.719244,0.372602,0.237834,-0.007769,-0.930974,0.365002
-0.569602,0.385759,0.231145,-0.531108,0.108366,-0.840346
-0.200243,0.425391,0.176547,-0.033638,0.408455,0.912158
-0.832130,0.337790,0.365209,0.735372,0.228206,-0.638083
-0.628739,0.352268,0.371527,0.724605,0.453494,0.518933
-0.003882,0.236004,0.752224,0.214805,0.848136,-0.484276
-0.797660,0.286018,0.207734,0.886183,0.450935,-0.106479
-0.465377,0.310877,0.212393,-0.591933,0.234573,-0.771097
-0.806315,0.223132,0.511537,0.879151,-0.069043,0.471514
-0.038675,0.295229,0.449564,-0.133674,-0.289899,0.947676
0.271548,0.327551,0.409459,0.836614,0.547698,0.010150
0.273183,0.322579,0.433242,0.983064,0.172960,0.060583
-0.167079,0.264666,0.548383,-0.344648,0.463592,-0.816272
-0.016789,0.277975,0.541237,0.989429,0.117836,0.084526
-0.121503,0.260569,0.586973,0.889149,-0.448298,0.091880
-0.120685,0.255891,0.611070,-0.031738,-0.460132,0.887283
-0.016460,0.263202,0.614129,-0.487823,0.271039,0.829799
-0.076739,0.251357,0.649717,0.955477,0.090518,-0.280837
-0.280782,0.222400,0.713491,0.565711,-0.471390,0.676582
-0.003717,0.250339,0.682133,0.491086,0.858135,-0.149797
-0.040475,0.241413,0.712319,-0.635131,0.702139,-0.321885
-0.045864,0.235709,0.737016,0.370810,-0.928529,-0.018250
-0.674974,0.128657,0.538292,0.947362,0.103458,-0.302989
-0.589045,0.134066,0.544010,0.389402,0.438171,0.810168
0.400441,0.236736,0.412947,-0.384513,-0.245110,0.889983
-0.104677,0.171797,0.541437,-0.421785,0.901120,0.100401
-0.175739,0.158488,0.580370,0.955784,0.156764,0.248800
-0.082786,0.164629,0.584886,-0.660654,-0.687581,-0.301280
0.024710,0.172824,0.586458,-0.201296,0.964252,0.172332
-0.127056,0.149714,0.641285,-0.046146,0.430962,0.901190
-0.230793,0.133049,0.685220,-0.151068,0.155950,0.976145
-0.330277,0.116517,0.728841,0.764809,0.470360,0.440259
-0.137511,0.134503,0.714148,-0.734702,0.672674,-0.087875
-0.418006,0.096487,0.793215,0.322350,0.945504,-0.045956
-0.091117,0.130121,0.751195,0.889532,-0.190680,-0.415179
0.118640,0.150303,0.733015,-0.032943,-0.008099,0.999424
0.235279,0.158783,0.733729,0.924976,-0.279549,0.257432
-0.158260,0.021015,0.760371,-0.731295,0.161657,0.662627
0.099037,0.046616,0.732357,0.970313,-0.240379,0.026678
0.156380,0.048517,0.744649,0.729047,0.110185,-0.675536
0.499436,0.083758,0.701399,0.585856,0.008114,-0.810375
0.011967,0.022631,0.819542,-0.356324,0.039042,0.933546
-0.012213,0.015463,0.846526,-0.577933,0.804630,-0.136249
-0.086216,0.002154,0.882915,-0.486499,0.422917,0.764500
-0.041781,0.002592,0.897208,0.886475,-0.377565,-0.267596
-0.012701,0.001717,0.913587,-0.707266,0.703522,0.069510
0.109821,0.006983,0.935798,0.802065,-0.525257,0.284248
-0.474037,0.050856,0.491556,0.928436,-0.213391,0.304089
-0.605383,0.030236,0.542780,-0.266054,0.863257,0.428956
-0.200731,0.054069,0.579998,0.451798,-0.654651,-0.606061
-0.278658,0.040323,0.620074,-0.704565,0.513455,-0.489849
-0.113332,0.054944,0.609755,0.087788,-0.981055,-0.172698
-0.073962,0.054507,0.626049,0.979947,0.040455,-0.195107
-0.225399,0.031986,0.680846,-0.434876,0.215882,-0.874230
-0.228505,0.027014,0.705316,0.524104,-0.364950,-0.769498
-0.096835,0.037842,0.702028,0.586059,-0.633063,-0.505734
-0.137023,0.028335,0.732814,0.971419,0.229191,-0.061778
-0.517654,-0.074772,0.500789,0.825176,0.536087,0.178034
-0.500504,-0.077843,0.521999,-0.300414,0.546732,0.781559
-0.470442,-0.078718,0.539464,-0.148527,-0.952545,0.265701
-0.725616,-0.118359,0.639998,0.769645,0.440739,0.461947
-0.346614,-0.078432,0.585458,0.591017,0.430273,0.682322
-0.361969,-0.084716,0.612957,-0.250262,0.954636,-0.161366
-0.545916,-0.110897,0.674529,0.171530,0.044003,0.984196
-0.322764,-0.089688,0.653262,-0.440507,0.896331,0.050443
-0.154830,-0.074915,0.642514,0.288141,-0.490795,-0.822250
-0.281924,-0.093928,0.691109,0.358178,0.878123,-0.317189
-0.421271,-0.114699,0.742705,-0.542857,-0.066265,-0.837207
-0.169368,-0.089688,0.715206,-0.234067,-0.372183,0.898160
-0.180475,-0.095829,0.741047,0.048822,-0.065791,0.996638
-0.061548,-0.086912,0.741419,-0.013613,0.074071,0.997160
0.023728,-0.081502,0.748279,-0.309193,0.679153,0.665696
-0.036551,-0.093196,0.782696,-0.076216,-0.875694,0.476814
0.048066,-0.087643,0.788756,0.311537,-0.937388,-0.155720
0.018498,-0.095392,0.817741,0.645032,0.441544,0.623677
0.017680,-0.099783,0.840037,-0.809649,0.047482,0.584990
0.011802,-0.105050,0.864135,-0.658134,-0.301197,-0.690029
-0.076415,-0.119966,0.903982,-0.364039,-0.677057,-0.639585
0.002489,-0.115280,0.911758,-0.419423,0.509113,-0.751591
0.037288,-0.115431,0.926993,-0.202749,-0.515006,-0.832863
0.030752,-0.120109,0.950062,0.816673,-0.095761,-0.569100
0.052643,-0.122304,0.968499,0.973475,0.125341,0.191405
0.063915,-0.125518,0.987966,0.925607,-0.166006,0.340138
-0.245331,-0.033096,0.393280,0.670351,-0.523026,0.526378
-0.210373,-0.161642,0.490155,0.943322,-0.028726,-0.330632
-0.360499,-0.184021,0.545982,0.810176,0.575775,0.109993
-0.456393,-0.200105,0.590289,0.059081,0.309346,0.949112
-0.353150,-0.192500,0.593462,0.124743,-0.763409,0.633755
-0.545752,-0.219118,0.656120,0.381553,0.379710,-0.842756
-0.696212,-0.240765,0.709746,0.784441,0.523791,0.332106
-0.350862,-0.205666,0.663581,0.191505,-0.348276,-0.917622
-0.255296,-0.199374,0.667411,0.190848,0.548769,-0.813898
-0.533009,-0.235793,0.747050,-0.654475,0.045676,-0.754703
-0.339101,-0.217806,0.731871,0.742829,-0.587829,0.320410
0.016214,-0.181244,0.684848,0.041042,0.533817,0.844603
-0.127221,-0.202301,0.736102,0.822367,-0.038160,-0.567677
0.013597,-0.190456,0.731099,0.616982,0.443081,-0.650394
-0.006982,-0.197329,0.758627,0.555342,0.444974,-0.702563
0.003307,-0.200694,0.779122,0.851789,0.126482,-0.508387
-0.129504,-0.220288,0.828432,-0.046981,-0.804618,-0.591932
-0.024791,-0.212539,0.831205,0.151815,-0.831044,-0.535088
0.060809,-0.207131,0.837836,-0.495364,0.864595,0.084199
0.112922,-0.205515,0.850014,0.814470,0.374942,-0.442783
-0.085074,-0.232570,0.910043,-0.551626,0.621099,0.556727
-0.010253,-0.228187,0.918532,-0.000810,0.988851,0.148906
0.012291,-0.229794,0.936084,-0.128427,0.883583,0.450319
0.057544,-0.228919,0.950491,-0.029467,0.865926,-0.499304
0.081883,-0.230526,0.968471,-0.404286,-0.875712,0.263973
-0.010253,-0.219556,0.245780,0.305278,-0.932487,0.193062
-0.556864,-0.301749,0.462313,0.712410,0.570313,0.408921
-0.334365,-0.280540,0.440503,-0.425247,-0.870216,0.248777
-0.274246,-0.277763,0.452051,0.752712,0.652223,-0.089608
-0.062365,-0.258170,0.432785,0.857329,-0.508738,-0.078569
-0.073473,-0.264160,0.460140,0.076830,0.730863,0.678186
-0.354945,-0.301017,0.543352,0.868340,0.267075,-0.417920
-0.289930,-0.298240,0.553528,-0.600613,-0.695552,0.394299
-0.274410,-0.300579,0.573938,0.759194,0.650838,-0.005832
-0.252190,-0.302480,0.593748,0.640940,0.601908,-0.476343
-0.422742,-0.326028,0.651833,-0.678088,0.006319,-0.734954
-0.271140,-0.313299,0.645086,0.261642,0.936156,-0.234853
-0.054195,-0.293269,0.625334,0.397319,-0.913081,0.091767
-0.252520,-0.320172,0.689337,0.360268,0.906958,0.218253
-0.193218,-0.317396,0.700342,0.991843,-0.036923,-0.122004
-0.015154,-0.301311,0.687707,0.242738,0.520073,-0.818903
-0.034268,-0.307890,0.715320,0.984115,-0.021885,-0.176179
0.144449,-0.292099,0.703000,0.669444,-0.657252,-0.346215
0.140531,-0.296919,0.727612,-0.698359,0.634265,0.331666
0.112433,-0.304524,0.756740,0.905978,0.395176,0.151787
-0.060731,-0.328223,0.813996,-0.186298,-0.968929,0.162697
0.149679,-0.308622,0.795473,0.895682,0.228356,-0.381585
0.375937,-0.286975,0.773920,-0.372928,-0.800169,-0.469739
0.424291,-0.285958,0.787927,0.394336,0.859643,0.324829
0.218618,-0.313593,0.849756,0.942532,0.196897,0.269934
0.282167,-0.310380,0.860647,0.717858,0.669904,0.189493
-0.342367,-0.376916,0.325733,-0.041449,0.995160,-0.089097
-0.136693,-0.357466,0.306495,-0.265834,0.728647,-0.631195
0.032547,-0.356154,0.371955,0.810954,0.577959,-0.091202
-0.016625,-0.366241,0.407687,-0.400394,0.572200,-0.715732
-0.099936,-0.380138,0.449192,0.707525,-0.702553,-0.076337
-0.240754,-0.400464,0.502475,0.537729,0.476714,-0.695408
-0.213968,-0.401927,0.521656,-0.507424,0.702096,0.499582
-0.177699,-0.402365,0.537835,0.733993,-0.063757,-0.676157
-0.145188,-0.402803,0.555758,0.848628,-0.500699,0.170678
-0.121338,-0.404418,0.575396,-0.038113,0.691412,0.721455
-0.027403,-0.397982,0.580684,0.338402,-0.735729,0.586674
0.058361,-0.392573,0.586744,-0.649997,-0.028258,-0.759411
-0.078374,-0.412166,0.637712,-0.412031,-0.686808,-0.598770
-0.098630,-0.418896,0.665782,0.520368,0.652314,0.551093
-0.079356,-0.420797,0.684934,0.760339,0.642343,-0.096329
-0.115131,-0.428840,0.715921,0.628094,0.732046,-0.263832
0.037288,-0.416111,0.709317,0.796280,-0.546656,0.259047
0.271877,-0.393885,0.687135,0.868636,-0.397207,-0.296138
0.091030,-0.418459,0.745449,0.079972,-0.995741,-0.045864
0.234790,-0.406605,0.740018,0.064018,-0.966827,0.247280
0.299481,-0.403534,0.750995,0.160411,0.987036,-0.005253
0.239367,-0.414067,0.785240,0.621709,0.781527,0.051889
0.272036,-0.414505,0.802191,0.204833,0.957898,-0.201185
0.307976,-0.414799,0.818456,-0.131993,-0.925637,-0.354647
0.418737,-0.406462,0.820399,0.945765,-0.242300,-0.216378
0.236425,-0.421673,0.236919,-0.175540,-0.982319,0.065075
-0.228994,-0.492305,0.435986,-0.686037,0.695940,-0.212183
0.036141,-0.471249,0.429840,-0.497546,0.151113,0.854174
-0.091605,-0.489967,0.481436,0.105681,0.066177,0.992196
-0.117908,-0.497724,0.511708,0.534139,0.562801,0.630833
-0.115784,-0.501669,0.535977,0.744410,0.666903,0.033069
-0.044558,-0.497429,0.545010,-0.097841,-0.995180,0.006574
-0.305120,-0.531063,0.621732,-0.878476,0.019725,-0.477379
-0.124604,-0.514979,0.609184,0.838688,0.341071,-0.424586
-0.083763,-0.514684,0.624162,0.009532,-0.947546,0.319476
-0.050111,-0.515121,0.641656,-0.318110,0.947169,-0.040952
-0.085563,-0.523164,0.672757,0.381238,0.895909,0.228046
-0.012213,-0.518924,0.682047,0.586898,0.300525,0.751822
0.001507,-0.521709,0.702200,0.921645,0.340799,0.185546
-0.296955,-0.551835,0.297234,-0.071543,0.661265,0.746733
-0.203837,-0.545399,0.303151,-0.072960,0.996148,-0.048641
0.330196,-0.488503,0.213708,-0.460517,-0.857908,0.227856
-0.413922,-0.578738,0.397167,-0.500651,-0.865475,-0.017367
-0.408364,-0.586495,0.445562,0.098944,0.994246,0.041057
-0.209226,-0.567920,0.428840,0.325546,-0.917607,-0.228075
0.346528,-0.508980,0.337653,-0.117340,0.953342,0.278155
-0.056971,-0.559877,0.447277,0.229016,0.955676,-0.185026
-0.095364,-0.572749,0.503076,-0.381532,-0.773194,-0.506561
-0.003228,-0.570402,0.532661,0.489274,0.470050,-0.734619
-0.225075,-0.599653,0.602523,0.635004,0.060308,0.770151
-0.056812,-0.585326,0.592576,-0.382884,-0.559075,0.735415
-0.031491,-0.586781,0.611785,0.319414,-0.845314,-0.428275
0.014744,-0.585612,0.625820,-0.253721,-0.368389,0.894380
0.015721,-0.589414,0.648745,0.330006,-0.143063,0.933075
-0.008783,-0.596287,0.677645,-0.486038,-0.688336,-0.538480
0.010496,-0.598483,0.696768,0.421178,0.871723,0.250417
0.038918,-0.599510,0.715177,0.525238,-0.846999,-0.081957
0.488493,-0.570116,0.237233,-0.623103,0.569551,0.536055
0.559879,-0.566313,0.248096,0.718202,-0.669063,-0.191157
0.550243,-0.571723,0.274852,-0.584454,0.811093,-0.023287
-0.193218,-0.674097,0.528688,0.526351,0.781038,0.336058
-0.238306,-0.687692,0.587659,-0.701025,0.670666,0.242428
-0.023649,-0.671607,0.590889,-0.399794,0.212836,0.891552
-0.025608,-0.676294,0.615415,-0.241264,0.087310,-0.966524
0.095931,-0.666635,0.614186,-0.409247,0.007938,-0.912389
0.338851,-0.643239,0.589631,-0.388672,0.914416,-0.113035
0.440299,-0.635929,0.593719,-0.546563,0.815027,-0.192351
0.015562,-0.688138,0.702429,-0.289737,-0.844226,-0.450927
0.006573,-0.692959,0.727355,-0.337387,0.921366,-0.193014
0.332156,-0.751755,0.608298,-0.393446,0.894309,-0.213101
-0.003717,-0.883668,0.635082,-0.652842,-0.424222,-0.627562
-0.009765,-0.888202,0.660408,-0.124989,0.775578,0.618754
0.051825,-0.915114,0.199129,0.614435,0.096245,-0.783075
0.044636,-0.993648,0.670899,0.211332,0.679015,0.703048
0.917319,-0.329536,-0.905516,0.533659,-0.242411,-0.810213
0.714423,-0.157991,-0.923153,-0.388841,0.079089,0.917904
0.544200,-0.170854,-0.937160,-0.128662,0.051568,0.990347
-0.277023,-0.219556,-0.966431,-0.058070,0.327354,0.943116
-0.445121,-0.233454,-0.982210,-0.253855,0.001196,0.967242
-0.655695,-0.238131,-0.969718,-0.037675,0.273849,0.961035
0.863571,0.067378,-0.925668,0.004297,0.017569,0.999836
0.551549,-0.036461,-0.929985,0.446662,-0.217754,-0.867800
0.469868,-0.044209,-0.940676,-0.214679,0.192572,0.957512
0.377244,-0.050056,-0.943963,-0.351476,0.176226,0.919461
0.275307,-0.053278,-0.940733,-0.251746,0.044123,0.966787
-0.090952,-0.073603,-0.948851,-0.038610,0.092812,0.994935
-0.720386,-0.112798,-0.977522,0.209017,-0.091284,-0.973642
0.856711,0.097942,-0.922410,-0.290115,0.155535,0.944268
0.764740,0.062843,-0.924811,-0.092350,0.195172,0.976411
0.586018,0.050704,-0.936045,-0.236990,0.215499,0.947310
0.408607,0.040180,-0.942734,0.238976,-0.002917,-0.971021
0.318106,0.034039,-0.947336,0.251688,-0.277426,-0.927193
0.236914,0.027165,-0.955969,-0.233719,0.026964,0.971930
-0.141758,0.006983,-0.962229,0.076442,0.094959,0.992542
-0.242389,0.004493,-0.957055,-0.278392,-0.027824,0.960064
-0.325870,-0.003112,-0.965973,0.366616,-0.120742,-0.922504
-0.416370,-0.007789,-0.968146,0.161338,-0.109715,-0.980782
0.879744,0.152053,-0.930156,-0.433399,0.003296,0.901196
0.790385,0.146795,-0.933329,-0.310916,0.182488,0.932754
0.695144,0.141671,-0.935902,0.226076,-0.192555,-0.954889
0.605297,0.135530,-0.941247,0.274369,0.084242,-0.957927
0.326602,0.121052,-0.945850,0.222884,0.262913,-0.938722
0.150497,0.109207,-0.955454,-0.447065,0.125714,0.885624
0.058521,0.103503,-0.959227,-0.101079,-0.021850,0.994638
-0.121014,0.091220,-0.969832,0.102505,-0.039624,-0.993943
-0.216579,0.087123,-0.968203,-0.141755,0.336914,0.930803
-0.313781,0.083909,-0.965659,-0.106325,0.038343,0.993592
-0.412611,0.079956,-0.964230,-0.173624,-0.035240,0.984181
-0.587574,0.067967,-0.975321,-0.143683,-0.160680,0.976492
-0.680692,0.062406,-0.978094,0.237095,0.128087,-0.963006
0.776666,0.090783,-0.931643,-0.133468,0.184122,0.973799
0.600720,0.078491,-0.943163,-0.360353,0.297605,0.884068
0.504177,0.074983,-0.941104,-0.173125,0.251629,0.952213
0.409753,0.069574,-0.943248,-0.301294,0.076300,0.950474
0.322025,0.062843,-0.950194,-0.318997,0.160118,0.934132
-0.239288,0.034039,-0.957226,0.281459,-0.231761,-0.931165
-0.320969,0.026139,-0.968375,-0.353201,-0.005932,0.935529
-0.411146,0.019998,-0.973520,-0.117070,-0.022297,0.992873
-0.682487,0.003904,-0.982810,-0.087731,0.081867,0.992774
0.831061,0.235709,-0.936588,-0.478216,0.104406,0.872014
0.746604,0.228541,-0.945592,0.213072,-0.181061,-0.960113
0.469708,0.214358,-0.950738,0.230089,-0.178588,-0.956643
0.116192,0.189204,-0.973348,-0.201595,0.215020,0.955576
0.003960,0.189204,-0.960599,-0.428548,0.157590,0.889670
-0.087851,0.184374,-0.961743,-0.029919,0.217150,0.975680
-0.668603,0.290704,-0.616634,0.869335,0.494162,-0.007741
-0.184558,0.179992,-0.961800,-0.170612,0.070773,0.982793
-0.272775,0.174431,-0.966231,-0.124929,-0.044937,0.991148
-0.363605,0.168432,-0.970661,0.180245,-0.028572,-0.983207
-0.462112,0.164192,-0.970090,-0.083852,0.038997,0.995715
-0.555229,0.159077,-0.973091,-0.105387,-0.089775,0.990371
-0.640993,0.153231,-0.978408,0.296098,-0.099979,-0.949910
-0.726598,0.147081,-0.983439,0.327039,-0.219700,-0.919118
-0.820693,0.141966,-0.985697,0.156538,-0.102944,-0.982292
-0.257744,0.272566,-0.965545,0.039495,0.043589,0.998269
-0.347761,0.266567,-0.970519,-0.225776,0.153789,0.961964
-0.442673,0.261015,-0.973063,0.018772,0.236015,0.971568
-0.544281,0.258962,-0.966802,-0.167858,0.124143,0.977963
-0.620249,0.250777,-0.979637,-0.372683,-0.027230,0.927559
-0.715814,0.245948,-0.981038,0.318101,0.154730,-0.935345
-0.804844,0.241118,-0.983925,0.197769,-0.165361,-0.966200
-0.895021,0.234977,-0.988270,-0.223718,0.179344,0.958011
-0.069061,0.281778,-0.964087,-0.108962,0.275620,0.955071
-0.161037,0.277100,-0.965316,0.189443,-0.315727,-0.929746
-0.057629,0.342762,-0.961571,0.284386,-0.068147,-0.956285
-0.141923,0.336478,-0.968203,-0.189074,-0.045535,0.980906
-0.242877,0.332675,-0.965516,-0.022609,0.168592,0.985427
-0.338937,0.328283,-0.966316,-0.218418,-0.078508,0.972692
-0.431726,0.322579,-0.969318,-0.230457,0.172743,0.957627
-0.525496,0.318634,-0.968632,-0.044211,0.265110,0.963204
-0.606036,0.311172,-0.978894,-0.183589,0.250136,0.950646
-0.697030,0.305182,-0.983268,0.349569,-0.018870,-0.936721
-0.787694,0.300201,-0.985411,-0.274414,0.197785,0.941052
-0.159237,0.437388,-0.971748,-0.178073,0.156421,0.971505
-0.344979,0.426561,-0.977436,-0.088970,0.231926,0.968656
-0.713526,0.406816,-0.986155,0.162810,-0.506704,-0.846608
-0.799291,0.400237,-0.992501,0.253678,-0.312081,-0.915561
0.031240,0.847174,0.331879,0.450686,0.785123,0.424811
-0.116438,0.876273,0.593690,0.884357,-0.405961,-0.230453
-0.040799,0.792912,0.366410,0.585310,0.735595,0.341046
-0.193053,0.802418,0.409030,0.116358,-0.825881,0.551708
-0.267875,0.798035,0.406972,0.464513,-0.807131,0.364371
-0.217886,0.708380,0.415690,-0.216025,-0.547168,-0.808666
0.294745,0.616538,0.115832,0.894799,0.398294,-0.201732
-0.308715,0.706773,0.422608,0.939007,-0.337456,-0.066252
0.307159,0.595044,0.059491,-0.635135,0.721659,0.275339
-0.364746,0.699168,0.409230,0.774018,-0.601303,-0.198321
0.152945,0.584805,0.050286,0.216329,-0.926742,0.307165
-0.474366,0.682351,0.378673,-0.634341,0.694667,0.339188
-0.069390,0.753574,0.515281,-0.201363,0.935455,-0.290479
-0.147965,0.750209,0.515796,0.183946,-0.351494,0.917941
-0.217068,0.744505,0.509250,0.204851,0.652159,-0.729880
-0.241083,0.730758,0.476520,0.609121,0.574884,-0.546333
-0.504752,0.412234,-0.090267,0.928644,-0.370941,0.004753
-0.644917,0.418956,-0.056136,0.869355,-0.371323,0.326101
0.390639,0.632043,0.374499,-0.135499,-0.915083,0.379820
0.270406,0.634676,0.395309,0.164075,-0.917901,-0.361299
0.041206,0.656170,0.478235,-0.193853,-0.852499,0.485455
-0.082457,0.660705,0.504362,-0.651509,0.264984,-0.710858
-0.141923,0.654127,0.494071,-0.669373,0.468498,0.576584
-0.205961,0.647253,0.484467,0.887382,0.247443,-0.389005
-0.248108,0.637309,0.463656,0.906779,-0.162170,-0.389170
0.389333,0.523527,0.092192,0.913226,0.177629,-0.366697
-0.279471,0.624286,0.433871,0.907686,0.298412,0.295053
-0.370629,0.622385,0.439473,-0.622831,0.668275,0.406805
-0.368994,0.603229,0.389964,0.602961,0.324406,-0.728834
-0.437444,0.597820,0.383932,0.300930,-0.234407,0.924389
0.105573,0.497052,0.057690,-0.373655,-0.660062,0.651690
-0.539056,0.598695,0.397968,0.395924,0.149371,-0.906053
-0.148783,0.525571,0.161626,-0.505261,0.244173,-0.827702
-0.613225,0.593874,0.393994,-0.462450,0.886270,0.025783
-0.339425,0.572666,0.467001,0.828597,0.240288,-0.505658
-0.312474,0.549556,0.402970,0.088657,-0.702091,0.706546
-0.364094,0.541218,0.386934,0.799715,0.379879,-0.464918
-0.445286,0.537130,0.386591,0.309290,0.608834,-0.730521
0.127464,0.432122,0.042082,-0.434806,-0.716068,0.546069
-0.215433,0.475851,0.197872,-0.384779,-0.223419,-0.895561
-0.764497,0.483894,0.284942,0.903293,-0.406359,-0.137602
-0.779364,0.466926,0.242464,0.247954,-0.951287,0.183228
-0.093729,0.288356,-0.307829,0.989000,0.027814,-0.145280
-0.146006,0.277680,-0.330011,0.885690,-0.100508,-0.453267
-0.800437,0.389705,0.042569,-0.640632,0.714555,0.281074
0.074858,0.671970,0.677159,0.926464,-0.374523,-0.037380
0.307976,0.617270,0.505391,-0.259804,-0.949486,-0.176009
0.248675,0.610692,0.494843,0.070046,0.993287,0.092062
0.193461,0.603086,0.482208,0.555682,0.735117,-0.388355
0.125011,0.597230,0.474805,0.123249,0.980651,-0.152097
0.171241,0.572371,0.403885,-0.374933,0.801367,0.466086
-0.035574,0.589920,0.474919,-0.518846,0.564602,-0.641890
-0.156461,0.593143,0.497559,0.395407,0.763368,-0.510806
-0.203837,0.583342,0.478264,0.449805,0.186061,-0.873531
-0.268204,0.577495,0.470345,0.726875,-0.422124,-0.541723
0.122234,0.523089,0.384990,0.873147,0.347318,-0.342031
-0.137346,0.549413,0.487068,0.485730,0.411034,-0.771438
-0.207267,0.544289,0.482408,0.161431,0.528603,-0.833378
