0.480279,-0.016055,0.744303,0.514902,-0.856771,-0.028633
0.382872,0.403493,0.214021,0.699023,-0.714340,0.032941
-0.089483,0.119491,0.785265,0.692859,0.681765,0.234826
0.398733,-0.379583,0.277751,0.760728,0.418801,0.495882
-0.225144,0.671787,0.307831,0.222307,-0.319945,0.920986
0.095153,0.065374,-0.131249,0.929135,0.365745,-0.054202
0.866909,-0.090782,0.446818,0.300682,0.719458,0.626076
0.075761,-0.473216,0.603644,-0.357738,0.801225,0.479648
0.267140,0.113489,0.788498,0.887668,-0.169352,-0.428212
-0.748076,0.105387,0.284485,0.656292,0.753424,0.040415
-0.523792,-0.366880,0.452504,0.754603,-0.493120,0.432905
0.120654,0.007553,0.911185,0.741962,0.374734,0.555938
-0.151309,-0.277346,0.445346,0.266819,0.875065,0.403817
-0.225785,0.256340,0.585002,-0.020742,0.725586,-0.687819
0.000749,-0.016256,0.859876,0.926167,0.375936,-0.029780
0.387484,-0.026560,0.572626,0.929606,0.171901,0.326012
-0.346770,-0.360676,0.544463,0.015947,-0.938344,-0.345334
0.436131,0.615167,0.233020,0.637782,-0.052265,-0.768442
-0.029899,-0.004051,0.937297,0.912090,-0.371552,-0.173324
0.130406,0.047066,-0.739375,0.953175,0.194301,0.231744
-0.495178,0.128994,0.468291,0.046976,-0.729631,0.682225
-0.845692,0.170211,0.263323,0.998264,0.050800,-0.029791
-0.402382,0.600061,0.386523,0.908542,0.127533,0.397854
-0.367659,-0.017856,0.718726,0.998945,0.037876,-0.025980
-0.680350,-0.262043,0.156692,0.465235,0.762038,-0.450394
0.003215,-0.457412,0.712483,0.816639,0.567813,0.103390
-0.189564,0.401291,0.347879,0.539909,0.808093,0.235550
-0.075872,0.660983,-0.096017,0.779436,-0.281242,0.559805
0.598582,-0.146801,-0.241738,-0.117106,0.693843,-0.710541
-0.192246,0.073576,0.625139,0.299738,-0.495358,0.815339
0.822866,0.136599,0.554453,-0.613994,0.789301,0.003949
-0.340550,0.391287,0.610333,0.981556,0.185216,-0.047362
0.359510,0.287952,0.619007,-0.237173,0.946271,0.219817
-0.046296,0.553145,0.031575,0.102212,0.255389,0.961420
0.007499,-0.633373,0.525309,-0.496606,-0.080118,0.864271
-0.880631,0.245738,0.112786,0.806600,0.432231,-0.403202
0.130622,-0.151503,0.814432,0.426955,0.415178,0.803329
-0.026152,0.557947,0.026134,0.311622,0.224502,0.923304
-0.466675,-0.133696,0.543192,-0.544213,0.762816,-0.349205
0.053791,-0.004952,0.884404,-0.275370,0.925072,0.261561
0.512752,0.239534,0.348838,-0.528496,0.779331,-0.336654
0.727173,-0.033062,0.439928,-0.003477,0.870001,0.493037
0.554971,0.543541,-0.975561,0.023116,0.177009,0.983938
0.382872,0.398691,0.199081,-0.065447,-0.841937,0.535591
-0.438067,0.855949,0.354234,-0.374037,0.569618,-0.731869
0.508677,0.867355,0.477679,0.106276,0.744872,-0.658689
0.104153,0.149302,0.148018,0.882091,0.060639,-0.467160
0.214745,0.539841,0.602618,0.303273,-0.952640,-0.022429
0.839688,0.384186,0.352941,0.668129,0.302792,0.679647
0.638661,0.343770,0.571088,0.685055,0.686706,-0.243176
-0.136521,0.270746,0.721358,-0.625218,-0.759800,0.178343
0.079940,0.348273,0.382754,-0.617175,0.745486,-0.251684
0.093440,0.089381,0.853722,-0.592451,-0.063561,0.803095
0.683562,0.358775,0.451634,0.928257,-0.184971,-0.322683
-0.410846,0.315061,-0.975561,-0.072410,0.077281,0.994376
0.026682,-0.448006,0.727044,0.642436,0.752416,-0.145417
-0.733609,0.096985,0.343665,-0.112984,-0.527630,0.841927
-0.081445,0.265544,0.704857,0.139319,0.698617,0.701801
-0.001821,-0.870554,0.093319,0.591197,0.652248,-0.474403
-0.709710,-0.069073,0.205258,-0.039968,-0.729580,0.682727
-0.617660,-0.567448,0.478482,-0.178054,0.686099,-0.705383
0.425418,0.060773,0.708469,0.092911,0.858793,0.503827
-0.645307,0.240835,0.487535,0.041939,-0.907990,0.416888
0.402271,0.064174,0.727155,-0.735688,-0.151957,0.660055
0.321687,0.349973,0.533158,-0.387698,-0.919476,-0.065227
0.352656,0.009952,0.746956,0.154308,0.939413,0.306093
0.338293,0.144301,0.588012,0.978425,-0.136759,-0.154859
-0.253006,-0.519130,0.152143,0.265591,-0.502058,0.823043
-0.569765,0.705097,0.432681,0.518585,-0.437948,0.734351
-0.236825,-0.319762,0.600656,0.889589,0.451002,0.072311
-0.111557,-0.615966,0.200531,0.599084,0.767247,0.228977
0.904628,0.299754,0.340097,0.626037,0.555881,0.546876
0.484995,0.472517,-0.968202,-0.001476,-0.007827,0.999968
0.295434,-0.169508,0.061410,0.292521,0.956014,0.021672
0.263288,0.154403,0.612385,-0.272945,0.288179,-0.917853
-0.462070,0.082878,0.464746,0.801515,0.546153,-0.243496
-0.590230,-0.149503,0.265843,0.172804,0.981864,-0.077992
0.575867,-0.225629,0.479151,-0.125285,-0.416977,0.900241
0.477277,0.170110,0.766289,0.871358,-0.401419,-0.282133
0.539541,-0.034463,0.678210,0.907362,0.398532,-0.133667
-0.015543,0.100484,0.577376,-0.169111,-0.305586,-0.937026
0.763178,-0.086181,-0.514383,0.833042,-0.112424,-0.541666
0.086369,-0.070374,0.968091,0.880308,0.465966,0.089069
0.221383,-0.355074,0.612630,0.957157,-0.252608,0.141564
-0.239180,0.416897,0.324511,0.923081,0.344042,0.171924
-0.379452,-0.350272,0.338135,0.071194,0.673243,0.735986
0.151518,0.108788,0.872229,0.063967,0.979723,0.189871
0.186771,-0.324864,0.756768,0.746302,0.403630,-0.529261
0.560327,0.227329,0.565625,0.640123,0.507972,-0.576374
0.145194,-0.227329,0.694198,0.038927,-0.326365,0.944442
-0.620767,0.435303,0.496521,0.868047,-0.145466,-0.474693
-0.302511,-0.088080,0.233934,0.109153,-0.985947,0.126468
-0.511470,0.566050,0.538487,0.952552,-0.132646,0.273952
0.314506,-0.211323,0.094791,0.193398,0.957001,0.216210
0.306042,0.017355,0.698212,-0.598051,0.471321,-0.648222
-0.462711,-0.085379,0.581568,0.790801,-0.596169,-0.138625
-0.496898,0.539640,0.080631,0.637119,-0.092277,0.765222
0.879767,-0.113691,0.616198,-0.637226,0.011815,0.770586
0.702738,0.344872,0.458948,0.891497,-0.351171,-0.286201
0.682809,0.655281,0.289034,0.499477,0.807313,0.314276
-0.013934,-0.406591,0.441712,-0.356787,0.814987,0.456618
0.463025,0.259741,0.664942,0.724613,-0.037910,-0.688112
0.002783,0.140198,0.801721,-0.091145,-0.321651,0.942461
0.288357,0.467513,0.362039,0.755664,0.575682,0.312349
-0.676276,0.431801,0.142978,-0.622116,0.686911,-0.375665
0.671128,0.085580,0.564376,0.202144,-0.050118,0.978072
0.022502,-0.021156,0.809682,0.934875,-0.334074,0.120016
-0.212822,0.508027,-0.708982,0.930068,0.361795,0.063865
-0.387163,-0.545540,0.077956,-0.277622,-0.953428,-0.117908
-0.470109,0.067874,0.488405,-0.730983,0.047457,0.680743
-0.080908,-0.705597,0.388775,-0.679969,0.553751,0.480626
0.568686,-0.320062,0.575592,0.781312,-0.621531,-0.057020
0.381264,-0.036362,0.666615,0.621640,0.024477,0.782920
0.864123,0.298255,0.086518,0.251725,0.759895,0.599328
0.507389,-0.153905,0.703273,-0.481100,-0.309729,-0.820128
0.049717,0.038063,0.905031,-0.628084,0.584268,0.513947
-0.369805,0.587557,-0.978794,-0.102665,0.060023,0.992903
0.152271,0.261942,-0.963809,-0.044837,0.298335,0.953408
0.112727,0.550544,0.553048,0.453203,0.850037,-0.268412
-0.800687,0.649380,0.171810,0.044380,-0.156298,0.986712
0.223960,-0.682988,0.226754,0.722651,-0.662936,0.195682
-0.505787,0.376283,0.282745,-0.681537,-0.505315,0.529305
0.731673,0.325065,0.469540,0.833704,-0.227200,-0.503306
0.782682,0.227430,0.577242,0.280280,-0.747610,0.602099
0.320614,0.089182,0.558021,0.328214,-0.780455,0.532133
0.669199,-0.164306,0.499487,0.129514,0.921743,0.365534
0.140910,0.618366,-0.547652,-0.728948,0.456106,0.510493
0.045753,-0.512930,0.454622,-0.288423,0.271223,0.918287
0.364226,-0.049868,0.211123,0.827993,0.490249,-0.272183
-0.282366,0.923673,0.167663,-0.333886,0.841272,-0.425185
0.147123,-0.367179,0.348526,0.785947,-0.617115,0.038163
-0.012862,-0.285650,0.740846,0.823866,0.551980,-0.128695
0.111439,-0.070575,0.805802,-0.099237,0.366499,0.925111
0.817078,-0.119992,0.509455,0.966851,0.198625,0.160461
0.079293,-0.255241,0.530103,-0.387503,0.779948,-0.491450
0.710887,0.026059,0.535209,0.981289,-0.060257,-0.182869
0.154305,0.322562,0.774317,0.866593,-0.021253,0.498564
-0.555723,0.406094,0.294898,-0.478091,0.709107,-0.518262
0.633410,0.458910,0.177920,-0.231216,-0.966846,0.108389
-0.499573,0.121191,0.458034,-0.439157,0.891052,0.114749
-0.289652,0.505527,-0.446952,0.875061,-0.473912,0.098363
-0.544041,0.564349,0.401440,0.090895,-0.589110,0.802924
0.148307,-0.649877,0.317375,0.251767,0.373211,-0.892932
0.032359,-0.827439,0.318713,0.687123,-0.687456,0.235085
0.656124,-0.297553,0.471436,0.348507,0.840250,-0.415358
0.344186,0.625870,0.530415,0.558508,0.717426,-0.416376
0.450383,-0.007953,0.746087,-0.309109,0.894386,0.323305
0.664483,0.281850,0.598827,-0.351909,-0.599514,0.718848
0.264354,-0.035862,0.674910,0.144665,-0.420065,0.895889
-0.054975,-0.065773,0.715827,-0.417818,0.698610,-0.580837
-0.036434,0.027259,0.883802,0.303040,-0.924162,0.232577
-0.092590,-0.891063,0.421242,0.295959,0.331841,-0.895706
0.343977,0.110888,0.604290,0.877967,-0.298226,0.374479
-0.051869,-0.565848,0.411386,0.999753,-0.013400,0.017750
0.084649,-0.778022,0.318624,0.918954,-0.216793,0.329431
-0.544153,0.032961,0.449003,-0.812759,0.495992,0.305638
-0.014150,-0.651977,0.072091,0.656250,0.734607,0.172303
0.383193,0.660681,0.225884,0.750797,-0.260645,-0.606933
0.609086,0.434802,0.192303,0.038508,0.965506,-0.257516
0.713778,-0.191516,0.399924,0.523510,-0.651865,-0.548643
-0.186673,-0.402390,0.040896,0.118527,-0.968819,0.217581
0.439454,-0.343770,0.591781,-0.649795,0.730996,0.208354
0.923058,0.009354,0.626232,0.581484,0.092366,-0.808298
0.157523,-0.031560,0.901552,-0.222180,-0.854177,0.470125
-0.314512,-0.432900,0.571333,-0.015986,0.507541,0.861479
0.055401,0.569450,0.556348,0.453203,0.850037,-0.268412
0.406987,0.715800,0.453508,0.074444,-0.868820,0.489500
0.018539,-0.558845,0.403291,0.999002,0.020359,0.039755
-0.213783,-0.051968,0.701423,0.906310,0.420891,-0.038107
-0.133094,-0.040465,0.666971,0.927065,0.092553,0.363296
0.044040,0.342671,-0.514204,0.025028,0.669681,0.742227
0.620015,0.433303,0.414797,0.076893,-0.102694,0.991737
0.542648,0.398691,-0.675199,0.953660,-0.117133,-0.277150
-0.065152,0.517632,0.037885,0.042177,0.112619,0.992743
-0.473640,0.394090,0.533225,0.951329,0.212855,0.222860
0.060542,-0.445606,0.693395,0.965852,0.221223,0.134867
0.283432,0.112289,0.741515,-0.659818,-0.671987,-0.336265
-0.158595,0.258840,0.698122,0.760244,0.641434,-0.102918
-0.216033,0.303256,0.590220,-0.691792,0.473049,-0.545571
0.184953,-0.234433,0.801476,0.833673,-0.381171,0.399622
0.028932,0.013155,0.856085,0.973148,0.068142,-0.219865
0.388124,0.186314,0.102529,-0.308045,0.907074,-0.286922
0.496244,0.748914,0.227557,0.720863,0.029488,-0.692450
0.461632,-0.028459,0.525331,0.354517,-0.687006,0.634303
0.097835,0.521533,-0.362106,-0.646852,-0.526585,0.551626
-0.113911,-0.187917,0.438612,-0.343023,-0.931752,-0.119052
-0.353303,-0.379183,0.569259,-0.423241,-0.562722,-0.710078
0.788679,0.566648,0.203831,-0.489088,0.447573,-0.748646
0.153016,-0.269943,0.767917,0.331994,-0.524232,0.784194
0.538148,0.708699,0.244258,-0.625922,0.245413,0.740266
0.338620,0.117391,0.694845,-0.099530,0.993898,-0.047549
0.348692,0.419798,0.270771,0.993905,-0.088461,0.065787
0.547469,0.401392,0.410605,-0.423892,0.534060,0.731502
0.015641,-0.290953,-0.095036,-0.805602,-0.379094,-0.455294
-0.301974,0.576454,-0.705972,0.879811,0.474523,-0.027584
0.759214,0.534838,0.436561,0.705771,0.469404,-0.530610
0.516715,0.154104,0.725081,0.869830,0.217387,0.442875
0.321151,0.631472,0.297752,0.902256,-0.378032,0.207425
-0.011684,0.217227,0.833095,0.944116,-0.288354,-0.159679
0.171983,0.040966,0.754047,0.336930,-0.018246,-0.941353
-0.487467,-0.326164,0.540516,-0.290376,0.573461,0.766044
0.194384,0.191516,0.511372,0.827157,-0.195924,-0.526712
0.400767,0.421296,-0.968336,-0.091237,0.129712,0.987345
0.106194,-0.300554,0.773714,0.772539,-0.590273,0.234012
-0.362087,-0.512030,0.272666,-0.625325,0.758457,-0.183605
0.501391,0.323365,0.460086,0.261589,0.153711,-0.952861
0.348156,-0.264442,0.244637,0.837915,-0.098256,0.536883
0.465602,-0.239732,0.454556,0.032685,0.962282,0.270085
0.186346,0.298155,0.739665,0.185770,-0.958529,0.216130
0.065898,-0.347372,0.689917,0.123682,0.217555,0.968180
0.547148,0.139499,0.763435,-0.823564,-0.458616,0.333787
0.514355,-0.149201,0.486755,0.233225,-0.525149,0.818428
0.024641,0.393989,-0.646144,0.983222,0.099328,0.152998
-0.435601,0.256942,0.294608,0.976583,-0.080736,0.199420
0.692130,-0.300056,-0.281965,0.666161,0.509479,-0.544666
0.076402,-0.531635,0.348481,0.948762,0.309480,0.063823
0.513177,-0.405294,0.403849,0.699699,-0.649651,-0.297280
0.387804,0.352074,0.250502,0.956951,-0.290113,-0.008889
0.085513,-0.189816,0.770303,0.767472,-0.506642,-0.392811
-0.755251,0.335768,-0.160951,-0.669952,-0.326881,0.666568
0.250854,-0.122293,0.886679,0.961413,-0.136416,0.238905
-0.713673,0.389385,0.318111,-0.549404,0.753305,0.361507
0.512962,-0.367979,0.606409,0.355315,-0.725537,-0.589362
0.468061,-0.224929,0.620880,0.399144,-0.146004,0.905189
-0.375914,0.535839,-0.296370,-0.482426,-0.709192,0.514113
-0.418668,-0.572051,0.496566,-0.218836,0.534299,0.816477
-0.428315,0.879758,0.345627,-0.530195,0.846454,0.049081
0.679703,-0.070074,-0.511484,0.316151,-0.132576,-0.939400
-0.011037,-0.437605,0.698970,-0.008213,0.991725,0.128114
0.109725,-0.242034,0.803929,0.010611,-0.999650,0.024230
-0.169204,0.021757,0.759287,-0.020239,-0.710448,0.703458
0.703922,0.537039,0.412121,-0.504461,0.704450,0.499269
0.643913,0.348572,0.412768,0.202054,-0.326680,0.923285
0.329509,-0.172412,0.598359,-0.446616,0.487757,0.750085
0.558293,0.316762,0.515877,-0.190316,-0.980923,0.039623
-0.137698,-0.739508,0.349663,0.858655,0.110712,0.500454
-0.120556,-0.700395,0.276502,0.965630,-0.224776,-0.130515
-0.340013,0.109688,0.536257,0.440561,0.887675,0.133937
-0.074800,0.275646,0.692548,0.133135,0.975087,0.177427
-0.007610,-0.827640,0.325559,0.870404,-0.395226,0.293588
0.276467,0.407592,-0.303795,0.818648,-0.136656,-0.557800
-0.178530,0.180215,0.698591,0.998837,-0.046126,-0.014049
0.342472,-0.201920,0.533492,0.856219,0.503321,0.116438
0.666949,0.167710,0.560808,-0.726436,0.160312,-0.668275
0.324689,0.817136,0.448178,0.289853,0.619602,-0.729437
0.175417,-0.033361,-0.274517,0.841215,0.520752,0.145515
0.002678,-0.331366,0.676292,0.328809,-0.799465,-0.502732
-0.771543,0.231231,0.078201,0.769957,0.620819,-0.147477
0.540398,0.356375,-0.960197,-0.115437,0.185108,0.975915
0.144233,0.001349,0.855149,0.665567,-0.174836,0.725571
-0.217106,0.023757,0.270883,-0.458104,0.575425,-0.677515
-0.430990,-0.601261,0.132721,0.282308,0.647229,-0.708094
-0.683777,0.660584,0.121081,0.620368,0.415576,0.665161
0.264785,-0.557245,0.324845,-0.100061,0.468620,0.877715
0.250959,-0.417297,0.674152,0.927414,-0.049569,0.370738
-0.405705,0.416595,-0.970387,-0.092763,0.059141,0.993930
-0.347515,0.050067,0.636735,0.070002,-0.907725,0.413684
0.242927,-0.118291,-0.747848,0.998756,-0.044264,0.022944
-0.143592,-0.519833,0.514182,-0.238649,-0.495798,-0.835004
-0.280221,-0.328066,-0.073273,0.050442,0.808472,0.586369
-0.198779,-0.386485,0.389868,-0.195750,0.979449,0.048591
0.051542,-0.197918,0.475316,0.169342,-0.736973,0.654366
0.151950,-0.325065,0.616934,-0.189046,-0.482611,0.855189
0.533322,0.085479,0.734246,0.289918,-0.385187,-0.876116
-0.511686,0.640774,0.091000,0.362729,0.715115,0.597527
-0.154207,0.790927,-0.049860,0.985606,-0.115510,0.123444
-0.698460,0.189117,0.330665,0.631323,0.443948,0.635878
0.114441,-0.290553,0.741627,0.569649,0.815726,0.100456
0.631376,0.481019,0.421242,0.573192,0.037345,-0.818570
0.591616,-0.156405,-0.234670,-0.117106,0.693843,-0.710541
0.309574,-0.237135,0.622731,0.106482,0.825114,0.554841
-0.758469,-0.086279,0.202225,-0.323999,-0.736571,0.593707
0.494426,-0.287451,0.590956,0.302876,-0.060915,0.951081
-0.235000,0.173910,0.611448,-0.902110,-0.015067,-0.431242
-0.645843,0.695496,0.415310,0.255216,-0.679225,0.688126
0.676701,0.188818,0.570396,0.331762,0.756523,-0.563565
0.436988,-0.265044,0.569973,-0.599894,-0.790769,-0.121702
0.339797,-0.432900,0.581858,0.786248,-0.521272,-0.331798
-0.031613,0.140800,0.796325,0.129392,0.380789,-0.915564
0.113048,0.048766,0.890759,-0.621240,-0.712572,0.326038
-0.016505,-0.329065,0.643045,-0.181834,-0.880701,0.437381
0.202527,-0.292052,0.646345,-0.147183,0.103126,0.983719
0.145410,0.856651,0.335861,0.618020,0.226538,0.752816
0.219781,-0.284450,0.663649,0.990187,-0.114180,0.080571
0.128692,0.137399,0.858583,-0.555092,-0.050635,0.830246
0.313433,0.705198,0.576841,0.925060,0.264324,-0.272757
-0.453391,0.319863,0.110578,0.829828,0.501660,0.244384
0.796933,0.345373,0.362886,0.740462,0.405336,0.536114
-0.334336,0.083980,0.607434,0.817638,-0.158488,-0.553488
0.350190,0.086682,0.890135,0.993547,0.090171,0.068799
0.115514,0.344970,-0.580944,0.992591,0.118384,0.027344
-0.026793,-0.350773,0.442804,0.174754,-0.966882,-0.186014
-0.028402,0.625171,-0.977456,0.062025,0.016554,0.997937
0.255465,0.028159,0.876645,0.995779,-0.078118,0.048191
-0.614874,0.715702,0.430183,-0.307470,0.621272,-0.720752
0.175417,-0.342869,0.613812,0.320350,0.055947,-0.945646
0.261679,-0.232430,0.643380,0.975942,-0.155766,0.152561
0.046074,-0.764318,0.088770,0.477915,0.595583,-0.645661
-0.247218,0.361779,-0.332538,0.606936,0.660146,-0.442534
0.347188,0.343071,0.519511,0.144836,-0.989098,0.026596
-0.385986,0.175510,0.607144,0.951746,-0.100859,-0.289839
-0.037185,-0.535338,0.416893,0.989833,0.141154,0.017503
0.099653,-0.502425,0.706596,0.500176,0.839666,0.211627
0.146266,0.062571,0.943384,-0.542455,-0.644190,-0.539224
0.355547,0.193519,0.439058,-0.223362,-0.787693,-0.574151
0.220638,-0.154003,0.608795,0.619609,-0.668050,0.412061
-0.641664,0.404491,0.307006,0.394453,-0.917131,-0.057253
0.062896,0.633172,-0.366967,-0.760139,-0.284190,0.584315
0.418452,-0.401590,0.668956,-0.096899,-0.870018,0.483403
-0.512327,-0.209323,-0.130736,0.569287,0.057391,-0.820133
-0.324689,0.613866,-0.978816,-0.140896,0.027580,0.989640
-0.101805,0.897364,-0.501650,0.223829,-0.185052,0.956899
0.424666,-0.424298,-0.281251,-0.277101,-0.759100,-0.589052
0.352015,-0.105188,0.416938,0.801976,-0.153716,-0.577240
0.648302,-0.071977,-0.497748,-0.186642,0.156431,0.969894
-0.491110,0.763619,0.060875,0.511842,0.709494,0.484393
0.049933,-0.090083,0.836017,-0.499293,0.789258,0.357460
0.292432,0.396389,0.424140,0.699097,0.640845,0.317144
-0.298226,0.034961,0.464345,0.176922,0.983958,0.022930
0.272071,0.017258,0.723989,0.044499,-0.987593,-0.150598
0.073295,-0.104187,0.715404,0.344822,0.926733,-0.149210
-0.042974,-0.284850,-0.293961,0.213795,0.945869,-0.244179
0.332721,0.552745,-0.508986,0.806252,-0.209791,-0.553123
0.244425,0.209125,0.791486,0.253621,0.858234,0.446219
-0.484785,-0.430702,0.438657,0.787189,-0.343122,0.512446
0.295434,0.940980,0.329572,0.647328,0.563503,0.513255
0.773891,0.344671,0.606253,0.189632,-0.760555,0.620964
0.883195,0.033362,0.381528,0.951655,-0.043085,-0.304131
-0.763505,0.110989,0.346854,0.286837,-0.383680,0.877789
-0.544257,-0.356476,0.442559,-0.736065,0.562352,0.376786
-0.534505,-0.582654,0.467377,-0.359906,0.812250,-0.459040
0.108227,-0.485720,0.297306,-0.425104,0.210487,0.880331
0.142408,0.255439,-0.209339,0.925711,-0.338103,0.169544
0.235851,0.717003,-0.978705,0.013675,0.067302,0.997639
0.277108,0.048168,0.081680,-0.437555,0.865202,-0.244891
-0.061405,-0.180312,0.733399,0.570483,-0.060156,0.819104
0.268324,0.057271,0.031307,0.180004,0.955400,-0.234116
0.098044,0.008252,0.916514,0.490202,0.733328,0.471097
-0.445569,0.256441,0.518173,-0.282075,-0.714675,0.640057
-0.685171,0.024160,0.221915,0.316072,-0.480559,0.818023
-0.024543,-0.332065,0.399813,0.488093,0.703682,-0.516330
0.047578,-0.163207,0.750702,-0.305797,0.920753,0.242284
-0.271437,0.223629,-0.966931,-0.146915,0.263626,0.953372
-0.603088,0.667184,0.084935,0.506121,0.650014,0.566853
0.409237,0.417197,0.215292,0.804290,-0.578678,0.135092
-0.163631,0.292653,0.701423,0.026268,0.955744,0.293025
0.550039,0.767720,0.147750,0.953197,0.063965,0.295506
0.039108,-0.121493,0.864046,0.653847,-0.733820,0.184369
-0.599661,0.070475,0.320006,0.029584,-0.867707,0.496195
-0.472784,0.473717,0.503211,0.731898,-0.557029,0.392485
0.453921,0.429500,0.387415,-0.548149,0.581171,0.601476
0.636517,-0.065572,-0.497413,-0.186642,0.156431,0.969894
-0.420382,0.051868,0.642778,-0.468516,0.412048,0.781479
0.957670,0.229832,-0.345828,-0.301747,0.948425,0.097158
0.574794,-0.412693,0.392610,-0.535944,0.499976,0.680285
-0.184848,0.523334,0.309994,0.097469,-0.443100,0.891158
0.429166,0.420097,0.177006,0.528766,-0.253215,0.810117
0.143912,-0.250738,0.813986,-0.122485,0.880316,-0.458303
-0.216033,0.063972,0.758507,0.883034,-0.311604,-0.350933
0.571897,-0.289152,0.470566,-0.133941,-0.443424,0.886248
-0.096016,0.558347,0.286581,0.945387,0.044480,0.322900
0.037395,-0.392487,0.697810,0.843126,-0.465025,-0.269981
0.224065,-0.091383,0.524930,0.174032,0.984297,-0.029547
-0.610374,0.274046,0.476542,0.743307,0.397255,0.538222
-0.777220,0.137899,0.339674,0.521885,0.594008,0.612201
-0.307762,0.042666,0.639210,0.617570,0.653911,0.437045
-0.453928,0.868356,0.354324,-0.567735,0.773874,-0.280707
-0.883306,0.335167,0.079137,0.885068,0.439951,-0.151979
0.597941,-0.234833,0.468448,-0.180118,-0.187765,0.965558
-0.302511,0.716102,0.319226,0.409102,-0.346075,0.844315
0.153664,-0.207821,0.788253,0.176663,-0.877957,-0.444952
0.351151,0.426801,0.450363,0.730664,0.672737,-0.116427
0.408269,0.599060,0.216140,0.876475,0.468618,-0.110403
0.061830,0.066274,-0.703474,0.945604,-0.324284,-0.025954
-0.120124,-0.000049,0.748450,-0.307721,-0.346204,0.886257
0.166627,0.720804,0.123735,-0.519691,0.093319,0.849243
-0.727500,0.681788,0.166592,0.065154,-0.104909,0.992345
-0.216138,-0.227228,0.425501,0.766936,-0.423820,-0.481857
-0.009644,-0.737509,0.310039,-0.344199,0.500561,0.794333
-0.566331,0.130295,0.250033,-0.512610,0.858088,-0.030256
0.438486,0.105488,0.555657,-0.613706,0.789440,-0.012198
-0.099019,-0.658282,0.524016,0.032221,-0.104880,0.993963
0.364546,-0.495825,0.230032,0.741837,-0.597242,0.304926
0.175306,0.086981,0.906636,0.428045,0.432490,0.793555
0.405483,0.029661,0.558534,-0.658083,-0.354136,-0.664466
-0.090339,0.196920,0.751706,-0.505782,0.501135,0.702174
0.658270,0.174011,0.533671,-0.445168,0.099687,-0.889881
-0.341518,0.352175,0.567810,-0.725572,-0.581756,0.367566
-0.021004,0.415096,0.572002,-0.356376,0.169648,-0.918812
0.288893,-0.112689,0.503969,-0.720521,-0.648843,-0.244645
0.736388,0.293053,0.603331,-0.159716,-0.780875,0.603925
0.425307,0.315260,0.663203,0.808339,-0.032946,-0.587795
0.167484,0.020659,0.778353,-0.240965,0.102361,0.965121
0.099974,-0.023858,0.954578,0.804375,0.575226,0.148647
-0.431959,0.089982,0.644026,0.473676,-0.054503,-0.879011
0.179596,0.240936,0.525197,0.912989,0.347547,-0.213686
-0.711960,-0.201221,0.101079,0.944338,0.263893,0.196434
0.112086,0.917873,0.305601,0.188422,0.967718,0.167391
0.349013,0.370479,0.432881,0.210879,-0.760949,0.613585
0.738318,0.628471,0.283013,-0.717609,-0.656335,-0.232940
-0.400558,-0.619367,0.511328,-0.393325,0.749714,0.532188
-0.707565,0.109688,0.328792,0.634385,-0.432924,0.640416
0.009533,-0.428800,0.389801,0.802508,-0.596636,-0.002609
-0.690854,-0.250039,0.175445,-0.391055,-0.822260,0.413478
0.378052,0.065172,0.589350,0.975018,-0.039789,0.218534
-0.139203,-0.400989,0.259689,0.177017,-0.815219,0.551438
-0.174776,0.163506,0.715627,0.890138,-0.447557,-0.085711
-0.280325,0.788628,-0.980645,-0.184263,0.147934,0.971680
-0.141237,0.832241,-0.055769,0.988141,-0.109166,0.107984
-0.515754,0.145602,-0.969964,-0.076488,0.138926,0.987345
0.187098,-0.229429,0.538956,-0.257082,0.548170,0.795876
-0.089267,-0.268145,0.796637,-0.529310,0.687413,0.497287
-0.504505,0.020259,0.635530,0.941820,-0.221789,0.252557
-0.046833,-0.242135,-0.250479,0.372211,0.607296,-0.701891
0.201239,-0.069275,0.897427,-0.193395,-0.859162,0.473751
-0.025825,0.229930,0.278865,-0.495284,-0.770687,-0.400919
-0.655170,-0.237135,0.425969,0.825853,0.529994,0.192544
-0.135128,0.273146,0.395687,0.037123,-0.991731,0.122850
0.280214,-0.597860,0.325692,-0.712624,0.655216,0.250719
0.071581,0.021058,0.750925,0.584173,0.696131,-0.417304
0.036002,0.097684,0.829282,-0.535471,-0.719376,0.442459
0.579294,0.722504,0.251795,0.714392,0.192364,-0.672786
-0.298867,-0.063072,0.731704,0.882290,0.170300,-0.438820
-0.115736,-0.511428,0.536859,-0.704215,-0.705258,0.081807
-0.275080,-0.436002,0.575570,0.311999,0.326735,0.892133
-0.538148,-0.594358,0.324131,0.422982,-0.898099,0.120434
0.379014,-0.231630,0.588035,-0.310487,-0.795670,0.520103
0.265642,-0.461911,0.593632,-0.255755,-0.456470,0.852188
-0.425529,-0.538339,0.266222,-0.400841,0.752522,-0.522530
0.103512,0.613164,-0.664987,0.742310,-0.623553,-0.245269
-0.059260,-0.218927,0.734001,0.635329,0.662895,0.396142
0.420055,-0.167307,0.689805,-0.542868,0.709129,-0.449923
0.058828,-0.350373,0.454288,0.064018,0.931034,0.359274
0.620440,0.413796,0.307051,0.680696,-0.690013,-0.246040
-0.207674,-0.091682,0.689404,0.875581,0.474626,0.089936
-0.877413,0.283550,0.057084,-0.767760,-0.640338,-0.022622
-0.148202,-0.382584,0.141506,0.411649,-0.613096,0.674284
0.626228,0.616067,0.298020,0.562238,-0.566673,-0.602303
0.564186,-0.465312,-0.082192,-0.815019,0.548484,0.186840
0.670487,0.191419,0.129488,0.507624,0.564168,-0.651178
-0.034295,0.771920,-0.969116,-0.054468,0.168440,0.984206
0.346226,-0.181414,0.520113,-0.705287,-0.685155,-0.182024
-0.363696,-0.443607,0.295299,-0.641194,0.536070,-0.549090
0.313328,0.476116,0.482050,-0.013626,-0.474040,0.880398
0.154521,0.940079,0.173349,-0.135392,0.902806,-0.408180
0.423698,-0.321164,0.580698,0.950483,0.298438,0.086696
-0.594946,-0.593958,0.238171,0.178628,-0.983880,-0.008469
-0.472358,0.051968,0.469072,0.013829,-0.911908,-0.410163
-0.228467,0.425900,0.575035,-0.050756,-0.995406,0.081179
0.203384,0.407794,0.546158,0.947890,-0.148628,0.281805
0.067186,0.558045,0.150671,0.812848,0.578952,-0.063976
0.124513,0.040465,0.864626,-0.533318,-0.372868,-0.759303
0.074577,-0.401490,0.706529,0.394277,-0.900021,0.185761
-0.408491,-0.318660,0.549480,-0.577520,0.638978,0.508113
-0.255792,0.334468,0.621973,0.473721,-0.863236,-0.174392
0.417700,-0.510528,0.351737,0.853184,0.405796,-0.327729
-0.044046,-0.914771,0.270883,-0.004091,0.863847,0.503737
-0.224824,0.213326,0.677831,-0.645505,-0.142667,0.750313
-0.401742,0.105588,0.300183,-0.490263,-0.124878,-0.862582
0.485211,-0.472614,0.401039,-0.592860,0.750111,0.293004
-0.364232,-0.074077,0.594769,-0.102780,0.755190,0.647398
0.686773,0.228831,0.563863,-0.447820,-0.690300,0.568282
-0.342479,0.716603,-0.979708,-0.444722,0.123761,0.887077
-0.533865,-0.518932,0.484503,-0.454249,-0.372599,0.809215
0.310647,0.036564,0.801833,0.744150,-0.663518,0.077369
0.179701,0.717403,0.329059,-0.462507,0.125275,-0.877720
0.122047,0.046366,0.870914,-0.451983,0.013404,0.891926
0.110373,-0.077878,0.786737,0.941427,0.142308,0.305718
-0.524008,0.407193,0.541698,0.820566,0.456704,0.343645
-0.021221,-0.733809,0.537194,-0.171685,0.530403,0.830179
0.428845,-0.468115,0.356754,0.872317,0.339952,-0.351419
-0.443849,0.389288,0.288922,0.856806,0.279555,-0.433280
0.541360,0.245338,0.139856,0.247909,-0.816450,0.521489
-0.433672,0.056270,0.465460,-0.202988,-0.851213,-0.483976
-0.295866,0.654881,0.015609,0.807039,-0.054976,0.587934
0.251286,0.448907,0.551688,0.849481,-0.335457,0.407247
-0.153023,0.358775,0.580565,0.267662,0.809860,0.522000
0.345579,0.526436,-0.972328,-0.054969,0.111478,0.992245
-0.675530,0.254939,0.472573,0.161790,0.819864,0.549224
0.508037,-0.191717,0.100566,-0.074570,-0.808708,-0.583464
-0.341518,0.017856,0.642911,0.170716,0.843590,0.509129
0.284505,0.104187,0.760135,0.948351,0.256272,0.186961
0.610799,-0.120993,0.682357,0.927075,0.374864,-0.002885
-0.354696,-0.056969,0.425434,-0.484749,0.422659,-0.765753
0.509534,0.319161,0.374303,0.842543,-0.016977,0.538361
0.859191,0.232632,0.550105,-0.585933,-0.004257,0.810348
0.936237,0.012856,0.625273,0.581484,0.092366,-0.808298
-0.603945,0.237935,0.489341,-0.083856,-0.900756,0.426153
0.043072,0.435703,-0.972015,-0.009968,0.136567,0.990581
0.421559,-0.416796,0.370579,0.848725,0.421689,-0.319132
0.790288,0.495123,0.211301,-0.466689,0.488787,-0.737081
-0.563336,0.182013,0.478593,-0.528729,-0.538408,-0.656172
0.157523,0.357474,-0.969585,0.041402,-0.125964,-0.991170
0.766389,0.419596,0.189337,0.219111,-0.783637,0.581295
-0.314512,0.039565,0.429447,0.668640,0.691315,-0.273867
0.246995,0.189016,0.769366,-0.543477,-0.785579,0.295802
0.557004,-0.212926,0.636199,0.552086,0.497984,-0.668740
0.487460,-0.467913,0.642555,0.598515,-0.743981,0.297108
0.106834,-0.059970,0.892945,-0.291162,0.378407,0.878654
0.317397,0.895966,0.314878,-0.187017,0.674995,0.713728
0.738318,0.284851,0.537239,-0.412709,0.909316,-0.053064
0.737566,-0.194016,0.094613,0.225231,0.738641,0.635359
-0.342263,0.054069,0.376042,0.907191,0.366117,0.207276
0.560007,0.048268,-0.395420,-0.111312,-0.677186,0.727344
0.837654,-0.097584,0.044352,0.818545,-0.503625,-0.276306
0.166411,-0.194618,0.041252,0.406409,0.913417,-0.022387
-0.252895,0.549543,0.307697,-0.030711,-0.339908,0.939957
0.812257,0.281248,0.541966,-0.479934,0.584669,0.654084
-0.232966,0.466915,0.305757,0.043250,-0.127284,0.990923
0.708526,0.351274,0.467957,0.941792,0.336156,0.005100
0.802931,0.268646,0.515297,-0.091561,0.982439,0.162575
0.250750,0.091182,0.797819,-0.631436,0.775423,0.002853
-0.225680,-0.143599,0.723721,0.569586,-0.340836,0.747932
-0.385024,0.800632,-0.348905,0.987190,-0.159548,0.001123
-0.488749,0.549143,0.396758,0.221588,-0.688601,0.690454
0.079725,-0.470615,0.731258,-0.593606,-0.800639,0.081293
0.225353,0.030162,0.836953,0.864592,0.362583,0.347871
-0.153134,-0.224728,0.579963,0.365266,-0.145118,0.919523
0.115729,0.444205,0.558199,0.658639,0.706231,-0.259677
0.340759,-0.180013,0.766780,-0.554964,0.639921,-0.531522
0.020789,-0.230632,0.762610,-0.342560,0.936876,0.070109
-0.214215,-0.418295,0.457789,0.556340,0.684456,0.471174
0.444058,0.380783,0.685791,0.665938,0.413066,-0.621211
-0.318371,0.175510,0.581055,0.289658,-0.952539,-0.093634
0.011782,0.191818,-0.163203,0.978196,0.005523,0.207609
0.143912,0.286350,0.725706,-0.273605,0.677595,-0.682645
0.403337,0.640874,0.219484,0.904662,0.411066,-0.112303
0.292536,0.954586,0.328747,-0.537046,-0.729062,-0.424323
-0.522184,-0.173910,0.605450,0.911769,-0.408725,-0.040262
-0.047258,0.501027,0.025108,0.252868,0.118556,0.960210
0.224169,-0.468515,0.683896,0.643818,-0.625723,0.440419
0.807221,-0.174011,0.059292,0.748274,-0.645353,-0.153638
0.763930,0.060971,0.582616,0.365174,-0.911688,0.188342
0.148196,0.030061,0.933394,0.736944,-0.633845,0.234848
0.215602,-0.273247,0.364871,-0.188453,0.798284,-0.572038
-0.289652,0.243637,0.572961,0.157226,-0.956608,0.245319
0.512752,-0.225030,0.677251,0.474396,0.626748,0.618171
0.938808,-0.049266,0.414931,0.597675,-0.783380,-0.170587
0.469134,0.008954,0.691990,0.424880,0.396328,-0.813881
0.049292,0.209125,0.866989,0.179128,0.864997,0.468714
0.647125,0.250738,0.470611,-0.364276,-0.220112,-0.904905
-0.345049,-0.150101,0.498952,-0.756640,0.439771,-0.483836
0.244530,0.069775,0.762454,-0.296146,-0.206071,0.932648
-0.136737,-0.089280,0.714356,0.132574,0.977084,-0.166525
0.122911,0.905967,0.343754,-0.047280,-0.988535,0.143398
0.326828,-0.176811,0.555635,0.800577,0.472295,0.368801
0.088404,-0.340870,0.664808,-0.377878,0.529878,0.759234
0.666092,0.053269,0.537328,0.235504,-0.678571,0.695758
-0.171454,-0.229231,0.448290,0.314572,-0.942071,0.116387
0.250102,0.560146,0.319493,0.843918,-0.460720,0.274846
-0.313760,-0.251437,0.445926,-0.157252,0.950805,-0.266913
0.370766,0.250137,0.736387,0.427234,0.904001,-0.015927
0.883835,0.269446,0.363065,0.578544,0.491213,0.651150
0.662985,-0.397289,0.487580,0.886776,-0.303331,-0.348740
0.390806,-0.226028,0.440062,0.316104,0.948494,0.020901
0.816652,0.181714,0.561187,-0.686392,0.554554,-0.470463
0.493890,-0.290153,0.405499,0.799069,0.592297,-0.103309
0.031934,-0.411494,0.714869,-0.636792,-0.559021,-0.531028
-0.134703,-0.928576,0.446595,0.907797,0.374448,0.188929
-0.481999,-0.359877,0.443027,0.507395,-0.529230,0.680048
-0.661703,0.108388,0.342282,-0.357672,-0.856702,-0.371661
-0.274969,-0.093981,0.251795,0.878253,0.235952,-0.415930
-0.019291,-0.001349,0.911921,-0.350126,0.923568,-0.156314
-0.454457,0.227931,0.536770,0.945142,0.278302,-0.171039
0.714315,0.385185,0.468448,0.556551,0.829095,0.053399
0.150341,0.803233,0.139589,-0.208726,-0.622200,0.754520
0.266819,0.399991,0.493556,0.398329,-0.816826,-0.417289
0.325330,0.094385,0.708870,0.217437,0.910469,0.351805
0.407412,-0.301454,0.381372,-0.427717,-0.505160,0.749581
-0.027218,-0.333466,0.472818,0.053676,-0.355458,0.933150
0.096226,0.652680,0.234246,-0.683599,0.401755,0.609332
-0.574481,-0.380184,0.443183,0.389323,0.911645,-0.131649
-0.749895,0.210825,0.480957,-0.457409,0.086340,-0.885055
-0.683457,0.326063,0.152031,-0.608957,-0.284470,0.740437
0.342472,0.392289,-0.969629,-0.012412,0.183240,0.982990
0.200702,-0.353875,0.513424,0.106340,0.930424,0.350718
0.387804,-0.406793,0.341524,0.816457,0.442497,-0.370938
0.037611,-0.255140,0.688155,0.968036,0.191867,0.161533
-0.464209,-0.351173,0.443986,-0.636577,0.529045,-0.561142
0.564402,-0.301256,0.469652,-0.239137,-0.385410,0.891220
0.235425,0.175712,0.453686,0.343618,0.873697,0.344355
0.650984,0.085980,-0.386478,0.246416,-0.954752,0.166519
-0.242718,0.191217,0.677229,0.198023,0.614737,-0.763469
0.812042,0.080378,0.595349,0.072231,0.985198,0.155457
-0.433992,0.580554,0.398698,0.776918,-0.117495,0.618542
0.077259,-0.488022,0.717812,0.464319,0.885635,-0.007713
0.062896,-0.120193,0.697297,-0.820912,0.029355,-0.570300
0.956814,0.260742,0.543014,-0.593341,0.801848,-0.070616
0.501817,-0.416595,0.397248,0.728499,-0.678382,-0.095326
-0.259971,-0.507227,0.497458,-0.542453,0.827926,-0.142418
0.103296,0.489723,-0.972238,-0.070158,0.028675,0.997124
-0.109947,-0.729006,0.383111,0.751484,-0.172256,-0.636867
-0.471711,0.291054,0.519868,0.886674,0.242007,-0.394007
-0.064616,0.340070,-0.511015,0.629654,0.435697,0.643198
0.223960,0.769121,-0.628908,0.049718,-0.940990,0.334762
-0.075761,0.882161,-0.978058,0.082841,0.182249,0.979756
-0.451142,-0.595760,0.064354,0.458557,0.875332,-0.153361
0.268644,0.814736,-0.558110,-0.517197,0.823539,0.233004
0.069332,0.066274,0.489319,0.949968,-0.178409,-0.256380
-0.270685,-0.593357,0.132542,0.303621,-0.843503,0.443078
0.235851,0.869855,-0.983588,0.065575,0.109352,0.991838
0.861977,-0.029561,0.428734,-0.307452,-0.810135,-0.499153
-0.391558,0.561248,0.326228,0.942880,0.004824,0.333097
-0.400558,-0.360777,0.382219,0.631287,0.610073,-0.478840
0.923058,0.293753,0.485394,-0.827319,0.559290,0.052339
0.700808,0.299257,-0.509455,-0.098485,0.004378,0.995129
-0.052725,0.161806,0.904808,-0.377835,0.886694,0.266484
-0.137058,0.268444,0.726553,0.681946,0.721339,-0.120915
0.202848,-0.407192,0.665656,-0.678705,-0.330503,-0.655841
-0.402271,-0.484719,0.367235,0.234529,-0.841854,0.486084
0.117227,-0.692192,0.295344,0.459541,-0.657064,-0.597569
0.205097,0.234732,0.702381,0.732703,-0.593137,0.333669
0.048860,-0.661582,0.101325,0.530036,-0.319265,0.785578
-0.238323,-0.632571,0.522455,-0.170437,0.016881,0.985224
0.468709,-0.505826,0.640927,-0.660482,0.723619,-0.200347
0.327043,0.162206,0.591134,0.996184,-0.085777,-0.016087
0.111118,0.087482,-0.912099,-0.323191,0.866664,0.380055
0.286644,0.292153,0.618294,-0.230147,-0.889840,-0.393975
0.939560,0.362777,0.034674,0.129922,0.892800,0.431310
0.090117,0.134996,-0.211769,0.994578,-0.081382,-0.064744
-0.094728,0.856352,0.170093,-0.029471,0.245519,0.968944
-0.055512,0.219126,0.661910,-0.213185,-0.923902,-0.317737
-0.745931,0.219028,0.106386,0.828233,0.559507,0.031333
0.137483,-0.090580,0.083865,0.928705,-0.006102,-0.370768
0.531183,0.701797,-0.375953,0.288355,-0.935340,-0.204917
-0.506971,0.127294,0.440039,-0.379417,0.924602,0.033972
0.513609,0.784824,-0.020782,-0.695810,-0.412845,-0.587714
0.266499,0.498726,-0.309571,0.834355,-0.142286,-0.532547
-0.184528,-0.405092,0.314900,-0.598720,0.788103,-0.142926
0.444810,0.347073,0.605517,0.011675,-0.971380,0.237245
-0.275616,-0.053168,0.569326,-0.591043,-0.773248,0.229684
0.184633,0.757016,-0.979084,0.111733,0.103130,0.988372
-0.149700,0.156906,0.736320,0.857610,-0.190569,-0.477690
-0.621630,0.311160,0.455113,0.947168,0.085159,0.309227
0.035681,-0.198220,0.678678,0.932096,-0.359403,-0.045021
0.363801,-0.121292,0.677831,0.824732,0.564945,0.025585
0.507500,0.576753,0.217522,-0.721623,-0.091365,-0.686231
0.670808,-0.258340,0.481470,-0.482401,-0.111593,0.868813
0.159236,0.012654,-0.125764,0.906849,0.405164,-0.116048
0.302720,0.335167,0.254181,0.635170,-0.771857,-0.028209
-0.466570,-0.164407,0.405610,-0.002680,-0.751564,0.659654
0.287821,-0.008954,0.866610,0.933075,-0.230789,0.275878
0.031286,-0.035163,0.723164,-0.553731,0.037460,0.831852
-0.317939,-0.551445,0.138050,-0.041376,-0.726882,0.685515
0.316004,-0.129596,-0.438657,0.926285,0.231393,-0.297413
-0.549084,0.059970,0.508741,-0.314694,0.687792,-0.654148
0.155377,0.232733,0.337198,-0.471209,0.619103,0.628230
0.109189,-0.234130,0.802992,0.120703,-0.990045,-0.072397
0.060973,0.483520,0.090889,0.859616,0.500449,-0.103007
-0.143062,0.492022,-0.601012,0.734261,0.058627,-0.676331
0.792217,0.542641,0.287673,0.936685,-0.181403,0.299522
0.191277,0.088981,0.891473,-0.320169,-0.935863,-0.147146
0.615515,-0.335668,0.425434,0.999211,-0.031506,0.024189
0.616588,-0.169811,0.474780,-0.238318,-0.381356,0.893181
0.157091,0.578554,0.599585,0.303273,-0.952640,-0.022429
0.117227,0.555844,0.352138,0.913859,-0.311327,-0.260650
0.482424,-0.070975,-0.228047,0.181439,0.954896,-0.235062
0.164377,0.000650,-0.563127,-0.019491,0.973442,0.228105
0.745172,0.154305,-0.333876,-0.347890,0.934075,0.080478
0.287396,-0.338669,0.471792,-0.250188,0.674709,-0.694387
0.551968,-0.059570,0.705481,-0.290068,-0.548998,0.783876
0.437629,-0.444407,0.610289,0.287292,-0.344116,-0.893895
0.195882,-0.166507,0.771329,0.876901,0.032496,0.479571
0.423377,-0.273646,0.514650,-0.662561,0.213764,-0.717856
0.015752,0.290852,-0.687152,-0.221935,-0.414343,0.882646
0.318685,-0.269446,0.575704,0.900365,0.364617,-0.237482
-0.428740,0.727306,0.342951,0.914970,0.364915,0.172242
-0.049508,0.664082,0.210833,-0.662026,0.571735,0.484604
0.787607,-0.179113,0.070173,0.320447,0.403324,0.857114
0.798967,0.502926,0.197855,-0.466689,0.488787,-0.737081
0.123656,0.129495,0.913214,0.110960,0.931008,-0.347724
-0.058403,-0.502126,0.492062,0.859722,-0.423450,0.285601
0.701345,0.176612,0.566427,0.765282,0.127696,0.630902
-0.287402,0.508928,0.673193,-0.383386,0.912158,0.144858
0.430343,-0.457811,0.612362,-0.627574,0.562167,0.538628
0.011782,-0.352073,0.311288,0.011366,-0.935119,0.354151
0.403553,0.365277,0.394149,0.633072,-0.631085,-0.448276
0.622690,0.213225,-0.365718,0.265242,-0.927281,0.264192
0.592257,-0.002451,0.329439,-0.550080,0.032485,-0.834480
-0.212286,-0.455409,0.218704,0.442589,-0.820912,0.360857
0.074257,-0.586555,0.580854,0.275654,0.953624,-0.120898
0.400983,-0.419898,-0.402266,0.762372,0.637794,-0.109580
-0.449532,0.356876,0.511841,0.935126,-0.354240,-0.007344
0.898303,0.209925,0.079829,-0.636521,0.297165,0.711712
-0.352551,0.132798,0.599652,0.865198,-0.441809,-0.237146
0.604475,0.077377,0.721625,0.979393,0.020719,0.200896
0.508782,0.223629,0.311689,0.924932,-0.358995,-0.124996
-0.168883,-0.308458,0.580520,0.854408,-0.496583,0.152944
-0.281830,0.607064,-0.708268,0.547351,0.825114,-0.139977
0.638230,-0.407394,0.403046,-0.744259,0.553886,0.373214
0.741856,0.573853,-0.039981,0.866312,0.447919,0.221069
0.427452,-0.008752,0.725126,-0.056118,-0.714582,0.697297
-0.565795,0.183615,0.257570,-0.539520,0.840773,-0.044926
-0.467322,0.163409,0.341168,-0.534819,0.719804,0.442551
-0.164920,0.635272,0.014717,-0.702676,0.141631,0.697271
0.423273,-0.154403,0.632944,0.879711,-0.460192,-0.119712
-0.245393,-0.158207,0.729965,0.855752,0.431706,-0.285164
-0.553368,-0.504828,-0.299581,-0.265735,0.907504,0.325301
0.413521,0.808533,0.461513,0.014823,-0.590958,0.806566
-0.488965,-0.499727,0.284574,-0.643022,0.521572,-0.560790
0.313224,-0.457210,0.554787,-0.327378,0.787749,0.521799
0.684418,0.247438,0.522232,-0.188442,0.907413,0.375620
0.513073,0.098784,0.527829,0.237771,-0.272076,0.932438
-0.668669,0.231933,0.485997,-0.122196,-0.962672,0.241519
0.173272,0.517433,0.608750,0.196360,-0.938678,0.283419
0.730175,0.274447,0.610177,-0.154336,-0.449974,0.879604
-0.311406,0.280048,0.644717,-0.325649,0.941431,0.087525
0.167804,-0.348172,0.453329,0.873245,-0.487206,0.008525
0.083368,-0.698396,0.311466,0.415927,-0.877517,-0.238681
0.342904,0.002952,0.658141,-0.755226,0.642696,-0.128746
0.018748,-0.234433,0.521919,0.908677,0.316783,0.271945
0.467525,-0.137997,0.707689,0.019411,0.662668,0.748662
-0.256649,-0.099586,0.400660,0.938563,0.343993,-0.027727
0.474818,0.110290,0.752063,0.995330,-0.086169,0.043507
0.032464,-0.601761,0.350934,0.738424,-0.594834,-0.317651
-0.016825,-0.404192,0.630090,-0.204436,0.025725,0.978542
0.253104,0.643875,0.553472,0.974599,0.088416,-0.205763
0.819968,-0.196419,-0.010703,0.630960,0.534664,-0.562160
0.129445,0.230330,-0.587834,0.873977,0.366083,-0.319606
0.160950,-0.409494,0.573719,0.313309,0.849819,0.423845
0.694706,0.418296,0.397360,-0.626572,0.644167,-0.438699
0.941914,-0.012153,0.626343,0.370503,0.085004,-0.924933
0.789536,-0.105487,0.510726,-0.769400,-0.633451,0.082240
-0.713249,0.462214,0.169536,-0.365762,-0.549007,0.751538
0.120870,0.934178,0.171030,-0.135392,0.902806,-0.408180
-0.532576,0.619169,0.426772,0.016503,-0.617851,0.786122
0.891017,0.207922,0.589930,0.068468,0.703668,-0.707222
0.317397,0.033862,0.767003,0.434095,0.774116,-0.460767
0.464955,0.710100,0.223008,-0.671995,0.418034,0.611285
0.495283,-0.132395,0.661597,0.062325,0.585046,0.808602
0.414057,-0.028058,0.512509,-0.530212,0.698135,-0.481126
0.356724,0.151204,0.610735,0.981280,-0.072267,0.178512
-0.481463,0.678888,0.399300,0.852253,-0.005910,0.523096
0.080686,0.295355,0.160862,0.781906,0.317642,-0.536402
0.360799,-0.358576,0.369152,0.822780,0.428607,-0.373267
-0.007394,-0.239134,0.534674,0.556863,0.820636,-0.128295
-0.328659,0.227931,-0.683227,-0.444144,-0.042282,0.894957
-0.156025,-0.428501,0.425188,0.630377,0.672674,-0.387471
0.115514,0.008752,0.872988,0.010044,0.408120,0.912873
-0.125808,0.011955,0.602885,0.869425,-0.427164,-0.248255
-0.473215,-0.556546,0.109843,0.372593,0.925240,-0.071458
0.328116,-0.337069,0.303996,0.857185,0.477059,-0.194030
0.593762,-0.322263,0.211345,0.738192,0.467678,-0.486159
-0.178099,-0.392386,0.573541,0.770155,-0.613065,0.176104
0.628373,-0.254438,-0.297507,0.465854,0.377272,-0.800404
0.429166,-0.142399,0.692213,-0.483208,-0.748223,0.454612
-0.381381,-0.123392,-0.167730,-0.052688,-0.210872,0.976093
0.177772,-0.381085,0.609062,0.951308,-0.308185,0.005951
-0.062798,0.912170,0.172189,-0.429248,0.872581,0.233127
0.223744,-0.280448,0.744637,0.535972,0.520845,-0.664420
0.672737,-0.071876,0.537528,0.940849,0.042381,0.336166
0.071470,0.221028,0.714869,0.535739,-0.794713,-0.285332
0.535571,0.713101,0.242318,-0.682591,0.267363,0.680138
0.026146,0.216226,0.834835,0.934211,-0.248694,-0.255737
-0.639845,0.719702,0.092717,-0.581018,-0.459195,-0.671981
-0.378595,0.665984,-0.291152,0.858912,-0.096621,-0.502925
0.203489,0.683989,0.576439,0.885549,-0.460097,-0.064138
-0.799078,0.024059,0.302792,-0.613293,-0.789559,-0.021624
-0.244968,-0.525034,0.570575,-0.364449,0.617470,0.697071
0.016714,0.195619,0.825447,0.984001,-0.167656,0.060282
-0.050692,-0.593357,0.525643,0.235048,0.104177,-0.966385
-0.502575,0.441406,0.571132,-0.810586,0.528944,0.251333
-0.468925,0.483019,0.494671,0.942525,0.154962,0.296029
-0.256217,-0.371779,0.282054,0.559844,-0.126946,-0.818816
-0.285041,0.650277,0.318401,0.455089,-0.105342,0.884193
0.292432,-0.036261,0.799982,-0.454844,-0.625403,-0.634026
0.622370,-0.395589,0.321322,-0.666746,0.716397,-0.205484
0.038788,-0.110689,0.022455,0.976491,-0.182952,0.113993
-0.202213,-0.474416,0.526468,0.801386,-0.127584,-0.584383
0.232855,0.049468,0.875574,0.931920,0.175992,0.317099
-0.366482,-0.507728,0.269835,-0.475217,0.724444,-0.499348
-0.423168,0.864855,0.033448,0.713995,0.531867,0.455334
-0.180996,0.700396,-0.312626,0.678195,-0.285077,0.677335
-0.078874,0.002152,0.793984,-0.252394,0.211697,0.944183
-0.266401,0.186415,0.590041,0.163270,0.930642,0.327487
-0.323728,-0.358677,0.570909,0.520656,0.473191,0.710639
0.112086,-0.080778,0.501806,0.787245,-0.033155,-0.615748
0.006962,0.744213,-0.975405,0.182613,0.047201,0.982051
0.669840,0.208224,-0.522053,0.334421,-0.079263,-0.939085
-0.494753,0.098384,0.458213,0.459724,-0.856308,0.235351
0.200382,0.099486,0.860144,0.074556,-0.977034,0.199616
0.379229,-0.275048,0.540271,0.905627,0.235243,0.352845
-0.577796,-0.414995,0.528319,0.027402,-0.984822,0.171389
-0.417595,-0.078778,0.647772,-0.634378,0.746499,-0.200760
0.344082,0.049868,0.740802,0.283622,0.206468,0.936445
0.102224,-0.192918,0.742095,0.065198,0.054976,0.996357
0.220638,0.209323,-0.491504,-0.614358,0.132863,-0.777761
0.216458,-0.221828,0.400103,-0.504390,-0.205076,-0.838770
0.274537,0.198321,0.624827,0.978864,0.196226,-0.057633
0.262215,-0.278647,0.470967,0.274903,-0.447186,-0.851148
0.183128,0.824539,0.414507,0.819853,0.066173,-0.568737
0.844403,0.479117,0.343754,0.734641,0.260983,0.626251
-0.472031,0.831841,0.344847,0.519344,0.395842,-0.757357
0.057003,0.229732,0.681845,0.829194,0.555282,0.064020
0.632232,-0.310558,0.428333,0.935157,-0.036118,-0.352387
-0.113590,0.036164,0.599541,0.984050,-0.169937,-0.052598
0.572760,0.119091,0.519489,0.189908,0.349646,-0.917432
0.123231,0.130795,0.590956,0.217901,0.970049,-0.107347
0.754067,0.548743,0.259800,0.188551,-0.931118,0.312199
-0.617876,-0.190518,0.189538,0.097422,-0.737274,0.668533
-0.071156,-0.959086,0.382509,0.971091,0.001698,0.238703
0.317933,-0.415695,0.507113,-0.414993,0.870598,-0.264273
-0.379236,-0.605962,0.513178,-0.707638,0.374189,0.599359
0.071150,0.261942,0.675779,0.789203,0.392225,0.472566
0.341727,0.161907,0.646033,0.206909,-0.734448,-0.646355
-0.014359,0.036863,0.744749,0.041023,-0.650250,0.758612
0.500424,-0.072276,0.469629,-0.004537,0.773356,0.633956
-0.630846,0.507029,0.374169,0.810565,-0.368127,0.455484
0.141446,0.364376,0.771618,0.974087,-0.149374,0.169829
-0.199211,0.157807,0.638095,0.901906,-0.135034,0.410282
0.200598,0.029961,0.927374,0.493240,-0.438284,0.751413
-0.631592,0.784125,0.203162,-0.320390,-0.256464,0.911908
0.202952,-0.105087,0.856286,0.507640,-0.223368,-0.832111
0.138444,-0.331067,0.579494,0.166300,-0.863222,0.476648
0.034288,-0.648076,0.362619,0.800704,-0.597737,-0.039793
0.581976,0.755017,0.259555,0.805225,0.109892,-0.582697
-0.325225,0.331168,0.610623,0.889935,0.413211,-0.193059
0.247211,-0.293053,0.688802,0.355962,0.119565,0.926820
-0.375809,-0.373382,0.568345,0.258540,0.653780,0.711146
-0.602016,-0.175413,0.397449,-0.394608,0.881208,0.260301
0.593226,0.080479,0.098069,0.418207,0.309749,-0.853907
-0.453928,-0.118392,0.201824,-0.562433,0.794906,0.227580
-0.813657,0.342570,0.116064,0.889444,0.108238,-0.444042
-0.321582,-0.549042,0.562993,0.863068,0.456165,-0.216859
-0.350085,-0.335869,0.559626,-0.274513,-0.826350,-0.491720
0.458526,0.101485,0.071623,-0.317156,-0.658047,0.682925
-0.218178,0.007953,0.744905,-0.431421,0.672532,-0.601312
0.251816,0.697996,0.331044,-0.773476,0.517082,-0.366554
0.285571,0.461814,0.549347,0.960063,-0.193763,0.201830
0.312256,0.612165,-0.974647,-0.126926,0.094115,0.987437
0.665131,0.029661,0.338224,0.084034,0.870361,-0.485191
0.220206,0.366578,0.373523,-0.069168,-0.176700,-0.981831
-0.208852,0.092782,0.727066,0.895889,-0.404839,-0.182997
-0.074584,-0.952983,0.452683,0.616950,-0.758364,-0.210372
-0.234575,0.589758,0.314744,-0.343027,-0.430322,0.834958
0.037290,0.306959,-0.590889,0.825132,0.175843,-0.536877
-0.416739,-0.313260,0.543482,0.029635,-0.989788,0.139434
-0.439565,0.340268,0.556995,-0.287172,-0.627347,0.723857
0.831970,0.334969,0.354346,0.671039,0.431921,0.602620
0.085722,0.594160,-0.199572,-0.805216,-0.339130,0.486434
-0.074158,0.568049,0.272488,0.955837,0.040710,0.291066
0.226530,-0.345272,0.620033,0.938967,-0.322234,-0.120442
0.131054,0.085382,0.906101,0.959953,0.195012,0.201150
0.345475,-0.063572,0.683673,-0.677635,-0.164556,0.716751
0.610159,-0.436603,0.614436,0.096599,0.586081,0.804474
0.057755,-0.380383,0.342037,-0.745807,-0.312030,-0.588566
0.287932,0.101784,0.715248,-0.024008,0.969369,0.244432
-0.408596,0.020457,0.640414,-0.359446,-0.808353,0.466223
0.718494,0.379284,0.412010,-0.427459,0.405123,-0.808180
-0.427243,0.371181,0.074076,0.467788,0.866249,-0.175464
-0.206713,0.392487,0.343063,0.669327,0.733806,0.116319
-0.562799,0.373480,0.176248,0.815388,0.551892,0.174807
0.176379,0.330866,0.530772,0.952903,-0.300929,0.037646
-0.147771,0.415496,-0.971413,-0.000831,0.155722,0.987801
