0.743674,-0.069546,0.343408,-0.001577,-0.716651,0.697430
0.062079,-0.535148,0.682459,-0.204270,-0.321999,0.924441
0.394031,0.401354,0.834104,-0.257432,0.700720,0.665373
0.314712,-0.397769,-0.124914,0.923445,0.093572,0.372147
0.044463,0.414296,0.766104,0.959427,-0.136937,0.246473
0.717384,0.667267,0.725628,-0.420487,0.852122,0.311575
0.483095,-0.629623,-0.972090,0.911437,-0.341395,0.229635
-0.041814,-0.062951,0.476462,-0.397272,0.502700,-0.767768
0.514478,-0.635784,0.589890,-0.574235,-0.786721,0.226549
-0.539163,-0.253003,0.224230,-0.682609,0.343009,0.645283
0.521330,0.466322,0.788364,-0.765362,0.641230,0.055184
0.388073,-0.359062,0.442045,0.706942,-0.673658,-0.215448
-0.245999,0.597256,0.284541,0.825919,-0.412399,-0.384428
-0.179062,0.691178,0.269166,0.407703,-0.912803,-0.023837
-0.847290,0.376903,0.584792,-0.058154,-0.007542,0.998279
0.349415,-0.481333,0.871496,-0.748130,0.446770,0.490611
0.274725,0.502342,0.849360,-0.613968,-0.041959,-0.788215
-0.134545,0.321637,0.296892,-0.758234,0.600418,-0.254123
-0.208436,0.250082,0.256092,-0.367755,0.850043,0.377072
-0.288622,0.612565,0.760786,-0.627494,-0.212386,-0.749095
0.186213,-0.243032,0.127279,-0.769432,-0.621344,0.148008
0.376090,-0.372744,-0.205162,0.803496,0.589914,0.079972
0.272188,-0.130736,0.205309,0.697738,0.158256,0.698653
-0.031983,0.115351,0.546761,-0.200548,0.846529,0.493122
0.349794,0.151470,0.316082,-0.568527,0.725457,-0.387929
0.420515,0.673673,0.861128,0.774701,-0.148614,-0.614616
0.777781,0.560697,0.800548,0.853201,0.069635,-0.516913
0.134923,-0.365913,0.617516,-0.006680,0.836934,0.547263
0.425638,-0.370604,0.345163,-0.387624,-0.862204,0.326117
0.412107,-0.639403,0.662414,-0.127637,-0.449903,0.883909
0.299179,-0.425840,-0.206934,-0.406839,0.286535,0.867398
0.554033,-0.160535,0.431891,0.838800,0.394884,-0.374808
-0.056301,0.232040,0.576548,-0.628612,-0.001133,-0.777718
0.672896,0.577101,0.757090,0.297314,0.875024,-0.382018
0.640686,0.532110,0.779468,0.833290,0.257489,-0.489211
-0.424009,0.417712,0.815899,-0.601585,0.035356,0.798026
0.001572,0.565639,0.635562,0.797581,-0.442420,-0.410035
0.163744,-0.151771,0.182567,0.622540,-0.772471,-0.125431
-0.213611,0.218076,0.705874,0.790187,-0.600772,-0.121148
0.354395,-0.379852,-0.962034,0.751938,0.195868,0.629464
0.355091,-0.757463,-0.934072,-0.174740,0.356179,0.917934
0.460074,-0.393968,0.501446,-0.393601,-0.424717,0.815287
0.709664,0.492873,0.799366,-0.577202,-0.227857,0.784168
0.216231,0.578720,0.857860,-0.179038,-0.825208,0.535703
0.504811,-0.358170,-0.984457,0.939828,-0.072884,-0.333783
0.455946,0.188141,0.880037,-0.355532,0.909831,-0.214018
0.520431,-0.667298,0.625036,0.315114,0.825104,0.468943
0.446031,-0.405370,-0.513783,0.040049,-0.997986,0.049190
0.468304,-0.435621,0.545648,0.951978,-0.282437,-0.118184
0.337382,-0.390752,0.413004,0.974353,-0.092600,-0.205089
-0.182278,0.222406,0.331538,0.927225,0.195088,-0.319677
0.360508,-0.627034,0.719577,-0.070771,0.410283,0.909208
0.403301,-0.565593,0.553277,-0.496873,0.867245,0.031687
-0.283992,0.587640,0.690036,0.077640,-0.780322,0.620540
0.468346,0.367588,0.792254,-0.467441,0.883988,-0.007999
0.659087,0.516791,0.735575,-0.729747,0.683253,0.025174
0.412771,-0.468600,-0.982023,-0.314357,0.044011,0.948284
0.249749,0.161471,0.329861,0.805033,-0.539827,0.245986
0.193967,-0.365042,0.703170,-0.648123,-0.736148,-0.194993
0.187582,0.552662,0.655741,0.478896,-0.464728,-0.744773
0.343287,-0.363751,-0.142099,0.845016,-0.164806,0.508712
-0.446947,-0.455184,0.559059,-0.611556,-0.060657,-0.788873
0.171956,-0.199168,0.316517,-0.522489,0.849209,-0.076485
0.511443,0.262286,0.948043,-0.316657,0.253920,-0.913922
-0.077853,-0.639854,0.733112,0.866115,0.304706,-0.396231
0.359004,0.143349,0.993382,-0.842098,0.483634,-0.238683
0.520912,0.178977,0.831057,0.226554,0.861584,0.454254
0.354245,0.657999,0.899658,0.766681,-0.132455,-0.628216
-0.109089,0.130680,0.630102,0.551202,-0.435242,0.711857
0.601364,0.486601,0.512066,0.109561,-0.664748,0.738990
0.272714,-0.580284,0.712244,-0.258623,0.680488,-0.685602
0.045205,-0.102117,0.314389,-0.566900,-0.723997,-0.393004
0.374868,-0.360248,-0.981577,0.257749,0.083871,0.962565
-0.172842,0.211708,0.332678,0.689226,0.443413,-0.573021
0.287200,-0.552844,-0.968492,0.928204,0.158774,-0.336493
-0.523713,0.809609,0.712475,-0.676385,-0.053492,-0.734603
0.044858,0.563710,0.761969,0.267962,0.495605,-0.826179
-0.087337,0.150074,0.596280,0.629703,-0.749662,0.203670
0.533799,-0.595127,0.625406,0.756634,0.119978,-0.642736
0.478810,-0.344306,0.339501,-0.222296,-0.896804,0.382526
0.192738,-0.239996,-0.024141,0.799680,-0.559142,0.218798
0.670121,0.463291,0.842208,0.971029,-0.237117,0.029627
0.472546,-0.380984,-0.333628,0.974113,-0.206502,-0.091984
-0.460872,-0.304734,0.510834,0.671380,0.364647,0.645198
0.265421,0.149436,0.356799,-0.268683,0.480976,0.834549
0.381065,-0.413171,-0.351379,0.087076,0.975452,-0.202265
0.015364,-0.028499,0.425865,0.670606,0.623479,0.401948
0.327958,-0.306776,-0.980814,0.603087,-0.423984,0.675665
0.101939,0.117907,0.883026,0.747298,-0.154197,-0.646351
-0.176381,0.222317,0.706311,0.587941,-0.384784,0.711524
0.451597,0.195077,0.965842,-0.919560,0.333199,-0.208300
0.283863,-0.258260,-0.095953,0.011645,-0.850098,0.526496
0.256911,0.463841,0.757949,0.449500,0.889139,0.085917
-0.422639,0.282253,0.897472,-0.063074,-0.720101,0.690996
-0.161216,0.386671,0.662054,-0.728427,0.152450,-0.667947
0.277491,-0.251703,0.359126,0.133088,0.444997,0.885588
0.419839,-0.637440,0.726774,0.353002,0.598469,0.719183
0.409037,-0.610674,-0.943280,0.195877,-0.212234,0.957386
0.065850,0.608635,0.456519,-0.392448,-0.760833,0.516835
0.473536,-0.483688,0.900606,-0.409176,-0.223349,-0.884698
0.225036,0.378392,0.738414,-0.457360,-0.351654,-0.816799
-0.484548,0.819022,0.720039,-0.123713,-0.387315,0.913610
-0.578196,-0.138823,0.258399,-0.382363,0.741281,0.551635
-0.049967,0.348568,0.322922,0.957000,-0.266115,0.115468
0.686148,0.487306,0.847732,0.783718,-0.615641,0.082294
0.216992,-0.192185,0.324315,0.954144,0.078621,0.288840
-0.209668,0.166681,0.725638,-0.087419,-0.697177,0.711549
0.267285,-0.351900,-0.092911,-0.050418,0.951223,-0.304358
0.089013,0.056110,0.395413,-0.207064,0.959902,0.188979
0.136875,-0.513717,0.692950,-0.325787,-0.065938,0.943141
0.038748,0.163315,0.638548,-0.435187,0.879769,0.191362
0.099870,0.110100,0.673487,0.076905,-0.432811,0.898198
0.675148,0.578143,0.732657,0.520534,-0.702580,0.485207
0.037643,0.069803,0.272828,0.751770,0.140145,0.644361
0.415527,-0.289630,0.434105,0.780287,-0.127516,-0.612284
0.068539,0.408792,0.734009,-0.262076,-0.306553,-0.915064
0.571402,0.389328,0.852429,0.574336,-0.125212,0.808987
-0.085809,-0.140984,0.483753,-0.544408,0.832113,-0.105871
-0.415767,0.341537,0.322484,-0.017375,0.343934,0.938833
-0.425284,-0.111091,0.255341,0.122857,-0.263463,0.956814
0.243976,-0.342274,-0.084709,-0.590745,0.771840,0.235124
0.334830,-0.418399,-0.976833,-0.922071,0.373921,0.099839
0.142260,-0.136507,0.313853,-0.178858,0.510727,0.840933
0.572170,0.528917,0.523682,0.271593,0.171513,0.947006
0.279452,-0.664701,0.649890,-0.068701,0.972507,0.222509
-0.381591,0.662326,0.739837,0.850460,0.204542,0.484645
0.396333,0.195792,0.869920,-0.672651,-0.489682,-0.554754
-0.264755,0.594698,0.704465,0.904214,0.209340,-0.372255
0.476054,0.432050,0.864048,0.408770,0.610449,-0.678424
0.445426,-0.451591,-0.955754,-0.707450,0.146252,-0.691466
0.286265,-0.384383,-0.168865,0.789984,-0.233297,-0.567007
-0.194295,0.736816,0.717478,0.764009,-0.517154,-0.385800
0.640728,0.650321,0.498978,0.196789,0.180998,0.963594
0.396465,-0.628719,0.625292,0.131980,-0.883103,-0.450234
-0.431556,-0.246707,0.014851,0.077162,-0.277605,0.957591
0.815854,0.604990,0.829240,-0.608579,-0.748140,0.264419
-0.987251,0.379429,0.591613,0.657852,0.638724,-0.399078
-0.148529,0.640911,0.262357,-0.681639,0.712660,0.165783
0.064244,0.762933,0.844796,-0.736772,0.494038,0.461622
0.317037,-0.373977,-0.265657,-0.345326,-0.929529,0.129328
0.382948,-0.457569,-0.952506,0.904440,0.105070,-0.413460
-0.378597,0.530035,0.864373,0.655698,0.660989,-0.364903
-0.266666,0.142584,0.937630,0.032355,-0.851755,0.522940
-0.206232,0.184868,0.971167,-0.495431,0.323871,0.806012
0.676445,0.543772,0.493705,-0.441099,-0.307158,-0.843259
-0.142390,0.218530,0.306847,-0.589109,0.167926,0.790413
-0.507706,0.768588,0.706237,-0.690582,-0.294749,0.660469
0.625896,0.192249,0.862800,0.971029,-0.226881,-0.075025
0.051724,-0.158143,0.273421,0.266179,-0.664825,0.697966
0.235722,-0.667071,0.652936,-0.145694,0.965529,-0.215702
0.251476,-0.201850,0.318505,0.046182,-0.324168,0.944872
-0.028693,0.661398,0.731998,0.908237,-0.324867,0.263756
0.412750,-0.652288,-0.951829,-0.466851,0.602850,-0.647010
0.453928,0.392225,0.842282,-0.246622,-0.304780,0.919938
0.409706,-0.526670,0.908050,-0.112365,-0.263362,0.958131
0.603213,0.711902,0.904514,0.220218,-0.957456,-0.186500
-0.226981,0.183766,0.701371,-0.433967,-0.126468,-0.892008
0.121593,-0.113524,0.356328,0.161134,-0.878455,0.449836
0.347018,-0.409206,-0.968891,0.117418,-0.973629,0.195600
0.295367,0.607202,0.538641,0.339591,-0.347421,0.874058
0.153357,-0.180573,0.148550,-0.661860,0.733368,-0.155282
-0.587976,0.735920,0.687580,-0.553257,0.817321,-0.160914
-0.405758,0.855532,0.760707,-0.485703,-0.861324,-0.149041
0.362938,-0.351643,-0.968753,-0.004285,0.034216,0.999405
0.453141,0.509345,0.546812,0.739646,-0.541997,0.398954
0.422355,-0.427653,-0.335271,-0.882713,0.021361,0.469426
0.218545,-0.158321,0.116302,0.026215,-0.999654,-0.002183
0.343166,-0.402651,-0.963753,0.577490,-0.791115,0.201599
0.270614,0.677036,0.850244,-0.285029,0.567572,-0.772412
0.608721,-0.718925,0.668025,0.488777,0.849466,-0.198758
-0.284339,0.180611,0.739948,-0.379048,-0.831028,0.407081
0.547468,-0.440959,-0.646349,-0.746887,0.478984,-0.461231
-0.308125,0.118351,0.723242,-0.649223,-0.717384,-0.252725
0.259570,0.169763,0.838864,-0.641090,0.626676,0.443036
0.873736,-0.279641,0.609620,0.040599,-0.990458,0.131696
-0.341171,-0.084666,0.239876,0.690561,-0.677428,-0.253411
0.482028,-0.421676,-0.586814,-0.072570,-0.615987,0.784407
-0.410338,0.965660,0.788656,0.045056,-0.189515,0.980844
-0.281294,0.299274,0.726820,-0.190174,0.923931,-0.331942
-0.185849,-0.466817,0.696316,0.748991,0.183350,-0.636707
-0.104347,0.177433,0.314411,0.760727,0.111135,-0.639486
0.015049,-0.119310,0.536980,-0.270747,-0.962440,0.020143
0.091381,0.631299,0.478998,0.440610,0.862314,-0.249552
0.221926,0.119709,0.350625,0.980338,-0.137820,0.141217
0.322093,-0.680668,-0.942473,0.923027,0.363468,-0.126141
0.319738,0.380060,0.826637,0.252756,-0.079769,-0.964236
0.298179,-0.257153,-0.960397,0.937130,0.245281,-0.248244
0.459201,0.303020,0.821039,0.772812,-0.408741,0.485482
0.167370,-0.157635,0.261390,-0.005910,-0.969320,0.245732
0.694494,0.442450,0.836796,-0.303440,-0.823447,-0.479437
0.137880,-0.189243,0.192773,-0.738326,0.659925,0.139193
0.420847,-0.465133,0.816118,-0.667160,0.743793,-0.040862
-0.491495,0.354875,0.739632,0.829016,0.542610,-0.135302
0.367137,-0.373567,-0.390565,-0.137934,-0.756487,-0.639298
0.455123,-0.270545,-0.995580,0.677692,0.539288,0.499902
-0.471293,-0.310066,0.584940,-0.684505,-0.708683,-0.170942
-0.110884,0.495256,0.641840,0.762765,0.646566,-0.011944
0.205225,-0.352103,0.581911,-0.429960,-0.881480,-0.195264
-0.401742,0.288304,0.783954,-0.734422,-0.678692,-0.000446
0.597455,-0.269913,0.501542,-0.365616,0.683199,-0.632110
-0.193964,0.399065,0.676743,0.387796,0.546941,-0.741937
0.257419,0.064698,0.877905,-0.369319,-0.796383,0.478934
0.432739,-0.451442,0.849863,0.782913,-0.412826,-0.465426
0.254487,0.679084,0.908274,0.438572,0.270679,-0.856964
0.314636,0.686227,0.883979,-0.531509,0.377460,0.758303
0.237013,-0.730015,0.771369,0.936039,0.182047,0.301147
0.366766,-0.637196,-0.967053,0.585085,0.145901,0.797739
0.016360,0.093606,0.565880,0.839756,-0.247460,-0.483295
0.498874,-0.369467,-0.968436,0.662818,0.714849,0.222850
0.083311,-0.241299,0.081177,-0.472143,-0.872361,-0.126761
0.086328,-0.376643,0.629837,-0.208868,-0.889595,-0.406196
-0.278735,0.770655,0.613486,0.576860,-0.816519,-0.023014
0.148524,-0.152099,0.210070,-0.654295,-0.749435,0.101222
-0.469010,0.382309,0.820906,-0.307277,-0.876640,-0.370247
0.396858,0.718424,0.901268,-0.496476,0.025303,-0.867681
0.438910,-0.403761,0.328008,-0.481010,-0.861054,0.164969
-0.518799,-0.275845,0.184746,-0.258568,-0.926174,-0.274490
-0.410253,0.355329,0.724819,-0.453164,-0.663580,0.595234
0.167306,-0.371691,0.688711,0.972781,-0.014336,0.231282
0.402260,0.028159,0.389476,0.562563,0.677845,-0.473337
0.040318,0.305904,0.577797,0.493762,-0.109317,0.862699
0.110209,0.483891,0.727185,0.910852,0.231048,0.342003
-0.005904,0.034993,0.505486,0.850049,0.101900,0.516752
0.335338,-0.582605,-0.964949,0.569346,0.606278,-0.555223
0.440112,-0.305200,-0.975768,-0.036951,0.636106,0.770716
0.551140,0.578256,0.503944,-0.447199,-0.533841,0.717654
-0.171274,0.449890,0.662521,0.921697,0.264600,-0.283656
0.378201,0.324680,0.819885,0.757451,0.624762,0.189578
0.429786,-0.450451,-0.953329,0.825597,-0.465820,0.318435
0.072651,-0.121746,0.269119,-0.638188,0.258835,-0.725066
0.329557,-0.317924,-0.972094,0.944198,0.327702,0.033195
-0.041521,0.188164,0.601775,-0.632919,0.186963,-0.751305
0.691555,0.500917,0.857395,-0.748658,0.642584,0.163086
0.550433,-0.472745,-0.578518,0.562249,-0.750121,0.348130
0.425603,-0.374343,0.844176,0.093177,-0.709671,0.698344
-0.237562,0.462522,0.653713,-0.347056,-0.395234,0.850495
-0.308638,-0.474584,0.523601,0.358205,0.448559,0.818831
0.719630,-0.037636,0.415128,-0.771838,-0.480926,-0.415903
0.198308,-0.075060,0.221793,-0.782931,0.417949,0.460800
0.361889,-0.338811,-0.955707,0.327460,-0.175484,-0.928426
0.408068,-0.688763,-0.937399,0.139411,-0.071210,-0.987671
0.704661,0.332270,0.820921,0.995817,0.091349,-0.002162
0.014217,0.179704,0.627826,-0.548176,-0.823080,0.148466
-0.016854,-0.711996,0.619608,-0.080440,0.996027,-0.038194
0.389511,-0.460894,-0.946826,-0.558321,-0.059814,0.827466
0.595237,-0.080898,0.465772,-0.324618,-0.027535,0.945444
-0.482174,0.426982,0.850683,-0.131554,0.180563,0.974726
0.195706,-0.151472,0.183925,-0.377260,-0.758199,0.531799
0.483533,-0.356738,-0.978281,0.070400,-0.911817,-0.404516
0.550720,-0.467446,-0.718464,-0.660756,-0.636937,0.397130
0.406748,-0.395878,0.501932,-0.332165,0.876597,0.348201
0.588348,0.437910,0.877781,-0.357667,0.809378,-0.465813
0.037651,-0.184554,0.521917,-0.366944,0.622997,0.690816
0.334090,-0.410478,-0.482479,-0.575484,0.118977,-0.809113
-0.293467,0.266740,0.726596,0.309846,-0.720875,0.619947
-0.839064,0.350630,0.609906,0.001752,0.708766,0.705441
0.476810,0.163490,0.869676,-0.634332,0.768277,0.085865
0.087994,-0.430809,0.754486,0.957706,-0.087177,-0.274227
0.424863,-0.706048,0.654402,-0.103670,-0.283489,0.953356
-0.162003,0.249041,0.297318,0.904455,-0.316095,-0.286436
0.448670,0.397769,0.827157,-0.505150,0.087597,0.858575
0.207257,-0.251757,0.316319,0.303771,-0.361632,0.881445
0.429780,-0.434056,-0.349157,-0.563380,-0.562287,0.605340
-0.140112,0.122113,0.593836,0.869754,-0.397194,0.292857
0.043550,-0.513602,0.707114,0.136770,-0.024041,0.990311
0.021966,-0.168210,0.363302,0.595737,-0.691385,-0.408760
0.371110,-0.438372,0.835591,-0.488460,0.817485,0.305163
0.773671,-0.723044,0.805481,-0.204535,-0.805670,0.555933
0.295329,0.453977,0.808684,-0.583135,0.583461,0.565267
-0.244667,0.192148,0.749447,-0.054379,-0.923855,0.378860
-0.356765,0.534633,0.866785,-0.440906,-0.705768,0.554521
-0.368799,0.563073,0.872759,0.509406,0.524500,-0.682206
-0.351813,0.424866,0.792495,0.293684,0.379591,0.877303
0.315650,-0.315328,-0.992509,-0.065976,-0.223095,0.972562
0.386749,-0.463526,-0.956724,0.449553,-0.566807,-0.690385
-0.939573,0.337805,0.624002,-0.265170,-0.924829,0.272721
0.543479,0.645934,0.525745,0.170002,0.891171,0.420612
-0.539490,-0.073664,0.265962,0.958834,0.157611,-0.236210
0.473450,0.738377,0.758798,0.842574,-0.348984,0.410219
0.080379,0.443467,0.483898,0.858382,-0.311031,0.407971
0.659658,0.395925,0.827153,0.998660,0.050743,-0.010150
0.578953,0.508011,0.777063,-0.777407,0.600645,-0.186717
0.683224,0.656086,0.723046,-0.510346,0.187739,0.839226
0.453512,-0.378211,0.844475,-0.562796,-0.240136,0.790946
0.541359,0.392382,0.861329,0.890589,-0.072819,0.448941
0.692413,0.546663,0.793664,-0.047289,0.791614,0.609189
0.345333,0.844919,0.875161,-0.085408,0.925278,0.369549
-0.049538,0.322567,0.637759,-0.236274,0.896741,-0.374206
0.367159,-0.389158,0.463390,0.666200,0.743341,0.060190
0.815293,0.534212,0.830880,0.050924,0.896935,0.439221
0.327148,-0.295842,-0.979542,0.213274,-0.213879,0.953294
0.309807,0.419186,0.782120,-0.533781,-0.225975,0.814870
0.173647,0.796212,0.917742,0.856737,-0.480636,0.187059
-0.117969,-0.214457,0.189790,-0.495148,0.689422,-0.528702
0.427939,-0.563042,0.509090,-0.531161,0.830860,0.165952
-0.526536,-0.079446,0.264327,0.747392,0.448072,-0.490548
0.322983,-0.577029,-0.965068,0.399015,0.867855,-0.295996
0.457380,-0.475045,0.519804,0.591217,0.670607,0.448049
0.488211,0.016735,0.386859,0.092846,-0.609259,0.787517
0.829378,0.520965,0.837376,-0.466994,0.874025,0.134151
-0.860965,0.652105,0.594231,0.985081,-0.166957,-0.041714
0.347833,-0.478820,0.643199,0.927576,0.071286,0.366770
0.383348,-0.438034,-0.981997,-0.448930,0.300649,-0.841471
-0.202697,0.562035,0.708345,-0.474938,0.719528,0.506669
0.103642,-0.003314,0.393894,0.968465,-0.181711,0.170460
0.166512,-0.239606,0.042534,0.952742,-0.259863,0.157336
-0.077556,0.710262,0.273193,0.969079,0.225587,0.099978
0.303087,0.231521,0.854750,-0.525265,0.837444,0.150945
-0.269476,0.238090,0.841703,-0.561499,0.266002,-0.783557
0.085474,0.123107,0.831556,0.756463,-0.632816,-0.165248
0.697735,0.655902,0.759604,0.491358,-0.868904,-0.059777
0.673848,0.589678,0.773588,-0.063398,-0.990557,0.121561
0.490196,0.713897,0.742367,0.901416,0.029436,0.431953
0.048302,-0.086664,0.412187,0.898282,0.232036,-0.373160
0.345950,-0.239374,-0.967548,0.574999,0.106980,-0.811130
0.576948,-0.334733,0.891633,0.606782,0.107954,-0.787503
0.446281,-0.411288,0.491166,0.174053,0.860452,-0.478882
0.372404,-0.255793,-0.979955,-0.134855,0.416966,0.898862
0.174320,-0.250037,0.035708,0.560097,-0.556579,0.613605
-0.501599,-0.274195,0.235625,-0.449504,0.693570,-0.562945
0.493400,0.135855,0.501035,0.401500,-0.283283,0.870947
0.161830,-0.113496,0.308730,-0.436802,0.071952,0.896676
0.199315,-0.448459,0.712798,0.992677,-0.021676,0.118835
0.350630,-0.206826,-0.981441,0.362499,0.904843,-0.223277
0.100617,-0.473783,0.791950,0.878404,-0.330969,0.344770
0.329872,-0.680507,0.607455,0.853986,-0.514461,-0.077701
-0.218981,-0.018228,0.261443,-0.193321,0.465618,-0.863613
0.183867,-0.210816,0.150017,0.915355,0.396930,-0.067623
0.321574,-0.574421,-0.954148,0.839497,-0.513017,0.179048
0.198949,-0.237696,0.032850,0.388498,-0.610269,0.690392
0.330223,-0.618098,-0.971400,-0.027700,0.226623,0.973589
0.186694,0.348149,0.754164,-0.353565,0.791739,0.498138
0.572069,0.496367,0.738460,-0.528150,0.768591,0.361005
0.398748,-0.477161,-0.976762,0.491757,0.778235,0.390544
-0.103763,0.227468,0.310119,0.879922,-0.070457,-0.469865
0.551102,0.732282,0.784831,0.162759,-0.984602,-0.063791
0.076725,0.650457,0.787318,0.554923,0.781070,-0.286338
0.042846,0.782915,0.571597,0.730491,-0.116798,0.672860
-0.277530,0.460246,0.267067,-0.518422,0.181621,-0.835615
0.613302,0.650349,0.509791,-0.373951,-0.129374,-0.918381
0.460791,-0.503911,0.900321,0.168533,0.118508,0.978546
-0.053889,0.079651,0.556962,-0.500314,-0.830219,-0.245810
-0.502942,-0.260868,0.240292,-0.638882,0.757647,-0.133422
-0.107507,-0.151092,0.168469,0.810075,-0.495422,0.313584
0.320025,-0.665566,0.576726,-0.175576,0.623242,0.762064
0.222802,-0.300119,-0.029290,0.978200,0.055654,-0.200068
0.550479,-0.244513,0.440462,-0.492795,0.832455,-0.253321
-0.189521,0.144087,0.833556,0.095209,0.358952,0.928487
-0.625842,0.730560,0.698774,-0.559680,0.823791,0.090148
-0.746508,0.321710,0.599734,0.169234,-0.677326,0.715953
-0.412749,0.422595,0.313775,-0.366886,0.896297,-0.249090
0.320847,-0.488729,-0.973934,0.292092,0.310531,-0.904573
0.545643,-0.405099,0.874781,-0.600876,0.632791,0.488389
0.374848,-0.579453,-0.974820,-0.202975,0.712047,0.672153
-0.564802,0.793374,0.744576,0.966263,0.018557,-0.256888
0.380512,-0.454697,-0.963547,0.577862,-0.704316,-0.412329
0.303198,-0.450447,-0.948889,0.447103,-0.008740,-0.894440
0.066207,-0.119453,0.377233,0.509230,0.333184,-0.793520
0.360077,0.354535,0.858777,0.325327,0.370892,0.869828
0.394539,-0.766488,0.700353,-0.690963,-0.578243,-0.433827
-0.053441,0.204271,0.328298,0.930246,-0.366499,-0.017916
0.100898,0.009082,0.625420,0.309055,0.550532,-0.775499
0.374973,-0.416524,0.496590,0.250115,0.878653,0.406708
0.424068,-0.634749,-0.964909,-0.535160,0.441031,0.720483
-0.834114,0.357870,0.614729,-0.400664,0.913066,-0.076019
0.285826,-0.357131,-0.110933,0.011369,0.999708,0.021329
-0.263144,0.543616,0.742000,0.034646,-0.857554,0.513225
0.302222,0.702706,0.884651,0.105039,-0.404012,0.908703
-0.169619,0.276103,0.681554,0.590473,-0.417072,0.690936
0.228711,-0.261233,-0.088583,0.524600,0.759125,-0.385387
-0.759701,0.424708,0.604440,-0.690199,0.633897,-0.348999
0.696465,0.482771,0.822957,-0.275375,-0.168482,0.946458
0.305599,-0.470395,-0.954963,-0.662025,-0.671959,0.331954
0.323818,0.280122,0.848163,-0.144822,0.859524,0.490149
-0.438277,0.878451,0.731240,0.426483,0.734380,-0.528013
0.284943,-0.634664,-0.961656,-0.091853,0.505566,-0.857885
0.283471,0.822641,0.882290,-0.197314,-0.689077,0.697310
-0.174281,0.436570,0.932321,0.355429,-0.346406,0.868143
-0.222947,0.552096,0.663996,-0.666205,0.108480,-0.737837
0.478839,-0.480073,-0.968085,0.653245,0.202357,-0.729605
0.677854,0.312991,0.830513,-0.780516,-0.488780,0.389729
0.021415,-0.265723,0.098718,0.908233,0.369726,-0.196000
0.496853,0.355251,0.841572,0.544214,0.838926,-0.005865
0.753781,-0.688592,0.814985,-0.519310,-0.629282,0.578205
-0.414182,0.341281,0.321928,-0.017375,0.343934,0.938833
0.380294,0.574781,0.849091,-0.006843,-0.836763,0.547522
0.659876,0.397301,0.809967,-0.301886,0.509144,-0.806001
-0.198946,0.173496,0.729714,-0.160494,-0.098032,0.982156
0.390552,-0.498028,0.856114,0.815145,-0.575542,0.065502
0.322609,-0.267081,-0.004422,-0.024854,-0.959908,0.279210
0.759929,0.531470,0.816856,-0.424014,0.881718,0.206845
0.012992,-0.577477,0.823030,0.168735,0.913024,0.371370
0.176938,-0.153297,0.161626,0.378641,0.856965,-0.349631
-0.287846,0.781864,0.624678,-0.271961,0.958380,-0.086861
0.139329,-0.253703,0.077550,0.852187,0.506053,0.132994
-0.162564,0.133871,0.971597,-0.307438,0.300645,0.902826
0.435490,0.161624,0.991228,0.458626,-0.887253,0.049447
0.359006,-0.309485,0.396491,0.906303,-0.191986,-0.376505
0.516664,0.344364,0.869548,0.043330,0.541321,0.839699
-0.517762,0.670337,0.914755,0.968719,0.216886,-0.120599
0.891327,-0.176270,0.555677,-0.649605,0.739676,0.175761
-0.241604,0.400759,0.302655,-0.507513,-0.812331,0.287312
0.062334,0.046599,0.383297,0.589644,-0.280851,0.757260
0.864033,-1.000000,0.681388,-0.468964,0.730023,-0.497131
0.035641,0.784582,0.740135,0.956247,-0.214219,0.199253
-0.193751,0.394816,0.665378,-0.023518,-0.883208,0.468392
0.288730,-0.618555,0.642350,-0.474383,-0.002682,-0.880315
-0.364886,0.415377,0.302779,0.557390,-0.828617,0.052061
-0.406908,-0.038095,0.248470,0.999340,0.032644,0.015918
0.383534,-0.386413,0.295051,0.490627,0.868243,-0.073748
-0.145938,0.297134,0.815498,-0.763228,0.617379,-0.190592
0.599924,-0.197221,0.450555,0.159312,0.251891,0.954552
0.360852,-0.704056,-0.948843,0.666165,-0.208347,-0.716112
0.444889,-0.420309,0.484456,0.304167,0.804244,0.510563
0.665190,0.472412,0.833965,0.905067,-0.411273,-0.108202
0.410126,-0.586976,-0.937753,0.102219,-0.443677,0.890338
0.284413,0.714142,0.571733,0.514578,-0.428447,0.742727
0.911583,-0.032590,0.533252,-0.465105,-0.294459,-0.834848
0.164575,-0.170544,0.089346,0.456244,0.624955,-0.633460
-0.198482,0.150983,0.748224,0.249580,-0.669454,0.699672
0.431426,0.460873,0.859620,0.857585,-0.510128,-0.065710
0.201837,-0.185013,0.186188,0.865708,0.429683,-0.256753
0.423997,-0.416236,-0.168089,0.737537,-0.318353,0.595559
0.020843,0.004405,0.517920,0.661643,0.425410,-0.617458
0.065939,0.284537,0.741724,-0.315739,0.492030,-0.811304
0.152038,-0.404255,0.682848,0.411965,0.898786,-0.149898
0.445438,-0.694374,-0.954118,0.006355,-0.931265,0.364288
0.423792,-0.281771,-0.974117,0.074405,-0.567744,0.819836
-0.183287,0.112069,0.856400,0.010559,-0.998685,0.050159
0.342458,-0.649763,0.648769,0.084068,0.967344,0.239119
0.432975,0.435909,0.855922,0.967660,0.174604,-0.182064
0.452046,-0.346751,-0.950699,0.098123,0.465851,0.879406
0.192838,-0.380805,0.682542,-0.597122,-0.789775,0.140359
0.461703,0.646609,0.767517,-0.783604,-0.598924,0.165089
0.027494,0.550381,0.314824,0.883144,0.446096,0.145104
0.453353,-0.358384,-0.974571,0.400735,0.781115,0.478823
0.460871,-0.359260,-0.536345,0.608654,-0.578040,0.543516
0.216830,-0.225590,0.046730,-0.315464,-0.933699,-0.169375
-0.030391,0.070375,0.553873,0.823831,-0.449145,-0.345790
-0.255314,0.189221,0.279277,-0.376108,0.885391,0.273177
0.166722,0.870662,0.803298,0.465219,-0.874562,0.136791
-0.184072,0.659623,0.297470,0.631801,-0.770928,-0.080602
0.210271,0.334098,0.725059,-0.139826,-0.411772,0.900496
0.510874,0.355909,0.919738,-0.897834,0.427467,-0.105667
0.672318,0.424510,0.882943,-0.303758,0.027889,0.952341
-0.070182,0.060562,0.558106,0.360279,0.501047,0.786862
0.502271,-0.385597,0.466628,-0.031881,-0.921978,0.385928
0.479608,-0.580662,0.549902,-0.032186,0.948599,0.314839
0.186010,-0.289188,0.310086,0.656424,0.394864,0.642799
0.241933,-0.314953,-0.021253,-0.739775,0.583384,0.335254
0.360210,-0.717756,-0.966077,0.305502,-0.107343,0.946122
0.399387,-0.490163,-0.967947,-0.349374,-0.680319,-0.644285
-0.435412,0.661584,0.708168,-0.531489,-0.649108,-0.544222
-0.246632,0.539872,0.268531,-0.082994,-0.076565,0.993604
-0.197915,0.236812,0.864468,0.627922,0.205517,-0.750651
-0.290397,-0.491039,0.508311,0.218840,0.459026,0.861048
-0.436607,0.952193,0.822432,0.948704,0.311499,0.054122
0.412607,-0.592434,-0.935928,-0.219081,0.385587,-0.896285
0.277943,-0.597648,0.667487,0.884342,0.435898,0.167127
0.664735,0.565898,0.793619,0.499060,0.862876,-0.079904
0.350748,-0.392617,-0.982832,-0.293326,0.297637,0.908500
0.437888,-0.422513,-0.962952,0.248493,0.571095,0.782369
-0.367219,0.486877,0.843787,0.525823,0.337692,-0.780688
0.152706,-0.242080,0.056937,0.214261,0.973910,0.074778
0.606957,0.616117,0.741878,0.629489,0.580610,-0.516368
0.310155,-0.495805,-0.977925,-0.124128,-0.075942,0.989356
0.069240,-0.565395,0.806053,0.405379,-0.054837,-0.912502
0.659863,0.583613,0.784090,0.479898,0.315519,-0.818624
0.658997,-0.716987,0.703887,0.666603,0.686583,0.290249
0.415140,-0.688806,-0.942401,-0.814192,0.541838,0.208575
-0.013826,0.104752,0.531063,-0.452148,0.544240,-0.706657
0.439693,-0.434272,-0.978498,0.255261,0.444799,0.858484
0.450824,-0.388883,0.894487,0.104727,0.158060,0.981860
0.361079,-0.612012,0.615146,0.440330,0.895104,-0.069983
0.784811,0.511668,0.807055,-0.753684,0.440374,0.487884
0.147220,-0.118649,0.364464,-0.497533,-0.528479,0.687874
0.698470,0.029954,0.458393,-0.704866,0.412734,0.576902
0.683655,0.631992,0.759171,0.919650,-0.320408,-0.227117
0.188753,0.586032,0.459938,0.742145,0.666280,0.072750
0.291468,0.822494,0.890046,-0.193456,0.908217,-0.371103
0.365041,0.691517,0.898921,0.348260,-0.533730,-0.770615
-0.225049,0.202199,0.749945,0.477895,0.688684,0.545281
-0.308687,0.210744,0.284930,-0.072054,0.119337,0.990236
0.064288,0.652594,0.429965,-0.059375,-0.953587,0.295204
0.447215,-0.489212,-0.951721,-0.310701,0.130587,0.941494
0.594375,0.775863,0.777425,0.302976,0.949877,-0.077064
0.189191,-0.094662,0.209772,0.505054,0.657515,-0.559101
0.600620,-0.648717,0.644527,0.812448,0.017610,-0.582768
0.372247,-0.419799,0.842640,0.779098,0.388930,-0.491671
-0.102912,0.108681,0.614647,0.478538,0.718694,-0.504461
0.049611,0.658902,0.537212,-0.747411,0.578029,-0.327503
0.436266,-0.420655,0.882586,-0.128518,0.057851,0.990018
-0.464601,0.906133,0.791432,0.390808,0.051216,-0.919046
0.664424,0.702410,0.703936,-0.446564,0.559058,-0.698595
0.427050,-0.538594,0.896355,0.218431,-0.546531,-0.808450
0.248006,-0.216536,0.360735,0.259292,0.657510,0.707424
0.366301,-0.472364,-0.279889,-0.498438,-0.427843,-0.753996
0.095974,0.375000,0.452084,0.850923,-0.237155,0.468707
0.370317,-0.434198,-0.950635,0.368510,-0.064142,-0.927408
-0.010812,0.184981,0.596467,0.740868,0.461867,0.487641
0.424280,-0.469447,0.896944,0.222213,-0.226691,-0.948279
-0.227430,0.578392,0.303105,0.372717,-0.478962,0.794781
0.391178,-0.348421,-0.980204,0.323331,0.852137,-0.411484
0.292930,-0.520969,0.735363,0.420292,-0.179147,0.889528
0.138233,-0.029859,0.349575,0.967756,0.226939,-0.109306
0.441527,-0.483825,-0.471264,-0.586600,0.569169,-0.576148
0.084724,0.025455,0.648718,0.127508,-0.769221,0.626131
0.379302,-0.458944,-0.962994,0.883433,-0.293117,-0.365553
-0.113138,0.442210,0.681069,0.681879,0.492950,-0.540409
0.249143,0.523542,0.791339,0.976688,0.176553,0.122105
0.562030,0.408084,0.752940,0.766092,-0.629765,-0.128450
-0.224973,0.223581,0.841187,0.894454,0.429258,-0.125254
0.586664,0.555821,0.502324,0.404508,0.002099,-0.914532
0.780682,0.654801,0.736180,0.812139,0.394348,-0.430023
-0.394674,-0.250683,0.012078,0.141711,-0.293344,0.945446
0.606457,0.622002,0.767508,0.807195,-0.514262,-0.289776
0.200452,-0.335757,0.448831,0.754948,0.654166,-0.046045
-0.163356,0.169076,0.308263,-0.781844,-0.480034,0.397853
0.674480,-0.674883,0.681715,0.886922,0.251655,-0.387348
0.379594,0.291087,0.834723,-0.369249,-0.054747,-0.927717
0.111907,-0.277254,0.631156,0.189725,0.551962,0.811999
-0.088603,0.801408,0.677115,0.210036,-0.714828,0.667013
0.269389,-0.270167,0.013765,-0.018110,-0.757177,0.652959
0.432287,0.318484,0.831937,0.854546,0.083909,0.512552
0.085786,-0.083592,0.539593,-0.222665,-0.049644,-0.973630
0.717661,0.662584,0.663387,0.601986,-0.577635,0.551318
0.129925,-0.172694,0.349084,-0.432141,-0.863332,0.260600
0.453632,-0.604369,-0.952060,0.848482,-0.254087,-0.464239
-0.499951,-0.226567,0.243332,-0.047147,0.862124,0.504498
-0.325425,0.278593,0.930757,0.856435,0.420755,-0.299141
0.670259,0.384145,0.856421,0.848272,-0.394047,0.353781
0.559688,-0.656907,0.649919,0.359973,0.001033,-0.932962
-0.257982,0.217026,0.759149,0.967288,-0.067001,0.244674
0.484836,-0.652304,0.709241,0.778664,0.335115,0.530453
0.470193,-0.643859,0.630172,0.352325,0.652149,0.671244
0.375190,-0.666765,-0.938753,-0.080270,-0.050156,0.995510
-0.138223,0.175598,0.310553,-0.597751,0.393576,-0.698421
0.150775,-0.268561,0.046895,0.950417,0.097976,-0.295142
0.308051,-0.258757,-0.988978,0.105608,0.198691,0.974356
-0.011064,0.173762,0.683678,0.352893,-0.600591,0.717466
0.364510,-0.555142,-0.959616,-0.568615,-0.164398,-0.806009
-0.170762,0.674186,0.281911,-0.848181,0.363819,-0.385000
0.418002,-0.469458,-0.955320,-0.109110,-0.627686,0.770782
0.360537,-0.342086,-0.239076,-0.459062,0.849095,-0.261341
0.372845,-0.440112,-0.964102,-0.575192,0.331652,0.747771
0.422589,-0.623997,0.638137,0.022722,0.873959,0.485468
-0.275433,0.318969,0.852429,-0.410174,0.761758,0.501480
0.382108,-0.412978,-0.273319,-0.563394,0.754142,0.337427
0.001602,0.014369,0.439251,-0.558846,0.604391,0.567805
-0.498566,-0.245445,0.523143,0.695387,0.256060,0.671469
-0.245930,0.218754,0.688453,-0.310706,0.340128,0.887567
-0.134313,0.739287,0.269109,0.073752,-0.912794,0.401705
-0.166545,0.632672,0.277614,0.309958,0.199132,-0.929663
-0.041215,0.363817,0.860867,0.057241,0.512892,0.856543
0.471579,-0.342548,-0.959247,0.853917,0.372538,0.363374
0.417612,0.173517,0.872862,-0.408980,-0.897504,-0.164992
0.342823,-0.595595,0.730084,0.246717,0.698174,0.672074
-0.069930,0.245633,0.708251,0.801630,0.455602,0.387061
0.401969,0.333377,0.831671,-0.694900,-0.508518,0.508452
0.175499,-0.547442,0.818899,0.832587,0.039692,0.552470
0.412765,0.241532,0.843449,0.890420,-0.390792,0.233310
-0.144540,0.689834,0.265008,0.884661,-0.180964,-0.429683
-0.124980,0.683102,0.270363,0.842407,-0.470653,0.262366
0.366280,0.828378,0.880645,0.208031,0.911719,0.354248
0.429027,0.311746,0.815045,-0.152050,0.159017,0.975497
-0.438983,0.550653,0.772082,0.994071,-0.061594,-0.089610
0.166731,-0.169518,0.121615,0.574896,-0.803639,-0.153814
-0.208614,0.160885,0.652522,0.960157,-0.276469,-0.040800
-0.322493,0.441691,0.272700,-0.494323,0.669150,-0.554872
0.574552,0.475923,0.511485,-0.522691,0.453367,-0.721978
-0.385899,-0.054384,0.036484,0.141711,-0.293344,0.945446
0.314087,-0.624751,0.686845,-0.052765,0.997951,-0.036187
0.543597,-0.521374,0.821767,0.673290,0.723691,-0.151496
-0.418407,0.694840,0.748934,-0.637205,0.092647,0.765105
0.407587,-0.703803,0.652097,-0.337675,-0.093631,0.936594
0.461015,0.441545,0.894135,-0.599116,-0.035071,0.799894
-0.389182,0.213189,0.879047,0.847239,-0.424668,-0.319130
0.479251,-0.556546,-0.946576,0.392992,-0.189317,0.899843
0.249836,0.617641,0.887981,0.020176,0.352149,-0.935726
0.436622,-0.561467,0.564773,0.266376,0.960122,0.084914
0.357771,-0.433902,-0.950402,-0.220006,-0.036769,0.974805
-0.243606,0.315292,0.777312,-0.264291,-0.217094,0.939692
0.380762,-0.535750,0.456229,0.930051,-0.264484,-0.255057
0.347799,-0.288450,0.426476,0.472424,0.590041,-0.654727
0.009964,-0.064712,0.428909,0.736287,0.456159,-0.499800
0.607481,0.176916,0.842731,-0.781219,0.450760,-0.431871
0.241340,-0.390792,0.476502,0.040068,0.827706,0.559729
0.125678,-0.583362,0.857730,0.920130,0.267610,0.285913
0.360366,-0.483585,0.863316,0.384974,-0.829328,-0.404983
-0.131558,0.769240,0.664494,-0.582516,0.761999,-0.282901
0.438041,-0.415311,-0.963539,-0.034906,0.286969,0.957304
0.903892,-0.053265,0.533829,-0.465105,-0.294459,-0.834848
0.355697,-0.293557,-0.961273,0.870009,0.488363,0.067719
-0.323383,0.448032,0.295432,-0.532499,0.669401,0.518022
0.602814,-0.192162,0.482455,0.790769,-0.440244,-0.425288
0.838862,0.584695,0.853701,-0.022380,0.224098,0.974310
0.538091,0.250240,0.867287,0.373245,-0.650512,0.661455
-0.277120,0.142884,0.746878,-0.501403,-0.824134,0.263436
0.219200,-0.285916,0.008866,0.366257,0.775512,-0.514235
0.665270,-0.058219,0.454837,0.821648,-0.382218,0.422852
-0.066499,0.093623,0.566224,-0.532378,-0.846251,0.020806
0.101341,-0.198805,0.560268,0.849348,-0.438177,-0.294293
0.402885,-0.512665,0.879328,0.748292,-0.222013,-0.625115
-0.060928,-0.648817,0.533660,-0.062957,-0.843396,0.533591
-0.071351,-0.179025,0.166541,0.761954,-0.453521,0.462325
-0.148229,0.605279,0.282792,0.352488,-0.732406,-0.582524
0.306309,-0.209930,0.373935,0.960514,-0.059458,-0.271803
-0.363887,0.382327,0.292388,0.748458,-0.597540,0.287675
0.229716,0.827215,0.878202,-0.515190,-0.733549,-0.443267
-0.104054,0.750532,0.633856,-0.020569,-0.992813,0.117893
0.469304,0.173170,0.901860,0.768738,-0.501069,0.397457
0.397052,-0.585327,-0.967143,0.463352,-0.614430,0.638577
-0.508600,0.406291,0.797331,0.276071,-0.782167,-0.558570
0.244632,-0.316261,-0.170529,-0.702129,0.655382,-0.278371
0.423727,0.676167,0.854205,0.399847,-0.133611,-0.906791
-0.262217,0.156760,0.710666,0.728025,0.486778,0.482728
-0.575416,-0.104406,0.249878,0.565061,-0.651116,-0.506709
-0.019825,0.047974,0.550701,0.966072,-0.182471,-0.182784
0.426369,-0.794996,0.697453,0.973655,-0.060830,0.219764
0.151950,0.516878,0.472425,0.842023,0.204702,0.499093
0.412123,-0.809458,0.715200,-0.094800,0.562577,0.821292
0.016840,-0.076584,0.302448,-0.555625,-0.805280,-0.206894
-0.820965,0.375777,0.604934,-0.323497,-0.316740,-0.891642
-0.064896,0.456531,0.645362,-0.082775,0.369823,0.925407
0.273849,-0.569952,0.643740,-0.085306,-0.443523,0.892194
-0.251887,0.178662,0.722548,0.938547,0.337344,0.072991
0.325061,-0.719535,0.592693,0.640931,-0.738143,-0.210599
0.268290,0.827237,0.906077,0.431949,-0.587578,0.684232
0.475425,-0.686623,0.646117,-0.339284,-0.687774,-0.641758
0.637695,0.101605,0.488568,0.494654,0.099186,-0.863412
0.656045,-0.692850,0.683649,0.911275,0.035693,-0.410249
0.726840,0.655650,0.701360,0.900578,0.372525,-0.224018
-0.331818,0.536755,0.283114,-0.278099,0.472884,0.836087
0.265613,-0.553739,0.649339,-0.216234,0.885579,-0.411088
0.017290,0.039016,0.495907,-0.664617,0.087291,-0.742068
0.332028,-0.452700,0.820413,-0.443844,0.139350,-0.885203
0.268772,0.320522,0.715001,0.557561,0.317925,-0.766844
0.495354,-0.522404,0.537011,-0.486294,-0.869837,-0.083077
0.683402,0.640554,0.767509,0.938623,0.226549,0.260118
-0.244170,0.598879,0.271897,-0.880072,0.260028,-0.397315
-0.170310,0.710815,0.288874,-0.802528,0.571756,-0.170422
0.502734,-0.363443,0.490510,0.871726,-0.129788,0.472492
-0.432154,0.498010,0.844909,-0.631010,-0.398244,0.665754
0.178303,-0.231378,0.172313,0.260364,-0.898058,0.354545
-0.316326,0.254085,0.783918,-0.828552,0.317766,-0.461005
0.032684,-0.103453,0.422455,0.726596,0.365686,-0.581663
-0.078846,-0.073790,0.516937,0.131916,-0.564102,0.815099
0.591100,0.525597,0.745821,0.936920,-0.338472,-0.087280
0.103611,-0.450818,0.697805,0.950213,-0.289208,-0.115994
0.399644,-0.426526,-0.948556,-0.275110,0.099130,0.956289
-0.446526,0.858859,0.750405,0.444691,0.893381,0.064183
-0.375016,0.837966,0.761699,0.953716,-0.159667,0.254816
-0.422400,0.873495,0.760151,-0.337787,-0.936853,-0.090594
-0.095669,-0.432427,0.699733,0.082642,0.521666,0.849138
0.299375,0.175582,0.352338,-0.616063,-0.766117,0.183114
0.250933,-0.261945,0.378912,0.325345,0.945574,-0.006302
0.497637,-0.504728,0.573902,0.876334,0.479511,0.045913
0.266043,-0.652162,0.658623,-0.336627,0.926892,-0.165992
0.566536,0.441409,0.508625,-0.305940,0.849983,-0.428869
-0.010872,-0.050886,0.452652,-0.169294,0.974429,0.147744
0.095614,-0.586687,0.848959,0.971487,0.231586,0.050795
-0.000283,0.136218,0.657443,0.283418,-0.949405,-0.135291
-0.542509,-0.275731,0.569115,0.261188,0.955951,0.133932
0.661099,-0.718402,0.694092,0.867585,-0.165162,-0.469061
0.137315,-0.402434,0.680314,0.481290,0.832597,-0.274122
0.102564,-0.150708,0.170201,0.875650,0.248471,-0.414125
0.765466,-0.764075,0.750137,0.120831,0.925055,0.360101
0.579824,0.229614,0.890940,0.275971,0.754536,-0.595412
0.477880,0.313800,0.941370,-0.411784,0.729097,0.546673
0.525487,-0.503609,-0.740719,-0.265310,0.225974,-0.937308
0.395426,-0.696541,-0.935582,-0.022184,-0.047596,0.998620
0.388684,-0.414858,-0.522083,0.682090,0.606175,0.409029
0.361541,0.412527,0.820315,-0.039287,-0.304723,0.951631
0.181507,0.500602,0.447780,-0.302502,0.688270,0.659376
0.238171,-0.608737,0.713553,-0.364768,0.807927,-0.462815
0.155826,0.391099,0.738215,0.266948,0.130183,0.954877
0.415702,-0.360352,-0.388645,-0.170388,0.918598,-0.356575
0.540700,0.195774,0.866117,-0.107204,-0.439013,0.892062
-0.337298,0.215968,0.894702,0.954711,-0.285412,-0.084065
0.466748,-0.544397,0.526072,-0.186409,0.980220,-0.066487
-0.353770,0.246928,0.792870,-0.632925,-0.163577,-0.756735
-0.222727,0.769023,0.272473,-0.289322,0.951692,0.102837
0.259214,0.609200,0.870856,-0.096859,-0.741748,0.663648
0.473380,-0.424394,-0.536439,0.995076,0.092554,0.035448
-0.516492,0.816227,0.765321,0.558412,0.444906,-0.700168
0.420541,0.364160,0.809896,0.009262,-0.998575,0.052563
-0.185711,0.712125,0.633667,0.273372,0.923307,0.269762
-0.916323,0.514521,0.644944,0.937003,-0.051111,-0.345562
0.019770,-0.153159,0.359557,0.769863,0.344918,-0.536975
-0.131048,0.183784,0.654335,-0.638378,-0.589737,-0.494656
-0.519675,0.897444,0.788535,0.713283,-0.154048,-0.683738
0.312700,-0.302819,-0.206457,0.605997,-0.505141,0.614492
0.518219,-0.468320,-0.615589,0.299911,0.612381,0.731466
0.900988,-0.927940,0.694286,0.875351,-0.201959,0.439287
0.390109,0.806876,0.938379,-0.758255,-0.372595,0.534997
0.605412,0.220069,0.853815,0.877836,-0.291574,0.379986
0.282557,0.180259,0.355683,0.744940,0.526178,-0.410124
0.487205,-0.642332,-0.948913,0.960528,-0.104669,-0.257741
0.363006,-0.273119,-0.960499,-0.721154,0.584739,0.371505
0.248298,-0.234362,-0.009112,0.945048,-0.253998,0.205836
0.067001,-0.146993,0.528904,0.186482,0.589564,0.785900
-0.223419,0.412037,0.279517,0.102210,0.750762,0.652618
0.536002,-0.208404,0.390241,-0.652925,-0.008664,0.757373
0.618697,0.432166,0.805582,0.077441,0.961865,0.262333
0.433672,-0.257060,-0.968153,-0.514727,0.525466,0.677453
0.613276,-0.595194,0.719973,-0.787319,-0.603227,-0.127460
0.143002,-0.189963,0.175454,0.697314,-0.641184,-0.320370
0.262656,0.176447,0.784734,0.894450,0.407430,-0.184283
0.409300,-0.526810,0.559533,-0.615359,0.406964,0.675065
0.151957,0.573741,0.436938,0.725493,0.681491,0.096074
0.414930,-0.393407,0.292631,0.751606,-0.347878,-0.560418
0.247985,0.063862,0.861396,-0.472797,-0.710519,-0.521177
-0.056172,0.307513,0.717889,0.880874,-0.078364,0.466820
-0.382088,0.468381,0.802080,0.486607,0.229980,0.842807
-0.378989,0.117206,0.779913,0.404913,-0.722790,0.560018
-0.112387,-0.397551,0.667204,-0.330377,0.824802,-0.458859
0.080399,0.340508,0.567839,-0.596886,-0.290137,-0.748029
0.465059,0.124332,0.851040,-0.222254,0.726579,0.650143
0.673708,0.325765,0.833416,-0.447307,0.580175,-0.680672
0.404504,0.050474,0.759363,-0.548290,-0.656901,0.517552
-0.185313,0.226861,0.708426,-0.518186,0.780359,-0.350034
-0.116628,0.192727,0.847777,0.625039,0.628012,-0.463602
0.464746,-0.417915,-0.581397,0.869591,0.423335,0.254164
0.070077,0.012651,0.412652,0.716911,-0.684393,0.132833
0.086528,-0.543212,0.818210,-0.561729,0.611111,0.557677
0.237355,0.149173,0.351149,0.888309,-0.457676,-0.037943
0.315174,-0.551899,0.799856,-0.788760,0.384652,0.479480
-0.459738,0.410245,0.318188,0.646270,0.287230,-0.706989
0.522232,0.675184,0.712445,0.649506,0.479499,0.590103
0.318602,0.308042,0.846935,-0.217262,0.602454,0.768014
0.025314,0.063528,0.302913,0.875725,0.476760,0.076188
0.304003,-0.214943,0.358388,0.740523,0.414798,-0.528742
0.558163,-0.368137,-0.548832,-0.262439,0.953447,0.148539
0.128691,0.033962,0.636935,0.019231,-0.714080,0.699800
-0.040468,0.415122,0.660915,0.297220,0.133576,0.945419
0.215287,0.325359,0.712518,0.019828,-0.081980,0.996437
0.603054,-0.274126,0.501978,-0.365616,0.683199,-0.632110
0.422711,0.791872,0.894808,0.932145,0.107165,-0.345863
0.214200,-0.716436,0.783194,0.358733,-0.225495,0.905794
-0.222916,0.290963,0.787705,-0.517110,0.631736,0.577501
0.730234,0.432815,0.813209,0.198771,0.904696,0.376849
0.127039,-0.315747,0.560835,-0.171269,0.546337,0.819868
0.043714,0.176769,0.664975,0.148051,-0.063024,-0.986969
0.501347,-0.400567,-0.517567,0.875927,-0.042423,0.480574
-0.072235,0.262186,0.615167,0.821764,-0.115339,0.558033
0.268632,0.440856,0.781760,0.830644,-0.092822,-0.549012
0.372040,-0.389345,-0.196363,0.829931,0.280855,-0.482012
0.305256,0.526437,0.830205,-0.730950,-0.574537,0.368266
0.372803,-0.356908,-0.175921,0.807579,0.063808,0.586297
-0.330915,-0.069950,0.245713,-0.645352,-0.485388,-0.589846
0.249816,-0.377382,-0.135873,-0.616138,-0.752280,-0.233342
0.169988,-0.238796,0.368372,-0.170810,0.808295,0.563456
0.368027,-0.712324,-0.948449,0.187225,-0.547338,0.815701
-0.536911,0.814829,0.769114,0.859772,0.243635,-0.448815
0.625790,0.168582,0.860766,0.942552,-0.317180,-0.104847
0.164381,-0.119340,0.371210,0.890032,0.381315,-0.249885
0.324486,-0.351341,-0.332574,-0.488075,0.869788,-0.072475
0.422329,-0.400333,0.483373,0.118943,0.853814,0.506808
0.218295,-0.515564,0.774454,0.446186,0.003046,-0.894935
0.393398,-0.608198,-0.972515,-0.575667,0.098382,0.811744
0.178644,-0.469442,0.797120,0.733610,0.121747,0.668577
0.304902,-0.628768,0.712168,-0.303564,0.597372,0.742291
-0.073296,-0.459287,0.688141,0.030302,-0.081869,0.996182
0.115472,0.057584,0.411749,-0.424023,0.856635,0.293908
-0.594188,-0.275044,0.236546,0.751836,-0.605986,-0.259853
0.386511,-0.361916,-0.312869,-0.134134,0.904845,0.404058
-0.383765,0.338393,0.756460,0.744738,0.542669,-0.388427
-0.010796,-0.033397,0.488842,0.806613,-0.586896,-0.070200
-0.021687,-0.049135,0.486042,-0.609973,0.753811,-0.244339
-0.107011,-0.157563,0.509061,-0.555587,0.821782,-0.126480
0.569804,-0.487415,-0.674601,-0.257004,-0.900039,0.351964
0.372914,0.399715,0.827427,0.031906,0.282093,0.958856
-0.466214,-0.223738,0.519295,0.708397,0.562743,0.426021
0.241651,-0.169291,0.135183,0.329628,0.771062,0.544801
0.384774,-0.392645,0.881675,0.899346,-0.352647,-0.258489
0.418952,-0.625100,0.640041,0.207467,0.921504,0.328312
-0.245906,0.183694,0.708826,0.685172,0.410782,0.601497
0.371555,-0.260039,-0.981895,-0.482584,0.192459,0.854443
0.392688,-0.707431,-0.961726,-0.408369,0.178553,0.895184
0.470173,-0.745446,0.713307,-0.629643,0.654859,-0.417983
0.298943,0.244019,0.877989,0.292579,-0.949885,-0.110075
-0.574847,0.799079,0.742288,0.978084,0.154027,-0.140098
0.070460,0.262495,0.487769,-0.691964,-0.566480,-0.447533
-0.221956,0.612870,0.695756,-0.021806,0.873313,0.486671
-0.000927,0.159857,0.587330,0.351484,0.526648,0.774016
0.330065,-0.283411,-0.074882,0.967367,-0.039419,0.250295
0.327455,-0.475374,-0.975440,0.171526,-0.317123,0.932744
0.918694,-0.039179,0.083523,-0.686038,-0.607214,0.400803
0.165688,-0.189542,0.119804,0.782481,-0.585697,0.211382
0.058233,0.644109,0.603272,-0.543198,0.500566,0.674070
0.377683,0.155757,0.967800,-0.842098,0.483634,-0.238683
0.508182,0.293897,0.521050,-0.035679,-0.259704,0.965029
0.356890,0.708331,0.522214,0.767258,0.331693,0.548903
-0.127933,0.108537,0.609634,0.952190,-0.028761,-0.304150
0.106376,-0.091827,0.539723,-0.048998,0.321293,0.945712
0.162913,0.651027,0.804161,0.605257,0.773512,-0.188000
0.391550,-0.296838,-0.981592,0.294895,-0.159170,-0.942179
-0.107112,0.342512,0.718250,-0.569774,0.793064,0.215423
-0.443487,0.877380,0.764185,0.090648,0.977648,0.189703
0.321359,0.661029,0.566801,0.729745,0.585141,0.353670
0.347965,-0.430133,-0.975779,-0.081491,0.490959,0.867363
-0.869488,0.410703,0.634443,0.273356,-0.691228,0.668940
0.596714,0.628548,0.728243,0.659775,0.699167,0.275432
0.059549,-0.118229,0.370420,0.938202,-0.334519,-0.088731
0.321948,-0.322587,-0.975133,-0.361035,-0.357416,0.861341
0.354988,-0.259419,-0.986578,-0.298137,0.261520,0.917999
-0.279215,0.511756,0.270067,0.270564,-0.344720,0.898868
0.457292,-0.676694,0.584714,-0.010014,-0.652402,0.757807
-0.418661,0.783143,0.736524,0.336075,0.845201,-0.415559
0.359372,0.380685,0.807595,0.520089,0.778023,0.352403
0.036714,-0.004976,0.417640,-0.373767,0.717866,-0.587338
-0.097216,0.473163,0.645003,0.554811,-0.031289,-0.831388
0.396069,0.822045,0.925176,-0.731618,-0.534464,0.423183
0.410157,-0.393942,-0.333860,0.409368,0.562252,-0.718533
0.481094,0.709940,0.768969,-0.216847,-0.881541,0.419361
0.677833,0.475012,0.849829,-0.751473,0.604397,-0.264559
0.282110,-0.275809,-0.958948,0.954335,0.039453,-0.296121
-0.377177,0.758723,0.753317,0.104987,-0.830739,0.546673
0.176880,-0.377804,0.668240,-0.464119,-0.791703,0.397240
0.621033,-0.014967,-0.052771,-0.652941,-0.488572,0.578761
0.206631,0.569539,0.847383,0.479320,0.842579,-0.245586
-0.256532,0.216086,0.724523,0.540984,0.275841,-0.794511
0.526019,-0.313780,0.412641,0.738275,-0.010882,-0.674412
0.057703,-0.069602,0.322193,-0.661901,0.724361,-0.192842
-0.156552,0.114059,0.992871,-0.307438,0.300645,0.902826
-0.241900,0.276866,0.262369,-0.244549,0.924055,0.293801
0.397551,0.292350,0.798379,0.817406,0.198284,0.540862
0.300858,-0.283086,-0.969204,0.903913,0.376949,0.202116
0.310493,-0.290778,-0.974319,0.003210,-0.737617,0.675211
0.316430,-0.314588,0.397574,0.995632,-0.043687,0.082511
0.534594,-0.472045,-0.720093,-0.647355,-0.698867,0.304166
-0.156265,0.085854,0.636251,0.647458,-0.556200,0.520999
-0.019570,-0.040116,0.413441,-0.480099,0.124496,-0.868335
-0.273891,0.181514,0.848897,0.668439,-0.009924,-0.743701
-0.564624,0.825255,0.732170,0.958465,-0.003092,0.285194
0.592325,0.444160,0.503216,0.013564,-0.948633,0.316089
0.284261,-0.611528,0.699547,-0.408053,0.900900,-0.147892
0.160058,-0.341539,0.609654,0.122110,0.820497,0.558456
-0.037130,0.418034,0.859748,-0.149794,0.891079,0.428415
-0.917274,0.422155,0.647639,-0.614917,0.348425,-0.707444
0.579577,0.466342,0.754314,-0.538711,0.661349,0.521927
0.500385,-0.475430,-0.964241,0.989011,0.113250,0.095035
0.036807,0.067073,0.403557,-0.217375,0.903725,0.368822
0.211167,-0.134231,0.507920,0.292686,0.909974,-0.293738
-0.427446,0.420291,0.824453,0.522299,-0.242757,-0.817479
0.000224,0.286401,0.619757,0.540346,-0.627500,-0.560597
0.257985,-0.272024,0.117849,-0.637409,0.650878,0.412394
-0.135790,0.113429,0.605578,0.969138,-0.182210,-0.166044
0.415478,0.276263,0.846013,0.976240,0.174687,-0.128220
-0.201848,0.530564,0.710347,0.838476,-0.177324,-0.515281
0.181340,-0.356756,0.622471,-0.524126,-0.729765,-0.439015
0.523450,0.309068,0.925530,0.809629,-0.401722,-0.427927
