0.363236,-0.812814,0.339002,0.590832,-0.556494,-0.584150
-0.658700,-0.199976,-0.401001,-0.732453,0.635490,0.244264
0.521295,0.367037,0.599023,-0.115135,-0.749664,0.651726
0.287567,-0.098139,0.573199,0.279162,0.611705,0.740193
-0.481609,-0.770989,0.207619,-0.156729,0.501481,0.850854
0.011722,0.627569,-0.542685,0.990976,-0.020159,0.132511
0.063365,-0.037400,0.468903,0.151625,0.144136,-0.977873
-0.244169,0.410196,-0.631796,0.066973,-0.436495,0.897210
0.343856,0.845426,0.057116,0.907697,0.332448,-0.256055
0.486482,-0.542826,0.308221,0.855709,0.156487,0.493227
0.342695,0.050373,0.489845,-0.421179,-0.022080,0.906709
-0.260418,-0.305812,0.191900,-0.080085,0.262968,0.961475
0.059647,-0.202764,-0.931272,-0.789399,0.613102,-0.030922
0.361840,0.426563,0.489772,-0.645126,0.572633,-0.505870
-0.140423,-0.927381,0.068000,-0.161687,0.977661,-0.134301
-0.362308,0.107717,0.423206,-0.581998,0.681886,-0.443069
-0.574327,0.776081,-0.168092,0.785268,-0.600300,-0.151635
-0.313335,0.086744,0.345294,0.473451,-0.690789,0.546494
-0.398170,-0.441110,0.231330,0.915044,0.026744,-0.402467
-0.528145,0.262048,0.031485,0.355219,0.816196,-0.455679
0.162005,0.562587,0.720835,0.537326,0.839697,-0.078678
-0.433097,-0.237558,0.648559,0.273854,0.946600,0.170152
-0.048512,-0.219979,-0.943637,-0.557208,-0.533057,0.636686
-0.307995,0.273687,0.058015,0.888785,0.376686,0.261092
-0.056750,-0.506335,-0.370560,0.861068,-0.414373,-0.294714
-0.238021,0.562102,-0.571182,0.206750,0.960755,0.184945
0.949866,0.326302,0.242870,-0.416873,-0.539125,-0.731820
0.394919,0.167486,0.656601,-0.498962,-0.257422,0.827509
-0.065682,-0.256713,0.407342,0.829976,0.165426,0.532705
-0.128700,-0.059950,0.704096,-0.644584,0.175320,-0.744160
-0.143667,-0.778020,-0.346388,0.909503,-0.409293,0.072694
-0.774750,-0.038371,0.257543,0.952301,-0.195265,0.234507
-0.687012,0.182882,-0.247971,0.839633,-0.542685,-0.022560
-0.400720,0.098867,-0.177761,0.656215,0.733481,0.177166
0.181965,-0.055828,0.482508,-0.302910,-0.160665,-0.939379
0.118720,0.388495,-0.068486,0.691075,0.711194,-0.128915
0.087618,-0.447050,0.587775,0.602918,0.463623,-0.649264
0.103633,-0.052676,0.678733,0.571795,0.071534,0.817272
0.129628,0.123599,-0.027525,0.913526,-0.180628,0.364477
-0.177326,0.102019,0.621884,-0.202301,0.979038,-0.023636
0.594988,-0.212947,0.699602,0.179125,0.979799,0.088930
0.121390,0.099958,0.942228,0.940179,0.337543,0.046129
-0.568178,0.653998,0.222900,0.499598,-0.048400,-0.864904
-0.131604,0.344972,-0.542394,-0.447969,0.892599,0.050906
-0.291399,-0.498091,0.082843,0.796358,0.561750,-0.224168
0.160730,0.754258,0.515937,-0.476023,0.242130,-0.845444
-0.312641,0.567557,0.566178,0.811741,-0.532944,-0.238846
0.490307,0.607565,0.529809,0.070141,-0.492257,0.867619
-0.132298,-0.012911,-0.971163,0.013170,0.125443,0.992013
0.201231,-0.289810,0.700719,0.114644,0.739050,0.663824
0.931648,0.243499,0.253608,-0.842988,0.521956,-0.130125
-0.244984,-0.323756,0.744060,0.402275,0.476757,-0.781587
0.204015,0.701522,0.671566,0.555267,0.432210,-0.710544
0.245097,0.566830,0.566761,0.631813,-0.701626,-0.329444
-0.483117,0.353095,0.567562,0.380735,-0.515069,0.767948
-0.434258,-0.226404,0.462028,0.729446,-0.511641,0.454018
-0.015902,0.455296,0.703197,-0.744033,0.464594,-0.480175
0.569454,0.102382,0.697609,0.520231,0.534854,-0.665801
0.290358,-0.040310,0.876075,0.309990,0.774302,0.551691
0.192292,0.032795,0.609203,0.701745,-0.224347,-0.676182
0.785424,-0.108807,0.263593,0.770009,0.407465,0.490977
0.345018,0.726496,0.553253,0.986105,0.076237,-0.147594
-0.465820,0.718373,-0.642632,0.780747,0.071907,0.620695
0.297087,-0.386676,0.621909,-0.030736,0.997349,-0.065963
-0.128587,-0.609868,0.556095,0.975003,-0.047846,-0.216980
0.322501,0.758623,0.533210,-0.568332,-0.593691,-0.569675
0.269583,0.680306,0.684442,0.362815,0.929961,-0.059473
0.549961,0.185185,0.689932,0.704552,-0.386778,-0.594987
-0.699782,-0.295750,0.296511,-0.079581,-0.996801,-0.007382
0.479285,0.030855,0.500729,-0.345473,0.332304,-0.877623
0.361494,-0.137176,0.766071,0.204587,0.599996,0.773401
-0.382502,-0.381584,0.649531,-0.010215,0.813342,0.581696
0.303122,0.073650,0.476945,-0.703817,0.688335,-0.175601
-0.279684,-0.725647,0.191730,-0.461121,-0.885128,-0.062576
-0.225604,-0.364732,-0.027307,-0.552047,0.815345,-0.174518
0.236158,-0.049887,0.762840,0.721038,0.622480,0.304339
-0.312521,0.001637,0.505831,0.091043,0.337724,0.936832
-0.526983,0.611081,-0.583281,0.794407,-0.290370,0.533481
-0.637812,-0.409832,0.466255,-0.683051,-0.299622,-0.666084
0.112338,0.960599,0.424518,0.573777,0.612578,-0.543625
0.027390,-0.101897,0.648268,-0.276119,-0.497723,0.822211
0.045374,-0.302539,0.698120,-0.327749,-0.655885,-0.679996
0.072644,0.093412,0.799062,0.949671,-0.258723,0.176601
0.094234,0.017154,-0.963000,-0.179399,0.570364,0.801561
0.703841,0.256956,0.520553,0.313362,0.433986,-0.844666
-0.612165,0.320604,-0.020917,-0.406941,0.901298,-0.148528
0.062551,-0.470085,-0.110345,0.270471,0.954032,0.129104
-0.516422,0.797903,0.459526,-0.127956,-0.812947,0.568106
0.088433,0.828211,-0.364001,-0.053481,-0.998348,-0.021013
-0.068586,-0.236467,0.366260,-0.594009,0.345417,-0.726526
0.060114,-0.640782,0.174651,0.985386,0.024401,0.168579
0.376927,0.758987,0.573563,-0.093051,0.887027,-0.452245
0.631424,0.112445,0.332200,0.744808,-0.258999,-0.614964
0.680977,-0.021033,0.018294,-0.013629,-0.208240,0.977983
0.177092,0.417349,0.389510,0.298196,-0.935585,-0.189104
-0.374725,0.707947,-0.992348,0.055058,0.109234,0.992490
0.641177,-0.230162,0.414217,-0.382547,-0.458450,-0.802173
-0.235230,0.023217,0.222705,-0.552707,-0.392206,-0.735316
0.540327,-0.064678,0.482921,-0.349712,0.830734,-0.433109
0.572938,0.074377,0.684831,0.445577,0.787726,-0.425380
0.229082,-0.090865,0.944196,0.507743,-0.240751,-0.827185
0.239990,0.700915,0.682110,0.319563,0.941893,-0.103520
-0.666357,0.077045,0.431660,0.126339,0.956227,-0.263949
0.312521,-0.638964,-0.119139,0.998597,0.012988,-0.051342
-0.111063,0.504274,-0.430761,0.840028,0.184232,0.510305
-0.077985,0.684791,0.368131,0.746395,0.518387,-0.417337
-0.764069,-0.385827,-0.109300,0.984320,0.127720,0.121660
-0.353369,0.470206,0.172441,-0.216003,0.789289,0.574774
0.596723,-0.260228,0.775886,-0.078282,0.909710,0.407798
0.253568,-0.019579,0.911277,0.550844,0.807843,-0.209666
0.085181,-0.083469,0.473714,-0.027938,-0.094584,0.995125
0.343389,0.825301,-0.321073,0.852274,0.515828,-0.086889
0.102124,0.347032,-0.534376,-0.512691,0.846639,0.142654
-0.674362,-0.400739,-0.401900,0.933480,-0.355225,-0.049307
-0.039226,-0.223252,0.720592,0.479050,-0.826659,-0.295205
0.440874,0.571680,0.526821,-0.068248,-0.598431,0.798262
0.302073,-0.596047,0.327341,-0.189293,0.159727,0.968842
0.223628,-0.050373,0.630654,-0.680467,-0.464569,0.566692
0.666471,-0.309086,0.286915,0.255098,-0.805070,-0.535525
-0.465474,-0.056071,0.080050,-0.144431,0.989513,0.001744
0.291519,-0.434564,0.725062,0.706336,0.698692,0.113659
0.426368,0.242044,0.141417,-0.480793,-0.225781,-0.847267
0.421721,0.569618,0.403285,-0.259876,0.891639,0.370736
-0.239175,-0.119113,-0.145304,0.120071,0.358168,-0.925904
0.129047,0.014246,0.786599,0.949798,0.208859,0.232941
0.536729,-0.344123,0.180992,0.181870,-0.389081,0.903072
0.452944,0.524034,0.180288,0.503485,-0.417293,-0.756551
-0.493905,0.204825,0.038774,0.503624,0.767522,-0.396576
-0.427990,-0.365824,0.426340,-0.665962,0.380996,0.641355
-0.448531,-0.097654,-0.545042,0.026545,0.108848,0.993704
0.025648,-0.254167,0.700792,-0.340920,-0.877952,-0.336116
0.885693,0.319877,0.533963,0.159666,-0.928540,0.335143
0.383083,0.803844,0.154876,0.637226,0.731794,-0.241701
0.152606,0.475056,0.858510,0.960966,-0.276333,-0.013600
0.631197,-0.199490,0.270322,0.386171,0.125400,-0.913864
0.172799,0.407165,0.693236,0.300058,-0.907628,0.293560
-0.815018,0.087713,0.262135,0.354659,0.916256,-0.186255
0.097945,0.141299,0.493635,-0.063791,-0.094073,0.993519
-0.514793,0.466449,-0.193358,0.770907,-0.556955,-0.309036
0.330739,0.741165,0.477309,0.634242,0.189866,-0.749459
0.130903,0.155361,0.227346,0.242525,-0.186866,0.951978
-0.196939,0.138267,0.828677,0.882304,0.142594,0.448560
-0.591277,0.117900,-0.351927,-0.380270,-0.450202,0.807906
0.458978,-0.039219,0.354162,0.965066,-0.058033,-0.255497
-0.231865,0.199976,0.700986,-0.082200,-0.835472,0.543350
-0.427876,-0.773534,-0.463316,0.867993,-0.487733,0.093294
0.708948,-0.203249,0.199043,-0.654000,0.744755,-0.132754
-0.385746,-0.045281,0.300350,0.186846,0.899484,0.394989
-0.257053,-0.701521,-0.415237,-0.701096,0.509003,0.499380
0.316353,0.716313,0.132331,-0.481636,0.785582,-0.388444
0.273061,0.076923,0.159686,0.796892,-0.347414,0.494233
0.290237,-0.007576,0.425684,-0.217757,-0.518879,0.826648
-0.003598,0.348367,0.164010,0.366891,0.460847,0.808091
-0.007076,0.605504,0.450731,0.293960,0.632979,0.716188
0.588953,0.178033,0.265682,0.237602,-0.931387,-0.275796
-0.510274,0.307389,0.040766,0.416386,0.648152,-0.637591
-0.620983,-0.381827,0.357004,-0.725613,-0.454332,0.516786
0.386794,-0.853549,0.084617,0.564339,0.466431,-0.681149
0.554366,-0.051828,0.482654,0.191861,-0.674772,0.712651
0.193220,0.305571,0.632792,0.999554,-0.022038,0.020155
-0.168153,-0.664788,0.101283,0.491861,-0.630128,-0.600842
0.524660,-0.140813,0.588261,-0.037892,-0.710596,0.702579
-0.419752,-0.760198,-0.436665,-0.844354,0.535625,0.013134
0.072644,-0.022004,0.761941,0.654859,0.045816,-0.754361
0.256352,0.013881,0.359118,0.967573,-0.118223,0.223219
0.156204,-0.218281,0.207643,0.880290,0.380591,-0.283267
-0.234883,0.637147,0.570356,0.300287,-0.698490,-0.649568
-0.137518,-0.257562,0.706890,-0.633890,0.206173,0.745437
0.235697,-0.827120,-0.100700,0.967269,0.176374,-0.182436
-0.087965,-0.847123,0.466693,-0.252443,0.465625,0.848213
0.267033,0.041281,0.940430,0.946991,-0.248741,-0.203312
0.427529,0.703583,-0.496429,0.619378,0.784400,-0.032968
-0.011255,-0.169424,-0.956683,-0.051852,0.334169,0.941086
-0.076944,0.516882,0.317793,0.889562,0.454566,-0.045261
-0.225370,0.334667,0.483334,0.613361,0.664454,-0.426952
0.239062,-0.267624,-0.954667,0.454336,-0.201446,0.867755
0.106183,0.662485,0.509353,0.995652,-0.083855,0.040553
-0.434952,0.028066,0.484767,-0.556828,0.689689,0.462895
-0.405480,-0.530945,0.263641,-0.122846,0.517383,0.846891
-0.354531,-0.368005,0.674894,-0.485542,-0.529149,-0.695881
-0.466054,0.696793,0.440406,0.863489,0.008960,0.504289
0.266098,-0.107716,0.649628,0.414686,0.821120,0.392170
-0.059420,-0.329575,0.687041,-0.133736,0.342275,0.930034
0.713474,-0.154270,0.183567,-0.780809,0.187720,0.595901
0.270624,0.740316,0.682790,-0.616622,-0.677430,0.401081
-0.025648,0.679336,0.273286,0.772542,0.000804,0.634963
0.272714,0.648421,0.667630,0.247752,0.842621,-0.478131
-0.439131,-0.081045,0.382149,0.845740,-0.291849,-0.446708
0.142045,-0.026490,0.597056,0.650662,-0.743615,-0.153867
-0.854010,0.008910,-0.185171,0.913314,0.091781,-0.396778
-0.528726,0.778869,0.155192,0.983729,-0.028421,0.177396
0.007890,0.767109,0.552816,0.947216,-0.299741,0.113746
0.154114,-0.333697,-0.482484,0.940998,0.051697,0.334440
-0.647906,-0.462569,-0.495360,0.976198,0.168457,0.136602
0.306720,0.580409,0.448010,0.797052,0.201929,-0.569152
-0.562491,-0.766503,0.189981,-0.096775,0.820186,0.563852
0.229896,0.102140,0.784923,-0.235680,0.854539,-0.462836
-0.044567,-0.337940,0.464530,0.899617,-0.431040,0.069956
0.276659,0.411044,0.681405,0.832031,-0.220401,0.509065
0.324357,0.096927,0.669380,0.302796,0.503737,0.809051
-0.380759,-0.013760,0.281813,0.081474,-0.846248,0.526523
0.323896,-0.226283,0.495748,0.678042,0.727503,-0.104870
0.355345,-0.066133,0.699869,0.668434,0.708812,-0.225349
0.173961,0.042492,0.914557,0.731698,0.676651,0.082230
0.061737,0.038128,-0.969146,0.263556,-0.059556,-0.962804
0.193341,0.335515,0.731743,0.758749,-0.564423,-0.325156
0.276199,-0.070133,0.681187,-0.076224,0.910106,0.407304
0.227460,-0.405710,0.198387,0.649764,-0.204728,0.732047
0.358476,0.399649,0.186774,-0.304032,0.353296,-0.884729
0.100615,0.082863,0.701910,0.972939,0.184663,-0.138887
0.283048,0.637631,0.161897,0.373797,0.269587,0.887467
0.268542,-0.737164,0.077450,0.745406,0.322473,-0.583422
-0.067077,-0.306662,0.823599,-0.283573,0.938356,0.197673
0.094467,-0.012911,0.666173,-0.075424,-0.940551,0.331171
-0.137058,0.034371,-0.969462,0.080097,0.085786,0.993089
-0.501101,-0.285810,0.296317,-0.380994,0.856972,-0.347050
-0.571430,0.018125,0.088334,-0.213420,0.972341,-0.094890
0.754209,0.066012,0.282664,0.817753,-0.168563,0.550332
0.654982,0.066376,0.381031,-0.245294,0.968929,0.031725
0.322267,0.192095,0.781935,-0.472345,0.765983,-0.436074
0.377622,0.847366,0.490015,-0.270565,-0.961717,0.043523
-0.684115,-0.150391,-0.464822,-0.849061,0.130774,0.511854
-0.530581,-0.024549,0.370293,-0.272488,0.020089,0.961950
-0.106764,-0.512032,0.430713,-0.772665,-0.016940,-0.634588
-0.205523,0.470813,-0.538166,0.767460,-0.527311,0.364621
0.100615,0.476874,-0.535373,0.954259,0.297640,-0.028290
-0.914585,0.116931,0.261309,0.444039,-0.040064,0.895111
0.373450,-0.042129,-0.092901,0.465320,-0.662345,0.587177
-0.442843,0.569618,0.318959,-0.155970,-0.655856,0.738597
-0.650690,-0.412620,-0.438827,0.964815,-0.262515,0.014796
-0.361494,-0.464023,0.521622,0.094195,0.660303,0.745068
0.122779,0.864945,0.520286,0.513927,0.329847,0.791884
0.177326,0.426805,0.540571,0.689587,0.512490,0.511688
0.556222,-0.271625,0.175356,-0.381797,0.870022,-0.311919
-0.568759,0.708553,0.459744,-0.641222,-0.513761,0.569986
-0.848556,-0.279263,0.341213,-0.470224,0.729328,-0.496960
-0.175583,0.608171,0.265317,-0.655057,0.579212,0.485194
0.142391,0.386070,0.195617,-0.235460,0.925361,0.297097
0.182893,0.067467,0.943224,0.448205,0.852700,0.268356
0.376233,-0.100685,0.912249,-0.138028,0.809394,0.570815
-0.414298,0.427169,-0.089209,0.840258,-0.352596,-0.411877
0.550308,0.060799,-0.392692,-0.767695,0.225917,0.599671
-0.308696,-0.512880,-0.023080,0.050068,-0.671499,0.739312
-0.608567,0.846275,-0.277392,0.417874,-0.277900,-0.864958
-0.542070,-0.857428,-0.519557,-0.028003,-0.775358,0.630901
0.464312,0.652058,0.197925,-0.420559,0.502530,-0.755377
-0.180924,0.019338,-0.970701,-0.152050,-0.115426,-0.981610
-0.048045,-0.291023,0.834969,0.995712,-0.091673,0.012404
-0.246953,-0.208341,0.529396,-0.117540,0.891626,0.437251
0.563766,0.441474,-0.466450,0.956450,-0.066333,0.284261
0.089821,0.747469,0.372868,0.957919,0.260599,0.120332
0.239876,0.374189,0.196492,0.215806,0.750665,0.624443
-0.372749,0.196581,-0.220300,0.813032,0.512507,0.276253
-0.535108,0.039219,-0.358875,-0.695145,-0.643250,0.320939
0.004292,0.722858,-0.427263,0.877162,-0.477237,0.053218
-0.238134,-0.371643,-0.011929,-0.525416,0.823918,-0.212361
-0.258909,-0.350185,0.003353,-0.497316,0.847888,-0.183745
-0.388416,0.698612,-0.991084,0.055058,0.109234,0.992490
0.215971,0.649391,0.679267,-0.457768,-0.620146,0.637077
0.481609,0.660180,0.536004,-0.143843,-0.694458,0.705009
-0.772895,-0.130872,-0.181478,0.926776,0.091807,-0.364223
0.311593,0.313693,0.561634,0.523869,0.254676,-0.812835
0.116397,0.047949,0.858000,-0.266973,0.927407,0.261994
-0.275618,0.332364,0.390676,0.545301,0.407466,0.732543
-0.329350,-0.473843,0.151596,-0.596742,0.286348,-0.749602
0.386794,-0.424501,0.476264,0.790050,-0.139619,0.596931
0.219215,-0.190519,0.366892,-0.396753,-0.774098,0.493315
-0.448531,-0.280960,0.385598,0.450564,0.890268,0.066438
-0.705350,0.083470,0.420704,-0.550732,-0.041269,-0.833662
0.360912,0.294781,0.594918,-0.207508,0.343792,-0.915831
0.421261,-0.015578,0.494315,-0.185232,-0.670259,0.718639
0.580595,0.089168,0.232617,0.260721,0.232038,-0.937114
0.441802,-0.045523,0.504932,-0.162705,-0.652120,0.740450
0.394685,-0.342789,0.153078,-0.225858,0.884596,-0.408019
0.128580,-0.239013,0.638259,-0.388080,-0.789662,0.475214
-0.103052,-0.320482,0.732788,0.800607,-0.587722,0.116671
-0.345365,0.641511,-0.613600,-0.422259,-0.004933,-0.906462
0.144014,0.797660,0.533769,-0.074736,0.990774,-0.113057
0.430193,0.658241,0.535251,-0.141690,-0.617800,0.773464
0.503885,-0.374189,0.294471,0.834032,0.199741,0.514290
-0.793428,-0.019943,-0.527380,0.951327,0.184678,0.246722
0.305324,-0.085531,0.449930,0.969223,-0.219040,0.112371
0.022163,-0.750864,-0.007871,0.437782,0.232408,0.868524
0.139261,-0.014973,-0.103979,-0.578743,0.805865,0.125053
-0.263088,0.019943,-0.965745,0.208541,0.125132,0.969976
0.098179,-0.075832,0.772339,0.800572,0.000012,-0.599236
-0.241385,0.249681,0.768136,0.756890,0.612115,0.228984
0.311125,0.134267,0.476289,0.184562,-0.950094,-0.251512
-0.044099,0.541614,0.536611,0.899401,-0.235797,0.368074
0.189041,0.027581,0.929134,-0.689988,-0.527211,0.495949
-0.396427,0.554100,-0.159905,0.884509,-0.043108,0.464528
0.025180,0.435292,0.370925,0.922410,0.380261,0.067539
-0.061510,-0.070255,-0.117341,0.013527,-0.961416,0.274766
0.196011,-0.053646,0.293183,0.787190,0.590174,0.178956
-0.268542,-0.002606,-0.775400,0.671365,0.712598,0.203651
-0.668681,-0.153179,-0.417983,0.913354,-0.365341,-0.179754
0.348149,0.523307,0.506802,-0.539640,0.573649,-0.616210
0.652545,0.010972,0.512099,0.353634,0.007904,-0.935350
0.440527,-0.519185,0.684806,0.302289,-0.940444,-0.155521
0.002437,-0.065891,-0.555391,-0.438340,-0.801858,0.406056
-0.087618,-0.301933,0.734682,0.800607,-0.587722,0.116671
-0.181037,-0.007819,0.486784,-0.064725,-0.600616,0.796913
-0.534640,-0.068073,-0.380132,0.815252,-0.425651,0.392664
0.162472,0.426684,-0.614718,0.977357,0.113431,-0.178627
0.359638,-0.427047,0.636922,0.046971,0.856654,0.513749
-0.446562,0.195127,0.183640,-0.598618,-0.102878,0.794401
0.219562,0.354307,0.618945,0.967776,0.136428,-0.211655
-0.765351,-0.573619,0.248846,-0.199969,-0.762474,0.615342
0.283508,-0.064314,0.263908,-0.394245,-0.902974,0.170906
-0.033425,0.495181,0.441840,-0.038535,0.973687,0.224607
0.455259,0.316118,0.579977,0.118628,-0.977928,0.172001
0.588139,0.112809,0.233273,-0.172072,0.163357,0.971445
0.186378,0.904346,0.334143,-0.277023,-0.878057,-0.390224
-0.427990,0.642965,-0.991521,0.097286,0.086338,0.991505
0.085415,-0.577620,-0.170376,0.928897,0.154007,-0.336797
0.422189,0.209796,0.798309,-0.009245,0.871777,0.489816
0.007196,-0.389222,0.039405,-0.685303,-0.468131,-0.557864
-0.375305,-0.686124,0.420193,0.199145,-0.121555,-0.972402
-0.111991,0.008668,0.362810,-0.175996,0.607589,0.774507
-0.086803,-0.406316,0.318352,-0.223146,0.956242,-0.189226
-0.117211,-0.323271,0.515986,-0.682918,0.645517,0.341950
-0.762213,-0.039098,0.257373,0.899499,-0.271833,0.342064
0.612858,0.077408,0.387518,-0.384051,0.856104,0.345820
0.023672,0.393466,0.314319,0.101905,0.854616,0.509164
-0.004066,-0.171849,-0.924518,0.800968,0.309909,-0.512257
0.240337,-0.762624,-0.128395,0.934551,-0.021969,-0.355150
-0.009867,-0.445111,0.311404,-0.216149,0.826777,-0.519345
0.163981,0.276839,0.679389,0.950441,-0.120459,0.286620
-0.451668,0.015094,0.484039,0.891322,-0.116188,-0.438230
0.959152,0.323634,0.558549,0.194154,-0.980673,0.024190
-0.529186,0.454810,0.576867,0.539889,-0.729580,0.419801
0.022283,-0.210523,0.339245,0.246405,-0.942802,0.224520
-0.795638,0.227254,0.487197,-0.415533,0.855549,-0.308816
0.518859,-0.269685,0.415286,-0.439619,0.202793,0.874991
0.260998,0.545130,0.641393,0.236983,-0.599021,0.764861
0.073225,0.273929,0.576600,-0.768251,0.541006,0.342203
-0.640830,-0.355276,0.287328,-0.702280,0.560276,-0.439197
0.158874,-0.031460,0.579394,-0.212758,-0.133009,-0.968010
0.248227,0.006971,0.941815,-0.081382,0.928932,0.361196
0.120108,0.415046,0.807201,0.907598,0.288564,-0.304953
0.153420,0.232467,0.489165,0.091560,0.585295,0.805635
-0.832307,-0.387161,0.308901,-0.289360,0.825999,-0.483731
0.310084,-0.365218,0.653248,0.871050,0.036876,-0.489809
0.385399,0.109050,0.794859,-0.752762,0.504492,-0.422892
0.095976,-0.213554,-0.934211,0.430913,-0.845525,0.315280
-0.068239,-0.121537,-0.967227,0.278397,-0.325777,-0.903529
-0.358016,-0.281324,0.206137,-0.070305,0.710915,0.699755
-0.083559,-0.072680,0.691439,-0.030579,-0.680346,0.732253
0.080655,-0.138873,0.480273,-0.460713,0.817353,0.345944
0.438551,-0.351154,0.499879,0.153190,-0.583697,0.797390
0.141464,0.024914,0.679292,0.785133,0.365502,0.499975
-0.166644,0.472632,0.529420,0.372001,-0.388701,0.842928
0.534173,-0.133418,0.388222,0.984820,-0.142735,-0.098770
-0.518745,-0.938534,0.008989,0.390156,0.863629,0.319255
-0.201344,0.176941,0.786624,-0.176792,-0.794566,0.580870
0.076009,-0.448627,0.156771,0.093613,-0.376440,0.921699
0.304163,0.763836,0.539065,0.730210,0.531427,0.429393
-0.168621,-0.422441,0.459574,-0.673829,0.710044,-0.204430
-0.769063,0.081652,-0.531510,0.951884,0.171235,0.254157
-0.346640,0.165424,0.186313,0.626400,0.569898,-0.531827
0.189161,0.916834,0.503547,-0.685075,-0.726905,-0.047753
0.050481,0.256107,0.495530,0.189901,0.475178,0.859153
0.424859,0.101291,0.668262,0.808925,-0.351694,-0.471117
-0.793662,-0.427290,0.507531,0.567736,-0.675068,0.471126
0.116630,0.226041,0.689860,0.844609,-0.399356,0.356581
0.551349,0.236224,0.684928,-0.669417,0.445067,0.594808
-0.284783,-0.959750,-0.502016,0.433816,0.899462,-0.052651
0.370432,-0.468388,0.146859,0.230599,-0.807205,0.543363
-0.346753,-0.867854,0.268694,0.878086,-0.254284,0.405346
-0.566790,0.664182,-0.266629,-0.739422,0.310253,0.597493
0.381800,-0.495907,0.334192,0.154118,0.038683,0.987295
0.909251,0.031824,0.543244,-0.656871,0.137208,0.741414
0.212252,0.796690,0.443589,0.843278,0.242902,-0.479459
-0.292447,-0.824331,0.290219,-0.550582,0.502829,-0.666349
0.557851,0.074984,0.330839,0.827101,-0.371648,0.421641
0.166063,0.456386,0.842233,0.980283,0.194960,0.032199
0.453290,-0.363156,0.505539,-0.518803,0.127629,-0.845313
-0.276666,-0.200218,-0.272752,0.797408,0.546113,-0.256713
-0.006729,-0.227981,0.685972,0.481562,-0.680293,-0.552538
0.128466,0.117294,0.954861,0.862529,0.468322,0.191620
-0.384591,-0.726495,0.245056,0.977827,-0.192581,-0.082264
0.272834,0.140207,0.336670,-0.731671,-0.658131,-0.177543
-0.725197,-0.398314,0.289442,0.195546,-0.753828,0.627299
0.441915,-0.155119,0.703926,-0.463412,0.803029,0.374692
0.656030,-0.339152,0.274841,-0.374781,0.891924,0.253002
0.761172,0.144814,0.132792,0.055506,0.065744,0.996292
-0.171057,-0.110626,0.556897,-0.572585,-0.573229,0.586135
0.187532,-0.642480,0.006025,-0.364087,0.915176,-0.172900
0.082858,-0.114627,-0.964652,0.359806,-0.444907,-0.820121
0.656144,-0.279990,0.419465,0.510277,0.332319,0.793210
0.343042,0.027945,0.316335,-0.481863,0.687342,0.543479
-0.524079,0.834152,0.341504,0.368729,0.480195,-0.795897
0.553786,-0.089289,0.354550,0.806095,0.531542,0.260141
0.249509,0.015215,0.939459,-0.614548,0.752246,-0.237605
0.414759,0.408620,0.633181,-0.040986,0.990906,0.128160
0.020775,0.747469,0.262111,-0.422488,0.700448,-0.575218
0.040615,0.862157,-0.363466,-0.141442,0.980280,-0.138006
-0.443771,0.557495,-0.606603,0.462601,-0.303073,0.833155
0.837995,0.364370,0.528473,0.798658,-0.208624,-0.564466
0.417776,-0.021641,0.323284,0.083524,0.974143,0.209925
0.185329,-0.162150,0.374836,0.153812,0.773440,-0.614925
-0.052918,0.496878,0.492372,0.308468,0.406942,0.859794
0.112798,0.061648,0.966960,0.070956,-0.375652,0.924040
0.300564,-0.136570,0.397770,0.621634,0.655295,-0.429138
-0.110829,-0.447293,-0.265245,0.366977,0.136125,-0.920216
0.742253,0.276595,0.516666,-0.396929,0.139711,0.907154
0.306373,-0.506456,0.510860,0.972677,-0.215273,0.086937
0.327027,-0.176820,0.676206,0.907289,-0.339097,-0.248678
0.070555,0.071225,0.691099,0.948281,-0.206529,-0.241060
0.244750,0.363884,0.062873,-0.556243,0.642253,0.527356
-0.057912,-0.385949,0.536587,-0.505876,0.757173,0.413254
0.116510,-0.001516,-0.468393,-0.585594,0.807952,0.065522
-0.222233,-0.858641,-0.326758,0.901977,-0.429641,-0.042980
-0.548218,0.769655,-0.991667,-0.016498,0.160960,0.986823
-0.019146,0.504032,0.714810,-0.539976,0.465896,-0.700976
0.074040,-0.754016,0.317574,0.733059,-0.030947,-0.679460
-0.513986,0.616657,-0.777416,0.296099,0.878035,-0.376006
0.358476,0.146632,0.793475,-0.078451,-0.211197,0.974290
-0.149241,-0.255864,0.691609,-0.541607,0.835987,-0.088247
0.121971,-0.108444,0.758151,0.726905,0.259827,0.635687
0.663219,0.243620,0.511491,-0.288488,-0.423913,0.858530
-0.077985,-0.356974,-0.578325,-0.307486,0.560753,-0.768771
-0.905887,-0.300842,0.297945,0.795615,-0.598480,0.093900
0.037597,-0.577862,0.632258,-0.367384,0.757496,0.539656
0.701986,0.300964,0.111632,0.245375,0.734837,0.632302
0.817454,0.519792,0.096375,-0.274348,0.236042,0.932211
-0.187887,0.327515,0.379768,0.978758,0.151981,0.137605
-0.202974,0.034249,0.630484,0.335838,0.937956,-0.086319
-0.501335,0.269806,0.532749,0.884983,-0.309817,0.347591
0.171638,-0.006000,0.303411,0.708337,0.131316,-0.693552
0.210049,0.393708,0.707279,-0.356330,0.802477,-0.478602
-0.492517,-0.890646,0.098124,-0.189623,0.517048,0.834688
-0.767433,0.199855,0.491594,0.940831,0.012462,0.338647
0.157479,0.855368,0.447063,0.813316,0.538335,-0.220707
-0.640129,0.177427,-0.166221,-0.303564,0.754959,0.581279
0.039687,0.025156,0.795345,0.162173,0.981121,-0.105363
0.516883,0.310299,-0.021428,0.520653,0.853271,-0.029119
0.480907,-0.529611,0.671445,0.575731,-0.738618,0.350682
-0.519319,0.355034,0.576357,0.710403,-0.342238,0.614980
0.324477,0.381221,0.191487,-0.205348,0.235087,-0.950035
0.141698,0.548645,0.600505,0.767051,-0.575943,0.282706
-0.366140,0.496515,0.073466,0.848638,-0.517200,0.110986
-0.711038,-0.352730,0.309995,-0.403085,0.309413,-0.861270
-0.615763,0.060193,0.427676,0.075285,-0.971033,0.226775
0.256472,0.660301,0.631991,0.672879,0.673490,-0.306016
0.532204,-0.077166,0.596788,-0.471488,-0.737731,0.483169
-0.481028,0.233558,0.009596,0.404262,0.899378,-0.166408
0.142625,-0.046978,0.411350,-0.570679,-0.305946,0.762052
0.215737,0.707220,0.665468,0.478259,0.551449,-0.683500
0.442963,0.749530,0.464530,0.794523,-0.298929,0.528560
0.012884,0.643936,0.333803,0.981470,-0.150041,0.119182
-0.436347,-0.550464,0.273432,-0.139846,0.581194,0.801659
0.201111,0.090623,0.759025,-0.058531,0.718559,0.692999
0.289076,-0.045523,0.907050,0.550209,0.831124,0.080642
0.131370,-0.563435,0.125285,0.601026,-0.418506,0.680897
0.249155,-0.430199,0.146932,-0.365209,-0.705661,0.607177
-0.105141,-0.612292,0.432025,0.994357,0.012473,-0.105352
0.034353,-0.311875,-0.180895,0.221116,-0.098533,0.970257
-0.166184,0.282900,0.492493,0.602205,0.260411,-0.754676
-0.238134,-0.204340,0.510155,-0.522217,-0.842274,-0.133652
-0.183240,0.168091,0.840241,-0.765079,-0.643103,-0.032749
0.173494,0.019943,0.947330,-0.091414,0.043637,0.994856
-0.212954,-0.323392,0.620086,0.139345,-0.956347,0.256873
-0.286526,0.111960,0.622370,-0.181600,-0.969721,-0.163289
-0.007777,-0.287991,0.683640,-0.417917,0.746407,0.517902
-0.274924,0.496999,0.554419,0.859554,0.171882,0.481274
-0.919458,0.215494,0.485934,0.503398,0.811688,-0.296231
0.222466,0.679094,-0.250182,-0.568055,0.621223,-0.539810
0.024253,-0.104807,-0.902750,0.386848,0.906561,-0.168806
0.816640,-0.064314,0.517516,-0.440569,-0.534872,0.720979
-0.689221,0.121174,0.448326,-0.005224,-0.994364,0.105887
-0.126958,0.536280,0.499052,-0.021981,0.703623,0.710234
0.368343,0.863127,0.492639,0.127790,0.953153,0.274169
0.139842,0.228224,0.755454,0.857460,0.168455,-0.486194
-0.509226,0.584895,0.307347,-0.524745,-0.666772,0.529205
0.083907,-0.597745,0.305282,0.944187,-0.192173,-0.267545
-0.672158,0.151604,-0.351076,0.677743,0.225518,-0.699861
-0.035628,0.561497,0.261017,0.211505,0.134489,0.968080
-0.095395,0.602595,-0.987294,-0.158890,0.137563,0.977666
-0.327955,-0.605747,0.543074,0.504518,0.665571,-0.549978
0.495534,-0.534824,0.702274,-0.760364,0.289847,0.581236
0.083439,-0.876219,0.174481,-0.768230,-0.597429,-0.230003
-0.030061,-0.542583,0.130606,0.855395,0.054482,-0.515103
0.093419,0.170638,0.624532,0.586860,-0.796487,0.145614
-0.192065,-0.125053,0.547860,0.299766,-0.812798,0.499500
0.304163,0.584409,-0.301953,-0.545963,0.495153,-0.675831
0.266679,0.145056,0.602619,-0.475303,0.026358,-0.879427
0.238134,-0.049766,0.578276,-0.492508,-0.140961,-0.858816
-0.049554,-0.283021,0.492760,0.944949,-0.114990,0.306348
-0.549380,0.647330,0.193334,0.310358,-0.578764,-0.754129
0.229082,0.032552,0.890336,-0.594449,-0.668268,-0.447268
-0.383310,-0.681639,0.184612,0.639933,0.632359,-0.436587
-0.174655,0.405832,0.372504,0.341733,-0.099727,0.934491
-0.240337,-0.843365,-0.126354,-0.724655,0.435701,0.533892
0.260998,-0.047584,0.617268,0.017426,-0.987194,0.158572
0.092491,-0.402316,-0.959817,-0.004459,0.032346,0.999467
-0.760010,0.148816,0.477163,-0.542980,-0.837096,0.066664
-0.184522,-0.005516,-0.970070,-0.152050,-0.115426,-0.981610
0.429619,0.562345,0.168772,-0.584059,0.627691,0.514663
-0.137058,-0.775473,0.459623,0.677195,0.529598,0.510815
-0.256352,0.412257,0.135926,-0.873883,-0.220278,0.433367
0.506322,0.414925,0.094893,0.419908,0.898974,-0.124593
0.133686,-0.171121,-0.592051,0.840573,0.488801,0.233474
0.179528,0.357459,0.691001,0.831058,0.247671,-0.497998
-0.247186,-0.238406,0.605534,-0.667889,0.293304,-0.684030
0.348496,-0.555555,0.521233,0.873475,0.363448,0.323955
0.278054,0.899133,-0.263301,-0.793648,-0.602207,-0.086433
-0.285598,0.333455,0.275740,0.986642,-0.145636,0.072988
-0.602531,-0.053039,-0.430057,0.849599,0.073263,-0.522317
-0.287921,-0.111111,0.696249,0.058439,-0.650062,0.757631
0.006849,0.007213,0.960327,0.942843,-0.329212,-0.051634
-0.852735,-0.353095,0.528278,0.995512,-0.087096,-0.037027
-0.204362,-0.607565,0.533696,0.964433,-0.264277,-0.005230
-0.108393,0.016912,0.808294,0.935166,-0.023799,0.353408
0.197866,-0.040795,0.545843,-0.834201,0.141162,0.533088
-0.633053,0.726981,-0.735727,0.343158,0.904105,-0.254631
0.624808,-0.389586,0.425101,-0.612933,-0.282503,0.737906
0.238248,0.495544,0.431514,0.827283,0.140066,-0.544044
-0.463504,-0.381462,0.437394,0.143389,-0.364030,0.920283
0.114194,-0.019579,0.782688,0.709320,0.299355,-0.638163
-0.474646,0.227982,0.012074,0.423054,0.898415,-0.117799
0.253221,0.015215,0.942471,-0.308059,0.844679,0.437741
-0.257400,0.200703,0.794641,0.993129,0.010795,-0.116530
0.026229,0.511305,0.340290,0.822562,0.305626,-0.479566
0.056516,0.184458,0.719547,0.990373,-0.061041,0.124240
-0.378783,0.022246,0.556217,0.020148,0.928788,-0.370063
-0.295812,-0.628296,0.294932,0.500494,-0.556773,-0.662955
-0.501569,0.133783,0.696006,0.038720,-0.958550,0.282280
0.238021,0.680548,0.698095,0.942245,0.091324,-0.322234
0.454452,-0.543068,0.071522,0.545261,-0.837829,-0.027053
0.368222,-0.860096,0.073126,0.546328,0.523569,-0.653759
0.172453,-0.048190,0.971090,0.854306,-0.162387,0.493752
0.566903,-0.286173,0.760216,-0.078282,0.909710,0.407798
-0.295465,-0.793901,-0.146737,0.864063,-0.246268,-0.439030
-0.074507,-0.084318,-0.232423,0.040161,0.966685,-0.252800
0.910293,-0.002000,0.537316,0.648871,0.180227,-0.739246
-0.238134,-0.072074,-0.362057,-0.059884,0.913972,-0.401335
-0.328076,-0.478208,0.703902,0.215002,0.963654,0.158575
0.061737,0.750379,0.565084,0.704640,-0.706266,0.068336
-0.754436,-0.405952,0.508357,0.869803,-0.158824,0.467137
-0.118833,-0.676547,0.255235,0.818419,0.307131,0.485655
-0.351747,0.321453,0.081191,0.951994,0.173537,0.252177
-0.198674,-0.909680,0.085467,0.525740,-0.714582,0.461486
-0.400373,-0.465841,0.676814,-0.196397,0.951774,0.235699
-0.285138,-0.934170,-0.178927,0.078217,0.996527,0.028578
-0.043866,0.775354,-0.303071,0.922738,-0.375943,-0.084975
-0.509339,0.840455,0.348137,-0.329922,-0.457592,0.825689
-0.482416,-0.010244,0.536077,0.175344,0.903833,0.390308
-0.159334,0.011941,0.575191,0.846560,0.527614,-0.070425
-0.594520,0.122871,0.439969,0.007383,0.998883,0.046662
-0.560288,-0.257562,0.292308,0.101045,-0.470716,0.876479
0.817914,0.067830,0.410694,0.041277,0.893644,0.446874
0.544620,-0.297084,0.185535,-0.504007,0.570502,-0.648463
-0.353837,-0.109172,-0.296026,0.665834,0.744926,0.041844
-0.596150,0.544159,0.438536,-0.114989,-0.736811,0.666249
0.038178,0.465600,0.686070,-0.014338,-0.709010,0.705052
0.861207,0.193187,0.384967,-0.454248,0.817316,0.354476
0.352788,0.242044,0.211627,-0.665580,-0.674166,-0.320162
0.128233,-0.300964,-0.727759,-0.616511,0.780107,-0.106530
-0.270051,0.371401,0.728390,-0.503020,-0.663828,-0.553446
0.551236,-0.178638,0.576746,0.806486,0.589869,0.040428
-0.185216,-0.548038,0.431782,0.553884,0.411220,-0.723955
0.349310,0.007699,0.850517,0.579358,0.764749,-0.281963
-0.124635,-0.568164,0.426024,-0.438423,-0.495137,0.750083
0.191711,0.089047,0.759098,-0.095167,0.715825,0.691764
-0.269349,-0.390435,-0.015500,-0.826981,0.384268,0.410416
0.426247,0.258411,0.589986,-0.767559,0.569997,0.293184
-0.028084,0.814391,0.340435,0.968450,-0.244368,-0.048880
0.084367,0.366309,0.308950,0.456636,0.581870,0.672986
0.151911,-0.137055,0.873621,0.461201,0.883287,0.084243
-0.106997,0.556647,0.739444,-0.885955,0.289750,0.362117
-0.432282,-0.864702,0.185122,0.841884,-0.276628,0.463366
0.265985,0.554222,0.609251,0.373400,0.890613,-0.259578
-0.086690,-0.522821,0.431223,-0.761888,-0.120832,-0.636338
0.431241,-0.105898,0.348331,0.804980,-0.359186,-0.472222
-0.589534,0.440504,-0.198873,0.998285,0.058126,0.006975
0.175817,0.067467,0.978475,0.419015,0.717212,-0.556806
-0.083092,0.570104,0.524902,0.686745,0.616189,-0.385606
-0.638620,-0.160938,-0.442277,0.889980,-0.237969,-0.388981
-0.731111,-0.387646,-0.179705,0.984680,0.166221,0.052687
0.432402,0.259259,0.491400,0.492878,0.567700,0.659385
0.264129,-0.566224,-0.531121,0.641646,0.206297,0.738737
0.365326,0.604413,0.691487,0.690318,0.494674,-0.527976
-0.693280,-0.060677,0.598270,0.877119,0.349041,0.329897
0.200416,0.760199,0.528036,0.134988,0.847380,-0.513541
-0.130443,-0.634721,0.414508,0.786776,0.321479,-0.526911
0.191945,-0.063709,0.940455,0.176229,-0.433767,0.883623
0.074387,0.741893,0.367183,0.778930,-0.587072,-0.220486
0.121036,0.269685,0.792891,0.521050,0.680448,-0.515265
-0.171985,-0.561495,0.582649,0.851068,-0.317094,-0.418490
0.081817,-0.073771,0.806496,0.988952,-0.147986,-0.008577
0.562611,0.276353,0.239517,-0.246526,0.652339,0.716714
0.019379,0.498818,0.369345,0.847361,0.520182,-0.106728
-0.184869,0.040189,0.839949,-0.598891,-0.389380,-0.699795
0.134968,-0.060677,-0.223799,0.791546,0.561167,-0.241962
-0.301613,-0.665636,0.220616,0.584507,-0.773041,0.246493
0.157826,0.030248,0.735411,0.344225,0.915248,0.209357
0.521876,-0.012305,0.477261,-0.106946,-0.244622,0.963703
0.896367,0.310177,0.329357,0.020252,0.805217,0.592635
0.855753,0.223495,0.249113,0.392489,0.343461,0.853221
-0.060114,-0.773049,-0.002600,-0.311289,-0.106245,-0.944357
-0.049667,0.616536,0.294179,0.760770,0.570031,0.310311
0.715217,0.091956,0.413245,0.041339,-0.995095,-0.089874
-0.787401,-0.115961,-0.485934,0.313550,0.944097,0.101820
-0.481956,0.587319,0.447257,-0.696719,-0.691526,0.190723
-0.416154,0.264230,0.545236,0.478906,-0.684977,0.549049
-0.023905,0.171365,0.690758,0.221924,0.786130,0.576844
0.470694,-0.417954,-0.449492,0.377798,-0.047691,-0.924659
0.238021,0.259138,0.596958,0.727496,0.102685,-0.678385
0.693280,0.242529,0.497400,-0.143136,-0.687800,0.711648
-0.752353,-0.560284,0.242457,-0.081649,-0.691674,0.717580
0.332367,-0.606958,0.332200,0.217007,-0.265484,-0.939375
-0.025648,0.360611,0.688062,0.888783,0.415382,-0.193707
-0.411628,0.666000,0.343909,-0.187272,0.397144,-0.898446
0.432863,0.411530,0.187940,0.473916,-0.455692,0.753491
-0.678774,-0.355156,0.287644,0.753541,-0.497818,0.429364
0.526402,-0.478087,0.126427,0.011056,-0.995186,0.097381
0.401067,-0.373946,0.485934,0.179660,0.875346,-0.448879
-0.387835,0.307026,0.420023,0.009970,-0.070589,0.997456
-0.003365,-0.159362,-0.857903,0.441335,0.890102,0.113766
0.130209,-0.238527,-0.849692,0.370609,0.921641,0.115011
-0.337354,0.408014,-0.636339,0.279864,-0.324572,0.903509
-0.279330,0.143724,0.097639,0.903680,0.391937,0.172473
0.320298,-0.354185,0.631456,-0.260407,0.635856,0.726550
-0.202740,-0.361459,0.704436,0.486904,-0.873010,0.027884
0.056049,0.373220,0.393130,-0.622763,0.390543,0.677969
0.290124,-0.597866,0.307419,0.156380,0.348433,0.924197
-0.325986,-0.781899,0.232204,0.836461,-0.479299,-0.265719
0.635142,0.105413,0.697464,0.268086,-0.701883,0.659917
0.507023,0.131599,0.240513,-0.410650,0.425848,0.806238
-0.313683,-0.643207,-0.419732,-0.724703,0.644622,-0.243450
0.064874,-0.089895,0.767383,0.946619,0.233631,0.222102
-0.395265,-0.776807,0.226495,0.772365,-0.564864,-0.290483
0.369271,-0.239982,0.405690,0.023115,-0.993719,0.109492
0.166998,-0.106019,-0.951193,0.958402,0.229266,0.170008
-0.276546,-0.126629,-0.146300,0.120071,0.358168,-0.925904
-0.397235,0.653998,0.010689,0.750538,0.549185,0.367544
-0.786005,-0.372976,0.453914,-0.746471,0.659729,0.086824
0.742140,-0.285931,0.276323,-0.709938,0.607297,0.356619
0.457002,0.446081,0.580997,0.361896,0.398362,-0.842816
0.845652,0.239135,0.342743,-0.116685,-0.305587,0.944987
0.000694,-0.146390,-0.387591,-0.656194,0.750528,-0.078211
-0.094467,-0.864581,0.474224,0.237263,0.011831,-0.971373
-0.005220,-0.772565,-0.470312,0.000400,-0.310618,0.950535
0.286873,-0.903861,0.330669,-0.669104,-0.394341,-0.629916
-0.165837,0.600534,0.522351,-0.403555,0.449938,-0.796680
0.564233,-0.245923,0.509329,-0.457764,0.397761,-0.795134
-0.474993,-0.187730,0.347043,0.110906,-0.856534,0.504034
0.156083,0.065770,0.482873,0.529020,0.156864,0.833985
-0.350933,-0.219736,0.420339,0.433381,0.602440,0.670259
0.354070,-0.566708,0.669112,-0.104983,0.077546,0.991446
-0.359404,0.243499,0.404135,0.224385,0.062945,0.972466
0.009867,0.524278,0.254069,0.823333,0.101976,-0.558322
0.351627,-0.449718,0.649531,0.757180,-0.230821,-0.611065
-0.408957,-0.974783,0.164545,0.977772,0.203218,0.051621
0.146571,-0.158271,-0.782542,0.905196,0.188418,-0.380945
0.340372,-0.643329,0.337617,0.404356,-0.263316,-0.875877
0.125916,-0.192943,-0.413100,0.916232,-0.048380,0.397717
-0.002557,0.066376,-0.443030,0.856898,0.509872,-0.075864
0.209355,0.674486,0.441694,0.633740,0.216534,-0.742622
-0.356387,-0.157543,0.415990,-0.270758,-0.793050,-0.545675
-0.199028,-0.098502,-0.154827,0.182503,0.972292,-0.146085
0.927469,0.140572,0.422817,-0.680802,-0.264372,-0.683093
0.081349,0.110021,0.654900,-0.482240,0.511702,0.711060
0.812928,0.231618,0.262767,0.029848,0.907197,0.419647
-0.044914,-0.280596,0.816676,0.277134,-0.750263,-0.600252
0.505280,0.620052,0.180482,0.236069,0.057560,-0.970030
-0.209469,-0.465236,0.432025,0.346515,-0.005507,-0.938028
-0.387028,0.586470,0.439532,-0.707537,-0.706426,0.018802
-0.193341,-0.093653,0.219256,-0.556612,-0.635535,0.535049
0.165022,-0.173789,0.355886,0.919113,0.341424,0.196625
0.082398,0.171486,0.975997,0.746938,0.559996,-0.358451
-0.297668,-0.436382,0.708105,0.158618,0.939488,-0.303648
0.085529,0.054980,0.807274,0.699133,0.698562,0.152397
-0.547758,0.323634,-0.165784,-0.096561,0.531248,0.841696
-0.570735,0.358550,-0.231962,-0.751481,0.641335,0.154809
-0.445747,-0.732315,0.415213,-0.666999,0.689618,0.282028
0.340138,0.576286,0.193334,0.050279,-0.218038,0.974644
0.101657,0.203492,0.697658,0.973572,-0.214099,0.079496
-0.011836,-0.345941,-0.961251,-0.101391,-0.121082,0.987451
-0.893931,-0.388010,0.278364,0.460006,0.886102,-0.056725
-0.202393,0.228103,0.201885,-0.420410,0.080726,0.903736
0.239756,0.534097,-0.332200,-0.204699,0.869014,0.450459
-0.360105,-0.513366,-0.024804,-0.019570,-0.730423,0.682714
0.152952,0.022853,0.698265,-0.475210,0.878472,-0.049630
-0.602992,0.010244,0.103664,-0.023984,-0.782827,0.621777
-0.509339,-0.116445,0.371994,-0.181513,0.972765,0.144158
-0.005220,-0.219130,0.452116,0.897455,-0.000667,-0.441105
-0.428570,-0.707219,0.413901,-0.666999,0.689618,0.282028
-0.139374,-0.071588,-0.331009,-0.104519,0.968051,0.227932
0.168387,0.043220,0.709635,-0.021273,-0.944619,0.327478
0.347568,-0.488513,0.651523,0.134881,0.752738,0.644354
0.348496,-0.412136,0.133424,0.888656,-0.440483,-0.127540
0.371013,-0.706735,0.335309,-0.175933,0.297054,0.938513
0.142278,0.109899,0.972013,-0.619879,-0.539867,0.569468
-0.353142,-0.306783,0.367888,0.225573,0.971420,-0.073893
0.430546,0.024914,0.438293,0.093096,0.453174,-0.886547
-0.600903,0.215009,-0.012852,-0.375941,0.915813,-0.141261
-0.570502,0.467176,0.240926,0.459564,0.819349,0.342736
0.423003,-0.576649,0.082965,0.735578,-0.467075,-0.490679
-0.128466,-0.163121,-0.966523,-0.080804,0.264873,0.960892
0.565274,0.055586,0.407828,-0.402924,0.906581,0.125552
0.012183,-0.111353,0.388829,0.081625,0.430399,0.898941
0.166644,-0.208826,0.921384,0.725794,0.259169,-0.637224
0.285832,-0.142510,0.389072,0.562841,0.650935,-0.509405
0.280838,0.065164,0.476872,-0.148050,-0.381969,0.912239
0.129628,-0.074256,0.583645,0.554699,0.636051,0.536421
-0.377976,-0.108322,0.536854,0.250730,0.913431,0.320589
-0.238715,0.211493,0.784267,0.743505,0.595824,-0.303636
0.276199,0.716676,0.701156,0.947387,0.245018,-0.205972
-0.492977,0.050979,0.297920,-0.290642,-0.956530,0.024021
0.065568,0.017640,0.942690,-0.256125,-0.690394,-0.676576
-0.223862,-0.373462,-0.003207,-0.480242,0.830159,-0.283204
0.424278,0.443415,0.180482,-0.215061,0.382695,-0.898495
-0.093306,-0.711704,-0.004543,0.272419,0.119281,0.954757
0.286993,-0.408862,0.748239,0.968800,0.001671,-0.247838
0.420793,0.056677,0.667922,0.785499,-0.228473,-0.575144
0.436347,0.507789,0.189884,0.381095,-0.170341,-0.908708
0.435299,-0.299872,0.390652,-0.397247,-0.912226,0.100193
-0.492750,0.179367,0.159492,-0.764806,-0.345162,0.543999
0.273762,-0.276717,0.466037,0.984374,-0.163805,-0.064627
0.483691,-0.139965,0.698581,0.445632,-0.686491,0.574580
-0.262620,0.494939,0.043317,0.902911,0.371878,0.215543
-0.763488,0.056920,0.301759,-0.595188,-0.787857,0.158215
0.234302,0.097896,0.931029,0.649777,0.677045,0.345543
0.170129,0.126629,-0.459502,-0.659596,0.487230,0.572311
0.159681,-0.095472,0.859482,0.684837,0.088772,0.723269
-0.168854,-0.098139,0.309873,-0.253320,-0.929590,-0.267753
-0.847628,-0.431775,0.513945,0.900646,0.359034,0.244808
0.665309,-0.019094,0.507968,0.624686,0.397590,-0.672078
-0.316813,-0.716918,0.295418,-0.741654,0.543486,0.393157
-0.716839,-0.505970,0.283149,0.466935,0.410865,-0.783047
-0.398977,0.703946,-0.988290,0.085087,0.141902,0.986217
0.215156,-0.843971,0.352097,0.435468,-0.519737,-0.735011
0.176164,0.430442,0.712453,-0.011940,-0.816019,0.577901
0.087618,0.207371,0.574510,0.828815,-0.378972,-0.411638
0.372401,-0.682729,0.548103,-0.396357,0.731907,0.554268
-0.274456,-0.659817,0.252563,-0.563554,0.818397,0.112395
-0.853897,-0.373946,0.320757,-0.434976,0.464724,-0.771251
-0.457002,0.787355,0.002769,0.843676,0.482609,0.235160
-0.198908,-0.033642,0.840217,-0.763210,-0.638734,0.097624
-0.005220,-0.038250,0.659710,0.913549,-0.406531,-0.012700
0.253221,0.105050,0.490890,-0.121134,-0.978779,0.165284
0.375766,-0.102624,0.614523,-0.071390,-0.989395,0.126498
-0.528839,0.674123,0.321680,0.076108,-0.775442,0.626816
0.016249,-0.207007,0.671566,-0.683454,0.189523,-0.704963
0.197399,0.522580,0.531072,-0.202543,0.542043,0.815577
0.361260,-0.131721,0.683932,0.859987,0.131790,-0.493004
0.184983,-0.005395,0.740635,-0.476336,0.321421,0.818408
0.433677,-0.093168,0.655750,0.322690,0.932853,-0.160174
-0.249857,-0.262654,0.673461,-0.395541,0.889152,0.230124
0.383777,-0.342668,0.263277,0.902534,0.009363,-0.430517
0.198447,0.684791,0.429765,0.909800,0.119687,-0.397416
-0.394338,-0.743104,0.308197,-0.551716,0.555784,0.621863
-0.042704,-0.289204,0.834508,0.912752,-0.396616,0.097873
0.620749,-0.306662,0.180020,-0.312813,0.078495,-0.946566
0.208073,0.859490,-0.632720,0.737270,0.314348,0.598011
-0.247881,0.012912,0.840848,0.952887,0.108794,0.283143
0.361033,-0.091592,0.693771,0.792375,0.584414,-0.174935
0.451782,-0.324605,0.716680,-0.855977,0.366585,0.364581
0.286993,-0.479298,-0.059132,-0.247571,-0.800711,0.545500
0.760471,0.040916,0.521500,-0.287418,0.628722,0.722565
0.330278,-0.054979,0.486808,0.540118,0.462155,-0.703338
0.603573,0.108687,0.685292,-0.878659,0.052493,0.474556
-0.014272,-0.587440,-0.590666,-0.641924,-0.755923,0.128505
0.080889,0.106019,0.907317,0.784403,0.157995,0.599791
0.436929,0.242529,0.581799,-0.464676,0.780387,0.418417
0.152025,0.562102,0.752952,0.515908,0.825754,-0.227969
0.583499,-0.172697,0.038288,0.137125,-0.290848,0.946892
0.122084,-0.087834,-0.269520,0.970039,0.190595,0.150659
0.386447,0.057769,0.760094,0.858800,-0.191993,0.474975
-0.661484,-0.349699,0.339949,-0.814330,0.392077,0.427950
-0.048392,0.030006,-0.657913,-0.014990,-0.996257,0.085129
-0.342114,0.525247,0.507483,0.292551,-0.775701,0.559198
-0.239409,-0.410923,0.255746,0.396387,0.794900,0.459359
-0.215737,-0.501242,0.260021,0.704735,-0.467145,-0.533970
-0.005107,0.028793,0.806229,-0.224432,0.879934,0.418743
-0.495995,0.006971,0.285968,0.103576,0.991986,-0.072358
0.588833,0.350064,0.218940,-0.267915,0.740764,0.616028
0.392829,-0.814875,0.084325,0.564339,0.466431,-0.681149
0.281419,0.828574,0.470118,0.667365,0.628131,-0.400093
-0.208427,0.324726,0.727710,0.697796,0.689810,0.192983
0.248808,0.256956,0.327292,0.516283,0.756468,0.401507
-0.151444,-0.213675,0.377144,-0.598770,0.502620,-0.623576
0.462222,0.563921,0.701497,-0.335123,-0.923260,0.187840
0.147612,-0.328726,-0.708251,0.397297,0.139828,0.906975
-0.592665,0.051343,-0.111729,-0.395214,0.854915,0.336046
0.062551,-0.073407,-0.430081,0.254161,0.957273,0.137949
0.109200,0.074135,0.221369,0.384252,0.923122,0.014009
0.642218,0.154877,0.701812,0.287256,-0.685344,0.669170
-0.040735,-0.096563,0.677445,0.227801,0.877216,-0.422609
-0.511662,0.780081,0.194233,-0.548994,-0.011130,0.835752
0.380526,-0.790870,-0.226398,0.282627,-0.944968,-0.164795
0.388537,-0.582470,0.331568,0.437901,0.048874,0.897694
-0.454565,0.571316,0.270128,0.424296,0.887288,-0.180812
-0.139141,0.494575,0.722487,0.821374,0.524919,-0.223171
0.229082,0.214646,0.597128,-0.670031,-0.319493,0.670061
0.007890,0.844092,0.404985,0.355833,-0.807395,0.470635
0.492977,-0.259986,0.732860,0.809875,-0.536895,-0.236317
0.274924,0.549009,0.592537,0.882624,0.469827,-0.015412
-0.013692,0.211614,0.367475,-0.578074,-0.626645,-0.522634
0.231632,0.649755,0.433871,0.950822,-0.040479,-0.307081
0.424512,0.174880,0.186993,0.708946,0.694339,0.123650
-0.252407,0.599927,0.546596,0.589481,-0.488237,0.643535
0.507250,0.280475,0.587799,0.246686,0.324908,0.913006
0.953464,0.287386,0.178563,-0.443507,0.880932,-0.165106
-0.532090,-0.069406,0.535858,-0.494968,0.856347,0.147226
0.672045,0.233922,0.504009,0.190357,0.618536,-0.762350
0.234883,0.357459,0.538604,0.646905,-0.514876,-0.562509
0.148427,0.945566,-0.209319,0.000910,0.997455,0.071290
0.247299,0.016185,0.867110,0.265970,0.960825,-0.077947
0.440172,0.121658,0.668699,-0.717829,0.414744,0.559204
-0.022517,-0.368613,0.722365,0.747244,0.116789,0.654207
0.538238,0.422077,0.098537,0.270823,-0.961897,0.037546
0.336660,0.009033,0.746538,-0.286638,0.899454,0.329881
0.388537,0.595927,0.726981,0.456486,0.859370,-0.230444
-0.549840,0.005881,0.564283,-0.436287,-0.780193,-0.448277
-0.007196,-0.122629,-0.960060,0.229741,-0.251726,-0.940135
0.072418,0.623446,0.307128,0.835942,-0.517748,0.182040
0.227460,-0.002606,0.679219,0.612064,0.779740,0.131845
0.261225,0.390314,0.184636,-0.000025,0.627801,0.778374
-0.337241,0.044068,-0.140615,0.701864,0.622847,0.345612
0.251018,-0.843486,0.027282,0.831577,0.014467,-0.555221
-0.047931,-0.212220,0.694743,-0.269559,0.354397,0.895400
0.023325,-0.838758,0.180312,0.853405,0.493892,0.166644
-0.656264,-0.565618,0.254871,0.232528,0.816692,-0.528152
0.085876,0.164091,0.978111,0.746938,0.559996,-0.358451
0.189622,-0.256713,0.703926,-0.257463,0.613604,0.746460
-0.635369,0.104929,-0.268573,0.838888,-0.509175,0.192372
-0.497043,-0.155967,0.324498,-0.257405,0.891177,0.373558
-0.546249,-0.124568,0.539794,0.798664,-0.589047,0.123124
-0.395499,-0.004061,0.196929,-0.056812,-0.150911,0.986913
-0.422189,-0.727344,-0.093460,0.897745,0.292167,0.329685
-0.837301,-0.333091,0.275934,0.158236,0.879021,-0.449758
-0.078679,0.595563,0.756717,0.121798,-0.922742,0.365668
0.349891,-0.276838,0.400661,-0.154125,-0.939611,0.305576
0.128813,-0.029035,0.788761,0.994707,-0.052623,-0.088251
0.473598,0.221677,0.642996,-0.346860,0.341763,0.873434
-0.576770,-0.149421,-0.385040,-0.722361,0.509416,0.467644
0.228033,-0.484027,-0.547082,-0.675022,-0.319846,-0.664864
0.386447,0.465842,0.692508,-0.758661,0.144369,0.635289
-0.051176,0.705886,0.577450,0.482999,0.117368,-0.867719
-0.232914,-0.520882,0.426364,-0.596919,0.312299,0.739024
0.449579,-0.131357,0.634517,-0.194063,-0.979765,-0.048984
-0.020655,-0.400497,0.592440,-0.316280,-0.601773,0.733373
0.118486,0.115476,0.629561,0.105954,-0.914369,0.390773
0.371821,-0.590349,0.673777,0.517152,-0.567961,-0.640292
0.500755,-0.182881,0.257228,-0.150473,-0.406071,0.901368
0.091450,0.257198,0.760507,0.943261,0.207602,-0.259152
0.416267,-0.195005,0.402361,0.442597,0.373418,0.815271
0.208427,0.636298,0.437710,0.877445,0.016461,-0.479394
