0.404044,0.420251,0.750905,-0.199878,-0.974192,0.104875
0.240771,-0.179147,0.621054,0.315375,-0.105445,-0.943091
-0.282184,-0.113063,0.674036,-0.108668,0.401140,0.909548
-0.062194,-0.245351,0.713259,0.169720,-0.701486,0.692179
-0.372456,0.387947,0.403914,0.798366,0.437466,0.413806
0.692686,0.370263,0.712351,0.263868,-0.963040,-0.054108
0.150216,0.170548,0.696453,-0.219387,-0.157791,-0.962793
0.215780,0.012343,0.936063,-0.160119,-0.949391,0.270219
0.274746,-0.571573,0.530265,0.006432,-0.802978,0.595973
0.309561,0.194988,0.371478,0.754944,-0.590546,-0.285159
-0.379195,-0.013078,0.651887,0.988561,-0.147175,-0.032968
0.227292,-0.111586,-0.922170,0.783874,0.445850,0.432156
-0.433525,0.187499,0.601229,0.492169,0.854061,0.168372
0.257758,0.299148,-0.162060,0.938712,-0.312257,-0.145995
0.052087,-0.010867,-0.001510,0.695034,0.681573,-0.228879
-0.008421,0.029046,0.856576,0.034406,-0.953190,0.300410
-0.054611,0.421361,0.633050,-0.205825,-0.552614,0.807622
0.152885,-0.104711,-0.523131,0.843377,-0.401646,-0.356924
0.522254,0.038140,0.745054,0.900528,0.407053,-0.152827
-0.028639,0.633850,0.576969,-0.674894,-0.737789,-0.013602
0.142779,0.075601,0.684750,-0.481366,0.801458,-0.354898
0.582338,-0.102252,0.681224,0.269232,-0.904998,0.329383
0.517618,-0.608548,0.529544,0.911134,0.103997,0.398774
-0.179561,-0.418901,0.763462,0.924110,-0.378325,-0.053772
-0.061209,-0.382669,0.547846,-0.569603,-0.491026,-0.659125
0.870278,0.257136,0.662147,0.475966,0.486816,-0.732439
0.560577,0.163179,0.528502,0.427130,0.610855,-0.666645
0.129441,-0.221398,0.901543,0.809778,0.548944,0.207170
0.410783,-0.203339,0.784009,0.609790,0.692390,-0.385685
0.259022,0.362278,0.807842,-0.444402,0.714791,-0.539983
0.583323,0.004240,0.618061,0.011408,0.521772,0.853008
0.080865,-0.333288,0.579961,0.362840,-0.929787,-0.061993
-0.011232,0.379723,0.490027,0.573211,0.631628,-0.521992
0.068792,0.348402,0.868385,0.953703,-0.155793,-0.257254
-0.236277,-0.251611,0.698991,0.396088,0.428514,-0.812090
0.306472,0.064304,0.912658,-0.478369,-0.299963,-0.825339
-0.400252,-0.162317,0.656910,0.454803,-0.740012,-0.495517
-0.129579,0.336857,0.412304,-0.157204,0.729767,0.665377
0.170854,-0.096480,0.920807,-0.211137,0.171822,-0.962236
-0.085497,-0.118715,-0.602164,-0.538310,-0.795115,0.279312
-0.241332,0.080264,0.740218,0.887684,-0.447291,-0.109305
0.359118,-0.519988,0.550731,0.922179,0.301560,0.242173
0.659131,-0.183075,0.720713,0.883250,0.458495,0.098247
0.178716,0.522320,0.573522,0.984436,0.171133,0.039990
-0.058120,0.394950,0.490321,0.927391,0.026118,-0.373180
-0.560719,0.145119,0.397582,0.278209,-0.654650,0.702874
-0.009406,0.198549,0.282907,0.732293,0.550336,0.401095
0.758387,0.256401,0.523692,0.743012,0.281662,0.607124
-0.386495,0.027082,0.664070,-0.004929,0.037195,0.999296
0.245124,0.027944,0.909264,0.131073,0.212518,0.968326
-0.148953,0.059633,0.799051,-0.404096,-0.764188,-0.502716
0.082408,-0.097094,0.809178,0.714271,0.398446,0.575377
0.480978,-0.093654,0.872340,0.809097,0.583433,-0.070485
0.212412,-0.091075,-0.937613,-0.700117,0.199875,-0.685483
0.186016,0.177303,-0.129036,0.785159,-0.490940,0.377495
-0.495156,-0.110971,0.410487,0.833279,0.463217,-0.301788
0.020216,-0.669594,0.532296,-0.228512,0.969340,0.090341
0.122702,0.418782,0.638555,0.876060,0.285316,-0.388734
-0.053908,0.234541,0.641921,-0.591127,0.206513,0.779693
-0.019933,0.282445,0.705991,0.995981,0.055234,-0.070510
-0.484346,0.020942,0.607160,0.662727,0.722088,-0.198446
0.380878,-0.575142,0.568125,0.851338,-0.068614,-0.520111
0.514670,0.354047,0.696079,-0.512480,0.613854,0.600457
0.674576,0.337592,0.547659,0.240228,-0.210865,-0.947537
-0.087322,0.170915,0.829751,0.063456,-0.883135,0.464807
-0.092236,0.624269,0.486687,0.071041,0.769744,0.634387
0.006878,0.288825,-0.971732,0.115428,-0.150612,-0.981831
-0.325284,-0.081006,0.407735,-0.710317,-0.061211,0.701215
0.247930,0.288458,0.625436,0.117900,0.160083,-0.980037
-0.743508,0.203834,0.246864,-0.135283,-0.812579,0.566934
-0.651972,0.052017,0.364451,0.818857,0.524952,0.232161
0.495297,-0.118835,0.856202,-0.195961,-0.974421,0.110014
0.312088,0.453664,0.821174,0.420158,-0.782129,0.460153
0.103748,0.535589,0.516078,0.820413,0.568258,0.063290
0.276288,-0.084440,0.973629,-0.650430,-0.591714,0.476252
0.819456,0.586320,0.463095,0.829699,0.022399,-0.557762
0.252420,-0.078915,0.938628,0.246579,0.969097,-0.007006
-0.443495,-0.274828,0.180629,-0.502350,0.864036,0.032954
0.371474,0.777683,-0.965560,-0.179707,0.133954,0.974557
-0.110205,0.331819,-0.241066,0.198400,0.589083,0.783338
0.278255,0.410918,0.763757,0.938810,0.338613,0.063058
-0.269267,-0.016152,0.675853,0.160440,-0.855532,-0.492264
0.009967,-0.090954,-0.663269,-0.694270,-0.707561,-0.131709
-0.039029,0.602528,0.336664,-0.462047,0.860787,-0.213444
0.727222,0.255299,0.553590,0.890062,0.451454,-0.063082
0.388320,0.121909,0.891924,0.553933,0.490507,0.672726
0.014740,0.732237,-0.988458,0.305048,-0.089623,-0.948110
0.439561,0.440522,0.657551,0.193788,-0.416028,0.888463
-0.184612,0.080512,0.573255,0.964518,0.223388,0.140720
-0.195562,-0.017628,0.677082,-0.011117,0.647190,0.762247
0.719220,0.340290,0.684082,-0.140361,-0.934178,0.328039
-0.179698,-0.116744,0.414815,0.618631,0.572749,0.537824
-0.087742,-0.102987,0.538788,0.721850,0.234414,0.651139
0.616171,0.077933,-0.947445,0.228858,-0.223208,-0.947524
-0.201179,0.317935,-0.980175,-0.169252,0.135951,0.976151
0.572514,-0.329727,0.719057,0.034339,0.961958,0.271030
0.579249,-0.282437,-0.939670,-0.232169,0.136521,0.963047
0.422437,0.111714,0.172881,0.737541,-0.665916,-0.112200
0.250034,0.049070,0.964144,-0.945235,0.203145,-0.255466
0.650571,-0.341520,0.489146,0.909736,-0.149085,-0.387497
0.403902,0.490391,0.345401,0.241854,0.956840,0.161134
-0.092798,0.484004,0.637032,0.278544,-0.527445,0.802630
0.143901,-0.092919,-0.005010,0.739563,0.620289,0.261320
0.247789,0.028807,0.966682,0.799531,0.585149,0.135467
-0.351818,0.491740,0.418021,0.697119,0.130468,-0.704984
0.659131,-0.125717,-0.935475,-0.299129,0.008817,0.954172
0.405167,-0.235155,0.874557,0.660097,-0.568451,0.491056
0.003652,0.713810,0.557224,0.334974,0.891625,0.304626
-0.581777,0.453664,0.296827,-0.553575,-0.028237,0.832321
-0.040292,-0.383532,0.727233,-0.682802,0.637723,0.356498
0.320790,0.206165,0.688785,-0.007901,-0.438813,0.898544
-0.392669,0.105574,0.648814,-0.558239,-0.608406,-0.564102
0.136879,-0.089725,-0.915116,0.300479,0.941936,0.149894
-0.263371,-0.167842,0.490669,-0.328130,-0.262376,0.907463
0.163275,-0.584476,0.526284,-0.135479,0.900827,0.412501
-0.255509,0.309216,0.075626,0.930862,-0.328261,-0.160442
0.120174,0.123011,0.887836,-0.762698,0.391604,-0.514721
-0.146986,-0.034579,0.676040,0.955020,0.294123,0.037783
0.245402,-0.234413,0.718041,-0.622595,-0.304376,0.720924
-0.283306,0.331204,0.321969,0.767481,-0.640243,-0.032574
0.078337,0.058771,0.926819,-0.626190,0.596211,0.502413
0.217464,-0.014187,0.976514,0.937570,0.237148,-0.254406
0.183772,-0.044399,0.826571,0.376794,0.852166,0.363097
-0.276147,-0.073757,0.647719,0.435739,0.423987,-0.793956
0.481818,-0.272984,0.629898,0.986864,-0.152455,-0.053446
0.635408,0.085302,0.514822,0.406785,0.352100,-0.842942
0.526465,-0.100655,0.871298,0.931752,-0.335685,-0.138396
0.494174,0.630289,0.418315,-0.085471,-0.421810,0.902647
-0.441245,0.120799,0.277349,-0.302572,0.814781,0.494552
-0.354907,0.189583,0.593427,0.918612,0.337015,0.206333
-0.297766,0.231220,0.578572,0.683715,0.132386,0.717641
-0.013760,-0.202237,0.146002,-0.257488,0.863026,0.434610
-0.092939,0.029174,0.688544,0.423610,0.891598,0.160022
0.735084,-0.016887,0.775058,0.967136,0.232974,-0.101839
-0.256353,-0.052016,0.618489,0.951705,-0.162042,-0.260767
0.461180,0.285392,0.687102,0.836734,-0.502491,0.217668
0.398149,0.416690,0.611409,-0.329088,0.389795,-0.860094
-0.038048,0.455876,0.606332,-0.659008,-0.339217,-0.671297
0.623896,-0.053493,0.685231,-0.595264,-0.799292,-0.082417
-0.437034,0.484738,0.407334,0.218016,0.268113,-0.938395
0.268143,0.286988,0.633585,-0.246989,0.003947,-0.969010
0.050262,-0.106795,0.838274,0.276730,0.431827,-0.858455
0.228136,0.297918,0.768165,0.923843,-0.236992,-0.300582
0.041556,0.335747,0.558186,-0.717727,0.518916,0.464322
0.230381,-0.159490,0.892833,0.302174,0.839623,0.451359
0.032147,-0.083953,0.528555,0.963614,0.259022,0.065994
-0.171557,-0.191674,0.621374,0.429915,-0.368612,-0.824196
-0.163695,0.580420,0.317854,0.698045,-0.373082,-0.611181
-0.069212,-0.299020,0.680743,0.475165,0.865660,-0.157641
0.376525,0.408339,0.673743,-0.029508,-0.074660,0.996772
0.204268,-0.322973,0.557785,0.504886,0.749731,-0.427778
0.599047,0.517409,0.714114,0.783755,0.591941,-0.187974
0.557488,-0.145486,0.866595,0.538379,0.842677,-0.006622
-0.263791,-0.263898,0.731695,0.755602,-0.257052,-0.602486
0.817772,0.420379,0.575232,-0.532351,0.753737,0.385335
0.695214,0.266845,0.635562,0.751643,0.512997,-0.414568
-0.009685,0.638393,0.567136,0.465883,0.550374,0.692850
-0.348870,-0.084567,0.653917,-0.236758,-0.424404,0.873972
-0.605783,0.233799,0.118028,0.452808,0.845250,-0.283754
0.618279,0.487197,-0.473088,0.732104,-0.017228,0.680975
0.166223,0.441624,0.594576,-0.079448,0.420122,0.903983
-0.208758,-0.121782,0.633799,0.530741,-0.717539,0.451056
0.213535,-0.068719,0.926151,0.791327,0.608125,-0.063128
-0.269549,0.410430,-0.982099,0.145054,-0.091345,-0.985198
-0.189950,-0.091689,0.651326,-0.427346,-0.385563,0.817751
0.220694,0.039610,0.966094,-0.645260,0.735110,0.207974
0.317842,0.148193,0.855133,-0.835989,-0.093683,0.540690
-0.153306,0.019593,0.870122,-0.664213,-0.591385,-0.457258
0.103187,-0.017381,0.769929,0.152209,0.340124,0.927981
0.041697,-0.014435,0.922410,0.256285,-0.739089,0.622949
0.031166,0.173247,0.509772,-0.149691,0.768014,-0.622693
0.541345,0.014675,0.575339,0.963769,0.050626,0.261890
-0.202161,0.136768,0.609191,-0.587235,0.790482,0.174050
0.376525,0.265000,-0.427293,0.671523,-0.363384,0.645762
0.337357,0.394582,-0.967698,0.213342,0.033224,-0.976413
0.567600,0.121534,0.609859,-0.751389,0.217306,-0.623051
0.389725,0.226062,0.622951,0.802247,0.560653,-0.205104
0.172259,-0.132344,-0.291297,0.305838,0.938362,-0.161057
-0.359259,0.468156,0.420640,0.659096,-0.128269,-0.741039
0.130003,0.312905,0.594015,0.298725,-0.917862,0.261328
0.209743,0.071178,0.857377,0.353449,0.930922,0.091968
-0.008562,0.395812,0.608951,0.232230,-0.525090,-0.818749
0.400393,0.030771,0.833678,-0.191860,-0.979548,-0.060621
0.373436,-0.232449,0.642375,0.754077,0.644030,0.128812
0.434369,-0.401337,0.714221,-0.127481,0.980713,0.148157
0.497263,0.298781,0.585412,0.367796,0.868436,0.332484
0.285555,0.350613,0.756249,0.964961,-0.215770,0.149312
-0.211144,0.301360,0.596340,-0.365088,0.529239,0.765909
0.252420,0.066140,0.877122,0.219118,0.856002,0.468239
0.657169,-0.359700,0.717721,-0.403607,0.577303,-0.709805
0.276849,0.571086,-0.419438,0.552820,-0.668300,0.497760
0.450932,0.173862,0.874638,-0.878204,-0.110212,0.465415
0.577565,0.298286,0.626237,-0.612967,-0.016734,0.789931
0.286117,-0.048455,0.983381,0.519170,0.832804,-0.192094
0.021621,0.588899,0.598691,0.835121,0.388121,0.389787
0.149797,-0.030890,0.791918,0.449905,0.882072,0.139765
0.208621,-0.542464,0.460504,-0.294162,-0.912683,0.283687
-0.468061,0.020080,0.385612,-0.513693,-0.416868,0.749894
-0.349710,-0.152121,0.706045,-0.096421,-0.995162,0.018874
0.055172,0.314007,0.630085,0.208092,0.643220,0.736862
-0.018391,0.222996,0.628508,0.672900,0.733881,-0.092868
-0.056719,0.451573,0.479821,0.832515,0.065693,-0.550093
-0.527447,0.018731,0.657872,0.946138,0.219451,-0.238042
0.561421,0.085430,0.624768,0.825982,0.259499,0.500413
-0.001545,-0.230980,0.793547,0.995611,-0.045883,0.081574
0.461605,0.356753,0.692953,-0.637609,0.537828,0.551539
0.167345,0.440762,0.622924,-0.380897,0.911075,-0.157669
0.394074,0.652644,-0.964545,-0.083555,-0.089549,0.992471
-0.417099,-0.229256,0.773322,0.078597,-0.996554,-0.026506
-0.363613,0.311923,0.507234,0.150265,-0.362849,0.919653
-0.540082,0.321009,0.620012,0.178194,0.981928,-0.063745
-0.123400,0.090093,0.476935,-0.027364,-0.012844,-0.999543
0.465255,0.158141,0.689319,-0.725040,0.107654,-0.680241
0.360241,0.507214,0.654692,0.995579,0.053167,-0.077435
0.258456,0.413624,0.813025,-0.687423,-0.692597,0.218539
0.078898,-0.204689,-0.858714,0.988666,-0.023512,0.148280
0.037345,-0.514831,0.590542,0.861421,-0.249417,-0.442431
-0.416820,0.272984,0.503867,-0.265129,0.002385,-0.964210
0.391268,-0.117358,0.916158,0.839635,-0.133848,0.526401
0.355609,0.504635,0.382459,0.031176,-0.534271,0.844738
-0.042259,0.423572,0.484844,0.483380,-0.356637,-0.799471
0.035798,0.301600,0.568178,0.915108,0.235136,-0.327549
-0.225746,-0.047721,0.499005,0.364765,0.018870,-0.930908
0.155974,-0.150524,0.695972,-0.727836,-0.261539,0.633918
0.523796,0.340171,0.653757,0.147050,-0.274134,0.950382
0.160606,0.274828,0.889306,0.721347,0.534819,0.440030
-0.289484,0.286494,0.502531,0.544448,0.435758,0.716722
0.659975,-0.021062,0.527540,0.772211,0.328785,-0.543682
0.007303,0.553769,0.527967,0.738340,0.326704,-0.590016
0.136040,0.123626,0.395391,-0.103376,0.818617,0.564960
0.153588,-0.093039,0.970770,0.963368,-0.041293,0.264985
0.531941,0.365967,-0.957010,-0.269800,0.199063,0.942115
-0.585145,0.127554,0.343264,-0.887100,-0.087883,-0.453134
0.236838,0.430327,0.669574,-0.261633,-0.224949,0.938587
-0.513968,0.109869,0.545120,0.494146,-0.426431,0.757613
-0.054469,-0.110484,0.085378,-0.590597,0.620460,-0.515970
-0.010387,-0.256768,0.593561,-0.381743,0.609276,-0.695022
0.410500,0.077446,0.610874,-0.615393,-0.532545,-0.581109
0.174226,-0.099794,-0.934166,-0.201183,-0.884561,-0.420805
0.005615,0.509306,0.407174,0.925374,-0.332679,0.181680
-0.093920,-0.332681,0.817647,0.490409,0.868238,0.075249
0.606065,-0.172384,0.634547,0.396885,0.832976,0.385530
0.006317,0.128784,0.761245,0.920564,-0.205285,0.332296
0.137303,-0.247188,0.834293,0.261641,0.600623,-0.755511
0.032010,0.637905,0.564197,-0.000932,0.521173,0.853451
0.301699,0.424060,0.375139,0.528019,0.285414,-0.799834
0.833077,0.421113,0.428415,-0.551859,0.366324,0.749172
0.428474,0.392738,0.779039,0.212660,-0.881000,0.422627
0.099956,0.412267,-0.973148,-0.133034,0.028894,0.990690
-0.084794,-0.010379,0.837659,0.576017,0.561863,0.593729
0.225887,0.055705,0.819918,0.811997,0.041262,-0.582201
0.595534,0.355644,0.653570,0.202506,-0.712505,0.671810
0.343814,-0.313272,0.504081,0.886801,0.271956,0.373663
0.007020,-0.114540,0.090482,0.170182,-0.884578,0.434236
0.574900,0.066755,0.759909,-0.571581,0.818661,-0.055582
0.018952,-0.489034,0.533685,0.806299,0.344698,-0.480692
-0.188686,-0.024383,0.560751,0.863379,0.504334,-0.014936
0.155413,-0.091937,-0.836324,0.910775,-0.412594,0.015978
-0.097150,0.537554,-0.983702,-0.304897,0.162416,0.938434
0.023588,0.641099,0.339764,-0.260705,0.908527,-0.326515
-0.615049,0.296689,0.249990,0.393759,0.344520,-0.852209
0.258598,0.196337,0.743905,-0.567552,0.738863,0.363271
0.110907,0.430574,0.628883,-0.595134,0.800343,0.072562
-0.497825,0.121909,0.533498,0.885560,0.406518,-0.224783
0.666856,-0.033469,0.506913,-0.249281,-0.415146,0.874936
0.427347,0.442974,0.630699,-0.584554,-0.783734,-0.209900
-0.104871,0.042069,0.836617,0.457588,-0.461145,0.760236
0.564648,-0.175211,0.879928,-0.490004,-0.480728,0.727184
-0.102065,0.068479,0.747245,-0.100078,0.844856,-0.525550
-0.243577,0.170421,0.605450,-0.166770,0.953106,0.252540
-0.294399,0.313272,-0.986587,-0.278916,0.096469,0.955458
0.115821,0.314254,0.853423,-0.684082,-0.539124,0.491301
-0.123542,0.276426,0.453316,0.496934,0.847312,-0.187398
0.396743,-0.195108,0.767657,0.017246,-0.999360,-0.031344
-0.092095,0.355276,-0.969408,0.201896,-0.079137,-0.976205
-0.003790,-0.288705,0.702919,-0.571167,-0.813551,0.109105
-0.066264,0.045382,0.858954,0.142195,0.977150,-0.157983
0.576863,-0.234173,0.870416,-0.176868,-0.942023,0.285149
-0.114417,0.033470,0.858420,-0.234304,0.520736,0.820936
0.539802,0.316346,-0.958346,0.284794,-0.110604,-0.952186
0.027238,0.408833,0.519631,0.970529,-0.198282,0.136956
-0.035096,0.538415,0.469267,-0.523787,0.740153,0.421688
0.120877,0.055705,0.716198,0.819284,-0.005115,0.573365
0.232626,0.225207,0.667303,-0.711100,0.536021,0.454992
0.178999,0.193144,0.763516,-0.041867,0.966756,0.252251
0.118066,-0.097957,0.118269,0.041867,-0.981151,0.188653
0.469466,-0.598967,0.393414,-0.006774,-0.963089,0.269099
0.247930,-0.291284,0.579854,0.808968,0.486782,-0.329568
0.091533,-0.183937,-0.909505,0.944472,-0.056872,-0.323632
-0.473815,-0.031625,0.673235,0.816747,-0.054546,0.574412
-0.459218,-0.278877,0.432182,0.901705,-0.347284,0.257532
0.483643,-0.066882,0.716652,-0.072429,-0.195535,0.978019
0.479714,0.285024,0.397448,0.822638,-0.349107,-0.448765
0.014038,-0.477736,0.767390,-0.360116,0.813407,0.456821
0.077215,-0.097589,0.766295,0.495382,-0.815793,-0.298459
0.146566,-0.493209,0.497375,-0.081467,-0.975729,-0.203266
0.005756,0.319659,0.530452,0.283673,0.945992,-0.156936
0.282886,-0.216848,0.364879,-0.443607,0.865160,0.233903
0.238804,0.250261,-0.969274,-0.084088,0.180310,0.980009
-0.539238,0.352825,0.497428,0.934871,-0.293571,0.199581
0.171557,0.262669,0.846610,0.122657,-0.292448,0.948382
0.732274,0.154085,0.727366,0.954057,-0.134326,-0.267829
0.098975,0.096360,-0.559442,0.964424,0.255833,-0.066596
0.682438,0.024383,0.757878,0.109634,-0.314697,0.942839
-0.263654,0.331204,-0.983061,0.319227,-0.052931,-0.946199
-0.426507,-0.058404,0.441400,0.937435,0.275731,0.212576
0.570264,-0.039242,0.740271,0.278429,0.109641,0.954178
0.311386,-0.191179,0.708743,0.155363,0.660079,0.734954
-0.228132,-0.158756,0.484817,0.728966,0.300358,-0.615137
0.375124,0.278262,0.349783,-0.511200,-0.335158,0.791419
-0.405728,-0.242030,0.184877,-0.584009,0.791872,-0.178527
-0.390004,0.011729,0.521234,0.044053,-0.979385,0.197138
-0.420890,0.461281,0.413853,0.395099,-0.023040,-0.918350
-0.279095,-0.092056,0.621535,0.495264,0.799197,0.340584
0.240068,0.376403,0.862000,0.843913,0.535200,-0.037047
-0.550047,-0.063074,0.351653,0.765235,0.593988,0.248181
0.673453,-0.127314,0.668586,0.836404,0.533009,-0.127786
-0.743366,0.038994,0.435896,-0.656312,-0.675148,-0.336793
-0.379195,-0.265735,0.763944,-0.041860,-0.991979,0.119269
-0.165379,0.480930,0.635722,0.352502,-0.746206,0.564729
0.386774,0.045509,0.734767,0.948501,0.162259,-0.272063
-0.233890,-0.252840,0.458313,0.990731,-0.052961,-0.125087
0.440405,0.163052,0.872473,0.617453,0.693915,-0.370450
-0.433383,0.022172,0.386494,0.579662,0.509358,-0.636039
0.356453,0.207395,0.614428,0.139328,-0.222352,0.964960
0.312928,0.473441,0.836350,0.726961,-0.287285,0.623694
0.291450,-0.395197,0.656162,-0.619590,0.255039,0.742336
0.040712,-0.071178,0.140338,0.322094,-0.936610,-0.137903
0.174929,0.208624,0.639757,-0.145957,0.170377,0.974509
0.135336,0.114412,0.932216,0.900007,0.238318,0.364954
0.389443,-0.105693,0.858045,-0.529753,0.518320,-0.671346
0.247368,0.392738,0.789673,0.670559,-0.161240,-0.724121
0.532781,-0.239204,0.821334,0.863604,0.109334,0.492173
-0.250595,-0.107538,0.522490,-0.613345,0.401262,-0.680292
0.138987,-0.022172,0.851206,0.598022,0.698814,0.392464
-0.140530,-0.186389,0.666849,0.643929,0.765009,-0.010823
-0.428611,0.018731,0.313339,0.617349,0.742191,0.260833
-0.422715,-0.082356,0.424674,0.960189,-0.048846,-0.275048
0.394636,0.314989,0.680476,0.124571,0.985504,0.115166
0.167204,-0.291164,-0.945014,-0.059247,-0.630162,0.774200
-0.019093,-0.009645,0.529918,-0.500691,-0.855270,0.133501
-0.083813,-0.154580,0.815884,-0.102319,-0.640152,0.761404
0.835604,0.346678,0.208683,0.918351,0.381505,0.105286
0.236135,0.118340,0.402552,-0.640640,0.274703,0.717020
0.123542,-0.149542,0.943811,0.127692,-0.982067,0.138705
-0.205532,0.175826,0.786814,0.968764,0.244436,-0.041805
0.928961,0.409936,0.592439,-0.415923,0.289679,0.862029
0.113855,0.177423,0.904215,0.111242,-0.624298,0.773225
0.644393,0.112568,0.717748,-0.862275,0.233395,0.449455
0.382283,0.108520,0.862240,-0.500884,0.374544,0.780277
-0.050399,0.592827,0.518375,0.466162,0.225443,-0.855493
0.011651,0.108273,0.718870,0.372800,0.700707,0.608301
-0.194860,-0.244361,0.506112,0.915527,0.039424,-0.400319
0.593289,-0.084814,0.719591,0.748779,-0.563339,-0.349256
-0.276006,-0.204321,0.467798,0.873633,0.347697,0.340401
-0.436614,0.110851,0.592973,-0.732918,0.551635,-0.398158
0.165520,0.298286,0.861198,0.695558,0.701157,0.156775
-0.387759,0.123626,0.619558,0.985628,0.108626,0.129372
-0.362066,0.212185,0.621000,0.876875,0.471120,0.095583
0.769762,0.403061,0.522463,-0.229127,0.955406,-0.186281
-0.169171,-0.213287,0.698056,0.921514,-0.134086,-0.364462
-0.121156,-0.132224,0.733164,-0.534604,0.635637,0.556924
0.621647,-0.217710,-0.937399,-0.277763,0.085707,0.956819
-0.044646,-0.271507,0.442095,0.811901,0.536801,-0.229479
-0.433666,0.029294,0.660090,-0.480048,0.105539,-0.870871
-0.171274,0.504148,0.434213,0.038744,0.999235,-0.005253
0.357712,0.144384,0.648520,0.279321,0.495272,0.822609
0.324303,0.443469,0.667571,0.407216,0.120382,-0.905364
-0.285834,-0.399620,0.672834,-0.302232,0.838149,-0.454050
-0.126914,-0.133087,0.788257,0.985224,-0.159502,0.062384
0.406992,-0.283667,0.713686,0.385508,0.318823,0.865873
0.119052,-0.259475,-0.928288,-0.347269,-0.781804,0.517868
0.048296,-0.454766,0.597221,0.255306,0.523977,0.812568
0.373719,0.629794,-0.965186,-0.051250,-0.223704,0.973309
-0.240630,-0.037030,0.706927,0.244437,0.806006,0.539078
0.500631,-0.214644,-0.945014,-0.114760,0.109146,0.987379
-0.051522,-0.624021,0.618863,0.063736,0.784594,-0.616725
0.033973,0.539765,0.663403,-0.106892,0.586859,0.802603
0.217747,0.472826,0.643631,-0.360689,0.924865,0.120530
0.574198,-0.352697,0.710026,0.287213,0.947983,0.137247
0.335532,-0.433026,0.562220,0.442753,0.880578,0.168975
0.355468,0.400107,0.640772,0.932733,0.334179,0.135401
0.485049,0.503406,-0.962888,0.313440,-0.093919,-0.944952
0.341149,0.272984,0.615256,0.818901,0.370620,-0.438226
-0.135337,-0.286741,0.703320,-0.339193,-0.865402,-0.368819
0.252000,-0.228521,0.831380,0.084160,0.776890,0.623987
-0.016848,-0.161207,-0.480916,-0.296480,0.954539,-0.030888
0.544151,0.323588,0.702572,-0.601766,0.666561,0.439970
0.209323,-0.162804,-0.756783,0.987374,-0.075028,-0.139512
-0.171557,-0.179514,0.734874,-0.520489,-0.100036,-0.847988
0.367262,-0.212800,0.855267,0.888015,0.459812,0.001611
0.528989,0.094268,0.619852,0.600812,0.257127,0.756908
-0.380596,0.033222,0.633371,-0.572949,-0.784190,-0.238274
-0.031308,-0.639622,0.366829,0.354723,0.841037,0.408445
0.301557,-0.282933,0.858687,-0.523915,0.791535,0.314619
-0.199915,0.209479,0.611649,-0.251417,0.151893,0.955886
0.727642,0.278389,0.645555,0.217305,-0.957586,-0.189228
0.198792,0.047841,0.882199,-0.549232,-0.829306,0.102934
0.185455,0.066268,0.975686,0.121306,0.921425,0.369134
0.103046,-0.082971,0.746710,0.810187,0.159132,0.564157
0.329916,0.647239,-0.967457,-0.096633,-0.196128,0.975805
-0.111190,-0.295459,0.613546,0.495270,-0.778145,0.386262
0.648604,-0.060735,0.665406,0.995193,-0.097103,0.012750
0.283448,0.052999,0.851660,0.507296,-0.846135,-0.163419
0.551174,-0.045262,0.675158,0.736511,0.608930,0.294543
0.016287,-0.584348,0.530719,0.499412,-0.779597,-0.377911
0.356029,0.169933,0.920032,0.416303,0.889827,0.186814
0.125791,0.118836,0.890856,0.145723,-0.600453,0.786270
0.187280,-0.021804,0.661719,-0.677085,0.625731,-0.387320
-0.439279,0.021805,0.676468,-0.363323,0.290429,-0.885238
0.904814,0.496036,0.569060,-0.615632,0.154817,0.772677
0.237682,0.021677,0.915303,0.551699,-0.579183,0.600146
-0.198934,-0.146101,0.125670,0.310714,0.939748,0.142586
-0.085638,0.377632,0.623298,0.621184,0.354978,-0.698657
0.035939,-0.211323,0.629604,0.732854,0.311663,0.604807
-0.036222,0.066268,0.206199,-0.083297,0.983595,0.160007
-0.097429,-0.290669,0.678418,0.127920,-0.953031,0.274533
0.469607,0.316586,0.700327,0.982445,-0.141862,-0.121149
-0.226868,-0.090587,0.620600,0.630570,0.732032,0.257896
-0.584446,0.000431,0.377383,0.544306,0.391434,-0.741964
0.752213,0.224465,0.547445,0.999057,-0.037302,-0.022213
-0.017410,0.115642,0.604595,0.810762,0.533263,0.241445
0.488279,-0.207515,0.700541,0.936000,0.094183,-0.339165
0.004775,-0.020448,0.528502,0.742954,0.663817,-0.085829
-0.463850,0.194126,0.558346,0.708310,0.309988,-0.634196
0.169873,-0.078915,0.922570,-0.126240,-0.207564,0.970041
-0.115402,-0.291411,0.693354,-0.053287,-0.967399,0.247586
0.175768,-0.260209,-0.924734,-0.145276,-0.729950,0.667883
0.433807,0.398758,0.788711,0.100415,-0.927583,0.359870
0.556786,0.050915,0.523345,0.301814,-0.561722,0.770310
0.243718,-0.019840,0.983675,-0.444619,-0.184510,0.876510
0.431280,-0.523309,0.598397,0.967319,0.098233,0.233762
-0.129018,-0.502791,0.393975,0.924727,-0.252332,0.284972
0.138846,0.380211,0.466863,0.956381,0.252302,-0.147238
-0.075390,0.582137,0.535689,-0.254896,-0.804179,0.536958
0.654080,-0.052016,0.723839,0.585720,0.557188,-0.588620
0.169732,0.197447,0.793734,-0.500023,-0.815031,0.292750
0.128319,0.098692,0.875813,-0.209169,-0.948092,0.239521
-0.097292,0.398023,0.614508,0.937877,-0.025353,-0.346040
0.382844,0.051282,-0.941567,-0.013065,0.270436,0.962649
-0.043099,0.442487,0.601843,-0.678345,0.366448,-0.636839
0.205112,0.433768,0.615336,-0.107845,0.994155,0.005009
-0.187559,-0.438311,0.761298,-0.761286,-0.198269,-0.617360
0.039028,-0.081126,0.803193,0.348773,0.331609,0.876580
0.640742,0.089605,0.251673,-0.770832,-0.206669,-0.602583
0.129861,-0.106555,0.163716,0.268880,-0.945987,-0.181143
0.282325,0.367436,-0.176221,0.933628,-0.278089,-0.225845
0.512001,0.198429,0.444152,-0.209460,0.742884,0.635807
0.638073,0.036543,0.444526,0.353631,0.771589,0.528767
0.797135,0.200640,0.519551,0.571682,0.583949,0.576353
-0.210583,-0.047226,0.504990,0.764551,0.143591,-0.628366
0.463571,0.610392,0.386654,-0.031320,-0.635178,0.771730
-0.040571,-0.209479,0.728595,0.828679,-0.426828,-0.362089
0.069636,-0.081126,0.140792,0.336283,-0.892536,-0.300488
-0.035237,0.365720,0.446503,0.317007,-0.896093,-0.310683
0.272779,0.518759,0.667998,0.775602,0.223304,-0.590404
0.069915,-0.148065,0.827560,-0.597380,0.572582,-0.561504
-0.110766,0.069334,0.860771,0.052641,0.849984,0.524172
0.070334,-0.149542,0.622630,-0.269719,-0.322097,0.907472
0.469886,-0.334278,0.710373,-0.069450,-0.711409,-0.699338
0.616034,0.478471,0.405758,-0.222452,-0.184566,0.957314
0.015443,0.570719,0.495772,-0.120465,-0.963216,0.240214
0.101220,-0.130995,-0.230486,0.396861,-0.884974,0.243561
0.283306,0.373951,0.794616,0.534007,0.183383,-0.825353
0.200759,-0.116009,0.795311,-0.081451,-0.457831,-0.885300
0.145165,-0.353560,0.806693,0.080371,-0.918603,0.386922
0.266601,0.497146,0.827934,-0.497831,0.816702,0.291825
0.889232,0.149175,0.533819,0.240957,-0.950969,-0.193903
0.288644,0.558192,0.672086,-0.379399,0.292043,-0.877933
-0.086478,0.449121,0.609993,0.883560,-0.239502,0.402444
-0.247789,-0.433153,0.666368,0.069482,0.915080,-0.397241
-0.802611,0.276793,0.239543,0.799438,-0.093523,-0.593424
0.511440,0.440522,0.059275,-0.860748,0.080506,-0.502624
-0.408676,0.237120,0.600053,0.713834,0.164982,0.680604
0.157799,-0.109749,-0.022991,0.598929,0.676847,-0.427976
-0.226029,0.222381,0.588297,0.981331,-0.191904,-0.012715
0.642568,0.279005,0.635508,-0.429157,-0.173106,0.886487
0.045207,-0.282812,0.411235,0.010041,0.974787,0.222910
-0.520288,0.325185,0.473008,0.821834,-0.569690,0.006533
0.099536,-0.154827,0.823605,0.100493,-0.973194,0.206871
0.069773,0.365592,0.587282,0.777052,0.551227,0.303874
0.876315,0.177303,0.524494,0.613680,0.763991,0.199285
-0.471570,-0.011114,0.505070,0.966364,0.216409,0.138955
-0.255929,-0.287970,0.739790,0.319913,-0.488452,0.811831
0.448126,0.377760,-0.961071,0.150882,-0.171998,-0.973474
0.065844,0.197694,0.909211,-0.377037,0.384445,-0.842642
0.104871,0.157774,0.699659,0.287758,0.669665,0.684649
-0.042957,0.269911,0.609993,-0.363118,0.167219,-0.916615
0.115821,-0.145614,-0.706606,0.345483,0.938354,-0.011545
-0.426927,-0.366454,0.428441,0.902744,0.161742,0.398614
0.103748,0.594177,-0.969087,0.233691,0.103773,-0.966757
0.167906,-0.117853,0.399532,0.047811,-0.364390,0.930018
0.048715,0.141311,0.912524,0.785104,0.157914,0.598894
0.210026,0.386598,0.626692,0.837222,0.371101,0.401675
-0.033134,-0.318182,0.681785,0.161537,0.983841,0.077221
0.054049,0.188968,0.911535,-0.616005,0.786158,-0.049929
0.100380,0.494319,-0.027239,0.426422,-0.802865,0.416620
0.057421,0.479086,0.532990,0.306050,-0.418852,-0.854925
-0.256773,0.094764,0.795177,0.979905,0.122647,0.157302
-0.474239,0.325552,0.621535,0.125632,0.901434,-0.414287
0.600589,-0.036663,0.877069,0.832585,0.389963,0.393358
-0.097292,0.557817,0.362821,-0.669858,0.742482,-0.003086
0.236277,-0.228401,0.627734,-0.598683,0.022005,0.800684
0.318404,-0.110731,0.937239,0.071728,-0.923343,0.377217
0.322478,0.347173,0.736290,0.085439,-0.370558,0.924871
0.074546,0.266845,-0.976247,0.095092,-0.230895,-0.968321
0.168327,0.016272,0.974778,0.352520,0.935573,0.020809
0.312508,0.547502,0.397021,-0.510007,-0.314337,0.800678
-0.039170,-0.326534,0.403861,0.399833,-0.885230,-0.237702
0.374983,0.252226,0.775593,0.184719,0.086556,0.978972
0.029624,0.499972,0.567724,-0.017771,0.026904,0.999480
-0.181947,-0.402933,0.408002,-0.374017,0.362534,0.853628
0.191492,0.177303,0.746149,-0.198408,0.978365,-0.058623
0.008284,0.022419,0.780803,0.844877,0.431143,0.316700
0.173241,0.469505,0.585358,0.566939,0.821315,0.063417
-0.420607,-0.147210,0.428602,0.712107,0.642259,-0.283562
-0.466377,-0.178532,0.662975,-0.254012,0.671620,0.695992
0.614209,0.411653,0.700087,0.030916,-0.970878,0.237572
0.301416,0.518392,-0.973148,-0.010653,0.038816,0.999190
0.605503,0.064671,0.575953,-0.390939,0.911359,0.128805
0.243436,-0.113063,-0.329290,-0.797183,-0.552525,-0.243343
0.131404,0.288585,0.664097,0.929373,-0.132180,0.344665
-0.578829,0.159738,0.469374,0.769497,0.384068,0.510261
0.271657,-0.098811,0.686621,-0.590764,-0.117430,-0.798253
-0.016424,-0.001046,0.646463,0.363619,0.810647,-0.458948
0.014320,-0.281456,0.820773,-0.510597,0.777210,-0.367744
0.500352,0.374191,0.715476,-0.171537,0.984030,-0.047533
0.507512,0.234661,0.658914,0.931543,0.149665,0.331405
0.075531,0.603877,0.568312,-0.564833,0.094831,-0.819738
0.162431,0.608428,0.563610,0.141748,0.925547,-0.351099
-0.209182,0.302829,0.424434,0.502566,0.731502,-0.460796
0.696053,0.447397,0.403006,-0.279832,-0.815024,0.507376
-0.087043,-0.153965,-0.954499,-0.430933,0.201961,0.879493
-0.263512,-0.158508,0.429617,-0.153563,0.669835,0.726457
-0.201599,-0.001533,-0.472313,0.584070,0.489378,-0.647589
-0.223222,0.485841,0.354084,0.815292,-0.502475,0.287781
0.362490,0.894858,-0.970396,-0.112290,0.025431,0.993350
0.100380,-0.130875,-0.741954,-0.082134,0.977637,-0.193598
-0.332161,-0.180001,0.467931,0.984061,-0.177584,-0.009405
-0.068510,0.508691,0.515143,0.959590,-0.206458,-0.191212
0.112733,-0.054723,0.890936,0.929032,-0.003589,0.369983
-0.332863,-0.012224,0.503066,-0.040611,-0.551848,0.832955
-0.065981,-0.461895,0.352802,-0.650769,-0.670728,-0.355842
0.002808,0.312410,0.526017,0.342583,0.934558,-0.096119
0.635687,0.415221,0.520780,-0.735961,0.387982,0.554826
0.163134,0.381073,0.651486,0.503350,0.512989,0.695327
-0.088444,0.516427,0.591343,0.531817,0.248452,0.809594
0.005756,0.153965,0.715370,-0.219915,-0.324646,0.919914
0.527729,0.183810,0.621588,0.607327,0.209590,-0.766307
0.268709,0.015537,0.982072,0.950216,0.083474,-0.300202
0.454445,0.404658,0.537319,-0.477901,-0.084369,-0.874353
0.046470,-0.331204,0.716519,0.034206,-0.995678,-0.086348
0.103470,0.217591,0.441667,0.530635,-0.144735,-0.835152
0.093500,0.451820,0.499673,0.624583,-0.206847,0.753067
0.137440,-0.022906,0.776127,-0.109021,0.446091,0.888322
0.304368,-0.121047,0.925002,0.840195,-0.365838,-0.400294
-0.109785,0.532763,0.487810,0.240790,0.935771,-0.257590
0.354345,-0.170421,0.781711,0.101438,0.987901,-0.117308
-0.130003,-0.602528,0.609966,0.103273,0.973934,0.201960
0.034397,0.387828,0.605103,-0.472445,0.342826,0.811952
0.222519,0.362526,-0.965186,-0.026050,0.126740,0.991594
-0.062473,0.665419,-0.983648,0.156738,-0.048400,-0.986454
0.039311,-0.180369,0.826785,0.152350,-0.883969,0.442028
-0.430719,-0.433767,0.574030,0.041353,0.971655,0.232758
0.582338,0.350854,0.415911,0.521718,-0.521351,-0.675280
0.397026,0.044527,0.634039,0.820140,0.432090,0.375059
0.288503,0.065526,0.674811,-0.321309,0.596969,0.735111
0.485190,-0.368178,0.627012,-0.723561,0.687231,-0.064602
-0.125089,0.139474,0.847465,-0.496615,-0.285984,-0.819504
-0.000984,-0.235275,0.700060,-0.567508,-0.822444,-0.038993
0.465255,0.242525,-0.957464,0.025947,-0.043211,0.998729
-0.195421,-0.314621,0.665353,0.601116,0.760286,0.246219
-0.023022,0.253335,0.299926,0.431313,0.851120,-0.299272
0.201179,-0.121047,-0.921822,-0.583430,-0.437737,-0.684102
0.384811,-0.441752,0.477229,0.540194,-0.739880,0.400959
-0.357854,-0.374805,0.404635,0.670641,0.205376,0.712784
-0.465953,0.450223,0.522089,0.880239,-0.029986,0.473582
0.847116,0.325919,0.237325,0.856078,0.488795,0.167958
0.109785,-0.508938,0.602752,0.181442,0.377471,0.908072
-0.361363,-0.403301,0.678151,0.898823,-0.116809,0.422460
-0.274463,0.061845,0.568472,-0.406679,-0.220413,0.886583
0.642709,-0.197199,0.886474,0.590894,0.589492,-0.550766
-0.371333,-0.189215,0.055534,-0.023445,0.611204,0.791126
-0.064019,0.277040,0.799239,-0.676272,-0.656620,0.333924
0.188403,-0.494566,0.436217,0.994788,-0.101956,-0.001386
0.206796,-0.133326,0.707889,0.831799,-0.507451,0.224951
-0.036081,0.231834,0.831274,-0.140238,-0.798440,0.585514
0.228136,-0.272002,0.699152,0.441063,0.663424,0.604426
-0.058403,0.062827,0.908436,-0.669628,0.715089,0.200613
0.057139,-0.028431,0.754806,-0.641515,-0.435733,0.631344
0.326690,0.297057,0.651994,-0.579271,0.790852,0.197480
0.547523,-0.005094,0.736504,-0.656324,-0.509436,0.556520
-0.113577,0.047226,0.722477,0.875908,0.438088,0.202148
-0.312791,-0.101765,0.496279,0.190633,-0.269576,0.943922
0.592166,-0.212800,0.506913,-0.363601,-0.298316,0.882497
-0.225467,-0.042930,0.498631,-0.259778,-0.244284,0.934259
0.028921,0.427748,0.549983,0.799861,-0.172106,-0.574980
0.429455,0.089478,0.182312,-0.579412,0.792279,-0.191248
0.717955,0.368051,0.530933,0.092604,0.940672,0.326436
0.585149,0.382543,0.525108,0.402383,0.132090,0.905892
-0.372314,0.292633,0.581110,-0.597948,-0.780802,0.181125
0.396602,-0.417432,0.456790,-0.404888,0.914323,0.008868
-0.057139,0.271635,-0.972507,-0.090786,0.042905,0.994946
0.143477,-0.088623,0.883962,0.533861,0.834742,-0.134902
-0.739155,0.178900,0.306820,0.387082,0.889465,0.242941
0.554541,0.644780,0.408563,0.039625,-0.995206,0.089419
0.008845,0.122644,0.423793,0.616969,0.738490,-0.271998
0.320653,-0.246086,0.844793,0.195831,-0.949723,-0.244288
-0.167624,0.413249,-0.413212,0.513274,0.432428,-0.741320
0.843745,0.274581,0.493073,0.990109,-0.118628,-0.074906
-0.564228,0.213535,0.479367,0.961210,-0.189393,-0.200513
0.134917,-0.105446,-0.138708,0.457658,0.791434,0.405192
0.282745,0.186142,0.712217,-0.251045,-0.955576,-0.154436
-0.426927,-0.086164,0.149075,-0.319800,0.630317,0.707410
-0.006737,0.129766,0.487997,0.442930,-0.260337,-0.857926
0.123405,0.377017,0.861546,0.425721,0.854775,-0.296851
-0.479715,0.034819,0.657631,0.875089,0.468817,0.120127
0.091114,-0.201989,0.919711,0.853191,0.500511,-0.146814
-0.047032,0.375421,0.489573,-0.313499,-0.300980,0.900627
0.476206,0.168456,0.690094,0.757409,-0.274767,0.592313
0.280221,0.103849,0.810059,-0.439655,0.628164,-0.641960
0.586550,0.407109,0.410567,0.289081,-0.556251,-0.779113
0.390287,-0.034819,0.903547,0.058897,-0.962964,0.263120
-0.138563,0.151139,0.791063,-0.024006,-0.915703,0.401138
0.084657,-0.249894,0.739202,-0.213195,-0.187275,-0.958893
0.784783,0.167227,0.502692,-0.747238,0.622771,0.231929
0.259159,-0.068966,0.832877,0.280163,0.929055,0.241590
-0.770182,0.288953,0.236978,0.812837,0.014722,-0.582306
0.413731,-0.412514,0.594950,-0.633286,0.728878,0.260164
0.257758,-0.074004,0.890749,0.576681,-0.417012,0.702524
0.266884,0.567893,0.375566,0.711769,0.569549,-0.411095
-0.433666,0.219802,0.502612,-0.071992,0.493841,0.866567
0.171977,-0.182340,0.628108,-0.238459,-0.297038,0.924611
0.288644,0.453417,0.830766,0.905998,0.421707,0.036474
0.328373,-0.087394,0.858259,0.168494,0.950880,-0.259686
0.759934,0.150645,0.572106,-0.519411,-0.582191,-0.625513
0.211149,-0.494072,0.487596,-0.105407,0.887813,-0.447970
-0.195284,-0.078795,-0.974377,0.514615,-0.342691,-0.785961
0.077356,-0.351962,0.563636,-0.690313,0.655683,-0.305856
0.609715,-0.319412,0.705430,-0.325179,0.623848,0.710684
0.051102,0.102253,0.804529,0.862028,0.265131,-0.431987
-0.621506,0.254685,0.264551,0.473844,-0.351619,-0.807364
0.325845,0.018116,0.721515,-0.623560,0.626466,0.467668
0.261267,0.003745,0.993507,0.467665,-0.376384,-0.799765
-0.174505,-0.360561,0.538387,-0.618877,-0.583250,-0.526127
-0.007860,-0.092672,-0.415857,0.797292,0.588412,0.134526
0.034539,0.249279,0.796941,-0.106493,0.840127,0.531832
-0.436472,0.059266,0.672968,0.641968,0.657006,0.395247
0.753195,0.311180,0.540953,0.884274,-0.325394,0.334930
0.010528,-0.223116,0.460584,0.738846,0.418144,-0.528452
0.547664,-0.175706,0.842362,0.157447,0.770794,-0.617322
0.380175,0.040224,0.849469,0.551467,-0.020130,0.833954
-0.061492,0.522200,0.494115,0.990288,-0.110162,-0.084814
0.068231,-0.333783,0.733057,-0.215559,0.927233,0.306224
-0.208338,-0.031258,0.652662,-0.448318,0.023785,0.893558
0.111048,0.334151,0.437472,0.919403,0.392550,-0.024532
-0.680330,0.237240,0.097642,-0.384087,-0.915127,0.122558
0.380038,0.531046,0.684510,0.594242,0.582652,-0.554430
-0.037482,0.635327,0.523692,0.970456,0.111205,-0.214122
-0.203566,-0.923967,0.455641,-0.300052,0.619105,0.725725
-0.333425,0.290182,0.536223,0.722353,0.684674,-0.097096
-0.403058,0.394335,0.406105,-0.530740,-0.798599,0.283822
0.414712,0.091322,0.637753,-0.625465,0.665236,-0.407744
0.190086,0.024256,0.981591,0.513433,0.718153,-0.469726
0.810194,0.643063,0.454251,0.739896,0.044152,-0.671271
0.184050,0.433888,0.793360,-0.012985,-0.889738,0.456287
-0.300435,0.039489,0.604569,0.925192,0.217316,0.311118
0.042820,-0.328993,0.809445,0.055033,-0.970989,0.232705
-0.280920,-0.211818,0.720660,0.825660,0.276831,0.491579
0.845291,0.554016,0.563530,0.391352,0.337456,-0.856135
0.112733,0.343859,0.590328,-0.371508,-0.785302,0.495260
0.806402,0.452435,0.558533,0.234152,-0.902212,-0.362197
0.015302,0.704724,0.560938,0.288523,0.903715,0.316312
0.455988,-0.370630,0.759562,-0.411236,0.899007,-0.150571
-0.368946,-0.024998,0.409792,0.781359,0.166470,-0.601469
0.321493,0.317328,0.685392,-0.557969,0.466080,0.686615
-0.003931,0.558807,0.537399,0.550951,0.676012,-0.489347
0.314616,-0.089478,0.955407,0.269395,0.802841,-0.531858
-0.263654,0.085430,0.619825,-0.362298,0.763214,0.535018
0.306193,-0.401584,0.722877,0.393752,-0.698025,-0.598097
-0.171274,-0.505864,0.603286,-0.687624,-0.643876,0.335553
0.638215,-0.322853,0.636684,-0.621381,0.424361,0.658637
0.274604,0.282445,0.417647,-0.045950,0.812146,-0.581643
0.491505,-0.091817,0.893688,0.738117,0.652914,0.169960
0.304227,0.100536,0.840411,-0.033504,0.456260,0.889216
0.262107,-0.073757,0.903921,-0.419759,0.622008,0.660990
-0.424399,0.004974,0.503066,0.237052,0.928805,-0.284830
-0.134351,-0.268928,0.518963,0.976753,0.173551,-0.125833
-0.277411,-0.031010,0.655120,0.025157,-0.854630,0.518627
-0.343814,0.321376,0.401696,0.452508,0.885863,0.102386
0.098975,0.158389,0.544586,0.207508,0.714691,-0.667950
-0.230381,-0.062459,0.422002,0.785107,0.202124,-0.585451
-0.186578,0.330709,0.353764,-0.163756,0.641725,0.749249
0.029903,0.361544,0.505203,0.958974,-0.114214,0.259469
0.264073,0.045509,0.987148,-0.564702,0.721054,0.401488
0.523796,-0.139474,0.810487,-0.698906,0.346201,0.625839
0.150641,-0.374438,0.455748,0.664095,-0.682175,0.305965
-0.302821,-0.061845,0.698724,-0.715701,0.491757,0.495930
0.206513,0.129518,0.664418,-0.700508,0.249191,0.668725
0.088307,-0.055210,0.907822,0.763790,0.272862,0.584953
0.721186,0.337097,0.434533,-0.258092,0.924269,0.281274
0.114982,-0.015050,0.133097,0.104527,0.267729,0.957807
-0.130281,-0.246573,0.727393,0.250061,0.725058,0.641686
0.275166,-0.201622,0.719938,0.625244,0.434002,-0.648623
-0.230519,0.269423,0.617821,0.413358,-0.776628,-0.475379
0.399412,-0.014675,0.866515,0.046169,0.694491,-0.718019
-0.100381,0.315116,0.283895,0.746080,0.620103,0.242562
0.883336,0.499845,0.575285,-0.484722,0.242168,0.840476
0.002389,-0.392738,0.513192,0.658853,0.705678,0.260636
0.270535,0.362526,0.752856,0.904017,-0.398461,0.154861
0.188686,0.288705,0.858286,0.817365,0.576116,0.002018
0.273760,-0.277280,0.619585,0.489932,0.661006,-0.568364
0.237399,-0.285878,0.702572,-0.112555,0.418912,0.901024
0.133092,0.152241,0.762634,-0.657401,0.720660,0.220166
0.376525,0.187986,0.656830,0.460539,-0.845230,-0.271092
0.519726,0.044895,0.518803,-0.594120,0.534756,-0.600881
-0.223783,-0.110604,0.491123,0.914696,0.119735,-0.385998
0.297205,0.477369,0.837820,0.659772,-0.206507,0.722535
0.247789,-0.086532,0.915971,0.618910,0.178279,0.764962
0.244421,0.016399,0.519765,-0.141689,-0.487772,0.861396
-0.048574,0.024998,0.552762,-0.739704,-0.474581,-0.477085
-0.006176,0.117733,0.482760,0.826028,0.335888,0.452612
-0.287659,0.097462,0.708129,-0.658554,0.467451,0.589743
-0.235155,0.049933,0.635402,0.572526,-0.525338,-0.629472
-0.716974,0.310446,0.247452,-0.386164,0.424304,0.819050
0.739857,0.146468,0.525750,0.293431,0.734902,-0.611406
-0.001823,0.538288,-0.981137,0.189458,-0.112223,-0.975455
0.221958,0.128911,0.624848,0.849071,-0.457921,-0.263416
-0.131687,-0.843145,0.436270,0.198158,0.670068,0.715361
0.408114,0.237487,0.693354,0.571926,-0.380439,-0.726751
-0.133512,-0.456858,0.586961,0.838634,-0.407465,-0.361476
0.201037,-0.087881,-0.524227,-0.506836,0.809568,0.296170
0.224203,-0.282198,0.809872,-0.094832,0.023250,0.995222
0.045909,0.370997,-0.973121,-0.045838,0.005329,0.998935
-0.268007,-0.047226,0.703053,0.244437,0.806006,0.539078
-0.386354,0.212553,0.598530,0.899272,0.272244,0.342334
0.014882,0.352945,0.846129,-0.608404,0.780752,-0.142373
-0.626141,0.125957,0.528021,0.880664,-0.278574,-0.383182
0.054473,0.289072,0.570930,0.946047,0.221183,-0.236796
-0.283306,-0.761962,0.454839,0.008331,-0.224938,0.974337
0.295379,0.048208,0.973656,0.852540,-0.499355,0.154339
0.450932,0.018611,0.840037,0.330764,0.663248,0.671340
-0.350695,-0.463118,0.382914,0.846673,0.277823,0.453827
-0.413731,-0.402933,0.542556,0.152543,0.827443,0.540433
0.801488,0.190812,0.519685,-0.454161,-0.622753,-0.637116
0.237541,0.131857,0.813266,0.739717,0.176295,0.649414
0.374002,-0.349504,-0.936624,0.035458,-0.029637,-0.998932
-0.050961,0.217591,0.571411,-0.495816,0.780900,0.379949
-0.263512,0.002395,0.660143,-0.094846,0.837296,-0.538461
0.261409,-0.410183,0.594870,0.969618,0.234673,-0.069058
-0.387476,0.133087,0.630085,0.648230,0.663541,0.373512
0.303382,-0.299515,0.718710,-0.698178,-0.096015,0.709457
0.235012,0.336362,0.768619,0.038194,0.984931,0.168677
-0.461605,0.315971,0.560430,0.950094,-0.250446,-0.186008
0.668120,-0.126819,0.511402,0.825908,-0.079328,-0.558197
0.541204,-0.177670,0.841721,0.186016,0.758982,-0.623975
-0.333986,0.050915,0.651994,-0.498503,0.672704,0.546776
0.304929,-0.072407,0.178385,0.496050,-0.847532,0.188745
-0.103329,0.060248,0.891176,-0.478372,0.878156,-0.001491
-0.253123,-0.196465,0.738561,0.413375,0.046063,0.909395
0.367400,0.055338,0.756623,0.785667,-0.035747,0.617616
0.172118,-0.035561,0.980228,0.303886,-0.436113,0.847029
0.034958,0.182341,0.922650,-0.365445,0.798218,0.478850
0.161167,0.284409,0.879474,0.972089,0.166227,0.165562
0.186158,0.081741,0.841934,0.598578,-0.263658,0.756432
-0.108101,0.145366,-0.117734,-0.144164,-0.966912,0.210471
-0.292852,0.069701,0.653837,-0.107677,0.814496,0.570090
-0.068792,-0.199163,0.723171,0.351044,0.252140,-0.901772
0.223500,0.631885,0.581244,0.323328,0.870909,0.370105
0.673873,0.429465,0.389059,-0.028703,0.882226,0.469950
0.017268,-0.030890,0.804796,-0.671701,-0.407142,-0.618913
0.564648,-0.015904,0.740137,0.053214,-0.007883,0.998552
0.010387,0.112448,0.795070,0.824740,0.242806,-0.510734
0.266601,-0.070931,0.954579,0.011141,-0.771963,0.635570
0.779308,0.265000,0.651727,-0.366114,0.926173,0.090350
0.501753,-0.366207,0.751145,-0.482181,0.864742,0.140438
-0.289201,0.136520,-0.095131,0.722428,0.505894,-0.471348
-0.109502,-0.682121,0.592840,-0.198343,-0.979456,0.036419
-0.073706,-0.417432,0.602111,0.925490,-0.046041,-0.375963
-0.180824,-0.353807,0.522891,0.410449,0.774068,0.482028
-0.145726,-0.386478,0.757344,0.763058,-0.645586,0.031005
0.441669,-0.211203,-0.939162,-0.138274,0.048987,-0.989182
0.773549,0.354662,0.643150,0.598137,0.789597,-0.136999
0.430997,0.563717,0.658005,0.099822,0.851237,0.515201
0.392532,-0.399372,0.738614,0.178167,-0.941578,-0.285811
0.375827,-0.142053,0.698457,-0.373166,0.920210,0.118153
0.316442,0.499845,-0.199305,0.850500,-0.479990,-0.215082
0.612521,-0.130875,0.731641,0.968852,0.094401,-0.228939
-0.472551,0.357001,0.621775,0.084939,0.992938,-0.082818
0.484346,0.185654,0.860771,0.482029,0.771618,-0.415034
-0.361646,0.130508,0.622978,0.867215,0.293909,0.401940
0.293837,0.571334,0.694128,0.814062,0.153696,-0.560072
0.163836,-0.161822,0.903520,0.354714,-0.072810,-0.932136
0.690158,0.307867,-0.016125,0.986631,0.094316,0.132902
0.684966,0.430814,0.402178,0.037896,0.806923,0.589440
-0.301840,0.508938,0.636043,0.380720,0.094017,-0.919899
-0.507088,-0.009884,0.685632,0.774348,0.459740,0.434770
0.552437,0.025733,0.682987,0.779092,0.596157,0.193939
0.282047,0.640357,0.694850,0.917776,-0.003589,-0.397083
0.482662,0.639502,0.406880,0.010296,0.843403,-0.537183
-0.388038,0.170788,0.581751,-0.733804,-0.591283,0.334538
-0.007860,0.340290,-0.973389,-0.043560,0.053879,0.997597
0.407411,0.638640,-0.440278,-0.570137,-0.790199,-0.224788
0.277269,-0.029661,-0.640238,0.885838,-0.441824,0.141713
0.137723,0.438678,0.628856,0.902375,-0.407952,-0.138906
0.358698,-0.152121,0.749943,0.904698,-0.417673,0.084089
0.161591,0.300745,0.851713,0.605634,0.485009,-0.630852
-0.000140,0.091937,0.812117,-0.504074,0.515830,0.692697
-0.155692,-0.235523,0.708129,0.669731,0.442151,-0.596626
-0.109082,-0.031258,0.562888,0.902224,0.427160,0.059377
-0.105852,0.596268,-0.982473,0.250534,-0.064375,-0.965965
0.474942,-0.392250,0.752642,-0.437255,0.898342,0.042297
-0.517901,0.071058,0.669147,-0.236905,-0.963310,-0.126133
-0.133791,0.190932,0.807895,0.189175,0.886017,-0.423304
0.268987,0.188481,0.735675,0.278622,-0.936980,0.210805
0.210163,0.317815,-0.962862,-0.079244,0.067645,0.994557
-0.103890,0.212305,0.780536,0.502506,0.568326,-0.651531
0.438439,0.320522,0.688518,0.866684,-0.458401,-0.196795
0.659833,0.087514,0.532376,-0.570201,0.087800,0.816800
0.621510,-0.338206,0.638635,0.797014,-0.599158,-0.076016
0.337641,0.263403,0.649669,0.624135,0.775306,0.096729
0.239087,0.048336,0.818663,0.843291,0.505681,-0.182062
-0.366697,-0.259842,0.392692,0.896149,0.393026,-0.206025
0.255792,0.365352,-0.360924,0.985747,-0.118177,-0.119737
0.260985,0.093414,0.674838,-0.739546,0.663339,-0.114252
0.086341,0.245839,0.490775,0.714281,0.048028,-0.698209
0.133370,0.159491,0.820052,0.845330,0.196519,0.496786
0.502177,-0.238349,0.808002,0.966110,0.204159,-0.157956
0.181385,-0.154452,-0.024674,0.839068,-0.535064,-0.098343
0.234734,-0.002762,0.862641,0.363839,0.926166,-0.099185
-0.247506,-0.095010,0.478725,0.970168,0.140184,-0.197793
0.028502,0.331939,0.389700,0.886224,0.460879,0.046876
-0.167624,0.177550,0.799880,-0.237907,-0.883197,0.404183
0.202164,-0.152983,0.917814,-0.314255,-0.694059,0.647708
0.507092,0.456731,0.396941,-0.669947,-0.033794,0.741639
0.229400,0.090955,0.904696,0.573432,0.242656,-0.782492
0.635545,-0.280474,-0.938575,0.238228,-0.136975,-0.961501
0.063175,-0.117238,-0.745455,0.444843,0.882996,-0.149780
-0.271233,-0.055330,0.497856,-0.095432,-0.298717,0.949558
0.068933,0.090340,0.775619,-0.693523,-0.533157,0.484530
-0.143619,-0.193143,0.651272,-0.428923,0.391134,-0.814272
0.515793,0.227044,0.644807,-0.505605,-0.647006,-0.570742
0.160606,-0.248912,0.757772,0.211034,0.933586,-0.289624
0.003931,0.521218,0.593000,0.613407,-0.547472,0.569216
0.103607,-0.114165,-0.531387,0.437098,0.839161,0.323658
-0.033832,0.143403,0.816124,-0.683210,-0.693752,0.227888
-0.138002,0.476387,0.461091,0.225171,0.033041,-0.973759
0.208201,-0.202971,0.929784,0.034387,-0.967703,0.249738
-0.104451,0.276793,0.623672,0.635976,0.610519,0.472018
0.173523,0.228273,0.562327,-0.292436,-0.908316,0.299070
-0.004775,0.205798,0.725282,0.887537,0.453673,-0.080373
0.231504,0.412642,0.662494,-0.261129,0.897772,0.354706
0.777200,0.139962,0.525963,0.287789,-0.054772,0.956126
0.048998,-0.160967,0.755073,0.918485,-0.378036,-0.116075
-0.070056,0.041573,0.209805,-0.083297,0.983595,0.160007
