0.138363,0.095547,-0.478348,-0.632367,0.645721,0.427968
0.143361,0.193278,-0.943294,-0.240378,0.169018,0.955851
0.173190,0.229721,-0.940886,-0.016048,0.071792,0.997290
-0.368276,-0.620658,0.459600,-0.007966,0.553160,0.833037
-0.327930,-0.575767,0.481958,-0.402182,0.432728,0.806843
-0.310345,-0.550299,0.462192,-0.469572,0.115168,-0.875350
-0.287930,-0.520025,0.449091,-0.489562,-0.201414,-0.848388
-0.240260,-0.457622,0.429603,0.541346,0.354136,0.762583
-0.232846,-0.440543,0.389006,0.890296,0.448145,0.080862
-0.193537,-0.397070,0.412290,-0.744409,0.230714,0.626599
-0.159309,-0.357606,0.423909,0.945740,-0.286053,0.154108
-0.154137,-0.342378,0.378406,-0.461575,-0.548746,-0.697012
-0.050693,-0.234162,0.473718,-0.765339,-0.253969,0.591402
-0.338016,-0.469646,-0.115889,0.688608,0.725016,0.013108
0.011463,-0.137845,0.370768,-0.668625,0.715366,0.202961
0.096807,-0.033821,0.374285,-0.671424,0.075285,0.737240
0.211289,0.105042,0.382572,0.098445,-0.358376,0.928372
0.081032,0.207523,-0.943016,-0.260714,0.272009,0.926304
0.104052,0.239340,-0.959773,-0.429357,0.562679,0.706431
-0.139399,-0.218931,0.319847,-0.534042,0.495661,0.684922
0.170086,0.123849,0.501122,0.031296,-0.930879,0.363984
0.027842,0.242422,-0.969772,0.219102,-0.398567,-0.890584
-0.413279,-0.580208,0.451082,-0.544895,-0.114049,-0.830712
-0.347761,-0.503559,0.468395,0.871426,0.127128,0.473767
-0.318448,-0.468107,0.471635,-0.726963,-0.224973,-0.648777
-0.302500,-0.443565,0.446083,0.348742,0.790030,0.504214
-0.259655,-0.385727,0.419095,0.219469,-0.077389,0.972545
-0.232331,-0.351750,0.416132,-0.565820,-0.033874,0.823833
-0.208190,-0.320486,0.406828,0.505923,-0.843750,-0.179244
-0.186723,-0.291751,0.394515,0.318901,0.893192,0.317033
-0.159657,-0.258207,0.393774,-0.666395,0.710072,-0.227410
-0.136379,-0.227685,0.382710,0.611471,-0.584112,0.533776
-0.445343,-0.528226,0.489550,0.698703,0.172996,0.694180
-0.400088,-0.479390,0.521768,-0.100724,-0.994138,-0.039287
-0.389743,-0.459718,0.485384,0.098844,0.777279,0.621344
-0.363882,-0.426546,0.479319,-0.579785,0.685505,-0.440378
-0.352843,-0.406505,0.446499,-0.104432,-0.789738,0.604489
-0.317327,-0.366363,0.462007,0.848973,-0.379577,0.367649
-0.306378,-0.345645,0.426826,-0.642257,-0.343544,-0.685188
-0.286036,-0.317957,0.412244,-0.502542,-0.480101,-0.718995
-0.235693,-0.265301,0.455804,0.604783,-0.234995,0.760931
-0.207069,-0.230338,0.455804,0.819463,0.059737,0.570011
-0.138105,-0.162447,0.538387,-0.393166,-0.072793,-0.916581
-0.123793,-0.139693,0.512001,-0.668675,-0.482338,0.565883
-0.051119,-0.069710,0.605231,-0.877923,-0.150663,0.454479
0.007585,-0.010450,0.669066,-0.838139,0.158018,0.522066
-0.155863,-0.131184,0.274343,0.097898,0.755025,0.648346
-0.105861,-0.078957,0.318921,-0.557694,-0.647338,0.519549
0.006548,0.070388,0.259762,-0.049516,-0.901288,0.430382
-0.143535,0.133220,-0.969818,-0.230042,0.081116,-0.969794
-0.114570,0.169045,-0.970235,0.492718,-0.268299,-0.827795
-0.081553,0.208140,-0.965051,-0.208263,-0.091574,0.973777
-0.054655,0.242916,-0.972966,-0.010760,0.508286,0.861121
-0.544483,-0.541853,0.501308,0.302247,-0.136859,0.943354
-0.483538,-0.469710,0.511677,-0.136690,0.853035,-0.503634
-0.431295,-0.415323,0.557644,0.329706,0.114582,-0.937105
-0.412327,-0.388930,0.540701,0.859332,-0.048756,0.509089
-0.397589,-0.364944,0.513343,-0.666106,-0.712914,0.219218
-0.379141,-0.338430,0.492976,-0.145560,-0.309731,-0.939616
-0.355259,-0.307167,0.483671,-0.421617,0.012108,-0.906693
-0.387586,-0.322462,0.364333,0.790073,0.537049,-0.295573
-0.277070,-0.221336,0.530054,0.404087,-0.861375,0.307808
-0.232415,-0.173670,0.563199,0.357293,-0.650040,0.670664
-0.257245,-0.182673,0.458072,-0.752177,-0.054348,-0.656716
-0.248968,-0.164111,0.417429,-0.459827,0.141572,-0.876651
-0.198535,-0.111700,0.462146,-0.364971,0.308745,-0.878335
-0.162330,-0.070696,0.477422,0.903849,-0.155261,-0.398687
0.074397,0.130755,0.909409,0.779888,-0.573700,0.250286
-0.158794,-0.056391,0.429001,0.907950,0.026601,0.418232
0.074050,0.152828,0.797246,-0.379472,0.859182,-0.343231
-0.125261,-0.006197,0.382942,0.324601,-0.914415,0.241826
-0.056555,0.132791,0.113529,-0.277690,-0.906598,-0.317756
-0.184139,0.067490,0.163245,0.106197,-0.988329,0.109219
-0.616813,-0.538154,0.544914,0.907385,0.403584,0.117351
-0.601898,-0.514722,0.520750,0.682717,0.295065,0.668456
-0.562415,-0.470756,0.540887,-0.274685,0.668328,-0.691293
-0.541553,-0.442270,0.525240,0.652455,-0.205496,-0.729434
-0.518277,-0.411808,0.514547,0.006007,0.587214,0.809409
-0.494655,-0.381470,0.506585,-0.631813,0.544735,-0.551431
-0.422760,-0.311548,0.594214,0.757000,-0.044384,0.651905
-0.426985,-0.303591,0.529823,-0.600337,0.626826,-0.496674
-0.399399,-0.270111,0.529916,-0.737192,0.569999,0.362834
-0.367587,-0.232434,0.536998,0.739553,-0.496538,-0.454435
-0.351986,-0.208325,0.511307,0.787996,-0.239584,0.567152
-0.307157,-0.160351,0.543201,0.457237,0.540003,0.706634
-0.388275,-0.214490,0.325078,0.651563,-0.536082,0.536732
-0.297501,-0.129889,0.452841,0.469662,0.002773,0.882842
-0.206985,-0.022105,0.465617,0.475295,-0.860125,-0.185149
-0.605690,-0.450098,0.649902,0.996400,-0.046690,0.070763
-0.647327,-0.473285,0.517833,0.786101,0.565822,0.248780
-0.614053,-0.434683,0.525935,-0.267949,0.398716,0.877057
-0.601293,-0.413287,0.497049,0.436728,0.860684,0.261710
-0.477844,-0.289286,0.625414,-0.288111,-0.887662,0.359233
-0.472846,-0.273746,0.579169,0.912071,-0.004089,0.410012
-0.451210,-0.245136,0.567643,-0.563920,0.332932,-0.755745
-0.409917,-0.200369,0.595695,-0.479450,0.782730,-0.396814
-0.478623,-0.244395,0.402754,0.882479,0.351521,-0.312514
-0.376726,-0.150980,0.550700,0.614904,0.741586,0.268222
-0.341726,-0.099431,0.506307,0.543068,0.374996,0.751302
-0.366382,-0.107138,0.399606,-0.838438,0.515081,0.178082
-0.303279,-0.045353,0.471589,-0.548654,0.137603,-0.824648
-0.297759,-0.029260,0.427705,-0.329808,0.944002,0.009345
-0.572328,-0.235641,-0.193010,-0.347430,0.911340,-0.220798
-0.256208,0.051397,0.279528,-0.008554,0.156891,0.987579
-0.222155,0.090613,0.291841,-0.125721,0.921161,-0.368316
-0.258018,0.074147,0.159449,0.081199,-0.698937,0.710559
-0.333191,0.067121,0.204120,0.573698,-0.808904,0.128628
-0.248794,0.145493,0.320218,0.857850,0.443566,-0.259504
-0.649656,-0.419392,0.693832,0.923293,0.125650,-0.362963
-0.607847,-0.373702,0.719338,-0.495089,0.251774,0.831563
-0.615950,-0.369013,0.649624,0.997248,-0.030481,0.067585
-0.675001,-0.406505,0.483393,0.326896,-0.782793,-0.529505
-0.582933,-0.320302,0.607361,-0.653170,0.410953,-0.635992
-0.551465,-0.282997,0.612638,0.487606,-0.689556,0.535494
-0.507846,-0.236567,0.644023,-0.568188,0.488615,-0.662132
-0.495345,-0.214923,0.612684,0.815831,-0.327972,-0.476293
-0.465174,-0.178789,0.616619,-0.559325,0.810294,-0.174870
-0.489225,-0.175582,0.458859,0.080798,0.678028,0.730582
-0.458361,-0.139509,0.465664,0.955830,-0.291145,-0.040294
-0.412847,-0.091230,0.499271,0.365510,0.521968,0.770682
-0.397499,-0.067365,0.475848,0.995176,0.094416,0.026658
-0.364398,-0.029196,0.484921,0.269912,-0.791907,0.547751
-0.418361,-0.059902,0.317625,-0.541365,-0.115436,-0.832826
-0.393363,-0.027965,0.309802,0.151793,-0.097684,0.983574
-0.308361,0.074704,0.311561,0.138460,-0.091225,0.986158
-0.610259,-0.289410,0.620692,-0.630424,0.455086,-0.628858
-0.580086,-0.253770,0.626108,-0.641415,0.602676,-0.474730
-0.493103,-0.138278,0.577595,-0.009243,-0.602953,0.797723
-0.472499,-0.110097,0.561903,0.004684,0.799140,0.601127
-0.468536,-0.095235,0.512927,-0.595281,-0.192347,-0.780156
-0.440261,-0.061201,0.515056,0.116007,0.314946,0.941993
-0.428274,-0.040294,0.484134,0.682856,-0.444531,0.579742
-0.636725,-0.194697,0.005347,-0.340823,0.141528,-0.929414
-0.398620,0.042703,0.254808,0.284285,0.955934,-0.073292
-0.396552,0.068107,0.144636,-0.028760,0.993839,0.107036
-0.604484,-0.234899,0.678093,0.961774,0.256833,-0.095012
-0.707586,-0.296316,0.368638,0.251347,-0.006538,0.967875
-0.543105,-0.151782,0.636153,-0.053781,0.977092,0.205911
-0.531726,-0.131123,0.601898,0.907171,-0.255059,0.334643
-0.535002,-0.122738,0.541257,0.557314,0.132985,0.819583
-0.468794,-0.046214,0.559866,-0.129463,-0.129588,-0.983080
-0.461639,-0.028887,0.517000,0.436746,0.389524,0.810879
-0.521553,-0.053922,0.285314,-0.165077,0.841326,0.514704
-0.439050,0.071374,0.160375,0.023791,-0.999707,-0.004505
-0.586811,-0.179835,0.690499,0.211828,0.934264,0.286844
-0.578018,-0.161586,0.652077,0.210148,0.901162,0.379136
-0.559053,-0.135256,0.635181,-0.528570,-0.297521,-0.795044
-0.545433,-0.113427,0.607869,0.828705,-0.344812,0.440855
-0.510259,-0.062495,0.567272,0.287818,0.657193,0.696605
-0.454051,0.062988,0.281148,0.084306,-0.740043,0.667254
-0.442675,0.219424,-0.427983,0.169696,0.597667,-0.783580
-0.693448,-0.281210,0.692906,-0.562993,0.193117,-0.803582
-0.594398,-0.156652,0.668094,0.315968,0.699988,0.640454
-0.581123,-0.134883,0.637820,-0.570950,-0.272783,-0.774342
-0.581725,-0.124278,0.580280,-0.096853,0.530468,0.842154
-0.612674,-0.127857,0.409142,-0.147253,0.905964,0.396921
-0.587587,-0.085246,0.346557,0.082239,-0.561419,0.823435
-0.530519,-0.016249,0.345076,-0.183891,-0.125590,0.974890
-0.623105,-0.161646,0.702720,-0.683074,-0.626632,-0.375157
-0.618191,-0.146908,0.656521,-0.521971,-0.724430,-0.450275
-0.556035,-0.052010,0.556301,0.435648,0.539876,-0.720239
-0.471552,0.094004,0.327208,-0.729905,0.677164,0.093205
-0.642931,-0.145677,0.702812,-0.393264,-0.816309,-0.423064
-0.633190,-0.127364,0.667770,0.843724,0.402488,0.355153
-0.699570,-0.111515,0.635043,-0.381351,-0.487590,-0.785383
-0.765778,-0.144687,0.392200,-0.330498,0.093931,-0.939121
-0.750603,-0.121380,0.367203,0.797584,-0.062612,0.599949
-0.720948,-0.085739,0.368684,-0.507284,-0.087054,-0.857371
-0.603364,0.076737,0.263141,-0.670918,0.592709,-0.445605
-0.743534,-0.097334,0.731652,0.191136,0.106100,0.975812
-0.626725,0.118979,0.346650,-0.411088,0.307648,-0.858114
-0.577932,0.180392,0.334429,-0.532217,0.422045,-0.733910
-0.536207,0.225344,0.361648,0.262921,-0.525678,0.809034
-0.673191,0.123973,0.338040,-0.407933,0.258126,-0.875763
-0.709225,0.118113,0.144636,0.191357,0.555993,0.808860
-0.786466,-0.088761,0.727856,0.113601,0.055672,0.991965
-0.728191,-0.019392,0.734105,-0.654404,-0.009438,-0.756086
-0.700086,0.090797,0.342067,0.031220,0.259094,0.965347
-0.893880,-0.102513,0.371138,0.155969,0.042642,0.986841
-0.757327,0.075690,0.303229,0.606264,-0.786792,-0.115769
-0.753965,0.089751,0.250874,0.347848,0.933938,-0.082233
-0.935261,0.045845,-0.352714,-0.534328,0.246634,-0.808495
0.285863,0.522061,0.252170,0.453706,0.725405,-0.517629
0.338706,0.574965,0.308830,0.839203,-0.523517,0.147202
0.240776,0.569910,0.237773,0.727792,0.591855,-0.346449
0.216120,0.657469,-0.335586,0.801131,0.420359,-0.426013
0.047673,0.473779,0.025067,-0.077625,0.405306,0.910879
0.137674,0.554247,0.165282,-0.290607,0.689130,-0.663813
0.181377,0.599755,0.202639,0.421494,-0.390814,0.818295
0.078533,0.548635,-0.156348,-0.692920,-0.710679,0.121646
-0.061553,0.304209,0.653512,-0.265511,0.774482,-0.574179
0.076465,0.653337,0.368823,-0.675913,0.473259,-0.564949
-0.090345,0.527179,-0.002569,0.971263,0.043252,0.234047
-0.025348,0.614862,-0.044601,0.021808,0.143490,0.989411
-0.068451,0.595066,-0.044879,-0.055134,-0.396763,0.916264
-0.180346,0.523724,-0.363916,0.214324,0.178705,0.960276
0.026122,0.704950,-0.022197,-0.198683,-0.345239,0.917243
-0.423623,0.260243,-0.404328,-0.043928,-0.571400,0.819495
-0.085346,0.546539,0.216434,-0.463054,-0.770529,0.438025
-0.082758,0.576139,0.262771,0.689738,0.370543,-0.622061
-0.044916,0.617079,0.286842,0.773600,0.436659,-0.459208
-0.034051,0.655926,0.354936,0.775268,0.564003,-0.284360
-0.030520,0.670540,0.302118,0.798475,0.300060,-0.521920
-0.371380,0.406072,-0.466913,0.447460,-0.304430,0.840893
-0.130002,0.617820,-0.049508,0.451073,0.682852,-0.574670
0.045432,0.826053,-0.032473,-0.001967,0.052985,0.998593
-0.356637,0.425127,0.000718,0.498421,0.800761,0.332201
-0.045605,0.727332,0.381646,0.275022,0.821117,-0.500129
-0.407244,0.447882,-0.432334,-0.746881,0.457983,-0.482101
-0.209742,0.613259,-0.052193,-0.470082,-0.696049,0.542714
-0.253019,0.617019,-0.344150,-0.295156,-0.090912,-0.951114
-0.233793,0.615476,0.231385,-0.009999,-0.734725,0.678292
-0.170348,0.738062,-0.004930,0.329899,-0.202820,0.921971
-0.422244,0.432835,0.000394,0.212393,0.032550,0.976642
-0.387760,0.472235,0.013170,0.123242,0.025453,0.992050
-0.461207,0.443625,0.008263,0.235958,0.134760,0.962374
-0.565001,0.387451,-0.347390,0.654325,0.715838,-0.243791
-0.266210,0.632743,0.249439,-0.065920,-0.854998,0.514425
-0.555172,0.295823,0.427659,0.218634,-0.685715,0.694258
-0.493361,0.448559,0.023030,0.285733,0.532099,0.797011
-0.642500,0.355449,-0.430529,-0.038442,0.999261,-0.000596
-0.334054,0.653152,0.264854,-0.327888,0.218425,-0.919119
-0.338190,0.697920,0.004374,0.212644,-0.255915,0.943022
-0.581983,0.453802,0.051082,0.367399,-0.243481,0.897627
-0.560431,0.482781,0.034695,-0.376842,0.286913,-0.880722
-0.657069,0.439124,0.055572,-0.315681,0.306137,-0.898124
0.488794,-0.724001,0.504363,0.800073,-0.361420,-0.478810
0.406981,-0.693294,0.441454,-0.547602,0.581517,0.601640
0.324052,-0.604068,0.343502,0.071475,0.619444,0.781781
0.747067,-0.188036,0.137415,-0.258143,0.459572,0.849797
0.396894,-0.524093,-0.216896,-0.332730,0.229857,0.914580
0.462328,-0.468412,0.288693,0.060674,-0.281993,0.957496
0.635862,-0.139509,0.104872,-0.016590,0.686261,0.727166
0.603445,-0.171574,0.121768,0.132853,0.758804,0.637625
0.634137,-0.146106,0.368870,0.554020,0.643991,-0.527577
0.482670,-0.294341,0.408309,-0.660743,0.530507,0.531019
0.402066,-0.372283,0.370860,-0.792044,0.452374,0.409908
0.690342,-0.154431,0.124916,0.124558,0.827016,0.548207
0.696724,-0.153076,0.399931,0.404755,0.759393,-0.509407
0.466979,-0.377338,0.398681,0.127870,-0.308103,0.942721
0.300343,-0.537906,0.318829,0.614674,-0.788219,0.029775
-0.050604,-0.879514,0.299711,0.112967,0.827738,0.549626
0.553276,-0.127424,0.343039,0.506225,-0.003067,-0.862396
0.577069,-0.106088,0.472330,0.354416,-0.868468,0.346632
0.440171,-0.237982,0.369934,0.373103,0.473083,-0.798115
0.787845,0.030614,0.045897,-0.528765,0.599154,0.601184
0.354222,-0.385046,-0.417568,0.610271,-0.687722,-0.393202
0.610859,-0.146479,0.371416,0.594387,0.574765,-0.562449
-0.176210,-0.901279,-0.416318,0.844714,0.532048,0.058163
0.408617,-0.342992,0.353871,0.816267,-0.547213,-0.185109
0.390775,-0.360936,0.384793,-0.689682,0.637434,0.343536
0.416894,-0.337380,0.517649,-0.330864,-0.397691,0.855787
0.734482,0.054110,0.017799,-0.463707,0.333307,0.820903
0.285431,-0.375674,-0.462099,-0.002973,0.363442,0.931612
0.567240,-0.109848,0.091078,0.784913,-0.297573,-0.543472
0.236377,-0.425929,-0.296563,-0.431974,0.259787,0.863660
0.412500,-0.246431,0.388497,-0.390982,0.889452,0.236661
0.528188,-0.136242,0.570281,-0.721516,0.489865,0.489334
0.212584,-0.439493,0.266659,0.340682,0.847426,0.407191
0.383966,-0.275719,0.511677,0.776284,0.105351,-0.621518
0.045000,-0.601419,0.184956,0.758667,0.268830,-0.593426
-0.148449,-0.790164,0.235691,-0.519620,0.791278,0.322297
0.339479,-0.337260,0.466636,0.168906,-0.128335,0.977241
0.026895,-0.637120,0.170235,0.729785,0.260798,-0.631980
-0.082500,-0.744904,0.260039,-0.276900,0.766796,0.579095
0.490257,-0.083089,-0.857748,-0.263330,0.268955,0.926456
0.306294,-0.269738,-0.278787,0.345428,0.538548,0.768535
0.499307,-0.089563,0.325449,-0.194717,0.144522,0.970154
0.441550,-0.146046,0.362296,-0.758074,-0.223318,-0.612742
0.453104,-0.136611,0.479273,0.516286,0.843614,0.147528
0.240686,-0.340158,0.239162,0.730727,-0.279593,-0.622789
0.789134,0.124033,0.025715,0.536368,0.293695,-0.791235
0.722501,0.059658,0.000810,0.313683,-0.289139,-0.904435
0.547067,-0.112069,0.063025,-0.533393,0.162535,0.830105
0.561636,-0.101094,0.347298,0.590572,0.744002,-0.312548
0.435083,-0.224109,0.361000,0.272740,-0.952144,0.137966
0.531376,0.064652,-0.881403,-0.362307,0.227820,0.903788
0.488621,0.023215,-0.877700,0.148842,-0.173196,-0.973576
0.443618,-0.020626,-0.876774,-0.011516,0.129249,0.991545
0.398362,-0.064404,-0.873255,0.292983,-0.314938,-0.902760
0.352496,-0.109171,-0.872283,0.238382,-0.143558,-0.960503
0.460255,-0.018774,0.048583,0.516862,0.702505,-0.489224
0.408533,-0.068660,0.043213,0.086817,0.959807,0.266896
0.423018,-0.058423,0.273417,-0.525984,0.786932,0.322613
0.401635,-0.079450,0.302720,-0.401303,0.666110,0.628692
0.341894,-0.136980,0.286147,-0.475396,0.671889,0.567948
0.255172,-0.220718,0.241153,0.925388,-0.021257,-0.378424
0.383445,-0.099243,0.439741,0.059430,-0.163398,0.984768
0.354138,-0.128226,0.458905,-0.451840,-0.086732,0.887873
0.260775,-0.217881,0.404791,0.232656,-0.434993,-0.869858
-0.069914,-0.535072,0.140192,0.713210,-0.681654,-0.163338
0.132496,-0.343425,0.469228,-0.343684,0.073492,0.936205
0.429569,-0.159674,0.505566,-0.157137,0.838858,0.521177
0.523190,0.095791,-0.880940,-0.335805,0.069601,0.939357
0.471462,0.045413,-0.886402,-0.172015,0.135537,0.975726
0.432584,0.007676,-0.877422,-0.380201,0.405636,0.831208
0.382156,-0.041344,-0.880801,-0.267911,0.130620,0.954548
0.332497,-0.089439,-0.882606,-0.234365,0.236401,0.942967
-0.031809,-0.389238,-0.350955,-0.728293,0.624462,-0.282200
0.329998,-0.045168,0.177827,0.360012,0.820875,-0.443347
0.301463,-0.074023,0.252864,-0.471961,-0.710399,-0.522098
-0.010000,-0.372528,-0.048721,0.845610,-0.161162,-0.508891
0.005343,-0.358900,0.020715,-0.535926,0.230498,0.812191
0.383103,0.001511,0.500474,0.624428,0.426115,-0.654611
-0.147760,-0.506645,-0.044972,0.732704,-0.674773,-0.088471
0.425260,-0.012241,0.022243,0.290451,0.836290,-0.465035
0.378015,-0.059349,0.126675,-0.205497,-0.976769,-0.060770
0.394742,-0.044242,0.200093,0.148611,0.988661,0.021557
0.386034,-0.053493,0.241616,0.929205,-0.224351,-0.293674
0.363362,-0.075999,0.270085,-0.480425,0.806319,0.345023
0.302584,-0.134699,0.254299,-0.732761,-0.039795,0.679321
0.162414,-0.269121,0.148663,0.971130,-0.219470,-0.093486
0.352928,-0.088761,0.466775,-0.204903,0.642978,0.737966
0.283879,-0.155666,0.441824,0.793725,0.561649,0.233561
0.048189,-0.383506,0.388635,0.787781,0.492483,-0.369948
-0.241465,-0.661293,0.120935,-0.605674,0.565187,0.560110
0.429311,0.067614,-0.882606,0.197585,-0.012991,-0.980200
0.383188,0.022598,-0.880523,0.650435,-0.310967,-0.692989
0.321121,-0.037581,-0.898206,-0.153565,0.290149,0.944580
0.279654,-0.078220,-0.890152,-0.215611,0.175676,0.960547
0.223533,-0.139509,-0.441778,0.218515,0.852791,0.474341
0.389139,0.016927,-0.132323,-0.011257,-0.975339,0.220427
0.530172,0.149930,0.145701,0.977158,0.148532,-0.151988
0.372927,-0.001078,0.015207,0.818629,0.348969,-0.456143
0.170690,-0.204746,0.470802,0.751073,-0.097753,-0.652943
0.096207,-0.276645,0.440666,-0.557585,0.396991,0.729038
0.024569,-0.345890,0.412059,0.960508,-0.272678,0.055419
-0.037071,-0.405455,0.394839,0.043742,-0.988229,-0.146592
-0.186123,-0.551289,0.440713,0.563655,0.429656,0.705470
0.441550,0.046587,-0.881310,-0.374419,0.124955,0.918802
0.399135,0.005519,-0.876820,0.444945,0.202141,-0.872447
0.342152,-0.049854,-0.888393,0.402516,-0.282123,-0.870854
0.304826,-0.086420,-0.877468,0.274494,-0.350589,-0.895400
0.241118,-0.150423,-0.431223,0.594185,0.755314,0.276485
0.276981,-0.116017,-0.275362,0.942512,0.312516,-0.118343
0.472241,0.060215,-0.878764,0.200449,-0.294514,-0.934388
0.421119,0.010453,-0.882884,-0.256261,0.557832,0.789401
0.371207,-0.037889,-0.885522,0.277679,-0.323325,-0.904630
0.327672,-0.080376,-0.882468,0.243925,-0.242241,-0.939053
0.600946,0.178849,0.021548,-0.398530,0.612115,0.683000
0.543273,0.122369,0.118713,0.954165,-0.081924,-0.287852
0.427328,0.010020,0.034047,0.916146,-0.121587,-0.381960
0.386465,-0.030675,0.201296,0.466060,0.768254,-0.438832
0.353791,-0.062307,0.217730,0.146522,-0.945921,-0.289422
0.350518,-0.066007,0.267816,-0.475608,0.633350,0.610464
0.291377,-0.123416,0.251661,0.756589,0.595847,-0.269330
0.136290,-0.273193,0.126120,0.937146,-0.348933,0.001949
0.443965,0.023091,0.530749,-0.434489,-0.493738,0.753288
0.274913,-0.140559,0.442750,-0.450859,-0.373890,-0.810514
0.024738,-0.383134,0.370628,0.829223,0.415654,-0.373660
-0.271382,-0.669309,0.096262,0.549322,-0.326044,-0.769377
0.505600,0.133220,-0.890059,0.355995,-0.152308,-0.921992
0.369997,0.001759,-0.883116,-0.233114,-0.044424,0.971434
0.317585,-0.049176,-0.888578,0.027260,0.165114,0.985898
0.270862,-0.094930,-0.887282,0.427109,-0.078652,-0.900773
0.512671,0.139633,-0.074922,0.517860,-0.528495,-0.672692
0.493793,0.120826,0.011873,0.712382,-0.676048,-0.188335
0.465343,0.093635,0.089920,0.194514,0.932574,-0.304089
-0.042069,-0.399230,-0.400347,-0.707473,0.132861,-0.694140
0.463101,0.091045,0.301840,0.916706,0.142687,-0.373216
0.342326,-0.026422,0.212128,0.495865,0.501710,0.708806
0.241118,-0.124278,0.203750,-0.632065,-0.098820,0.768589
0.587587,0.211776,0.655688,-0.086608,-0.968428,0.233765
0.013015,-0.345890,-0.004282,0.700601,-0.227678,-0.676255
0.448448,0.076616,0.546580,-0.106139,-0.335943,0.935883
0.551981,0.149685,0.162041,-0.534754,0.820407,-0.202414
0.374048,-0.022783,0.003912,-0.566769,-0.796341,0.211221
0.336722,-0.059225,0.070431,-0.131566,0.952245,0.275537
0.419393,0.020502,0.274251,0.882694,-0.037812,-0.468425
0.299396,-0.096100,0.241199,0.960971,0.262873,0.086208
0.209137,-0.183534,0.189492,0.805565,-0.180594,-0.564315
-0.045432,-0.430182,-0.047425,-0.722316,0.688660,0.063305
0.198104,-0.195435,0.493624,0.010380,-0.353001,0.935565
0.131723,-0.260119,0.469969,-0.621171,-0.140868,0.770911
0.037329,-0.351441,0.417984,0.830910,-0.399506,0.387277
-0.169570,-0.552643,0.450295,0.702314,0.499146,0.507552
-0.026637,-0.385539,-0.363639,-0.558694,0.261879,-0.786944
0.285516,-0.080809,0.057979,-0.004276,0.976560,0.215201
0.424307,0.054972,0.275732,0.883737,-0.280117,-0.374891
0.360084,-0.007247,0.255271,0.377828,0.311962,-0.871737
0.118358,-0.242671,0.082977,0.942501,0.120158,-0.311856
0.000603,-0.357670,0.000023,-0.740492,0.111262,0.662791
0.391811,0.024201,0.503160,0.375210,0.902071,-0.213272
-0.165345,-0.518606,0.028909,-0.755401,0.639495,0.142882
0.197499,-0.164420,0.492328,-0.173590,-0.349750,0.920620
0.113449,-0.246491,0.448443,-0.547561,0.114436,0.828904
0.024048,-0.333681,0.400116,0.977265,-0.191913,-0.090120
-0.191984,-0.543148,0.424881,-0.603399,-0.504366,-0.617676
0.263101,-0.103375,0.439695,-0.337914,0.354865,0.871714
0.237587,-0.128102,0.514686,0.421242,-0.150414,-0.894388
0.115948,-0.246431,0.430807,0.767585,0.640595,0.021256
0.055255,-0.305443,0.416271,-0.843647,0.536818,0.009308
0.492156,0.116758,-0.888624,-0.219282,0.240183,0.945636
0.447327,0.073470,-0.884967,-0.233500,0.249311,0.939852
0.348013,-0.023031,-0.889596,-0.083184,-0.102330,0.991266
0.300343,-0.069153,-0.892003,0.198434,-0.320993,-0.926060
0.265774,-0.102822,-0.877376,0.358012,-0.120202,-0.925948
0.244653,-0.121813,-0.321884,0.904559,0.377853,-0.197483
0.577842,0.203948,0.191112,-0.254614,0.946644,-0.197578
0.401035,0.031725,0.033353,0.923140,-0.346721,0.166125
-0.165866,-0.394112,0.418678,-0.710454,0.431148,-0.556208
-0.302416,-0.527055,0.473950,-0.693629,0.330892,-0.639835
0.720170,0.587915,-0.423632,-0.524422,0.488444,-0.697427
0.340516,0.222137,-0.909640,-0.161438,0.142617,-0.976524
0.284479,0.167630,-0.923019,0.561481,0.014741,-0.827358
0.243101,0.127179,-0.918019,-0.213493,-0.259585,-0.941826
0.212410,0.097395,-0.896355,0.998195,-0.058300,-0.014421
0.199567,0.084941,-0.854415,0.403033,-0.889778,0.214150
0.177841,0.063421,-0.822197,0.732673,-0.676329,-0.075956
0.144051,0.030678,-0.804375,0.619807,-0.763338,-0.182083
0.125777,0.012550,-0.766787,-0.499296,0.865870,-0.031185
0.185344,0.068908,-0.580002,-0.444160,0.884215,-0.144515
0.184308,0.067734,-0.522648,0.665057,-0.738657,0.109928
0.174395,0.057008,-0.364518,0.960565,0.263675,0.088265
0.182756,0.064528,-0.297535,0.880035,0.376730,-0.289159
0.177673,0.059534,-0.249022,-0.634405,-0.772383,0.030903
0.162583,0.044860,-0.211943,0.819343,0.180275,-0.544222
0.182066,0.063049,-0.132739,-0.449074,0.865308,0.222655
0.189738,0.069955,-0.070246,-0.537244,-0.826386,-0.168686
0.453531,0.208634,-0.907835,-0.230178,0.094440,0.968555
0.407239,0.163866,-0.906631,0.007555,0.183298,0.983028
0.313360,0.072732,-0.907418,0.159137,-0.202224,-0.966323
0.274740,0.035055,-0.898345,0.090556,0.032479,0.995362
0.222586,-0.015384,-0.903715,-0.164800,0.376700,0.911558
0.171206,-0.065329,-0.909640,-0.286902,0.242020,0.926884
0.129566,-0.105720,-0.901400,0.414977,-0.235848,-0.878732
0.254135,0.014522,-0.285453,-0.777881,-0.272871,0.566077
0.235172,-0.004654,0.184956,-0.686999,0.303604,0.660195
0.445949,0.199940,0.481171,0.223832,0.971676,0.075798
0.345772,0.102761,0.470061,0.782240,0.575486,0.238573
0.275860,0.034623,0.442889,0.500077,-0.357647,-0.788677
0.204139,-0.035176,0.414096,-0.105096,0.180057,0.978026
0.046721,-0.187667,0.391830,0.907398,0.191056,-0.374336
0.005343,-0.228486,0.501956,0.612042,-0.105360,0.783775
-0.191037,-0.303098,0.403356,0.790522,0.190311,-0.582114
-0.220950,-0.332510,0.420484,-0.196855,0.477291,0.856412
-0.286468,-0.396268,0.451637,-0.583949,0.485395,-0.650688
-0.322931,-0.431540,0.462562,0.836315,-0.102152,0.538649
0.235172,0.218622,-0.938155,0.386186,0.146442,-0.910722
0.185776,0.170403,-0.941026,-0.284701,0.743442,0.605176
0.146377,0.132174,-0.932647,-0.327449,0.326746,0.886575
0.105173,0.091908,-0.924500,0.507409,-0.072879,-0.858618
0.173963,0.054171,0.022289,0.895813,-0.372781,-0.241977
0.240686,0.117989,0.155329,-0.268204,0.895941,0.354057
0.188449,0.067430,0.146997,0.906946,-0.415548,0.069062
0.184739,0.063421,0.194723,-0.754273,0.656495,0.009368
0.183187,0.061509,0.246985,0.852317,-0.519119,0.063806
0.192758,0.070512,0.309710,0.827426,-0.464647,0.315387
0.162930,0.041284,0.328689,-0.767474,-0.375130,-0.519866
0.151980,0.030554,0.369425,0.956721,0.281898,-0.072243
0.100000,-0.019761,0.363546,-0.599547,0.161774,0.783819
0.126808,0.005643,0.444694,0.781753,0.581933,0.224090
0.222065,0.096593,0.654716,-0.060996,0.907693,0.415178
-0.058796,-0.174532,0.391367,-0.460512,0.885805,0.057265
-0.122930,-0.236442,0.373082,0.764877,-0.450089,0.460849
-0.128366,-0.242178,0.419882,0.747043,-0.554347,0.366913
0.136032,0.111271,0.178845,0.383000,-0.893499,0.234460
0.121205,0.096348,0.213286,0.812250,-0.556875,-0.173612
0.101289,0.076925,0.244162,0.978982,-0.200293,-0.038441
0.079480,0.055032,0.326421,0.514896,-0.820021,-0.249894
0.186034,0.156407,0.548339,0.579184,-0.652311,0.488913
0.132070,0.103992,0.539637,-0.679018,0.639306,-0.360864
0.109308,0.081426,0.564680,0.832052,-0.447559,0.327691
0.130344,0.101403,0.640273,0.378236,0.919805,-0.104385
0.155258,0.124710,0.719431,-0.292175,0.919284,0.263726
0.157410,0.126498,0.773221,0.888714,-0.425952,0.169564
0.013794,-0.012177,0.663882,-0.838139,0.158018,0.522066
0.116980,0.086112,0.876496,-0.407516,0.912387,0.038467
-0.255087,-0.271774,0.470200,-0.537528,0.059179,-0.841167
-0.291035,-0.306982,0.480894,-0.420510,-0.006210,-0.907267
-0.379657,-0.392753,0.489272,0.467004,0.269739,-0.842109
-0.440345,-0.451702,0.475848,0.353878,0.110974,0.928685
-0.434052,-0.446339,0.532323,-0.609040,-0.244979,0.754358
0.047326,0.035981,-0.936628,0.244713,-0.021588,-0.969355
-0.004054,-0.013596,-0.940609,0.012333,0.327084,0.944915
-0.036292,-0.045288,-0.922972,0.449519,0.031121,-0.892728
0.358879,0.333376,-0.377294,-0.661168,0.725857,0.189708
-0.094486,-0.101956,-0.937600,0.231613,-0.313850,-0.920790
0.099395,0.079390,-0.190233,0.883587,-0.441037,0.157354
0.232584,0.204994,0.185048,0.710318,-0.398961,0.579896
-0.045779,0.059658,-0.959495,0.235089,-0.294380,-0.926323
-0.074913,0.031292,-0.937878,-0.008867,0.295288,0.955367
-0.133706,-0.025805,-0.950099,0.277646,0.397781,0.874461
0.073276,0.165161,-0.185557,0.650075,0.411586,-0.638749
0.245774,0.327147,0.230552,-0.287021,0.368609,-0.884164
0.217240,0.298966,0.251198,-0.526202,-0.673367,0.519316
0.031809,0.119472,0.195417,-0.485878,0.709183,0.510864
0.021638,0.109359,0.235598,0.535434,-0.821655,0.195430
-0.005175,0.082781,0.258234,0.024357,-0.930998,0.364211
-0.021812,0.065886,0.343826,0.585922,-0.171938,0.791917
-0.099827,-0.010389,0.361509,-0.038224,0.931148,0.362632
-0.234398,-0.140495,0.312904,-0.118898,0.822901,0.555606
-0.194568,-0.103559,0.460016,0.964013,0.044761,0.262060
-0.256897,-0.164852,0.495660,0.768725,0.010949,0.639486
-0.314570,-0.220534,0.484736,-0.467623,0.207287,-0.859279
0.043706,0.121628,0.922463,0.807912,-0.543518,0.227743
-0.319311,-0.225897,0.529175,-0.089213,0.972511,-0.215089
-0.375779,-0.280408,0.517973,0.946129,-0.256563,0.197524
-0.428969,-0.331833,0.512464,0.259605,-0.722641,0.640621
-0.489052,-0.390040,0.497836,0.254119,0.273577,0.927674
-0.525173,-0.425436,0.510705,-0.692108,0.549490,-0.468025
0.151549,0.251056,-0.947460,-0.224215,-0.104346,0.968937
0.104225,0.204934,-0.946951,0.210739,0.034510,-0.976933
0.049652,0.152275,-0.957737,0.371666,-0.339011,-0.864255
0.008879,0.112874,-0.951024,-0.154894,0.239543,0.958450
0.031294,0.220782,-0.967782,0.324149,-0.308484,-0.894296
-0.016551,0.174103,-0.967874,-0.116450,0.188174,0.975208
-0.060606,0.131372,-0.962967,-0.007664,0.047763,0.998829
-0.103794,0.089502,-0.956070,0.097949,0.203453,0.974173
-0.149654,0.044799,-0.955468,-0.341911,0.266611,0.901119
-0.187759,-0.000461,-0.430668,-0.216117,0.792084,-0.570874
0.371549,0.530815,0.339938,-0.150932,0.205796,0.966885
0.046121,0.215724,0.275593,-0.221661,0.846752,-0.483608
-0.070346,0.103623,0.195741,-0.042352,-0.204862,0.977874
-0.081553,0.091350,0.287536,0.104743,0.815200,-0.569630
-0.025864,0.143889,0.401227,0.917862,-0.248567,0.309426
-0.198967,-0.024694,0.416179,-0.470599,-0.701641,-0.535011
-0.182414,-0.009836,0.486634,0.784832,-0.598197,0.161864
-0.207069,-0.034069,0.508761,-0.337904,0.380823,0.860694
-0.373190,-0.195006,0.478579,-0.133660,0.770693,0.623030
-0.337500,-0.161522,0.568939,-0.521291,-0.653741,0.548524
-0.445517,-0.266163,0.555699,0.599250,-0.594197,0.536498
-0.476208,-0.296437,0.571948,0.967297,0.109197,-0.228940
-0.190864,0.073285,0.316700,0.977804,-0.017069,0.208825
-0.217240,0.047449,0.337947,0.806630,-0.351346,0.475294
-0.334828,-0.068291,0.413494,-0.335633,0.929900,-0.150455
-0.331123,-0.065514,0.469784,-0.399246,0.441145,-0.803738
-0.398020,-0.130322,0.448536,-0.123530,0.453580,0.882613
-0.407154,-0.140310,0.538155,0.381826,0.923499,-0.036857
-0.500775,-0.232618,0.588659,0.844022,0.085168,0.529502
-0.512500,-0.244395,0.627266,-0.751736,0.474320,-0.458163
-0.548966,-0.279851,0.639671,0.501510,-0.635749,0.586780
-0.064742,0.218870,-0.973429,0.130351,-0.085490,0.987775
-0.117416,0.168059,-0.979216,-0.393301,0.209413,0.895243
-0.156295,0.130013,-0.969587,-0.052479,-0.178741,0.982496
0.107414,0.362664,0.343317,0.371646,-0.724201,0.580872
-0.021554,0.238230,0.299155,0.162664,-0.872963,0.459864
-0.174137,0.092401,0.176670,0.105268,0.633089,-0.766888
0.122415,0.510097,-0.214257,0.927448,0.252402,0.275922
0.130428,0.516634,-0.151209,0.984908,0.172390,-0.015421
-0.437503,-0.044795,0.308691,0.177862,0.833464,0.523165
-0.421724,-0.033945,0.529406,0.671743,0.725734,0.148566
-0.458881,-0.070388,0.540007,0.864836,-0.339769,0.369615
-0.504226,-0.114538,0.542321,0.418579,-0.892634,-0.167318
-0.502758,-0.114353,0.592732,0.875743,0.055347,0.479595
-0.606208,-0.145429,0.671196,-0.621375,-0.586484,-0.519547
-0.624742,-0.164235,0.699849,0.800548,0.558223,0.217968
0.277670,0.648527,0.345307,0.933932,0.345428,-0.091924
-0.048278,0.339601,0.015716,0.347425,-0.180476,0.920176
-0.230778,0.160291,0.124731,-0.307235,-0.940230,0.146880
-0.344483,0.048928,0.152089,-0.169045,0.982796,0.074405
-0.063968,0.309880,0.671011,0.196029,-0.903967,0.380021
0.030257,0.488084,0.041731,0.683885,0.276057,-0.675347
0.037497,0.490982,0.208842,0.576743,0.708732,-0.406283
-0.133448,0.325729,0.170096,0.541953,-0.221241,0.810765
-0.274398,0.191615,0.060387,0.934768,-0.224246,-0.275542
-0.384482,0.078897,0.302581,-0.178659,-0.726097,0.663976
-0.147071,0.300449,0.665456,-0.101320,0.994806,0.009756
-0.543018,-0.077294,0.386367,0.080906,0.995630,0.046639
-0.457240,0.002806,0.529036,-0.066429,-0.519757,0.851728
-0.440087,0.017728,0.597269,-0.351453,0.217093,-0.910688
0.005948,0.555357,0.273556,-0.398326,-0.730993,0.554063
-0.439140,0.131432,-0.026872,-0.436112,-0.874944,-0.210426
-0.554570,0.014706,0.158246,-0.364066,0.573928,0.733527
-0.484227,0.079390,0.288647,-0.418573,0.901026,0.113795
-0.656554,-0.089627,0.356834,-0.373453,-0.319190,-0.871005
-0.692846,-0.124895,0.367620,-0.766889,0.443104,-0.464264
-0.710949,-0.143517,0.399884,-0.412270,0.906909,0.086884
0.041549,0.612766,0.335586,-0.031175,-0.813139,0.581235
-0.694398,-0.101218,0.336466,0.636706,-0.176106,0.750727
-0.703448,-0.111022,0.376415,0.769258,-0.192509,0.609248
-0.029999,0.548699,-0.036547,0.534114,0.352640,-0.768353
-0.013278,0.559550,0.248883,0.447591,0.739344,-0.503025
-0.553707,0.036599,0.155514,0.416876,-0.514613,-0.749258
-0.455346,0.128783,0.317810,-0.086049,-0.244379,0.965854
-0.494140,0.091106,0.327254,-0.679181,0.725792,-0.109270
-0.550174,0.033083,0.518945,-0.687168,0.241966,-0.685021
-0.586724,-0.002806,0.530610,0.928218,-0.265028,0.261098
-0.730433,-0.145613,0.727671,0.702010,0.706939,0.086135
0.020860,0.608634,0.309895,0.517731,0.670121,-0.531877
-0.341210,0.256607,0.364935,0.911529,0.271697,-0.308699
-0.487415,0.116325,0.253883,0.607706,-0.794148,-0.004645
-0.460344,0.141112,0.334614,0.913628,0.405961,-0.021873
-0.522674,0.081178,0.315959,-0.295513,0.734466,-0.610927
-0.687845,-0.080192,0.394283,-0.745089,0.136159,0.652918
0.043532,0.668323,0.396273,0.312685,-0.404830,0.859267
-0.378104,0.265546,-0.040528,-0.480670,0.427943,-0.765390
-0.374827,0.263205,0.381646,0.911529,0.271697,-0.308699
-0.496123,0.146603,0.298415,0.997598,0.065729,0.021857
-0.586208,0.059413,0.302210,-0.441057,0.760554,-0.476473
-0.685603,-0.037460,0.348270,0.245352,-0.228835,0.942039
-0.514310,0.187358,0.339290,-0.586408,-0.807412,-0.064891
-0.599483,0.104734,0.347807,0.232846,-0.399297,0.886761
-0.663104,0.043196,0.328041,-0.429566,-0.156928,-0.889295
-0.664312,0.018345,0.317718,-0.665302,0.095339,-0.740462
-0.765517,-0.081731,0.714246,0.113601,0.055672,0.991965
-0.487415,0.167381,0.341650,0.702678,0.673643,0.229016
-0.574830,0.082845,0.297026,-0.107181,0.900319,-0.421827
-0.588707,0.069401,0.332300,0.552874,-0.183152,0.812887
-0.748622,-0.084200,0.718922,0.113601,0.055672,0.991965
-0.345172,0.276833,0.385719,0.890955,0.308111,-0.333565
-0.553536,0.075013,0.306376,0.062865,-0.961487,0.267565
-0.738967,-0.100108,0.719014,0.191136,0.106100,0.975812
-0.608275,0.105042,0.128018,0.150832,0.040968,-0.987710
-0.515431,0.196549,0.338225,0.190872,-0.608504,0.770253
-0.580002,0.134270,0.318968,0.585707,-0.270085,0.764200
0.508273,-0.019885,-0.853628,0.207375,0.116696,0.971276
0.432673,0.028149,-0.877005,0.565099,-0.488299,-0.665002
0.481638,0.087715,-0.883856,-0.209737,0.267197,0.940540
0.485085,0.017051,-0.863488,-0.567574,0.799685,0.195869
0.518275,0.061137,-0.886402,-0.078640,0.169834,0.982330
0.376721,0.017728,-0.886171,0.001561,0.711254,0.702933
0.414484,0.066011,-0.903021,-0.146613,0.152419,0.977381
0.482501,0.145000,-0.893439,-0.294214,0.221019,0.929833
0.203276,-0.109848,-0.887143,-0.151736,0.168802,0.973900
0.262927,-0.038815,-0.887606,0.212618,-0.215584,-0.953057
0.314139,0.023091,-0.892976,0.230107,-0.079689,-0.969897
0.362757,0.082412,-0.900521,0.223018,0.114845,0.968026
0.422155,0.152892,-0.900567,0.016795,-0.116719,0.993023
0.295518,-0.050407,-0.889966,0.247545,-0.225103,-0.942364
0.353359,0.018221,-0.889504,-0.171123,0.124360,0.977370
0.399393,0.075258,-0.901215,-0.253162,0.176229,0.951237
0.452499,0.139449,-0.906724,-0.214434,-0.019273,0.976548
0.211463,-0.071807,-0.891818,0.330879,0.063932,-0.941505
0.263790,-0.008786,-0.896077,0.234834,0.110239,-0.965764
0.317328,0.055834,-0.901447,-0.203285,0.189128,0.960680
0.377584,0.127424,-0.900845,-0.332850,0.170234,0.927487
0.428448,0.189270,-0.908113,0.068533,0.025641,0.997319
0.138189,-0.099182,-0.901308,-0.327550,0.321602,0.888416
0.196725,-0.029689,-0.900752,-0.536342,0.254166,0.804821
0.259139,0.043565,-0.896123,-0.011661,0.013382,0.999842
0.306031,0.101403,-0.907233,-0.206769,-0.021473,0.978154
0.367929,0.174227,-0.902697,-0.051483,0.265607,0.962706
0.173274,0.047697,-0.877144,-0.355473,-0.828165,0.433337
0.214052,0.099431,-0.893947,0.905426,-0.370882,-0.206518
0.096291,-0.087775,-0.904039,0.360575,-0.200576,-0.910909
0.154395,-0.017973,-0.905474,0.070273,0.540293,0.838538
0.221034,0.060215,-0.899873,0.195136,0.286642,-0.937954
0.255345,0.105166,-0.921537,0.160188,-0.044497,-0.986083
0.321032,0.181811,-0.913760,-0.246256,-0.103116,0.963704
0.188359,0.070696,-0.607962,0.580766,0.805608,-0.117079
0.175258,0.066688,-0.668557,-0.493030,0.775305,-0.394746
0.150170,0.050904,-0.741511,-0.414426,0.906891,0.076149
0.135516,0.045413,-0.803819,0.742281,-0.660793,-0.111228
0.164913,0.085434,-0.830112,-0.664518,0.722808,0.189643
0.132496,0.062740,-0.909964,0.675666,-0.246467,-0.694787
0.162756,0.103623,-0.935934,-0.603165,0.393691,0.693685
0.233273,0.185262,-0.924268,0.133070,0.147931,-0.980004
0.152070,0.095174,-0.643977,-0.287223,0.953321,-0.093179
-0.032156,-0.075382,-0.904131,-0.224954,0.099445,0.969281
-0.006553,-0.039801,-0.932277,0.482888,0.656975,0.578968
0.054482,0.032711,-0.931443,-0.300011,0.151082,0.941896
0.112928,0.102513,-0.932925,-0.299571,0.177772,0.937366
0.171811,0.173053,-0.933156,0.337512,-0.390170,-0.856652
0.168018,0.066071,-0.553385,0.765736,-0.613476,0.193121
0.178446,0.086236,-0.593473,-0.464820,0.853201,-0.236620
0.167844,0.085062,-0.653836,-0.170451,0.943514,-0.284127
0.144824,0.071189,-0.724893,-0.432089,0.901828,0.002458
0.119221,0.064035,-0.847934,0.945349,-0.302773,-0.121012
0.092671,0.046338,-0.920889,0.079993,0.754530,0.651372
0.143704,0.108866,-0.928111,0.382200,-0.437305,-0.814056
0.202413,0.178480,-0.926999,-0.352889,0.118290,0.928158
0.267931,0.051517,0.447888,-0.354248,0.537896,0.764968
0.144998,0.067674,-0.430344,-0.706629,0.100725,0.700379
0.154569,0.095422,-0.519593,0.030693,-0.555241,0.831123
-0.014051,-0.031171,-0.921398,-0.004516,0.400392,0.916333
0.035777,0.029444,-0.928342,-0.312543,0.540762,0.780957
0.076549,0.080685,-0.942970,-0.320934,0.007224,0.947074
0.198014,0.224418,-0.939220,-0.282739,0.193051,0.939569
0.172153,0.078095,-0.424974,-0.263666,0.463065,0.846198
0.163187,0.087899,-0.534174,0.101657,-0.943810,0.314466
0.149828,0.083643,-0.596621,0.087546,-0.988714,0.121572
-0.224138,-0.478219,0.427613,-0.617587,-0.235532,-0.750407
0.248789,0.139449,0.132045,0.405193,0.851558,0.332668
-0.076207,-0.050471,-0.937230,0.254828,0.044843,-0.965946
-0.023538,0.013043,-0.941766,0.289674,-0.500228,-0.816003
0.034482,0.082348,-0.943618,0.660711,0.626203,-0.413922
0.093707,0.153012,-0.944081,-0.278265,0.308410,0.909644
0.154311,0.224911,-0.943247,0.094305,-0.614799,0.783026
0.024738,0.147898,-0.957737,-0.363319,0.358431,0.859957
0.082500,0.216894,-0.959449,0.478827,-0.306900,-0.822519
-0.108019,-0.055157,-0.939544,0.309097,-0.162477,-0.937049
-0.050088,0.014089,-0.941766,-0.075933,0.196903,0.977478
0.001807,0.076861,-0.946766,-0.116052,-0.156860,0.980779
0.059049,0.145060,-0.946997,-0.384087,0.016654,0.923147
0.123446,0.220903,-0.942877,-0.007466,0.006466,0.999951
0.133191,0.075321,0.293924,0.926939,-0.361853,0.099228
0.136379,0.087346,0.247772,0.581072,-0.800765,-0.145364
0.148876,0.108678,0.210925,-0.026095,0.999408,-0.022431
-0.097159,0.019456,-0.941674,0.275088,0.118357,-0.954106
-0.050862,0.076552,-0.953154,-0.351498,0.604160,0.715150
0.002497,0.140803,-0.956903,0.443368,-0.326765,-0.834655
0.058533,0.207768,-0.957922,-0.106312,0.418449,0.901997
0.132154,0.036350,0.369055,0.969420,0.204902,-0.135053
0.127240,0.048375,0.270038,0.808071,0.144591,-0.571064
0.172758,0.104425,0.259901,0.128120,-0.991710,-0.009778
0.167328,0.107507,0.206712,-0.101240,0.990163,0.096577
-0.077759,0.023340,-0.944590,0.108100,0.336487,0.935463
-0.040517,0.071005,-0.962505,-0.357525,0.496537,0.790966
0.189138,0.130198,0.423724,-0.347265,0.937285,-0.030064
0.135601,0.098565,0.238838,0.752000,-0.629024,0.197039
0.131639,0.102637,0.188659,-0.448193,0.880381,-0.155089
0.068104,0.147834,-0.504826,0.292883,0.955291,0.040489
-0.092934,0.032959,-0.948895,-0.150424,0.555199,0.818002
-0.052761,0.083951,-0.966300,-0.103220,0.044557,0.993660
0.003275,0.150916,-0.967550,0.197576,0.108578,-0.974256
0.066984,0.226270,-0.964125,-0.382283,0.243359,0.891423
0.071550,0.081242,0.222544,0.303411,-0.318603,0.898017
-0.144914,0.026791,-0.956163,0.104762,-0.155899,-0.982202
-0.088619,0.094437,-0.959495,0.157959,0.097327,0.982637
-0.039654,0.154495,-0.969170,-0.203371,0.280495,0.938063
0.006291,0.210974,-0.979725,0.277242,-0.133290,-0.951510
0.082153,0.108064,0.360398,0.751398,0.652842,-0.095908
0.085084,0.127179,0.269298,0.964183,0.233747,0.125353
-0.136984,0.073101,-0.964264,-0.273893,-0.033492,0.961177
-0.070777,0.151104,-0.958847,0.092381,0.126598,0.987643
-0.035435,0.196549,-0.978336,-0.137164,0.152702,0.978707
0.028621,0.089687,0.377109,-0.084405,0.492159,-0.866404
-0.146034,0.109050,-0.961301,0.889760,-0.363320,-0.276270
-0.096554,0.169726,-0.970328,-0.434421,0.340345,0.833932
-0.043706,0.233360,-0.974170,-0.132280,0.292950,0.946933
-0.154658,0.123725,-0.967041,0.449270,0.150620,-0.880608
-0.108103,0.180945,-0.976716,-0.395058,0.201027,0.896391
-0.054313,0.245938,-0.981900,-0.006068,0.775903,0.630823
-0.162330,0.112686,-0.972226,0.225043,0.017742,0.974187
-0.105262,0.180825,-0.972781,-0.350798,0.009723,0.936401
-0.056207,0.240575,-0.980327,-0.137798,0.618713,0.773437
-0.088019,0.247296,-0.978799,-0.246719,0.000855,0.969087
-0.060775,0.074828,0.389885,-0.584505,0.362979,-0.725672
-0.143619,0.189086,-0.979864,-0.650707,0.097079,0.753098
-0.088019,0.255990,-0.983659,-0.219758,0.354333,0.908930
-0.115864,0.258764,-1.000000,-0.103419,0.014786,0.994528
-0.162672,0.169229,-0.460387,-0.572721,-0.068176,-0.816910
-0.511898,0.308032,-0.410115,0.955607,0.149474,-0.253914
-0.332586,0.436843,-0.449369,-0.171002,0.551536,-0.816435
-0.145345,0.202898,-0.988011,-0.409624,0.323176,0.853092
0.081553,0.198581,-0.953756,0.478317,-0.156563,-0.864118
-0.043190,0.082288,-0.967411,0.041362,0.358862,0.932474
-0.131554,0.002806,-0.958061,-0.018602,-0.669711,0.742389
-0.030173,0.222013,-0.971902,0.287710,-0.014749,-0.957604
-0.115001,0.146106,-0.960745,-0.014379,-0.103206,0.994556
0.080858,-0.015632,-0.897142,-0.292585,-0.188936,0.937389
-0.005948,0.002746,-0.950608,-0.526452,-0.120405,0.841636
0.204481,0.091968,0.108761,0.877704,-0.464527,-0.117689
0.047242,0.207768,-0.950237,-0.169446,-0.250641,-0.953135
0.254482,0.111576,-0.916214,0.305624,-0.096604,-0.947239
0.320000,0.081362,-0.869923,0.665747,-0.387087,0.637922
0.106809,0.226390,-0.953756,0.473139,-0.312422,-0.823731
0.305083,0.134270,-0.920842,0.179678,-0.343573,-0.921777
0.452241,0.066195,-0.880246,-0.253903,0.162455,0.953489
-0.357327,-0.035364,-0.597593,-0.050265,0.918257,0.392782
-0.138279,-0.031725,-0.948432,0.446838,0.527278,0.722713
-0.061038,-0.049297,-0.940794,0.020348,-0.087803,0.995930
0.028100,-0.096224,-0.916862,-0.230593,-0.104285,0.967446
-0.058275,-0.010020,-0.945377,0.391331,-0.169552,-0.904495
0.037155,-0.060275,-0.923065,0.169538,-0.045851,-0.984457
0.131896,-0.110097,-0.900151,0.414977,-0.235848,-0.878732
0.130949,-0.076119,-0.916492,-0.166156,0.299673,0.939462
-0.123362,0.057561,-0.950469,-0.215605,0.041755,0.975588
0.074913,0.001142,-0.923250,-0.124639,0.057554,0.990531
0.146897,-0.036719,-0.895337,-0.002955,0.860162,0.510012
-0.155605,0.122614,-0.960236,0.786491,-0.260163,-0.560131
-0.035519,0.059534,-0.943942,0.132214,-0.098577,-0.986307
0.335428,-0.102140,-0.881727,0.179603,-0.309043,-0.933935
-0.090692,0.122430,-0.965235,-0.435291,-0.044935,0.899168
0.005001,0.072115,-0.941442,0.232363,0.117940,-0.965452
0.180861,0.022538,-0.895845,-0.410510,-0.448419,0.793979
0.133449,0.044984,-0.436964,0.919559,0.266870,-0.288430
0.102152,0.060027,-0.205879,0.988755,-0.139696,-0.053371
-0.084142,0.162079,-0.971346,-0.144689,0.378078,0.914397
0.068704,0.108926,-0.947691,0.558833,-0.413838,-0.718640
0.136895,0.072792,-0.917417,-0.451324,0.418942,0.787905
0.132154,0.073225,-0.465942,0.914058,0.207396,0.348547
0.132238,0.073161,-0.420530,0.041334,0.572388,0.818940
0.147671,0.064652,-0.380350,0.843687,-0.310913,-0.437636
0.140431,0.068107,-0.335262,0.945583,-0.290952,0.145672
0.173448,0.050715,-0.296285,-0.537624,0.636479,0.553042
0.129308,0.073534,-0.243699,-0.056182,0.874277,0.482166
0.128708,0.073778,-0.198241,0.959287,-0.239330,-0.149964
0.144740,0.064961,-0.156348,0.950720,-0.057949,-0.304586
0.154743,0.059225,0.017429,0.982089,-0.185032,0.035565
0.142415,0.104365,0.137091,0.995936,0.089958,0.004258
0.149655,0.100232,0.178428,-0.249011,-0.841035,0.480263
0.175431,0.086665,0.218100,0.153065,0.870364,0.468015
0.353964,0.033637,-0.886726,-0.173606,0.394712,0.902255
0.518880,0.127488,-0.891402,0.399616,-0.209271,-0.892476
0.421119,0.201110,-0.915010,0.198519,-0.037371,0.979384
0.533965,0.141978,-0.894411,0.327952,-0.400998,-0.855364
0.449137,0.205672,-0.907604,-0.049780,0.107715,0.992935
0.248363,0.185695,-0.930055,0.680481,0.041682,-0.731580
0.316638,0.158010,-0.913529,0.342718,-0.228287,-0.911279
0.393190,0.123973,-0.901400,0.453810,-0.156326,-0.877279
0.481465,0.082348,-0.892791,-0.251119,0.359614,0.898675
0.084310,0.493571,0.211388,0.304886,0.675092,-0.671785
0.149565,-0.055157,-0.349474,0.925172,0.345123,-0.157948
-0.229742,-0.372099,-0.065247,0.345723,-0.546730,0.762602
-0.434568,-0.368520,0.557135,0.977999,0.187445,0.091559
-0.225001,-0.822354,0.245272,-0.243558,0.704590,0.666507
-0.053277,-0.914967,0.310312,0.358557,-0.745534,-0.561798
0.200603,0.195992,-0.438352,0.983495,-0.175897,-0.042409
0.193879,0.224049,-0.139822,-0.122615,-0.263458,0.956846
0.183014,0.237368,-0.048953,0.868710,0.438967,0.229457
0.456203,0.084015,-0.037056,0.943549,-0.034540,0.329428
0.391895,0.255249,0.134406,-0.396084,-0.911488,0.110940
0.669568,0.091475,0.032010,0.230527,-0.720183,0.654365
0.348187,0.209928,-0.912881,-0.005810,0.006666,0.999961
0.384913,0.190072,-0.901215,0.297247,-0.183782,-0.936946
0.441292,0.158319,-0.900382,0.062034,0.055855,0.996510
0.490688,0.130815,-0.895383,0.418141,-0.165783,-0.893126
0.530345,0.108802,-0.886448,-0.476205,0.318306,0.819701
0.770945,0.215664,0.275130,-0.368471,-0.866248,0.337408
-0.376637,0.248527,-0.419558,0.146031,-0.392643,0.908023
-0.383277,0.256175,-0.385395,0.129392,-0.646458,0.751897
-0.147503,0.122245,-0.391228,0.207732,0.581948,0.786247
-0.031467,0.053309,-0.423169,0.538773,-0.509349,0.671034
0.105257,-0.015075,-0.344242,0.878587,0.299227,0.372220
0.083621,0.001696,-0.302720,0.572911,0.647690,-0.502266
0.160173,-0.042823,-0.312950,0.761178,0.436081,-0.480043
0.303963,-0.128843,-0.357158,0.907900,0.417881,-0.033065
0.076207,0.016185,-0.210832,-0.802815,0.573575,0.162785
0.113360,-0.003607,-0.200463,-0.736886,0.545930,-0.398698
-0.042501,0.096469,-0.092003,-0.158121,0.954958,-0.251104
0.112844,0.006630,-0.110520,0.836923,-0.518239,-0.176036
-0.044227,0.107383,-0.003912,0.118703,-0.934856,0.334595
0.000603,0.101896,0.173892,-0.444020,0.688409,-0.573533
0.032583,0.085370,0.186206,-0.079512,0.708318,0.701401
0.103963,0.044427,0.180928,-0.633887,-0.515100,-0.576939
-0.124051,0.045044,-0.964079,0.030654,0.995116,0.093832
-0.091639,0.028025,-0.951395,0.314495,-0.363056,-0.877088
-0.046637,0.003483,-0.944497,-0.131358,0.165368,0.977445
-0.015261,-0.012670,-0.929823,-0.217496,0.290069,0.931963
0.048531,-0.048988,-0.933434,-0.015093,0.271948,0.962194
0.078790,-0.064468,-0.918991,-0.435436,0.241770,0.867146
0.112760,-0.082348,-0.906956,0.247306,-0.255586,-0.934620
0.566893,-0.090304,0.130471,0.590314,0.649233,0.479611
0.158963,0.166211,0.402060,0.303079,-0.811014,-0.500399
0.066120,0.225468,0.472284,0.563151,0.350606,-0.748289
0.221550,0.133468,0.429372,-0.244934,0.948669,-0.200086
0.344309,0.064159,0.428770,0.820549,-0.345706,-0.455178
0.231636,0.135007,0.505937,0.124060,0.977624,0.169882
0.245085,0.134763,0.581669,0.548704,-0.815795,0.182764
0.204139,0.195254,0.969680,0.813878,-0.522396,0.254372
-0.010689,0.130939,-0.958847,-0.140933,0.331520,0.932862
0.033619,0.106706,-0.951626,-0.082403,0.185955,0.979097
0.108361,0.066628,-0.929175,0.740098,-0.086395,-0.666926
0.318274,0.176508,0.141442,-0.467108,0.493731,-0.733512
0.256897,0.215784,0.198935,-0.677307,0.611235,-0.409448
