-0.356810,-0.498810,-0.304252,0.485350,-0.824141,-0.291937
-0.558352,-0.206067,0.482297,-0.009384,-0.982894,-0.183935
-0.159885,0.300330,0.641492,0.928643,-0.002713,-0.370966
0.346832,0.678849,0.281844,0.415225,0.203239,0.886726
0.635222,0.025462,0.144568,0.385321,-0.476983,-0.789946
-0.368729,-0.158534,0.539581,-0.615808,0.787322,-0.030065
0.394634,0.026139,-0.984138,0.361626,-0.298381,-0.883287
0.331751,0.094716,0.321473,0.575525,-0.797278,-0.181988
-0.575501,-0.398324,-0.193622,-0.138351,0.922565,0.360185
-0.041538,0.072759,0.405701,0.896960,0.029138,0.441151
0.231407,0.237182,0.395787,-0.529430,0.214163,-0.820877
0.658819,-0.017201,0.567830,0.764001,-0.130841,-0.631809
-0.538769,0.317639,0.359662,0.663086,-0.145599,-0.734246
0.319954,0.606086,0.501772,-0.224476,0.927851,-0.297832
0.108312,0.399229,0.597110,0.915576,0.011549,-0.401978
-0.123275,-0.234018,0.842570,-0.135947,0.977038,0.164060
-0.568813,0.315153,0.224016,-0.295201,-0.912035,0.284692
-0.324212,0.119498,0.706843,0.507904,0.494938,0.705032
0.048836,-0.535817,0.636712,0.369484,-0.876899,0.307457
0.505684,0.015620,-0.408146,0.306817,-0.886242,0.347042
0.294167,0.042888,-0.404669,0.135532,0.948524,0.286240
0.202821,-0.278263,0.486344,-0.299189,-0.391747,0.870069
0.251350,-0.318772,0.484715,-0.334781,-0.553562,0.762556
0.134830,0.117122,0.630573,0.360227,0.920878,0.149061
0.770236,0.638341,0.361536,-0.107656,-0.986088,0.126655
-0.501308,0.321493,0.229313,-0.555864,-0.822621,0.119627
0.238945,-0.062807,0.742887,-0.917096,0.257662,-0.304212
-0.288452,-0.157968,0.401029,0.363671,0.926844,0.093293
0.289060,0.332696,0.326796,0.056927,-0.414560,0.908240
0.146994,-0.895777,0.286597,-0.596092,0.356057,0.719651
0.194792,-0.307907,-0.844716,0.635510,0.771834,0.020007
-0.290883,-0.094377,0.579672,0.369696,0.924560,-0.092270
0.124247,0.406702,0.615363,0.889314,0.285356,-0.357341
0.336858,0.407040,0.588011,-0.430429,0.902594,0.007386
0.252446,0.435213,0.679654,0.892963,-0.325962,-0.310429
0.438056,0.283692,0.325818,0.164639,0.671049,-0.722902
0.131300,-0.264118,0.456684,0.412094,-0.909034,0.061930
-0.228244,-0.207759,0.145166,-0.074309,-0.926780,0.368181
0.334304,0.736790,0.494928,-0.119726,-0.982873,-0.140093
0.070484,-0.165552,-0.508807,0.935363,-0.353667,0.004056
0.499845,-0.029192,0.467712,-0.516671,-0.264638,0.814259
-0.132276,0.476066,0.661972,0.574630,-0.330863,0.748552
0.003465,-0.272261,0.627803,0.744186,0.667533,0.024231
-0.222769,0.034061,-0.323999,0.270700,0.167264,0.948021
0.699078,0.414845,0.189602,0.163103,0.499142,0.851032
0.814875,0.584924,0.318458,0.959013,0.009342,0.283208
0.014170,0.034517,0.981258,0.774953,0.620374,-0.120768
0.064767,-0.213644,0.537517,-0.153301,0.648255,0.745831
-0.860974,-0.130134,0.366588,0.836940,-0.072069,0.542529
0.005532,-0.419148,0.553434,0.493138,0.834264,-0.246613
0.017088,-0.101954,0.914631,0.835411,0.443366,0.324831
0.109774,0.373094,0.641899,0.616486,-0.125601,-0.777283
0.125828,-0.359736,0.698967,-0.312263,0.841766,0.440365
0.628047,-0.033156,0.581275,-0.537769,0.069631,0.840212
-0.024876,-0.533095,0.619464,0.645396,0.730212,-0.224173
-0.681688,-0.181506,0.413306,0.085934,0.906433,0.413515
-0.183727,-0.107162,0.616612,-0.256016,-0.088665,0.962598
-0.143709,-0.622835,-0.160893,0.979927,-0.198812,0.014723
0.087391,0.006337,0.679709,0.893921,0.266010,-0.360755
0.413973,-0.468372,0.514837,0.465646,-0.407826,-0.785399
0.532929,0.601790,0.059878,0.418170,-0.903734,-0.091638
0.272393,-0.111803,0.699211,-0.657087,0.528047,-0.537961
-0.026089,-0.086455,0.939375,-0.044043,-0.998846,-0.019158
0.160980,0.028860,0.771135,0.760510,0.436598,-0.480631
0.452165,0.580061,0.426208,0.903746,-0.269539,0.332552
0.121816,-0.345024,0.560876,0.970486,0.061939,0.233066
0.184454,0.235262,0.387204,-0.159162,0.388622,0.907546
-0.436112,-0.021048,0.639998,0.949672,0.265098,0.166871
-0.015874,0.039379,0.970584,0.502576,0.854318,0.132508
0.154410,-0.133870,0.575245,-0.509612,0.263706,0.818996
0.431003,-0.152539,-0.278693,-0.548957,0.524110,-0.651118
0.173144,-0.201654,0.678785,0.970627,-0.087054,-0.224289
0.501307,-0.052730,-0.441528,-0.275444,0.936651,-0.216369
0.311316,0.144618,0.684761,-0.629312,0.478272,0.612554
0.760989,0.965259,0.060095,0.826674,-0.561612,0.034662
0.361795,0.448909,0.554167,-0.579827,-0.002684,-0.814735
0.356565,-0.077290,0.758288,0.464425,-0.601547,-0.649962
-0.418231,-0.193959,0.180856,-0.309641,-0.950462,0.027300
0.465788,0.557546,-0.223881,0.214958,-0.949534,-0.228427
0.682052,0.572596,-0.173713,0.599130,0.642090,0.478293
-0.237851,0.209576,0.232165,0.189090,0.962383,-0.195102
0.460803,-0.090302,0.122024,0.433050,0.620529,-0.653767
0.249769,0.024785,0.462306,0.064324,0.996261,-0.057683
-0.036549,-0.163970,-0.407874,0.361162,0.902771,0.233596
-0.326644,0.068236,0.704154,0.537081,0.623915,0.567692
0.158790,-0.464753,-0.090897,0.807321,-0.183651,-0.560807
-0.000670,0.039717,0.803322,0.526842,0.679560,0.510525
0.167060,-0.278146,-0.473687,0.886286,0.456139,-0.080216
0.681202,-0.110214,0.594502,0.875022,0.230671,-0.425590
-0.019278,-0.500509,0.713335,0.849925,-0.031969,0.525933
0.420544,0.166802,0.661211,-0.503438,0.477134,-0.720343
0.155264,0.102072,0.708392,-0.043647,-0.998670,0.027429
-0.419571,0.093017,0.389974,0.872352,-0.481092,0.086908
0.501794,-0.081814,0.510573,-0.350928,0.884124,0.308504
-0.308763,-0.053524,0.848492,0.807547,-0.589250,0.025546
-0.405217,-0.182756,0.158991,0.143605,0.975247,0.168138
-0.111964,0.367209,0.642443,-0.689146,0.220487,-0.690263
0.127410,-0.549167,0.556748,0.344549,-0.938584,0.018600
-0.693971,-0.215799,-0.006641,0.346871,-0.053868,0.936365
0.193211,-0.138622,0.830511,0.095556,-0.333366,0.937943
-0.595330,-0.104896,0.381772,-0.345956,0.622415,0.702079
0.124856,-0.391534,0.501338,-0.697487,0.711463,0.085625
-0.558111,0.332806,0.215732,0.272740,0.869959,-0.410835
-0.780451,-0.235711,0.504570,0.216415,0.963937,-0.154886
-0.132762,0.304516,0.622696,-0.085394,0.527073,0.845518
-0.195037,-0.702277,0.157416,0.194518,-0.834030,0.516291
-0.165602,-0.367091,-0.679817,-0.818006,0.295324,0.493608
-0.168523,-0.853798,0.462931,-0.695408,0.158117,0.701005
0.022804,-0.199499,0.569568,0.221087,0.918880,0.326772
-0.289060,-0.059409,0.817229,0.836996,-0.045262,0.545333
0.353157,-0.048316,0.629949,0.811758,0.289086,0.507424
0.330169,0.527556,0.545095,0.945573,0.029674,-0.324055
0.288206,0.002946,0.757744,0.454711,0.648305,-0.610687
-0.295504,-0.272827,0.756169,0.965338,-0.147777,0.215139
0.295018,0.133415,0.681909,0.459932,-0.679418,-0.571711
0.402541,0.165780,0.301536,0.897041,0.312314,0.312692
0.196618,0.060431,0.914576,-0.014483,-0.888758,0.458148
0.622572,0.061674,0.560360,-0.677821,0.256209,0.689141
-0.409111,-0.118592,0.299119,0.484181,0.773612,0.408770
0.187376,0.284258,0.655290,-0.581387,0.425629,-0.693418
-0.159644,0.319905,0.630329,0.989177,-0.019023,0.145490
0.156114,-0.306436,-0.777437,0.682157,0.726111,-0.086168
0.200753,0.064499,0.618079,0.821076,0.408101,0.399109
-0.133248,-0.232996,-0.306425,-0.179751,0.323180,0.929109
0.063431,0.157070,0.915391,0.824939,0.502088,0.259584
0.594113,-0.630191,0.348933,0.869223,0.431219,-0.241871
0.011249,-0.775488,0.233849,0.448216,0.866793,0.218567
0.483427,0.812716,0.360667,-0.368381,0.811276,-0.454011
-0.194306,-0.524952,0.217986,0.946337,0.036119,0.321158
-0.096516,-0.822565,0.493325,0.977512,-0.207331,-0.038523
-0.253177,0.036775,0.685331,-0.730766,0.612945,-0.300465
-0.715623,-0.281316,0.542868,0.565437,0.798909,-0.205000
-0.219365,0.196336,0.537734,-0.526785,-0.737002,-0.423469
0.469195,0.614347,0.274075,0.722698,0.305061,0.620198
-0.873747,0.158196,0.398503,0.064473,-0.858625,0.508534
0.119140,-0.148354,0.310526,0.792202,-0.129053,-0.596458
-0.565772,0.053641,0.649505,0.795950,-0.387006,0.465499
0.532443,0.115194,-0.177760,-0.294947,0.454167,0.840677
-0.127046,-0.098335,0.420124,-0.607578,0.790508,-0.077105
0.099191,-0.118026,0.781348,-0.696684,0.536834,0.475858
-0.174481,0.504584,0.662054,-0.453680,0.657127,0.601962
-0.279450,0.109538,0.587277,-0.582605,-0.646548,-0.492490
-0.007359,-0.328841,0.688238,0.859655,0.480300,-0.174084
-0.829593,-0.134209,0.444352,0.855793,0.029740,0.516463
0.649331,0.315380,0.359771,0.521234,0.829501,0.200606
-0.393298,-0.209797,0.294691,0.942156,-0.182264,0.281287
-0.879704,0.003395,0.236266,0.962468,-0.195813,0.187915
0.511890,0.645013,0.272446,0.754508,0.195335,0.626547
0.538768,-0.547586,0.545041,0.877984,0.336267,-0.340688
-0.021591,-0.367430,0.720424,-0.029698,0.958231,0.284450
0.667820,0.073443,0.593769,0.304013,-0.778649,0.548891
-0.524659,-0.075591,0.560686,0.125438,0.621595,0.773230
0.086419,-0.126397,-0.438757,0.437954,0.882231,0.172814
-0.135925,0.158880,0.803213,-0.453508,-0.875344,-0.167640
0.188467,-0.205383,0.769234,-0.002073,-0.968615,0.248558
-0.083501,-0.364038,-0.524860,-0.448856,0.249144,0.858170
0.463115,0.014370,0.447992,-0.463462,-0.356315,0.811322
-0.084597,0.078872,0.951000,-0.516645,0.819805,-0.246978
-0.263273,0.357816,0.359065,-0.335647,0.488726,-0.805288
-0.099433,-0.614236,0.549686,-0.707767,0.596554,0.378404
0.128018,-0.058504,0.667948,0.428705,0.901293,0.062312
-0.007723,-0.537626,0.430120,0.352627,0.355185,-0.865735
-0.121816,0.364605,0.339698,-0.548341,0.745577,-0.378730
-0.689595,-0.031685,0.063762,0.104918,0.935962,-0.336106
-0.101990,-0.095393,0.483329,0.442631,0.576177,-0.687094
-0.046646,0.010640,-0.658496,0.379434,0.634444,0.673432
-0.800281,-0.257101,0.502125,-0.551344,-0.831937,0.062448
-0.618074,-0.363472,-0.173876,-0.370075,0.898738,0.235189
0.734839,0.570896,0.405321,0.778035,-0.393189,-0.489964
-0.194187,-0.558899,0.399698,0.099810,0.909737,0.403010
-0.135561,0.423106,0.389431,0.800288,0.442316,-0.404840
0.283585,-0.148354,0.792946,0.684505,-0.439678,-0.581495
-0.169737,-0.691185,0.112925,0.846345,-0.532537,-0.010226
-0.233107,0.142697,0.852647,-0.692728,0.548771,0.467952
0.082039,0.056128,0.732158,-0.155568,0.714648,-0.681966
-0.021345,0.132848,-0.012508,0.922432,0.077532,-0.378297
0.496318,-0.277131,-0.981476,0.050921,0.019486,0.998513
-0.202698,-0.110781,0.477109,-0.071049,0.851985,0.518723
-0.482455,-0.107839,0.039289,-0.107455,-0.942116,0.317603
0.351576,0.351137,0.339535,-0.096311,-0.843179,0.528937
0.148575,-0.212518,-0.951543,-0.822618,-0.257052,-0.507172
0.126801,-0.735319,0.480369,0.002872,0.452099,0.891963
0.495955,-0.316506,-0.281817,-0.630585,0.649048,-0.425558
0.474671,0.266943,0.156655,0.443323,0.299473,-0.844855
0.381866,0.176306,0.676965,-0.489068,0.531222,-0.691821
-0.293318,0.098791,0.796287,0.945691,0.195412,0.259775
-0.409720,-0.119725,0.511170,0.290121,-0.920116,0.263090
0.051631,-0.120064,0.754186,0.672017,0.688481,-0.272741
-0.363622,0.145640,0.678677,0.904743,0.284125,-0.317355
-0.377972,-0.738143,0.480776,-0.504155,-0.282346,-0.816155
-0.217539,-0.758740,-0.004577,0.500794,0.865515,0.009378
0.133612,0.406702,0.541320,0.839200,0.307825,-0.448316
0.045064,-0.479913,-0.985387,-0.247586,-0.041336,0.967984
-0.151006,0.067787,0.918651,-0.243152,0.002107,-0.969986
-0.041661,-0.355094,0.413768,0.942116,-0.315164,0.114405
0.073041,-0.176188,0.232111,-0.692380,0.721524,0.003730
0.483182,0.006109,-0.983866,-0.164543,0.167079,0.972116
-0.349268,0.134209,0.724634,0.752373,-0.463173,-0.468407
-0.341725,-0.679187,0.455842,-0.482913,-0.473359,-0.736700
-0.061241,0.296483,0.722081,0.887050,0.176391,-0.426649
0.331142,0.470071,0.609007,0.605525,-0.749356,-0.267962
0.538159,-0.088265,0.657491,-0.647401,0.620640,0.442355
-0.311803,-0.056577,0.537979,-0.671508,0.705965,-0.225146
-0.564555,-0.214438,0.489740,0.098841,0.994257,-0.041040
-0.012834,0.076047,0.953635,0.535434,-0.670196,0.513953
0.004560,-0.060652,-0.108090,-0.217308,-0.266086,-0.939135
0.534997,-0.038474,0.528445,-0.287075,-0.860135,-0.421611
-0.149548,-0.369129,0.058004,0.822015,0.476833,-0.311324
0.566868,-0.026028,0.591949,-0.095664,-0.968524,0.229803
-0.688986,0.066536,0.112490,0.288676,-0.945184,0.152624
-0.855013,0.074687,0.231948,0.860415,-0.344396,0.375602
-0.039593,0.274078,0.430092,0.921984,-0.226678,-0.313947
0.337835,0.568403,0.087827,0.450296,-0.840102,-0.302426
0.452165,-0.464408,0.307593,0.800597,0.585965,0.125261
0.040684,-0.091656,0.939294,0.634141,0.533612,-0.559574
-0.075109,0.242051,0.799573,-0.699711,0.712304,-0.055020
-0.088732,-0.634038,0.507503,0.901571,0.307126,-0.304702
-0.652253,-0.046168,0.033232,0.501308,0.811039,-0.301507
0.417745,-0.463731,0.511387,0.421415,-0.209221,-0.882404
-0.554217,-0.223831,0.298005,-0.346073,-0.760093,0.549993
-0.717204,-0.226773,0.530944,-0.033475,-0.995011,0.093978
-0.055889,0.180263,-0.363546,0.326624,0.176319,0.928562
0.170954,-0.419824,0.565304,0.679450,0.656544,0.327562
0.536823,0.908679,0.409830,-0.105417,-0.985551,-0.132575
0.681443,0.183662,0.517526,0.757427,0.182960,-0.626761
-0.357902,-0.084079,-0.041435,0.056482,0.826569,0.559994
-0.727178,-0.208104,0.584344,-0.381988,0.902074,-0.200869
0.120353,-0.250650,-0.547947,0.957748,-0.285631,0.033663
0.229825,0.074576,0.778116,0.807869,-0.429011,0.404101
0.842121,0.549395,-0.045211,0.048465,-0.997880,0.043434
-0.204525,-0.034171,0.722543,-0.482469,-0.848947,-0.215669
-0.025848,-0.090530,0.740551,-0.179372,0.685571,0.705563
0.668670,-0.076157,0.590808,0.866319,0.044621,-0.497495
0.138720,0.094150,0.764698,0.833120,0.481723,0.271761
0.193579,0.268870,0.635218,0.650005,-0.756779,0.069134
-0.123761,0.290937,0.642905,0.057673,-0.361380,0.930633
-0.346469,-0.211268,0.095188,0.358115,0.918017,0.170287
-0.065012,-0.926560,0.481510,-0.038984,0.656812,0.753046
-0.536459,0.104675,0.485040,-0.445090,-0.752743,-0.485049
0.024267,-0.091773,0.788464,0.978429,-0.027704,0.204719
-0.115005,0.282677,0.482949,0.893451,-0.261186,-0.365413
-0.054916,0.172569,0.640161,0.667246,-0.022044,0.744512
0.120721,0.345142,0.639672,-0.454013,0.083158,0.887106
-0.388432,0.210591,0.675580,0.648514,0.758440,0.064799
0.262056,-0.702159,0.532737,-0.259610,-0.945046,0.198724
0.021345,-0.038018,0.890565,0.674716,0.554463,-0.487164
0.045187,-0.008941,0.805277,-0.597594,0.073955,-0.798381
0.686432,0.503341,0.472981,-0.390909,-0.875917,-0.282771
0.155505,0.056017,0.701357,-0.135657,-0.977887,-0.159166
-0.345983,-0.242161,0.366778,0.094491,0.128890,0.987147
-0.440855,0.065293,0.669197,0.027607,-0.585768,0.810008
0.601652,0.139866,0.529613,-0.656479,-0.259926,0.708148
0.022563,-0.814643,0.459373,-0.315412,0.582286,0.749305
0.067689,0.282000,0.347385,0.273128,0.121136,-0.954320
0.225081,-0.090075,-0.093287,0.083058,-0.184194,0.979374
-0.357174,0.175284,0.569432,-0.122783,-0.955308,0.268906
-0.545825,0.088376,0.343745,-0.112978,0.882582,0.456382
-0.464088,0.567616,0.252971,-0.246022,-0.504000,0.827923
0.499481,-0.160006,0.404615,0.280806,0.930900,0.233608
-0.096152,0.152657,0.624489,0.902071,-0.014039,-0.431359
0.754909,-0.101505,0.126967,0.174072,-0.549855,0.816920
-0.682783,-0.257211,0.191314,0.855535,-0.469218,0.218847
0.159522,-0.673869,0.527522,-0.554432,-0.830889,0.047208
0.152951,-0.009279,0.567178,0.701151,0.305083,0.644447
-0.732894,-0.227789,0.544308,0.233333,0.940779,-0.245950
0.157454,-0.139638,-0.539744,0.970890,-0.148735,-0.187753
0.729609,0.506056,0.459672,-0.580462,-0.758284,-0.296765
-0.329075,-0.727507,0.456711,0.573062,0.320894,0.754074
-0.619900,0.047412,0.374845,0.261721,0.929236,0.260811
0.011739,0.497906,0.519509,0.522664,0.837233,-0.160821
-0.368361,0.201315,0.730365,0.155517,0.735494,0.659441
0.140910,-0.135908,-0.328752,-0.638172,0.717511,-0.279133
0.239068,-0.843949,0.325981,0.825590,-0.263312,-0.499068
-0.463238,0.055900,0.637418,0.919185,0.279867,0.277079
0.549228,-0.013015,0.621447,-0.491945,-0.359460,-0.792956
-0.658942,-0.046279,0.629622,0.144708,0.933360,-0.328478
0.102595,-0.131715,0.747613,-0.380319,0.903724,-0.196573
0.566622,0.324774,0.382152,0.062633,0.894270,0.443123
0.279086,0.656561,0.525403,0.934653,0.184188,-0.304135
0.439274,-0.151973,0.516467,0.460845,0.579171,-0.672445
-0.038253,-0.414396,0.588255,-0.707744,-0.691936,-0.142561
-0.156114,0.533323,0.456955,0.297035,0.940990,0.162197
0.366780,-0.095282,0.649233,-0.549810,0.604323,0.576630
0.257434,0.670250,0.448209,0.820348,-0.466244,0.331128
0.007967,0.517031,0.523501,0.581864,0.730425,-0.357650
-0.105394,-0.183316,0.464072,-0.268902,-0.551753,0.789469
0.000547,0.340611,0.816957,0.905521,-0.396803,0.150267
-0.282249,0.032590,0.480233,0.265070,0.834642,0.482816
0.019278,0.378184,0.345674,-0.243454,-0.928923,0.278986
0.070851,0.292181,0.628373,0.154920,0.951619,0.265369
0.165238,-0.263324,0.735091,-0.530732,0.323909,-0.783203
-0.172780,0.504128,0.478495,0.325090,0.944668,-0.043806
0.003588,0.037459,0.825459,-0.306972,0.945760,0.106327
0.104054,0.025800,0.639835,0.539440,0.267116,-0.798532
0.334550,0.325561,0.574457,0.946386,-0.234575,0.222101
0.136288,-0.455242,0.569948,-0.602236,-0.605714,-0.520022
0.258162,0.273284,0.390518,-0.564979,0.695442,-0.444026
0.194428,-0.609705,0.616585,-0.533830,0.802803,0.265581
0.105272,0.439971,0.499165,0.424887,-0.706317,0.566205
0.399378,-0.274188,-0.975636,-0.171256,0.047093,0.984100
-0.583167,0.162610,0.443239,-0.466795,0.834778,-0.291973
-0.335281,-0.346495,0.386634,0.100118,-0.224708,0.969269
0.165724,-0.497906,0.464669,-0.248759,-0.457278,0.853824
-0.773035,-0.141903,0.353795,0.072612,-0.628228,0.774633
-0.101015,-0.417904,0.434791,0.998121,0.013719,-0.059724
-0.021104,0.086566,0.643040,0.792288,0.252224,0.555575
0.224105,-0.033384,0.623973,0.841983,0.441654,0.309849
0.410570,0.124367,0.439137,0.819195,0.367230,-0.440524
-0.180564,-0.583908,-0.189032,0.885656,-0.400758,-0.234535
0.721461,0.005888,0.491369,-0.411325,0.161425,0.897081
-0.051512,0.264457,0.639129,0.172348,0.558872,0.811146
0.034846,-0.254497,0.349177,0.203251,0.966821,-0.154748
0.330169,-0.003623,0.525702,0.710999,0.304305,-0.633939
0.499603,0.504812,0.508698,-0.430748,0.229841,0.872714
0.722189,0.312100,0.314248,0.869983,-0.329729,-0.366618
-0.166333,-0.249289,-0.525620,0.539395,-0.431500,0.723091
0.048591,-0.257667,0.204080,0.963801,0.228471,0.137437
-0.497659,-0.138056,0.578423,0.563071,0.676007,-0.475358
-0.032901,-0.743123,0.211603,0.620363,0.784298,0.005168
-0.258652,-0.198594,0.826871,0.803253,-0.587344,-0.099052
0.510795,0.596016,-0.325764,0.890151,-0.332125,0.311968
0.095543,-0.351813,0.675662,0.952366,-0.277877,0.125630
-0.079730,0.369129,0.370309,-0.472069,-0.839996,0.267503
0.260597,0.324435,0.383890,0.964293,-0.183402,0.191057
-0.256584,-0.643093,-0.193622,0.933987,-0.145358,-0.326403
-0.152951,0.059975,0.812258,0.527207,0.097431,0.844132
0.309008,-0.296932,0.690329,0.802688,0.036395,-0.595288
-0.371769,-0.415301,-0.258213,0.770250,-0.425970,0.474619
-0.106367,-0.585608,0.528336,-0.146420,0.597349,0.788502
-0.688014,-0.166235,0.353714,0.092175,-0.966797,0.238343
-0.066471,0.215681,0.645458,-0.276208,0.315117,-0.907970
-0.605546,-0.170421,0.307050,-0.200521,0.880785,0.428964
-0.324331,-0.500171,0.145981,-0.598000,-0.796146,-0.092456
0.204888,0.038592,-0.633289,-0.340860,0.497514,0.797680
0.083501,0.547586,0.442152,0.352393,-0.925077,0.141602
-0.529889,0.407489,0.619192,-0.249453,0.743254,-0.620763
-0.067566,0.002490,0.873291,0.569011,-0.732695,0.373343
-0.026457,-0.373542,-0.986881,-0.292378,0.112697,0.949639
0.174603,-0.160572,0.696603,0.445507,-0.308558,-0.840426
-0.143831,0.172459,0.525702,0.821621,0.418021,0.387553
-0.350240,0.281434,-0.126126,-0.608809,-0.676345,0.414620
-0.033023,-0.065749,0.665096,0.390328,0.009220,-0.920630
0.051026,-0.248384,0.679003,0.779849,-0.183448,0.598484
-0.013439,-0.011427,0.986093,0.671459,0.738007,0.066992
-0.330537,0.044925,0.834639,0.876440,-0.170946,-0.450145
0.277746,0.003395,0.851126,0.926427,-0.066101,-0.370625
0.225323,-0.248951,0.137669,-0.806750,0.565716,-0.170645
-0.034604,-0.075591,0.893635,0.595077,0.608208,0.525324
-0.015021,0.412020,0.455461,0.892232,0.028398,0.450684
0.575624,-0.379883,-0.987071,0.090318,0.032969,0.995367
-0.090554,-0.179586,0.839284,-0.360536,0.912252,0.194449
-0.044578,0.200632,0.555905,0.209077,-0.784696,0.583556
0.055525,-0.477309,0.687396,0.507390,0.516482,0.689783
-0.019037,0.036775,0.873644,0.638150,-0.578251,0.508321
-0.654198,-0.181852,0.340703,-0.012983,-0.982659,0.184967
0.342820,0.445628,0.596322,-0.176094,-0.790381,0.586762
0.383565,0.671832,0.481048,-0.530061,-0.757653,0.380785
0.666970,0.259933,0.180123,0.896431,0.047802,-0.440598
-0.309980,-0.051258,0.559301,0.027892,0.991181,0.129547
0.034727,-0.107500,0.274836,-0.767634,0.553027,0.323880
0.093961,-0.236505,-0.781810,0.725583,0.685411,-0.061161
0.352062,-0.307341,0.014002,-0.699750,0.625001,0.346011
0.094448,-0.040739,0.435063,-0.481493,-0.166559,0.860478
0.342574,-0.073443,0.786563,0.281353,0.523646,0.804137
0.402418,0.165103,0.547703,-0.267155,0.262631,0.927175
0.518943,0.229149,0.306996,-0.103704,0.936835,0.334044
0.264368,0.635509,0.345701,0.831471,-0.423667,0.359392
0.367266,0.569874,0.513126,-0.205664,0.811592,-0.546828
-0.354984,-0.179131,0.387340,0.165130,0.793888,-0.585213
-0.142005,0.332696,0.660098,-0.034652,-0.452055,0.891317
0.187131,0.039835,0.817120,0.492814,0.719420,0.489458
-0.353280,0.171664,0.565494,0.982895,0.135047,0.125219
-0.644710,-0.056128,0.632284,-0.155766,-0.944032,0.290759
0.375781,-0.036775,-0.286217,0.175346,-0.028540,0.984093
-0.332360,-0.761233,0.465919,-0.626416,-0.365682,-0.688389
0.280908,0.133194,0.783195,-0.382316,0.923096,-0.041569
-0.699446,-0.224397,0.415724,0.495131,-0.766820,-0.408451
-0.170954,0.527784,0.641220,0.991675,-0.124018,0.034639
0.100892,0.024447,0.815192,0.611406,-0.640057,-0.465307
-0.102963,-0.103425,0.804924,-0.467717,0.363894,-0.805495
-0.546433,-0.203573,0.231948,0.076530,0.917353,0.390649
-0.689227,0.101961,0.201635,0.588629,0.767716,0.253234
-0.211582,0.263441,0.666101,-0.611287,0.471955,-0.635284
-0.202580,-0.038474,0.613190,0.868616,-0.291763,0.400476
-0.043606,-0.183544,0.260250,-0.274833,0.496203,-0.823559
-0.433072,-0.005094,0.473687,0.887472,0.397625,0.232999
-0.146021,-0.086455,0.657626,-0.664745,-0.459320,0.589186
0.540594,-0.203007,-0.977130,-0.041092,0.013825,0.999060
0.632060,-0.031685,0.580487,0.259281,-0.963230,0.070442
0.215226,-0.193503,0.683022,0.913902,-0.405559,-0.017480
-0.140424,-0.728978,0.566662,0.314468,0.727991,0.609211
-0.131790,-0.943081,0.497589,0.236049,-0.501381,-0.832405
0.211822,0.053186,0.688726,-0.021796,0.673587,0.738786
0.602261,0.653501,0.386063,-0.141362,0.972746,-0.183798
0.142491,0.161139,0.438268,0.647703,0.755814,0.096052
-0.424556,0.075930,0.461192,0.124721,0.845748,0.518802
0.481846,0.533323,0.426860,-0.567812,0.732581,0.375385
0.091163,-0.838520,0.273505,-0.687668,0.401556,0.604868
0.890287,0.523143,0.273179,0.921651,0.286899,0.261244
-0.170832,-0.261625,0.703312,-0.825568,0.218800,-0.520157
-0.431127,-0.220550,0.485040,-0.247749,0.860023,-0.446074
-0.280300,0.137828,0.626227,-0.665021,-0.650019,-0.367725
-0.782641,-0.243522,0.539255,0.062238,0.991407,-0.115055
0.777775,0.541474,0.176565,0.890146,-0.433814,0.139449
0.553608,0.044814,0.471351,-0.659631,-0.182288,0.729149
-0.103082,-0.670360,0.530862,0.981175,0.082153,0.174777
-0.622331,-0.317528,0.456331,-0.455656,-0.877404,-0.150133
-0.459467,-0.019349,0.359581,0.266389,0.896467,-0.354095
-0.331023,-0.318999,0.776839,0.832803,-0.537482,0.132487
0.451316,0.108067,0.241074,0.841149,-0.411465,0.350948
0.738369,0.497567,-0.206090,0.518608,0.795325,0.313853
-0.396216,-0.180719,0.501772,-0.690282,0.498337,-0.524568
0.209269,-0.143036,-0.748156,0.860604,0.371626,-0.348217
-0.094570,-0.529476,0.468173,0.781243,-0.512595,-0.356238
0.147235,-0.010184,0.730365,0.525883,0.595852,-0.606965
0.007236,0.004866,0.894504,0.668226,0.166345,-0.725123
0.220701,-0.416205,-0.068841,-0.586385,0.789683,-0.180426
-0.650426,-0.185920,0.376204,-0.448961,0.893472,-0.011934
-0.116586,-0.207877,-0.630437,-0.576382,-0.027846,0.816706
0.568204,0.046168,-0.980769,-0.157901,0.118530,0.980315
-0.156845,-0.045374,0.625575,0.681053,0.525923,-0.509482
0.233474,0.457619,-0.189168,-0.587574,0.776782,0.226640
0.183604,-0.020371,0.749949,0.882329,0.289485,0.371072
0.099191,-0.074458,0.622398,0.964108,-0.210679,0.161589
-0.462993,-0.348989,-0.192563,0.423672,-0.903829,-0.059965
0.041779,0.043454,0.702389,0.986324,-0.134348,0.095477
0.428205,-0.386444,-0.974685,-0.254484,-0.043748,0.966087
-0.024876,-0.018783,0.874513,-0.614479,-0.788929,0.002729
-0.191266,0.410321,0.647386,0.685140,0.566243,-0.458205
0.053093,0.317867,0.494248,0.957991,0.206982,-0.198525
0.265582,0.616502,0.403420,0.173566,-0.972322,0.156415
0.307545,-0.643542,0.606046,0.044349,0.965464,0.256733
0.477225,0.072421,0.585240,-0.013969,-0.863973,0.503344
0.331023,0.155820,0.790420,0.472525,-0.483537,-0.736826
-0.367025,-0.485003,-0.267095,0.694165,-0.683194,0.226671
-0.606032,0.365399,0.214971,0.677994,0.554416,-0.482645
0.670133,0.738261,0.138348,-0.172480,0.585067,-0.792431
-0.046646,-0.211606,0.142721,0.895056,-0.379194,0.234703
0.078149,0.512955,0.428707,0.847410,-0.517290,0.119612
0.211945,-0.743351,0.488707,0.913051,0.348703,-0.211528
-0.294532,0.490212,0.672158,0.687811,-0.720988,-0.084220
0.309980,0.285619,0.305339,0.523955,-0.088725,0.847112
0.215107,-0.133870,0.710374,-0.233002,0.151820,0.960552
0.123152,-0.156953,0.543955,0.986632,-0.084454,0.139370
-0.024389,0.129685,0.890267,0.876771,-0.266822,0.400098
0.114514,0.001585,0.912783,0.150796,-0.592125,0.791611
0.376145,0.159329,0.703285,-0.456538,0.854270,0.248587
-0.689108,0.522349,0.237977,0.909495,0.403900,-0.098409
-0.139574,0.418809,0.683240,0.936009,0.342411,-0.081498
-0.282249,-0.037341,0.521736,-0.206362,0.962718,0.174897
-0.404004,0.081137,0.665585,-0.351705,0.051985,-0.934667
0.742504,0.319227,0.353007,-0.515662,-0.733486,-0.442822
-0.649822,-0.156614,0.599120,0.301942,-0.470127,0.829344
-0.617346,-0.156725,0.458830,-0.271957,0.941500,0.199040
0.213645,-0.084079,0.648065,0.283571,0.135494,0.949331
0.130572,-0.080909,0.233849,-0.818732,0.564802,-0.103326
0.376635,-0.183772,0.309630,0.976979,-0.134918,0.165254
0.389768,-0.506504,0.515027,0.936047,0.262632,-0.234181
0.143950,-0.483760,0.642850,0.928768,0.281582,0.241044
0.380648,-0.059975,0.566689,0.149741,-0.915423,0.373601
0.239309,-0.003056,0.613271,0.908215,0.390989,0.149243
0.476738,0.391086,0.308625,0.421311,0.855060,0.302275
-0.375418,-0.442120,-0.525457,0.090462,-0.638851,0.763993
0.420057,0.105242,0.482515,-0.610028,0.738866,0.286255
-0.311198,-0.211046,0.703475,0.783787,-0.438308,0.439959
0.299761,0.101961,0.077234,0.993267,-0.101575,-0.055707
0.361550,0.511256,0.453180,0.235134,0.262593,0.935819
-0.065499,-0.624078,0.538739,-0.623509,0.746615,-0.231954
0.031805,-0.275998,-0.427078,0.786479,-0.499579,0.363143
0.040321,-0.369467,0.471324,0.371657,-0.195156,-0.907626
0.466642,0.615031,0.431505,0.832745,0.157026,0.530922
0.525023,-0.621025,0.398286,0.664335,0.432055,0.609907
0.187862,-0.357132,0.709560,-0.175764,-0.926138,0.333731
-0.128627,-0.049221,0.897247,0.487855,0.650166,0.582478
0.563096,0.643887,0.380006,-0.281563,0.903271,-0.323765
0.609435,0.634943,0.358168,0.830123,-0.512417,-0.219829
-0.644710,0.072987,0.717165,0.694274,-0.517091,0.500600
-0.167914,0.090641,0.553787,0.858069,0.381189,0.344112
0.533783,-0.676473,0.370336,0.953812,0.143280,0.264032
0.330169,-0.574177,0.595942,-0.048089,0.923062,0.381634
-0.524659,0.018334,0.060367,0.123396,0.866109,-0.484385
-0.146140,-0.011993,0.907541,0.803394,-0.027779,0.594800
-0.036308,-0.439287,0.464072,0.697550,0.553595,-0.454924
-0.832997,-0.211951,0.530645,-0.313936,-0.886555,-0.339801
0.584989,-0.013920,-0.469884,-0.185896,0.943067,-0.275804
0.574774,-0.016179,0.150272,-0.603702,0.600964,-0.523819
-0.204402,-0.530043,0.364877,-0.289804,0.867253,0.404829
0.059537,0.113502,0.628455,-0.135155,-0.814330,0.564447
-0.351699,0.238432,0.167004,0.468008,-0.352353,0.810442
0.314601,-0.038930,0.503320,0.676173,-0.725786,-0.126586
0.405948,-0.478670,0.490853,0.241457,-0.882275,0.404090
-0.562855,0.029081,0.105890,0.022547,-0.997315,0.069676
-0.428573,0.085551,0.731941,0.887744,-0.247414,0.388197
-0.047986,-0.584137,0.543058,-0.511557,0.683766,0.520358
0.199295,0.077739,0.623837,-0.723617,-0.649403,0.233783
0.334791,0.127876,0.709261,0.531182,-0.824932,0.193218
0.367511,0.567616,0.556530,0.385074,0.215749,-0.897313
-0.799913,-0.318543,0.443374,0.429017,-0.691915,0.580687
0.444382,-0.013920,0.396602,0.756855,0.630831,0.170947
0.165602,-0.327599,0.028099,-0.814289,-0.405705,0.415134
0.048227,-0.365620,0.598332,0.938923,0.321996,0.121417
0.518334,0.055790,0.174799,0.924295,0.313575,0.217600
0.277623,-0.138166,0.538468,0.240743,-0.958344,0.153687
-0.240286,-0.539664,0.431478,-0.005469,0.800421,0.599413
0.126923,0.360302,0.378947,0.911816,-0.255702,0.321259
-0.085810,-0.013237,-0.616015,0.995701,0.088335,0.027852
0.062822,-0.440420,0.597599,0.926581,0.310416,0.212344
0.325426,0.410998,0.582578,0.592004,-0.804948,-0.039876
0.179469,0.106596,0.344261,0.484491,-0.329975,0.810176
0.017819,-0.285957,-0.270735,-0.293694,0.950667,0.099883
-0.481115,0.575759,0.298168,0.891711,-0.447266,0.069312
0.167547,-0.221117,0.491016,0.117284,0.980636,0.156834
-0.069757,-0.011089,0.948936,-0.628236,-0.778019,0.002353
-0.635104,-0.109876,0.557617,-0.524515,0.844321,-0.109571
0.626830,0.261176,0.249548,0.741918,-0.642101,0.193040
-0.127168,0.169399,0.600043,0.377667,-0.914347,-0.146076
0.621236,0.051942,0.614195,-0.514834,-0.687566,-0.512053
0.268626,-0.432388,0.079108,0.931890,-0.362739,-0.000893
0.385878,0.755915,0.356837,-0.423838,0.823406,-0.377311
0.138356,-0.304965,0.541320,-0.684642,-0.111053,0.720369
0.517606,0.656561,0.514294,0.463149,0.662292,0.588950
0.143831,0.126059,0.544986,0.842602,0.053437,0.535879
0.065254,-0.429667,0.543411,-0.472838,0.874261,0.109962
-0.336495,0.161705,0.371070,0.214180,0.198099,-0.956495
0.023049,-0.127192,0.865088,0.800944,0.565267,0.197386
-0.422125,-0.097886,0.390898,0.563523,-0.822964,0.071920
0.110379,-0.014259,0.872937,-0.660605,0.739345,0.130269
-0.494982,0.287878,0.581166,0.989480,0.068987,-0.127161
-0.359850,0.248612,0.705051,-0.435188,0.400435,0.806389
0.651644,-0.276454,-0.969171,-0.068305,0.055924,0.996096
0.303288,-0.063483,0.174663,-0.529914,0.813013,0.241249
0.307790,-0.374675,0.719799,-0.418741,0.899690,-0.123347
-0.080462,0.061108,0.624652,-0.317946,0.091911,0.943643
0.291127,-0.274637,0.723874,-0.005198,0.923220,0.384238
-0.164388,-0.235372,0.844635,0.485463,-0.146073,-0.861968
-0.106612,0.013355,0.708663,0.983677,0.179474,0.012956
0.233107,0.357477,0.654177,-0.082721,-0.967625,0.238453
0.028766,0.047190,0.914794,0.217657,-0.847406,-0.484282
-0.259261,0.234467,0.336710,0.575865,-0.721112,-0.385197
0.255122,0.623968,0.293659,0.733132,-0.303804,-0.608457
0.253299,-0.438611,0.079543,0.870687,-0.482882,0.093434
0.642642,-0.026138,0.501120,0.387057,0.826118,0.409531
-0.684365,-0.180602,0.429848,-0.250235,0.966886,-0.050138
0.093717,0.053186,0.808184,0.130234,0.988421,0.077864
-0.049931,-0.234357,0.634267,0.793685,0.557455,0.243531
-0.227877,-0.036547,0.826083,-0.458292,0.616571,-0.640163
0.486467,-0.131605,0.601347,0.497658,0.851874,0.163237
-0.236151,-0.369129,0.739492,-0.049060,-0.992708,0.110105
0.306450,-0.332917,-0.067891,0.557535,-0.830061,0.012385
0.319709,0.093811,0.593009,-0.127465,-0.978931,0.159522
-0.030105,-0.809097,0.570057,0.978632,0.045162,0.200599
-0.470291,-0.133532,0.268046,0.234023,0.758976,-0.607609
0.148816,0.264346,0.633289,0.710547,-0.630488,0.312424
-0.567595,-0.018672,0.362650,0.868917,-0.221251,0.442755
0.190657,-0.571463,-0.986881,-0.154861,0.100672,0.982794
-0.004805,0.358603,0.798976,0.988388,-0.110633,0.104160
-0.683997,-0.262191,0.316909,0.988270,0.149149,0.032820
0.309735,0.393689,0.564869,0.221258,0.316816,0.922319
0.386728,0.045719,0.700841,0.057227,-0.525468,0.848887
-0.633641,0.561164,0.383157,0.615223,0.685237,-0.389808
0.221432,0.472330,0.673434,-0.734863,0.333667,0.590459
-0.031806,-0.207987,0.631062,0.771727,0.608867,0.183624
0.340266,-0.009728,0.128380,-0.520478,-0.470265,0.712709
-0.751383,-0.153900,0.351106,-0.010534,-0.830418,0.557042
0.343551,0.018562,0.855282,0.693295,0.442419,-0.568866
-0.060513,0.199388,0.350699,-0.314006,0.549921,0.773942
-0.142614,-0.396852,0.356403,-0.469446,0.326999,0.820178
-0.084111,-0.106257,0.519563,-0.253636,-0.871551,-0.419605
-0.406190,0.005888,0.619301,0.366581,0.267677,0.891048
0.776193,0.610838,0.439436,0.668897,0.676053,0.309078
-0.632427,0.427519,0.375688,0.186034,0.067114,0.980249
0.312289,-0.659386,0.452012,-0.515188,0.807567,0.287082
-0.836646,-0.309268,0.478413,0.350246,0.920592,-0.172737
-0.458613,0.077629,0.426317,0.386184,0.826119,-0.410353
-0.028643,-0.387915,0.641899,0.894111,0.314506,0.318829
-0.406799,0.107846,0.732511,0.561519,-0.625475,0.541735
-0.155387,-0.849950,-0.062486,-0.772979,-0.621276,-0.128527
0.450952,0.540907,0.491913,-0.744672,-0.056132,0.665066
-0.871556,-0.244876,0.458042,0.383151,0.253145,0.888320
-0.214744,0.296594,0.297353,0.288625,-0.921050,0.261460
0.163170,0.047190,-0.439952,0.362691,-0.885729,0.289724
0.467859,-0.180153,0.086008,0.311518,0.934323,-0.173197
0.159399,0.095849,0.623104,-0.293207,-0.948927,0.116480
-0.130936,-0.156497,0.793082,0.369416,-0.927197,-0.061947
-0.295263,0.112598,0.820597,0.682605,-0.525261,0.508086
-0.163779,0.242162,0.645404,0.575736,0.251849,0.777881
0.560906,0.138622,0.149213,0.206565,0.899384,0.385279
-0.068784,-0.009051,0.861964,0.521223,0.853257,-0.016729
-0.183968,0.196446,0.587522,-0.523867,0.822561,0.221262
-0.195646,-0.155482,-0.387639,0.016902,0.997194,0.072926
-0.703704,-0.199277,0.426371,0.166540,-0.730292,0.662524
0.466883,-0.102859,0.086225,0.257078,0.961170,0.100312
0.603356,-0.316851,-0.970122,0.119247,-0.068554,0.990495
0.169859,0.285730,0.344288,0.936850,-0.097544,-0.335852
-0.092258,0.334167,0.424117,0.968250,0.005353,0.249928
0.781910,0.455926,0.157361,-0.740434,0.417512,0.526727
-0.537187,-0.058504,0.491478,0.624084,0.517104,0.585766
-0.384055,0.110332,0.697147,-0.128470,0.419038,0.898834
-0.566259,-0.202102,0.499192,0.075796,0.988830,-0.128336
-0.090921,-0.982685,0.493461,-0.291529,0.649933,0.701854
0.299034,-0.471086,0.491505,0.893516,0.442499,-0.076322
-0.353280,-0.672854,0.448834,-0.182237,0.777657,0.601697
-0.529771,-0.203691,-0.380414,0.955101,0.055039,0.291124
-0.717935,0.192371,0.467386,0.218335,0.784903,-0.579877
-0.663686,-0.042659,0.381826,-0.549218,-0.043153,0.834564
-0.456790,0.232430,0.558269,-0.494027,-0.835298,-0.241278
-0.289183,-0.200182,0.819266,0.285014,0.871480,0.399111
-0.493037,-0.213989,0.410183,-0.258421,0.965683,-0.026000
-0.075837,-0.143940,0.699971,-0.670488,0.514751,-0.534300
0.063067,-0.528799,0.693860,-0.671083,-0.726668,-0.146973
0.574651,0.452528,0.135143,-0.469643,0.227734,0.852979
0.435139,0.499943,0.448182,-0.384783,0.849788,0.360281
0.300979,0.597826,0.497182,0.966819,0.114823,0.228202
-0.054189,-0.102071,0.197860,0.159772,0.986765,-0.027692
0.108071,-0.542039,0.683674,-0.060463,-0.998094,0.012356
-0.020740,0.065065,0.957329,0.734893,-0.599685,0.316718
0.418595,0.807626,0.370282,0.006778,0.895050,0.445914
-0.209510,-0.831613,-0.014681,0.774442,0.631990,0.028762
0.514930,0.193960,-0.374520,0.782656,-0.584403,0.214293
0.096152,0.458869,0.425393,0.881696,-0.402839,0.245625
0.046887,0.003505,0.857374,0.451890,-0.767161,-0.455257
-0.078513,-0.232768,0.066207,-0.338611,0.781107,-0.524608
0.696770,0.448115,0.174446,0.272728,0.828947,0.488330
0.055280,-0.130362,0.906129,0.910486,-0.412690,-0.026496
0.131667,0.356117,0.642334,-0.450895,0.139991,0.881530
-0.684365,-0.261286,0.512257,0.482315,0.873134,0.070782
-0.331142,-0.267060,0.737943,0.754009,0.360789,0.548910
0.637776,0.090192,-0.403039,-0.608532,0.676722,-0.414410
-0.276896,-0.303611,0.758749,0.894685,-0.330321,0.300711
-0.266559,0.058614,0.836541,0.871428,0.485022,0.073259
0.171440,-0.102410,0.469423,0.908236,-0.068727,0.412777
0.235296,-0.071627,0.638857,-0.467244,-0.847292,-0.252547
0.135680,-0.168611,0.724091,0.336502,0.872742,-0.353678
-0.086786,0.459884,0.353578,-0.659868,-0.174373,0.730868
-0.709298,-0.207648,0.349015,0.202915,0.973858,-0.102105
0.413973,0.131377,0.244931,0.910027,0.341002,-0.235727
0.060391,-0.153783,0.925088,0.997435,-0.003691,0.071478
-0.212068,-0.770847,0.449133,-0.450869,0.373231,0.810812
0.194551,-0.045940,0.725150,-0.440944,-0.894897,-0.068757
0.283340,0.697974,0.486752,0.048546,0.916927,0.396091
-0.958646,-0.092906,0.465213,0.578997,-0.243964,0.777975
0.047741,0.162043,0.800823,0.814529,-0.085011,-0.573861
-0.074255,-0.025689,0.852267,0.125105,0.962053,0.242492
-0.549110,-0.182529,0.550256,0.016641,-0.966903,0.254602
-0.041538,-0.812267,0.454946,-0.083158,0.683962,0.724763
0.218998,-0.149258,0.789279,-0.131581,0.108873,0.985309
-0.108071,-0.742329,0.568563,0.871089,0.150183,0.467599
0.390863,-0.310511,0.337362,0.772126,-0.478800,-0.417819
-0.044337,-0.476405,-0.625087,-0.587161,0.757835,-0.284480
-0.508241,0.094606,-0.203401,-0.320389,-0.831640,0.453570
-0.827404,-0.175055,0.522116,-0.376385,-0.921662,-0.094195
-0.297453,0.282338,0.593117,-0.725089,-0.682488,-0.091960
0.689713,0.831503,0.282957,0.319744,0.947300,-0.019678
0.510428,-0.207538,0.081906,0.950397,0.117853,-0.287849
0.136288,-0.173246,-0.086062,0.866110,-0.476423,0.151242
0.294409,-0.090530,0.101245,-0.677061,-0.670476,0.303396
-0.474790,0.161366,0.699075,-0.626058,-0.496126,0.601590
-0.185427,0.397536,0.669306,-0.175655,-0.634496,0.752702
0.064767,-0.335976,-0.526680,-0.475150,0.412452,0.777249
-0.577691,-0.178343,0.311993,0.136931,0.957877,0.252432
0.068175,0.151752,0.426100,-0.091274,0.901970,-0.422041
0.055161,-0.557200,0.098719,0.741010,-0.118709,0.660918
-0.433072,0.403760,0.634131,0.168249,-0.976691,-0.133292
0.051753,0.062579,0.669659,0.296391,0.793305,0.531808
0.208051,-0.717326,0.491777,0.875342,0.430162,-0.220764
-0.694947,0.052053,0.316611,-0.525127,0.729804,-0.437754
-0.519674,-0.147449,-0.293958,0.081889,0.976532,0.199199
-0.692026,-0.207987,0.554493,-0.226368,0.966608,-0.120107
-0.924830,-0.003056,0.246207,0.977401,-0.183738,0.104533
0.116949,-0.562297,0.615525,0.546599,0.724629,-0.419693
0.258407,-0.286862,0.372428,0.111631,-0.887089,0.447898
0.258771,0.396632,0.601809,-0.677615,0.715258,0.171008
0.028157,0.192260,0.802887,0.899510,0.166715,-0.403842
0.147480,0.037459,0.662705,-0.660060,-0.292727,0.691832
-0.886760,-0.218285,0.464479,0.531392,0.254127,0.808110
-0.812441,-0.159667,0.365746,0.633968,0.763017,0.126054
-0.627075,-0.203691,0.535914,0.129783,-0.886048,0.445057
-0.054189,-0.031913,0.994405,-0.441624,-0.896938,-0.021684
-0.553731,-0.192937,0.423302,0.061336,0.945031,0.321177
-0.086905,-0.121984,0.652574,0.636818,0.705559,-0.310886
-0.040080,0.010412,0.986799,0.275889,0.555956,-0.784091
0.949522,0.151863,0.390002,0.069326,0.817178,0.572201
0.504470,0.170759,0.119634,0.775129,-0.344813,-0.529414
-0.389891,-0.602467,0.180721,0.795428,0.475232,0.376097
0.151248,-0.232547,0.667622,-0.740659,0.609350,0.283049
-0.479534,0.089287,0.475887,0.638706,0.521547,0.565724
0.408866,0.131156,0.296022,0.886854,0.127431,0.444130
-0.690322,-0.246803,0.358114,0.925918,-0.087950,-0.367342
0.002856,0.003167,0.944889,-0.542573,-0.431414,0.720761
0.370429,0.154349,0.503348,0.245389,-0.801990,0.544606
-0.506537,0.143713,0.197724,0.571733,0.350973,0.741579
0.358024,-0.293424,-0.079081,-0.666855,0.517107,0.536567
0.226295,-0.039945,0.119742,0.509376,-0.856266,0.085701
0.406312,0.201536,0.550419,0.325062,-0.206409,-0.922892
0.488780,-0.122439,0.673923,-0.513811,0.403755,0.756955
-0.547042,0.008375,0.326009,-0.469924,0.511144,0.719655
0.112933,-0.291386,0.371369,0.042913,0.995291,-0.086914
-0.300371,-0.057709,0.434275,0.519309,-0.638905,0.567555
-0.521378,0.393123,0.386959,0.482656,-0.068636,0.873116
0.396460,0.100262,0.343555,0.108899,-0.986708,-0.120619
0.132881,0.077063,0.813507,0.053642,0.940111,-0.336620
0.650671,-0.131149,0.582796,0.880529,0.088167,-0.465720
-0.089704,-0.503113,-0.210354,-0.008889,0.111791,0.993692
0.302315,0.239903,0.574756,-0.763156,0.619407,-0.184197
-0.199417,0.430012,0.661972,0.771204,-0.450538,0.449732
0.567231,0.094826,0.319816,0.803367,-0.549466,-0.229540
0.209877,-0.036098,0.077316,-0.552140,0.795293,-0.250301
0.026698,-0.386106,0.698342,0.997806,-0.036654,0.055139
0.176671,-0.257778,-0.989842,-0.104531,0.447410,0.888199
-0.122666,0.115540,0.726997,0.025712,0.998241,-0.053421
-0.473940,-0.714384,0.226624,0.942609,0.330539,-0.047241
-0.172290,-0.641504,0.539853,-0.424904,0.676862,0.601094
-0.644710,0.164536,0.446145,-0.315735,0.902949,-0.291538
0.398283,0.864883,0.378431,-0.428420,0.728163,-0.535010
-0.017942,-0.505938,0.680524,-0.778182,0.291843,0.556111
0.352549,0.214099,0.299119,0.711464,0.218655,0.667839
-0.026698,-0.041078,0.861285,-0.480918,-0.875038,-0.055009
-0.162562,0.456603,0.665449,0.819246,-0.393283,0.417331
-0.579882,0.313792,0.361916,0.942417,-0.320501,-0.095549
-0.155873,0.361663,0.654014,-0.627972,-0.566231,0.533885
0.228849,-0.117232,0.611098,0.884879,0.456566,0.092396
-0.330169,0.243294,0.564679,-0.555715,-0.115781,-0.823271
0.431126,0.735657,0.425013,-0.150984,-0.775263,0.613328
0.120598,-0.110898,0.807206,-0.546356,-0.779643,0.306026
-0.111474,0.049449,0.752910,0.747406,-0.406904,-0.525179
0.465669,0.897138,0.385656,0.066202,0.975386,-0.210331
-0.058810,0.050920,0.951761,-0.636866,0.716135,-0.285572
0.249650,0.064955,-0.086469,-0.191075,-0.175101,0.965831
0.047377,-0.407261,0.711841,0.783930,-0.443543,0.434423
0.307668,-0.225074,-0.622914,-0.222514,-0.837971,0.498290
0.027670,-0.027382,0.899040,-0.274281,0.150555,0.949791
-0.223255,-0.212739,0.384950,0.878238,-0.125870,0.461361
-0.004805,0.328393,0.635408,0.156899,0.839850,0.519649
0.155505,-0.255857,-0.563647,-0.784413,0.353946,-0.509332
0.247097,-0.200293,0.702742,-0.564981,0.392978,0.725510
-0.372742,0.093473,0.469749,-0.621348,-0.700595,-0.350847
-0.169495,-0.100262,-0.317561,-0.526241,0.641624,0.558022
0.115977,-0.781822,0.244496,-0.459899,0.775627,0.432315
-0.481238,-0.114974,0.402523,-0.032870,0.722461,0.690630
0.167183,0.442686,0.668056,0.871571,-0.018424,-0.489923
-0.146994,-0.576214,0.462198,0.975600,-0.047557,0.214342
0.561270,0.339029,0.327149,0.427017,0.773715,0.467997
0.248555,-0.744256,0.499138,0.147220,-0.930525,0.335336
-0.231648,-0.152650,-0.291866,0.180868,0.983480,0.007299
0.031683,0.284148,0.484416,0.855382,0.052483,-0.515333
0.107339,0.390968,0.595725,0.972262,-0.112850,-0.204870
0.831293,0.594884,0.317344,0.981986,0.089837,0.166233
-0.087273,-0.074009,0.894748,0.039217,-0.920078,-0.389768
-0.243689,-0.266038,0.718360,0.521715,0.712122,0.469783
0.456909,0.024896,0.205954,0.786306,-0.605814,0.121297
0.107825,0.327260,0.645539,-0.498573,-0.054616,0.865125
-0.440614,0.456492,0.606291,0.422808,-0.849379,0.315893
-0.195887,0.047529,0.549522,0.702415,-0.116867,0.702107
-0.544121,0.058055,0.689949,-0.758566,0.438939,-0.481571
0.255245,-0.262868,0.399264,-0.360186,0.773419,-0.521622
-0.645319,-0.174268,0.302731,-0.218542,0.549948,-0.806100
-0.539863,-0.081586,0.586598,0.314301,-0.837412,-0.447165
0.566868,-0.011199,0.156411,-0.559167,0.659234,-0.502735
-0.689227,0.349783,0.305800,-0.495878,0.859335,0.125093
0.022685,0.190561,0.509540,0.640374,-0.496139,-0.586317
-0.027552,0.395043,0.353388,0.028688,-0.438115,0.898461
0.536337,-0.360758,-0.973001,0.428686,0.198905,0.881286
-0.503620,-0.132282,0.388318,0.024769,-0.994515,-0.101622
0.250500,0.645130,0.508916,0.108906,-0.197087,0.974318
-0.421153,0.406136,0.627124,-0.003221,-0.982408,0.186722
0.132276,0.194864,0.545720,-0.680184,0.064399,-0.730208
0.268017,-0.426275,0.056646,0.990029,-0.125086,-0.064782
0.069392,0.496663,0.512148,0.203792,-0.816363,0.540389
0.153315,-0.181285,0.701275,0.303893,0.425608,0.852354
-0.047500,-0.735657,0.567341,0.866234,0.282129,0.412362
-0.046769,-0.467467,0.457879,0.694469,0.205635,-0.689512
0.072187,-0.507865,0.670773,0.571841,0.767572,0.289536
0.463602,-0.190672,-0.978624,-0.011612,0.179903,0.983616
0.226662,0.060086,0.782462,0.841927,-0.443034,0.308025
0.437570,0.523143,0.108280,-0.831190,0.392771,0.393515
0.679739,-0.259249,0.231296,0.875793,-0.481215,0.037676
-0.053216,0.031574,0.243301,0.686390,0.248642,0.683408
0.173022,0.497456,0.437698,-0.290080,0.955559,-0.052550
-0.414827,0.127530,0.624489,-0.173477,0.382326,0.907597
0.089218,-0.478214,0.638776,0.733906,0.191442,0.651715
0.007481,-0.210142,0.635489,0.749598,-0.518392,0.411549
0.183968,0.108523,0.497426,-0.960495,-0.007621,0.278193
0.064040,-0.313004,-0.967433,-0.764117,0.134619,0.630875
0.171563,0.427857,0.563782,-0.646982,0.617817,-0.446896
0.482210,-0.035193,-0.974930,0.150465,-0.161483,-0.975338
0.119990,-0.187509,0.160322,-0.014379,0.901232,0.433098
-0.434775,-0.216137,0.323483,0.951504,0.085144,0.295620
0.468587,-0.155254,0.646816,0.953729,-0.277291,-0.116239
-0.502039,0.302706,0.205519,0.207898,0.102966,0.972716
0.715745,-0.077511,0.590292,0.862436,-0.079913,-0.499818
-0.434044,-0.164198,-0.304442,0.232605,0.970680,-0.060622
0.576233,0.432050,0.495226,-0.598517,-0.380960,-0.704732
0.252568,0.001247,0.569486,0.032409,0.958081,0.284658
-0.059051,-0.474257,0.681855,0.803312,-0.201384,-0.560476
0.053335,0.148354,0.557916,-0.564652,-0.553229,-0.612459
0.033023,0.130023,0.573615,-0.482140,-0.867971,0.119031
0.032901,0.038136,0.844255,0.025897,0.527793,0.848978
0.320927,-0.049111,0.559111,0.044348,-0.799063,0.599610
-0.459099,0.382935,0.569025,-0.072351,-0.691983,0.718279
0.571975,-0.051825,0.569269,0.255666,-0.719936,0.645234
0.055889,0.137041,0.817337,-0.741435,0.405086,0.534958
-0.052121,-0.131039,0.779609,-0.088787,0.939598,-0.330564
-0.188471,-0.123006,0.775535,-0.495670,-0.534051,-0.684910
0.244539,-0.647278,-0.974196,0.013332,0.366709,0.930240
-0.149062,0.468821,0.701112,-0.823957,-0.562330,0.069853
0.280058,-0.163065,0.574022,0.428536,-0.894960,0.124110
-0.052121,-0.726153,0.544416,0.771227,-0.635279,-0.040359
-0.540958,-0.077967,0.626716,0.146548,0.881360,-0.449141
0.288692,-0.135113,0.394429,0.029721,0.992355,0.119785
0.140060,-0.110560,0.669333,0.955416,-0.295007,0.012295
-0.052730,-0.384635,0.425910,0.915294,-0.366980,0.166021
-0.449616,0.266943,0.373026,0.364549,0.277887,-0.888753
-0.038617,-0.469160,-0.986935,-0.083740,0.381914,0.920396
-0.431977,-0.341405,-0.516738,0.784894,0.465624,-0.408823
0.124369,-0.293313,0.772276,-0.465736,0.815225,0.344235
0.407893,0.662894,0.532275,-0.212825,-0.973102,-0.088189
0.252691,0.443135,0.656404,0.659046,-0.621885,0.422985
-0.533538,0.005094,0.654448,0.118574,0.154307,0.980882
0.548501,-0.117688,-0.538848,0.288454,-0.948176,0.133255
0.159276,-0.619665,0.413008,-0.700798,-0.679905,-0.215897
-0.539622,-0.130590,0.584099,-0.700192,-0.580670,0.415396
0.337835,0.069140,0.308842,0.747932,-0.589472,0.305158
-0.391231,0.137262,0.704969,0.898466,-0.225852,0.376496
0.144804,-0.046279,0.784689,0.734375,-0.542930,0.407334
-0.075473,0.199505,0.640107,0.042426,-0.073484,0.996394
-0.210119,-0.090641,0.359146,0.604800,-0.084021,-0.791933
-0.085810,-0.049566,0.908411,-0.255437,0.855891,-0.449670
0.154169,-0.216020,-0.986120,0.489253,-0.812391,-0.317257
0.062945,0.157070,0.617916,0.826843,0.267052,0.494988
0.216203,-0.181734,0.065826,0.068655,-0.722341,0.688120
0.395852,0.403304,0.594883,-0.748965,0.661601,-0.036547
-0.405826,0.062807,0.346054,-0.726359,0.462089,0.508798
0.087028,-0.169516,-0.124822,0.927988,0.348820,-0.131010
0.838591,0.094944,0.187131,-0.548747,0.776759,-0.309068
-0.243326,0.036665,0.792783,0.775884,-0.279877,0.565395
-0.007968,0.412358,0.117108,-0.294524,0.751705,0.590080
-0.029133,-0.468372,0.642742,0.510948,0.533395,0.674108
-0.663930,-0.105918,0.187348,-0.271327,-0.470683,-0.839547
-0.024876,-0.157630,-0.431532,-0.672633,0.222776,-0.705646
-0.212309,-0.741424,0.125881,0.762135,-0.641729,0.085641
-0.307545,-0.027720,0.508210,-0.747937,0.609439,0.263012
-0.122789,0.447666,0.435579,0.193169,-0.565173,0.802038
-0.076568,0.004866,0.873263,-0.146221,-0.845958,0.512810
-0.205375,-0.067897,0.561990,-0.346731,0.653575,-0.672769
0.528067,0.583909,0.480640,0.419237,0.892309,0.167407
0.158059,0.097886,0.702036,-0.166803,-0.985694,0.024151
-0.102718,-0.019239,0.636359,0.389325,-0.153889,0.908154
0.115245,0.028404,0.818315,0.413405,-0.378686,-0.828066
0.268867,0.055113,0.133894,-0.361966,0.649850,0.668338
-0.164020,-0.453888,-0.425910,-0.266029,0.916305,-0.299356
0.293436,0.630529,0.273369,-0.349984,0.098205,-0.931594
0.332482,-0.119041,0.637662,0.837592,-0.502967,0.213222
