-0.100205,-0.317028,0.668689,0.933671,-0.150391,-0.325024
0.442745,-0.282331,-0.388070,0.302956,0.725053,0.618479
-0.065898,0.647664,-0.220540,0.955001,-0.040451,0.293831
-0.567652,-0.428920,0.448808,-0.519321,-0.815162,-0.256547
-0.201138,0.161726,0.575092,0.752909,0.544166,-0.370151
0.100205,-0.208953,0.774136,0.868269,0.410152,-0.279078
-0.183655,0.256040,0.630650,-0.537357,0.590580,-0.602049
0.002316,-0.269643,0.751668,0.887053,-0.450369,-0.101510
0.388965,-0.594466,0.574634,0.041549,-0.996013,0.078937
-0.337704,0.011462,0.544094,0.487966,0.822778,-0.291419
-0.522883,-0.130994,0.590406,0.456459,-0.821370,-0.342048
-0.400227,-0.050591,0.382489,0.819421,0.005954,0.573161
-0.560101,0.383372,0.166500,-0.650265,0.317803,0.690041
-0.491620,0.245189,-0.158285,-0.750129,0.114330,-0.651334
-0.030265,0.059463,0.782179,-0.414175,-0.629321,-0.657582
0.346315,-0.250228,0.382059,0.490802,-0.281954,0.824388
-0.369894,-0.166466,0.364685,0.757995,0.269516,0.593973
0.111067,-0.822372,0.496208,-0.479995,0.806903,0.344255
-0.523146,-0.475848,-0.008615,0.664162,-0.725358,-0.180956
0.020199,0.168601,0.721298,-0.526339,0.794820,0.302042
0.048415,-0.065882,0.955520,0.732766,0.679068,0.043829
0.048415,-0.330482,0.523800,-0.703674,0.692981,0.156907
-0.022055,-0.142619,0.580989,0.544565,-0.782182,-0.302723
0.059406,-0.201620,0.653090,0.041972,-0.249070,0.967576
-0.063513,-0.326806,-0.645963,0.965720,-0.236487,0.107042
-0.036494,-0.178995,0.239231,0.862875,-0.503084,0.048513
0.074905,0.035159,0.871082,-0.743034,0.654287,0.140745
-0.025762,0.004893,0.979420,0.185528,0.353537,0.916837
-0.264057,0.107614,0.589661,-0.305511,0.937999,-0.163771
0.425920,-0.239377,0.684031,-0.460965,-0.875767,0.143332
-0.443140,-0.098592,0.815697,0.841443,0.486752,0.234617
-0.719054,-0.200239,0.478891,-0.384635,-0.892157,-0.236879
0.448044,-0.564200,0.221255,-0.027042,0.866326,0.498747
-0.537982,0.490365,0.579729,0.933625,-0.347382,0.087579
0.465923,-0.526592,-0.256318,0.852863,0.302211,-0.425784
-0.129609,0.389632,-0.701320,0.986139,-0.165207,-0.015404
0.028810,-0.220270,0.028079,-0.572763,-0.817357,0.062206
-0.308167,0.286454,0.598534,0.067299,-0.905956,0.417989
-0.215181,0.133447,0.567393,-0.570196,-0.659422,0.489937
0.133716,-0.092173,0.249764,0.159561,0.939592,-0.302833
-0.057155,-0.516199,0.577296,0.844124,0.491269,0.214730
0.366183,-0.576889,-0.289435,0.847242,0.022820,-0.530716
-0.763164,0.042651,0.388099,0.677752,0.687750,-0.260102
-0.464735,0.307708,0.511979,0.100937,-0.970742,0.217880
-0.836015,0.085754,0.402925,0.129793,0.988842,0.073110
-0.293465,0.257869,0.665026,0.615249,0.782668,0.094338
0.144315,0.042343,0.013653,-0.437285,0.785718,0.437527
0.252533,-0.423415,0.704210,0.970460,0.215369,-0.108735
-0.109345,-0.515593,0.666686,0.745607,0.610184,-0.267854
0.023381,-0.041419,0.777600,0.972229,-0.117573,0.202356
-0.005760,-0.077348,0.995707,0.911071,0.410728,-0.035381
-0.150674,-0.630385,-0.971692,0.260660,0.015709,0.965303
-0.557320,0.066497,0.396800,-0.707534,0.701961,0.081523
-0.231605,0.157294,0.691845,-0.200618,0.312850,0.928373
-0.162195,0.152098,0.776111,-0.135326,0.974908,-0.176753
-0.442482,0.595837,0.249249,0.833295,-0.201274,0.514886
0.067487,0.128559,0.817901,0.613911,-0.614883,-0.495007
-0.250944,-0.755114,0.402038,-0.207168,-0.860426,-0.465563
0.132261,-0.355700,0.051922,-0.616290,-0.691898,-0.376117
-0.563283,0.155615,0.465009,0.704121,0.664023,-0.251568
0.463142,0.281873,-0.452014,0.735445,-0.576540,0.355980
-0.360353,-0.141396,0.837221,-0.077829,0.902962,0.422615
-0.257832,0.177166,0.873200,0.819333,0.429613,0.379639
-0.487384,-0.465296,0.390875,-0.282686,0.957209,0.061967
0.195972,0.219812,0.700575,0.247912,-0.964615,-0.089765
0.521424,-0.061758,0.579271,0.495735,-0.827491,0.263639
-0.116496,-0.060527,0.717549,-0.694508,-0.582914,-0.421747
0.231739,0.413021,0.600424,0.143372,0.687321,0.712063
-0.078615,0.157901,0.775310,-0.529961,-0.766760,-0.362244
-0.448177,0.671809,0.252741,0.095396,-0.887339,0.451142
0.202727,0.987003,0.233306,0.771715,-0.635426,-0.026271
-0.297172,0.143691,0.681541,-0.209152,0.930814,0.299735
-0.421021,0.151025,0.585654,-0.774946,0.298139,-0.557290
0.010397,-0.171961,-0.221198,-0.644355,-0.709683,-0.284881
0.310552,0.174255,0.642471,0.577306,0.667470,-0.470321
0.060732,-0.534084,0.806738,-0.562904,-0.599859,0.568601
0.108286,0.336285,0.661992,-0.623229,-0.238351,0.744832
0.070534,0.054117,0.617826,0.903998,-0.400693,0.149108
0.214781,0.389175,0.475742,-0.664065,0.727608,-0.172060
0.452943,-0.553499,-0.250279,0.836775,0.338645,-0.430264
-0.441023,-0.129007,0.819332,0.684485,0.609121,0.400564
0.227231,0.070471,0.315540,-0.542033,0.398793,0.739705
0.133054,-0.280643,0.701634,0.719603,-0.456830,0.522951
-0.430294,-0.104703,0.841286,0.098949,-0.976992,-0.188935
-0.191603,-0.294254,0.063600,0.841900,-0.533504,-0.081103
0.146963,-0.097519,0.746973,0.512761,0.258548,-0.818675
0.128683,-0.353563,-0.526118,0.658409,0.752654,-0.003207
-0.312141,0.257411,0.620946,0.953629,-0.181341,-0.240222
0.527120,-0.122131,0.359705,0.408418,0.910414,-0.065882
-0.479170,-0.165393,0.585311,-0.660889,0.171846,-0.730544
0.512947,-0.006722,0.587658,0.144404,-0.489882,0.859746
-0.074642,-0.463766,0.644303,-0.129840,-0.988291,0.080136
0.225380,-0.237996,-0.411455,0.431424,0.879762,-0.199728
0.038083,0.049377,0.710164,-0.415605,0.804151,0.424987
0.705544,-0.074437,0.385780,0.753943,0.620525,-0.215683
-0.116896,-0.382756,0.625812,0.762137,0.239182,-0.601614
-0.475463,-0.827876,0.229270,-0.635102,0.772067,0.023604
0.094114,0.108528,-0.929359,0.744996,0.190346,0.639335
-0.523280,-0.064809,0.567450,-0.350577,0.821176,0.450295
-0.297835,-0.210026,0.733091,0.814897,-0.340084,0.469346
0.240878,0.302203,-0.541117,0.502839,-0.417544,0.756842
-0.030532,-0.306476,0.513410,0.610282,0.213400,-0.762900
0.063513,-0.046775,0.400578,0.733128,0.302353,-0.609184
0.024703,-0.056860,-0.279675,-0.565815,-0.792966,0.225962
0.224188,-0.071536,0.662793,0.207885,0.963666,-0.167727
-0.116366,-0.504583,0.308384,-0.527336,-0.773146,0.352368
-0.461024,0.631607,0.106678,0.772235,0.603977,0.197141
0.141797,0.006881,0.464350,0.085952,-0.983725,0.157788
0.030532,-0.024458,-0.228869,0.696108,0.656878,0.289734
0.439038,-0.352640,0.307983,0.708421,0.421240,-0.566301
-0.141134,0.605316,-0.088531,0.801110,-0.582738,-0.136525
0.050667,-0.355084,0.537253,0.932259,-0.294422,-0.210260
1.000000,-0.215372,0.249335,-0.341341,-0.417547,0.842105
-0.075567,0.149345,-0.681999,0.970524,-0.002464,-0.240992
0.386980,0.106849,-0.097432,0.219828,-0.032508,0.974997
0.215841,-0.156678,0.711366,0.477494,-0.878162,-0.028826
-0.399297,-0.197496,0.581475,0.163932,0.918241,0.360501
0.079937,-0.643680,0.644102,0.553038,0.830470,0.066847
0.063647,-0.481502,0.586828,0.404400,0.749312,0.524397
-0.156103,-0.093246,0.414832,-0.444935,0.799161,0.404196
0.659316,-0.041727,0.475971,0.911922,-0.395293,0.110191
0.329490,0.050441,0.506998,0.061483,0.534457,0.842956
0.221803,0.208346,0.282280,-0.770705,0.339207,0.539400
-0.305386,0.118772,0.709535,-0.253100,-0.394686,-0.883268
-0.326179,-0.347294,0.207287,0.659624,-0.649186,-0.378752
0.104446,0.473711,0.188196,0.817096,-0.115890,-0.564733
-0.099809,-0.086519,0.755131,0.856570,0.144770,-0.495307
-0.091462,-0.178995,-0.357501,0.078964,0.358155,0.930317
-0.061925,0.230514,-0.291267,0.534542,-0.404360,-0.742130
-0.049608,0.803115,0.227238,-0.035455,-0.526437,0.849475
-0.258361,-0.797461,-0.144832,0.538366,-0.742504,-0.398559
0.516392,-0.204372,0.294158,-0.337845,0.841034,0.422519
-0.056495,0.182205,-0.167587,-0.738555,0.618968,-0.267238
-0.883435,0.247326,0.349028,0.319495,0.821046,0.473082
0.127624,0.683424,0.252540,0.967859,0.094394,-0.233108
-0.577321,-0.012842,-0.090649,-0.772535,0.065989,-0.631533
0.033579,-0.252215,0.540602,0.976703,-0.041545,0.210536
0.318099,0.115105,0.438303,-0.006336,0.708432,0.705750
0.467912,-0.171047,0.493946,-0.516770,-0.722730,0.458923
-0.665275,0.274839,0.468587,-0.289046,-0.642140,0.710006
-0.189484,0.808619,-0.180611,-0.426351,0.902622,0.059143
-0.087755,-0.913169,0.395884,-0.555440,0.585785,0.590205
0.383136,-0.125648,0.724361,-0.265480,0.919569,0.289677
0.011060,-0.328336,-0.009589,0.342099,0.892038,0.295358
-0.147759,-0.447719,-0.334001,0.670049,-0.652350,-0.354223
-0.357706,-0.199017,0.817987,-0.385078,0.860262,0.334162
-0.046030,-0.354935,0.530641,0.883788,0.393783,-0.252693
-0.338764,0.301895,0.486418,-0.065311,-0.358528,0.931232
0.042190,-0.226689,0.358245,0.994262,-0.073033,-0.078158
-0.029339,-0.182820,0.805965,0.949399,-0.301611,0.087595
-0.211604,-0.664476,-0.223831,0.872012,0.174228,-0.457427
0.055170,0.148123,0.529897,0.453668,-0.649228,0.610482
0.227632,0.157602,0.289235,-0.396717,0.717856,0.572100
-0.366449,0.000611,0.552051,0.142026,-0.556221,0.818808
-0.051062,0.086976,0.669949,0.758735,0.148839,-0.634167
-0.333597,-0.080558,0.356842,0.844373,-0.410291,0.344522
-0.053448,0.517887,0.753757,0.948342,0.310833,-0.063486
0.040997,-0.021090,0.992472,0.932849,-0.184853,-0.309228
-0.064309,-0.214616,0.816413,0.700771,-0.250795,-0.667849
-0.652295,0.086976,0.442454,0.306994,-0.365449,0.878750
-0.370953,-0.620757,-0.273664,-0.059764,0.948512,0.311053
0.024307,-0.003821,0.979391,0.690476,0.611696,0.386096
0.137823,0.415466,0.817443,0.051170,-0.730328,0.681177
0.079278,-0.090186,0.893380,0.793685,0.473310,-0.382155
0.026825,0.250228,0.809429,-0.338292,0.849394,0.405078
-0.307767,0.014829,0.134700,-0.066760,-0.942179,0.328393
0.791246,-0.243193,0.351519,0.234542,0.942737,-0.237145
0.093184,0.302968,0.801872,-0.602270,0.368768,-0.708012
-0.158488,0.504742,0.028194,0.090551,0.540075,0.836731
0.004172,-0.431056,0.537081,0.949090,-0.046699,-0.311524
-0.109875,0.304032,0.640954,0.386433,0.179498,0.904682
0.452280,0.435189,0.379913,-0.606608,0.105511,0.787968
0.323399,0.476613,0.363139,0.836303,-0.303678,-0.456484
-0.039805,-0.031791,-0.941466,-0.382446,-0.923092,-0.040461
-0.080733,-0.095382,-0.615994,0.904311,0.147299,-0.400656
-0.100339,-0.107306,0.677563,0.704281,0.709574,-0.022190
0.043912,-0.116328,0.720669,-0.244421,0.542992,0.803379
0.149348,-0.106391,-0.959899,0.134054,0.189215,0.972742
0.048678,-0.081014,0.823225,0.963747,-0.056237,-0.260823
-0.168553,-0.164935,-0.002261,0.919440,0.005643,-0.393189
-0.143786,-0.092481,0.782924,0.655855,0.749659,-0.088691
0.236371,-0.329717,0.818674,0.597337,0.789423,0.141422
0.294524,-0.489302,0.716003,0.399533,0.317810,-0.859866
-0.632031,0.311374,0.228440,-0.283778,0.933021,-0.221229
0.023248,-0.176859,-0.151043,-0.532068,-0.812897,0.236861
-0.482614,-0.261843,0.350374,0.590149,0.731539,-0.341431
-0.480229,-0.437633,0.307096,0.760137,-0.521002,0.388264
-0.017685,0.095839,0.812548,0.684324,0.717663,0.129077
-0.257436,0.250843,0.836677,0.455645,0.889705,0.028502
0.076230,0.546623,0.490941,0.918915,0.394441,-0.003417
-0.121399,-0.142311,0.940264,0.014386,-0.986010,0.166065
0.142990,-0.005192,0.550362,-0.030793,-0.869051,0.493764
-0.366979,-0.466219,0.397487,-0.774145,-0.221210,-0.593098
0.574541,-0.403850,-0.403240,0.440951,0.744911,-0.500670
-0.286973,-0.660651,-0.245871,-0.081890,0.903727,0.420204
-0.266046,-0.511618,0.131351,-0.652581,0.720795,0.233651
-0.008942,0.004585,0.977445,-0.102375,0.976891,0.187628
-0.074508,-0.420514,0.700976,0.097122,0.817894,-0.567112
-0.008279,-0.539281,0.752240,0.666695,0.745240,0.011621
0.226172,-0.086668,-0.185190,0.335959,0.894994,-0.293458
0.226702,0.024458,-0.961588,-0.121489,-0.022241,0.992344
0.534671,-0.093395,-0.264905,0.044035,0.453384,0.890227
-0.148818,-0.434116,0.659559,0.548572,0.815084,0.186298
-0.239686,0.189855,0.461860,0.631871,-0.336714,0.698114
-0.283133,0.713998,0.016687,-0.103747,-0.938479,0.329385
0.017552,-0.808004,-0.273979,0.514216,0.133459,0.847213
0.451884,0.099049,0.482354,0.847436,0.399396,0.349765
0.289091,-0.375880,0.714286,-0.410999,0.304730,0.859197
0.080470,0.245796,0.810774,-0.414868,0.466382,0.781264
-0.001920,0.608833,-0.701405,0.988409,-0.092752,-0.120186
0.184318,-0.090037,0.494662,0.541037,-0.620162,-0.568048
0.116896,-0.019569,0.812949,-0.486122,0.870201,0.080224
0.064706,-0.280185,0.811003,-0.746572,-0.221509,0.627347
0.051196,-0.148730,0.822652,0.969886,0.242323,-0.024516
-0.148289,0.167072,0.674042,0.150264,0.325745,0.933440
0.400886,-0.243501,0.438819,-0.514010,0.540157,0.666351
0.105768,-0.296699,0.766151,-0.364815,-0.924552,-0.110064
0.022451,-0.303575,0.773936,-0.354184,-0.406586,-0.842165
0.139679,0.020791,-0.555915,0.715650,-0.666423,-0.209105
0.562887,-0.224543,0.422017,-0.258683,0.889204,0.377359
-0.273860,-0.082087,0.187509,0.270294,0.767953,0.580680
0.680377,-0.050749,0.426768,0.046243,0.808118,0.587203
0.404068,-0.333533,0.297078,-0.595591,-0.789946,-0.145796
0.160739,0.253595,0.504422,-0.564710,0.338137,0.752838
-0.171864,0.422193,0.642957,-0.510563,-0.670200,-0.538663
-0.266705,-0.283395,0.691015,0.383014,0.893647,-0.233869
-0.454403,0.377410,0.517475,0.029795,-0.143142,0.989254
0.099146,-0.391619,0.261499,0.083671,0.546903,0.833005
-0.263924,0.123362,0.756676,0.496587,0.637738,0.588805
-0.007353,-0.453988,0.552280,0.907138,-0.005510,0.420797
0.426454,-0.055797,0.625125,-0.030278,-0.506913,0.861465
-0.186703,-0.442980,-0.064745,-0.526492,0.478339,-0.702850
-0.036094,-0.169516,0.743853,0.937593,0.338601,0.079175
0.068417,-0.018804,0.517188,-0.473103,0.801691,0.365330
-0.052389,-0.564807,0.297478,0.522133,0.722118,0.453787
0.242334,0.243958,-0.083693,0.704717,0.113964,0.700275
-0.096895,0.108985,0.656496,0.715889,0.359788,-0.598377
-0.130405,-0.270100,0.921173,0.898212,-0.365737,0.243828
-0.439963,0.490831,0.568795,0.491483,0.143143,0.859043
-0.289487,-0.037753,-0.555228,0.913072,0.331752,0.237150
-0.086033,0.615252,0.693763,0.833442,0.479807,-0.274154
-0.081396,0.273617,-0.265192,0.974481,-0.220880,0.039981
-0.183655,-0.048454,0.304691,0.304885,0.856213,-0.417066
-0.333334,0.171662,0.358503,-0.561633,-0.787913,0.252512
-0.333864,0.402022,0.212926,0.864801,0.375160,-0.333727
-0.206967,-0.169516,0.768097,-0.326042,0.856749,0.399597
-0.006823,0.642467,0.220626,-0.402569,0.433971,-0.805982
-0.542222,-0.123204,0.596159,-0.378789,-0.898875,-0.220322
0.167098,0.438547,0.670063,0.625242,0.158317,-0.764205
0.369894,0.516049,0.587114,0.872620,0.207192,-0.442273
-0.330287,-0.373277,0.373529,-0.608015,0.334048,0.720229
-0.066165,-0.097678,-0.662249,0.963622,0.237573,0.122437
-0.051726,0.491895,0.634514,0.150762,-0.966323,0.208546
-0.401682,-0.117242,-0.023213,-0.695768,-0.586328,0.414881
0.012386,-0.068018,0.464980,0.894337,0.144254,0.423500
0.024040,-0.351875,0.551421,-0.600857,0.490493,-0.631179
-0.096895,-0.361046,0.318058,-0.668096,0.350329,-0.656442
0.095306,-0.222714,0.430375,0.849959,0.330996,0.409893
-0.112922,-0.037296,-0.046140,0.055848,-0.942785,0.328692
0.037553,-0.118613,0.793113,0.968663,0.231171,-0.090845
-0.019937,-0.048911,-0.050720,0.720434,-0.039956,0.692372
0.040201,-0.085754,-0.014168,-0.502050,0.105721,0.858352
0.152262,-0.311832,0.052437,0.466312,0.423606,0.776602
-0.150274,0.367166,0.657784,0.326312,0.282863,-0.901947
-0.312537,-0.422193,0.388843,0.992675,-0.120795,0.002226
0.041527,-0.520631,0.542119,0.552568,-0.234363,0.799839
-0.034639,0.153926,0.746945,-0.404430,-0.913398,0.046262
-0.376648,-0.152396,0.126342,0.845913,0.501525,0.181394
0.694416,-0.080100,0.407476,0.725552,0.687469,-0.031011
0.004568,-0.067254,0.731803,-0.419104,-0.700833,0.577222
0.048945,-0.346221,-0.179552,-0.075689,0.996951,-0.018973
-0.229087,0.368537,0.427541,0.130877,-0.132072,0.982562
0.020996,0.047847,-0.972923,0.164296,0.322774,0.932107
0.239553,0.112810,0.450468,-0.284422,0.507948,0.813077
0.016359,0.166773,0.587286,-0.199478,-0.532321,0.822704
0.110008,0.538058,-0.001946,0.480926,0.862727,-0.156244
0.064176,-0.096147,-0.941380,-0.513191,-0.488253,-0.705864
0.143915,-0.302045,0.744311,0.840367,0.541643,-0.020147
0.539174,0.307708,-0.011220,0.814267,0.580079,0.021825
-0.048281,0.049527,0.878066,-0.118420,0.555800,0.822839
-0.599708,-0.413936,0.432979,0.312955,0.898540,0.307711
-0.060336,-0.048911,0.539657,-0.654050,-0.754694,0.051525
-0.152396,-0.432129,0.597733,0.979557,-0.192018,0.059974
0.000727,0.055180,0.211495,0.876178,-0.380552,0.295793
0.038612,0.559918,0.248247,0.630708,-0.157921,-0.759782
-0.017418,-0.531182,0.748862,0.952535,0.049317,-0.300409
-0.086696,0.072608,0.762430,-0.484013,0.267137,0.833288
-0.304985,0.297464,0.704554,-0.613453,-0.630649,-0.475349
-0.498245,0.000154,0.095400,0.777733,0.499214,0.381990
-0.466720,-0.204829,0.254029,-0.476292,-0.828306,-0.295051
0.084178,-0.181290,0.636260,-0.432872,0.772650,0.464364
-0.220081,-0.641394,-0.052351,-0.808764,0.483149,-0.335362
0.273860,0.594008,0.369837,0.976094,-0.141416,-0.165050
-0.114115,0.219812,-0.087958,0.650617,-0.015380,-0.759250
0.893901,-0.318251,0.390217,-0.488963,-0.857432,0.160393
-0.067887,-0.402321,0.835475,0.960696,-0.272988,-0.050405
-0.048945,-0.005658,0.964250,0.506851,0.857715,0.086181
-0.182463,0.054266,0.160804,-0.183132,0.299401,0.936387
-0.092258,-0.067412,-0.164009,0.994883,0.088923,0.047960
0.158354,-0.589269,0.591636,-0.272365,-0.957354,-0.096387
-0.071064,-0.503818,0.600195,0.512543,0.847421,-0.138480
-0.072653,-0.075361,-0.037668,0.912475,0.201394,0.356131
0.172264,0.287985,0.796892,0.241570,-0.074787,0.967497
-0.091595,0.162948,0.761428,-0.456713,-0.801321,-0.386391
-0.388702,0.130844,-0.039729,0.171181,-0.127867,0.976907
-0.241008,0.046467,0.744912,-0.394801,-0.396336,0.828885
0.275844,-0.300673,-0.323897,-0.765411,0.639329,0.073512
0.546858,-0.221492,0.473882,0.132371,-0.990275,-0.042812
-0.022188,-0.506421,-0.225806,-0.090677,0.988921,0.117532
-0.110933,-0.107913,0.930246,0.319017,-0.910222,0.264052
0.031195,0.087433,0.634027,-0.500506,0.795444,-0.341707
-0.546196,0.345306,0.231960,-0.697280,0.663493,-0.271250
0.068546,0.153777,0.462518,0.955747,-0.265806,0.126075
-0.078615,0.001992,0.911527,-0.305663,0.037638,0.951396
-0.097954,0.572298,0.687037,0.833442,0.479807,-0.274154
-0.218492,-0.451544,-0.971721,0.104808,0.315147,0.943238
0.433342,-0.446954,0.245499,0.913519,0.370527,-0.167908
0.329228,-0.263989,-0.238486,-0.105357,0.979420,0.172151
0.130672,-0.037147,0.744082,0.287556,-0.277605,0.916650
-0.384066,0.741362,0.271746,0.143590,-0.905445,0.399439
-0.049737,0.267198,-0.188053,0.508187,0.116789,-0.853292
0.240478,-0.191534,0.305436,-0.280249,-0.827178,0.487070
0.236505,-0.126870,0.810402,0.084475,-0.300471,0.950043
-0.290551,0.566644,0.663222,-0.399148,0.916693,0.018844
-0.107757,0.001992,0.757077,0.086121,-0.742639,0.664132
0.123784,-0.869758,0.493059,-0.382665,0.843414,0.377121
-0.043115,0.716750,-0.205484,0.974725,0.090765,-0.204141
0.191603,0.404307,-0.319232,-0.043150,-0.708684,0.704206
-0.633619,0.173192,-0.995020,0.111695,0.022748,-0.993482
0.021392,-0.154542,0.842030,0.964611,0.142604,0.221789
0.201272,0.011163,0.472450,-0.177211,0.939509,-0.293118
0.221536,-0.067104,-0.961359,-0.042687,0.212782,0.976167
-0.444070,0.343170,0.523485,-0.474593,0.732539,0.488005
0.167231,-0.083767,0.786501,0.823321,-0.315056,0.472105
-0.448307,0.045860,-0.985202,-0.255778,0.114752,0.959901
-0.105505,-0.155456,-0.962991,-0.261734,-0.084957,0.961394
-0.073053,0.073523,0.599937,-0.465219,-0.863872,-0.193123
-0.205512,-0.038369,0.355583,-0.361211,-0.932151,0.024908
-0.432942,0.065424,0.440078,-0.156029,0.561416,-0.812691
-0.226043,0.136657,0.427942,-0.025263,-0.993668,-0.109478
-0.075701,0.629620,0.029195,0.419202,0.812586,-0.404937
-0.282070,0.203756,0.822051,0.850800,0.034084,0.524383
0.346577,0.221035,0.307067,0.989691,-0.124623,0.070574
-0.197828,-0.701767,0.378968,0.769563,0.638570,-0.000400
-0.055433,-0.053809,-0.312505,0.647584,0.282060,-0.707868
-0.880654,0.064053,0.492630,0.702595,-0.461312,-0.541805
-0.157162,-0.469728,0.601712,0.414470,0.759586,-0.501242
0.170012,-0.250685,0.804362,0.957923,0.248138,0.144264
-0.560235,-0.175021,0.345307,-0.452389,-0.881034,0.138289
0.325650,0.002141,-0.083608,-0.581215,0.644671,-0.496577
0.169349,0.088506,-0.046827,-0.529787,0.715602,-0.455235
0.669911,-0.227454,0.343533,0.453890,0.634592,-0.625522
-0.410955,-0.426475,0.229155,-0.265894,0.926317,-0.266904
-0.847673,-0.119080,0.455477,0.319572,0.487438,0.812575
0.277700,0.193064,0.634428,-0.306191,-0.594583,0.743451
-0.039938,0.664317,-0.208804,0.974725,0.090765,-0.204141
0.047223,0.469429,0.101354,0.999694,-0.018845,0.016036
-0.340619,0.252215,0.519392,0.959642,-0.044271,0.277719
-0.531623,0.233415,0.027049,0.599043,0.392165,-0.698107
-0.157562,-0.089878,-0.033145,-0.155473,0.838347,0.522497
-0.539837,-0.631607,-0.299825,0.183463,-0.982834,-0.019453
-0.145107,0.080557,0.809400,-0.944477,0.112463,0.308732
-0.462612,-0.205287,0.566191,0.428729,0.743841,-0.512731
-0.132924,-0.150260,-0.648911,0.468041,0.854198,-0.226459
-0.433605,0.516357,-0.177834,-0.520359,-0.847948,-0.101049
0.827671,-0.199175,0.383433,0.454729,0.890562,-0.011005
0.024307,-0.020027,0.924264,0.774016,-0.176488,0.608072
-0.234916,0.166922,0.576495,0.224791,0.854558,-0.468188
-0.335057,-0.739683,-0.177834,-0.834682,-0.194788,-0.515135
0.073712,-0.000154,0.936658,0.956676,-0.280667,0.077434
0.035564,-0.000462,-0.573919,0.203451,-0.476401,0.855365
-0.020066,-0.039283,0.937831,0.202082,-0.657151,0.726165
0.152262,-0.342097,0.762401,-0.489281,-0.871076,-0.042789
0.226043,0.254509,0.276469,0.907558,-0.265502,-0.325342
-0.490961,0.139250,-0.106420,0.910918,-0.089061,-0.402859
-0.000332,-0.412406,0.696854,-0.546982,0.767152,0.335095
0.066824,-0.230505,-0.219853,-0.239642,0.926669,0.289580
0.347507,-0.121982,0.618456,0.199725,-0.375619,-0.904997
0.048811,-0.128400,0.803217,0.920344,0.388232,0.047354
-0.284455,0.093852,0.517932,0.818264,0.574649,-0.014926
0.351214,-0.053194,0.473681,0.846078,0.528276,-0.071253
-0.317703,0.066955,-0.984458,0.231944,-0.033796,-0.972142
0.282070,-0.478143,0.703352,0.858101,0.426329,-0.286192
0.138882,0.364105,0.796949,0.088549,-0.744836,0.661345
0.224717,-0.505349,0.590978,-0.429787,-0.887764,-0.164794
0.060469,-0.049369,0.675158,0.220392,-0.941535,-0.254833
-0.097424,0.048761,-0.039156,0.072322,0.143371,0.987023
0.218096,0.198102,0.730544,0.322616,0.461481,0.826410
-0.400357,0.172884,-0.980508,-0.319094,0.065272,0.945473
-0.234783,0.079941,-0.972465,-0.174298,-0.085083,0.981010
-0.356380,0.079484,-0.980107,0.376358,-0.089149,-0.922175
0.096099,-0.019569,0.449981,-0.021016,-0.952046,0.305234
-0.317703,0.072758,0.733692,0.023106,0.980444,0.195437
0.491224,-0.180833,-0.178178,-0.593525,0.184143,0.783467
-0.429101,-0.044480,-0.984515,-0.228005,-0.011244,0.973595
0.238627,0.704985,0.307525,0.926571,-0.094006,-0.364182
-0.789391,-0.189239,0.407648,0.806289,0.481439,-0.343678
0.123255,-0.125340,0.670865,0.018038,-0.298343,0.954288
-0.152525,-0.266583,-0.799668,-0.423057,-0.904616,0.051893
0.456521,-0.009932,-0.503649,0.460825,-0.554089,0.693271
-0.535334,-0.025680,0.585712,0.302799,-0.867063,-0.395620
0.293595,0.489450,0.574463,0.879372,0.407237,-0.246704
-0.146963,-0.564965,0.445316,0.943679,-0.251557,-0.214916
-0.101398,0.050143,0.665226,-0.053345,0.967251,0.248154
-0.037816,-0.438855,0.603744,-0.628709,0.054720,0.775713
0.340352,-0.081621,0.756905,0.440649,-0.127337,0.888602
-0.296509,0.317028,0.502390,-0.259828,-0.514450,0.817209
-0.492154,-0.037603,-0.986576,-0.204946,-0.106577,0.972954
-0.001524,0.145063,0.793028,0.619765,0.223280,0.752355
-0.392276,0.080557,0.537339,0.960183,0.182654,-0.211389
0.016889,-0.171503,0.435441,0.754500,0.581648,0.303998
0.075834,-0.308772,0.621147,-0.313767,0.162883,-0.935425
0.162195,-0.269335,0.782008,0.795863,0.487340,-0.359308
-0.393339,0.343468,0.629476,-0.619392,-0.630098,0.468326
-0.197694,0.016817,0.030255,0.391043,0.872909,0.291744
-0.676003,-0.083767,0.387641,0.039851,-0.906566,0.420178
0.017152,0.140781,0.842488,0.817475,0.307161,-0.487224
0.067753,0.634975,-0.019378,0.993138,0.110376,0.038654
-0.020729,0.237847,0.285342,-0.669295,0.727211,0.152343
0.312933,0.133596,0.811260,0.967227,0.227662,0.112438
0.052651,0.074903,0.607837,0.952168,0.103834,-0.287394
0.562620,-0.223628,0.481209,-0.024440,0.898854,0.437566
0.057555,-0.072301,0.753213,0.970192,0.218660,0.104473
0.325254,-0.159888,-0.144117,0.233647,0.693946,0.681064
0.159943,-0.859056,0.524601,-0.984223,0.166259,0.060517
0.059406,-0.151333,0.392879,-0.474549,-0.117553,0.872345
0.415592,0.538217,0.380485,0.939500,-0.040116,0.340191
-0.335319,-0.181290,0.829665,0.249672,0.769890,0.587311
0.096628,-0.213086,0.456651,0.949571,0.095724,0.298582
-0.785283,-0.090037,0.400378,0.954809,0.088762,0.283657
-0.241804,-0.705592,-0.065203,0.818529,-0.568897,0.079787
-0.146300,0.141704,-0.202736,0.899663,-0.276377,-0.337968
-0.481159,0.341332,0.540086,0.717435,-0.625753,0.306138
-0.025103,0.076275,0.570627,0.509190,-0.857004,-0.079185
0.104575,-0.342862,-0.633254,0.421670,-0.795660,0.434879
0.089610,0.022162,0.928729,0.122406,0.990924,-0.055561
0.265116,-0.160803,0.689069,0.820741,0.365909,0.438742
-0.048148,0.740447,0.226121,-0.691793,0.302012,-0.655904
0.037816,-0.075967,0.326445,-0.302605,0.951610,0.053558
-0.069080,0.852180,0.224204,0.991897,0.127008,-0.003103
-0.188554,0.448941,-0.006698,0.837459,0.354522,-0.415905
0.507385,-0.105626,0.756562,0.835907,0.513326,-0.194308
0.308301,-0.218591,0.274981,0.170078,-0.314868,0.933773
-0.064042,-0.578111,0.710508,0.768059,-0.491494,-0.410510
-0.478507,-0.450779,0.405158,-0.115301,0.991255,0.064183
-0.102853,-0.346072,0.585368,-0.664016,0.740422,0.104206
-0.347903,-0.022928,0.534276,-0.561342,-0.800276,0.210842
-0.522087,-0.248390,0.334803,-0.414811,0.890245,-0.188139
-0.010663,-0.332926,0.485388,-0.445618,-0.385796,0.807828
-0.373997,-0.149495,0.822652,0.109498,0.953419,0.281074
0.273860,0.232193,-0.570312,-0.686021,0.640019,-0.346049
-0.296376,0.194286,0.722958,0.959030,-0.265443,-0.098998
0.540763,-0.655911,0.658099,0.897936,0.411760,-0.155449
0.680510,0.074903,-0.168188,0.945341,-0.314183,0.087286
0.044704,-0.095382,0.780090,0.801270,0.591309,0.091215
0.327902,0.743806,-0.000286,-0.708894,0.693269,-0.129799
-0.341811,0.072300,-0.511463,0.943319,0.304521,-0.131974
-0.544207,-0.405987,0.410052,-0.008153,-0.999219,0.038668
-0.073316,0.689386,-0.198700,0.974725,0.090765,-0.204141
-0.145107,-0.702840,0.169305,-0.194601,-0.838221,0.509427
-0.141401,-0.219347,0.141083,0.795687,0.434997,0.421496
0.280085,-0.117848,0.597332,0.789094,-0.447517,-0.420783
0.053977,-0.309994,0.505968,0.496157,-0.795741,-0.347310
0.003509,0.620756,-0.078713,-0.384966,0.337647,0.858951
-0.301542,0.744571,0.485302,0.885512,-0.196280,0.421120
-0.108152,0.014372,0.161147,0.646968,0.757273,0.089277
0.020729,0.390247,0.606978,0.296281,-0.716012,0.632095
-0.352406,0.081630,0.358045,0.671565,0.241983,0.700318
-0.176500,-0.093087,0.069153,-0.516865,-0.331742,0.789175
-0.394527,-0.116169,0.803904,0.321955,0.760742,0.563575
-0.513873,0.449864,0.545267,0.912837,-0.390765,0.118456
-0.412677,0.621979,0.448178,0.353808,0.867311,-0.350131
0.003642,-0.086361,0.822767,0.955936,0.171647,-0.238167
-0.532286,-0.195201,-0.061797,0.604325,0.430873,-0.670179
-0.187362,-0.034851,0.810631,-0.514351,0.513670,-0.686721
0.025632,0.204988,0.649140,0.165243,0.957592,0.236034
-0.258228,-0.731426,0.208976,-0.687496,0.700936,-0.189838
0.022318,-0.018953,0.807053,-0.502111,-0.610057,-0.612955
0.322340,0.129622,0.646306,-0.535176,-0.557044,0.635050
0.035302,0.030569,0.216246,0.985105,-0.089185,-0.147017
-0.458506,-0.149037,0.545639,0.968581,-0.154305,-0.195039
-0.061395,-0.306476,0.483241,0.350340,0.841743,-0.410767
-0.040067,-0.220876,0.158342,0.571361,-0.662209,0.484795
0.376119,0.100887,0.689785,0.749626,-0.190142,-0.633962
0.223391,0.330789,0.694364,-0.728663,-0.157300,0.666564
0.024703,-0.156371,0.817815,0.810046,0.538177,-0.232790
-0.057155,-0.251142,0.021954,-0.542637,-0.805241,-0.239024
0.270812,-0.251907,0.628560,0.802302,-0.121356,-0.584453
-0.230675,0.140631,0.605376,-0.321606,0.775057,0.543926
0.426984,-0.263373,-0.171995,0.172901,0.976442,0.129101
-0.013974,0.572755,-0.700919,0.988409,-0.092752,-0.120186
0.025103,-0.098741,-0.472307,-0.586999,-0.799874,-0.125033
-0.108019,-0.110972,-0.441194,0.630249,0.767084,0.119869
-0.056758,0.456890,0.648625,-0.094268,0.985303,-0.142446
0.424732,-0.138486,0.690099,-0.695406,-0.592722,0.406315
-0.170675,-0.026445,0.778287,-0.570825,0.818622,0.063376
0.238494,0.156678,0.629419,0.465095,0.754708,-0.462713
-0.109479,0.431672,-0.696912,0.991816,-0.096361,-0.083763
-0.081926,-0.707579,-0.961101,0.230684,-0.042629,0.972095
0.042190,-0.073215,0.967971,0.951513,0.128415,0.279521
0.069209,-0.070463,0.832813,-0.431728,0.583902,0.687509
-0.515066,0.259856,0.530097,0.585247,-0.801801,0.120834
0.044442,-0.332926,-0.956894,-0.162790,0.301289,-0.939534
-0.179682,0.644146,-0.179180,0.451129,-0.884855,-0.116253
0.122855,0.326507,0.808598,-0.750920,0.418914,-0.510521
0.408041,0.159123,0.513267,0.795351,0.605163,0.034552
0.201539,-0.272693,0.040788,0.839718,-0.408360,-0.357932
0.336645,-0.817791,-0.610012,-0.255316,0.963270,0.083211
0.661301,-0.264596,0.344477,-0.614992,0.732482,-0.291984
-0.306445,0.464232,0.669147,0.465573,-0.438436,0.768775
0.152129,-0.372363,0.723703,0.661957,-0.099090,-0.742963
0.020467,-0.055488,0.688382,0.587240,0.789083,0.180271
0.157825,-0.386730,0.465323,0.437578,0.607080,-0.663309
-0.532816,-0.100271,0.588488,-0.502226,-0.549932,-0.667341
0.139149,-0.192448,0.597876,0.005319,0.936518,0.350579
0.032650,0.470502,0.621261,0.168360,-0.918063,0.358908
0.017152,0.033778,0.864556,0.815586,0.578537,0.010728
0.039672,-0.051822,-0.097404,0.497687,-0.254281,0.829246
0.498508,-0.276976,-0.415090,0.095183,0.667173,0.738796
-0.584343,0.063745,0.427169,0.852642,-0.039320,-0.521015
-0.044041,0.203299,0.645648,-0.572642,0.768698,0.284929
-0.473341,-0.270100,0.314738,0.942956,-0.300081,0.144172
0.117559,-0.197646,0.812749,0.505274,0.859290,0.079492
-0.192928,-0.248091,0.099951,-0.438737,0.865028,-0.243386
-0.047356,-0.304340,0.499299,0.879805,0.471623,0.059290
-0.612688,-0.166466,-0.074105,0.710166,0.598484,0.370783
-0.251340,0.016817,0.346338,0.022922,-0.578413,0.815422
0.007353,0.462394,0.617483,-0.270084,0.831879,-0.484801
0.194117,0.041886,0.723789,0.503213,0.706942,-0.497001
0.050800,-0.003513,0.701291,0.794149,-0.283047,0.537784
0.113848,0.577803,-0.073160,0.474013,0.091791,-0.875720
-0.305649,0.256497,0.086356,0.942835,0.314469,0.110326
-0.075305,-0.345148,-0.186736,0.650286,-0.009471,-0.759630
-0.505134,0.505199,0.595157,0.634970,-0.761318,-0.131179
-0.132791,0.063894,0.818159,0.906055,0.414643,0.084474
-0.136898,0.120451,0.610957,-0.581174,-0.813345,0.026580
-0.135572,0.065732,-0.541346,0.084045,0.653710,0.752063
-0.574278,0.299908,0.174829,-0.585255,0.425054,0.690512
0.557454,0.010398,-0.488680,0.605627,-0.402879,0.686225
-0.427246,-0.626868,0.195438,-0.667650,0.717802,0.197493
0.143123,0.093554,0.497495,-0.241474,-0.255072,-0.936284
-0.252933,-0.202693,0.789306,-0.735990,-0.664273,-0.130618
0.223525,0.347294,0.389931,0.651508,-0.267787,0.709808
0.392805,-0.138644,0.832813,0.844076,0.519730,-0.131972
-0.323665,0.139866,0.068752,-0.160907,0.295128,-0.941811
0.145508,-0.237082,0.804534,0.979309,0.064156,0.191933
-0.386050,-0.302959,0.272090,0.907623,0.050079,0.416788
-0.375589,0.160811,0.388414,-0.164059,-0.970022,-0.179284
-0.211604,-0.170132,0.309500,-0.602424,0.739798,0.299640
0.211337,0.176551,0.270888,-0.687757,0.662719,0.296301
-0.050800,0.598291,0.683945,0.874226,0.485237,0.016535
-0.426320,-0.124118,-0.972780,-0.378308,0.302084,0.875002
0.058084,0.402936,0.598993,0.325277,0.624696,-0.709894
0.157162,-0.275446,0.675044,0.074367,0.494477,0.866004
0.004305,-0.203915,0.019349,0.401564,0.915654,0.017997
0.255843,0.026753,0.500072,0.129457,0.886168,0.444913
-0.099280,-0.178538,0.779231,-0.657341,-0.738772,0.148727
0.260880,-0.228368,0.667373,0.044791,-0.947171,0.317587
0.334261,-0.579940,-0.719896,0.779326,0.577490,-0.243219
0.415721,0.090951,0.761456,0.820550,0.492527,-0.290025
-0.134246,0.452766,0.637433,-0.233314,0.868496,0.437355
-0.031328,0.178696,0.077654,0.932151,-0.359890,-0.039670
-0.483014,-0.330174,-0.081862,-0.594091,-0.556296,-0.581026
-0.448440,-0.037147,-0.982883,-0.201028,0.044971,0.978553
-0.328565,0.208038,0.753585,0.849587,0.526124,-0.037348
-0.070802,0.531182,0.661934,0.974724,0.135079,0.177949
-0.475463,-0.605167,-0.303861,0.201233,-0.979086,-0.029939
-0.165376,0.325434,0.563672,0.315149,0.880265,-0.354704
-0.357439,0.063437,0.721155,-0.495393,0.733284,-0.465703
-0.020467,-0.495412,0.645161,0.726895,-0.686657,-0.011225
-0.254784,-0.460556,-0.310015,-0.720500,0.468161,-0.511572
-0.074112,-0.001983,0.159401,-0.637347,0.080558,0.766355
0.072390,-0.416688,0.062598,-0.466854,-0.802534,-0.371465
-0.055303,0.131003,0.155394,-0.027212,0.442499,0.896356
0.007220,-0.429526,0.468529,0.265966,0.955160,0.130120
0.064572,-0.019103,0.508057,-0.696444,0.716760,-0.034959
0.016622,-0.116785,0.970805,0.908965,0.195439,0.368221
0.125636,-0.545699,0.064688,0.775895,0.613043,0.148882
-0.690046,-0.123969,0.420128,-0.477554,0.849291,0.225049
0.268694,-0.280950,0.625383,-0.223002,0.830094,0.511092
0.085637,0.466369,0.824999,0.302649,0.810590,-0.501345
0.024440,-0.300673,0.660332,-0.522490,0.197951,0.829349
0.121132,0.255732,0.277528,0.366665,-0.162882,0.915984
-0.654283,0.433808,0.257349,-0.709996,-0.685309,0.162042
0.263132,-0.542341,-0.595729,0.958307,0.270918,-0.090836
0.473078,-0.196880,0.461116,-0.229493,0.821783,0.521542
0.014900,-0.231736,0.492630,-0.336219,0.252191,0.907390
-0.082322,-0.157593,0.905630,0.850436,-0.479506,0.216406
0.295450,0.178995,0.777399,0.721792,0.666041,-0.188164
-0.268827,0.259856,0.839339,0.511310,0.859278,0.014267
-0.241938,0.018953,-0.615851,0.780521,0.595475,-0.190256
-0.683024,0.430141,0.140081,0.140833,0.275117,0.951040
-0.402079,0.529503,-0.184675,0.622552,0.746407,-0.235171
-0.383007,-0.500758,0.406789,0.474240,0.081961,0.876572
-0.389761,0.119387,0.249478,0.995021,0.030048,-0.095024
-0.475196,-0.026286,-0.987692,-0.043835,-0.099809,0.994041
0.047486,0.531182,0.216876,0.999611,-0.013686,0.024286
0.124843,-0.486848,0.435097,-0.582812,0.492931,0.646026
-0.040067,0.414552,0.425394,-0.124801,0.845404,0.519343
0.227365,-0.487156,0.484300,0.648631,0.754329,0.101322
-0.085900,0.070929,0.733435,-0.077989,0.034454,0.996359
-0.251077,0.011928,0.792627,0.880041,-0.470657,0.063323
0.316644,-0.187094,0.630936,0.780631,-0.535720,-0.321900
0.090669,-0.289813,0.831926,0.754563,0.388904,0.528572
0.002449,-0.116934,0.947277,-0.481139,0.728663,0.487397
-0.142326,-0.409355,0.695108,0.270372,0.715694,-0.643957
0.052785,-0.428920,0.666113,-0.741065,0.059404,0.668800
0.364064,0.606389,0.443971,0.116065,-0.992937,0.024600
-0.110933,-0.866856,0.380914,0.858428,0.432226,0.276193
-0.005631,0.030876,0.784927,0.308546,0.466306,0.829071
-0.140738,0.411650,0.639809,0.038030,0.933438,0.356717
-0.012119,0.214308,-0.616395,0.938879,-0.258840,-0.226955
0.021788,-0.178230,0.790223,-0.356579,0.375749,-0.855373
0.224584,-0.142619,0.581590,-0.474336,0.310790,-0.823659
0.135042,0.484869,-0.048487,-0.650422,0.630290,0.423893
-0.222995,-0.426475,0.694221,0.779880,0.621904,0.070876
0.362076,-0.132981,0.768813,0.061640,0.988801,0.135918
0.302471,-0.096297,-0.130893,0.822033,-0.511722,0.249805
0.182596,-0.020176,-0.962876,0.076042,0.150361,0.985702
0.068679,0.499694,-0.067865,0.774800,0.192112,-0.602311
-0.112922,0.047847,0.818989,0.958345,0.230160,0.169117
0.000995,-0.326507,0.549904,-0.597596,0.110517,-0.794144
-0.039672,-0.038975,0.783754,0.467815,0.274092,0.840251
0.191336,0.136349,-0.042047,0.176166,0.984360,0.001208
-0.370423,-0.733870,0.219452,-0.485269,0.873874,-0.029286
0.268694,-0.378632,0.708790,-0.444982,0.483601,0.753738
-0.168157,0.053044,-0.316427,0.857146,-0.021075,-0.514643
-0.436386,-0.235403,0.315253,0.852991,-0.418137,0.312360
-0.131331,0.198261,0.689985,-0.387086,0.909719,-0.150254
0.031328,0.326050,0.418868,0.973573,0.228347,0.003773
0.085503,-0.099049,0.761857,0.910582,0.200910,-0.361213
-0.407774,-0.399111,0.385465,0.236337,0.749228,0.618710
0.105505,0.006115,0.817185,0.484745,-0.843082,0.232884
-0.068813,-0.311832,0.359876,-0.058782,0.506430,0.860275
0.082059,0.164935,0.643988,0.986967,-0.160074,-0.016491
0.158221,0.018804,0.789908,0.919324,0.315285,-0.235455
0.047886,-0.043108,0.924121,0.713045,-0.640935,-0.284199
0.101531,0.294711,0.733950,-0.434621,-0.270830,-0.858927
0.287369,0.337357,0.295647,-0.484437,-0.188723,0.854228
0.086696,0.815953,0.233563,-0.272572,-0.766726,0.581237
0.068283,-0.098284,0.955892,0.320667,0.945258,0.060502
-0.384858,0.625645,0.073905,-0.965178,-0.090734,-0.245353
-0.437049,-0.059304,0.289722,-0.536712,0.831595,-0.142797
-0.244852,0.082237,0.773077,0.865388,-0.434402,-0.249797
-0.211470,-0.243650,-0.580473,0.994193,0.102032,-0.034186
0.373467,-0.259399,0.291468,-0.501015,0.421648,0.755776
-0.219155,-0.136041,-0.970204,-0.253678,-0.236290,-0.937984
-0.213192,-0.069091,0.129233,0.528866,0.810797,0.250818
-0.128421,-0.511767,0.223774,-0.629086,0.776452,0.037064
0.151996,-0.066796,0.247188,-0.702016,0.609234,-0.368792
-0.070931,-0.049369,-0.127515,0.883639,0.017231,-0.467851
-0.548580,0.203457,-0.992243,-0.207642,-0.089227,0.974127
-0.498379,0.322841,0.548273,0.908717,0.202173,-0.365184
0.050533,0.130546,0.615479,0.991475,-0.126100,-0.032798
-0.230017,0.646591,0.617597,-0.505957,-0.825700,0.249456
-0.175308,0.575816,0.369751,0.967777,-0.038189,0.248896
-0.001920,-0.188017,-0.319604,-0.403308,0.286173,-0.869165
0.109211,-0.283703,0.822051,-0.522574,-0.739329,-0.424627
-0.012252,-0.457198,0.803790,0.174107,0.963600,0.202882
0.015563,0.007487,0.800928,0.092734,0.980365,0.174026
-0.010268,-0.522469,0.618170,-0.644697,0.761622,0.065562
-0.117426,-0.090186,0.881759,-0.609519,0.141510,0.780039
0.129080,-0.130388,0.613590,0.481437,0.866463,0.132133
0.212530,-0.084374,0.587400,0.389949,0.071701,0.918041
-0.115966,-0.118772,0.232590,0.484703,0.865172,0.128607
0.068813,0.369769,0.590434,0.151416,-0.983991,0.094000
0.005760,-0.287369,-0.493202,0.734701,0.570725,0.366725
-0.001390,0.564806,0.681885,0.300694,0.946328,-0.118516
-0.045634,0.708344,0.217534,-0.627872,0.496172,-0.599659
0.091728,-0.246402,0.008243,-0.183010,0.613329,0.768332
-0.135042,-0.284775,0.700490,-0.396304,0.651134,-0.647277
-0.255447,-0.281407,0.402611,0.555103,-0.818930,0.145654
0.090799,-0.104553,0.174715,0.926837,0.245140,-0.284394
0.367242,-0.199325,0.198557,-0.102067,-0.828002,0.551358
-0.186966,0.136965,0.719753,0.778415,0.623782,-0.070473
-0.505926,-0.226381,0.351118,0.148971,0.933474,-0.326242
-0.151070,-0.415158,-0.653347,0.993185,0.086286,0.078346
-0.401286,-0.153777,0.060738,0.863058,0.498158,-0.083486
-0.187762,0.027826,0.506683,-0.567311,-0.785788,0.246366
-0.083381,-0.331088,0.621805,-0.407609,0.603223,0.685549
-0.044442,-0.436868,0.699259,0.949177,-0.295765,0.107636
0.393735,0.199791,0.556945,0.898625,0.258705,-0.354323
0.150803,-0.144139,0.150356,0.120890,-0.894928,0.429521
-0.446188,-0.110515,0.569225,-0.630519,-0.059791,-0.773868
0.028810,-0.110515,0.976415,0.878104,0.466420,0.106702
-0.278759,-0.396209,-0.965567,0.131003,0.091057,0.987191
0.163787,0.062523,0.692475,0.977540,-0.027389,0.208961
-0.498908,0.503361,-0.167959,0.339179,0.805893,0.485278
0.053181,0.154234,0.770559,0.937185,0.341446,0.071398
-0.101264,-0.435488,0.684346,0.858020,-0.317754,0.403526
-0.545003,-0.043873,0.423677,0.839149,0.457855,0.293594
0.224188,-0.467134,0.221885,0.974925,-0.056139,0.215337
0.835619,-0.197030,0.374446,-0.532129,-0.817686,0.219609
0.635075,-0.071685,0.548530,0.994171,0.103504,0.030188
-0.683554,0.205137,-0.993588,-0.133570,-0.039501,0.990252
0.114774,0.410269,0.406761,-0.526603,0.383975,-0.758454
-0.292535,-0.666155,-0.253599,0.204305,0.899018,0.387331
0.041393,-0.064044,0.731316,0.896406,0.399721,-0.191519
0.104842,-0.314127,0.776483,0.375978,-0.821722,-0.428267
0.134513,-0.038210,0.778945,0.062908,0.996347,0.057743
-0.029076,-0.232343,0.641240,0.251045,-0.951913,0.175605
0.115704,-0.554721,0.599679,0.019301,0.863055,0.504741
0.343667,-0.440386,0.717034,0.552234,0.581097,0.597799
-0.432942,0.368080,0.532301,-0.652814,0.726266,-0.215340
-0.233724,0.054415,0.741707,0.651378,0.756560,-0.057657
0.135572,0.201312,0.654893,-0.534565,0.679475,0.502547
0.111730,-0.031185,-0.464092,0.192058,-0.969571,0.151807
-0.065898,-0.533169,0.619343,0.860096,0.197562,0.470323
0.102853,0.508250,0.667716,0.358623,0.926599,0.113152
0.186966,0.259398,0.774995,0.358513,-0.913548,0.192090
0.019670,0.246868,0.710450,-0.820400,0.567571,0.069330
-0.446455,-0.076891,-0.976043,-0.272838,0.364948,0.890153
-0.115837,-0.158974,0.676561,-0.746103,-0.025422,0.665345
-0.070931,0.124584,0.954432,-0.045069,0.994537,0.094157
0.390687,0.214616,0.255517,0.156021,0.976630,-0.147823
-0.073712,-0.069241,-0.306008,0.736541,0.496040,-0.459838
0.077423,-0.110823,0.774738,0.794699,-0.418366,-0.439799
0.008145,0.217825,0.441509,0.980918,-0.176690,0.081120
-0.552683,0.350503,0.256261,-0.357478,0.822274,-0.442804
0.140871,0.021099,0.809371,0.233979,-0.966584,0.104732
-0.457976,-0.054873,0.587114,-0.601645,-0.798003,0.034852
0.166568,-0.533627,0.810802,0.903684,0.178961,0.389008
-0.452280,-0.330939,0.313965,0.985136,-0.138073,0.102195
-0.747269,0.132225,0.449152,0.205924,-0.922721,0.325854
0.010268,-0.047232,0.821908,0.973302,0.072249,0.217859
0.068679,-0.301280,-0.816956,0.509341,0.860264,0.022754
-0.232531,-0.097062,0.817701,-0.587288,0.772129,-0.242712
-0.259554,0.188782,0.568023,0.036843,-0.446437,0.894056
0.065502,-0.192906,0.225263,-0.242609,-0.960959,-0.133039
0.039538,-0.736165,0.188740,0.744498,0.357644,-0.563749
-0.163520,-0.314733,-0.109798,0.335785,0.100038,-0.936611
-0.367771,-0.406911,0.385208,0.173081,0.526006,0.832682
0.082985,-0.146435,0.422904,-0.226180,0.009281,0.974041
0.058481,-0.242586,0.577096,0.985883,-0.122993,0.113612
-0.673885,-0.209112,0.448407,0.900234,-0.403397,0.163856
0.862904,-0.256189,0.375447,0.686429,0.657980,-0.309639
-0.494935,0.784008,0.187137,0.910838,0.385442,-0.147681
-0.170675,-0.492809,0.696940,0.798327,-0.290502,0.527525
-0.077556,0.021248,0.978705,0.044690,-0.998316,-0.036974
-0.136631,0.031791,0.723445,0.812347,0.497663,-0.304013
0.887676,-0.487920,-0.660131,-0.063318,0.693907,0.717275
0.235842,-0.320387,-0.140424,-0.664217,0.744770,-0.064286
0.141268,0.335986,-0.302945,0.607299,-0.417648,0.675839
-0.097028,0.014522,0.807940,-0.020346,-0.984042,0.176769
0.029606,0.022928,0.955950,0.991953,-0.007150,0.126405
-0.060598,0.186179,0.743481,0.288188,0.918693,0.270094
-0.430294,-0.211556,0.555285,0.962294,0.255593,-0.093077
0.541822,0.041428,0.516530,-0.078413,-0.943116,0.323084
-0.107890,0.527824,0.386925,0.942678,0.053885,-0.329324
-0.066294,-0.432894,0.831526,0.620964,0.762907,-0.179936
-0.183918,0.558387,0.663824,-0.539269,-0.741037,0.400066
0.115308,-0.137422,0.381086,-0.044021,0.967771,0.247956
-0.418240,0.524614,0.545181,0.892372,-0.335870,0.301435
-0.102061,0.119080,0.495492,0.973929,0.135079,-0.182253
0.427776,0.174722,0.714572,-0.366449,-0.884372,0.289139
0.306445,0.107305,0.687580,-0.583282,0.317891,0.747481
0.065102,0.349281,0.715803,-0.690137,0.561130,0.456994
-0.010001,-0.157752,-0.024415,0.376425,0.876493,-0.300106
0.334923,0.119080,0.820935,0.836587,0.531119,-0.134293
0.097028,-0.285541,0.427455,0.575013,0.740680,0.347497
0.550432,0.202077,0.267911,-0.114242,-0.955956,0.270365
0.108019,-0.276976,0.671609,-0.188979,-0.548025,0.814835
0.193325,-0.217667,0.690901,-0.889816,0.439093,0.124197
-0.677196,-0.220876,0.345994,-0.571693,0.158309,-0.805050
0.042453,0.427389,0.456135,0.871535,-0.293184,-0.393027
0.089210,0.531639,0.500873,-0.693682,-0.651359,0.307468
0.019407,-0.097827,0.526147,-0.740533,0.670834,0.039922
-0.548977,-0.143990,0.334259,0.716055,0.698033,-0.003960
0.016756,-0.085903,-0.065976,0.722845,0.402049,0.562007
-0.618254,-0.222864,-0.145863,0.735927,-0.673494,0.069407
0.467115,-0.385658,0.301657,-0.789108,0.297169,0.537587
0.081530,-0.193055,0.705842,0.212829,0.909302,0.357594
-0.493609,-0.023385,-0.173799,0.309116,0.928938,-0.203769
-0.211604,0.145063,0.782408,-0.319154,-0.770261,0.552122
0.270282,-0.245339,-0.415119,0.411040,0.876695,-0.249906
0.034506,-0.085446,0.824341,0.884960,0.116231,-0.450927
-0.320221,0.297006,0.878639,0.758856,-0.375184,-0.532330
-0.681703,-0.270408,0.360334,-0.695225,-0.034170,-0.717979
0.596660,0.019877,0.419183,-0.435094,0.682157,0.587669
-0.857605,0.078570,0.370009,-0.733734,-0.679168,-0.019136
0.205112,-0.346379,0.741621,0.906393,0.387404,-0.168435
-0.487250,-0.685104,-0.303489,0.183463,-0.982834,-0.019453
0.040997,-0.009325,0.943355,0.793214,-0.133645,0.594097
-0.085637,0.115870,0.783840,0.695692,0.471703,0.541764
-0.737200,-0.125191,0.365343,0.272842,-0.053513,0.960570
0.831645,0.109750,0.274237,0.705265,0.706251,0.061727
0.111597,-0.368389,-0.652374,-0.509907,0.802161,0.310695
0.006953,-0.115861,-0.956035,-0.219200,0.488576,0.844538
0.181404,0.102566,-0.573718,-0.476428,0.643586,-0.599011
0.169082,0.378632,0.298738,-0.366933,-0.484194,0.794302
0.117559,-0.035159,0.777943,-0.547170,0.453206,0.703711
0.219418,0.383828,0.284741,0.399201,0.504153,-0.765812
0.149877,-0.107455,0.793657,0.787218,-0.412096,0.458764
-0.027221,-0.197646,0.681856,-0.317314,0.617683,0.719569
-0.145241,-0.002142,-0.075421,-0.332392,0.823347,-0.460017
0.213059,-0.006423,0.366803,-0.818485,0.101218,-0.565542
-0.098880,-0.244882,0.656124,0.843438,-0.474460,0.251991
-0.564079,-0.572149,0.451584,0.939367,-0.067660,0.336171
-0.371616,0.004893,0.116152,-0.170714,0.984201,-0.046954
0.332405,0.304498,0.386324,-0.224736,-0.535533,-0.814063
-0.000332,0.086062,0.678707,0.784565,0.581049,-0.216425
-0.005760,-0.505349,0.657555,0.117727,-0.979974,0.160595
-0.197298,0.010090,0.590091,0.519286,-0.243589,0.819150
0.018344,-0.330323,-0.847697,0.863972,0.498763,0.069198
-0.497449,-0.048305,0.402038,-0.635998,-0.728185,-0.255446
0.088814,-0.336444,0.434525,0.392707,0.481008,0.783845
-0.175575,-0.365487,0.655237,0.873334,0.485834,-0.035409
0.111067,0.135434,0.394968,-0.387860,0.816617,0.427436
0.044175,0.102417,0.594585,0.810700,-0.420766,-0.407089
0.750313,0.176709,0.291439,0.536912,0.841081,0.065642
0.066031,0.165392,0.629934,-0.870128,0.470044,-0.148106
-0.239686,0.637876,0.012823,-0.436228,-0.857950,0.271343
-0.161269,0.013915,0.850502,0.392229,0.918959,-0.040881
0.348566,0.029048,0.821135,0.814519,0.579333,-0.030537
-0.254918,0.282023,0.799353,-0.338738,0.940847,0.007927
-0.058614,-0.471715,0.720497,0.940354,0.063293,-0.334259
-0.010530,0.525071,0.179809,0.958386,-0.105251,-0.265366
0.157295,0.168452,0.567421,-0.440016,0.611946,0.657197
-0.063117,-0.047689,-0.057561,-0.106436,0.901911,0.418603
0.209882,0.167230,0.674070,0.223451,0.152309,-0.962742
-0.223658,-0.285998,0.324728,0.273002,-0.271233,0.922986
-0.000065,-0.416539,0.495034,0.808612,0.582714,0.081179
0.284192,-0.032248,0.518104,0.105188,0.610852,0.784726
0.511755,-0.040356,0.547242,-0.240207,0.721951,0.648912
0.364461,-0.220727,0.660074,0.948142,0.217770,-0.231523
0.535200,-0.118772,0.774680,0.966817,-0.169935,0.190754
-0.052651,-0.080707,0.725792,-0.048948,-0.948114,0.314139
0.180345,0.827111,0.275754,0.931282,0.103525,-0.349279
-0.152129,-0.613414,-0.156739,-0.752133,0.647333,-0.123516
-0.291080,0.305105,0.499184,-0.112897,-0.646603,0.754427
-0.187892,-0.546623,0.189971,0.862848,-0.314856,-0.395423
-0.019407,0.309228,-0.392964,0.656626,0.192074,0.729349
0.373338,0.645061,0.351290,0.103565,-0.438465,0.892761
-0.006027,-0.807090,0.133097,0.711706,0.671768,-0.205432
-0.685143,0.470800,0.243724,-0.091263,-0.759249,0.644370
-0.033579,-0.459493,0.264304,0.561362,-0.823721,-0.079733
-0.372675,0.358760,0.672124,0.977580,0.139903,-0.157369
-0.185377,0.125956,0.420385,-0.330711,-0.900065,0.283750
-0.405126,0.185414,0.378224,-0.399127,-0.914777,0.062300
0.452151,0.575209,0.453903,-0.330542,0.942905,0.040887
-0.008279,0.527357,-0.072330,-0.403015,-0.363866,0.839751
-0.436252,-0.378782,-0.017345,0.285828,-0.951806,0.111215
0.007220,0.029347,0.732032,0.861150,-0.357515,0.361392
-0.694816,-0.336593,0.373673,0.936089,-0.037475,0.349760
-0.195709,-0.120759,0.147809,0.928607,0.346018,0.134018
0.310018,-0.080250,0.794144,0.600698,0.727756,0.330958
0.289888,0.194893,0.820964,0.910273,-0.199523,-0.362759
0.341282,-0.170282,-0.304405,0.976266,-0.162075,-0.143653
0.137427,0.229441,0.429373,-0.098305,-0.506480,0.856630
