-0.038297,0.000963,0.704294,-0.040167,-0.829242,0.557444
0.192589,0.342085,-0.095849,-0.062371,0.284064,0.956775
0.213953,0.196231,0.764617,-0.562286,0.744311,-0.360327
-0.482239,0.418395,-0.530348,-0.315383,-0.523493,0.791510
-0.138515,0.265132,0.624633,0.866128,0.451378,-0.214661
0.677000,0.253581,0.410390,0.283752,0.489909,-0.824302
0.136951,-0.335609,0.729068,-0.190260,0.555138,0.809705
0.195831,0.296928,0.227438,-0.570879,-0.745248,-0.344531
-0.537646,-0.106035,-0.156675,0.167447,0.004246,-0.985872
-0.251410,-0.147691,0.621885,-0.102653,0.982814,0.153422
-0.129656,0.050028,-0.876195,0.501982,0.863543,-0.048031
0.253149,0.107844,0.360447,-0.427378,0.632789,-0.645698
-0.036677,0.691666,0.180120,0.834586,0.211065,0.508839
0.128036,0.150492,0.734044,0.726719,-0.616822,0.302341
0.688464,0.214900,-0.045143,0.373610,-0.782279,-0.498453
0.035288,-0.268458,0.306718,-0.169833,-0.418607,0.892146
0.671790,0.321898,0.051615,0.331976,-0.400495,0.854047
-0.295759,-0.046119,-0.990124,0.459633,0.045850,-0.886925
-0.565204,-0.380648,-0.529616,-0.100214,-0.405101,0.908763
-0.134404,0.537295,0.035313,-0.643419,-0.473794,0.601275
0.575047,0.070972,-0.032703,0.057103,-0.248949,0.966832
0.770445,-0.236837,-0.030367,0.218541,-0.099947,-0.970696
-0.408250,0.245646,-0.021453,-0.611071,-0.389197,-0.689288
0.887334,-0.236020,0.118653,-0.179608,0.511111,0.840540
-0.341149,0.820717,-0.018568,0.891257,0.367900,-0.265160
0.122073,-0.024766,0.963718,-0.668730,0.519459,-0.531942
-0.431756,0.657245,0.194453,0.897889,0.184660,-0.399620
0.136720,0.701992,0.148143,0.147798,-0.386580,0.910336
-0.070024,0.057904,0.615154,0.964766,-0.256774,0.057392
0.766450,0.423996,-0.163651,0.097296,-0.333194,0.937825
-0.134345,0.363612,0.658442,0.889991,0.449899,-0.074206
0.514952,-0.318048,0.423670,0.444040,0.894489,0.052139
-0.135967,-0.251305,0.519831,-0.272245,0.033942,0.961629
0.361296,0.242496,0.034946,-0.259290,0.462721,0.847737
0.277464,-0.637759,0.441101,0.898294,0.417794,-0.136077
0.377044,0.154225,0.042136,-0.048148,-0.129485,0.990412
0.344045,-0.148333,0.132406,0.306631,0.944614,-0.116971
-0.251410,-0.571716,-0.304505,-0.256041,-0.300998,0.918609
-0.599073,-0.030250,0.348969,0.115107,-0.635106,0.763800
-0.016123,-0.184971,0.634936,-0.275404,0.454811,0.846935
-0.311739,0.161868,0.227133,-0.153604,0.979663,0.129100
0.695876,0.511566,0.246121,-0.717924,0.520091,0.462699
-0.093298,0.124413,0.888666,-0.211322,-0.803167,0.557015
0.128384,-0.383099,0.731128,-0.081101,0.659984,0.746890
0.547488,0.563432,0.205214,0.664120,-0.257453,0.701899
-0.482819,0.668913,0.286021,0.968480,0.100117,0.228086
0.472340,0.214842,0.377344,0.771780,-0.281664,-0.570106
0.342944,-0.226685,0.837380,0.090678,0.967145,0.237504
0.508351,-0.638284,0.134054,0.343032,0.098250,-0.934171
-0.269822,0.264549,0.495959,-0.143358,-0.934439,0.325993
0.258069,-0.605146,0.556923,0.211099,0.570558,0.793663
-0.259053,-0.379015,0.490495,0.823392,-0.128481,0.552738
0.143148,0.072372,0.058972,-0.610577,-0.113835,-0.783733
-0.098682,-0.402001,0.277107,0.860583,0.291227,-0.417832
0.048198,-0.138940,0.844752,0.912585,-0.394735,-0.106643
-0.287711,-0.193956,0.625625,-0.428766,0.882721,0.192258
0.292749,-0.727721,-0.006495,0.126867,-0.052875,0.990509
0.373108,0.262915,0.451007,0.753317,-0.655447,-0.053877
-0.148646,-0.255098,0.774645,-0.254227,0.553612,0.793021
-0.044550,0.442782,0.096658,0.909790,0.249253,-0.331896
-0.398117,-0.205041,0.564356,-0.351710,-0.208349,-0.912629
0.203820,-0.615355,-0.234475,-0.634317,-0.696265,0.335942
-0.471414,-0.082057,-0.155744,0.099143,-0.187764,-0.977198
0.087162,-0.533736,0.588992,0.960321,0.269075,0.073366
0.296280,-0.019632,0.565455,0.001709,0.991888,0.127100
-0.360775,-0.590502,0.127811,0.310443,-0.461126,-0.831257
0.583037,-0.396867,0.481672,-0.736463,-0.665320,0.122358
0.143089,0.493714,0.151989,0.808639,-0.281085,-0.516811
0.437719,0.448791,0.195216,0.340934,0.870954,0.353842
0.219800,-0.393950,0.587679,-0.169273,-0.979936,-0.105221
0.116746,-0.154109,0.934183,-0.062699,-0.838265,0.541647
-0.065103,-0.280184,0.858596,-0.493506,0.848118,0.192740
0.077957,-0.014323,0.437361,-0.158423,0.884709,-0.438396
0.398350,0.232578,0.005503,0.894544,0.110763,-0.433039
-0.648399,0.573583,-0.110502,-0.121955,-0.007420,0.992508
0.574236,-0.260523,-0.049035,-0.264800,-0.039146,0.963508
0.398813,0.559698,-0.097543,-0.118296,0.404940,0.906658
0.094514,0.235845,0.154233,-0.704490,-0.045485,0.708255
0.435577,0.348210,0.248808,-0.454466,0.809570,0.371561
0.214996,-0.290511,0.759824,0.915443,-0.253704,0.312409
-0.091851,0.079957,0.859420,-0.573730,-0.813004,-0.099292
-0.363323,-0.544354,-0.037541,0.444501,0.216122,0.869316
0.105341,0.541262,0.133230,-0.239609,-0.448940,0.860837
0.085425,0.228086,0.151287,-0.704490,-0.045485,0.708255
-0.460472,-0.231936,0.201429,-0.043268,0.988855,0.142457
-0.036619,-0.537820,0.640339,0.767584,0.131251,0.627366
-0.389896,0.781512,-0.071992,0.816815,0.077970,-0.571607
-0.177998,-0.625974,-0.298964,-0.071571,-0.368157,0.927005
0.376929,-0.236137,0.497424,-0.545873,-0.837601,0.021160
-0.013461,-0.125930,0.573316,-0.251740,0.931453,-0.262719
0.648632,0.231353,0.366430,-0.440497,0.881531,-0.169902
0.228021,0.401534,0.292431,0.780902,-0.612905,0.120584
0.059547,-0.076865,0.817704,0.973459,0.039956,-0.225347
0.337096,-0.660920,-0.200482,-0.347112,-0.534493,0.770604
-0.865334,0.703801,-0.016889,-0.571271,0.739620,-0.355825
0.321581,0.158426,0.037144,-0.076998,-0.052478,0.995649
0.148821,-0.147808,0.618970,0.568485,-0.056195,0.820772
0.082473,-0.421487,0.593281,0.931619,0.213421,0.294172
0.136488,0.019107,0.492464,0.110965,-0.764350,0.635182
0.125953,-0.115720,0.319983,0.415486,0.420210,-0.806719
0.453698,0.630466,-0.114776,0.199589,-0.107862,0.973925
0.337327,-0.236078,0.859085,-0.666502,-0.745062,-0.025653
-0.294485,0.239870,0.157423,-0.389484,-0.488159,0.781027
-0.235779,-0.217467,0.645269,0.009517,0.856077,0.516760
-0.543377,0.076631,-0.255783,-0.194713,0.938845,0.284002
0.449761,0.759459,-0.110579,-0.609887,0.264265,-0.747129
-0.274512,0.412911,0.184394,0.636428,0.237743,0.733783
0.772817,0.290219,0.418816,-0.252972,-0.490035,0.834189
0.319207,0.076223,-0.266132,-0.610188,0.756074,-0.236693
0.490056,-0.459234,-0.087011,-0.179961,-0.619579,0.764026
0.275437,-0.632683,-0.192515,-0.139638,-0.626745,0.766610
0.196352,0.235320,0.035694,-0.165726,-0.325101,-0.931045
0.406976,0.300721,0.323295,0.379325,-0.601292,-0.703250
0.098567,-0.547621,-0.176137,-0.005015,0.039405,0.999211
0.284990,-0.329074,0.737524,-0.515052,-0.107596,0.850379
-0.403965,-0.696567,0.129872,-0.136581,0.297221,0.944990
0.493877,-0.707301,0.373299,-0.644022,0.252743,0.722051
0.166595,0.689099,-0.026200,-0.518973,0.170750,0.837562
-0.032044,-0.143199,0.847408,0.789526,-0.584075,0.188425
0.507888,0.648027,-0.113357,0.221590,-0.007358,0.975112
-0.066202,0.050728,0.912920,0.706975,0.443500,-0.550903
0.283427,-0.354920,0.737524,-0.507118,-0.154810,0.847859
0.188769,0.310405,0.640660,0.796152,0.197872,-0.571829
-0.699754,0.075581,0.361836,-0.276253,0.072308,0.958361
-0.481718,0.023599,0.460608,-0.551613,-0.815809,-0.173722
0.196411,-0.596745,0.408742,0.779678,0.098506,-0.618385
-0.371023,0.297803,0.578506,0.986581,0.126119,0.103695
0.341844,-0.379773,0.753993,0.582873,0.786521,0.204068
-0.086583,0.444532,0.059017,0.978267,0.135815,-0.156677
0.302881,0.480354,0.530318,0.968016,-0.152027,0.199580
0.280185,-0.201365,-0.288417,-0.429273,0.157453,-0.889344
-0.283600,0.693650,-0.213487,-0.614969,-0.690958,0.379989
0.237980,-0.326624,0.546711,0.836937,0.174372,-0.518779
-0.715790,-0.256789,0.153027,-0.518632,-0.844751,-0.131973
-0.051903,0.058487,0.678483,0.974761,0.063984,0.213885
0.488725,-0.499606,0.110228,0.621723,0.452524,0.639283
0.366796,-0.238412,0.389143,0.416102,0.880499,0.227113
0.149400,0.440448,0.162185,0.799488,0.075693,-0.595894
-0.161093,-0.747557,-0.303360,-0.327809,0.519457,-0.789117
0.216791,-0.225110,0.770555,-0.655185,0.664679,-0.359074
-0.584657,-0.263557,0.413153,0.275834,-0.877616,0.392053
0.249848,0.236078,0.780354,-0.566297,-0.364428,0.739257
0.421798,-0.119512,0.623702,0.814510,0.063601,-0.576653
-0.263684,-0.117295,0.340222,0.965273,-0.080801,-0.248432
0.156694,-0.032934,0.949996,-0.375575,0.189633,0.907184
0.324302,-0.260057,0.761625,0.648741,0.181764,-0.738984
0.061861,0.264491,0.140083,-0.620357,0.156335,0.768581
-0.339065,0.067122,0.474483,0.419833,0.858811,-0.293571
-0.435519,0.189522,0.608835,0.617574,0.413274,0.669184
0.153047,0.032350,0.770738,0.865074,-0.397359,-0.306190
0.026661,-0.133631,0.850186,-0.327938,0.214558,0.920012
0.245101,-0.267816,0.547199,0.905876,0.293146,-0.305704
-0.297728,-0.335959,0.376581,-0.453614,0.833843,0.314549
0.555188,-0.484612,-0.120698,0.456252,0.868282,-0.194730
0.227733,-0.032059,0.853803,0.210272,0.620302,-0.755653
-0.262064,-0.627665,-0.050821,-0.246215,-0.176347,-0.953037
-0.182458,-0.670838,-0.301483,-0.105869,0.363646,-0.925502
-0.650832,-0.552697,-0.545246,-0.312788,0.613951,-0.724726
0.448140,0.082349,-0.320654,0.543906,0.585996,-0.600645
0.366508,0.408419,0.255905,-0.545918,0.791391,0.275088
-0.120336,0.053762,0.886788,0.929772,0.363324,-0.059320
0.386366,-0.396342,0.577315,0.743908,-0.375516,-0.552801
-0.179157,0.942650,-0.209824,-0.058913,-0.002979,0.998259
0.524793,0.343076,-0.146403,0.347404,0.310959,0.884655
0.316659,-0.241971,0.346389,0.940099,0.329286,0.088234
0.151425,0.090633,0.223393,-0.673170,0.734669,0.084283
-0.213895,0.337009,0.224034,0.604021,0.796276,-0.033205
-0.175857,0.790146,-0.217822,0.491369,0.454453,0.742986
0.417513,-0.077682,0.794244,0.844646,0.234838,-0.481065
-0.549284,-0.106444,0.050287,-0.387690,-0.309048,-0.868439
0.191027,0.217642,0.741782,-0.566719,0.821235,0.066353
-0.606020,0.431580,-0.188241,0.126520,0.266022,0.955628
-0.370153,0.758934,-0.076388,0.866466,-0.087571,-0.491495
0.172037,0.432047,0.749811,-0.768637,-0.298383,0.565830
-0.086756,-0.034801,0.507468,0.998722,-0.047478,0.017319
0.225358,0.274759,0.773210,0.318793,0.508025,-0.800176
-0.746939,-0.068230,-0.169573,0.026790,-0.100105,0.994616
0.253785,-0.593594,-0.030993,-0.644834,-0.537094,-0.543801
0.618642,-0.064088,0.085714,0.564561,0.305349,0.766833
0.421045,-0.178554,0.450870,0.771160,0.339738,0.538415
0.089130,0.022491,0.988552,0.490893,0.852050,0.181755
-0.269822,-0.152533,-0.553198,-0.380661,0.186678,0.905676
0.471414,-0.068930,-0.340375,-0.851634,0.406885,-0.330400
-0.512403,-0.417928,0.434369,0.115409,-0.930326,0.348101
0.252742,0.084274,0.375680,-0.658114,0.679800,-0.323663
-0.088666,-0.768502,0.263995,0.934401,-0.187254,-0.303036
0.036041,-0.165835,0.809370,0.818444,-0.489490,-0.300914
0.209379,-0.425104,0.523907,0.518909,0.013369,-0.854725
-0.519640,-0.276684,-0.033069,-0.131656,0.099993,-0.986239
-0.214763,-0.165252,0.638935,0.029826,0.977421,0.209187
0.230512,-0.125638,0.831472,0.636315,0.719228,-0.278954
0.073441,-0.001546,0.902266,0.490480,0.818173,-0.300038
-0.326386,-0.370788,0.484847,-0.675454,0.063783,-0.734639
-0.403329,-0.111928,0.041357,-0.104619,0.973375,-0.203949
-0.516283,0.212100,0.342512,-0.552255,-0.823636,0.128989
0.364307,-0.219509,0.499821,-0.545873,-0.837601,0.021160
-0.786597,-0.274817,0.205016,-0.031283,0.982322,0.184567
0.833377,0.330825,-0.178151,0.242067,-0.441135,0.864178
-0.233869,0.382048,0.174671,0.817784,0.060678,0.572318
0.055320,0.010997,0.180731,0.838030,-0.494372,0.230874
-0.023592,0.687407,0.174442,0.668756,0.389348,0.633382
-0.772470,-0.155567,0.297484,0.030214,-0.751306,0.659261
0.149747,0.043785,0.552374,0.267207,-0.876130,-0.401245
0.047445,0.269741,0.707134,0.876765,0.156768,-0.454649
0.021160,0.002071,-0.202467,0.628216,0.543766,0.556474
0.199190,0.456725,0.552740,0.831487,-0.553564,0.046853
-0.369922,-0.312856,-0.470102,0.393838,0.842402,-0.367766
-0.235026,-0.340276,0.476436,0.480663,-0.737632,-0.474197
0.866320,0.219568,-0.044715,-0.732779,0.051444,-0.678519
0.400956,-0.367930,0.561578,0.838113,0.107765,-0.534746
0.037025,0.415595,0.444718,0.646191,0.392546,-0.654481
0.228196,0.191272,0.433042,0.952344,-0.238033,-0.190737
-0.003561,0.082699,0.769257,0.727292,0.572867,-0.377980
0.181069,-0.195064,0.799434,0.269631,0.923183,-0.273919
-0.016761,-0.208249,0.776004,0.963034,0.248642,-0.103649
0.384339,0.365188,0.484465,-0.495541,0.797998,-0.342984
0.255407,-0.189114,0.109281,-0.591528,0.596010,-0.543016
-0.027586,0.821475,-0.453877,-0.034293,0.207216,0.977694
0.287307,-0.605087,0.440399,0.874665,0.475851,-0.092341
0.120857,0.652169,0.143197,-0.019528,-0.219648,0.975384
-0.320944,0.266649,-0.111998,0.700736,0.488859,-0.519603
0.387755,-0.055687,0.451572,0.860405,-0.379878,0.339698
0.446519,-0.583093,-0.163468,0.373870,0.592957,-0.713178
-0.047039,0.097926,0.306825,0.410524,0.828479,0.380911
-0.378954,-0.250489,-0.438567,-0.031044,-0.962207,0.270542
-0.380286,-0.140865,0.525433,-0.091798,0.993669,-0.064764
-0.440382,-0.138532,0.078006,0.123956,-0.992260,0.007448
0.101173,0.071556,0.835563,0.827287,-0.166919,0.536409
0.258822,0.164493,0.389906,0.662363,-0.626243,0.411212
-0.025445,-0.373005,0.766266,0.984405,-0.075105,0.159077
0.122999,0.305505,0.723832,0.614481,0.083622,-0.784487
-0.370153,0.304746,0.535981,-0.241020,-0.761286,0.601957
-0.400433,-0.396867,0.382274,-0.603144,0.758181,-0.247750
0.098799,-0.629357,0.050439,-0.449337,-0.215581,-0.866961
0.184311,-0.515825,-0.510704,-0.867183,0.317399,-0.383733
0.007498,-0.545054,-0.037923,0.432553,0.062587,-0.899434
0.029615,-0.122663,0.775088,-0.286185,0.563749,0.774781
-0.022608,0.669146,0.182639,-0.701405,-0.407350,-0.584890
-0.266753,0.665471,-0.519969,0.200540,0.228099,0.952762
-0.162830,-0.262040,0.678926,-0.625560,0.448795,-0.638167
0.519120,0.278667,0.049874,-0.247723,-0.336534,0.908503
0.193516,0.198681,0.484374,-0.810562,0.559354,0.173531
-0.315965,0.050669,0.090476,-0.667763,0.477480,0.571057
-0.322737,-0.733263,-0.032474,-0.093784,0.285599,0.953749
-0.292111,0.075640,0.311206,0.937364,0.115225,-0.328744
-0.284932,-0.094017,0.720367,-0.311995,-0.923397,-0.223601
-0.251410,-0.683790,0.183952,0.878952,0.368706,-0.302489
0.586221,-0.395759,0.496676,0.807019,0.590429,-0.010734
0.040094,-0.619906,0.577269,0.767718,0.571027,0.290754
0.417572,0.361687,0.495638,-0.549636,0.712118,-0.436793
0.050804,-0.014731,0.556953,0.771594,-0.009707,-0.636041
0.424750,0.324174,0.183936,0.910997,0.337993,-0.236318
0.634042,-0.141507,0.109327,-0.010729,0.492311,0.870353
0.275206,-0.118404,0.132375,0.027822,0.963477,0.266343
-0.549398,0.059421,0.461570,0.126872,-0.069377,0.989490
0.172558,-0.169219,0.784506,0.429311,0.782764,-0.450524
-0.557851,-0.132056,0.292798,0.902362,-0.226483,0.366673
0.699349,-0.047227,0.559685,-0.135304,-0.929894,0.342037
0.599596,-0.195998,0.145975,0.085220,0.875106,0.476368
0.061052,0.034859,0.949614,-0.740851,-0.662675,0.109552
0.528788,-0.367346,0.351426,0.826009,0.406964,-0.389987
-0.323548,-0.275342,0.693106,0.760007,0.255231,0.597702
0.318571,-0.313906,-0.496295,0.154872,-0.415619,0.896256
-0.016413,0.019749,-0.637164,0.222855,0.973474,-0.051807
-0.189751,-0.136023,0.669325,0.439806,0.805167,-0.397840
0.046634,0.221201,0.818315,0.029531,-0.793800,0.607462
0.247011,0.020507,0.782506,-0.134294,-0.440653,0.887575
0.103083,0.246521,0.150203,-0.650701,0.123777,0.749178
0.150906,-0.024883,0.898084,0.025564,0.945277,-0.325267
-0.136430,0.358595,0.644140,0.907800,0.365198,-0.206227
-0.102504,-0.464776,-0.061124,-0.074170,0.349767,0.933896
-0.491966,-0.541729,-0.025437,0.186118,0.356818,0.915446
-0.213026,-0.293078,0.378367,-0.484862,0.485023,0.727778
0.276248,-0.176045,0.837837,0.698177,0.675527,-0.237089
-0.197973,-0.151075,0.503575,-0.676002,0.731698,0.087404
-0.095150,-0.111111,0.570919,0.465990,-0.880482,0.087210
-0.454103,0.039468,0.460562,-0.477151,-0.871289,-0.114813
0.227270,0.294886,0.733403,0.747576,0.097673,-0.656955
-0.823360,0.683848,-0.023941,-0.452549,0.788077,-0.417294
-0.067708,-0.139173,0.373436,-0.770486,0.604596,-0.202026
0.455610,-0.281118,0.367102,0.608035,0.792428,0.048492
-0.299869,-0.633266,0.186699,0.821903,-0.316230,-0.473786
0.259170,-0.478428,0.539094,-0.319204,0.308874,0.895938
-0.046750,0.359470,0.686390,0.816657,0.468733,-0.336692
0.205384,0.563140,-0.205458,-0.037730,0.748409,0.662163
-0.013344,-0.699484,0.325432,0.346503,-0.310399,-0.885205
-0.165841,0.577025,0.033206,0.812905,0.477781,-0.333033
-0.345028,0.574692,-0.064253,0.258816,0.154697,-0.953458
-0.169836,-0.453575,-0.054973,0.268039,0.260075,0.927640
0.394470,-0.051603,0.812729,0.992917,-0.056419,-0.104555
0.279722,0.390625,0.680819,-0.294791,0.915168,-0.274894
-0.181937,-0.195239,0.170184,-0.441738,-0.600030,0.666956
0.025966,0.060763,0.960131,-0.602520,0.564108,0.564582
-0.254131,-0.394475,-0.525800,0.027842,-0.999255,0.026729
0.622810,-0.070389,0.085866,0.620188,0.361837,0.696017
-0.202605,0.648202,-0.255554,0.844836,0.138373,-0.516822
0.167752,0.275750,0.866839,0.920340,-0.374144,-0.113975
0.214127,0.315014,0.794091,0.998611,-0.044735,0.027846
-0.110145,-0.029783,0.729388,-0.667263,-0.154021,0.728723
0.345375,-0.393542,0.332530,0.489686,-0.036853,0.871120
-0.465220,-0.375981,-0.065657,-0.606438,0.578116,-0.545908
-0.062904,-0.804265,0.342939,-0.415715,0.519721,0.746372
-0.400087,0.251014,0.578658,-0.507809,0.846473,-0.160043
-0.079229,-0.347160,0.415244,0.573354,0.810612,0.119054
-0.314053,0.511333,0.269063,0.679734,0.427528,0.595971
-0.042119,-0.273125,-0.190988,-0.231454,0.024198,-0.972545
-0.035808,-0.571716,0.179617,0.745700,0.018316,0.666031
0.066725,0.527843,0.444550,0.935914,-0.092633,-0.339829
-0.471992,0.151133,0.473460,-0.418066,0.744094,-0.521100
0.457751,-0.350019,-0.496615,-0.159957,-0.578199,0.800062
0.000955,-0.477553,0.157133,-0.712765,-0.199513,-0.672429
0.330266,-0.392608,-0.518397,-0.188924,0.611284,-0.768531
-0.653205,0.437823,-0.011303,-0.247673,-0.142465,0.958312
0.246837,-0.623465,-0.010967,0.767448,0.514763,0.382155
0.001071,-0.508532,-0.046257,0.576063,0.091751,-0.812240
0.213895,0.374581,0.571026,0.885503,-0.046825,-0.462268
-0.012881,0.619206,-0.210572,0.050011,0.050624,0.997465
0.316486,-0.121613,0.710797,-0.721122,-0.659391,-0.212573
-0.613315,0.700184,-0.054927,0.775598,-0.107025,0.622088
0.241223,0.449958,0.345107,0.237093,-0.500588,0.832585
0.204517,-0.362387,0.782369,0.903394,-0.098358,-0.417379
-0.612273,0.352294,0.353288,0.837375,0.532036,-0.125464
0.017166,-0.250022,0.739569,0.744069,0.388440,0.543577
-0.008019,-0.418453,0.607583,0.922502,0.067197,0.380097
0.209321,-0.398092,0.774218,-0.293320,0.923821,0.246004
-0.082471,0.002246,0.877706,0.873864,0.362964,0.323447
0.454914,-0.447332,-0.100535,-0.516540,-0.772546,0.369268
0.686844,0.515125,0.077685,0.968876,-0.213146,0.125885
0.225590,-0.717920,0.040258,0.701366,0.486011,0.521420
-0.081719,-0.454567,0.597066,0.878549,-0.475976,-0.039996
0.404661,0.162918,0.371055,-0.468060,-0.090430,0.879058
-0.000724,-0.195648,0.291928,0.479840,0.349112,-0.804907
0.165843,0.698667,0.142175,-0.018107,-0.256053,0.966493
0.113504,0.318748,0.897687,-0.164117,0.869460,-0.465945
-0.070603,-0.577375,0.327096,-0.882499,0.387029,0.267217
0.328933,0.184096,0.143594,0.676833,-0.675083,0.293531
0.009409,-0.086433,0.945661,-0.869827,0.072535,0.487996
0.208280,0.300195,0.021942,0.018411,0.867566,0.496982
0.222464,-0.376273,0.757596,-0.160326,0.938623,0.305423
-0.130872,-0.427963,-0.478039,0.628141,0.169718,-0.759364
-0.620148,-0.224002,0.225744,-0.140900,0.988062,-0.062297
0.245505,0.351127,0.489243,-0.840829,0.499641,0.208241
0.369229,-0.198331,0.124728,0.324553,0.915494,-0.237772
-0.548531,0.409702,-0.118409,-0.569224,0.177046,0.802894
0.161268,0.130889,0.455433,0.793847,-0.444221,0.415301
0.255638,0.475745,0.353563,0.752647,0.213908,-0.622709
-0.003096,-0.422362,0.595265,0.893311,0.412722,-0.177922
-0.132321,-0.563957,0.167650,0.076506,0.447965,-0.890772
0.107309,0.021966,0.916400,0.860966,-0.448837,-0.239339
-0.050629,0.824451,-0.211472,-0.228894,0.326160,0.917184
-0.104413,0.601762,0.013379,0.853394,0.464562,-0.236433
0.476799,0.263090,0.370689,0.672378,-0.719213,-0.175043
-0.408019,-0.098976,0.294797,0.046098,-0.991532,0.121403
-0.346301,-0.133398,0.739966,0.584975,0.588070,0.558550
-0.835461,0.452058,0.005854,0.250543,-0.121948,0.960394
-0.018903,-0.006855,0.814987,0.171080,0.981325,-0.087935
-0.218816,0.135031,0.781499,-0.015770,0.998092,0.059699
-0.147779,0.260465,-0.069885,-0.381064,0.695960,0.608630
0.056536,0.028500,0.505392,-0.617611,0.782244,-0.081559
0.381735,-0.079082,0.810744,0.922238,0.333757,-0.195148
-0.274916,0.294536,0.238794,0.887116,0.387062,-0.251412
-0.218295,-0.163793,0.523541,-0.500863,0.686540,-0.527066
-0.389318,0.740789,-0.073365,0.895963,0.028412,-0.443219
0.026198,-0.087191,0.747262,-0.398389,0.424193,-0.813232
-0.237226,-0.270558,0.682467,0.067813,0.809872,0.582674
-0.516804,-0.056270,0.340543,0.079288,-0.819129,0.568103
0.322681,-0.175812,0.327111,0.817569,0.557887,0.142631
0.219743,0.613197,-0.212739,-0.281062,-0.372807,-0.884318
-0.236822,-0.232111,0.229056,-0.079835,0.986448,-0.143339
0.156694,-0.158426,0.870761,-0.147945,0.907233,0.393752
0.226227,0.289636,0.447099,0.811888,-0.370150,0.451472
0.071473,-0.160468,0.880713,-0.550505,0.823263,0.138499
0.306180,0.158309,0.035511,-0.052299,-0.057258,0.996989
-0.440730,0.032992,0.450641,-0.262796,-0.942454,0.206684
-0.268027,-0.442840,-0.044318,-0.427949,0.173779,-0.886939
0.316603,0.501356,0.564280,0.015317,-0.912245,0.409359
0.163874,-0.083866,0.885323,0.939079,0.016973,-0.343281
-0.238963,0.327207,0.259477,0.924804,0.270941,-0.267075
0.002287,0.016131,0.763610,0.862123,0.486793,-0.140633
-0.250484,0.116712,0.776019,0.066505,0.993800,-0.089104
0.442698,0.378956,-0.326531,-0.254927,0.503244,0.825686
-0.395917,0.401301,-0.082615,0.554033,0.304650,-0.774749
0.218294,0.309355,0.725252,-0.319323,-0.461731,0.827549
0.480098,0.411452,-0.330286,-0.279397,0.382170,0.880843
0.419771,-0.891485,-0.018645,0.157512,-0.098405,0.982602
-0.562021,-0.068639,-0.299834,-0.689689,0.704401,-0.167774
-0.583963,-0.263440,0.264255,0.020464,-0.984975,0.171479
-0.412535,0.546979,0.205382,0.860091,0.306504,-0.407798
-0.021797,0.052186,0.669752,0.871323,0.132182,0.472571
0.125605,-0.372480,0.736852,0.213150,-0.820481,-0.530450
0.159242,-0.048978,0.680285,0.295280,-0.169839,0.940194
0.102620,-0.099618,0.677980,0.973636,0.220674,0.057754
-0.037603,-0.779878,0.328149,-0.415715,0.519721,0.746372
0.173774,-0.470144,0.524136,-0.116826,0.453099,0.883772
-0.809350,-0.454625,-0.031741,-0.464776,0.680701,-0.566242
-0.141063,-0.923339,0.248166,0.565231,-0.425321,-0.706835
0.307396,-0.366588,0.767548,0.019722,0.980091,0.197568
0.170069,0.078323,0.573896,-0.444942,0.893667,-0.058192
-0.256333,-0.091625,0.733250,-0.370162,-0.801282,-0.470029
-0.419192,-0.067880,-0.158797,-0.105622,0.091835,0.990157
-0.195889,-0.196231,0.750010,-0.098971,0.815759,0.569862
-0.440498,0.291328,-0.016096,0.339219,0.104607,0.934873
-0.611520,0.398151,-0.133535,-0.758929,0.553196,0.343513
0.014908,-0.299262,0.876852,-0.532283,0.454239,0.714382
-0.416471,0.251830,0.508078,-0.339035,-0.916869,0.210730
0.517731,0.599545,0.202909,0.708379,0.705750,0.010820
0.153452,0.181938,0.742347,0.723682,-0.688332,0.049834
-0.054335,-0.223768,0.627594,-0.482530,-0.866605,0.127128
-0.307279,0.141799,0.243206,-0.016871,0.982266,0.186734
0.311680,-0.016365,0.266590,0.838624,-0.105068,-0.534481
0.315270,0.569324,-0.117295,0.484881,-0.379638,-0.787886
-0.210247,-0.283101,0.421868,-0.714823,0.606670,-0.347821
0.641337,-0.561798,0.382427,0.576465,-0.379500,-0.723649
0.662527,0.246871,0.403476,-0.007212,-0.961256,0.275562
0.421856,0.407602,0.334727,-0.913736,0.112426,0.390444
-0.060066,-0.619848,0.271673,0.954315,-0.130683,-0.268708
-0.908987,-0.254864,0.228018,0.292544,0.955486,0.038266
-0.546967,0.587118,-0.186501,0.158690,0.505564,0.848070
-0.158662,0.854672,-0.290188,0.952655,-0.301539,0.039017
0.366971,0.329541,-0.320502,-0.020601,0.413053,0.910474
0.027125,-0.248505,0.049279,0.975707,-0.198998,-0.091625
-0.533999,0.471602,-0.105557,0.159022,0.008952,-0.987234
-0.470372,0.701817,0.295973,0.447335,0.280205,0.849339
0.080388,0.024883,0.924475,0.002745,-0.988219,0.153023
-0.144072,0.351769,0.645269,0.907800,0.365198,-0.206227
0.269186,-0.421779,0.640675,0.653111,0.451881,0.607658
0.109625,-0.020507,0.990979,0.787489,0.614358,0.049241
-0.632247,-0.356145,-0.523541,0.071229,-0.474015,0.877631
0.071646,-0.027216,0.342787,0.350683,0.597667,0.720982
-0.300390,-0.155917,0.611277,-0.334253,0.937253,0.099152
0.771139,0.475511,-0.157561,0.308120,0.264481,-0.913845
-0.355333,0.233161,0.572644,0.989201,0.041913,0.140446
-0.402287,-0.213617,0.565455,-0.466520,-0.438746,-0.768024
0.162773,0.545463,-0.138969,-0.384252,0.747943,0.541231
-0.008540,0.164143,0.806089,-0.150274,-0.469746,0.869918
0.467246,-0.314897,0.349411,0.773367,0.631868,0.051442
-0.576551,-0.089116,-0.161850,-0.337418,0.202226,0.919377
0.412593,0.337767,0.633318,0.364133,0.586184,-0.723737
0.417630,0.303171,0.325310,-0.169464,0.652597,0.738511
0.274222,-0.201832,0.826863,-0.672177,-0.670132,0.314805
-0.867477,-0.331641,0.219501,0.745666,0.287546,0.601082
-0.457749,-0.220209,0.566096,-0.211420,0.976985,0.028299
-0.182573,-0.257723,-0.477429,0.180137,0.124175,-0.975772
0.348040,0.354861,0.456456,-0.494311,0.834791,0.242449
0.237806,-0.257548,0.524701,-0.528747,-0.522517,-0.668882
-0.256910,-0.135089,0.325829,-0.655920,0.624566,0.423895
0.132147,-0.631399,0.576842,0.665669,0.302004,0.682407
0.041541,0.073364,0.618726,0.905857,0.415335,0.083181
-0.015256,-0.923514,0.077838,0.857352,-0.020462,0.514324
-0.343870,-0.157959,0.554770,0.140902,0.759054,0.635597
-0.634968,0.142382,0.483610,0.044330,-0.557113,0.829253
0.141467,-0.138415,0.900587,0.931254,-0.360687,0.051682
-0.180953,-0.287360,0.162659,0.492972,0.626155,-0.604077
0.169431,-0.433622,0.759290,0.844280,-0.488961,-0.219338
0.427067,0.303463,0.228140,0.432978,-0.898787,-0.068647
0.170705,0.044194,0.556342,0.216953,-0.972762,-0.081648
-0.401880,0.182404,0.465584,0.008269,-0.890744,0.454430
0.326329,-0.402001,-0.128483,0.663023,0.659349,-0.354486
0.622579,0.649602,0.218784,-0.115689,-0.681766,0.722365
-0.190736,-0.265424,-0.181693,0.205672,-0.130754,0.969847
0.152468,0.181646,0.454792,0.815003,-0.490783,0.308062
0.013750,-0.009422,0.621061,0.987425,0.145480,-0.061860
0.003330,-0.019282,0.599768,0.967893,-0.200249,-0.151933
-0.488029,-0.047811,0.049218,0.135816,-0.042431,0.989825
0.247300,0.317523,0.199505,-0.753842,0.634053,0.172332
0.558778,0.338409,-0.258103,-0.626462,0.560853,-0.541285
0.375655,-0.113153,0.094078,0.068378,0.997556,0.014358
-0.274049,0.419620,-0.246045,0.724410,-0.677097,-0.129500
0.788740,-0.131122,0.103206,-0.095492,0.716219,0.691312
0.418729,0.752983,-0.102061,0.083910,-0.430997,0.898444
0.664032,0.384324,-0.155744,-0.568412,-0.109169,-0.815469
0.283948,-0.356670,0.746728,0.134349,0.954169,0.267419
-0.053350,0.022199,0.856734,-0.717405,-0.678030,-0.160018
-0.101982,0.003763,0.800212,0.279141,0.866952,0.412885
0.167348,-0.145766,0.879889,0.984089,-0.085530,0.155738
0.306470,-0.239462,0.102321,0.951706,-0.283925,-0.116800
0.169952,-0.096817,0.148219,0.569163,0.431595,0.699842
0.244869,0.047636,0.540361,0.676522,0.628641,0.383573
0.341497,0.460342,0.521663,-0.543573,0.700252,-0.462791
-0.087740,-0.256206,0.520274,-0.426597,0.139886,0.893559
-0.451786,0.198156,0.510490,-0.186538,-0.933134,0.307350
-0.089940,0.081765,0.879004,0.878231,0.427379,-0.214612
0.207179,0.578484,-0.012570,-0.658694,0.221857,0.718959
0.260907,-0.139348,-0.063963,0.795285,0.520375,0.311016
-0.006918,-0.027100,0.843164,-0.437424,-0.895054,0.086823
0.188189,0.365246,0.571225,0.886377,0.188718,-0.422753
-0.311622,-0.269216,-0.120332,-0.455002,0.344784,0.821034
-0.001708,-0.251364,-0.735127,-0.531022,0.048771,-0.845953
-0.599711,0.295003,0.326729,0.667185,0.741913,-0.066550
0.105631,-0.007555,-0.991391,-0.575613,-0.253893,-0.777308
-0.309481,-0.559989,-0.738012,-0.184970,-0.369684,0.910560
0.076045,-0.037718,0.923361,0.291791,0.116106,0.949409
0.110030,0.000263,0.352617,-0.104118,0.076438,0.991623
0.132437,0.182346,0.910417,0.225572,0.839313,-0.494642
-0.587320,0.368688,0.378779,0.705706,0.702225,-0.094119
-0.336054,0.214667,0.538484,0.771070,-0.632374,-0.074527
-0.798407,-0.158718,-0.170260,-0.176715,-0.517282,0.837372
-0.358344,-0.154575,0.550298,0.006989,0.892905,0.450190
0.121030,0.727429,0.147639,0.307594,0.204416,0.929301
0.241048,0.426738,0.653481,-0.714019,0.572012,0.403708
-0.162136,-0.252122,0.780858,-0.518379,0.564850,0.642049
-0.177073,-0.010064,-0.539003,-0.553700,0.830438,-0.061555
0.932610,-0.201365,0.126041,-0.430932,0.259124,0.864380
0.520394,0.231936,0.382640,-0.238687,0.670013,0.702930
0.238268,0.217351,0.756222,0.225833,0.960860,0.160463
0.014040,0.485196,-0.011654,0.621055,-0.252270,-0.742058
0.322101,-0.032059,0.482023,-0.126991,-0.955913,0.264772
0.106267,0.293778,0.533981,0.910363,-0.380530,0.162592
-0.042871,0.004405,-0.206573,0.628216,0.543766,0.556474
0.287307,-0.381698,0.763243,-0.006832,0.984303,0.176357
0.020351,-0.202124,0.887002,-0.575880,0.816283,0.045203
0.636533,0.212508,-0.285120,0.382605,0.170900,0.907968
-0.025677,-0.056329,0.547596,-0.449230,0.569538,0.688346
-0.734202,-0.535544,-0.535584,-0.557911,0.512728,-0.652569
-0.089767,0.507482,-0.204085,0.541375,-0.106417,-0.834020
0.340628,-0.351769,0.744744,0.852451,0.512012,0.105696
0.082066,0.060879,0.866930,-0.200473,-0.362636,0.910113
-0.227673,-0.169978,0.762068,-0.334776,0.650573,0.681675
0.137879,-0.086433,0.873707,0.824433,0.565940,0.004726
0.043392,-0.035909,0.877584,0.403017,0.794893,0.453566
-0.272775,-0.480179,-0.286982,0.253466,0.249842,-0.934523
0.562600,0.079957,0.598287,-0.016828,-0.834439,0.550844
0.071994,0.354336,0.139610,0.668327,-0.323511,-0.669836
0.538168,-0.205449,-0.606866,0.921471,-0.365313,0.132052
-0.303053,0.162101,0.584718,0.701067,0.641242,0.311950
0.273006,0.321432,0.216555,0.339636,-0.822781,-0.455718
0.431698,0.396284,0.207244,0.712696,0.260728,0.651218
-0.283775,0.395058,0.194010,0.668767,0.671380,0.319372
0.365812,-0.466760,0.121187,0.184023,0.386247,0.903852
-0.257490,0.458651,0.187798,0.618768,0.107456,0.778190
0.382255,0.275809,0.651283,-0.060915,-0.682344,0.728489
-0.052771,-0.028441,0.740454,-0.864771,0.299607,-0.402998
-0.383007,-0.165602,0.546223,-0.246037,0.890288,0.383215
-0.321928,0.665646,-0.062024,-0.237508,-0.088888,0.967310
-0.152468,0.198623,0.611475,0.817123,0.445796,-0.365481
0.247300,0.418920,-0.101634,0.215821,-0.425216,-0.878984
-0.346360,-0.206091,0.128437,0.178700,0.737971,0.650742
0.183905,0.153992,0.620969,-0.420883,-0.291288,0.859074
-0.159298,-0.260815,0.390654,0.796450,-0.579106,0.174082
0.320191,-0.013564,0.858367,0.514924,0.446383,-0.731845
0.211810,0.053295,0.356829,-0.406006,0.755604,-0.514025
-0.226747,-0.214434,0.496218,-0.728245,0.628318,-0.273633
0.291881,-0.274700,-0.088064,-0.773009,-0.537136,0.337552
-0.156636,0.106385,0.786917,-0.552203,-0.823197,0.131983
0.150210,0.201424,0.300048,0.959031,-0.186030,-0.213663
-0.167636,-0.004463,0.701745,0.639375,-0.306971,0.704960
0.427878,0.212975,0.352204,0.378727,-0.740886,-0.554665
0.086409,0.333158,0.718246,0.883565,-0.247009,-0.397868
0.170590,-0.436306,-0.031833,0.128946,-0.007243,0.991625
-0.399334,0.768502,0.143579,0.695008,0.160642,-0.700827
-0.299754,-0.354511,0.458517,0.660285,-0.718108,0.219874
0.811377,-0.127447,0.102718,-0.122911,0.281059,0.951787
-0.392386,-0.473703,-0.193400,-0.070932,-0.704701,0.705949
0.057289,-0.496864,-0.174473,-0.210973,0.180886,0.960610
-0.190504,-0.141157,-0.406727,-0.622248,0.776523,0.099089
-0.267969,-0.659403,-0.722214,-0.085676,0.121854,0.988843
0.045129,-0.209475,0.849362,0.891415,-0.441909,0.100479
0.547605,0.229602,0.384991,0.139181,0.768695,-0.624289
-0.180546,0.594936,0.028856,0.864435,0.286174,-0.413347
0.259923,-0.023366,0.884438,-0.586251,-0.660595,-0.468960
0.223158,0.351711,0.343504,0.430525,-0.088844,-0.898195
-0.325923,0.830227,-0.015684,-0.733023,-0.644545,0.217346
-0.269011,-0.297453,0.424173,0.878546,-0.477411,-0.015348
0.115589,-0.022257,0.945005,-0.215393,0.190089,-0.957848
0.009003,-0.758934,-0.185463,0.246173,-0.342272,0.906780
-0.388739,0.853388,-0.060147,-0.024226,-0.196204,0.980264
0.394239,0.349961,0.234246,0.483804,-0.875051,-0.014797
0.011955,0.008372,-0.350968,0.964227,-0.263233,-0.031221
0.181184,0.026750,0.572934,0.031921,-0.651326,0.758127
0.158084,0.600128,-0.035465,-0.329370,0.195299,0.923782
0.501114,0.132989,0.364477,-0.161358,0.950946,-0.263940
0.003851,-0.444182,-0.020156,-0.451619,-0.213469,0.866297
-0.286206,-0.079607,0.048531,-0.067682,-0.337201,0.938996
-0.034071,0.026458,-0.282632,-0.313061,0.899625,0.304414
0.320018,-0.027800,0.665662,-0.335475,-0.835510,-0.435179
0.168447,-0.032700,0.871219,0.933721,-0.343595,0.100540
-0.175567,0.073831,0.757397,0.122678,0.980958,-0.150568
0.509162,0.304279,-0.288432,-0.730018,0.471596,-0.494642
0.020061,0.174470,0.562112,-0.160268,0.968348,0.191352
-0.455956,-0.020507,0.327630,-0.074048,0.996783,-0.030660
-0.058677,0.270441,0.687092,0.847150,-0.075242,0.525999
0.027240,-0.696217,-0.071122,-0.392329,-0.684646,0.614279
0.012187,-0.486538,0.569286,0.912446,0.244866,0.327846
-0.321811,-0.122488,0.744560,-0.573014,-0.537541,-0.618631
-0.377103,0.680406,0.213502,0.998643,-0.039552,-0.033868
0.153800,0.117587,0.880775,0.951222,-0.113259,0.286964
0.382776,-0.095184,0.033054,0.925068,0.372730,0.072951
-0.652569,0.174470,0.083546,0.035444,-0.592340,0.804908
0.004835,-0.002946,0.628128,0.858614,0.194988,0.474090
-0.174815,-0.299204,0.393295,0.693280,-0.678688,0.242373
-0.404950,-0.108602,-0.581986,0.329317,0.671793,0.663509
0.084904,-0.487588,0.521694,-0.307630,0.474208,0.824919
-0.020525,0.008605,-0.695487,0.182359,0.982871,-0.026640
-0.312433,-0.187772,0.644033,-0.283448,0.933054,0.221513
-0.308032,0.488171,0.184730,-0.612905,-0.160534,-0.773677
-0.310638,-0.196523,0.390532,0.423416,0.539998,0.727407
0.202027,0.312214,0.516809,0.342994,-0.863120,0.370648
-0.003328,0.459467,0.428294,0.906129,-0.418708,0.060113
0.460124,0.575100,0.217593,0.428267,-0.314246,-0.847253
0.028977,-0.222193,0.849789,0.886193,-0.382730,0.261112
0.048083,-0.267699,0.322104,0.588791,0.059596,-0.806085
0.300390,-0.592661,0.409596,0.766615,0.595407,0.240399
-0.111882,0.275284,0.217654,0.858147,0.512696,0.026950
0.649327,0.318923,-0.294248,0.326535,0.448172,0.832176
-0.304733,0.140223,0.283441,-0.205690,-0.972455,-0.109646
-0.406513,-0.102943,-0.151165,-0.052363,0.248970,-0.967095
0.486814,0.313789,-0.139091,0.231039,0.208711,0.950295
-0.126820,-0.450424,0.183082,0.761670,0.629629,0.153057
0.264670,0.367755,0.520412,0.957595,0.265582,0.111707
-0.010565,0.408010,0.431485,0.856177,0.413746,-0.309474
0.422550,0.336484,0.251066,-0.535370,0.775949,0.333589
-0.151657,0.291036,0.016859,0.772596,-0.108626,-0.625536
-0.126704,0.298445,0.630067,0.850296,0.416571,-0.321659
0.086468,-0.568741,0.578750,0.899576,0.428456,0.084783
-0.042698,-0.696858,0.328546,0.599495,-0.179097,-0.780083
0.259806,0.727896,-0.247754,-0.243853,0.364426,0.898738
0.860703,-0.170911,0.111479,0.013692,0.299942,0.953859
0.266349,0.130480,0.720657,0.776691,0.456665,-0.433829
0.190448,0.667396,-0.212678,0.462683,0.318492,0.827338
-0.412128,0.769668,-0.097559,0.936322,-0.158052,-0.313561
0.350354,0.330358,0.225408,0.497969,-0.816054,-0.293398
-0.158604,-0.152942,0.758298,0.151657,-0.893310,-0.423081
-0.156636,0.906712,-0.212052,0.173054,0.100423,-0.979779
0.171516,0.082407,0.586168,-0.433137,0.871003,-0.231830
0.312143,-0.167936,-0.316075,-0.745700,0.158526,-0.647149
0.286727,0.191155,0.032962,-0.437870,-0.352331,-0.827123
0.114315,-0.322657,0.191782,-0.732788,0.594554,-0.330949
0.430309,0.381173,0.195186,0.958145,-0.030921,-0.284610
-0.294137,0.790730,-0.012860,-0.617677,-0.758184,0.208883
0.179854,0.495114,-0.014478,0.005431,0.086741,0.996216
0.902504,-0.210291,0.112044,-0.590847,0.124397,0.797136
-0.220379,-0.115545,0.497699,-0.610895,0.767065,0.196005
-0.156752,0.062863,-0.973533,0.385244,-0.453492,-0.803699
-0.412881,0.545171,0.288478,-0.685436,-0.614544,0.390529
-0.028977,-0.058312,0.541918,-0.508372,0.570953,0.644648
0.322507,0.652286,0.185600,0.345005,-0.524529,0.778358
-0.868345,0.695983,-0.021514,-0.571271,0.739620,-0.355825
-0.368475,0.129722,0.489609,-0.689498,-0.715152,0.114674
-0.547603,0.431755,-0.176579,0.003845,0.522215,0.852805
0.130467,0.057962,0.577193,0.404939,-0.904362,0.134740
0.295759,0.666696,-0.215395,0.334769,0.298551,0.893755
-0.000607,0.300545,0.382869,0.998903,-0.044632,0.014146
0.174237,0.537703,-0.135855,-0.373298,0.718412,0.586969
-0.444262,0.211458,0.511681,-0.312691,-0.889793,0.332404
-0.299175,0.190689,0.529188,0.234895,-0.877571,0.417963
-0.476856,0.353344,-0.107159,0.154356,0.292284,-0.943792
-0.243016,-0.401884,-0.726870,0.246757,-0.201976,0.947796
0.182226,0.233045,0.882148,0.918630,-0.287016,0.271551
0.119121,0.081649,0.878622,0.400002,-0.443031,0.802323
-0.031640,-0.129139,0.697609,-0.309252,-0.543399,-0.780436
0.223332,-0.356437,0.472911,0.478763,-0.825815,-0.298021
-0.003328,0.315773,0.123186,0.838858,-0.118892,-0.531207
0.309712,-0.788863,0.459967,0.980911,0.144660,-0.129953
-0.018498,-0.551763,0.542285,0.672165,0.739164,-0.042790
-0.286727,-0.462443,0.489365,-0.523822,-0.775477,-0.352486
-0.246894,0.548146,0.102687,-0.088199,-0.468228,0.879195
0.314345,0.535253,0.597356,0.440756,-0.849982,0.288556
-0.357881,0.110061,0.272573,0.201979,0.976061,0.080684
0.181069,-0.503515,-0.471628,0.834915,-0.161197,0.526244
-0.268490,-0.009831,0.355349,-0.582499,0.803581,-0.122281
-0.013344,0.686765,0.172962,0.577566,0.569285,0.585092
-0.045419,0.090750,0.553336,0.451043,0.177121,-0.874750
-0.419655,-0.101018,0.050668,-0.262818,0.881557,-0.392154
0.308959,-0.020507,0.866381,-0.535783,-0.199955,0.820338
0.165263,0.568274,-0.162185,-0.239221,0.970009,0.043089
-0.141989,-0.675272,0.212525,0.777429,-0.022437,-0.628570
0.022609,0.545171,0.436506,0.847090,-0.506754,0.160120
-0.600347,-0.188530,0.288631,-0.420716,0.518128,-0.744676
-0.140830,-0.878300,0.240244,-0.621301,0.412520,0.666192
-0.210305,0.649602,-0.519999,-0.259491,-0.142466,-0.955179
0.158547,-0.141157,0.143960,0.772056,0.232912,0.591339
0.097005,-0.058312,0.299773,-0.534205,0.581791,0.613306
0.563005,-0.178204,0.142571,0.045768,0.951162,0.305282
0.205384,0.011406,0.482252,0.193800,0.973966,-0.117611
-0.154378,-0.591144,0.492174,-0.859943,0.499066,0.106914
-0.057925,-0.601529,0.318777,0.915888,-0.296404,-0.270729
-0.081662,-0.710277,-0.175480,0.148140,-0.308553,0.939601
-0.404891,-0.504565,-0.037648,0.252640,0.460225,0.851097
-0.333333,-0.632683,-0.037572,0.711167,0.111846,0.694069
0.617543,-0.563315,-0.147441,0.303032,0.930518,-0.205691
-0.091620,0.321782,0.694800,0.308632,-0.392240,0.866541
0.399971,0.402409,-0.336437,0.262561,-0.671002,-0.693411
0.170010,-0.532394,0.541643,0.095600,0.629271,0.771284
0.516283,0.183279,-0.273169,0.410449,-0.434163,0.801894
-0.057981,-0.369272,0.296629,-0.333084,0.019730,0.942691
-0.305542,0.099209,0.767990,0.011911,-0.988513,0.150664
-0.075293,-0.219218,0.646185,-0.546458,0.455965,-0.702481
0.001534,0.158893,0.128880,0.541540,-0.160205,-0.825269
0.346013,0.853855,0.220264,0.910080,-0.318900,0.264683
0.240353,0.120212,0.380366,0.814958,-0.514294,0.267105
0.204110,-0.005047,0.783926,0.435629,0.899371,0.036859
-0.335708,0.439456,-0.082371,0.614574,0.373160,-0.695018
-0.384281,0.163793,0.566279,0.686433,0.673795,0.273513
0.006398,0.017123,0.089896,0.664908,0.745641,-0.043787
-0.328006,-0.628366,-0.041922,-0.711634,-0.062450,-0.699769
0.334318,-0.051078,0.481046,-0.028101,-0.971664,0.234688
-0.041597,0.145533,-0.216235,0.979184,0.123126,-0.161364
-0.058156,0.422071,0.079074,0.977080,0.147732,-0.153262
0.083109,0.261924,-0.027131,0.565419,-0.021775,-0.824517
0.279897,-0.358070,0.597066,0.430364,0.847983,0.309373
-0.345839,0.025583,0.298430,-0.207833,0.494036,0.844236
0.280706,0.429305,0.664838,0.856135,-0.316556,-0.408443
0.052020,0.711560,0.165788,-0.445917,-0.048604,-0.893754
0.230279,0.122488,0.359210,0.919965,-0.322680,-0.222581
0.190043,-0.243838,0.616924,0.918389,0.395646,-0.005063
-0.238327,0.411627,0.166917,0.928635,0.360251,0.088638
0.635432,0.071322,0.589144,0.099869,0.993817,0.048522
0.320539,0.218693,0.741492,-0.215244,0.571775,0.791671
0.423708,-0.450191,0.614055,0.844279,0.516958,0.141236
-0.165958,0.243838,0.103069,0.363938,-0.271090,-0.891100
0.482299,0.146933,-0.032977,-0.207761,0.479751,0.852452
0.617658,-0.416236,-0.069870,-0.454682,-0.611049,0.647984
-0.389143,0.036726,0.448840,-0.028702,-0.892682,0.449771
0.176958,0.692891,-0.208252,0.726287,0.089822,0.681498
-0.119640,0.701992,0.189309,-0.569580,-0.548660,-0.612005
-0.119640,-0.379540,-0.069412,-0.289191,-0.157123,-0.944289
0.162600,0.291736,0.725893,-0.267446,-0.330905,0.904972
-0.277695,-0.227852,-0.464515,0.039837,-0.979702,0.196464
-0.845418,-0.534611,-0.038946,-0.415467,0.707341,-0.571888
0.110378,0.320207,0.889307,0.242113,-0.799798,0.549276
0.212506,0.066188,0.891261,0.855899,0.195256,-0.478865
0.261833,0.288761,0.434186,0.427061,-0.892748,0.143594
-0.003907,0.393133,0.119309,0.713845,0.024019,-0.699891
0.412188,-0.547971,0.115524,0.861826,0.493705,-0.116242
0.391749,-0.464193,0.617688,0.720082,0.640293,0.267407
-0.018440,-0.174878,0.799083,0.607915,-0.511762,-0.607074
0.781850,0.291969,0.415366,-0.252972,-0.490035,0.834189
-0.455204,0.225985,0.528868,-0.379111,-0.813764,0.440526
-0.419482,0.235670,-0.135459,0.801199,-0.563882,0.200294
0.421915,-0.319273,0.441437,0.510770,0.837129,-0.195777
0.259053,0.451941,-0.105694,-0.201655,0.548912,0.811191
0.271211,0.167644,0.446306,-0.652744,0.757333,0.019263
-0.731537,0.129489,0.351029,-0.382186,0.015164,0.923961
-0.292342,0.392550,0.216143,0.818025,0.539740,-0.198785
-0.135446,-0.013623,0.490739,0.731591,-0.495413,-0.468337
-0.322159,-0.322015,0.503102,-0.692265,0.309692,-0.651813
0.015719,-0.271608,0.307619,-0.049485,-0.434308,0.899404
-0.004312,-0.576675,0.619352,0.800177,0.203100,0.564329
0.430945,-0.678364,0.103008,0.916447,0.100234,-0.387398
0.559994,-0.380123,0.469247,-0.685709,-0.720728,0.101754
-0.560862,0.096876,0.434232,-0.107268,-0.965168,0.238629
0.315792,0.008955,0.860642,-0.336878,-0.214553,0.916777
-0.334897,0.249964,0.540438,0.856513,0.400764,0.325229
0.730555,-0.250430,0.165025,-0.233103,-0.651738,-0.721734
0.014851,0.294711,0.133215,-0.639857,0.271997,0.718750
-0.500825,0.491555,-0.186913,0.149821,0.294443,0.943852
-0.563236,0.316764,0.370048,0.649890,0.746371,-0.143432
-0.668663,-0.236312,0.291623,0.009501,-0.763972,0.645179
0.229411,0.282518,0.645056,0.537493,0.515623,-0.667258
-0.157040,-0.653452,0.479398,0.887535,-0.293571,0.355102
0.254712,-0.388408,0.104671,0.171968,0.625230,0.761258
0.496309,0.208541,-0.141030,0.464957,-0.075646,0.882096
-0.441019,0.091683,0.457525,0.079793,-0.679169,0.729632
0.853756,0.207899,-0.042441,-0.426649,0.006545,-0.904394
0.189926,-0.031942,0.828542,0.795826,-0.582996,0.163637
-0.580952,0.073831,0.468347,-0.131108,-0.851392,0.507881
-0.031929,0.037776,-0.755398,-0.264811,0.964187,-0.014768
-0.179272,-0.080307,0.680162,0.499364,-0.547499,0.671476
0.323260,0.258598,0.116638,0.655707,-0.714182,0.244934
0.733680,-0.298037,-0.028017,0.218541,-0.099947,-0.970696
-0.375481,0.247046,0.551061,0.966317,0.256331,0.022947
0.134520,-0.227035,-0.151730,0.581081,0.444693,-0.681611
0.257258,0.565707,0.187737,-0.721931,0.199138,0.662691
0.004372,0.100376,0.556816,0.199473,0.140592,0.969765
0.676944,0.272425,0.401812,0.284755,0.440735,-0.851274
-0.870023,0.677372,-0.003381,0.031726,0.827441,0.560656
-0.306295,0.198798,0.497897,-0.325987,0.813865,-0.480994
-0.087104,-0.002888,0.799617,-0.082306,0.994768,0.060521
0.080736,0.539687,0.144525,0.589827,0.316487,-0.742927
0.066087,-0.520142,0.610636,0.821349,0.096815,0.562150
0.240933,-0.085033,0.852613,0.801871,-0.168450,-0.573260
-0.576782,-0.542895,-0.554435,-0.183771,0.633701,-0.751433
0.476510,0.181821,-0.030428,0.182956,-0.566300,-0.803636
-0.011955,-0.515767,0.301987,-0.780177,-0.050055,-0.623553
0.304502,0.394942,0.678270,-0.284998,0.889279,-0.357713
0.057520,-0.014673,0.968831,0.229645,-0.745268,0.625971
0.439397,-0.330941,-0.486953,0.163127,0.589692,-0.790982
0.276769,-0.810157,-0.020354,0.217733,0.830673,-0.512420
0.225996,-0.250722,-0.493608,0.227958,0.647924,0.726794
0.116977,0.104227,0.832327,0.948173,-0.282119,0.146210
0.314286,0.015898,0.009151,0.932197,0.207870,-0.296307
0.154436,-0.603921,0.557503,-0.498266,-0.654735,-0.568377
-0.126877,-0.665587,-0.083043,-0.439948,-0.540328,0.717280
0.108988,-0.191272,0.698479,0.516714,0.463435,0.719885
0.124158,-0.580059,0.163803,-0.144121,0.964395,0.221747
0.240353,0.210992,0.487091,0.981473,-0.119576,0.149710
0.520857,0.079140,-0.298018,0.233688,-0.822093,0.519185
0.099320,0.642134,0.140526,0.003198,-0.114469,0.993422
0.599827,0.432747,-0.156767,0.069845,0.488880,0.869551
0.337213,0.891135,0.233177,0.910080,-0.318900,0.264683
-0.153798,-0.829060,0.171298,0.508071,0.512322,0.692380
0.404718,-0.437881,-0.101863,0.735372,0.430930,-0.522998
0.133305,0.240279,0.528333,0.933233,-0.296221,0.203297
0.229816,0.252997,0.656397,-0.297588,-0.590441,0.750213
-0.063193,-0.131881,0.762358,-0.699737,0.485026,0.524517
0.333912,0.459701,0.526456,0.920594,-0.325495,0.215775
-0.306353,0.086841,0.334758,0.947863,0.318556,0.008830
-0.427240,0.682448,0.296614,0.244713,0.291409,0.924768
-0.492141,-0.261632,0.409062,-0.171620,0.962175,-0.211579
-0.649385,0.563840,-0.008586,0.281847,0.171373,0.944031
0.012824,-0.278726,0.750483,0.865063,0.408049,0.291825
-0.346591,0.106269,0.542040,0.773260,0.530226,-0.347749
-0.323258,-0.356670,0.426097,-0.103773,0.288552,-0.951824
-0.146273,0.025174,0.728381,0.185646,0.870449,-0.455910
0.419019,-0.095767,0.666104,-0.149648,0.948645,-0.278708
0.264843,0.209708,0.778644,0.899272,0.077171,0.430529
0.442756,0.362971,0.141991,0.998781,-0.020049,-0.045100
0.320364,0.184913,0.591144,0.298755,-0.919918,0.253960
0.214300,-0.216126,0.612239,0.926739,0.372778,-0.046802
-0.174293,-0.174878,0.766021,-0.185625,0.656996,0.730685
0.531453,0.637992,-0.123492,-0.318572,-0.090248,-0.943593
-0.015834,0.636300,0.140450,0.916530,0.209671,-0.340604
0.172152,0.225110,0.173023,-0.572278,0.580731,0.579007
0.278160,-0.031475,0.768097,-0.283879,-0.709789,0.644680
-0.196411,0.039235,0.395431,0.058803,-0.975281,0.213003
0.289333,-0.005047,0.265460,0.475399,0.701591,0.530817
0.126241,0.152067,0.897214,-0.209237,-0.759504,0.615933
-0.138340,-0.520434,0.182563,0.441643,-0.792633,0.420338
0.490694,-0.008197,0.498859,-0.256877,0.938488,-0.230770
0.155364,-0.108019,0.856475,-0.501760,0.842979,0.193968
-0.463887,0.161285,0.497256,-0.628346,-0.759684,0.167513
-0.170299,-0.180887,0.642171,0.059675,0.926484,0.371573
-0.063193,0.813133,-0.208847,-0.242997,0.355736,0.902443
-0.416876,-0.173945,0.373436,-0.271316,0.961358,0.046674
-0.107945,0.761209,-0.201261,-0.065063,0.416600,0.906759
0.120799,0.117179,0.886163,0.719506,-0.161981,0.675332
-0.202605,0.051370,0.469324,-0.481623,-0.808951,-0.337101
-0.257780,-0.365654,-0.032565,-0.450193,0.023393,-0.892625
0.639775,-0.658295,0.118195,0.380381,-0.409630,0.829164
0.107368,0.660045,0.146494,0.026271,-0.209541,0.977447
-0.264669,-0.101018,0.311740,0.601375,-0.381155,-0.702189
0.014388,-0.059829,-0.267704,0.997239,-0.071534,-0.019951
-0.243479,0.127855,0.582093,-0.641190,-0.749930,-0.162727
0.343812,-0.113561,-0.073564,-0.637403,-0.416451,0.648295
0.193863,0.522826,-0.002389,0.091578,0.255582,0.962440
0.054509,-0.494005,0.601462,0.870198,0.126695,0.476135
0.306643,-0.037776,0.872471,0.626678,0.585298,0.514490
-0.039108,0.034801,-0.272695,-0.278294,0.942433,0.185400
-0.079461,-0.580584,0.480329,0.955465,-0.294645,-0.016446
0.279549,0.242729,0.629700,-0.167658,-0.902919,0.395763
0.515473,-0.698842,0.128254,-0.149116,-0.570233,0.807836
0.428745,0.379948,-0.081959,0.569554,0.134394,-0.810892
0.388855,0.282226,0.449618,0.856381,-0.483533,-0.181129
0.034825,0.079665,0.881660,-0.020742,0.802087,0.596846
0.600348,-0.060296,0.099787,0.318160,0.556140,0.767778
-0.369401,-0.256731,0.660075,-0.291811,-0.877592,-0.380366
-0.364828,0.467343,0.119844,-0.558521,-0.328732,0.761570
0.036155,0.509349,0.132986,-0.198341,-0.514433,0.834278
-0.430482,0.617631,0.125293,0.839817,-0.044348,-0.541055
0.767203,0.151600,-0.040792,0.022967,-0.230994,0.972684
