0.096315,0.639230,0.264211,0.634047,-0.751874,0.180750
0.293023,-0.874944,0.681715,-0.761815,0.646762,-0.036560
0.830896,0.571317,-0.955405,0.059241,-0.135989,0.988938
-0.160918,0.247390,-0.974515,-0.038612,-0.179842,0.982937
-0.395054,-0.328923,0.672134,0.888646,0.207332,0.409050
-0.638576,0.811183,-0.005851,0.975142,-0.126782,-0.181727
-0.033073,-0.608678,0.597021,-0.652511,0.575282,0.493234
0.808234,0.199001,0.400731,-0.264476,0.573406,0.775408
-0.051170,0.433936,0.689175,0.088712,-0.812019,0.576849
-0.180064,0.166894,0.223793,-0.391813,0.892142,0.224867
0.124850,-0.236881,-0.985016,0.083918,0.257579,0.962606
-0.437175,-0.266459,0.691781,0.807674,-0.046052,0.587828
0.025971,0.704871,0.308193,-0.725530,-0.680692,0.101310
0.601148,0.115392,0.580402,0.089173,-0.886571,0.453917
0.346509,-0.087565,0.136532,0.795305,0.494663,-0.350426
0.360344,-0.048842,0.450525,-0.619849,-0.662386,0.420753
0.182781,0.208536,0.675149,0.834302,0.330497,0.441262
0.112558,0.048647,0.994264,0.943743,-0.124898,0.306184
0.181914,-0.016087,-0.976125,0.325851,0.369378,-0.870276
-0.204894,0.355646,0.649549,-0.481449,0.532879,-0.695879
0.159621,-0.049362,0.819090,-0.609482,0.727200,-0.315772
-0.541366,0.308944,0.445415,0.663209,0.662702,0.347821
0.297286,-0.011805,0.240962,0.385685,0.560892,0.732562
0.045361,-0.198482,0.775759,0.829732,0.547338,0.109386
0.231880,0.618732,0.620462,0.536639,0.806821,-0.247101
-0.252387,0.209703,0.523658,-0.135801,0.973135,-0.185919
0.289686,-0.026270,0.454089,0.367275,-0.923366,-0.111822
0.188771,-0.192450,0.878299,0.040794,-0.172382,0.984185
0.048203,-0.266329,0.732672,-0.056034,0.869087,0.491475
0.209956,0.165920,0.951330,-0.447133,-0.698676,0.558501
-0.030294,0.645845,-0.972906,0.280231,-0.306087,0.909825
-0.085262,-0.561199,0.583353,-0.062619,0.512091,0.856646
0.496218,0.508140,0.666066,0.519792,-0.805868,0.283537
-0.039126,-0.818901,0.642574,-0.245077,0.792648,0.558253
-0.915264,0.385354,0.382425,0.669298,-0.186250,0.719271
-0.487571,-0.716806,0.236887,-0.474029,-0.299611,0.827967
0.406909,0.789453,0.449605,0.793899,0.551540,0.255986
-0.858136,0.574755,0.566133,0.821014,-0.440870,-0.362726
0.289686,0.205812,0.811706,-0.203134,0.474170,0.856679
0.583608,-0.447753,0.624217,0.953391,-0.096023,0.286052
0.379240,-0.822404,0.633236,-0.132952,0.475205,0.869773
0.340210,0.372382,0.390422,-0.402959,0.379675,-0.832749
-0.531238,-0.162418,0.679083,-0.632105,0.175483,0.754751
-0.208350,0.625933,0.628356,0.776105,-0.162408,-0.609332
0.036593,-0.118765,0.816331,0.688299,0.080068,0.720995
0.723806,0.109944,0.403554,-0.547455,-0.106034,0.830090
0.266775,0.607835,-0.253213,0.925928,-0.356225,0.125546
-0.204830,-0.466499,0.053154,-0.297144,0.624088,-0.722647
0.359416,0.159759,0.798102,0.745932,0.658593,-0.099199
0.366582,-0.080496,0.653829,0.448595,0.051572,-0.892246
0.131703,0.232017,0.217853,0.995462,-0.095008,-0.005454
0.274555,0.044237,-0.961613,-0.477756,0.628709,-0.613575
-0.068461,-0.073166,0.660612,-0.187993,0.859916,0.474556
0.385110,0.342609,0.663499,-0.373084,0.893622,-0.249496
0.298583,-0.417526,0.617179,0.943080,0.288745,0.165005
0.562054,-0.213919,0.271697,-0.201940,0.605713,0.769631
0.285057,0.183045,0.776666,-0.639288,0.561282,0.525617
-0.358802,-0.057209,0.740298,0.941424,0.217788,0.257469
0.091188,-0.004994,0.375936,0.603744,0.783680,0.146076
0.059135,-0.519232,0.600010,-0.730764,0.659549,-0.176010
-0.243494,0.270027,-0.183823,0.039564,0.982606,0.181439
-0.544514,-0.638711,0.593546,0.926959,0.159144,0.339736
-0.762283,0.321528,0.413850,-0.776862,-0.301881,0.552588
0.071673,0.313874,0.669592,0.177262,0.908305,-0.378894
0.293516,-0.732179,0.710789,-0.818640,0.433934,-0.376206
-0.048328,0.799572,0.489487,-0.307631,-0.552361,0.774765
-0.834357,-0.119674,-0.023428,-0.656751,0.754107,0.000736
0.136212,0.287864,0.565034,0.902816,0.208312,-0.376204
-0.541860,-0.390154,0.521640,0.177783,0.920781,0.347211
-0.199643,0.010897,-0.972982,0.486761,0.288545,-0.824504
-0.186856,-0.877213,0.603319,0.875896,0.477628,0.068396
0.390048,0.499579,0.066171,0.805212,0.189977,0.561731
0.814962,0.202439,0.624665,-0.527433,0.842804,0.107219
-0.049500,0.633391,0.459556,-0.635784,-0.306275,0.708502
0.085074,-0.513265,0.371375,-0.384706,0.014134,0.922931
-0.301486,0.260167,0.591720,0.290374,0.773007,0.564042
-0.276041,0.116884,0.838239,-0.636477,0.600957,-0.483476
-0.125963,0.155348,0.891163,-0.104979,0.970531,-0.216907
-0.278449,0.110917,0.839657,-0.636477,0.600957,-0.483476
0.010466,-0.828696,0.630336,-0.307684,0.766842,0.563279
-0.433899,0.169229,0.602514,-0.035601,-0.352338,0.935196
-0.201064,0.354025,0.661467,-0.283736,-0.369390,0.884898
0.540435,0.320814,0.651274,0.059814,0.395573,0.916485
0.523947,0.473762,0.652155,-0.255542,0.588939,0.766713
-0.243679,0.766167,0.665479,-0.743244,0.509633,-0.433431
-0.479172,0.124473,-0.103804,-0.065455,0.997713,0.016856
0.201678,-0.299604,0.728149,0.865596,0.299401,0.401376
0.133743,-0.523254,0.741052,0.853387,0.156654,0.497182
-0.159497,0.186872,0.246953,0.039973,0.547148,0.836081
0.504986,-0.602193,0.683158,0.983864,-0.122545,0.130366
0.296977,-0.293766,0.601965,-0.163243,-0.824933,-0.541145
0.274186,-0.629110,0.630694,0.628940,-0.519257,0.578625
-0.493316,-0.696763,0.541683,-0.203823,-0.683876,0.700550
0.030724,0.071739,0.775951,0.679882,0.085784,0.728287
0.172962,-0.359798,0.691321,-0.137210,0.707758,0.693002
0.033442,0.233184,0.611597,0.424833,0.564752,-0.707511
-0.492946,-0.370824,0.282402,-0.515925,-0.222647,-0.827194
0.342430,-0.730687,0.659385,0.876531,-0.478510,-0.052176
0.206805,-0.229682,-0.988810,-0.134080,0.015846,0.990844
0.075194,-0.775896,0.431006,0.645088,0.743497,0.176274
-0.136710,-0.317766,0.390588,-0.199610,-0.902577,-0.381458
0.243799,0.601090,0.542028,0.849994,0.398561,0.344469
0.180742,0.374651,0.190963,-0.540181,0.343594,-0.768210
0.287836,-0.388338,-0.985935,-0.161646,-0.149322,0.975486
-0.552174,0.477914,0.556003,0.834199,0.406043,0.373150
-0.133992,0.457287,0.609527,-0.531965,0.442363,-0.722030
0.180802,0.011546,0.879270,-0.082702,0.286433,0.954524
-0.734678,0.636180,0.418960,-0.394829,0.898819,-0.190355
0.084889,0.195888,-0.147952,0.063793,-0.997851,-0.014970
-0.582870,-0.395083,0.534900,-0.038419,0.977004,0.209731
-0.764013,0.015956,0.556986,0.561485,-0.555099,0.613677
0.181111,-0.924758,0.535461,0.360849,-0.930389,0.064527
0.570762,0.158332,0.593649,0.189096,0.908516,-0.372614
-0.878887,-0.029512,0.583940,-0.630303,0.733574,0.254140
0.518945,0.197379,0.382591,0.287221,-0.244822,-0.926049
-0.020290,0.072777,0.773639,0.882158,0.204070,0.424443
0.137200,0.338717,0.431683,0.979108,0.090952,0.181867
-0.174877,-0.219563,0.688753,0.436772,0.410587,-0.800405
-0.540006,0.152105,0.243568,-0.053974,-0.577864,0.814346
-0.334341,-0.596549,0.512647,0.876112,-0.478407,0.059616
0.155233,0.556594,0.741486,-0.816975,-0.042485,0.575107
0.308338,0.287670,0.839273,0.746893,-0.656373,0.106419
0.236019,0.737951,-0.962073,0.157579,0.422770,-0.892432
-0.161102,0.562626,0.726566,0.535267,0.844675,-0.003766
-0.267458,0.352857,-0.982704,0.446358,0.537882,-0.715156
-0.632711,0.104170,0.535168,0.208661,0.366158,0.906856
0.058272,-0.002140,0.475665,-0.319820,0.486148,0.813250
-0.271902,-0.088863,0.440140,-0.201393,0.907713,0.368101
-0.234044,0.123241,0.790961,-0.310541,-0.561517,0.766983
0.678473,0.554518,-0.958292,-0.155022,-0.225362,0.961863
0.687057,0.040734,0.387471,0.014240,-0.224585,0.974350
0.241391,0.007394,0.692254,0.236556,-0.713051,-0.659999
0.496154,-0.576571,0.245778,0.819917,-0.163514,-0.548634
-0.314517,0.636570,0.263879,0.960751,0.270985,0.059377
0.522092,-0.709606,0.497151,0.974377,0.097125,-0.202867
-0.314023,0.630863,0.238612,-0.459052,-0.857762,0.231335
-0.281228,0.499902,0.608301,-0.110817,0.401926,-0.908942
-0.961090,0.321334,0.393168,0.854744,0.082497,-0.512452
0.538151,0.600182,0.586470,-0.544447,0.569786,0.615566
0.008860,-0.107609,0.883575,-0.494794,-0.796715,0.347021
-0.497330,-0.494844,0.353070,0.935632,0.254771,-0.244306
-0.293765,-0.552053,0.531540,-0.479401,0.750650,-0.454642
-0.294139,0.003567,0.826065,-0.595283,0.592578,-0.542668
-0.159067,0.902446,0.476802,0.544686,0.732907,-0.407633
0.319519,-0.956412,0.520899,0.111825,-0.957759,0.264938
-0.392521,-0.396835,0.685598,-0.415227,0.408615,-0.812786
-0.114846,0.785821,0.409992,0.967258,-0.200783,0.155233
-0.238183,0.052540,0.636340,0.268607,-0.805908,-0.527600
0.212919,0.649543,0.600955,0.947714,0.225399,-0.225904
-0.533089,-0.211585,0.703597,0.841712,0.403633,0.358610
0.815766,0.102809,0.591183,0.057715,-0.952560,0.298830
-0.226818,-0.658753,0.555964,-0.698713,0.626988,-0.344508
0.659697,0.398715,-0.958982,-0.036966,-0.083576,0.995816
0.150480,0.091263,0.863787,-0.417439,0.898166,-0.137993
0.150789,0.137575,0.136890,0.989857,-0.134517,0.045700
-0.201309,0.329183,-0.974681,0.408592,0.606481,-0.682080
-0.813606,0.396315,0.374914,0.565925,0.543053,-0.620340
-0.468549,0.299604,0.290258,0.168983,-0.582551,0.795034
-0.481272,0.239670,0.615467,-0.022970,-0.751551,0.659275
0.203348,-0.164169,0.523300,0.970654,0.240240,0.010715
0.093781,0.250049,0.259702,-0.463585,0.843296,-0.271920
0.213168,0.742752,0.619874,-0.665638,0.598359,0.445973
0.070745,-0.490368,-0.934723,-0.599782,-0.619762,0.506120
0.126641,-0.238633,0.738101,0.750545,-0.592423,-0.292775
0.269123,0.275669,0.381429,0.187103,-0.536583,0.822843
-0.008616,-0.126484,0.842620,-0.248978,0.711587,0.657004
-0.104593,0.428294,0.437508,-0.169497,0.606876,0.776513
-0.297101,-0.451190,-0.990496,0.176425,0.060151,-0.982475
0.452491,-0.144127,0.675085,0.885697,-0.027456,-0.463452
-0.529259,0.080949,0.418117,0.805235,-0.315555,-0.502018
0.370408,0.482973,0.583646,0.387632,-0.816874,-0.427152
0.336689,-0.285334,0.791434,0.901471,-0.166815,-0.399402
0.106628,-0.317312,0.210598,0.171480,0.113155,0.978668
0.053575,0.509503,-0.960055,0.032879,0.131568,0.990762
-0.506965,-0.161121,0.649753,0.741567,0.543066,0.393899
0.290614,0.625478,0.521065,-0.207600,0.230206,0.950740
0.054318,0.872154,0.637988,-0.518990,-0.848808,0.100862
-0.397832,-0.764222,-0.984339,-0.207886,0.161339,0.964756
-0.098045,0.508076,0.726233,0.072343,-0.803650,0.590689
-0.268939,0.432963,0.667063,0.658974,0.261121,0.705386
0.062656,0.079782,0.660101,-0.562438,0.552914,-0.614776
-0.077358,-0.151521,0.385746,0.876887,0.349188,-0.330358
0.297407,-0.538432,0.450461,0.414685,0.605000,0.679714
-0.233177,-0.689758,-0.975141,-0.174570,-0.223889,0.958853
-0.629499,0.720568,0.308078,-0.556308,0.360746,-0.748588
-0.096933,-0.271908,0.501661,0.504397,-0.089692,0.858801
0.152330,-0.304209,0.758885,-0.293565,0.837642,0.460625
0.691935,0.182072,0.605133,-0.499132,0.557186,0.663635
0.658710,0.000129,-0.971309,-0.142587,-0.155512,0.977489
-0.615171,0.225530,0.614087,0.139997,-0.645722,0.750629
0.563596,0.618214,-0.963044,0.023319,0.065802,0.997560
0.451006,0.429202,0.618418,0.248450,-0.173269,-0.953022
-0.233919,-0.182915,0.726706,0.781201,0.578981,0.233466
-0.260107,-0.835571,0.596446,0.011155,0.185720,0.982539
-0.132386,0.520270,0.627462,0.553285,0.389286,-0.736432
0.154803,0.554323,0.573976,-0.613586,0.786465,0.070598
0.292653,-0.335279,0.443027,-0.355076,-0.083574,0.931094
-0.176298,0.560096,0.617243,0.861513,-0.504893,-0.053644
0.471018,-0.879289,0.574781,0.127537,0.696051,0.706574
0.550319,-0.011416,0.803160,0.263881,0.737517,-0.621640
0.311305,-0.142375,0.771199,0.870160,0.301326,-0.389903
-0.037521,0.480444,0.724011,0.334334,0.014275,0.942346
-0.010964,-0.311994,0.558966,-0.569578,0.656464,0.494607
0.483492,-0.410651,0.558085,0.344440,0.553503,-0.758285
-0.275362,0.880132,0.459480,-0.305817,-0.279736,-0.910068
-0.013188,0.311669,0.654097,0.663713,-0.215106,0.716390
-0.229166,-0.814426,0.593636,-0.020957,0.074820,0.996977
0.131025,-0.410716,0.703201,0.875252,0.383538,0.294673
0.045546,-0.014464,0.737398,0.591231,-0.705235,-0.391266
-0.479421,-0.439450,0.296722,-0.747691,0.398524,-0.531166
-0.684957,-0.151975,0.645666,0.636378,-0.641969,-0.427667
-0.048513,0.563729,0.444649,-0.701526,-0.306951,0.643151
0.244478,0.566193,0.562990,0.306296,-0.919154,-0.247665
0.330760,0.294285,0.381263,0.148153,-0.459940,0.875503
0.033815,0.270221,-0.973353,-0.303565,-0.093484,0.948213
0.134606,-0.194201,0.723691,-0.657407,0.422940,0.623648
0.021522,0.354933,0.720830,0.889621,0.413378,0.194149
-0.440202,-0.485633,0.306712,-0.624247,-0.115680,-0.772615
0.258931,0.131997,0.870903,0.277378,0.356603,-0.892130
0.213846,-0.423753,0.452211,-0.232146,-0.283510,-0.930446
-0.299201,-0.120516,0.726859,-0.059511,-0.576259,0.815098
0.392645,-0.214114,0.796505,0.877195,-0.302667,-0.372722
-0.803232,-0.126419,0.291101,-0.122351,-0.344837,0.930654
0.474539,-0.321074,0.604954,-0.013384,0.897939,0.439916
0.260785,0.358565,0.386270,-0.234815,0.644852,-0.727343
-0.037272,-0.089058,-0.083761,-0.235229,0.289031,0.927970
-0.531547,0.196406,0.511765,-0.647476,-0.070242,-0.758842
-0.348364,-0.070117,0.490049,-0.008393,-0.720262,0.693651
0.164005,0.200882,0.956912,-0.553517,0.797670,-0.239460
0.525987,-0.311344,0.605784,-0.032752,0.762144,0.646579
0.018186,0.067263,0.563041,-0.457506,-0.881335,-0.118054
-0.386840,-0.110009,-0.993651,0.100561,0.008570,-0.994894
0.399747,-0.043070,0.350962,-0.139795,-0.533579,0.834116
0.142944,0.192710,0.758833,0.934106,0.092160,0.344895
-0.660380,0.181813,0.588117,0.896516,0.054607,0.439634
-0.109904,0.800675,0.461077,0.630901,0.618270,-0.468727
-0.113670,-0.906012,0.576582,0.825254,0.247433,0.507674
-0.026773,-0.766556,0.626274,-0.078753,0.837542,0.540667
-0.323104,0.693067,0.265668,-0.361987,0.335242,-0.869815
0.259797,0.121100,0.640071,-0.152439,0.691044,-0.706556
0.081926,0.509503,0.777062,-0.634962,-0.488206,0.598731
0.136152,-0.003697,0.949030,0.844298,-0.333850,-0.419172
-0.228299,0.049945,0.778634,0.266420,-0.963855,0.002102
0.456196,0.623987,0.586163,0.489035,0.866457,0.100486
0.134421,-0.200688,0.461089,-0.690173,0.577979,-0.435433
-0.503136,0.462865,0.428553,-0.696413,0.717449,-0.016638
0.207053,0.165856,-0.606167,0.994107,0.096288,-0.049807
0.638391,0.289810,0.834726,0.697380,0.269596,-0.664062
0.171910,0.771097,-0.967988,0.032723,-0.292489,0.955709
0.153627,0.034897,0.728264,-0.132061,0.866141,0.482037
-0.160364,0.194266,0.247745,0.039973,0.547148,0.836081
-0.125284,0.171564,0.902098,0.370725,0.894790,-0.248826
0.708551,0.341376,0.570080,-0.123492,-0.980002,0.156034
0.438841,0.551339,0.497994,-0.719336,-0.627903,-0.297143
-0.168702,-0.403061,0.514397,0.848360,-0.075256,0.524044
-0.476454,-0.641175,0.564434,0.998849,0.001038,0.047952
-0.223421,0.783616,0.483125,0.141351,0.951300,-0.273950
-0.925272,0.000195,0.572737,0.725749,-0.375832,-0.576228
0.045361,0.303366,0.722158,0.215376,0.509227,0.833247
0.370288,-0.082117,0.655029,0.448595,0.051572,-0.892246
-0.450022,0.193423,0.545464,-0.769035,-0.349754,-0.535029
0.535621,0.578583,0.687003,0.507086,0.083583,-0.857833
0.191922,-0.343711,0.520362,-0.605948,-0.340934,0.718743
0.168389,0.316469,0.781891,0.613062,-0.064818,0.787371
0.688723,0.023675,0.389029,0.164634,0.120975,0.978908
-0.246457,-0.699942,-0.986561,0.265350,0.119872,-0.956671
0.153013,-0.316274,0.749495,0.619530,-0.252063,-0.743402
-0.625669,0.824869,-0.004101,0.975142,-0.126782,-0.181727
0.220085,0.344814,0.647314,-0.358388,-0.527548,-0.770228
0.073403,-0.834598,-0.968460,0.766082,0.141868,-0.626891
0.030724,-0.756114,0.580325,0.124143,-0.852176,0.508315
0.150110,0.133554,0.120628,0.982686,-0.172909,-0.066558
0.008121,0.636635,0.681676,0.957820,0.071235,-0.278400
0.121514,0.530713,0.734166,0.763473,0.007645,-0.645795
0.114657,0.565804,0.304783,0.743013,0.329739,-0.582412
-0.497021,-0.541155,0.590276,-0.664870,0.746771,0.016752
-0.169690,0.536616,0.730334,-0.244920,-0.349973,0.904175
0.384616,-0.824414,0.590033,-0.244232,-0.413984,-0.876908
0.129234,0.169553,0.617511,0.652319,0.562061,0.508495
0.129479,-0.209314,0.575381,0.523239,-0.844935,-0.110933
0.308029,0.205682,0.776973,0.773500,-0.366623,-0.516997
-0.212859,-0.604073,0.569314,-0.843931,0.473773,0.251635
-0.168393,-0.583642,0.385657,0.849588,-0.495778,0.180010
0.141708,0.736459,0.301921,-0.142347,0.957953,0.249126
0.242936,-0.069210,0.862012,0.988982,0.084784,-0.121353
-0.065807,0.855290,-0.963683,0.213299,-0.296548,0.930894
0.217118,0.372382,0.647045,0.349025,0.653897,0.671268
0.362194,-0.053772,0.580746,-0.199536,0.123388,0.972091
-0.142639,0.181813,0.912611,-0.575387,0.703292,-0.417505
0.842201,0.200168,0.615097,-0.439710,0.886176,-0.146106
0.216070,0.718298,0.624128,0.836024,-0.159472,-0.525007
0.151961,-0.038724,0.517079,0.876582,0.423937,0.227775
-0.495476,-0.659596,0.544046,0.347891,0.622074,-0.701424
0.153567,0.080106,0.430674,0.972369,0.112784,-0.204398
-0.150913,-0.030226,0.688562,0.809624,-0.348810,-0.472060
-0.286973,-0.203801,0.488720,0.751564,-0.272036,-0.600956
0.175864,0.520075,0.589331,0.829812,-0.143239,-0.539347
-0.051295,0.048842,0.740464,0.383751,-0.923411,-0.006884
-0.077976,0.331388,0.664878,-0.685048,-0.706802,0.176464
0.340825,-0.871181,0.703929,-0.296789,0.770453,0.564198
0.002316,-0.198871,0.853108,0.396227,-0.880152,-0.261413
0.544390,-0.404424,0.618737,0.994209,0.106534,-0.014133
-0.136152,-0.416553,0.559273,-0.296452,0.768756,0.566684
-0.732699,0.615359,0.572226,0.195076,0.943683,-0.267222
-0.202052,-0.219174,0.646419,0.717827,0.414285,0.559546
0.170119,-0.211001,0.848995,-0.101767,0.415787,0.903750
-0.273078,-0.750600,0.576735,-0.513830,0.679403,0.523823
0.058457,0.320880,0.776820,-0.017355,0.038905,0.999092
0.234843,-0.330933,0.755895,-0.534499,0.813172,-0.230351
0.656052,0.475449,0.514205,-0.177694,0.791084,0.585330
-0.442423,0.255432,0.528614,0.792788,0.599288,-0.111087
-0.510731,0.191412,0.617332,0.584721,-0.732479,-0.348676
-0.587747,-0.027956,-0.997547,-0.107999,-0.030911,0.993670
0.236019,0.600311,0.620104,-0.644016,-0.696398,0.316660
-0.320507,0.635402,0.709039,0.289762,0.587059,-0.755910
-0.066301,0.114419,0.492961,0.186330,-0.979785,-0.072814
-0.314641,-0.842317,0.355739,-0.804267,0.126009,0.580755
0.341258,0.127976,0.379334,-0.184486,0.011937,0.982763
0.435875,-0.761756,0.376804,-0.176523,0.372281,0.911178
0.147268,-0.461503,0.596893,0.248961,-0.546566,0.799553
0.327484,-0.173186,0.790539,-0.526100,0.021184,0.850159
-0.450825,-0.251346,0.697657,0.207229,0.642151,0.738037
-0.293456,0.063047,0.782389,0.546115,0.545616,-0.635658
-0.545257,0.234611,0.605478,-0.227728,-0.523661,0.820926
-0.465583,0.124214,0.254005,-0.106757,-0.682027,0.723493
-0.402714,-0.315301,0.675660,0.909135,-0.022801,0.415876
-0.028319,-0.640462,0.604060,0.656076,-0.049018,-0.753101
-0.182657,0.089771,0.803940,-0.809638,0.248670,-0.531648
0.386222,-0.167478,0.589433,0.518547,0.573017,0.634634
0.665872,0.407018,-0.966787,-0.038860,-0.086760,0.995471
0.093781,0.030162,-0.976942,0.114526,-0.233462,0.965598
-0.085632,-0.762535,0.596370,0.068836,0.355650,-0.932081
0.276964,0.150613,-0.266460,-0.720180,-0.681547,-0.129745
-0.295865,-0.017903,0.768925,-0.754845,0.553176,0.352428
0.586571,0.107479,0.757569,0.108527,0.882537,0.457549
-0.537597,-0.046248,0.662464,-0.216532,0.818920,-0.531492
0.902232,0.323474,-0.962891,-0.023664,-0.063438,0.997705
-0.181115,0.756633,0.760737,-0.544265,-0.577979,0.608043
-0.117130,0.068885,0.022547,0.219411,0.845034,-0.487623
-0.108358,0.577220,0.598541,0.924998,-0.007380,-0.379899
0.180433,-0.302588,0.694323,-0.425635,-0.175038,-0.887804
-0.346818,-0.340923,0.538004,-0.442904,-0.621119,-0.646566
-0.137697,-0.666472,-0.981554,-0.403826,0.313905,-0.859295
-0.275423,0.889473,0.066145,-0.546897,0.362469,0.754666
-0.480220,0.098852,0.639445,0.501399,0.410277,0.761756
-0.216873,-0.561588,0.470261,0.115576,-0.493830,0.861844
-0.712999,0.403516,0.604060,0.384142,-0.329811,0.862357
0.238488,0.386781,0.879449,0.525126,0.657682,-0.540089
-0.353118,0.861841,0.310186,-0.658021,0.566090,-0.496538
-0.163266,-0.038724,0.718083,-0.645778,0.168428,-0.744716
0.495475,0.304859,0.245267,-0.040844,0.144053,0.988727
0.299322,0.722125,-0.962597,0.153645,0.643291,-0.750046
-0.335144,-0.525653,0.555990,-0.707356,0.616486,-0.345821
-0.277028,0.419213,0.674919,0.054996,-0.821036,0.568221
-0.258935,-0.016346,0.642038,-0.219362,0.858243,0.464004
0.028006,-0.037556,0.821836,-0.491034,0.802965,-0.337836
0.125404,-0.550302,0.228648,0.128008,0.432901,0.892307
0.516472,0.547967,0.452441,-0.288378,-0.954388,0.077335
-0.575828,-0.223000,0.724189,-0.508449,0.637123,-0.579270
0.247814,-0.008627,0.974528,0.492355,-0.869175,0.046059
0.134979,0.249529,0.642472,-0.445121,0.099365,0.889941
-0.183954,0.124798,-0.097430,0.051940,0.782048,0.621050
0.537412,0.700785,0.696827,0.773408,0.363554,-0.519297
0.322855,-0.278394,0.473608,0.619319,0.784454,0.032818
-0.167835,-0.234806,-0.984083,-0.066116,0.153331,0.985961
-0.452800,0.715443,0.451802,-0.518735,-0.666652,0.535247
-0.002192,0.206201,0.370021,-0.116352,-0.369795,0.921799
0.527962,-0.496660,0.608505,0.788418,-0.486918,0.375910
0.455639,0.215865,0.370328,0.383448,-0.755285,-0.531519
0.107246,0.295842,0.657060,-0.486802,-0.679032,0.549490
-0.355835,0.480313,0.675123,0.206033,0.208632,0.956046
-0.909398,0.335150,0.393117,0.586442,0.240464,-0.773475
0.201000,0.597717,0.582216,0.453406,-0.815651,0.359355
-0.068710,-0.762924,0.621714,-0.374405,0.820274,0.432402
0.441126,0.234481,0.645040,-0.461431,0.391407,0.796167
-0.125035,0.322566,0.850438,0.798720,0.063811,-0.598310
-0.078775,-0.056496,0.700199,-0.421191,0.855981,0.299825
-0.246827,0.385808,0.434864,-0.056675,-0.993338,0.100334
0.079333,0.644094,0.473072,-0.184223,0.851010,-0.491777
-0.064696,0.524356,0.729325,0.109335,0.802489,-0.586564
-0.543342,-0.569761,0.598835,-0.681668,0.357662,-0.638284
0.501465,0.627295,0.681332,0.911486,0.110489,-0.396214
0.259673,-0.428812,-0.986689,0.038614,-0.141448,0.989192
0.685945,0.050399,0.391482,0.011720,-0.207466,0.978172
-0.298707,0.242394,0.412151,-0.704729,-0.194867,-0.682190
-0.388382,-0.211455,0.673616,-0.026541,0.783424,0.620920
0.458420,0.359862,0.667382,-0.107869,-0.530553,0.840760
-0.029925,0.542713,0.446054,0.701113,0.216912,-0.679257
-0.464595,0.789453,0.340704,-0.281040,-0.128221,-0.951092
0.121329,0.055069,0.875374,-0.018484,0.825302,0.564390
0.251644,0.018161,0.846913,0.974585,0.221996,0.030026
-0.000157,0.559642,0.695473,0.937986,-0.340691,0.064121
-0.321743,0.152429,-0.142498,0.387122,-0.918387,-0.081865
-0.403577,0.125121,0.576199,-0.461554,0.869866,0.174073
0.232992,0.112992,-0.062096,0.850745,-0.518419,-0.086458
-0.238059,-0.051047,0.743083,-0.280365,0.879461,-0.384635
0.290678,0.554128,0.539358,-0.772238,-0.509647,-0.379353
-0.179200,0.582409,0.409289,0.795494,0.204795,0.570306
0.681870,0.264124,0.843336,0.697380,0.269596,-0.664062
-0.534325,-0.100992,0.652679,0.667718,-0.021768,0.744096
0.438593,0.140105,0.804182,-0.203984,0.962911,-0.176616
-0.053210,0.736395,-0.965612,-0.300426,0.217394,-0.928700
-0.227127,0.386132,0.663320,0.003105,-0.870785,0.491655
0.148565,-0.592333,0.609578,0.869384,0.242571,0.430501
-0.360219,-0.035092,0.644925,0.322753,0.673138,0.665369
0.037147,-0.282415,0.549309,-0.397443,0.275552,0.875277
0.470834,0.054745,0.378248,0.249742,0.481960,-0.839847
-0.080630,-0.308426,-0.981005,-0.108078,-0.007048,0.994117
-0.312481,-0.073879,0.733528,0.038974,-0.846144,0.531527
-0.033630,0.151456,0.889285,-0.381208,-0.851369,-0.360348
0.323843,-0.113965,0.880585,0.993310,0.108625,-0.039203
0.905753,0.333788,-0.963261,-0.023664,-0.063438,0.997705
-0.443659,-0.411753,0.687540,-0.063520,-0.409691,0.910010
0.030355,0.388598,0.711428,0.740468,0.383954,0.551621
0.102923,0.059934,0.630426,-0.248714,0.950736,0.185045
0.100145,0.577479,0.458139,0.218878,0.395690,-0.891920
0.432293,-0.717454,0.366278,-0.147251,0.385159,0.911027
-0.333538,-0.131543,-0.988375,-0.111878,0.063075,0.991718
-0.432173,-0.810664,-0.023709,-0.569537,0.792404,-0.218457
0.016520,-0.282415,0.377264,-0.347988,0.070259,-0.934863
0.434333,0.749886,0.629672,0.959799,0.070214,-0.271765
0.004661,0.163651,0.847960,0.741612,-0.538538,-0.399987
0.137264,-0.583771,0.211786,0.078482,0.050531,0.995634
-0.130347,0.541221,0.738318,-0.583235,0.417001,0.697099
-0.096319,-0.081014,0.760073,-0.056644,0.972297,0.226782
-0.229351,-0.059220,0.336961,0.874405,-0.278672,0.397187
0.375165,0.160342,0.027976,-0.557307,0.829874,-0.026775
-0.102308,-0.547253,0.520298,0.779740,0.581275,-0.232649
0.559521,0.379517,0.643813,0.195394,0.679896,0.706797
0.431615,-0.204320,0.446258,0.710195,0.174731,0.681976
0.350953,-0.428228,0.800273,-0.638987,0.604096,0.476197
0.243924,0.316729,0.370085,0.099893,-0.632798,0.767846
0.251150,0.739184,0.770254,0.244902,0.358026,-0.901022
0.266835,-0.355322,0.538310,0.802830,-0.256739,-0.538098
0.324027,-0.438218,0.208400,0.177183,-0.817946,0.547330
0.515918,0.502173,0.680821,-0.043780,0.853237,0.519683
0.412345,0.720503,0.633492,0.924738,-0.110997,-0.364059
-0.481211,-0.404813,0.538821,0.065255,0.997648,0.020991
0.390730,0.105468,0.628254,-0.767133,0.211123,-0.605751
0.076490,0.036907,0.750224,-0.704614,0.687694,-0.174919
-0.540684,-0.218201,-0.988439,-0.164627,0.016311,0.986221
-0.176234,0.644288,0.638027,0.823093,0.108243,0.557496
-0.324710,-0.175586,0.681114,-0.704363,-0.299319,0.643646
-0.241949,-0.534086,0.050599,-0.330632,0.797826,-0.504139
0.597567,0.334890,0.653713,0.298279,-0.185971,0.936186
0.247814,0.473892,0.749521,0.834809,-0.390218,0.388361
0.323100,-0.197055,0.778455,0.839440,-0.124645,-0.528965
0.255101,-0.183240,0.638985,-0.655070,0.579673,-0.484627
0.234538,-0.419797,0.682021,-0.703306,0.023381,-0.710503
0.133803,-0.587144,0.736299,-0.595075,0.802343,-0.046158
-0.544639,0.226373,0.406620,-0.464681,0.185292,0.865874
-0.013866,-0.514042,0.204517,-0.214783,0.265622,0.939847
-0.502642,-0.215153,0.723436,0.392148,-0.640117,0.660659
0.203039,-0.328793,0.579150,-0.082257,0.682591,0.726156
0.536424,0.366025,0.220268,0.106186,0.143336,0.983961
-0.200694,0.191801,0.390141,0.157409,-0.044087,0.986549
-0.112373,0.086398,0.801857,0.247994,-0.338946,0.907532
0.053948,-0.274243,0.559682,0.592653,-0.454010,-0.665310
-0.160488,-0.256405,0.661046,-0.749773,-0.199404,-0.630935
-0.013618,-0.791075,0.630528,-0.072243,0.844957,0.529933
0.050552,0.149510,-0.090046,0.072118,-0.997386,0.004476
-0.166169,-0.054679,0.715414,-0.584622,0.009309,-0.811252
0.029985,0.540442,0.722976,-0.145195,0.365464,-0.919431
-0.375166,0.088409,0.495836,-0.474366,0.656936,-0.586014
0.208471,0.407537,0.739813,0.970243,-0.136678,-0.199872
0.366703,0.095803,0.832299,-0.266603,0.813383,0.517041
0.402340,-0.307777,0.597034,0.028017,0.265405,0.963730
0.033317,0.106895,0.546486,0.465772,0.867302,0.175625
-0.356763,0.885127,0.301436,-0.631648,0.559419,-0.536722
-0.502517,-0.210352,0.480826,-0.194601,-0.188004,0.962697
0.245096,-0.652656,-0.981567,-0.068950,0.140477,-0.987680
0.199887,0.217098,0.716576,0.860721,-0.235696,-0.451228
0.025228,0.156256,0.852316,0.843448,-0.513120,-0.159073
0.166723,0.477590,0.767827,-0.442253,-0.535165,-0.719729
-0.275981,-0.052345,0.465726,-0.062667,-0.944148,0.323508
-0.610968,-0.074204,0.653190,-0.319150,0.933851,0.161448
0.054872,0.011869,0.682801,0.147257,-0.930611,0.335080
0.221073,0.166634,0.114049,0.873625,-0.486493,-0.010157
-0.147083,0.042355,-0.966889,0.418237,-0.120543,-0.900304
-0.143996,-0.443277,0.565392,-0.339044,0.657736,0.672631
0.229102,0.184991,0.863468,-0.587441,-0.653033,-0.477976
0.154928,-0.270481,0.586048,0.014927,-0.724804,0.688794
0.032514,-0.146203,0.861654,0.166507,-0.986019,-0.006410
0.222494,0.377116,0.715873,0.974800,-0.149880,-0.165231
0.428588,0.542194,0.690823,0.308709,-0.329532,0.892248
0.341382,-0.140624,0.886500,0.927254,-0.228092,0.296940
0.785009,0.343647,-0.962712,-0.134006,-0.111348,0.984705
0.726027,0.536291,0.488209,-0.689973,0.487103,-0.535413
-0.422044,0.015762,0.651248,0.582511,0.713060,0.390162
0.010466,-0.542712,0.604839,0.724903,-0.474958,-0.498930
0.609113,0.288643,-0.969648,-0.028459,-0.216188,0.975937
0.162953,0.263735,0.560780,0.943614,0.137090,-0.301329
0.336689,-0.838555,0.702563,0.428516,0.701287,0.569711
-0.168762,-0.856846,0.611418,0.917515,-0.375329,0.131507
0.359476,-0.198287,0.793030,-0.672470,0.362766,0.645123
-0.638022,0.246481,0.624013,-0.580923,0.594734,-0.555716
0.687181,0.139132,0.398636,-0.416876,-0.114839,0.901680
0.430936,0.013167,0.799724,-0.129741,-0.607744,0.783463
0.498748,0.083090,0.686288,0.527887,0.535532,0.659197
0.098414,-0.008173,-0.983815,0.067037,-0.399627,0.914223
-0.212798,-0.620159,0.399798,0.222353,-0.347940,0.910767
0.346754,-0.710579,0.622352,0.264711,0.840579,0.472606
0.004661,0.106960,0.825439,-0.376703,0.199340,0.904632
-0.221197,-0.207563,0.656997,0.130463,0.678474,-0.722947
0.540066,0.073101,0.402097,0.851093,0.269398,0.450628
0.220330,-0.436402,0.770675,0.961965,0.031988,-0.271293
0.336689,0.289161,0.645448,-0.478648,0.717082,-0.506646
0.267702,0.589090,0.521154,0.804964,0.566218,0.177285
-0.546184,-0.576312,0.596868,-0.748333,0.429229,-0.505728
-0.205388,0.140170,0.761529,0.386652,0.913140,0.129132
-0.544514,0.690990,0.432922,-0.187667,0.964111,0.187807
-0.188093,0.631640,0.410069,0.901453,0.152008,0.405310
-0.112622,-0.883765,0.584694,0.887078,0.440207,0.138960
-0.311863,-0.137575,0.731151,0.465255,0.797181,-0.384760
0.366827,-0.957319,0.593968,0.098197,0.719252,0.687774
0.235340,0.676785,-0.968269,0.149781,-0.325462,0.933617
0.481457,0.158656,0.819741,0.151788,-0.074692,-0.985587
0.410370,-0.155738,0.787256,-0.644650,0.588004,0.488546
0.287157,0.004216,0.744667,0.971435,-0.045118,0.232976
-0.371709,0.479211,0.686556,0.017030,0.086152,0.996136
-0.047156,0.429072,0.588194,0.882339,0.332870,0.332680
0.134361,0.556399,0.800606,-0.416752,0.681512,-0.601547
0.262327,-0.456509,0.206599,0.043561,-0.798734,0.600106
0.116263,-0.569047,0.231547,-0.321204,-0.335475,-0.885598
-0.120157,0.554777,0.725876,-0.042771,-0.142566,0.988861
0.379734,0.125381,0.634795,0.133693,-0.598216,0.790103
0.418829,-0.728806,0.553908,0.036053,-0.096755,0.994655
0.779265,0.341246,-0.961613,-0.134006,-0.111348,0.984705
-0.184821,0.025362,0.763713,0.353936,-0.615715,0.704006
-0.141463,0.600636,0.606602,0.876978,0.058225,-0.476990
0.305500,0.693585,0.641016,-0.237652,-0.722230,0.649543
0.039556,-0.195498,0.779209,-0.536298,-0.781978,-0.317638
0.400919,-0.618797,0.703814,0.514473,-0.829532,-0.217244
-0.339347,0.565285,0.700506,0.248291,-0.222686,0.942742
-0.051664,0.770448,0.721686,-0.457914,-0.491655,-0.740669
-0.199891,-0.120322,0.655949,-0.132812,0.954208,0.268044
0.565017,-0.607835,0.360683,-0.147251,0.385159,0.911027
0.207792,-0.656223,0.586699,0.978764,-0.091109,-0.183630
0.045485,0.598561,0.297335,0.875076,0.159483,-0.456954
-0.424698,0.217811,0.605823,-0.477274,0.170713,-0.862013
-0.336874,0.053577,-0.008431,0.100342,-0.952115,0.288807
-0.026340,-0.345463,-0.983955,-0.119981,0.217572,0.968642
-0.291790,0.390608,0.403784,0.810098,-0.515484,0.279315
0.733377,0.538691,-0.358358,-0.599773,0.764423,-0.236495
-0.193713,-0.894013,0.628982,0.024464,0.815203,0.578658
-0.305006,0.720244,0.730870,0.174452,-0.597644,0.782552
0.157891,0.790101,0.540622,0.973110,0.009144,0.230159
0.307660,0.162029,0.670563,-0.028078,0.721792,0.691540
0.051166,0.551923,0.747988,0.197991,0.978913,-0.050290
0.051540,0.060064,0.451739,0.132425,0.782911,0.607877
0.347188,-0.004800,0.458228,-0.313341,0.632626,0.708238
-0.361147,-0.187650,0.722260,0.097763,-0.960784,0.259492
0.343727,-0.486087,0.081564,-0.041349,-0.928137,0.369935
-0.210326,-0.039956,0.759472,-0.183329,-0.946293,0.266309
0.414199,0.439385,0.678355,0.143673,-0.594023,0.791514
0.438472,-0.102354,0.553984,-0.424672,-0.806460,-0.411431
0.372448,-0.381203,-0.982652,-0.220049,-0.139173,0.965510
-0.040977,0.793604,0.489704,-0.202169,-0.430220,0.879794
1.000000,0.260297,0.634271,-0.529838,0.272665,0.803072
0.672050,0.158396,-0.962635,-0.031365,-0.025422,0.999185
-0.117749,0.638451,-0.955405,-0.637305,0.003476,-0.770604
0.160854,0.190244,0.447791,0.994113,0.099052,0.043901
0.100638,-0.130700,0.766128,0.826951,-0.488495,-0.278433
0.355650,-0.006486,0.548083,0.648711,0.760056,-0.038577
0.593922,0.539599,0.493651,0.085319,0.608504,0.788951
-0.473058,0.366219,0.559886,0.573996,0.775982,-0.261499
0.302842,0.202893,-0.530186,0.207041,0.978233,-0.013970
-0.352624,0.578712,0.706510,0.067643,0.139182,0.987954
0.374856,0.786923,-0.952722,0.016154,-0.597505,0.801702
-0.610847,-0.055913,0.656767,0.671397,-0.567560,0.476553
0.139488,0.483816,0.565558,0.894366,-0.256592,-0.366428
-0.345522,-0.398910,0.552055,-0.190437,-0.563926,-0.803568
-0.023193,0.457806,0.217355,-0.211101,-0.675197,0.706785
0.389863,0.210935,0.825273,0.179304,0.644588,0.743207
-0.285921,0.461049,0.682558,-0.256808,-0.602465,0.755702
-0.262082,-0.050204,0.728916,-0.505818,0.705091,-0.496986
0.416420,-0.294675,0.782606,-0.574469,0.302192,0.760700
0.499984,0.502238,0.667101,0.866225,-0.440655,0.235538
0.421920,-0.862230,0.588271,-0.299686,-0.425709,-0.853792
-0.414754,0.869171,0.447242,0.777779,-0.110998,-0.618660
0.070007,0.466888,0.298306,0.741323,0.382952,-0.551170
0.134052,-0.258481,0.450653,0.753427,-0.231406,0.615467
0.368867,0.239866,-0.304080,0.999187,0.012259,-0.038395
-0.595034,-0.000583,-0.994341,-0.130178,0.021150,0.991265
0.444337,-0.635079,0.483968,0.986708,0.126840,-0.101580
0.107616,-0.097749,0.930840,0.979789,-0.146064,0.136673
-0.910077,0.508076,0.552566,-0.599774,0.299988,0.741807
-0.808479,0.451061,0.084604,0.300444,-0.302412,0.904588
-0.399871,0.273918,0.411014,-0.630950,0.032713,-0.775133
0.188402,0.173705,-0.307759,0.652110,-0.750479,0.107393
0.216689,-0.431212,0.635778,0.649985,0.010294,-0.759877
0.869931,0.258805,0.615850,-0.370888,0.830549,0.415488
0.388382,0.420898,0.188690,-0.202008,0.623905,0.754941
0.021153,-0.001362,0.474643,-0.000093,0.583552,0.812076
0.138560,0.361224,0.642779,0.003852,0.870425,0.492285
-0.580581,-0.493416,0.610396,-0.624849,0.128574,-0.770086
-0.206375,0.033210,0.636903,-0.132594,0.832141,0.538480
-0.390606,-0.242978,0.276296,0.558441,-0.325415,-0.763052
0.131085,0.386002,-0.965356,0.039346,-0.027504,0.998847
-0.682488,0.240255,0.601594,0.878175,-0.478208,-0.011209
0.211747,0.173705,0.018331,-0.232935,0.972403,0.013213
0.089955,0.558994,0.372768,0.100399,0.799464,0.592264
-0.387210,0.648440,0.704006,0.004627,-0.243935,0.969780
-0.809900,0.463579,0.461830,0.576193,0.432264,0.693650
-0.212120,0.608484,0.647148,0.856164,0.148510,0.494901
-0.151162,0.695856,0.628126,0.654651,0.432846,0.619739
0.154988,0.046507,0.715822,-0.680129,0.567313,0.464306
0.116388,0.567361,0.719936,-0.434088,0.556886,0.708128
0.228977,-0.323345,0.685074,0.792626,0.035946,0.608647
0.389124,-0.844198,0.547201,-0.708964,0.631569,0.313834
0.031776,-0.012843,0.656703,-0.765713,0.252817,-0.591411
-0.142824,-0.637024,-0.989487,0.313385,-0.013399,0.949532
-0.019547,0.817085,0.484313,-0.217643,-0.507204,0.833892
0.195937,-0.319128,0.782096,0.841770,0.362162,-0.400327
0.217058,0.575015,0.563616,-0.199842,0.976681,0.078464
0.005279,-0.160018,0.784293,0.680140,0.726450,0.098383
-0.072107,0.889083,0.696265,-0.069440,0.941419,0.330013
-0.164499,-0.465785,0.567321,-0.446051,0.565317,0.693870
-0.008800,0.259389,0.819933,0.839663,0.493247,0.227316
-0.442053,0.554777,0.446207,-0.646153,0.478775,-0.594358
0.145168,0.150872,0.059758,-0.020707,0.998484,0.050990
-0.326930,0.222546,0.605312,0.220133,-0.581661,-0.783078
-0.627893,0.244600,0.606500,0.093238,-0.994735,0.042525
-0.146220,0.148472,0.798549,0.789132,0.187111,-0.585030
-0.578052,-0.039048,0.641399,-0.488135,-0.369070,-0.790893
0.454711,0.428877,-0.955916,-0.122184,-0.049931,-0.991251
-0.025846,0.013362,0.692803,0.344884,-0.937508,-0.046190
0.529074,0.063372,0.385082,0.294312,0.373719,-0.879611
-0.257140,0.366479,0.632661,0.907581,-0.405486,-0.108987
0.163511,0.002854,0.874556,0.026452,0.585119,0.810516
0.566438,0.558733,0.454319,0.382488,0.918419,-0.101038
-0.417227,0.099954,0.595782,0.188581,0.980433,-0.056473
-0.081308,-0.161705,-0.991173,0.139906,-0.091239,0.985952
-0.702003,0.712006,-0.061738,0.993643,-0.084696,-0.074162
-0.018435,0.154829,0.599729,0.675309,0.545784,-0.496062
0.523947,-0.209380,0.584170,0.203955,0.620295,0.757387
-0.480778,-0.426542,0.302304,-0.773213,0.014366,-0.633983
-0.177036,0.087371,0.807172,-0.649184,0.746192,-0.147505
0.542230,-0.323798,0.457372,0.191362,0.357182,0.914222
-0.498193,0.206655,0.090034,0.167357,0.837095,0.520831
-0.173331,0.127910,0.589356,-0.165565,-0.663601,0.729535
0.237625,0.227801,0.009977,-0.289303,0.952780,0.092272
0.414814,-0.519816,0.635842,0.546655,-0.469960,0.693041
0.673347,0.403710,0.520605,-0.662685,0.359209,-0.657128
0.657907,-0.021145,0.391048,-0.112817,0.521610,0.845692
0.138869,0.330933,0.779681,0.229936,-0.148428,0.961820
-0.562736,0.417461,0.443780,-0.747106,0.570517,-0.341092
0.173516,-0.888435,0.445696,-0.680439,-0.605777,-0.412356
0.434208,-0.158916,-0.980621,0.100364,0.029016,-0.994528
0.355092,0.061037,0.630822,0.198001,0.460736,0.865169
0.197973,-0.349031,0.768657,0.976165,0.030804,0.214831
0.488434,-0.784588,0.575764,-0.501083,-0.532596,-0.682097
-0.498812,0.045858,0.536458,-0.490802,0.147931,-0.858621
0.245469,0.089771,0.850770,-0.107558,0.976626,-0.186101
0.294319,0.081015,0.686671,-0.271097,0.581615,0.766962
-0.659452,0.417007,0.585869,-0.481898,-0.732716,-0.480522
0.285302,0.035675,0.773613,-0.525470,0.521829,0.671994
-0.214031,-0.839723,0.301270,-0.051888,0.091189,-0.994481
0.106568,0.364338,0.716972,-0.236445,0.579798,0.779698
0.035851,0.052929,0.772068,0.180333,0.921578,0.343764
0.639315,0.355193,0.494750,-0.604996,-0.768194,-0.209423
-0.384122,-0.162223,0.668340,0.428772,-0.092603,-0.898654
-0.654635,0.241941,0.607330,-0.401298,0.899251,0.174092
0.277273,0.092236,-0.958113,-0.684966,0.088701,-0.723156
0.516660,0.546540,0.680016,-0.336580,0.008116,0.941620
0.450143,0.534086,0.089637,0.868151,0.158842,0.470194
0.403762,-0.331906,-0.981656,-0.233298,-0.042334,0.971483
0.015163,-0.603036,0.505838,-0.534778,0.479477,-0.695783
0.164623,0.406175,0.626504,-0.121069,0.874370,0.469914
-0.154928,0.439580,0.684283,-0.590614,-0.645050,0.484857
-0.093043,0.486476,0.628957,0.942230,-0.288344,0.170473
-0.241824,-0.698579,0.388646,-0.618800,-0.525891,0.583546
-0.438472,0.491600,0.432373,-0.519587,0.739777,-0.427503
0.423895,-0.700461,0.651848,0.198874,0.882275,0.426661
0.509061,-0.743271,0.385338,-0.147251,0.385159,0.911027
-0.217861,-0.038010,-0.973595,-0.307456,-0.056532,0.949881
0.221936,0.047480,0.962712,0.976062,-0.142487,-0.164321
-0.255040,-0.811183,0.303991,-0.176815,0.039623,0.983446
-0.309330,0.459103,0.667063,-0.414159,-0.544940,-0.729049
0.444646,0.453720,0.099819,0.871071,0.165060,0.462592
0.241949,0.734968,0.622749,-0.245183,0.873522,0.420528
0.270974,0.680288,0.759012,-0.369424,0.573303,-0.731334
-0.430692,0.049751,0.635472,0.384395,0.628831,0.675879
-0.109655,0.637089,0.623477,-0.649794,-0.261973,-0.713539
0.949849,0.257962,-0.963006,-0.027855,-0.058735,0.997885
-0.578791,0.427515,0.546728,0.926274,-0.284669,-0.246942
0.233610,0.084388,0.828045,-0.471086,-0.680229,-0.561575
0.551556,0.057209,-0.969227,-0.087578,-0.181291,0.979522
-0.244297,0.625803,0.665287,-0.794152,-0.212937,-0.569192
-0.063214,0.455796,0.722644,-0.170263,-0.374992,0.911258
0.233177,-0.426932,0.590979,-0.003832,-0.594669,0.803961
0.124047,0.120386,0.051187,0.193395,0.960960,0.197876
0.017074,0.745151,0.483968,-0.365992,-0.532267,0.763375
-0.024798,0.173380,0.540993,-0.531896,-0.844992,-0.055460
-0.122502,0.688137,0.766294,0.392522,0.661497,-0.639022
-0.331318,0.451709,0.681281,-0.260339,-0.682227,-0.683221
0.465458,0.184472,0.813329,-0.168089,-0.902377,0.396816
0.383195,0.393462,0.383051,-0.495427,0.447725,-0.744375
0.221008,0.758319,0.765387,0.217300,0.375103,-0.901154
0.129050,0.214699,0.101364,0.987830,0.141680,-0.064177
-0.133249,0.437114,-0.954102,0.086124,-0.216640,0.972445
0.054193,-0.248751,-0.987532,0.175072,-0.252994,-0.951496
-0.547601,-0.379451,0.344549,0.997624,-0.068459,0.007698
-0.382456,0.172796,-0.143264,0.541938,-0.840403,-0.005111
-0.140724,-0.297983,0.503960,-0.612451,-0.109448,-0.782895
-0.010595,0.250502,0.812601,-0.354579,-0.808299,0.470028
-0.426179,0.253616,0.465535,0.537965,0.834931,-0.116118
-0.272087,-0.029059,0.773524,-0.578051,0.647366,0.496764
-0.082853,0.593371,0.741537,0.076905,-0.723892,0.685614
0.304264,-0.575728,-0.976342,-0.129207,0.255062,-0.958253
-0.134919,0.243238,-0.167114,0.995178,0.090472,0.037896
0.133249,-0.981838,0.518906,0.087561,-0.944134,0.317718
0.234289,-0.101965,0.612529,0.961552,-0.100276,-0.255661
-0.183709,-0.019459,0.338469,0.947346,-0.319732,-0.017549
0.185929,0.168970,0.846108,-0.070457,-0.667940,0.740873
0.562238,-0.083155,0.567512,0.038778,0.886939,0.460257
-0.145602,-0.319323,-0.989742,-0.057075,-0.035355,0.997744
0.028809,0.313356,0.712629,0.221806,0.511386,0.830233
-0.088534,0.019329,0.393053,0.922151,0.111970,-0.370270
0.187659,-0.016410,0.804029,-0.699948,0.638047,-0.320888
0.044064,0.155154,0.245063,-0.300923,0.180045,-0.936498
0.543462,0.088604,-0.969801,-0.048317,-0.158831,0.986123
0.087173,-0.022118,0.268184,0.716619,-0.585073,-0.379666
-0.135413,0.326847,0.844984,-0.241388,0.187178,-0.952206
0.070501,0.452618,0.449439,-0.038839,-0.654209,0.755316
0.119230,-0.450283,0.397512,0.769863,-0.517474,-0.373540
0.194392,-0.243173,-0.988644,0.029674,0.094754,0.995058
-0.208475,0.614452,0.418474,0.463546,-0.511047,0.723848
-0.214220,0.491276,0.691692,-0.244217,-0.708256,0.662368
0.412220,-0.448401,0.176618,0.402676,0.664236,0.629795
0.392027,0.140689,0.883728,0.003136,0.033307,0.999440
0.169565,0.016476,0.958982,0.056823,-0.486711,0.871713
-0.138131,-0.615684,0.588667,0.458970,-0.255522,-0.850914
-0.126641,0.157164,-0.979293,0.013949,0.324289,0.945855
0.695580,0.536291,0.506362,0.397793,-0.749446,-0.529237
0.260845,-0.056561,0.867377,0.922667,-0.173690,-0.344262
-0.141033,0.317247,0.644848,0.761113,0.327130,0.560082
0.196925,0.499059,0.245357,0.053022,-0.298292,0.953001
-0.521787,-0.406370,0.336770,0.992119,-0.121881,0.029082
0.115336,0.296101,0.431466,-0.765949,-0.170631,0.619844
-0.262206,0.022702,-0.986791,-0.267767,0.050559,0.962156
-0.501405,-0.126095,0.682864,-0.436285,0.523845,0.731602
0.423337,0.707142,0.651900,0.941305,-0.330050,-0.070800
0.155916,-0.050269,0.779158,-0.558228,0.823241,-0.103225
0.064940,0.099760,0.503385,-0.062626,-0.984622,-0.163089
-0.098848,0.521243,0.239148,-0.065902,-0.624442,0.778286
-0.064635,0.161315,0.654237,0.430517,0.572055,-0.698146
-0.021153,-0.184147,0.803927,0.461300,0.865377,-0.195766
0.339034,-0.800350,0.550548,-0.860327,0.509463,0.016883
-0.625545,0.264254,0.456606,-0.529591,-0.772668,-0.350023
-0.313096,0.253162,0.594645,-0.309770,-0.696358,-0.647401
0.026773,0.374781,0.394356,-0.266661,-0.127321,0.955344
0.643514,0.294740,-0.964027,-0.065743,-0.186244,0.980302
-0.333663,0.614970,0.263930,0.796836,0.252256,0.549016
0.045670,0.132127,0.817915,0.216382,0.850520,0.479369
-0.108114,0.890446,0.495631,0.407017,0.714466,-0.569100
0.210386,-0.082117,0.888851,0.513291,0.600971,0.612672
-0.242073,0.726860,0.657699,0.771954,-0.460180,0.438544
-0.241455,0.380683,0.662809,0.055099,-0.811549,0.581681
0.097487,-0.214503,-0.985884,-0.044450,0.272895,0.961016
-0.334405,-0.598171,0.496602,0.921645,-0.363892,-0.134734
-0.070685,0.573264,0.445019,0.673220,0.403134,-0.619886
-0.275178,0.604527,0.730462,0.773071,0.634317,0.001429
-0.646915,0.158980,0.527899,0.072320,0.598283,0.798014
0.022385,0.554323,0.700071,0.870361,-0.412173,0.269416
-0.413088,0.296231,0.482601,-0.628550,-0.771507,0.098495
-0.373993,0.080755,0.620436,0.613117,-0.773873,-0.158770
-0.107062,0.525459,0.730398,-0.686385,0.502319,-0.525881
-0.127444,-0.621846,-0.983023,-0.333677,0.128617,-0.933872
-0.082544,-0.958163,0.588168,-0.761364,-0.628009,-0.161028
-0.248990,-0.036324,0.781968,0.473301,-0.854979,-0.212124
0.371520,0.017124,0.377405,0.107248,-0.489622,0.865314
0.042643,-0.476746,0.601914,-0.036132,0.420253,0.906687
0.295925,0.383797,0.886845,0.369332,0.890513,-0.265669
0.388012,0.428553,-0.933548,-0.136122,-0.521786,0.842146
0.957509,0.263929,0.601428,-0.702448,0.269731,0.658644
0.683785,0.220471,-0.967873,-0.082582,0.019357,0.996396
0.984684,0.237854,0.628344,-0.401193,-0.439381,0.803734
-0.465462,-0.008368,0.650073,-0.684081,-0.664083,-0.301706
-0.192477,0.766297,0.778608,-0.544265,-0.577979,0.608043
0.319828,-0.257962,0.779719,0.823983,-0.009962,-0.566527
0.584102,0.120581,0.752267,0.195314,0.742984,-0.640178
0.006825,-0.192775,0.799775,0.102529,-0.950295,0.293986
0.100205,0.076603,0.836795,-0.771784,0.456194,-0.442986
0.509864,-0.316404,0.609898,0.583594,0.742307,0.329240
-0.307909,-0.852371,0.301282,0.039165,-0.143567,0.988865
0.123614,-0.752805,0.416213,-0.231508,0.505943,0.830918
0.224284,0.348447,0.715554,0.970986,-0.190140,-0.145028
0.108049,0.460531,0.378989,0.186980,0.551359,0.813045
0.073588,-0.241357,0.719169,-0.280945,0.738922,0.612425
-0.283761,-0.470454,0.547635,-0.165150,-0.978108,-0.126612
0.469352,0.337161,0.057165,0.795242,-0.574456,0.193881
-0.147393,-0.767594,0.295304,-0.362039,0.009188,-0.932118
0.694223,-0.259584,-0.972612,-0.071042,0.030371,0.997011
0.649817,0.005384,0.398559,-0.303022,-0.319159,-0.897950
0.267209,0.620289,0.635663,-0.351412,-0.176908,0.919355
-0.104902,-0.776935,0.606602,-0.451637,-0.425114,-0.784412
0.314886,-0.279367,0.658325,0.865260,0.468105,0.179448
0.148998,0.303496,0.433101,0.987177,0.158956,-0.014645
0.170673,0.319388,0.843566,-0.033356,-0.952900,0.301444
0.350893,0.126355,0.777037,0.374093,0.874322,-0.309217
0.167710,-0.024129,0.731560,0.627926,-0.148988,-0.763880
0.295062,0.040345,0.573018,0.182209,0.173742,-0.967788
0.740479,0.149899,-0.964883,-0.117189,-0.025152,0.992791
0.398695,0.051436,0.793963,-0.166089,-0.419452,0.892454
0.170180,-0.954336,0.442694,0.640845,0.632957,0.434378
-0.137942,0.004930,0.621305,-0.185057,-0.066423,-0.980480
0.092549,-0.765454,0.410426,0.640062,0.052561,-0.766523
0.149801,0.066745,0.693953,0.787299,0.122990,0.604180
0.368188,0.110139,0.876677,-0.294130,0.806716,0.512539
-0.873331,0.084841,0.543420,0.620461,-0.638331,-0.455590
-0.407222,-0.399754,0.286183,0.268323,0.211982,0.939716
-0.197912,-0.044366,-0.974745,0.262165,0.492790,-0.829715
0.126332,0.047221,0.487008,-0.615759,0.749610,-0.242746
0.218540,-0.370954,0.747694,0.231074,0.944597,-0.233113
0.401783,0.268924,0.898419,-0.023194,0.999497,-0.021624
0.525244,-0.239216,0.591413,0.032833,0.719267,0.693958
0.513878,0.441785,-0.962788,0.230326,-0.010883,0.973053
0.041965,0.149056,0.760647,-0.507106,-0.290451,-0.811469
0.247381,0.711422,0.531961,0.381603,0.564331,0.732059
0.354350,-0.247649,0.789581,0.804864,-0.059027,-0.590517
-0.270605,-0.084971,0.504164,-0.435510,-0.567109,0.699084
-0.038817,-0.759681,0.248844,0.921641,-0.233822,0.309685
-0.181794,0.113900,0.830727,-0.203524,0.961743,-0.183379
-0.018560,0.134851,0.801295,-0.666970,0.573659,-0.475464
-0.025168,-0.098139,-0.987341,0.228441,0.411947,-0.882108
-0.297595,-0.318740,-0.063884,0.558086,0.286879,0.778615
0.377450,0.333723,0.652283,0.422893,-0.887854,0.181322
-0.651299,-0.063891,0.686492,0.345779,-0.657729,0.669200
0.006825,0.414088,0.721124,0.611834,0.549722,0.568739
-0.114288,0.690472,0.615212,0.897040,0.441177,0.026115
0.809037,0.164818,0.615799,0.370680,-0.928418,-0.025215
0.351262,-0.804437,0.681217,0.940037,0.316323,0.127553
-0.717817,0.074139,0.682481,0.928241,0.174082,0.328732
0.006761,-0.150613,0.843642,0.733029,-0.644898,-0.216275
-0.509001,0.307323,0.513490,0.948746,0.199455,-0.245152
0.667602,0.082506,0.760379,0.158097,0.922916,0.351045
-0.924281,0.292339,0.384150,0.988838,0.136895,0.058812
0.123056,0.588052,0.349237,0.895510,0.351314,0.273205
-0.245285,0.026983,0.780358,0.596480,0.083248,-0.798299
-0.668220,-0.114938,0.653164,0.852293,-0.523005,-0.007919
0.122871,0.122722,0.019660,-0.237186,0.971419,-0.009370
-0.151592,0.198677,0.815692,-0.374064,0.927285,0.014807
-0.082544,0.032821,0.349455,-0.819390,0.368996,0.438681
0.425067,-0.643964,0.717406,0.810858,-0.576069,0.103219
0.009788,-0.779983,0.577642,0.133912,-0.899257,0.416419
-0.218355,-0.274567,0.680731,-0.161795,-0.590163,0.790905
-0.580581,0.256341,0.613104,-0.058310,0.606556,0.792899
0.956212,0.241227,0.438415,0.717936,-0.668850,-0.192895
-0.041844,0.160083,0.818617,-0.823114,0.383782,-0.418563
-0.565639,-0.532788,0.093214,0.313463,-0.803204,0.506562
0.402156,0.288772,0.647492,-0.151502,-0.797949,0.583374
