-0.154458,-0.193325,0.830066,0.573668,-0.026930,0.818645
0.168538,0.313471,0.663979,-0.371664,0.859265,-0.351468
-0.764713,-0.230400,0.473460,-0.592381,0.441647,0.673819
-0.648412,-0.109883,0.587924,0.620970,0.724808,0.298411
0.929273,0.209735,0.639003,0.216683,0.891098,-0.398740
-0.352716,-0.691152,0.593702,0.087533,-0.967454,0.237427
0.070403,-0.225130,-0.985180,0.167273,0.348668,-0.922199
-0.337616,-0.563980,0.379256,0.089912,-0.066484,0.993728
0.307411,0.027644,-0.979338,-0.153818,0.164523,0.974306
-0.156124,-0.751109,0.208933,0.645320,0.729408,-0.226994
0.263879,-0.473835,-0.142724,-0.313172,-0.229429,-0.921567
-0.577955,-0.155372,0.596280,0.747168,-0.131785,0.651439
0.165045,-0.138406,-0.981786,-0.020789,-0.219545,0.975381
0.105282,0.233543,-0.057990,0.985806,-0.133214,0.102177
0.029183,-0.084967,0.879551,0.515065,-0.857104,0.008953
-0.272155,-0.648438,0.666893,-0.445667,-0.841441,0.305546
-0.121083,-0.195590,0.831309,0.888963,-0.046641,0.455598
0.230021,-0.534347,0.620647,0.273113,-0.063030,0.959915
-0.072124,-0.135170,0.790814,-0.289428,0.931520,-0.220233
-0.239480,0.436946,0.464146,0.872138,0.478402,-0.102502
-0.035417,-0.568787,0.239583,0.789436,-0.258411,0.556790
0.287473,0.106555,0.722480,-0.417144,-0.770203,0.482470
0.166926,-0.363998,0.600360,-0.477427,0.261968,0.838711
0.015853,-0.020617,-0.702440,0.456315,0.888965,0.038953
-0.577095,0.606509,0.225359,0.995187,-0.083794,-0.050808
-0.007202,-0.131842,0.863229,0.110069,0.991744,0.065799
-0.309937,-0.734329,0.332543,0.426757,0.829276,-0.360805
-0.261944,-0.340098,0.797434,-0.536325,0.570113,0.622356
0.078734,0.157776,0.318229,0.981595,-0.152673,-0.114724
-0.155371,-0.441568,0.723853,-0.167927,-0.923425,0.345089
0.447305,-0.413877,0.618146,0.475790,0.468091,-0.744657
0.456548,-0.222587,0.817150,0.509554,0.558095,-0.654893
0.048529,0.020756,0.876584,0.090414,0.939885,0.329304
-0.814693,-0.293500,0.297929,-0.366856,0.682322,0.632339
0.032997,0.159023,0.679109,0.981093,0.170078,-0.092355
-0.473156,-0.648900,0.542416,0.940489,-0.099717,-0.324865
0.636320,-0.245978,0.717596,0.815737,-0.450247,-0.363113
0.578493,0.029216,0.703088,-0.376269,-0.853522,0.360447
0.011824,-0.030325,0.932625,0.699812,0.713726,-0.029277
0.422690,0.703033,0.655623,0.313614,0.840413,-0.441987
0.474122,-0.434772,0.603819,0.379249,-0.296547,-0.876487
0.945451,0.072254,0.593209,-0.081934,-0.541135,0.836935
0.660611,0.196699,0.628341,-0.599041,-0.088610,0.795800
-0.193691,0.329327,0.344629,0.553130,0.824967,0.116088
0.112753,-0.237241,0.841012,-0.257622,-0.888443,0.379868
-0.278819,-0.332193,0.863384,-0.644676,0.724984,-0.242468
0.333853,-0.163693,0.724851,0.691014,-0.156617,0.705670
0.184285,-0.390163,0.599531,0.292133,-0.171001,-0.940966
0.163595,0.149963,0.867076,-0.120851,0.689860,-0.713784
-0.319074,-0.129669,0.847619,-0.073730,0.375397,0.923927
0.060407,0.162629,0.870328,-0.221569,0.652706,-0.724488
0.163486,-0.511094,0.421202,-0.663554,-0.393349,-0.636374
-0.877197,-0.333904,0.448665,-0.316175,-0.772438,-0.550793
0.758424,0.382951,0.633692,-0.245567,-0.767709,0.591878
0.303219,-0.021311,0.720848,0.955387,0.071854,0.286483
-0.110121,-0.172984,0.742922,-0.371756,0.369271,-0.851726
-0.468802,-0.416698,0.375046,-0.403016,-0.655929,0.638229
-0.104316,0.030510,0.876869,-0.042380,-0.258138,0.965178
-0.041060,-0.159995,0.899760,0.035871,-0.686801,0.725959
0.047724,0.369036,0.687620,0.866372,-0.488414,0.104167
-0.077605,-0.311576,-0.984183,-0.254448,0.405925,0.877770
-0.007525,-0.035734,-0.440673,0.768566,-0.636608,0.063537
-0.224325,0.062916,0.742559,-0.682390,-0.370611,-0.630072
0.110442,0.485346,0.207664,-0.551685,0.728037,-0.406947
-0.098941,-0.406481,0.750410,0.459836,-0.764350,-0.452016
0.115494,-0.242373,0.605594,-0.312977,-0.419970,0.851863
0.205783,-0.303208,0.805634,0.821094,-0.523923,-0.226516
-0.157092,-0.448225,-0.165523,-0.640406,-0.041751,0.766901
-0.195195,-0.502173,0.688838,0.684270,-0.570268,-0.454499
0.224162,-0.094397,0.372067,0.343531,0.256967,-0.903302
-0.738164,-0.241494,0.585553,0.818931,-0.092412,-0.566402
-0.069813,0.353874,0.725887,0.841876,0.350173,0.410637
0.179233,-0.054133,0.813627,-0.087464,-0.922438,-0.376108
0.234320,0.104891,0.664108,0.660335,0.731797,-0.168612
-0.341754,-0.639793,0.633070,0.285738,0.765178,-0.576938
0.564358,0.493713,0.571576,0.045338,0.677321,0.734290
0.015155,-0.452015,0.646879,0.539098,0.536651,-0.649137
0.152954,0.864876,-0.091749,-0.520584,-0.422300,0.742061
-0.226905,0.360207,0.289470,-0.054679,-0.090054,0.994435
0.049443,-0.003144,-0.877426,0.669926,-0.738862,-0.072679
-0.036760,0.380825,0.534384,0.679693,0.725156,-0.110300
0.321975,-0.206730,0.776474,0.738086,0.000185,-0.674707
0.128554,-0.154539,0.891145,0.072942,0.057938,0.995652
0.176009,0.473650,0.527363,-0.703836,-0.634674,0.319066
-0.099050,-0.469721,0.361146,-0.149536,0.738431,0.657541
-0.332779,-0.461215,0.782109,-0.138183,-0.981065,0.135711
-0.560327,-0.562824,0.290817,0.635753,0.152819,-0.756613
0.286451,0.121579,0.745409,0.552351,0.832522,0.042614
-0.523352,-0.162167,0.569749,0.215347,0.496173,0.841093
0.159403,-0.511094,0.744852,-0.041961,0.274330,0.960720
0.202774,-0.065597,0.815000,0.560982,0.802055,0.204954
-0.012631,0.014284,0.155575,0.817114,0.576446,-0.005981
-0.210512,0.469813,0.282177,0.300815,-0.149727,-0.941856
0.629493,-0.223789,0.718011,0.780111,-0.403503,-0.478134
0.043371,0.096200,0.789998,0.388446,0.753410,0.530550
-0.469932,-0.017058,0.786189,0.000887,-0.809224,0.587500
0.182351,-0.323132,0.779933,0.232652,-0.232949,0.944250
0.199495,0.311622,0.539838,-0.275474,0.420210,-0.864603
-0.299995,0.464081,0.279107,0.470015,0.105732,-0.876303
-0.302414,-0.244406,0.297605,-0.319687,0.917838,0.235316
0.501317,-0.044194,0.818187,-0.284696,0.657895,0.697225
-0.071909,-0.114229,0.816632,0.239625,-0.266882,0.933463
0.055679,-0.478458,0.603223,0.528175,-0.089088,0.844450
0.365937,-0.467918,0.182364,0.655006,-0.044446,-0.754315
-0.103240,-0.054918,0.943429,0.391978,-0.302230,0.868913
0.354059,-0.195359,0.786060,0.560251,0.293154,-0.774712
-0.063686,0.802792,0.285247,0.330861,0.142632,0.932838
-0.571397,-0.538554,0.285079,-0.742325,-0.016907,0.669827
-0.342667,-0.495840,0.382702,-0.095457,0.236646,0.966895
0.148063,-0.488721,0.100299,0.806373,0.039731,0.590071
0.261675,-0.034486,0.793962,-0.024985,-0.869081,0.494038
0.181223,0.313009,0.844328,0.870519,0.423171,-0.251242
0.143977,-0.174695,-0.983159,-0.078123,-0.050280,0.995675
0.180631,-0.001480,0.794377,0.667369,0.737447,-0.103877
-0.132155,-0.107618,0.873333,-0.414047,0.647183,0.640093
-0.026550,-0.015903,-0.189916,0.761235,-0.616597,0.200823
0.206912,-0.010355,-0.980206,0.017581,0.273944,0.961585
0.656204,0.193047,0.747910,-0.287826,0.858189,-0.425051
-0.249315,0.004484,0.786436,0.253345,-0.809647,0.529422
0.511151,-0.437176,0.213519,-0.290869,0.464715,0.836322
0.018648,-0.090098,-0.434752,0.871440,-0.489434,0.032365
-0.176655,-0.543131,0.380176,-0.190969,0.005837,0.981579
-0.223733,-0.735068,0.215993,0.124306,0.889141,0.440428
-0.290161,0.232387,0.846336,-0.557736,-0.828337,0.052809
0.162304,-0.120053,-0.964142,0.230483,-0.474510,0.849540
0.216424,0.208950,0.808691,0.334208,-0.055353,-0.940873
0.647713,0.253652,0.784985,-0.015673,-0.947377,0.319736
-0.013705,-0.015903,0.080427,0.887733,0.433135,0.155962
0.011071,0.018768,0.459728,0.862215,-0.502283,0.065556
-0.156823,0.745100,0.308630,0.254147,-0.108751,0.961032
0.508840,-0.022836,0.658719,0.596230,0.151166,-0.788453
-0.591499,-0.261187,0.488746,-0.555675,-0.071142,0.828350
-0.600634,-0.389423,0.359695,0.889790,-0.040351,-0.454582
-0.457839,0.388406,0.178983,0.807726,0.573799,0.135405
0.277315,-0.581315,0.615439,-0.351927,0.360288,0.863910
0.419465,-0.003144,0.704629,-0.207597,-0.530351,0.821968
-0.096739,0.296875,0.600580,-0.640932,0.438093,0.630302
0.097383,-0.036982,0.825415,0.944657,0.294341,0.144869
0.109797,0.167807,0.833537,0.851197,0.087347,0.517526
-0.176009,0.463157,0.774790,-0.547936,0.109775,0.829286
-0.403450,0.408377,0.774492,-0.654843,-0.501321,0.565559
0.213415,-0.005455,0.782161,0.926914,0.200739,-0.317070
-0.641210,-0.136695,0.560526,0.374726,0.104016,-0.921282
-0.383244,-0.184726,0.555616,0.611594,-0.659934,0.436394
-0.285055,0.569527,0.435880,0.269499,0.270705,0.924169
-0.033160,0.008645,0.983665,0.464794,-0.833486,-0.298776
-0.567797,-0.074843,0.559878,0.170512,0.804896,0.568390
0.408019,0.574519,0.522544,-0.106198,0.994029,-0.025076
-0.007148,-0.138961,-0.983133,-0.474323,-0.127736,0.871035
-0.258236,-0.301590,0.302476,-0.119481,0.948082,0.294730
-0.356264,-0.290218,0.765735,0.686823,-0.201562,0.698317
-0.050250,-0.233635,0.641671,0.982556,-0.158981,0.096487
0.607191,-0.049002,0.664095,0.385393,0.783187,-0.487945
0.552265,0.199288,0.811036,0.814536,-0.446311,0.370590
0.154673,-0.148391,-0.978781,-0.071191,-0.232285,0.970039
0.025259,-0.010771,-0.948701,0.031018,0.982336,-0.184537
0.001773,-0.060188,-0.969829,0.815412,0.367756,-0.447055
-0.397216,-0.323826,0.563052,-0.178846,-0.005465,0.983862
-0.301392,-0.116586,0.805543,0.904820,-0.180505,-0.385639
0.210727,-0.378005,0.784596,-0.540864,0.554339,-0.632594
-0.135272,-0.212740,0.409129,-0.643282,-0.405424,0.649476
-0.229806,-0.341901,0.794584,-0.027599,0.979698,0.198571
-0.077282,-0.066660,0.978496,-0.598283,0.696147,-0.396783
0.441876,-0.072208,0.821049,0.869823,-0.219462,-0.441865
-0.278122,-0.418778,0.613172,-0.693316,0.357192,-0.625881
0.523513,-0.466670,0.212910,0.033243,-0.080019,0.996239
-0.016821,-0.102764,-0.643200,0.617022,-0.785022,0.054999
-0.618101,-0.154447,0.595697,0.876833,-0.172266,0.448875
-0.034503,0.065043,0.926446,-0.162444,0.885643,0.435026
-0.199172,-0.418870,0.340316,0.275362,0.290033,-0.916546
-0.203149,0.119037,0.820078,0.820506,-0.516363,0.245232
-0.010856,-0.000185,0.217639,0.023737,0.999424,-0.024241
-0.215457,-0.645433,0.654224,0.789238,0.602454,-0.118965
0.149836,0.314026,0.800361,0.902640,-0.423943,0.074252
-0.262107,-0.536844,0.605749,-0.472594,0.277720,0.836377
-0.268395,0.199335,0.623613,0.632570,-0.436195,-0.639992
-0.332562,-0.668593,0.356664,0.481532,0.831863,-0.275916
0.012092,0.009893,0.384529,0.987477,0.119171,-0.103382
0.156339,0.221154,0.805336,0.047151,-0.993548,-0.103149
-0.060355,0.339081,0.796760,0.217626,0.890618,0.399298
0.253937,0.017289,0.622978,-0.228169,0.009097,0.973579
-0.008438,-0.680751,0.171806,0.720751,-0.437851,0.537405
-0.243995,-0.709043,0.352791,0.207622,0.978029,-0.018783
0.140054,-0.098650,-0.976527,0.517179,-0.337523,0.786514
0.149137,-0.285642,0.799468,-0.717006,0.650511,0.250475
0.372440,0.032683,0.782485,0.876392,0.208446,-0.434151
-0.090128,-0.138545,0.706572,0.780655,0.571180,0.253635
-0.093513,0.872873,0.305300,-0.310043,-0.216760,-0.925683
-0.029827,-0.766735,0.161650,0.518572,-0.209259,0.829032
-0.095394,-0.080575,0.335937,-0.157575,0.687480,0.708902
0.008975,-0.630594,-0.129692,0.500906,0.593942,-0.629545
0.600742,-0.185050,0.690069,-0.742324,0.154220,0.652052
-0.535659,-0.380501,0.375176,-0.631539,-0.545415,0.551072
-0.768313,-0.085013,-0.088238,-0.430456,0.901703,0.040497
-0.169829,-0.319666,0.706948,0.773988,0.245949,0.583482
-0.811953,-0.066014,-0.094987,0.080616,-0.966931,0.241961
-0.120117,0.023992,0.300093,-0.330638,-0.871899,-0.361208
-0.378514,0.518029,0.219944,-0.114004,-0.857974,0.500883
0.034395,-0.054133,0.937819,-0.583207,-0.205688,0.785851
-0.188585,0.436160,0.736898,-0.333851,-0.434465,-0.836531
-0.096093,-0.767706,0.383959,0.811997,-0.456030,0.364277
0.120707,-0.040773,0.578649,0.891888,0.405813,-0.199632
0.188423,-0.230215,0.828874,0.619625,-0.127158,0.774530
-0.361263,-0.630039,0.622266,-0.357057,-0.637176,0.683020
0.232438,-0.494684,0.617538,-0.371463,0.100900,0.922949
-0.373086,0.453495,0.799701,0.343744,0.454489,-0.821754
0.213576,-0.427238,0.757807,-0.409909,0.854735,-0.318439
-0.125438,-0.687870,0.414738,0.150909,0.473834,-0.867587
-0.104800,-0.265532,0.853461,-0.154128,-0.754111,0.638405
0.720589,0.148160,0.669147,-0.095412,0.883631,0.458358
0.003600,0.240154,0.086774,-0.714511,0.382812,-0.585601
-0.825658,-0.284070,0.441864,0.912130,-0.409010,0.027029
-0.198152,-0.634616,0.667554,-0.680844,0.563164,-0.468293
-0.432955,0.060466,0.624636,0.646898,0.735336,0.202001
-0.796796,-0.056167,0.572703,0.940135,-0.032174,0.339279
0.054980,0.339913,0.671712,0.735596,-0.597984,0.318299
-0.220938,-0.485993,0.599414,0.751452,-0.050250,0.657871
-0.418875,-0.511418,0.480429,0.340155,0.486309,-0.804859
-0.222550,-0.772236,0.270168,-0.790952,0.609131,-0.057919
0.148922,-0.127959,0.359099,-0.032698,0.013192,0.999378
-0.112054,-0.280788,0.428327,0.017485,0.200378,0.979563
0.240770,-0.062223,0.815168,0.967815,0.197175,0.156388
0.202774,0.111964,0.776085,0.713285,0.168709,0.680266
-0.026603,-0.311113,-0.990375,0.024494,-0.082537,0.996287
0.103617,-0.094120,0.378570,0.047203,-0.116274,0.992095
-0.128714,0.081222,0.090725,0.901989,0.426321,0.068307
-0.595259,-0.294055,0.488254,0.511092,0.712592,-0.480622
-0.270543,-0.403477,0.725706,0.965829,0.256875,-0.034489
0.022948,-0.471709,0.734942,-0.155102,0.770412,0.618392
0.392487,-0.069341,0.782446,0.346291,-0.096715,0.933128
-0.259741,-0.269508,0.824741,-0.562158,0.614081,-0.553971
0.588704,-0.193694,0.705199,-0.476432,0.525316,0.705022
0.301930,-0.107665,0.788068,0.017321,0.335467,0.941893
0.000913,-0.092918,-0.598534,0.870364,-0.463496,-0.166249
0.043962,0.079789,-0.987149,-0.101025,0.258850,0.960620
0.093459,-0.153569,0.755151,0.901027,-0.274616,-0.335762
-0.374430,-0.433663,0.806333,0.847907,0.251433,-0.466728
-0.348311,-0.441892,0.774518,0.706884,-0.582202,0.401691
-0.650992,-0.288693,0.459573,0.831254,0.515886,-0.207071
0.023808,-0.287352,0.598896,0.781818,-0.517762,0.347394
-0.245230,0.080206,0.831128,-0.468836,-0.471961,-0.746623
-0.147364,0.394185,0.674200,0.088063,0.182951,0.979170
0.245983,-0.230584,0.803548,0.914234,0.039394,0.403266
-0.239319,-0.828172,0.234829,-0.627570,-0.650161,0.428306
0.252325,-0.241494,0.338891,-0.485937,0.854196,0.184972
-0.023862,-0.454974,0.642358,-0.404418,-0.650077,0.643308
-0.088192,-0.376387,0.638148,0.786541,-0.179629,-0.590835
-0.112431,-0.165310,0.775308,-0.703009,0.479148,0.525543
-0.311712,-0.090699,0.791954,0.873914,0.485357,0.026520
0.057291,-0.485022,0.408611,0.352585,-0.029001,0.935330
0.518353,0.220691,0.592043,0.491493,0.302147,-0.816787
-0.275219,-0.645572,0.678060,0.599013,0.548713,-0.583180
0.087279,0.139747,0.860936,0.239438,-0.913353,-0.329327
0.475520,-0.632905,-0.157090,0.774860,-0.226151,0.590295
-0.121298,-0.166420,0.572288,0.171021,-0.539945,-0.824143
0.066051,0.102302,0.444442,0.823015,0.024513,-0.567490
-0.240017,0.062546,0.887492,-0.748481,-0.018292,0.662903
-0.305046,-0.380686,0.785296,0.868854,-0.494541,0.022849
0.156447,0.476609,0.547325,0.782669,-0.560294,0.271111
0.301231,-0.414062,0.811088,0.059593,-0.926661,0.371144
0.225345,-0.043870,0.778456,-0.096670,-0.266377,0.959009
-0.178697,-0.758414,0.618613,0.003134,0.557695,0.830040
0.469125,-0.089127,0.848707,0.788865,-0.578599,-0.207161
-0.677810,-0.398854,0.452798,-0.647905,0.652803,-0.392513
0.125759,-0.738397,-0.124147,-0.078978,-0.828815,0.553920
-0.011233,-0.044194,0.971721,0.869446,-0.484550,-0.096306
-0.570216,-0.176359,0.573143,-0.229521,0.107729,-0.967323
0.140861,-0.437084,0.695121,0.004524,-0.250218,0.968179
0.177406,-0.072670,0.870081,0.748466,0.065594,-0.659921
-0.395013,0.164987,0.781953,0.996082,0.030050,0.083173
-0.382866,-0.623197,0.375461,-0.192995,-0.426872,0.883478
-0.225184,0.000138,0.704292,-0.566205,-0.732474,0.378013
-0.336004,-0.364229,0.806217,0.840447,-0.532125,-0.102428
0.025366,0.044194,0.850443,0.798179,-0.447248,0.403583
0.576933,0.535457,0.562352,0.083688,0.631332,0.770984
0.478314,0.471940,0.095117,-0.521872,0.109599,-0.845954
0.332725,0.668316,-0.096127,0.165597,0.299640,0.939571
-0.096791,0.454049,0.673694,-0.864648,0.502006,-0.019318
-0.011179,0.108497,0.832890,0.647721,-0.236491,-0.724244
0.211534,-0.579789,-0.129433,0.029924,-0.325732,-0.944988
0.373300,-0.148946,0.795633,0.864681,0.007516,-0.502265
-0.006180,0.350129,0.679640,-0.257123,0.942634,-0.212905
0.549202,0.181259,0.713477,0.910233,-0.203216,0.360802
0.267265,0.018306,0.827786,-0.252580,-0.319986,0.913133
-0.084431,0.542669,0.758856,-0.249582,-0.862016,0.441178
-0.286290,0.473650,0.226927,-0.305513,-0.480876,0.821839
-0.532112,0.679086,0.243495,0.379990,-0.169453,-0.909337
0.039984,-0.009893,0.923660,0.821056,0.436421,0.367973
0.052615,-0.022143,-0.611047,0.761113,-0.648614,0.002456
0.229860,-0.344212,0.777795,0.615926,-0.598209,0.512622
0.517977,-0.213480,0.710213,-0.183660,0.639188,0.746798
-0.376096,-0.658885,0.618574,-0.438901,-0.812991,0.382637
-0.227280,-0.642058,0.651011,0.789238,0.602454,-0.118965
-0.270328,0.227903,0.842670,0.189776,0.652326,0.733796
-0.193906,-0.189487,0.828330,0.669440,-0.004495,0.742852
0.442898,0.580298,0.538050,0.351063,-0.829926,-0.433564
-0.126887,-0.303856,0.620167,-0.180011,0.517954,0.836254
0.180147,-0.194666,0.843124,0.549931,-0.665813,0.504250
-0.189607,-0.348882,0.743013,-0.413197,0.893561,-0.175547
-0.028430,0.729798,0.314925,-0.133074,0.106285,-0.985391
0.224217,0.161798,0.833175,0.877064,0.444694,0.181676
-0.125329,-0.024547,0.469366,-0.230665,0.808174,-0.541893
0.040576,-0.309495,0.712777,-0.052316,0.737111,0.673743
-0.256947,0.033191,0.879642,-0.783603,-0.598089,0.168096
0.196592,-0.548817,0.615556,-0.544116,0.829932,0.123089
0.124685,-0.547383,0.420865,-0.826107,-0.456460,-0.330440
-0.033106,-0.111039,0.120209,0.880308,-0.462878,-0.103931
0.054711,-0.158053,0.886507,-0.766844,0.230092,0.599173
-0.046381,-0.013221,0.814352,0.859383,0.497464,0.118281
0.179127,0.530649,0.199904,-0.850078,0.209771,-0.483077
-0.367872,-0.091300,0.591668,-0.231264,-0.497987,0.835779
0.368302,0.132951,0.759776,-0.031955,-0.266063,0.963426
-0.861397,-0.379484,0.295779,-0.560809,0.514527,0.648656
0.244531,-0.310512,0.766939,0.379914,0.717698,0.583587
-0.365885,-0.036428,0.588287,0.382179,0.350705,0.854953
-0.492073,-0.216670,0.367118,-0.742082,0.404745,0.534318
-0.169130,0.254114,0.827138,-0.073081,0.825282,0.559973
0.039340,-0.083857,0.856855,0.181266,0.847500,0.498886
0.601762,0.403477,0.646283,-0.228753,-0.722798,0.652101
0.059064,0.242557,0.326157,0.983368,0.150409,0.101810
0.062234,-0.001572,-0.120417,0.104532,-0.989787,-0.096926
-0.557586,0.616078,0.237562,0.058152,-0.725812,0.685431
-0.408987,-0.332240,0.770709,-0.487009,0.854384,0.181247
0.731338,0.073826,0.711430,0.772731,0.614828,-0.157716
-0.282206,0.316938,0.779660,0.108440,0.338220,-0.934799
-0.659053,-0.090930,0.565254,-0.013318,-0.970977,0.238802
-0.409900,-0.362056,0.640363,-0.422749,0.348195,-0.836686
0.050734,0.175804,0.623263,-0.621922,-0.058334,-0.780904
-0.262697,-0.086908,0.775476,0.982791,-0.067270,0.172035
0.235556,0.315135,-0.992758,-0.169407,0.190565,0.966947
0.336700,-0.021172,0.412834,0.956868,-0.270925,0.104898
0.253184,-0.171967,0.625556,-0.693144,0.688289,0.214034
0.480679,-0.493713,0.223753,0.362343,-0.413405,0.835347
-0.159027,0.081361,0.860469,0.963791,-0.191645,-0.185419
-0.030526,-0.230862,0.777691,0.265401,-0.083666,-0.960501
-0.065083,0.019925,0.143488,-0.592856,-0.683856,-0.425280
-0.276026,0.345368,0.374645,0.262016,0.954276,0.143894
0.406837,0.202432,0.580514,0.553784,-0.142485,-0.820379
0.166765,0.532729,0.687296,0.302883,-0.240627,0.922150
-0.503198,-0.123798,0.309433,0.886437,0.199306,-0.417740
0.162734,0.768630,0.243703,0.623651,0.060130,0.779387
0.147633,-0.099390,0.837424,-0.642759,-0.215409,-0.735159
0.276617,-0.288693,0.823109,-0.345284,0.508659,-0.788698
-0.147149,-0.549141,0.250594,0.058558,-0.664054,0.745388
-0.314023,0.336215,0.768805,-0.214297,0.963587,-0.159928
-0.196592,0.648299,0.316830,-0.815544,0.540971,0.205519
-0.386844,-0.569666,0.383907,-0.159399,-0.068598,0.984828
-0.555651,-0.166096,0.571951,0.070472,0.314187,0.946742
-0.103457,0.432785,0.095195,0.429315,0.792772,-0.432668
0.792982,0.068371,0.602394,0.168305,-0.455085,0.874397
-0.371205,-0.519462,0.591797,-0.258392,-0.374160,0.890639
0.018058,-0.029124,0.282825,0.974976,-0.204912,0.086217
-0.420058,-0.381980,0.287579,0.893613,-0.447741,0.031370
0.445154,-0.274039,0.633134,-0.385601,-0.442353,0.809713
0.097705,0.121995,0.902338,0.853502,-0.515243,0.077832
0.510400,-0.114553,0.851246,-0.664808,0.746863,0.015009
0.524318,-0.077478,0.660908,0.262908,0.459957,-0.848127
0.052023,0.245470,0.517582,-0.672304,0.688591,0.271755
-0.188101,0.469582,0.771020,-0.462224,0.675742,0.574214
0.122105,-0.434819,-0.142180,0.052501,0.581448,0.811888
0.310313,0.125000,0.797486,-0.436876,-0.489630,-0.754587
0.517869,0.214451,0.730434,-0.576456,-0.677313,0.457106
-0.000644,0.025888,0.959634,0.960709,-0.007401,-0.277459
-0.229483,-0.470507,0.771175,0.230988,-0.405758,0.884311
-0.208255,0.434958,0.751990,0.944731,0.327647,-0.011466
-0.229430,-0.350685,0.737779,0.756018,-0.629854,0.178104
-0.301930,-0.438471,0.783119,0.454418,-0.872756,0.178329
0.358844,0.122180,0.751874,0.423160,0.894880,-0.141868
0.058204,0.163277,0.845818,-0.554954,0.178040,-0.812605
0.148814,-0.325906,0.602161,-0.662427,0.110670,0.740906
-0.056861,0.186114,0.841737,-0.756543,0.395606,0.520709
-0.060945,-0.558940,0.389685,0.342917,0.558407,-0.755373
0.074596,0.252127,0.552934,-0.703162,0.588477,-0.399072
0.310742,0.507674,0.592341,0.855916,-0.014563,-0.516910
0.266512,0.743574,0.363491,0.120002,0.234014,0.964799
-0.039824,0.437223,0.507517,-0.698773,0.282131,0.657358
0.315956,0.203218,0.530433,0.606323,0.755200,-0.249090
-0.140861,-0.012019,0.870431,-0.100729,-0.189722,0.976657
0.153544,0.596801,0.325483,0.470312,-0.880213,-0.063492
0.434084,0.655233,0.647151,0.286630,0.783789,-0.550925
-0.838985,-0.084967,-0.092513,0.023860,0.995560,0.091056
0.367120,0.204928,0.781202,0.147431,-0.982120,-0.117067
-0.178749,-0.527644,0.697556,-0.333993,0.797857,0.501870
-0.084484,0.348326,0.874447,0.963043,-0.227255,-0.144577
0.266781,0.181629,0.886909,-0.040239,-0.802475,0.595327
0.139733,-0.170257,0.815958,-0.150749,0.792742,0.590622
-0.318751,-0.317354,0.820065,0.894818,-0.383244,0.228966
-0.507013,-0.118389,0.041370,0.302483,0.658501,0.689115
-0.120278,0.515487,0.746238,0.147276,0.920168,-0.362767
0.699306,0.272559,0.722739,-0.919404,0.198334,0.339645
0.341699,-0.203772,0.776383,0.345435,-0.306483,-0.886985
-0.324395,-0.475592,0.753273,0.974190,-0.216512,-0.063843
0.791422,0.026118,0.569684,0.418227,-0.867771,-0.268440
0.146182,0.023207,-0.196899,0.121589,-0.898121,0.422604
-0.312302,-0.294009,0.566355,0.344123,0.219046,-0.913016
0.544903,0.462972,0.489044,-0.478669,-0.641037,-0.599956
0.038802,-0.009199,0.979545,0.992525,-0.109990,0.052883
0.818562,0.147466,0.613975,-0.361996,-0.588787,0.722696
-0.033590,0.352210,0.546159,0.296129,0.762428,0.575335
-0.200033,-0.316799,0.381588,0.723626,0.632390,-0.276493
-0.225991,0.292437,0.803328,0.938182,-0.065654,-0.339859
-0.227979,-0.267151,0.830092,-0.367733,0.877616,-0.307509
-0.120601,-0.441846,0.660766,0.611575,-0.776531,0.151576
0.180631,-0.206084,0.830921,-0.186476,-0.719520,0.668968
-0.884775,-0.358866,0.462397,-0.193083,0.444342,0.874802
-0.469125,-0.159671,0.564516,-0.270981,0.846738,0.457826
0.182351,-0.121210,0.870509,-0.497741,-0.480481,0.722075
0.424679,0.100453,0.777756,0.267052,-0.936464,-0.227415
-0.327296,-0.153708,0.530109,0.212645,-0.803663,0.555795
0.302844,-0.053439,0.817992,0.453159,0.610351,0.649707
-0.309078,-0.928948,0.209076,-0.308386,0.846692,-0.433602
-0.105714,0.497457,0.672788,0.760592,-0.548557,0.347253
0.076262,0.005408,-0.978302,-0.186559,0.556281,0.809782
-0.117806,0.229798,0.856557,0.697682,0.651328,0.298349
0.581448,-0.340422,0.190499,0.313716,0.151918,0.937285
-0.320847,0.076322,0.859692,-0.609670,0.423876,-0.669800
0.360347,-0.033792,0.783624,-0.303912,0.014561,-0.952589
0.317408,-0.109976,0.790451,-0.352892,0.826406,0.438771
0.022035,0.276997,0.083277,-0.639195,0.366564,-0.676063
0.346912,-0.554549,0.181833,0.684115,0.077693,-0.725225
-0.746063,-0.489275,0.447577,0.515082,0.856631,0.029548
0.415167,0.090791,0.570902,-0.619107,-0.254460,0.742938
0.080506,0.040033,0.846207,0.655046,0.503965,0.562969
-0.483368,-0.363212,0.484406,0.913373,0.342733,0.219737
0.016230,-0.238998,0.103926,-0.219555,-0.221854,-0.950040
0.102273,0.508228,0.136027,0.003023,-0.998719,0.050506
0.359864,0.065320,0.796229,-0.199595,-0.156757,0.967259
0.378405,-0.282082,0.301505,0.019098,-0.938123,0.345776
-0.076047,-0.307276,0.573817,-0.629056,-0.110374,0.769485
-0.060515,0.011002,0.959919,-0.506714,0.862106,0.003631
-0.285806,0.011973,0.805699,0.009971,0.471311,0.881911
-0.305424,-0.350546,0.775023,0.657390,-0.224044,0.719474
-0.269684,-0.228781,0.782601,0.046091,0.156023,0.986677
0.262105,-0.185142,0.822928,-0.717659,0.545140,0.433344
-0.195195,0.474251,0.452396,0.806346,0.308924,0.504354
-0.602999,0.567724,0.235619,-0.609969,-0.432051,0.664282
-0.039018,-0.095230,0.924438,0.881025,-0.290437,0.373418
-0.375612,-0.167530,0.756563,-0.477563,0.826188,0.298910
0.115656,-0.394092,0.754814,-0.310270,-0.186587,0.932157
0.068307,-0.019508,0.880419,0.148869,0.091813,0.984585
0.299027,0.188194,0.547209,-0.800149,-0.193400,0.567765
-0.133605,-0.341855,0.670715,0.883260,-0.123951,0.452204
-0.355350,-0.323502,0.786189,-0.466756,0.758457,0.454842
0.464772,-0.136187,0.836711,0.755386,-0.579014,-0.306814
0.011394,-0.321931,-0.984740,0.112878,-0.057605,0.991938
-0.112054,0.062546,0.806359,-0.110064,0.628534,0.769955
0.017789,-0.786705,0.260090,-0.727070,0.361196,0.583872
0.012253,0.006009,0.508190,-0.479009,0.868155,0.129838
0.528243,0.608543,0.636645,-0.069913,-0.685687,0.724532
-0.409471,0.108081,0.357402,0.724226,0.464373,-0.509759
-0.464503,-0.446376,0.585657,-0.340284,-0.203275,0.918088
0.044016,-0.004253,-0.439364,0.833878,-0.543287,0.097397
-0.068952,-0.518722,-0.135379,-0.534067,0.196511,0.822287
-0.766863,-0.275610,0.452863,0.378714,0.264000,-0.887062
0.404203,0.252727,0.698489,0.936962,-0.316207,0.148713
0.090234,-0.673170,0.156417,0.440732,0.099193,0.892141
0.105713,0.529632,-0.111621,0.816723,-0.452476,0.358091
-0.046166,0.922661,0.309083,-0.467820,-0.753238,-0.462360
0.183801,-0.338064,0.694914,-0.304064,0.387878,0.870113
0.055086,0.265764,0.808173,0.996228,0.060153,-0.062544
0.623691,-0.029031,0.601371,0.743406,-0.627726,0.230885
-0.402215,-0.437916,0.372909,-0.344920,-0.549536,0.760947
0.082765,0.145479,0.303798,0.982437,-0.120964,0.142075
-0.043962,-0.088804,-0.607433,0.870667,-0.452876,-0.191945
-0.694255,0.005917,0.287657,-0.377186,-0.265751,0.887190
-0.504327,-0.081176,0.326493,-0.693772,0.052904,0.718249
0.321438,-0.182045,0.831491,0.576341,0.746706,0.332056
-0.144301,0.505362,0.759789,-0.415030,-0.689253,-0.593869
0.337184,0.019739,0.705225,-0.662711,0.572523,-0.482734
-0.514699,-0.652829,0.326649,-0.586533,-0.790993,-0.174094
0.287687,-0.452755,0.743505,-0.681696,0.693784,0.232281
-0.159940,-0.206500,0.610490,0.971304,0.236388,-0.026232
-0.658248,-0.192447,0.596228,-0.403557,0.865104,-0.297886
0.638739,0.123197,0.691532,-0.738842,-0.624969,-0.252043
-0.051163,0.001710,0.369774,0.854317,-0.482730,0.192649
0.443972,-0.180751,0.348024,-0.260543,-0.906306,-0.332758
0.031869,0.235485,0.641982,0.687288,-0.557071,0.466163
-0.272049,-0.394647,0.408805,-0.848628,0.403288,0.342329
-0.231043,-0.020988,0.774505,0.554192,-0.386613,-0.737157
-0.138980,-0.249630,0.734113,0.251552,0.966412,-0.052629
0.070295,-0.188101,0.831348,0.053848,-0.508151,0.859583
-0.067555,-0.012065,0.956772,0.424043,0.729467,0.536717
0.509432,-0.038508,0.661310,-0.197657,-0.667031,0.718332
0.384587,0.031250,0.701209,0.175244,0.330859,-0.927266
-0.323051,-0.022374,0.876079,0.855704,-0.515668,-0.043087
-0.012683,-0.624261,-0.134187,0.533680,0.520553,-0.666491
-0.015209,0.236825,0.815259,0.100262,-0.575290,0.811781
0.117375,-0.451692,0.747495,-0.189543,-0.630096,0.753029
0.044337,0.165634,0.633834,0.868696,0.041061,0.493641
-0.358306,-0.430797,0.184890,0.381970,0.469950,-0.795767
0.360940,0.653106,0.367973,0.858763,0.188391,0.476482
-0.268395,0.586585,0.268393,0.269177,-0.335606,-0.902725
0.038318,0.086908,0.727791,0.012381,0.036409,0.999260
0.425914,0.183663,0.793599,0.834311,0.231791,-0.500198
-0.203043,-0.321284,0.388454,-0.264178,0.908323,0.324283
0.099586,-0.010124,0.846854,0.942181,-0.133895,0.307191
-0.573333,-0.281389,0.543322,-0.625226,0.477516,-0.617310
-0.330251,-0.436021,0.548336,0.834510,0.388243,-0.390974
-0.022304,-0.358035,-0.137892,-0.298842,-0.182878,0.936616
0.022356,-0.223835,0.589077,-0.451422,0.863739,0.223994
0.138012,-0.034670,0.874745,-0.090963,-0.677382,0.729986
-0.051378,-0.233635,0.773365,0.302215,0.100803,-0.947895
0.268608,-0.289479,0.661789,0.782464,0.456737,0.423252
0.683935,0.026627,0.578662,0.545506,0.415252,-0.728004
-0.521095,-0.342733,0.370111,-0.705942,0.536202,0.462745
0.018541,-0.444897,0.750345,0.208969,0.881043,0.424377
-0.143226,0.544749,0.498384,0.698498,0.325806,-0.637143
-0.048100,0.284254,0.820894,0.850309,0.198777,0.487300
0.271188,-0.230445,0.694486,0.655195,-0.645507,0.392480
0.358790,-0.191753,0.086697,0.342321,0.505350,0.792110
-0.223948,0.090422,0.825596,-0.224856,-0.942088,-0.248817
0.113720,0.378929,0.548517,0.644014,-0.497006,0.581576
-0.015048,-0.041882,-0.230502,0.943406,-0.216655,-0.251091
0.044554,-0.084135,0.917779,-0.656849,0.752287,-0.051123
0.051163,-0.024270,0.122541,-0.356013,0.890626,0.282913
-0.092599,0.448502,0.750151,0.300859,0.031724,0.953141
0.109528,-0.030649,-0.047341,0.613225,0.774862,-0.153442
-0.078842,-0.002126,0.989986,-0.509427,0.702178,0.497423
0.401408,-0.080205,0.781176,0.605137,-0.633144,-0.482636
0.332347,-0.218195,0.881805,-0.148310,0.988934,0.003789
-0.737034,-0.181120,0.570190,0.975076,-0.214616,0.056266
0.272370,0.492049,0.553129,-0.202441,0.622622,0.755884
0.062019,-0.045534,0.893775,0.275908,0.840022,0.467159
0.063846,-0.844721,0.119924,-0.256182,0.966322,-0.024359
-0.040416,-0.494499,-0.139032,-0.496017,0.414905,0.762772
0.103186,-0.338942,-0.190927,-0.271841,0.657389,0.702811
0.238243,-0.572485,0.338230,0.402525,-0.878050,0.258846
-0.412533,-0.342039,0.792667,0.612082,-0.485944,-0.623870
0.221960,-0.302468,0.354345,0.872448,-0.113946,0.475238
0.271565,0.518121,0.554606,0.456126,-0.519760,-0.722356
0.257268,-0.446052,0.636477,0.821729,-0.358077,-0.443330
0.197775,-0.437546,-0.144239,0.170208,0.376333,0.910716
-0.428603,-0.525240,0.479445,-0.464070,-0.236196,0.853727
0.026817,-0.310697,0.592678,0.924757,-0.298652,0.235863
-0.166658,0.504207,0.744503,0.130843,-0.938581,0.319290
-0.363520,-0.470738,0.372507,0.385501,0.109090,-0.916236
0.089051,-0.194249,0.819896,0.099119,0.614833,0.782404
-0.557156,0.648206,0.241811,-0.389501,-0.336776,0.857246
0.306819,-0.301544,0.736147,-0.354012,0.562803,0.746945
-0.093352,-0.394046,0.668811,-0.566154,0.503340,-0.652778
0.235181,-0.576877,-0.129627,0.157385,0.346827,0.924630
-0.771754,-0.268121,0.279638,-0.573824,0.691115,0.439415
0.165528,-0.200120,0.371082,-0.330653,0.378813,0.864389
-0.177354,-0.706962,0.253587,0.801310,-0.558493,-0.214450
-0.030096,-0.535503,0.253885,-0.489392,-0.190075,-0.851098
-0.088355,-0.171829,-0.998199,-0.271361,-0.091289,0.958139
-0.469609,-0.486640,0.290494,0.337594,-0.532991,-0.775855
0.134627,-0.643861,-0.112268,0.212193,-0.276731,-0.937227
0.005590,0.053023,-0.105649,0.697263,-0.134266,0.704128
0.252162,0.528754,0.176664,-0.674678,-0.665202,-0.319867
0.820283,-0.024824,0.727092,0.987758,-0.022361,-0.154382
0.097705,-0.593334,-0.123189,-0.103898,-0.157842,-0.981983
-0.229430,0.229845,0.603858,-0.653631,-0.148171,-0.742167
-0.479067,0.683293,0.247472,-0.637177,0.510673,0.577251
0.427474,0.546228,0.591979,-0.715795,-0.663489,0.217763
0.070564,-0.727164,-0.146675,0.451392,0.557728,-0.696552
0.012683,0.075490,0.854718,0.736333,-0.044113,0.675180
0.645778,-0.013175,0.692374,-0.454004,-0.190020,0.870502
0.191057,0.038924,-0.984442,-0.097068,0.383916,0.918252
0.032246,-0.643537,0.152232,0.750523,0.450772,0.483238
0.336433,-0.249029,0.649975,0.452137,-0.888614,-0.077053
-0.319934,-0.537584,0.652825,-0.194021,0.170014,0.966153
0.425431,0.018722,0.706585,-0.266071,-0.312687,0.911830
0.104907,0.192262,0.844510,-0.429008,0.666795,0.609374
0.344548,0.487981,0.553232,0.101050,0.764165,0.637057
0.510346,0.551868,0.508113,-0.580662,-0.791356,0.191280
0.394636,0.369499,0.538011,-0.558692,0.372101,0.741218
0.261783,-0.073965,0.793159,0.911987,0.065685,0.404926
-0.201376,-0.282683,0.804999,-0.777514,0.627372,-0.043310
-0.508894,-0.086539,0.331209,0.655222,0.238846,-0.716684
-0.045359,-0.898853,0.130430,0.335550,-0.688687,0.642741
-0.014510,-0.265856,0.596305,0.748936,0.280932,-0.600144
0.321492,0.561992,0.519810,0.370315,-0.896276,0.244043
-0.260870,0.503190,0.712143,-0.912596,0.366903,0.180421
-0.132155,0.451323,0.768105,0.757083,0.373965,0.535701
0.084538,-0.020988,0.374683,0.312698,0.410933,0.856361
-0.148117,-0.394230,0.610413,0.354676,0.142601,-0.924051
0.747568,0.231601,0.569943,-0.680278,-0.588307,0.437169
-0.263825,-0.000139,0.218481,0.298883,-0.901478,0.313059
-0.053904,0.322624,0.792356,0.455372,0.885988,0.087533
-0.016124,0.466439,0.733116,0.721463,-0.515565,0.462259
-0.023970,0.505455,0.648991,-0.044111,-0.931911,0.359996
-0.019509,0.093149,0.867776,-0.579276,0.803947,0.134570
0.290052,-0.211169,0.322879,-0.147608,-0.950384,0.273829
-0.075617,-0.427515,0.699914,-0.530981,-0.685995,-0.497463
-0.734886,-0.273299,0.303474,-0.721233,0.652433,0.232711
0.575750,0.417899,0.590580,-0.403922,0.369804,0.836715
-0.123556,0.315829,0.686623,-0.395918,-0.313576,0.863087
0.228463,0.237565,0.730084,0.983543,0.015746,0.179986
0.480571,0.589035,0.340691,0.814308,0.298344,0.497889
-0.036868,-0.299695,-0.987434,0.067278,-0.018626,-0.997560
-0.706239,0.008506,0.299393,-0.377186,-0.265751,0.887190
0.594292,0.095738,0.714138,0.069434,0.818289,-0.570598
-0.265169,0.394924,0.235295,0.718309,-0.146809,-0.680058
-0.345946,0.530973,0.457086,0.936097,0.193235,-0.293910
0.130381,0.130223,0.865522,-0.565555,-0.002698,-0.824706
0.660451,0.358913,0.636516,-0.617627,-0.174255,0.766924
-0.098458,-0.881842,0.226719,-0.620692,0.351812,-0.700692
-0.358683,-0.147651,0.561756,0.367104,-0.918830,-0.144866
-0.372225,-0.564811,0.535913,0.585379,-0.391829,-0.709790
-0.144838,-0.117234,0.911419,0.529345,-0.844158,0.084803
0.511313,0.254438,0.819042,-0.383697,0.900790,-0.203359
0.054711,-0.007905,-0.762897,-0.523179,0.851782,-0.027419
-0.552858,-0.324011,0.584310,-0.655029,0.230030,-0.719738
0.220293,-0.371672,0.602977,-0.034262,0.186931,0.981775
0.450959,-0.154817,0.852554,0.554388,-0.817574,-0.155654
-0.086849,0.132350,0.910343,0.308863,0.894587,0.322982
-0.156716,-0.233312,0.588520,-0.442313,0.882521,0.159734
-0.241845,-0.446052,0.653434,-0.420693,0.840764,0.340785
-0.816683,-0.333442,0.297774,0.392168,-0.481773,-0.783645
-0.345462,-0.294656,0.535304,0.596992,0.801972,0.021028
-0.041598,-0.079234,0.118914,0.910546,-0.399613,-0.105904
0.011769,0.128190,0.864550,0.761474,-0.607950,0.224843
0.299995,0.609699,0.329175,-0.508255,0.818833,0.266814
0.622775,-0.294240,0.196251,-0.395522,0.215387,-0.892844
0.469071,-0.300989,0.682451,0.219937,0.237381,-0.946191
-0.503736,-0.335337,0.520626,-0.312740,-0.286362,0.905644
-0.039233,0.030510,0.075012,0.672348,0.716417,0.186268
0.283011,-0.198872,-0.981566,-0.098217,0.163561,0.981632
0.775460,0.048216,0.596033,-0.206229,0.723867,-0.658397
0.725802,0.373151,0.640441,0.814928,-0.043934,-0.577895
0.065782,0.152274,0.845468,-0.554954,0.178040,-0.812605
-0.241307,-0.509430,0.765553,0.087291,0.829386,0.551814
0.390337,0.529956,0.361949,-0.329304,-0.338575,-0.881434
0.112215,0.445081,0.632137,0.723160,0.687833,0.062647
-0.157146,0.500878,0.101348,0.170108,0.955470,-0.241121
-0.237062,-0.180011,0.445556,0.703065,0.609622,0.366144
0.503520,0.050527,0.662748,0.537094,0.208612,-0.817319
0.100124,-0.032360,-0.871195,0.770031,-0.632527,-0.083440
0.000859,-0.022282,0.974001,0.972574,-0.179919,-0.147406
-0.219864,0.005732,0.909177,0.162620,0.645529,0.746222
0.198903,-0.353088,0.683527,0.712367,-0.694830,-0.098718
-0.222928,0.155418,0.068807,0.335856,0.219783,-0.915913
-0.269684,-0.338203,0.802939,0.196554,0.825750,0.528681
0.685816,0.022374,0.704189,-0.347691,-0.440694,0.827587
0.330145,-0.209920,0.824262,-0.856891,0.509290,0.079755
0.368517,0.217317,0.459664,0.094169,-0.994986,0.033701
0.412587,-0.133460,0.654600,0.855485,-0.445136,-0.264572
0.010480,-0.086030,0.349772,0.755954,-0.142878,-0.638843
0.811361,0.176683,0.624636,-0.304604,0.809625,-0.501721
0.134788,-0.114044,0.884810,-0.668747,-0.612435,-0.421546
0.204707,-0.526628,0.622991,-0.668293,0.339083,-0.662123
0.189768,0.549094,0.546276,0.002407,0.053718,0.998553
0.040898,-0.042021,0.950851,-0.481425,-0.855591,0.190248
0.285860,-0.184125,-0.975426,0.038645,0.173765,0.984029
-0.001720,-0.016272,0.092513,0.996722,-0.071383,-0.038084
-0.009728,0.043685,0.419868,0.885279,-0.447367,0.127062
0.472618,-0.266596,0.289496,-0.300176,0.346599,-0.888686
-0.058957,-0.104845,-0.186989,0.943392,0.095196,0.317724
0.023055,-0.123335,0.791669,0.441441,-0.248099,0.862309
-0.122964,0.880640,0.322866,0.008904,0.227876,0.973649
0.157576,0.144785,0.770657,-0.492466,-0.179532,0.851613
0.123179,-0.109283,0.849873,0.769324,0.581804,-0.263901
-0.161928,0.476285,0.116997,-0.036937,-0.971423,0.234464
0.029128,-0.020109,-0.964298,0.854418,-0.507486,0.111480
-0.377869,-0.206315,0.808289,0.970831,-0.234588,-0.049562
-0.065460,0.013683,0.879732,-0.292455,-0.467647,0.834132
-0.299511,-0.718935,0.190694,-0.240180,-0.716505,0.654931
-0.153598,0.534070,0.759400,0.084377,0.707091,0.702071
0.033911,-0.086539,-0.855301,0.970576,-0.138264,0.197142
0.726823,-0.026119,0.695859,-0.310465,-0.188461,0.931716
0.399043,0.517104,0.630803,-0.627834,-0.755192,-0.188442
-0.024669,-0.098326,-0.988315,-0.542526,-0.032678,0.839403
-0.527651,-0.358035,0.588792,-0.580045,0.223444,-0.783340
-0.722148,-0.476747,0.435970,-0.101716,0.807152,0.581515
0.020638,0.031989,0.876157,0.538898,0.797810,0.270348
0.166926,-0.107156,0.874887,0.207214,-0.498011,0.842050
-0.119418,0.458626,0.483759,-0.040671,0.908769,0.415312
-0.144140,-0.156759,0.346054,-0.854010,0.501073,-0.139972
0.040147,-0.003375,0.358141,0.744838,0.567977,-0.350170
-0.026657,0.356093,0.771473,0.857469,0.495500,0.138661
0.213576,0.146172,0.869408,-0.503220,-0.742202,0.442612
-0.491429,-0.016549,0.785814,0.349904,0.478938,-0.805099
-0.180094,-0.147282,0.906885,0.538613,-0.822008,-0.184930
-0.315687,0.620423,0.259662,-0.138054,-0.422944,0.895578
0.065406,-0.111039,0.869226,0.153744,0.189101,0.969847
-0.664697,-0.394832,0.558777,-0.702663,0.165084,0.692107
-0.529962,-0.337509,0.519927,-0.324579,-0.226670,0.918297
0.204332,0.020063,0.020332,0.372009,-0.761615,-0.530614
0.138281,0.375093,-0.052523,0.933734,-0.129399,0.333762
0.375396,0.373891,0.507348,0.329246,-0.234555,0.914648
-0.684796,-0.345414,0.427874,-0.774126,0.527826,-0.349469
-0.209921,-0.257766,0.819223,0.557269,-0.814861,0.159541
-0.147687,0.412537,0.776059,0.055154,0.288011,0.956038
-0.033750,-0.006888,0.355990,0.995829,0.016122,0.089804
0.007846,-0.100684,-0.511170,0.993977,-0.073726,0.081081
0.475680,0.440782,0.573104,-0.210669,-0.860445,0.463954
0.182727,-0.163878,0.835766,-0.049321,-0.877300,0.477401
0.290106,0.367742,0.384438,-0.041654,-0.105334,0.993564
0.173483,-0.447947,0.743363,0.114940,-0.492578,-0.862645
-0.238405,0.315274,0.861830,0.294736,-0.931665,-0.212442
0.056377,-0.047199,0.846362,0.282167,0.470916,0.835835
0.266244,-0.052145,-0.972161,-0.054857,0.129669,0.990039
-0.029291,-0.029817,-0.251877,0.806266,0.564548,-0.176695
-0.250767,-1.000000,0.188673,0.145634,-0.859329,0.490249
0.358306,-0.120793,0.819223,0.403087,-0.606207,-0.685591
-0.546569,-0.378189,0.369152,-0.643743,-0.319221,0.695481
0.171710,0.734514,0.529876,0.398452,0.154986,-0.904000
-0.315473,-0.066614,0.585009,-0.195630,0.669757,-0.716348
-0.306498,-0.039294,0.597277,0.129122,-0.346559,0.929099
-0.060355,0.234884,0.616022,-0.025306,0.860013,0.509644
-0.170098,-0.719536,0.414311,-0.316089,-0.476777,0.820227
0.194711,-0.799233,0.112476,-0.563710,0.083374,0.821754
-0.029506,-0.062315,-0.505392,0.708231,-0.704032,0.052415
-0.413017,-0.429919,0.258769,0.377623,-0.924875,0.044811
0.213252,-0.176082,-0.977006,-0.221407,0.242773,0.944479
-0.199226,0.498891,0.478551,0.586859,0.423907,-0.689855
-0.023272,0.247966,0.083976,-0.714511,0.382812,-0.585601
-0.456119,-0.478782,0.188038,-0.233919,0.888783,0.394141
-0.093031,-0.303162,0.619740,-0.160735,0.763588,0.625378
0.492718,0.065505,0.680845,0.548147,0.611235,-0.570900
-0.383404,0.374029,0.729450,-0.181224,-0.960929,0.209221
0.524910,-0.307046,0.203881,-0.678031,-0.134472,-0.722628
-0.043156,-0.199057,0.789130,0.294176,0.107164,-0.949724
-0.094211,-0.521404,0.690962,0.424116,0.841575,0.334482
0.549954,-0.167252,0.702854,-0.408587,0.546219,0.731233
0.074218,0.537953,0.706145,0.373537,-0.898234,-0.231615
-0.539958,0.058848,0.303487,0.961494,-0.003105,-0.274807
-0.002903,0.029077,0.950955,0.975198,0.189892,-0.113713
-0.282582,0.378467,0.798185,-0.250637,-0.615900,0.746892
-0.030903,-0.142012,0.536094,-0.691688,-0.473583,-0.545241
0.485408,-0.056953,0.005642,0.223177,0.923716,0.311353
0.079916,-0.529539,0.605892,-0.317221,-0.695025,0.645222
-0.617294,-0.443094,0.400657,-0.530554,0.791191,-0.304186
-0.137852,0.227256,0.826257,0.588395,0.416159,0.693255
0.034933,-0.125647,0.234712,0.823435,0.045143,0.565612
0.111034,0.678023,0.264054,-0.657909,0.477996,-0.581959
0.207879,-0.230261,0.896508,-0.133688,-0.148543,0.979828
-0.129576,-0.123429,0.975076,0.841017,0.452701,-0.296229
-0.050250,-0.495239,0.256592,-0.649645,0.103942,-0.753098
0.567582,0.658515,0.661958,0.268065,0.889856,-0.369185
-0.403612,0.433201,0.215916,0.922220,0.154357,-0.354519
0.011394,-0.313194,0.562236,0.955785,0.065323,0.286720
-0.048746,-0.296182,0.465091,0.221353,-0.947139,0.232229
0.011824,0.013730,0.989766,-0.483913,0.625756,0.611766
-0.036814,-0.314257,-0.989196,-0.096746,-0.063358,0.993291
-0.108615,-0.193325,0.807616,-0.056660,-0.947550,0.314546
-0.166121,-0.139562,0.919593,-0.624038,0.779951,-0.047478
0.375343,-0.542483,0.628264,0.714642,0.091794,0.693442
-0.400225,0.478504,0.197676,0.237518,-0.959800,0.149562
-0.241738,0.385910,0.443652,-0.286425,-0.719460,0.632723
-0.202828,0.379808,0.462332,0.406271,0.848914,-0.338066
-0.195893,-0.098974,-0.090479,-0.399631,0.915976,0.035808
0.028323,-0.015948,-0.801722,0.787685,-0.614637,-0.042117
0.040199,-0.059634,-0.145729,0.600302,0.790738,-0.119876
-0.348203,-0.401026,0.294419,0.899342,-0.436358,-0.027841
-0.061268,-0.701738,0.160186,0.003281,0.053788,0.998547
-0.030795,0.203264,0.847567,-0.166924,0.898130,0.406815
-0.167303,-0.014053,0.935216,0.835083,-0.544534,0.078219
0.229645,-0.405834,0.339279,0.976601,0.086480,0.196907
-0.351696,-0.279170,0.724022,-0.423834,0.372345,-0.825666
-0.431183,-0.092872,0.344370,0.742427,-0.282500,-0.607451
0.042672,-0.745609,-0.158735,0.303518,0.479891,-0.823153
0.580589,-0.256749,0.713568,0.721462,-0.364749,-0.588600
-0.094589,0.148299,0.844238,0.287002,-0.613414,0.735767
0.389693,-0.424833,0.613211,-0.016406,0.700348,0.713613
-0.314129,0.269277,0.746018,0.129951,0.966770,0.220158
0.707637,0.348742,0.662916,0.930656,-0.264614,0.252702
-0.281562,0.406019,0.803587,-0.035697,-0.398319,0.916552
0.384587,0.353411,0.530860,0.249711,-0.565639,0.785937
0.269521,-0.418593,0.752301,0.818680,-0.566906,0.091549
-0.334767,0.059773,0.834509,0.602329,-0.100838,-0.791853
-0.018218,0.184356,0.752923,0.927277,0.302314,0.220827
-0.288117,-0.766041,0.179605,0.229842,0.838580,-0.493919
0.131886,0.201460,0.808212,-0.545579,0.548690,0.633468
-0.085345,-0.006379,0.905149,-0.167889,0.966573,-0.193776
0.156554,-0.372735,0.780852,-0.268152,0.745832,-0.609778
0.241576,0.139470,-0.985452,-0.249241,-0.005713,0.968425
-0.685495,-0.345183,0.455881,-0.599063,-0.185161,0.778999
0.338421,-0.104752,0.362234,0.141656,0.136710,0.980431
-0.006234,-0.157822,0.875807,0.386607,-0.399436,-0.831255
0.253453,0.158284,-0.984714,-0.268170,0.010542,0.963314
-0.095072,-0.062916,0.864394,-0.314629,0.514834,0.797468
-0.525986,-0.632442,0.456464,-0.439577,-0.080432,0.894596
0.586929,-0.052561,0.681584,0.850454,-0.335135,-0.405477
0.035308,0.006287,0.258121,0.969899,-0.218093,0.108313
-0.084163,-0.408608,0.414842,0.417802,-0.447522,0.790674
0.307895,0.580159,0.386174,-0.246502,0.307922,-0.918924
-0.271511,-0.536844,0.378583,-0.069009,-0.049310,0.996397
-0.345677,-0.424048,0.753583,-0.458959,0.342222,0.819903
0.204438,-0.733636,-0.137283,0.164063,-0.820505,0.547590
-0.283764,-0.504854,0.539060,0.929875,-0.043502,-0.365295
0.412318,0.194018,0.801566,0.844044,0.242775,-0.478173
0.022571,-0.008275,0.899151,0.846104,0.491988,-0.205075
0.445693,-0.199057,0.679627,-0.339468,0.712010,0.614657
0.444026,-0.120100,0.344642,0.693610,0.499814,0.518740
0.331165,-0.262389,0.787627,-0.218893,-0.147189,0.964583
0.060407,0.201923,0.845896,0.207418,0.301696,0.930568
0.282367,-0.065089,0.787744,0.158256,-0.125470,0.979394
-0.463590,-0.093889,0.334707,-0.642153,0.164461,0.748727
0.118127,0.253374,0.638614,-0.711242,0.378683,-0.592228
-0.016231,-0.019046,-0.558932,0.895576,-0.437043,-0.083290
-0.290859,-0.300527,0.830014,0.695626,-0.718393,0.004082
0.634384,0.447346,0.627344,0.459909,-0.656188,0.598248
0.302520,-0.470645,0.638938,0.770464,0.505065,-0.388967
-0.088140,-0.874815,0.226564,-0.646083,0.318084,-0.693829
0.112484,-0.045257,0.905667,0.840490,0.228024,-0.491509
-0.072070,-0.301867,0.423236,0.498934,0.010927,0.866571
0.215457,-0.830252,0.127179,-0.408429,0.621777,-0.668265
0.346751,0.126618,0.736950,-0.107097,-0.988630,-0.105550
0.107432,-0.178254,-0.978949,-0.096925,-0.076666,0.992335
0.412103,0.250508,0.577211,0.782017,-0.182028,-0.596083
-0.507121,-0.445960,0.499459,0.529361,-0.082704,0.844356
-0.252056,-0.109514,0.819624,0.827711,-0.309215,-0.468275
-0.233354,0.006287,0.454832,-0.202602,0.573084,-0.794057
-0.228838,-0.361132,0.766732,-0.632859,0.677686,-0.374474
-0.874994,-0.408562,0.464055,-0.603505,0.509472,-0.613368
0.181275,-0.087971,-0.976138,0.197771,-0.189991,0.961660
-0.075294,0.470553,0.500146,0.205565,-0.327938,0.922063
0.315956,-0.370932,0.585864,0.850962,0.181547,0.492853
-0.184985,-0.298447,0.841232,0.441852,-0.865534,0.235836
-0.177729,0.582101,-0.027780,-0.789569,-0.271845,-0.550164
0.448110,-0.169471,0.811619,0.800965,-0.235023,-0.550654
-0.811200,-0.335891,0.301919,0.375767,-0.443909,-0.813477
-0.074865,0.277321,0.795633,0.189730,0.545790,0.816159
0.119579,0.503652,0.685651,0.297888,-0.178780,0.937710
-0.254690,-0.285272,0.318216,0.107611,-0.965496,0.237142
-0.677755,-0.473465,0.452604,-0.604358,0.239024,0.760012
-0.101790,0.476932,0.663927,0.737161,-0.308576,0.601145
-0.604611,-0.390070,0.351573,0.997878,0.010641,-0.064231
0.273928,0.626572,0.323618,-0.407391,0.872522,0.269700
0.177782,0.348326,0.536923,0.046184,-0.020562,0.998721
0.156877,-0.021126,0.888956,-0.223023,-0.162028,-0.961253
0.019724,0.310928,0.802939,0.516440,0.838967,-0.171534
-0.455797,-0.444897,0.141234,0.178837,0.983524,-0.026399
-0.027195,-0.148808,0.939335,0.317225,0.742000,0.590597
0.069866,-0.168131,0.608897,0.390330,-0.821247,-0.416167
-0.355780,0.819111,0.267163,-0.294492,-0.033279,0.955074
-0.043210,0.536289,0.776253,0.402367,-0.913330,-0.062685
-0.110711,-0.075583,0.861156,-0.565981,0.806733,0.169847
0.267050,-0.130131,-0.977447,-0.131212,-0.020633,0.991140
-0.268770,-0.022143,0.814585,0.077144,0.613731,0.785737
0.126458,0.030602,0.834509,-0.679035,0.713371,-0.173242
0.021766,-0.812269,0.150186,-0.547860,0.486586,-0.680502
-0.171118,-0.477256,0.593676,0.489180,-0.227846,0.841896
0.329607,0.337833,0.526158,-0.399392,0.406048,-0.821955
0.299135,0.461539,0.476737,0.302609,-0.946067,-0.115695
-0.217177,0.462279,0.094417,0.198616,0.961469,-0.190076
-0.221906,-0.342964,0.784259,0.267220,-0.958608,0.098311
0.032891,-0.696607,-0.140237,0.498527,0.484630,-0.718752
-0.118665,-0.688610,0.366535,-0.350829,0.707589,0.613381
0.017949,-0.056352,0.927922,0.536893,0.781909,0.316804
-0.450100,0.400287,0.764478,-0.687695,-0.423788,0.589474
-0.125329,-0.344166,0.738984,0.119892,-0.514152,0.849279
0.587359,-0.159809,0.704111,0.621741,-0.460564,-0.633497
0.037888,0.805104,0.299756,0.617201,0.363667,0.697717
0.297306,0.124908,0.703373,0.724634,0.681850,-0.099932
-0.300802,-0.243389,0.292294,-0.319687,0.917838,0.235316
0.026065,0.168824,0.642358,0.795489,0.288812,0.532715
