0.599152,-0.498381,0.050243,0.077750,-0.942094,0.326211
0.291015,-0.595780,0.342630,0.656625,-0.677497,-0.331424
0.518868,0.268776,-0.049518,0.203598,-0.225308,0.952777
0.479527,-0.197919,0.222478,-0.127670,0.469580,0.873610
-0.185364,-0.034781,0.303528,0.895610,-0.071631,-0.439035
0.318502,0.187516,-0.692369,0.886660,-0.455019,-0.082417
-0.038882,0.178293,0.394429,0.462703,0.298912,0.834600
-0.103477,0.738900,0.006314,-0.054302,0.134040,0.989487
0.521617,-0.472288,0.266549,0.363604,0.726239,0.583412
0.654183,0.324057,-0.956955,0.129904,-0.115507,-0.984776
-0.208383,0.800480,0.172906,0.005037,-0.131777,0.991267
-0.460517,0.517842,0.235335,-0.543291,0.098612,0.833733
0.279792,-0.249318,0.329242,-0.308478,0.441418,0.842610
0.389910,0.529708,-0.978831,-0.086249,0.046579,0.995184
-0.776786,0.384397,0.317888,0.006854,-0.096686,0.995291
-0.516063,0.494615,0.257901,-0.319017,-0.945165,-0.069933
-0.315353,-0.358638,0.201715,0.137704,0.627974,0.765954
0.957739,0.301057,-0.042055,0.980820,-0.054143,-0.187247
0.399473,0.284860,-0.129773,0.251306,-0.646766,0.720097
0.221783,-0.456994,0.454152,-0.452204,-0.052038,0.890395
-0.156388,0.709602,0.145795,0.356096,-0.257748,0.898199
0.289125,-0.433486,0.523583,-0.215196,0.474297,0.853659
0.339002,0.166205,-0.173013,-0.473084,-0.880953,0.010588
-0.717060,-0.023026,0.235476,-0.056108,-0.530076,0.846092
0.012139,0.042487,0.422389,0.971086,0.232588,0.053803
-0.333791,-0.352902,0.261809,0.824754,0.123598,0.551819
0.788065,0.442376,-0.954355,-0.125626,0.046524,0.990986
-0.380004,0.134655,0.261562,-0.458881,-0.143685,-0.876802
0.145106,0.131621,0.365762,0.745218,0.570416,0.345364
-0.267367,0.148264,0.517481,0.253506,0.801897,0.541013
0.456335,0.006382,0.188452,-0.139025,-0.650453,-0.746715
-0.023937,-0.253646,0.208241,-0.450737,0.638825,-0.623489
-0.555575,-0.054970,0.371739,0.006325,0.709539,0.704638
-0.169330,-0.091240,0.093819,-0.449121,0.847723,0.282232
0.841837,0.222553,-0.946078,-0.121883,0.051600,0.991202
0.448433,-0.043496,0.198037,0.586332,0.347346,0.731823
0.334478,0.259217,0.375966,0.961526,0.274261,-0.015748
-0.186395,0.243528,0.551897,0.383868,-0.186992,0.904256
-0.639180,-0.099789,0.309258,0.074336,0.855805,0.511930
-0.584607,-0.036243,0.305668,0.022998,0.427138,0.903894
0.309053,0.170310,-0.206880,0.690944,-0.720729,0.056085
0.576018,-0.399969,0.158246,-0.715181,0.054824,0.696786
-0.523794,-0.400591,0.211318,-0.048464,-0.647426,0.760586
-0.257516,0.094730,0.548696,0.484341,0.690011,0.537865
0.202829,0.132688,0.577558,0.309735,0.947814,0.075578
0.125236,0.313146,0.191069,0.631278,-0.643749,-0.432523
-0.068545,-0.449796,-0.067097,-0.019711,0.229072,0.973210
-0.612437,0.447435,0.064515,0.917604,0.330894,-0.220253
0.166524,0.465825,-0.112424,-0.296613,-0.141534,0.944452
-0.101644,0.301167,0.541268,0.954211,0.153594,0.256693
-0.100842,-0.588922,0.479423,-0.007984,0.413073,0.910663
0.209356,0.180881,0.320630,-0.806800,0.584559,-0.085819
0.240622,-0.197806,0.200495,-0.402976,0.695182,0.595259
0.763786,0.008016,0.292846,0.793643,-0.532858,-0.293586
-0.173166,0.006214,0.598727,0.178927,0.398376,0.899601
-0.416940,-0.228735,0.207764,-0.640860,0.301326,-0.706046
-0.547557,-0.377309,0.120736,0.296189,-0.196989,0.934595
0.806332,0.004134,0.335379,0.954227,-0.157510,-0.254248
-0.551051,0.524645,0.322274,0.860989,0.232413,0.452418
0.546584,0.335246,-0.957892,-0.076505,0.128569,0.988745
-0.713451,0.346607,0.307719,0.984245,0.027811,-0.174611
-0.747352,0.457389,-0.064657,0.500716,-0.041034,-0.864638
0.874192,0.457166,0.337678,0.307338,0.949549,-0.062446
0.492527,-0.360268,0.151826,0.330428,-0.752723,-0.569408
-0.512112,0.630817,0.129879,-0.443920,-0.278561,0.851668
-0.188629,-0.746493,0.213034,-0.400025,0.593429,0.698443
0.635687,0.299876,0.114652,-0.658076,0.186962,0.729371
-0.128387,-0.668267,0.317216,0.456267,0.751556,0.476428
-0.182215,-0.440124,-0.040428,-0.176806,0.452445,0.874090
-0.732463,0.264448,0.314457,0.809404,-0.166431,0.563174
-0.495505,0.224293,0.395526,0.191635,-0.123615,-0.973651
0.464411,-0.557149,0.340083,-0.426542,-0.739520,-0.520742
0.741739,0.033491,-0.038288,0.802342,0.501963,0.322925
-0.128902,0.190890,0.502273,-0.720776,0.408055,-0.560333
0.174711,0.539884,0.307684,-0.261988,0.929062,0.261162
-0.205062,-0.044114,0.185092,-0.307423,0.056732,0.949880
-0.187653,-0.397553,0.078026,0.882333,0.015921,-0.470356
0.631736,-0.698859,-0.012786,0.402619,0.208910,-0.891210
0.290443,0.160692,-0.428773,0.957970,-0.266094,0.107182
0.680008,0.183298,-0.067645,0.669307,-0.354804,0.652796
0.588043,0.363196,0.160350,0.787346,-0.274650,0.551954
0.004295,-0.551468,0.124715,0.689755,-0.171065,0.703544
0.276699,0.096361,-0.060801,0.501604,0.080742,-0.861321
0.979786,0.119302,0.291821,0.156756,-0.765336,0.624251
-0.109202,-0.431293,0.282448,0.913820,0.245034,-0.323870
-0.019528,-0.115478,0.383341,0.712548,0.577987,-0.397752
0.037622,0.390864,0.476470,-0.625501,0.427206,-0.652874
0.161484,0.431464,0.037775,-0.302453,-0.074801,0.950225
-0.754395,0.015155,0.313414,-0.106572,0.364245,0.925185
0.004695,0.137469,0.506853,0.017710,-0.793703,0.608048
0.908320,0.006554,0.146467,-0.115343,0.672668,0.730899
0.372673,0.107831,-0.054505,0.049443,-0.046556,0.997691
0.735268,0.257079,-0.026439,-0.215074,0.909654,0.355349
0.295883,0.109407,-0.121355,0.963997,0.218736,0.151211
-0.761497,0.041869,0.318826,-0.280604,-0.198748,-0.939021
0.796312,-0.225587,0.367742,-0.807387,-0.109136,-0.579841
-0.673997,0.606413,0.287895,0.053916,-0.559987,0.826745
-0.053656,0.643413,0.068140,0.040631,-0.958558,0.281986
0.058123,0.646001,0.300433,-0.064383,-0.721589,0.689322
-0.176775,0.151638,0.513626,0.467745,0.336028,0.817496
0.266163,-0.663094,0.046865,0.760894,0.383198,0.523641
-0.673539,-0.296272,0.117305,0.134324,0.776973,0.615037
0.014257,0.313540,0.042320,-0.116514,0.390935,0.913014
-0.407604,-0.214508,0.159731,0.840328,-0.382025,-0.384585
-0.540915,0.717253,0.133840,0.417030,0.166575,-0.893498
0.352632,0.400759,-0.971828,-0.115996,0.275577,0.954255
0.124376,-0.027189,-0.077124,-0.170832,0.236213,0.956567
-0.177117,0.614791,0.161889,0.610063,0.248135,0.752497
-0.376854,0.108899,-0.055708,0.379568,-0.231260,0.895794
0.042718,-0.175819,0.214130,0.825992,-0.545152,-0.143338
-0.221554,0.337776,0.163197,-0.238562,0.233892,0.942541
0.088644,-0.021735,0.476063,0.878233,0.470704,0.084527
0.119967,0.447548,0.309541,-0.627447,0.502240,0.595034
-0.030064,0.030621,0.427323,0.835444,-0.155096,0.527236
-0.204261,-0.193025,0.233778,0.962934,-0.071069,-0.260207
-0.276814,-0.207478,0.234150,0.801046,0.222377,-0.555764
0.628872,0.367864,0.158281,-0.694312,0.532006,-0.484666
-0.393404,-0.326302,0.211407,0.786148,0.317522,0.530237
0.199107,-0.224180,0.425590,-0.448435,-0.374935,-0.811375
0.309224,-0.553154,0.337413,0.437863,-0.796702,-0.416583
-0.421978,-0.367692,0.310567,0.842830,-0.537452,0.027992
-0.019470,-0.036243,0.181537,0.761804,0.632253,-0.141106
0.335223,0.125322,0.351472,0.047711,-0.542232,0.838873
0.651263,0.229129,-0.051994,-0.043342,0.896904,0.440097
-0.089446,-0.526389,0.241489,0.919690,0.055220,0.388743
0.215426,0.517279,0.037015,-0.275664,0.069416,-0.958744
0.358586,0.198369,-0.698771,-0.365947,0.927944,-0.070726
-0.495047,-0.458175,0.114829,0.198195,0.000457,0.980163
-0.002521,0.129482,0.508905,-0.238646,-0.834310,0.496965
0.618451,-0.082357,0.191034,0.281616,0.343915,-0.895776
0.361106,-0.319948,0.293943,0.961727,0.220571,0.162573
0.043921,0.213667,-0.074312,-0.070461,-0.252094,0.965134
0.050105,0.047828,0.152622,0.182049,0.170972,-0.968311
-0.643762,0.224743,0.312883,0.058099,0.422216,0.904631
-0.202887,0.680812,0.012822,-0.181692,-0.330854,-0.926026
0.221726,-0.143256,0.440340,0.834563,0.223000,-0.503761
-0.893203,0.441250,0.009992,0.934719,-0.002022,0.355382
-0.060987,0.481233,-0.110142,-0.447000,-0.144623,-0.882766
-0.427476,-0.449288,0.335909,0.743193,-0.226596,-0.629538
0.186451,0.651682,-0.990202,-0.126974,0.273513,0.953451
-0.992613,0.004642,0.352940,-0.621415,-0.280968,-0.731369
0.064079,-0.460255,0.217579,-0.052207,0.867251,0.495127
-0.216056,0.574359,0.268423,0.159269,-0.390512,0.906716
0.392658,0.393170,0.381448,0.708165,0.623210,0.331830
0.249098,0.455703,-0.105279,-0.453749,-0.294291,0.841133
-0.302697,0.404246,0.104837,0.815216,0.395018,-0.423536
0.146079,-0.453112,0.444089,-0.117046,0.425741,0.897243
-0.151063,0.664560,0.119285,-0.288970,-0.241761,-0.926309
0.027029,0.212373,0.537466,0.341702,-0.872252,0.349879
0.435892,0.350263,-0.508250,0.819783,-0.567480,0.076964
-0.523908,0.341994,0.117959,0.604533,-0.341130,-0.719841
-0.004926,-0.080500,0.164029,-0.290626,0.291727,0.911280
-0.015519,-0.399183,-0.018304,-0.706878,0.648862,0.281605
0.373533,0.197696,-0.936847,-0.653863,-0.206031,-0.728020
-0.137778,-0.278785,0.209603,0.590502,0.582005,0.559086
0.311344,0.180545,-0.867539,0.924578,-0.380940,-0.006354
-0.023651,-0.547250,0.365815,0.756646,-0.116876,-0.643293
0.137203,-0.039223,-0.068017,0.216364,0.281416,-0.934875
-0.319762,0.654043,0.149987,-0.082985,-0.159478,0.983707
-0.126153,-0.371629,0.246742,0.719516,-0.138500,0.680525
0.269083,0.049911,0.265930,0.746499,0.665344,0.007470
-0.038596,-0.359032,0.122327,0.859795,0.509715,-0.030712
0.121285,-0.493153,0.378000,0.848932,-0.143876,0.508541
-0.436523,0.661296,0.293536,0.176758,-0.612808,0.770210
-0.030006,0.059134,0.581360,0.738019,0.550354,0.390434
0.555918,0.268045,-0.105244,-0.225653,-0.970345,-0.086671
-0.403253,0.325011,0.414519,0.072762,-0.196928,0.977714
0.266849,-0.253255,0.217667,0.426005,0.460486,0.778763
-0.383039,-0.084155,0.271359,0.771900,-0.406959,0.488420
0.157590,0.543035,0.142700,0.960204,-0.153750,0.233171
-0.175629,-0.888652,0.254258,-0.605632,0.425633,0.672344
-0.262098,0.215915,0.494756,-0.051229,0.764006,0.643172
-0.012083,0.375566,0.134848,0.064427,0.200470,0.977579
0.717974,-0.303302,0.392059,0.289745,0.520113,0.803449
0.284601,-0.519414,0.263967,0.873109,0.351093,-0.338252
-0.233523,-0.619174,0.217791,0.657993,-0.285832,0.696667
0.386875,0.367469,0.195879,0.685702,0.637566,-0.351174
0.597664,0.395192,-0.961252,-0.163792,0.111880,0.980130
-0.097292,0.357570,0.242868,-0.916847,0.393776,0.065810
0.183416,0.126332,0.598833,-0.833965,0.538915,-0.118630
0.007044,0.870210,0.041524,0.354389,-0.078436,-0.931803
0.005497,-0.246844,0.424476,-0.303361,0.182489,-0.935238
-0.213365,0.250612,0.553648,-0.469753,0.172570,-0.865767
-0.075874,0.610518,0.265222,0.894552,0.381158,-0.233443
0.418542,0.283566,0.401945,-0.389522,0.821073,0.417267
0.233006,0.085449,0.266796,0.862164,0.502760,-0.062497
0.103933,0.343964,0.344027,0.628249,0.391671,0.672233
-0.514345,0.317645,0.282465,0.972877,-0.061640,0.222958
-0.465328,0.023873,0.335962,-0.042793,0.809021,0.586220
0.311057,-0.508616,0.311186,0.524659,-0.725890,-0.444767
0.531008,0.030453,0.177487,-0.356336,0.894175,0.271063
-0.161484,-0.465317,0.076346,0.784222,0.069447,-0.616581
0.159595,-0.151748,0.266443,0.809884,0.476979,-0.341436
0.104105,0.419317,0.166045,0.036936,-0.119782,0.992113
-0.740023,0.627724,-0.006260,0.965931,-0.208327,-0.153550
0.626238,0.279125,-0.954956,-0.138143,0.100892,0.985260
0.474775,0.368595,-0.968043,0.161925,-0.069568,-0.984348
0.854665,-0.133756,0.309965,0.947424,0.270898,0.170298
0.682815,0.239759,-0.951702,0.173650,-0.179989,-0.968220
-0.531468,0.186222,0.277284,0.767490,-0.483481,0.420956
0.067686,0.305272,0.040640,-0.175634,0.232148,-0.956692
-0.360190,-0.056601,0.449624,0.341004,0.374761,0.862131
0.198705,0.177730,0.098346,0.102071,0.302933,-0.947530
0.568001,0.276986,-0.044955,0.343736,-0.376341,0.860356
0.099295,0.111881,0.369953,-0.539479,0.275244,-0.795740
0.051136,0.662253,-0.996834,-0.109923,0.202668,0.973058
0.539597,0.303981,-0.036979,-0.090966,-0.283430,0.954669
-0.691635,0.386927,-0.034008,-0.695505,0.245332,0.675341
0.637405,-0.205285,0.157644,0.394684,-0.303252,0.867331
0.235239,-0.661296,0.055849,0.425975,0.093266,0.899915
0.003435,0.368931,0.508568,-0.780482,0.199786,-0.592397
-0.182215,-0.264276,0.325900,-0.615183,-0.470013,-0.632960
0.184332,-0.494725,0.236608,-0.083297,-0.277821,0.957015
0.339345,0.189767,-0.933610,-0.751809,0.372620,-0.544002
-0.654527,0.277381,0.305739,0.008319,-0.077633,0.996947
0.276928,-0.066946,-0.031108,0.526993,-0.386771,-0.756760
0.124950,0.162210,0.445380,-0.500838,0.864895,0.033427
0.628242,-0.623056,0.105757,0.951347,0.308120,-0.001097
-0.220868,0.535724,0.128499,-0.184034,-0.201812,0.961979
0.273836,-0.442990,0.519020,-0.268578,0.440508,0.856632
0.059439,0.120205,0.279353,0.840349,0.447449,-0.305945
0.661628,0.384002,0.112742,0.453964,-0.295277,-0.840671
-0.141214,-0.105412,0.132443,-0.014078,0.851787,0.523698
-0.299205,0.359032,0.137200,0.893168,-0.259829,0.367068
0.457024,0.292847,0.412539,0.553306,0.671370,0.493067
0.202141,0.302011,0.169493,-0.166680,0.951725,0.257753
0.682071,0.385070,-0.956778,-0.157150,-0.004803,0.987563
-0.131249,-0.335751,0.336016,0.980133,-0.067975,0.186327
0.065910,0.277830,0.369087,0.521108,-0.371719,0.768291
-0.392659,-0.502544,0.243576,-0.542441,0.838255,0.055553
-0.161770,0.314439,0.463153,0.090038,0.944692,0.315359
-0.618451,0.140672,0.140614,-0.241184,0.970234,0.021836
0.973144,0.205343,0.056345,0.244951,0.819718,0.517747
0.049247,0.063462,0.404227,-0.612458,-0.478009,-0.629605
0.892572,0.117054,0.381537,-0.818375,-0.094214,0.566909
0.505697,0.469422,-0.965408,-0.193937,0.229798,0.953720
-0.256428,0.211697,0.546768,-0.505690,0.713734,-0.484624
-0.527343,-0.133811,0.311097,0.474229,0.508985,0.718360
-0.215485,0.635371,0.193739,0.840069,0.391307,-0.375718
-0.318731,-0.004526,0.434220,0.079961,0.004985,0.996786
0.525397,0.341208,-0.962897,-0.121408,0.032664,0.992065
0.266907,-0.367973,0.443682,-0.154805,-0.267051,0.951167
-0.445914,0.197078,0.105049,0.312837,-0.732295,0.604878
0.098951,-0.488317,0.210151,0.567434,0.016339,-0.823257
-0.787438,0.336595,0.336935,-0.489168,-0.605167,-0.628083
0.181584,0.379389,0.358352,0.364266,0.821119,0.439402
-0.323828,-0.553885,0.249005,-0.441553,0.205025,-0.873496
0.304815,0.115255,-0.335379,0.921112,0.386150,0.049403
0.493385,0.150176,0.174763,0.895099,-0.414434,-0.164445
-0.566282,-0.132067,0.102467,-0.124021,0.147939,0.981189
-0.251160,0.336595,0.234769,0.139146,0.215357,0.966571
0.252076,-0.042092,-0.045061,0.636754,-0.446780,-0.628436
0.501632,-0.008631,0.213175,-0.324224,0.553678,-0.767020
0.253680,0.549670,0.313609,-0.095421,0.936810,0.336574
-0.207467,-0.544494,0.462658,-0.139147,-0.477288,-0.867660
0.355552,0.090680,-0.935945,-0.599360,-0.423618,-0.679202
-0.031495,0.505750,0.273269,0.759953,0.255759,-0.597544
-0.190575,0.395981,0.261615,-0.130781,0.041092,0.990559
-0.103706,-0.657132,0.270174,0.679523,0.549434,0.486181
0.737044,0.025449,0.272986,0.885912,-0.260197,-0.384002
-0.105709,0.553044,0.220815,0.989357,0.144656,0.015725
0.206150,0.330805,0.039968,0.793049,-0.027001,0.608560
0.976235,0.204949,0.419754,0.821913,-0.394271,-0.411108
0.782454,-0.029269,0.298912,0.992536,0.113293,-0.045132
-0.134112,0.336204,0.162631,0.327157,0.495953,0.804362
0.448835,-0.416503,0.269732,0.561014,0.721669,0.405534
-0.297659,-0.262646,0.257388,-0.686480,0.691149,0.225960
0.368550,0.567384,-0.976178,-0.093850,-0.008026,0.995554
-0.507416,-0.510696,0.299761,0.881778,-0.201994,0.426223
-0.137434,0.323436,0.401786,0.820634,-0.009188,-0.571380
0.823226,0.488262,-0.953948,-0.064902,0.102475,0.992616
0.845789,-0.062391,0.424847,-0.400255,0.856540,0.325784
-0.857184,0.273726,0.290353,-0.187542,-0.221854,0.956874
0.311057,0.138650,-0.707366,0.786159,-0.573203,-0.231068
-0.591594,-0.206071,0.102821,-0.038634,0.961579,0.271797
0.457481,0.124365,0.291095,0.353678,0.935364,0.002366
0.901848,0.366964,0.167725,-0.620772,0.101136,0.777440
0.495963,0.542191,-0.971969,0.224186,-0.067849,-0.972182
0.695929,0.027642,0.238766,0.818857,-0.511695,-0.260079
-0.398442,0.464754,0.105509,0.446251,0.548469,-0.707136
0.556605,0.480166,-0.961995,0.153156,-0.033276,-0.987642
0.185878,0.137919,0.497904,-0.412753,0.907713,0.075440
-0.626926,0.147478,0.311451,-0.478431,0.364269,-0.799007
0.198591,0.137861,0.151985,-0.475140,0.791393,0.384629
0.122201,0.436527,0.025396,0.791383,0.464259,-0.397715
0.439901,-0.002051,0.201503,0.937305,0.293000,-0.188706
-0.332533,-0.012399,0.146184,0.357817,0.363281,0.860229
-0.709271,0.557375,-0.046671,0.826619,0.317837,-0.464413
0.150146,0.549557,-0.986913,-0.195967,0.181394,0.963687
-0.735727,0.390582,0.326466,-0.093748,0.007209,0.995570
-0.355838,-0.018303,0.312671,0.725877,-0.503525,0.468578
0.115214,0.609056,-0.990238,-0.122825,0.181680,0.975657
0.825459,-0.063235,0.415545,-0.364151,0.899466,0.241570
-0.238275,-0.174075,0.274507,0.997190,0.004421,-0.074787
-0.012886,-0.298860,0.415156,0.511105,0.005600,0.859500
-0.282885,-0.087811,0.435794,-0.316200,0.000108,-0.948692
0.287121,0.100860,-0.305138,0.924333,0.369089,-0.096862
0.273321,0.039562,-0.068795,-0.638067,0.634573,0.436104
0.245146,0.083314,0.293890,0.800910,0.597559,-0.038295
-0.033100,-0.380625,0.434733,-0.122644,-0.074278,0.989667
-0.179237,0.161986,0.465275,0.297431,0.816192,-0.495344
0.181869,-0.091634,0.439349,0.838548,0.337065,-0.428048
-0.070150,-0.465877,0.196799,-0.503781,-0.295036,-0.811886
0.309511,0.091016,-0.321956,0.860186,0.473190,0.190186
0.939071,-0.013803,0.166222,0.117302,0.756435,0.643464
-0.359905,0.357515,0.075374,-0.294103,-0.564696,0.771117
-0.033328,0.725631,0.289185,-0.079398,-0.086072,0.993120
0.601213,0.382540,-0.960173,0.125364,-0.179173,-0.975798
-0.680754,0.163562,0.322186,0.133525,0.145217,0.980348
-0.047071,0.100860,0.554213,0.546183,-0.512511,-0.662583
0.307221,0.194435,-0.441631,0.869531,-0.478794,-0.121128
0.648456,0.199890,-0.950853,-0.133444,0.194421,0.971799
0.115673,-0.083537,0.422389,0.435432,0.231701,-0.869893
-0.090364,-0.021114,0.327032,-0.297278,0.864619,0.405043
0.647883,-0.575762,0.009621,0.957912,0.132301,-0.254756
-0.275038,-0.119244,0.328004,0.237882,-0.068569,0.968871
0.602988,-0.683846,0.039685,-0.650497,0.658483,-0.378488
0.358988,0.512330,-0.072544,-0.690212,-0.536008,0.486110
0.161599,0.104965,0.626970,0.532619,0.837280,0.123609
-0.296972,0.139831,0.543762,-0.676678,-0.407999,-0.612898
-0.066656,-0.457444,0.348077,-0.495822,0.491921,0.715664
-0.067630,-0.831799,0.291414,-0.311717,0.712850,0.628233
0.155070,0.132070,0.456875,-0.203722,0.978164,0.041142
0.316097,0.163730,-0.918932,0.959759,-0.162985,0.228689
-0.257573,0.366007,0.545601,-0.491226,-0.573739,0.655379
0.447861,-0.360213,0.545583,-0.757538,0.236088,0.608604
0.178720,0.142529,0.287541,0.961516,0.262442,0.081308
-0.585352,0.431859,0.261508,-0.048784,-0.718021,0.694310
-0.494360,-0.463574,0.109276,0.144286,-0.032879,0.988990
-0.022562,-0.753858,0.259457,0.368604,0.716663,0.592052
0.359903,0.126671,-0.186913,0.946942,0.273428,0.168931
0.374906,0.136680,0.357414,0.252991,0.598381,-0.760221
0.473573,0.376410,-0.962968,-0.205308,0.044113,0.977703
-0.144192,-0.762631,0.248846,-0.367834,0.172356,0.913779
-0.479471,0.158163,0.266973,-0.449609,-0.393036,-0.802106
-0.009448,0.173739,0.327421,0.819199,0.046385,-0.571630
-0.312088,0.109743,0.558440,0.797915,0.592051,0.113166
0.793850,0.254604,-0.945017,-0.048122,0.063876,0.996797
-0.028919,0.239423,0.518932,0.364725,0.112240,0.924326
0.140468,0.287558,0.350217,-0.507728,-0.040589,-0.860561
0.678748,-0.197298,0.150199,-0.586858,0.279720,-0.759838
0.310886,-0.183016,-0.052348,0.743737,-0.080410,0.663619
0.264445,0.587460,-0.101424,-0.424414,0.073511,0.902479
-0.203173,-0.538645,0.466284,-0.139147,-0.477288,-0.867660
-0.159079,0.295490,0.235812,-0.458118,0.279835,-0.843694
0.400447,-0.557259,0.335343,0.152207,0.835423,0.528111
0.361106,0.171885,0.126271,0.852320,0.521862,0.034784
0.236386,-0.304314,0.001238,0.097745,0.421137,0.901715
0.282254,0.118235,-0.223539,0.862692,-0.500343,0.073618
0.406460,-0.334457,0.529384,0.758208,-0.367813,-0.538363
-0.508390,-0.473977,0.303652,0.736674,0.152439,0.658843
-0.899217,0.207423,0.301229,-0.267226,0.716662,0.644194
0.868465,-0.231659,0.133752,0.984792,-0.091717,-0.147555
0.158106,0.011332,0.541569,0.003654,0.619476,0.785007
-0.136461,0.102322,0.310903,-0.122520,-0.410962,0.903382
-0.154612,0.575989,0.148342,0.116375,-0.176689,0.977363
-0.054458,-0.048051,0.579680,0.246938,-0.173607,0.953353
0.407260,0.379897,-0.043063,0.556345,0.217377,-0.802014
0.063277,-0.728833,0.099903,0.306481,0.469982,0.827760
-0.350112,-0.576830,0.223291,0.903268,-0.077088,0.422094
0.330127,0.101365,-0.370979,0.899609,0.432617,0.059546
0.178091,0.051991,0.391423,0.964888,0.076529,0.251266
0.208498,-0.264331,0.437722,-0.695159,-0.435578,0.571861
0.179293,-0.263827,-0.012946,0.329294,-0.585781,-0.740558
-0.598637,0.417292,0.302856,-0.665836,-0.542171,-0.512556
0.651663,0.032983,0.216659,-0.367824,0.789264,0.491699
0.371815,0.202982,0.366504,0.755336,0.267267,-0.598361
-0.225277,-0.200281,0.304006,0.942939,0.182132,-0.278738
0.008017,0.228288,0.383270,0.439762,0.197863,0.876048
-0.274065,0.152537,0.291237,-0.256361,0.436822,0.862244
0.296341,0.177339,-0.263295,0.979231,-0.202053,0.016752
-0.290843,0.336204,0.273163,0.153463,0.624047,0.766169
0.683215,0.212318,-0.092068,0.939113,-0.124115,-0.320411
0.353719,-0.332037,0.513255,-0.466934,0.614220,0.636165
-0.128558,0.485561,0.148749,0.002709,-0.111037,0.993813
0.522190,0.370170,0.229269,-0.398395,-0.780387,0.481951
-0.408464,-0.720342,0.263737,0.706045,0.705744,-0.058538
0.188513,0.157095,0.410522,0.947932,-0.296174,0.117071
0.136803,0.508225,0.319003,0.686357,-0.710928,-0.153281
0.814121,0.076172,0.278079,-0.547615,0.654981,0.520690
0.130045,-0.001320,0.159324,0.555503,0.463426,0.690400
0.029147,-0.184928,0.183659,-0.731536,0.181300,0.657256
0.300063,0.145058,-0.294951,0.928516,-0.365087,-0.067595
0.064363,0.490905,0.279017,0.502620,0.096125,-0.859147
-0.009448,0.463069,0.284305,0.444318,-0.226311,-0.866813
0.804157,0.508451,0.301052,0.448566,0.822575,-0.349512
0.160053,-0.611023,0.371403,0.453210,0.544112,0.706075
0.132737,-0.355713,0.407605,-0.674893,-0.737060,-0.035529
0.485942,-0.060537,0.154709,0.417689,0.252358,0.872841
0.152321,-0.561817,0.088797,0.685293,-0.569503,0.453916
-0.622804,-0.206802,0.328181,-0.678370,-0.317115,-0.662762
0.459600,-0.536284,0.157733,-0.443382,0.018744,0.896137
0.352803,0.162549,-0.164966,-0.791503,-0.590535,-0.157453
0.057034,0.125882,0.487930,-0.768060,0.639924,0.024100
0.370383,0.106146,-0.162101,0.978627,0.156732,0.133130
0.649430,0.393225,-0.042497,-0.046264,0.225065,0.973245
0.351372,-0.357965,0.446795,-0.316551,-0.440937,0.839863
0.110520,-0.454293,0.438394,0.288233,-0.342620,-0.894166
0.836913,-0.075046,0.464763,0.214864,-0.968728,-0.124097
-0.245433,0.059134,0.250261,0.477224,0.484743,0.732995
-0.429480,-0.488540,0.233495,0.521692,0.269101,0.809581
0.114069,0.625812,0.061243,-0.404273,0.576251,-0.710280
0.329095,-0.388612,0.279353,0.023359,0.999589,-0.016617
-0.543722,0.182230,0.174056,0.061484,0.791879,-0.607575
0.107827,-0.715674,0.202794,0.013323,0.172294,0.984956
-0.279734,0.257247,0.444973,0.944678,-0.326899,-0.026861
-0.383210,-0.457725,0.280538,0.327426,-0.208442,0.921599
0.217774,-0.072739,0.300787,-0.632550,-0.612180,0.474464
0.176716,0.093604,-0.078044,-0.561261,0.492208,0.665370
-0.246637,-0.607535,0.302202,0.279048,0.293524,0.914317
0.675257,0.400985,-0.042922,-0.023331,0.153851,0.987819
0.397927,0.244877,0.430684,0.521650,0.833244,-0.183264
0.537251,0.300775,0.210098,0.789069,0.488650,-0.372279
-0.050393,0.254323,0.518118,0.259722,0.161053,0.952159
0.924354,0.120877,-0.010222,-0.334681,-0.808387,0.484251
-0.288783,0.280528,0.273128,0.479476,0.069345,0.874811
0.909180,0.180377,0.150535,0.474956,-0.129070,0.870493
-0.005554,0.147759,0.139588,0.896889,-0.131788,0.422163
0.303555,0.167609,-0.830259,0.960771,-0.267663,-0.072630
0.769913,0.478082,0.347900,-0.135392,-0.990613,-0.018829
0.291472,0.171772,-0.611071,0.636864,-0.764905,-0.096568
-0.738876,-0.258369,0.116403,0.120420,-0.079953,0.989498
-0.476379,0.298864,0.397383,0.346691,-0.403030,-0.846978
-0.063792,-0.773598,0.251446,-0.351622,0.758073,0.549260
0.276127,0.160188,-0.145194,0.963087,-0.229527,-0.140643
-0.247553,-0.419314,0.267398,-0.356579,-0.067517,-0.931822
0.223788,-0.693182,0.019294,0.866806,0.443756,0.227440
-0.543550,-0.299537,0.232487,-0.493669,0.051296,-0.868136
0.179866,-0.038660,-0.064285,-0.504946,-0.165527,0.847131
-0.634084,-0.326415,0.124874,0.144718,0.457550,0.877328
0.097406,-0.582792,0.076152,0.645227,-0.323401,0.692166
0.003493,0.133982,0.444460,-0.221012,-0.498378,0.838316
-0.144534,0.035176,0.584826,0.098814,0.574407,0.812584
0.171047,0.135163,0.139853,0.503684,-0.863279,0.032445
0.152208,-0.286940,0.432823,0.448267,0.208046,-0.869352
-0.056234,-0.153718,0.158758,0.925257,-0.374179,-0.062363
-0.645709,0.039899,0.288195,-0.431395,0.809469,-0.398319
0.087213,0.672262,-0.996852,-0.108934,0.242353,0.964053
-0.539140,-0.087979,0.147228,-0.564532,-0.809058,-0.163488
0.823341,-0.201575,0.246299,0.812963,0.555708,-0.174010
0.288552,0.169071,-0.112442,0.923486,-0.352706,0.150906
0.795338,0.439561,-0.953418,-0.121444,0.058578,0.990868
-0.523794,-0.562266,0.281528,-0.329166,0.722853,-0.607564
0.224990,-0.438830,0.238447,0.890354,-0.419095,-0.177847
0.132681,-0.013130,-0.074825,-0.245106,0.533553,0.809472
-0.281854,0.796148,0.160580,-0.009031,-0.161360,0.986854
-0.691175,0.167272,0.347069,-0.591996,-0.029716,0.805393
-0.620913,0.338957,0.363816,0.951796,0.143344,-0.271176
0.302526,0.499115,0.333823,0.783778,-0.366758,-0.501179
0.342094,-0.285138,0.322115,0.477306,0.809203,-0.342592
0.128327,-0.030113,0.429640,0.953691,0.235352,-0.187304
0.290557,0.504065,0.149863,0.182011,0.707639,-0.682729
-0.555231,0.386758,0.388452,-0.265144,0.471675,0.840965
-0.806219,0.181163,0.299054,0.479072,0.809259,0.339984
-0.142645,0.302179,0.490229,0.404534,0.897275,0.176777
0.227681,0.565922,0.026510,0.218188,-0.254270,0.942200
-0.174884,0.654888,0.011690,0.131312,0.329347,0.935033
0.138408,0.129482,0.483774,0.007579,0.992782,0.119695
-0.428907,-0.371965,0.336599,-0.515868,-0.584856,-0.625959
0.210788,0.130382,0.585746,0.968410,-0.171070,0.181430
0.248754,-0.240768,0.311787,-0.716005,0.543049,0.438673
0.204547,0.064869,0.526978,0.955089,-0.208905,-0.210154
0.034587,0.175709,0.305969,0.919484,0.195594,0.341017
-0.071810,0.168003,0.496914,0.375718,0.926710,0.006690
0.808623,0.309940,-0.948996,-0.120405,0.254105,0.959653
0.747866,0.064924,-0.084446,0.439234,0.635112,0.635379
0.353490,0.192411,-0.432417,-0.529038,-0.676057,-0.512900
0.172249,0.155238,0.451304,0.216926,-0.935287,-0.279609
0.078910,-0.827863,0.271129,0.167452,0.722406,0.670887
0.035789,0.844849,0.017597,-0.523592,0.086064,0.847611
0.517265,-0.353520,0.469537,0.983706,-0.011488,0.179419
-0.807365,0.483539,0.346927,-0.407480,0.578272,-0.706796
0.284659,0.051541,-0.051004,0.629161,-0.449037,-0.634446
-0.753650,0.586224,-0.000619,0.869441,0.409285,-0.276693
-0.300808,0.104063,0.548254,-0.648238,-0.546827,-0.529876
0.293477,0.548039,-0.976284,0.242473,0.009462,-0.970112
-0.558953,0.132239,0.141887,-0.311666,-0.802425,-0.508899
0.182271,-0.212709,0.461473,0.724078,0.190647,-0.662846
-1.000000,0.002277,0.353276,-0.621415,-0.280968,-0.731369
-0.382810,0.467174,0.248864,0.163343,0.604985,0.779302
0.621371,-0.280696,0.154496,0.039364,0.393929,0.918297
0.861707,0.415326,0.146768,-0.328104,0.229607,0.916312
0.019011,0.005428,0.150977,0.354072,-0.455389,-0.816856
0.183645,0.409590,0.988664,0.555845,0.802481,0.216935
0.991238,0.101533,0.053479,0.878595,-0.397793,-0.264257
0.845100,0.076676,0.302502,-0.604786,0.737997,0.299323
-0.754854,0.119134,0.303687,-0.663535,0.059834,-0.745749
-0.607228,0.601687,0.127244,-0.485455,-0.454591,0.746780
-0.271145,0.231717,0.263595,-0.602412,0.202397,-0.772098
-0.726623,-0.018471,0.267380,0.209638,0.619132,-0.756788
-0.285976,-0.275243,0.275904,-0.598306,0.530358,-0.600625
-0.622002,0.429666,0.256840,0.188796,0.719477,-0.668363
0.633854,-0.575145,0.302891,0.146736,0.777104,0.612028
-0.106397,-0.299365,-0.066620,-0.097340,0.662667,0.742561
-0.577049,0.276368,0.219064,0.954259,0.152674,-0.257062
-0.338258,-0.053395,0.159448,0.815853,0.403457,-0.414254
-0.323942,0.110251,0.259722,-0.595382,-0.547007,-0.588476
0.137147,-0.230423,0.403749,-0.070214,-0.227187,0.971317
0.246693,0.144499,0.201945,0.806076,0.570654,0.156833
0.146366,0.221877,0.115925,-0.152190,0.558727,-0.815268
-0.133196,0.508057,0.149527,0.016291,0.043643,0.998914
0.225790,0.161650,0.247856,0.965634,-0.163170,0.202303
-0.058983,-0.067677,0.422761,-0.224823,0.317227,-0.921315
0.270801,-0.328045,0.247856,0.863019,-0.402286,-0.305557
0.192807,0.555745,-0.982598,-0.275163,0.100532,0.956127
0.180896,0.349532,0.342188,-0.203878,-0.068114,0.976624
-0.540915,-0.429439,0.316916,0.650243,0.484675,0.585042
-0.258949,0.727206,0.150712,-0.026461,-0.444144,0.895565
-0.508905,0.261524,0.296560,0.249227,0.625546,0.739309
0.145966,0.572279,-0.990468,-0.149170,0.190194,0.970348
-0.466415,-0.008294,0.345937,0.306316,0.771671,0.557399
0.006928,-0.590943,0.022566,0.765944,-0.103432,-0.634532
0.310542,0.176721,-0.201114,-0.544210,0.817983,0.186388
-0.157877,-0.051370,0.109877,-0.564960,0.656893,0.499312
0.137663,0.363590,0.465329,-0.249402,0.959327,-0.132248
-0.452614,0.128638,0.408312,-0.078676,0.358784,0.930099
-0.819447,0.333221,0.305173,0.015736,-0.743659,0.668374
0.289641,-0.691044,0.030595,0.901615,0.406863,0.146808
-0.322168,-0.081962,0.242868,0.391869,-0.667390,0.633269
0.622344,0.027920,0.205146,-0.249817,0.824980,0.506952
-0.331960,0.698076,0.301105,0.093535,-0.531904,0.841623
-0.807880,0.350712,0.334265,-0.505382,-0.594317,-0.625601
0.035560,0.664673,0.027429,0.828797,0.125731,0.545240
0.420087,-0.496582,0.448705,0.123210,0.554053,0.823313
-0.235068,-0.584086,0.054187,0.984171,0.008288,-0.177030
-0.638436,0.402448,0.355416,-0.622947,-0.728326,0.285443
-0.581172,-0.253365,0.341427,0.677372,0.318910,0.662921
-0.077879,-0.431070,0.429605,-0.470867,-0.178129,-0.864034
0.215426,-0.682216,0.218852,0.599427,-0.057296,-0.798376
-0.881923,0.204218,0.308002,0.212767,-0.959410,-0.185102
0.251273,0.294700,0.375524,0.225477,0.848722,0.478363
0.736872,-0.054799,-0.917234,0.052111,0.341329,0.938498
0.886961,0.492031,-0.951189,-0.040348,0.122638,0.991631
-0.269140,0.517955,0.262994,-0.136245,-0.329384,0.934315
0.707954,0.484494,-0.146255,0.163903,0.714604,0.680056
0.340549,0.170310,-0.237669,-0.654609,0.752231,-0.075070
0.300979,0.136848,-0.144593,0.906896,0.397595,-0.139490
0.539197,0.272881,-0.959059,-0.046713,0.212347,0.976077
0.339976,-0.289751,0.504731,-0.087845,0.557063,0.825811
-0.331731,0.010378,0.257777,0.436388,0.208108,0.875361
-0.752219,-0.119807,0.323123,0.422605,-0.697018,-0.579285
0.332989,0.455703,0.375382,-0.260791,0.424402,0.867105
-0.465155,0.139604,0.402582,0.026491,0.300136,0.953529
0.281567,-0.596624,0.454434,0.527747,0.177773,-0.830590
-0.232034,-0.084660,0.430471,0.259973,0.075740,0.962641
0.317071,0.182567,-0.550323,0.841152,-0.528853,-0.113035
0.612322,-0.615577,-0.005465,0.704909,0.264941,-0.657959
-0.083261,-0.474990,0.243505,0.653544,0.546874,0.523268
0.651778,-0.580036,0.310054,0.166636,0.759953,0.628255
0.066483,0.289192,0.144610,-0.040515,0.617195,0.785766
-0.787609,0.154562,0.129331,-0.679834,0.162085,0.715230
0.249613,-0.535048,0.535078,-0.019858,0.422604,0.906097
-0.503923,0.661522,0.141993,-0.589040,-0.404683,0.699474
-0.407433,-0.020554,-0.055602,0.339448,0.077625,0.937416
0.159708,0.058457,0.371845,-0.183185,-0.666145,-0.722976
0.136975,-0.107323,-0.069202,-0.283492,0.189869,0.939991
-0.083319,-0.257470,-0.088690,0.244336,-0.368530,-0.896931
-0.075532,0.949446,0.133310,0.986045,0.100357,0.132829
0.483709,0.012008,0.331559,-0.301396,0.529400,0.793030
-0.857585,0.432981,0.252082,-0.015541,-0.859218,0.511374
0.212964,-0.637620,0.218003,0.948853,0.242020,-0.202740
-0.391515,0.237679,0.056680,-0.152682,0.349713,0.924331
0.276183,-0.491523,0.282430,0.928258,0.025783,-0.371041
-0.263242,-0.831295,0.254594,0.097692,0.360890,0.927478
0.570634,-0.632729,-0.016429,-0.676708,-0.251470,0.691975
-0.331789,0.817295,0.011354,0.252016,0.178436,0.951130
0.416594,0.250839,-0.127704,-0.192335,-0.341073,0.920150
0.715627,0.200339,0.197577,-0.500956,-0.630463,0.592924
-0.242628,-0.689245,0.198444,-0.453729,0.167703,-0.875218
-0.589705,-0.463684,0.117464,-0.350074,0.062857,-0.934611
-0.079025,-0.663208,0.225979,0.101680,0.910992,0.399694
-0.021933,-0.291831,0.198108,0.721147,0.340008,-0.603607
-0.299490,0.305443,0.261809,0.995213,-0.029809,0.093077
0.732119,0.184255,-0.945866,-0.052967,0.125373,0.990695
0.373877,0.535107,-0.975842,-0.013758,0.001560,0.999904
0.501803,0.273894,0.368096,-0.300751,-0.036597,-0.953000
0.378170,0.097541,0.350004,0.949324,0.295925,-0.105889
-0.577507,-0.154672,0.091750,0.941787,0.125174,-0.312040
-0.111780,-0.228512,0.337218,0.759788,0.146690,-0.633407
-0.004581,0.191116,0.547794,0.471256,-0.812104,-0.344100
-0.342725,0.335528,0.606596,0.883832,-0.181904,0.430989
0.651492,0.230142,-0.051747,-0.043342,0.896904,0.440097
0.090533,0.007958,0.422814,0.003959,0.908292,0.418318
0.261409,0.504796,0.155557,0.011271,-0.213354,0.976910
0.105651,-0.186222,0.421098,0.899945,-0.067491,-0.430749
0.838057,0.448393,0.147210,-0.509180,0.238068,0.827079
0.226766,0.452158,0.335909,-0.169766,0.517793,0.838492
-0.277100,0.317645,0.406685,-0.230281,0.728120,0.645610
-0.619424,0.342894,0.237952,-0.052422,-0.387068,0.920560
-0.133311,0.363759,0.554231,-0.431962,-0.829622,0.353746
0.461604,-0.548489,0.151667,-0.443382,0.018744,0.896137
0.180380,0.120260,0.326094,0.925048,-0.353044,-0.140167
-0.310486,0.258260,0.160739,-0.490507,-0.255827,-0.833040
0.172593,0.190499,0.350676,-0.679889,-0.092060,-0.727513
0.318731,0.109012,-0.549297,-0.748314,0.650323,0.130792
0.405485,0.447943,0.204704,0.720458,0.525346,-0.452715
-0.249384,0.302348,0.112777,-0.657952,-0.740906,-0.134748
0.080112,0.709602,0.230224,0.294839,0.531544,0.794060
-0.200138,0.446031,0.256875,0.291555,0.347785,0.891090
-0.291703,0.820387,0.161217,0.117365,0.301924,-0.946080
0.230602,0.076172,0.247520,0.682051,0.681223,0.265973
-0.640440,0.226486,0.361606,0.977023,-0.056666,-0.205463
-0.381321,0.357628,0.265718,-0.335807,-0.187343,-0.923112
0.058008,-0.568901,0.222195,-0.450847,0.362923,0.815490
-0.755083,0.444511,0.330038,0.255752,-0.469708,0.844965
0.181182,0.093999,0.597772,0.907095,-0.376086,0.189044
0.570234,0.218222,0.170448,-0.064848,-0.736991,0.672784
-0.319704,-0.242570,0.176514,-0.554656,-0.111409,0.824588
0.353203,-0.603317,0.351278,-0.035052,0.840046,0.541382
0.768711,-0.200562,0.364718,0.854484,-0.388386,-0.344982
0.356010,0.183075,-0.561517,0.601665,-0.798537,-0.018377
-0.156330,0.269620,0.485171,-0.379597,-0.842756,-0.381664
-0.443796,-0.025445,0.350446,0.197592,0.722166,0.662898
-0.061043,0.183356,0.535485,0.419761,0.900002,0.117463
0.333391,0.455082,0.369352,0.115468,-0.172595,-0.978201
0.654183,-0.058794,0.172270,0.784453,-0.601504,-0.151085
0.728512,-0.252747,0.378707,-0.597391,-0.486122,-0.637816
0.765791,0.526670,-0.163109,0.119011,0.770244,0.626547
0.103762,0.451822,0.301777,-0.652849,0.430046,0.623578
-0.631909,0.530157,0.040428,0.907696,-0.082354,-0.411469
-0.114184,-0.881736,0.283526,-0.659704,0.585605,0.471018
-0.576418,-0.377138,0.219277,0.093936,-0.625786,0.774318
-0.098151,0.114919,0.294403,0.085820,-0.754147,0.651073
0.177575,0.149953,0.330392,-0.646982,0.620677,-0.442915
-0.335796,0.022525,-0.063737,-0.391684,0.027128,-0.919700
-0.439501,-0.616137,0.251304,-0.649447,-0.131964,-0.748869
-0.052969,0.656741,0.265169,0.173470,-0.099926,0.979757
-0.427074,-0.106256,0.360757,0.387694,0.776835,0.496206
-0.211419,0.086125,0.434433,0.443698,0.172551,-0.879408
0.875165,0.483708,-0.952003,-0.111998,0.091527,0.989484
-0.148372,0.320456,0.239172,0.105753,0.030177,0.993934
0.119854,-0.226205,0.231196,0.751529,0.236271,-0.615938
0.112580,-0.307352,0.400672,0.929800,0.343933,-0.131082
0.438299,0.280137,0.085684,0.234217,-0.639105,0.732590
-0.001546,0.222663,0.298329,0.955708,0.251919,-0.152180
-0.433889,0.542078,0.271324,-0.570723,0.536067,0.622019
-0.132338,0.930832,0.027182,0.141176,0.191191,0.971347
0.484280,0.360158,0.364117,0.101288,-0.484190,0.869080
-0.588961,0.005483,0.157326,-0.559860,0.049997,-0.827078
-0.743572,-0.131281,0.255938,0.990659,-0.020001,0.134890
-0.397642,0.218053,0.254664,-0.523066,-0.121744,0.843552
0.605853,0.534599,-0.291273,-0.695347,0.717670,-0.037976
0.535933,0.045579,0.189760,-0.137378,0.831969,0.537545
-0.110864,0.054915,0.195048,0.386092,0.228857,-0.893620
0.648572,0.241839,-0.102962,-0.080363,0.980670,0.178407
-0.106453,0.129709,0.308834,0.043570,-0.248198,0.967729
0.218919,0.118798,0.312883,0.952151,0.285801,0.108290
-0.700797,0.550741,0.270599,0.175201,-0.484749,0.856926
-0.399646,-0.366734,0.105137,-0.153111,0.187888,-0.970183
-0.591594,0.449855,0.274029,0.309108,0.784858,-0.537076
0.328924,-0.058681,0.327898,-0.372904,0.872279,0.316342
0.091451,-0.154731,0.435653,0.821293,0.562194,0.097033
0.200881,-0.014874,0.159820,0.238620,-0.175473,-0.955128
0.493500,-0.126836,0.158157,0.129897,0.438707,0.889192
-0.428163,0.291440,0.397383,0.076596,0.249605,0.965314
-0.070950,0.130663,0.163021,-0.124959,0.825709,0.550081
0.196358,0.146071,0.226068,0.018596,-0.999021,0.040151
-0.055603,-0.373314,0.189407,-0.350051,-0.083054,-0.933041
0.233866,-0.389230,0.234008,0.952531,-0.263224,-0.152965
0.690317,-0.499170,0.286957,-0.229999,0.657741,0.717271
0.079368,-0.127176,0.422654,-0.058126,0.335048,0.940407
-0.443854,0.491581,0.108285,0.170962,0.576685,-0.798878
0.499570,0.354477,0.191564,0.520903,0.689724,-0.502933
0.153066,0.386141,0.355416,0.770137,0.581620,-0.261929
-0.369983,-0.330407,0.277248,-0.637416,-0.003189,-0.770513
-0.871500,0.390301,0.338562,0.795618,0.128187,0.592082
-0.078452,-0.777476,0.264373,0.932779,0.054113,0.356364
-0.272920,0.144948,0.536776,0.835565,0.214666,0.505716
-0.070607,-0.208940,0.179326,0.787500,-0.534306,-0.307182
0.100097,-0.087924,0.225095,0.822476,0.320329,-0.470024
0.130905,-0.203260,-0.047537,0.708536,-0.537413,-0.457344
-0.007617,0.168003,0.494739,0.169176,0.943640,0.284469
-0.177175,-0.369490,0.358104,0.979001,-0.144965,-0.143328
-0.182042,0.988756,0.006190,0.239671,0.241638,0.940303
-0.076161,-0.836972,0.277796,0.435287,-0.794165,-0.424060
0.243600,-0.253928,0.352710,-0.177391,-0.661397,0.728757
0.152208,0.238692,0.150747,0.456902,0.027278,0.889099
-0.227395,-0.716405,0.266620,-0.387295,-0.750103,0.536049
-0.354923,-0.141345,0.191246,-0.564388,0.120024,-0.816738
0.348909,0.405540,-0.090707,0.760866,0.628692,-0.160717
-0.812003,0.388784,0.322840,0.016110,-0.252002,0.967593
-0.465786,-0.592296,0.271076,0.494043,-0.468347,0.732511
0.291072,0.132070,-0.378760,0.909262,0.415153,0.029855
0.193494,0.047941,0.378460,-0.265547,-0.491221,0.829570
0.137548,0.003911,0.275020,0.840814,0.414845,-0.347759
-0.210445,0.217154,0.565267,-0.513105,0.364624,-0.777029
-0.251504,0.338339,0.512318,0.871483,0.450925,-0.192830
0.266449,0.150008,-0.089363,-0.765831,0.610012,-0.203442
0.578079,-0.078193,0.145742,0.225041,0.667603,0.709692
0.519499,-0.202756,0.157733,-0.573177,-0.301585,0.761915
0.290270,0.133814,-0.410045,0.586532,0.795095,-0.154289
-0.278360,0.869929,0.170431,0.443799,-0.195857,0.874461
-0.398729,0.846706,0.146697,0.138714,0.594939,-0.791711
0.618222,-0.620132,0.316898,-0.151932,-0.763254,-0.627980
0.928878,0.035403,0.149067,0.040563,0.519820,0.853312
0.288896,0.124591,-0.328393,0.934419,0.338633,0.110401
0.314035,0.208041,-0.043629,-0.074755,-0.995821,0.052464
0.206952,0.090567,0.342028,0.816760,-0.042990,-0.575374
-0.392430,0.132575,0.137041,0.964820,0.235774,-0.116330
-0.184333,-0.584758,-0.035883,0.160284,0.878332,0.450380
0.446201,0.590442,-0.973296,-0.068591,0.083856,0.994114
-0.163717,0.802110,0.185215,-0.607481,-0.787477,-0.104146
0.210101,0.167049,0.461385,-0.403957,0.911201,0.080815
-0.122316,-0.031126,0.237121,0.516130,-0.146565,0.843877
0.005097,-0.627553,0.176497,0.686912,0.703398,0.182711
0.894806,0.074596,-0.931753,-0.174547,0.196130,0.964918
0.586383,-0.544889,0.274136,0.177617,0.840341,0.512131
-0.543493,0.219852,0.172517,-0.219597,-0.689688,0.690005
-0.189029,-0.120651,0.234733,-0.551517,0.055512,-0.832315
-0.210561,0.709660,0.255496,0.211931,0.923367,0.320124
0.513657,0.302348,0.092334,0.269964,-0.890564,0.366080
0.072726,0.613892,0.286586,0.009165,-0.803330,0.595463
-0.875223,-0.030337,0.264533,0.464126,-0.401933,0.789327
0.748439,0.445355,-0.956619,-0.180439,0.131253,0.974789
0.198134,-0.406439,0.199010,0.954759,-0.294869,-0.038569
-0.310028,0.155688,0.571262,0.899338,-0.433022,-0.060696
0.821795,0.254045,-0.945919,-0.106492,0.072277,0.991683
-0.132223,-0.432981,0.072102,0.533451,0.210298,-0.819271
0.358472,-0.312583,0.498223,0.287644,0.738023,0.610396
-0.141730,-0.733556,0.234822,-0.536991,0.354286,0.765586
-0.273149,0.214961,0.210752,0.869809,0.409320,0.275481
0.364770,0.193646,-0.950977,-0.653863,-0.206031,-0.728020
-0.257058,0.283624,0.488248,0.977371,0.127538,-0.168760
-0.603848,0.673333,-0.000212,-0.437164,0.895767,0.080560
0.298402,0.178407,-0.314670,0.844890,-0.530227,-0.070856
0.185878,0.163335,0.428225,0.838719,-0.540916,-0.062928
-0.362883,0.559850,0.127403,-0.177894,-0.489067,0.853913
-0.036362,0.087642,0.242214,-0.031215,0.954016,0.298127
0.737788,-0.474708,0.240835,-0.047803,0.997346,-0.054912
0.298402,0.117222,-0.375294,0.909262,0.415153,0.029855
0.254138,-0.110248,0.341339,-0.777642,0.607625,-0.161446
0.319819,0.437481,-0.094120,0.713772,0.308303,-0.628871
-0.322397,-0.431070,0.248669,0.996644,0.063942,-0.051108
-0.421864,0.898778,0.170466,0.024115,-0.590555,0.806637
0.906946,0.178575,0.064426,0.103940,-0.668660,-0.736268
-0.280594,0.698917,0.280874,0.116299,-0.459419,0.880573
0.305217,0.144835,-0.839738,0.948597,-0.315377,0.026468
0.577221,0.113512,0.081599,-0.563121,0.257564,-0.785211
0.191032,0.125772,0.325511,0.945752,-0.312395,-0.089235
-0.120256,0.881122,0.160209,-0.000786,0.019816,0.999803
0.479185,-0.127907,0.466478,-0.064138,0.068968,0.995555
-0.873505,0.016055,0.335803,-0.457979,-0.620936,-0.636156
0.570921,-0.706396,-0.013229,-0.289706,0.097238,-0.952164
-0.428163,-0.367242,0.288673,0.736820,-0.562711,0.374769
0.023191,-0.027584,0.160810,-0.845908,-0.023350,-0.532818
-0.645823,-0.041361,0.104324,0.006879,-0.418822,0.908043
0.767451,-0.339798,0.096189,0.238920,0.579690,-0.779023
-0.216001,0.576044,0.167689,0.101884,-0.372952,0.922240
0.217890,0.027865,-0.072491,-0.494727,0.335517,0.801669
0.253965,0.146410,-0.034503,0.977881,-0.202607,-0.051959
0.373533,0.140335,-0.636696,-0.520350,0.827850,-0.209525
0.869094,0.338957,-0.040729,-0.489300,0.740086,-0.461367
0.193323,-0.476620,0.243770,0.337613,-0.755416,0.561574
-0.274753,0.353918,0.539110,0.761704,0.553926,-0.336115
0.015462,-0.703246,0.102432,-0.395903,-0.379998,-0.835980
0.377255,0.283902,0.449430,0.450825,0.879867,-0.150300
0.304415,0.171264,-0.699478,0.969751,-0.238684,0.051111
-0.685564,0.104008,0.325245,0.203939,-0.166966,0.964640
-0.142301,0.599833,0.151313,-0.127641,-0.021586,-0.991586
-0.880949,0.026516,0.326413,0.447119,0.483981,0.752228
-0.792763,0.228851,0.273234,-0.133871,0.538888,0.831672
-0.524481,-0.455250,0.210823,-0.446236,-0.381856,-0.809358
-0.010823,-0.092983,0.160987,0.810948,-0.359966,-0.461289
0.277329,-0.643636,0.373879,0.434717,-0.801404,-0.410819
0.242971,0.112726,0.041294,0.938572,-0.017123,-0.344658
-0.007445,-0.293798,0.182509,0.724576,-0.107964,-0.680686
0.293592,0.016395,0.308568,-0.242546,0.370188,0.896734
0.142817,-0.470263,0.437156,-0.170204,0.669633,0.722926
0.283972,0.171490,-0.325528,0.958086,-0.271329,-0.091931
0.420545,0.426347,0.082996,0.163767,-0.044044,0.985515
-0.359103,-0.171374,0.278168,-0.810889,-0.166472,-0.561023
0.809425,0.138592,-0.942895,-0.164468,0.166271,0.972268
0.763786,-0.235709,0.365284,-0.511376,-0.515130,-0.687848
-0.374621,0.152764,0.420851,0.865797,0.476881,0.151594
-0.067972,0.347393,0.136988,0.395987,0.482536,0.781251
0.013457,-0.108223,0.416712,-0.362021,0.245022,0.899391
-0.772662,0.164066,0.314617,0.682580,0.194287,0.704512
-0.380977,0.377986,0.153400,-0.022123,-0.100250,0.994716
0.186222,0.122058,0.311380,0.913316,-0.401889,0.065874
-0.203229,-0.028202,0.188186,-0.364556,0.009521,0.931133
-0.357727,-0.112159,0.252135,-0.307265,0.936793,-0.167356
0.216457,-0.079206,-0.049660,0.747803,-0.259151,-0.611254
0.862623,0.246675,-0.054346,0.156551,-0.843461,0.513872
-0.075417,-0.019710,0.119657,0.504091,0.013556,-0.863544
0.756170,0.301507,0.139995,-0.514969,0.131296,0.847094
0.309053,0.103163,-0.478999,0.935339,-0.294672,0.195726
-0.049362,0.137469,0.172234,-0.069893,0.765146,0.640052
0.261982,-0.381751,0.240286,0.934389,-0.285279,-0.213386
0.403767,-0.452213,-0.067062,-0.111504,0.438090,0.891989
-0.270974,0.222495,0.492051,-0.722256,-0.671248,-0.166652
-0.154841,-0.069365,0.316014,0.978951,0.031581,-0.201636
-0.213652,-0.424490,0.226085,0.861847,-0.336620,0.379350
-0.275154,0.166936,0.558192,0.839054,-0.531082,0.118072
0.223672,-0.511880,0.444743,-0.322147,0.057741,0.944927
0.396380,0.373654,0.381006,0.816914,0.560881,-0.134404
-0.257344,-0.747447,0.242709,0.829370,-0.191930,-0.524698
0.778331,0.469086,-0.950924,-0.200250,-0.021611,0.979506
0.584608,0.257978,0.114599,0.361054,-0.749240,-0.555229
-0.487087,-0.543200,0.120241,0.207849,0.024065,0.977865
-0.329440,0.248646,0.281174,-0.453079,-0.048852,-0.890131
-0.064194,-0.560296,0.355045,-0.366656,0.684540,0.630054
0.086182,0.351948,0.365815,0.949321,-0.291175,-0.118350
-0.573098,0.385578,0.351172,0.926783,0.300160,-0.225780
-0.217603,-0.445915,0.243399,0.917239,-0.304581,-0.256717
-0.090993,-0.048559,0.133186,0.462884,-0.051438,-0.884925
-0.224990,-0.047714,0.431780,0.245049,0.045551,0.968440
0.134856,0.155352,0.365744,0.437782,0.693316,0.572415
-0.193094,-0.404696,0.219224,0.467502,0.478248,0.743452
-0.245262,-0.596061,0.302538,0.275318,0.301681,0.912791
-0.304817,0.065937,0.393156,-0.337534,-0.276487,0.899792
-0.265647,-0.103895,0.263914,-0.418826,-0.435999,0.796549
0.042260,0.612317,0.292086,0.052351,-0.814598,0.577659
-0.721756,0.115478,0.282518,0.400690,0.212017,0.891345
-0.079539,0.105751,0.221593,0.394532,-0.838380,-0.376117
-0.440361,0.100129,0.284959,0.742138,0.669558,-0.030378
0.205921,0.117335,0.592625,-0.871032,0.357305,-0.337099
-0.625953,0.550851,0.258767,-0.072779,-0.159415,0.984525
-0.261182,-0.772417,-0.112689,0.348753,0.447298,-0.823587
0.171449,0.450867,0.341763,0.278313,0.710781,0.646013
0.399071,-0.009194,0.355487,-0.018188,0.999058,-0.039389
0.279390,-0.445015,0.521337,-0.229624,0.438969,0.868665
-0.233981,0.597695,0.277920,-0.042842,0.411508,-0.910399
-0.203458,0.544271,0.266902,-0.195177,0.189245,-0.962337
0.391513,-0.394066,0.282412,0.304440,-0.266895,0.914376
0.737501,0.057050,0.224158,-0.086592,-0.937979,-0.335704
0.654068,-0.013244,0.244212,-0.805921,0.352656,0.475526
-0.442250,-0.470208,0.282978,0.705785,-0.234944,0.668333
0.123861,0.161201,0.398921,-0.435465,0.836757,0.331977
-0.245893,0.845862,0.176638,0.104846,-0.241236,0.964786
0.263585,0.196008,0.035335,0.889393,0.454025,0.053312
-0.034702,-0.065260,0.172977,0.855226,-0.144366,0.497742
-0.308595,0.729959,0.168874,0.036395,-0.175229,0.983855
0.696215,0.484607,0.290441,0.202224,-0.973688,0.105057
-0.045983,0.491128,-0.044513,0.624295,0.565561,-0.538884
0.824715,0.467119,0.143160,-0.392023,0.152750,0.907185
-0.791216,0.302179,0.309683,-0.478636,-0.706439,0.521394
-0.195556,-0.800926,0.247785,0.063814,0.323215,0.944171
-0.419287,-0.073752,0.358210,-0.442805,-0.641027,-0.626903
0.189027,0.109462,0.372288,0.889256,0.162740,-0.427481
0.435321,0.350486,0.175948,-0.539793,-0.699500,0.468320
-0.404513,-0.612145,0.195702,0.767055,0.085231,-0.635895
0.304472,0.176381,-0.681333,0.972857,-0.228519,0.036444
0.161084,-0.079374,0.392519,0.953463,0.212344,-0.214052
0.626696,0.108789,0.061703,0.087040,0.773214,0.628143
0.246980,0.107159,0.118207,0.739386,0.243592,-0.627671
0.198419,-0.456150,0.248811,-0.689855,0.722314,0.048606
-0.035046,-0.401209,0.213458,0.998963,0.041004,-0.019809
-0.275669,0.056659,0.189548,0.606239,0.446308,-0.658242
0.289354,0.175650,0.011106,0.959415,0.272766,-0.071560
-0.271489,0.310558,0.136599,0.856985,0.237634,0.457281
-0.360821,0.860874,0.162861,0.141912,0.434128,-0.889603
-0.051767,-0.291944,-0.018711,-0.528200,0.527650,0.665274
0.473744,-0.259495,0.228437,-0.595828,0.560473,-0.575203
