-0.759077,0.283713,0.518275,-0.377142,-0.919383,0.111796
-0.378735,0.322482,0.669417,0.477091,-0.343577,-0.808912
-0.496732,0.681287,0.484792,-0.004807,0.960046,0.279799
-0.369450,0.206983,0.592567,0.603828,0.221495,0.765723
-0.394866,-0.730005,0.598172,-0.507411,0.739074,-0.443062
-0.487449,0.460815,0.701060,0.967457,0.122787,0.221250
-0.472147,-0.456501,0.596615,0.954477,-0.296622,0.031432
-0.154772,0.188117,0.749044,-0.348861,0.553650,0.756153
-0.174222,-0.216877,0.812355,0.857180,0.414515,-0.305646
0.119036,0.435795,0.490099,-0.611695,0.386798,-0.690085
-0.230550,-0.055938,0.723955,-0.458209,0.777627,0.430512
-0.390198,0.069972,0.608124,0.926061,-0.168735,-0.337549
-0.352904,-0.182767,0.735382,0.792131,-0.483919,-0.371956
-0.754979,0.147739,0.497803,0.871317,0.099836,0.480457
0.081327,0.143712,0.711187,0.179124,-0.968313,0.174024
0.040301,0.374249,-0.972041,-0.070509,0.200131,0.977229
0.155654,-0.059331,0.452283,0.163728,-0.363832,-0.916962
0.178528,-0.356994,0.624588,0.307568,-0.431364,0.848132
-0.103527,0.263697,0.863480,-0.406927,-0.888470,-0.212208
-0.060996,-0.209859,0.658491,-0.729943,0.128257,0.671366
-0.059699,0.605649,0.391897,0.389784,-0.047483,0.919681
0.191442,0.299990,0.862682,0.440348,-0.894542,0.076736
0.139004,-0.233902,0.542118,-0.381022,-0.607574,0.696905
-0.109439,0.079635,0.925749,0.021279,-0.999650,-0.015695
0.020489,-0.250813,0.723589,-0.684391,-0.513018,-0.518093
-0.453631,0.060884,0.607731,-0.333466,0.411431,-0.848248
0.032521,0.196858,0.821955,0.560799,-0.575992,0.594759
-0.212084,0.223779,0.900308,-0.410218,0.904912,-0.113377
-0.089938,0.212332,0.669052,0.120869,0.910947,0.394418
-0.219087,0.423772,0.791978,0.846118,0.449420,0.286539
-0.364419,0.979178,0.500213,-0.572474,0.806007,-0.150420
-0.060218,0.147681,0.896828,0.808653,0.511806,-0.290061
0.376867,-0.449715,0.506238,0.016851,0.875930,0.482144
-0.100675,0.329844,0.933006,-0.514648,0.841490,-0.164415
-0.163589,-0.759053,0.343994,-0.724691,0.570596,-0.386320
-0.929512,0.495269,0.476993,-0.388285,-0.591935,-0.706291
0.560684,-0.055880,0.422225,-0.466956,-0.656862,0.592017
0.097458,-0.200771,0.614812,-0.345535,-0.738238,-0.579318
-0.010839,-0.131864,0.641905,0.510016,-0.807015,-0.297674
-0.052437,0.133415,0.880093,0.984843,0.129625,-0.115249
0.394294,0.161255,0.666033,-0.618602,0.782815,-0.067325
-0.836878,0.368266,0.524706,0.344513,0.890544,0.297056
0.245540,-0.648961,0.203954,0.452857,0.196395,-0.869684
-0.041131,0.203934,-0.887351,-0.073612,0.997116,0.018440
-0.063796,-0.650686,0.453827,0.058579,-0.961968,0.266808
0.303526,-0.291249,0.324226,-0.514059,-0.100100,0.851894
-0.647821,0.191626,0.490763,0.330501,0.585906,-0.739921
-0.738953,0.388456,0.644329,0.932859,-0.020906,0.359633
0.130032,0.479738,0.757953,-0.723758,0.687976,-0.053503
-0.377646,0.516435,0.792817,0.147608,0.895669,-0.419510
-0.273029,-0.541458,0.564174,-0.651590,0.631834,0.419780
0.222147,0.156710,0.702941,-0.546191,0.833386,0.084517
0.166028,0.142560,0.788160,-0.105705,0.935903,0.336024
-0.660218,0.851485,0.517747,0.891549,0.419413,-0.170977
0.053423,0.257083,0.864212,-0.223979,0.974200,-0.027690
0.363849,0.269391,0.351982,-0.169286,-0.512126,0.842063
-0.299170,-0.600759,0.533047,0.459969,-0.880632,0.113644
-0.603423,-0.207501,0.606973,0.327990,0.134390,0.935073
0.327956,-0.638951,0.235095,0.452483,0.699059,-0.553693
-0.170539,0.235339,0.862763,-0.740108,-0.639530,-0.207945
-0.171525,0.085387,0.908175,0.388120,-0.576106,-0.719350
0.291443,0.344741,0.503246,-0.011195,0.420625,0.907166
0.312759,-0.235569,0.520631,-0.274344,-0.856228,-0.437731
-0.451296,0.274108,0.659263,0.099173,0.115776,0.988312
-0.123392,-0.684104,0.621569,0.546623,0.832230,0.092722
-0.149326,-0.191682,0.766185,-0.548773,-0.208443,-0.809568
-0.109232,0.462369,0.853285,0.590496,-0.701479,0.399050
-0.116701,0.093037,0.872362,-0.338654,0.012996,0.940821
-0.644190,0.677778,0.492428,0.098553,-0.038401,0.994391
-0.260321,-0.398350,0.655770,0.778615,0.351489,0.519821
-0.040301,0.500274,0.787117,-0.402321,0.660424,0.634017
-0.284181,0.275775,0.697472,-0.528751,-0.742103,-0.411953
-0.053009,-0.043226,0.725282,0.650200,0.480228,0.588745
0.543257,0.360215,0.211685,-0.407801,-0.242968,0.880150
0.493984,-0.610652,0.320435,0.414479,0.798814,-0.436008
-0.094813,0.305801,-0.746580,-0.705947,0.705190,0.065921
0.032107,0.166661,0.818854,0.194988,-0.920365,0.338982
0.071370,0.380691,0.758427,0.756329,-0.566412,0.327328
0.452645,0.195191,0.661388,0.023897,0.463989,0.885518
0.415872,0.172816,0.669715,-0.631261,0.566359,0.529856
0.094554,0.460412,0.649596,-0.698477,0.590695,0.403993
-0.560944,0.837221,0.596236,0.976373,-0.079855,0.200796
-0.186255,0.293548,0.744657,-0.686850,0.512012,-0.515831
-0.117998,0.429065,0.283824,-0.494434,0.182686,-0.849800
-0.572562,0.053004,0.478604,0.757904,0.651369,-0.036068
-0.339160,0.747894,0.700599,-0.257625,-0.935317,0.242511
-0.139108,0.229933,-0.713909,0.991689,0.044634,-0.120672
-0.456171,0.793046,0.671543,0.575174,0.668521,-0.471439
0.081224,-0.588048,0.404624,-0.184351,0.695182,0.694793
-0.085061,0.727359,0.633159,0.332915,-0.371018,0.866899
-0.633298,0.319145,0.207487,0.933601,0.010495,0.358160
0.461411,-0.187195,0.066933,0.182411,0.232245,-0.955400
0.803320,-0.125247,0.066757,0.184249,0.463688,-0.866629
-0.023651,0.112997,0.742112,-0.099867,0.595206,-0.797343
-0.235011,-0.091829,0.770666,-0.465208,0.591405,0.658651
0.421888,-0.098731,0.380767,0.416717,0.844276,-0.336963
-0.265145,0.489747,0.785262,0.390558,0.645792,-0.656062
-0.403320,0.352333,0.846109,-0.725330,-0.633238,-0.270011
-0.477852,0.229703,0.592364,0.534224,0.341301,0.773382
-0.103527,0.306318,0.706651,0.944369,0.315807,-0.091838
-0.359906,0.091023,0.253603,0.875562,-0.299243,0.379268
-0.247613,0.334446,0.284094,0.605906,0.080273,0.791476
0.210893,0.347157,0.472701,-0.357046,0.323486,-0.876285
0.148029,-0.443445,0.519968,-0.180502,0.468339,0.864915
-0.751815,0.182997,0.498859,-0.695536,-0.068511,-0.715217
0.369502,-0.430042,0.594097,-0.487106,0.617781,0.617312
-0.157053,0.239194,0.906211,-0.290437,0.323791,0.900447
-0.540975,0.306031,0.581762,-0.277734,0.286143,-0.917053
-0.441391,-0.483535,0.603141,0.782888,0.254592,-0.567687
0.199327,-0.448909,0.498602,0.920038,-0.339968,-0.194812
-0.682001,-0.091427,0.644505,0.877238,-0.137600,0.459913
-0.121629,0.178108,0.674075,-0.439943,0.885194,0.151267
0.353423,0.037647,0.414386,-0.463814,-0.738299,0.489685
0.432158,0.268298,0.620675,0.841647,0.534529,-0.076870
0.158973,-0.598459,0.410161,0.406149,0.613763,0.677007
0.507366,0.162578,0.473378,0.146701,-0.109441,0.983108
-0.096577,0.251618,-0.940670,0.930020,-0.366942,0.020415
-0.610424,-0.140145,0.578689,0.473740,0.515909,0.713728
0.253267,0.421185,-0.967397,0.165851,-0.152355,-0.974311
-0.339730,0.687383,0.607257,-0.292619,0.747634,0.596169
0.122718,0.646315,0.534022,-0.423985,0.869212,0.254376
-0.157261,0.097927,0.828914,0.202014,-0.975063,-0.091886
-0.101607,-0.303615,0.730359,0.340633,0.900443,0.270501
0.243310,0.526156,0.681928,0.950783,-0.225569,-0.212439
-0.200726,-0.401571,0.562915,0.481127,-0.557430,-0.676600
-0.667893,0.415662,0.643638,-0.415191,0.778517,-0.470667
-0.397251,0.239308,0.694520,0.148950,-0.808696,-0.569056
-0.033194,-0.677260,0.152395,0.429527,0.647646,-0.629334
-0.118827,0.199794,0.631832,-0.277800,-0.184345,-0.942785
-0.400882,0.102874,0.796554,0.958269,-0.133844,0.252601
0.201193,0.149060,0.822591,0.520202,0.789815,-0.324934
-0.043309,0.731213,0.620485,0.061390,-0.597233,0.799715
-0.133040,-0.540766,0.163876,-0.214106,-0.393957,0.893844
-0.347302,-0.124904,0.719649,0.794820,0.345788,0.498690
-0.131327,0.254666,-0.646522,0.697081,0.708494,0.110064
0.092064,-0.602484,0.420777,0.271289,0.622186,0.734361
-0.694191,0.156250,0.482625,-0.077089,-0.903886,0.420771
-0.726451,0.409334,0.641323,0.902413,-0.137357,0.408392
-0.006276,-0.311667,0.489531,-0.278302,-0.847002,0.452919
-0.112189,0.196342,0.944515,0.556381,0.816077,-0.156393
-0.662863,0.188461,0.492252,0.330501,0.585906,-0.739921
0.323911,-0.229473,0.332688,-0.478746,-0.597631,0.643148
-0.565612,0.408185,0.379007,0.978997,0.133535,-0.154053
0.357054,0.440107,-0.960261,-0.164185,0.062374,0.984456
0.238692,-0.247132,0.703903,-0.401921,0.514593,0.757399
-0.779252,0.265652,0.494730,0.052766,-0.858387,0.510282
-0.499015,0.062150,0.607785,-0.457083,0.246513,-0.854580
0.262500,0.182595,0.774241,0.755087,-0.517697,-0.402284
-0.181845,0.055074,0.876302,0.915282,-0.391236,-0.095882
0.166079,0.364183,-0.962536,-0.049324,0.338263,-0.939758
-0.464263,0.009519,0.201029,-0.110771,0.281805,0.953056
-0.128215,0.442007,0.861395,0.901688,-0.075116,0.425812
0.195384,-0.173737,0.636354,0.446990,0.635206,-0.629851
0.091287,-0.606281,0.275930,0.742511,0.248827,0.621902
-0.394866,-0.326911,0.577254,-0.087628,-0.185675,0.978696
-0.603059,0.257197,0.477846,-0.230079,0.552224,0.801319
0.040923,-0.759684,0.387334,0.599268,0.299537,-0.742399
0.366494,-0.013316,0.415983,0.694300,0.629071,-0.349597
-0.212137,-0.012740,0.862329,0.559283,-0.811470,-0.169468
-0.077749,0.464898,0.834993,0.848292,-0.410404,0.334617
0.392013,0.229127,0.337115,0.170003,-0.783906,0.597151
0.268828,-0.460873,0.555374,-0.321582,-0.683017,0.655799
0.151868,0.628598,0.671652,-0.766848,0.497404,-0.405628
-0.456950,0.009347,0.639387,0.555220,0.829196,-0.064533
0.233714,0.688763,0.531937,-0.217727,-0.930162,0.295624
-0.043049,0.225734,0.052432,0.870239,0.481855,0.102470
-0.789160,0.224410,0.500200,0.406554,0.880713,-0.243018
0.024223,-0.234478,0.380117,0.155890,0.471912,0.867754
-0.366130,0.335366,0.559313,0.312700,0.889922,0.332049
-0.082521,0.132955,0.980774,-0.585957,0.770127,0.252107
-0.685270,0.170342,0.431229,0.869533,-0.210453,0.446790
0.156380,0.259612,0.843117,-0.793837,-0.215814,0.568548
-0.031846,0.043859,-0.273181,0.964030,0.258469,-0.061967
-0.077074,0.482269,0.584050,0.833282,-0.213343,0.510026
-0.585165,0.633431,0.439813,0.722163,0.276776,-0.633936
-0.343723,-0.659429,0.568087,0.854102,-0.518796,-0.036885
-0.407676,0.352333,0.665843,0.186712,0.381270,0.905413
0.218050,-0.300682,0.593609,0.849886,0.013824,0.526785
0.386722,-0.000202,0.587489,0.665751,0.723122,-0.184040
-0.260737,-0.026488,0.681942,-0.661941,0.064931,0.746738
-0.585684,0.871731,0.612998,0.803780,-0.391788,0.447705
-0.461358,-0.645050,0.644762,-0.081546,-0.809213,0.581828
-0.443412,-0.274626,0.559002,-0.747371,-0.318920,0.582860
-0.555342,-0.434413,0.552625,0.404473,0.554767,0.727073
0.073548,0.247592,0.868558,0.575957,-0.723350,0.380840
-0.342894,-0.662938,0.566774,0.896436,-0.439266,-0.058711
0.323081,-0.397486,0.550134,0.888134,-0.457341,-0.045362
0.247355,0.610940,0.621433,0.906637,-0.320936,0.273877
-0.096213,0.199332,-0.037525,0.917840,0.395032,0.038976
0.380965,-0.417906,0.585567,-0.012179,0.942676,0.333487
0.334907,-0.108452,0.356897,0.577786,0.660944,-0.478870
0.439575,-0.365735,0.334096,-0.279820,0.493793,0.823328
-0.714056,0.084755,0.636936,-0.651211,0.002948,-0.758891
-0.400155,0.133589,0.787875,-0.723566,-0.256644,-0.640770
0.158299,-0.254206,0.441397,0.098895,-0.372062,0.922925
-0.917272,0.375456,0.563890,0.846556,-0.392046,0.360059
-0.031846,0.245520,-0.216640,0.828867,-0.545172,-0.125569
-0.215353,-0.119899,0.778100,0.413920,0.679653,-0.605592
0.363071,-0.256737,0.507498,-0.316610,-0.926994,-0.201095
0.187604,0.171378,0.495813,-0.377204,0.772276,0.511181
-0.055134,-0.255357,0.758115,0.749262,0.319941,0.579865
-0.715093,0.002731,0.645980,0.868142,0.193396,0.457086
0.112655,-0.558253,0.468192,0.222360,0.924281,0.310258
0.048444,0.447355,0.685949,0.238262,0.630404,0.738798
0.030084,-0.678756,0.486322,-0.804149,0.395701,-0.443582
0.021835,-0.266284,0.519575,0.909449,0.251742,-0.330952
-0.304305,0.718558,0.679667,-0.797635,-0.551081,0.245129
-0.338278,-0.125421,0.736655,-0.744064,0.446218,0.497250
-0.733194,-0.101205,0.664963,0.871082,-0.107739,0.479175
-0.424429,-0.569296,0.677108,0.182339,-0.676711,0.713313
0.072873,-0.412326,0.268578,-0.444278,-0.285556,-0.849162
-0.119968,0.195479,0.954304,-0.741584,-0.668192,-0.059772
0.281950,-0.444076,0.676756,0.017167,0.897915,0.439834
0.003060,0.280320,0.705880,-0.590971,0.766871,0.250323
0.595332,-0.085789,0.092320,-0.369812,-0.036576,0.928386
0.649326,0.259842,0.181221,-0.265223,-0.655696,0.706908
-0.674533,0.372581,0.619267,0.651937,0.077634,0.754289
-0.817945,0.322252,0.522689,0.869975,0.421585,0.255754
0.166286,0.531621,0.518465,0.131481,-0.602365,0.787318
-0.747302,0.427683,0.476844,0.390507,0.773775,0.498775
-0.173236,0.265134,0.720719,-0.458298,0.555728,-0.693634
-0.676037,0.535820,0.649771,0.043091,-0.978088,0.203682
-0.591183,0.849932,0.621217,0.803780,-0.391788,0.447705
0.170539,-0.513330,0.522161,-0.359997,0.720516,-0.592671
0.033351,-0.051393,0.345618,-0.440071,-0.316251,-0.840430
0.002385,0.650974,0.059351,0.863780,-0.180233,0.470531
0.186877,-0.296484,0.303713,-0.609945,0.026857,0.791989
-0.437293,0.236547,0.590861,0.282156,0.284238,0.916295
-0.658765,0.037187,0.633524,0.221497,0.618952,0.753550
-0.388330,0.862990,0.518329,-0.649383,0.740493,0.173124
-0.032157,0.046332,0.825664,0.556348,0.103568,0.824470
-0.345229,-0.668919,0.581167,-0.680011,0.629616,-0.375725
0.145229,-0.446896,0.191281,0.731167,0.247506,-0.635717
0.216130,0.159415,0.715574,0.545106,-0.834683,-0.078508
0.372770,-0.367231,0.031825,0.480459,0.037984,-0.876194
-0.010529,-0.687268,0.112561,-0.731003,0.333106,0.595545
-0.657624,-0.072101,-0.137880,0.889751,0.126499,-0.438568
-0.656742,0.408071,0.499631,0.995089,0.027583,0.095059
-0.018049,0.509879,0.828711,-0.594732,0.587202,-0.549079
-0.124274,0.176728,0.503056,0.979229,0.198920,0.039252
0.089212,0.028040,0.787117,0.867461,0.140998,-0.477107
0.184959,-0.647119,0.269255,-0.509505,-0.535376,-0.673629
0.585944,-0.046907,0.434289,0.446154,0.719372,-0.532400
0.207936,-0.320239,0.541292,0.678973,0.726607,-0.105060
-0.616026,0.722009,0.506184,0.865152,0.432296,-0.254230
0.376452,-0.341636,0.479809,0.497141,0.644073,-0.581396
0.692739,0.237986,0.461531,-0.591476,0.605274,-0.532728
0.199274,0.358775,0.462465,-0.357046,0.323486,-0.876285
0.393154,-0.349688,0.325228,-0.475214,0.217153,0.852652
-0.060996,0.183400,0.243516,0.949657,-0.302177,0.082706
-0.293931,-0.545541,0.524612,0.084755,0.927232,0.364770
0.085580,0.182710,0.860651,-0.803733,0.337074,-0.490301
-0.283559,0.628023,0.471036,-0.751929,0.308381,-0.582669
0.463381,-0.172586,0.348665,0.190413,0.455901,-0.869424
-0.270850,-0.060482,0.865972,0.362353,-0.897401,-0.251739
-0.285373,0.039257,0.190116,-0.067671,-0.831806,-0.550926
0.304824,0.624170,0.148604,0.908282,0.115289,-0.402159
0.423289,0.000720,0.589683,-0.495463,-0.523819,0.692914
-0.840612,0.408185,0.518681,0.109551,0.978583,0.174283
0.312604,0.077219,0.168791,-0.177472,-0.698381,0.693374
-0.086722,0.248799,0.814264,-0.044127,-0.475668,0.878517
-0.226297,-0.868051,0.384355,-0.318289,0.447231,0.835869
-0.716598,-0.126801,0.668849,0.779872,-0.254443,0.571890
-0.319605,0.293952,0.723630,0.799618,0.597622,0.058815
0.431898,-0.033562,0.589047,0.366998,0.791029,-0.489474
-0.283195,0.844238,0.534035,-0.798844,0.103025,-0.592650
0.332157,0.146587,0.283120,0.104254,0.147373,0.983571
-0.596888,0.051797,0.629178,0.340348,0.569796,0.747995
-0.062137,0.539501,0.828724,-0.622865,0.537078,-0.568846
-0.848340,0.382762,0.532140,-0.233425,-0.853481,-0.465922
-0.090508,0.197664,-0.052215,-0.023981,0.963573,0.266370
-0.070953,0.506370,0.827763,-0.668023,0.530397,-0.521943
-0.013744,-0.715223,0.501039,-0.836707,0.538348,0.100507
-0.716494,0.313278,0.634201,0.614144,-0.006045,0.789171
-0.232157,0.055074,0.836428,0.727029,0.431063,0.534428
0.109129,0.197550,0.738970,-0.440098,-0.693378,0.570561
0.022614,-0.003423,0.920320,0.835526,0.075425,-0.544250
-0.000882,-0.212734,0.707599,0.879115,0.049795,0.474001
-0.219139,-0.212734,0.436523,0.981544,-0.141973,0.128120
0.654304,-0.066233,0.429916,-0.424989,0.051019,-0.903760
-0.183921,-0.707860,0.342829,0.834860,-0.181082,0.519825
-0.223548,0.506888,0.657516,0.667736,0.228305,0.708524
-0.188589,0.108338,0.650272,-0.488961,0.845178,0.215850
-0.380186,-0.499296,0.531138,0.554919,0.627058,0.546684
-0.273340,0.068246,0.731551,0.715404,-0.358623,0.599656
-0.585529,0.487791,0.604103,0.956524,0.027602,0.290346
-0.102853,0.431940,0.839393,0.907908,-0.069860,0.413306
-0.349896,0.188921,0.705812,0.175478,-0.164224,0.970689
0.040456,0.476805,0.657259,0.900086,-0.404564,0.161783
-0.059387,0.396048,0.572623,0.038445,0.233864,-0.971509
0.340613,-0.413247,0.587814,-0.292339,0.703994,0.647248
0.238537,-0.435967,0.532613,0.468250,-0.149148,-0.870917
0.091597,-0.411062,0.017608,-0.198168,0.143982,0.969535
-0.570592,-0.139571,0.496707,0.979610,0.030607,-0.198564
0.266753,-0.157804,0.700193,0.568811,0.505258,-0.648975
-0.238693,-0.075666,0.751698,-0.408500,0.912757,0.001539
0.086307,0.417676,0.757452,0.807951,-0.543907,0.226674
-0.387034,0.637400,0.555170,-0.520613,-0.845289,0.120202
0.124326,-0.846769,0.312568,0.394091,0.187548,0.899732
-0.107106,-0.207156,0.645723,-0.568754,0.717477,-0.402177
-0.301918,0.745534,0.681373,-0.424897,-0.503322,0.752416
0.228942,-0.218142,0.693396,-0.331563,0.479550,0.812464
-0.232209,0.212274,0.942376,0.085042,-0.956982,0.277405
-0.598911,0.496247,0.619998,0.976174,0.067310,0.206287
0.151868,-0.415317,0.636625,0.433043,0.739893,0.514812
0.238278,-0.336114,0.604238,0.967728,0.020059,0.251196
-0.007417,-0.193754,0.279938,0.146878,0.423601,-0.893862
-0.015197,-0.019412,-0.048492,0.722716,0.610000,-0.324933
-0.090146,0.317879,-0.977497,-0.409707,0.114866,0.904956
-0.573289,0.010325,0.344346,0.802144,-0.226323,-0.552578
0.296473,-0.710679,0.204631,-0.642309,-0.139095,0.753718
-0.498029,-0.158322,0.706462,-0.525947,0.261822,0.809215
-0.349325,0.664318,0.433761,0.443889,0.732243,0.516510
0.198963,-0.345489,0.248661,-0.046415,-0.739045,0.672055
-0.037033,-0.545081,0.587733,0.862538,-0.408853,-0.298107
-0.531949,0.325357,0.717483,0.598415,0.608388,-0.521310
-0.599013,0.439360,0.284446,-0.091692,0.427302,0.899447
-0.636462,0.242933,0.629367,0.384835,0.160205,0.908975
-0.422355,0.242759,0.721206,-0.619705,-0.724142,0.302627
-0.675363,0.403526,0.633335,-0.531250,0.552031,-0.642678
0.034025,-0.616864,0.495989,0.832475,-0.466822,-0.298434
-0.088173,-0.327141,0.733663,0.884311,-0.458029,-0.090575
-0.708247,-0.333181,0.551298,0.793466,0.246573,0.556429
0.568828,-0.560668,0.201801,-0.312394,0.882171,0.352398
-0.213900,-0.008024,0.849602,-0.146798,0.955964,0.254132
0.356951,-0.236777,0.729655,-0.745191,0.520240,0.417183
-0.280135,-0.102988,0.672477,0.327363,0.577410,-0.747951
-0.188693,0.143596,0.586298,-0.007518,-0.858643,0.512520
-0.312604,0.133589,0.775879,-0.250226,0.968105,0.012621
-0.287448,0.346697,0.803798,-0.255575,-0.474018,0.842608
-0.203268,-0.234822,0.807454,0.974986,-0.023877,0.220980
-0.405186,0.635213,0.553288,-0.368762,-0.921367,0.122870
-0.470539,0.719134,0.625482,0.156898,-0.584307,0.796221
0.175881,-0.582872,0.465376,-0.425202,0.798007,0.427069
-0.292894,0.450404,0.527198,0.261190,0.951470,-0.162739
-0.247199,0.250123,0.784206,-0.570017,0.729272,0.378474
-0.828734,0.023841,0.287290,-0.200994,-0.355827,0.912682
0.295332,-0.182997,0.710172,-0.306277,0.465823,0.830183
-0.516649,-0.204796,0.703537,0.848789,0.106638,0.517866
-0.058921,0.206236,-0.627215,0.657129,0.749543,0.079790
0.208298,-0.587071,0.487391,-0.631140,-0.775527,0.014804
0.468206,-0.311323,0.518668,0.366453,0.902711,0.225444
0.037449,0.244830,0.920523,0.415904,-0.905453,-0.084725
0.000312,-0.079981,0.655567,-0.059102,-0.578910,-0.813247
-0.495176,-0.267436,0.524720,0.905694,-0.375901,-0.196002
0.047459,-0.429295,0.280127,0.435349,0.471322,0.767025
0.285737,-0.541630,-0.086105,0.190343,0.857653,-0.477704
-0.162240,0.055074,-0.186826,0.933228,-0.335423,-0.128751
0.001349,-0.620085,0.618928,0.465448,0.809232,0.358472
-0.699843,-0.016365,0.642568,0.942654,0.089121,0.321654
-0.054150,0.252136,0.591714,0.871896,-0.287526,0.396391
-0.430757,-0.106037,0.257895,0.494585,0.675880,-0.546417
-0.049533,0.115066,0.638615,0.679486,0.527544,-0.509899
-0.103163,0.176728,-0.702332,0.745938,0.642557,-0.175208
-0.152593,0.292916,0.816444,-0.532556,0.114306,-0.838641
-0.396836,-0.100515,0.720096,-0.506522,0.021175,0.861967
-0.414885,0.080152,0.790421,-0.284018,0.568930,-0.771785
-0.381379,0.083777,0.789080,0.817537,-0.176286,0.548230
0.696836,0.073136,0.466825,0.082168,-0.713315,0.696010
0.116546,0.594662,0.511966,-0.675101,-0.351036,-0.648855
0.437240,0.180351,0.457117,-0.124437,0.124912,0.984333
-0.158454,0.591555,0.432082,0.075391,0.090829,0.993009
0.122563,0.511375,0.788146,0.940630,-0.268166,0.208094
-0.772354,0.451900,0.676756,-0.075954,-0.966867,0.243720
-0.526867,0.701821,0.473581,0.328512,0.628574,0.704964
0.019502,-0.406459,0.169658,0.254025,-0.172549,-0.951682
-0.028267,-0.421875,0.782053,0.880061,0.407665,0.243521
-0.595435,-0.580915,0.610575,-0.502648,0.815691,-0.286343
-0.673652,0.813696,0.555022,0.107854,-0.676132,0.728844
0.119970,-0.348998,0.427465,0.892853,-0.431580,-0.128658
-0.122199,-0.532255,0.618969,-0.219819,0.328343,0.918624
-0.331328,0.446493,0.769367,-0.078383,-0.893961,0.441238
0.590923,-0.519600,0.353580,0.391889,0.690877,0.607546
-0.738174,0.145725,0.306408,-0.089504,-0.262954,0.960648
0.336567,-0.087976,0.670717,0.622921,-0.396812,-0.674174
-0.098755,0.086711,0.940006,0.951228,-0.066142,-0.301315
-0.184802,-0.059965,0.749450,0.849291,-0.526055,-0.044399
0.006743,-0.480890,0.486349,-0.628994,0.265489,0.730672
-0.614055,0.477840,0.758088,0.911874,0.409853,0.022496
0.583403,0.203015,0.159476,-0.167201,-0.537298,0.826653
0.467117,-0.571021,0.276864,0.352682,0.221310,-0.909196
0.237034,-0.183227,0.315208,-0.761035,-0.297672,0.576383
-0.021161,-0.207040,-0.269580,0.949075,0.125378,0.289028
0.374586,-0.342614,0.473202,0.341324,0.311194,-0.886937
-0.565612,-0.459148,0.565623,0.561166,0.767776,0.309212
-0.507002,-0.186679,-0.063778,0.200063,-0.085593,-0.976037
0.166390,-0.152226,0.323264,-0.110191,-0.384641,0.916466
-0.039420,0.284633,-0.907470,-0.254106,0.966290,0.041396
-0.049066,0.216991,-0.687560,0.600360,0.798960,-0.035073
-0.237084,0.432631,0.456508,0.849491,0.310145,0.426820
0.072356,-0.182711,0.543093,0.591019,-0.121561,-0.797445
0.004565,0.685256,0.411989,0.769431,0.314639,-0.555858
0.190716,0.424118,0.716982,0.639603,-0.594355,0.487493
0.204461,-0.209975,0.689239,-0.421257,0.549140,0.721795
-0.132625,-0.099825,-0.000440,-0.823019,0.143970,-0.549466
-0.546110,-0.264733,0.251505,0.225317,-0.492738,0.840501
0.766338,0.504702,0.183495,0.901603,0.000332,-0.432565
-0.389574,-0.349170,0.738009,0.941611,-0.021355,0.336026
-0.402023,0.063645,0.525654,-0.058926,0.730790,0.680054
-0.476141,0.207557,0.695373,0.651497,-0.749659,-0.116458
0.487449,0.017399,0.424906,-0.024336,-0.702871,0.710901
-0.273340,-0.559806,0.543256,0.764897,-0.602510,0.227847
-0.373859,-0.676341,0.031865,-0.366131,0.396618,-0.841809
-0.584855,0.262029,0.592878,-0.002949,-0.410750,0.911743
-0.051088,0.336114,0.911031,-0.545325,0.666138,-0.508804
-0.209595,-0.531679,0.487960,0.084018,-0.911297,0.403088
-0.401556,-0.599839,0.613553,-0.247477,0.844637,-0.474703
-0.147562,0.107417,0.878834,-0.700714,0.713264,0.015975
-0.247978,0.647581,0.615787,0.331870,0.808889,0.485346
0.069192,0.510685,0.470061,0.953290,-0.231616,-0.193886
-0.189627,0.811395,0.529513,0.848248,0.428393,0.311376
0.320436,0.341922,0.629963,-0.705471,-0.435242,-0.559352
0.435010,-0.420437,0.334448,-0.348016,0.109667,0.931052
-0.235321,0.600069,0.640524,0.409813,0.158467,-0.898299
0.285270,0.165340,0.652507,-0.228425,0.473145,0.850856
-0.556172,0.812545,0.531260,0.924268,0.324592,-0.200920
0.197096,-0.140549,0.675483,-0.495776,0.344347,0.797265
-0.567480,0.698254,0.498345,-0.594592,-0.575331,0.561654
0.125934,0.473296,0.616302,-0.072578,0.943126,-0.324417
-0.272043,0.008140,0.702860,-0.439994,0.198606,0.875763
-0.439678,0.447011,0.447125,0.051865,0.669556,0.740949
0.163226,0.146185,-0.963457,0.444940,-0.263113,-0.856038
-0.099429,0.185414,-0.046759,-0.023981,0.963573,0.266370
-0.302542,0.057605,0.242054,0.385904,-0.912194,0.137772
0.174792,-0.352679,0.220743,-0.215782,-0.777258,0.591023
-0.125570,-0.075552,0.738903,-0.619255,0.103131,-0.778388
-0.892999,0.286992,0.541793,-0.694921,0.400565,-0.597187
-0.404978,-0.092749,0.713597,0.316670,0.947607,0.041956
-0.000674,-0.548130,0.487919,0.635558,-0.071446,-0.768740
-0.069242,-0.270771,0.742775,0.990879,0.014021,0.134027
-0.643205,0.388456,0.296795,-0.315687,0.531404,0.786099
-0.031328,0.181847,0.979271,-0.578936,-0.679157,-0.451198
0.216702,-0.101838,0.695942,0.426475,0.806968,0.408559
-0.495850,0.495729,0.555360,0.981934,-0.017648,-0.188396
-0.119865,0.039257,0.780009,0.769234,0.493495,-0.405884
-0.489315,0.577061,0.535227,0.415872,0.817772,0.397869
0.018983,-0.385983,0.552395,0.904259,0.014798,0.426729
0.182677,0.035805,-0.964377,0.129534,0.387464,-0.912739
0.031535,-0.307008,0.503368,0.795629,0.516428,-0.316664
-0.764420,0.530241,0.648729,0.420874,0.764590,0.488126
0.009595,0.187657,0.789040,0.223695,-0.544097,0.808652
-0.008402,-0.581260,0.614433,0.471995,0.785176,0.400898
-0.396836,0.477956,0.773063,-0.059830,0.902327,-0.426880
-0.440767,-0.617152,0.644139,0.189111,0.599074,0.778041
-0.420540,0.213597,0.592675,0.314838,0.488460,0.813809
0.135322,-0.003825,-0.975886,-0.358404,-0.360149,0.861301
-0.393777,-0.454775,0.522811,0.550570,0.797055,0.248146
-0.167997,-0.013200,0.904722,-0.698633,0.710124,-0.087384
-0.239938,0.212734,0.738659,0.786464,-0.591772,-0.176859
0.107261,-0.794138,0.156633,0.822136,0.121703,-0.556130
-0.109439,0.140721,0.568588,-0.334727,0.923750,-0.186126
0.641857,0.102412,0.453150,-0.607328,-0.161921,-0.777775
-0.704461,-0.131000,0.655607,0.837150,-0.312811,0.448697
-0.310010,-0.432344,0.572176,-0.656538,0.420309,0.626337
0.925259,0.014696,0.111641,0.044757,-0.185306,0.981661
0.329772,-0.439648,0.459053,0.463364,0.415314,-0.782820
-0.233505,0.009289,0.842399,0.411012,0.741206,0.530738
-0.307935,0.953525,0.529702,-0.271671,0.894158,0.355917
-0.517376,-0.158206,0.698663,0.408551,0.612027,0.677133
0.004565,-0.762849,0.130962,0.692399,-0.195493,-0.694526
-0.470072,0.047194,0.810771,0.806345,-0.499404,0.316865
0.663485,0.466338,0.178540,0.836866,-0.208427,0.506175
-0.310322,-0.351701,0.622205,-0.279605,0.640705,-0.715065
-0.317427,0.465128,0.752618,-0.671855,0.472372,-0.570504
0.220280,0.511604,0.503002,0.409391,-0.453010,0.791948
0.528632,0.109200,0.463386,-0.195195,0.651177,-0.733395
0.277750,-0.096028,0.676878,0.050956,0.416885,0.907530
0.001971,-0.154411,0.611536,0.583221,0.160353,0.796329
0.355394,0.566305,-0.959611,0.194722,0.050608,-0.979552
0.261307,-0.435105,-0.068910,-0.312149,-0.741800,0.593545
-0.708142,-0.058929,0.646102,0.858389,0.015470,0.512766
-0.142116,0.242817,-0.559395,-0.625864,-0.779846,0.011639
-0.035944,-0.203819,0.716305,-0.590868,0.336854,-0.733079
0.129461,-0.100169,0.535728,-0.355126,0.555445,0.751909
-0.129513,-0.242759,0.770193,0.906562,0.202752,0.370185
-0.505341,0.210261,0.682551,-0.638482,-0.721443,-0.268067
0.132677,-0.443043,0.030999,-0.234493,0.276002,0.932114
-0.040094,0.185528,0.232197,0.980685,0.159301,-0.113487
0.356484,-0.153029,0.689402,0.085510,0.735678,0.671912
-0.183091,-0.100343,0.780415,0.236818,0.155715,-0.958994
-0.443205,0.586035,0.521064,0.703643,0.703603,0.099140
0.321213,-0.581836,0.209654,-0.554185,0.521020,0.649167
-0.059959,-0.637112,0.293626,0.639677,0.025497,-0.768221
0.077853,-0.407495,0.392235,0.001758,0.223991,0.974590
-0.085788,0.091197,0.712176,0.958833,-0.015066,-0.283572
-0.170954,0.020850,0.691853,0.351597,0.684985,-0.638103
-0.647199,-0.065083,0.607650,0.410314,-0.816522,0.406121
-0.389834,-0.074630,0.217778,0.574433,-0.714821,-0.398821
-0.008092,0.367519,0.916677,0.369412,-0.929016,0.021558
0.693569,0.460643,0.182561,0.836866,-0.208427,0.506175
-0.505083,-0.224698,0.702698,0.923585,-0.320175,0.210900
-0.646213,0.000086,0.272775,-0.047109,-0.207302,0.977142
-0.558662,-0.185988,0.709427,0.847158,0.378945,0.372458
-0.357521,0.507981,0.154290,-0.687924,0.580295,0.435911
0.407210,0.350494,0.500917,0.868138,0.253395,0.426763
-0.580238,-0.284231,0.371357,-0.632575,0.346768,0.692532
-0.087915,-0.342958,0.587151,0.875621,0.482576,0.020215
-0.589575,0.396968,0.768798,0.832712,0.553611,-0.010240
0.282729,0.252308,0.633660,-0.676962,-0.042499,-0.734790
-0.594813,0.195825,0.582642,-0.737479,0.122833,-0.664106
-0.443412,-0.152686,0.579907,0.967986,-0.193189,0.160250
0.007105,0.240862,0.901418,0.566228,0.797191,-0.209458
-0.243879,0.842570,0.506482,0.845651,0.512572,0.148809
-0.278007,-0.407035,0.699272,0.159243,0.643668,0.748554
-0.353216,-0.428835,0.688481,-0.256286,0.960463,0.108761
-0.248962,0.371660,0.533981,-0.507452,-0.430927,-0.746186
-0.107573,-0.019355,0.937095,0.846023,-0.227567,-0.482138
-0.632831,-0.079291,0.589994,-0.727082,0.397263,-0.559941
0.195332,0.477610,-0.965961,0.059185,-0.002880,0.998243
-0.263382,0.248857,0.750100,0.851674,0.091196,0.516076
-0.315612,0.491588,0.764465,0.631458,-0.773985,-0.046984
0.584595,0.139685,0.160275,-0.143837,-0.359408,0.922029
-0.065144,0.064105,0.827072,-0.126500,0.186038,0.974365
0.028838,-0.037589,0.596575,-0.056701,0.453160,0.889624
0.165716,-0.740302,0.290187,-0.533169,-0.588438,-0.607842
-0.400260,0.317535,0.829902,0.834676,0.427663,0.347016
0.023859,-0.307928,0.379142,0.008588,0.249888,0.968237
-0.183868,-0.087517,0.784545,-0.503008,0.776640,-0.379227
0.122510,-0.456731,0.657855,-0.401034,-0.709791,-0.579111
-0.001451,-0.188691,0.714152,0.833835,0.291724,0.468632
-0.373807,0.801386,0.651112,-0.684749,0.689208,0.236878
-0.777594,0.426533,0.475246,0.344898,0.922786,-0.171787
0.090301,-0.686348,0.306069,0.532919,0.145728,0.833523
0.038226,0.497455,0.805707,-0.597779,0.713934,-0.364635
0.015976,-0.123926,0.487784,0.355795,0.470725,0.807358
-0.079669,0.129792,-0.005978,0.714778,0.697852,-0.045777
0.289575,0.584653,-0.961602,0.167519,0.140451,-0.975813
-0.403060,0.777229,0.437363,0.078470,0.910318,0.406403
-0.105083,0.180409,-0.645060,0.697081,0.708494,0.110064
0.786774,0.107647,0.447341,-0.640243,0.595631,-0.485091
0.408195,0.156596,0.317429,0.956808,0.240433,-0.163436
-0.568309,-0.074976,0.617696,0.474731,-0.521004,0.709355
-0.678475,0.452474,0.643882,-0.592920,0.335156,-0.732200
0.297615,-0.182077,0.345672,0.580241,0.381237,-0.719707
-0.430497,-0.419114,0.723684,-0.339750,-0.671874,0.658146
0.101142,-0.661615,0.480134,0.240486,-0.956964,-0.162441
0.506691,0.050587,0.445906,0.198921,-0.895155,0.398910
-0.065249,0.252652,0.286085,0.736088,0.659160,0.153893
-0.335426,0.685772,0.627675,0.164405,0.854231,-0.493215
-0.752645,0.169250,0.497749,0.982202,-0.160615,-0.097379
-0.151141,-0.220558,0.745605,0.560750,0.827530,0.027455
0.135944,0.307756,0.899035,0.460113,0.802894,-0.379021
0.033973,-0.669898,0.311119,0.195048,-0.179243,0.964276
0.291494,-0.606569,0.079132,0.757391,0.571211,-0.316350
-0.093672,-0.451496,0.034032,0.171612,-0.015194,0.985047
0.171058,0.248799,0.330860,0.217473,-0.976004,-0.011071
0.307105,0.122948,0.694953,0.012229,-0.838103,0.545375
0.331587,0.063357,0.444525,0.290021,0.692635,-0.660413
-0.247458,0.335768,0.817933,0.652325,0.082101,-0.753480
0.144243,0.019124,0.609938,0.864725,-0.501254,-0.031556
-0.255810,0.427799,0.639305,-0.690949,0.498759,0.523288
0.015301,0.394725,0.617818,0.855041,-0.352118,0.380682
-0.452542,0.265192,0.688102,0.899803,-0.419890,-0.118517
-0.041805,0.654137,0.618062,-0.429116,0.429786,-0.794446
-0.080341,0.439705,0.797678,0.885423,0.221005,-0.408880
-0.276296,-0.165396,0.706205,-0.450545,0.077187,-0.889411
0.423082,0.125247,0.575507,-0.661416,-0.424917,-0.618041
0.103215,0.559460,0.585946,0.924977,0.350144,-0.147707
-0.633506,-0.837566,0.625793,0.121927,-0.003860,0.992532
-0.576816,0.241379,0.577050,0.451564,-0.452215,0.769150
0.242790,0.256277,0.181221,-0.027839,-0.876238,0.481075
-0.291389,0.194443,0.472173,-0.153296,-0.182408,0.971199
-0.147198,0.584883,0.430254,0.075391,0.090829,0.993009
-0.378320,0.329212,0.834018,-0.889486,-0.242574,-0.387262
-0.137760,0.358545,0.885266,-0.015980,-0.946296,0.322907
0.270332,-0.167985,0.567762,0.505639,0.449226,-0.736563
0.192687,0.521498,0.671124,0.693338,0.476816,-0.540305
0.365456,0.410888,-0.959314,-0.212976,0.021927,0.976811
0.257418,-0.475253,0.651694,0.863447,-0.357320,-0.356065
0.371058,0.473470,0.231290,0.027095,-0.442605,0.896307
0.437657,0.202899,0.469086,-0.409984,0.907226,-0.094096
-0.343465,0.310115,0.809430,0.993915,-0.035058,0.104419
-0.226400,0.120417,0.767241,-0.291694,0.789991,-0.539285
-0.211462,0.667999,0.423836,-0.122936,0.423517,0.897508
-0.722615,0.283885,0.524720,-0.205706,0.291810,-0.934094
0.424015,-0.419746,0.596913,-0.677366,0.681603,0.276753
-0.574066,-0.093959,0.696998,-0.635227,-0.752018,-0.175941
0.296214,-0.240746,0.706584,0.543000,-0.538872,-0.644024
-0.258247,0.246844,-0.010026,-0.306466,-0.951813,0.011442
-0.651867,-0.243967,0.621162,0.937773,0.328810,0.111647
-0.023132,-0.779299,0.312690,0.724104,-0.278478,-0.630970
-0.104149,-0.425038,0.693667,-0.188777,0.587323,0.787029
-0.850207,0.168445,0.301154,-0.029691,-0.260896,0.964910
-0.375363,-0.164592,0.706340,-0.479717,-0.158265,0.863032
-0.908454,0.249201,0.298284,-0.123955,-0.066092,0.990084
0.158870,0.102412,-0.027749,-0.013583,0.847774,0.530184
-0.331276,0.236317,0.760580,0.780346,0.298269,-0.549632
-0.064419,-0.015617,-0.324713,0.912801,0.402642,-0.068360
-0.633298,0.084351,0.609979,0.464988,0.865230,0.187518
-0.503475,-0.285957,0.249704,-0.196218,-0.637238,0.745269
0.116909,0.563947,0.747338,-0.705764,0.702112,-0.094534
0.473341,-0.571539,-0.106089,-0.057118,0.927085,-0.370474
-0.114833,0.430790,0.861923,0.901688,-0.075116,0.425812
0.274638,0.371143,0.664259,0.850541,-0.238857,0.468538
0.130914,-0.728625,0.516041,-0.279287,0.670297,0.687532
-0.057936,0.245924,0.899306,-0.672449,0.097873,-0.733643
-0.275882,0.284865,0.847382,0.852138,0.511803,0.109172
0.003579,0.407725,0.051119,0.880122,-0.163797,0.445595
-0.557987,-0.572977,0.657110,0.600694,0.429713,-0.674176
-0.541649,0.790285,0.463562,-0.401415,-0.341465,-0.849863
-0.097613,-0.532255,0.324307,0.804531,-0.142784,0.576491
-0.746785,-0.149291,0.647348,0.836890,-0.243312,0.490321
0.303061,-0.482557,0.522283,-0.418447,-0.773516,-0.475999
-0.300415,0.961231,0.535498,0.206349,0.737079,0.643533
0.740249,0.011705,0.437187,-0.648202,0.569561,-0.505405
-0.361567,0.547496,0.548604,0.451443,0.670754,0.588462
-0.286721,0.457652,0.574667,0.492169,0.616505,-0.614566
0.036618,0.360041,0.388403,0.189868,-0.545810,0.816113
0.179979,0.573438,0.747649,-0.535558,-0.667692,0.517073
-0.397406,0.304017,0.341069,-0.048656,-0.141820,0.988696
-0.016338,-0.197377,0.350168,0.083489,0.577851,0.811861
0.210738,-0.319145,0.538842,0.767272,0.639330,-0.050496
-0.212914,0.317937,0.664624,0.969013,0.240805,-0.055016
-0.325104,0.103966,0.760444,0.894047,-0.142383,0.424744
0.325933,0.209111,0.606878,0.511140,-0.859218,-0.021926
-0.576711,0.295620,0.450821,0.600406,-0.683187,-0.415655
0.382261,0.479624,0.217520,0.043756,-0.447892,0.893017
-0.295487,0.693767,0.638479,0.302398,0.879492,-0.367492
-0.017168,0.348134,0.907159,-0.563798,0.752562,-0.340269
0.408869,0.071985,0.059121,0.398842,-0.109349,-0.910477
0.549585,0.392999,0.217791,-0.333812,-0.250236,0.908819
0.203528,-0.046389,0.318932,-0.404504,-0.392999,0.825790
0.059284,-0.486584,0.523474,-0.662911,-0.242201,0.708440
-0.786048,0.371833,0.511735,0.647369,0.612825,0.453166
-0.412863,-0.383740,0.721680,-0.115064,-0.800379,0.588348
0.421993,-0.313221,0.486647,-0.714475,-0.071602,0.695987
0.071889,0.115124,0.051322,0.692399,0.720972,0.027991
-0.215716,-0.182941,0.744075,0.309151,0.925134,-0.220346
0.046525,-0.699808,0.393711,0.567918,0.444536,-0.692717
-0.210788,-0.390412,0.694425,-0.563295,0.113676,-0.818399
0.254721,0.403008,0.674332,0.725895,-0.481445,0.491210
-0.365456,0.754164,0.685205,0.330368,0.927788,-0.173395
0.261047,0.634753,0.650543,-0.737779,0.635862,0.226631
0.612085,0.021254,0.430877,-0.069522,0.220962,0.972801
-0.541701,-0.324495,0.549037,0.871366,-0.221814,-0.437629
-0.163329,0.320986,-0.992634,0.417389,-0.126118,-0.899934
-0.649534,0.332489,0.622083,-0.233476,-0.209230,-0.949585
-0.585010,0.507866,0.591917,0.929119,0.019601,0.369262
-0.495539,-0.018839,0.667265,-0.496367,0.826031,-0.267006
0.033921,-0.572115,0.312148,0.211391,0.476329,0.853478
0.193673,0.734721,0.531233,-0.160110,0.935011,0.316415
-0.037447,0.541170,0.597048,0.822122,0.044290,0.567586
-0.500363,0.364873,0.738794,0.335814,-0.168123,0.926803
-0.469762,0.649132,0.554250,-0.246672,-0.954132,0.169663
-0.553734,-0.714072,0.653996,0.198370,0.891219,0.407895
0.147095,-0.566593,0.505521,-0.397118,0.023983,0.917454
0.374119,-0.310977,0.315344,-0.209793,-0.007055,0.977720
-0.715560,0.349804,0.639468,0.621334,-0.100443,0.777081
-0.598289,-0.240286,0.532613,0.974742,-0.192389,0.113420
0.542273,-0.014294,0.426572,0.478608,0.605764,-0.635598
-0.182936,0.474101,0.516691,-0.455113,-0.864306,0.214119
-0.058195,0.183918,-0.318255,0.950634,0.310279,-0.004642
-0.095488,-0.577981,0.320489,0.634331,0.159051,0.756523
0.128009,0.182365,0.767051,-0.155040,0.960233,0.232195
-0.438951,-0.687154,0.639062,-0.111950,0.818138,-0.564018
-0.204772,-0.427741,-0.194354,0.879365,0.291370,0.376590
0.009492,-0.019700,0.607393,0.827750,0.560470,-0.026515
-0.191338,-0.024245,0.901256,0.932252,0.283327,0.225017
-0.348496,-0.528630,0.553424,-0.060385,-0.490397,0.869405
-0.185684,0.034540,0.883749,0.907291,-0.349593,-0.233681
0.140509,0.412269,0.667035,-0.339986,0.663819,0.666149
-0.271732,-0.432746,0.708127,0.362551,0.653502,0.664448
0.377748,0.126225,0.658329,-0.714438,0.664575,0.218901
0.549533,-0.591729,0.367227,-0.128807,-0.103126,0.986293
0.449170,0.488079,0.327259,0.436513,0.882101,-0.177070
-0.367272,0.826581,0.549741,-0.575671,-0.436409,-0.691484
-0.376971,0.203015,0.580449,-0.604880,-0.717493,0.345432
0.118309,0.565097,0.794672,0.498556,-0.711873,0.494650
-0.017272,-0.133243,0.824649,0.049457,0.926708,0.372514
0.125312,0.444594,0.760972,0.961610,-0.258726,0.091472
-0.302749,0.921027,0.544867,0.883319,-0.133606,0.449329
-0.100000,-0.620029,0.632305,-0.604325,0.418022,0.678269
0.034440,0.118979,0.857333,0.690328,0.714030,0.116650
-0.312448,0.652757,0.359361,0.482730,0.020968,-0.875518
0.261099,-0.001352,0.674928,0.628268,0.378599,-0.679663
-0.471732,0.050473,0.820763,0.709420,-0.617578,0.339589
-0.110892,0.422622,0.077995,0.929555,-0.083452,0.359114
-0.573029,-0.097524,0.693044,-0.618251,-0.762072,-0.192386
-0.128579,0.746744,0.600799,-0.217852,-0.783659,0.581737
0.149326,-0.190762,0.288413,0.605121,0.572435,-0.553305
-0.398288,0.136004,0.784369,0.103891,0.851349,0.514210
-0.290612,0.302867,0.693748,0.455624,0.873601,0.170962
-0.409958,0.614507,0.547358,0.216710,-0.511240,0.831667
0.266391,0.198872,0.637992,0.969284,-0.193334,-0.152019
0.298029,-0.481637,0.682023,0.097532,0.955380,0.278813
-0.029772,-0.257313,0.670948,-0.748335,-0.297184,-0.593023
0.599897,-0.600185,0.229489,0.720508,-0.634191,-0.280482
-0.146836,-0.075322,0.757560,0.992226,-0.118006,0.039526
0.086981,0.267320,-0.108987,-0.338197,0.920179,-0.197216
-0.120850,-0.646833,0.614948,-0.776538,0.112673,-0.619914
-0.049325,0.511720,0.586339,0.861389,-0.061586,0.504198
0.301193,-0.471399,0.683363,0.097532,0.955380,0.278813
-0.198651,-0.205372,0.737427,-0.216898,-0.889117,0.403022
-0.599897,0.048288,0.606079,-0.489904,-0.829605,-0.267862
0.060996,-0.911650,0.330603,0.074858,0.253310,0.964484
0.632106,-0.674499,0.364127,0.145097,0.138119,0.979730
-0.435684,0.308332,0.762908,0.968616,-0.140623,0.204957
-0.424896,-0.298209,0.739593,-0.713493,-0.127622,-0.688942
0.099689,0.556411,0.686247,-0.483094,0.730103,-0.483290
0.205446,-0.614391,0.509664,-0.628518,0.062367,0.775291
0.106379,-0.781772,0.518058,-0.400752,0.753259,0.521534
-0.237759,0.251502,0.659750,0.515817,0.687417,-0.511264
0.124378,0.126571,0.789933,-0.125453,0.831763,0.540769
-0.448081,0.532828,0.578851,0.882753,-0.027626,-0.469024
-0.340509,0.441833,0.766077,0.012391,-0.796325,0.604742
-0.388537,-0.485376,0.713584,-0.248075,-0.575277,0.779432
0.196784,-0.507464,0.509664,0.818452,-0.106727,-0.564576
-0.099791,0.200080,-0.879755,-0.138057,0.990148,-0.023411
-0.369606,0.071409,0.446624,0.144659,0.432697,0.889858
0.335011,0.423254,0.227756,0.185072,-0.292308,0.938245
-0.438486,0.284231,0.748502,-0.078788,-0.983924,0.160268
-0.070746,-0.283253,0.614528,0.750861,0.274180,-0.600860
0.142790,-0.716143,0.508892,0.060693,0.516882,0.853902
-0.135062,0.087976,0.720232,0.652203,-0.726517,0.216344
0.464315,-0.466050,0.516623,-0.118541,0.322229,0.939211
-0.047666,0.555032,0.589250,0.822122,0.044290,0.567586
0.308454,0.256909,0.312731,0.354371,0.857567,0.372826
-0.050466,-0.577867,0.610236,0.099496,0.857350,0.505026
-0.080965,-0.004227,-0.106604,0.995037,-0.033661,-0.093634
0.346837,0.244025,0.186826,-0.097044,-0.743738,0.661389
-0.054460,-0.378794,0.748814,0.479439,0.852473,0.208396
-0.334335,-0.166489,0.718377,0.855710,-0.440713,-0.271169
-0.042479,0.245118,0.909149,0.944732,-0.215441,0.247117
0.171266,-0.245176,0.025488,-0.505228,-0.089484,0.858334
-0.885424,0.176784,0.306408,-0.080430,-0.164710,0.983057
-0.463174,0.425154,0.593799,-0.517542,-0.218696,-0.827238
-0.049273,0.154353,0.120563,0.825550,0.532550,-0.186704
-0.229357,-0.575624,0.344901,0.505410,0.339264,0.793386
-0.232883,-0.385809,0.675483,-0.542101,-0.819377,0.186406
-0.093308,-0.190302,0.590495,0.779883,-0.133883,-0.611439
-0.305187,0.725000,0.601503,0.032075,0.720080,0.693150
0.131328,0.467717,0.704512,0.422072,-0.864287,0.273611
-0.639472,-0.284749,0.598538,-0.838947,0.187458,0.510908
-0.519554,0.124845,0.356748,-0.571627,0.254508,0.780044
0.404046,0.283599,0.513144,-0.505748,-0.333434,-0.795639
0.117998,-0.296310,0.627296,-0.475508,0.341545,0.810703
0.271318,0.160737,0.791666,0.375954,-0.886562,-0.269568
-0.460581,0.047136,0.593474,-0.635071,0.602219,-0.483752
0.348029,0.175175,0.439109,-0.039239,0.167815,0.985037
-0.100570,0.184378,0.955577,0.688259,0.725463,-0.001923
-0.102801,0.063069,0.841276,0.526533,-0.354531,0.772704
-0.395176,0.808000,0.411109,0.429296,-0.783362,-0.449499
0.160737,0.287798,0.858417,0.368366,-0.914038,0.169826
-0.577178,0.361710,0.610507,-0.685983,-0.060547,-0.725094
0.370800,-0.699520,0.222015,0.452005,0.660202,-0.599854
0.098962,-0.419344,-0.163903,0.210770,0.975799,0.058242
-0.324740,0.277387,0.865498,-0.452833,-0.888680,-0.072039
-0.415145,0.257369,0.336858,0.002755,-0.536034,0.844192
-0.723756,0.347962,0.636503,0.672369,-0.160546,0.722596
-0.247718,-0.121049,0.777369,-0.094849,0.977113,-0.190405
0.504409,-0.099307,0.402512,0.103742,0.823963,-0.557067
0.388537,-0.204970,0.343966,0.199292,0.498915,-0.843425
-0.072199,-0.423830,0.366618,-0.816588,0.206584,0.538987
-0.434076,0.600011,0.599039,-0.567937,-0.772871,0.283052
-0.065094,0.179546,-0.800142,0.158890,-0.982623,0.095948
0.506847,0.203301,0.685584,0.984553,-0.141339,0.103334
0.094399,0.148486,0.729019,0.227602,0.925576,-0.302501
0.053371,0.387881,0.695264,0.456580,0.807734,0.372962
0.440871,0.192028,0.278557,-0.309006,0.433814,-0.846358
0.247718,-0.461677,0.679951,-0.628792,0.586023,0.511075
0.110997,-0.711426,0.512981,-0.283761,0.012703,-0.958811
0.368827,-0.564061,0.318593,0.825082,0.471687,-0.311048
0.153061,-0.458284,0.654930,0.159541,0.828330,0.537044
0.035219,-0.322424,0.495407,0.627075,0.656145,-0.419822
-0.067167,-0.624975,0.457320,0.948973,0.313833,-0.030972
-0.142790,0.111731,0.398355,0.875904,-0.480686,-0.041632
0.129980,-0.742199,0.511573,-0.191150,0.587108,0.786617
-0.387448,0.651836,0.609965,-0.075999,-0.861544,0.501963
0.468101,-0.025683,0.078415,0.369552,0.037638,-0.928447
-0.191286,-0.037417,0.907565,0.058998,-0.925372,0.374440
-0.007210,0.297863,-0.958596,-0.116103,0.095468,0.988638
-0.199637,0.514826,0.293680,-0.777119,0.393096,-0.491488
0.430706,-0.614565,0.268172,-0.206105,-0.880929,0.426010
-0.487189,-0.461505,0.219240,-0.035635,-0.464266,0.884979
-0.822770,-0.292341,0.659859,-0.708860,0.170365,0.684466
-0.426504,-0.185470,0.711106,-0.128580,-0.756047,-0.641763
-0.097251,-0.413707,0.280236,0.846276,0.529233,0.061063
0.041545,0.234419,0.919142,0.242497,-0.964108,0.108120
0.333765,0.354232,0.603886,0.826502,0.547687,-0.130126
-0.759492,0.242357,0.511343,0.167239,0.626160,-0.761548
-0.198081,-0.317879,0.695617,0.358183,-0.677269,0.642660
0.052231,-0.863910,0.323671,-0.174828,-0.116460,0.977687
0.387967,-0.239942,0.343195,0.229691,0.732962,-0.640319
0.221007,-0.335424,0.582629,0.672914,-0.513604,0.532352
-0.009024,0.345431,0.845040,0.742996,0.665355,0.072529
-0.093879,-0.208249,0.099590,-0.834103,0.362213,0.416022
-0.284698,0.113629,0.756206,-0.284532,-0.146931,-0.947340
-0.340611,-0.164648,0.728030,0.913500,-0.025376,0.406047
0.232313,-0.114089,0.331429,0.538230,0.280226,-0.794847
-0.021576,0.487676,0.414074,-0.278393,0.142102,0.949897
0.031121,0.231026,0.906238,0.407301,0.880419,-0.242835
-0.033868,-0.147393,0.718255,0.794876,0.008200,0.606717
-0.348443,0.481981,0.788363,-0.088761,-0.865783,0.492484
-0.419036,0.721491,0.639969,0.810961,0.339782,-0.476330
-0.281069,0.580684,0.638818,-0.607209,0.387610,0.693582
0.471213,0.465934,0.475449,0.980687,-0.016978,-0.194844
0.336255,-0.114549,0.346823,0.520334,0.520756,-0.676805
0.414783,0.197606,0.180124,0.013538,-0.792225,0.610079
-0.475674,0.270485,0.745564,0.733608,0.648226,0.204013
-0.205653,-0.136234,0.628379,0.341367,0.892410,0.295080
0.283299,-0.549395,0.530285,-0.067347,-0.109873,0.991661
0.168983,0.127491,0.743276,-0.228482,-0.930553,0.286124
0.190404,0.088954,0.435968,-0.007710,-0.006392,0.999950
-0.060736,0.394093,0.135457,0.955558,0.283880,-0.079502
0.092790,0.546404,0.798490,-0.380596,0.865928,-0.324523
-0.349222,-0.602370,0.591362,-0.711960,0.408505,-0.571171
0.126296,-0.342152,0.632739,0.044509,0.233332,0.971378
-0.009907,-0.566421,0.295481,-0.179938,0.153480,0.971631
0.472874,0.389146,0.375974,0.596859,-0.714245,0.365532
-0.090353,0.306089,0.832204,0.917304,-0.013465,-0.397960
-0.789834,0.299530,0.527617,-0.620606,-0.781379,0.065531
-0.175986,0.087342,0.802512,-0.687732,-0.495944,-0.530155
-0.498029,-0.405482,0.629625,0.799044,0.586727,-0.131457
0.182314,-0.070432,0.670690,-0.528058,0.323687,0.785100
-0.401971,0.597308,0.606391,0.523883,0.601825,-0.602787
-0.378837,-0.204165,0.715669,-0.591267,0.710995,0.380644
-0.331587,-0.372523,0.305582,0.472362,0.859860,-0.193689
-0.123755,-0.243047,0.352903,0.818016,-0.570884,0.070300
0.009752,0.164074,-0.974261,0.116530,-0.259721,0.958627
-0.708247,0.412096,0.617344,0.915287,0.021359,0.402236
-0.492012,0.745822,0.582547,0.865151,0.111009,0.489072
-0.197302,0.681055,0.342315,-0.616914,0.246931,-0.747290
0.264161,0.001409,0.581965,0.032117,-0.460721,0.886964
-0.288174,0.256909,0.848208,-0.618271,-0.756150,0.214426
0.238797,-0.474849,0.670243,-0.823991,0.473090,0.311808
0.020696,0.150844,0.899861,0.382193,-0.362703,-0.849927
0.288434,0.227114,0.624073,-0.648611,0.286921,-0.704968
0.534233,-0.072561,0.415469,-0.300228,-0.740562,0.601191
-0.073600,0.088550,-0.005368,0.987841,0.105425,-0.114260
-0.557417,0.346813,0.749382,0.869720,0.462595,0.172028
-0.494709,0.312071,0.770490,0.561778,0.800371,0.209310
-0.804097,0.172644,0.302522,-0.159384,-0.148523,0.975980
0.498755,-0.478992,0.483411,-0.432653,-0.725205,0.535621
-0.217167,0.177246,0.631845,-0.295323,0.334173,0.895049
0.027749,-0.056456,0.187990,0.596685,0.029142,0.801946
0.076764,-0.009347,0.438879,-0.158782,0.325720,0.932038
0.317117,-0.376550,0.490776,0.971212,0.134758,-0.196436
-0.602904,0.753818,0.573503,-0.103704,0.832947,0.543549
0.012500,-0.097984,0.864983,0.936786,0.017712,-0.349456
0.302645,-0.481695,0.517706,0.266337,0.646961,0.714497
0.095021,0.498144,0.760661,-0.598317,0.521938,-0.607945
0.261463,0.183688,0.781701,-0.506417,0.791175,0.342905
0.202489,-0.165224,0.640145,0.280058,0.667158,-0.690267
-0.061515,-0.384430,0.035304,0.217698,0.345348,0.912876
0.399274,0.205660,0.526318,0.940671,-0.010377,-0.339161
0.365301,0.493140,0.514132,0.811665,-0.374547,-0.448235
0.156380,0.186621,0.747758,-0.519712,-0.452423,0.724716
-0.564885,0.446493,0.720394,0.504085,0.578462,0.641312
-0.074584,-0.496419,0.163931,-0.382485,-0.085442,0.920003
0.162137,0.413073,0.577714,-0.061553,0.448353,0.891735
-0.564833,0.843088,0.466459,0.589699,0.570082,0.572068
-0.156379,0.662075,0.426869,-0.111068,0.298212,0.948016
