0.317339,0.824422,0.739993,0.874220,0.091381,-0.476852
0.354710,0.758642,0.601614,0.544339,0.451273,0.707141
0.254341,0.590806,0.771464,0.911496,-0.409670,-0.036689
0.378387,0.542326,0.781618,-0.296662,-0.277657,0.913728
0.853343,0.128667,0.566353,-0.351303,-0.316651,-0.881089
-0.369658,0.380071,0.578900,0.650915,-0.024309,0.758761
0.178343,-0.513864,0.442320,0.107205,0.443782,0.889699
-0.473731,0.818702,0.614679,-0.161059,0.855947,-0.491340
0.014352,0.586272,0.780700,0.024798,-0.438397,0.898439
0.703672,-0.131596,0.689637,0.374970,-0.673200,-0.637338
-0.497724,0.750410,0.612350,-0.468780,0.147217,-0.870961
0.623841,0.285759,0.665655,0.205588,-0.864381,0.458890
0.852841,0.245300,0.505093,0.464080,0.561647,0.684969
0.149326,0.284224,-0.473040,0.841184,-0.539132,0.041783
-0.871997,-0.532280,0.372561,-0.123776,0.792354,0.597373
0.340641,0.608106,0.835324,-0.273226,0.297044,-0.914938
0.438056,-0.707300,-0.960393,0.401669,0.072456,-0.912914
-0.088089,-0.280946,0.495314,0.859926,0.182088,-0.476834
0.193417,0.545255,0.785201,-0.517742,0.746358,0.418202
-0.554627,0.578180,0.430755,0.940617,-0.339468,0.001236
0.088843,0.234069,0.986172,-0.283781,-0.958609,0.023181
-0.931100,-0.211398,0.413591,0.878190,-0.432321,0.204650
-0.796941,-0.093858,0.584449,0.261635,0.626266,0.734397
-0.559526,-0.337658,0.512802,-0.626760,-0.333388,-0.704290
-0.240586,0.291549,0.816452,-0.429453,-0.889510,-0.156019
0.046007,-0.736528,0.509737,0.121785,0.700106,0.703577
-0.395096,0.420390,0.759810,0.745022,-0.426509,-0.512867
0.106931,0.276133,0.939982,0.071216,0.957458,-0.279645
0.073830,0.476195,0.881062,-0.508020,0.423968,-0.749778
-0.563609,0.155104,0.350351,0.213342,0.424919,0.879732
0.349998,0.490426,0.752825,0.915950,0.395200,0.069656
0.811575,-0.245509,0.150699,-0.470962,-0.033609,0.881513
0.276765,0.353702,0.731171,0.368604,-0.327536,0.869972
-0.842414,0.002546,0.415182,-0.486628,-0.287120,-0.825079
-0.301322,0.152384,0.745064,0.784636,0.443832,0.432852
-0.194611,-0.673817,0.115865,-0.299294,0.360164,0.883575
-0.053293,-0.565066,0.630757,-0.917015,0.002897,0.398842
0.261565,0.429529,0.744831,0.426559,0.864459,0.266005
0.044437,-0.600990,0.628325,-0.293412,0.926069,-0.237287
0.832301,0.021799,0.666082,0.372662,0.720770,0.584477
-0.143361,0.735970,0.665280,-0.318874,0.761956,-0.563687
-0.336621,-0.101112,0.745866,0.957903,-0.231482,-0.169821
0.048330,-0.403718,0.489403,0.599230,-0.798402,0.058966
-0.343780,-0.222699,0.633654,0.780450,-0.475773,0.405632
-0.028986,0.588574,0.579405,0.927638,0.270869,0.257134
0.107055,-0.538698,0.655528,0.709862,-0.701657,0.061429
-0.234307,0.165847,0.148979,0.085382,-0.652856,0.752655
0.056495,0.256950,0.866756,0.606650,0.648637,-0.459614
0.271425,-0.559764,0.341814,-0.124312,0.290299,0.948827
-0.172503,-0.590108,0.470699,0.497810,-0.775060,-0.389187
0.057814,-0.215723,0.787297,-0.160043,0.792613,0.588345
0.174324,-0.083533,0.845478,0.541763,0.795301,0.272010
-0.186823,-0.342611,0.371617,0.600898,-0.665030,-0.443461
0.079483,0.239301,0.912960,0.736198,-0.656018,-0.166290
0.147756,-0.512818,0.620228,-0.101659,0.977155,0.186639
-0.438433,0.536535,0.536693,-0.296127,0.892766,-0.339526
0.019124,0.302222,0.734780,-0.709382,-0.464433,-0.530168
-0.466696,0.525095,0.566133,0.461402,-0.539624,0.704211
-0.195930,0.332078,0.733888,-0.628503,0.654409,0.420395
-0.575479,-0.380140,0.524289,-0.365438,0.039247,-0.930008
0.185880,-0.587248,-0.961855,-0.413125,0.179538,-0.892801
-0.036523,-0.659447,0.657416,0.895383,0.440513,0.065093
-0.274566,0.294409,0.823437,-0.595102,-0.764732,-0.247058
0.129855,0.630707,0.684567,0.886280,-0.419183,-0.196959
0.359797,-0.553207,0.471876,-0.419420,-0.816116,0.397544
0.155041,-0.165777,0.343431,-0.199194,-0.096215,0.975225
0.594196,-0.662446,0.406024,0.312414,-0.119096,-0.942451
0.810508,0.131458,0.739062,-0.692924,0.720772,0.018553
0.653048,-0.010498,0.730253,0.197333,-0.794744,0.573970
-0.523098,0.541070,0.321041,-0.540133,0.075897,0.838150
0.381151,0.554602,0.833604,0.430238,-0.347507,0.833147
-0.362122,0.683652,0.590193,0.918554,0.395276,-0.003904
-0.838080,-0.180984,0.383788,-0.657017,0.628288,-0.416632
-0.063593,0.050679,0.932233,-0.164194,0.960022,0.226712
0.051471,0.226814,0.847884,0.263864,0.903792,-0.336951
0.528561,-0.186774,0.600049,-0.712209,0.686071,0.148543
-0.332475,-0.601688,0.351774,0.867278,-0.296661,-0.399776
0.470276,-0.421994,-0.949825,0.420660,-0.089698,-0.902773
-0.757123,0.036867,0.568914,0.118687,0.912742,0.390917
0.379645,0.578948,0.682626,0.009613,0.188820,0.981965
0.181736,-0.416693,0.189673,0.413200,-0.118042,-0.902957
0.716232,0.323916,0.711252,0.028985,0.835344,0.548962
0.378828,-0.766384,-0.963083,-0.352335,-0.090361,0.931502
-0.127783,-0.517840,0.174112,0.015596,-0.464214,0.885586
0.157052,-0.520631,-0.947044,0.349758,-0.149489,0.924836
-0.775713,-0.340588,0.372496,-0.066925,0.372170,0.925749
-0.905161,0.170869,0.543471,-0.663196,-0.315867,-0.678528
-0.639984,-0.396533,0.374553,-0.245832,0.321108,0.914580
-0.056056,-0.740365,0.497241,0.712540,-0.398732,-0.577321
0.309612,0.587109,0.848828,-0.599421,0.672320,0.434372
-0.555131,0.694884,0.435606,0.964745,-0.170335,-0.200632
-0.485289,-0.034495,0.646628,0.134707,-0.984052,-0.116174
-0.961186,0.077674,0.567000,0.703169,0.399211,0.588374
-0.398864,-0.348680,-0.988203,0.208725,0.180110,-0.961246
0.247808,-0.674166,0.279713,0.393404,0.358160,0.846731
0.134818,0.467475,0.640600,0.754127,0.197995,-0.626171
0.810759,0.288270,0.564581,0.687278,0.368815,0.625799
-0.476558,-0.100275,0.684528,-0.111174,0.686656,0.718432
0.396602,-0.331589,0.475433,-0.066627,-0.807799,0.585681
0.019502,-0.658331,0.669691,0.975837,-0.150808,-0.158109
-0.251077,-0.237557,-0.988941,-0.032894,0.084419,0.995887
0.065038,0.073699,0.867882,0.808295,0.069088,0.584710
-0.495211,0.793241,0.596764,0.586615,-0.741252,0.326234
0.230851,-0.354400,0.682523,-0.572895,0.480266,0.664181
0.255472,-0.028426,0.821031,0.789341,0.587453,0.178436
-0.277896,0.108298,0.607758,0.749104,0.658789,0.069570
0.615049,-0.048167,0.645464,0.845980,-0.272977,-0.458041
-0.369910,0.698651,0.679224,0.451330,-0.885240,0.112478
0.102534,-0.353144,0.423150,-0.359976,-0.186458,0.914139
-0.331847,0.170800,0.573895,0.870241,-0.406645,-0.278066
-0.068368,0.955984,0.466081,0.160620,0.327937,0.930945
-0.053921,0.141153,0.761000,-0.159673,-0.978313,0.131943
-0.456773,0.001151,0.559071,0.089376,0.993495,0.070561
0.154413,-0.418507,-0.947497,-0.525189,0.146790,-0.838230
-0.035331,0.641799,0.880713,0.954192,0.282178,0.099463
-0.598028,0.288550,0.314133,0.757451,-0.622874,-0.195692
0.049712,-0.214189,0.736837,0.753049,-0.430316,0.497741
-0.665987,-0.609013,0.329811,0.258357,0.243609,0.934829
-0.385736,0.339891,0.638259,0.382107,-0.473750,0.793445
-0.022580,0.491194,0.836036,-0.328700,0.811219,-0.483612
-0.068933,0.534722,0.600735,0.944421,0.179154,0.275630
-0.357598,-0.261135,-0.992821,0.050719,-0.134578,0.989604
-0.470715,0.377350,0.586959,0.936040,-0.187209,0.297964
-0.022329,0.700534,0.487062,0.590042,-0.677463,-0.439197
0.588293,0.153850,0.728908,0.731966,-0.299199,-0.612132
-0.028296,-0.412368,0.677698,0.724094,-0.498869,-0.476254
0.815219,0.287294,0.671813,-0.581539,-0.811309,0.059919
-0.223378,-0.708625,0.114637,-0.432105,0.276549,-0.858374
-0.287253,0.185240,0.852890,-0.646764,-0.762340,-0.023112
-0.038470,0.141153,0.354439,-0.168623,0.967548,-0.188193
-0.397043,0.555579,0.679781,0.474228,-0.117844,-0.872480
0.352009,0.540024,0.804578,0.385734,0.047646,0.921379
0.285055,0.745876,0.658684,0.864078,-0.370256,-0.340999
-0.943724,-0.036796,0.415596,0.696839,0.430882,0.573372
0.159816,-0.541558,0.477787,0.754820,0.133738,-0.642154
0.160506,0.801612,0.402751,-0.339667,-0.745011,0.574095
-0.331408,0.130690,0.326551,0.025172,0.607801,0.793691
-0.352323,0.307872,0.773275,-0.437889,0.640199,0.631188
0.159061,0.181124,-0.947794,-0.080883,-0.437723,0.895464
0.624094,-0.275923,0.661089,-0.806852,0.259506,0.530705
-0.420470,0.182938,0.610475,0.236155,-0.351280,0.905998
0.434412,-0.082139,0.546783,0.611305,0.711978,-0.345533
-0.319725,0.464128,0.718172,-0.464907,-0.885023,-0.024421
-0.410547,0.093649,0.641338,-0.309693,-0.309927,-0.898908
-0.640486,-0.341843,0.520913,0.609342,0.727246,0.315934
-0.364257,-0.116738,0.742334,0.537238,-0.684474,-0.492820
-0.789531,-0.175473,0.608496,0.410878,0.703161,0.580297
-0.277140,0.434550,0.429643,0.892799,-0.351962,0.281126
0.092045,0.065955,0.793285,-0.341427,0.685504,0.643048
0.716295,0.338356,0.630615,-0.046709,0.960801,0.273277
0.404327,0.398207,0.748556,0.784641,0.611130,0.104208
0.002796,-0.794217,0.092893,0.013639,-0.383535,0.923426
-0.121753,0.358586,0.777957,0.469270,-0.783680,-0.406978
-0.113590,-0.380070,0.456367,0.228574,0.413181,-0.881496
0.888075,0.123365,0.142330,0.093634,0.417663,0.903765
0.155105,-0.323009,0.628972,0.900301,0.419685,0.115424
0.024462,0.593806,0.873198,0.905334,0.421621,0.051053
-0.754107,-0.431063,0.376053,0.276399,-0.202855,-0.939390
0.691173,0.027588,0.674309,-0.325095,0.296070,-0.898140
-0.040418,0.220188,0.903000,0.233852,0.471276,0.850419
0.433281,0.548604,0.801098,0.289235,0.816220,-0.500129
0.953522,-0.264902,0.151281,-0.235698,-0.105124,0.966124
0.521841,0.190122,0.404653,0.506211,0.150325,-0.849207
0.262255,0.507447,0.886806,0.823711,0.488053,-0.288626
0.078856,0.372119,0.899417,0.820521,-0.404609,0.403778
-0.004429,-0.819957,0.522956,0.337739,-0.826869,-0.449688
-0.027039,0.281574,0.904539,0.951506,0.235050,-0.198462
0.158495,0.311500,0.961441,0.906642,-0.317549,0.277783
0.133874,0.331868,0.949967,-0.606572,0.196323,0.770407
-0.467764,-0.266506,0.431752,0.085719,0.767212,0.635639
0.864460,0.040424,-0.918678,0.634342,0.496706,-0.592362
-0.093303,-0.611105,0.580297,0.624028,0.717379,0.309769
0.080802,-0.602804,0.598174,0.326019,-0.601380,-0.729420
-0.404831,0.028077,0.679224,-0.580641,0.812404,0.053437
0.205099,-0.250601,0.540858,0.236491,0.324414,0.915875
-0.002104,0.518608,0.546537,-0.530446,0.605027,0.593775
0.136073,0.249695,0.459510,0.441825,0.884929,-0.147277
-0.539239,-0.301454,0.547080,0.703343,0.389905,0.594376
0.477374,-0.048376,0.708134,0.186280,-0.973348,0.133768
0.203278,0.466011,0.927525,-0.290545,0.945652,0.146035
-0.200327,0.250741,0.760586,0.060535,0.822133,0.566068
-0.658513,-0.029890,0.381796,0.349999,0.185597,0.918180
-0.372798,-0.123993,0.725221,-0.355218,0.295979,-0.886688
-0.022140,0.270273,0.903142,-0.606169,-0.725321,-0.326295
0.101278,-0.230232,0.033030,0.832241,-0.425354,0.355596
0.275822,-0.303617,0.688163,-0.735447,0.580265,0.349873
-0.108376,-0.498518,0.173944,-0.296998,0.266301,-0.916993
0.137518,0.280457,-0.825520,0.367845,0.929860,0.007051
-0.019565,0.294130,0.384797,-0.214101,-0.806143,0.551629
0.951136,-0.129155,0.158861,0.111199,-0.031767,0.993290
0.065477,-0.536675,0.659486,0.858819,0.104530,-0.501501
-0.095877,-0.665725,0.484306,0.851113,-0.041834,-0.523313
0.505573,-0.230721,0.469793,-0.456720,0.886945,-0.068810
0.353893,-0.033309,0.796028,0.454633,0.889805,0.039448
-0.275069,-0.438526,0.386324,0.591925,-0.738178,-0.323601
-0.283358,0.067839,0.353482,-0.732095,0.160635,0.661992
0.779606,0.150780,0.576934,0.755121,0.574091,0.316562
-0.184310,-0.469708,0.088003,0.433925,0.020646,-0.900712
-0.172440,0.537652,0.541635,-0.687346,0.380490,-0.618694
-0.529316,0.536466,0.692340,0.550467,-0.258615,0.793792
0.079673,0.352517,0.849721,0.693675,-0.661214,-0.285676
-0.211570,0.163266,0.328103,-0.096314,0.778026,0.620806
-0.834061,0.129225,0.539837,-0.695639,0.029778,-0.717774
-0.662094,-0.208259,0.249652,0.844550,0.119222,-0.522037
0.377256,0.201074,0.887401,0.508553,-0.699501,0.502068
-0.389819,-0.027101,0.042006,-0.587889,0.371676,0.718501
-0.854538,-0.216490,0.371164,0.757705,-0.253068,0.601531
0.157428,0.258205,-0.835428,-0.836463,-0.547041,0.032795
0.878529,0.241812,0.714265,0.065412,0.630286,0.773602
-0.500486,0.025009,0.550935,0.275671,0.721315,0.635382
0.166285,0.867881,0.639604,0.262247,0.429906,0.863949
0.731307,0.191239,0.588330,0.916861,0.241367,0.317976
-0.436611,-0.131247,0.128490,-0.490194,0.018547,0.871416
0.293030,0.734226,0.722065,0.993882,0.094485,-0.057191
0.675219,0.363329,0.922196,0.311271,0.153357,-0.937866
-0.560155,-0.374559,0.521055,0.426166,-0.164794,0.889509
0.446409,0.196331,0.894890,-0.377209,0.834856,0.400910
-0.281162,-0.336472,0.450068,0.408856,0.404969,0.817825
-0.317212,0.218862,0.627937,0.470070,0.200305,-0.859600
0.320980,0.525234,0.689352,-0.447419,0.813895,0.370664
-0.604122,0.273482,0.565202,0.921193,-0.356202,0.156599
0.210627,0.217816,0.920644,0.660852,0.003666,-0.750507
0.091102,0.385163,0.896636,0.219987,-0.533109,0.816945
0.101593,-0.483938,0.627135,0.066292,0.997652,0.017182
-0.791729,-0.246834,0.228801,0.235372,0.101033,-0.966640
0.761266,0.062955,0.666354,0.285681,0.772423,0.567230
0.017491,-0.248648,0.082687,0.083337,-0.469395,-0.879047
0.365261,-0.555021,-0.957884,0.506699,0.183665,-0.842332
0.522092,-0.428203,0.204069,-0.063023,0.070810,0.995497
-0.228026,0.293154,0.794488,-0.522566,0.852525,0.011231
-0.483655,0.048586,0.625673,-0.093335,0.990710,0.098905
-0.380273,-0.065746,0.703128,0.825638,-0.549687,0.127145
-0.015232,0.295246,-0.552203,-0.305643,-0.919029,0.248933
-0.134755,-0.165219,0.654480,0.888889,-0.427858,0.163751
0.130357,-0.187821,-0.966822,-0.412958,-0.106763,0.904471
-0.567189,0.511074,0.573649,0.910418,-0.109260,0.399001
-0.333670,0.494123,0.730279,0.879241,-0.152310,0.451372
-0.080489,0.144362,0.710734,-0.673309,0.616486,0.408167
-0.270547,0.632241,0.452655,-0.179780,0.552266,-0.814052
0.581258,0.127899,0.720513,-0.573387,0.817847,0.048517
0.167728,0.197935,0.060762,0.992814,-0.113212,-0.038763
0.117419,0.460291,0.682186,0.167001,0.607284,0.776735
0.805796,0.075442,0.746409,-0.296352,0.817288,0.494183
0.202274,-0.045376,0.054696,0.946820,0.319075,0.041514
-0.312125,0.359632,0.350170,0.712503,0.690164,0.126539
0.380963,0.235674,0.828792,-0.712445,-0.691519,0.119266
0.605942,0.319870,-0.140080,-0.154924,0.965990,-0.207030
-0.583143,0.527258,0.285353,0.656914,0.500022,-0.564307
0.421601,-0.061351,0.660611,0.964316,0.145547,-0.221159
0.101717,0.324055,0.780635,0.800685,-0.497019,-0.334478
0.315328,-0.272086,0.479663,-0.159313,0.404647,0.900489
0.431711,0.002617,0.733552,-0.151732,0.621833,0.768310
0.892284,-0.163196,-0.908200,-0.398755,-0.100321,-0.911554
0.130357,0.298385,0.945543,0.493040,0.579077,-0.649293
-0.229659,0.287504,0.560701,-0.250656,-0.823559,-0.508845
0.899758,0.081233,0.561813,0.144533,0.391749,0.908649
0.228025,0.348192,0.876716,-0.030444,0.142245,0.989363
0.020129,0.067420,0.867545,0.951110,0.173231,-0.255695
-0.396853,0.282062,0.440185,0.478968,0.841100,-0.251277
0.122255,0.898923,0.569419,0.804589,-0.550864,-0.221780
0.063028,0.482474,0.853149,-0.440674,0.162369,0.882860
0.006313,0.006382,0.882666,-0.426240,-0.678316,-0.598504
-0.615427,0.001988,0.681061,0.931693,0.355176,0.076143
-0.061772,0.561369,0.774853,0.101517,-0.615134,0.781860
0.085764,0.245161,0.878657,-0.181854,-0.982689,-0.035387
0.079673,0.439573,0.901927,0.222360,-0.503169,-0.835091
0.166095,-0.294549,0.179609,0.601533,-0.545018,-0.584049
0.144804,0.350424,0.952192,0.501692,0.412387,0.760423
0.224696,0.272087,0.937071,0.384677,0.694568,-0.607947
0.363816,-0.096369,0.860276,-0.619564,0.338702,0.708111
0.325000,0.175613,0.857909,-0.275091,-0.774509,0.569615
0.842351,0.212375,0.738441,0.549516,-0.348747,-0.759215
-0.596395,-0.052213,0.685951,-0.775568,-0.573861,-0.263018
0.041610,0.573367,0.682937,-0.319040,-0.361370,-0.876142
0.185755,0.179799,-0.911628,0.842108,-0.529480,0.102490
-0.495902,-0.364096,0.518054,0.816661,0.277329,0.506117
0.796376,0.303966,0.494008,-0.372815,-0.836662,-0.401254
-0.688660,-0.054863,0.236808,0.343539,-0.145026,-0.927873
0.049022,0.473196,0.889496,-0.683025,-0.666406,-0.298966
-0.112898,-0.800356,0.437378,-0.818215,0.003961,-0.574899
0.034387,0.421506,0.896610,0.468793,0.290308,0.834239
-0.452125,-0.475707,0.458876,0.835546,-0.236569,0.495881
-0.484597,-0.155593,0.222295,0.041047,0.412477,-0.910043
-0.536916,0.185798,0.341413,0.278917,-0.019260,-0.960122
-0.554251,0.104950,0.506322,0.854392,0.424666,0.299454
0.083943,0.312128,0.779393,-0.304504,0.913537,0.269681
0.606883,-0.026194,0.773171,0.614283,0.727039,-0.306708
-0.047891,0.384117,0.860509,0.839782,0.318852,0.439431
-0.366015,0.096579,0.506425,-0.183752,0.598951,0.779419
0.804290,0.013498,0.665358,-0.011077,0.427025,0.904172
0.544767,0.312336,0.610164,0.379402,-0.923852,0.050520
0.584335,-0.698371,0.514212,0.198405,0.507788,0.838324
0.006876,-0.189913,0.155110,-0.047539,0.483117,0.874264
0.717300,-0.267762,-0.904320,0.490255,-0.141482,-0.860019
-0.170304,-0.699766,0.493374,-0.459861,-0.070723,0.885170
0.134189,-0.090998,0.765747,-0.471395,0.545427,0.693034
0.005558,-0.642635,0.597669,0.829186,-0.511678,-0.225026
-0.509029,-0.190610,0.544610,0.433980,0.291441,0.852481
-0.372108,0.236720,0.118323,-0.344093,-0.780205,0.522379
-0.193921,-0.335077,0.338516,0.889400,-0.188904,0.416272
0.306283,0.823585,0.712312,-0.413050,0.784914,0.461844
0.509154,-0.071327,0.587955,-0.683626,0.729827,-0.002834
-0.029049,0.781173,0.507590,0.218764,0.973464,0.067157
0.235623,-0.458826,0.465253,0.883579,0.402653,-0.239080
0.613918,-0.579366,-0.948118,0.306595,0.485290,-0.818837
-0.348241,-0.013010,0.697954,0.943636,0.112345,-0.311334
-0.422354,0.406718,0.676288,0.466966,0.169885,-0.867803
0.414439,-0.525723,0.518985,0.116555,0.808485,0.576860
0.092611,0.358934,0.960044,0.195469,0.080650,0.977388
0.388688,0.362771,0.738984,0.184246,-0.978534,0.092333
0.858243,0.079906,0.658399,-0.397698,0.617369,0.678743
-0.096945,-0.236092,0.441582,0.816636,0.359455,-0.451551
-0.692869,-0.049562,0.569639,0.485968,0.385885,0.784173
-0.881859,0.050679,0.387216,0.153471,0.907731,0.390475
0.352197,0.211189,0.892639,-0.303721,0.540920,-0.784321
-0.441761,-0.021450,0.647896,0.142710,0.806494,0.573761
0.335615,0.556207,0.726049,-0.382413,0.673838,0.632221
-0.346795,0.337240,0.764751,-0.800923,0.559078,-0.214371
0.960933,0.002337,0.310537,0.981783,0.172711,0.079199
0.312439,0.877507,0.593737,0.524257,0.843309,0.118257
0.266464,-0.097485,0.813542,-0.375701,-0.083806,0.922944
-0.328205,0.591016,0.578150,0.142067,-0.693305,0.706502
-0.060892,-0.755014,0.507460,-0.481941,0.427671,0.764742
-0.610905,0.281784,0.267593,0.187819,-0.417735,-0.888944
-0.611973,-0.447526,0.550146,-0.700514,-0.607760,-0.374042
0.245736,-0.143943,0.681346,-0.065236,-0.834555,-0.547049
-0.524480,-0.324404,0.556044,0.818511,0.487391,0.304120
0.269792,0.209096,0.723967,-0.580327,0.467375,-0.666919
0.366705,-0.650657,0.500023,-0.649557,-0.703369,-0.288698
0.517697,-0.321684,0.195649,0.042586,0.024508,0.998792
0.702290,-0.146176,0.276001,0.535793,0.841947,-0.063650
-0.556513,0.564647,0.480232,0.123398,-0.810717,0.572285
0.881104,-0.248858,-0.906583,0.198165,-0.047155,0.979034
0.874384,0.021241,0.565526,0.038025,0.163401,0.985827
0.419653,-0.076001,0.487269,-0.515278,0.044293,0.855877
-0.579562,-0.472778,0.549434,-0.038460,0.994289,-0.099553
-0.644193,0.018103,0.443859,0.919963,-0.143063,-0.364966
0.115472,-0.398695,0.534417,-0.613222,-0.402816,0.679484
-0.510097,0.047400,0.512000,0.119166,0.918274,0.377589
0.296486,0.066723,0.692483,0.788514,0.429440,-0.440258
-0.300506,0.274598,0.605340,0.996618,-0.040103,0.071723
-0.316271,0.221234,0.613359,-0.422569,0.894214,0.147703
-0.603242,-0.463918,0.522193,0.121421,-0.637198,-0.761076
-0.614108,0.176939,0.430820,0.863431,-0.503041,0.037912
-0.031248,0.444177,0.683428,0.130445,0.338787,0.931777
0.129982,0.170312,0.905406,0.773934,-0.628669,-0.076168
-0.344221,-0.127760,0.531972,-0.510026,0.406526,-0.758030
-0.552681,-0.124272,0.664698,-0.612163,-0.779189,0.134614
-0.524417,-0.023055,0.526449,0.828977,0.384039,0.406584
0.075339,-0.362561,0.649474,-0.084170,0.739897,0.667434
-0.288823,0.327892,0.737044,0.332019,-0.842421,0.424371
0.054799,-0.640891,0.630265,0.415429,-0.820833,-0.391985
-0.246994,0.611455,0.569794,-0.186179,0.779962,-0.597492
-0.285245,-0.539395,-0.994024,0.413305,-0.080849,-0.906996
-0.909746,0.104950,0.327948,0.293333,-0.357654,0.886588
-0.491757,0.541419,0.448063,0.845699,0.345607,-0.406631
-0.086393,-0.187890,0.467491,0.960463,-0.044259,0.274867
-0.161261,0.451711,0.406955,-0.255089,-0.718500,0.647060
-0.004114,0.414461,0.794023,0.064708,-0.984015,-0.165912
-0.030807,-0.645356,0.573390,0.464283,0.660120,0.590494
0.086393,-0.453315,0.527561,-0.018685,-0.988005,0.153290
0.195427,0.358586,0.912339,-0.229231,0.098397,0.968386
0.796251,0.107810,0.729736,-0.334893,0.888978,0.312355
0.202964,-0.127830,0.773456,-0.264314,0.772514,-0.577373
0.778350,0.052701,0.665643,-0.001356,0.432827,0.901476
-0.237634,0.275924,0.828533,0.118218,0.992977,0.004514
0.074396,0.286527,0.944276,-0.179744,0.949369,-0.257663
-0.466947,0.488542,0.534844,0.115166,-0.847888,0.517516
-0.519203,0.340240,0.565254,0.403943,-0.391882,0.826594
-0.722513,-0.198842,0.596544,0.548848,0.696863,0.461679
-0.067174,0.331520,0.705068,-0.747434,-0.397410,-0.532361
0.763967,-0.208259,-0.913206,0.458969,-0.009661,-0.888400
0.336682,0.393394,0.888888,-0.168913,0.985286,-0.026062
-0.631002,-0.083115,0.648711,0.502960,-0.255925,0.825550
-0.444966,0.461755,0.585419,0.015204,-0.462041,0.886728
0.936814,0.041052,0.570635,0.184754,0.284072,0.940834
-0.490312,0.177567,0.510785,0.639777,0.477131,-0.602521
-0.339008,0.247463,0.775344,-0.409522,0.754489,0.512872
-0.088528,-0.771895,0.501782,0.788605,-0.249313,-0.562090
0.297491,-0.077954,0.533240,0.408187,-0.629515,-0.661131
-0.387496,-0.364236,0.430665,-0.042219,0.081059,0.995815
-0.040606,0.468104,0.740187,0.032439,-0.838267,0.544294
-0.551487,-0.086603,0.538194,0.477596,0.075273,0.875349
-0.393211,0.395417,0.654919,-0.672359,-0.688027,0.273041
0.940835,-0.070000,0.318894,0.897462,-0.434904,-0.073625
-0.501932,-0.293223,0.557415,0.821611,0.288871,0.491436
0.131615,-0.386837,0.226913,-0.319677,0.434862,0.841844
-0.557769,-0.499983,0.382146,-0.598801,-0.423876,-0.679534
-0.435733,-0.125946,0.690801,0.254678,0.832188,0.492547
0.519015,-0.122458,0.636474,0.616030,-0.106303,-0.780517
0.236315,0.231767,-0.397862,0.430646,0.889052,0.155342
0.063656,-0.289526,0.799611,-0.616193,0.630917,0.471434
-0.733380,-0.037982,0.577361,0.147658,0.412272,0.899015
-0.711647,-0.191099,0.595108,-0.538738,-0.666825,-0.514885
-0.385675,-0.404346,0.471139,-0.480230,0.434926,-0.761721
-0.028986,-0.178473,-0.979808,-0.439763,-0.184123,0.879038
-0.394906,0.549301,0.736488,0.544129,-0.774448,0.322727
-0.836008,0.018311,0.292183,0.210595,0.824134,0.525787
0.364445,-0.111995,0.617085,0.495672,0.840373,0.219277
-0.437427,-0.151756,0.659705,0.677779,-0.349887,0.646680
0.186382,-0.459803,-0.961570,0.476806,-0.140350,0.867731
-0.320730,-0.149942,0.514238,0.852774,-0.442709,0.277101
0.223188,-0.048725,0.809545,0.392053,-0.051915,-0.918477
0.024150,0.274598,0.894748,0.380299,0.914043,-0.141064
0.020255,0.397231,0.831392,-0.589937,0.652062,-0.476224
-0.023585,-0.169265,0.709855,0.696730,0.717149,0.016266
0.278961,0.226954,0.906544,0.469256,-0.148929,0.870413
0.129165,-0.193331,0.777078,-0.018844,0.820886,0.570780
0.544828,-0.192913,0.251877,0.372487,0.080089,-0.924575
0.043431,0.349448,-0.957159,-0.331252,-0.111771,0.936899
-0.048332,0.756897,0.494098,0.221929,0.948912,0.224305
-0.168169,0.067560,-0.976652,-0.010676,-0.275666,0.961194
0.201519,-0.382721,0.637858,0.958240,-0.169868,0.230044
-0.457653,0.624359,0.586015,0.199474,-0.525533,0.827058
0.528875,-0.005824,-0.953706,-0.177804,-0.102550,0.978708
0.634395,-0.288968,0.659227,-0.806852,0.259506,0.530705
0.033320,0.387185,0.968257,-0.646806,0.721417,0.247383
0.150834,0.866346,0.462459,-0.041622,0.989489,0.138485
-0.075905,-0.059049,0.850096,0.604391,0.415279,0.679893
-0.188268,0.714624,0.530821,0.399339,0.500240,0.768302
0.026912,-0.801472,0.515286,-0.205167,0.849565,0.485948
-0.281727,-0.928151,0.459549,0.056757,0.902256,0.427449
-0.260120,0.577901,0.654570,-0.727813,0.388807,-0.564906
0.009640,-0.651355,0.579922,-0.075285,0.944938,0.318472
-0.752411,-0.102926,0.565137,-0.469718,-0.811237,-0.348223
-0.801150,0.129992,0.529540,0.825214,0.083459,0.558620
0.065038,0.491542,0.833707,0.541217,-0.693103,0.476122
-0.601043,0.235952,0.492663,0.986203,-0.016376,-0.164727
-0.773200,-0.497680,0.374023,-0.100035,0.739228,0.665985
0.391829,-0.477102,-0.954107,0.539884,-0.188261,-0.820417
0.364569,0.267064,0.895084,-0.017307,0.145407,0.989221
-0.511542,0.492030,0.604563,0.690868,-0.202304,0.694100
-0.646516,-0.432737,0.541777,0.697116,0.415516,0.584274
0.708067,0.103624,-0.940473,0.454071,-0.060987,-0.888876
-0.077538,0.235255,0.233613,-0.707302,0.268650,-0.653874
-0.665611,-0.036727,0.562822,0.734733,0.408598,0.541493
0.081053,-0.295804,0.726321,0.779772,0.297826,0.550686
0.208178,0.343936,0.752967,-0.218905,-0.676696,0.702967
0.848507,-0.139339,0.259004,0.027554,-0.156423,0.987306
-0.104608,0.813192,0.387100,0.161531,0.649262,-0.743214
-0.546715,0.618011,0.585756,-0.478058,0.470268,-0.741828
-0.276577,-0.359213,-0.984970,-0.050252,0.001301,0.998736
0.286500,0.736947,0.728843,-0.583592,-0.781752,0.219736
-0.155734,0.178473,0.079958,-0.292883,0.954412,-0.057600
0.408285,0.570925,0.730680,0.988762,0.048369,0.141457
0.137957,-0.456454,0.670998,0.903964,-0.390478,-0.174290
0.156109,0.351121,0.936373,0.542062,-0.148497,-0.827114
0.298370,0.362213,0.753859,0.340473,0.003403,0.940248
-0.346608,-0.099996,0.510616,0.648640,0.269143,0.711919
0.336495,-0.301036,0.341323,-0.704321,0.649781,-0.285861
-0.535598,0.362353,0.156417,0.004209,-0.878081,0.478494
0.416260,-0.165498,0.452900,0.171263,-0.074077,0.982437
0.255786,0.429389,0.933074,0.987401,-0.075992,0.138795
-0.053985,-0.002825,0.842762,0.177587,0.404751,0.897017
0.046948,0.213770,0.945699,-0.699676,-0.486842,-0.522914
-0.524983,-0.280458,0.434455,0.941919,0.260791,0.211604
0.632384,-0.024938,0.263208,-0.298191,0.474596,0.828155
0.124768,0.404206,0.815340,-0.433228,-0.401059,-0.807134
-0.291714,-0.563112,0.398573,0.338443,-0.667878,-0.662869
0.178594,0.473196,0.793945,0.462736,0.772780,0.434381
0.952957,-0.102089,-0.914305,0.611062,-0.421851,-0.669810
-0.133562,0.322661,0.754105,0.001951,-0.999067,0.043153
0.109946,0.371909,0.911809,-0.015951,0.553757,0.832526
0.002291,0.344215,-0.390657,-0.358405,-0.931706,-0.058904
0.304713,0.569321,0.777712,0.374839,0.803092,-0.463183
0.389819,-0.747689,-0.965994,0.315330,0.156371,-0.936010
-0.677543,-0.182519,0.561593,0.723582,0.366440,0.584937
-0.740351,-0.002127,0.580155,0.328179,0.493158,0.805664
-0.350313,-0.152593,0.752760,0.557974,0.221462,0.799762
-0.334423,0.332985,0.553677,-0.152641,0.810870,-0.564970
0.758566,0.111855,0.731404,0.482767,0.679271,0.552745
0.245046,0.113738,0.722815,-0.004054,-0.020239,0.999787
0.162517,0.376792,0.949553,-0.327359,-0.702470,0.631959
0.139025,0.268111,-0.121143,0.996590,0.078787,0.024525
-0.681123,-0.338147,0.540574,-0.470037,-0.429543,-0.771076
-0.351005,0.062886,0.707306,0.939096,0.159109,-0.304604
0.035706,-0.198493,0.519464,-0.453188,0.891252,0.017010
0.216657,0.304873,-0.846371,0.995820,-0.073472,0.054265
-0.646202,0.101462,0.531532,-0.221564,0.966390,-0.130385
0.221430,-0.282620,-0.955258,0.112569,0.512656,0.851183
0.285242,0.857557,0.717913,0.752586,-0.658150,0.021279
-0.886317,-0.052981,0.415816,0.495538,-0.118466,0.860469
-0.223000,0.169475,0.856512,0.718649,-0.000030,0.695373
0.182238,-0.010987,-0.149833,0.985984,0.102853,-0.131362
-0.216845,-0.513376,0.421973,-0.519818,0.835563,-0.177830
-0.430268,-0.300478,0.149406,0.497944,-0.429775,-0.753223
-0.047075,0.261553,0.615300,0.683640,-0.327245,0.652340
-0.141036,-0.068188,0.702792,-0.018046,-0.929641,0.368025
-0.585529,-0.252694,0.564387,-0.611730,-0.512105,-0.602939
-0.618693,-0.616198,0.403527,0.004743,0.389869,0.920858
-0.322238,-0.257926,0.608108,0.815710,0.414497,0.403496
-0.052415,-0.794217,0.509982,-0.536479,0.593799,0.599661
-0.327011,0.117157,0.327159,0.025172,0.607801,0.793691
0.679112,-0.011405,-0.012644,-0.463336,0.765035,0.447261
0.181987,-0.657633,0.465059,0.613687,0.045285,-0.788250
-0.358164,-0.075442,0.681721,0.128391,0.635669,0.761210
-0.255661,-0.661958,0.457829,-0.387434,0.633044,-0.670186
0.211819,0.397440,0.993558,-0.498940,-0.680989,0.536016
0.136514,-0.042865,-0.956086,-0.546857,0.154925,0.822767
0.132746,0.149106,-0.746448,0.975189,-0.220711,-0.017117
-0.573785,-0.144082,0.119384,-0.426275,-0.090635,0.900042
-0.352323,-0.895295,0.441349,-0.710509,0.628067,0.317347
0.800960,-0.089603,0.692496,0.428954,-0.615538,-0.661144
-0.152279,0.260158,0.836346,-0.703004,-0.236010,-0.670883
0.099960,0.218165,-0.693104,0.857404,-0.513477,-0.034633
-0.100525,0.833491,0.617654,0.827771,0.017577,-0.560790
-0.565305,0.498936,0.573675,0.859618,-0.048328,0.508647
-0.125899,-0.270970,0.584281,0.059350,0.557253,0.828219
0.364382,0.035472,0.710980,0.987957,0.131391,-0.081714
-0.506141,-0.047469,0.681165,0.359968,0.780850,0.510584
-0.231355,0.382721,0.766937,-0.633187,-0.274517,-0.723682
-0.008887,0.086604,0.912546,-0.667528,0.174333,0.723888
-0.475992,0.594643,0.312103,-0.478078,-0.201054,0.854996
0.684640,0.054724,0.618249,0.823167,0.528167,0.208414
-0.192412,-0.866137,0.463675,-0.156938,0.775424,0.611627
0.477184,0.536814,0.902729,-0.484729,0.614253,0.622680
-0.560218,-0.325591,0.574761,-0.502346,-0.659560,-0.559132
0.144867,-0.204073,0.615791,0.159259,0.049379,0.986001
-0.458908,0.401766,0.584061,0.783175,-0.220549,0.581373
-0.274440,0.499146,0.767079,0.708796,-0.642386,0.291458
-0.510097,0.564438,0.465900,0.218603,-0.940499,0.260141
-0.557517,0.196191,0.521378,0.832057,0.033857,-0.553655
-0.512169,0.547208,0.428958,0.679935,-0.058814,-0.730909
0.328456,-0.052213,0.495250,0.318596,0.550422,-0.771707
0.111389,-0.590457,0.180127,-0.289599,-0.253918,0.922853
0.246992,-0.083115,0.780531,-0.711619,0.419313,-0.563716
0.027980,0.166824,0.521171,-0.290510,0.956870,0.001799
-0.027480,0.933521,0.390592,-0.194005,-0.596466,0.778840
0.166222,0.329357,0.874737,0.340903,-0.768873,-0.540943
-0.219609,0.546790,0.636164,0.401808,-0.897834,0.180123
0.124705,-0.256531,0.558437,0.857313,0.046859,0.512659
0.995981,-0.072024,0.572627,0.278025,0.591305,0.757008
0.867349,-0.478288,-0.909520,-0.573723,0.522189,-0.631000
-0.315518,0.282410,0.799029,0.740948,-0.531892,0.409983
-0.650285,-0.482892,0.402984,0.250143,-0.680762,-0.688471
0.717175,-0.221164,0.263195,-0.229349,-0.969794,0.083055
0.295607,0.406788,0.789547,0.929057,0.085783,0.359853
0.253085,0.375466,0.988320,-0.498940,-0.680989,0.536016
0.058631,0.147431,0.838455,0.914696,-0.401082,-0.049637
-0.576549,0.205887,0.487592,-0.212769,-0.884376,0.415462
-0.476055,0.566112,0.695781,-0.112659,0.928752,-0.353169
-0.305656,0.806564,0.505740,0.192930,0.949258,0.248370
-0.416889,0.590876,0.581216,-0.162390,-0.780647,0.603506
-0.044249,-0.602595,0.576792,-0.501469,-0.442290,-0.743578
0.148007,-0.119319,0.573416,0.603563,-0.675633,-0.423357
-0.356594,-0.854418,0.444596,0.890538,-0.451057,-0.059077
0.403510,0.012242,0.666574,-0.792458,0.280053,0.541831
-0.305028,0.309407,0.613372,0.988302,-0.094840,0.119434
-0.875766,-0.110181,0.422581,-0.593185,0.081420,-0.800939
-0.148197,-0.748875,0.490852,0.378689,0.891827,-0.247466
0.816599,0.284016,0.001804,0.640822,0.404642,-0.652390
-0.456395,0.448502,0.581772,0.015204,-0.462041,0.886728
0.655120,0.289875,0.718767,-0.502517,0.728520,0.465549
-0.859310,0.005685,0.517640,0.897955,0.057518,0.436312
0.164964,0.166894,0.435244,0.896418,0.436296,-0.077980
-0.039538,-0.532071,0.698135,-0.539401,-0.557159,-0.631364
-0.199259,-0.705696,0.459148,-0.497777,-0.215460,0.840116
0.519957,-0.329288,0.455203,-0.382561,0.254559,-0.888170
-0.475804,0.054515,0.519348,-0.319906,0.912472,0.255060
-0.090602,-0.830351,0.506503,0.732765,-0.481130,-0.481216
0.255535,-0.237627,-0.968930,0.105307,0.085390,0.990767
-0.035079,-0.611663,-0.974828,-0.163246,0.020863,0.986365
0.309047,0.336333,0.792458,0.885814,-0.420733,0.195749
0.207424,0.302710,-0.918173,0.853465,-0.490062,0.177304
-0.340828,0.531025,0.687800,0.810088,-0.317100,0.493158
0.554061,0.014195,0.725053,0.146685,0.399760,0.904807
0.901139,-0.192704,0.160621,-0.022518,-0.294681,0.955330
0.139590,0.027240,0.052924,0.967877,0.058963,-0.244412
0.007003,0.388720,0.908614,0.474364,0.151808,0.867141
0.801714,-0.491124,-0.904850,-0.127002,-0.611281,0.781157
-0.448859,0.505214,0.689495,0.358610,-0.717059,0.597683
0.119618,0.454362,-0.216241,0.994471,0.018701,-0.103331
0.103350,-0.286317,0.481668,-0.097680,0.946018,0.309045
0.275320,-0.608245,0.190695,0.256526,0.163828,-0.952552
-0.439438,0.249905,0.774969,0.923523,0.220051,0.314138
-0.461484,-0.020195,0.593103,0.906405,0.195299,-0.374551
0.792921,0.181612,0.257491,-0.210144,0.104080,0.972115
-0.827278,0.255694,0.286168,0.989595,-0.126495,0.068564
0.456459,-0.245091,0.687205,-0.218774,0.044492,0.974761
-0.449551,-0.311639,-0.990182,-0.045576,-0.259529,0.964659
-0.421286,0.515190,0.564672,-0.059212,0.392973,-0.917642
0.074018,0.904433,0.565086,0.613953,-0.690842,-0.381837
0.166285,-0.774336,0.177462,0.268308,0.266286,-0.925798
0.405898,-0.158243,0.611096,-0.476681,-0.878492,0.032047
0.235938,0.307523,0.905199,-0.581314,0.479682,-0.657251
0.369217,0.223397,0.887672,0.360768,-0.570409,0.737889
-0.027855,-0.325591,0.177346,0.088324,-0.045132,0.995069
0.015356,0.494193,0.891553,0.977056,0.013292,-0.212570
-0.657570,-0.205469,0.110252,-0.525804,0.317113,0.789284
-0.137518,0.672422,0.633202,0.944946,-0.098386,0.312084
0.127030,0.350494,0.902379,-0.112777,0.772011,0.625524
-0.519832,0.521817,0.702507,-0.414367,-0.720825,0.555617
-0.436925,-0.375745,-0.991476,-0.222031,-0.259090,0.939986
-0.640235,-0.046772,0.695535,-0.850036,0.305006,-0.429430
0.278271,0.215445,0.725765,-0.574873,0.503475,-0.645007
0.269540,0.566601,0.798227,0.945080,-0.018878,-0.326293
-0.433597,0.792195,0.612997,-0.111680,-0.778089,0.618147
0.021449,-0.601200,0.479753,0.669369,0.437982,0.600098
0.275570,-0.251648,0.696208,-0.446146,-0.439600,-0.779555
-0.435104,-0.498867,0.452448,-0.491003,-0.865910,0.095478
-0.233929,-0.164801,0.693996,-0.621312,0.773692,0.123983
-0.168484,-0.031565,0.613023,0.828474,0.116766,-0.547720
0.788273,0.120226,0.719168,0.010395,0.138481,0.990311
-0.825708,0.149245,0.300151,0.375675,0.683693,0.625646
-0.546903,0.002058,0.448101,0.906511,0.407256,-0.111268
0.367899,0.382442,0.879653,0.308401,0.490448,-0.815076
-0.223817,-0.331450,0.083411,0.431867,-0.129728,-0.892559
0.735954,0.052004,-0.935066,0.373076,-0.250176,-0.893435
-0.128977,-0.470406,0.174487,-0.132067,0.455945,-0.880155
-0.553057,0.499285,0.207963,-0.420278,0.907384,0.004635
-0.240525,0.338495,0.658942,-0.643081,-0.745987,0.173064
0.005558,-0.329985,0.170270,-0.074611,-0.013244,0.997125
-0.025532,-0.678909,0.497035,0.524529,-0.585397,-0.618206
-0.554251,0.365631,0.574050,-0.411785,0.781058,-0.469448
-0.106555,0.536606,0.643731,0.420356,0.816904,0.394930
0.037151,-0.067560,-0.970017,0.370245,-0.026772,-0.928548
0.403700,-0.394161,0.706375,-0.362420,0.809519,0.461878
-0.222122,0.310872,0.741429,-0.466442,0.842658,-0.268997
0.231165,0.426459,0.873198,0.772437,0.188172,-0.606574
0.093930,0.257368,0.925934,-0.366798,0.895045,0.253682
-0.585592,-0.116389,0.290165,0.372184,-0.222887,-0.901000
0.604058,-0.638031,0.500527,0.901803,-0.045442,0.429751
-0.039789,-0.592341,0.647896,0.991053,0.126591,0.042298
-0.854287,-0.115692,0.404679,0.724358,-0.362234,0.586593
-0.295231,0.288968,0.590464,0.865854,0.489860,0.101662
-0.289452,0.106693,0.586273,0.846419,-0.516597,-0.129240
-0.014478,-0.259391,0.753743,0.673907,0.446277,0.588801
-0.183745,-0.781591,0.440133,-0.471866,-0.582848,-0.661536
-0.030870,-0.450037,0.492805,-0.604849,0.793083,0.071946
0.122255,0.590945,0.567647,0.926587,-0.373765,0.041677
-0.236567,0.595550,0.651699,0.566783,-0.405284,0.717287
0.141411,0.446618,0.768554,-0.200504,-0.884059,0.422182
0.038344,0.782569,0.558644,0.900081,0.189702,-0.392260
0.156172,-0.050957,0.828365,0.298317,-0.855329,-0.423579
-0.158056,-0.488612,0.178070,-0.095552,-0.380225,0.919945
-0.313634,0.130480,0.448696,0.702313,0.363651,-0.611976
-0.215714,0.143106,0.247725,-0.241941,-0.239748,-0.940205
-0.079546,0.250532,0.826089,-0.636714,-0.085056,-0.766395
0.152592,-0.532838,0.239537,-0.136000,-0.567764,0.811879
0.686963,0.346169,0.726903,-0.188794,-0.803278,-0.564890
0.336934,-0.454501,0.498225,-0.566048,0.273799,0.777575
0.089910,0.138572,-0.451568,-0.802596,0.567632,0.183394
-0.414000,0.701580,0.606814,0.953077,0.265247,0.145902
0.471468,-0.599944,0.517524,-0.542079,-0.791691,0.281735
-0.446599,0.494123,0.681747,-0.350324,0.893936,0.279555
0.018810,-0.502773,0.691047,0.394376,0.687845,0.609373
0.902773,0.151337,0.778281,-0.733547,-0.621250,-0.275604
-0.130610,0.745667,0.507848,-0.166674,-0.927147,-0.335586
-0.689415,0.085418,0.538802,-0.522422,0.635405,0.568626
0.402255,-0.325799,0.719478,-0.246278,0.838734,0.485667
-0.266779,-0.499773,-0.980869,0.413305,-0.080849,-0.906996
0.135257,0.194307,0.964261,-0.214319,-0.973441,-0.080501
0.088528,0.217955,0.502170,-0.043562,0.997552,0.054710
0.685708,0.048098,0.549835,-0.255425,-0.219923,0.941484
-0.160884,-0.323846,0.418493,0.686713,0.368861,0.626392
0.270484,-0.794845,0.277385,0.840796,0.539359,-0.046402
-0.880791,-0.177845,0.404342,-0.499663,0.526640,-0.687741
0.123386,0.157197,0.402518,-0.282303,-0.948827,-0.141535
-0.710580,-0.447316,0.560791,-0.378109,-0.598729,-0.706086
0.706875,0.298874,0.436072,0.487392,0.630161,0.604438
-0.680684,-0.030728,0.703607,-0.374038,0.924584,0.072392
0.010959,0.281504,-0.970702,0.004282,-0.241533,0.970383
-0.174826,0.181681,0.785757,-0.650377,-0.617556,-0.442306
-0.736583,0.107391,0.293217,0.651408,0.670836,0.354468
0.556135,0.352866,0.823450,-0.561418,0.716478,0.414088
-0.040418,0.414321,0.873431,0.192034,-0.723114,0.663497
0.439499,-0.200098,0.481694,-0.218148,-0.176117,0.959893
0.008573,0.436574,0.663172,0.741808,0.608926,-0.280943
0.081243,-0.198912,0.343923,-0.121281,0.278600,-0.952719
-0.487989,-0.062676,0.264140,-0.529305,-0.207138,-0.822758
0.557391,0.325661,0.846720,0.919883,-0.365327,-0.142659
-0.236505,-0.260019,0.433847,0.695664,0.081270,0.713755
0.101781,-0.032821,0.826748,-0.617880,-0.774657,-0.134650
0.060139,-0.119947,-0.972914,-0.368880,0.031495,0.928943
0.356092,-0.226326,0.688990,0.616240,-0.397816,-0.679699
-0.749710,-0.497820,0.242318,0.037756,0.615867,0.786945
0.268787,0.546859,0.720875,-0.239286,0.911866,-0.333532
-0.357474,0.358655,0.581746,0.765863,0.558357,0.318892
0.201709,0.289596,0.746461,0.237288,0.801680,-0.548638
-0.111830,-0.758850,0.477451,0.778651,0.497823,0.381935
-0.085764,-0.843186,0.508288,0.732765,-0.481130,-0.481216
-0.443584,-0.493844,0.312723,-0.235588,0.151302,-0.960003
0.100713,-0.296920,0.648892,-0.516362,0.849920,-0.104911
-0.246114,0.213910,0.737652,-0.556925,0.142987,-0.818162
0.088150,0.327753,0.516282,0.793177,0.523974,0.310357
-0.178343,0.838304,0.678862,-0.209219,-0.638678,0.740485
0.021637,-0.696976,0.651168,0.895869,0.292909,0.334101
0.866784,-0.158731,0.262962,-0.462177,0.864749,-0.196475
0.620514,0.366120,0.698304,0.486811,0.728270,-0.482325
0.540182,-0.032193,0.742916,0.131589,0.870112,0.474962
-0.642874,0.017265,0.378136,0.401418,0.379902,0.833390
0.410420,-0.137246,0.085882,0.516884,0.856040,-0.005207
-0.647584,0.457013,0.256585,0.952786,0.052848,-0.299009
0.756618,0.103415,0.740213,0.119097,0.863133,0.490732
-0.623214,-0.051376,0.566431,-0.509360,-0.080276,-0.856801
-0.115535,0.458198,0.882498,-0.724914,0.418352,0.547250
0.050716,0.364236,0.909507,0.046010,0.943989,0.326755
0.450177,0.560044,0.806971,-0.533443,-0.709665,0.460233
0.426812,-0.139897,0.781528,0.366637,-0.578661,-0.728511
-0.558522,0.077884,0.614808,-0.277078,0.956071,-0.095684
0.466318,0.575041,0.898654,-0.287913,0.502846,0.815016
0.479132,0.101112,0.703452,-0.079641,0.986637,-0.142145
0.015734,-0.622754,0.658101,0.987117,-0.021965,0.158488
0.209496,0.201702,0.892782,-0.454546,-0.670989,0.585800
0.342335,-0.845279,0.350649,0.287615,0.498052,0.818060
-0.238139,0.269715,0.457997,0.975129,0.079707,0.206810
0.096065,0.261414,0.955025,0.931472,0.203716,0.301429
-0.257797,0.919082,0.551258,0.298352,-0.452162,0.840557
0.787834,0.142549,0.725739,0.192814,0.455920,0.868884
-0.302580,0.326358,0.162833,-0.035373,-0.620509,0.783401
0.322928,-0.305291,0.484449,-0.291558,0.619115,0.729171
-0.012468,-0.812284,0.527432,0.333883,-0.763506,-0.552794
0.010142,0.228210,0.197046,0.158916,0.984528,0.073831
0.491945,0.517840,0.806440,0.233736,0.645970,0.726698
-0.269855,0.348750,0.542436,0.830262,-0.556894,-0.023103
-0.343154,-0.146524,0.527328,0.707766,-0.299709,0.639720
-0.615614,0.138083,0.456781,0.972936,0.034538,0.228480
-0.114845,-0.050678,0.755813,-0.768823,-0.285745,-0.572068
-0.001287,-0.492519,0.465396,0.585689,0.325918,0.742123
0.009075,0.184961,0.789392,0.833052,0.254733,0.491055
-0.320290,0.738761,0.482185,0.023140,-0.375878,0.926380
0.069433,-0.564089,0.671269,-0.694509,0.703772,-0.149539
0.153157,0.301524,0.933048,0.846041,-0.530845,-0.049169
0.614106,-0.216002,0.646201,-0.650894,0.338791,0.679381
0.433471,-0.362631,0.455345,0.174223,0.496264,0.850511
0.240712,-0.056956,-0.949243,0.178963,0.132047,-0.974954
0.237006,0.414810,0.841274,0.876526,-0.411599,0.249577
-0.809001,-0.456733,0.376312,-0.039516,0.582047,0.812195
-0.412053,-0.249625,-0.978321,-0.086221,-0.052073,0.994914
-0.384983,0.469499,0.673261,0.835298,-0.527833,0.153851
0.278649,-0.718461,0.278886,0.860218,0.508863,-0.032905
0.179852,-0.379722,0.568294,-0.570541,-0.577161,-0.584267
-0.685269,-0.569042,0.391537,0.658673,0.475564,0.583085
-0.203091,-0.080394,0.764531,-0.653637,0.747911,0.115704
-0.102095,-0.758502,0.484850,0.128656,0.918497,-0.373913
-0.016299,-0.659307,0.670351,0.975837,-0.150808,-0.158109
0.836574,0.027659,0.573390,0.021654,0.453075,0.891210
0.522343,0.084162,0.728287,-0.617533,0.752458,0.229042
0.846372,0.274110,0.645774,0.498921,0.863448,0.074399
-0.194674,-0.119040,0.595625,0.296964,0.026686,-0.954516
0.090663,0.310522,0.698950,-0.224437,0.313797,0.922583
-0.002104,0.254579,-0.053532,0.554615,0.639374,0.532543
0.792168,0.044121,0.151683,-0.018004,0.350484,0.936395
0.734510,-0.004220,0.429798,0.624384,-0.067366,-0.778207
-0.194360,0.079906,0.702249,0.735437,-0.664048,0.134807
0.379204,-0.605943,0.514549,-0.393454,-0.632542,0.667147
0.201394,0.755014,0.629554,-0.592900,-0.363593,-0.718519
-0.306536,-0.153500,0.593012,-0.543421,-0.216395,-0.811090
-0.845178,0.173800,0.541247,-0.487219,-0.277100,-0.828150
0.396037,-0.507726,0.349511,-0.231789,0.899899,-0.369398
0.106680,-0.024449,0.759034,-0.454903,0.575978,0.679201
-0.105927,0.078023,0.742865,-0.631637,-0.000495,-0.775264
-0.009453,-0.301176,0.758076,0.776535,0.331890,0.535577
0.238828,0.616477,0.697540,0.322822,-0.887590,0.328589
0.067990,0.331868,0.870908,-0.668956,0.168889,-0.723861
-0.322301,-0.754107,0.286595,-0.106445,0.891074,-0.441199
0.314511,0.004849,0.800839,0.527756,0.798058,0.290821
-0.132305,-0.563252,0.118944,-0.614319,0.643877,0.456107
0.024526,-0.105995,-0.966860,-0.368880,0.031495,0.928943
-0.079107,0.458547,0.882990,-0.507792,0.495548,0.704684
-0.230034,-0.327404,0.441155,-0.678004,-0.320146,-0.661678
-0.317402,-0.050469,0.058214,0.388321,0.736885,0.553361
-0.666991,0.140874,0.335929,0.553183,-0.741480,-0.379732
-0.236128,-0.737993,0.421947,-0.618866,-0.447908,0.645277
0.225072,-0.452059,0.336860,-0.206317,0.309466,0.928259
-0.138084,0.824632,0.612480,0.922511,0.194554,-0.333351
-0.875200,0.122249,0.554285,0.808632,0.357473,0.467256
0.473479,-0.038262,0.734082,-0.550314,-0.821171,0.151104
0.334484,-0.384814,0.732284,-0.411886,0.725151,0.551821
0.229846,-0.607268,0.185301,0.321123,0.196722,-0.926380
0.145935,-0.017195,-0.964558,0.457548,-0.079806,-0.885596
-0.485099,0.264692,0.470492,0.624605,0.708296,0.328917
-0.047138,0.377141,0.847806,0.938925,0.286576,0.190512
-0.389882,-0.856441,0.458915,0.901237,-0.268575,-0.340058
-0.674717,-0.154686,0.674490,0.820140,0.060876,0.568916
0.029237,0.283318,0.726411,-0.785636,-0.567508,-0.246396
-0.339132,-0.422831,0.522607,0.744496,-0.586102,-0.319704
0.253902,-0.123923,0.670571,-0.087471,0.268508,0.959298
0.217535,-0.380140,0.636358,0.979789,-0.133576,0.148899
-0.245549,0.169684,0.853162,0.523898,0.522472,-0.672721
-0.556260,0.117925,0.343172,-0.270057,-0.339381,-0.901050
0.117797,0.222350,0.842025,0.821358,-0.558683,0.115082
-0.302516,-0.129434,0.735453,0.730136,0.679848,0.068618
0.072197,0.864811,0.398897,-0.210976,-0.581252,0.785898
-0.664919,-0.006522,0.296994,-0.335972,-0.112311,-0.935152
-0.034263,-0.201563,0.709505,0.413058,0.743204,0.526337
0.258362,-0.447804,0.470880,-0.430332,-0.454979,0.779621
-0.288447,0.391022,0.477451,0.938015,0.336117,-0.084582
-0.475239,-0.113390,0.304691,0.143981,0.783081,0.605023
-0.005935,0.459663,0.856564,-0.623114,0.086381,-0.777346
-0.025218,0.375397,0.630524,0.403408,0.563633,-0.720819
-0.288321,0.156500,0.318725,0.300858,0.514023,0.803284
-0.018622,0.122528,0.897490,0.767723,-0.199424,0.608959
-0.543763,0.644519,0.590089,-0.599999,0.369535,-0.709538
0.898376,-0.261972,-0.909015,-0.164047,0.114038,-0.979839
-0.368213,-0.443549,-0.993403,0.230867,0.237591,-0.943531
0.205163,0.203376,0.882149,0.301853,0.883022,0.359385
-0.087461,-0.713927,0.469470,0.908048,0.027950,-0.417933
-0.044311,-0.450106,0.167541,-0.476184,0.673091,-0.565859
-0.070628,-0.551254,0.116331,-0.333538,0.388409,-0.859006
0.273435,-0.284155,0.674011,-0.703741,0.391632,0.592767
-0.035582,0.360608,0.859228,-0.675930,-0.638964,0.367212
-0.517570,0.463082,0.589365,0.822484,0.390785,0.413287
0.057124,0.871369,0.472031,0.111192,0.482991,0.868537
0.939829,-0.327404,-0.905885,0.846166,-0.134287,-0.515723
0.014790,0.280109,0.943616,0.890510,-0.424979,0.162436
0.823195,-0.138223,0.146884,-0.198695,-0.084652,0.976399
-0.365449,0.027310,0.642243,0.555855,-0.114502,0.823356
0.728919,-0.083046,0.674555,-0.122218,0.762441,0.635410
0.090098,0.180984,0.882809,0.981638,0.044881,-0.185400
0.234934,0.166894,0.852592,-0.392255,0.440788,-0.807368
-0.905663,-0.171846,0.407511,0.792574,-0.414144,0.447561
-0.163082,-0.144362,0.068135,-0.293581,0.352441,0.888592
-0.075339,-0.572530,0.434080,0.950059,-0.197143,0.241915
0.367899,-0.048307,0.708018,0.753104,0.069805,0.654188
-0.796690,-0.320777,0.370672,0.055855,0.381717,0.922590
-0.658450,-0.651843,0.380076,0.566244,0.782510,0.258930
-0.313319,0.921454,0.484902,-0.240635,0.678485,0.694084
0.273309,0.357330,0.992420,-0.498940,-0.680989,0.536016
-0.617374,-0.517073,0.399337,-0.206900,-0.647372,-0.733555
0.258487,-0.122807,0.731896,0.799268,0.252399,0.545404
0.506014,0.353702,0.816491,-0.411230,0.368625,0.833670
-0.297868,-0.011684,0.734586,0.425398,0.632941,0.646856
-0.419214,-0.138014,0.772227,0.178625,0.871861,0.456017
0.496655,-0.387185,0.363817,-0.667849,-0.692100,-0.273815
-0.303521,0.419692,0.294071,-0.423535,-0.382371,-0.821225
0.843167,0.236580,0.253378,0.330438,-0.168403,-0.928683
0.714097,-0.468731,-0.931587,-0.179312,-0.343479,0.921884
-0.685081,-0.745597,0.423564,-0.265677,-0.759540,-0.593730
-0.385485,0.316382,0.314444,0.607647,0.370518,0.702483
-0.558585,0.687280,-0.728766,0.490075,0.870729,0.040715
0.163646,0.051167,-0.178160,0.972594,0.212759,-0.093780
0.058128,-0.120296,-0.972733,-0.368880,0.031495,0.928943
0.430268,-0.021659,0.495469,0.282097,0.662956,-0.693477
0.654618,-0.616058,0.463869,0.987316,-0.158480,-0.009492
0.071193,0.944404,0.608599,-0.060178,0.995195,0.077231
0.873253,0.056678,0.665319,-0.104576,0.302815,0.947295
0.761015,-0.089463,0.680285,0.311472,-0.773785,-0.551581
0.168671,0.255485,0.943655,0.364710,0.899439,0.240824
-0.652546,0.069513,0.654182,0.839601,0.131077,0.527151
-0.389945,0.396882,-0.025010,-0.501378,-0.171533,-0.848055
-0.387118,0.014265,0.666483,-0.776164,0.615717,-0.135877
-0.625790,-0.356702,0.376209,0.211823,0.695824,0.686266
-0.693810,-0.531234,0.397823,-0.486923,0.353873,0.798549
-0.535220,0.196820,0.670623,0.794510,0.188514,0.577249
0.262506,-0.041470,0.814796,0.866927,0.112726,-0.485522
0.558395,-0.621011,0.526125,0.405150,-0.624475,0.667746
0.066984,0.368770,0.906221,-0.326850,-0.552192,-0.766977
-0.069750,-0.637613,0.492895,0.693913,-0.397689,-0.600273
-0.963446,-0.085417,0.434390,-0.646265,-0.292953,-0.704642
-0.458657,0.793450,0.607655,-0.053386,-0.987467,0.148520
0.023270,-0.371002,0.471889,-0.667894,0.720749,-0.185578
