0.343695,0.004803,0.717110,0.652876,-0.029832,-0.756877
-0.449617,-0.146735,0.583181,0.069091,0.647090,0.759276
0.328339,0.151737,0.872977,0.960207,-0.262979,0.094050
-0.359195,0.190289,0.501974,0.015092,-0.671871,0.740514
0.091646,-0.082706,-0.127353,0.251460,0.967512,0.026253
0.573937,-0.383512,-0.166549,0.263396,-0.876216,0.403568
-0.484849,0.218168,0.579305,-0.438386,0.852042,-0.286081
-0.313430,-0.139398,0.663125,0.812782,-0.451649,-0.367967
-0.267736,0.525979,0.664733,0.493388,0.114044,-0.862301
0.402293,0.802241,0.644446,0.496764,-0.867299,-0.031909
0.106405,-0.750084,0.706471,0.388995,-0.902748,-0.183652
-0.080592,0.038484,0.889202,0.332111,-0.919612,0.209800
0.437008,-0.326552,0.671366,-0.524046,0.453380,0.720987
0.223676,-0.403122,0.763816,-0.324116,0.887283,-0.328142
0.284944,0.607150,0.696535,-0.343900,-0.766280,0.542722
-0.595965,-0.214167,0.393444,0.037099,-0.154293,-0.987328
0.001520,-0.056827,0.739767,-0.426599,0.805316,-0.411679
0.013164,-0.505769,0.716780,-0.601842,0.792356,-0.099792
0.374921,-0.014540,0.466310,-0.337133,0.819371,0.463651
0.061602,-0.591743,0.745395,-0.704863,-0.103592,0.701739
0.420837,-0.032949,0.765409,-0.582028,0.812117,-0.041341
-0.454511,-0.218568,0.721690,0.938920,0.011042,0.343957
0.584767,-0.074701,0.594323,0.330203,-0.558564,-0.760902
0.878500,-0.313880,0.088357,0.349120,-0.408479,0.843362
0.481363,0.175149,0.619995,0.226166,-0.939310,-0.257963
-0.021624,0.154338,0.891283,0.273933,0.806444,-0.524031
0.125841,-0.045821,0.771440,-0.590378,0.074215,0.803708
0.085860,-0.121123,-0.842324,-0.917981,0.229130,-0.323744
0.252085,-0.599480,0.224454,0.242504,0.090490,0.965921
0.196825,-0.836457,0.768726,-0.306034,0.952020,-0.001109
0.105440,-0.608417,0.773392,0.140909,-0.930007,0.339459
-0.366466,0.285600,0.615529,-0.297204,0.917247,0.265193
-0.150465,0.160609,0.824061,0.843916,0.376823,-0.381851
0.366020,-0.035483,0.856021,0.966125,-0.228110,-0.120700
-0.189259,0.466151,0.674697,-0.239942,-0.809709,0.535536
0.219597,-0.576870,0.805712,-0.020142,0.400865,0.915916
-0.565034,0.631362,0.492871,0.139737,-0.456516,0.878673
0.027928,-0.395918,0.788037,0.354471,-0.757876,0.547699
0.914329,-0.203829,0.399876,0.306056,0.951539,-0.030050
-0.220933,0.229640,0.750922,-0.380758,-0.584741,0.716311
0.291844,-0.213700,0.825482,0.709443,0.078070,0.700425
0.158030,-0.828987,0.770650,-0.103489,-0.994586,-0.009471
0.096612,-0.113453,0.455096,-0.529681,-0.003159,0.848191
-0.289469,0.303008,0.765668,0.995154,0.013901,0.097341
0.529135,0.013673,0.753995,0.738070,-0.300920,0.603904
0.119534,-0.023944,0.495987,-0.408990,-0.228571,0.883449
0.260171,0.700126,0.672400,-0.652657,0.603975,0.457442
-0.185699,0.431601,0.379833,-0.150427,-0.238234,0.959487
0.095426,-0.143600,-0.519089,-0.967258,0.223463,-0.120321
-0.023104,-0.123057,0.513173,0.843963,-0.535240,0.035274
0.645737,-0.092976,0.515858,-0.450254,0.835801,-0.314178
0.479361,-0.497699,0.605795,-0.252177,0.105231,0.961942
0.241627,0.415394,0.750406,0.489713,-0.857968,-0.155154
0.294814,-0.358568,0.851771,0.721646,0.156102,0.674432
0.010199,-0.229507,0.038105,-0.840465,0.533444,-0.095162
0.391613,-0.007537,0.849086,0.870900,-0.315031,-0.377212
-0.392797,-0.517441,0.362791,0.556499,-0.014438,0.830723
0.195344,0.150937,0.831584,0.911895,0.082086,-0.402130
0.601156,-0.315814,0.542693,0.923944,0.270482,0.270495
0.316323,0.236244,0.837801,0.775133,0.510204,-0.372640
0.257577,0.311745,0.795431,-0.322442,0.919348,0.225458
-0.545599,-0.216301,0.547187,-0.025338,0.336045,0.941505
0.004635,0.006269,0.613935,0.197927,-0.042755,0.979284
0.426844,-0.167478,0.725165,0.014581,-0.934994,0.354363
-0.956089,0.256986,0.497480,-0.202745,0.561634,0.802161
0.656643,-0.089241,0.789229,0.943348,-0.166190,0.287186
-0.228869,0.189089,0.718445,0.151237,-0.619787,0.770059
0.147649,-0.274729,0.882511,0.982798,0.062392,0.173826
0.238956,-0.372508,0.864348,0.870057,0.476252,0.127223
0.195788,0.222571,0.401542,0.233566,0.604819,-0.761341
-0.012945,-0.162210,0.879352,0.531972,-0.290211,0.795477
-0.072060,-0.175615,-0.432425,0.935159,-0.348492,0.063494
-0.251716,-0.361035,0.712257,0.602205,0.792958,0.092557
0.066351,0.172214,-0.519261,0.852855,0.377555,-0.360681
-0.225976,0.453345,0.669643,-0.010556,0.749878,-0.661492
0.241777,0.489295,0.674683,-0.367582,0.870634,-0.326925
0.102769,-0.815648,0.494580,0.101985,-0.988062,0.115468
0.275528,-0.121323,0.391980,0.117398,-0.337050,0.934139
-0.665541,-0.403321,0.414694,0.059519,-0.197684,0.978457
-0.365649,0.042754,0.542607,-0.231722,-0.337208,0.912467
-0.213664,0.551257,0.384916,0.496579,0.217665,-0.840257
-0.228647,0.494231,0.679909,-0.387477,0.764040,-0.515853
0.126655,0.467418,0.595328,-0.666101,0.449809,-0.594963
0.409192,-0.037217,0.861190,-0.513405,0.844887,-0.150272
0.540037,0.106584,0.711238,0.591263,-0.768227,-0.245428
-0.369802,-0.538318,0.374736,0.455928,-0.090957,0.885357
0.049659,-0.041153,0.291964,-0.752351,0.632673,-0.183558
-0.310388,-0.622957,0.364987,0.176601,-0.652287,0.737112
0.421059,0.134929,0.415943,-0.320567,0.776564,-0.542389
0.173830,-0.005069,0.341067,0.847143,0.520507,0.106868
-0.074881,0.384312,0.739982,0.277036,0.960495,-0.026470
0.285764,0.678450,0.676277,0.515739,-0.539064,-0.665900
0.414829,-0.061362,0.771138,0.401204,-0.725396,-0.559318
0.419574,0.447142,0.801548,0.487054,0.849124,0.204370
0.387534,0.460214,0.770478,0.706850,0.046824,-0.705812
0.052552,-0.579004,0.698172,0.499810,-0.713826,0.490554
0.396208,-0.028814,0.694784,0.765111,0.439011,0.471035
0.189038,-0.191356,0.887062,0.806640,-0.227403,-0.545545
0.122427,-0.287801,0.867579,0.487871,0.868362,0.089045
0.442423,0.452478,0.786515,0.510755,0.843590,-0.165786
-0.029261,0.293203,0.652271,-0.292818,-0.649997,0.701258
-0.591515,0.569399,0.472699,0.491948,0.453537,-0.743163
0.132070,-0.754553,0.679148,-0.202658,0.893780,0.400110
0.363426,-0.269325,0.802452,0.112429,0.742485,0.660360
0.060638,-0.250451,0.841850,-0.545731,-0.783344,0.297572
0.037349,-0.779097,-0.257520,0.742413,0.493896,-0.452647
-0.128063,-0.776363,0.633003,0.977818,-0.114806,0.175188
0.102253,-0.238111,0.828569,0.003060,-0.668769,0.743464
-0.581500,-0.304076,0.584057,0.915992,0.401156,-0.005734
0.087417,-0.370573,-0.030754,-0.711043,-0.113758,0.693885
-0.220043,0.469353,0.682623,0.661298,-0.603489,0.445518
0.135185,-0.453945,-0.489569,0.944920,-0.100489,-0.311494
0.588697,0.106116,0.716277,0.524294,-0.253091,-0.813056
0.278493,0.615487,0.621315,0.130869,-0.968916,-0.209941
0.547752,0.035284,0.775819,-0.315589,-0.837620,0.445865
-0.176205,0.220103,0.823185,0.994639,0.087892,0.054478
0.274043,-0.678183,0.685638,0.172963,-0.980708,0.091075
-0.102104,-0.396318,0.809315,-0.617353,0.762472,0.193677
0.620297,-0.150070,0.747836,-0.529272,-0.309963,-0.789806
-0.192299,0.067698,0.647647,0.340902,0.719071,0.605576
-0.342507,-0.041820,0.626111,-0.154352,-0.811897,0.563026
0.718133,0.108117,0.753622,0.513624,-0.856744,-0.046700
0.143792,-0.832522,-0.212982,0.467591,0.663968,-0.583528
0.022142,0.120723,0.506597,0.047157,-0.452959,0.890283
-0.383153,0.051557,0.691553,-0.207692,0.230578,-0.950630
-0.178133,0.604282,0.698818,-0.032313,0.998919,-0.033431
0.102624,-0.429600,0.706557,0.943577,-0.245226,-0.222546
-0.262842,0.166878,0.659521,-0.281787,-0.895652,0.344099
0.474318,0.493163,0.493489,0.386923,0.737983,-0.552875
-0.191113,-0.276863,0.333716,-0.496285,-0.269120,0.825394
-0.043504,0.792036,0.493704,-0.328541,-0.246528,0.911748
0.193189,-0.034417,0.697296,-0.725819,0.670611,0.153194
-0.074510,0.461949,0.665365,-0.573664,0.598521,-0.559179
0.006120,0.315214,0.660727,-0.609006,0.786675,-0.101263
0.076067,-0.077702,-0.686083,0.953169,0.185713,-0.238704
0.446652,0.275395,0.451564,0.231398,-0.775466,0.587459
-0.526090,-0.325419,0.395655,0.227142,0.394429,0.890411
-0.002781,0.233709,0.600296,0.330530,-0.025621,-0.943448
-0.202611,0.433335,0.551422,-0.013044,-0.283490,0.958887
-0.170419,-0.166211,0.833781,0.265002,0.960921,-0.080034
-0.601527,0.151604,0.444070,0.691326,-0.531419,0.489554
0.782593,0.327419,0.498571,-0.407573,-0.798060,0.443829
0.419945,-0.302341,0.805510,-0.206282,0.860891,0.465095
0.105961,-0.118589,0.877270,0.035421,0.915048,-0.401786
-0.618217,-0.290403,0.610303,-0.335232,0.646427,-0.685384
-0.318992,0.441272,0.698043,0.927983,0.345316,0.140017
0.088902,0.079170,0.824032,-0.469983,-0.698330,0.539862
-0.302673,-0.162142,0.730075,-0.770805,-0.427844,0.472027
-0.912620,0.396251,0.557438,-0.026264,-0.177260,0.983814
-0.164411,-0.187554,0.827392,0.294978,0.881454,-0.368817
-0.635575,0.239645,0.460710,0.871174,-0.234860,0.431158
-0.005081,0.736810,0.588523,0.026589,0.430741,0.902084
-0.458443,-0.184086,0.744375,0.733087,-0.661216,-0.159302
-0.308088,0.557393,0.727878,0.948366,0.210053,0.237655
0.243633,0.522444,0.722308,-0.421496,0.213588,0.881318
-0.190891,-0.581538,0.705581,0.839476,0.114873,-0.531116
-0.106108,-0.636964,-0.258037,-0.733538,0.214507,0.644910
-0.315210,0.570600,0.721101,0.834071,-0.350847,0.425713
0.244597,-0.097913,-0.525033,0.839716,-0.526357,0.133513
0.154544,0.095512,0.503123,0.923028,-0.056674,-0.380535
0.341912,-0.097046,0.843343,0.761571,0.569074,-0.310104
-0.524386,-0.464617,0.623986,0.359929,-0.584227,-0.727414
0.070874,-0.065431,0.462347,-0.277702,0.092832,-0.956172
0.407486,0.711665,0.626886,0.657406,0.278367,-0.700235
0.306382,-0.373375,0.794972,-0.840729,0.489776,0.230857
-0.701368,0.283066,0.652917,0.048767,0.705102,0.707427
-0.046918,0.264190,0.810694,0.170916,-0.978230,0.117699
-0.537959,0.089442,0.587948,0.076935,-0.472937,0.877731
0.169307,-0.060161,0.437580,0.292502,0.952429,-0.085571
-0.207432,0.304742,0.635644,-0.275356,-0.892625,0.356930
0.156993,-0.244180,-0.981522,0.037251,-0.249186,0.967739
-0.272558,-0.636364,0.376359,-0.518144,0.325678,-0.790861
-0.541076,0.336757,0.682278,-0.646292,0.047324,-0.761622
0.193787,0.052291,0.926101,-0.206885,0.862461,-0.461909
0.062195,-0.041086,-0.995205,0.366484,-0.098204,-0.925227
0.199568,-0.289468,0.871025,0.690349,0.610321,0.388492
0.142900,-0.324018,0.488377,0.958605,0.114092,0.260883
-0.261952,0.511773,0.646327,-0.444732,0.375525,-0.813139
-0.414012,-0.358901,0.590504,0.284455,-0.598948,0.748563
-0.302302,0.295738,0.631667,0.021526,-0.954267,0.298179
0.366613,0.036016,0.654625,-0.576534,0.644275,0.502512
-0.550495,0.510305,0.569599,-0.672005,0.677490,-0.299027
-0.534326,-0.676983,0.474694,0.732901,0.093525,-0.673876
0.074953,-0.601681,0.757742,0.919378,0.033254,-0.391966
0.484034,-0.009338,0.724921,0.870731,-0.436730,-0.226043
0.752255,0.291803,0.482290,-0.289501,-0.738316,0.609163
0.598784,-0.006736,0.765840,-0.311401,0.931953,-0.185725
0.285764,-0.524245,0.766113,0.981963,-0.188674,-0.012322
-0.135038,-0.123057,0.692487,-0.065594,0.922338,0.380776
0.361868,-0.343027,0.801634,-0.729641,0.677937,0.089588
-0.467197,0.406189,0.642005,-0.469722,0.299441,-0.830480
0.442423,-0.355566,-0.375038,0.857420,0.246264,0.451869
0.215667,-0.077436,0.458456,-0.178365,-0.037596,0.983246
-0.183695,0.520643,0.466137,-0.796611,0.350780,-0.492305
0.005083,-0.361436,0.793034,0.948776,-0.314462,0.030612
-0.116270,-0.190356,0.842582,0.115075,0.938495,-0.325553
-0.762340,-0.329820,0.409611,-0.498687,-0.193912,0.844813
0.256762,-0.214900,-0.184080,0.643274,0.632414,-0.431568
0.229833,-0.284199,0.848828,0.869731,-0.156175,-0.468164
-0.761303,-0.399520,0.412052,0.353040,0.196219,-0.914801
-0.124948,-0.417261,0.852489,0.107678,-0.989807,-0.093204
0.304602,-0.013940,0.822984,-0.496044,0.852901,-0.162788
-0.166783,-0.618089,0.028845,0.971935,-0.235174,0.005948
0.510664,-0.032148,0.529555,0.221009,0.953095,-0.206797
0.433296,-0.189222,0.786731,-0.637955,0.575124,0.512099
0.297780,-0.199893,0.904679,0.907710,-0.368116,-0.201380
0.201497,0.144000,0.688165,0.090589,-0.688011,0.720024
-0.583207,-0.599280,0.517667,-0.063057,0.981951,-0.178314
-0.546119,0.538318,0.470445,0.536378,0.353053,-0.766585
0.111896,-0.483693,0.781361,-0.100167,-0.876095,-0.471619
0.016655,-0.264524,0.851312,0.825669,0.270295,-0.495187
0.646778,-0.007337,0.508033,0.754270,-0.079359,-0.651750
-0.762861,0.372641,0.612974,0.463925,-0.770323,-0.437467
0.100918,0.367439,0.768223,-0.042894,0.996186,0.075981
0.094462,-0.860735,0.769200,-0.045499,0.962872,0.266097
0.625264,-0.009338,0.776034,-0.121832,-0.101481,0.987349
-0.162482,0.118656,0.757139,-0.606758,0.758228,0.238611
0.328267,-0.120723,0.833867,0.807039,-0.005497,-0.590472
-0.384489,0.023611,0.695818,0.343018,0.003207,0.939323
0.623041,-0.070299,0.532168,0.249485,0.915474,-0.315696
-0.173534,0.740945,0.524760,-0.422644,-0.514278,0.746251
0.170195,0.123858,0.469267,0.977456,-0.137158,0.160521
-0.106998,-0.719470,0.560353,-0.252476,-0.849608,0.463058
0.557024,-0.251984,0.506124,0.812783,-0.369419,-0.450459
0.402143,-0.242446,0.794599,0.915093,-0.209085,0.344803
-0.391018,0.261589,0.648997,0.839483,0.515660,-0.171357
-0.665541,-0.419329,0.597855,0.800772,0.558088,0.217489
0.198830,0.145001,0.787032,0.899414,-0.172605,-0.401574
-0.490562,-0.149537,0.578702,0.952926,0.060058,0.297196
-0.176205,0.879677,0.509828,0.052660,0.958470,0.280291
0.150614,-0.029480,-0.447960,0.895302,-0.440209,0.068188
0.140527,0.596679,0.641172,-0.813639,-0.368214,0.449899
0.451695,0.452412,0.787377,0.532011,0.831901,-0.157813
0.202909,0.022611,0.914902,-0.142525,-0.958829,0.245630
0.460668,0.561796,0.513475,0.078427,-0.816262,0.572333
-0.121091,-0.175549,0.862769,0.824751,0.525712,0.208356
0.006641,-0.472020,0.818375,0.840561,0.518574,0.156644
0.071689,-0.511639,0.466913,-0.094308,-0.641671,0.761160
-0.412826,-0.161809,0.706012,0.850142,0.416585,0.322048
-0.460150,-0.164543,0.600353,-0.770948,0.430418,0.469447
0.330268,0.228506,0.870766,-0.309540,-0.944573,-0.109390
-0.595816,-0.389982,0.585823,0.446241,0.268688,0.853625
0.027407,0.416261,0.619391,0.375335,0.528906,0.761172
0.421873,0.531715,0.512441,0.261056,-0.807940,0.528283
0.096390,-0.147936,0.846171,-0.385626,-0.752460,0.533944
-0.061899,-0.544921,0.719996,-0.519787,0.819118,0.242628
-0.306753,-0.418128,0.719608,0.489098,0.658761,0.571679
-0.136668,0.369239,0.723069,-0.374248,0.647570,-0.663770
0.516599,0.348696,0.678229,-0.704331,0.709282,0.028920
0.187702,-0.307678,0.778504,0.088824,0.887982,0.451218
0.050773,0.447076,0.619133,0.158778,0.745972,0.646773
0.069244,-0.090109,-0.693090,0.985940,-0.122752,-0.113377
0.754999,0.676849,0.556462,-0.075945,-0.493790,0.866258
-0.116566,0.057360,0.842941,0.094551,-0.854847,0.510193
0.253348,-0.150070,0.899410,0.800656,0.453064,-0.392024
-0.290287,-0.070699,0.733234,-0.607843,0.362781,0.706340
0.187109,0.355700,0.747764,0.585144,-0.804666,-0.100594
0.071173,-0.735076,-0.199256,0.941064,0.243306,-0.234948
-0.350147,0.720536,0.508004,-0.339066,0.027645,0.940356
0.057301,0.105116,0.887536,-0.597944,-0.047306,-0.800140
-0.618738,-0.046822,0.523166,0.438614,-0.158191,-0.884643
0.230798,-0.236844,0.091530,-0.052641,0.167675,0.984436
-0.050847,0.174415,0.857270,-0.397543,0.887078,-0.234632
-0.482848,0.376576,0.555270,-0.116910,0.718499,0.685632
-0.211140,-0.367771,0.667131,0.556416,0.781467,0.282331
-0.280197,-0.257921,0.705796,0.973806,0.103623,0.202398
-0.011903,-0.184419,0.830909,-0.283073,0.952646,-0.111063
0.191487,-0.107650,-0.831613,0.772128,-0.627525,0.100153
-0.904016,0.177017,0.496145,0.178723,0.479819,0.858972
0.457481,-0.290536,0.486769,0.033503,0.994770,0.096494
-0.358305,0.344628,0.688596,-0.711677,0.654377,-0.255553
0.067166,0.765691,0.573878,0.946089,0.268817,0.180703
-0.012275,0.456147,0.682192,0.088204,0.848431,0.521904
-0.770946,0.643901,0.576993,-0.597169,0.799461,-0.065207
0.604420,-0.104249,0.771253,-0.660718,0.701163,-0.267998
-0.630085,-0.082772,0.523267,-0.447668,0.189493,0.873891
-0.355858,0.189821,0.562808,0.227196,0.887406,-0.401114
0.714425,0.561529,0.540984,-0.380229,0.511810,-0.770374
-0.296073,0.467752,0.693678,-0.676748,0.218066,-0.703178
0.077032,-0.336357,0.853408,-0.578902,0.444644,0.683494
0.001226,-0.771026,0.710032,-0.501838,-0.211805,-0.838628
-0.503988,-0.129593,0.577410,0.966626,-0.025400,0.254930
-0.002487,0.045688,0.549527,0.314639,-0.343970,0.884696
-0.016209,-0.064297,0.911930,0.842592,0.291439,-0.452882
-0.523496,0.269726,0.664503,-0.126220,-0.903582,-0.409399
0.119013,-0.112186,-0.740930,0.984732,-0.167214,0.048392
-0.104698,-0.604949,0.722652,0.905615,-0.028480,0.423142
0.469791,0.077837,0.835532,0.873488,-0.263288,0.409509
-0.463190,0.403389,0.670964,0.153383,0.769331,-0.620165
-0.292587,-0.262722,0.572456,0.441660,0.019322,0.896975
-0.508438,-0.226973,0.745481,-0.416492,-0.559285,-0.716753
0.511478,-0.059160,0.734526,0.600210,-0.319647,-0.733194
-0.225829,0.006736,0.630059,-0.588199,0.714429,-0.378963
0.040315,-0.142600,0.870651,0.733770,-0.399411,0.549593
-0.045727,-0.168813,-0.517552,0.997811,0.026270,-0.060694
-0.261654,0.035483,0.764634,0.987937,0.154759,0.005510
0.431295,0.327220,0.705724,0.728874,0.610220,0.310441
-0.345176,0.128994,0.569542,0.407792,0.792758,-0.453035
-0.015616,0.344961,0.655918,-0.635280,0.771174,0.041360
-0.180209,-0.329420,0.576505,0.123311,-0.259491,0.957841
0.159071,0.255053,0.680067,0.700547,0.370632,0.609808
-0.018731,0.571267,0.557897,-0.712366,0.298164,-0.635321
-0.090457,0.184219,0.878433,0.238388,-0.876230,0.418800
0.219076,-0.259188,-0.341039,0.879348,0.368831,0.301181
0.411266,0.078503,0.823587,0.811856,0.312790,-0.493003
-0.537441,-0.262390,0.612083,0.327741,0.402587,-0.854699
-0.283758,-0.228506,0.735014,0.712683,0.662739,-0.229913
-0.413197,0.342293,0.456302,-0.196880,-0.610002,0.767552
0.348069,-0.294470,0.673003,0.168231,0.594470,0.786323
-0.789712,-0.247182,0.418599,0.311441,0.916312,-0.251748
-0.268331,0.282599,0.757570,0.827045,-0.391496,0.403395
-0.217297,0.211366,0.812230,0.889566,0.424693,-0.168248
0.284057,-0.036016,0.455943,0.275060,-0.192625,-0.941933
0.472390,0.076036,0.697555,0.953660,0.170580,-0.247862
-0.512665,0.018609,0.683111,0.935673,0.320475,-0.147688
0.159221,0.014807,-0.717684,0.753147,-0.657483,0.022030
-0.740385,0.381044,0.618947,-0.040149,0.790776,0.610787
0.275451,0.558728,0.723758,-0.722115,0.588049,0.364346
0.101361,-0.396251,0.832000,-0.460318,-0.805397,-0.373421
0.233396,-0.370307,-0.311275,0.698473,-0.318149,0.641028
0.353932,-0.031348,0.843243,-0.656212,-0.087058,0.749538
-0.320031,0.121790,0.562420,0.340034,0.715274,-0.610541
0.451473,-0.055559,0.793077,-0.828496,0.408266,0.383293
-0.006344,-0.283933,0.476647,0.176768,0.750112,0.637248
0.552723,-0.299140,0.527359,0.931754,-0.081342,-0.353863
0.405557,0.574869,0.718244,0.990176,0.077924,-0.116103
0.112118,-0.100180,0.894485,0.273803,0.867947,-0.414367
0.293551,0.536450,0.549757,-0.235447,0.916270,0.324057
0.120869,-0.017275,0.172637,-0.527865,-0.834542,0.157791
-0.676891,-0.519509,0.388333,-0.112903,-0.772717,0.624629
-0.184660,0.221303,0.823960,0.787791,0.493564,-0.368483
0.171829,-0.297139,0.894514,0.968401,0.214075,0.127952
0.437674,0.397986,0.473934,-0.462353,-0.610276,0.643267
0.207138,-0.087708,0.960875,0.857676,-0.190274,0.477690
-0.375070,0.883213,0.481041,0.526658,0.338076,0.779959
-0.319142,-0.262456,0.784563,0.124498,0.844181,0.521400
0.114491,-0.632095,0.832848,0.300745,0.893265,0.334110
0.248228,-0.143067,0.770076,0.286136,0.838891,0.463021
-0.058041,0.251984,0.523295,0.266593,-0.687981,0.674989
-0.595001,-0.341226,0.605824,0.490620,-0.510146,0.706430
0.117311,-0.091777,0.930710,0.872168,-0.347670,-0.344165
-0.469198,0.369239,0.393401,0.825211,0.473480,-0.307966
-0.787634,0.401320,0.601258,-0.656973,0.744713,0.117431
-0.525054,-0.475423,0.406826,0.710864,-0.055932,0.701102
0.046400,-0.192223,0.859524,-0.799722,0.325315,0.504594
-0.146979,0.485560,0.562908,-0.203909,0.059675,0.977169
-0.209064,-0.232842,0.754009,0.430735,0.893231,-0.128860
-0.161890,0.126993,0.867105,-0.194469,0.854844,-0.481065
-0.360456,0.278997,0.641833,0.705857,-0.583950,-0.400959
0.372920,-0.611352,0.507559,-0.744888,-0.215984,0.631262
0.226053,-0.201894,0.467214,-0.274381,0.503419,0.819320
-0.281830,-0.156006,0.821132,0.972144,-0.153670,0.176977
0.387534,0.048089,0.820758,0.632700,-0.768548,-0.094998
-0.096390,-0.543988,0.707505,0.171026,0.982510,0.073650
0.017692,-0.084239,0.897960,0.896625,-0.106153,0.429879
-0.718577,0.407323,0.585378,0.865350,0.111516,0.488604
-0.274636,0.291336,0.746414,0.941728,-0.265822,-0.206122
0.754999,0.307811,0.528177,-0.669736,-0.695095,-0.261336
0.228498,-0.546856,0.634266,0.183204,0.263627,0.947068
0.195566,-0.060362,-0.191115,-0.865782,-0.384513,-0.320267
0.087567,-0.007270,-0.701087,0.906454,-0.416872,-0.067517
0.248748,-0.302941,0.742739,0.755183,-0.301947,-0.581831
-0.497831,-0.262056,0.760901,-0.463452,0.586512,0.664241
-0.677856,-0.133729,0.523037,-0.387586,-0.036688,0.921103
0.517341,-0.107250,0.734670,-0.541010,-0.002833,0.841012
-0.618217,0.415461,0.664331,-0.633119,0.768045,-0.096265
0.189631,0.028814,0.349969,-0.594310,-0.773634,0.219739
-0.170344,0.420930,0.748841,-0.362304,-0.715945,-0.596791
0.110706,0.538451,0.717325,0.708107,0.045596,-0.704632
0.140156,-0.287134,-0.083591,0.410362,0.123231,0.903558
0.362239,0.534583,0.705437,0.125734,0.970819,0.204211
-0.289469,0.378977,0.742983,0.047436,-0.920230,0.388492
0.021400,-0.372107,0.856509,-0.062540,0.774815,0.629087
-0.343693,-0.422197,0.577912,0.269659,-0.659874,0.701320
-0.217594,0.471554,0.705538,0.723902,-0.311351,0.615651
-0.154546,0.411659,0.670849,0.900190,0.210300,-0.381355
0.169973,-0.109918,0.881506,0.297371,0.928414,-0.222752
-0.163075,-0.496966,0.101796,0.811872,-0.549353,0.197676
0.221675,0.103849,0.834039,0.792082,0.589590,-0.158079
-0.179320,0.021477,0.632026,0.391561,0.918936,0.047303
-0.023326,0.054892,0.832144,-0.000399,-0.995250,0.097351
0.305494,-0.366104,0.798748,-0.723741,0.620390,-0.302184
-0.014353,-0.592277,0.745251,0.127589,0.920018,0.370524
-0.363573,0.441139,0.657985,-0.493907,0.809580,-0.317232
-0.128360,-0.648903,0.061753,0.917756,-0.380850,-0.112598
0.168194,0.467085,0.611839,0.781416,-0.043366,0.622502
0.063830,-0.036150,0.122514,-0.230091,0.972256,-0.042156
-0.318770,0.089042,0.691209,-0.489059,0.443614,-0.751018
0.134963,-0.648570,0.669601,-0.542305,0.194149,0.817442
0.232505,-0.325552,0.844965,0.423694,0.389803,-0.817641
0.082890,-0.104382,0.935247,0.961578,0.027096,-0.273192
0.051144,-0.053892,0.297822,0.794272,-0.606785,-0.030739
-0.555242,0.414127,0.667088,-0.242024,0.947266,0.210027
0.504063,-0.105449,0.554753,-0.538204,0.680080,0.497822
0.398286,-0.039751,0.867220,0.102467,-0.962996,0.249276
0.279236,-0.403522,-0.336573,0.856935,0.403274,0.320987
-0.056928,0.626026,0.461586,-0.767277,0.635692,-0.084742
-0.427587,0.767625,0.485061,0.836038,-0.433926,-0.335782
0.268107,-0.088641,0.458901,0.041564,-0.953496,0.298525
-0.377739,0.106116,0.680110,0.995984,-0.049656,-0.074506
0.156993,-0.035483,-0.269336,-0.707171,0.696580,-0.121182
-0.526982,0.019676,0.408678,0.057404,-0.521717,0.851185
-0.033712,0.203896,0.802567,0.291913,0.559970,-0.775384
0.305938,-0.257320,0.545981,-0.826951,0.043740,0.560570
-0.398211,-0.236911,0.382805,-0.328070,-0.472567,-0.817955
0.253719,-0.040419,0.505621,-0.135812,0.296917,0.945196
0.029187,-0.071700,-0.995377,-0.371851,0.113706,0.921302
-0.835330,-0.405390,0.412454,-0.127946,-0.299207,0.945571
0.205875,0.104515,0.843070,-0.142037,-0.987203,0.072491
0.442717,0.497433,0.770033,0.717029,0.450843,-0.531611
0.159886,0.133463,0.515901,-0.735768,0.675974,-0.041274
0.187553,-0.132529,0.888039,0.777053,0.488627,-0.396777
0.324780,0.132328,0.591451,-0.423765,0.867380,0.260913
-0.137928,-0.628227,0.582909,-0.096139,0.856871,0.506488
0.255798,-0.502634,0.784678,-0.860260,0.506250,0.060526
-0.412008,0.234910,0.595141,0.316189,0.772441,-0.550781
-0.545302,-0.411525,0.475341,-0.330184,0.202256,0.921993
0.253570,0.095445,0.887048,-0.157126,-0.985074,0.070295
-0.017911,0.865204,0.555299,-0.001163,0.822728,0.568434
-0.401476,0.769559,0.494939,0.734644,-0.587013,-0.340167
-0.424323,0.325285,0.454307,0.261851,0.659348,-0.704765
-0.611838,0.461482,0.588163,-0.180095,0.719126,-0.671136
0.518822,-0.126859,0.675200,-0.010489,-0.960866,0.276816
-0.532469,-0.625359,0.394665,0.155668,-0.721767,0.674403
-0.592108,-0.254920,0.553274,-0.738330,-0.280402,-0.613386
0.195638,0.662042,0.651495,-0.739502,0.218290,0.636778
0.192374,-0.194357,-0.985614,0.157402,-0.369430,0.915831
-0.163001,0.394051,0.374923,-0.088820,-0.281167,0.955540
0.041650,-0.545121,-0.548249,0.999413,-0.025934,-0.022377
0.125841,-0.078971,-0.052463,0.052958,0.977694,0.203246
0.370176,-0.037151,0.864980,0.217723,-0.960312,0.174349
-0.086675,-0.335890,0.788008,0.160497,0.688946,0.706820
-0.440195,-0.693657,0.521845,-0.418730,-0.751324,0.510076
-0.125542,-0.641099,0.724878,0.880764,0.434099,0.189243
0.412307,-0.178817,0.788870,0.566669,-0.369351,-0.736523
0.066275,-0.033015,-0.714813,0.935347,-0.352143,-0.033493
0.275822,0.115587,0.837270,-0.558633,0.599265,-0.573420
-0.389385,0.634230,0.372712,0.561039,0.419047,-0.713887
0.766643,0.563996,0.540912,0.425042,-0.308553,0.850961
0.106554,-0.067631,-0.238783,0.951716,-0.306727,-0.012459
-0.269739,0.229841,0.591279,-0.620985,0.486128,0.614863
-0.551756,0.428267,0.568264,0.864737,0.444831,0.233142
-0.181248,0.973721,0.454622,-0.275652,-0.199072,-0.940418
0.273228,0.305276,0.750621,0.355008,-0.654739,0.667298
-0.319438,0.546388,0.490646,-0.660666,0.245477,-0.709409
0.036756,-0.622090,0.755330,0.716985,0.150179,-0.680720
0.009977,0.453879,0.696780,-0.758695,0.177667,-0.626750
-0.210696,-0.617022,0.623713,0.973016,0.055883,-0.223868
0.746248,0.342960,0.544186,0.796406,0.578880,0.175031
-0.117309,-0.127059,0.831139,-0.155501,-0.062317,0.985868
-0.574676,0.370372,0.640684,0.476985,0.754074,-0.451507
-0.154175,0.232175,0.729429,-0.522564,0.370033,0.768116
0.429887,-0.303609,0.065084,-0.602188,-0.749606,-0.274702
-0.317731,-0.226106,0.798346,0.930658,0.339979,0.135239
0.490784,0.110585,0.826688,-0.038757,-0.998842,0.028522
0.344583,-0.084106,0.824290,0.818183,-0.443954,-0.365352
-0.377739,0.792570,0.483123,0.726386,-0.490976,-0.480943
-0.273893,-0.259788,0.776479,-0.690078,0.702395,0.174449
0.196901,-0.513040,0.232265,-0.006440,0.494668,0.869058
0.524829,0.042887,0.513661,-0.062892,-0.997744,-0.023499
0.246969,0.325018,0.704734,-0.577206,-0.050114,0.815059
-0.617031,0.195425,0.582521,-0.362798,-0.278580,-0.889253
0.094833,0.740812,0.601229,-0.187704,0.558657,0.807880
0.078367,0.783767,0.586383,0.824552,0.556548,-0.101824
-0.174795,-0.146735,0.790952,0.795291,0.287565,-0.533684
0.193560,0.169479,0.790377,0.990977,-0.125233,-0.047765
-0.749731,0.271393,0.647791,-0.176586,0.864770,0.470096
-0.005380,0.135397,0.873322,-0.476850,-0.134154,0.868687
-0.010794,0.007737,0.908757,0.770976,-0.183233,0.609936
-0.543894,0.188688,0.436589,-0.589513,0.427063,-0.685632
0.125542,-0.050823,-0.187942,0.968275,-0.188610,0.163917
-0.644625,0.104582,0.588982,0.657287,0.497770,0.565861
0.676522,-0.172147,-0.035191,-0.569415,0.509477,-0.645136
-0.200238,-0.636964,0.535399,-0.169492,-0.290363,-0.941786
-0.014873,0.351564,0.712559,0.654268,-0.662746,-0.364280
-0.460372,-0.355833,0.599879,0.364721,0.924869,-0.107685
0.214033,0.221370,0.819753,0.988647,0.077492,-0.128735
0.713610,0.544654,0.542994,-0.214387,0.400086,-0.891050
-0.156918,-0.067431,0.840701,0.536750,0.663653,0.521023
-0.437081,0.227907,0.685408,-0.124210,0.555934,0.821894
-0.759968,-0.344561,0.620870,0.783418,-0.053463,0.619192
0.604348,0.148069,0.718776,-0.567913,0.768780,0.294027
0.079924,-0.442607,0.685049,0.932683,-0.220450,0.285488
0.410673,0.531582,0.719680,-0.439994,0.559695,-0.702244
0.159587,-0.116521,0.920329,-0.177699,-0.340580,0.923270
0.771465,-0.101781,0.662623,0.889042,-0.011117,-0.457691
0.492785,0.064097,0.820041,0.976139,-0.116005,0.183566
-0.092533,0.158741,0.750018,0.805802,0.563499,-0.182079
0.386343,0.511039,0.703011,0.141813,0.951610,0.272630
-0.635056,-0.115921,0.400925,-0.185004,0.235300,-0.954153
0.559694,0.386647,0.481529,0.302311,0.709621,-0.636432
0.481290,0.174615,0.688323,0.914944,-0.052861,0.400104
-0.615992,-0.315614,0.610763,-0.428528,0.154299,-0.890256
0.050995,-0.116788,0.866818,0.963329,-0.265665,0.037687
-0.033861,-0.211899,0.838777,0.335108,0.771898,-0.540255
0.110783,-0.034883,0.953452,0.981704,-0.056458,0.181853
0.206839,-0.718469,0.745596,-0.559101,-0.652453,0.511578
-0.262917,-0.234576,0.766099,0.401301,-0.495146,-0.770577
-0.600490,-0.045888,0.526598,0.452722,-0.119995,-0.883541
0.196603,0.089909,0.507602,-0.903389,0.384276,0.190317
-0.271593,-0.222704,0.782552,-0.738708,0.613879,-0.278322
0.406444,-0.274995,0.051559,0.064045,0.067693,0.995648
0.689796,-0.050357,0.753406,-0.586872,0.797848,-0.137915
-0.405111,-0.030147,0.403983,0.146977,-0.763828,0.628462
0.397471,0.016074,0.799925,0.203776,0.760340,-0.616732
0.138521,0.153138,0.851139,-0.903634,0.387592,-0.182259
-0.015018,-0.390382,0.346753,-0.817121,-0.054612,0.573873
0.391242,0.766558,0.638171,0.320891,-0.935839,0.145721
0.118570,-0.116387,-0.911485,-0.579899,0.797746,-0.165280
-0.525275,0.395585,0.573030,0.466421,0.431266,0.772309
0.116569,-0.573135,0.797413,-0.070863,0.649334,0.757195
-0.152172,0.268125,0.724835,0.625495,-0.639479,-0.447015
0.731855,0.659975,0.553820,0.200450,-0.507784,0.837840
0.313951,-0.561128,0.636262,-0.172785,0.508838,0.843344
-0.041503,0.183619,0.825066,0.378528,0.375789,0.845872
-0.265810,-0.270193,0.799480,-0.089060,0.070288,0.993543
-0.160701,-0.718402,0.565464,-0.101365,-0.897560,0.429083
-0.277454,0.551124,0.692285,-0.190424,-0.078159,0.978586
-0.139413,0.504235,0.674755,0.191183,0.964183,-0.183849
0.477505,0.407257,0.475800,0.472310,0.673104,-0.569082
0.241256,-0.045555,0.456345,0.063126,0.623194,0.779515
-0.408968,-0.018609,0.656377,0.285176,-0.763755,0.579096
0.495755,0.079637,0.733291,0.945359,0.126787,-0.300369
0.346290,-0.336224,0.800715,-0.567701,0.754641,-0.328987
-0.082817,0.041553,0.894715,0.905031,-0.397555,0.151224
-0.281757,0.340359,0.723255,0.374690,-0.769150,0.517702
-0.233394,0.039152,0.659464,0.356986,0.363545,0.860463
-0.236138,-0.042420,0.834642,0.801248,0.597732,-0.026816
-0.066795,-0.102581,0.836767,0.875566,-0.323229,0.359036
-0.133849,0.377910,0.726471,-0.506276,0.708300,-0.491932
-0.383971,0.602414,0.502678,0.003142,-0.453345,0.891330
-0.214997,-0.205430,0.704231,-0.417370,0.895908,0.152156
0.197273,0.451877,0.586297,0.686724,-0.441338,0.577607
-0.178133,-0.180885,0.452770,-0.103401,-0.372593,-0.922216
0.015021,0.051624,0.352568,0.052255,-0.118902,0.991530
-0.600712,-0.731876,0.187067,0.407633,0.140315,-0.902301
-0.362534,-0.341759,0.387328,0.405280,0.057879,0.912359
0.100841,-0.333089,-0.018895,0.006533,-0.287239,0.957837
-0.636836,-0.443808,0.414148,-0.050647,-0.227711,0.972411
0.071173,-0.079971,-0.819595,-0.681297,0.728119,-0.075348
0.419800,-0.310345,0.812689,-0.550390,0.624048,0.554648
-0.045582,-0.635630,0.577108,0.267218,0.662657,-0.699629
0.687573,0.068232,0.766371,0.432200,-0.818828,-0.377788
0.176873,-0.039886,0.005370,-0.665970,-0.694057,-0.273438
0.203204,0.506570,0.682020,0.267434,-0.956364,0.117670
0.336945,-0.078303,0.860615,-0.282607,0.751002,-0.596766
0.056409,0.146735,0.771540,-0.219814,0.957504,-0.186727
0.352967,0.346629,0.739393,-0.481749,0.267234,-0.834568
0.081187,0.524512,0.684576,-0.347000,0.779768,-0.521107
-0.450728,-0.171347,0.707763,0.954070,-0.091399,0.285300
-0.636539,-0.266457,0.594065,-0.097409,0.894929,0.435447
0.356304,-0.059428,0.717096,-0.047121,0.139767,0.989063
0.077552,-0.637898,0.684891,-0.353664,-0.326279,-0.876620
0.493899,-0.388381,0.605867,-0.008244,0.216869,0.976166
-0.544265,-0.133996,0.396976,0.133673,-0.046834,0.989918
-0.144011,-0.336757,0.406337,0.399094,0.452608,-0.797415
-0.626081,-0.139865,0.526167,-0.310245,0.596502,0.740225
0.000040,0.316081,0.754785,-0.695307,0.430823,0.575273
-0.417276,-0.644767,0.230901,0.824375,-0.064305,-0.562380
0.327003,0.172548,0.838318,0.764885,0.247983,-0.594521
-0.390053,-0.020342,0.633103,-0.351482,-0.928893,0.116696
0.379371,-0.125192,0.565565,0.153808,-0.950967,-0.268337
-0.428773,-0.368572,0.734181,-0.005560,0.999848,-0.016536
-0.332864,0.170480,0.397795,0.868302,0.257398,0.424026
0.053444,-0.137931,0.804103,0.903005,0.222086,0.367777
-0.293626,0.213766,0.385461,-0.700269,-0.245665,-0.670278
-0.238956,-0.363837,0.152364,-0.660103,0.735355,-0.153354
-0.173015,-0.166878,0.563124,-0.243959,-0.194271,0.950128
0.214332,-0.420996,0.197390,-0.764290,0.098642,0.637284
0.111969,0.737210,0.599520,0.972960,-0.017240,-0.230330
-0.256907,0.330355,0.657468,0.695047,-0.529014,-0.486882
0.146608,-0.280331,0.861936,0.554148,0.800055,-0.229853
0.221897,-0.470419,0.790535,0.570405,-0.540431,-0.618524
0.723326,0.679917,0.555457,-0.105105,-0.449720,0.886964
-0.463711,-0.557194,0.554624,0.771977,-0.340193,0.536954
0.425215,0.137464,0.835245,-0.587917,-0.305968,0.748824
-0.007824,-0.645902,0.685566,-0.260763,-0.503351,-0.823797
-0.059006,0.546655,0.555787,-0.502052,0.720584,-0.478228
0.073174,-0.051224,-0.132421,0.068289,0.997465,-0.020027
-0.000481,-0.219302,0.843587,0.720219,0.690621,0.065782
-0.345844,-0.288868,0.740484,0.754415,-0.021064,-0.656060
0.140378,-0.422197,0.762366,0.073600,0.259428,0.962954
0.588176,0.542987,0.525506,0.418608,0.756217,-0.502895
0.063309,-0.422664,0.737742,0.946887,-0.186947,0.261642
-0.148832,0.247782,0.619018,0.653123,0.731675,-0.195148
-0.724587,0.155206,0.601846,0.232917,0.696400,-0.678806
-0.025775,0.123057,0.835906,0.447901,-0.780456,0.436204
0.214255,0.408591,0.707792,0.944084,0.329566,0.009565
0.471054,-0.073567,0.735029,0.109920,-0.039920,0.993138
-0.145718,0.615221,0.471737,-0.336359,0.935497,-0.108201
0.683272,0.082171,0.746357,-0.733195,-0.323313,0.598242
-0.260171,0.533049,0.382518,-0.005349,0.641388,0.767198
0.261434,-0.342760,-0.391578,0.582448,0.808099,0.087924
-0.549012,-0.356700,0.479878,0.320327,-0.137586,-0.937262
-0.149057,-0.137063,0.758920,-0.195432,0.620337,0.759597
-0.042834,0.071634,0.424141,-0.506094,-0.631135,0.587825
0.495085,0.260188,0.450932,-0.170321,-0.518433,0.837985
-0.568520,-0.496298,0.584904,0.773684,0.262137,0.576799
0.675703,0.026545,0.755675,0.608161,0.563528,-0.559085
0.675259,0.053692,0.738316,0.661128,0.424680,-0.618511
0.313209,-0.795571,0.073310,0.966248,-0.111656,0.232158
-0.589140,0.457680,0.558457,-0.321098,-0.409030,0.854161
-0.335829,-0.092643,0.724275,0.385459,0.693347,-0.608844
0.366020,-0.499500,-0.001062,0.647380,0.325937,-0.688959
0.068574,-0.307944,0.788339,-0.595946,-0.753855,0.276679
0.191487,-0.137598,0.757384,-0.501889,-0.864204,-0.035472
-0.375960,-0.040352,0.695933,0.762982,0.113447,0.636387
0.106626,0.900754,0.546483,-0.049136,-0.997786,0.044813
-0.121388,0.475556,0.662450,-0.246884,-0.283577,0.926624
0.001670,-0.147602,0.867967,-0.368180,0.608605,-0.702883
-0.092757,0.685520,0.518988,-0.189156,-0.582925,0.790202
-0.030896,0.146268,0.838964,0.430838,-0.751929,-0.498981
-0.401922,0.328553,0.463725,-0.135343,-0.628585,0.765874
-0.328561,-0.348296,0.391348,-0.146328,-0.520474,0.841246
0.003449,-0.723137,0.572284,-0.132850,-0.737765,0.661856
-0.009160,0.146335,0.756852,0.172129,0.984484,-0.034102
-0.243184,0.520243,0.673980,0.367861,0.624573,0.688902
0.430181,-0.025812,0.756766,-0.333905,0.931412,-0.144844
-0.028446,-0.555259,0.321168,0.714265,-0.693148,0.096804
-0.565404,-0.060895,0.390731,0.252689,-0.161897,0.953907
-0.291398,-0.126859,0.784893,0.914601,-0.274713,-0.296712
0.602718,-0.047955,0.779738,-0.755597,-0.089926,0.648834
0.474984,-0.458080,0.601114,0.233636,-0.071574,-0.969686
0.377221,0.513373,0.710922,0.694129,0.288638,-0.659449
-0.188220,-0.650637,0.062112,0.947354,-0.302901,0.103785
0.063087,-0.354499,0.660756,0.881920,0.416478,0.220824
-0.220783,0.317614,0.752502,-0.393586,0.542692,0.742008
-0.408079,-0.222104,0.696162,0.526998,0.492609,0.692538
0.356675,0.493364,0.682350,-0.201811,0.972477,0.116450
-0.041277,-0.549790,0.428434,-0.119057,-0.990914,-0.062566
0.095281,-0.166345,0.907335,-0.244245,0.956560,0.159180
-0.062641,0.126793,0.865267,0.892812,0.065090,-0.445701
-0.443535,0.416328,0.648710,0.024343,-0.998797,0.042567
0.084524,-0.031815,-0.693362,0.939572,-0.339420,-0.044695
0.410451,0.439606,0.773148,0.880582,0.246784,-0.404565
-0.342061,-0.127193,0.737800,0.577424,0.388647,0.718008
0.403701,-0.165810,0.101150,-0.463630,-0.134747,0.875723
0.605756,-0.073567,0.593907,-0.375935,0.664127,0.646226
0.149722,-0.134463,-0.025916,-0.764529,-0.092334,0.637942
0.156993,-0.044487,-0.207311,0.951376,-0.296292,-0.084231
0.537814,0.390583,0.678517,0.130341,0.728712,0.672302
-0.096687,-0.705530,0.686571,0.552221,0.148285,0.820404
-0.339318,0.082505,0.661058,-0.484994,-0.139709,-0.863286
0.627564,-0.410725,-0.207727,-0.290934,0.522770,0.801292
-0.537737,-0.412659,0.603871,0.933047,-0.274921,0.232040
-0.344805,0.479424,0.691094,0.144996,0.400644,0.904688
-0.286207,-0.324084,0.773665,-0.730185,0.065141,0.680138
0.237919,-0.104849,0.732631,-0.492802,-0.840101,-0.226665
0.348961,-0.600947,0.222243,-0.301946,0.391696,0.869139
0.425586,0.590008,0.722408,0.322920,-0.418008,0.849112
0.420538,0.525312,0.696679,0.696504,0.673459,-0.247658
-0.384489,0.184819,0.381326,-0.597239,-0.316926,-0.736793
0.138893,-0.043420,-0.389582,-0.727232,0.686021,-0.022561
0.433151,0.405589,0.723399,0.943550,0.329292,0.035783
0.494569,0.153872,0.839754,0.317586,0.628070,-0.710399
0.538629,0.172013,0.652644,0.255413,0.879097,0.402434
-0.607462,0.529581,0.374420,0.935852,-0.240690,-0.257388
-0.080146,-0.094844,0.832044,-0.397471,0.902666,-0.164958
0.210103,-0.803642,0.664432,0.377810,-0.707094,0.597727
-0.147646,-0.111719,0.793938,-0.635307,0.382075,-0.671121
0.295552,-0.618289,0.708438,0.224709,0.974137,0.023706
0.721841,0.000800,0.749070,0.720240,0.672679,-0.169581
0.221602,0.017941,0.930839,0.213736,-0.019551,0.976696
-0.482773,0.117789,0.722422,0.272845,0.887667,-0.370948
0.043058,0.136797,0.829330,0.768642,-0.315655,0.556373
0.044394,0.117922,0.685595,-0.041179,-0.994896,0.092126
0.033270,-0.273394,0.256242,0.986470,-0.158429,0.042162
0.666137,-0.089241,0.770880,0.737032,-0.639487,0.218723
-0.534398,-0.364237,0.623024,0.763291,0.160557,-0.625787
0.055522,-0.047422,-0.042628,-0.507644,-0.861542,-0.006564
0.245928,0.199694,0.828928,0.482340,-0.034892,-0.875289
-0.279161,-0.112720,0.830191,0.980284,-0.128956,0.149715
0.699517,0.007671,0.743198,-0.674800,-0.563966,-0.476013
0.166858,-0.070634,0.270212,0.995026,-0.072777,-0.068015
0.182586,-0.657440,0.808813,0.096158,0.325628,0.940596
0.063237,-0.033550,-0.751928,0.995357,-0.093322,0.023562
-0.445239,-0.265391,0.770463,-0.088142,-0.985246,0.146701
0.568890,0.075702,0.740369,0.251699,-0.873148,-0.417446
0.445239,-0.169946,0.793263,0.945000,0.017203,-0.326617
0.254091,-0.419329,0.761102,0.345599,-0.817635,0.460473
-0.727849,0.221704,0.487817,-0.124576,0.864203,0.487477
0.717540,-0.064097,0.741446,-0.757871,0.595772,0.265872
0.105517,-0.408057,0.796795,-0.233554,0.155991,0.959750
-0.260171,0.491696,0.692085,-0.390691,0.181481,-0.902455
0.040836,-0.205362,0.832072,0.798699,0.565501,-0.205642
-0.223158,-0.035149,0.838390,0.332618,0.843032,0.422686
0.240812,-0.084840,0.051717,0.785826,0.616212,0.052544
-0.345918,0.040019,0.542434,-0.231722,-0.337208,0.912467
0.191188,-0.262390,0.752631,0.140070,-0.144962,0.979472
-0.381968,-0.235176,0.736981,0.602748,0.367736,0.708142
-0.672070,0.089975,0.618056,0.712737,0.228387,-0.663208
0.516893,-0.021744,0.762696,0.588719,0.705739,-0.394135
-0.386047,0.584873,0.369410,0.712444,0.453999,-0.535078
-0.042169,0.255787,0.808684,0.214807,-0.956624,0.196794
0.297110,0.705930,0.655602,0.789401,0.547585,0.277483
0.169457,-0.024145,0.246464,0.836600,0.534266,-0.121080
-0.630531,0.307010,0.375454,0.475054,-0.275948,-0.835570
0.125026,-0.108317,-0.228331,0.999546,0.028932,0.008431
0.578460,-0.497899,0.623282,0.340738,0.019101,0.939964
-0.293847,0.877410,0.470129,-0.687348,-0.092867,-0.720367
0.086154,-0.170279,-0.024796,0.366501,0.148660,0.918465
-0.213440,-0.093510,0.678402,-0.217437,0.717467,0.661788
0.371063,-0.292670,-0.172278,0.794344,-0.036777,-0.606353
-0.446056,0.084573,0.697095,0.759221,-0.121561,0.639379
0.248228,-0.301208,0.873796,-0.432544,-0.322747,-0.841867
-0.356897,-0.006070,0.642005,0.455041,-0.854691,0.249883
-0.158847,-0.020877,0.803084,0.921497,0.236399,0.308153
-0.437303,0.363036,0.651438,0.038153,-0.510549,0.859002
-0.322628,0.370239,0.664058,0.213107,0.454631,0.864810
-0.244074,-0.162276,0.823702,0.994944,-0.093400,-0.036909
0.272635,-0.010405,-0.392138,-0.194036,0.980899,-0.013705
0.149799,0.012739,0.928470,-0.237202,0.923199,0.302389
-0.265585,0.618822,0.482706,-0.701635,0.286069,-0.652590
-0.173830,-0.048423,0.735876,-0.085831,-0.020189,-0.996105
-0.462597,0.042820,0.487832,0.619312,-0.539840,0.570110
0.211366,0.499567,0.680799,-0.297941,0.945508,-0.131322
0.265436,0.303608,0.724303,-0.042960,-0.513188,0.857200
-0.883100,0.281932,0.577768,0.579741,-0.053663,-0.813032
0.072287,0.003669,0.500165,0.423007,0.029482,-0.905647
0.153507,0.104249,0.511608,0.843621,-0.062996,-0.533231
0.650037,0.052625,0.734181,0.801660,0.595539,0.051710
0.331454,-0.275996,0.094201,0.386114,0.154597,0.909404
-0.608574,-0.261322,0.569484,0.678812,-0.731002,-0.069638
-0.232948,-0.097913,0.748037,-0.552566,0.583203,0.595438
0.428551,-0.287467,0.457164,-0.567370,0.711456,0.414634
-0.925453,-0.286067,0.433129,-0.486720,0.472790,-0.734557
0.814783,-0.118589,-0.050568,0.817840,-0.353727,0.453890
0.163521,-0.053892,0.638200,0.923066,-0.331163,-0.195655
-0.667470,-0.367906,0.628308,0.979201,0.140820,0.146067
0.171087,-0.031682,0.104682,-0.169240,0.980875,0.096135
-0.263582,-0.197292,0.810134,-0.132986,-0.737828,0.661758
-0.001744,0.052691,0.892030,-0.319964,-0.712428,0.624556
0.095725,0.454479,0.680182,-0.201466,0.645863,-0.736392
0.493012,0.768226,0.523180,-0.303611,0.590568,0.747696
-0.004782,0.889282,0.362030,-0.082465,0.226426,0.970531
-0.181619,-0.353966,0.150397,0.737440,-0.661304,0.137327
-0.530690,-0.400787,0.628609,0.794666,0.137265,-0.591325
0.187774,0.264657,0.496547,-0.389137,0.478876,0.786925
-0.282350,-0.092843,0.677569,0.134782,0.681053,0.719723
0.620890,0.280864,0.662809,0.970644,-0.102324,0.217671
0.502727,0.574135,0.518356,-0.311211,-0.746170,0.588539
-0.521418,-0.171213,0.543123,-0.146052,0.446709,0.882678
0.615919,-0.028680,0.750075,-0.650983,-0.323754,0.686589
0.297481,-0.062296,0.506325,0.319701,-0.583135,-0.746823
-0.783704,0.312280,0.650016,0.179088,0.963192,-0.200472
0.242741,-0.066564,0.819380,-0.597034,-0.745062,-0.297377
-0.507546,0.659174,0.498830,-0.102102,-0.360276,0.927241
0.256907,0.475222,0.646054,-0.161893,0.907456,0.387704
-0.020361,0.103515,0.863659,0.613371,0.767950,0.184467
0.201945,0.375175,0.619133,0.972257,0.181856,-0.147120
-0.028224,-0.847263,-0.341900,0.897685,0.439617,0.029962
-0.856767,0.284132,0.640526,0.062379,0.931398,0.358618
0.487076,-0.697592,-0.186291,-0.180096,-0.182210,0.966626
-0.944293,0.487761,0.571336,-0.874752,0.337334,0.347871
-0.378852,0.388381,0.669055,-0.660511,-0.416515,-0.624692
0.774879,0.709464,0.562908,-0.059242,-0.483291,0.873453
-0.218707,-0.102115,0.809200,0.827893,-0.560827,0.008095
0.003969,-0.565531,0.454967,0.425411,-0.890683,-0.160343
0.461633,0.402721,0.785122,-0.481336,-0.848918,0.218299
-0.366613,-0.205763,0.470114,-0.236405,-0.554762,-0.797716
0.155879,0.081905,0.803730,0.782731,-0.480470,0.395576
0.513557,-0.157140,0.434206,0.280745,0.875875,-0.392461
0.096318,-0.008404,-0.829057,-0.723574,0.689769,-0.025690
-0.015018,0.008337,0.854398,0.826884,0.031560,-0.561486
0.468605,0.110051,0.825741,-0.440913,-0.885952,-0.143820
-0.453103,-0.439339,0.576462,-0.427024,-0.654250,0.624186
-0.257724,0.531582,0.383035,-0.005349,0.641388,0.767198
0.488484,-0.000201,0.764462,0.446559,0.784585,-0.430129
0.446203,0.088841,0.703054,0.011923,0.969931,0.243087
-0.483291,0.298473,0.662422,-0.383644,-0.446356,-0.808445
-0.205281,0.525045,0.645192,0.859203,0.099960,-0.501776
0.127547,0.312546,0.761490,-0.352858,0.484933,-0.800207
0.123763,-0.025012,0.294003,-0.395499,0.918466,0.000282
0.384641,0.536651,0.699924,0.064635,-0.984589,-0.162501
-0.467419,-0.613286,0.526669,-0.557145,-0.773114,0.303123
0.748099,-0.113386,-0.045629,-0.551800,0.468002,-0.690283
0.036679,-0.079237,0.349222,0.331986,0.249995,0.909554
-0.168565,0.121990,0.706974,0.409978,-0.601739,0.685440
0.363571,0.438671,0.729214,0.094515,0.992947,0.071571
-0.048697,-0.274729,0.093598,0.887377,-0.437678,0.144912
0.094833,-0.057760,0.422131,-0.411511,-0.887563,0.207100
0.077624,0.349030,0.773134,-0.141942,0.986422,0.082612
-0.461187,0.700060,0.503869,-0.569428,0.130299,0.811649
0.215518,-0.083172,0.888240,0.528293,-0.800934,0.281801
-0.406372,0.510172,0.501816,-0.085530,0.277992,-0.956768
0.006785,-0.378777,0.727979,0.601548,0.798752,-0.011628
-0.199496,-0.225638,0.445678,-0.117850,-0.335861,-0.934510
0.132736,0.157474,0.814398,-0.553463,0.286106,0.782191
0.787786,0.005002,0.763170,0.970426,-0.226301,0.084028
0.508586,-0.452545,0.603641,0.060883,0.068436,0.995796
-0.269072,-0.086307,0.670419,0.276677,-0.643945,-0.713291
0.243777,0.240513,0.834872,-0.021538,-0.696865,0.716878
-0.123391,-0.154873,0.359043,0.093989,-0.438282,0.893910
0.062716,-0.202094,0.251619,0.880077,-0.367669,-0.300473
0.535514,0.011338,0.803400,-0.231863,0.795442,-0.559922
-0.943107,0.326220,0.569872,-0.085294,0.703343,0.705715
-0.104773,-0.644301,0.728754,0.715806,0.659434,0.229714
0.322032,0.533183,0.705308,0.868346,0.150476,-0.472581
-0.378927,-0.343027,0.763428,0.656408,0.368490,-0.658288
-0.367059,-0.457213,0.566196,0.043989,-0.882707,0.467861
-0.153654,-0.530048,0.550632,0.895045,-0.149893,0.420033
0.128883,-0.690189,0.667059,0.320010,-0.664456,-0.675345
0.240812,-0.340359,0.847363,0.040590,-0.266853,0.962882
-0.343544,0.340092,0.773464,0.382041,0.923753,-0.026917
-0.791120,-0.235843,0.406165,0.188311,0.689433,0.699444
-0.372992,-0.180351,0.754555,0.896594,0.422680,-0.132138
-0.095797,-0.682853,0.688495,0.552221,0.148285,0.820404
-0.472908,-0.252918,0.569743,0.733613,-0.008433,-0.679515
0.082374,0.709798,0.504688,-0.201518,0.844819,0.495652
0.193787,-0.683986,0.667720,-0.623158,0.371158,0.688416
0.137041,-0.074968,0.946044,0.130019,0.257289,0.957548
-0.026445,0.103448,0.618774,0.478810,0.088906,-0.873406
0.015541,-0.007003,0.868110,-0.485209,-0.237139,-0.841628
0.845048,0.328821,0.507846,0.478740,0.864731,0.151815
0.137114,-0.181018,0.861577,0.045558,0.704178,0.708560
-0.386121,-0.244914,0.771353,0.853796,-0.375831,0.360254
0.160257,-0.029614,0.710836,0.849830,0.400256,0.342904
0.198459,0.068633,0.942497,-0.329975,-0.883589,-0.332245
0.123984,-0.043754,-0.147238,0.410315,0.909089,-0.072105
0.634463,0.102181,0.658602,0.272366,0.705679,0.654090
-0.283611,-0.098179,0.842151,-0.320667,0.695169,-0.643360
0.616956,0.080638,0.567072,0.367702,0.849319,-0.378751
-0.536401,0.429934,0.667648,0.057724,-0.996512,-0.060265
0.206690,0.367972,0.760657,-0.584551,0.731030,0.351987
0.684531,0.473955,0.511120,-0.663635,-0.615233,0.425532
-0.386864,0.124392,0.552930,0.677804,0.631413,-0.376695
0.097282,-0.162343,0.621287,0.562422,0.289164,-0.774639
0.004119,-0.176549,0.875978,0.332444,-0.874359,-0.353522
0.174423,0.173881,0.822754,0.988661,0.127085,-0.079998
0.165821,-0.304808,0.903775,0.862434,0.483660,0.149268
-0.167080,0.133796,0.737354,0.450083,-0.240789,0.859911
0.044543,0.302408,0.785682,0.787174,0.530452,0.314607
0.256984,0.847462,0.583827,0.817238,0.531950,-0.221702
-0.159737,0.388315,0.726802,-0.479119,0.483584,-0.732524
0.025329,0.143533,0.767147,0.455351,0.889668,-0.033859
0.171309,0.436004,0.540869,0.801810,-0.351827,-0.483030
0.698032,0.463283,0.515183,-0.513341,-0.426193,0.744876
-0.173683,0.422864,0.373372,-0.106716,-0.233563,0.966468
0.199346,-0.451077,0.638272,0.052144,0.478174,0.876716
-0.162854,0.113320,0.494609,0.207581,0.781261,-0.588678
-0.658051,-0.162009,0.543683,-0.271996,0.745051,0.609030
-0.117159,0.091777,0.572844,-0.411108,-0.885212,0.217690
-0.505917,0.319016,0.645982,0.266283,0.875399,-0.403447
-0.153654,0.395251,0.737297,-0.523960,0.784964,-0.330603
-0.225458,-0.010138,0.836609,0.229199,0.699633,0.676743
-0.044618,0.516241,0.665509,0.071951,0.213226,0.974350
0.047586,-0.771293,0.700355,0.046511,0.865082,0.499469
0.528243,0.238044,0.700412,0.873720,-0.278998,0.398465
0.051814,-0.169946,0.088472,0.794023,-0.387662,-0.468237
-0.186663,0.375376,0.746328,-0.199990,-0.560140,0.803895
0.053222,-0.260789,0.800313,0.537356,-0.658161,0.527326
