-0.361835,-0.174901,0.421526,0.216015,-0.119228,0.969083
-0.075339,-0.098695,-0.987047,-0.218477,-0.209751,0.953033
-0.695261,0.014915,0.171736,-0.528057,-0.770837,0.356323
-0.403421,-0.418773,0.546490,0.221937,0.963146,-0.151967
0.287878,0.077063,0.547211,0.357955,0.925018,-0.127315
-0.026075,-0.103934,0.807336,-0.617140,0.702027,0.355382
-0.162135,-0.170492,0.847156,0.296556,0.896420,0.329372
0.338616,-0.100511,0.663625,0.160724,-0.866628,0.472360
-0.057527,0.496278,0.487973,0.406822,-0.901781,-0.145897
-0.402439,-0.544678,0.409787,0.825083,-0.426962,-0.370056
-0.404098,0.183462,0.337735,0.368859,0.927488,0.060893
-0.028594,-0.521178,0.556584,-0.334127,0.913717,0.231259
-0.611597,0.286541,0.567779,-0.253134,0.819775,0.513704
0.057036,0.127384,0.754966,0.286680,0.419288,-0.861401
-0.596424,-0.173864,0.490440,0.930109,-0.348977,-0.114513
-0.424675,0.078360,0.575154,0.968840,-0.244366,0.040429
-0.086703,0.270200,-0.022029,0.943566,0.329447,-0.033877
-0.890598,-0.209763,0.372926,-0.277428,0.525873,0.804047
0.589730,0.132520,0.419616,0.889466,-0.455734,0.034005
0.432539,0.265479,0.518611,0.868854,-0.242324,-0.431709
0.160847,0.322025,0.660917,0.189816,0.981776,0.009257
-0.431371,0.720697,0.274880,-0.216954,0.259608,-0.941029
0.176510,-0.405026,0.580846,0.951481,-0.182648,0.247635
-0.577075,-0.675097,0.403184,0.961033,0.217380,-0.170768
-0.664671,0.013825,0.408408,-0.254364,0.922139,-0.291476
-0.205442,0.181906,0.734487,0.164779,0.968729,0.185504
0.221290,0.505668,0.439273,-0.303591,-0.696696,0.649960
-0.833963,-0.237880,0.377278,0.383223,-0.258167,-0.886843
-0.435486,-0.441132,0.579278,0.450107,0.639967,0.622772
-0.095549,0.547688,-0.972778,-0.410077,-0.327194,0.851341
0.185172,0.482168,0.487202,0.815063,-0.498252,-0.295664
0.107712,0.739943,0.470682,0.700021,0.305371,0.645538
-0.403728,0.500584,0.475817,-0.459812,-0.866362,0.194908
0.197211,-0.051902,0.625701,-0.144600,0.252299,0.956784
-0.176388,0.391592,0.320077,0.760615,0.336892,-0.554949
-0.258514,-0.078826,0.752955,0.664128,0.324705,0.673424
0.793668,0.202864,0.300622,0.288635,-0.857647,0.425595
-0.153291,-0.182268,0.738004,0.382647,0.890641,0.245642
-0.717927,-0.126345,0.500016,0.833217,0.388712,-0.393259
-0.541264,-0.684745,0.474995,0.867665,0.492034,0.071134
-0.456495,-0.377895,0.566046,-0.077519,-0.870933,-0.485249
-0.210601,-0.018545,0.809511,0.477952,0.853005,0.209629
0.032218,0.288150,0.692895,-0.152944,-0.359248,0.920624
0.187690,0.140975,0.755890,-0.808360,0.343982,0.477734
-0.113240,-0.103779,0.797368,0.309640,0.915804,0.255784
-0.178291,-0.251523,0.625727,0.744378,0.473808,0.470540
-0.216930,-0.359479,0.573927,0.290769,0.949147,-0.120717
-0.221659,0.885043,0.451657,-0.339998,-0.412822,0.844973
-0.269511,-0.635618,0.378403,-0.261352,-0.289848,-0.920697
0.452626,-0.389412,0.699461,0.794177,0.496136,0.350901
-0.094935,0.633181,0.343870,-0.522857,-0.096359,0.846957
0.303602,-0.214846,0.555939,0.180209,0.649330,0.738848
0.086398,0.345940,0.372547,0.445860,0.127652,-0.885954
-0.277251,-0.305942,0.652518,0.907356,-0.277736,-0.315543
0.387697,-0.264181,0.559114,0.089481,0.450433,0.888315
-0.269880,0.161570,0.551854,-0.013841,-0.362154,0.932015
-0.562886,-0.009830,0.704584,-0.175710,-0.677547,0.714182
0.667925,-0.037481,0.287694,0.275196,0.798960,-0.534724
-0.409626,-0.982725,0.200134,0.126497,0.988209,-0.086259
0.184495,0.633388,0.496411,0.262895,0.889439,-0.373877
-0.506987,0.202552,0.505645,0.105693,-0.716126,0.689922
0.004577,0.840013,0.182172,0.518559,-0.388722,-0.761572
-0.228785,0.436568,0.650583,-0.382290,-0.766956,0.515396
-0.243097,-0.450522,0.548046,0.540673,0.823794,-0.170401
0.084922,0.464426,0.617011,-0.914253,0.367886,0.169712
0.229092,-0.361190,0.486481,-0.546189,0.516851,0.659199
0.150957,0.090707,0.678677,0.410869,-0.473084,0.779345
0.586228,0.123181,0.430140,-0.944853,0.310813,0.103186
-0.065942,0.077997,0.873290,0.800374,0.299907,0.519093
-0.267299,0.416596,-0.968376,-0.416851,-0.564750,0.712245
-0.528854,0.407102,0.568804,0.346625,0.565557,-0.748329
0.129581,0.069281,0.670215,0.066183,-0.520530,0.851274
-0.357842,-0.458926,0.468228,0.014892,-0.771240,0.636371
-0.185785,0.423237,0.709315,-0.631830,0.478840,-0.609511
-0.239226,0.507432,0.406308,0.602673,0.392179,-0.694968
0.488191,0.688533,0.276739,0.760281,0.388079,0.520930
-0.209557,-0.122506,0.727074,0.567589,-0.651975,-0.502764
-0.710741,0.068815,0.447811,-0.370859,0.618491,-0.692771
-0.011395,0.868285,-0.962874,0.116050,0.066719,0.991000
-0.342363,0.141753,0.661892,-0.332369,0.870873,-0.362093
-0.225159,0.371256,0.673453,0.808476,-0.139386,0.571785
-0.331553,0.451664,-0.982152,-0.801024,-0.391164,0.453156
-0.736601,0.088787,0.462295,0.421977,-0.896533,0.134774
-0.172457,0.124219,0.850609,0.203921,-0.841268,0.500685
-0.899628,0.056935,0.148145,0.707340,0.114477,-0.697542
-0.027243,-0.563146,0.431304,0.375773,-0.898473,0.227027
-0.819035,-0.123336,0.138164,-0.343372,0.547837,-0.762870
0.002610,-0.444141,0.525378,-0.649871,0.683941,0.331501
-0.099235,0.148861,0.537231,-0.240759,-0.376608,0.894540
-0.296539,0.611133,0.260940,-0.159865,-0.028048,0.986740
-0.367303,0.452858,0.503659,0.862948,0.405471,0.301519
-0.159310,0.079761,0.847245,0.118064,-0.183727,-0.975861
-0.468288,-0.374160,0.244471,-0.525544,0.149462,0.837535
0.085661,0.492699,0.569373,0.372305,0.388329,-0.842965
0.055930,0.847380,0.511944,0.785358,0.610554,0.102164
0.237937,0.440874,0.589600,0.176605,0.626646,-0.759030
0.704660,0.051125,0.301482,-0.081987,-0.686066,0.722905
-0.201819,0.529739,-0.967756,0.036721,0.530986,0.846584
-0.153782,-0.590070,0.582263,0.493682,0.750057,0.440105
-0.560245,-0.413171,0.583996,0.735691,-0.663267,-0.137245
0.198808,0.903665,0.229304,-0.174472,-0.176658,0.968686
0.572285,-0.110160,0.504595,0.485039,-0.830848,-0.272817
-0.708529,-0.454361,0.418338,0.851434,0.035967,-0.523227
0.119629,-0.046092,0.545769,0.225533,-0.181497,0.957180
-0.631131,-0.125982,0.601996,0.806809,-0.256756,0.532104
-0.399981,-0.096257,0.643423,-0.716429,0.370443,0.591186
0.016739,-0.261536,0.561024,0.932814,-0.319747,0.166195
0.156240,0.118772,0.744720,0.910914,0.411344,0.032137
0.043091,0.178223,0.360049,0.526021,0.169207,-0.833469
0.411285,0.037637,0.493666,0.701342,0.708147,0.081532
0.052919,0.013359,0.893694,-0.482208,-0.842853,0.238903
-0.397831,0.091589,0.729111,0.949201,0.313037,-0.032030
-0.023433,0.112235,0.811295,-0.061396,0.612899,0.787772
-0.688750,-0.387907,0.405651,0.257831,-0.715434,-0.649367
-0.713996,-0.039970,0.532032,0.792737,0.261405,0.550669
-0.317054,0.057506,0.789879,0.906432,0.364921,0.212636
0.262018,-0.226778,0.114712,-0.901838,0.337404,0.269902
-0.799502,0.068763,0.473654,0.484154,-0.828580,0.281159
-0.129765,-0.609628,0.598328,0.795435,0.594151,0.119451
-0.150588,0.451613,0.295701,0.132068,-0.657812,-0.741513
-0.191006,-0.030322,-0.985782,-0.076045,-0.183908,0.979998
-0.427438,0.572226,0.251137,-0.460650,0.309355,0.831926
0.025032,0.565171,0.361314,-0.660008,0.186288,-0.727795
-0.359808,0.397973,0.458108,0.955884,0.232052,-0.180102
0.002672,0.732680,0.306871,-0.681802,0.158326,0.714198
0.040020,-0.029180,0.853367,-0.447966,0.037832,0.893250
-0.121164,0.049880,0.990108,-0.618953,-0.785369,-0.009621
0.080807,-0.192644,0.657274,0.072704,0.953800,-0.291511
0.125955,-0.279744,0.632279,0.053526,0.583037,0.810680
0.159803,-0.284621,0.375608,0.147127,0.677122,0.721013
0.365029,-0.118823,0.528781,0.346707,-0.100378,0.932587
0.036335,0.720956,0.196187,0.002315,-0.511204,0.859456
-0.056666,0.173087,0.713286,0.954835,0.199708,0.220016
-0.156793,0.089929,-0.084100,0.940206,0.247928,0.233547
0.335791,-0.058387,-0.946809,-0.203134,-0.156478,0.966567
-0.293774,0.493011,-0.969831,-0.622946,-0.131200,0.771184
-0.228232,0.462040,0.583363,-0.641805,0.016211,0.766697
-0.028656,0.768372,0.291957,0.441728,-0.569733,-0.693022
-0.365153,0.053563,0.814609,0.691205,0.716737,0.092320
0.291993,-0.119964,-0.958421,-0.340897,-0.452002,0.824308
0.031114,0.863669,-0.961432,-0.267900,0.029325,-0.963000
-0.326575,0.201878,0.157822,-0.398147,-0.912199,0.096808
-0.333579,0.112703,0.816696,0.850677,-0.451515,0.269226
-0.317424,0.277982,0.646244,0.695676,-0.446480,-0.562752
-0.695015,-0.148289,0.625056,0.815267,-0.080592,0.573450
0.354526,0.232590,0.394709,0.838579,0.530481,0.123997
0.119016,0.186938,0.739218,0.783520,-0.003327,-0.621357
-0.082710,0.660520,0.331221,0.239548,-0.969691,0.048133
-0.307902,-0.834565,0.184297,-0.651885,0.063631,0.755644
-0.645321,-0.179778,0.611256,0.486199,0.528387,0.696001
0.094996,0.427749,0.714349,0.144452,0.844304,-0.516028
-0.523757,0.332971,0.595469,0.614822,-0.537700,0.576951
-0.251820,0.603196,0.511780,-0.259511,-0.532829,0.805449
0.696674,0.253340,0.322240,0.024371,0.632571,0.774118
-0.756688,0.228283,0.515486,-0.526383,0.826152,-0.200981
-0.344697,0.316682,0.686900,0.656532,0.510453,-0.555341
0.270678,-0.080227,0.679158,0.155165,0.821349,0.548918
-0.709390,0.029026,0.347488,0.487061,-0.537689,-0.688231
0.830768,0.089409,0.230948,0.240065,0.621919,0.745376
0.194017,-0.021554,-0.935273,-0.274816,0.577672,0.768616
-0.174238,-0.286436,0.702889,-0.664315,0.493483,0.561390
0.048373,0.167692,-0.973537,0.163843,-0.096979,-0.981708
0.891151,-0.005369,0.244623,0.147090,0.603449,0.783718
-0.611781,0.115504,0.041180,0.325674,-0.820214,0.470303
-0.245493,-0.548258,0.509199,-0.588169,-0.784090,-0.198143
-0.005128,0.085052,0.695704,0.926387,0.343696,-0.153884
0.457048,0.150624,0.530122,0.544343,-0.297001,-0.784526
0.044628,0.116593,-0.974018,0.085642,0.202333,0.975565
-0.240025,-0.504578,0.506075,0.990478,-0.107635,0.085833
-0.035228,0.187716,0.757787,0.135878,0.885554,0.444220
-0.944900,-0.192851,0.400452,0.944052,0.019731,0.329205
0.234437,0.141857,-0.955866,-0.561444,0.179936,0.807715
-0.127245,-0.623220,0.283077,-0.647133,0.220339,0.729843
-0.235419,0.485436,0.716373,0.768101,-0.598408,0.227878
-0.084922,0.083133,0.224902,0.744286,-0.122128,-0.656600
-0.411590,0.360984,0.677906,-0.082207,-0.793053,0.603581
0.057158,0.311390,-0.979014,-0.168202,0.007544,0.985724
-0.391137,0.503801,0.469164,0.694739,0.539482,-0.475707
0.003042,0.275544,0.687848,-0.236526,-0.404695,0.883333
0.115881,-0.352838,0.641311,-0.342662,0.640435,0.687333
-0.273687,0.032294,-0.983581,-0.251524,-0.163618,0.953921
-0.300162,-0.410836,0.600453,0.442609,0.816141,0.371500
0.017600,-0.011801,0.697247,0.225533,-0.061261,0.972307
-0.007095,0.767127,0.196162,0.429257,0.034371,-0.902528
0.018828,0.656266,-0.955613,0.010822,0.128008,0.991714
0.491017,-0.090861,0.509807,0.721173,0.526757,0.449930
0.223748,-0.164319,0.687089,-0.676534,0.386912,0.626579
-0.266931,-0.394859,0.563820,0.045636,-0.942471,0.331157
0.031972,-0.036961,0.814293,0.831405,-0.191461,-0.521641
-0.501397,-0.719554,0.382350,0.417615,0.759916,0.498122
0.063117,0.149016,0.625297,-0.720035,-0.094422,-0.687484
-0.603490,-0.300962,0.410015,0.899533,-0.275867,-0.338730
-0.597285,-0.413794,0.423132,0.796736,-0.261642,0.544752
-0.529040,0.072291,0.708239,-0.439044,0.735004,-0.516729
-0.744156,-0.143931,0.126261,0.246169,-0.763438,0.597130
-0.263306,0.138019,0.754018,-0.327574,0.702558,-0.631750
-0.070548,-0.147303,0.784617,0.466189,0.882095,-0.067647
0.067170,0.434079,0.717119,-0.059892,-0.811749,0.580928
-0.401456,-0.206858,0.624892,0.517703,0.752388,-0.407304
0.341688,0.031464,0.532677,0.984153,-0.115557,0.134499
-0.171535,-0.591056,0.368727,-0.227832,-0.190652,-0.954853
0.010720,0.832283,0.485304,-0.197239,-0.757609,0.622194
-0.226389,0.365445,0.681220,-0.792561,-0.585974,0.168764
0.062502,0.209608,0.354420,0.869663,-0.052794,-0.490815
-0.347708,-0.077114,0.652569,-0.676459,0.118441,0.726894
-0.030866,-0.207584,0.643145,-0.427258,0.784974,-0.448627
-0.641636,0.349934,0.480738,0.926120,-0.334676,0.174049
-0.252249,-0.025912,0.871481,-0.260497,0.786118,0.560499
-0.413557,-0.791300,0.181653,-0.091533,-0.302207,0.948838
-0.089776,-0.039141,0.838048,-0.325468,-0.270614,0.906002
-0.224608,0.364927,0.230733,0.238510,0.391921,-0.888544
0.347462,0.270303,-0.964556,0.401756,-0.235377,-0.884980
-0.363985,0.592873,0.515765,-0.622556,0.370222,-0.689464
0.198379,-0.055326,0.719978,0.094722,-0.391550,0.915268
0.251021,0.103105,0.285126,0.266708,0.068157,-0.961364
-0.142111,0.258113,0.814773,0.930175,0.084716,0.357209
0.102184,0.126450,-0.970995,-0.372044,-0.044398,0.927153
-0.585797,-0.328300,0.474363,0.974466,0.055299,0.217617
0.073682,-0.313568,0.640704,0.195046,0.515285,0.834529
0.013852,0.849298,0.182020,-0.587581,0.423698,0.689368
-0.622716,-0.326693,0.440057,0.955526,-0.076103,-0.284917
-0.365706,0.090344,0.422702,0.228167,-0.363107,0.903379
-0.434320,0.131585,0.239297,-0.258931,0.758957,-0.597444
-0.176388,0.066896,0.879450,0.267474,0.963279,-0.023454
-0.009552,-0.538972,0.492287,0.402114,0.184600,-0.896787
0.374674,0.233938,0.508516,-0.698411,0.294810,0.652157
-0.699008,-0.075402,0.533904,0.558347,0.478259,0.677877
-0.215455,0.051747,-0.007444,-0.059052,-0.995478,0.074403
-0.313001,0.543123,0.380086,-0.677738,-0.027983,0.734771
-0.110415,0.793739,-0.972614,0.201387,0.332042,-0.921516
0.140208,0.626385,-0.969148,0.087058,-0.086293,0.992459
0.108450,-0.296864,-0.979508,-0.241093,-0.303882,0.921699
-0.065818,-0.069177,0.731628,0.846406,-0.399396,0.352250
-0.523204,0.576998,0.369144,-0.328270,-0.219850,-0.918643
0.001383,0.704200,0.509895,0.844227,0.513340,-0.154155
-0.066249,0.088735,0.084885,-0.051245,0.936469,0.346988
0.601709,0.107930,0.412810,0.979796,-0.032037,0.197416
-0.744833,-0.005213,0.058536,0.906497,-0.396643,-0.144697
0.229829,-0.009934,0.573661,-0.062553,-0.627422,0.776163
-0.170552,-0.521438,0.513121,-0.071374,0.971605,0.225587
0.093399,0.711255,-0.960799,0.102698,0.089665,0.990663
-0.716761,-0.453583,0.408434,0.996783,0.078216,-0.017471
-0.454099,0.119965,0.015034,-0.158395,0.910333,-0.382366
-0.841703,-0.111612,0.458753,0.783746,0.555123,0.278532
-0.296415,0.433197,0.585008,0.086186,-0.994511,0.059336
-0.105254,0.106996,0.804110,0.857268,-0.106743,-0.503684
0.139286,0.750267,0.559102,-0.185706,-0.942188,0.278917
0.149114,-0.365964,-0.982417,-0.253680,-0.353421,0.900411
-0.038054,-0.606775,0.461359,0.165465,0.968011,0.188617
-0.203845,-0.461364,0.616050,-0.106104,0.559244,0.822185
-0.802820,-0.154047,0.135963,-0.230223,0.689805,-0.686416
0.055806,0.694966,0.521722,0.423377,0.656092,-0.624736
-0.123192,0.610977,0.511097,0.283806,-0.726442,0.625889
-0.614115,-0.568801,0.403399,-0.405349,-0.561832,0.721136
-0.239472,0.656525,0.446711,0.715476,-0.099989,-0.691445
0.003042,-0.582704,0.511287,-0.387427,0.828416,0.404508
-0.537762,-0.075973,0.452795,0.387195,-0.918754,-0.077273
-0.720754,0.045833,0.293045,0.776944,-0.396948,-0.488661
-0.804355,0.031879,0.168928,0.651928,0.415139,-0.634547
-0.592431,0.503282,0.394709,-0.693192,-0.259094,-0.672574
0.268099,-0.262625,0.556129,0.061871,0.501346,0.863032
0.205995,0.317044,0.620932,-0.655975,-0.210523,0.724829
0.185480,-0.114518,-0.963696,-0.074718,-0.309025,0.948114
0.218036,0.146527,0.511160,0.290018,-0.927656,-0.235253
0.203661,-0.183305,0.544061,-0.236164,0.357868,0.903414
0.218649,-0.390864,0.572573,0.619571,-0.524332,0.584131
-0.381861,0.733873,0.442891,-0.707007,0.463884,-0.533811
-0.316809,-0.215469,0.553827,-0.264776,0.762497,-0.590332
-0.215333,0.096932,0.831433,0.565374,0.728442,0.386943
-0.148991,0.581563,0.424853,-0.520408,0.253072,-0.815555
0.108510,0.726611,0.197845,0.120709,-0.507485,0.853164
-0.149789,0.381890,0.501230,0.214425,0.486738,0.846823
-0.314906,0.093197,0.797583,0.996948,0.077689,-0.007676
-0.178231,0.627008,0.520533,-0.254813,-0.200934,0.945884
-0.129765,0.559309,0.457969,0.780966,-0.012685,-0.624445
0.293775,-0.101703,0.650165,0.881154,0.164938,-0.443128
-0.451212,0.293129,0.520824,0.243684,0.002768,0.969851
-0.469517,0.288564,0.669873,-0.522124,-0.822152,0.226832
-0.165084,0.016316,0.861083,-0.386910,0.916656,-0.100215
0.030683,-0.373434,0.537888,-0.856995,0.394499,0.331558
-0.262569,0.568906,0.510768,0.198407,0.449481,-0.870978
0.231119,-0.208103,0.625739,0.923142,-0.157028,-0.350930
-0.432907,-0.634840,0.359746,-0.165442,0.984241,0.062436
-0.274118,0.551631,0.495462,-0.401532,0.715240,-0.572018
-0.065634,0.243483,0.706367,0.746610,0.030721,0.664552
-0.145305,-0.418981,0.594002,0.086150,0.884569,0.458384
0.129703,0.291418,0.554333,-0.511045,0.700224,-0.498517
-0.234129,0.365808,0.691808,0.503853,-0.798912,0.328438
0.016616,0.132105,0.311526,0.095725,0.934947,0.341630
-0.049110,-0.096931,0.836860,-0.722508,0.689608,-0.049215
-0.603058,0.155968,0.641716,-0.567833,-0.816769,0.102246
-0.026075,-0.216144,0.710529,0.896307,-0.355213,0.265438
-0.454161,0.174383,0.767059,0.562634,0.819334,-0.110162
-0.221228,0.073899,-0.007950,-0.059052,-0.995478,0.074403
-0.477994,-0.125930,0.118785,0.028142,0.006372,0.999584
-0.344328,0.107670,0.794661,0.975004,-0.211538,-0.067960
-0.696489,-0.514797,0.418692,0.559373,0.746493,-0.360347
0.316257,0.137499,-0.946075,-0.019130,0.252206,0.967485
0.325901,0.001842,-0.943899,0.199671,0.168753,0.965222
0.167050,-0.332243,0.649849,0.367383,-0.736480,-0.568002
-0.427378,-0.159701,0.638275,-0.365790,-0.909052,0.199554
0.347891,0.172983,0.518421,-0.203480,0.962826,0.177660
-0.151939,-0.374575,0.659728,0.626405,-0.748118,0.218946
0.100219,0.516303,0.479979,0.027781,0.676845,-0.735601
-0.010473,-0.631572,0.377303,-0.651372,0.419032,0.632556
-0.245553,0.752705,0.422816,0.528961,0.223666,-0.818641
-0.339353,-0.297435,0.684977,0.927954,-0.317127,0.195786
0.098867,-0.395118,0.535308,0.686926,0.677591,0.262685
-0.251389,0.666953,0.262724,0.507901,0.229086,-0.830395
-0.103228,0.091225,-0.200729,0.917337,0.370122,0.146638
-0.610429,-0.251731,0.485570,0.970685,0.226298,0.080995
-0.742559,-0.190050,0.389257,0.040570,-0.206770,0.977548
0.531619,-0.175680,0.614759,0.980454,-0.173231,0.093279
-0.581499,0.131222,0.627409,0.413625,-0.551586,0.724339
-0.471851,0.124426,0.684989,0.847899,-0.509825,0.145413
-0.435793,0.129044,0.618757,0.353094,0.855239,-0.379330
-0.479959,0.266206,0.400186,-0.043738,-0.943379,0.328822
-0.129333,0.142480,0.754979,0.838146,0.029162,-0.544665
-0.509507,0.497420,0.226129,-0.220601,-0.149023,0.963912
-0.031052,-0.034056,-0.980672,-0.234135,-0.360581,0.902863
-0.087196,0.562784,-0.965024,0.355897,0.147633,-0.922790
0.557541,0.203850,0.565072,0.927726,-0.182057,-0.325851
-0.170612,-0.745597,0.026975,-0.685577,0.601576,-0.409988
0.200896,0.854694,0.222094,-0.074425,-0.587601,0.805720
-0.308885,-0.656369,0.224788,0.840102,-0.526377,0.130979
-0.268343,-0.126241,0.698170,0.714579,0.549668,0.432715
-0.533953,-0.621664,0.425257,0.990620,0.046391,-0.128532
-0.738382,-0.014032,0.541418,0.768757,0.443910,0.460386
-0.634018,0.253703,0.514057,0.471237,0.757200,-0.452310
-0.878927,-0.377947,0.372458,-0.567237,-0.405093,-0.717037
0.039651,0.457786,0.551752,0.926534,-0.185013,-0.327575
-0.138549,0.034317,-0.006015,-0.058802,-0.998253,-0.005854
-0.339536,0.100771,0.750413,0.329976,0.928168,0.172103
-0.101385,-0.021969,0.677741,-0.603862,0.031552,0.796464
-0.003285,-0.336705,0.643524,0.193689,0.381763,-0.903738
-0.855463,-0.242445,0.376367,-0.300320,0.345574,0.889037
-0.254583,0.087335,0.713666,0.015913,0.655993,0.754600
-0.411898,-0.761367,0.418452,0.332318,0.565446,0.754875
-0.481925,0.359583,0.593167,-0.638454,0.396748,-0.659521
-0.473387,-0.401603,0.242548,-0.413255,0.300186,0.859715
-0.073067,0.640080,0.496347,0.256012,-0.627298,-0.735497
0.254154,-0.065753,0.627725,0.227065,-0.565597,-0.792806
-0.035105,0.054756,0.847801,0.385627,0.602223,0.699013
-0.081420,-0.260238,0.728390,-0.717472,0.647677,0.256412
-0.051629,-0.135631,0.681625,-0.464054,-0.404079,-0.788273
-0.079270,0.027625,0.772183,0.704512,0.468979,0.532654
-0.318897,-0.021607,0.882208,0.940810,-0.288031,0.178648
-0.374674,0.730398,0.248114,-0.020740,-0.626284,0.779319
-0.292176,0.511841,-0.963633,0.624813,-0.129459,-0.769967
-0.239043,0.459705,0.699208,0.168616,-0.768943,0.616682
-0.136952,0.082459,-0.384323,0.948247,0.317521,-0.002881
-0.195552,0.284830,0.757927,0.816794,0.496359,0.294068
0.242237,0.704823,0.359758,-0.377520,0.626119,0.682241
-0.289721,-0.070630,0.839744,-0.799082,-0.393436,-0.454617
-0.119138,0.435116,0.481497,-0.282202,0.949768,-0.135291
-0.164285,0.429617,0.313777,0.873517,0.318656,-0.368004
0.194262,0.696885,0.349967,-0.309218,0.628479,0.713722
-0.024723,0.135113,-0.967794,0.141164,0.662049,0.736046
0.664302,-0.043757,0.287087,0.275196,0.798960,-0.534724
-0.099113,-0.072809,0.808057,0.988612,0.002141,0.150471
0.303173,-0.366690,0.596177,-0.292946,0.882347,0.368301
-0.323443,0.224756,0.606853,0.101246,-0.238651,0.965813
-0.101814,0.196951,0.806614,0.852517,-0.517982,-0.070066
-0.103290,0.073432,0.887002,-0.399030,0.823406,0.403457
-0.154950,-0.497315,0.372180,-0.179414,-0.035152,0.983145
-0.209681,-0.346976,0.698271,-0.662309,0.396736,0.635569
-0.258945,-0.225118,0.669886,0.801964,0.449308,0.393668
-0.447033,-0.540321,0.458880,0.439309,-0.559912,0.702500
-0.267422,-0.330843,0.586462,0.942663,0.293175,-0.159481
0.329464,-0.115140,0.164361,0.754042,0.504782,-0.420257
-0.100894,0.011595,0.913427,-0.237828,-0.561723,-0.792405
0.088793,0.416648,0.710896,0.217488,0.815166,-0.536847
0.139963,-0.115087,0.253464,-0.711863,0.069268,0.698894
0.272276,0.906570,-0.964860,0.242901,-0.011741,-0.969980
-0.262507,-0.388426,0.144249,-0.182220,0.171911,0.968113
-0.254400,0.138485,0.550386,-0.132895,-0.386741,0.912562
0.037379,-0.183825,0.808891,0.868042,0.494064,-0.049027
-0.264903,0.079138,0.737498,0.013903,-0.934321,0.356161
0.086028,0.386663,0.702294,0.714121,-0.403308,0.572166
0.333333,-0.210696,0.663258,-0.572668,0.802833,0.165862
-0.167665,-0.508209,0.571599,0.577801,0.697808,0.423331
0.430082,0.448604,0.405347,0.501819,0.697802,-0.511127
-0.594090,-0.220398,0.606348,0.703338,0.420078,0.573455
0.088424,0.728686,0.544732,-0.090365,-0.956827,0.276255
-0.029024,-0.104609,0.765655,-0.674636,-0.399609,-0.620628
0.152616,0.279953,0.375608,-0.363794,-0.255513,0.895749
-0.181301,-0.511944,0.603868,0.927180,0.111870,0.357522
-0.626032,0.009260,0.134964,-0.120475,0.148330,-0.981572
0.116987,-0.187975,0.516384,-0.743082,0.656114,-0.131698
-0.393409,0.375769,0.407662,-0.281938,0.929307,0.238536
-0.537455,-0.172982,0.577519,0.933498,-0.333092,-0.132782
-0.404651,-0.388323,0.484786,-0.332556,-0.583396,0.740983
-0.005867,0.132831,0.813407,-0.517106,0.795025,-0.317077
0.000768,-0.201410,0.756775,0.858598,-0.477470,-0.186634
-0.474247,-0.296864,0.549336,-0.330435,0.561340,-0.758756
0.038668,0.117942,0.831445,-0.647402,0.475326,0.595765
-0.379220,-0.771327,0.182222,0.419497,0.313856,-0.851773
-0.541019,0.205717,0.553030,0.559780,0.736825,-0.379125
-0.217605,0.199959,-0.062798,0.976087,-0.174723,-0.129328
-0.087995,0.083703,0.398706,0.965303,-0.218166,0.143504
-0.497895,0.056728,0.677185,0.708725,-0.235643,0.664967
-0.224301,-0.058179,0.739648,0.927594,0.372475,-0.028844
-0.158328,0.124894,0.797026,0.763801,-0.114610,-0.635195
-0.414539,0.508936,0.493059,0.356339,0.933782,-0.032764
-0.043091,-0.397089,0.583414,0.011701,0.897603,0.440649
0.051937,-0.253339,0.618908,-0.307394,0.515474,-0.799873
-0.130256,0.033902,0.823514,-0.038315,0.637578,0.769432
0.005192,0.358598,0.609371,-0.251505,-0.421021,0.871485
-0.154090,-0.268695,0.709922,0.788435,-0.613058,0.050305
-0.161461,-0.266256,0.686583,-0.854884,0.172481,0.489308
-0.240025,-0.434596,0.619895,-0.632299,-0.630733,-0.449860
-0.497590,0.167692,0.719459,0.798055,-0.473825,0.372289
0.538377,-0.151868,0.629850,-0.317354,-0.872334,0.371913
0.115576,0.076129,-0.970071,-0.277503,-0.188083,0.942134
-0.089223,0.188650,0.674073,-0.755043,-0.552652,0.352824
-0.439724,0.234561,0.103441,-0.449537,-0.511533,-0.732291
-0.507540,-0.710943,0.485810,0.859380,0.456172,0.231025
0.403483,0.275388,0.263394,-0.162284,0.949248,-0.269428
0.490832,0.571344,0.416997,0.539059,-0.272745,-0.796885
0.105256,0.610096,0.395721,-0.379130,0.924941,0.027309
-0.292238,-0.481752,0.300976,-0.713879,-0.351351,0.605747
-0.524370,0.343606,0.591636,0.760593,-0.501345,0.412495
-0.010043,0.037741,-0.958472,0.968378,0.108620,0.224600
-0.070671,0.115815,-0.814685,-0.686915,0.718083,0.111822
-0.001750,0.805152,0.207053,0.377780,0.164507,-0.911164
-0.573022,-0.081886,0.519446,0.439360,-0.581836,-0.684419
-0.553732,-0.420537,0.488480,-0.051121,-0.998316,-0.027434
0.091127,0.903665,0.200779,0.784407,-0.124990,-0.607522
0.192114,-0.020828,-0.945468,-0.551417,0.583034,0.596667
-0.618232,0.199959,0.453896,-0.061263,0.430954,0.900292
-0.115021,0.068037,0.777875,0.396861,-0.837340,0.375983
0.131977,0.454362,0.521710,0.819980,0.348403,-0.454145
-0.104825,0.232901,0.784111,0.617463,0.709471,0.339691
-0.242053,-0.127278,0.728782,0.425371,0.373356,0.824418
-0.244755,0.277826,0.660968,0.730545,0.675093,0.102730
-0.930525,-0.352890,0.388751,0.783329,0.116960,-0.610505
-0.796493,-0.208829,0.372800,0.495669,-0.473644,-0.727993
-0.230444,-0.135475,0.681372,0.877069,0.380966,0.292601
-0.141312,0.057921,0.902422,-0.061095,-0.881507,0.468202
-0.656562,-0.062381,0.579948,0.899539,0.136889,0.414838
-0.092846,0.150313,-0.012289,0.910476,0.038383,0.411776
0.316379,0.032242,0.606638,-0.208233,-0.750379,0.627352
-0.322890,-0.067050,0.649090,-0.408795,0.702135,0.583004
0.052121,-0.000700,0.838630,0.884020,0.052942,0.464441
0.045732,0.321039,0.687380,0.011188,-0.716988,0.696996
0.063915,0.196795,0.791878,-0.085370,0.956426,0.279215
-0.156853,-0.495863,0.552372,0.622192,0.779059,0.077097
-0.814675,-0.218633,0.381237,-0.503247,0.420009,0.755205
-0.228294,-0.347859,0.728909,-0.454412,0.879906,0.138832
0.315643,0.023423,0.580467,0.032833,0.105416,0.993886
0.150097,0.250071,0.736220,0.714549,0.265057,-0.647429
0.197764,0.134854,0.421779,0.135398,0.497931,0.856581
-0.135109,0.591836,0.501787,-0.495020,0.806699,-0.322787
-0.177861,0.544472,0.278827,0.447804,-0.387157,-0.805966
-0.803065,-0.058646,0.520913,-0.716936,0.620529,-0.317721
-0.177125,0.205925,0.740394,0.241384,-0.967502,-0.075320
0.123192,-0.029284,0.556129,-0.031676,-0.679314,0.733164
-0.188119,0.702903,0.160579,0.748515,0.107302,-0.654379
-0.158695,0.292974,0.746188,-0.359927,0.899346,0.248254
-0.259928,0.216300,0.665130,0.794885,0.428028,0.430057
-0.641450,0.154100,0.287492,0.872519,-0.134231,-0.469779
-0.366197,0.135995,0.537079,0.449051,0.513534,-0.731188
0.104334,0.777191,0.569322,0.404748,-0.910261,0.087200
0.092355,0.384795,0.585552,-0.517800,-0.516490,-0.681998
-0.087564,-0.012683,0.807702,0.379177,0.130863,-0.916024
-0.849198,-0.491660,0.440905,-0.095688,0.994373,0.045454
-0.197948,-0.486628,0.618871,0.769115,0.529494,0.357907
-0.349059,-0.146317,0.714539,-0.109970,0.486969,0.866468
-0.231426,0.154722,0.787741,-0.558990,0.600262,-0.572028
-0.332964,-0.036961,0.308857,-0.214777,0.529804,0.820475
0.474309,0.065650,0.298724,0.240727,0.625832,-0.741879
-0.348075,0.473349,-0.022674,-0.544413,-0.802547,-0.243993
0.094751,0.757477,0.541190,0.182829,-0.982453,-0.036881
-0.516692,-0.350244,0.430874,0.350281,-0.895071,-0.275954
0.238306,0.076440,-0.949313,0.480443,-0.338275,-0.809163
0.232103,0.548207,0.547527,0.637150,0.292161,-0.713219
-0.939555,-0.087489,0.138480,-0.133284,-0.261613,0.955926
0.098436,-0.392006,0.557394,0.489996,0.864267,-0.113780
-0.078166,-0.555624,0.475830,0.754878,0.609914,0.241172
-0.322706,-0.671101,0.186118,0.474923,-0.503979,-0.721424
-0.258576,0.788966,0.442233,0.488423,0.835465,0.251874
-0.095673,0.067622,0.900550,0.848629,-0.519418,0.100170
-0.327743,0.566934,0.376721,0.601313,0.000598,-0.799013
-0.166436,0.159184,0.804236,0.997950,-0.063788,0.005270
-0.285237,0.127332,0.276158,0.294536,0.953086,0.069828
0.091864,0.410733,0.715639,-0.497489,-0.704336,0.506375
0.152371,0.086868,0.756940,0.485466,-0.823428,0.293749
-0.231119,0.519053,0.406840,-0.598079,-0.314993,0.736940
-0.331736,-0.651389,0.354774,-0.766820,0.294059,0.570540
-0.621548,-0.580577,0.476108,0.859781,0.376751,-0.344726
-0.693848,0.252718,0.216452,-0.448725,0.096238,0.888473
-0.318713,0.731331,0.389409,0.677344,-0.727247,-0.110982
0.003840,0.020777,0.731818,-0.638980,0.487169,-0.595291
-0.719955,-0.362850,0.390307,0.479797,0.619774,0.621027
-0.227004,-0.440095,0.477411,0.170779,0.984093,0.048946
-0.289168,-0.084325,0.694198,0.838825,0.267817,0.473969
-0.237138,0.516199,0.739509,0.724025,-0.546319,0.421097
-0.211585,-0.154462,0.737472,0.825549,0.550579,0.123821
-0.076445,0.664981,0.495475,0.485001,0.185462,-0.854622
-0.252127,0.762613,-0.985175,-0.205762,0.252695,0.945414
-0.020425,-0.003553,0.811763,-0.145962,-0.547137,0.824218
0.537088,-0.161621,0.624487,0.945618,0.091061,0.312272
-0.382720,0.157213,0.784453,0.495368,0.864404,0.086116
-0.133326,-0.475631,0.484950,0.373384,0.211891,-0.903154
-0.505636,-0.697663,0.501002,0.741321,0.626248,0.241362
0.083020,-0.039763,0.830459,-0.673945,0.606314,0.422116
-0.864738,-0.077529,0.137431,0.134418,-0.091625,0.986680
0.219939,0.027573,0.649558,0.783372,0.147980,0.603681
-0.611352,-0.138225,0.596076,0.889241,-0.391213,-0.237073
0.227925,0.442223,-0.968364,0.285094,0.309841,-0.907039
-0.191990,-0.157263,0.729503,-0.281125,-0.742953,-0.607444
0.203416,-0.310196,-0.976396,0.321966,0.291249,-0.900839
0.001752,0.100978,-0.944709,0.901565,-0.023484,0.432006
-0.040633,0.150521,0.772069,0.439499,0.864717,-0.243117
0.008200,0.825955,0.472807,0.623758,0.543372,-0.561848
-0.019135,-0.068191,0.716272,0.202380,0.281768,-0.937896
-0.256426,0.210542,0.734626,-0.709699,0.662742,0.238954
-0.410792,-0.113583,0.706165,-0.634914,-0.625730,-0.453152
-0.013054,0.843800,0.191431,-0.597081,0.428936,0.677871
0.143524,0.197469,0.673984,-0.212760,0.243313,-0.946326
-0.324856,0.608695,0.261876,-0.175356,-0.108004,0.978563
-0.141803,-0.117889,0.842754,-0.536408,-0.631870,-0.559471
-0.723517,-0.091069,0.459272,0.383970,0.700640,0.601390
0.417734,-0.224340,0.448861,-0.600406,0.574805,-0.555978
-0.253293,0.041372,0.730971,0.470108,0.586737,0.659347
-0.518167,0.357301,0.620502,-0.713829,0.313688,-0.626137
-0.596424,-0.334630,0.483534,0.951922,0.212643,-0.220517
-0.308148,-0.547739,0.297649,0.226364,0.359257,0.905369
0.332780,0.107619,0.549539,-0.183027,0.873245,0.451602
-0.059799,-0.234767,0.766364,0.028243,0.884308,0.466049
-0.435057,0.138070,0.702345,0.840127,0.239619,0.486590
-0.429343,-0.675355,0.455629,0.130665,-0.916855,-0.377231
-0.556497,-0.078670,0.344958,0.852489,0.466431,0.236019
0.197702,0.934947,0.228595,0.252149,-0.224688,-0.941242
-0.791824,0.096257,0.152471,0.193066,0.967075,-0.165807
-0.145243,0.815994,0.467152,0.691515,0.503220,-0.518244
0.205566,0.239696,0.599365,-0.093129,0.112328,0.989297
0.273258,-0.107410,0.671872,0.627044,0.041124,-0.777898
0.273873,-0.328456,0.579126,0.835158,-0.206927,-0.509600
-0.530206,-0.169454,0.421437,0.714893,-0.124234,0.688109
0.030191,0.047649,0.742684,-0.373551,0.869286,-0.323731
0.437452,-0.069073,0.683446,-0.544901,0.596108,0.589693
0.308026,0.174695,0.416314,-0.367755,-0.714266,-0.595467
-0.159987,0.181543,-0.975005,-0.046659,0.419876,0.906381
-0.128289,0.031101,0.956296,0.455439,0.872311,-0.177902
0.757303,0.236947,0.319103,-0.499700,-0.587540,-0.636472
0.049234,0.132520,0.802643,0.113765,-0.930376,0.348508
-0.269449,0.494100,0.267569,0.889711,0.032157,-0.455390
0.190085,0.352788,0.619845,0.541200,0.388914,-0.745553
0.325901,0.303349,0.625676,0.433731,0.455042,-0.777698
0.333824,-0.056986,0.541114,0.952373,-0.218116,0.213097
-0.360791,-0.280574,0.591168,-0.064065,0.993607,-0.092953
-0.443042,-0.546494,0.288946,0.962617,-0.181819,0.200773
-0.798765,0.121574,0.203170,0.874663,0.283261,-0.393354
0.275470,-0.306876,-0.968452,0.290492,0.094061,-0.952243
-0.073497,-0.018598,0.216616,-0.343996,0.161313,0.925011
-0.067661,0.455348,0.283924,-0.149706,0.328221,0.932662
-0.634878,0.297694,0.529704,0.722312,0.597503,-0.348218
0.160602,0.087491,0.731388,0.978264,-0.196690,0.065672
0.230873,0.639095,0.354041,0.063610,-0.501651,0.862728
0.025278,0.330584,0.696463,-0.086045,-0.826964,0.555631
0.191561,0.087853,0.280054,-0.394922,-0.198486,0.897017
-0.291132,0.237311,0.386322,0.085671,-0.172021,0.981361
0.031972,0.131430,0.798886,-0.237751,-0.717344,0.654898
-0.449184,-0.077996,0.546642,-0.485942,0.227391,0.843892
-0.100463,-0.288927,0.653682,0.246077,-0.761045,-0.600214
0.094813,0.495396,0.338912,0.203964,-0.520028,0.829439
-0.098191,0.727337,0.463914,-0.684545,0.048754,0.727339
0.103352,0.096206,0.708467,0.904034,0.236330,-0.356189
-0.017045,0.111561,0.891227,-0.622379,0.782654,0.009890
-0.247458,0.471896,0.728415,0.724025,-0.546319,0.421097
-0.224423,0.033331,0.488808,-0.468749,-0.880543,0.070129
0.194570,0.537209,0.460094,-0.573464,0.673110,-0.466971
0.742192,0.236324,0.324491,-0.265435,-0.574401,-0.774343
-0.453422,0.541203,0.502546,0.736701,0.496283,-0.459320
0.178906,0.211009,0.482534,-0.203216,0.128499,0.970665
0.584140,0.064457,0.408977,-0.379066,-0.502941,-0.776763
-0.459198,-0.361606,0.557027,-0.198192,0.939544,0.279242
-0.000951,0.075714,0.270440,0.175021,-0.968040,-0.179630
0.020549,0.391592,0.712907,-0.001896,-0.541568,0.840655
-0.935195,-0.409695,0.398769,0.987832,0.015239,-0.154773
-0.233145,-0.659533,0.223270,0.461883,-0.832622,0.305620
0.066679,0.484087,-0.972032,0.095711,-0.372852,0.922941
-0.597347,-0.048686,0.640274,0.890798,0.299870,0.341405
-0.137074,0.286489,0.826626,0.901064,0.164037,0.401467
-0.103657,0.076856,0.306023,0.766874,-0.636928,-0.078916
-0.850487,-0.438798,0.432594,-0.361480,-0.805644,-0.469329
-0.593046,0.259306,0.223827,0.412958,0.885121,-0.214539
-0.204398,0.061189,0.846018,0.187061,-0.084173,0.978735
0.138180,-0.155033,0.597518,-0.028949,-0.976838,0.212015
-0.185909,0.271341,0.781948,0.939624,0.301069,0.162677
-0.198010,-0.421420,0.601237,0.259491,0.778731,0.571177
-0.594214,-0.147510,0.594824,0.726792,0.244002,0.642057
-0.045610,0.048531,0.878767,0.775926,-0.063645,0.627605
0.248749,0.085156,0.286125,-0.247217,-0.192890,0.949567
-0.354156,-0.366119,0.417478,-0.486840,0.506341,-0.711763
-0.198808,0.748295,0.439981,-0.414970,-0.585694,0.696248
-0.687275,-0.430135,0.416947,0.327916,-0.634695,-0.699739
-0.338309,0.225949,0.739964,-0.249745,0.966624,0.057150
-0.123438,0.559049,0.501331,0.079756,-0.579712,0.810909
0.147763,0.887169,-0.962355,-0.151269,-0.001077,-0.988492
-0.413864,0.150780,0.742532,0.208860,0.825616,0.524152
-0.551277,-0.656109,0.470947,-0.467699,-0.800379,-0.375034
-0.221474,-0.248255,0.676540,0.776681,-0.347379,-0.525448
0.193711,-0.277202,-0.969059,0.171355,0.293719,-0.940408
0.158819,0.367261,-0.977889,0.163051,0.058107,-0.984905
-0.051446,0.063471,0.865194,0.984914,-0.168418,0.039748
0.306491,-0.372344,0.601098,-0.292946,0.882347,0.368301
-0.251022,0.660987,0.372749,-0.665946,0.074131,0.742308
0.092846,0.763184,0.321734,-0.425462,0.678948,0.598340
0.004884,-0.078930,0.766844,-0.119447,-0.380352,0.917096
-0.933474,-0.382875,0.390003,0.741390,0.103630,-0.663024
0.264474,0.336187,0.386613,-0.810900,0.031810,0.584320
-0.144323,0.021607,0.918474,0.042354,0.817472,0.574409
-0.053780,0.078153,-0.698284,0.595696,-0.797564,0.095066
-0.808839,-0.417166,0.365147,0.351261,0.936259,-0.005978
-0.201511,0.193267,0.847561,0.949520,0.299583,0.093068
0.584815,-0.094804,0.052312,0.088689,-0.911447,-0.401743
-0.081420,-0.639042,0.546781,0.983734,0.089879,-0.155529
-0.877208,-0.202085,0.365716,0.438391,-0.644905,-0.626027
-0.628428,-0.508572,0.424549,-0.402426,0.547294,0.733841
-0.041493,-0.073275,0.675844,-0.244802,-0.755461,0.607742
-0.859455,-0.133089,0.141554,0.459155,0.389016,0.798651
-0.208882,-0.166446,0.697968,0.593347,0.801035,0.079265
-0.479897,0.264857,0.664017,-0.296468,0.723054,-0.623939
-0.128597,-0.631157,0.524050,0.827115,0.438180,0.351965
0.387635,0.057039,0.369587,-0.002542,0.924276,0.381716
-0.390829,-0.204524,0.581820,0.659910,0.015052,0.751194
-0.533093,-0.094544,0.644296,0.763103,0.501886,0.407167
-0.931018,-0.381371,0.418591,0.887787,0.457729,-0.048137
-0.420437,-0.552512,0.438274,0.333317,0.215248,0.917915
-0.865658,-0.176510,0.127324,-0.232258,0.874124,-0.426571
0.277866,0.686718,0.361466,0.006559,0.198133,0.980153
-0.094813,0.108552,0.257449,0.085020,-0.994289,-0.064510
-0.234251,0.477499,0.709390,0.151172,-0.814835,0.559635
0.320434,0.073639,0.180439,0.338581,-0.099757,0.935634
0.082774,0.471585,0.463901,0.098142,-0.902991,0.418302
0.067417,-0.408813,0.642184,-0.289960,0.826865,0.481890
-0.142295,-0.145488,0.559152,0.394316,0.660316,0.639139
-0.035167,0.794050,0.185650,-0.326535,0.499173,0.802621
0.681809,-0.062278,0.448317,-0.341213,0.778884,0.526225
-0.107590,-0.150935,0.666369,0.854086,-0.514652,0.075305
-0.324918,0.462403,0.503963,-0.611976,-0.537892,-0.579791
-0.139899,0.080020,-0.065455,0.679682,0.710009,-0.184172
-0.141927,0.170804,0.821693,0.873847,0.439358,-0.208220
-0.648147,-0.199128,0.368676,0.022727,0.475102,0.879637
-0.758776,-0.464477,0.413316,0.271191,0.673899,0.687253
0.097762,0.727492,-0.967579,-0.061425,0.033505,0.997549
-0.827083,-0.135631,0.357924,-0.388432,0.702910,0.595851
-0.554716,0.384225,0.555256,0.320329,-0.734012,0.598845
-0.261954,-0.079864,0.685571,0.919973,0.294440,0.258755
0.201142,0.849818,0.219943,-0.043779,-0.612733,0.789077
-0.103166,-0.674318,0.551246,-0.588119,-0.807660,0.042439
0.235543,-0.050346,0.668292,0.109321,0.923372,0.368012
0.977150,0.072809,0.231581,0.074552,0.665071,0.743050
-0.441691,-0.979664,0.187523,-0.294008,0.235952,0.926221
-0.144752,0.026121,0.667951,0.086707,-0.709744,0.699103
-0.082710,-0.478276,0.166423,0.252902,-0.584925,-0.770651
-0.595811,-0.532902,0.450152,0.683368,0.635002,0.360251
-0.434933,-0.047078,0.554636,0.931752,0.362988,0.008878
0.291993,0.350765,-0.968945,0.296849,-0.072894,-0.952138
-0.233085,0.192852,0.710086,-0.141416,0.131625,0.981161
-0.753186,-0.145280,0.373293,0.715037,-0.457049,-0.528988
-0.019993,-0.496796,0.542025,0.104251,0.777308,0.620422
0.212077,0.519779,0.536611,-0.261634,0.100238,0.959948
-0.170429,0.202916,-0.983821,0.007709,0.240649,0.970582
-0.045425,0.277411,0.550437,0.649715,-0.571303,-0.501481
-0.495747,-0.599304,0.406764,0.487906,-0.837587,0.245756
0.284314,-0.032449,0.624335,-0.448259,0.724516,0.523584
-0.075525,0.199233,0.693490,0.895781,-0.436796,-0.082379
-0.062133,0.041890,0.773321,0.197584,-0.677067,0.708901
0.024847,-0.146006,0.770816,-0.208671,-0.337629,-0.917858
-0.270186,0.802039,0.280636,-0.742357,0.247136,0.622760
-0.054087,0.437035,0.609143,0.449206,0.569560,-0.688342
-0.109616,-0.299873,0.726429,-0.462887,0.786247,0.409331
-0.382352,0.126864,0.739610,0.954676,0.285423,0.084427
-0.295616,-0.045884,0.658185,-0.696933,0.704756,0.132675
-0.417672,0.302571,0.659943,-0.403281,0.707613,-0.580214
-0.210971,-0.149897,0.730679,-0.671197,0.638833,0.376014
-0.056912,-0.034576,0.828688,0.899551,-0.091918,0.427035
0.284314,-0.287111,0.573560,-0.439775,0.178544,0.880182
-0.250530,0.012425,0.815444,0.713014,0.274854,0.645032
0.210910,0.673074,0.355053,-0.547627,0.465837,0.695054
-0.434258,0.382409,0.416820,-0.210054,0.838296,-0.503128
-0.085967,-0.378102,0.580188,0.418607,0.907930,0.020768
-0.151939,-0.517598,0.564819,0.498435,0.639825,0.584967
-0.099542,0.071824,-0.668849,-0.329348,0.938898,-0.100007
-0.285297,0.079865,0.705418,0.605506,-0.730893,0.314894
-0.225591,0.022282,0.843210,-0.140253,0.989898,0.020780
-0.052550,0.635152,0.462586,-0.527100,0.374400,0.762883
-0.055007,-0.111197,0.665851,0.683716,-0.573823,0.450843
-0.249179,0.383862,-0.979508,-0.002575,-0.698089,0.716006
-0.389785,0.570255,0.515638,-0.474788,0.508727,0.718173
0.249424,-0.210593,0.691744,-0.679287,0.289356,0.674420
-0.046530,0.455503,-0.976560,0.068641,-0.438994,0.895864
-0.056912,0.507484,0.495336,0.381504,-0.726285,0.571808
-0.631131,-0.344694,0.437856,0.964093,0.230835,-0.131297
-0.325409,-0.077321,0.544795,0.063783,0.650313,-0.756984
0.110844,0.186887,-0.965404,-0.376141,0.284813,0.881703
0.225161,-0.279174,0.569474,-0.622116,0.015707,-0.782768
-0.585552,0.072031,0.622261,0.748867,-0.084795,0.657273
0.038177,0.080020,0.271983,-0.007074,0.984394,0.175837
0.061949,0.132675,0.624386,-0.528633,-0.218195,-0.820328
-0.736356,-0.013721,0.538964,0.945487,0.192897,0.262382
-0.628489,-0.097657,0.576052,0.885928,0.259754,-0.384265
-0.979606,-0.187092,0.128614,0.076854,-0.610640,0.788171
-0.290641,0.397090,0.566742,-0.141657,-0.654583,0.742600
0.548389,0.373020,0.303417,-0.399086,0.223794,0.889183
-0.423938,0.414676,0.576507,-0.486019,0.798988,0.354125
0.212077,-0.052888,0.666939,-0.449294,0.547821,0.705710
0.164962,-0.297330,0.495576,-0.040013,0.515533,-0.855935
-0.736294,-0.248255,0.487417,-0.349588,-0.933619,-0.078379
0.168955,-0.092885,0.647749,-0.425271,0.883377,-0.196948
0.048497,0.577102,0.492009,0.263929,0.741578,-0.616769
-0.310360,-0.369698,0.504924,0.557201,0.758788,-0.337293
0.273258,-0.064248,0.560860,0.836999,-0.202472,0.508369
0.356247,-0.035976,0.512868,0.486716,0.513194,0.706922
0.057465,0.193319,0.709922,-0.684488,0.668787,0.290173
-0.043152,0.705653,0.449279,0.816496,0.198457,-0.542171
-0.353973,-0.175213,0.717284,0.489699,0.740993,0.459482
-0.600110,0.261692,0.492894,0.954112,-0.096973,-0.283315
-0.116558,-0.019998,0.965239,0.404780,-0.685488,-0.605194
0.009490,0.109227,0.899424,0.691082,-0.689927,0.215420
0.319697,0.197209,0.407991,-0.556644,-0.671097,-0.489670
0.029331,0.151039,0.819251,-0.012495,0.991815,-0.127072
0.229276,0.310768,0.617973,-0.485178,-0.532145,0.693847
-0.349796,0.060151,0.774953,0.847079,-0.306478,0.434200
0.126201,-0.445750,0.165386,0.221943,0.935337,0.275474
0.094691,0.225898,0.683750,0.526523,0.710153,0.467393
0.232840,0.460950,0.598201,-0.288745,-0.685544,0.668323
-0.544027,0.272690,0.574091,-0.049721,0.953739,0.296497
-0.610615,-0.431484,0.414961,0.818107,-0.209923,0.535382
0.105809,0.372449,0.517055,0.123603,0.353474,0.927242
-0.499187,-0.341478,0.554573,-0.144304,0.128727,0.981125
-0.695261,0.152336,0.474578,0.112440,0.488659,-0.865199
0.504531,-0.027883,0.583477,-0.590511,-0.631262,0.502796
-0.213366,0.098384,0.873821,0.052980,0.958364,0.280590
-0.016494,0.924520,-0.952590,0.006473,-0.118733,0.992905
0.121717,0.128422,0.777053,-0.346919,0.920099,0.181835
-0.601769,-0.575078,0.437540,0.001898,-0.201868,0.979411
0.215578,0.146682,0.683699,0.488587,0.699335,-0.521740
-0.262815,0.481389,0.736701,0.724025,-0.546319,0.421097
0.260113,-0.175472,0.683775,0.566494,0.811226,0.144901
0.074664,0.093249,0.776142,-0.528785,0.821195,-0.214534
-0.039834,-0.001737,0.729794,0.965419,-0.260514,-0.009899
0.226206,-0.188753,0.682156,-0.078819,0.630407,0.772253
0.302007,0.309107,0.039372,0.580822,0.729589,-0.361034
0.283885,0.072083,0.554510,0.250872,-0.873822,-0.416531
0.168526,0.389776,0.515473,0.743322,0.191248,-0.641012
-0.133512,0.859000,0.455414,0.625157,0.465336,-0.626611
-0.169139,0.473349,0.428546,0.957531,-0.241116,-0.158107
0.152371,0.045833,0.540848,-0.481313,0.299529,-0.823784
-0.041372,-0.049412,0.742342,-0.786578,-0.270097,-0.555286
-0.760743,-0.057868,0.537800,0.603783,-0.675087,-0.423914
-0.759453,-0.057764,0.505594,0.809652,-0.161794,0.564168
-0.530392,0.232745,0.602350,0.910092,0.355523,-0.212923
-0.074357,-0.408087,0.563238,0.035080,-0.685923,0.726828
0.500784,-0.010505,0.450974,0.879896,0.419546,0.223078
-0.098129,0.036340,0.117976,0.895020,0.444327,0.038889
0.234437,-0.069437,0.682422,0.064225,0.473956,0.878203
0.371541,0.264909,0.506657,-0.726928,0.048645,0.684988
-0.320003,0.372501,-0.009797,0.916703,0.297105,0.267179
-0.142847,0.700413,0.182311,0.685258,0.176210,-0.706662
-0.073005,0.698182,0.487290,0.096142,-0.947092,0.306226
-0.128168,0.121521,0.850685,0.744181,-0.479562,0.464988
-0.220246,-0.336030,0.405916,-0.601321,0.753723,-0.265170
-0.060967,0.685213,0.468291,0.734440,0.658162,0.165591
-0.098436,-0.011801,0.773448,-0.295015,-0.330002,-0.896697
-0.466691,0.586180,0.364097,-0.100853,0.807508,0.581171
-0.980588,-0.357092,0.387005,0.907517,0.272017,-0.320031
-0.681501,-0.000752,0.143388,-0.571287,0.511776,-0.641651
0.067968,-0.181645,0.549690,0.121536,0.295355,0.947626
0.124420,-0.103883,0.671290,0.115611,0.369393,0.922054
0.223133,0.936970,-0.965593,-0.033389,0.251667,-0.967238
0.319328,0.090136,0.516296,0.942436,-0.051284,0.330430
-0.228048,-0.230877,0.666509,0.860657,0.037781,-0.507781
-0.067108,0.073380,0.228697,-0.381368,-0.113343,0.917449
-0.668295,-0.096464,0.621350,0.908582,-0.133437,0.395821
-0.152922,0.159703,0.816532,0.878543,0.427938,0.212204
-0.107528,-0.617876,0.565477,0.932193,-0.088571,0.350956
-0.621426,-0.586335,0.443359,0.828644,0.523053,0.199408
-0.466507,-0.121417,0.625727,0.678625,0.659133,0.324054
0.085537,0.001998,0.825020,0.788616,0.314058,-0.528633
-0.549064,-0.438331,0.581643,0.117813,0.987078,-0.108613
-0.052366,-0.186263,0.739673,0.411807,-0.202108,-0.888576
0.186093,0.782690,0.326427,-0.286981,0.727816,0.622837
-0.121533,0.073173,0.840464,0.753332,-0.252527,0.607224
-0.396972,-0.420019,0.710984,-0.589246,0.791686,-0.161316
-0.066064,0.088840,-0.713792,0.510176,-0.857541,0.065911
-0.705089,-0.226415,0.632507,0.634565,-0.174188,0.752985
-0.720262,0.056261,0.344882,0.630987,-0.591081,-0.502473
-0.192911,0.057246,0.867497,0.108804,-0.875495,0.470818
-0.784083,-0.104765,0.547350,-0.595603,-0.212776,-0.774586
-0.318651,-0.743366,0.268606,-0.729277,0.461236,0.505386
0.119016,0.786373,-0.965454,0.037477,-0.108502,0.993390
0.172886,0.673230,0.526479,0.354254,0.889843,-0.287547
0.121717,-0.165045,0.597720,0.063536,-0.984544,-0.163204
-0.310973,0.670117,0.509338,-0.511652,0.693251,-0.507557
-0.133081,-0.104765,0.899778,0.786527,-0.612768,-0.076752
-0.371725,0.233783,0.644068,-0.362201,0.692052,-0.624399
-0.901104,-0.235649,0.376519,-0.503736,0.061415,0.861672
-0.408458,-0.678728,0.414455,0.436573,-0.309117,0.844897
-0.493964,0.184656,0.631507,-0.512685,0.753745,-0.411124
-0.064221,0.053252,0.281192,-0.134574,0.983969,0.117029
-0.173561,0.847225,0.287922,0.933732,0.314082,-0.171749
-0.250285,0.819573,0.271009,-0.566045,0.538883,-0.623858
0.139715,-0.504941,0.616619,0.779803,-0.602494,0.170026
0.239474,-0.123855,0.678829,-0.823038,0.567985,-0.001334
0.029762,0.482738,0.545187,0.946742,-0.014379,-0.321672
-0.480143,0.558167,0.253528,-0.129324,0.103695,0.986166
0.251083,0.248153,0.668596,-0.770962,0.460808,0.439629
-0.259191,-0.413741,0.603109,0.134823,0.886059,0.443533
0.444456,-0.377791,0.438299,0.160201,-0.766044,0.622506
-0.449491,0.433975,0.571612,0.129061,-0.984701,-0.117079
-0.824196,-0.133504,0.584527,0.560269,0.818618,0.126350
0.339414,-0.098487,0.679500,-0.081754,0.765632,0.638063
-0.059675,-0.106113,0.596949,-0.739888,-0.664598,-0.104281
-0.091065,0.090344,0.684989,0.790842,-0.004851,0.612001
-0.325040,-0.107981,0.705760,-0.331625,-0.698227,-0.634432
-0.300653,0.287993,0.662119,0.639018,0.547268,-0.540513
-0.796739,0.063680,0.473174,0.484154,-0.828580,0.281159
-0.878620,-0.155396,0.527491,0.997000,0.058037,-0.051208
-0.195859,0.621042,0.162300,-0.730635,-0.250144,0.635295
0.308763,0.571759,0.561859,-0.648992,0.722659,-0.237852
0.060659,0.569010,0.494981,0.058205,-0.803400,0.592588
-0.239658,0.035873,0.849129,0.780849,0.502621,0.371009
-0.941152,-0.266205,0.414126,0.963771,0.201374,0.174910
-0.641882,-0.058438,0.135508,0.117061,-0.313910,0.942209
-0.275223,-0.396415,0.668001,0.130640,-0.902134,-0.411203
-0.011517,0.249709,0.652847,0.802232,0.480580,-0.354212
-0.058631,-0.013824,0.851204,0.717393,-0.141814,0.682082
-0.537517,-0.645475,0.477462,0.209828,0.828549,0.519113
0.000522,0.245766,0.644195,-0.106775,-0.888323,0.446633
-0.005621,-0.103986,0.757648,0.891975,-0.319884,0.319459
-0.388250,0.146838,0.204005,0.376954,0.926042,0.018746
0.045057,0.036755,0.848067,-0.113322,-0.629691,-0.768536
-0.083633,0.221332,-0.007292,0.887524,-0.046896,0.458368
0.314844,-0.078826,0.567324,-0.621488,0.538557,-0.568954
-0.464173,0.698234,0.258727,0.129818,-0.781611,0.610108
-0.216377,0.091745,0.819795,0.280044,0.181993,-0.942578
0.180011,-0.152802,0.679955,0.773055,0.632805,-0.044097
-0.114470,-0.597904,0.517548,0.850122,0.307922,0.427174
-0.468042,0.018702,0.662663,0.804796,-0.072486,0.589109
-0.607175,-0.242757,0.520660,0.271581,0.936942,0.219964
0.367057,-0.096360,0.673909,0.854574,-0.388301,0.344856
0.009614,-0.281664,0.492894,0.009858,-0.041849,0.999075
-0.744218,-0.200736,0.393102,-0.000430,-0.286460,0.958092
-0.756259,-0.111197,0.494766,0.831914,-0.249033,0.495884
0.273136,-0.080590,0.355204,0.655564,0.081983,-0.750676
-0.041493,0.137188,0.682548,0.358703,0.221652,0.906754
-0.195983,0.198403,0.823906,0.651903,-0.642260,0.403145
