-0.340559,-0.184143,0.635833,0.481031,-0.848394,-0.220991
0.470488,0.344655,-0.945831,-0.149845,-0.089390,0.984660
0.724823,0.716851,-0.915459,-0.043958,0.223468,0.973720
-0.387810,-0.523951,0.917449,0.529208,0.305383,-0.791631
-0.486598,-0.761111,0.885086,0.861020,-0.493566,-0.122623
-0.506652,-0.691075,0.883572,0.531318,0.404991,-0.744099
0.509066,0.470750,-0.945572,-0.139719,-0.095030,0.985621
0.878006,0.665977,-0.914983,-0.189731,-0.154350,0.969628
0.623670,0.326621,-0.909315,-0.184402,0.253917,0.949485
0.502808,0.879615,-0.939731,-0.070783,-0.103579,0.992099
-0.181267,-0.334361,0.476182,0.708885,-0.385464,-0.590677
0.656731,0.441743,-0.926968,0.335641,-0.056747,-0.940279
0.196739,0.591885,-0.981958,0.011215,-0.016093,0.999808
0.494877,0.523502,-0.946870,-0.102025,0.116482,0.987939
-0.605932,-0.447680,0.831134,0.264504,0.304569,-0.915027
-0.516111,-0.433251,0.853502,0.304602,0.588620,-0.748828
-0.601596,-0.285514,0.882750,-0.543153,-0.579793,0.607309
0.449597,0.963629,-0.954441,-0.272967,0.049625,0.960743
0.984431,0.502085,-0.900575,0.207581,0.077616,0.975134
-0.765619,-0.316700,0.631117,0.626623,0.392505,0.673263
-0.931858,-0.798909,0.622810,-0.065895,-0.028010,0.997433
-0.955902,-0.001615,0.605720,-0.660974,-0.066550,0.747452
0.891014,0.552207,-0.914161,-0.166430,0.074556,0.983231
-0.599181,-0.540710,0.821616,0.566808,-0.498754,-0.655723
0.925799,0.432274,-0.906676,-0.032189,0.099616,0.994505
0.692304,0.294307,-0.916238,-0.370635,-0.038952,0.927962
-0.577502,-0.314522,0.813958,-0.318890,-0.245078,0.915558
0.876775,0.660568,-0.914031,0.089355,0.011806,0.995930
0.139338,0.736014,-0.983516,-0.212469,-0.045758,0.976096
0.833663,0.672215,-0.913382,0.133895,-0.099661,0.985971
0.414417,0.901560,-0.956129,-0.028236,-0.184095,0.982503
0.514338,0.626827,-0.936746,0.081334,-0.129993,-0.988173
-0.651507,-0.375915,0.785143,0.057179,0.041528,0.997500
0.862190,0.594515,-0.906762,-0.051230,-0.023069,0.998420
0.555528,0.489309,-0.938044,-0.124868,0.099469,0.987175
0.809125,0.347286,-0.903820,0.047810,0.475710,0.878302
-0.272911,-0.100281,0.699606,0.673807,0.716355,-0.181163
0.725957,0.714297,-0.913988,0.000125,0.186298,0.982493
0.394118,0.572121,-0.954528,-0.394475,-0.235802,0.888137
-0.624310,-0.441518,0.763899,0.201115,-0.949391,-0.241266
-0.731425,-0.622692,0.755592,0.833993,-0.129141,-0.536450
0.181662,0.384707,-0.263228,-0.534877,0.449566,-0.715400
0.760051,0.449783,-0.906589,-0.074873,-0.089885,0.993134
-0.593762,-0.523651,0.745641,-0.029507,-0.350984,0.935916
-0.820900,-0.166185,0.690780,-0.056862,-0.917905,0.392705
0.486106,0.449783,-0.941115,-0.056851,-0.095275,0.993826
-0.394610,0.000939,0.840047,0.674435,0.310592,-0.669828
0.271778,0.649221,-0.496474,0.874594,0.479896,-0.069177
-0.575236,-0.611572,0.879981,-0.079306,0.213798,0.973653
-0.934125,-0.805898,0.623459,-0.065229,0.097333,0.993112
-0.598098,-0.282283,0.844763,0.749725,0.233519,0.619177
-0.117707,-0.049182,0.164972,0.042800,0.656975,0.752696
-0.072231,-0.042268,0.449704,-0.510638,-0.608193,-0.607741
0.464329,0.367650,-0.948168,0.071638,-0.021747,0.997194
0.854652,0.495772,-0.908882,-0.061901,0.199818,0.977876
0.271482,0.437158,-0.414053,-0.903688,-0.014431,-0.427949
0.523206,0.896524,-0.939428,0.126145,0.074990,0.989173
0.381800,0.545444,-0.657465,-0.249735,-0.143314,-0.957650
0.745074,0.598572,-0.919569,0.080312,0.044346,0.995783
-0.443240,-0.417771,0.936659,-0.514589,0.592687,0.619613
0.686047,0.503438,-0.917925,-0.259644,-0.043145,0.964740
0.732460,0.152659,-0.913339,-0.024364,0.041624,0.998836
0.195507,0.284764,-0.114914,-0.506550,-0.765342,-0.397063
0.434618,0.504264,-0.951845,-0.011958,-0.037607,0.999221
0.235663,0.393951,-0.293731,0.309921,0.847697,0.430534
0.489605,0.933796,-0.945485,-0.174064,0.026748,0.984371
0.178360,0.402443,-0.233894,-0.242779,-0.917345,-0.315493
-0.127562,-0.279127,0.651625,-0.245904,-0.861616,0.444015
0.045773,0.173248,0.110674,-0.315145,0.925712,0.209143
0.567452,0.143415,-0.943235,-0.161831,-0.257077,0.952745
0.394315,0.894044,-0.958595,0.115372,-0.041058,-0.992473
-0.570506,-0.306105,0.826418,-0.559669,0.697905,0.446877
0.267295,0.426864,-0.359365,0.784618,0.334541,0.521975
0.157421,0.271239,0.370398,0.449623,0.339344,-0.826248
-0.431119,-0.561600,0.900922,0.272287,0.505397,0.818800
-0.718663,-0.192935,0.806689,-0.351072,-0.471371,0.809047
-0.439495,-0.467968,0.902955,-0.375997,-0.592208,-0.712682
-0.506750,-0.230808,0.867823,0.702509,0.389951,-0.595331
0.206297,0.602103,-0.982218,-0.098267,0.109932,0.989070
0.317650,0.654406,-0.969108,-0.163881,-0.022356,0.986227
-0.352286,-0.687543,0.175789,0.858667,-0.498374,0.119642
0.246108,0.365620,-0.294337,0.634245,-0.730116,-0.254293
-0.041140,0.056473,0.116861,0.256108,-0.934354,-0.247772
0.547694,0.253278,-0.930169,-0.216189,-0.022457,0.976093
-0.161953,-0.254555,0.495955,0.949234,-0.027333,-0.313381
-0.152049,-0.246891,0.605893,0.689546,0.698222,0.192385
0.736993,0.342926,-0.945009,-0.213202,0.039098,0.976226
-0.191071,-0.324967,0.659369,-0.552856,0.832096,0.044354
0.710633,0.142438,-0.914767,-0.065332,0.225530,0.972043
-0.414613,-0.053691,0.320426,0.889425,0.051502,-0.454170
-0.158356,-0.259364,0.480552,0.977447,-0.207091,-0.041352
0.507292,0.842343,-0.946351,0.106413,-0.061660,0.992408
0.638106,0.624722,-0.934582,-0.198023,0.039655,0.979395
-0.000393,0.078564,0.296586,0.975011,-0.216425,-0.050134
-0.898650,-0.655832,0.632242,-0.422492,-0.158854,0.892337
-0.648157,-0.442495,0.751179,0.496320,-0.054837,0.866406
0.663925,0.473229,-0.931121,-0.046347,0.029127,0.998501
-0.091791,-0.030396,0.453598,0.729793,-0.133041,0.670599
-0.902591,-0.698065,0.657336,-0.443088,-0.290123,0.848235
0.248375,0.712792,-0.978151,0.031476,-0.198622,0.979571
0.758673,0.329476,-0.908839,-0.216288,0.073580,0.973553
-0.313263,-0.625398,0.888418,-0.544835,0.329781,0.770973
-0.877660,-0.522224,0.678666,-0.719173,0.125297,0.683440
-0.723985,-0.755550,0.808203,-0.734935,0.676589,-0.045796
-0.457725,-0.289121,0.234889,0.851806,0.486952,-0.193143
-0.633769,-0.450760,0.020335,0.202450,-0.827602,0.523535
-0.274684,-0.019049,0.756630,0.846392,-0.480647,0.229345
-0.128103,0.294158,0.320858,0.517853,0.396922,0.757814
-0.380124,-0.052941,0.813006,-0.725179,-0.541688,0.425076
0.902345,0.465489,-0.909402,0.010407,-0.099863,0.994947
-0.811785,-0.422656,0.707048,0.311974,-0.069605,-0.947538
0.727435,0.762088,-0.915675,0.110989,0.365078,0.924337
0.432154,0.913356,-0.953619,-0.060280,-0.171572,0.983326
0.286954,0.747886,-0.971661,-0.157022,-0.243760,0.957040
-0.405548,0.098403,0.826029,0.079153,-0.702477,0.707291
-0.516012,-0.526056,0.893523,0.245046,0.131688,-0.960526
-0.741032,-0.497276,0.774932,-0.600391,0.487587,0.633869
0.906336,0.360135,-0.895081,-0.254755,-0.024105,0.966705
0.874804,0.611421,-0.906935,-0.252351,0.076948,0.964572
0.790551,0.435205,-0.903128,-0.117369,0.360307,0.925421
0.545182,0.132368,-0.944620,0.042170,-0.110236,0.993010
-0.501182,-0.737064,0.857526,0.306210,0.357662,-0.882221
0.842826,0.396281,-0.900835,0.023990,-0.010787,0.999654
0.228470,0.649069,-0.977978,-0.022133,-0.409120,0.912212
0.869482,0.395605,-0.903734,0.003607,0.143424,0.989655
-0.648207,-0.595189,0.789469,0.431769,0.037560,-0.901202
0.455214,0.858049,-0.945615,-0.293883,-0.049245,0.954572
-0.379286,-0.591958,0.895600,-0.747885,-0.371377,-0.550225
0.556268,0.735638,-0.935361,-0.418428,-0.090917,0.903688
0.402444,0.711591,-0.905724,0.937225,0.268725,0.222251
0.426390,0.862934,-0.953706,-0.131909,0.081984,0.987866
-0.603222,-0.636445,0.843248,-0.607292,0.652397,0.453402
0.274192,0.678377,-0.976074,-0.199554,0.259537,0.944891
-0.507489,-0.157692,0.819496,-0.432001,0.280216,-0.857236
0.345832,0.585647,-0.967248,-0.022007,0.083343,0.996278
0.581938,0.794175,-0.932073,-0.215454,0.075400,0.973599
0.591990,0.226752,-0.930861,0.013926,-0.066037,0.997720
-0.421166,-0.113357,0.819236,0.162892,-0.985475,0.048020
-0.235021,-0.117189,0.157703,-0.623375,0.569308,0.535996
0.381160,0.553035,-0.659153,-0.254816,-0.088230,-0.962956
-0.554641,-0.373059,0.825250,0.588920,0.281937,-0.757419
0.263254,0.869697,-0.963311,0.000532,-0.047961,0.998849
0.929396,0.462783,-0.908536,-0.052600,-0.016629,0.998477
-0.105045,-0.250948,0.594687,0.509691,0.089280,0.855713
-0.390914,-0.039713,0.818500,-0.676622,-0.238000,0.696806
-0.792176,-0.182340,0.710250,-0.720742,-0.654253,-0.229093
0.913038,0.582716,-0.907152,0.293253,-0.180134,-0.938911
0.531533,0.653202,-0.938909,-0.137752,-0.011287,0.990402
0.850021,0.340147,-0.897331,-0.174100,0.025835,0.984389
0.514437,0.555138,-0.948168,-0.030624,-0.054362,0.998052
0.609036,0.460454,-0.932462,0.011790,-0.167874,0.985738
0.684618,0.326621,-0.915545,-0.168061,0.196372,0.966019
-0.098393,-0.240729,0.591485,-0.825537,-0.069927,-0.559999
-0.239062,-0.295284,0.568122,-0.907219,0.075653,0.413800
0.393773,0.773286,-0.953100,-0.097591,0.057892,0.993541
0.895596,0.331955,-0.895210,0.032964,0.238035,0.970697
-0.152345,-0.039113,0.145113,-0.498129,0.852443,0.158771
-0.395743,0.126506,0.308528,0.604798,0.442246,-0.662297
0.652198,0.255007,-0.926968,-0.046631,-0.149731,0.987627
-0.517984,-0.009807,0.829706,-0.511329,-0.857868,-0.051036
0.419344,0.904940,-0.955912,-0.154944,-0.208508,0.965669
-0.473837,-0.174000,0.804569,0.629134,0.295355,0.718997
0.660426,0.605559,-0.927400,0.349695,-0.134810,-0.927114
-0.666338,-0.027465,0.835634,-0.303741,-0.903857,0.301302
0.265570,0.791997,-0.971964,-0.093114,0.000010,0.995655
-0.494580,-0.274243,0.864449,-0.233560,0.629691,0.740904
0.546119,0.570844,-0.946956,-0.096642,0.000677,0.995319
-0.445013,-0.294683,0.857353,0.995953,-0.052169,0.073190
-0.811293,-0.200074,0.646822,0.439875,0.699866,0.562759
-0.316417,-0.634642,0.915848,0.091835,0.468019,0.878934
0.345832,0.502987,-0.960022,0.179342,-0.084779,-0.980127
-0.331986,0.089537,0.297841,0.188440,0.979909,-0.065333
-0.039959,-0.018599,0.186518,0.128566,-0.089754,0.987631
0.544197,0.770204,-0.942154,-0.315148,0.238209,0.918661
0.313806,0.576630,-0.960022,0.267499,-0.016068,-0.963424
0.561787,0.700019,-0.928482,-0.215648,0.171508,0.961291
-0.250344,0.140410,0.851426,-0.756880,0.476308,-0.447508
0.207628,0.707307,-0.978540,-0.060331,-0.089581,0.994151
-0.822871,-0.272064,0.745208,0.320111,-0.414606,0.851840
-0.884804,-0.436782,0.636698,0.866295,0.122235,-0.484346
-0.462455,-0.466691,0.914940,-0.365987,0.929552,0.044581
0.696098,0.469773,-0.919050,-0.121375,-0.098856,0.987672
0.916092,0.428669,-0.905378,-0.044601,0.229943,0.972182
-0.181858,0.308736,0.323930,-0.115324,-0.517078,0.848133
0.857706,0.631485,-0.911825,0.160025,-0.076244,0.984164
-0.849921,-0.166033,0.725090,0.877119,0.272938,-0.395180
-0.000640,0.107947,0.086531,-0.374975,0.898233,0.229285
0.825286,0.521849,-0.922771,0.293540,-0.222657,-0.929655
0.805529,0.422807,-0.900013,0.039199,-0.101763,0.994036
0.767245,0.560999,-0.918747,-0.165056,-0.066812,0.984019
0.267196,0.574224,-0.972007,-0.038935,0.067677,0.996947
0.337456,0.898553,-0.963051,0.138710,0.068818,-0.987939
0.331347,0.632462,-0.953403,-0.093140,-0.124147,0.987883
0.515521,0.524928,-0.937395,-0.316007,0.272339,0.908829
-0.054050,0.189103,0.312508,-0.442524,-0.532653,0.721424
0.665009,0.699491,-0.921127,0.170317,-0.110206,-0.979207
0.728963,0.428969,-0.915243,0.029707,0.107848,0.993723
0.526164,0.174149,-0.933847,0.100769,-0.135887,0.985586
-0.692550,-0.551831,0.740665,0.853490,-0.521069,0.006482
-0.491673,-0.166033,0.822740,0.285534,0.901767,-0.324480
-0.400768,-0.406199,0.899191,0.128743,-0.757756,0.639711
0.354356,0.440617,-0.959503,-0.052271,0.021603,0.998399
-0.702749,-0.473681,0.754900,0.958194,0.252828,-0.133950
-0.364061,-0.204959,0.133648,-0.535840,0.816819,-0.213735
0.725710,0.608417,-0.927963,-0.072061,0.151417,0.985840
-0.352631,-0.263724,0.861507,0.986550,-0.074091,0.145704
0.272024,0.653578,-0.974517,0.179842,-0.121537,-0.976159
-0.730686,-0.678150,0.787479,-0.504145,-0.388266,0.771419
0.340363,0.482471,-0.398650,-0.445055,0.886564,-0.126215
0.495123,0.475635,-0.942630,-0.040529,0.020487,0.998968
-0.686194,-0.504415,0.792844,-0.085681,-0.494445,0.864976
-0.257981,-0.140184,0.413577,0.192259,0.597099,-0.778787
-0.932992,0.016194,0.638472,0.755710,-0.116659,-0.644433
0.433387,0.458199,-0.949206,-0.281506,0.082654,0.955993
0.800651,0.448281,-0.909661,-0.137534,-0.081800,0.987114
0.424961,0.713093,-0.948211,0.100080,0.052331,0.993602
0.618694,0.527786,-0.923160,-0.122209,0.062601,0.990528
-0.662643,-0.200301,0.677800,0.269585,-0.456131,-0.848097
0.304346,0.529588,-0.960369,-0.146323,0.093794,0.984780
0.791635,0.420778,-0.898585,-0.228593,-0.164642,0.959499
-0.580902,-0.015969,0.829490,0.115923,0.654525,-0.747101
-0.094846,-0.223220,0.590707,-0.825537,-0.069927,-0.559999
0.173631,0.608116,-0.982953,-0.063593,0.045034,0.996959
0.296709,0.460380,-0.433868,-0.177194,0.965736,0.189623
0.428853,0.985947,-0.947692,-0.098051,-0.442980,0.891153
-0.512367,-0.323763,0.846493,0.277587,-0.389957,0.877997
-0.128448,0.058275,0.256868,-0.410971,0.869773,-0.273127
0.655104,0.502837,-0.928785,0.241980,-0.160082,-0.956985
0.593713,0.685365,-0.943755,-0.192213,-0.184852,0.963786
-0.618792,-0.409882,0.725609,0.309013,-0.935988,-0.168634
0.070063,0.166636,0.083330,-0.584459,-0.693492,-0.421279
-0.020151,0.081194,0.099641,-0.580291,0.813698,-0.034032
0.599183,0.610745,-0.930559,-0.171642,0.130250,0.976511
-0.163283,-0.095772,0.570804,-0.632406,0.605935,-0.482602
0.668802,0.247341,-0.926794,0.200910,0.256866,-0.945333
0.352631,0.526733,-0.674253,0.927773,-0.322451,-0.187784
-0.494678,-0.524704,0.930602,-0.029038,-0.429068,0.902805
0.463589,0.287695,-0.943841,-0.044823,0.143095,0.988693
-0.666387,-0.014015,0.821745,-0.303741,-0.903857,0.301302
0.463096,0.237122,-0.946740,-0.131544,-0.007371,0.991283
-0.311243,-0.437310,0.843897,-0.957565,0.255504,-0.133371
-0.289317,0.107496,0.866525,0.618784,-0.256394,-0.742542
-0.910770,-0.316776,0.680829,0.302363,0.867852,-0.394221
0.094354,0.295284,-0.285900,0.509680,-0.852892,-0.113143
0.168605,0.392447,-0.255960,0.960095,-0.196484,0.199027
-0.505370,-0.240729,0.857440,0.951089,0.308770,0.009523
0.285525,0.441894,-0.405313,-0.940624,-0.044797,-0.336481
0.531682,0.324291,-0.931381,-0.016872,-0.173717,0.984651
-0.756897,-0.209243,0.728551,0.875805,0.121720,-0.467066
-0.224526,-0.147474,0.423138,-0.045851,0.100860,0.993844
-0.381257,-0.443171,0.916108,-0.509253,-0.123438,0.851719
-0.515224,-0.239076,0.872280,0.907531,-0.319714,-0.272343
-0.703438,-0.459027,0.735863,0.952277,0.210900,0.220656
-0.089574,-0.104039,0.193052,0.043569,0.292774,0.955189
0.574449,0.848505,-0.937092,0.262937,0.156993,-0.951955
0.497340,0.705805,-0.943149,-0.125114,0.085513,-0.988450
-0.507981,-0.682585,0.911176,-0.036686,-0.740983,0.670521
0.832332,0.610596,-0.916411,-0.066458,0.069029,0.995399
-0.494383,-0.507045,0.889110,0.333526,0.006969,-0.942715
0.540255,0.589631,-0.938909,-0.064053,0.035609,0.997311
-0.277493,-0.441667,0.877255,-0.442511,0.752960,0.487068
0.399538,0.385383,-0.955133,-0.152343,-0.086704,0.984517
0.900326,0.580237,-0.907498,-0.204356,-0.021872,0.978652
-0.170476,-0.330978,0.416519,-0.829955,0.529971,0.174087
-0.775621,-0.168739,0.680786,0.388381,-0.692295,-0.608184
0.713983,0.546797,-0.920954,-0.015721,0.299896,0.953842
0.820162,0.299868,-0.897547,-0.109212,0.290392,0.950655
0.114062,0.252225,-0.028642,0.256581,0.854205,0.452217
-0.266062,0.038588,0.326440,0.313542,0.246391,-0.917051
-0.626970,-0.531466,0.816813,0.205880,-0.001570,-0.978576
0.783702,0.712719,-0.914853,0.082999,0.156791,-0.984138
-0.065333,0.169115,0.323671,0.728990,0.665052,0.162111
0.594749,0.510125,-0.935101,-0.099991,-0.065942,0.992801
0.228075,0.752922,-0.974560,0.225919,0.067449,-0.971808
0.324498,0.807628,-0.971358,-0.124839,0.043653,0.991216
-0.401803,-0.687619,0.918963,-0.359521,0.012612,0.933052
-0.656188,-0.573172,0.794099,0.459368,0.056126,-0.886471
-0.098147,-0.057149,0.520400,0.195632,0.863355,0.465130
-0.675945,-0.092016,0.687708,0.167529,0.904219,0.392838
0.503598,0.854218,-0.944577,0.076021,-0.169538,0.982587
0.871454,0.448281,-0.900575,0.094485,0.065644,0.993360
-0.321984,-0.369980,0.885908,-0.043916,-0.505301,0.861825
0.163382,0.643132,-0.977632,-0.045932,-0.090430,0.994843
-0.645250,-0.290775,0.794272,0.465555,0.380484,-0.799056
0.624360,0.731430,-0.930861,0.020308,0.137800,0.990252
-0.092875,-0.133120,0.190975,0.010790,0.199932,0.979750
0.286855,0.804770,-0.975036,-0.101061,-0.063237,0.992868
-0.323856,0.060754,0.791113,0.333404,0.433610,-0.837153
0.453537,0.343979,-0.928568,-0.142855,0.984147,0.105110
0.076666,0.278151,0.208714,0.995999,-0.086091,0.023977
-0.104996,-0.196543,0.207026,-0.287098,0.370342,0.883415
0.859825,0.624949,-0.912949,-0.301453,0.046964,-0.952324
-0.374605,-0.364194,0.808766,0.096319,0.757674,0.645486
0.765225,0.428894,-0.913122,-0.046104,-0.358617,0.932346
-0.506799,-0.559797,0.910829,0.148228,-0.506744,-0.849258
0.606623,0.096600,-0.916714,-0.452699,0.019584,0.891448
-0.480735,-0.312492,0.835850,-0.051661,0.789748,0.611252
-0.282814,0.081121,0.270540,0.002920,0.942303,0.334750
0.637023,0.797631,-0.927141,-0.201514,0.092352,0.975122
-0.544294,-0.652752,0.881539,0.983984,0.173393,0.041361
0.884806,0.354573,-0.907498,0.010612,0.060630,0.998104
0.653726,0.086230,-0.923160,-0.139923,-0.179024,0.973844
-0.159736,-0.104039,0.543677,0.600335,-0.765233,0.232415
0.493645,0.251099,-0.940813,0.369064,-0.175362,-0.912710
-0.267983,0.110502,0.873751,0.167267,0.055720,0.984336
-0.472703,-0.522149,0.907844,0.715866,-0.061356,-0.695537
0.313067,0.453466,-0.504608,-0.572142,-0.817673,-0.063752
0.622734,0.745480,-0.932765,-0.022866,-0.054595,0.998247
0.670822,0.068870,-0.926838,-0.187483,-0.132316,0.973315
0.623473,0.126582,-0.932635,-0.091501,-0.170590,0.981084
0.670281,0.443396,-0.920564,0.263453,-0.007071,-0.964646
0.575926,0.269209,-0.928265,0.050113,0.112000,0.992444
0.537792,0.833253,-0.942716,-0.059367,-0.022730,0.997977
0.774537,0.720534,-0.917795,-0.045294,-0.352613,0.934673
0.861845,0.611797,-0.910440,-0.067437,-0.017406,0.997572
-0.369185,-0.004622,0.836542,-0.086565,0.016987,0.996101
0.671462,0.708135,-0.927184,-0.133385,0.107240,0.985245
-0.352532,-0.092841,0.797127,-0.123631,-0.186840,-0.974580
-0.147714,0.316627,0.333362,0.132344,-0.367568,0.920532
-0.737238,-0.314522,0.756371,0.315892,0.664882,-0.676863
0.834254,0.490663,-0.911046,-0.076740,0.175177,0.981542
0.399735,0.957242,-0.951326,-0.076242,-0.127040,0.988963
0.626085,0.285214,-0.927054,0.356715,-0.122681,-0.926123
-0.722752,-0.453991,0.716653,0.265322,0.713974,-0.647954
-0.374113,-0.308660,0.733527,-0.205822,-0.951992,-0.226601
-0.487682,-0.829870,0.868040,0.669481,-0.645769,-0.367120
-0.276803,0.104115,0.848786,-0.360425,-0.859470,0.362498
-0.500246,-0.780725,0.928612,0.834685,-0.335202,-0.436967
-0.727335,-0.305277,0.767880,0.497584,0.789789,-0.358670
-0.175255,0.276424,0.314888,-0.559071,-0.531506,-0.636349
-0.369974,-0.072853,0.789080,0.274755,0.393130,0.877473
0.589772,0.583918,-0.918141,-0.203736,0.130715,0.970260
0.431021,0.947473,-0.949812,0.194825,0.021190,0.980609
0.462899,0.775917,-0.949379,-0.140551,0.054118,0.988593
-0.270200,-0.467368,0.218535,-0.360833,0.300586,-0.882863
-0.469747,-0.321285,0.896941,0.906380,-0.093010,-0.412097
0.810554,0.476685,-0.905378,-0.228775,0.250201,0.940777
0.733643,0.213226,-0.920997,-0.069296,0.112208,0.991266
0.350020,0.701220,-0.963267,0.055845,0.077549,-0.995423
0.510051,0.655456,-0.942067,-0.366806,-0.027830,0.929881
0.159588,0.766072,-0.966383,-0.150242,0.085469,0.984948
-0.389929,-0.281457,0.773807,0.154484,0.939774,0.304892
-0.344846,-0.350592,0.832043,-0.568969,0.813891,0.117709
0.424863,0.654855,-0.905681,0.010141,0.833099,0.553030
-0.281335,-0.219388,0.729719,0.059113,0.842410,0.535585
-0.883031,-0.671839,0.656168,0.571210,0.215824,-0.791921
0.665550,0.382003,-0.927790,-0.184711,-0.019841,0.982593
0.154366,0.250723,-0.098170,0.412224,-0.886519,0.210132
-0.351448,-0.066843,0.065980,0.780102,0.480514,-0.400684
0.529908,0.289874,-0.949595,0.146454,-0.037463,-0.988508
-0.544935,-0.695659,0.881495,-0.549928,0.064088,0.832749
0.474922,0.836108,-0.944620,-0.003800,0.089022,0.996022
0.256356,0.574901,-0.521352,0.974372,0.131654,-0.182394
0.734579,0.478565,-0.918271,-0.187190,-0.172631,-0.967036
0.643083,0.035056,-0.926838,-0.265195,0.065542,0.961965
0.745518,0.388466,-0.919526,0.061920,0.015233,0.997965
-0.011085,0.036333,0.157357,-0.067858,0.498956,0.863966
-0.626921,-0.736539,0.786916,-0.644025,0.317212,0.696138
-0.399339,-0.578884,0.862934,-0.449495,-0.870782,-0.199229
-0.631060,-0.148224,0.685026,-0.711310,0.310207,0.630722
0.816467,0.393275,-0.905508,-0.270898,0.161193,0.949016
0.843665,0.536803,-0.897244,-0.130296,0.067384,0.989183
-0.625590,-0.552057,0.812746,-0.723269,0.281576,0.630553
-0.538233,-0.562276,0.736425,0.916336,-0.298081,0.267349
-0.690136,-0.365471,0.724571,0.667054,-0.614343,-0.421453
0.344994,0.499530,-0.529486,0.971345,-0.112931,0.209132
-0.241476,-0.112905,0.672522,0.865013,0.496470,0.072601
-0.273847,-0.172872,0.662960,0.271039,0.690791,0.670333
-0.916978,-0.879466,0.638602,0.863167,-0.322327,0.388648
-0.357065,-0.461806,0.925972,-0.367093,0.431499,0.824046
-0.266752,0.360059,0.291524,-0.553544,0.362517,0.749781
-0.129384,-0.448732,0.661230,0.932366,-0.301134,-0.200033
0.072675,0.126282,0.129711,-0.677964,0.719225,0.151922
0.553656,0.244261,-0.931813,-0.081435,-0.228888,0.970040
0.490097,0.430847,-0.950807,-0.027343,-0.118835,0.992538
0.051538,0.265451,0.337213,0.617687,-0.326279,-0.715545
-0.108247,-0.028366,0.504305,0.387068,0.731676,0.561096
0.810603,0.503814,-0.910051,-0.198567,0.225974,0.953681
0.952651,0.368702,-0.902695,-0.164091,-0.130256,0.977807
0.875838,0.656284,-0.908839,-0.111612,-0.016746,0.993611
-0.498620,-0.326995,0.847791,0.393670,-0.167616,0.903841
-0.050354,0.017247,0.454030,-0.703176,0.305707,-0.641940
0.354011,0.868720,-0.964522,-0.095495,-0.016345,0.995296
-0.577158,-0.629081,0.885432,-0.456106,0.336397,0.823896
0.891112,0.633815,-0.906070,0.308488,-0.116142,-0.944111
0.464870,0.832425,-0.946394,-0.278233,-0.078985,0.957260
0.403036,0.359534,-0.963051,-0.040595,0.128108,0.990929
0.879978,0.428442,-0.908190,0.007625,-0.061498,0.998078
-0.415057,-0.145068,0.793925,-0.149442,-0.802078,0.578219
0.143921,0.302799,-0.274434,-0.439661,0.898083,0.012058
0.928361,0.406876,-0.894432,-0.092021,0.141106,0.985708
0.202405,0.470223,-0.255830,0.774818,0.222712,0.591656
0.752808,0.536202,-0.915935,-0.036072,0.302598,0.952436
0.801391,0.608341,-0.914810,-0.333815,0.076199,0.939554
-0.527098,-0.348111,0.826937,-0.406264,-0.774964,-0.484128
0.550553,0.673493,-0.936010,-0.108452,0.043376,0.993155
-0.811637,-0.133272,0.751222,0.869352,0.450120,0.204009
-0.380912,-0.302198,0.774586,0.435539,0.894811,0.098081
-0.181759,-0.093518,0.579544,-0.835565,0.208275,-0.508383
0.364063,0.583017,-0.665297,-0.583940,0.710801,0.392143
0.614358,0.126883,-0.924328,-0.170971,0.092914,-0.980885
0.949104,0.563405,-0.899580,0.139444,0.097543,0.985414
-0.491475,0.222920,0.765673,-0.399323,0.547588,0.735315
0.458218,0.492240,-0.945572,-0.036847,0.094679,0.994826
-0.675798,-0.570241,0.784494,0.612384,-0.162291,-0.773723
0.250198,0.383581,-0.317613,0.646749,-0.762691,-0.004255
-0.638648,-0.238924,0.857569,0.895340,0.206933,0.394393
-0.629631,-0.435732,0.804828,0.726280,0.526718,0.441684
-0.758326,-0.236670,0.553455,0.749699,0.610261,0.255994
-0.055971,0.050836,0.414182,-0.939655,-0.114669,-0.322333
0.478765,0.920419,-0.941981,-0.139356,0.077115,0.987235
0.391161,0.513957,-0.958984,-0.174801,-0.094079,0.980099
0.804641,0.428518,-0.913036,0.043832,0.031814,0.998532
0.858150,0.675446,-0.911998,0.278674,0.268307,-0.922146
-0.283011,-0.181139,0.694285,0.587742,0.589872,0.553724
0.441369,0.965583,-0.956691,-0.111831,-0.207194,0.971887
0.920379,0.484801,-0.904037,-0.232816,-0.117152,0.965439
0.051735,0.141913,0.178860,0.777435,-0.627778,0.038585
-0.614258,-0.447980,0.057284,0.011431,-0.934605,0.355502
0.609430,0.504491,-0.942630,0.213867,0.001515,-0.976862
0.515225,0.633065,-0.943928,0.331459,-0.011913,-0.943394
0.570211,0.491864,-0.940856,0.193750,0.010820,-0.980991
0.668852,0.289950,-0.920521,-0.177626,0.075421,0.981204
0.585535,0.257638,-0.929910,-0.166493,0.017192,-0.985893
0.140422,0.326245,-0.323800,0.493749,-0.801558,0.337220
-0.407469,-0.508247,0.890538,0.761282,-0.186358,-0.621064
0.705165,0.330378,-0.917492,-0.105968,0.110452,0.988216
-0.388204,-0.390644,0.152987,-0.134508,0.524385,0.840790
-0.282666,0.089537,0.304461,0.409038,-0.827929,0.383694
0.759263,0.589479,-0.920910,-0.314466,0.136698,0.939375
-0.873768,-0.528010,0.678839,-0.719173,0.125297,0.683440
0.372783,0.554461,-0.961926,0.037138,0.145568,0.988651
0.142935,0.270335,-0.066672,-0.876326,0.066304,-0.477133
-0.354257,-0.100657,0.848267,0.131032,0.169599,0.976763
0.688067,0.578809,-0.926794,-0.012722,-0.014478,0.999814
-0.733987,-0.122225,0.862372,0.746441,0.136951,-0.651207
-0.786411,-0.610971,0.704106,0.709207,0.696048,0.111991
-0.819520,-0.499831,0.618526,0.580650,-0.484422,0.654355
0.214032,0.349689,-0.219314,0.818763,0.443317,0.364826
-0.199350,-0.112605,0.606023,0.968606,0.031536,0.246594
-0.127956,-0.477513,0.199671,0.119112,0.016874,0.992737
0.714230,0.714973,-0.911738,-0.058027,0.792275,0.607398
-0.313460,0.392598,0.245922,-0.522987,-0.242919,0.816992
0.701715,0.682586,-0.919612,-0.350080,0.014791,0.936603
-0.450827,-0.397932,0.877991,0.742196,0.130567,-0.657341
-0.682351,-0.560547,0.743261,0.790670,0.225824,-0.569073
-0.415845,-0.443772,0.908017,0.434761,-0.631939,0.641589
-0.207331,-0.164079,0.174101,0.337841,-0.463110,-0.819385
-0.554887,-0.545519,0.854757,-0.566506,0.204260,0.798342
0.790008,0.544318,-0.920781,-0.026956,0.052576,0.998253
-0.259361,-0.264024,0.184096,-0.497407,0.187305,0.847056
0.191615,0.666654,-0.984641,-0.115824,0.100742,-0.988148
0.344994,0.411160,-0.952970,-0.082979,0.072169,0.993935
-0.393279,-0.427841,0.881539,0.692646,-0.493649,0.525882
-0.251280,-0.071877,0.538225,0.896301,-0.015092,-0.443188
-0.371649,-0.014765,0.832172,-0.565080,-0.197871,0.800957
0.196098,0.680781,-0.983602,0.003556,-0.103002,0.994675
0.333170,0.445575,-0.416822,0.405051,-0.905390,-0.127292
0.373375,0.764794,-0.959417,0.031239,-0.074137,0.996759
0.149537,0.304452,-0.078138,-0.636749,-0.450377,-0.625868
-0.190432,-0.190908,0.464976,-0.219407,-0.975022,0.034535
0.212505,0.545368,-0.976161,-0.108187,0.058497,0.992408
-0.598344,0.014616,0.878943,-0.007468,-0.716605,0.697439
0.208268,0.506518,-0.433998,0.867126,0.233441,0.439998
0.654563,0.092092,-0.928265,-0.160320,-0.182970,0.969959
0.247537,0.799436,-0.951932,-0.133244,0.146929,0.980131
0.353223,0.535902,-0.652576,0.724776,-0.688778,0.016890
-0.585139,-0.171895,0.817765,0.816817,0.390226,0.424892
-0.882341,-0.392146,0.660364,0.809641,0.319184,-0.492547
0.573217,0.418599,-0.929910,-0.021975,0.053626,0.998319
0.281583,0.509373,-0.963916,-0.262516,0.018530,0.964750
0.044443,0.349616,-0.107775,0.317818,0.908688,0.270698
0.566664,0.798459,-0.935101,0.038739,0.139165,0.989511
0.429543,0.908999,-0.965128,-0.048221,-0.482421,0.874611
-0.129878,0.298967,0.294553,-0.419550,-0.539094,0.730312
0.158652,0.738869,-0.981136,-0.132519,-0.006578,0.991159
0.309076,0.790568,-0.967032,0.156651,0.018124,-0.987488
-0.315629,-0.164756,0.109289,-0.140787,0.059184,0.988269
-0.550059,-0.795453,0.865660,-0.013878,0.193528,0.980996
0.643280,0.362765,-0.934885,-0.316277,0.303127,0.898934
-0.347063,-0.344355,0.152382,0.278546,-0.386915,-0.879039
0.124852,0.465565,-0.180029,-0.473176,-0.513957,0.715509
0.560603,0.621115,-0.939688,0.136381,-0.021169,-0.990430
-0.792422,-0.475559,0.723878,-0.433843,0.743864,0.508376
0.538924,0.688520,-0.941115,-0.334419,0.196504,0.921711
0.368053,0.392373,-0.954571,-0.118053,0.147272,0.982026
0.591200,0.599324,-0.936183,0.175357,-0.235424,-0.955942
0.290304,0.550028,-0.405226,-0.750494,0.109089,0.651811
0.759757,0.712418,-0.917189,-0.078368,-0.215183,0.973424
-0.028281,0.065490,0.110630,-0.536572,0.806622,0.247896
-0.487830,-0.338718,0.872193,-0.337781,-0.403160,0.850509
0.750346,0.228706,-0.911176,0.354869,-0.000105,-0.934916
0.561983,0.633739,-0.933284,-0.120017,0.201273,0.972155
0.221374,0.532067,-0.972656,-0.208524,0.056166,0.976403
-0.452010,-0.307007,0.830096,-0.587729,0.690485,0.421669
-0.344058,-0.287995,0.771557,0.222599,-0.818087,-0.530267
-0.394807,-0.178958,0.825423,-0.474680,-0.267823,-0.838421
0.535180,0.150029,-0.934020,0.000797,-0.063146,0.998004
-0.372684,-0.426788,0.890797,0.349877,-0.361828,-0.864099
0.439989,0.449558,-0.947259,0.198757,0.008139,-0.980015
-0.058927,-0.094871,0.498378,0.221710,0.608253,0.762151
-0.606129,-0.267331,0.872366,-0.610561,-0.382510,0.693470
0.585929,0.544543,-0.930169,0.180348,-0.040159,-0.982783
0.468270,0.544467,-0.945831,-0.176179,-0.119312,0.977101
0.449893,0.416044,-0.943192,-0.162615,-0.095720,-0.982036
0.324646,0.841217,-0.968200,0.262953,0.077332,-0.961704
-0.025621,0.022280,0.263099,0.833365,0.538392,0.125047
0.971917,0.599397,-0.901181,0.041555,0.125656,0.991203
0.823956,0.564455,-0.913122,0.227814,0.030271,-0.973234
0.484578,0.664175,-0.934409,-0.275513,-0.097304,0.956360
0.745714,0.477061,-0.912560,0.224489,-0.215338,-0.950386
0.641949,0.604282,-0.949249,0.278658,-0.075148,-0.957446
-0.010297,0.042945,0.340717,-0.826806,-0.509967,-0.237329
0.832480,0.311215,-0.905551,0.119803,-0.028523,-0.992388
-0.147467,-0.106594,0.536495,-0.631911,0.699364,-0.334033
-0.468121,0.007326,0.886947,0.235597,-0.175836,-0.955811
0.935604,0.408830,-0.899970,0.162646,-0.029638,-0.986239
-0.561588,0.137329,-0.147363,0.711843,0.630125,-0.310196
0.610417,0.629531,-0.933198,-0.196098,0.134174,-0.971361
0.346177,0.419500,-0.960325,-0.056984,0.105011,0.992837
-0.191171,-0.066315,0.124043,-0.288713,0.956971,-0.029173
0.792718,0.644336,-0.908277,-0.066577,-0.057652,0.996114
0.034885,0.117866,0.222905,-0.728554,0.580454,-0.363706
-0.115737,-0.082098,0.517112,-0.050335,0.894035,0.445160
0.696295,0.160623,-0.910051,-0.149964,0.132095,0.979827
-0.503547,-0.583168,0.898585,-0.046186,-0.602018,0.797146
-0.842875,-0.745631,0.682862,-0.100421,-0.059656,0.993155
0.892146,0.355626,-0.906373,-0.143340,0.205552,0.968092
0.772172,0.504264,-0.909531,-0.209945,-0.045576,0.976650
0.651360,0.639075,-0.924112,-0.355867,-0.197275,0.913477
-0.403084,-0.107495,0.267382,0.984540,-0.032039,0.172206
-0.441663,0.000038,0.813135,0.953445,-0.089069,-0.288115
-0.181562,-0.044598,0.160299,0.288947,-0.902879,0.318308
0.987042,0.470223,-0.899970,-0.155794,0.247743,0.956217
0.006356,0.094947,0.244105,-0.087316,0.992074,0.090364
-0.424468,-0.445426,0.156665,0.797880,0.334169,0.501715
0.956297,0.596093,-0.898672,-0.090839,0.030567,0.995396
0.261579,0.606463,-0.975901,0.282801,-0.094047,-0.954557
-0.389288,-0.352695,0.228919,-0.211796,-0.931463,0.295835
0.690531,0.296036,-0.923636,0.376917,0.151582,-0.913759
-0.467333,-0.255683,0.904123,0.508178,0.116447,-0.853344
-0.364948,-0.531242,0.905421,0.003996,-0.595755,0.803156
-0.317944,0.427465,0.278977,0.524238,0.128855,-0.841767
-0.541436,-0.203606,0.823087,-0.509083,0.417592,0.752630
-0.214869,0.368402,0.322589,0.459754,0.544448,-0.701572
-0.253251,-0.448356,0.210834,-0.483780,0.444717,-0.753780
-0.297841,-0.085702,0.667676,0.811720,0.582639,0.040538
0.678656,0.344130,-0.931121,-0.159440,-0.064583,0.985093
0.340609,0.507722,-0.573660,0.986973,0.010906,0.160516
-0.575581,-0.249370,0.837234,-0.822735,0.533358,-0.196561
-0.191909,-0.329476,0.524856,-0.463702,-0.840504,0.280237
0.741969,0.390493,-0.916540,0.137032,-0.052960,0.989150
0.569078,0.330077,-0.933328,-0.121623,0.289653,0.949373
0.937920,0.388090,-0.898628,0.091270,-0.172768,0.980725
0.571936,0.259816,-0.932203,-0.067105,0.145558,0.987071
-0.297891,0.041294,0.299355,0.963880,0.266073,0.011859
0.811244,0.331955,-0.897028,0.175591,0.702124,0.690065
0.428509,0.505617,-0.953403,0.016869,0.007092,0.999833
0.646236,0.093445,-0.927573,-0.414944,-0.085319,0.905838
0.527642,0.196618,-0.930212,-0.235861,-0.053219,0.970328
-0.461421,-0.386135,0.866396,0.899724,-0.028922,-0.435501
0.701863,0.441818,-0.917492,0.266984,-0.017184,-0.963548
0.768872,0.257787,-0.909748,-0.305832,-0.122137,0.944219
0.662594,0.574075,-0.928309,0.202177,0.229594,-0.952056
0.756160,0.376142,-0.921170,-0.060653,0.005770,0.998142
-0.158947,0.321209,0.311383,-0.233151,-0.560026,0.794992
0.892443,0.307307,-0.900705,-0.087954,0.003379,0.996119
0.683140,0.100957,-0.920305,-0.077427,-0.104792,0.991476
0.468369,0.506670,-0.945831,-0.180244,0.078014,0.980523
-0.140224,-0.322486,0.561329,0.422022,0.848312,-0.319789
0.658504,0.653278,-0.923074,0.096350,-0.176478,-0.979578
-0.436588,-0.457598,0.896595,0.346042,-0.884743,-0.312224
0.274390,0.813939,-0.965258,-0.142654,-0.087222,0.985922
-0.916092,-0.654780,0.649981,-0.135323,0.195651,0.971292
0.540354,0.785234,-0.942803,0.234332,-0.027804,-0.971759
0.882293,0.338493,-0.898369,-0.010203,0.414788,0.909861
0.724823,0.695059,-0.915329,0.137303,0.164653,0.976748
0.888846,0.542213,-0.907584,0.237489,-0.105247,-0.965672
0.441220,0.760435,-0.952494,0.233096,-0.179455,-0.955752
-0.509558,-0.428893,0.023277,-0.463936,0.884920,0.040981
0.738718,0.557167,-0.923939,0.192687,0.153088,-0.969245
-0.632833,-0.374112,0.760611,0.227143,0.960390,-0.161423
0.920331,0.411761,-0.898196,0.230913,-0.226593,-0.946221
0.149636,0.732932,-0.979579,-0.129851,-0.022344,0.991282
-0.631306,-0.364944,0.796911,0.118691,-0.957854,0.261589
-0.612485,-0.446175,0.074460,0.365414,-0.928024,0.072414
0.721768,0.352847,-0.914464,0.079312,0.098174,-0.992004
0.132145,0.667255,-0.983473,0.351289,0.210188,-0.912369
0.523405,0.430171,-0.947951,-0.184777,0.046844,0.981663
-0.193191,-0.165432,0.554277,0.867561,-0.496419,-0.030096
0.133031,0.428066,-0.181889,0.473799,0.814546,-0.334709
0.276261,0.608490,-0.976896,-0.222369,0.159809,0.961776
0.589722,0.276649,-0.929996,-0.132811,0.023195,0.990870
0.983298,0.413414,-0.896638,0.060354,-0.174312,0.982839
-0.523994,-0.557316,0.890711,0.639489,0.479557,-0.600898
0.759067,0.572046,-0.917579,-0.203652,0.155889,0.966553
0.799025,0.261770,-0.901830,0.334769,0.169433,-0.926942
0.329130,0.607589,-0.956172,-0.054754,0.059712,0.996713
0.309274,0.881345,-0.976723,-0.204554,0.031877,0.978336
0.991231,0.435581,-0.897936,0.066551,-0.057305,0.996136
0.565236,0.597971,-0.935404,-0.046156,0.106133,-0.993280
0.578292,0.790419,-0.933284,0.111926,-0.091744,-0.989472
0.458121,0.604133,-0.947649,-0.105333,-0.103207,0.989067
0.318684,0.690401,-0.980184,-0.073664,0.134686,0.988146
0.630815,0.344279,-0.929520,-0.134755,0.125831,0.982857
0.383426,0.915911,-0.955133,0.214410,0.122138,-0.969077
0.139092,0.705053,-0.977156,-0.190129,-0.003146,0.981754
0.890422,0.445050,-0.901917,-0.049713,0.052337,0.997391
0.396926,0.527183,-0.654870,-0.619464,0.322479,-0.715732
0.706643,0.739093,-0.923117,-0.219346,0.239879,0.945698
0.353912,0.741949,-0.950071,0.287937,0.123698,0.949627
-0.371403,-0.635319,0.897547,0.124621,0.642981,0.755675
0.809519,0.484051,-0.905681,-0.164976,0.434913,0.885231
0.550454,0.636220,-0.943149,-0.099767,-0.087414,0.991164
-0.171166,-0.370956,0.535846,-0.808962,0.391450,0.438574
0.747883,0.712567,-0.919396,0.193480,0.108100,0.975131
0.839032,0.655456,-0.917146,0.123727,0.057852,0.990628
0.372931,0.717528,-0.962835,0.031670,-0.153874,0.987583
0.107016,0.251776,-0.032276,-0.340618,-0.809533,-0.478159
-0.454720,-0.261543,0.814217,0.995148,-0.095258,0.024637
-0.037001,0.080444,0.336434,0.971891,0.209508,0.107397
0.229356,0.274844,-0.263877,0.994852,-0.075864,0.067182
0.776212,0.285065,-0.906762,-0.296544,0.598961,0.743846
0.752514,0.453991,-0.915416,0.579548,-0.021023,-0.814667
0.195901,0.214052,-0.085796,-0.549767,-0.561300,-0.618626
0.442895,0.688071,-0.950244,0.051723,-0.027073,0.998294
-0.612337,-0.051964,0.819322,0.036559,-0.075971,0.996440
-0.173482,0.297841,0.323108,-0.065099,0.419833,-0.905263
-0.335829,-0.025211,0.850863,-0.327348,0.044649,0.943848
0.402789,0.665977,-0.938173,-0.558464,0.782952,0.274053
0.270743,0.502762,-0.971445,0.212602,-0.200422,-0.956364
0.570951,0.830019,-0.941981,-0.296852,0.034691,0.954293
0.318487,0.512907,-0.962835,-0.124217,-0.200598,0.971767
0.722310,0.368475,-0.914853,-0.201146,-0.097303,0.974717
0.676489,0.537704,-0.921603,0.383004,-0.139312,-0.913181
-0.424320,0.070524,0.858391,-0.216889,0.877247,0.428249
0.797251,0.202556,-0.912776,0.042863,-0.043642,0.998127
0.600512,0.711967,-0.930948,-0.258871,-0.019329,0.965719
-0.593220,-0.387938,0.803920,0.698342,0.527717,-0.483563
0.608495,0.418147,-0.930645,0.154901,0.130736,0.979241
0.483249,0.867668,-0.961667,-0.177217,-0.298036,0.937960
0.660820,0.148827,-0.923376,0.232424,-0.069755,-0.970110
0.878991,0.501785,-0.916540,-0.072602,-0.175287,-0.981837
0.522074,0.304753,-0.945009,0.240323,0.087865,-0.966708
0.575976,0.458802,-0.934755,-0.034490,0.025398,0.999082
0.176538,0.274695,-0.096007,-0.658995,-0.082666,-0.747590
0.531780,0.781852,-0.942716,-0.092350,0.144382,0.985203
0.754829,0.637422,-0.915243,-0.207799,0.107003,0.972301
0.736747,0.553184,-0.917622,-0.167342,0.033857,0.985317
-0.274044,-0.398836,0.877991,-0.295496,0.854536,0.427142
0.233988,0.542738,-0.976377,0.093764,-0.004776,-0.995583
0.404317,0.581664,-0.732531,0.160706,0.960630,0.226637
0.950926,0.408302,-0.897893,-0.138240,0.214858,0.966812
-0.818486,-0.096073,0.749405,-0.191317,0.618957,0.761768
0.304839,0.811008,-0.968805,-0.053469,-0.086486,0.994817
0.415206,0.761939,-0.955393,-0.054526,0.072216,0.995898
0.913087,0.464813,-0.908969,-0.058581,-0.102238,0.993034
0.732510,0.177006,-0.915891,-0.336391,-0.014551,0.941610
0.689495,0.525905,-0.919829,-0.195266,0.194352,0.961300
0.390520,0.518617,-0.665210,-0.368435,0.683175,-0.630498
-0.450729,-0.308736,0.899407,0.798002,0.060924,-0.599568
0.956691,0.499831,-0.902739,-0.183455,-0.063723,0.980961
-0.397270,-0.357731,0.926145,0.472645,0.156673,-0.867214
-0.823758,-0.284689,0.726604,-0.494399,0.278636,-0.823366
-0.665352,-0.453241,0.064985,0.262256,-0.885890,0.382650
0.754632,0.590456,-0.921083,0.057129,0.193944,0.979348
0.326912,0.711967,-0.966988,-0.310638,-0.207808,0.927534
0.852188,0.631035,-0.912127,-0.042794,-0.019388,0.998896
0.033997,0.104115,0.262450,0.912319,-0.339235,0.229333
0.770054,0.320308,-0.903561,-0.196175,0.138846,0.970689
0.283160,0.493444,-0.497815,0.598482,0.793331,0.111558
-0.169885,-0.249895,0.637563,0.698699,0.693422,-0.176027
-0.250936,0.091940,0.308095,-0.227475,-0.835455,-0.500270
-0.254828,0.046779,0.329338,0.416921,0.794882,0.440839
0.789861,0.256961,-0.909618,-0.018783,-0.277467,0.960551
-0.648058,-0.344504,0.754078,-0.550664,0.122376,0.825708
0.292866,0.463760,-0.419634,-0.699348,-0.353590,-0.621197
-0.234331,-0.151907,0.642236,-0.622700,0.224345,-0.749610
0.567699,0.692279,-0.932592,-0.064648,-0.145161,0.987294
-0.008227,0.070074,0.309912,-0.672910,0.698327,0.243990
0.937476,0.380875,-0.904340,0.031287,0.034137,0.998927
0.288284,0.488259,-0.508761,0.550849,0.770045,0.321864
-0.703735,-0.495772,0.676589,-0.846372,0.220212,0.484934
0.357165,0.642458,-0.954874,-0.045029,-0.052930,0.997582
0.559224,0.441217,-0.934020,0.143017,-0.015978,-0.989591
-0.677917,-0.273266,0.775365,-0.045783,-0.576128,0.816076
0.543211,0.645013,-0.936746,0.204956,0.188620,-0.960425
0.098493,0.169040,0.091550,-0.365726,0.908539,0.201994
-0.166732,-0.161375,0.554883,0.928797,-0.367676,0.046370
0.921906,0.450836,-0.903344,-0.115937,0.116132,0.986444
0.807795,0.309261,-0.903604,-0.026346,-0.046402,0.998575
-0.513992,-0.544767,0.887293,0.442554,0.489243,-0.751523
0.728026,0.556791,-0.919353,0.142138,0.087806,-0.985945
0.572970,0.533496,-0.932462,-0.121450,-0.127814,0.984334
0.317255,0.824761,-0.964998,-0.021863,-0.027027,0.999396
-0.161361,-0.012362,0.170553,-0.366227,0.897066,-0.247287
0.293162,0.544167,-0.965907,-0.297074,0.106553,0.948891
-0.393919,-0.403720,0.907758,-0.574632,0.395239,-0.716648
0.627218,0.223145,-0.925453,-0.062427,-0.016109,0.997920
-0.172102,-0.209091,0.614070,0.923913,0.378192,-0.057928
-0.109479,-0.183618,0.521395,-0.512397,0.676601,0.528828
-0.058337,0.057073,0.253926,-0.146676,0.981348,0.124265
0.310407,0.455720,-0.945918,-0.205006,0.267267,0.941563
-0.351842,-0.027089,0.851253,0.399554,-0.302787,-0.865261
0.635249,0.768551,-0.927616,-0.143688,-0.038635,0.988869
0.365688,0.755025,-0.957686,-0.121680,-0.075881,-0.989665
-0.523058,-0.451060,0.836110,-0.051444,-0.974666,0.217669
0.643823,0.355927,-0.926275,-0.267431,0.131540,0.954557
-0.393180,-0.410031,0.903085,0.583903,0.072505,0.808579
0.009214,0.092617,0.220179,-0.293062,0.921821,-0.253693
0.286215,0.904263,-0.965777,0.081362,-0.306639,0.948342
0.667422,0.099304,-0.924242,-0.281901,-0.082574,0.955884
-0.437278,-0.653878,0.901095,0.459004,-0.238307,-0.855877
0.792324,0.249671,-0.902652,-0.227882,-0.390225,0.892073
-0.283799,-0.242082,0.770302,-0.837522,-0.250695,-0.485499
0.405746,0.748863,-0.950850,-0.173802,0.229299,0.957713
-0.277148,-0.144543,0.687319,0.960443,-0.248347,0.125991
0.519166,0.736087,-0.941591,0.057040,0.112276,-0.992039
0.434668,0.807024,-0.952408,-0.176692,0.115334,0.977486
0.549566,0.674919,-0.934452,-0.235600,0.156512,0.959165
-0.133573,-0.058952,0.157401,0.080766,0.663829,0.743510
-0.047250,0.173324,0.294466,-0.454092,-0.457034,0.764801
-0.437770,-0.403417,0.159001,0.621166,0.436021,-0.651183
-0.368447,-0.736387,0.192229,-0.790557,0.327703,-0.517330
0.203292,0.788766,-0.979752,-0.058255,-0.144434,0.987798
0.659047,0.255833,-0.925064,-0.101150,-0.222573,0.969654
0.301735,0.523426,-0.964955,-0.165240,0.084833,0.982598
0.746009,0.470899,-0.912214,-0.276671,0.212167,0.937251
0.625346,0.563104,-0.931770,-0.104979,0.060753,0.992617
-0.035326,0.094646,0.271535,0.490106,0.870891,-0.036676
-0.851054,-0.571445,0.634015,-0.620137,0.007802,-0.784454
0.658997,0.606312,-0.927097,0.349695,-0.134810,-0.927114
-0.260938,-0.072929,0.472851,0.580337,0.388832,-0.715555
0.566762,0.148451,-0.935837,-0.084797,-0.190475,0.978023
-0.360070,0.294307,0.791979,0.134883,0.946238,0.294007
0.703784,0.534773,-0.914377,-0.006668,0.059162,0.998226
0.813265,0.233966,-0.902739,-0.037297,-0.221650,0.974413
-0.420624,-0.261618,0.809198,0.529020,-0.842854,-0.098665
0.589871,0.268833,-0.933501,-0.043613,0.055056,0.997530
0.901558,0.590832,-0.910353,-0.175404,-0.312908,0.933447
0.728173,0.214052,-0.918228,-0.111417,-0.056538,0.992164
-0.497142,-0.265678,0.855925,0.453163,0.526392,-0.719413
-0.501971,-0.715950,0.915156,-0.306679,0.194812,0.931663
0.500690,0.392373,-0.947216,-0.181497,0.185307,0.965775
0.237830,0.771633,-0.962229,0.444832,0.151468,-0.882713
0.498720,0.365320,-0.945572,0.136976,-0.080842,-0.987270
0.935012,0.476460,-0.905551,-0.207126,-0.261032,0.942848
-0.153035,-0.069021,0.553974,-0.631927,0.672906,-0.384532
-0.332873,-0.007477,0.824644,0.622537,0.782417,0.016456
-0.190776,-0.089009,0.585731,-0.625729,-0.253524,-0.737692
0.180923,0.652301,-0.983256,0.313791,-0.150324,0.937517
-0.071836,-0.144543,0.520010,0.880620,-0.002573,0.473816
0.340954,0.399361,-0.954831,-0.076277,0.011959,0.997015
0.274390,0.433251,-0.391684,0.935505,0.289733,0.202203
-0.314150,0.111479,0.344135,0.344415,0.804595,0.483741
0.635840,0.383054,-0.929996,-0.226300,0.019026,0.973872
0.316073,0.890962,-0.964176,-0.096519,0.045843,0.994275
0.519956,0.725644,-0.946394,-0.009317,0.030135,0.999502
-0.535179,-0.622844,0.893264,0.864509,-0.486370,0.126764
0.841595,0.520495,-0.916151,0.283335,-0.037597,0.958284
0.432696,0.598948,-0.910916,-0.580271,-0.741631,0.336553
0.551834,0.751869,-0.933155,-0.442265,0.031844,0.896319
-0.818930,-0.602555,0.632977,-0.685046,-0.020999,-0.728197
-0.621600,-0.562801,0.801757,-0.662351,0.343303,0.665909
-0.262515,0.040241,0.323584,-0.533971,0.668412,0.517784
-0.101645,-0.086606,0.521438,0.517415,0.727472,0.450628
0.549469,0.740222,-0.934409,0.465387,-0.022404,-0.884824
0.546316,0.124179,-0.938260,0.143531,0.138014,0.979975
-0.179394,0.344431,0.328040,-0.598465,-0.252151,0.760433
-0.421511,-0.180838,0.850906,-0.399265,-0.186528,-0.897661
0.791192,0.578357,-0.914118,0.429408,-0.069586,-0.900426
0.373867,0.927634,-0.961450,0.258614,0.169186,-0.951050
-0.253695,-0.342250,0.667373,-0.684753,0.269052,-0.677292
-0.058632,-0.008303,0.358067,0.300190,-0.947532,0.109857
0.679692,0.100584,-0.914940,0.200977,0.138037,0.969822
-0.686046,0.012286,0.829879,-0.321518,-0.880343,0.348744
0.842038,0.614879,-0.913598,-0.077962,0.010807,0.996898
-0.074448,0.181588,0.311643,-0.530373,-0.827071,0.186168
0.115245,0.712191,-0.984641,-0.333853,-0.019925,0.942414
-0.122438,-0.361712,0.623026,0.466102,0.334624,0.819009
0.490097,0.611196,-0.942933,-0.085836,0.104975,-0.990764
0.704572,0.661770,-0.920867,0.232893,0.065615,-0.970286
-0.511628,-0.799812,0.926968,0.872637,-0.040636,-0.486676
0.405844,0.822054,-0.950374,0.177061,0.011850,-0.984129
0.443586,0.546873,-0.939947,-0.007295,-0.134968,0.990823
-0.663234,-0.542137,0.823952,0.581810,0.291197,-0.759409
0.702553,0.147174,-0.915286,0.009971,0.113250,0.993516
-0.331839,-0.481345,0.863756,0.996547,0.018557,0.080935
-0.361549,0.047680,0.860295,0.095218,0.363424,0.926745
-0.481769,0.137329,-0.107775,0.816650,0.541739,-0.199003
-0.527098,-0.116813,0.852594,0.495896,0.082113,0.864491
-0.656286,-0.643735,0.818024,0.779442,-0.057022,-0.623874
-0.532568,-0.124328,0.850560,0.398820,-0.002920,0.917025
0.395940,0.544467,-0.953143,-0.046555,-0.160050,0.986010
-0.862238,-0.129513,0.636049,-0.483812,-0.754500,0.443459
-0.060356,-0.075559,0.174491,-0.091894,0.421635,0.902097
0.742856,0.342626,-0.910051,-0.143914,-0.083886,0.986028
0.540008,0.590681,-0.938606,-0.025460,0.076176,0.996769
-0.722752,-0.310162,0.783888,-0.545449,-0.078524,0.834457
0.552129,0.758332,-0.929693,-0.239998,0.087232,0.966846
0.293852,0.596318,-0.969368,0.226319,-0.006298,-0.974033
-0.361006,-0.626375,0.912949,0.085817,0.571036,0.816427
-0.170132,0.321360,0.325964,-0.299307,-0.120573,-0.946508
0.464427,0.712492,-0.949120,0.108899,-0.161276,-0.980883
0.807303,0.301746,-0.904296,-0.157310,0.036123,0.986888
0.615442,0.272892,-0.934193,-0.108508,0.010145,0.994044
0.579080,0.260568,-0.933890,0.107235,0.147757,0.983193
0.296315,0.512004,-0.967205,-0.206584,-0.106809,0.972582
0.614704,0.340296,-0.925626,-0.513420,0.165038,0.842118
0.248818,0.693180,-0.980357,-0.150753,0.108304,-0.982621
0.515619,0.267556,-0.923852,0.014519,0.397693,0.917404
-0.425009,-0.017771,0.783066,-0.758713,0.645064,-0.090812
0.921216,0.386737,-0.905075,-0.014696,0.033508,0.999330
0.291338,0.443921,-0.429023,-0.844994,0.320582,-0.428034
-0.327010,-0.301822,0.790810,-0.155859,0.776073,0.611080
0.842482,0.394852,-0.904989,0.104842,0.156327,0.982125
0.503301,0.892240,-0.939990,-0.193824,-0.033647,0.980459
-0.227532,-0.397632,0.972137,0.691890,-0.020510,-0.721712
-0.433878,-0.594439,0.950850,0.576654,0.111359,-0.809364
-0.389091,-0.429946,0.896162,-0.555473,-0.447507,0.700848
0.524193,0.640729,-0.944317,-0.107344,-0.150566,0.982755
0.770596,0.619312,-0.913728,-0.093576,-0.077775,0.992570
-0.529168,-0.428818,0.145719,-0.283706,0.836637,0.468560
0.425158,0.871800,-0.950893,-0.220140,0.164799,0.961447
-0.491772,-0.719555,0.939039,0.303644,-0.326439,-0.895119
0.488570,0.922825,-0.952018,-0.264435,0.102830,0.958906
0.631553,0.197070,-0.942284,0.097458,-0.017307,0.995089
-0.344895,0.129437,0.839830,-0.112509,-0.322615,0.939820
0.274685,0.488860,-0.491066,0.435996,0.637402,0.635316
-0.560455,-0.567986,0.871068,0.627336,-0.409700,-0.662266
-0.411805,-0.400113,0.938000,0.298666,-0.681144,-0.668462
-0.338539,-0.059252,0.397222,0.839149,-0.031965,-0.542962
-0.528971,-0.268608,0.862458,0.648299,-0.335013,-0.683721
0.925602,0.441442,-0.904945,-0.035414,0.054935,0.997862
-0.337209,-0.655683,0.164626,0.980206,-0.194864,0.034984
0.439200,0.258087,-0.910483,-0.244593,0.118793,0.962321
-0.442796,-0.711441,0.224246,0.284558,0.094752,0.953965
-0.145053,0.029720,0.284645,-0.280900,0.727584,-0.625873
-0.193388,-0.337817,0.483494,0.798561,-0.424497,-0.426735
-0.773452,-0.306181,0.635184,0.805801,0.344170,0.481904
0.745566,0.281081,-0.915805,-0.099079,0.260770,0.960303
-0.399487,-0.818447,0.290010,0.799624,-0.491200,-0.345433
-0.413381,-0.546345,0.878337,0.776767,-0.215556,0.591750
-0.188559,0.295811,0.321551,0.355328,0.702961,-0.616107
0.518132,0.687920,-0.943408,-0.236685,0.482522,0.843299
-0.344895,-0.580161,0.186389,0.987045,0.053275,-0.151341
-0.247339,0.061057,0.335785,-0.300184,0.052065,0.952459
