-0.092054,0.742070,0.583857,-0.401272,0.123959,-0.907532
0.082594,0.543352,0.590015,-0.478331,0.876087,0.060594
-0.903893,-0.006314,0.345582,-0.524647,0.585294,-0.618205
0.213999,-0.324743,0.841535,0.791939,-0.404793,-0.457137
-0.546811,-0.385399,0.152156,-0.633152,-0.138513,0.761533
-0.040486,0.163594,0.221285,0.665145,-0.594499,-0.451833
-0.711081,0.018217,0.537398,-0.728178,0.309534,-0.611511
-0.462325,0.217708,0.324344,-0.115084,0.488179,0.865122
-0.330055,0.322013,0.748442,0.683506,-0.424045,0.594142
0.099459,0.287382,0.828504,0.236818,-0.416651,0.877678
-0.604703,-0.496149,0.431638,0.488867,-0.075509,-0.869085
0.220433,-0.439305,-0.296471,0.956591,0.291370,-0.006038
-0.357353,-0.426268,0.390432,0.884073,0.460290,-0.080922
0.431027,-0.472134,0.633068,-0.299801,0.797940,0.522887
-0.056594,0.522995,0.315673,0.269555,0.285201,0.919783
0.386973,0.263213,0.517819,0.970174,0.074078,-0.230814
-0.329730,-0.225024,0.678031,0.733409,0.658392,0.169209
-0.278162,-0.672188,0.626244,0.966483,0.203655,-0.156315
0.395026,0.260067,0.688072,-0.462826,0.663466,-0.587882
0.729784,0.462084,0.573314,0.829925,0.123831,0.543959
-0.547568,-0.839625,0.432455,0.729117,-0.497461,-0.470022
0.113296,-0.111444,0.970695,0.232220,0.898063,0.373574
0.272649,-0.400397,0.787574,0.148645,0.884486,0.442254
-0.571893,-0.077225,0.333530,0.106922,0.313330,0.943606
-0.116109,0.727639,0.117711,-0.635904,0.620372,0.459091
-0.270650,0.374422,0.646765,-0.693750,0.144832,-0.705503
-0.530434,-0.831635,0.332424,-0.677867,0.728981,0.095304
0.484215,0.469659,0.678948,0.067029,-0.904088,0.422057
-0.451622,-0.404932,0.126232,-0.299360,0.152123,-0.941935
-0.098270,0.324485,0.672037,0.840033,-0.139915,0.524183
0.211135,-0.686566,0.571529,-0.044557,0.513570,0.856890
-0.761946,-0.676878,0.429929,0.684290,0.468540,0.558765
-0.549785,0.424566,0.527219,0.833639,-0.385240,-0.395774
0.184864,0.666262,-0.965354,0.362549,-0.187573,-0.912893
0.236810,-0.171584,0.919599,0.853791,-0.431996,0.290551
-0.194433,-0.723157,0.620262,0.718488,0.237254,0.653824
0.422919,-0.733414,-0.349163,-0.626852,0.155578,0.763448
0.046431,-0.175242,-0.536518,0.987978,0.110001,-0.108628
0.204379,-0.110465,0.889640,-0.063141,-0.958228,0.278947
0.173297,-0.211059,0.861868,-0.249917,0.965176,0.077310
-0.243459,0.339432,0.733249,0.317771,0.356925,0.878423
-0.168325,0.913834,0.628179,-0.037612,-0.804471,0.592800
0.113514,-0.252647,0.825840,0.563949,0.820662,0.092063
-0.385567,0.309953,0.670466,-0.430778,0.566665,-0.702368
-0.100919,0.077791,0.781505,0.711766,0.538758,0.450698
-0.737730,-0.813704,0.475998,0.968895,0.167159,0.182483
0.628811,-0.096858,0.652194,-0.013956,0.126686,0.991845
-0.645622,-0.828801,0.552868,-0.539594,-0.333637,-0.772997
0.052053,-0.178180,0.826129,0.042424,-0.055145,0.997577
-0.098865,-0.212968,0.739281,-0.237819,0.139648,0.961218
0.003298,0.312375,0.779871,0.180734,-0.983531,-0.001190
-0.781189,-0.013426,0.539811,0.768040,-0.153517,0.621729
0.105784,0.397251,0.754964,0.889285,-0.215577,0.403359
0.405892,0.042282,0.866279,-0.729484,-0.223797,0.646350
-0.223352,-0.643691,0.367787,0.950622,-0.169078,0.260252
0.435189,-0.380143,0.650674,0.540262,0.496610,0.679334
0.897027,0.364064,0.566050,0.175283,0.552471,0.814894
-0.594704,-0.891933,0.547263,0.672131,0.254661,0.695261
0.590485,-0.735166,-0.802176,0.921501,0.280902,0.268198
0.069351,0.861680,-0.979541,-0.327712,0.024604,0.944457
-0.444704,-0.218994,0.124284,-0.712582,0.595082,0.371624
-0.541730,-0.124947,-0.060131,-0.491251,0.270105,0.828080
0.327081,0.544126,-0.946454,0.358353,-0.218277,-0.907710
-0.544811,0.198741,0.327234,-0.350463,0.333672,0.875122
-0.429189,0.059805,-0.989507,0.277494,-0.095458,-0.955973
0.246541,0.034812,0.857822,0.446317,0.205337,-0.870998
-0.224811,-0.141127,0.677528,-0.535897,0.208645,0.818096
-0.422378,0.541239,0.422791,-0.567812,-0.442462,0.694130
0.144594,-0.252289,0.398387,-0.542137,-0.481577,-0.688601
-0.241731,-0.706615,0.381107,0.978269,-0.144236,0.148951
-0.092702,0.351026,0.773387,-0.507866,0.342277,-0.790518
-0.404432,-0.187355,0.749296,-0.673186,-0.344118,-0.654525
-0.286163,0.239814,0.718697,0.181348,-0.828740,0.529436
-0.040433,-0.284753,0.796082,-0.688299,0.436779,-0.579197
-0.520163,0.611429,0.364771,-0.408754,0.361071,-0.838181
0.049297,0.163698,0.637843,-0.155437,0.480111,0.863327
0.285621,0.380709,0.714713,0.779697,0.234201,-0.580709
0.245729,0.271664,0.555243,-0.062762,0.105850,0.992399
-0.103189,0.349224,0.771966,-0.307458,0.530325,-0.790079
0.128540,-0.038986,-0.212778,0.906899,-0.411502,-0.090562
-0.005135,-0.851168,0.353536,-0.223066,0.802262,0.553731
-0.092595,-0.530985,0.349440,0.666987,0.366102,0.648921
-0.483568,-0.782268,0.542978,0.340929,0.272270,0.899798
-0.080542,0.378753,0.617749,-0.098583,-0.682036,0.724644
-0.165892,0.196885,0.730321,0.534463,0.843009,-0.060713
0.257999,0.394729,0.693375,0.790605,0.528462,-0.309308
-0.661243,-0.336699,0.601061,-0.302942,0.208352,-0.929955
0.170757,-0.203381,0.806713,0.971692,0.195151,0.133153
-0.717947,-0.665850,0.536280,0.975545,0.177381,-0.129798
0.036973,0.195187,-0.465304,0.943919,0.241078,-0.225609
0.115729,-0.567368,0.703692,0.158147,0.590850,0.791129
0.097297,-0.075988,0.852355,0.725626,0.248120,0.641797
0.202973,-0.224766,0.850294,-0.392770,-0.346573,0.851832
0.137892,-0.537530,0.513622,-0.913320,-0.060533,0.402720
-0.170054,-0.764695,0.482884,0.053296,-0.568072,0.821252
-0.053838,0.533869,0.438034,0.019372,0.463837,0.885709
0.147675,0.098198,-0.120024,0.867843,0.493319,0.059029
-0.909622,0.112937,0.337376,-0.464083,0.190724,0.865015
-0.363568,0.005437,0.329647,-0.181010,0.186654,0.965606
0.031080,-0.554280,0.707977,0.452696,0.588263,0.670084
-0.344920,-0.325055,0.122336,-0.448591,0.275465,-0.850227
-0.733352,-0.359632,0.374786,0.924337,-0.354131,-0.142100
0.131945,0.804683,0.330992,-0.256180,-0.794982,0.549886
0.243999,-0.560668,-0.216422,0.588856,0.665100,0.459227
-0.492108,0.531189,0.535036,-0.127982,0.615722,0.777501
-0.369352,-0.974491,0.484581,0.168168,0.939835,0.297370
0.127189,-0.331031,0.625691,0.474397,0.133524,0.870126
0.245081,-0.272951,0.857231,0.935270,0.147067,-0.321933
-0.384703,-0.538562,0.531731,0.207187,-0.468635,0.858752
-0.328325,0.945374,0.391349,-0.374512,-0.070203,-0.924560
0.057675,-0.010127,0.973120,-0.609206,-0.766271,-0.204199
-0.564811,0.070217,0.614268,0.810416,0.216600,0.544344
-0.053784,-0.357418,0.780964,-0.495566,0.856689,-0.143170
-0.774109,0.334742,0.278979,-0.278761,-0.079197,0.957089
-0.389460,0.396326,-0.996444,-0.153286,0.117050,0.981225
0.441297,0.433996,0.728662,-0.281227,-0.753765,0.593927
0.141621,-0.099334,-0.029934,0.717766,-0.696088,0.016549
-0.031892,0.930326,-0.988313,0.366955,-0.045965,-0.929102
-0.185568,0.738667,0.548256,0.985620,-0.022856,-0.167422
-0.586541,0.068257,-0.065585,0.445815,-0.120936,-0.886918
-0.290757,0.352005,0.329107,-0.217907,0.023249,0.975692
-0.089568,0.184829,-0.060873,-0.175164,-0.371429,0.911788
0.615675,-0.124019,0.519064,0.833896,-0.428202,0.348224
-0.466000,-0.047334,0.606414,-0.271933,-0.142621,-0.951689
0.554377,-0.139840,0.649153,-0.312969,0.118575,0.942332
-0.054920,0.708367,0.562971,0.421996,0.143734,0.895131
-0.201461,0.350768,0.570448,-0.272684,-0.485072,-0.830872
-0.687947,-0.292692,0.633482,0.934080,-0.072372,0.349653
-0.315839,0.213018,0.646703,0.539903,-0.255503,0.802012
0.092594,-0.029502,-0.474201,0.464360,0.882527,0.074274
0.109514,-0.142621,0.911519,-0.304861,-0.228150,-0.924666
-0.190487,0.155970,0.788869,-0.733022,0.601415,-0.317773
-0.447515,0.543352,0.196404,-0.288885,0.500580,0.816067
-0.020000,-0.455901,0.771175,-0.594792,-0.686926,-0.417559
-0.014757,0.413022,0.772117,-0.045661,-0.786282,0.616178
-0.229027,0.617408,0.209159,-0.319633,-0.565431,-0.760344
-0.574757,0.008117,0.616932,-0.696817,0.394065,-0.599299
0.117512,-0.154734,0.334234,-0.823487,0.421797,-0.379416
0.006864,-0.031308,0.945549,0.373426,0.889214,-0.264294
0.136973,-0.049344,-0.238225,0.175519,-0.955429,0.237377
-0.415569,-0.505683,0.526767,0.939674,-0.086431,0.330971
-0.245838,-0.699865,0.626910,-0.281136,-0.924632,-0.256940
-0.042487,0.162666,0.126847,-0.326282,0.943317,0.060771
-0.522758,0.661881,0.378393,-0.303655,-0.381515,-0.873063
-0.171027,-0.417454,0.255278,-0.130998,-0.311813,0.941070
-0.645567,-0.146952,0.613476,0.830669,0.200451,0.519430
0.407298,0.049809,0.869596,-0.667202,-0.466493,0.580711
-0.399135,-0.969593,0.473108,-0.070325,0.959483,0.272848
0.095730,0.610759,0.639879,0.154910,0.041400,0.987061
0.031459,-0.683166,0.722266,0.667980,-0.643656,-0.373511
-0.130486,0.764849,0.096775,-0.195389,0.729254,0.655753
-0.210271,0.002449,0.343521,0.390502,-0.499061,-0.773593
-0.541730,0.118967,0.616706,0.717922,-0.210295,0.663599
-0.207028,0.318355,0.591937,-0.535704,-0.714951,-0.449294
0.218973,-0.262285,-0.248002,0.958153,-0.004821,0.286216
-0.227514,-0.165350,-0.180582,0.743327,0.111397,0.659588
0.319999,-0.384113,-0.422627,-0.512752,0.855626,0.070640
-0.053135,-0.455539,0.330929,-0.437606,-0.268361,-0.858186
-0.188650,-0.415086,0.602594,-0.640435,0.656990,0.397753
-0.611460,-0.328817,0.429778,0.867181,-0.405216,-0.289478
0.146811,-0.222964,0.893021,0.897025,-0.387402,-0.212758
0.075080,-0.230953,0.921308,-0.675049,0.713979,-0.185857
0.411405,0.312118,0.549550,-0.283649,0.228357,-0.931341
0.071405,0.610501,0.188210,0.872609,-0.311300,0.376359
0.528162,-0.202660,0.513446,-0.460525,0.797569,-0.389616
-0.102541,-0.333764,0.856565,-0.652588,-0.663339,-0.366211
-0.157946,0.846529,0.607947,-0.107975,-0.492488,0.863596
0.678703,0.193023,0.627765,-0.506503,-0.399988,-0.763849
0.160000,-0.197197,0.886938,0.837430,-0.526216,0.147677
-0.234055,-0.591178,0.313838,-0.179835,0.440840,0.879386
-0.509352,-0.618182,0.112345,0.514684,0.221150,-0.828368
-0.196000,-0.596381,0.687041,0.499304,0.691879,0.521535
-0.037459,0.152000,0.331419,-0.573535,-0.107388,0.812112
-0.245784,-0.155662,0.613049,0.793459,0.537437,-0.285629
0.215297,-0.059290,0.779444,0.377361,0.489320,-0.786235
-0.154866,-0.551084,0.693350,-0.271853,-0.628606,-0.728664
0.411567,0.452651,0.731665,0.134143,-0.860354,0.491728
-0.491676,0.873432,0.160966,0.837730,0.078753,-0.540376
-0.229514,-0.683474,0.358123,0.873580,-0.317498,0.368855
-0.236486,0.361592,0.578667,-0.610500,-0.597640,-0.519727
-0.131405,-0.480378,0.487308,0.539615,-0.230147,0.809845
-0.624812,0.185241,0.621368,-0.486646,0.873396,0.018817
-0.486919,-0.463217,0.131133,0.423518,-0.299072,0.855096
-0.778919,-0.811952,0.574130,-0.452857,-0.473422,-0.755508
-0.158271,0.594629,0.127426,-0.053730,0.172153,0.983604
0.610648,-0.005902,0.564115,-0.401179,0.246987,-0.882073
-0.180001,0.100004,-0.268988,0.034968,0.354253,0.934496
-0.612217,-0.528667,0.379838,-0.089185,-0.573556,0.814297
-0.796324,-0.749594,0.577259,0.434211,0.165543,0.885470
-0.126757,0.927800,-0.997034,0.275843,-0.080818,-0.957799
0.021512,0.215233,0.808271,-0.157434,-0.404379,0.900940
0.403297,0.307994,0.669034,-0.091165,0.474934,0.875287
0.068918,-0.191167,0.091359,0.465180,0.057139,-0.883370
-0.104758,-0.118709,0.848170,0.894961,0.215126,0.390852
0.640810,-0.014766,0.566754,-0.313059,0.207498,-0.926790
0.079351,-0.104640,-0.603938,0.807155,-0.506169,-0.303799
-0.541459,0.560048,0.198942,-0.235862,0.577852,0.781317
-0.401892,0.987579,0.398349,0.113124,-0.353611,0.928527
0.167350,-0.087790,0.952046,-0.214085,-0.953161,-0.213663
0.163135,0.128397,0.441540,0.931908,-0.002600,0.362684
0.497676,-0.298102,0.626898,0.899089,-0.229483,-0.372795
-0.134812,0.519079,0.448213,0.156189,-0.249102,0.955800
-0.149893,0.127469,0.751835,0.949853,0.038116,0.310364
-0.804920,-0.000543,-0.079220,-0.198243,-0.629736,0.751088
-0.323730,0.163906,0.635480,-0.153961,0.318742,-0.935254
0.643134,0.066763,0.569456,-0.391455,0.426926,-0.815167
0.217622,0.690639,0.655725,0.839373,0.401537,-0.366362
-0.462702,-0.357264,0.603348,0.312139,0.917050,0.248169
-0.572325,-0.020330,0.316829,0.081881,0.392231,0.916215
0.236541,-0.080471,-0.228348,0.367798,0.913258,-0.175168
0.036811,0.407354,0.773600,-0.694508,0.318978,-0.644912
-0.319082,-0.066247,0.335767,0.211366,-0.215829,-0.953280
0.168323,0.377001,0.452561,0.030828,0.097474,0.994760
-0.572757,-0.823599,0.528112,-0.420266,0.073603,-0.904411
0.027946,-0.697956,0.604554,0.703164,-0.078416,-0.706691
-0.178650,0.306037,0.753330,0.474641,0.694828,-0.540306
-0.550433,-0.601999,0.433736,-0.171378,0.123501,0.977434
-0.317893,-0.673632,0.256723,-0.704606,0.688288,-0.172598
0.440865,-0.014867,0.639075,0.062803,-0.140415,0.988099
-0.261298,-0.787883,0.532836,0.276621,0.510086,0.814428
-0.582054,0.185653,0.330916,-0.495112,0.187132,0.848437
-0.688973,-0.340206,0.354240,0.600695,-0.375968,-0.705559
0.646108,0.052694,0.665100,-0.460332,-0.404862,0.790051
0.211513,-0.071969,-0.022796,0.774014,-0.535753,0.337447
-0.002757,0.321447,-0.304878,0.478998,0.855636,-0.196080
-0.353405,-0.493057,0.308234,0.166774,0.144260,0.975385
0.173188,-0.260171,0.899417,0.100406,-0.949361,0.297712
-0.365028,-0.950372,0.464361,-0.070325,0.959483,0.272848
0.126918,-0.200855,0.893083,-0.004922,0.999766,0.021083
0.132811,-0.037284,-0.491731,-0.449471,0.893230,0.010746
-0.114758,-0.607308,0.667475,-0.656847,-0.747225,-0.101030
-0.668487,0.017496,0.333241,-0.053238,0.284189,0.957289
-0.149135,-0.847973,0.324218,0.546034,0.811737,0.207195
0.102594,-0.249709,0.343873,0.666204,-0.696130,-0.267535
-0.531568,0.039760,0.624523,0.791543,-0.068164,0.607301
-0.637514,-0.227604,0.513032,0.280064,-0.113364,-0.953264
-0.102650,-0.389060,0.793996,-0.730045,-0.649465,-0.212674
0.185675,0.347934,0.537084,-0.750198,-0.037025,0.660176
0.227838,-0.376589,-0.403903,0.168430,-0.980482,0.101418
-0.344271,-0.627250,0.555896,0.229144,-0.956204,-0.182121
-0.123622,-0.553764,0.690673,0.185592,0.572586,0.798562
-0.620973,-0.100620,0.333719,-0.148332,0.358972,0.921486
0.383946,0.388903,0.721926,0.223187,-0.649739,0.726655
-0.374974,0.230280,-0.988992,-0.284052,0.155741,0.946076
0.097081,0.701563,0.568274,0.245264,0.645370,-0.723425
-0.411946,0.154164,0.430482,-0.033094,-0.268607,0.962681
-0.346163,0.539386,-0.999208,-0.292880,0.049960,0.954843
0.108054,-0.069959,-0.425266,0.998824,-0.021726,-0.043342
-0.683567,-0.665747,0.548532,0.070871,0.972940,0.219919
-0.588920,-0.142055,0.339688,-0.137301,0.479648,0.866652
-0.926217,-0.085676,0.327071,-0.064060,0.736995,0.672856
0.375729,0.032852,0.851877,-0.586737,-0.177442,0.790097
-0.348324,0.491098,0.050392,0.966949,-0.076769,-0.243139
0.342107,0.363498,0.716460,0.518149,0.494293,-0.697994
0.033459,0.096188,0.920579,-0.576545,-0.371508,-0.727720
0.126810,-0.069393,0.154519,0.990543,0.124290,-0.058109
0.151999,-0.484914,0.678647,0.038588,0.728838,0.683598
0.168323,0.009095,0.542701,0.860524,-0.507316,-0.046150
-0.015189,0.048262,0.610197,-0.076948,0.543538,-0.835850
0.292594,-0.571183,0.624724,0.606660,0.431785,-0.667477
-0.003514,-0.700223,0.608236,0.703164,-0.078416,-0.706691
0.077135,-0.318301,0.866203,0.154533,0.865699,0.476114
0.235621,-0.207916,0.849063,0.167249,-0.827224,-0.536404
-0.331297,-0.111135,0.570335,0.269463,0.158061,-0.949951
-0.102434,-0.377413,0.340065,0.710712,-0.386063,-0.588085
0.671837,-0.103712,0.647683,0.609997,-0.045543,-0.791094
-0.690324,-0.283054,0.623919,0.958597,-0.076768,0.274225
-0.526704,-0.676932,0.305507,0.480069,-0.538391,-0.692581
0.019622,0.325775,0.545416,0.144517,-0.674207,0.724265
0.185675,0.003735,-0.203767,-0.473544,0.880087,-0.034690
0.237892,0.667964,0.513384,0.479385,0.656683,0.582201
0.109459,-0.043779,-0.644440,0.679404,-0.731231,0.060932
0.300432,-0.084490,0.751081,0.731896,0.561055,0.386711
0.250487,0.540880,0.526654,-0.695321,0.538013,0.476519
0.826324,0.235848,0.592440,0.453038,0.559473,0.694079
0.655242,-0.086242,0.500226,-0.610708,0.444836,-0.655100
0.156054,-0.150145,0.379826,0.110666,0.490091,0.864618
-0.286055,0.118502,0.332550,-0.060329,0.046431,0.997098
-0.107082,-0.745986,0.332148,0.002375,0.549594,0.835428
0.474649,0.190031,0.728448,0.050949,0.563281,0.824693
-0.360325,-0.215233,0.762051,-0.526289,-0.478018,-0.703220
-0.141082,-0.374063,0.716259,-0.522107,0.341519,0.781517
0.185134,0.622922,0.630844,-0.656496,-0.124531,0.743979
0.032972,0.323299,0.763371,0.715864,-0.376248,0.588197
-0.429460,-0.638951,0.283327,0.024586,0.801164,0.597940
0.602270,-0.215028,0.523198,-0.604198,0.732623,-0.313382
0.181134,-0.091964,0.928069,0.564388,0.803001,-0.191454
-0.179028,0.667860,0.559390,0.902945,0.092071,-0.419777
0.406864,-0.493982,0.412285,-0.593424,-0.169498,-0.786841
0.484702,-0.772835,-0.462639,-0.509594,0.855594,-0.090957
-0.316865,0.535932,-0.530738,0.096350,-0.457032,0.884216
0.122811,0.098044,0.529959,0.014437,0.313652,0.949428
-0.975622,0.102476,0.334385,0.495859,-0.213094,-0.841852
0.095568,-0.400242,0.729454,0.468740,-0.881742,0.053034
0.464108,0.274033,-0.913026,0.418548,-0.215770,-0.882191
0.053622,-0.074082,-0.687908,0.921823,0.111926,-0.371099
0.381135,0.480482,0.674349,-0.615701,-0.227279,0.754491
-0.169406,-0.322890,0.681638,0.677269,0.692235,-0.249234
-0.369838,-0.041150,0.598510,0.653349,-0.598080,0.464150
-0.399731,-0.913834,0.462124,0.364929,0.335210,-0.868597
0.305405,-0.303307,0.755215,0.955104,0.183743,0.232410
-0.702109,-0.527377,0.377652,0.451077,0.890495,-0.059568
0.255242,-0.495168,0.680620,0.250448,0.852995,0.457904
-0.370325,-0.387925,0.587476,-0.458146,-0.389143,0.799169
0.031351,-0.893427,0.315208,0.130635,0.725178,-0.676056
0.114540,0.129841,0.523399,-0.132910,0.215349,0.967450
-0.171784,-0.386535,0.629800,0.965341,-0.055091,-0.255113
-0.019784,0.567626,0.548721,0.501902,-0.304709,0.809474
-0.184757,0.248061,0.710554,0.693382,0.134352,0.707934
-0.532055,0.515525,0.534772,0.443849,-0.619074,0.647878
0.242541,-0.082069,0.303622,-0.507787,0.571043,-0.645028
0.264864,-0.336032,0.772733,0.966393,-0.122537,-0.225984
-0.437406,-0.239660,0.587288,0.304905,-0.311690,0.899934
-0.310433,-0.376589,0.261121,-0.681191,0.199673,-0.704351
0.437027,0.457395,0.553848,-0.007148,-0.083149,0.996512
0.307188,0.365920,0.663177,0.573187,0.433524,-0.695352
0.103783,0.154835,0.657535,0.124815,0.326293,0.936992
0.167134,0.031204,0.538064,-0.900983,0.433507,0.017333
-0.310865,0.909245,-0.006271,0.837267,-0.140102,-0.528541
0.017999,0.814320,0.569028,0.737111,-0.292049,0.609406
0.042810,0.276766,0.200865,0.824024,0.536046,0.183411
-0.135298,-0.441469,0.655575,0.833508,0.073010,-0.547662
-0.594865,0.487024,0.543568,-0.426997,-0.178478,-0.886465
0.038487,-0.391533,-0.133068,0.814660,-0.409229,0.410927
0.460378,-0.222294,0.114180,0.243690,-0.216695,0.945335
0.407730,-0.397100,0.656379,0.027534,0.624132,0.780834
-0.195352,0.424824,-0.985460,-0.286757,0.106812,0.952030
-0.461244,-0.803704,0.522620,-0.228923,-0.942675,-0.242813
-0.365622,-0.334484,0.575965,0.800794,-0.293576,-0.522056
-0.312973,0.515626,0.328051,0.409084,0.283152,-0.867453
0.191675,-0.020742,0.806060,0.653853,0.708821,0.264667
-0.241947,0.160402,-0.979278,-0.308221,0.122514,0.943393
-0.393784,-0.765208,0.296836,-0.520504,-0.033709,-0.853193
-0.378919,-0.163597,0.576367,0.249877,-0.011047,0.968215
-0.499730,-0.818752,0.539283,-0.178696,-0.001249,0.983904
0.252648,-0.476412,0.813687,-0.752678,-0.437601,-0.491916
0.578325,0.617562,0.463620,-0.709554,0.070771,-0.701088
0.056269,-0.417866,0.810156,-0.669683,0.226594,0.707233
0.236378,0.084387,0.859832,-0.212418,-0.120260,0.969751
-0.302974,0.128397,-0.983487,0.307820,-0.090985,-0.947084
-0.716325,-0.511401,0.422628,0.034167,0.314487,0.948647
0.326269,-0.153136,0.564379,-0.118474,-0.903708,0.411431
0.128433,0.205957,0.795051,-0.342255,0.360674,-0.867626
-0.738704,-0.605452,0.460089,0.018497,-0.781075,0.624163
0.424432,0.186323,0.723585,0.186594,-0.718192,-0.670360
-0.030054,0.082635,-0.457940,0.942801,0.255286,-0.214372
-0.688379,0.128089,0.647808,0.782215,-0.161345,0.601753
0.095134,0.794221,0.410099,0.451579,0.264340,0.852174
0.269188,0.452963,0.551950,0.264543,0.259215,0.928884
0.075946,-0.079027,-0.787888,0.814142,-0.532539,0.231465
0.242973,-0.092996,0.823389,-0.205657,0.780525,0.590327
0.097513,-0.182561,0.928823,0.980516,0.005671,0.196359
0.046162,0.549175,0.448691,0.057369,0.175850,0.982744
-0.609027,0.543403,0.555142,0.466129,-0.699968,0.541081
-0.600216,-0.076246,0.555670,0.992455,-0.119618,-0.026930
0.167297,-0.222448,0.889024,0.896806,-0.438506,-0.058755
0.110865,-0.197301,-0.755177,0.890208,0.340451,-0.302692
-0.442000,0.171172,0.618214,0.399071,0.818702,-0.412879
0.085350,-0.374938,0.804351,-0.533670,0.741191,0.407225
-0.420217,-0.427041,0.121770,0.414206,-0.367790,0.832565
-0.159947,0.731454,-0.994835,0.347978,-0.117401,-0.930123
0.078432,-0.084802,-0.879461,-0.548073,0.836120,0.022812
-0.653568,0.037130,0.500767,-0.672692,-0.554978,-0.489371
0.233134,0.090882,0.403690,0.969860,0.041789,0.240054
0.019891,-0.173594,0.863238,0.257129,0.890247,-0.375959
0.170432,-0.294031,0.867561,-0.194772,0.484403,0.852888
0.167837,-0.075265,0.871494,0.776693,-0.434120,-0.456385
0.133566,-0.443737,0.669523,-0.394270,-0.567990,-0.722453
-0.198054,-0.790975,0.337187,0.737080,0.138364,0.661490
-0.339459,-0.533819,0.429690,0.597241,0.031720,0.801434
0.377621,0.577933,0.503531,0.631231,0.430820,0.644935
0.258756,-0.550105,0.459121,-0.527360,-0.438043,-0.728017
-0.562380,-0.865597,0.434314,0.443043,-0.518962,-0.731021
0.050973,0.259193,0.385317,0.801865,-0.056229,-0.594854
-0.140541,-0.003273,0.719803,-0.312824,0.599802,0.736464
0.174594,-0.248369,0.821931,-0.642397,-0.646672,-0.411267
-0.460217,-0.519907,0.123467,0.286822,0.316301,-0.904260
-0.451730,-0.251515,0.495275,0.987117,0.145270,-0.067052
-0.027514,0.919037,-0.990123,-0.372759,0.052459,0.926444
-0.096595,-0.536706,0.622839,-0.408353,-0.895150,0.178758
-0.614974,-0.149786,0.517015,-0.026312,-0.094468,0.995180
-0.456757,-0.685176,0.524166,-0.227224,-0.011071,-0.973780
-0.160704,0.263725,-0.976664,-0.308159,0.143157,0.940502
-0.042216,-0.376331,0.494496,0.312028,0.010044,0.950020
0.561566,-0.177252,0.738778,-0.461164,-0.041335,0.886352
-0.581297,-0.673994,0.443073,0.310067,0.369387,0.876020
-0.136866,-0.257645,0.839726,0.375004,0.792372,0.481164
-0.706109,0.111906,0.641877,0.867129,0.251584,0.429875
-0.267027,-0.183335,0.724276,0.888170,0.409424,-0.208628
-0.186703,-0.088664,0.878820,0.991911,-0.113614,0.056599
0.020541,0.271252,0.816842,-0.608477,0.440693,-0.659959
0.183838,-0.557834,0.334724,-0.057210,-0.188141,0.980474
0.402378,0.099334,0.733588,0.260012,-0.452178,-0.853187
0.163513,-0.016723,0.532347,0.997323,-0.067149,0.028944
-0.188757,0.390605,-0.983286,0.279752,-0.205196,-0.937888
-0.191136,-0.614678,0.703755,-0.178948,-0.485132,0.855935
0.207784,-0.497436,0.620841,0.383281,0.042598,-0.922649
0.268865,-0.446313,-0.485121,0.229176,0.355735,0.906052
0.475675,-0.444973,0.652332,0.526744,0.362725,0.768747
-0.678866,0.065627,0.650447,0.785876,0.129757,0.604618
0.040054,-0.640083,0.729366,-0.326243,0.694429,0.641353
0.047188,0.007393,0.916168,-0.693613,0.629173,-0.350773
-0.127514,-0.133861,0.325161,0.079046,-0.112203,0.990536
-0.349243,0.167668,0.646162,0.642083,0.184322,-0.744147
-0.056649,0.611120,0.387403,0.281782,0.822679,-0.493759
-0.336380,0.784483,0.189291,-0.725374,0.080396,0.683644
-0.475838,0.833903,0.396401,0.742564,-0.234208,-0.627492
0.369459,-0.354172,0.706067,0.761906,-0.222049,-0.608436
-0.366434,0.462135,0.513723,0.246751,0.393680,0.885511
0.241242,0.287174,0.653124,-0.254285,-0.002611,0.967126
0.248811,0.172304,0.530286,-0.305666,0.694210,-0.651644
0.260919,-0.247649,0.774543,-0.637376,0.424316,0.643201
0.580162,-0.635859,-0.083053,0.484416,0.872418,-0.065016
-0.355838,-0.594887,0.302478,-0.125657,0.520055,-0.844839
0.354324,0.433945,0.714173,0.706987,0.304282,-0.638421
-0.270595,0.369474,0.738527,-0.069772,-0.519696,0.851498
-0.740864,-0.564688,0.543543,-0.783929,-0.140220,-0.604808
0.122324,-0.027442,-0.584096,-0.730771,0.670700,-0.127025
-0.672649,0.006931,0.608048,0.306648,-0.857029,0.414088
-0.173244,0.580767,0.131484,-0.070149,0.066304,0.995331
-0.475297,-0.784948,0.310596,0.492209,-0.525266,-0.694137
0.377243,-0.221058,0.782824,-0.645703,0.732409,0.215974
0.212378,-0.323972,0.822158,0.291034,-0.883004,-0.368243
0.050540,-0.217966,0.747550,0.310684,0.325052,-0.893206
-0.691730,0.262335,0.309440,-0.755635,0.046133,-0.653366
-0.189352,0.696666,0.402534,-0.615159,-0.784189,-0.081403
-0.158162,0.576077,0.531580,0.459454,0.872875,-0.164288
-0.375135,-0.575511,0.512001,0.280192,0.546074,0.789491
0.506757,-0.324951,0.622851,0.945662,0.030649,-0.323703
-0.460108,-0.683990,0.300354,-0.175418,-0.496651,-0.850039
-0.804973,-0.631323,0.449998,-0.046807,-0.835903,0.546878
-0.034325,0.562473,-0.512654,0.931289,0.355344,0.080196
0.141296,-0.019094,-0.219224,-0.484522,0.870313,-0.088281
-0.142271,-0.483574,0.621343,-0.499599,-0.386120,-0.775443
-0.549676,0.546753,0.556638,-0.113983,-0.315590,0.942025
0.383675,0.375246,0.724766,-0.061262,-0.689627,0.721569
-0.069405,-0.569585,0.476790,0.900169,0.344142,0.266949
-0.246270,0.719291,0.366103,0.989095,0.116180,0.090518
0.490703,-0.106291,0.729215,-0.537233,-0.180060,0.823990
0.683675,0.270221,0.613162,-0.625492,-0.184971,-0.757988
0.383350,-0.401995,0.696894,0.057576,0.991523,0.116475
-0.180540,0.340873,0.752237,0.777411,0.505617,-0.374144
0.134269,-0.108814,0.525598,0.981881,-0.177051,-0.067546
-0.003730,0.255739,0.338821,-0.657184,0.018879,0.753494
-0.490432,0.261099,0.500767,0.437356,0.792053,-0.425877
0.143946,0.098352,0.424977,0.946677,0.181711,0.266052
-0.422974,0.140353,-0.048884,0.023365,0.597900,0.801230
0.134162,-0.006572,0.534935,0.962987,-0.237158,-0.128109
0.082973,0.661110,0.561815,-0.079675,-0.547041,0.833306
0.574270,0.680436,0.447648,0.263776,0.857607,0.441512
0.261242,-0.021258,0.645999,-0.000831,-0.785142,0.619316
-0.119081,0.233168,0.035400,-0.527186,0.154405,-0.835604
-0.342811,-0.510061,0.507791,0.448875,0.132308,0.883745
0.074432,0.087633,-0.430859,0.911908,0.287593,-0.292770
-0.046108,0.348450,0.764879,-0.477935,0.498933,-0.722941
0.064973,0.437038,0.174512,-0.583609,0.310124,-0.750482
-0.469459,-0.649771,0.288793,0.957520,-0.282263,0.059018
-0.013298,0.119946,0.725118,0.837495,0.428615,-0.338956
0.201946,0.031924,0.852983,-0.575288,-0.047813,-0.816552
0.033675,-0.046563,0.984216,0.859465,-0.483785,-0.165140
-0.590594,-0.027338,0.600332,-0.564825,0.782930,-0.260754
-0.692487,-0.124431,0.350382,-0.051139,0.678521,0.732799
-0.041243,0.749490,0.425782,0.554225,-0.424897,-0.715750
0.164648,0.262389,0.800932,0.163550,-0.500183,0.850334
-0.447947,-0.197971,0.784659,0.877471,0.321517,0.355910
-0.646866,0.097736,0.618541,0.593457,0.575588,0.562589
-0.548325,0.051303,-0.056700,0.288985,0.231787,-0.928850
-0.893081,-0.009611,0.343357,0.429274,-0.602295,0.673026
-0.086487,0.837253,0.591271,0.028440,-0.734492,0.678021
0.675837,-0.018217,0.562883,0.191847,0.196557,-0.961541
-0.468757,-0.692700,0.133231,0.612263,0.296900,-0.732792
-0.160163,-0.033318,0.864143,0.903431,-0.027993,0.427818
-0.361244,-0.202711,0.135393,-0.202541,0.035596,0.978627
-0.501082,0.225232,-0.997122,-0.164478,0.085911,0.982632
0.685837,-0.120257,0.580326,-0.170797,-0.414768,-0.893754
-0.182487,0.358808,0.527257,-0.258054,-0.690067,0.676177
0.110107,-0.709449,0.327825,0.404642,0.317237,0.857686
-0.228811,0.246410,0.715291,-0.030933,0.973303,0.227430
0.081027,-0.087636,-0.893498,-0.540902,0.839161,-0.056872
-0.018703,0.465227,-0.972303,0.328781,-0.199148,-0.923170
0.055296,-0.423022,0.802616,0.902036,-0.352602,-0.249003
-0.675405,0.299542,0.295705,-0.430463,0.551127,0.714815
-0.031946,-0.604370,0.328780,-0.378472,-0.599410,0.705313
-0.093352,-0.183436,-0.068978,-0.102517,-0.286277,-0.952647
0.349514,-0.471722,-0.485159,0.779789,0.250097,0.573917
0.145892,-0.226263,0.817822,0.830666,0.214668,0.513723
-0.181082,0.102476,0.690183,-0.094086,0.682749,-0.724570
0.052865,-0.657348,0.730271,0.667980,-0.643656,-0.373511
-0.408380,0.861218,0.385091,-0.063372,0.303326,0.950777
0.467297,0.537735,0.683787,0.201175,0.690595,-0.694699
0.088648,0.079338,0.141864,-0.584525,-0.347297,-0.733291
-0.475730,-0.598391,0.522155,0.189580,-0.104379,0.976301
0.055351,-0.092788,0.390960,-0.162414,-0.521621,0.837576
0.080486,-0.190755,0.924764,0.983788,-0.172739,-0.048195
0.555296,-0.742224,-0.801485,0.921501,0.280902,0.268198
-0.172974,-0.172820,0.875025,0.855234,0.214609,0.471717
-0.208757,-0.550876,0.686514,0.114738,0.584867,0.802973
0.093460,-0.353398,0.471084,0.567310,-0.283002,0.773350
0.671027,-0.131027,0.581130,0.008606,0.419783,0.907584
-0.658541,-0.103816,0.608437,0.287282,0.514683,0.807818
-0.705514,-0.152724,0.618566,-0.776421,-0.253409,0.577021
-0.447515,0.188126,0.540779,0.569088,0.751263,0.334280
-0.431568,0.633383,0.538869,-0.277933,-0.655647,0.702054
-0.701730,-0.887706,0.555180,0.895866,0.387657,-0.217131
0.101242,0.337010,0.738024,0.685485,0.060672,0.725555
-0.203947,-0.674302,0.604278,0.499738,0.768821,0.398969
-0.622217,-0.133345,-0.079999,0.453137,0.656936,-0.602579
0.147350,0.334897,0.676071,0.277356,-0.822483,-0.496584
-0.166595,0.009403,-0.078617,0.161504,0.622298,0.765938
-0.197838,-0.122317,0.742661,0.068688,-0.546150,-0.834866
0.331081,0.442551,0.720468,0.581213,0.654635,-0.483368
-0.113407,0.286146,-0.971549,0.302231,-0.065114,-0.951008
-0.285460,0.385141,0.452800,-0.061877,0.365383,0.928798
-0.114217,0.189569,-0.969388,-0.293427,0.122286,0.948128
-0.098270,-0.326341,0.873970,0.448781,0.847959,-0.282066
-0.363675,0.288206,-0.993139,-0.250177,0.177074,0.951870
-0.076919,-0.824524,0.306525,0.357656,-0.211202,0.909657
-0.508594,-0.762631,0.309842,0.524726,-0.610354,-0.593406
-0.356163,-0.546290,0.634211,0.580702,-0.701928,-0.412410
-0.943406,0.108506,0.334674,0.495859,-0.213094,-0.841852
-0.210919,0.181322,0.810596,-0.238720,-0.957155,0.163911
0.448107,0.099280,0.889326,0.797940,0.401896,-0.449190
-0.001189,-0.109899,0.923733,0.620492,0.394631,0.677684
-0.741028,-0.113969,0.640444,-0.645624,-0.241742,-0.724383
-0.412000,-0.185911,0.464261,-0.547436,0.015935,-0.836696
0.280216,0.186373,0.097341,0.797830,-0.337397,0.499631
-0.794650,-0.858280,0.582211,0.791551,0.206465,0.575169
-0.041459,0.152878,0.038089,0.246382,0.528873,0.812151
-0.513352,0.039398,-0.046207,0.053922,-0.204380,0.977405
-0.292000,0.147723,0.632502,-0.649322,0.285299,-0.704972
-0.376702,-0.035894,0.131836,0.335872,0.040789,0.941024
-0.052162,-0.050375,0.889829,0.864458,-0.484244,-0.134984
0.174325,-0.143394,0.142845,0.936546,0.337240,-0.095662
-0.714379,0.231724,0.288831,0.797000,0.127647,-0.590337
0.087190,0.567418,0.514590,-0.628931,0.373784,0.681712
0.026811,-0.108402,0.472429,0.636888,-0.657173,-0.403110
-0.245406,-0.289084,0.799550,0.011135,0.633834,0.773389
-0.054866,0.059343,-0.955175,-0.368919,0.166324,0.914459
0.262973,-0.116753,0.741078,0.511537,0.406466,-0.757044
-0.167730,0.187663,0.047024,0.630993,0.201646,0.749124
0.159838,-0.368241,0.783151,0.186308,0.804159,-0.564462
0.026918,0.679558,-0.977581,-0.262949,0.157543,0.951860
0.597622,-0.189777,0.640444,-0.636485,0.656176,0.405364
0.175512,0.695688,0.205665,-0.284752,-0.329986,0.900014
-0.309135,-0.603804,0.312456,-0.484375,-0.220036,0.846738
-0.184217,0.269551,-0.976890,-0.284530,0.160255,0.945178
-0.122973,0.533149,0.454170,-0.167019,0.122799,-0.978277
-0.356379,-0.477336,0.581118,0.709353,0.315913,-0.630093
0.154216,-0.059189,-0.581406,0.721147,-0.624973,0.298925
0.115352,-0.077690,0.965178,0.207595,0.691409,0.691995
0.387080,0.012961,0.642128,0.815539,-0.089185,0.571789
-0.046324,0.188745,-0.200588,0.146252,-0.927740,0.343378
-0.038325,-0.076193,0.658591,0.409237,0.576172,-0.707496
-0.444757,-0.545362,0.373995,-0.349816,0.740271,0.574132
0.354108,-0.081606,0.753318,0.627472,0.767868,0.129067
0.536918,0.615860,0.705841,-0.190211,-0.291851,0.937359
0.056540,-0.075781,-0.634375,0.683052,-0.730345,0.005967
-0.077731,-0.033576,0.934553,0.423893,0.741266,0.520423
-0.349136,0.295934,0.659219,-0.645250,0.398245,-0.651961
-0.411839,0.142828,-0.990198,0.238327,-0.108345,-0.965123
-0.729298,0.171480,0.674349,0.848529,-0.219796,0.481339
-0.442812,-0.498363,0.543342,0.951808,-0.165786,0.258024
-0.406920,-0.396738,0.520760,0.149999,0.836724,0.526682
-0.042378,0.070887,0.706205,-0.624373,-0.742712,-0.241945
-0.836703,-0.336598,0.351702,0.278409,-0.566464,-0.775633
0.175135,-0.019456,-0.572434,0.532514,-0.836436,0.129627
-0.314433,0.248782,0.702410,0.858792,-0.509607,0.052698
0.154919,-0.126645,0.903740,0.910529,0.152069,0.384463
0.038216,0.310366,0.749812,-0.435834,0.429913,-0.790711
0.057568,-0.020588,0.803044,0.131449,-0.267777,-0.954472
0.199783,0.687752,0.507867,0.229149,0.537435,0.811575
-0.901784,0.030430,0.310445,0.177901,0.759704,0.625461
0.071134,-0.346648,-0.132138,0.768682,-0.361475,0.527696
0.049783,-0.798036,0.324206,-0.476702,0.815077,-0.329250
0.226648,-0.459763,-0.353524,0.720479,0.690987,0.058713
-0.253136,0.125667,0.687720,0.155176,-0.826377,0.541314
-0.489784,-0.217758,0.563147,0.436288,0.624027,-0.648261
-0.343785,0.360148,0.442608,0.485365,-0.534098,-0.692214
-0.640486,-0.212864,0.606628,0.454132,-0.231496,0.860333
0.118595,-0.053055,-0.136071,0.401863,-0.912836,0.072371
-0.197838,-0.409468,0.102820,0.242099,-0.306694,0.920504
0.127892,-0.057641,0.570813,-0.217416,0.969476,0.113340
-0.466054,0.823492,0.390281,0.700902,-0.285935,-0.653436
-0.620757,0.193897,0.621117,0.468854,-0.881980,-0.047820
-0.226379,-0.664922,0.523223,0.955854,0.277367,0.097004
0.558323,0.651265,0.712715,0.236495,-0.725628,0.646169
-0.564325,-0.874306,0.448791,-0.652335,-0.720877,0.234085
0.258215,-0.215802,0.864796,-0.662796,-0.747774,-0.039191
0.489784,-0.048108,0.760971,-0.610806,0.659536,-0.438096
0.216810,0.202814,0.648336,0.256482,-0.140257,-0.956318
0.140541,-0.017135,0.804728,0.399316,0.816428,0.417124
-0.363892,-0.601741,0.208782,-0.790269,-0.609188,0.066068
-0.816378,-0.713003,0.572271,-0.564449,-0.185760,-0.804295
-0.266649,0.593547,-0.785526,0.830294,0.532981,0.162920
0.239243,-0.536086,0.671120,-0.553514,0.665626,-0.500564
-0.034919,0.359170,0.581834,-0.602150,0.506937,0.616790
0.265892,-0.454353,0.648462,0.944213,0.306667,-0.120076
-0.181136,-0.047903,0.862773,0.863421,0.287319,0.414672
-0.476163,0.120823,0.581909,-0.475024,0.571282,0.669320
0.106810,0.073463,0.889577,-0.297197,0.614055,0.731170
0.031567,0.078511,0.728335,-0.131669,-0.087932,0.987386
0.412702,0.116080,0.640734,0.447996,0.490214,-0.747656
-0.334379,-0.081194,0.684314,0.852083,0.060313,0.519921
0.479027,0.477182,0.547087,0.055826,-0.553894,0.830714
-0.309569,0.409157,0.643925,-0.728186,0.499258,-0.469561
-0.250163,-0.094798,0.588079,0.044842,-0.899393,0.434834
0.135891,-0.158030,0.363954,0.888206,-0.433802,0.151346
-0.183298,0.568088,0.531052,0.893585,0.058862,-0.445018
-0.085838,-0.495633,0.614896,0.742801,0.484041,0.462549
-0.328163,0.325775,0.740588,0.441141,-0.527916,0.725741
-0.370271,0.238990,0.048658,-0.507600,0.116241,0.853715
-0.478272,-0.866937,0.458204,-0.172085,0.137082,0.975497
0.310379,-0.115979,0.283050,-0.563292,0.488133,-0.666654
-0.246163,0.184313,0.055268,0.162885,0.522668,-0.836831
-0.222541,0.157822,0.633219,0.630823,0.530861,0.565905
-0.516920,-0.926822,0.448653,0.635683,0.712546,-0.296960
-0.388217,0.228582,0.640884,0.597390,0.795926,0.098116
0.275892,0.285476,0.560521,0.106676,0.005767,0.994277
-0.311784,0.317889,0.063248,0.333098,0.122442,-0.934909
-0.286433,0.095622,-0.979240,0.288559,-0.127485,-0.948937
-0.329136,-0.195857,0.696743,0.780009,0.477164,-0.404846
0.371189,-0.184571,0.794423,0.734988,0.146689,-0.662023
0.375568,-0.278157,0.689693,0.357282,0.404786,0.841723
0.225134,-0.119946,0.887705,-0.717632,0.681105,0.145258
0.205350,-0.449355,0.623806,-0.245638,-0.035551,0.968709
0.191027,-0.088048,-0.104077,-0.059640,0.975728,0.210708
-0.423893,0.442139,0.532183,0.191290,-0.124422,0.973616
0.006000,-0.263933,0.913667,0.882489,-0.455384,-0.117634
-0.757514,-0.145455,0.350018,-0.399507,0.213405,-0.891545
-0.004432,0.495218,0.632000,-0.564574,0.520123,-0.640881
-0.097028,0.315621,-0.325525,0.048294,0.951347,-0.304315
-0.679569,0.089385,0.326455,0.194539,0.128883,0.972391
-0.440108,0.037492,0.692860,-0.748800,-0.261603,-0.608985
0.195027,0.710015,0.639288,0.648507,0.437232,-0.623111
-0.228920,-0.293824,0.693589,0.757930,0.649233,-0.063548
-0.265785,0.503774,-0.991492,0.288071,-0.065271,-0.955382
-0.114433,0.348708,0.576669,-0.380181,0.563512,0.733428
0.150594,-0.115617,0.911707,-0.237003,-0.496734,0.834916
-0.185136,0.561030,0.220795,0.048369,0.762355,0.645349
-0.010757,-0.318097,0.079019,-0.394944,0.143633,-0.907408
0.370107,0.214924,0.669586,-0.346845,0.124326,0.929646
-0.619190,-0.172770,0.590932,0.851555,0.066522,0.520027
0.425730,-0.078307,0.593898,-0.187055,-0.868826,-0.458423
0.150810,-0.138963,0.389816,-0.510838,0.161887,0.844297
0.592864,-0.104486,0.508709,-0.692069,0.519780,-0.500868
0.410216,-0.294701,0.635619,-0.232142,-0.548950,0.802972
-0.854865,-0.839213,0.593961,0.881769,0.074893,0.465697
0.653459,-0.210543,0.650636,0.731984,-0.102253,-0.673605
0.005459,-0.038162,0.918392,0.378019,-0.898756,-0.222123
0.320054,0.115926,0.721009,0.567627,-0.133572,-0.812378
0.556540,0.640649,0.711031,0.265775,-0.701112,0.661669
-0.012920,-0.638485,0.700852,0.655921,0.588137,-0.473142
-0.008919,-0.648381,0.319003,-0.247317,-0.090036,0.964742
-0.608756,0.542940,0.564140,0.435939,-0.714612,0.547071
0.453458,-0.649255,-0.491869,-0.493408,0.580895,0.647386
-0.367839,-0.092168,0.574206,-0.038725,-0.296019,0.954397
-0.081784,0.377463,-0.972002,0.274147,-0.217145,-0.936852
-0.572325,0.329433,0.416256,0.355017,0.899708,-0.253946
-0.253243,-0.426884,0.606653,-0.646735,0.523606,0.554590
0.233459,-0.150557,0.709573,0.941366,-0.022598,0.336628
-0.369190,-0.206473,0.744194,0.345657,0.755087,0.557104
0.052540,-0.524697,0.313197,0.497019,-0.271538,0.824160
-0.484325,-0.604524,0.489658,0.017347,0.958035,0.286126
-0.426542,0.306346,0.672552,0.473572,-0.647272,0.597301
-0.342595,0.007189,0.141085,-0.404159,-0.097319,-0.909497
-0.048595,0.891880,0.424148,0.118177,0.263841,0.957299
-0.133352,-0.397924,0.727028,0.625610,-0.772242,-0.110700
0.164594,0.024401,0.910727,0.608289,-0.783709,-0.125640
0.190865,-0.008529,-0.172125,-0.005143,0.965044,0.262037
0.542702,0.732225,0.405286,0.064527,0.881231,0.468260
-0.209243,0.174726,0.702058,-0.376853,-0.342288,0.860709
0.580378,0.551496,0.686287,-0.057080,-0.781786,0.620929
0.157350,-0.095160,0.907824,0.205693,0.898815,-0.387069
-0.411568,-0.925532,0.460315,-0.341342,-0.645913,0.682848
-0.711081,0.123449,0.651164,0.816091,0.018171,0.577638
0.057946,0.500320,-0.968508,0.347026,-0.169494,-0.922412
0.112973,-0.464249,0.615651,0.401596,0.058033,-0.913976
-0.437244,-0.601640,0.135016,0.501605,0.143551,-0.853103
0.232054,0.268931,0.103423,0.886475,0.451685,0.100708
-0.103892,0.422764,0.638006,0.360998,-0.629611,0.687946
-0.056811,0.040530,-0.557907,0.851417,0.523633,-0.029956
0.074215,0.685434,0.575236,0.236982,0.665235,-0.708027
-0.600271,0.597104,0.206846,-0.235862,0.577852,0.781317
-0.795243,-0.849571,0.579421,0.459620,0.321027,0.828065
0.775026,-0.129479,0.671936,-0.511373,0.604005,0.611290
-0.076919,0.552682,0.556550,0.457064,0.313290,-0.832431
0.126541,-0.357160,0.846210,-0.562774,-0.769620,0.301615
0.096432,-0.095984,0.846976,-0.354527,0.095058,0.930201
0.412433,0.107216,0.862044,-0.679441,-0.415511,0.604740
-0.585946,-0.046767,0.551309,0.994842,-0.100778,-0.011581
0.045837,0.221882,-0.128116,0.472331,0.881194,-0.020028
0.081621,-0.040842,0.979579,0.313190,0.936105,0.160061
0.035026,-0.118763,-0.873329,0.834498,-0.540972,-0.104700
-0.171839,-0.414982,0.624045,0.994526,0.088565,0.055439
0.033729,0.276250,0.217691,0.907578,0.413566,0.072560
-0.124000,-0.169266,0.267895,-0.048691,-0.825746,0.561937
0.364053,0.378030,0.677315,0.882144,-0.420628,-0.211882
0.091513,0.659305,0.609041,-0.197053,-0.750404,0.630923
-0.073838,0.256151,0.464298,-0.579064,-0.098763,-0.809278
-0.153352,0.281352,-0.976701,0.315811,-0.089146,-0.944625
-0.062812,-0.357676,0.774744,-0.173791,-0.857565,-0.484127
-0.613352,-0.212710,0.512981,0.098329,-0.045393,-0.994118
-0.049189,0.324023,0.586961,0.675567,-0.430052,-0.598886
0.394271,-0.433276,0.693815,-0.705110,0.595324,0.385240
0.526540,-0.262492,0.640784,-0.276206,0.570106,0.773750
-0.484000,-0.797932,0.311225,-0.687976,0.599293,0.409312
-0.216271,-0.368342,0.664283,-0.552978,-0.775363,0.305003
0.232757,-0.116957,0.896828,-0.277966,0.920901,-0.273271
0.185134,-0.606843,0.582638,-0.328193,-0.716881,0.615119
0.017134,0.077379,0.891839,0.600784,0.035542,-0.798621
0.334864,-0.156228,-0.363388,0.859642,0.503464,0.086835
-0.065136,-0.455746,0.254260,-0.220399,-0.082031,0.971954
-0.077299,-0.599165,0.481540,0.859005,0.282169,0.427190
0.227405,-0.040687,0.034910,-0.658031,0.729322,-0.187306
0.152270,0.283208,0.733500,-0.500283,-0.858401,-0.113425
-0.436271,-0.564225,0.311388,-0.011242,-0.284387,0.958644
0.047459,0.366382,0.451016,-0.179402,0.093005,0.979370
0.067027,-0.830553,0.333467,0.983283,0.107530,0.146939
-0.123027,-0.271199,0.756987,-0.666821,-0.548827,-0.504122
-0.632974,-0.676878,0.457977,0.178033,0.334711,0.925350
-0.513568,-0.445955,0.124321,0.177641,-0.460379,0.869767
-0.679569,-0.401840,0.385946,-0.050243,0.632144,0.773221
-0.604703,-0.881625,0.540779,0.610019,-0.123601,0.782687
0.227189,-0.050683,-0.226312,-0.086686,-0.926696,0.365677
-0.001298,-0.077894,0.929087,0.170515,0.688998,0.704419
-0.383190,-0.597208,0.516500,0.127179,0.535581,0.834853
0.060486,-0.712437,0.331758,0.303499,0.570112,0.763453
0.219621,-0.433688,-0.392518,-0.492040,0.868848,0.054766
0.171027,-0.296195,0.756874,0.213962,-0.066017,0.974609
-0.414650,0.115463,0.705137,-0.737877,0.540699,-0.403959
-0.385783,0.488726,0.422640,-0.571372,-0.463014,0.677608
0.378702,-0.089800,0.749761,-0.467382,-0.307001,0.829038
0.596323,-0.210235,0.636587,-0.520534,0.785323,0.335130
-0.251730,0.431111,0.327687,0.216200,-0.029578,-0.975901
0.375404,0.171068,0.733161,-0.041961,0.631105,0.774561
0.288919,-0.225078,0.700915,0.644361,0.144445,0.750956
-0.192054,0.613646,0.099151,0.813196,0.334266,-0.476423
-0.496595,0.327631,-0.998040,-0.109797,0.069770,0.991502
0.512648,0.416476,0.662976,-0.037653,-0.479794,0.876573
0.268649,0.264345,0.649379,-0.414481,0.261791,0.871591
0.229405,-0.595557,0.448578,-0.527360,-0.438043,-0.728017
-0.568379,-0.272281,0.595494,0.446024,-0.007645,0.894988
-0.107569,-0.336856,0.861127,0.712804,0.631515,0.305122
-0.163513,0.222240,-0.975068,0.283551,-0.123986,-0.950908
0.770000,0.374991,0.570486,0.869593,0.244843,0.428789
-0.051839,-0.799015,0.341359,-0.410560,0.049046,0.910513
-0.665244,-0.627973,0.453956,-0.547628,-0.730378,0.408230
0.444811,0.548196,0.680457,-0.319352,-0.513975,0.796143
0.199837,-0.001571,0.871469,0.219650,0.586903,0.779294
-0.150486,0.414000,0.541734,0.646258,0.338805,-0.683785
0.190540,-0.004251,0.146238,0.997991,-0.003472,-0.063263
-0.213730,-0.363652,0.700249,0.875248,0.483280,-0.019527
0.113514,-0.038369,-0.011700,-0.474628,-0.877088,-0.073789
0.014432,-0.021824,0.952385,0.282479,-0.421221,0.861846
0.045567,-0.190239,0.756698,-0.569067,-0.468208,0.675976
-0.666487,-0.014662,0.624359,-0.264946,0.649837,-0.712401
-0.018812,0.507020,0.316804,0.925051,0.340727,0.167886
-0.585730,-0.188641,0.601124,-0.463399,0.463338,-0.755367
-0.439135,0.148135,0.571165,0.442991,0.801788,0.401118
0.172540,-0.126337,0.519717,0.973371,-0.196921,-0.117353
0.222864,-0.352678,-0.377212,-0.676093,-0.119887,-0.726997
0.286973,-0.428639,-0.367862,0.116915,0.849281,0.514832
-0.668271,-0.406014,0.415741,0.073799,-0.529610,0.845025
0.790377,-0.231570,0.691477,-0.723276,0.310624,0.616753
-0.474324,0.562008,0.543832,-0.435947,-0.480186,-0.761165
0.212486,0.221313,0.563160,-0.199631,0.006997,0.979846
0.066540,-0.042078,0.952825,0.974816,0.176411,-0.136430
-0.609352,-0.179623,0.566892,0.796642,0.317258,0.514498
0.121513,-0.016981,0.227883,0.591334,0.802896,-0.075377
-0.510702,-0.749852,0.297602,0.427453,-0.326775,-0.842913
-0.437297,0.512175,0.536833,-0.093437,-0.046376,-0.994545
-0.380811,-0.241053,0.583417,-0.661165,-0.023398,-0.749875
0.158269,0.095518,0.390872,0.613444,0.025019,-0.789342
-0.203569,0.206885,0.804200,-0.416090,-0.847750,-0.328921
-0.097082,-0.533460,0.352858,0.516953,0.333435,0.788404
-0.421514,-0.045273,0.583643,-0.657444,0.489301,-0.573021
-0.052865,0.553248,0.574130,0.937082,-0.223779,-0.267957
-0.651892,-0.458011,0.392958,0.799141,0.038399,0.599916
-0.103352,-0.065785,0.884362,-0.586846,0.584119,0.560729
0.119189,-0.037542,0.599616,-0.070677,0.990100,-0.121275
-0.133298,-0.263729,0.602531,-0.628015,0.706803,0.325617
-0.327838,-0.011312,0.711295,0.325469,-0.874970,-0.358465
0.122757,-0.104640,-0.351701,-0.692788,0.325916,-0.643290
0.034432,-0.107320,0.775648,0.982500,-0.161726,0.092407
-0.283136,0.298514,-0.988275,-0.305694,0.159135,0.938737
-0.689892,-0.651680,0.391387,0.657846,0.253166,0.709327
0.145242,-0.418178,0.714525,0.649245,0.433859,0.624698
-0.725893,-0.268727,0.394466,-0.275953,0.912461,-0.302100
0.433188,-0.718932,-0.345305,-0.125564,0.340190,0.931936
-0.027730,0.060167,0.872638,0.944198,0.247459,0.217379
0.088054,-0.059959,-0.662386,0.923533,0.352323,-0.151508
0.465134,0.479655,0.753657,0.176739,0.978625,-0.105148
-0.107569,-0.819938,0.337853,-0.457191,-0.292498,0.839893
0.234702,0.159370,0.533478,0.420412,-0.520819,0.742968
0.230269,-0.204463,0.865035,0.060640,0.949777,0.306996
-0.101838,0.112318,0.700513,0.359763,0.912875,-0.192948
-0.516649,-0.341288,0.429476,-0.173170,0.192259,-0.965944
-0.456162,-0.563813,0.513673,-0.559507,0.828752,-0.011022
-0.819352,-0.804170,0.577109,0.791327,0.097832,0.603515
-0.444433,0.360044,0.688034,0.715963,-0.362172,0.596848
-0.070108,0.645132,0.128657,-0.641399,0.040580,0.766133
-0.482217,0.371742,0.693777,0.715963,-0.362172,0.596848
-0.022217,0.524077,0.549211,0.245461,-0.663663,0.706612
0.245243,-0.285218,0.766286,0.891918,0.211451,0.399714
-0.630054,-0.656162,0.501885,-0.296716,0.627838,0.719569
-0.109352,-0.141693,0.562569,-0.124458,-0.761035,0.636661
0.317729,-0.082635,0.279205,0.955160,0.291240,-0.053372
-0.426703,0.262801,0.657837,0.144870,-0.617249,0.773315
-0.435839,-0.562885,0.294486,-0.231638,-0.698451,0.677134
-0.698000,-0.111547,0.633118,0.677080,0.337576,0.653915
0.340756,-0.012961,0.741367,0.563406,0.498345,0.658959
-0.044973,0.141331,0.222278,0.779462,0.620035,0.089414
-0.090217,0.499754,0.538705,-0.231537,0.459698,-0.857361
0.382702,-0.379473,-0.728071,0.962790,-0.092652,-0.253873
-0.081297,-0.516607,0.733601,-0.634340,-0.687203,-0.354068
0.265945,-0.342782,0.863288,0.943887,0.159596,-0.289147
0.551675,-0.262697,0.640696,-0.463754,0.743484,0.481834
0.482216,0.499549,0.533540,-0.144462,0.792893,0.591989
-0.840758,0.002449,0.332261,0.213459,0.836203,0.505173
0.088757,-0.286712,0.332274,0.014912,-0.999849,-0.008972
0.194161,0.230126,0.796031,-0.621220,0.366736,-0.692525
-0.235406,0.185858,0.701103,0.908697,0.308675,0.281052
-0.534486,0.280116,0.404833,-0.571612,-0.238927,0.784967
0.425946,0.474811,0.669825,0.188515,-0.482597,0.855314
0.068918,0.672704,0.563838,0.187236,0.492766,-0.849779
-0.074433,0.748512,0.580288,-0.574406,0.478801,-0.663933
-0.915569,-0.350510,0.347165,-0.574443,0.744297,-0.340642
-0.173244,-0.466463,0.742360,0.945464,0.325707,-0.003621
0.216594,0.077687,0.856439,0.172977,-0.176767,0.968934
0.114269,0.463836,0.760757,0.863868,-0.181817,0.469760
-0.069946,0.577521,-0.548017,0.079247,-0.452273,0.888352
0.063729,0.522325,0.612270,0.514907,-0.808568,-0.284761
-0.284379,-0.653483,0.242070,-0.585616,0.539288,0.605163
-0.644919,0.317219,0.435596,-0.488284,-0.845532,0.215994
-0.078109,-0.754903,0.327649,0.008582,0.549159,0.835674
-0.242649,-0.353502,0.239959,-0.194047,-0.145621,0.970124
-0.198811,0.312426,0.716409,0.830891,-0.441188,0.339076
0.015406,0.471873,0.622638,0.627696,-0.493741,0.601845
-0.594595,0.047437,0.590618,0.942772,0.060451,0.327914
-0.431784,-0.463371,0.522256,0.890735,-0.329927,0.312633
0.521728,0.632456,0.724452,0.045558,-0.765762,0.641509
-0.256379,-0.484140,0.550191,-0.400260,0.908444,-0.120508
0.016000,-0.190393,0.808573,0.946442,-0.168139,0.275638
0.216000,-0.336699,-0.179325,0.353883,-0.928643,0.111301
-0.373514,0.179674,0.052516,-0.360661,-0.412542,0.836500
-0.358865,0.848077,0.392732,-0.452816,0.260578,0.852676
0.168162,-0.209977,-0.920981,0.286434,0.170408,-0.942824
0.126864,0.105826,0.428370,-0.700870,-0.137926,-0.699827
-0.475406,0.513257,0.551837,-0.655094,0.027013,-0.755065
