-0.091673,0.681190,0.693450,0.545517,0.806517,0.227908
-0.071044,-0.648895,0.430532,0.145050,0.513483,0.845751
0.082142,0.653801,0.889234,0.721621,-0.421516,0.549169
0.932528,0.221612,0.465760,0.777582,-0.239451,0.581403
-0.186326,-0.360679,0.663907,-0.160292,0.524172,0.836391
0.215371,-0.185229,0.636439,0.772276,0.197535,0.603796
0.130102,0.178482,0.870799,-0.705670,0.682799,0.189251
-0.141197,0.203964,-0.670997,0.820466,0.539035,-0.190465
0.044386,-0.175348,0.146959,0.990725,-0.135660,-0.007816
-0.682006,-0.094607,0.739366,-0.623509,0.679817,0.386117
-0.600983,0.219364,0.774555,0.204058,0.364947,0.908391
0.208073,0.403127,0.802155,-0.390644,-0.881080,0.266635
-0.108132,0.135556,0.905476,-0.259533,0.937971,-0.229898
0.304141,-0.210643,0.749792,-0.660463,0.162090,0.733154
0.036790,0.582053,0.879045,-0.068415,-0.830449,0.552877
-0.357686,0.036282,0.656436,-0.528163,0.824031,-0.204980
-0.092641,0.334650,0.879491,0.798686,0.594096,0.095655
-0.022638,0.564815,0.875185,0.390450,0.736832,-0.551931
-0.265265,0.627840,0.212873,-0.060460,-0.471798,0.879632
-0.212541,0.296290,0.765745,0.864173,0.260597,0.430459
0.142390,-0.157360,0.771929,0.905955,-0.352820,-0.234018
-0.818588,-0.266243,0.720485,0.908785,0.415331,-0.040117
-0.264074,0.395154,0.183186,-0.112114,-0.626136,0.771612
-0.184317,0.713486,-0.977022,-0.221867,-0.152958,0.963005
-0.872430,-0.305353,0.744290,-0.741544,0.158833,-0.651832
0.159072,0.797022,0.764222,0.532096,0.206112,-0.821214
-0.285894,-0.770791,0.617663,0.836844,0.091557,-0.539731
-0.681411,0.093653,0.798058,0.953746,-0.166146,0.250527
-0.852098,-0.601609,0.574806,-0.770544,-0.634982,-0.055316
-0.687368,0.560521,0.675921,0.909024,0.406349,-0.092504
0.394624,0.605901,0.782551,-0.521220,-0.761316,0.385652
-0.246052,0.089700,0.897230,0.540863,0.514681,0.665260
-0.137249,0.928934,-0.972834,0.283899,-0.272700,-0.919258
-0.081471,0.534084,0.458591,-0.302640,0.155171,0.940389
-0.575141,0.767042,0.069951,-0.168932,-0.914711,0.367106
-0.073280,0.722822,-0.082123,0.998500,0.028600,-0.046699
0.082514,0.206622,-0.173876,-0.152307,0.950885,0.269482
0.029938,0.180663,0.841742,-0.386522,-0.902989,-0.187646
-0.586608,-0.029401,0.759915,0.408198,-0.454407,0.791763
-0.131590,0.017272,0.671641,-0.217486,-0.538054,0.814369
-0.140899,-0.037373,0.670682,-0.471027,-0.880799,0.048234
0.306896,0.466561,0.749529,0.495215,0.737959,0.458452
-0.248138,-0.309508,0.373389,-0.489599,0.436845,0.754625
-0.392760,-0.610534,0.614328,-0.152491,-0.391949,0.907261
-0.077376,0.014546,0.874489,0.066254,0.788123,0.611941
0.150283,-0.221545,0.784797,0.175040,0.881295,0.438953
-0.088396,-0.589276,0.530754,-0.072451,-0.878255,0.472673
-0.078419,0.166149,0.858063,0.377104,0.422681,-0.824095
-0.100089,0.899975,0.783352,0.965696,-0.247423,0.078820
-0.042597,-0.608082,0.661439,0.871327,-0.203547,-0.446496
0.030756,0.177733,0.900985,0.946450,0.315991,0.066197
-0.329609,0.654618,-0.990691,-0.096144,-0.285044,0.953680
-0.394622,-0.152455,0.810807,0.481307,0.599632,0.639363
-0.020182,0.473579,-0.969315,-0.279844,0.169616,0.944943
0.173444,-0.377509,0.799214,-0.478249,-0.371969,0.795561
-0.002382,0.114910,-0.168965,-0.592447,0.779052,0.205147
-0.357759,0.091199,0.723334,0.323001,-0.043802,0.945385
-0.512958,0.816986,0.462779,-0.623909,0.774964,0.100834
-0.966562,-0.135693,0.611190,0.806181,0.250010,0.536252
-0.364686,0.437060,0.199756,0.301068,-0.352859,0.885917
0.005959,-0.451029,0.527117,0.316823,-0.067130,0.946106
-0.141197,0.395633,0.428011,-0.624333,0.584077,-0.518712
0.116770,-0.252956,0.885571,0.297867,0.934107,0.196772
-0.595695,0.654686,0.327368,0.440408,0.415493,0.795868
-0.111036,0.300787,0.901642,0.828548,0.554430,-0.078201
-0.353513,0.643784,-0.747901,0.950108,0.308074,0.048844
-0.056076,-0.214049,0.743148,0.690917,0.486940,0.534343
-0.281576,-0.846490,0.687095,-0.382147,0.739976,0.553534
-0.056151,0.808197,-0.080337,0.934512,-0.113969,0.337192
-0.461945,0.768949,0.468018,0.697410,-0.534740,-0.477150
-0.178358,0.030081,0.885518,0.256331,0.965865,0.037404
-0.051013,0.144959,0.632697,0.294966,0.813788,-0.500743
-0.546543,-0.835112,0.384222,-0.194523,0.875270,0.442790
0.399092,0.199808,0.749634,-0.536521,0.490506,0.686694
-0.853737,-0.536947,0.477748,0.380016,0.510324,0.771464
0.705095,0.587436,0.462280,-0.426942,-0.047697,0.903020
-0.315832,-0.701973,0.663448,-0.732784,0.549234,-0.401709
-0.661305,-0.256840,0.733668,0.013909,0.366669,0.930247
-0.175008,0.385003,0.896442,-0.749106,-0.630325,-0.203791
-0.609472,-0.335265,0.788316,0.599130,0.749039,0.282815
-0.735403,-0.209075,0.679191,0.310384,-0.547678,-0.776988
-0.635760,0.100671,0.770038,0.898495,-0.014516,0.438743
-0.050192,0.872586,-0.084040,0.918252,-0.002135,0.395991
0.425007,0.073076,0.871902,0.008969,0.857245,0.514831
0.086014,-0.177392,0.522010,0.974120,-0.135079,-0.181229
-0.617367,-0.633361,0.435377,0.993688,0.027390,-0.108786
0.108952,0.482506,0.815521,0.133430,0.573989,0.807919
-0.711199,0.007938,0.306714,-0.313722,0.255442,-0.914510
0.134645,0.342487,-0.420395,-0.805370,0.592166,0.026798
-0.491956,-0.234899,0.719645,0.565255,0.224083,0.793898
-0.041629,0.174804,0.954819,0.922315,-0.333971,-0.194416
-0.121461,-0.397949,0.629716,-0.441149,0.854290,0.274912
0.195785,0.645284,0.733471,0.434950,0.632316,-0.641089
-0.502903,0.594317,0.574491,-0.285713,-0.509235,0.811817
-0.245011,-0.677104,0.626526,0.979342,-0.010134,-0.201957
-0.774873,-0.124860,0.624096,-0.447535,-0.854244,0.264538
-0.635314,0.645828,0.339592,0.745064,-0.382828,0.546189
0.020034,0.004598,-0.887461,0.168279,0.983897,0.060233
-0.064044,0.162947,0.970273,0.620375,0.681892,0.387502
-0.551459,0.375328,0.776564,0.469718,-0.877902,-0.093023
-0.200923,0.404422,0.863775,0.634788,0.746232,-0.200454
-0.387399,0.390453,0.409156,0.745831,0.656670,0.111896
0.329907,-0.314756,0.773557,0.764469,-0.397385,0.507615
-0.032692,0.890709,0.776341,0.955697,-0.284764,0.074520
0.242852,-0.234695,0.830805,-0.672952,0.384996,0.631596
0.365133,0.739582,0.142587,-0.363519,0.485639,0.794989
0.005511,0.334514,0.422233,0.515634,0.620591,-0.590753
-0.147752,-0.648486,0.522824,-0.004257,-0.674913,0.737885
0.414210,-0.223386,0.471944,0.957909,-0.201200,0.204766
-0.419123,0.656934,-0.988564,0.932886,0.118097,-0.340260
-0.018245,0.114910,-0.244740,0.236586,-0.894359,0.379669
0.726094,0.112800,0.481555,-0.449902,0.885356,0.117189
0.246500,-0.294928,-0.958587,0.408500,-0.145873,-0.901027
0.721701,0.488025,0.400752,0.679144,0.710821,-0.183023
0.311216,0.072938,0.833102,-0.709615,0.415871,0.568769
0.138665,0.796477,0.788841,-0.072623,0.979624,0.187251
-0.278819,0.164854,0.767465,-0.529981,-0.847816,0.018111
0.025172,0.111641,-0.464696,0.998122,0.061019,-0.005441
-0.586758,0.282730,0.774332,-0.532893,0.622586,-0.573072
-0.067992,0.109256,0.890993,-0.689880,0.145304,0.709191
-0.773011,-0.297857,0.643109,0.786696,-0.614419,0.059990
-0.531948,-0.058768,0.722560,0.584829,-0.662357,-0.468249
-0.289021,0.914012,0.717780,0.041998,-0.975501,0.215951
-0.210082,-0.177665,0.775395,-0.370053,-0.342909,0.863408
0.040065,0.171464,0.303038,0.314727,-0.943529,0.103438
-0.541480,0.508806,0.569725,0.124483,-0.772415,0.622800
0.366697,0.222429,-0.950486,0.163154,-0.034106,-0.986011
-0.220136,0.942629,0.683445,-0.858288,0.486877,0.162150
0.175231,-0.271897,0.812738,0.900078,-0.034487,0.434362
-0.551459,0.805674,0.594291,-0.722180,0.080933,0.686954
0.354334,0.522230,0.577419,0.610367,-0.658294,0.440570
-0.315087,-0.793207,0.411270,0.825699,-0.515183,-0.229800
0.145665,0.235716,0.768134,0.884076,-0.466656,-0.025320
-0.309205,-0.696862,0.671772,0.315070,-0.739700,-0.594622
-0.114686,0.243892,0.592505,-0.268849,-0.875707,0.401070
-0.020256,0.081252,0.819290,0.985618,0.167488,0.022482
-0.212839,0.530541,0.634890,-0.434983,0.122445,0.892075
-0.013479,-0.016592,0.890928,0.948339,0.278473,-0.152003
-0.407358,-0.306443,0.473625,-0.515514,0.834140,-0.196100
-0.619376,-0.629886,0.453995,0.251505,0.947171,-0.199030
-0.430666,0.013388,0.838013,0.616735,0.441161,0.651932
-0.126229,0.683985,-0.646024,0.988684,-0.150014,-0.000360
-0.503797,-0.540081,0.395999,0.167986,0.776603,0.607181
0.304812,0.249820,0.150793,-0.225042,0.974198,-0.017187
-0.095769,0.130241,0.556844,-0.260243,0.894207,0.364234
-0.376004,-0.062242,0.880831,0.893585,-0.059513,0.444931
0.244788,-0.257044,0.796285,0.490287,-0.444914,-0.749446
0.120122,-0.315164,-0.956933,-0.034804,0.491593,0.870129
-0.593833,0.370217,0.825014,-0.216111,-0.954747,0.204338
0.296619,0.699723,0.623558,-0.472050,0.881359,-0.019369
-0.131963,0.398018,0.933259,0.621086,0.747883,-0.234357
0.134943,0.599222,0.694881,-0.251417,0.885891,0.389856
-0.641271,-0.372126,0.518727,-0.537462,-0.608394,-0.583945
-0.280160,0.093788,0.773886,0.187516,0.306724,0.933144
0.177690,0.217048,-0.961371,-0.288149,-0.083955,0.953898
0.822088,0.447960,0.233527,0.546570,0.827124,0.130867
-0.600163,-0.384323,0.761845,0.485072,0.799495,0.354278
0.220361,0.149184,0.720498,0.681117,-0.732122,-0.008770
0.174189,-0.092495,0.722205,-0.204753,0.231584,0.951023
0.374145,-0.288727,0.763014,0.778167,-0.543449,-0.314831
0.349941,0.679352,0.631869,-0.318293,0.145447,0.936768
-0.200400,-0.745581,0.682263,-0.472634,-0.850755,-0.229857
-0.438784,-0.114503,0.698531,0.813459,0.578981,0.055366
-0.037831,0.497223,-0.085024,0.998938,0.045569,0.006796
-0.991434,-0.310190,0.407869,0.971813,-0.225937,-0.067314
-0.523978,0.267468,0.791283,0.483879,0.829281,-0.279560
-0.143654,0.815352,-0.974304,-0.331518,-0.220685,0.917275
-0.005659,0.135487,0.627720,-0.687555,-0.706040,0.169635
0.044460,0.186386,0.582947,0.847323,-0.470953,0.245455
-0.311959,0.534835,0.065999,0.562840,0.775772,0.285288
0.254840,-0.280279,0.800251,-0.731835,0.456661,-0.505845
0.073130,0.702245,0.383460,0.622052,0.187807,-0.760118
-0.065683,0.035464,0.842267,0.705383,-0.121317,0.698367
-0.551832,0.340646,0.790049,0.375795,-0.923247,-0.079960
-0.181783,0.834906,0.662121,-0.398560,-0.454248,-0.796749
-0.159069,0.966680,0.724700,-0.278458,0.905843,-0.319233
0.715669,0.531358,0.677930,0.111394,0.888700,0.444751
0.002980,-0.192247,0.849056,-0.611132,-0.626299,-0.484011
0.259979,-0.180663,0.770563,-0.689831,-0.709257,-0.145217
0.032247,0.799815,0.676040,-0.313965,0.729800,-0.607303
-0.042747,0.198377,0.869132,-0.472264,-0.785316,0.400307
-0.732499,-0.307670,0.652760,0.467068,-0.731928,-0.496114
-0.815906,-0.136851,0.700160,0.779213,0.191054,-0.596931
0.082366,0.416345,0.087506,0.984482,-0.175478,-0.001472
0.132411,-0.342418,0.601250,0.209743,0.933666,-0.290303
0.179551,-0.282799,0.815153,0.894854,0.080488,0.439041
0.313673,-0.351072,0.845261,0.859915,0.007028,-0.510389
-0.147452,-0.618030,0.597652,0.738480,-0.637659,0.219177
-0.292298,0.931932,0.442598,-0.230938,0.630423,-0.741104
-0.539023,-0.092291,0.771732,0.627901,0.542051,0.558499
0.106718,-0.176644,0.836792,0.843999,0.515094,0.149481
0.006777,0.019385,0.939076,-0.008710,0.923081,0.384507
0.422625,0.026606,0.879833,-0.164502,0.748567,0.642328
-0.334002,0.162062,0.805240,0.644560,-0.086319,0.759665
0.040140,0.737675,0.734403,0.477084,0.839208,-0.260999
0.168976,0.558070,0.747927,0.792340,0.429423,-0.433351
-0.936847,-0.434743,0.465825,-0.729197,0.683136,-0.039971
-0.270553,-0.065172,0.896639,-0.194511,-0.492889,0.848072
0.179774,-0.064764,0.706580,0.533681,0.768422,0.353147
0.296246,0.399311,0.200846,-0.170527,-0.747439,0.642072
0.046470,0.048342,0.816020,0.891378,-0.061992,-0.449001
-0.280978,0.638946,0.506673,0.520002,-0.536157,-0.664932
0.092346,-0.187068,0.869710,0.915443,0.009425,-0.402337
0.682306,0.567676,0.627628,-0.278582,-0.676147,0.682068
-0.430889,-0.895685,0.379849,0.141814,0.963677,0.226308
-0.211721,0.114024,0.848110,0.399560,-0.896312,-0.192292
-0.063449,0.912990,0.778967,0.965696,-0.247423,0.078820
-0.231829,0.048342,0.902706,0.505661,0.280762,0.815769
0.062110,0.208531,0.856330,-0.601414,0.796107,0.067185
-0.175826,0.827819,0.704020,-0.204803,-0.655017,0.727330
0.179103,0.357339,-0.377512,0.877244,-0.456748,-0.147729
0.509756,0.337035,0.546904,0.227053,0.873067,-0.431510
0.296099,-0.240147,0.775697,0.629141,0.745816,0.218952
0.323800,0.341805,0.822165,0.965655,0.023960,-0.258721
-0.485254,0.596633,0.314303,0.737019,-0.518162,0.433949
-0.093164,0.755799,-0.955883,-0.358015,-0.479924,0.800936
0.282172,0.415118,0.805568,0.514621,0.856647,0.036350
0.082589,0.638877,0.875802,0.792889,-0.243355,0.558664
0.228925,0.764726,0.636163,-0.298427,-0.822804,0.483669
-0.365281,-0.093722,0.798714,0.797166,0.403453,0.449167
-0.365281,0.686164,0.597573,0.806823,0.586920,-0.067536
0.648048,0.549074,0.465733,0.801372,0.055325,-0.595602
-0.498063,-0.011209,0.844894,0.739529,-0.210381,0.639404
-0.147154,-0.691277,0.430952,-0.026947,0.357228,0.933628
-0.214402,0.883964,0.434865,0.106539,-0.408785,0.906391
-0.142388,0.415255,0.913906,0.538900,0.802463,0.256204
0.270779,-0.023745,-0.958128,-0.230633,-0.057084,0.971365
-0.043490,0.200080,0.923228,0.903265,0.128357,-0.409436
-0.142313,-0.420843,-0.938236,-0.500441,-0.214288,-0.838832
0.331620,0.222090,0.808877,-0.736852,0.597248,0.316772
0.077823,-0.265152,0.793686,-0.093623,0.377549,0.921245
0.440498,0.008483,0.884231,0.226807,0.819127,0.526868
-0.161751,-0.300174,0.493701,0.630609,-0.236264,-0.739264
-0.382931,0.113889,0.864654,0.375809,0.255480,-0.890785
-0.302726,0.376962,-0.008121,0.517056,0.818185,-0.251451
0.277628,0.798725,0.498178,-0.626487,-0.144589,0.765904
-0.710976,0.631315,0.560533,0.921120,-0.317349,-0.225449
-0.040513,0.047525,-0.720498,-0.786131,-0.564768,-0.251068
-0.298853,-0.754506,0.704650,0.826088,0.488483,0.281003
0.387772,0.445371,0.635165,0.554134,-0.079252,-0.828646
0.154676,0.570674,0.446262,-0.038284,0.330483,-0.943035
-0.113866,0.162130,0.804426,-0.447782,0.542805,-0.710531
-0.293862,-0.046845,0.419410,0.771090,-0.629311,0.096889
-0.165326,-0.663954,0.329364,0.014249,0.033475,0.999338
-0.219391,0.911969,0.571786,-0.627368,0.778580,0.014897
0.777479,0.366333,0.273377,0.093929,0.810896,0.577603
0.042076,-0.023814,0.861477,0.058859,-0.936843,-0.344762
0.095473,0.237078,0.366614,0.882091,-0.378690,-0.280195
0.246649,-0.209075,0.779032,0.844759,0.284339,0.453359
-0.670836,0.546348,0.671785,-0.441663,-0.397366,0.804385
-0.705242,-0.300311,0.496248,0.124323,0.432446,0.893048
0.166369,0.841651,0.662016,-0.220981,0.832862,-0.507453
-0.411453,0.048342,0.802982,-0.627455,0.778131,-0.028506
-0.310023,0.459134,0.312649,-0.074381,-0.622327,0.779215
-0.454573,-0.119273,0.903717,-0.607335,-0.438363,-0.662557
-0.169422,-0.210643,0.496156,-0.286212,0.281472,0.915891
0.751712,0.370217,0.572981,-0.251164,0.641059,-0.725231
0.018693,-0.040440,0.414907,0.747044,0.658073,0.094155
0.201519,0.440669,0.809534,0.759459,0.549835,0.347711
0.057417,-0.227133,0.855778,0.576564,0.784374,-0.228761
-0.143879,0.277484,0.842871,-0.010511,0.867624,0.497109
0.471031,0.056790,0.453601,0.504800,-0.779717,0.370429
-0.245159,-0.540832,0.623164,-0.337528,0.378329,-0.861941
0.664059,0.397677,0.700462,-0.421091,0.802834,0.422066
-0.349343,-0.605287,0.529428,0.337119,-0.747071,-0.572919
-0.390303,0.120294,0.810729,-0.681804,-0.090275,-0.725943
0.344207,0.659319,0.413554,0.999110,0.003231,0.042052
-0.371463,0.001941,0.510363,0.760363,-0.605876,0.234014
0.703381,0.329541,0.284104,0.030718,0.833572,0.551556
-0.258415,0.346165,0.181111,-0.206164,-0.673737,0.709630
0.291630,0.108506,0.668306,-0.612616,0.586726,-0.529580
-0.148943,0.256634,0.948412,0.938877,0.203122,-0.277943
-0.549895,0.482506,0.639196,0.805929,-0.022318,0.591591
0.081323,0.724729,0.439184,-0.489631,-0.369001,-0.790000
0.107611,-0.114436,0.456411,0.970287,-0.201541,-0.133882
-0.619899,-0.085205,0.774266,0.171215,0.377368,0.910098
-0.586236,-0.404491,0.639564,-0.017471,0.915206,0.402606
-0.030906,0.150274,-0.931369,-0.716206,-0.588941,-0.374428
-0.830056,-0.097468,0.721273,0.969413,-0.000627,-0.245433
-0.115655,0.000170,0.726656,-0.401234,0.845051,0.353412
-0.221923,0.397539,0.542401,0.594628,0.616401,-0.516204
-0.060544,-0.008007,0.730648,-0.539544,-0.397006,-0.742482
0.230638,-0.059109,-0.958574,-0.265488,-0.050623,0.962784
-0.010575,0.538786,0.691769,0.998983,0.040860,0.019058
0.218200,0.262222,0.651329,-0.509031,0.852891,-0.116033
-0.051608,0.142370,-0.425490,0.931075,-0.356010,0.079726
0.498212,0.244711,0.679703,-0.360939,-0.483944,0.797196
0.209339,0.788301,0.769014,0.687411,0.152856,-0.710001
0.884048,0.345416,0.290301,0.227793,0.695645,0.681314
-0.677241,0.466561,0.682591,0.866868,0.183264,0.463631
0.022268,0.118863,0.000177,0.988009,0.106779,0.111517
-0.067769,-0.157360,-0.062388,0.960865,-0.038902,0.274272
-0.013925,-0.008551,-0.907432,-0.646092,-0.751451,-0.133737
-0.842790,-0.397542,0.536925,-0.749183,-0.539026,-0.384937
0.439455,0.226586,0.259446,0.591518,-0.631477,0.501342
0.060917,-0.408238,0.800277,-0.451917,0.695148,0.559054
-0.221029,0.408373,0.924226,0.586935,0.805595,0.080776
0.028152,0.152114,0.755884,-0.679334,0.494752,-0.541964
-0.259233,-0.803973,0.324085,0.334230,0.247658,-0.909371
-0.072535,0.840697,0.710020,-0.290783,-0.402249,0.868125
-0.817470,-0.240555,0.472837,0.826134,-0.464809,-0.318521
0.218052,0.098286,-0.959034,0.165200,0.079606,-0.983042
-0.568216,0.667427,0.428575,-0.370760,0.444289,-0.815564
0.546991,0.781691,0.153774,-0.200952,0.135842,0.970137
-0.610515,0.102170,0.760677,0.875089,0.208320,0.436831
-0.245234,-0.747284,0.428785,0.135319,0.153495,0.978840
0.007000,-0.005690,0.919814,0.292829,-0.955002,-0.047154
0.847557,0.475964,0.592899,0.918416,0.343952,-0.195471
-0.233839,0.023200,0.855437,-0.452065,0.277206,-0.847817
0.579311,0.638811,0.402748,-0.175484,-0.567723,0.804298
-0.018095,0.835995,-0.953349,-0.348500,0.311030,-0.884199
-0.477508,-0.346916,0.452459,-0.011517,0.432100,0.901752
-0.209859,0.257928,0.858536,0.693928,0.711238,0.112270
0.193550,-0.356181,0.831448,0.752666,0.471685,-0.459355
0.633973,0.550505,0.602090,0.191797,-0.823437,0.534010
-0.118186,0.924095,-0.973490,-0.272493,0.344352,0.898426
0.127868,0.194971,0.855634,-0.497573,0.862457,-0.092674
0.009086,-0.054203,0.881776,-0.749851,-0.661501,-0.011840
-0.633451,0.566312,0.576211,0.892289,-0.450890,0.022772
0.017875,-0.112120,0.838000,0.624352,0.573919,0.529906
0.147081,0.826457,0.250044,-0.142151,-0.477400,0.867111
0.286119,-0.155044,0.834494,0.606394,-0.167916,-0.777233
-0.452486,0.511804,0.304377,0.384626,0.770610,-0.508157
0.047140,0.020815,0.847979,0.858864,-0.170416,-0.483022
-0.159740,0.591932,-0.968199,0.411894,-0.029206,-0.910764
-0.723710,-0.073622,0.802785,0.409631,-0.535627,0.738449
0.808831,0.665861,0.640995,0.893432,0.379457,-0.240399
-0.429400,-0.447758,0.487136,0.778889,0.102664,0.618702
-0.134122,0.118453,0.908036,-0.643626,0.638253,-0.422349
0.059651,0.694886,0.711517,-0.522010,0.811118,-0.263806
0.264224,0.890096,0.503627,0.782203,0.609397,-0.129591
-0.078789,0.111980,0.446747,-0.195053,-0.371265,0.907809
0.052504,0.485163,-0.005180,0.936268,-0.344587,0.068278
0.085866,0.231015,0.954425,0.449331,0.737435,-0.504272
-0.790138,-0.224610,0.711097,-0.721197,-0.212298,-0.659397
-0.495904,-0.714102,0.329810,0.273548,-0.580396,0.767015
0.166147,-0.448099,-0.962907,-0.138223,0.169228,0.975836
-0.816204,-0.274488,0.725199,0.821538,-0.327436,0.466756
-0.335939,0.264469,0.736241,-0.721378,-0.664065,0.196549
-0.381740,0.416210,0.419266,-0.721222,-0.690934,0.049478
-0.170390,-0.421525,0.682880,0.228391,0.663746,0.712236
0.644773,0.782849,0.491298,0.748254,0.573389,0.333678
-0.277851,0.792117,0.043060,-0.351244,-0.430276,-0.831559
-0.862823,-0.539809,0.571261,0.809449,0.451811,0.375047
0.118261,0.632404,0.842530,0.974831,-0.076207,0.209515
0.448391,0.019589,0.883260,0.218888,0.775836,0.591748
-0.501190,0.799748,0.604244,-0.165335,-0.142974,0.975819
0.354334,0.407965,0.788171,-0.610858,0.791481,-0.020255
0.120570,0.302422,0.729519,0.675511,-0.609995,-0.414235
0.054067,0.170375,-0.056151,0.970833,0.173537,0.165433
0.089441,0.698634,-0.965126,-0.116016,0.169885,0.978611
-0.591897,0.654549,0.236954,0.748299,-0.067668,0.659901
0.058535,0.167717,0.897979,-0.182636,0.725885,0.663125
-0.511840,0.265765,0.765259,-0.158261,0.964086,0.213288
0.133974,-0.230539,0.740128,-0.157246,0.986639,0.042620
-0.178580,-0.489730,0.629152,0.602064,0.407660,0.686536
-0.396708,-0.739721,0.323718,0.024124,-0.720073,0.693479
0.040811,-0.035057,0.823872,0.046951,-0.042694,0.997984
-0.054363,0.781009,0.663907,0.879200,0.468472,0.086842
-0.618035,0.632269,0.578430,-0.673078,0.485317,0.558063
-0.081173,-0.127790,0.129457,0.967467,-0.239815,0.080594
0.011618,-0.182980,0.822336,0.875260,0.203231,0.438881
0.276438,-0.301946,0.865009,0.807232,0.583344,0.089920
-0.034256,0.006780,0.927482,0.661902,0.692249,-0.287536
0.464924,0.190405,0.749621,0.542183,-0.725126,-0.424535
0.083037,0.755050,0.743135,-0.344118,0.671186,0.656577
-0.825810,0.293088,0.679401,0.894536,-0.446852,-0.011375
-0.840183,-0.295472,0.738854,0.178209,0.341348,0.922888
-0.147379,-0.340580,0.503233,0.915068,-0.134413,-0.380240
-0.081098,0.494225,0.416942,0.961957,0.255191,-0.097553
-0.053694,-0.643443,0.422929,-0.186143,0.711812,0.677255
-0.441689,0.461178,0.721693,-0.164332,-0.906562,0.388768
0.346366,0.525022,0.394082,-0.602398,0.054475,-0.796335
-0.300267,-0.216162,0.886661,-0.736340,-0.406738,-0.540710
-0.395590,-0.018432,0.746273,-0.088226,0.538852,0.837768
-0.140229,0.349232,0.860847,0.120557,-0.981539,0.148485
-0.922474,-0.211257,0.672442,0.935140,-0.041839,0.351800
0.136581,-0.213573,0.831684,0.770153,0.418746,0.481161
-0.213807,-0.886894,0.325792,0.478516,0.231592,-0.846987
0.194221,0.796068,0.765207,0.474824,0.136070,-0.869498
0.576481,0.422342,0.661977,0.134423,-0.480586,0.866584
-0.349120,0.341054,0.856658,-0.032303,-0.833711,0.551255
-0.713508,0.303784,0.410613,0.749234,-0.241010,0.616898
0.458445,-0.189453,0.664367,0.844459,-0.503586,-0.182458
-0.430221,0.494701,0.306255,0.504196,0.692796,-0.515578
-0.861780,-0.205056,0.650632,0.866626,0.257924,0.427124
0.256927,0.226654,0.895602,0.631498,-0.772000,-0.072293
-0.356568,0.314278,0.596169,0.469842,-0.670437,0.574250
-0.196603,0.077436,0.840455,0.585766,0.809909,-0.030429
0.054810,-0.385889,0.672665,-0.693969,-0.465818,-0.549018
-0.497840,0.479917,-0.019111,0.197085,0.672330,0.713534
0.499628,-0.110893,0.418951,-0.208928,0.269146,0.940165
-0.583854,0.065307,0.866900,0.900885,0.046654,0.431544
-0.769286,-0.000375,0.412832,0.699949,-0.417068,-0.579763
0.015341,0.617483,0.739668,0.521531,0.202951,-0.828744
0.598228,0.391204,0.681292,0.897041,0.274582,-0.346298
-0.536714,0.659523,0.442375,-0.297757,0.899467,-0.319842
0.624814,0.607604,0.402722,0.324550,0.467930,-0.822015
-0.309428,-0.245666,0.592308,0.144997,0.344028,0.927696
0.061215,0.074710,0.906776,0.119351,-0.945646,0.302503
-0.322236,0.045343,0.511374,-0.617823,0.752202,-0.229098
-0.650730,-0.361496,0.506214,-0.299267,-0.770593,-0.562695
-0.862375,0.294177,0.677904,0.797936,-0.535535,0.276589
0.288203,0.485163,0.751485,-0.466959,-0.832459,-0.298264
0.053472,0.590229,0.842832,0.809771,-0.586723,0.005167
-0.683422,-0.049706,0.798977,0.943847,0.104493,0.313424
0.262735,0.867678,0.393610,0.383882,0.921014,-0.066085
0.200105,0.617414,0.630701,-0.203497,-0.359924,0.910518
0.023384,0.771061,0.332003,0.391966,-0.142753,0.908837
0.310621,0.430790,-0.954451,-0.237132,0.067465,0.969132
0.776139,0.481551,0.717990,-0.830529,0.259017,0.493085
-0.574097,-0.358363,0.496629,-0.278124,0.203312,-0.938782
-0.623101,0.456545,0.471458,-0.429957,0.874302,0.225241
-0.211796,-0.732157,0.657552,0.657261,-0.597971,0.458736
-0.248213,-0.100604,0.839838,-0.483986,-0.668655,-0.564498
0.023906,0.226995,0.805687,0.939293,0.319528,0.125020
-0.577152,-0.320547,0.753376,-0.238461,0.955585,-0.173189
0.023979,0.842333,0.394712,0.913467,0.017903,-0.406518
0.153560,0.444350,0.283789,-0.850217,0.525467,-0.031881
0.504617,0.233876,0.699844,0.352139,0.101371,-0.930442
-0.035597,0.200899,-0.591704,0.999541,0.026146,-0.015278
0.293639,0.437399,0.703823,0.198338,-0.454194,0.868545
0.470286,-0.184479,0.567309,0.817030,-0.574690,-0.046839
-0.077896,0.854597,0.772822,0.994959,-0.023448,-0.097507
-0.702933,0.580077,0.675370,0.785099,0.618768,-0.027309
0.050640,0.211868,0.280191,0.942651,-0.328638,0.058361
0.707104,0.418389,0.587253,0.865068,0.424100,0.267951
-0.193103,0.387661,0.493753,0.526570,0.848835,0.046941
-0.194964,-0.821621,0.328077,-0.072524,-0.267205,0.960907
-0.331471,-0.284298,0.490458,-0.188901,-0.932930,-0.306527
-0.070151,0.454025,0.453509,-0.808556,-0.017722,0.588152
0.026661,0.367628,0.212991,0.823600,0.064753,-0.563463
-0.073726,0.454297,0.893698,-0.596503,0.534214,-0.598999
-0.163390,0.551869,0.669842,0.487320,0.630908,0.603717
-0.072980,0.848941,0.694107,0.253183,0.622022,-0.740937
-0.758637,-0.278507,0.643700,-0.031813,0.763319,0.645238
0.313300,-0.183524,0.742662,0.142729,0.125532,0.981769
0.020109,0.179777,0.888604,0.011679,-0.124883,0.992103
-0.701667,-0.282936,0.640746,0.975993,0.048814,-0.212263
0.300119,0.324430,0.898609,-0.634718,0.768895,0.077028
-0.105302,0.259496,0.909284,0.881379,-0.220693,0.417690
-0.102173,0.322658,-0.082674,0.987999,0.152306,-0.025714
0.356866,-0.155794,0.750409,0.086349,-0.416278,0.905128
0.577077,0.219568,0.691769,0.441409,0.589245,-0.676719
-0.808683,-0.054135,0.741126,0.887694,0.100075,0.449427
0.088248,-0.066058,0.808575,-0.084983,-0.990186,-0.110946
-0.166294,-0.325656,0.427971,0.268891,0.591184,-0.760394
0.279492,0.470990,0.754295,0.818023,0.570957,-0.069618
-0.108057,0.168603,-0.707854,0.902801,0.401051,0.155268
-0.293192,-0.035805,0.853336,-0.282681,0.630255,-0.723098
-0.023606,0.149592,0.629086,-0.008463,-0.965748,0.259343
-0.430146,-0.781828,0.314868,0.170386,-0.655415,0.735799
-0.097259,-0.107077,0.645538,-0.616624,0.693944,-0.371775
-0.052949,0.184614,0.138963,0.923210,0.370909,-0.100548
-0.075067,-0.280823,0.600896,-0.057078,0.471106,0.880228
0.018693,0.095493,0.919512,0.291591,0.918860,-0.265840
-0.214105,0.099375,0.811425,-0.232277,0.720366,0.653544
0.198169,0.928252,0.260457,0.189312,0.912402,-0.362882
-0.082067,0.649234,0.636255,0.716548,-0.522224,-0.462429
-0.401251,0.002486,0.841283,0.352484,0.915334,0.194726
0.085939,0.582529,0.843515,0.974831,-0.076207,0.209515
-0.065237,0.186113,0.906224,-0.212294,0.371107,0.903997
-0.012586,0.899567,-0.965862,0.095004,0.330415,0.939042
0.232872,-0.237012,0.673256,0.413366,-0.851768,0.321900
0.582215,0.166831,0.792005,-0.056765,0.997582,-0.040105
-0.718869,-0.013049,0.721444,-0.036686,-0.937008,-0.347376
-0.238306,-0.028719,0.896377,0.297996,-0.585424,0.753974
-0.161676,-0.763705,0.328563,-0.022179,-0.253351,0.967120
-0.310694,-0.156474,0.868961,-0.339535,-0.934022,-0.110992
-0.347706,0.396995,0.857787,0.204709,-0.787924,0.580750
0.273756,-0.025722,0.842281,-0.411409,0.602844,0.683609
0.301385,-0.211053,0.779479,0.843314,0.517822,0.143815
0.347631,-0.209213,0.707565,-0.533096,0.539940,0.651363
-0.823949,-0.250436,0.726131,0.857866,0.250984,-0.448411
0.526289,0.596633,0.581725,0.944974,-0.078384,-0.317618
0.108952,-0.099036,0.830201,-0.428049,0.687927,0.586114
0.018916,0.171123,0.267639,0.323015,-0.895254,0.306889
-0.614760,-0.288796,0.790298,-0.457953,-0.888910,-0.010890
0.034779,0.181684,0.699595,0.679254,-0.733834,0.010105
-0.605972,0.054339,0.878467,0.900885,0.046654,0.431544
-0.649016,-0.357067,0.683668,0.525249,-0.394275,0.754096
-0.045501,0.039280,0.928086,-0.697415,0.708093,0.110531
0.041704,0.376145,-0.965100,-0.156393,0.075985,0.984768
-0.228700,0.562565,0.686924,-0.587573,-0.802264,0.105501
0.036045,0.206622,0.494462,0.589261,0.736359,-0.332485
-0.201071,0.055973,0.779571,0.009729,0.510644,0.859737
-0.112898,0.376486,-0.972492,0.275790,-0.026537,-0.960851
-0.458220,0.088201,0.818462,0.728648,0.585637,0.355107
0.084450,-0.256158,0.499596,-0.410393,-0.887554,0.209346
0.476392,0.408851,0.351632,-0.680445,0.722975,0.119588
-0.562704,-0.126428,0.781107,-0.376706,-0.671188,-0.638434
-0.042076,0.136783,-0.439158,0.904156,-0.427057,0.011106
-0.611706,-0.291657,0.685743,-0.489084,0.861283,0.137802
-0.732646,-0.528226,0.452354,0.879372,0.366656,0.303756
0.447498,0.447483,0.641271,-0.502863,-0.317973,0.803755
-0.835715,-0.388342,0.731383,0.899838,0.152954,0.408531
-0.505958,0.285660,0.785059,-0.692965,-0.615866,0.374844
0.053842,-0.170784,0.844106,0.306875,0.656888,0.688713
0.388219,0.679079,0.140998,-0.363519,0.485639,0.794989
-0.712465,0.372398,0.680346,0.808576,-0.534726,0.245504
0.040513,0.223793,0.094662,0.966251,-0.255094,0.035858
0.965371,0.178892,0.293059,0.033852,0.608229,0.793040
0.635612,0.402717,0.647127,-0.714725,0.650593,-0.256704
0.212764,0.037305,0.460232,-0.218944,0.516212,0.828003
0.467604,0.739106,0.619304,0.470759,-0.703387,0.532571
0.218500,-0.265289,0.845983,0.972717,0.161032,-0.167007
-0.714179,-0.608899,0.484496,0.158956,-0.893257,0.420506
-0.094800,0.138827,-0.845773,0.861239,0.500733,-0.086801
-0.373845,-0.213164,0.820970,0.661385,0.378292,0.647661
0.089069,-0.040099,0.824633,-0.455048,-0.453789,-0.766164
-0.225648,-0.598066,0.411506,0.047795,0.566409,0.822737
-0.017054,0.377779,0.880489,0.885636,0.107428,-0.451784
0.346366,0.887780,0.675265,-0.225709,-0.852552,0.471391
-0.435507,-0.035398,0.717728,-0.625449,0.746404,-0.227364
-0.103887,0.297516,0.001346,0.361182,-0.395368,-0.844531
-0.095025,-0.511806,0.322287,0.135126,0.273934,0.952208
0.140527,0.719618,-0.961358,0.079678,0.232774,0.969261
-0.883823,-0.203149,0.410863,0.781593,-0.375804,-0.497879
-0.273681,-0.774128,0.623611,0.951230,0.186620,0.245630
-0.622505,0.735018,0.589341,0.174852,-0.855938,0.486617
-0.187369,0.294381,0.846640,-0.171213,0.976957,-0.127440
-0.118707,0.157905,0.756501,0.441027,0.836251,0.325852
-0.058608,0.269239,0.943632,-0.595103,0.523287,-0.609937
-0.415623,0.080911,0.722691,0.943673,-0.196660,0.266096
-0.333034,0.466765,0.644002,-0.136351,0.187741,0.972708
-0.325216,0.604743,0.514643,-0.200293,0.098122,0.974810
-0.011020,-0.006166,0.905305,0.971365,0.169519,0.166471
0.065087,-0.506558,0.431254,0.850086,-0.525082,-0.040538
-0.235702,-0.641672,0.600173,-0.577893,0.628458,-0.520654
0.058012,-0.294110,0.596274,0.264631,-0.238167,0.934477
0.573875,0.729090,0.334248,0.592182,0.645771,0.481975
-0.561736,0.705038,0.593963,0.519119,0.023016,0.854392
-0.041331,-0.500018,-0.946245,0.930453,-0.003536,-0.366394
-0.683497,0.648486,0.497495,0.645086,-0.762822,0.044345
-0.653409,-0.245801,0.729296,-0.264776,-0.313350,0.911979
-0.238456,0.100398,0.895707,0.585547,0.546165,0.599031
-0.406239,0.070622,0.798820,-0.732368,0.680670,-0.018038
-0.579609,-0.187068,0.663776,-0.734263,0.108116,-0.670201
-0.159815,-0.727524,0.323888,-0.036552,-0.144317,0.988856
-0.323800,0.414233,0.266208,0.319314,0.934317,0.158402
-0.506478,-0.490274,0.672113,-0.312115,-0.948881,-0.047002
0.415476,0.821756,0.248928,0.053601,0.234285,0.970689
0.095548,0.056518,0.210299,0.941073,0.328937,0.078623
0.425975,0.531699,0.655149,-0.640143,-0.044732,0.766952
-0.127047,-0.227201,0.628561,0.988594,-0.137526,0.061392
-0.439677,0.235716,0.358171,0.518085,-0.235142,0.822373
-0.546841,-0.404628,0.618858,-0.287228,0.934832,-0.208782
-0.600015,0.457227,0.742032,-0.744065,-0.666969,-0.038992
-0.746126,-0.372604,0.660021,0.790918,0.490884,-0.365353
0.193923,-0.144688,0.826931,0.495957,0.184974,-0.848417
0.596888,0.164719,0.843344,-0.446702,0.544826,0.709664
-0.639410,0.658978,0.329981,0.515661,-0.387129,0.764346
-0.010500,-0.438627,0.591035,-0.217560,-0.765370,0.605703
0.218350,0.498995,0.607763,0.792829,0.537924,0.286460
-0.174560,0.541239,0.687016,-0.269934,-0.962879,-0.000416
-0.068737,0.237012,0.900565,0.619081,-0.441649,0.649373
-0.032767,0.209348,0.898294,-0.328221,0.944048,-0.032308
0.291480,0.633086,0.446734,-0.643908,0.760100,-0.087350
-0.154454,0.249752,-0.973569,-0.156848,0.149036,0.976313
0.006329,0.622662,0.042273,0.983169,-0.097867,-0.154276
0.372654,0.798384,0.406910,0.849089,0.514250,-0.120810
0.325514,-0.267946,0.665076,0.350944,-0.928047,-0.124769
0.151847,0.522841,0.731843,0.710614,0.552213,-0.435993
0.110366,-0.066126,0.882577,-0.346818,0.842780,0.411630
-0.453232,0.466699,0.737948,0.132689,0.810563,0.570422
-0.448466,-0.244984,0.599202,0.386673,-0.701118,-0.599098
0.455913,0.127721,0.464092,-0.299456,0.953929,0.018602
-0.857907,-0.672947,0.501947,0.795137,0.398980,-0.456697
-0.025543,0.176369,0.194963,0.889677,0.448514,-0.085500
0.255736,0.918986,0.495473,-0.649194,-0.380246,0.658756
0.013704,-0.206896,0.243794,-0.687844,0.357287,0.631836
0.144697,-0.031923,0.732854,-0.626440,-0.351266,0.695834
-0.272042,-0.794502,0.625882,0.951230,0.186620,0.245630
0.436177,0.067420,0.461283,-0.389655,0.920041,-0.041145
-0.656909,0.534835,0.537884,0.905556,0.341819,-0.251251
-0.837056,-0.618847,0.560048,-0.596270,-0.796488,-0.100347
0.256181,-0.007121,0.839064,-0.417270,0.767736,0.486280
-0.083257,0.824072,0.345251,0.138083,-0.156546,0.977971
0.009459,0.148161,0.988800,0.006976,0.935389,0.353551
0.035597,0.146323,-0.615733,0.923648,0.269084,-0.272887
0.009309,0.574762,0.039528,0.999717,0.011591,-0.020757
-0.529044,0.010186,0.287899,-0.425180,-0.625244,-0.654440
-0.108132,0.381529,0.869250,0.921701,0.136193,0.363206
-0.082142,0.853508,0.673387,0.663839,0.728469,-0.169267
-0.164878,-0.315777,-0.979136,-0.361534,-0.228430,0.903943
-0.126154,0.568766,0.650961,0.922619,0.372103,-0.101557
-0.240841,0.844853,0.261914,0.400256,-0.887373,0.228833
-0.420985,0.053929,0.790692,-0.100076,0.994973,0.003551
-0.316278,0.106599,0.913603,0.743378,-0.327130,0.583416
0.052874,0.517050,0.725672,-0.236494,0.683549,-0.690529
-0.826703,-0.281506,0.717281,0.996394,0.058224,0.061723
-0.396187,-0.246620,0.758405,-0.405460,-0.699495,0.588480
-0.821195,-0.648554,0.502997,0.980775,0.010926,-0.194834
0.000373,0.133104,0.991452,0.006976,0.935389,0.353551
-0.060619,0.023676,0.879833,0.039303,0.994481,0.097272
-0.654303,0.371716,0.257831,0.819211,-0.279834,-0.500586
-0.485551,0.771267,0.547613,-0.290115,0.954964,0.062266
-0.363270,0.411099,0.725593,0.787607,0.578527,-0.212088
-0.281203,0.419206,-0.975512,-0.133343,0.229481,0.964136
0.071344,0.223724,0.948845,0.318474,0.548066,-0.773432
-0.411676,0.206418,0.820169,0.926459,0.093635,0.364563
-0.605376,0.499881,0.667794,0.766761,0.337227,0.546220
0.205839,0.497972,0.821929,-0.005906,0.911328,-0.411638
0.102025,-0.016183,0.525148,0.766222,0.187753,-0.614535
-0.631069,-0.515008,0.482750,0.764367,-0.336842,-0.549800
-0.546991,0.686369,0.192574,0.818838,-0.084970,0.567701
-0.106643,0.066399,0.411900,0.463235,0.886186,0.009370
0.040736,-0.197221,0.682723,-0.388807,0.547414,0.741058
-0.061587,0.231493,0.277473,0.282579,-0.314389,-0.906261
0.363717,-0.002078,0.851248,0.804309,-0.230040,-0.547877
-0.258415,0.234082,0.820274,0.606629,0.756513,-0.244315
0.414730,-0.161040,0.769185,-0.781171,0.582452,-0.224770
0.444668,0.356316,0.287084,-0.552440,0.833299,0.020567
0.263181,0.016114,0.464893,-0.079000,0.801834,0.592301
-0.890600,-0.534290,0.576080,0.869760,0.482120,0.105255
0.178583,0.311484,0.741520,-0.143397,0.924835,0.352303
-0.556002,-0.345895,0.623558,-0.200201,0.941642,-0.270610
0.059503,-0.010527,0.728009,-0.036432,0.068850,0.996962
-0.157208,-0.621163,0.422706,-0.067543,0.841181,0.536518
0.002757,0.798656,-0.963853,0.016471,-0.145484,0.989223
-0.031874,0.059720,0.723702,-0.505441,0.707451,0.494007
0.089664,0.490954,0.689393,-0.570744,0.612831,0.546526
-0.796990,-0.394133,0.616258,-0.737255,-0.673097,-0.058268
0.234956,-0.309577,0.781120,-0.159143,0.085429,0.983552
-0.449732,0.097945,0.271053,-0.348200,-0.227268,-0.909453
0.215966,0.240010,0.835335,0.011025,-0.939978,0.341057
-0.248881,0.181481,0.773426,0.413029,0.742751,0.526999
0.091078,-0.388070,0.784941,0.164619,0.926090,0.339496
-0.699508,-0.176848,0.750356,-0.393285,0.388776,0.833175
0.157135,0.761727,0.789221,-0.689445,0.678119,-0.254598
0.278224,0.430790,0.720892,0.645942,0.748233,-0.151348
-0.653334,-0.338536,0.783825,-0.041704,-0.991698,0.121637
0.793641,0.613599,0.632631,0.540222,0.817989,-0.197620
-0.358354,-0.161926,0.793699,0.936530,0.293446,0.191834
0.079983,0.444418,0.847887,-0.769189,0.631710,-0.096388
0.159294,0.072462,0.673348,0.067964,0.894379,0.442117
-0.805704,-0.183252,0.674884,0.518701,0.249501,-0.817740
-0.264447,0.582666,0.526631,0.665248,-0.697435,-0.266514
0.026288,0.117977,0.673939,0.694351,0.648145,-0.312706
-0.000818,0.280345,0.329666,-0.251072,-0.549723,0.796723
-0.045501,0.864476,-0.080114,0.886756,0.066441,0.457437
0.118261,-0.352434,0.749608,0.649480,0.649752,-0.394966
0.493669,-0.173442,0.718318,0.684200,-0.698389,0.210057
-0.264149,0.516029,-0.983522,-0.253454,0.165185,0.953139
0.044460,0.592817,0.889615,-0.634699,-0.691655,0.344632
0.041108,0.592749,0.883549,-0.530693,-0.674010,0.513882
0.079089,0.219023,0.926944,0.378890,0.876651,-0.296523
-0.467231,-0.055703,0.747507,0.253176,0.014746,-0.967308
0.053842,-0.394406,0.794802,0.556804,-0.738328,-0.380580
-0.541032,-0.374101,0.657880,0.871682,-0.023917,0.489489
-0.392910,0.036485,0.789931,0.349842,-0.398173,0.847979
-0.057119,-0.082343,0.481070,0.980707,-0.120090,0.154245
-0.240913,-0.280210,0.477643,0.271676,0.687467,-0.673484
-0.000373,0.034441,0.905975,-0.259302,-0.698932,-0.666526
0.305482,0.805198,0.601237,-0.158677,-0.966250,0.202936
-0.579534,0.667154,0.231675,-0.691877,0.186818,-0.697427
-0.859844,-0.407558,0.541468,-0.762639,-0.524555,-0.378449
-0.392462,-0.228835,0.625725,-0.465567,0.048815,-0.883665
-0.565906,-0.299698,0.650659,0.706653,-0.497076,0.503545
-0.413910,0.534084,0.194661,0.179995,-0.206261,0.961800
-0.698390,-0.540287,0.528102,0.789974,-0.483351,-0.377244
-0.296321,0.165401,0.888302,0.874662,0.172182,0.453122
-0.253051,0.479031,-0.980397,-0.210804,0.097489,0.972655
-0.746871,-0.369809,0.692255,0.789998,0.569967,0.225922
0.141645,-0.159814,0.742491,0.850472,0.204310,0.484722
0.067844,-0.215617,-0.459878,0.982730,0.183669,0.022529
-0.034704,0.131264,0.883811,0.798307,0.601452,0.031002
-0.694295,-0.284571,0.654677,-0.540147,0.706112,0.457873
-0.919122,-0.391341,0.492086,0.863225,-0.459113,-0.209900
-0.630323,0.356863,0.791125,0.327673,-0.916743,-0.228501
0.412794,0.198446,0.753127,0.483269,-0.689733,-0.539184
-0.288128,-0.496747,0.393938,0.856420,-0.284212,-0.431009
-0.054290,-0.249072,0.660809,0.826796,0.391899,-0.403513
-0.725274,-0.159065,0.720288,-0.196580,0.976222,0.091357
0.170615,-0.233809,0.835624,0.013973,0.947489,0.319482
0.564195,0.500357,0.586295,0.795175,0.596007,-0.111685
-0.585938,-0.224679,0.754479,0.723209,0.307802,0.618245
-0.336386,-0.224271,0.486702,0.014539,0.663832,0.747741
-0.091153,-0.460567,0.684784,-0.212222,0.590831,0.778383
-0.836535,-0.606310,0.534273,0.086513,-0.979302,0.182986
0.361706,0.797498,0.451251,0.877432,-0.206511,-0.432975
0.832888,0.559294,0.618818,0.943202,0.331821,-0.016248
-0.420687,0.563588,0.419515,-0.731521,-0.062357,-0.678961
0.373847,0.040507,0.869539,-0.734379,0.591837,0.332291
0.193105,-0.253569,-0.946560,0.215441,-0.223310,-0.950641
-0.687593,0.233400,0.528864,-0.263739,0.338954,0.903079
0.310396,0.252888,0.705963,0.430188,-0.711723,0.555327
0.240170,0.091881,0.826445,-0.381940,0.509792,0.770866
-0.501117,0.254387,0.810348,0.861987,0.484924,0.147738
0.262958,0.005688,0.680556,-0.602494,-0.538301,-0.589265
0.210828,0.280549,0.588685,0.506484,-0.862208,-0.008467
-0.431487,-0.136171,0.768804,0.042642,-0.758409,-0.650383
0.330057,-0.200082,0.846587,0.814282,-0.479610,-0.326984
0.123995,-0.183730,0.773439,0.905367,-0.423454,-0.031585
0.095771,-0.046980,0.793764,-0.430123,-0.696357,-0.574527
0.263181,0.096310,-0.955699,0.260021,0.063459,-0.963515
-0.646410,-0.204443,0.738119,0.177652,-0.772591,0.609544
-0.673443,0.510508,0.668345,0.073110,0.294766,0.952769
0.148720,0.434674,0.282187,-0.857076,0.514531,-0.026050
-0.082289,0.269853,0.462425,-0.693114,0.256945,0.673478
0.783809,0.176507,0.268584,0.409938,-0.092469,-0.907414
-0.151399,-0.348142,0.524005,0.819512,-0.539770,-0.192480
-0.240095,0.893094,0.437871,0.066412,-0.447282,0.891924
-0.242106,0.222566,0.676394,0.992948,-0.047555,-0.108599
-0.201668,0.397880,0.604874,-0.356162,0.085092,0.930542
-0.045426,0.169420,0.887777,0.873014,-0.053437,-0.484758
-0.432527,0.029332,0.801039,0.996552,-0.022114,-0.079971
0.481904,0.424590,0.653416,0.435813,0.510229,-0.741440
0.316502,-0.362519,0.854071,0.727865,0.617424,-0.298329
0.737264,0.604878,0.624110,-0.032319,-0.857360,0.513701
-0.230636,0.118318,0.886227,0.947079,0.243993,0.208589
-0.352247,-0.359862,0.304206,0.397919,0.601076,0.693086
-0.128313,0.210643,0.661452,0.218383,-0.470365,0.855024
-0.058683,0.060198,0.285233,0.829366,-0.364881,-0.423100
-0.098898,0.155451,-0.840587,0.924730,0.379386,0.030677
-0.507894,0.137055,0.750172,-0.541924,0.187768,-0.819183
0.299151,-0.320069,0.880004,0.808535,0.588410,-0.006695
-0.146856,0.252615,0.925119,0.766172,-0.033307,-0.641772
0.122432,0.811740,0.737252,-0.612355,0.415698,0.672470
0.049524,-0.080640,-0.967897,0.088901,-0.194050,0.976955
-0.115355,0.935201,0.723059,0.297177,-0.769639,0.565103
0.067321,-0.144892,0.820616,0.329688,0.354365,-0.875061
0.024725,0.318025,-0.964942,-0.172196,0.036749,0.984377
-0.030831,0.021429,0.768502,-0.164324,0.265735,-0.949938
-0.605674,-0.123701,0.732644,0.054016,0.565806,0.822767
0.065610,-0.014820,0.825750,0.842218,0.061929,0.535568
0.419944,0.317684,0.739366,-0.525560,-0.109770,0.843645
0.787609,0.372192,0.574701,-0.255187,-0.860210,0.441495
0.265788,-0.275101,0.801524,0.272971,-0.883417,-0.380869
0.356197,0.042482,0.394371,-0.450250,0.118121,0.885055
0.532396,0.549074,0.102593,0.474911,0.075314,-0.876805
-0.210157,0.061288,0.860177,0.752179,-0.624114,0.211446
-0.016979,0.129561,0.550239,-0.242607,-0.812890,-0.529482
0.378315,-0.151365,0.743437,0.102183,-0.686060,0.720334
0.225945,-0.256772,0.862475,-0.139275,-0.990202,-0.010150
0.624367,0.589411,0.397155,0.324550,0.467930,-0.822015
0.329982,0.489727,0.815626,0.819564,-0.562163,0.110850
0.250447,-0.111369,0.752549,-0.547921,-0.815157,-0.187888
-0.649389,-0.302763,0.737581,-0.497306,-0.763724,-0.411598
-0.327225,0.089634,0.833707,-0.372380,0.534019,0.759050
-0.143506,0.361496,0.856671,-0.290713,0.901917,0.319425
0.101430,-0.198993,0.266260,0.925936,-0.375914,0.036490
0.737489,0.782986,0.640614,0.692841,0.566536,-0.446102
0.029938,-0.232106,0.701932,-0.237154,0.904093,0.355490
0.257074,0.286001,0.878887,-0.544384,0.686078,0.482641
-0.298330,0.301605,0.697849,-0.122647,-0.981983,-0.143761
-0.011245,0.171464,0.960386,-0.014065,0.894966,0.445912
-0.050267,0.815011,0.642492,0.800548,0.314024,0.510404
-0.949283,-0.460432,0.484851,0.933124,0.302957,0.193640
-0.014448,0.090792,0.940363,0.934569,0.349055,-0.068854
0.005511,-0.236194,0.311428,-0.494823,-0.198507,-0.846017
-0.772266,-0.345485,0.653324,0.839194,0.490530,0.234805
0.117888,-0.349504,0.596943,0.340109,0.844779,0.413128
0.125186,-0.106736,0.449925,0.971427,-0.062667,-0.228916
0.021970,-0.127517,0.219937,0.491608,-0.465762,-0.735790
-0.326928,0.549484,0.300110,0.144945,0.001679,-0.989438
-0.521299,-0.316800,0.639524,0.695672,-0.582023,0.421057
-0.324173,-0.300584,0.715798,0.294624,0.834695,0.465276
0.570897,0.576262,0.543267,0.303474,0.926458,-0.222662
-0.335566,-0.158656,0.885649,0.745118,0.412608,0.523979
-0.660559,-0.307942,0.774988,0.367765,0.800952,0.472466
0.281726,-0.359317,0.580938,-0.015967,-0.901907,0.431635
0.076260,0.586685,0.688684,-0.171677,-0.284681,0.943124
-0.021597,0.175280,0.462898,0.878007,0.461541,-0.126822
0.043195,-0.072803,0.139331,0.951749,-0.095402,0.291672
-0.857535,0.256362,0.321801,-0.652622,0.192754,-0.732755
0.148645,0.167580,0.949134,0.213648,0.718868,-0.661500
0.877866,0.387864,0.487700,0.879974,0.244674,-0.407161
0.648346,0.145776,0.111048,-0.591887,0.054525,-0.804174
0.497767,0.498244,0.604021,-0.194908,-0.404437,0.893555
0.507076,0.582053,0.359747,0.935495,0.269319,0.228728
-0.457327,-0.706539,0.441889,-0.000811,-0.515408,0.856945
-0.367292,0.385616,0.303471,-0.312934,-0.648151,0.694242
0.123548,-0.269718,0.889917,0.398265,0.853235,0.336713
-0.437221,-0.608695,0.617125,0.065058,-0.370955,0.926369
-0.061810,0.556092,0.851682,0.964934,-0.130527,0.227738
0.203085,-0.147685,0.735480,0.463000,-0.707475,-0.533958
-0.404601,0.743739,0.608931,0.339329,-0.002700,0.940664
-0.482052,0.019792,0.837934,0.832165,0.237133,0.501268
0.052874,0.488501,0.811884,-0.520603,0.637452,0.568003
0.525469,0.176575,0.776354,0.251255,0.431134,0.866599
0.046099,-0.197901,0.890547,0.922863,-0.138018,-0.359549
-0.638962,-0.512555,0.430807,0.968066,0.209433,0.137791
-0.002829,0.010458,0.769290,0.029842,-0.403558,0.914467
0.029117,0.113344,0.860702,-0.645933,0.723578,-0.243321
-0.727435,-0.194905,0.700829,0.246901,-0.643051,0.724931
0.136729,-0.212278,0.772218,-0.342286,0.899087,0.272915
-0.013925,0.056996,0.903414,0.441688,0.537309,0.718478
0.750894,0.242871,0.289409,-0.328809,-0.069100,0.941865
-0.719242,0.303511,0.552038,-0.793105,0.593474,-0.137014
-0.881143,-0.526114,0.563934,0.874697,0.321705,0.362507
-0.180294,0.908901,0.669619,-0.287156,0.863157,-0.415334
-0.582365,-0.247573,0.495762,-0.093600,0.102490,0.990321
-0.542225,-0.207373,0.297523,-0.291263,-0.325860,0.899434
-0.287981,-0.683305,0.620853,0.693662,-0.155823,0.703244
-0.404528,-0.426364,0.465130,0.260882,-0.043045,-0.964411
-0.287683,0.328927,0.591626,-0.184893,0.553783,0.811874
-0.134570,-0.171329,0.822572,0.166086,-0.942931,-0.288610
-0.458295,0.212346,0.831054,0.876022,-0.328713,0.352894
0.429923,0.347323,0.575541,0.170807,-0.841597,0.512387
-0.414060,0.034851,0.696260,0.458565,0.483745,-0.745459
-0.015563,-0.053384,0.510560,0.844961,0.137859,-0.516755
0.323502,0.713965,0.622994,0.688083,-0.721727,-0.075176
-0.672102,-0.315029,0.775921,-0.181304,-0.811522,-0.555482
0.494340,0.644533,0.110300,-0.238819,-0.831912,0.500887
-0.539916,-0.390114,0.495894,0.368303,0.104303,0.923836
0.242852,-0.041734,0.834652,0.902702,-0.377773,-0.205954
-0.160708,0.077027,0.827548,0.951985,-0.258230,0.164444
-0.576779,0.048001,0.703626,0.010853,0.965759,0.259213
-0.436028,-0.144210,0.676145,0.263649,-0.959713,-0.097160
0.047140,0.154634,0.438147,-0.156060,0.652743,0.741331
-0.150208,0.402786,0.312610,0.380859,0.456197,-0.804258
-0.253574,0.388409,0.664603,-0.132091,0.719523,0.681791
0.031279,0.106393,0.993435,0.122785,0.947937,0.293835
0.274949,0.553093,-0.958771,-0.316468,0.008243,0.948567
0.816279,0.621436,0.188753,0.781654,0.604624,0.153124
0.614537,0.588048,0.526434,0.287900,-0.905987,0.310323
-0.217307,0.474737,0.920221,0.564777,0.805121,0.181129
0.142165,-0.243622,0.795524,0.057977,0.898309,0.435523
0.198019,0.460292,0.816178,0.729852,0.317230,0.605543
-0.257595,-0.653052,0.651670,0.336429,0.856870,0.390626
-0.755957,-0.387184,0.657093,0.660863,0.499682,0.559981
-0.289171,0.329882,0.407751,0.537672,0.829713,0.149953
-0.191762,0.049365,0.899187,-0.583586,-0.413965,-0.698613
-0.338100,0.348413,0.791007,-0.332083,-0.922636,0.196122
0.155870,0.445236,-0.962014,-0.230554,0.094273,0.968482
-0.023681,0.109801,0.764734,0.959477,-0.281506,-0.012600
0.110591,-0.086022,0.874029,0.757984,0.459131,0.463313
-0.707251,-0.350459,0.450949,-0.097470,0.563966,0.820026
-0.688336,0.147889,0.306346,0.440027,-0.335754,0.832854
0.252086,0.395564,0.775829,0.862569,-0.271508,0.426916
0.066951,-0.280823,0.749030,0.737222,0.233395,-0.634059
-0.104409,-0.610671,0.617492,0.950286,0.284676,-0.126161
0.002159,0.113958,0.870379,0.482129,0.079503,-0.872486
-0.113866,0.853098,0.354114,-0.420375,-0.155066,0.894002
0.114686,0.683985,-0.964273,0.011664,0.080497,0.996687
-0.228998,-0.760365,0.675107,-0.082784,0.937998,0.336611
-0.045426,0.095628,-0.661491,0.876578,0.463334,-0.130121
-0.790436,-0.621094,0.477787,0.029232,-0.278516,0.959987
-0.037608,0.157088,0.730425,-0.001552,-0.988961,0.148167
-0.040661,0.022177,-0.788722,-0.794884,-0.606570,-0.015268
-0.139111,0.016521,0.942634,-0.184010,0.590479,0.785796
-0.610365,-0.180322,0.677274,0.228955,0.892128,0.389470
0.420912,0.846966,0.510731,-0.750225,-0.198524,0.630675
-0.019511,-0.045618,0.925158,0.946085,0.195373,0.258365
-0.529191,-0.021907,0.662896,-0.541672,0.468707,-0.697785
0.199435,-0.288251,0.807538,-0.708347,0.582531,-0.398626
-0.484733,-0.487345,0.454376,-0.134833,0.187799,0.972909
-0.501562,0.164650,0.851747,0.917048,0.015242,0.398486
-0.099641,0.147957,0.588540,-0.590363,-0.573092,0.568363
-0.088396,0.371171,0.933522,0.684399,0.686676,-0.245099
-0.056001,-0.030355,0.513488,-0.669132,-0.307821,0.676393
