-0.274637,-0.745223,-0.983568,0.165645,0.392764,0.904598
0.389582,-0.364805,0.236390,-0.497755,0.840722,0.213135
0.193708,-0.423657,-0.182457,0.793855,-0.607564,0.025683
0.079895,0.216299,0.474087,-0.209037,0.964696,0.160204
-0.253719,-0.685102,-0.983027,0.245068,0.248652,-0.937077
-0.363104,-0.932469,-0.993644,-0.148028,-0.154525,0.976836
-0.514226,0.309129,0.837989,0.936881,-0.103868,0.333864
0.395327,-0.591109,0.709053,0.860276,0.495529,0.119898
-0.833899,-0.274624,0.902821,0.188104,0.886843,0.422050
0.013380,0.917332,0.899455,-0.618998,-0.583052,0.526205
-0.385057,0.406404,0.864214,-0.523268,-0.772378,0.360030
0.162146,-0.167610,-0.058889,0.085467,0.963533,0.253575
0.152253,-0.248795,-0.957955,0.296522,-0.017954,-0.954857
0.103167,-0.185183,-0.161152,0.690523,0.721926,-0.044724
0.415773,0.463879,0.523406,-0.674494,0.703843,-0.222851
0.691636,-0.206670,-0.932931,-0.274114,0.036833,0.960991
-0.047388,-0.191216,0.745024,-0.705831,0.708034,-0.022158
-0.462314,-0.463880,0.844062,-0.427459,0.607154,-0.669807
-0.691161,0.436674,0.957955,0.667974,-0.389292,-0.634242
0.157906,-0.283937,-0.541109,0.763502,-0.645304,-0.025446
-0.539948,0.636092,0.981308,0.395337,-0.830505,0.392390
0.316094,-0.572690,0.594830,-0.049770,-0.996170,-0.071886
0.139722,-0.744693,-0.964264,0.078019,0.257365,-0.963159
0.526192,-0.554907,0.699919,0.986835,-0.160135,-0.022681
0.378745,-0.644562,0.644809,0.811915,-0.525975,-0.253269
-0.295928,-0.196614,0.972080,-0.579843,-0.813442,0.045763
0.139722,-0.560625,0.373518,0.903849,-0.421460,-0.073679
-0.546259,-0.510453,0.841049,0.106981,-0.282323,0.953335
0.436595,-0.552685,0.605636,0.522462,-0.754688,-0.396838
0.176465,-0.406088,-0.077698,0.955313,0.290586,0.054188
-0.165347,-0.527919,0.606036,0.870380,0.483313,0.094062
0.364332,-0.716328,-0.947621,-0.552172,-0.256560,0.793273
-0.207083,-0.689547,0.750768,-0.319140,0.572616,0.755156
-0.051439,0.486213,0.778429,0.987639,-0.066555,-0.141912
0.071793,-0.412119,-0.966030,0.247524,0.046157,-0.967782
-0.243357,0.742470,0.864049,-0.469132,-0.031461,-0.882567
0.709537,-0.537761,-0.929211,-0.267739,0.089102,0.959363
0.176183,-0.256099,-0.772614,-0.188944,0.952481,0.238912
-0.513283,0.079861,0.904116,-0.043763,0.859800,-0.508751
-0.096663,-0.559356,0.633038,0.672907,0.739160,0.028967
0.009610,0.361733,0.824358,0.237878,-0.669649,0.703551
-0.513378,-0.374545,0.834669,-0.345231,-0.890268,-0.297049
-0.112397,0.096057,0.763198,-0.058012,0.895296,0.441678
0.276899,0.101771,0.376791,-0.454057,-0.890961,0.004544
-0.538723,0.302988,0.899926,0.909750,-0.209463,0.358442
0.075657,0.288488,0.458691,0.876787,-0.195427,-0.439378
0.392877,0.418999,0.661499,0.976533,0.054776,0.208286
0.210479,-0.178725,0.106277,0.857335,0.473425,0.202101
-0.512530,0.423233,0.885707,0.860389,-0.426312,-0.279264
0.220275,-0.271129,-0.801452,0.414779,0.876233,0.245303
0.078293,-0.224029,0.759714,0.771652,-0.132702,0.622048
-0.432731,0.141041,0.828196,-0.681689,0.591336,-0.430838
0.308556,-0.399207,0.160893,0.927753,0.140702,-0.345656
-0.404183,-0.096164,0.838577,-0.609653,-0.063327,-0.790135
0.152158,-0.244564,-0.132596,0.859536,-0.490062,-0.145044
0.379122,0.173430,0.364125,-0.762842,-0.642847,0.069423
-0.272941,-0.355916,0.530610,0.953713,-0.299322,0.028949
0.313455,-0.115109,0.771555,0.944351,-0.323385,0.060195
0.321276,-0.421644,-0.950493,0.223890,0.060646,-0.972726
0.146695,-0.231756,0.301011,0.813568,0.562676,0.146638
-0.254568,-0.682456,-0.987829,0.239294,0.260517,-0.935345
0.226776,-0.605186,-0.959038,-0.213011,-0.214046,0.953316
-0.542398,0.511932,0.935968,-0.023521,0.385877,0.922250
0.128041,-0.245940,-0.269018,0.996671,0.043074,0.069217
0.218015,-0.339933,-0.319609,0.375364,0.919198,0.119067
-0.113621,-0.773804,0.682804,-0.330061,0.926058,0.182967
-0.054927,-0.815189,-0.976694,-0.261570,0.054806,0.963627
-0.078481,-0.401960,0.758890,-0.544898,0.670673,-0.503273
0.770399,-0.437841,-0.929564,-0.069891,-0.210367,0.975121
0.091485,-0.222653,0.315324,0.944888,-0.312471,0.097717
0.115979,0.301189,0.404852,-0.212213,0.895149,-0.392012
0.647541,-0.630062,-0.932625,-0.280040,0.038406,0.959220
0.062184,-0.326912,0.231729,0.095633,0.906363,0.411534
-0.192009,0.069172,0.856516,-0.646392,-0.541921,-0.537121
-0.465045,-0.035936,0.723578,-0.790546,0.354649,-0.499260
0.309970,-0.248692,-0.930176,0.183695,-0.549745,0.814885
0.200585,-0.307647,-0.674706,0.592179,0.725740,-0.350181
0.514605,-0.716009,-0.942135,-0.230414,0.690182,0.685972
0.048521,0.820373,0.884742,0.377984,0.615896,-0.691231
0.080177,-0.224452,-0.007451,0.994139,0.069017,0.083212
-0.537498,-0.495423,0.874737,-0.534224,0.493907,-0.686047
-0.387507,0.008944,0.906117,0.884005,0.347702,-0.312472
-0.039286,-0.355596,-0.974740,-0.009993,0.026469,0.999600
-0.022233,-0.411802,-0.972410,-0.221035,-0.122432,0.967551
-0.357923,-0.755068,-0.991078,-0.142874,0.061734,0.987814
0.145093,-0.405028,0.652954,-0.656244,0.575265,0.488277
-0.222630,-0.522201,0.787069,0.354775,0.163364,0.920569
-0.729695,-0.213021,0.848982,-0.474404,-0.819238,-0.322163
-0.278593,0.338343,0.951952,-0.656364,-0.737782,0.157686
-0.376483,-0.913204,-0.992067,-0.120455,-0.114676,0.986073
0.018090,-0.174384,0.704321,0.906398,0.332242,-0.260880
-0.338797,0.277163,0.739845,0.989526,0.141269,0.029696
-0.481909,-0.921460,0.748390,0.534274,0.646409,0.544708
0.285660,-0.575339,0.698177,0.333744,0.895577,0.294207
0.473150,-0.345964,-0.934155,0.017937,0.060022,-0.998036
0.086773,-0.614182,0.362572,0.981051,-0.193684,-0.005113
0.196534,-0.576395,-0.967843,0.226182,0.151851,-0.962176
-0.235350,-0.645515,0.712678,-0.347036,0.919925,-0.182492
-0.194930,-0.452765,0.418977,0.941682,-0.335362,0.027712
-0.642642,0.616301,0.916781,-0.196384,0.965364,0.171775
-0.040982,-0.090766,0.385195,0.709498,0.697162,0.102854
-0.147635,-0.879862,-0.980272,0.249013,0.073526,-0.965705
-0.142359,-0.722995,-0.978483,-0.041670,-0.171507,0.984301
0.405974,-0.642233,0.698483,0.998449,0.054635,-0.010746
0.096195,-0.458905,-0.964712,0.167110,0.080875,-0.982616
0.037215,0.247419,0.515355,-0.106986,0.987133,0.118840
0.148955,-0.080604,0.027437,0.882789,-0.400586,-0.245388
-0.359996,0.277373,0.891616,-0.502746,-0.682733,0.530209
0.252121,-0.241492,-0.536683,0.679852,-0.731151,-0.056736
0.291126,-0.360891,0.145568,0.942096,-0.103363,-0.319018
0.149521,-0.599472,0.707829,-0.043780,0.985336,0.164912
0.504053,-0.099023,-0.944042,0.221138,-0.107210,-0.969332
-0.201902,-0.741095,-0.981214,-0.254303,-0.246986,0.935055
-0.126152,0.343528,0.815248,0.525241,0.376346,-0.763208
-0.039476,-0.064937,0.364243,0.775089,0.626650,-0.080914
0.050502,-0.263615,0.694904,0.469096,0.177135,0.865201
0.451575,0.007568,0.481973,-0.823668,0.473733,0.311685
-0.000752,0.572796,0.806137,-0.663141,-0.728778,0.170665
-0.599396,0.113946,0.938604,-0.234508,-0.675352,-0.699218
0.219522,0.743740,0.856822,-0.379231,-0.231306,-0.895925
0.224987,-0.318762,-0.660275,0.566853,0.755414,-0.328675
-0.463539,-0.466525,0.842202,-0.641156,0.671478,-0.371532
-0.206612,-0.512359,-0.981920,0.173922,-0.047412,-0.983617
-0.284151,-0.736226,0.808115,0.730730,-0.677549,0.083434
-0.614471,0.441333,0.908871,-0.153074,-0.805106,0.573038
-0.047011,0.521882,0.789894,-0.690580,-0.342755,0.636881
0.019314,-0.538078,0.392775,-0.426494,-0.881042,-0.204615
0.235821,-0.304262,-0.366197,0.934070,0.279002,-0.222870
-0.062558,-0.557979,0.765905,0.946018,0.256406,0.198257
0.059262,-0.639481,-0.964664,-0.110920,0.019742,-0.993633
0.040985,-0.778671,-0.970738,0.296113,-0.009854,-0.955102
0.070286,-0.481449,0.625905,0.596750,-0.404131,-0.693229
0.021577,0.714845,0.853479,-0.145558,-0.033240,-0.988791
-0.619841,0.475838,0.919465,-0.336732,0.870770,0.358289
-0.507820,0.659802,0.898537,0.829653,-0.337919,-0.444394
-0.023366,0.740354,0.813200,-0.628776,-0.525253,0.573368
-0.060390,0.941781,0.902963,0.703690,0.395449,-0.590288
0.884212,-0.438581,-0.924691,-0.137792,0.064778,0.988341
0.049277,0.222863,0.392987,-0.106261,0.988017,-0.111941
-0.193234,-0.711777,-0.981755,-0.180622,0.083586,0.979994
0.169683,-0.126331,0.704886,0.945877,-0.295065,-0.135109
0.186454,-0.046732,0.034924,0.980028,-0.115949,-0.161555
-0.331167,0.185285,0.959532,-0.268926,0.949918,0.159168
0.226117,-0.578407,-0.956354,-0.134347,-0.212713,0.967835
-0.103354,0.075309,0.794837,-0.531432,-0.196648,-0.823960
0.001790,0.345010,0.807456,0.992617,0.042642,-0.113549
-0.092802,-0.561684,-0.972198,-0.258392,0.149278,0.954437
0.105712,-0.238213,-0.050790,0.493497,-0.843038,0.213886
0.206709,0.153849,0.228033,-0.072341,-0.954774,0.288399
-0.277086,0.072770,0.913745,0.107894,-0.934419,-0.339441
-0.373938,-0.194392,0.889120,0.787409,0.112998,-0.605986
-0.096192,0.604126,0.840178,-0.582479,0.163478,-0.796236
-0.002448,0.288701,0.705922,0.837061,-0.457577,0.299921
0.695687,-0.450542,-0.931495,-0.155869,0.030330,0.987312
-0.593648,0.428631,0.924503,-0.519182,-0.089730,-0.849940
-0.103164,-0.653559,-0.974858,0.362777,-0.140772,-0.921182
-0.181270,0.197140,0.930906,-0.187658,0.695640,0.693447
0.225364,-0.305108,-0.652012,0.937366,0.295441,0.184551
0.301773,-0.273035,-0.761597,-0.495216,-0.841093,-0.217542
0.196062,-0.173644,0.141001,0.891441,0.445200,-0.084445
-0.022423,-0.295582,0.223490,0.389843,0.915875,0.095898
0.188995,-0.354220,0.765199,0.403886,-0.583824,0.704291
-0.069340,-0.505689,0.754182,0.817511,0.505488,0.275966
0.948654,-0.579677,-0.920831,-0.206025,0.044224,0.977547
0.100435,0.571313,0.600998,-0.171972,-0.712772,0.679986
-0.018938,-0.677268,0.610438,0.831769,-0.516262,-0.204044
-0.231109,-0.814236,0.638547,-0.523824,0.849621,0.061256
0.398625,-0.476158,-0.949904,0.025719,-0.355028,0.934502
-0.760034,-0.366711,0.902162,-0.225430,0.427601,0.875407
-0.076503,0.863985,0.848959,0.294434,0.196794,-0.935190
-0.184378,-0.416353,0.725720,-0.512493,-0.674147,0.531862
-0.533257,-0.576185,0.840484,-0.080043,-0.014888,0.996680
0.275203,-0.606455,-0.959203,-0.024851,-0.309164,0.950684
0.189751,-0.130139,0.759761,0.814221,0.516657,-0.264782
0.110893,-0.113733,0.805219,0.937406,0.194791,0.288664
0.167328,-0.104207,0.803077,0.087594,-0.046800,0.995056
-0.675900,-0.468748,0.903457,0.484398,0.622661,0.614534
-0.020539,0.605079,0.854515,0.953696,-0.149566,-0.260950
-0.212078,-0.582642,-0.978460,-0.278642,-0.154678,0.947857
-0.076598,-0.485051,-0.975470,0.259374,0.090691,-0.961510
-0.534482,-0.707859,0.860942,0.849897,0.146765,0.506098
-0.174956,-0.308176,0.438469,0.939832,-0.326234,0.101425
0.020916,-0.562741,-0.970644,-0.180022,-0.001508,0.983662
-0.283398,0.062078,0.921913,0.503488,0.553086,-0.663774
-0.537498,-0.602647,0.862707,0.324523,0.863346,0.386419
0.005087,0.241492,0.758537,0.871657,-0.068804,-0.485263
-0.592800,0.520612,0.939263,0.397324,-0.917158,0.030902
-0.636613,-0.447260,0.891804,-0.459802,-0.824395,-0.330083
-0.075841,-0.381425,-0.973186,0.275252,-0.033785,-0.960778
-0.208027,0.112147,0.807691,-0.134039,0.962450,0.236058
0.162805,-0.232285,-0.587956,0.758489,-0.619382,0.202633
-0.129826,0.603493,0.864496,0.315673,0.854220,0.413108
0.044846,0.023128,0.841402,-0.013144,0.114027,0.993391
-0.090258,0.343741,0.777582,0.955634,0.112960,-0.272036
0.088092,-0.602224,0.043634,-0.612405,0.780531,0.125426
0.603731,-0.110771,-0.942206,-0.010389,0.195999,0.980549
-0.486526,0.376024,0.895241,0.195451,-0.621761,-0.758427
0.152063,-0.204764,0.379945,0.523425,0.844033,-0.116770
0.177598,-0.544958,-0.958308,-0.120887,0.056649,0.991049
0.262107,0.188781,0.309321,0.287397,0.951708,-0.107956
-0.196060,-0.722679,0.655661,-0.479195,0.794630,-0.372740
-0.714620,0.216299,0.873301,0.531298,0.827695,-0.180673
0.017431,-0.199153,0.691985,0.955293,-0.062686,0.288938
0.207745,-0.045356,0.822098,-0.428203,-0.900050,0.080945
-0.417561,-0.061659,0.873630,0.910580,0.250694,-0.328627
-0.395704,-0.799736,0.848488,-0.070893,0.947714,0.311148
0.007256,0.814130,0.864708,0.819822,0.374998,-0.432744
-0.043150,-0.084309,0.404781,0.245901,0.887934,0.388725
-0.017052,-0.495423,-0.976106,0.201123,0.015280,-0.979447
0.097986,-0.209102,0.446285,0.219428,0.965013,0.143530
-0.871961,-0.296851,0.916993,0.193550,0.852228,0.486051
-0.184191,0.541676,0.867250,-0.579792,0.741673,0.337287
-0.045318,0.752313,0.840790,0.995235,-0.097275,0.006701
-0.139153,-0.242128,0.894464,0.995762,0.020456,0.089664
0.141324,-0.474782,0.343127,0.933532,-0.193536,0.301763
0.169872,-0.246256,0.384795,0.953774,0.294071,0.061950
0.039193,0.215136,0.286980,-0.165736,0.952027,-0.257247
0.176278,-0.244667,-0.217369,0.982705,-0.156665,0.098732
-0.081494,0.323207,0.809150,-0.191113,-0.774425,0.603110
-0.126813,-0.290394,0.330061,-0.615612,0.668174,-0.417810
-0.247690,0.161789,0.772614,0.397722,-0.873508,0.280716
-0.105709,0.060173,0.827277,0.446309,-0.662947,-0.601090
-0.135859,0.558929,0.857410,0.863400,-0.492141,0.111076
0.076597,-0.456470,0.464765,-0.252494,0.966325,-0.049632
-0.200206,-0.394126,0.937639,0.131461,0.247421,0.959948
-0.421518,-0.030325,0.861295,0.336096,-0.046935,-0.940657
-0.036931,-0.398994,0.454924,0.749583,0.508276,0.424006
-0.052382,0.683935,0.795732,-0.160405,-0.760264,0.629499
0.147543,-0.339403,-0.011241,0.994145,0.083541,-0.068533
-0.322121,0.111721,0.840743,-0.723158,-0.339512,-0.601477
0.283777,0.601268,0.670186,0.008182,0.820942,0.570953
0.310723,0.162742,0.334769,0.474041,0.880375,-0.015002
-0.377426,-0.660755,0.751262,0.898065,-0.329938,0.290897
0.196911,-0.272505,-0.631108,0.742689,-0.494528,-0.451502
-0.471641,0.496692,0.928175,0.880592,-0.336258,0.333898
0.018656,0.343424,0.698177,0.960104,0.250609,-0.124075
0.537216,-0.184652,-0.942206,0.011807,0.128980,0.991577
0.027324,0.280971,0.646527,0.979324,-0.102551,0.174377
-0.661296,-0.440277,0.894252,-0.578967,-0.686740,-0.439529
-0.278875,0.362053,0.917323,-0.553859,0.802384,0.222306
-0.591012,0.517330,0.931565,0.840732,0.205495,0.500940
0.276428,-0.643503,-0.963841,0.052579,-0.176389,0.982915
-0.522515,0.228261,0.888861,0.222128,0.195641,0.955188
0.212362,-0.322997,-0.954801,-0.281398,-0.302817,0.910559
-0.584134,-0.311245,0.887802,0.920955,-0.007436,0.389597
0.539948,-0.565813,-0.943524,0.342640,0.120264,-0.931737
-0.612492,0.209209,0.912709,0.499489,0.109957,0.859314
0.347656,-0.220431,-0.919559,0.817740,0.466700,0.336886
0.006974,-0.274411,-0.973492,0.208010,-0.018353,-0.977955
0.105240,-0.336331,0.060089,0.744986,0.036115,0.666101
0.389202,-0.395609,-0.942818,0.159404,-0.304070,0.939219
-0.425945,0.489919,0.903104,-0.287629,-0.865612,0.409860
-0.351704,-0.449803,0.670845,0.798805,-0.581864,-0.152792
0.045789,-0.236410,0.592971,0.921315,0.373685,0.107420
-0.231767,-0.371686,0.354214,0.904960,-0.413782,-0.099154
-0.368475,0.336754,0.934979,0.974509,0.182794,-0.130073
-0.079705,-0.838369,-0.976859,-0.079262,0.025482,0.996528
-0.090539,-0.772744,-0.975941,0.380472,0.136092,-0.914724
-0.134162,-0.536385,0.680356,0.323691,-0.616709,0.717561
0.232241,-0.224345,-0.048366,0.254041,0.947393,-0.194706
0.176937,-0.275680,-0.521028,-0.744324,0.641781,0.184657
0.257115,-0.240752,-0.826430,0.036412,0.989356,0.140888
-0.192385,-0.369147,0.723060,-0.060504,-0.671127,0.738870
-0.689088,-0.592061,0.936556,0.742242,0.473952,0.473759
0.132750,-0.137340,0.055475,-0.503457,0.863354,-0.033919
-0.164780,0.495316,0.843450,0.818729,-0.465191,0.336572
0.012155,-0.675046,0.071931,0.854939,-0.510115,0.094139
-0.182023,0.743530,0.861177,0.942999,-0.322452,-0.082326
-0.301299,0.181687,0.901786,-0.778232,0.299372,-0.552025
0.248541,-0.227414,-0.869204,-0.483568,-0.874517,0.037178
-0.012437,0.453401,0.819885,0.653182,-0.696777,0.296404
0.007445,-0.648054,0.126758,-0.480902,0.859947,0.170953
0.046637,0.878379,0.895712,0.999825,0.001827,-0.018591
0.009895,0.434452,0.803924,-0.744852,0.306430,0.592702
-0.672697,-0.324583,0.877067,0.180094,0.705996,-0.684935
-0.107782,-0.710611,0.632591,-0.435282,0.883827,-0.171400
-0.081966,0.026090,0.841355,0.292257,-0.639401,-0.711163
0.174677,0.045142,0.091211,0.978455,-0.206383,0.005701
0.311853,-0.303308,-0.692315,-0.522844,0.835308,0.169986
-0.724042,-0.095741,0.804842,-0.472630,0.001890,-0.881259
0.745526,-0.253876,-0.929023,-0.251408,0.079770,0.964588
0.032506,0.965598,0.890886,0.791256,0.574123,-0.210467
0.276241,-0.137443,0.825112,0.946038,0.005596,0.324009
0.120030,0.654298,0.821698,0.271493,0.714038,-0.645323
0.107313,0.258957,0.780854,0.564607,0.211636,-0.797765
-0.581023,0.535009,0.928764,0.666642,-0.667847,0.331013
-0.274824,0.197034,0.926386,-0.599378,-0.505969,-0.620275
-0.677783,0.412225,0.920218,0.067513,-0.695858,0.714999
0.173262,-0.520509,0.315301,0.803134,0.434366,0.407802
0.147448,-0.204657,-0.218240,0.997607,-0.068700,-0.007820
-0.602504,0.413178,0.929517,0.631205,0.601838,0.489256
-0.102788,0.809471,0.847264,0.359269,0.838983,-0.408698
-0.544844,0.313361,0.929329,0.226497,0.632681,-0.740549
-0.377989,-0.834557,0.822428,-0.448764,-0.884830,0.125251
-0.432823,-0.557873,0.787445,-0.797503,0.263819,-0.542576
-0.784151,0.315796,0.899243,-0.130861,0.171104,-0.976524
-0.447803,-0.171315,0.730146,0.809864,0.489882,0.322701
0.393915,-0.678435,0.724684,-0.661493,-0.741269,0.113790
0.010082,0.245936,0.768871,0.988255,-0.142774,-0.054484
-0.308743,0.282877,0.793684,-0.693155,-0.676101,-0.249846
0.213587,-0.416460,0.495133,-0.458090,0.383179,0.802077
-0.570471,0.113523,0.879445,0.968163,0.224042,0.111654
0.144338,-0.280762,-0.667879,0.646117,0.759813,0.072221
-0.661201,-0.191743,0.819885,0.257591,0.851617,0.456504
0.189938,-0.589522,-0.959368,-0.398094,-0.199593,0.895368
-0.768513,-0.339190,0.911249,0.764425,0.479115,0.431398
0.145375,-0.274201,-0.575903,0.935332,-0.330442,-0.126343
0.330884,-0.522095,-0.954942,-0.198506,-0.288569,0.936655
-0.309025,-0.735910,0.786386,-0.480717,0.795676,0.368525
-0.894480,-0.214713,0.913368,0.969292,0.106149,0.221823
0.195686,-0.346177,-0.371305,0.945095,0.160132,-0.284874
-0.580270,0.402909,0.917205,-0.632723,0.738015,-0.234510
-0.422742,0.452448,0.866921,0.175707,-0.725861,0.665021
0.096948,-0.211961,-0.387808,-0.613167,-0.787637,0.060448
-0.410778,-0.923260,0.745989,-0.378489,-0.564075,-0.733870
0.210007,-0.193542,-0.871182,0.555964,0.824148,0.108090
-0.301299,0.444085,0.960097,0.991284,-0.035379,-0.126902
-0.735632,0.468431,0.921890,0.992059,0.033252,-0.121297
0.707840,-0.402699,-0.931989,-0.223030,0.001541,0.974810
0.135482,-0.239269,-0.295926,0.898223,0.432489,0.078411
-0.243262,-0.791266,-0.983286,-0.261157,-0.088202,0.961258
-0.420954,0.190157,0.950281,0.227046,0.969383,-0.093523
0.397308,-0.725218,-0.949268,-0.277325,0.448498,-0.849671
0.167328,-0.353480,0.015172,-0.822240,-0.561314,0.094068
-0.226114,-0.134058,0.869911,0.305306,0.733684,0.607039
-0.340399,-0.724371,-0.989689,-0.209744,-0.044188,0.976757
0.003299,-0.523791,-0.966312,-0.096106,-0.200016,0.975068
0.028831,-0.298757,0.238933,0.011889,0.910837,0.412594
0.193803,-0.067056,0.026943,0.886938,-0.166849,-0.430700
-0.451008,0.297168,0.851784,0.330772,0.499457,0.800707
-0.053889,0.438157,0.787422,0.870196,-0.415469,-0.264848
-0.556058,0.546334,0.928999,0.750021,0.658643,-0.060484
0.338328,-0.224239,-0.915510,0.859396,0.290148,0.421014
0.310439,-0.281081,-0.812729,-0.149159,0.968246,0.200625
-0.353682,-0.383011,0.838624,0.383573,-0.320224,0.866215
-0.051724,-0.410110,-0.972716,-0.129491,-0.026819,0.991218
0.227437,-0.447580,0.120473,0.578674,0.770479,-0.267392
-0.605992,-0.245197,0.892934,0.792824,0.244274,0.558355
0.105051,-0.369463,-0.962004,-0.294689,-0.041779,0.954679
-0.175522,-0.307120,0.926716,0.356027,0.246238,0.901450
-0.555304,0.632707,0.979448,0.411347,-0.883915,0.222460
0.431034,-0.355173,0.531386,0.813373,-0.578260,-0.063556
-0.098927,-0.184969,0.794649,0.325060,-0.047304,0.944509
-0.624079,0.494363,0.942065,0.228684,-0.932893,0.278235
-0.297153,-0.134374,0.905811,0.851924,-0.523622,0.006755
0.131430,-0.099656,0.647680,-0.095680,-0.264038,0.959755
-0.141040,0.747338,0.861389,0.291768,-0.410863,0.863750
-0.659034,0.600634,0.916216,0.797636,-0.561165,0.221069
-0.222911,0.178828,0.727933,0.118550,0.920207,-0.373049
-0.491992,0.072454,0.903928,-0.174700,-0.984424,0.019739
-0.569531,0.312411,0.914286,0.405657,0.588537,0.699333
-0.137460,0.725428,0.854656,0.803535,0.437821,-0.403292
-0.538723,0.493940,0.910896,-0.340668,0.931492,-0.127546
-0.141040,-0.179995,0.854138,0.892363,0.172749,0.416948
-0.363199,-0.426303,0.659404,0.881141,-0.235355,0.410121
0.043245,-0.759620,-0.970738,0.220320,-0.036679,-0.974738
0.044469,-0.139242,0.633650,0.716976,-0.666528,0.204171
0.057095,-0.381105,-0.967042,0.181310,0.030241,-0.982961
-0.593271,-0.326172,0.872900,-0.191941,0.787357,-0.585857
0.236764,0.382268,0.386607,0.413351,-0.906303,-0.088070
-0.156114,-0.604446,0.566604,0.107312,-0.510183,0.853345
-0.063406,-0.331253,0.293125,-0.798717,0.579219,0.162961
-0.440549,-0.132575,0.881540,0.878270,0.265769,0.397503
0.549088,-0.063668,-0.943054,-0.048055,0.233926,0.971066
-0.552006,0.487589,0.919465,0.857423,-0.397521,0.326807
0.343700,-0.683196,-0.958920,-0.190378,-0.113569,0.975120
-0.201808,0.552368,0.891098,0.343963,-0.747401,0.568402
-0.887789,-0.271978,0.901833,-0.336883,-0.896001,0.289297
0.046827,-0.488436,-0.965912,-0.170407,-0.215975,0.961414
-0.709816,-0.509077,0.948091,0.429359,0.757571,0.491668
0.014981,0.397302,0.470885,0.918427,0.342570,-0.197835
-0.416523,-0.731888,0.792907,0.853829,0.510019,-0.104194
0.060582,0.174807,0.529032,0.080885,0.988446,0.128190
-0.326644,-0.376874,0.676848,0.869315,-0.390559,-0.302911
-0.020255,0.680127,0.848559,-0.446246,0.894007,-0.040202
0.025251,0.226778,0.588686,0.779964,0.624639,0.038501
-0.336819,-0.805343,-0.984133,-0.179008,-0.241567,0.953730
-0.579329,-0.289864,0.882293,0.837269,0.181064,0.515943
0.132845,-0.256419,-0.303789,0.857453,0.499741,-0.122613
0.181554,-0.000688,0.695046,0.880903,-0.428673,-0.200625
0.185700,-0.355810,0.656909,-0.780307,0.600223,0.175651
-0.131146,-0.225086,0.405440,0.436760,-0.897223,-0.065055
0.131243,-0.223500,-0.237638,0.775600,0.566873,-0.277668
-0.154041,0.512992,0.830667,-0.738425,0.036549,-0.673344
0.272190,-0.679811,-0.962428,-0.232577,0.152909,0.960483
-0.141603,0.007249,0.858940,0.859632,-0.361196,0.361346
0.211891,-0.511616,-0.962781,-0.156354,-0.053455,0.986254
0.031376,-0.167823,0.562744,0.963255,0.136099,0.231554
0.174582,-0.180948,0.339407,-0.729668,-0.683629,-0.015364
0.361129,-0.653875,0.736172,-0.528817,-0.839322,0.126058
-0.179573,-0.614712,0.785868,0.350500,0.539100,0.765847
0.685511,-0.588993,-0.928246,0.199022,0.157363,0.967278
-0.277840,0.163482,0.947056,0.860708,-0.456513,0.225339
-0.770963,-0.488436,0.931236,0.556275,0.341363,0.757647
-0.589882,-0.597776,0.867298,0.798439,0.091389,0.595099
-0.009702,0.449482,0.830809,-0.608316,-0.163957,-0.776576
-0.559071,0.603493,0.901597,0.463022,-0.651683,-0.600766
0.113343,-0.639588,0.061360,0.626921,-0.759583,-0.173217
-0.485960,0.540300,0.914828,0.758079,0.106266,0.643446
-0.280008,-0.484837,0.902186,0.925828,-0.377093,0.025354
-0.273412,-0.289655,0.925633,0.897148,0.385521,0.215638
-0.171000,-0.249538,0.354403,0.957942,-0.286552,0.015315
0.191163,-0.379096,-0.179444,0.990405,0.137609,0.012706
0.221500,-0.518180,-0.962146,-0.398692,-0.113679,0.910012
0.033164,0.940512,0.843592,-0.312267,0.666898,0.676562
-0.691728,0.459538,0.986464,0.602581,-0.617245,0.505871
0.416431,-0.565706,-0.952705,0.223131,0.243062,-0.943999
0.144904,-0.350198,0.783679,0.990528,-0.055654,0.125523
0.459205,-0.083886,0.549137,-0.246124,0.942601,0.225667
-0.255511,-0.553005,-0.984675,-0.155553,-0.057743,0.986139
-0.079516,0.108229,0.829937,-0.276206,0.952773,0.126229
-0.423404,-0.577984,0.793778,-0.692018,0.064052,-0.719033
-0.174579,-0.231966,0.318314,0.962183,-0.249656,-0.108975
-0.121442,-0.415717,0.717434,-0.400650,0.462551,-0.790902
-0.628321,0.404285,0.952517,-0.610627,0.745112,-0.268222
-0.542018,0.274940,0.904681,0.927397,0.008795,-0.373974
-0.130674,-0.899443,-0.982038,-0.342088,0.010134,0.939613
-0.478142,-0.605399,0.829231,-0.665737,0.503060,-0.551113
-0.005275,0.348609,0.634121,0.975883,-0.161036,0.147377
0.027416,-0.164858,0.621809,0.944467,-0.011266,0.328412
-0.013190,-0.171208,0.764587,-0.369229,0.650984,0.663242
-0.039099,-0.153746,0.771861,0.385665,0.691255,-0.611089
0.006502,0.674093,0.813694,0.282859,0.507570,-0.813857
0.187394,-0.460704,-0.964712,0.147472,0.213221,-0.965810
0.331638,-0.381635,0.143072,0.961082,-0.080070,-0.264406
0.169401,-0.389891,-0.700507,0.934739,0.353525,-0.035836
0.303938,-0.388832,0.158939,0.927753,0.140702,-0.345656
0.303093,-0.507808,-0.953435,-0.022710,-0.216196,0.976086
-0.044938,0.463667,0.779277,0.600410,0.488258,-0.633334
0.163087,-0.267744,-0.362336,-0.708916,-0.703697,0.047423
0.502075,-0.074890,0.650247,-0.761791,-0.114220,0.637674
0.100246,0.592588,0.854232,0.493062,-0.267539,-0.827836
-0.324947,-0.302142,0.646527,0.934033,0.127214,0.333766
-0.369323,-0.533950,0.773886,0.785180,-0.619206,0.008699
-0.495948,0.086318,0.931165,0.330572,0.822586,-0.462682
0.214622,-0.758877,-0.962569,0.136175,0.178261,0.974515
-0.166195,-0.689547,0.640642,0.810592,-0.584084,-0.042276
0.078670,-0.198200,0.058959,0.760999,-0.571046,-0.307875
-0.595911,0.656417,0.977447,-0.437676,0.888790,-0.135983
0.315057,-0.220854,-0.824853,-0.063940,0.996289,-0.057616
-0.285942,-0.051920,0.895170,0.530037,0.703553,0.473364
-0.037874,-0.591955,0.749473,0.144692,0.850300,0.506018
-0.198417,-0.301826,0.810210,0.972684,-0.181689,-0.144481
-0.392216,-0.535962,0.813458,0.374038,0.803785,0.462629
-0.530149,-0.068009,0.749049,-0.060904,0.970812,0.231980
0.144432,-0.301403,-0.410125,0.899148,0.433756,-0.058206
0.179481,-0.134481,-0.951976,0.453827,0.044754,-0.889965
0.081873,0.152156,0.248302,-0.143991,0.988769,-0.040017
-0.057753,0.739611,0.847476,0.784979,0.160309,-0.598422
-0.050876,-0.234508,0.254352,-0.761590,-0.620645,-0.186498
0.130301,-0.152370,0.191332,0.264796,-0.959005,-0.100957
-0.491615,0.217569,0.853220,0.958593,-0.047001,-0.280873
-0.475316,0.138819,0.890462,-0.347385,-0.193965,-0.917443
0.108348,-0.465786,0.649093,0.850607,0.476884,-0.221472
0.444036,-0.309446,-0.935591,-0.035765,-0.069783,0.996921
0.175617,-0.317172,-0.640830,0.811022,0.322550,0.488063
0.298285,-0.405875,0.377426,-0.821365,0.238330,0.518227
-0.664971,-0.428738,0.886201,-0.136664,-0.938776,-0.316264
0.177031,-0.240116,0.429076,0.188043,0.981448,0.037411
-0.419729,-0.033607,0.862683,-0.339194,0.048659,0.939457
-0.840776,-0.202752,0.895265,0.864118,0.322266,0.386580
-0.269924,0.010744,0.886295,0.521153,0.001376,0.853462
0.426983,0.012227,0.477665,0.891420,-0.363102,-0.271160
-0.203409,-0.303415,0.689325,0.856942,0.412098,-0.309556
0.266629,-0.293359,-0.658816,0.857888,-0.427927,0.284441
-0.492555,0.129080,0.902633,-0.484028,-0.865023,-0.132109
0.503300,-0.128553,-0.942748,0.134228,-0.337352,-0.931760
0.301868,-0.757291,-0.960733,0.309900,0.120337,-0.943123
-0.237233,-0.293676,0.529103,0.205885,-0.975619,0.076015
-0.000094,-0.064937,0.792248,-0.369138,0.760488,-0.534225
-0.088184,-0.439110,0.652012,-0.798496,0.111012,0.591676
0.119843,-0.366605,0.211695,-0.337870,-0.935716,-0.101385
-0.304220,-0.409050,0.609144,-0.269370,0.928291,0.256350
-0.007253,0.291133,0.539226,0.950763,-0.288560,0.113060
0.010177,0.331250,0.757383,0.940816,-0.338917,0.000342
-0.038156,0.752103,0.847711,-0.711663,-0.295349,0.637421
-0.109571,0.680973,0.832150,-0.091073,0.322073,0.942324
-0.281419,-0.392644,0.891710,-0.806486,0.575769,-0.134428
-0.051063,-0.741201,-0.972292,0.233487,0.031830,-0.971839
0.154421,-0.456470,0.406194,0.392743,-0.866421,0.308331
-0.450537,0.113203,0.903669,-0.376990,-0.878863,-0.292366
-0.505276,0.329027,0.895547,0.694939,-0.023536,0.718684
-0.666759,0.200316,0.930341,-0.636811,-0.433793,0.637413
0.176655,-0.407357,0.607778,0.973064,0.125748,-0.193220
-0.423496,-0.140302,0.872736,0.832114,-0.282256,-0.477408
0.365367,-0.586980,0.608955,0.120974,-0.975581,-0.183322
0.180801,-0.263402,0.509729,-0.413790,0.755859,-0.507400
-0.245146,0.677268,0.853691,0.979850,0.118686,0.160646
-0.104295,0.793911,0.837282,0.413139,0.481542,-0.772939
-0.254568,0.186982,0.896206,-0.300309,0.030880,-0.953342
-0.314114,0.108335,0.972480,0.871126,-0.159735,0.464353
-0.545600,-0.564963,0.840649,0.930829,0.174087,0.321328
-0.130674,-0.733791,0.796768,-0.469661,0.233513,-0.851405
0.140194,-0.416670,0.196535,0.116340,0.991519,-0.057922
-0.236575,0.220321,0.903504,0.817255,-0.558969,0.140169
0.290468,-0.343424,-0.678967,-0.313174,0.926610,0.208124
-0.624646,0.317916,0.903951,0.383944,0.512635,0.767979
0.205013,-0.273988,0.291948,0.591473,0.806300,-0.006311
0.419824,0.092562,0.434443,0.988486,0.112911,-0.100731
0.194651,-0.182853,0.091658,0.649453,0.760001,-0.024695
-0.303277,0.312621,0.835776,0.851897,0.523552,0.012807
0.191445,0.002381,0.068752,0.984547,0.096139,0.146374
0.155738,-0.253983,-0.956095,0.451045,-0.067740,-0.889927
-0.663651,-0.120404,0.799969,-0.486615,0.288147,-0.824729
-0.164875,-0.403439,0.575974,0.806809,0.505830,-0.305279
-0.048049,-0.253666,0.790176,-0.342433,0.297034,0.891353
-0.564160,0.414977,0.924244,-0.769017,-0.264103,-0.582118
0.322687,-0.602857,0.729298,-0.401315,-0.911646,0.088590
-0.530808,0.090023,0.885825,-0.180829,0.053927,0.982035
-0.542584,-0.101455,0.781113,0.405047,-0.895460,0.184632
-0.243452,-0.110771,0.931542,0.848786,0.525705,-0.056544
0.170907,-0.218948,-0.182057,0.408722,0.912477,0.018203
-0.456000,0.463457,0.886036,0.745668,-0.497977,0.442717
-0.362728,-0.548980,0.778123,0.863135,-0.492844,0.110012
0.215188,-0.234931,-0.494380,0.597468,-0.793684,0.114442
0.336160,0.369357,0.479666,-0.761475,0.648160,0.006616
-0.503297,0.534373,0.880646,0.268403,0.892982,-0.361306
-0.353496,0.482508,0.873748,0.430221,0.894860,-0.118894
-0.109855,-0.615032,0.632049,0.774945,0.408696,0.482108
-0.036367,0.825985,0.886648,0.564869,-0.024220,-0.824825
-0.665158,0.122413,0.930459,0.832962,-0.088650,-0.546183
-0.258619,-0.767347,-0.986935,0.068386,0.180565,0.981183
0.226684,-0.268697,0.734807,0.566885,0.700212,0.433986
0.332015,-0.614289,0.625505,0.887694,0.450645,-0.094440
-0.681552,-0.452661,0.906470,0.122704,0.532925,0.837219
-0.608723,-0.474889,0.885472,0.467232,0.554496,0.688643
-0.394102,0.300873,0.787846,-0.304533,0.862054,-0.405119
0.157434,-0.192063,-0.556482,0.490484,-0.870865,-0.031933
0.252121,-0.251444,-0.405346,0.920746,-0.156473,0.357412
0.175148,0.561151,0.631202,-0.595382,0.802067,-0.046994
-0.007348,-0.096480,0.407112,0.517931,0.823240,0.232430
-0.009702,0.430747,0.803783,-0.640164,0.227445,0.733798
-0.308176,-0.180948,0.717316,-0.306388,0.933777,0.184894
0.065292,-0.845566,-0.969655,-0.229296,0.043889,0.972367
0.278406,0.197460,0.637840,-0.047402,-0.167376,0.984753
-0.128602,-0.621806,-0.978695,-0.275873,0.093463,0.956639
0.058319,-0.642656,0.112516,-0.321354,0.944264,-0.071397
-0.250988,0.083672,0.758984,0.733835,0.288778,0.614892
-0.630580,-0.055201,0.913862,0.634695,0.253485,0.730005
0.340683,-0.347236,-0.945455,0.335899,0.388584,-0.858006
-0.267193,-0.846626,-0.985522,0.021667,-0.021366,0.999537
-0.623139,0.214393,0.936533,-0.276991,0.264924,0.923629
-0.272187,-0.121886,0.930318,0.760651,0.637229,-0.123891
-0.075183,-0.608575,-0.975823,-0.339809,0.253325,0.905735
-0.449404,0.544429,0.909413,0.933140,-0.101955,0.344755
0.717449,-0.603070,-0.931801,-0.323081,0.185838,0.927945
0.194461,-0.243927,-0.828902,-0.352940,-0.923466,-0.150480
-0.209251,-0.247842,0.924927,-0.530721,0.267050,0.804375
-0.344637,0.102091,0.924950,-0.590535,-0.650059,0.478217
-0.503579,0.395712,0.863460,-0.197591,0.657504,-0.727081
0.302903,-0.655994,-0.956849,-0.145999,-0.052048,0.987915
0.196721,-0.194179,-0.123462,0.911292,0.396624,-0.110613
0.053328,0.565809,0.785374,-0.257728,0.908862,-0.327942
-0.237138,-0.153746,0.684476,0.901727,0.287498,0.322851
0.072923,-0.380579,0.651235,-0.210875,0.949810,0.231069
-0.765497,-0.321301,0.911414,0.723849,0.562136,0.400057
0.376486,-0.241492,-0.930200,0.518609,0.296324,0.802020
-0.630017,0.424713,0.931872,0.901656,-0.013029,0.432258
0.206333,-0.244034,0.798251,0.879899,0.070624,0.469883
-0.009797,0.458798,0.850913,0.801543,0.132824,-0.582998
-0.134726,-0.305954,-0.978130,-0.176572,-0.046738,0.983178
-0.369229,0.008625,0.901950,0.861590,0.193905,-0.469109
-0.219614,-0.325749,0.772897,-0.426535,-0.696369,-0.577181
-0.085545,-0.341835,0.312287,0.074735,-0.984187,0.160596
-0.498961,-0.041651,0.761574,0.054545,0.959526,0.276288
0.158940,-0.319079,-0.017056,0.995319,0.033810,-0.090538
-0.116071,0.360784,0.818332,0.214684,-0.149174,-0.965224
-0.353967,-0.353587,0.842202,0.892615,-0.058871,-0.446960
0.003676,0.450012,0.782337,-0.601843,-0.491149,0.629728
-0.016488,-0.834348,-0.972198,0.239785,-0.053043,-0.969376
-0.033161,0.269436,0.665525,0.913414,-0.061088,-0.402422
0.052385,0.396771,0.711784,0.947200,0.275546,-0.163973
-0.387035,0.074253,0.857222,0.704287,-0.227969,0.672316
0.306011,0.328711,0.410667,0.809966,0.410568,-0.418796
0.559355,-0.454247,0.530398,0.888031,-0.355924,-0.291064
0.164596,-0.485897,0.650129,0.972034,0.113566,0.205554
-0.589787,0.623178,0.897901,-0.353529,-0.312921,-0.881532
-0.842941,-0.305638,0.900232,0.160016,0.869783,0.466768
-0.040510,-0.318232,0.732335,0.796121,-0.026417,-0.604560
-0.171376,-0.668272,0.813553,0.500096,-0.640288,0.583039
-0.582532,-0.057001,0.799922,0.345271,-0.748887,0.565646
-0.811851,-0.341625,0.938746,0.769163,-0.139169,0.623715
0.187770,-0.345964,0.163859,-0.300045,0.904533,0.302974
0.188150,-0.552475,0.256236,0.692995,0.527580,0.491342
-0.365836,0.417306,0.896206,0.771301,0.184647,0.609098
-0.379876,0.250171,0.785421,0.569757,-0.011020,0.821739
0.070473,0.703413,0.839754,0.307710,0.888632,-0.340070
0.157152,-0.327655,0.331521,0.065884,-0.955095,-0.288882
0.172885,-0.184016,-0.939405,0.876492,0.122668,-0.465526
0.029303,-0.059856,0.365867,0.594234,0.804140,-0.015651
0.492463,0.701931,0.621173,-0.554728,0.757395,-0.344426
-0.498961,-0.604130,0.782125,0.879195,-0.242983,-0.409847
-0.487564,0.212068,0.927375,0.244511,-0.957149,-0.155179
-0.235913,0.144323,0.928340,-0.071590,0.529415,0.845337
0.110893,-0.441756,0.284697,0.955293,0.295002,-0.019706
0.841909,-0.512782,-0.922855,0.299446,0.014709,-0.954000
0.134918,-0.361207,-0.064491,0.839105,0.542721,0.036836
-0.177690,-0.788621,-0.977518,-0.263163,-0.043387,0.963775
0.114472,-0.114583,0.120073,0.970835,-0.224950,-0.082922
0.130772,-0.385553,-0.067269,0.839105,0.542721,0.036836
-0.300546,0.325745,0.950822,0.656091,0.239473,0.715680
-0.560109,-0.084416,0.785939,0.440282,-0.847170,0.297414
-0.077351,0.527176,0.697988,0.987720,0.154964,0.019907
0.410402,0.001641,0.501277,0.993762,-0.099045,0.051264
-0.628507,0.390101,0.914592,0.812152,-0.578881,-0.072845
0.260413,-0.259594,-0.367374,0.828035,0.542250,-0.142559
-0.359902,-0.772428,-0.989077,-0.277469,0.143978,0.949885
-0.043055,0.924106,0.849665,-0.721701,0.670811,0.170764
-0.637366,-0.141994,0.798157,-0.406823,0.551052,-0.728585
-0.488599,0.476898,0.886766,0.820869,-0.522302,0.231031
0.254852,-0.460811,0.538378,0.725732,0.687968,0.003655
0.500566,-0.075416,-0.941829,0.082443,0.102786,0.991281
0.099211,-0.314634,0.122544,0.660942,0.715570,0.226088
-0.467682,0.196824,0.901103,0.900045,0.343030,-0.268791
-0.743827,-0.222017,0.865414,-0.481329,-0.813719,-0.325858
-0.010364,0.709658,0.861742,0.869801,0.267850,-0.414370
0.095818,-0.180311,-0.155337,0.157826,-0.985707,0.058924
0.332391,-0.284890,-0.709547,0.597312,-0.794813,-0.107192
-0.394289,0.190260,0.879727,-0.491679,0.428991,0.757772
-0.290841,-0.427679,0.807503,0.748180,-0.245209,0.616522
0.174392,-0.210269,0.374790,0.793906,0.606992,-0.035707
-0.198699,-0.329454,0.717127,-0.129667,0.973827,0.186674
-0.300546,0.358455,0.936344,0.337107,-0.941304,0.017481
-0.580083,-0.437101,0.877138,0.061423,0.799059,0.598108
0.291316,-0.352741,0.384465,0.700167,-0.041137,-0.712793
-0.235537,0.694204,0.880504,0.068212,0.400751,0.913644
-0.633502,0.461021,0.925445,0.744068,0.373823,0.553731
0.200680,-0.346707,-0.552432,-0.005484,-0.958593,0.284728
0.459205,-0.586027,-0.949645,-0.321916,-0.033817,0.946164
-0.052477,-0.622229,0.635110,-0.697880,-0.244367,-0.673237
0.399568,-0.438477,0.179632,0.988844,0.120412,-0.087680
0.323064,-0.165917,-0.918147,0.833295,0.537239,0.130359
-0.306198,-0.131199,0.947832,-0.595363,-0.732838,-0.329381
-0.091669,0.541676,0.812823,0.852325,-0.298736,-0.429300
-0.338797,-0.593647,0.743164,0.855611,0.495464,0.149815
-0.605710,-0.253876,0.902209,0.908950,0.368211,-0.195525
0.127569,-0.300133,-0.963393,-0.323101,-0.079530,0.943017
0.128794,-0.183913,0.127818,0.306634,-0.951118,-0.036750
0.189657,-0.604656,0.323046,0.769700,-0.255719,0.584953
0.111551,-0.497962,-0.047495,0.970288,-0.196641,0.140973
-0.467213,0.009791,0.866732,0.882118,-0.010080,-0.470921
-0.643114,-0.113310,0.842226,0.847788,-0.528503,-0.044053
-0.099866,-0.696004,0.645373,-0.733174,-0.293181,-0.613597
-0.382136,-0.797514,0.749238,0.087744,-0.499341,0.861951
0.009516,0.133631,0.763527,0.815404,-0.558107,-0.153729
0.452423,-0.274201,0.613828,0.017236,0.268438,0.963143
-0.073015,-0.680763,0.711807,0.037128,-0.428100,0.902968
-0.195968,-0.349775,0.735960,0.280822,0.922394,0.265194
-0.393159,0.070548,0.903692,0.224119,0.954594,-0.196266
-0.361221,-0.152370,0.840013,0.156198,0.445632,0.881484
-0.354907,-0.055835,0.900985,0.947834,0.233966,-0.216498
0.789902,-0.568775,-0.925680,-0.250801,0.147976,0.956662
-0.207650,-0.714845,-0.982768,0.256998,-0.117625,-0.959227
0.073018,0.323736,0.491814,0.930854,-0.266974,-0.249472
0.105712,-0.327655,0.682263,0.984824,0.104898,-0.138267
0.008857,0.318232,0.677390,0.818944,0.502731,-0.276755
-0.538723,0.250594,0.891710,-0.280387,0.874525,-0.395712
0.180516,-0.357396,-0.617712,0.782842,-0.569158,0.251432
-0.473524,0.140408,0.968266,-0.275683,0.883212,0.379389
-0.511871,0.034347,0.886437,-0.064745,0.156896,0.985491
0.236293,-0.438054,0.087633,0.698979,0.708184,-0.099516
0.904373,-0.513945,-0.921325,0.011243,0.029426,0.999504
0.154136,-0.809792,-0.964029,0.257604,0.082434,-0.962728
-0.353306,-0.606139,0.880292,0.833591,0.388870,0.392308
0.159225,-0.365758,-0.960874,0.319302,0.286652,-0.903259
-0.080741,-0.137126,0.836082,0.719677,0.428586,0.546241
0.091014,-0.196824,-0.032522,0.992615,-0.121268,0.003043
0.107029,-0.151733,0.578116,0.347667,0.934603,-0.075133
0.009610,-0.102408,-0.049849,0.688362,0.706196,-0.165665
0.257773,-0.255359,-0.921137,0.226356,0.968661,-0.102265
-0.267383,-0.699392,0.631978,0.716197,-0.695413,-0.058846
-0.581871,0.112250,0.870052,0.325804,0.728536,0.602566
-0.073392,-0.013709,0.352520,0.932306,-0.303710,-0.196383
0.279349,-0.160730,-0.891945,0.244073,0.803796,0.542532
0.699833,-0.490872,-0.931801,0.343861,-0.003922,-0.939012
-0.551630,-0.469067,0.883212,0.633798,-0.291033,0.716659
-0.872619,-0.157345,0.895618,-0.634183,-0.665861,-0.392990
-0.613527,-0.634400,0.872124,-0.585997,0.163605,-0.793625
-0.731109,-0.224132,0.855339,-0.432874,-0.841458,-0.323371
0.127193,-0.160836,0.801782,-0.027937,-0.994822,0.097715
0.137744,-0.310505,-0.327071,0.847683,0.507146,0.155682
-0.083662,0.104843,0.753616,0.206342,-0.765881,-0.608974
0.190033,-0.364489,-0.960286,0.185864,0.128769,-0.974101
0.069814,0.721723,0.860918,-0.087597,-0.947697,0.306916
-0.730356,0.561681,0.925468,0.979306,-0.198181,0.041042
0.044564,0.271659,0.526749,-0.787804,-0.594504,-0.161027
-0.376388,0.097433,0.834057,0.704790,0.683853,0.188721
0.077069,-0.622545,0.140083,0.551394,-0.820577,-0.150394
0.050783,-0.150251,0.705616,-0.384048,0.888277,-0.251936
0.413041,-0.507065,-0.947621,-0.168657,-0.113763,0.979088
-0.391181,-0.525590,0.781584,0.947617,-0.318777,-0.020065
-0.216977,-0.611327,0.635157,0.292272,-0.534239,0.793199
-0.653381,-0.056364,0.802841,0.405393,-0.765486,0.499688
0.092992,-0.581899,-0.968878,-0.107706,-0.093570,0.989770
-0.012529,-0.764594,-0.969208,-0.105072,-0.013856,0.994368
-0.313452,-0.510346,0.713785,0.784571,0.384265,0.486609
-0.821745,0.453294,0.929517,0.799700,-0.551623,0.237049
0.067931,0.228684,0.786716,0.261449,0.462076,-0.847426
-0.450537,-0.641810,0.746884,0.037863,0.424031,0.904856
0.521954,-0.284890,0.556034,0.953343,0.301418,-0.016854
-0.058883,-0.122203,0.750509,0.627818,0.777255,-0.041462
0.145657,-0.415614,-0.963087,-0.186106,0.074351,0.979712
-0.488223,0.232495,0.890886,0.791042,0.594971,-0.142345
0.175525,-0.199366,0.438233,-0.067894,-0.991576,-0.110307
-0.731486,0.375178,0.951528,0.950017,-0.309957,-0.037334
0.403524,-0.369570,-0.943289,0.064424,-0.412598,0.908632
-0.425097,0.151204,0.875843,0.178370,0.452166,0.873916
-0.332483,-0.192379,0.706463,-0.318064,0.947031,0.044357
-0.229412,0.178089,0.924856,0.468986,-0.551453,-0.689893
0.191540,-0.435512,-0.961063,-0.244651,-0.219293,0.944487
0.075467,-0.191426,0.795379,-0.707356,0.681003,0.189427
-0.539005,0.521672,0.942700,-0.631715,0.770676,0.083634
0.258340,-0.327971,-0.953883,0.568267,0.359484,-0.740165
-0.845767,-0.163905,0.899573,0.595845,0.638655,0.486917
-0.300359,-0.160730,0.928929,-0.051618,0.034437,0.998073
-0.193142,0.088224,0.880222,0.865556,0.415886,-0.279020
-0.353211,-0.838159,0.814965,0.456658,0.848578,-0.267169
-0.170151,0.005979,0.512930,0.842764,-0.336716,0.419966
0.183627,-0.215136,0.270384,0.999719,-0.017765,0.015711
-0.060861,-0.139562,0.740598,0.207084,-0.924279,0.320662
0.493029,-0.490765,-0.941476,-0.214979,-0.126663,0.968370
-0.386376,-0.092989,0.877303,0.795834,-0.424498,-0.431798
-0.360655,-1.000000,-0.995056,0.312623,0.197901,-0.929033
0.178351,-0.357609,0.619243,-0.683738,0.718156,-0.129437
-0.184568,-0.582536,0.665336,0.702679,-0.142554,0.697080
-0.329188,0.349775,0.948233,-0.192774,-0.951695,0.238988
0.218863,-0.155332,-0.915510,0.521163,-0.824485,-0.220483
0.169964,-0.240859,-0.447014,0.417090,-0.899816,-0.127933
-0.391839,0.002381,0.846793,-0.572433,0.312856,-0.757919
-0.542208,0.084732,0.907224,-0.698926,0.642945,-0.313248
-0.158751,-0.024611,0.834905,0.234965,-0.281973,0.930206
0.340212,-0.675046,-0.959768,0.318164,0.071486,-0.945337
0.084513,-0.532680,-0.026519,0.979025,-0.087414,0.184037
0.239309,-0.170998,-0.900255,-0.491043,0.864519,0.107158
0.849634,-0.605186,-0.923914,-0.120813,-0.020506,0.992463
-0.591388,-0.363959,0.882529,0.985380,0.090657,0.144247
0.412664,-0.428102,-0.946702,0.014778,-0.238314,0.971076
0.099211,-0.491401,-0.965324,0.277734,0.096746,-0.955774
-0.618427,0.145382,0.915887,0.543174,0.227713,0.808152
-0.204729,-0.016248,0.581223,0.987656,0.081897,0.133521
0.189751,-0.253560,0.606154,0.968936,0.199770,0.145788
0.089599,0.374541,0.559377,0.941036,-0.329111,0.078340
-0.377331,0.411165,0.892463,0.667860,0.646745,-0.368353
-0.491802,0.492034,0.911508,-0.417933,0.789692,-0.449132
0.449312,-0.197567,0.502360,0.950352,0.090726,-0.297659
0.153006,-0.251017,0.627459,0.456071,0.631318,-0.627245
-0.485868,0.528762,0.934084,0.818343,-0.545002,0.182449
-0.007914,-0.286586,0.765552,0.921030,0.347796,-0.175336
0.321276,-0.461867,-0.946820,-0.159885,-0.233467,0.959130
-0.468815,0.081660,0.909083,-0.447586,0.686864,-0.572612
-0.526851,0.485684,0.918359,0.625328,0.753073,-0.204562
-0.244016,-0.645622,0.700037,0.758958,-0.401617,0.512529
-0.060298,-0.366818,0.264828,-0.494113,-0.834254,-0.244689
-0.231204,-0.046309,0.834811,-0.460279,0.630724,-0.624764
-0.225643,0.674199,0.864920,0.572889,0.671925,-0.469378
0.225269,0.757077,0.853691,-0.528751,-0.474602,-0.703687
-0.120689,0.899866,0.851336,0.160328,-0.678165,0.717208
-0.490767,-0.650913,0.704886,0.454817,-0.733298,0.505387
-0.013659,-0.346707,0.221983,0.585152,0.807027,0.079401
0.214717,-0.017837,0.700601,0.964568,-0.260544,-0.041548
0.179576,-0.213550,0.245524,0.997978,0.031793,0.055031
0.061712,-0.374755,0.630048,0.983162,-0.182575,-0.007691
-0.221123,-0.684892,0.760961,-0.551384,-0.142250,0.822035
0.280764,-0.220431,-0.651494,-0.720321,0.573341,-0.390408
0.056623,0.116168,0.840037,-0.394077,0.632273,0.667034
-0.131523,-0.690076,0.790247,-0.514680,0.686720,-0.513342
-0.306951,0.299813,0.879657,0.345418,0.904063,0.251707
0.483984,-0.679811,-0.947385,0.404832,0.001241,-0.914390
-0.121066,-0.401960,-0.975941,-0.319514,-0.093935,0.942914
0.133409,-0.368934,-0.962475,-0.342443,-0.530150,0.775676
-0.656961,0.176606,0.929659,0.628339,-0.173941,-0.758244
-0.314206,-0.759407,-0.988959,0.358152,-0.379173,-0.853202
0.122385,-0.523261,0.637252,0.892400,-0.151037,-0.425217
-0.505276,0.059116,0.889874,-0.337607,0.009431,0.941240
-0.443470,-0.470337,0.837894,-0.319773,0.890695,-0.323123
0.221031,-0.259274,0.806373,0.404331,0.521525,-0.751351
-0.102883,0.742257,0.834693,-0.161718,-0.374266,0.913111
-0.094119,-0.244034,0.663971,-0.225197,0.264987,0.937586
0.159697,-0.380259,-0.963158,-0.379355,-0.077923,0.921964
-0.258527,-0.603916,-0.985145,0.002157,-0.018925,0.999819
-0.294798,-0.816352,-0.984981,0.018773,-0.244528,0.969460
0.320709,-0.313997,-0.940393,0.317691,0.568680,-0.758733
-0.562840,-0.382165,0.875066,0.647999,0.386985,0.656003
0.306106,-0.484201,-0.955460,0.189929,0.222642,-0.956220
0.234220,-0.754748,-0.966218,-0.011850,0.056224,0.998348
-0.060108,0.169726,0.667267,0.565398,-0.819982,-0.089189
-0.176747,0.355596,0.786904,-0.338990,0.909266,0.241496
-0.191537,0.135644,0.763010,-0.296939,0.150200,-0.943010
0.422932,-0.710504,-0.949551,-0.329286,-0.474426,0.816389
0.070663,0.291027,0.511494,0.995257,0.064342,0.072964
-0.024777,-0.632601,0.661076,-0.566889,0.652403,-0.502999
-0.048144,-0.607831,-0.972104,-0.232439,0.205091,0.950742
0.130396,-0.253243,-0.339901,0.992856,0.114036,0.035108
-0.449404,-0.686371,0.789682,-0.435486,-0.549764,0.712819
0.173923,-0.059856,0.652295,0.799729,0.298541,-0.520871
-0.502072,0.464196,0.895571,-0.632324,0.539343,-0.556125
-0.101091,-0.647947,0.770872,0.406133,-0.851976,-0.330444
-0.648010,0.246043,0.918453,0.404396,-0.855253,-0.324047
-0.173354,-0.388515,0.425286,0.971068,-0.133517,0.197989
-0.661296,-0.263086,0.842273,-0.773518,-0.507716,-0.379334
0.012437,-0.521462,-0.971821,0.288533,0.072499,-0.954721
0.135010,-0.250594,-0.366480,0.342024,0.938318,-0.050773
0.203317,-0.240116,0.148934,0.798603,0.456369,0.392378
-0.536178,-0.626463,0.877326,0.447706,-0.056119,0.892418
-0.425945,-0.629532,0.782925,-0.463969,0.199977,-0.862984
0.157339,-0.281821,0.284179,0.876843,0.433889,-0.207092
0.164030,-0.235461,0.275422,0.798532,0.334148,-0.500692
0.345301,-0.529822,-0.944089,-0.212702,-0.422105,0.881241
-0.188806,-0.564330,0.655920,0.022897,0.847467,0.530354
0.256454,-0.821753,-0.964688,-0.040821,0.177534,0.983268
-0.025626,0.351997,0.791636,-0.522928,-0.294147,0.800015
0.214341,-0.198200,0.373613,0.822583,0.568135,-0.024084
-0.312699,-0.978406,-0.988465,-0.407898,-0.018592,0.912838
0.783965,-0.530671,-0.926692,-0.107256,0.000789,0.994231
-0.349254,0.346703,0.850536,0.189714,0.761111,0.620257
0.176750,-0.384177,0.000318,0.993249,0.088565,-0.074920
0.199266,-0.295898,-0.698765,0.061719,0.944499,0.322665
0.150180,-0.315796,-0.479878,0.475243,0.878236,-0.053345
-0.152535,0.292193,0.806890,0.677448,0.592250,-0.436238
-0.143395,-0.312941,0.273303,-0.794089,-0.552271,-0.253809
-0.271529,-0.718974,-0.987759,-0.018895,0.026877,0.999460
-0.329188,-0.119451,0.927116,0.618725,0.782859,0.065664
-0.620313,0.594494,0.912167,0.247934,0.610053,0.752572
0.292822,-0.310719,0.418388,-0.538342,-0.817715,0.203787
-0.248915,-0.119238,0.931895,0.688970,0.724113,-0.031309
0.141701,0.229530,0.779889,0.422671,0.358536,-0.832346
0.215660,-0.279069,-0.602034,0.828180,-0.524157,-0.198435
-0.186733,-0.524214,0.637063,0.617730,0.780005,-0.100007
0.732714,-0.251338,-0.930435,-0.236597,0.056651,0.969955
0.412003,-0.738978,-0.956449,-0.190554,-0.260536,0.946473
-0.136140,-0.449696,0.685252,0.857878,-0.131387,0.496772
-0.572452,0.461867,0.907718,-0.694850,0.689647,0.203887
-0.382041,-0.832971,0.803289,0.918895,0.384987,0.086125
-0.060861,0.877109,0.857693,0.807329,0.573052,-0.140826
0.291503,0.617887,0.695399,-0.207868,0.835989,0.507851
0.393820,-0.319185,-0.938628,-0.122051,0.145424,-0.981812
-0.124550,0.576608,0.872477,-0.583044,0.678693,0.446582
0.151876,-0.278646,-0.308474,0.877215,0.452583,-0.160195
-0.214714,-0.731675,0.794602,-0.138550,0.805489,0.576187
-0.166572,0.204021,0.860847,0.701908,0.284439,0.653008
-0.316845,0.296428,0.952093,0.959986,0.265260,-0.089804
0.189375,-0.304685,-0.426698,0.882035,-0.422281,0.209030
-0.309686,-0.163905,0.900703,-0.240077,0.857640,0.454772
0.044377,-0.837840,-0.970903,-0.316104,0.043669,0.947719
0.221031,-0.517757,0.605777,-0.429442,-0.895877,0.113952
0.356322,-0.372003,-0.943336,0.349109,0.226654,-0.909259
