-0.417693,-0.034548,0.706094,0.733998,-0.677681,0.044679
-0.074870,0.174130,-0.952161,0.266452,0.100502,-0.958594
-0.685970,0.175749,0.435090,0.330405,0.484600,0.809936
0.099316,-0.363670,0.472203,0.557314,0.483794,0.674792
0.168302,-0.022291,0.944215,0.382304,0.921236,0.071887
0.209524,0.318164,0.803181,-0.579115,0.755716,0.305808
0.271810,0.621151,0.456785,0.578208,0.043575,-0.814725
0.513475,-0.249646,0.635787,-0.745177,0.431912,0.508097
0.486495,0.770273,0.266177,-0.657172,-0.142246,0.740196
0.291124,0.587441,-0.943565,-0.134975,-0.114297,0.984235
-0.471406,0.499205,0.557846,0.953241,-0.291793,-0.078671
-0.080664,-0.257047,0.721552,0.709270,0.046067,-0.703431
-0.316657,-0.297753,-0.957287,0.063466,0.486829,0.871188
0.583125,0.622424,0.633793,0.668384,0.258585,-0.697422
0.105169,0.537078,0.416391,-0.836361,0.332576,0.435768
-0.165948,0.582699,0.657143,0.156629,0.872396,-0.463025
-0.146030,0.256063,0.831670,-0.653298,0.119193,-0.747660
-0.768778,0.126543,0.481925,-0.419893,-0.890111,0.177177
0.463681,0.017780,0.857677,0.990127,0.139215,0.016356
0.689230,0.053919,0.608722,-0.531870,-0.032882,-0.846188
0.665871,-0.300298,0.550632,-0.685162,-0.274950,0.674504
0.220690,0.594958,0.451389,-0.408938,-0.489189,0.770366
0.177051,0.631386,-0.938778,-0.099129,-0.167767,0.980830
0.568821,0.464454,0.559405,0.034285,-0.789411,0.612906
0.696351,0.074561,-0.929110,-0.040859,-0.000039,0.999165
0.337599,-0.307295,0.145265,-0.496011,-0.729383,0.471141
-0.207233,-0.570731,0.663191,0.819957,0.558141,-0.127077
0.082716,-0.055191,0.981627,0.982531,0.166053,-0.084018
-0.504303,0.212466,0.527282,-0.520139,0.390446,0.759610
-0.511847,0.709618,0.291357,0.884103,-0.228859,-0.407414
-0.295832,-0.381133,0.746515,-0.758411,-0.602304,-0.249082
-0.105110,-0.176849,-0.957979,0.086218,-0.142036,-0.986099
-0.352508,0.044090,0.475864,-0.082879,-0.989124,0.121513
-0.248996,-0.371246,-0.945707,-0.044155,0.087370,0.995197
0.614449,-0.258319,0.644668,0.957418,0.276426,0.083307
0.286718,-0.265952,-0.963226,-0.110239,-0.272525,0.955812
0.035700,0.182572,0.130634,0.577567,0.312385,-0.754210
0.173975,-0.521409,0.626024,-0.659364,0.745642,0.096213
-0.543410,0.114863,0.636885,-0.733699,0.272729,-0.622337
0.656157,0.188760,0.616179,-0.627068,0.229204,0.744480
-0.106256,-0.423111,0.628844,0.216041,0.687160,0.693640
0.066662,-0.464455,0.786354,0.884194,-0.045829,0.464866
0.527117,0.328688,0.748427,0.343612,0.708919,-0.615926
0.622597,0.209459,0.521262,0.952119,0.202898,0.228695
-0.337780,-0.133193,0.734379,0.800957,0.598247,0.023830
-0.041134,-0.263292,0.844958,-0.038934,0.968746,0.244979
-0.035280,0.631501,0.772834,-0.072434,-0.939364,0.335185
0.081692,0.521697,0.561751,-0.341891,0.021125,-0.939502
0.294745,-0.049524,0.821202,0.564196,0.687011,-0.457930
0.231373,-0.579462,0.682405,0.358723,-0.820098,0.445823
0.183572,0.780277,-0.939510,0.092578,-0.099380,0.990734
0.364576,0.325045,0.789554,0.911362,-0.409166,0.044739
0.661406,0.370320,0.519472,0.942470,-0.009937,0.334143
-0.038054,0.080170,0.934466,-0.682176,0.371130,0.629999
0.804810,0.021655,0.523689,-0.860727,0.181942,-0.475443
0.131726,0.518113,0.350369,0.880800,0.053722,-0.470432
0.062739,-0.576802,0.818178,0.886418,0.400603,0.231906
0.174395,-0.237909,0.783804,0.294170,-0.404996,0.865703
-0.685369,-0.000896,0.460799,0.659488,-0.262985,-0.704211
0.349306,-0.266472,0.402899,0.725632,-0.453936,-0.517108
0.047709,-0.280118,0.776970,-0.319079,-0.228356,0.919805
-0.145791,-0.059933,0.753729,0.973004,0.199371,-0.116255
0.411110,-0.197606,0.775601,0.824959,-0.549486,-0.132317
0.657785,-0.397728,0.617888,0.970654,0.045060,-0.236223
0.523794,-0.445084,-0.953721,-0.172583,-0.082693,0.981518
0.405378,0.614964,0.565887,0.633363,0.000731,-0.773854
-0.638773,-0.329498,0.380865,-0.652318,0.029783,-0.757360
0.356129,0.323484,0.814137,-0.622294,0.592206,-0.511901
0.240428,0.345746,0.828361,-0.050260,-0.893066,0.447110
-0.059902,-0.545867,0.502549,-0.299947,0.095518,0.949162
-0.034915,0.329266,0.565466,0.458743,0.507382,0.729464
0.402298,-0.535922,0.607515,-0.356721,-0.829261,-0.430205
0.723873,-0.201538,0.670445,-0.710325,0.539234,-0.452399
0.107523,-0.014542,0.017587,0.983583,-0.179942,0.013614
-0.376648,0.561074,0.635380,0.515837,-0.856378,-0.023000
-0.244049,0.729798,0.527933,-0.004591,-0.780767,0.624805
0.134743,0.732459,0.428852,-0.492522,0.650925,-0.577684
0.036182,-0.478678,0.808930,-0.319200,0.938619,-0.130790
0.283760,0.112666,0.878912,0.207454,-0.955839,0.208171
0.367655,-0.221776,0.846043,-0.902038,0.089542,0.422267
-0.398135,0.142040,0.697470,0.992203,-0.121200,-0.029047
0.555423,-0.173726,-0.949599,0.333253,0.290213,-0.897061
-0.406343,-0.072942,0.744183,0.917492,-0.225794,-0.327453
0.333554,-0.157825,0.644411,-0.223064,-0.136952,-0.965135
0.454870,-0.313655,0.783696,0.949207,-0.238576,0.205153
-0.396146,0.268727,0.705375,-0.387071,0.883940,-0.262346
-0.038418,-0.119084,0.921761,0.704436,-0.566587,0.427493
-0.265536,-0.466420,-0.952853,-0.256655,-0.368211,0.893616
0.696170,-0.407095,0.603135,0.875090,0.435387,-0.211319
0.333495,0.356848,0.833894,0.436138,-0.685897,0.582519
-0.187856,-0.313076,0.853447,0.321684,-0.723228,-0.611114
-0.224974,0.035011,0.467809,0.162017,0.986292,0.031267
0.023447,-0.484750,0.763967,0.949442,-0.090711,-0.300550
0.050730,-0.445026,0.793757,0.955941,0.240041,0.168991
-0.093160,0.307468,0.360620,0.130810,0.696916,-0.705122
0.012945,0.025933,-0.734989,0.541413,-0.840449,0.022752
0.621754,-0.331233,0.632519,0.245724,-0.365291,0.897877
0.173975,-0.239238,0.773092,0.890889,-0.408539,0.198527
0.374294,0.788141,-0.931347,0.297116,0.317700,-0.900438
-0.363191,0.371939,0.711952,0.878163,-0.215858,-0.426889
0.066662,0.597906,0.634173,0.736892,-0.058401,0.673483
0.301748,-0.032987,0.877787,-0.026412,0.987113,0.157828
0.249479,-0.129203,0.906818,0.780232,-0.422908,0.460853
0.133535,0.609587,0.446778,-0.496228,-0.790175,0.359696
-0.475753,-0.100813,0.671788,0.143242,0.788750,0.597792
0.339530,0.108560,0.848538,0.462904,0.826164,-0.321206
-0.681383,0.138223,0.467511,-0.295160,-0.930729,0.215928
0.070825,-0.141924,0.916242,0.471698,0.805951,0.357692
0.065214,0.740206,-0.945368,-0.089404,-0.143632,0.985584
-0.594232,0.016508,0.548259,0.064036,0.751699,0.656390
-0.211034,-0.236867,0.695707,-0.036584,0.240798,0.969885
-0.171743,-0.401948,0.257770,0.127233,0.263428,0.956252
0.219423,-0.100697,0.479308,-0.445122,-0.793757,0.414508
0.164740,-0.038654,0.703043,0.832791,-0.339605,-0.437182
0.754835,0.102142,0.559202,0.252143,0.906643,0.338263
-0.765338,0.203157,0.452812,0.853644,0.076312,0.515235
0.123338,-0.493133,0.789296,0.591733,0.806121,-0.004606
0.784530,-0.031658,0.536272,0.324811,0.272530,0.905663
0.088813,0.341525,0.827304,0.595825,0.539011,-0.595366
-0.767994,-0.215415,0.571310,0.620179,-0.763817,-0.178779
-0.603467,-0.283298,0.469152,-0.268113,0.344409,-0.899721
-0.655372,-0.376160,-0.971728,-0.219244,-0.487868,0.844936
-0.065999,-0.477464,0.260468,0.094098,-0.093828,0.991132
-0.345144,0.755297,-0.960202,-0.178142,-0.028247,0.983599
0.385761,0.209112,0.714067,0.377270,-0.575599,-0.725502
0.000088,-0.111625,0.819073,-0.034131,0.039661,0.998630
0.540754,-0.197664,-0.952365,0.370885,0.218981,-0.902492
-0.445395,0.479603,0.566863,-0.294714,0.223097,0.929178
0.135771,-0.199341,-0.955565,0.068076,-0.136498,0.988298
0.037328,-0.069820,0.376837,0.710511,0.462835,-0.530054
-0.584153,0.032409,0.175462,0.074905,0.837420,0.541403
0.423123,0.335395,0.805757,0.564374,-0.562490,0.604224
0.761112,-0.242766,0.575256,0.534540,0.467130,-0.704313
-0.527054,-0.073521,0.787791,-0.783712,-0.619425,0.045919
0.078672,-0.831392,0.564571,0.525017,0.848292,0.068975
-0.215680,-0.073752,-0.966277,-0.053747,-0.218631,0.974326
-0.450405,-0.487757,0.630837,-0.736364,0.676271,-0.020602
0.322812,-0.182804,0.825311,0.840035,-0.332074,-0.429032
-0.210854,-0.430223,0.515662,0.803245,-0.215210,0.555411
0.054049,0.471045,0.748549,-0.241452,0.945663,-0.217766
0.122432,0.142502,0.802869,-0.447970,0.699925,-0.556263
0.056764,-0.133250,0.945192,0.966303,0.052460,-0.252006
0.241573,-0.727139,0.504366,-0.757116,0.572842,-0.314049
-0.112109,0.527942,-0.010970,0.774597,0.123430,-0.620293
0.122129,0.585880,0.572205,0.486451,0.106981,0.867133
-0.155689,0.491514,0.487417,0.831789,-0.031886,-0.554175
0.436882,0.640001,0.593087,0.770180,0.631352,0.090646
0.471708,-0.581948,0.382736,0.636532,-0.248643,-0.730071
-0.438573,0.137761,0.613128,-0.881809,0.191255,0.431085
-0.314240,0.393044,0.710907,-0.233422,-0.962630,-0.137327
0.087848,-0.517823,0.520448,0.316591,-0.314130,-0.895038
0.208559,0.684292,0.423876,-0.399792,0.780472,-0.480656
0.416061,-0.066582,-0.948541,-0.244348,0.097740,0.964749
-0.610828,0.108965,0.654268,0.826433,-0.188825,0.530428
-0.004737,0.989187,-0.108613,-0.551131,-0.170126,0.816892
0.143134,0.532741,-0.081412,0.887852,-0.188381,-0.419798
0.125692,-0.414901,-0.965124,0.074636,0.050166,0.995948
-0.261794,0.369800,0.090755,0.886755,0.461946,-0.016486
-0.101065,0.516667,0.737159,-0.085284,-0.961671,0.260608
-0.110540,-0.275319,0.517953,0.760104,-0.072055,0.645794
-0.018802,0.400966,0.265051,0.043935,-0.647576,0.760733
0.107343,0.532684,0.045520,-0.235103,-0.071830,0.969313
0.337117,-0.516089,0.503471,-0.419754,0.696903,0.581492
0.477079,0.711642,0.430656,-0.300732,-0.600389,-0.741008
-0.376530,0.294631,0.106837,0.959762,0.223093,-0.170545
0.283278,0.010321,0.556734,0.258015,-0.934826,-0.243986
-0.193894,-0.020498,0.884417,-0.156195,-0.917515,-0.365744
-0.097927,0.376449,0.810530,0.785397,-0.135660,-0.603943
0.457887,-0.262713,-0.955877,-0.325353,0.058623,0.943774
0.166007,0.103356,0.863007,-0.366905,0.921768,-0.125396
0.381901,0.810229,-0.917611,-0.312430,-0.516779,0.797074
-0.690317,0.093469,0.445219,0.231249,0.693588,0.682246
-0.632739,0.643007,0.243993,0.205712,0.978606,-0.003518
-0.613425,-0.045766,0.571148,0.562772,-0.490867,-0.665084
-0.465674,-0.428142,0.621644,0.309012,-0.950316,-0.037558
-0.366388,0.203100,0.596586,0.529779,-0.416712,-0.738705
-0.245438,0.088034,0.731396,0.274914,-0.108198,-0.955361
0.245375,0.263003,0.775031,-0.090320,0.799539,0.593784
0.770406,0.161294,0.526577,-0.130835,0.100856,-0.986261
-0.422401,-0.403914,0.589670,0.868512,-0.004027,-0.495652
-0.078193,0.180665,0.789649,-0.470622,-0.670597,-0.573424
-0.102697,0.136488,-0.077982,0.772661,0.344382,0.533288
0.185020,0.121802,-0.944934,0.149915,0.100754,-0.983552
0.457946,-0.260632,0.759071,0.936532,0.328641,-0.122080
-0.177475,0.352222,0.579487,-0.066249,-0.567067,0.821003
-0.024413,0.083119,-0.947253,0.320391,-0.022082,-0.947028
-0.077106,0.480297,0.811222,0.666334,0.520059,-0.534357
0.093399,0.251611,0.800211,-0.528593,0.583683,0.616364
-0.145308,0.629651,0.699355,0.436672,0.844107,-0.311127
-0.147117,-0.319033,-0.952311,0.008809,0.257763,0.966168
-0.040408,-0.107462,0.920391,0.813106,-0.150156,0.562416
0.166733,-0.414612,0.329595,-0.590863,0.144504,0.793725
-0.382383,0.389864,0.540923,0.624964,0.443758,-0.642261
0.132632,-0.620399,0.534211,0.269294,0.720183,0.639388
0.061652,-0.022811,0.113915,0.814852,0.506321,-0.282232
-0.651751,-0.255775,0.603203,-0.613355,0.104718,-0.782834
-0.611612,-0.254966,0.587338,0.762981,-0.313115,0.565525
-0.340436,0.459076,0.761471,0.832630,0.077650,-0.548359
-0.354014,-0.085547,0.746610,-0.081453,0.875149,0.476949
0.367836,0.584030,0.721416,-0.245347,0.875862,-0.415537
0.370009,-0.192634,0.656574,-0.581931,-0.260713,-0.770315
-0.294989,-0.198936,-0.964826,0.086678,0.553899,0.828060
-0.370252,0.214085,0.727640,-0.746036,0.316578,0.585840
0.274466,0.327416,0.812361,0.010626,-0.998672,0.050404
-0.249902,-0.210905,0.636600,0.929480,0.128565,0.345744
0.065093,0.040273,-0.336918,0.769733,-0.625155,0.129194
0.335967,0.463009,0.677483,-0.098213,-0.913067,0.395806
0.068655,-0.029403,0.003403,0.703340,-0.710842,0.004058
0.188099,-0.093642,0.885705,-0.005216,0.181792,0.983323
0.139694,0.521177,-0.262353,0.904191,-0.209119,0.372436
0.081449,-0.104860,0.714582,0.958136,0.250643,0.138394
0.015844,0.093006,0.894356,0.645369,-0.546459,-0.533744
-0.233185,0.628899,0.586009,0.886521,-0.455364,-0.081999
0.504119,0.341235,0.664967,-0.488757,0.682960,-0.542847
0.629899,0.135447,0.589101,-0.499073,0.354995,0.790510
-0.497421,-0.067102,0.792713,-0.130908,-0.521782,0.842975
-0.022302,0.048714,0.694364,0.033576,-0.577534,0.815676
-0.019826,0.647633,0.705687,0.392359,-0.850482,-0.350336
0.014212,-0.312267,0.407347,0.736314,-0.585159,-0.339751
0.452755,-0.085837,0.785025,-0.470903,-0.777210,-0.417366
-0.622597,0.104570,0.533140,-0.279941,0.771963,0.570707
-0.314542,0.264737,0.680954,-0.724563,-0.685441,0.071972
-0.501282,-0.349909,-0.981206,-0.347604,-0.338372,0.874458
-0.383046,0.034664,0.489220,0.066258,-0.997757,0.009485
0.417630,0.565121,0.701985,-0.207157,0.691219,-0.692316
-0.505931,0.500535,0.592409,0.739803,-0.528502,0.416386
-0.385039,-0.368470,-0.973301,-0.277176,-0.149298,0.949149
0.084407,-0.504698,0.509858,-0.180397,0.495296,0.849788
-0.477805,0.510711,-0.956202,0.545223,-0.188665,-0.816785
-0.854788,0.148052,0.543255,0.776859,0.499446,-0.383462
0.771493,-0.171471,0.647963,0.961137,0.048320,-0.271810
-0.083685,0.433230,0.842558,0.413962,0.905577,-0.092552
0.674745,0.036399,0.617278,-0.054538,0.311115,0.948806
0.703052,-0.071786,0.505302,-0.646109,-0.728451,0.227821
-0.301988,0.462372,0.590823,0.078767,-0.607960,0.790051
-0.029968,0.320766,-0.952134,-0.311135,0.045196,0.949290
-0.039564,-0.065541,0.865407,0.414614,0.446469,-0.792945
0.086337,0.401254,0.370627,-0.688523,0.529934,-0.495081
0.349910,-0.395646,-0.960270,-0.164981,0.011999,0.986224
-0.619341,0.002977,0.208250,-0.135214,-0.782864,-0.607323
-0.253402,-0.296424,0.850559,0.737143,-0.537195,-0.409929
-0.566950,0.247911,0.683788,0.747712,0.225785,0.624458
-0.492533,0.241608,0.661564,0.620130,-0.587005,0.520447
-0.433806,0.144641,0.800456,0.994525,0.075502,0.072246
-0.271449,0.128624,0.733376,0.576271,0.333874,0.745949
-0.357518,0.276360,0.728671,0.515595,0.481527,-0.708727
0.083744,-0.256064,0.408784,-0.034831,0.562195,0.826271
-0.392584,0.231721,0.533425,-0.225572,0.103276,0.968737
0.151401,-0.208939,0.855182,-0.516716,0.276559,-0.810259
0.332287,0.218075,0.705239,0.941664,0.196424,-0.273289
-0.303981,0.272890,-0.159476,-0.040751,-0.160564,0.986184
-0.037814,-0.097516,0.929788,-0.381875,-0.409709,0.828438
0.307119,-0.276301,0.818449,0.939089,-0.066991,-0.337082
-0.519631,-0.581081,0.633278,0.609015,-0.790647,0.063075
0.003710,0.583451,0.747776,0.460222,0.843129,-0.278082
-0.394938,0.356038,0.541289,0.506984,0.558278,-0.656729
0.445395,0.079476,0.666499,-0.310177,0.380194,-0.871346
0.312914,-0.157652,-0.955172,-0.354540,-0.243836,0.902688
0.530675,-0.548122,-0.956067,0.322475,0.030766,-0.946078
-0.635936,-0.389691,-0.979566,-0.113557,-0.184110,0.976324
-0.291850,0.634103,0.347250,-0.061685,-0.744105,0.665209
0.144641,0.308855,0.827534,0.749023,0.618726,-0.236945
0.427226,0.383676,0.753919,0.398611,0.868047,-0.295979
0.109092,-0.836191,0.520828,0.961878,-0.235911,-0.138334
0.367295,-0.673017,0.690744,0.911796,-0.407702,-0.049052
0.831790,-0.371708,0.606023,-0.398789,-0.815300,-0.419825
-0.709450,-0.170661,0.555852,0.858754,-0.507905,0.067627
-0.229564,0.750325,0.568802,0.838471,0.541934,-0.057213
-0.576609,-0.093122,0.664262,0.743925,-0.100066,-0.660728
0.462956,-0.396514,0.777391,0.548460,-0.812336,0.198247
-0.108853,0.312266,0.830328,0.453159,-0.177197,0.873641
-0.485291,-0.622655,0.535187,-0.196411,0.974689,-0.106790
0.849413,-0.257452,0.582579,-0.470481,0.619299,0.628582
0.375683,0.404550,0.548829,-0.054123,-0.716342,0.695647
-0.171982,0.554598,0.746773,0.520150,0.667154,-0.533244
-0.276942,0.532799,0.664140,0.308612,0.838933,-0.448275
-0.071613,-0.229119,0.834260,-0.071393,0.794367,0.603228
0.288107,0.104339,0.867725,0.326654,0.200309,-0.923674
-0.740472,0.213160,0.718379,-0.317997,-0.862677,-0.393277
0.211517,-0.214317,0.142485,0.794224,0.606448,0.037804
-0.151464,0.037324,0.871725,-0.265650,-0.251864,0.930588
0.247548,0.372170,0.683002,0.107018,0.213127,0.971146
0.498445,-0.534534,0.602186,-0.659447,0.739210,-0.136745
0.773910,0.029286,0.596762,0.461119,-0.341201,-0.819116
0.776566,-0.055364,0.645875,0.826010,-0.223483,-0.517458
-0.681686,-0.185117,-0.971240,0.302417,0.561660,-0.770118
0.275733,0.252306,0.686175,0.686998,0.587677,-0.427399
-0.213628,0.800572,0.539947,0.822416,-0.074865,0.563939
-0.620486,0.201538,0.485939,-0.523516,0.776065,-0.351644
0.660802,-0.395241,0.621454,0.357360,0.578358,-0.733346
-0.106436,-0.325913,0.858776,0.466315,-0.871770,-0.150226
-0.592722,0.336147,0.421164,-0.177071,-0.390778,-0.903293
0.317681,0.024893,0.887427,-0.799932,0.236890,-0.551355
-0.359569,-0.021249,0.790001,-0.686098,0.140199,0.713872
-0.566228,0.202000,0.647109,0.954347,0.289140,-0.074973
-0.337478,-0.478274,0.611935,0.751043,0.554941,-0.357735
0.418838,0.679667,-0.933978,-0.063282,-0.192012,0.979350
0.646800,0.124577,0.594701,0.505674,-0.183804,-0.842917
0.213145,-0.815260,0.499064,-0.681248,0.467433,-0.563389
0.399524,0.394316,0.740156,0.304080,-0.937879,0.167090
0.292152,-0.385296,0.754990,-0.438241,0.889351,0.130387
0.678304,-0.319842,0.627637,-0.187641,-0.619441,0.762288
-0.346050,0.110469,-0.955267,-0.286732,-0.151803,0.945907
0.049341,-0.568071,0.784333,-0.758323,-0.651714,0.014677
0.342488,0.640753,0.751790,-0.334566,-0.776373,0.534144
0.251409,-0.781087,0.480352,-0.641978,0.206745,-0.738323
0.004133,0.186504,0.398465,0.999848,0.005119,-0.016662
0.887014,0.000954,0.498875,0.892603,-0.342689,0.292957
0.377856,0.163665,0.763424,0.225647,0.909751,-0.348478
0.326010,-0.482784,0.032787,0.426140,0.903766,0.040150
0.664968,-0.242650,0.474793,0.436031,-0.181216,-0.881497
-0.159730,0.545000,0.459429,-0.359368,-0.498737,0.788743
0.750009,-0.412877,0.632871,-0.030959,-0.844899,0.534030
0.151342,-0.201943,0.889488,0.924870,-0.077790,-0.372241
-0.496032,0.659487,0.294001,-0.530626,-0.054049,0.845881
0.828110,-0.395762,0.517031,-0.367554,0.922306,-0.119396
0.580893,0.325335,0.748631,-0.534492,0.534739,-0.654502
0.114526,-0.041661,-0.496230,0.135577,0.989979,0.039501
0.113439,-0.596519,0.790706,0.877638,0.403287,0.259058
0.331926,0.309260,0.832538,-0.247304,0.887399,-0.389055
-0.058396,0.166325,0.834233,0.797217,0.580882,0.164382
-0.089056,0.713203,0.546794,-0.512978,0.857369,-0.042100
-0.275917,-0.363382,0.724928,0.426343,0.367244,0.826658
0.160636,0.151059,0.626037,-0.014829,-0.788753,0.614531
-0.332589,0.172685,0.616817,0.113275,0.949027,0.294136
-0.236563,-0.378531,0.364783,-0.409478,0.186163,0.893125
-0.536230,0.228830,0.402791,-0.499727,-0.856692,-0.127877
-0.136434,-0.199977,0.681063,-0.286095,-0.417960,-0.862241
0.110721,-0.182573,-0.957748,0.034552,-0.191415,0.980901
-0.310984,-0.033334,-0.972854,-0.202346,-0.422068,0.883694
0.625493,-0.279020,0.673062,0.786646,-0.279846,-0.550340
-0.159310,0.523837,0.015472,0.819206,-0.376782,-0.432362
0.258954,0.210500,0.487267,0.805487,-0.246470,0.538928
-0.144461,0.243921,0.826517,0.937447,0.118213,0.327442
-0.527297,-0.049236,0.495363,0.817254,-0.509998,-0.268325
-0.264752,0.370724,0.053778,0.703398,0.359726,0.613048
0.303318,0.348058,0.842314,0.081189,0.709735,-0.699774
-0.316657,0.741536,0.397990,-0.153181,-0.925015,0.347681
0.173673,0.377027,0.819588,0.310356,-0.875466,-0.370456
-0.713554,0.045188,0.550862,-0.709449,0.103314,-0.697143
0.795515,-0.445199,0.569100,0.426000,-0.846642,-0.318938
0.280382,-0.019804,0.828375,0.193843,0.473642,-0.859120
0.153151,-0.318916,0.786977,-0.406002,-0.188393,-0.894243
-0.258714,0.666888,0.604749,0.328659,0.689785,0.645120
-0.047046,-0.042817,0.894533,-0.785133,0.577450,-0.223869
-0.523617,-0.073694,0.771275,0.932314,-0.190258,-0.307559
-0.670944,-0.001937,0.547283,-0.009244,0.339366,0.940609
-0.169569,0.381653,0.751220,0.191322,-0.806335,0.559661
-0.164681,0.505623,0.832212,0.533001,0.733169,-0.422342
-0.635395,-0.111451,0.109576,0.302506,0.730071,-0.612769
-0.053264,-0.711989,0.482888,-0.612242,0.496994,0.614944
0.183450,-0.201191,0.808944,0.492012,0.786727,0.372806
-0.031839,0.178698,0.520814,0.812418,0.144200,-0.564963
0.228113,-0.579809,0.700656,-0.660027,0.718983,0.217781
0.566043,0.402642,0.788916,-0.260423,0.937196,0.232041
-0.379970,-0.367487,0.609684,0.810027,-0.318611,-0.492283
-0.299936,-0.381248,0.723993,-0.574419,-0.584936,-0.572619
-0.116515,-0.657752,0.638973,0.331755,0.086425,-0.939398
-0.241875,-0.078089,0.784875,0.818622,0.555052,-0.147565
0.039804,-0.125040,0.896065,0.729103,0.631510,0.263824
0.677821,0.155339,0.601481,0.819355,0.179047,-0.544610
-0.344300,0.175460,0.728955,0.599821,0.721707,0.345477
-0.503397,0.629131,0.264767,-0.110521,0.993616,0.022644
0.309834,-0.656712,0.660940,0.714436,0.694615,-0.084217
-0.173371,0.147359,0.837406,-0.202485,0.898498,-0.389488
-0.216044,-0.453121,0.607149,-0.796723,-0.341515,0.498599
0.852312,0.234034,0.628112,-0.364871,-0.812577,0.454519
0.336512,0.220850,-0.939632,0.069839,-0.028923,0.997139
0.444971,-0.163433,-0.949843,0.169071,-0.390443,0.904969
0.355948,0.338575,0.797229,0.181657,0.850592,0.493450
-0.448655,-0.314002,0.439036,0.478644,-0.654880,0.584835
0.659354,0.205007,0.411591,0.088084,-0.970399,0.224872
-0.718564,-0.253057,0.459863,0.426571,-0.619842,-0.658660
-0.034071,0.084101,0.884987,0.985147,0.093762,-0.143856
0.104808,-0.267918,0.866885,0.984690,-0.171327,-0.032133
0.935784,-0.305444,0.625251,-0.533573,0.753023,-0.385040
-0.027492,0.840296,0.534157,0.279610,-0.679385,0.678421
0.085431,0.170951,0.274136,0.945965,0.043486,-0.321339
0.342547,0.027321,0.830409,-0.033036,0.675035,0.737046
0.644387,0.027089,0.568354,0.880241,0.059144,-0.470827
0.404291,-0.030386,0.586104,-0.549205,0.702339,0.452873
0.271390,0.052473,0.504678,0.341340,-0.283911,0.896037
-0.119595,0.653126,0.482494,-0.258924,-0.799317,0.542264
0.675228,-0.295094,0.627678,0.227427,0.557586,-0.798357
0.330055,0.149440,0.894750,-0.249496,0.864012,-0.437304
-0.264870,0.135043,0.613806,0.159299,0.985542,0.057720
0.391375,0.613577,0.743017,-0.079427,-0.878998,0.470163
0.746690,-0.099772,0.623637,0.698154,-0.354117,-0.622240
0.952862,-0.311688,0.619746,-0.084431,0.891195,-0.445694
-0.439902,0.149440,0.652668,-0.125900,-0.363465,0.923061
0.848146,0.145335,0.511905,0.818631,0.121959,0.561221
0.104506,0.081268,0.977938,-0.619844,0.735177,0.274423
-0.521863,-0.071612,0.793432,0.810193,0.576488,0.106065
0.005220,-0.207031,0.778502,0.965488,0.235077,0.112127
-0.090743,-0.435023,0.598186,-0.385694,0.900511,0.200797
0.011556,0.800226,0.527119,0.940083,-0.312519,0.136293
-0.448773,-0.523606,-0.968325,-0.141666,0.159262,0.977019
-0.316174,-0.041198,0.193931,-0.415306,-0.612616,-0.672475
0.757974,-0.106016,-0.940459,0.028476,-0.150804,0.988153
-0.047411,0.957790,0.120600,0.330074,0.747948,0.575869
-0.336210,-0.068316,0.751193,0.913754,-0.210128,0.347706
-0.433868,-0.233687,0.726420,0.829532,-0.225485,-0.510914
0.049161,0.053514,0.813975,0.299167,0.715993,-0.630756
0.055736,0.063575,0.936866,-0.615930,0.183533,-0.766124
0.521985,-0.609240,0.519756,0.613894,0.405684,-0.677167
0.278087,0.040909,0.873637,0.293495,0.117081,0.948764
0.070707,0.241956,0.349637,0.051602,-0.787539,0.614101
-0.263300,0.370493,0.057276,0.745170,0.409155,0.526606
0.065937,-0.138050,0.960582,0.086985,-0.925772,0.367941
-0.365968,-0.159849,0.622986,0.275627,0.874595,0.398890
0.203188,-0.838388,0.489708,-0.658327,0.223176,-0.718886
0.383046,0.282257,0.806015,0.731971,-0.416817,0.538965
-0.334402,0.173899,0.729674,0.650196,0.684009,0.330723
0.099194,-0.792535,0.535486,0.333231,0.933884,0.129682
0.883032,0.161756,0.628532,0.425341,0.654334,-0.625246
-0.354560,-0.143254,0.582334,0.766691,0.509034,-0.391242
-0.263783,0.342103,-0.962291,0.017889,-0.099585,0.994868
0.570630,0.663592,0.289418,-0.263015,-0.149693,0.953108
0.503938,0.241666,0.801649,-0.364724,-0.488325,0.792789
0.639860,0.040388,0.515892,-0.002070,-0.188952,0.981984
0.074568,0.106248,0.680181,-0.591465,-0.609536,-0.527859
-0.447988,0.056983,0.649089,-0.025798,0.191385,0.981176
0.086761,0.265605,0.147828,0.834905,0.258293,-0.486023
-0.190390,-0.542803,0.099731,-0.244571,0.483209,0.840651
-0.317983,0.514990,-0.957151,0.068849,0.116680,0.990780
-0.220027,-0.104629,0.351196,0.475854,-0.610435,-0.633192
-0.354316,-0.714707,0.545900,-0.640319,-0.466703,-0.610066
0.240306,-0.119374,0.753187,0.784119,0.584949,-0.207346
-0.113259,0.566567,0.664059,-0.112028,-0.631498,0.767242
-0.336332,-0.068259,0.735464,-0.112071,0.934121,0.338907
-0.543112,-0.193039,0.692385,0.821655,-0.170604,-0.543855
-0.052660,-0.735696,0.553995,0.806494,0.413793,-0.422307
-0.515406,0.372459,-0.956175,-0.095580,-0.201710,0.974771
0.379967,0.440631,0.673957,0.832183,0.273180,-0.482539
-0.026045,-0.290063,-0.954711,0.319765,0.104829,0.941680
0.610345,-0.183035,0.497586,-0.482421,0.681145,-0.550737
0.162445,-0.260863,0.092897,-0.693784,-0.347843,0.630609
0.046261,-0.008587,-0.388119,0.300090,0.953617,-0.023659
-0.427893,-0.095204,-0.978155,-0.036326,-0.030917,0.998862
-0.146210,0.811559,0.596043,0.909664,0.040348,-0.413381
0.048737,0.179161,0.913164,-0.684326,0.533927,-0.496608
-0.318587,0.033160,0.420039,0.725872,0.359732,0.586262
-0.109457,0.093815,0.842111,-0.043551,0.997378,0.057799
0.352025,0.631848,0.568137,0.787937,0.051360,-0.613611
-0.223707,0.215415,0.851481,0.779404,-0.375660,0.501407
-0.578296,0.604151,0.101942,0.721140,0.586456,0.368818
0.018257,-0.656885,0.501071,0.953999,-0.224247,-0.198993
0.214774,-0.407788,0.667693,0.176211,-0.949817,0.258451
-0.391980,-0.281506,-0.958589,-0.402417,-0.189257,0.895680
-0.525245,0.132788,-0.970345,0.485854,0.082233,-0.870163
-0.177173,-0.257568,0.376268,-0.379710,-0.096171,0.920093
-0.056222,0.523374,0.741756,0.909226,-0.074362,0.409607
-0.116276,-0.099194,0.778245,-0.196053,-0.318724,0.927350
-0.205420,-0.507126,0.644587,-0.769317,-0.436535,-0.466465
0.432056,-0.739628,0.500000,0.074065,-0.689816,0.720186
-0.152186,0.044031,0.852037,-0.712944,-0.087749,-0.695708
-0.217069,0.687415,0.583528,-0.639535,0.205998,-0.740648
0.207774,0.008298,0.810395,0.522065,0.250445,-0.815307
0.345324,-0.675214,0.691354,0.812306,-0.351927,-0.465087
0.610286,0.068779,-0.936229,-0.323735,0.008883,0.946106
0.104565,-0.098673,0.903645,0.897006,-0.259544,-0.357794
-0.129552,-0.362341,0.687964,0.719146,0.563801,0.406149
0.216406,-0.035416,0.853406,-0.492039,0.608247,0.622843
-0.197032,0.656885,-0.956636,-0.186466,-0.079701,0.979223
0.690195,-0.303420,-0.947456,-0.264935,-0.238613,0.934277
0.055858,0.676544,-0.946195,0.017129,-0.195041,0.980645
-0.107766,-0.320247,0.874722,-0.341722,0.934145,0.102958
0.570571,0.633120,0.612735,0.705350,0.004855,-0.708843
0.500015,0.792303,0.283723,-0.657172,-0.142246,0.740196
0.244288,0.365289,-0.937653,-0.003994,-0.013464,0.999901
-0.204275,0.900951,0.148140,-0.372663,-0.347555,-0.860423
-0.595197,0.371187,0.620708,0.957821,-0.109818,0.265553
-0.569425,-0.556333,-0.969436,-0.042622,0.291920,0.955492
-0.269578,0.635664,0.573304,0.885393,-0.439945,-0.150092
0.749162,-0.355865,-0.948880,-0.265581,-0.101419,0.958739
-0.548240,-0.083640,0.758583,0.965372,-0.178047,-0.190672
-0.130702,0.484055,-0.957748,-0.088321,-0.050623,0.994805
0.038054,0.015641,-0.561751,0.164421,0.986380,-0.004546
0.227991,-0.338980,-0.965572,0.066920,-0.027575,0.997377
0.102874,0.028824,0.167015,0.972249,-0.169599,0.161144
-0.115491,0.355807,0.793093,-0.087896,-0.056673,0.994516
-0.144280,0.008413,0.763397,-0.036695,0.049255,0.998112
-0.225578,0.492092,0.722948,0.268730,-0.735006,0.622535
-0.434892,-0.120067,0.672412,-0.198444,0.920263,0.337249
0.774149,-0.355634,0.648275,-0.526818,-0.518742,0.673327
0.798230,-0.365289,0.644994,0.264109,-0.905940,0.330936
0.385761,-0.439706,0.674039,-0.171069,0.742611,0.647506
0.380512,-0.886553,0.470535,0.044297,-0.482936,0.874534
0.006609,0.120240,0.880607,-0.583591,0.598533,-0.548799
0.055799,0.738125,0.451077,0.335160,-0.118497,0.934680
-0.166188,-0.235538,0.818151,0.923867,0.138840,0.356642
-0.061774,0.736910,0.669184,-0.443268,-0.893856,0.067339
-0.112957,0.695510,0.671435,-0.694916,0.395778,-0.600376
0.129733,0.238487,0.878519,-0.279054,-0.945426,-0.168221
-0.086157,-0.093816,0.899523,-0.657193,0.667231,0.350571
-0.203549,-0.570152,0.613847,0.236437,-0.971184,-0.029996
-0.008602,-0.218248,-0.949938,0.065480,0.049204,0.996640
0.719891,-0.368990,0.541737,0.302048,0.946609,0.112687
-0.119775,-0.000549,-0.961328,0.335947,0.209544,-0.918276
0.390230,-0.437509,0.332375,-0.299582,0.564636,0.769049
-0.248392,0.212697,0.873488,0.928061,0.322230,-0.186738
0.069016,-0.048195,0.111244,0.817067,0.496153,-0.293655
0.661646,-0.103703,0.571026,0.943542,-0.283239,0.171768
0.091649,0.260863,0.881760,-0.595742,0.769763,-0.229252
-0.018924,0.370031,-0.949219,-0.305686,0.082753,0.948529
0.051150,0.665500,0.054510,0.435110,0.180479,-0.882104
0.104808,-0.282258,0.860091,-0.457079,0.245857,0.854771
0.036124,-0.356385,0.619095,-0.559880,0.247209,0.790837
-0.863298,-0.031368,0.567012,0.656940,-0.172164,0.734023
0.038356,0.027321,0.886288,0.985149,-0.072604,-0.155598
0.622236,-0.317297,0.535608,0.817586,0.321938,-0.477398
-0.039564,0.319321,0.156804,0.742268,0.036716,-0.669096
-0.088330,-0.302669,0.748020,0.732658,0.655852,0.181855
-0.332711,-0.712683,0.558076,-0.640319,-0.466703,-0.610066
-0.312431,0.286131,0.695734,0.374773,-0.337919,-0.863340
-0.092556,-0.150886,0.490047,0.920741,-0.371692,0.118661
-0.233668,0.606522,0.530767,0.808921,-0.027586,-0.587269
-0.036908,0.587730,0.145129,0.764751,0.238728,-0.598469
0.105228,-0.033046,0.954019,0.161765,0.669784,0.724722
0.225037,-0.013732,-0.946046,0.066438,-0.134036,0.988747
-0.623865,-0.006794,0.219464,-0.135214,-0.782864,-0.607323
-0.551441,0.215762,0.467511,0.991848,-0.127418,0.001562
0.182725,-0.690942,0.709687,-0.734484,0.565218,-0.375583
-0.509854,-0.092197,0.774150,0.985517,-0.113535,0.125957
0.025319,-0.133424,0.921259,-0.022333,-0.999553,0.019871
0.159549,-0.179103,0.299154,0.956609,0.291265,0.008053
0.247910,0.007083,0.655882,-0.025668,-0.539236,0.841763
-0.399344,-0.230391,-0.960880,-0.515616,0.368635,0.773465
0.651147,-0.179508,0.493505,-0.746721,0.658769,-0.091823
-0.012282,0.013328,-0.628871,0.205451,0.978653,0.005285
0.245858,-0.649715,0.766461,0.987857,-0.154131,0.019572
0.128164,0.061898,0.884024,0.673970,0.694502,-0.251858
-0.538341,0.091908,0.590362,0.739624,0.456068,-0.494933
-0.724841,-0.311805,0.614498,0.835130,-0.474069,-0.278957
0.152005,0.646477,0.414547,0.805799,-0.589427,-0.057126
0.071492,0.507299,0.743708,-0.186913,-0.895577,0.403739
-0.423425,0.792651,0.371169,-0.478510,-0.816917,0.321988
0.739746,-0.162797,0.633455,0.219355,0.888984,0.401983
0.018437,0.586053,0.768807,0.128621,-0.988055,0.084878
0.069801,0.140652,0.936907,0.618349,0.428063,0.659095
-0.221839,0.575530,-0.957490,-0.113288,-0.041454,0.992697
-0.354136,0.697707,0.472420,-0.306831,0.926098,0.219541
0.265415,0.106363,-0.947266,0.094480,-0.250118,0.963595
0.441409,-0.133193,0.731545,0.982900,0.067534,0.171307
0.139329,-0.052474,0.873773,-0.529926,0.673333,-0.515559
-0.731119,-0.215010,0.583867,0.894628,-0.444795,0.042410
-0.302411,-0.084507,0.836321,0.986157,-0.108002,-0.125817
0.041734,-0.092602,0.898668,0.217728,0.730407,0.647380
-0.545042,-0.618896,0.542306,-0.082205,0.988761,0.124878
0.152609,0.288907,0.811425,0.108104,-0.566725,0.816784
-0.236626,0.707422,0.539228,0.789839,0.597743,-0.137324
-0.258655,-0.571251,0.283397,-0.483930,0.200719,-0.851777
-0.515166,-0.431958,0.633292,0.258852,0.694565,0.671249
0.476958,0.563850,0.700656,0.437212,0.895519,-0.083016
-0.436281,0.372112,0.634661,-0.299875,-0.308544,-0.902705
-0.243986,0.881696,0.545045,-0.178302,0.535805,0.825301
0.166368,-0.030791,0.497952,0.012270,-0.956118,0.292723
-0.092375,-0.650929,0.522170,-0.193611,0.573994,0.795642
-0.125570,0.054092,-0.025004,0.148051,0.066526,-0.986740
-0.106256,-0.862095,0.444500,0.985468,-0.049028,-0.162634
-0.088692,0.629709,-0.950616,-0.126745,-0.216765,0.967961
-0.178985,-0.720836,0.695856,0.872440,0.398968,0.282263
-0.263724,0.667409,0.609847,0.213723,0.760596,0.613038
0.159189,-0.833878,0.500041,-0.667502,0.147739,-0.729804
0.085192,0.049293,0.159381,0.981163,-0.080020,-0.175831
-0.223648,-0.245367,0.842545,-0.427984,0.883078,0.192362
0.446482,-0.814912,0.464365,0.132205,-0.721804,0.679353
0.266317,0.358987,0.837894,0.146465,-0.731216,0.666236
0.322750,-0.051143,0.833040,0.882709,0.450802,-0.132678
-0.551802,0.641447,0.264902,0.110903,0.992155,-0.057705
-0.166972,-0.088208,0.800659,0.020754,-0.863611,0.503731
-0.053868,0.425887,0.562198,-0.629143,0.259793,-0.732589
-0.286840,0.718638,0.539581,-0.715742,0.523028,-0.462768
0.104384,0.327532,0.805649,0.043508,-0.997326,0.058726
0.386063,-0.409061,0.585521,-0.630530,0.604657,-0.486644
-0.392462,0.646188,0.614742,-0.343788,0.814639,0.467090
0.136916,-0.510885,0.770407,0.818206,0.380841,0.430696
-0.212604,-0.347596,0.866112,0.464793,0.451539,-0.761630
0.065034,0.325335,0.359413,0.156970,-0.601638,0.783193
0.239824,-0.116251,0.761607,0.612858,-0.642378,0.460169
0.366569,0.513429,-0.945327,0.229829,-0.050004,-0.971946
0.186228,-0.280003,0.900702,0.956152,-0.274971,-0.100816
-0.112835,-0.276534,0.843494,-0.013053,-0.635383,0.772087
0.602196,-0.292203,-0.945829,0.110375,-0.452064,0.885130
0.045116,-0.160890,0.873841,0.495776,0.591301,-0.636058
0.256784,0.018705,0.714460,-0.509187,0.766730,0.390965
-0.224492,0.195120,0.883807,0.439061,0.781389,0.443459
-0.063524,-0.065078,0.958006,-0.454105,0.696386,0.555730
0.070464,0.598774,-0.951551,-0.170619,-0.098703,0.980381
0.227391,-0.465669,0.689646,0.063876,0.977024,0.203331
-0.603103,-0.087051,0.492379,-0.512380,0.735764,-0.442853
-0.213208,0.776113,0.589738,0.443506,0.059168,-0.894316
-0.234511,0.604961,0.616518,0.986493,0.019106,0.162687
-0.133660,-0.652086,0.668452,0.901110,0.179012,0.394912
-0.252860,0.074966,0.767695,0.193993,0.384105,0.902679
-0.712526,0.376507,-0.978874,0.441581,-0.057727,-0.895363
-0.125449,0.707710,0.717470,0.443982,0.885047,-0.139897
0.330416,-0.464107,0.572843,-0.393498,0.710959,-0.582835
-0.030933,0.164474,0.083379,0.896879,0.330511,0.293888
0.459095,0.191477,0.771248,0.770706,0.546746,0.327233
0.309956,0.518113,0.550117,-0.714486,0.051161,0.697777
0.505327,0.313307,0.608437,0.900929,0.227560,0.369518
0.482693,-0.187487,0.712901,0.739288,0.231758,-0.632251
0.730754,-0.523028,0.599460,0.492851,0.838906,-0.230942
0.151762,-0.216803,0.881434,0.897865,-0.368560,-0.240836
0.544677,0.651797,0.612640,-0.519789,-0.187953,0.833362
-0.106134,-0.096187,-0.957599,-0.310820,0.078332,0.947235
0.674565,-0.348868,0.680073,0.627041,0.481014,-0.612736
0.130761,0.122958,0.172954,0.936108,0.011714,0.351518
-0.046806,-0.470410,0.816605,-0.405029,-0.909782,-0.090822
0.849774,0.038481,0.519445,0.865593,0.052268,0.498013
-0.143134,0.315158,0.252631,0.173660,-0.570240,0.802913
0.099736,-0.130128,0.691598,-0.637650,0.357033,0.682590
-0.196004,-0.011709,0.459009,-0.187956,-0.982134,0.009210
-0.064551,0.014831,0.916960,-0.719684,-0.459681,-0.520335
0.362222,0.158230,-0.946588,0.079422,-0.258501,0.962741
0.209524,0.597906,-0.096884,0.863548,0.287814,-0.414062
-0.199928,0.723091,0.731233,0.418483,0.888464,0.188426
-0.074991,0.079592,0.921245,0.681606,-0.685557,0.255784
-0.077043,0.169851,-0.953314,0.266452,0.100502,-0.958594
0.199143,0.627685,-0.257892,0.944780,-0.054764,0.323096
0.045477,-0.312036,-0.959606,0.281684,-0.258447,0.924045
-0.563992,0.658851,0.291574,0.842869,0.026421,-0.537470
-0.147238,0.596518,0.753458,-0.604024,0.791904,-0.089684
-0.446238,-0.489317,0.572978,-0.734396,0.650836,-0.192547
-0.412200,-0.236231,0.723192,0.700218,-0.599264,-0.388043
-0.144763,0.174882,0.879753,0.141368,0.909213,-0.391595
-0.250024,-0.627801,0.677211,0.414926,0.511598,0.752399
-0.618313,-0.645205,0.542442,-0.095350,0.983878,0.151301
0.017351,0.027610,-0.591758,0.326341,0.940536,-0.094304
0.265293,0.424615,0.792265,-0.046553,0.200706,0.978545
0.783989,-0.180318,0.626715,0.609870,0.739820,-0.284123
-0.200289,0.360953,0.790720,0.555281,-0.694686,-0.457247
0.545340,-0.524647,0.399889,0.364192,0.917822,-0.158010
-0.230168,0.203215,0.725403,0.991474,0.003547,0.130257
-0.105169,0.151927,-0.954277,-0.205549,-0.075193,0.975754
0.466577,0.733094,0.434792,0.151357,0.632337,0.759764
-0.381720,-0.302784,0.610606,0.919657,-0.056364,-0.388656
-0.289253,0.001532,0.838287,-0.577581,0.812030,-0.083706
-0.547153,-0.085779,0.684195,0.740503,0.220140,0.634976
0.809941,-0.141924,0.661604,0.951252,0.253062,-0.176295
-0.342307,0.524877,0.104206,0.755554,0.633257,-0.167701
-0.228356,-0.090173,0.707016,0.940970,-0.020209,0.337886
0.172104,-0.223510,0.841636,0.884094,-0.344306,-0.315961
-0.498445,-0.324294,0.439348,0.398217,-0.802432,0.444439
-0.724841,0.236000,0.435388,0.056980,0.668188,0.741807
-0.151644,-0.333314,0.684317,0.740756,0.018171,0.671528
0.077404,-0.821967,0.540611,-0.726759,-0.517170,-0.452058
-0.249239,0.632079,0.678229,0.031530,-0.585683,0.809927
0.553854,-0.365694,-0.947144,-0.016811,-0.256476,0.966404
0.452033,0.065368,0.672086,-0.375755,0.355484,-0.855827
-0.089778,-0.279251,-0.064422,0.921684,-0.356592,-0.152779
-0.708423,-0.253231,0.609820,-0.169831,0.948843,0.266186
0.306394,-0.594726,0.672208,0.876234,0.445985,0.182514
-0.136496,0.062014,0.873583,-0.390326,-0.251665,0.885613
-0.671666,-0.124231,0.650133,-0.515315,-0.409668,0.752744
-0.318046,0.412183,0.447999,-0.557601,-0.722904,0.408032
0.058757,0.054555,0.967619,-0.695117,0.259131,-0.670570
0.111568,0.610627,0.439117,0.570032,0.725343,-0.385930
-0.205542,-0.520773,0.276672,0.263414,0.203713,0.942929
-0.112051,-0.360086,0.781499,-0.038680,0.890482,0.453371
-0.570269,0.333834,0.624695,0.957062,-0.214913,0.194536
0.017774,0.319957,-0.948012,0.310222,-0.058659,-0.948853
-0.159130,-0.665847,0.657848,0.903128,0.423849,0.068638
0.065635,0.609240,-0.950711,-0.179353,-0.115938,0.976929
-0.306696,-0.677875,0.502698,-0.559620,-0.037272,-0.827911
-0.391375,0.079303,0.738759,0.887298,-0.460930,-0.015676
0.441954,-0.365058,0.782096,0.900169,-0.039444,0.433752
-0.188582,-0.680997,0.679530,0.616290,0.442776,0.651257
-0.416845,0.105380,0.533411,0.351708,0.409339,-0.841869
-0.546309,-0.239354,-0.975430,0.104261,0.144286,0.984028
-0.240428,-0.543555,0.653306,0.819522,0.573012,0.006470
0.301568,0.302669,0.705850,0.551227,0.738282,-0.388702
-0.303137,-0.008644,0.744752,-0.275946,0.032636,-0.960619
0.019583,-0.027610,0.660831,0.254655,-0.823941,0.506234
0.177777,-0.689323,0.690676,0.906779,0.246433,-0.342085
-0.171802,0.553152,0.637468,0.024808,-0.811030,0.584478
-0.434951,-0.418428,0.616993,0.547133,-0.809213,-0.214054
-0.415880,0.519327,-0.950995,-0.065063,0.114150,0.991331
0.705225,-0.474400,0.608993,0.867264,0.497405,-0.021023
-0.029846,-0.340311,0.266285,-0.255329,0.278253,0.925949
-0.215864,-0.097170,0.698121,0.830076,-0.152564,0.536376
0.829738,-0.322733,0.654391,0.830738,0.365104,-0.420206
-0.456137,0.550666,0.288347,0.689898,0.700672,0.181931
0.957448,-0.232415,0.612478,0.872200,0.442748,-0.207944
0.207955,-0.083928,0.829907,-0.684525,0.728737,0.019165
-0.716391,-0.280291,0.616939,0.517868,-0.745015,-0.420434
-0.587170,-0.533667,-0.965735,-0.009840,0.289941,0.956994
0.115731,-0.282489,0.615623,0.657850,-0.646663,0.386084
-0.186228,-0.665443,0.676154,0.633521,0.273861,0.723638
0.548663,-0.758247,0.325080,0.790870,0.603273,-0.102891
-0.295954,-0.173147,-0.973247,0.286537,-0.293941,-0.911864
0.588739,-0.384834,0.112003,0.207524,-0.848369,0.487036
0.063221,-0.648328,0.465558,0.298995,-0.895577,-0.329460
0.342911,0.063402,0.525397,-0.394454,0.918684,0.020650
-0.009508,0.898117,-0.943266,0.042583,-0.023597,-0.998814
-0.222985,0.575125,0.603176,0.994312,0.000685,0.106507
-0.373148,0.139380,0.760956,-0.638532,0.110573,-0.761610
-0.627788,-0.606811,0.545886,-0.196749,0.979457,-0.044194
0.121525,-0.594033,0.784550,0.967919,0.250318,-0.021771
-0.304463,-0.655381,0.525316,0.925646,-0.098168,0.365435
-0.106075,0.613634,0.783709,-0.282797,-0.919590,0.272728
0.658993,-0.010726,0.529180,0.627878,0.604042,-0.490819
0.734736,-0.061493,0.618376,-0.554804,0.778162,0.294374
-0.619400,-0.112146,0.586185,-0.415124,-0.402487,-0.815890
-0.059298,0.953453,0.113562,0.330074,0.747948,0.575869
-0.676797,-0.190610,0.554483,0.950660,0.163673,-0.263546
0.436462,-0.128567,0.735328,0.976834,-0.112288,0.182171
-0.748079,-0.131284,0.447795,0.998294,-0.035855,0.046084
0.150377,0.337882,0.707531,0.607222,0.514318,0.605605
-0.522648,0.174708,0.526306,0.200088,-0.446318,-0.872219
0.122310,-0.137876,0.158784,0.917890,0.333335,0.215329
-0.103180,0.889271,0.477369,-0.702503,0.579371,0.413302
-0.538161,-0.079071,0.757309,0.971081,-0.217100,-0.099348
0.281226,0.273700,0.639963,-0.161282,0.834421,-0.527000
0.421675,-0.823181,0.484420,0.255462,-0.752298,0.607278
0.002505,0.084506,0.878587,0.002980,-0.435077,0.900388
-0.560009,-0.337882,0.369434,-0.607851,0.029067,-0.793519
-0.438090,-0.233109,0.658757,-0.610854,-0.672883,0.417237
0.001418,0.647923,-0.154323,-0.129030,-0.357832,-0.924828
-0.428494,0.808726,0.372607,0.623275,0.745913,0.234822
0.219180,0.607679,0.541452,0.020414,-0.148981,0.988629
-0.213691,-0.486831,0.100776,-0.318759,0.402375,0.858188
0.138909,-0.713493,0.731098,0.999329,0.036356,-0.004381
-0.283160,-0.411547,0.621603,-0.285740,0.341469,0.895406
0.199081,-0.465495,0.722555,0.970069,0.109176,0.216902
-0.539188,-0.486138,0.640641,-0.602050,-0.400912,-0.690511
-0.645352,-0.455954,0.608735,0.987748,0.154872,-0.019213
0.683981,-0.282662,0.675693,-0.292780,0.820681,0.490676
-0.332950,0.265605,0.702134,0.188733,-0.957268,0.219130
-0.318285,-0.131053,-0.974630,-0.243664,0.239891,0.939723
0.464285,-0.387378,0.774665,0.654122,-0.719911,-0.232062
0.755078,-0.039290,0.539879,0.808792,-0.155753,0.567095
0.062617,0.429067,0.713728,0.868319,0.345242,0.356131
0.534959,-0.442539,0.599501,0.922346,0.026359,-0.385464
0.283823,-0.437625,0.591013,0.802067,-0.364346,0.473223
-0.589344,0.471681,-0.968216,-0.463707,0.134847,0.875666
-0.118449,0.346382,0.477016,0.812800,0.527929,0.246264
-0.066423,-0.045131,0.854857,0.984316,0.176269,-0.007162
0.299999,-0.427795,0.579758,0.799137,-0.270100,0.537053
-0.309717,0.731764,0.578958,-0.555820,0.684932,-0.471097
0.364395,-0.751655,0.484230,0.335462,0.639264,-0.691958
0.834085,0.010957,0.524814,-0.833226,0.175233,-0.524432
-0.708183,-0.295788,0.468487,0.285531,-0.031790,-0.957842
-0.113620,0.048426,-0.959606,0.327497,0.148065,-0.933179
-0.237411,-0.286941,0.066592,0.452417,-0.487804,-0.746569
-0.087726,-0.401660,0.809907,0.668550,0.458023,0.585881
0.245434,0.626644,0.431198,-0.715863,0.681577,0.151635
0.146995,-0.071150,0.941992,0.713375,-0.683013,-0.156812
0.719588,-0.297638,0.639949,-0.256151,-0.858998,0.443293
0.183874,0.784787,-0.940080,0.092578,-0.099380,0.990734
-0.142048,-0.378010,0.693185,-0.326857,-0.944128,-0.042273
0.349550,-0.586921,0.599704,0.294193,0.853616,0.429872
0.100218,-0.637053,0.532516,-0.193410,0.835611,0.514147
-0.511965,-0.146029,0.572748,0.107325,0.397303,0.911390
-0.131726,-0.309550,0.861474,-0.404062,0.808809,0.427273
-0.024413,-0.645899,0.744441,-0.628688,-0.664282,0.404328
-0.493922,-0.014022,0.817229,0.080496,-0.928443,0.362648
-0.097805,-0.373442,0.679897,-0.667971,-0.719228,-0.191118
0.504119,-0.448206,0.577236,0.639755,0.370435,-0.673417
0.161904,-0.323080,0.750990,0.603845,-0.514916,0.608468
-0.595982,0.351008,0.476826,0.951380,-0.212228,-0.223240
-0.380390,0.053340,0.635366,-0.405809,-0.224223,-0.886027
0.909647,0.179103,0.268726,0.167039,0.471258,0.866033
0.169569,-0.223915,0.397448,0.050792,0.635942,0.770064
0.294443,-0.391020,0.747329,0.925706,-0.293676,0.238377
-0.193047,0.428084,-0.957423,-0.144987,0.053622,-0.987979
0.091709,-0.039059,-0.189171,0.300579,0.952634,-0.046272
-0.216767,-0.568418,0.677646,-0.678152,0.734852,-0.010150
-0.412742,0.621036,0.591108,0.934362,0.304813,-0.184543
-0.643300,0.221891,0.554062,0.888422,0.045639,0.456754
-0.143617,-0.243343,0.689578,0.168441,0.844331,0.508657
-0.158765,0.821099,-0.944799,-0.238730,-0.259335,0.935817
0.382442,-0.041488,0.837460,0.754700,-0.442119,-0.484725
-0.220992,0.804215,-0.956934,-0.196201,-0.180180,0.963867
-0.554819,0.340715,0.684995,-0.580990,0.011162,-0.813834
-0.365121,0.400618,0.502454,-0.313422,-0.401009,-0.860789
-0.466337,0.447049,0.640058,-0.545927,0.752856,0.367657
0.841629,-0.187603,0.660669,0.994072,0.059522,-0.090983
0.209948,0.612710,-0.259153,0.944780,-0.054764,0.323096
-0.307782,0.517303,0.454005,-0.107714,-0.352613,0.929549
0.667138,-0.398248,0.615732,0.996531,-0.081087,-0.018708
-0.088209,0.344300,0.258041,-0.223101,0.618013,-0.753848
0.680658,-0.367487,0.672167,0.755455,0.484974,-0.440554
0.096719,-0.287519,0.861217,-0.414792,0.543965,0.729418
-0.221475,-0.629651,0.684046,0.203639,-0.075871,0.976102
0.008417,0.035011,-0.877814,0.568438,0.814439,0.116484
0.074509,0.149094,0.285174,0.960834,0.023549,-0.276123
-0.531342,0.082946,0.643245,0.404650,-0.165943,0.899290
0.081327,-0.547602,0.655855,-0.265824,-0.392500,-0.880501
0.323837,0.745237,0.437381,-0.251756,-0.246759,0.935804
0.833300,-0.207956,0.651652,0.985173,-0.019266,-0.170478
0.154599,-0.631327,0.784848,0.926124,0.349398,0.142181
-0.326190,-0.602185,0.415754,-0.414530,-0.041848,0.909073
-0.174941,-0.379860,0.390885,0.150436,0.379636,0.912823
0.079821,-0.085952,0.884634,-0.649775,-0.176232,-0.739415
0.093760,-0.053457,-0.837324,-0.463924,0.885804,-0.011213
-0.177777,-0.310995,0.585006,0.719839,0.256376,-0.645061
-0.126837,-0.656076,0.453653,0.950273,-0.022556,-0.310601
-0.040106,0.586573,0.776645,0.436018,0.697324,0.568882
-0.302714,-0.400040,0.760821,0.237830,-0.966747,-0.094003
0.098350,-0.067796,0.769322,-0.482342,0.749100,0.454087
0.662011,-0.242650,0.494712,0.886370,-0.402691,-0.228448
-0.089056,0.407211,0.638756,0.311529,0.141294,-0.939673
0.007633,0.000491,0.713131,0.838279,-0.316006,-0.444329
0.262575,-0.017318,0.893692,-0.010703,-0.998319,0.056963
0.264991,-0.426639,0.612925,0.840110,-0.432620,0.327193
0.046261,-0.981786,0.531296,-0.101510,-0.672467,0.733133
-0.071433,-0.719738,0.497437,-0.659667,0.616302,0.430130
-0.654948,0.302495,0.684208,0.662027,0.571554,0.484816
-0.077106,0.486947,0.827656,-0.700788,-0.451431,-0.552364
0.241511,0.490185,0.673279,0.434675,0.789345,0.433580
-0.127681,0.657578,0.574944,0.547395,0.779884,0.303546
0.058816,-0.042470,0.183096,0.486286,-0.872121,-0.054138
-0.354014,-0.406864,-0.955958,0.824035,-0.164685,-0.542074
-0.310199,0.551013,-0.958806,-0.047753,0.098565,0.993984
0.376589,-0.343202,0.794015,0.484905,0.294647,-0.823438
0.340075,0.306022,0.515594,0.394121,-0.871838,0.290804
0.642092,-0.040100,0.614362,0.072882,0.303710,0.949973
0.821229,-0.165284,0.672005,0.923687,0.267492,0.274319
0.218034,-0.674405,0.772373,-0.516346,-0.841371,0.159627
-0.671909,-0.094568,0.092708,0.325103,0.557036,-0.764211
0.032561,0.464859,-0.950765,-0.140961,-0.044158,0.989030
-0.572505,0.174362,0.652668,0.891066,-0.368482,0.264994
0.729004,0.435889,-0.043988,0.456321,0.887594,-0.062835
-0.076078,0.560033,0.653469,0.113379,-0.906751,0.406137
0.188280,0.286131,0.827507,-0.015606,-0.775595,0.631038
-0.545101,-0.418775,0.578619,0.857807,0.432658,0.277442
0.073783,-0.001532,0.947619,0.348993,-0.745429,-0.567926
-0.095753,-0.190957,0.882614,0.712403,-0.634139,0.300582
-0.467726,-0.114170,0.677835,0.179508,-0.883895,0.431864
-0.087789,0.339501,-0.959728,-0.154965,0.021887,0.987678
0.842712,-0.339328,0.624953,0.678156,-0.631101,0.376585
-0.070044,0.428951,-0.957111,-0.127561,0.015433,0.991711
-0.067690,0.563214,0.753173,0.811368,-0.509125,0.287182
0.106617,-0.600162,0.737579,0.511019,0.838432,-0.189449
0.014212,0.013096,0.957572,0.923424,0.076949,-0.375988
-0.484808,-0.635086,0.548232,-0.042767,-0.938224,0.343376
0.185200,0.915523,-0.940649,-0.108890,-0.038491,0.993308
0.083018,-0.282894,0.793757,0.777751,0.621911,-0.091273
-0.167157,0.305271,0.790801,0.975591,0.170088,-0.138894
-0.161181,0.008876,0.457219,0.220968,-0.958704,0.179054
0.481909,-0.369453,-0.952867,-0.209663,-0.206215,0.955781
0.660983,0.067796,0.603962,-0.048942,0.530591,0.846214
0.315508,-0.614849,0.670391,0.811432,0.458438,0.362510
-0.727074,0.098615,0.473843,0.606715,0.794724,-0.017657
0.178381,-0.038943,0.809297,-0.145244,-0.469496,0.870906
0.564717,0.414033,0.756943,0.539570,0.807811,-0.237289
0.278872,0.014600,0.855440,0.927440,0.282795,-0.244708
-0.379123,-0.037440,0.761580,-0.079563,-0.032974,0.996284
