-0.241387,0.551336,0.137438,0.727895,-0.180681,-0.661455
0.003341,-0.484529,-0.956955,-0.101862,-0.140452,0.984834
-0.126909,0.467187,-0.006089,-0.576311,0.815359,-0.055265
0.565837,-0.447278,0.602631,0.290876,-0.008178,-0.956726
-0.257220,-0.526399,-0.956792,-0.233399,-0.092152,0.968004
-0.015090,-0.103956,-0.960471,0.082221,-0.026023,0.996274
0.191106,0.136949,0.767355,-0.199956,0.543422,0.815298
0.541963,0.422290,0.762080,0.192464,0.094113,-0.976781
0.520563,0.177177,0.389131,0.131671,0.991081,0.020504
-0.289380,0.410488,0.092114,0.261192,-0.912165,-0.315807
-0.649453,-0.415105,-0.976263,-0.087902,0.152111,0.984447
-0.181025,-0.519472,0.819354,0.437698,0.516255,0.736139
-0.262601,-0.008979,-0.970533,-0.064076,0.060590,0.996104
-0.920279,-0.097183,0.369172,0.517387,0.757233,0.398633
0.528728,0.508492,0.371646,0.038236,0.178111,0.983267
-0.631579,0.146699,0.509508,0.812630,0.581855,0.032816
-0.195436,-0.255579,-0.960244,0.015245,0.104043,0.994456
-0.175459,0.651445,0.551120,-0.388862,-0.591126,0.706651
0.029068,-0.090871,-0.952234,-0.150023,-0.059094,0.986915
0.008473,-0.014726,-0.939535,0.157048,-0.108376,0.981626
0.009154,-0.165478,-0.953504,-0.215994,0.080819,0.973044
0.370401,-0.868746,-0.934293,-0.018824,-0.053631,0.998383
-0.098708,0.415926,0.095500,0.330968,-0.804466,-0.493249
0.070691,-0.713274,-0.944908,-0.087838,-0.077845,0.993088
0.421548,-0.073117,-0.937353,-0.132134,0.031793,0.990722
0.396932,-0.112319,-0.932665,0.284724,-0.118421,-0.951267
0.007174,0.143106,-0.951550,-0.163110,0.087309,0.982737
-0.329952,0.624660,0.492251,-0.711361,0.445473,0.543617
-0.783906,-0.144440,0.559260,-0.460853,0.107705,0.880917
-0.474860,-0.227667,0.338695,0.855607,-0.192510,0.480497
0.263530,-0.798450,-0.942661,-0.180856,0.075094,0.980638
0.314430,0.571553,0.186735,-0.599035,-0.066096,0.797990
-0.421238,-0.214890,-0.974179,-0.016464,0.056919,0.998243
-0.509060,0.540613,0.428985,0.530770,0.847484,0.007387
-0.349618,-0.411412,-0.964965,-0.245436,0.240334,0.939149
-0.070691,-0.287598,-0.954285,-0.061656,-0.008659,0.998060
0.033707,0.593770,0.304116,-0.652431,0.514843,0.556121
0.145216,-0.382984,-0.946503,-0.225288,-0.052435,0.972880
-0.376027,-0.416593,-0.964021,-0.046192,-0.016523,0.998796
0.550126,0.214583,0.485511,0.859434,-0.436013,0.266958
-0.502999,0.413823,0.402742,0.972069,-0.234495,-0.009716
-0.262786,0.417672,0.064926,0.292175,-0.909571,-0.295489
-0.247202,0.416645,0.422734,0.836073,0.429160,-0.341767
0.405035,0.281442,-0.942042,-0.186301,0.170856,0.967523
0.144659,0.289086,-0.945949,-0.061897,0.073855,0.995346
0.085411,0.067371,-0.951875,0.174591,0.256608,0.950616
-0.467376,-0.243265,-0.966756,0.094139,-0.026273,0.995212
-0.116025,-0.043820,-0.959560,-0.023892,-0.105209,0.994163
0.191044,0.727846,0.239971,0.013176,0.979097,0.202967
0.146886,0.216429,-0.952201,-0.039303,-0.082515,0.995815
-0.858618,0.313613,0.808414,0.344228,-0.185202,0.920439
-0.507761,0.511262,0.425078,0.754615,0.652895,0.065453
0.371390,-0.160295,-0.921301,-0.383001,0.102819,0.918008
-0.260127,0.008672,0.739320,0.837322,0.366665,0.405522
0.218196,0.211349,-0.945689,-0.010600,0.084212,0.996391
-0.014780,-0.120426,0.876107,-0.199974,0.786167,0.584767
-0.363412,-0.323619,-0.967830,-0.292241,-0.131491,0.947262
-0.117818,0.623376,0.181134,0.499133,0.381443,0.778053
-0.148617,-0.532761,-0.954318,0.061788,0.057838,0.996412
0.249737,-0.071783,-0.944289,-0.132605,-0.092906,-0.986805
-0.219989,-0.353430,0.776179,-0.319229,0.527034,0.787609
-0.460634,-0.489198,-0.964249,0.100205,-0.255017,-0.961730
-0.514069,0.009596,0.868227,-0.083260,0.427123,0.900352
0.558353,0.598338,0.013350,-0.068256,0.956715,0.282908
0.386232,-0.796756,-0.942010,-0.201967,0.197678,0.959235
0.091534,-0.658165,-0.943605,0.028438,0.190991,0.981180
-0.246335,-0.428190,-0.963630,0.155877,-0.088262,-0.983825
-0.544684,0.399046,0.234403,-0.085762,0.298732,0.950476
-0.544684,-0.281491,-0.973789,0.053446,-0.199289,-0.978482
0.003094,-0.334804,0.645806,-0.505958,0.818856,-0.271073
0.536397,-0.687208,-0.925241,-0.479447,0.023013,0.877269
0.468180,-0.496074,-0.931916,0.260985,0.007547,-0.965313
-0.290988,0.274566,0.379754,-0.035964,0.942920,0.331072
-0.406766,0.440146,0.321080,0.516864,0.552190,-0.654170
-0.468984,-0.470983,-0.963565,-0.114952,-0.012433,0.993293
0.393406,0.086049,-0.936149,-0.076545,0.088072,0.993169
0.166800,0.073324,-0.949661,-0.123544,0.081408,0.988994
0.109160,0.320232,0.265759,-0.518056,0.530535,0.670933
0.190489,0.748884,0.172636,0.981548,-0.154719,-0.112366
-0.018740,0.739493,0.133563,-0.496721,-0.243448,-0.833068
0.343867,-0.188055,-0.940968,0.354572,-0.082011,-0.931425
0.147318,-0.565856,-0.947284,-0.120879,-0.004823,0.992656
-0.233656,0.490122,0.049590,0.904679,-0.354712,0.236082
-0.000619,0.166657,-0.954676,-0.065552,-0.177178,0.981993
0.088997,0.117142,-0.952201,-0.000836,-0.087875,0.996131
0.036489,-0.332290,-0.335374,0.598334,-0.801242,-0.002941
-0.015462,-0.278361,-0.955718,-0.082295,-0.078051,0.993547
0.018493,0.430755,0.432600,-0.403240,0.370491,0.836740
-0.339291,0.192930,0.526667,0.098141,-0.870693,0.481936
0.076814,0.000000,0.826875,0.230703,-0.683655,-0.692381
-0.195064,0.264867,0.379526,-0.753340,0.557182,0.349324
-0.356917,-0.038483,0.334527,-0.678779,0.722111,-0.133471
-0.254561,-0.387192,-0.955294,-0.029506,-0.281836,0.959009
0.538684,0.204320,0.567172,0.903682,0.077847,-0.421068
0.426557,0.514701,0.355561,-0.238100,0.432818,-0.869470
0.459708,-0.798707,-0.932795,-0.183875,0.115092,0.976188
-0.231244,0.098209,0.618651,-0.675336,0.615253,0.406675
-0.130930,0.546410,0.003712,0.117480,-0.500675,0.857626
-0.232667,-0.450819,0.789398,0.602588,-0.011374,-0.797971
0.285237,0.754989,0.308381,0.818132,0.569969,-0.076130
0.396066,-0.339525,0.080229,0.218945,0.077202,0.972678
0.332611,0.157268,0.516443,-0.560881,-0.638288,0.527258
0.278495,0.218328,-0.941717,0.010565,0.080333,0.996712
0.020101,-0.598338,-0.944484,-0.162121,-0.044319,0.985775
-0.713712,-0.164708,-0.980236,-0.103130,-0.015794,0.994543
0.367247,-0.389808,-0.940870,-0.037298,0.061181,0.997430
0.181335,-0.694237,-0.943052,-0.057911,0.035993,0.997673
-0.413260,-0.235517,-0.973268,0.246176,-0.170158,-0.954172
0.418394,-0.762840,-0.922376,0.029011,0.227362,-0.973378
-0.560641,-0.383395,-0.974245,0.354251,0.172782,-0.919050
0.503928,0.113347,0.831890,-0.217560,-0.080427,0.972728
0.007421,-0.548104,-0.943703,-0.026340,0.018520,0.999481
0.404106,0.159218,0.444582,0.133826,0.782539,0.608049
-0.485125,-0.526861,-0.970435,-0.151766,-0.238186,0.959289
-0.076133,-0.375442,0.714737,-0.358845,0.933286,-0.014419
0.529842,-0.471753,-0.937712,0.010980,0.081632,0.996602
0.000372,-0.311920,-0.951778,-0.176663,0.150033,0.972769
-0.243676,0.589666,0.522239,-0.348319,-0.388789,0.852946
0.247325,0.218635,0.755177,-0.214689,0.316598,0.923945
-0.033583,-0.706655,-0.951387,0.235088,-0.030761,0.971487
-0.484446,-0.482323,-0.973952,0.122676,0.294522,-0.947738
0.375720,0.143312,-0.944126,-0.137367,0.072778,0.987843
-0.249552,-0.133511,0.921106,-0.119709,0.919631,0.374097
-0.234460,-0.224947,-0.961644,-0.020643,0.190221,0.981524
-0.360133,-0.616604,-0.957215,-0.058896,0.110146,0.992169
-0.511966,-0.159218,0.117088,0.546844,0.805169,0.229489
0.401881,0.303812,-0.946145,0.184230,0.100005,-0.977782
-0.021585,-0.133357,-0.496353,-0.561551,-0.003510,0.827435
-0.530274,0.051464,0.752149,-0.581285,-0.466881,0.666431
-0.437442,0.341578,0.477175,0.491216,-0.407562,-0.769805
-0.065929,0.020114,0.681297,-0.333045,-0.662915,-0.670541
0.162595,-0.392118,-0.941000,0.162075,0.020699,-0.986561
0.052880,-0.703473,-0.944484,0.018447,0.148518,0.988738
-0.242191,-0.348914,-0.955132,-0.026062,-0.038927,0.998902
0.454821,-0.023603,0.890434,-0.428473,-0.380600,0.819484
0.250046,-0.087536,-0.941814,0.125039,0.074320,0.989364
0.205394,0.264970,0.436507,-0.301781,-0.405031,0.863064
-0.618837,-0.347118,-0.981147,0.093923,0.041574,0.994711
0.227967,0.795833,0.290147,-0.568954,0.771925,-0.283590
0.388707,-0.187183,-0.930744,0.210212,0.095552,-0.972975
0.428103,-0.407563,-0.934716,-0.080378,0.089741,0.992716
-0.091409,0.041510,-0.958974,0.147510,0.084755,-0.985422
-0.218319,0.494535,0.354747,-0.795745,0.148826,-0.587062
-0.669057,0.262610,0.747818,0.161993,-0.065640,0.984606
0.008163,0.288316,0.577038,0.876495,-0.345530,0.335209
0.031852,-0.291651,-0.216202,0.847129,0.381737,0.369662
0.388460,-0.881573,-0.933837,0.039084,0.055677,0.997684
-0.483642,0.111652,0.825280,0.758874,0.575156,-0.305459
0.590513,0.428549,0.388545,-0.188167,0.467686,0.863634
0.062836,-0.056391,-0.955783,0.273976,-0.032225,-0.961196
-0.298471,-0.462567,-0.969914,0.022440,-0.087424,0.995918
0.348135,0.116475,0.826941,0.673574,-0.733748,-0.088947
0.252026,0.376264,0.708909,-0.592812,-0.006417,-0.805315
0.373060,-0.503360,-0.948229,-0.084992,0.186706,0.978732
-0.304841,0.167428,0.421822,-0.559970,-0.327281,-0.761131
0.438618,-0.637283,-0.935628,0.055951,0.066887,-0.996191
0.012740,-0.068398,-0.949857,0.128875,-0.065798,-0.989476
-0.509494,0.100979,-0.980985,-0.100455,-0.004677,0.994931
-0.394088,-0.138694,-0.968937,-0.080110,-0.006103,0.996767
0.078732,-0.334188,-0.137764,0.378769,0.921383,0.087104
-0.119054,0.076710,0.052748,-0.305812,-0.821653,0.481005
-0.152205,0.074965,0.764327,0.098651,-0.973664,0.205539
0.423341,0.131151,-0.938461,0.053554,0.113489,0.992095
-0.060114,-0.035558,-0.957899,-0.143232,-0.230921,0.962372
-0.304594,-0.114424,0.678855,-0.686210,0.413423,0.598497
0.273733,0.137256,0.772923,-0.117884,0.479656,0.869502
-0.822995,0.293294,0.290733,-0.023876,0.231417,0.972562
-0.323397,0.670686,0.039170,-0.724314,0.671510,0.156343
-0.197167,-0.093693,-0.962165,-0.068276,-0.066962,0.995417
-0.500772,0.002772,-0.967700,0.067301,-0.142209,-0.987546
0.409859,-0.057828,-0.925990,-0.151219,-0.039811,0.987698
0.478570,-0.256093,-0.929441,-0.078075,-0.183827,0.979853
-0.696270,-0.288111,-0.979682,-0.019726,0.126412,0.991782
0.365639,-0.345425,-0.942140,-0.076030,-0.025331,0.996784
-0.318263,-0.359587,-0.960471,-0.193165,0.013110,0.981079
0.453460,-0.730617,-0.934163,-0.094687,0.044532,0.994511
-0.044715,-0.557955,-0.948294,-0.133617,0.018766,0.990855
-0.270889,0.215969,0.444973,0.554356,-0.823778,-0.118656
-0.780073,0.101236,0.640108,0.998883,-0.032699,0.034101
0.408189,0.024680,-0.936377,0.120123,0.051165,-0.991440
0.302060,-0.232592,-0.945494,-0.049531,-0.049091,0.997565
-0.207557,-0.425984,0.878712,-0.310902,-0.941731,-0.128381
0.261178,-0.453589,0.534189,-0.552799,-0.726604,-0.407996
-0.510173,-0.475550,-0.971998,0.107690,0.015171,-0.994069
-0.213989,0.078506,-0.960797,-0.377238,-0.113572,0.919126
0.471024,-0.174765,-0.920064,-0.149174,-0.217585,0.964574
-0.211949,-0.647647,-0.960276,0.124788,0.039410,-0.991400
-0.018925,-0.067781,0.942759,-0.868400,0.440632,0.227431
0.417960,-0.382574,-0.936930,0.308030,-0.035217,-0.950725
0.222464,-0.400944,-0.480985,-0.108347,0.235981,0.965699
0.173976,0.295808,0.298678,0.752413,0.579389,-0.313343
0.286473,0.384165,0.367251,-0.619426,0.204607,-0.757923
-0.278310,-0.620554,-0.963434,-0.008767,0.064484,0.997880
-0.050900,0.211710,0.167622,0.359475,0.625737,0.692265
-0.370091,0.009134,-0.969686,-0.070337,-0.218272,0.973350
0.045024,-0.301810,-0.403230,0.364122,-0.930307,-0.044086
0.256973,-0.004721,-0.947415,-0.149300,0.076730,0.985810
0.742346,-0.665298,0.602208,-0.687558,0.018898,0.725884
-0.349311,-0.471189,0.758694,0.248055,-0.129705,-0.960024
0.366194,0.122120,0.828178,-0.580242,0.795065,0.176609
0.288144,-0.393452,0.383466,-0.552281,-0.827725,0.099281
0.330138,-0.260864,-0.942824,-0.064171,-0.071213,0.995395
-0.180159,-0.421366,-0.955262,0.232559,-0.108295,-0.966534
-0.224751,0.257017,0.372688,-0.775198,0.625492,0.088470
0.070691,0.684898,0.128907,0.690177,0.522571,-0.500574
0.368730,-0.569192,-0.938461,-0.084152,0.017620,0.996297
0.471706,-0.354045,-0.932079,-0.014118,-0.153954,0.987977
-0.645433,-0.113345,-0.981213,0.119455,-0.208961,-0.970601
0.509926,-0.488326,-0.927650,0.119330,0.030914,0.992373
0.042427,0.084766,-0.956987,-0.004341,0.162148,0.986757
-0.377945,-0.574016,-0.967960,-0.116159,0.108171,0.987323
0.396870,0.290882,-0.941912,0.132912,-0.077699,-0.988078
-0.485497,0.067988,-0.974831,-0.069468,0.015404,0.997465
-0.459088,0.027553,-0.976719,-0.113349,0.112715,0.987141
0.328406,-0.389297,-0.942270,0.045020,-0.027500,0.998608
-0.074896,-0.064497,-0.957215,-0.080172,0.019203,0.996596
0.532439,-0.685975,-0.928595,-0.538859,0.111442,0.834992
0.050652,-0.321360,-0.228250,-0.871502,0.477863,-0.110140
0.495887,0.030889,-0.935367,0.278211,0.087481,0.956528
-0.036921,0.101236,0.548222,-0.752310,-0.621795,0.217718
-0.416104,0.435835,0.388154,0.376781,0.178526,-0.908936
0.457480,-0.026681,0.885387,0.447021,0.429983,-0.784402
0.342879,0.054646,-0.931200,-0.161066,0.067741,0.984616
0.179727,0.238237,-0.951680,-0.066905,0.113379,0.991297
-0.024676,0.483145,0.392225,0.879932,0.005368,-0.475069
0.190549,-0.332341,0.062060,-0.239115,-0.964705,-0.110313
0.309728,-0.789830,-0.931916,-0.038742,0.136096,0.989938
-0.184674,0.491558,0.493748,0.317262,-0.569522,0.758281
0.002412,0.546923,0.348821,0.926876,-0.309291,-0.212695
0.350177,-0.597209,0.546008,0.479903,-0.306333,-0.822103
0.034077,0.375493,0.704480,-0.615518,-0.313846,0.722937
-0.238667,-0.156243,0.731603,0.875920,0.226496,-0.425985
-0.363659,0.009186,-0.971314,-0.010259,-0.178811,0.983830
-0.336816,-0.201909,-0.972421,-0.092599,0.007822,0.995673
-0.654462,-0.232592,-0.989060,-0.106477,0.064062,0.992249
0.208918,0.462261,0.315675,0.068256,0.924280,0.375564
-0.371822,-0.562266,0.764685,-0.361428,0.382818,0.850189
-0.275156,-0.663759,-0.961676,0.065253,0.095777,0.993262
0.370710,0.390888,-0.947024,-0.157401,0.121930,0.979979
0.437876,0.184822,-0.942986,0.068714,-0.024812,0.997328
0.242378,0.064292,0.839900,-0.362155,-0.010031,-0.932064
0.146144,0.077582,-0.955620,-0.178633,0.054324,0.982415
-0.380481,-0.174867,0.679930,0.321629,-0.365835,-0.873338
-0.347456,0.067474,-0.960569,-0.384931,0.041151,-0.922028
0.100995,-0.233106,-0.944191,-0.171123,0.021302,0.985019
0.585441,-0.650828,0.505307,0.940120,0.230585,-0.251007
0.343126,-0.261224,-0.943019,-0.090808,-0.044434,0.994877
-0.176201,-0.526501,0.828113,0.417310,0.519288,0.745784
-0.595027,-0.203037,-0.980529,-0.145730,0.055389,0.987773
0.147318,-0.186978,0.831108,-0.590303,0.804086,0.070625
-0.008597,0.656421,0.112073,-0.124516,-0.643192,0.755513
0.606346,0.308429,0.569582,0.837925,-0.543746,0.047137
0.041376,-0.500949,-0.950215,-0.090497,-0.142035,0.985716
-0.251964,0.047309,-0.967798,-0.188414,-0.058409,0.980351
-0.463169,0.196880,0.564796,0.792708,0.411609,0.449658
0.406209,-0.301041,-0.938200,-0.175339,-0.076298,0.981547
0.421423,0.349479,0.747135,0.075550,0.492358,0.867108
0.207372,0.076608,-0.949922,-0.059591,-0.216799,0.974396
-0.212815,0.019395,-0.969491,0.247657,0.004627,-0.968837
-0.490569,-0.197085,-0.962197,0.022566,-0.076640,0.996803
-0.791577,-0.283493,-0.984306,-0.067392,-0.043690,0.996770
-0.335333,0.628713,0.495311,-0.711361,0.445473,0.543617
0.051889,0.137051,-0.954090,0.051584,-0.186868,0.981030
0.254376,-0.609676,-0.939242,-0.161207,0.041393,0.986052
-0.147195,0.514752,-0.009182,-0.522054,0.483330,-0.702746
0.369719,0.007645,0.479357,-0.501855,0.316387,0.805010
0.130558,0.432603,0.383466,0.105722,0.879838,0.463367
-0.479497,-0.186207,-0.968840,0.108291,0.050183,0.992852
0.055601,0.229719,0.553660,-0.000397,0.695869,0.718169
-0.192590,-0.211453,0.724896,0.574862,0.348887,0.740142
0.118003,0.499615,0.397044,0.790636,-0.554046,0.260630
0.252583,0.320642,0.711872,0.863329,-0.207397,-0.460054
-0.089060,-0.603366,-0.948033,0.092633,0.030402,-0.995236
-0.376337,0.510545,0.191456,0.865632,0.415159,0.279865
-0.093759,-0.127815,-0.954187,0.085894,-0.015070,0.996190
-0.281959,0.390888,0.502116,0.478721,-0.029171,0.877483
0.381038,-0.571193,-0.933479,-0.157526,0.065966,0.985309
-0.441771,0.402226,0.261526,0.425201,-0.609891,-0.668758
-0.359267,-0.067012,0.389717,-0.526462,0.834086,0.164738
0.106686,-0.095027,-0.951257,0.014046,0.088115,0.996011
0.057889,-0.455026,-0.950671,-0.186215,0.255202,0.948786
-0.039521,0.112423,-0.959234,-0.090155,0.090022,0.991851
-0.168346,-0.039612,-0.961285,0.067570,0.029076,0.997291
-0.683283,0.193186,0.289366,-0.049748,0.115024,0.992116
-0.184921,0.238289,0.255568,0.586853,0.806325,-0.073778
0.133961,0.158911,0.805451,0.528108,0.787434,-0.317883
0.217205,0.336446,0.486911,0.634375,0.643947,-0.427669
-0.351289,-0.366258,-0.961513,-0.207279,-0.095553,0.973604
-0.215597,0.652881,0.131610,0.778108,-0.612640,-0.138636
0.314243,0.356714,-0.945005,-0.116511,0.067096,0.990920
-0.255859,0.079635,-0.962002,-0.116234,-0.147258,0.982245
-0.364772,0.182975,0.724212,0.228012,-0.895777,0.381569
-0.347331,-0.515521,-0.965877,0.184598,-0.086881,-0.978966
0.047314,0.254143,0.559814,0.506181,0.644428,0.573144
0.073845,-0.262969,0.719133,-0.647826,0.751449,-0.125084
0.068526,-0.052593,0.532528,0.769922,0.235309,-0.593170
0.446471,-0.550155,-0.931200,-0.093436,-0.120721,0.988279
-0.260746,-0.097132,-0.965779,-0.154120,-0.116654,0.981142
0.332921,-0.652110,0.548483,0.312385,-0.164429,-0.935617
-0.194384,0.493663,0.001205,-0.236576,0.937372,0.255666
-0.421608,-0.563291,-0.965942,0.077419,0.107142,0.991225
0.028389,0.423264,0.218709,0.881422,0.315409,-0.351587
-0.243057,0.089898,0.628549,0.538340,-0.703835,-0.463472
-0.037726,-0.653034,-0.940219,0.004611,0.138338,0.990374
0.435092,0.401764,-0.941782,-0.033511,0.136918,0.990015
-0.028821,0.237724,-0.948815,-0.058949,0.081893,0.994896
0.120972,-0.251834,-0.953210,-0.190032,0.080604,0.978464
-0.655328,-0.233054,-0.978998,-0.067247,0.080664,0.994470
-0.218504,0.169737,-0.968026,-0.060841,0.086291,0.994410
0.367247,-0.082560,-0.932046,0.008089,-0.021906,0.999727
0.077556,-0.249884,0.693149,-0.685024,0.718115,-0.122693
-0.576350,-0.506696,-0.976394,0.103052,0.039329,0.993898
-0.516543,-0.511622,-0.962816,-0.237851,-0.112408,0.964775
-0.306265,0.342655,0.493423,0.097737,-0.620730,0.777909
-0.624713,0.043615,0.752865,0.400456,-0.201230,-0.893947
0.373925,-0.645441,-0.934423,-0.191187,0.135136,0.972207
-0.109468,0.149162,0.616241,0.437988,-0.867156,-0.237078
0.247634,-0.517831,-0.946015,-0.015663,-0.110407,0.993763
-0.449812,0.261891,0.576420,0.746253,0.035140,0.664734
0.060424,-0.318282,0.593937,0.973701,-0.026242,0.226311
-0.292473,-0.403510,0.860087,-0.216210,-0.970704,-0.104817
-0.131547,-0.296372,-0.963695,-0.190713,0.074677,0.978801
-0.227658,0.538508,0.180548,0.548871,-0.262770,-0.793532
-0.104087,-0.181333,-0.954643,-0.080037,-0.237348,0.968122
0.469541,-0.782851,-0.933414,-0.139268,-0.104554,0.984720
0.263962,0.349633,0.684911,0.974716,-0.121577,-0.187479
0.019172,-0.008825,-0.954676,0.161919,-0.053277,0.985365
-0.358216,-0.063267,0.866697,0.025414,0.527706,0.849047
0.095801,-0.021653,0.839183,-0.287955,0.675461,0.678847
0.486054,0.571912,0.350742,0.103768,0.207828,0.972646
0.494094,0.188157,0.395936,0.319935,0.936288,-0.144933
-0.737089,-0.077480,-0.984338,-0.033863,0.076188,0.996518
-0.342631,-0.573246,-0.966397,0.020983,0.043998,0.998811
-0.658667,-0.203551,-0.984110,-0.107590,-0.068274,0.991848
0.063887,-0.298989,-0.375098,-0.450025,0.890155,0.071424
0.943225,-0.452460,0.016866,0.278682,0.854884,0.437617
-0.304162,-0.545332,-0.964086,0.081034,0.133956,-0.987669
-0.717855,-0.188003,-0.984469,-0.120004,-0.065863,0.990586
0.324325,0.068603,-0.940512,0.055689,-0.074441,-0.995669
0.020780,0.906819,0.105659,-0.289971,0.033713,0.956441
-0.437936,-0.061522,0.865655,-0.262694,0.481751,0.836007
0.597872,0.281286,0.562907,0.833886,-0.540336,-0.112567
0.156287,-0.268407,-0.937353,0.159177,0.492329,0.855730
-0.341950,0.575094,0.438721,0.937873,-0.332855,0.097990
0.288391,0.649597,0.187060,-0.783646,0.124367,0.608631
0.408498,-0.827337,-0.931004,-0.008708,-0.063056,0.997972
-0.670665,-0.430448,-0.971737,-0.074263,0.195141,0.977960
0.349001,-0.804555,-0.942856,-0.079807,0.249989,0.964954
-0.322406,-0.143875,0.678953,-0.579110,0.212768,0.786995
0.124313,-0.239725,-0.944126,0.077702,0.177670,0.981018
0.328900,0.513058,0.314893,-0.657092,0.302451,0.690473
-0.000866,0.544665,0.123144,-0.862417,0.502713,0.059299
-0.589771,-0.021345,-0.978933,-0.212782,-0.065068,0.974931
-0.226854,-0.093026,0.843840,-0.010273,0.944015,0.329743
-0.027522,0.687003,0.146750,-0.106098,0.922375,-0.371440
0.417960,0.230694,-0.942726,0.012909,0.015615,0.999795
-0.289257,-0.097491,-0.095109,0.746480,0.665353,0.008558
-0.422227,-0.186412,-0.977338,-0.026681,-0.098848,0.994745
0.466387,-0.914412,-0.928953,-0.197866,0.024429,0.979925
0.441399,0.203500,0.863734,0.309140,0.483583,-0.818889
-0.018800,-0.303710,-0.090030,0.493873,0.869060,-0.028691
-0.304904,0.193032,0.481245,0.136327,-0.966197,0.218809
0.624899,0.168762,0.383987,0.178296,0.982021,-0.062004
-0.024923,-0.259942,-0.953080,0.497479,0.082727,-0.863522
-0.092338,0.340449,0.333453,0.095786,-0.653698,0.750669
-0.427793,-0.604340,0.794510,-0.204553,0.382885,0.900865
0.055167,-0.115655,-0.950215,-0.224289,0.047535,0.973363
-0.186776,0.105394,0.628810,-0.192419,-0.886358,-0.421122
-0.112252,0.749089,0.074336,-0.516199,0.387280,0.763906
-0.325562,-0.027708,-0.965649,-0.163180,0.239255,0.957146
0.257098,-0.777361,-0.946112,-0.149340,0.119631,0.981522
0.421918,-0.549335,-0.925534,-0.214756,0.033998,0.976076
-0.748406,0.001898,-0.987041,0.087042,-0.097658,-0.991406
-0.256479,0.424239,0.054278,-0.183887,0.145504,0.972118
-0.029130,0.618605,0.564535,-0.441275,-0.567860,0.694846
0.110025,0.500179,0.335537,0.559686,0.821796,0.106780
0.202178,0.290010,0.317400,0.632699,0.141403,-0.761379
0.091904,0.167531,-0.943182,0.093435,-0.078676,0.992512
0.084298,-0.573297,-0.949792,0.013378,-0.056505,0.998313
0.448019,-0.448817,-0.940056,0.066390,0.035843,-0.997150
0.280290,0.238339,0.353119,0.724417,0.090415,-0.683407
-0.652854,-0.256401,-0.977305,-0.087657,0.038925,0.995390
0.012308,-0.144235,-0.500195,-0.435104,-0.215327,0.874253
-0.317459,-0.644414,-0.955457,0.073712,0.200929,0.976829
-0.594903,-0.146442,0.861943,-0.501573,0.864321,-0.037072
0.216278,-0.262045,-0.940382,0.107086,0.052099,-0.992884
0.065063,-0.336138,-0.041384,-0.156914,-0.984849,-0.073827
0.304781,-0.357432,-0.945233,0.153959,-0.193946,-0.968856
0.330386,0.381805,0.331336,-0.526093,0.448627,-0.722468
0.574494,0.607882,0.074043,-0.276884,0.958686,0.065246
0.122210,-0.271435,0.497525,0.607740,0.126491,-0.783998
-0.099635,-0.271486,-0.952885,0.175759,0.072744,-0.981742
0.194817,0.124890,-0.946698,0.095566,-0.068554,-0.993060
0.181210,-0.153522,0.873274,0.374942,0.192822,-0.906774
0.425628,0.334292,0.397467,0.636239,-0.559935,-0.530728
0.330943,0.418492,0.505926,-0.241963,0.420535,0.874417
0.028202,-0.032121,-0.953504,0.143431,-0.088547,0.985691
-0.212011,-0.253578,0.749967,0.294974,0.318520,0.900853
0.589833,-0.568680,0.528393,-0.272583,0.621761,0.734243
0.286041,-0.282569,-0.947773,-0.123367,-0.034905,0.991747
0.130498,-0.792600,-0.940544,0.070702,-0.041158,0.996648
0.422909,0.493201,0.756740,0.008542,-0.363429,0.931583
0.587112,0.329467,0.761526,-0.188797,-0.129503,0.973440
0.547529,-0.674534,-0.916059,-0.556462,-0.081862,0.826830
-0.274043,0.421623,0.051641,-0.084835,-0.153528,0.984496
-0.606221,-0.371696,-0.980138,0.095564,-0.047935,-0.994268
-0.136928,-0.029554,0.821275,-0.164977,0.746107,0.645063
0.714206,-0.399713,0.030314,-0.202991,-0.569585,0.796472
0.556251,0.232592,0.580425,-0.248355,0.152076,0.956657
0.452594,0.344143,0.749609,-0.126396,0.282225,0.950985
-0.388769,0.371184,0.517713,0.829149,0.558075,-0.032616
-0.129507,-0.144902,-0.953992,-0.150351,0.006663,0.988610
0.204837,0.158859,-0.947610,0.032623,0.007035,0.999443
0.040572,-0.295243,-0.508140,0.998738,0.042329,-0.027028
0.442328,-0.450407,-0.938005,0.011607,-0.041428,0.999074
-0.131856,0.138847,0.868781,0.963191,-0.256371,0.080849
-0.042487,-0.218020,-0.955294,-0.254829,0.067567,0.964623
0.157957,0.030377,-0.943833,0.001257,0.030840,0.999524
0.473004,0.266766,-0.942824,0.051973,0.052336,0.997276
0.450244,-0.630252,-0.930451,0.189775,-0.346654,-0.918595
0.190302,-0.781620,-0.945526,0.015359,0.001770,0.999880
-0.344300,-0.398275,-0.967798,0.218916,-0.029271,-0.975305
-0.154739,0.052235,0.752409,0.373500,0.617643,-0.692109
-0.122704,0.224434,-0.958420,-0.148185,0.018208,0.988792
0.085721,-0.047924,0.848756,-0.336277,0.814828,0.472199
0.348692,0.019960,-0.050925,-0.679334,0.669458,-0.300553
0.236440,-0.379239,0.237725,0.364969,0.915318,0.170266
0.016266,-0.150392,-0.956662,0.236088,-0.029910,-0.971271
-0.238543,-0.603879,-0.962588,-0.366134,-0.089932,0.926206
0.439235,-0.458053,-0.927520,-0.039206,-0.019916,0.999033
-0.331250,0.366001,0.453048,0.408380,0.568499,0.714167
-0.261425,-0.420339,-0.961937,-0.030007,-0.112640,0.993183
0.326860,0.169276,-0.947415,0.080943,-0.128509,-0.988400
-0.269094,0.279440,0.537249,-0.292123,-0.578196,-0.761809
-0.078916,0.716301,0.128158,-0.388463,0.879326,0.275468
-0.106686,-0.080302,-0.964021,-0.086631,0.104095,0.990787
-0.397179,0.335881,0.525853,0.741036,-0.517986,-0.427265
0.015092,-0.213043,-0.954383,-0.148644,-0.028257,0.988487
-0.742283,-0.252039,-0.987334,-0.003736,0.044285,0.999012
0.496444,-0.833136,-0.913226,0.630307,-0.083944,-0.771795
-0.094254,-0.403920,-0.957378,-0.001141,0.023543,0.999722
0.181210,-0.430858,-0.942205,-0.040149,0.119292,0.992047
0.100686,0.887321,0.131382,0.675117,-0.389086,-0.626761
0.076999,-0.028529,0.850580,-0.281215,0.851958,0.441685
0.184427,0.942377,0.116469,0.350061,0.021075,0.936490
-0.495578,-0.490327,-0.973040,0.182005,-0.126318,-0.975150
-0.476158,-0.340089,-0.967212,-0.118078,0.050158,0.991737
0.306018,0.256401,0.745767,-0.303900,0.260951,0.916269
0.310532,-0.218790,-0.946861,-0.066228,0.041889,0.996925
-0.208795,0.434962,0.303041,0.866641,0.188447,0.461975
0.307935,-0.429267,-0.936442,-0.042785,0.233765,0.971351
-0.021585,0.817588,0.095402,-0.572733,0.249538,0.780838
0.352155,-0.495202,-0.938037,-0.185078,0.128303,-0.974312
-0.424145,-0.289240,0.692693,-0.643257,0.597446,0.478832
0.223328,-0.420237,-0.943866,-0.046106,-0.010134,0.998885
1.000000,-0.492637,0.100840,0.105057,0.777204,0.620417
0.771538,-0.668838,0.625521,-0.741274,0.131712,0.658153
-0.337867,-0.353121,-0.956890,-0.403357,0.182850,0.896588
0.008967,-0.033045,0.874511,0.512544,0.858456,0.018737
0.225308,-0.831288,-0.949336,-0.023481,-0.093353,0.995356
-0.012865,-0.551696,-0.946894,-0.148630,0.005832,0.988876
-0.494711,-0.356662,-0.969002,0.098705,0.229511,0.968288
0.494342,-0.672686,-0.930353,-0.172430,0.209106,0.962571
0.074464,-0.354866,-0.075475,-0.700207,0.713874,-0.009732
-0.231800,-0.122069,-0.963923,-0.120208,-0.015032,0.992635
-0.161172,0.765971,0.057893,-0.657852,0.750108,0.067593
-0.145401,-0.373390,-0.965681,-0.037871,0.029437,0.998849
-0.315356,0.159371,-0.968742,-0.124426,-0.079432,0.989044
0.181026,-0.356303,-0.944517,-0.051528,0.193940,0.979659
0.423156,0.345991,0.393332,-0.691522,0.486886,0.533610
0.544560,-0.560777,0.504135,0.893398,0.156028,-0.421302
-0.373430,-0.041972,-0.971803,-0.192423,-0.013435,0.981220
0.209908,0.171071,0.760810,-0.155359,0.323580,0.933359
-0.423403,-0.220124,0.340258,0.813650,-0.244808,0.527298
0.157091,-0.305556,0.489385,-0.572045,-0.726811,0.380146
-0.274413,-0.658269,-0.955978,0.040900,0.163551,0.985687
-0.256788,0.029299,-0.134573,0.762340,0.054974,0.644838
-0.084173,0.213145,-0.948912,-0.074355,-0.025746,0.996899
-0.576535,0.008877,0.654760,-0.447511,0.842729,0.299235
-0.178304,0.642618,0.109143,-0.287308,0.823689,-0.488866
-0.436453,-0.048591,0.751237,0.304759,0.175508,-0.936119
0.394458,-0.570424,0.544022,0.432454,-0.225240,-0.873070
-0.713649,-0.341269,-0.977761,0.218075,0.177065,-0.959735
-0.678334,-0.357534,-0.977989,-0.077012,-0.086363,0.993283
0.338549,0.316229,-0.945005,0.011904,-0.187036,0.982281
-0.377575,-0.536250,-0.968449,0.045245,0.106971,0.993232
-0.208980,0.386423,0.224505,0.959566,-0.257538,0.113611
-0.066671,0.138489,-0.959853,-0.068353,-0.149759,0.986357
-0.338239,0.542254,0.347193,-0.677654,0.181791,-0.712557
0.384811,-0.472215,-0.919901,-0.162272,-0.181451,0.969919
-0.271136,-0.077120,-0.960341,0.069483,0.001219,0.997582
-0.727131,-0.224177,-0.986520,-0.039917,-0.007215,-0.999177
0.072114,0.046590,-0.947643,-0.160498,-0.066459,0.984796
0.522419,-0.925342,-0.925046,-0.433408,0.183898,0.882235
0.489827,-0.877674,-0.927781,-0.299460,-0.129534,0.945275
-0.296184,0.297655,0.003256,0.949885,-0.280545,-0.137890
-0.148370,-0.716300,-0.954057,-0.096942,0.066699,0.993053
0.484321,-0.905023,-0.931786,-0.174963,0.046598,0.983472
0.205764,0.526656,0.321015,-0.779087,0.610373,-0.143067
0.087761,0.365847,0.335374,0.131792,-0.990364,0.042548
0.722431,-0.646005,0.581727,0.687859,-0.095131,-0.719583
0.254499,-0.644312,-0.938461,-0.005196,0.023181,0.999718
0.178119,0.729795,0.199726,0.580156,-0.813454,0.041372
0.454326,0.413413,0.745409,0.230444,0.191770,-0.954002
-0.252953,0.500334,0.261559,0.394359,0.684362,-0.613294
0.044592,-0.180357,-0.953862,0.224746,-0.026951,-0.974045
-0.414929,-0.295243,-0.968612,0.165567,0.090974,-0.981994
-0.437689,-0.343732,-0.967472,0.045597,0.093386,0.994585
0.508690,-0.743085,-0.925925,-0.269549,0.163849,0.948945
0.107862,0.519934,0.307144,0.772743,0.620861,-0.131911
-0.047374,-0.049772,-0.965388,0.049741,-0.026545,0.998409
0.173914,0.847246,0.139164,-0.108761,-0.944485,-0.310031
0.133589,-0.219457,0.517127,0.728513,0.169400,-0.663756
-0.374666,-0.511622,0.745246,-0.305980,0.093280,0.947457
-0.127095,-0.206373,-0.133596,0.696832,0.712008,0.086429
-0.482404,-0.546410,-0.969035,0.216759,-0.053112,-0.974779
0.042365,-0.323258,-0.949108,0.207935,0.018043,-0.977976
-0.202547,-0.403612,0.242283,0.856397,-0.105677,-0.505387
-0.241883,0.106316,0.548906,-0.026517,0.842734,0.537676
-0.429216,0.530350,0.216788,-0.731877,-0.416273,-0.539512
-0.520873,0.234081,0.569973,-0.033276,-0.208944,0.977361
-0.190981,-0.077787,-0.959169,-0.052861,-0.077241,0.995610
0.390253,-0.529119,0.537640,0.612165,-0.115447,-0.782257
-0.205207,0.163067,0.494367,0.018811,0.936437,0.350330
0.145897,0.359792,0.344361,0.893926,-0.378135,-0.240645
0.263281,-0.664990,-0.938265,0.146210,-0.036160,0.988593
0.085781,0.680589,0.299785,-0.104884,0.106594,0.988755
-0.453336,-0.243368,-0.968970,-0.015985,0.079263,0.996726
0.214608,0.194469,-0.941000,0.024656,-0.039594,-0.998912
-0.218751,-0.682640,-0.950931,-0.086676,0.026313,0.995889
-0.027460,0.001231,-0.951908,-0.016201,-0.120930,0.992529
0.049044,0.186721,0.646457,0.907027,-0.402734,-0.122912
0.256911,-0.806865,-0.940512,-0.258277,-0.067056,0.963741
0.111758,-0.504438,-0.946633,0.138515,0.091830,-0.986094
0.266065,0.188260,-0.946763,0.041948,-0.162367,0.985838
0.030366,0.321104,0.424915,0.041062,-0.295132,0.954574
0.483579,0.077787,0.500456,-0.556554,0.476514,0.680575
-0.356485,-0.241726,-0.964704,-0.223044,0.067276,0.972484
0.262973,0.178511,-0.945656,0.041203,-0.145851,0.988448
0.062898,0.536507,0.337067,-0.478665,-0.869646,-0.120811
-0.163708,0.651700,0.172701,-0.005434,0.888237,0.459354
0.393406,-0.389450,-0.939340,-0.177151,0.266169,0.947508
-0.240398,-0.066909,-0.962686,0.207585,-0.081328,-0.974830
0.358712,-0.358356,-0.939242,0.038395,-0.027918,0.998873
-0.341518,-0.391298,0.912965,0.276914,0.959165,0.057623
-0.029995,-0.678793,-0.951355,0.072162,-0.015791,0.997268
-0.413817,-0.006157,0.867511,0.153730,-0.363174,-0.918951
-0.077556,-0.646620,-0.954220,0.077338,0.017944,-0.996843
-0.139774,-0.170815,-0.949824,0.133014,-0.113126,0.984637
0.263838,0.327621,0.326127,-0.667020,0.726449,-0.165396
0.056156,0.627584,0.289724,-0.237501,-0.123544,0.963499
-0.460262,0.437786,0.596672,-0.168843,-0.230839,0.958230
0.311461,0.601261,0.201615,-0.559301,-0.089465,0.824123
-0.312265,0.040946,0.850840,0.445345,0.407059,0.797478
-0.205516,0.159475,-0.962230,0.024620,0.064110,0.997639
0.500155,-0.898762,-0.930190,0.075109,0.001363,-0.997174
0.289876,-0.013803,-0.942498,-0.150030,-0.044297,0.987689
0.548952,-0.891014,-0.916287,0.541966,0.144659,-0.827857
0.023934,0.567192,0.338369,-0.349208,0.937044,-0.001501
0.300019,-0.159116,-0.947512,-0.273064,-0.079371,0.958716
0.663306,-0.437991,0.611194,0.483841,0.112296,-0.867921
0.214670,-0.526246,-0.941912,-0.059726,-0.088951,0.994244
0.076319,-0.285904,-0.662966,0.951082,-0.307731,0.027280
-0.696208,0.131870,0.315382,-0.074593,0.082752,0.993775
0.020039,0.717430,0.290375,0.957703,0.209597,-0.197165
-0.271446,-0.569243,-0.963011,-0.230734,-0.108399,0.966960
0.189128,0.522500,0.297180,0.470378,-0.881467,-0.041954
-0.718721,-0.421468,-0.981831,-0.083224,0.154028,0.984555
0.465026,0.265123,-0.941717,0.140344,0.112394,0.983703
0.542395,-0.546565,0.477468,0.810676,0.537595,-0.231940
-0.494154,-0.293652,-0.973984,0.016536,0.013369,0.999774
0.048982,0.120735,-0.951810,0.039454,-0.204340,0.978105
-0.740367,0.014110,0.705946,0.290235,0.951715,0.100011
-0.662872,-0.174817,-0.976687,-0.119369,-0.085029,0.989202
-0.445729,0.476371,0.329122,0.366911,0.826919,-0.426123
-0.113426,0.052132,-0.955848,0.103194,-0.096828,0.989937
0.127404,-0.240033,0.726589,0.257610,-0.951443,0.168501
0.554146,0.100724,0.846965,-0.346811,0.570600,0.744404
0.754531,-0.473396,0.628614,0.609151,0.254639,-0.751062
-0.073473,-0.717481,-0.950573,-0.220877,0.081582,0.971884
0.267735,0.235774,0.749446,-0.197359,0.345104,0.917580
-0.517719,-0.342245,0.471477,0.441686,0.615114,0.653107
-0.557115,-0.237980,-0.976654,-0.004246,-0.125717,0.992057
0.089431,0.755144,0.246353,-0.569200,0.623311,-0.536185
-0.320737,0.537329,0.408375,0.970246,-0.223697,-0.092645
0.021275,0.892914,0.113246,-0.299376,0.018995,0.953946
0.035128,0.574528,0.348040,0.358316,0.914789,-0.186469
-0.307131,0.018883,-0.970630,0.013294,0.101323,0.994765
0.370091,-0.319463,-0.939340,-0.075746,-0.068178,0.994794
0.500649,0.583509,0.086123,-0.047217,0.972897,0.226368
-0.127219,-0.497152,0.341039,0.911590,-0.018610,-0.410679
-0.348445,0.353173,0.515271,0.031162,0.792059,0.609648
0.296616,0.223255,-0.943866,0.033628,-0.124901,0.991599
-0.406271,-0.468418,-0.968546,-0.012631,-0.019026,0.999739
-0.506091,0.514597,0.278295,0.525880,-0.063931,0.848153
0.155668,0.345374,0.318117,-0.648641,-0.661360,0.376653
-0.701279,-0.188670,-0.985348,-0.117787,-0.080353,0.989783
0.476590,0.352301,0.758205,-0.113841,0.123352,0.985812
0.054241,-0.508132,-0.950215,-0.096824,0.023746,0.995018
0.494094,-0.718302,-0.932079,-0.165080,-0.076640,0.983298
0.206198,-0.445379,-0.941717,0.094293,0.279394,0.955535
-0.107303,0.487608,-0.024974,-0.614678,-0.257339,0.745619
0.045891,-0.281852,-0.434879,-0.742950,0.669301,0.007799
0.060486,-0.343270,-0.113897,0.287303,0.956973,0.040727
0.248685,-0.211196,-0.943442,-0.044510,-0.063627,0.996981
-0.132723,0.698548,0.570168,0.351173,0.584915,-0.731131
-0.251345,0.623633,0.110836,-0.678288,0.546613,0.491060
0.433112,0.176972,-0.938623,0.027682,-0.030313,0.999157
0.405962,0.117041,0.465844,0.075593,0.696738,0.713331
-0.301318,-0.425932,-0.960244,-0.139057,0.178642,-0.974038
0.395201,-0.202781,-0.925892,-0.167953,-0.281378,0.944785
0.296184,0.634716,0.201582,-0.734424,0.202165,0.647881
-0.089369,-0.624043,-0.950378,-0.171613,-0.151627,0.973426
-0.450739,0.067217,-0.979226,0.165757,0.050988,-0.984848
0.122395,0.021089,-0.950541,-0.055780,0.041000,0.997601
0.161853,0.049720,-0.948001,0.119676,0.084790,0.989186
0.356917,-0.839908,-0.931721,0.004234,0.023269,0.999720
0.591874,-0.565396,0.578406,-0.457599,-0.864663,0.207270
0.003898,0.002360,-0.954057,0.139353,0.046253,0.989162
-0.067166,0.220997,0.179441,0.359475,0.625737,0.692265
0.167604,0.216429,0.760517,0.063418,-0.056222,0.996402
-0.038282,-0.584945,-0.951810,0.105709,-0.056699,0.992779
0.338117,0.349993,-0.954643,-0.163890,-0.273065,0.947932
-0.758364,-0.425368,-0.979650,-0.013078,0.095359,0.995357
-0.443936,-0.070911,0.879363,-0.208656,0.489932,0.846422
0.103098,0.292473,0.436149,-0.223005,0.889437,0.398961
-0.083863,0.127353,0.086188,-0.321071,-0.730375,0.602881
0.249924,0.574221,0.293794,-0.601601,0.344235,-0.720818
-0.378934,-0.008979,-0.047017,-0.687564,-0.557895,0.464767
-0.004886,-0.045359,-0.956760,0.020960,-0.146353,0.989010
0.458841,0.403407,-0.940772,-0.011890,0.072232,0.997317
-0.058878,-0.632920,-0.951778,-0.091327,-0.132638,0.986948
-0.016019,-0.320385,-0.956857,-0.000172,0.099018,0.995086
-0.342816,0.168505,0.534644,-0.225958,-0.704444,0.672831
0.032099,0.208066,-0.949271,0.046112,0.087074,0.995134
-0.513451,0.384884,0.544934,0.805223,-0.150747,-0.573490
-0.851319,0.309200,0.285686,-0.023876,0.231417,0.972562
0.119673,0.517727,0.374609,0.974889,0.147609,-0.166744
0.398540,0.178358,0.426088,0.785298,0.568864,0.244336
-0.099325,-0.001642,-0.957150,-0.053384,-0.068242,0.996240
0.544932,0.031249,0.568800,0.973159,0.169266,-0.155919
-0.011070,-0.342141,-0.948294,0.123218,-0.033253,0.991822
0.267241,-0.458925,-0.936572,-0.191101,0.239049,0.952017
-0.387161,0.263327,0.509215,-0.332238,0.458421,0.824298
-0.603872,-0.253681,-0.979324,0.198256,-0.027170,-0.979774
-0.461561,0.492739,0.409449,0.375914,0.843765,-0.383079
0.530706,-0.307712,-0.935400,0.165194,-0.086756,0.982438
0.010824,0.345785,0.334234,0.294405,-0.317675,-0.901337
-0.197414,-0.079891,0.839183,-0.114659,0.708833,0.695995
-0.377203,0.523988,0.367348,0.465288,-0.875469,-0.130615
-0.078112,0.585972,0.056590,0.056118,-0.695291,0.716534
0.343063,-0.302633,0.544934,-0.239260,0.000440,0.970955
-0.405899,-0.316948,-0.973300,-0.208644,0.080587,0.974666
0.675242,-0.611576,0.565870,0.158428,0.769781,0.618335
0.098770,-0.592077,-0.949140,0.044650,-0.144921,0.988435
0.132847,-0.710349,-0.942986,0.020199,0.008137,0.999763
0.434412,-0.406332,-0.937842,-0.075450,-0.007756,0.997119
-0.106252,-0.686798,-0.945103,0.010489,0.167383,0.985836
-0.396685,-0.430448,-0.967537,0.073315,-0.026743,0.996950
0.187830,0.139669,0.760094,-0.199956,0.543422,0.815298
-0.138970,0.023346,0.750749,-0.654789,0.522442,0.546174
-0.093140,-0.504336,-0.955197,-0.110992,-0.085272,0.990156
-0.491805,0.516393,0.425925,-0.620219,-0.782926,-0.048534
0.424083,0.058495,-0.939633,-0.118795,0.141152,0.982835
-0.288081,-0.018883,0.619530,0.860027,-0.412459,-0.300384
0.437009,0.121248,-0.940023,0.030411,-0.025111,0.999222
-0.359082,-0.080097,-0.966495,-0.194832,-0.244519,0.949869
0.260066,0.605931,0.194549,-0.283884,0.094065,0.954233
-0.821757,0.094772,0.148574,0.564083,0.689195,-0.454776
-0.229823,-0.190415,0.734697,0.789072,0.314343,0.527782
-0.451790,0.323926,0.491599,-0.429204,0.793295,0.431819
0.281711,0.702499,0.144862,0.733665,0.132703,0.666428
-0.496319,-0.298578,-0.970728,0.019679,-0.229079,-0.973209
-0.240522,0.292370,0.532365,0.207279,0.789526,0.577654
0.410291,0.504284,0.365395,-0.233648,0.254619,0.938391
0.305028,0.590333,0.187353,0.884348,0.266047,-0.383598
-0.850949,0.245523,0.288715,-0.102880,0.030964,0.994212
0.027090,0.016984,0.533082,0.790191,0.173636,-0.587748
0.170078,0.229103,0.752735,-0.167240,-0.065609,-0.983731
0.065310,0.107907,0.774713,-0.451719,0.327202,0.829993
0.351104,-0.495150,-0.938526,-0.185078,0.128303,-0.974312
0.065001,-0.332496,-0.066684,0.380653,-0.882302,0.276852
-0.490629,-0.004361,-0.976589,-0.027538,0.087132,0.995816
-0.675365,0.243470,0.549036,-0.652717,0.529825,-0.541521
-0.249674,0.192263,0.455229,-0.064567,0.957959,0.279546
0.047808,-0.155114,-0.943605,0.353223,0.013987,-0.935435
0.437627,-0.475190,-0.936344,-0.115185,0.061893,0.991414
0.478570,-0.914412,-0.931427,0.175396,-0.059631,-0.982690
0.032594,0.310791,0.562744,0.439408,-0.893969,-0.087980
-0.575793,-0.090820,-0.979585,-0.060550,-0.078633,0.995063
0.222649,-0.437579,-0.944549,0.052109,0.136453,0.989275
-0.142062,-0.503207,-0.956141,0.169151,0.048135,0.984414
0.245841,-0.317101,0.788747,0.967757,-0.125081,-0.218634
-0.205269,0.472934,0.017257,-0.140132,0.989485,0.035802
0.313626,0.008107,-0.941749,-0.037050,-0.026984,0.998949
-0.152884,-0.255683,-0.959885,-0.075026,-0.146721,0.986329
-0.091841,-0.312125,0.028523,-0.175127,-0.984483,-0.011119
0.437627,0.540766,0.377637,0.037309,0.367258,0.929371
0.088937,-0.315819,-0.591756,0.940820,0.284023,0.184902
0.061167,-0.186207,-0.951941,-0.147013,-0.109419,0.983064
0.147258,0.454154,0.367902,-0.028753,0.537056,0.843057
-0.080647,0.426856,0.094393,-0.662034,0.641937,0.386818
-0.680933,-0.503259,-0.974603,0.023275,0.152783,0.987986
0.115963,0.753553,0.230268,0.760526,0.022596,0.648914
0.386357,0.287804,-0.945852,-0.084537,0.096097,0.991776
-0.579009,-0.227000,-0.977566,0.171144,0.075667,-0.982336
-0.405590,0.251579,0.319094,-0.270101,0.707798,0.652738
0.220299,0.842680,0.162282,0.188901,0.774586,0.603600
0.024863,0.274361,0.426315,-0.347027,-0.935626,-0.064624
-0.187396,-0.389348,0.834462,-0.867900,0.308386,-0.389420
-0.180591,-0.057211,-0.957020,0.102383,-0.016124,0.994614
-0.006185,0.029505,0.518364,0.784384,0.281010,-0.552969
0.111325,0.764226,0.162738,0.711568,-0.013388,-0.702489
-0.225431,-0.049515,-0.951973,-0.191890,0.051573,0.980060
0.314737,0.574632,0.256219,0.905088,-0.377030,0.196631
-0.804377,0.203396,0.297864,-0.117723,0.046940,0.991937
0.270704,0.520396,0.252214,0.435577,-0.899869,-0.022572
0.088008,0.286675,-0.948717,-0.061831,0.054389,0.996604
-0.648092,-0.506029,-0.972258,-0.076289,-0.101193,0.991937
0.408930,-0.431165,-0.936246,-0.075858,-0.126325,0.989084
-0.032346,0.197394,0.615623,-0.472907,0.384024,0.793023
0.091719,-0.327774,0.444224,0.925507,-0.378686,-0.005850
0.263096,-0.660218,-0.938656,0.154414,-0.033645,0.987433
-0.476838,-0.224742,0.644471,0.546309,0.129401,-0.827528
0.339662,0.134076,-0.942954,-0.062318,0.059467,0.996283
0.039643,-0.402996,-0.947545,-0.094528,-0.029631,0.995081
0.063702,-0.693417,-0.949531,-0.135899,0.060271,0.988888
-0.036984,0.220843,-0.958127,-0.010583,0.003916,0.999936
-0.052323,0.006517,0.640499,-0.186606,-0.883503,-0.429652
0.062588,-0.647030,-0.946177,0.075398,0.267167,0.960696
0.211577,0.458258,0.334267,0.178719,0.977578,0.111356
-0.188137,0.519472,0.437940,-0.668786,-0.516212,0.535024
0.120539,0.436605,0.443279,0.545204,0.371479,0.751502
-0.182447,-0.419980,0.909091,0.039250,-0.997546,0.057981
-0.289999,0.433322,0.333811,-0.695465,-0.012523,-0.718450
-0.221225,0.497614,0.294934,0.885343,-0.277425,0.373098
0.129879,-0.503412,-0.945428,-0.140139,-0.159337,0.977227
0.585317,0.272565,0.480561,-0.723092,0.159769,-0.672021
0.572392,-0.590281,0.519895,0.912368,-0.044451,-0.406950
0.291484,-0.595566,-0.936442,-0.115840,-0.044644,0.992264
-0.133774,-0.351480,-0.957313,-0.020012,0.032947,0.999257
0.510607,-0.372928,-0.932502,0.101086,0.089630,0.990832
0.642773,0.368156,0.617120,-0.763982,0.616362,-0.190867
0.461068,0.400995,0.750358,-0.489274,-0.040727,0.871179
0.270394,-0.693723,-0.953373,-0.002307,-0.055141,0.998476
0.352587,-0.075529,-0.932209,0.071019,-0.103646,-0.992075
-0.474612,-0.437119,0.750619,-0.210735,-0.089704,0.973419
-0.065063,0.323208,0.604064,0.951891,0.224405,-0.208676
-0.021337,0.348864,0.410882,0.972954,0.212760,0.089967
-0.239284,-0.435014,-0.963988,-0.185457,0.053479,0.981196
0.037356,0.625789,0.264945,0.510655,0.857885,-0.057149
-0.075391,0.242136,0.167394,0.847432,-0.130599,-0.514590
0.334591,-0.008825,-0.079969,-0.679334,0.669458,-0.300553
0.031418,-0.291806,-0.948880,-0.077899,0.118542,0.989889
-0.421855,-0.039560,-0.971770,0.131154,0.040757,-0.990524
-0.029687,-0.271280,-0.174818,0.712954,0.650530,0.261739
0.448636,0.044128,-0.936116,0.029956,0.072243,0.996937
0.324325,-0.449895,-0.938167,0.098755,-0.077472,0.992091
-0.459583,-0.556314,-0.961741,-0.055676,-0.006504,0.998428
-0.195002,0.227462,0.324303,-0.558346,-0.710917,-0.427606
0.270270,0.342347,0.336058,-0.665340,0.722247,-0.188898
-0.241140,-0.299656,-0.955034,-0.142149,-0.011768,0.989775
0.106067,0.129201,-0.953341,-0.039447,-0.071768,0.996641
0.102541,0.040741,0.839021,0.578046,-0.292753,-0.761681
0.441524,-0.036225,0.882163,0.447021,0.429983,-0.784402
-0.327787,-0.483555,-0.970468,-0.031639,-0.022292,0.999251
-0.022573,-0.223562,-0.963793,-0.196309,0.263852,0.944376
0.298781,-0.307147,-0.943703,-0.134671,0.012727,0.990809
0.532933,-0.631996,-0.930483,-0.298793,0.106476,0.948360
0.377575,0.117246,0.817921,0.105036,0.924070,-0.367509
0.286845,-0.395300,-0.946796,0.177422,-0.024470,-0.983831
0.096358,-0.235876,0.724603,-0.581517,0.804685,-0.119664
0.045024,0.702344,0.248014,0.813677,-0.499194,0.297883
-0.501823,-0.001436,-0.977729,0.067301,-0.142209,-0.987546
-0.170264,-0.052336,0.815447,0.022561,-0.895604,-0.444279
0.022326,-0.323875,-0.956694,-0.127472,0.008422,0.991806
0.096668,-0.530607,-0.944712,-0.076146,0.002629,0.997093
-0.217330,0.359792,0.187940,0.452316,-0.866121,-0.212705
0.105635,-0.341371,-0.947187,-0.213708,-0.225911,0.950417
-0.463356,-0.273949,0.665994,0.725954,-0.648811,-0.228112
0.049911,-0.142644,-0.957671,0.370994,-0.026125,-0.928268
-0.452594,0.432193,0.465714,0.006070,0.821342,0.570403
0.520256,-0.297808,0.046724,0.259750,-0.871441,0.416078
0.454946,0.242291,0.423190,0.813729,-0.008069,0.581189
0.456057,0.282210,0.495897,-0.242653,0.595160,-0.766097
0.530274,0.181128,0.444614,-0.343888,0.938516,-0.030474
-0.118807,-0.181179,-0.956011,-0.164724,-0.253888,0.953104
0.074092,-0.351018,0.143006,-0.051952,-0.990067,0.130649
-0.491557,0.027605,-0.979910,0.110125,-0.087282,-0.990078
0.123199,0.116836,0.770806,-0.255970,0.963037,0.083895
0.097285,0.808661,0.130242,-0.548526,0.166458,0.819397
0.406828,0.266151,-0.940154,-0.104171,0.041573,0.993690
-0.170141,-0.687413,-0.957899,-0.149185,0.083030,0.985317
0.125117,0.191647,0.593188,0.328391,0.039855,0.943701
0.048859,0.356817,0.671790,0.533827,0.599507,-0.596338
-0.042797,-0.650778,-0.949010,0.010573,0.021827,0.999706
0.411652,-0.471958,-0.939861,-0.144799,0.015811,0.989335
0.125239,-0.275438,-0.947024,0.297637,-0.263085,-0.917714
0.248006,-0.743085,-0.946340,-0.092775,-0.039176,0.994916
-0.207309,0.218277,0.431753,-0.348725,-0.731321,-0.586141
-0.307626,0.426908,0.069387,-0.113526,0.787393,0.605908
0.114974,0.299040,0.500847,-0.552592,0.763075,-0.335199
-0.236749,-0.376931,-0.962751,-0.147829,-0.189265,0.970734
-0.472695,-0.399456,-0.973821,0.104652,0.002632,0.994505
0.265138,0.043461,-0.946470,0.276673,-0.057451,-0.959245
0.509556,-0.194879,-0.921920,-0.180964,-0.169653,0.968747
-0.154679,-0.036841,-0.961839,0.011175,0.012030,0.999865
-0.757807,0.021038,-0.992153,-0.207749,0.197450,0.958047
-0.432185,0.525270,0.373014,-0.494749,0.741478,-0.453249
-0.355494,0.007543,-0.970793,-0.006456,-0.162631,0.986666
0.096296,-0.332958,0.004819,0.188117,0.978286,-0.087001
0.062836,-0.291959,-0.271392,-0.601696,0.791180,0.109523
-0.038592,0.759196,0.109013,0.500013,-0.372112,-0.781997
-0.590326,-0.030377,-0.974733,-0.279106,-0.066676,0.957943
0.375410,-0.485043,-0.936116,-0.105597,-0.296588,0.949149
-0.368791,0.377700,0.470468,0.135081,0.486272,0.863303
0.291422,0.297860,0.485478,0.473676,0.195616,-0.858700
-0.486054,-0.091949,-0.978412,-0.067465,0.146039,0.986976
-0.123446,-0.021858,-0.965714,-0.066801,-0.105886,0.992132
0.063827,-0.284108,-0.670389,0.963150,-0.265562,0.042642
0.127961,0.723587,0.174948,-0.651999,0.415179,0.634447
0.053684,0.122941,-0.954480,0.037285,-0.205167,0.978017
-0.198157,-0.320797,-0.963467,0.103538,0.051332,0.993300
0.456614,-0.758734,-0.929213,-0.097071,-0.020966,0.995057
-0.428288,0.436143,0.262243,-0.231259,0.653062,0.721131
-0.572577,-0.473240,-0.975189,-0.340706,-0.006130,-0.940150
-0.497556,-0.465955,-0.965746,-0.121403,-0.128036,0.984311
0.143670,-0.254245,-0.510973,-0.471055,0.557687,0.683442
0.223390,-0.191646,0.597975,0.858860,0.284827,-0.425715
0.343001,-0.430807,-0.929604,-0.040586,0.163752,0.985666
0.140391,-0.585560,-0.946145,-0.071840,-0.096250,0.992761
-0.843280,0.301247,0.285035,-0.023876,0.231417,0.972562
0.474612,0.071425,-0.950899,0.051546,0.145652,0.987992
0.163708,-0.756632,-0.938102,0.049955,-0.098372,0.993895
0.362793,0.646262,0.287705,0.773442,-0.585342,-0.243231
0.178613,-0.434757,-0.940284,-0.102313,0.045439,0.993714
-0.454017,0.373339,0.575834,0.044139,-0.268264,0.962334
-0.031170,-0.420289,-0.954318,-0.043709,0.091158,0.994877
-0.551611,0.230746,-0.085341,0.155068,-0.042096,-0.987006
0.440473,-0.839653,-0.934293,0.254480,0.046426,-0.965963
-0.197291,-0.041819,-0.960667,-0.099710,0.062605,0.993045
0.605417,0.297244,0.471249,-0.579025,0.236174,-0.780354
-0.427299,0.484939,0.218742,-0.560078,-0.482957,-0.673101
-0.053002,-0.569859,-0.945689,-0.141597,0.024791,0.989614
