-0.817883,0.198502,0.248176,-0.040606,-0.629929,0.775591
0.593538,-0.228995,0.733303,0.180379,0.965844,-0.186035
0.399434,-0.011590,0.051095,0.240309,0.862543,0.445277
0.225045,0.078829,0.685378,0.711806,-0.604186,0.358177
0.535611,0.283730,0.611620,-0.718560,-0.464154,0.517911
-0.076090,0.167183,0.273700,0.183823,0.391561,0.901604
-0.344489,-0.295054,0.489271,-0.121429,-0.945924,0.300803
0.011166,0.124185,0.872828,0.960462,-0.229362,0.157813
-0.383614,0.063670,0.769294,0.610157,-0.760872,0.220868
0.222611,0.132974,0.813973,-0.254796,0.939012,-0.230947
0.558733,0.265092,-0.025091,-0.640794,0.161728,0.750485
0.047857,0.528916,0.608914,0.530854,0.516484,-0.671891
0.320941,0.144770,0.382073,0.152343,-0.925017,-0.348044
0.274271,-0.075349,0.926040,0.919463,0.390182,-0.048435
-0.262466,0.147778,0.769294,0.264188,0.950286,0.164807
-0.318628,-0.297119,0.502566,0.191068,0.836924,0.512885
0.702881,0.346663,0.477058,0.306671,0.341553,-0.888422
-0.325383,-0.031585,0.679550,0.229663,-0.964892,-0.127433
0.564270,-0.357870,0.670228,0.500356,-0.865715,-0.013506
0.882442,-0.060249,0.642369,-0.295399,-0.654187,0.696261
0.347349,-0.125601,0.607878,0.400966,0.786415,0.469870
0.389090,0.447403,0.503417,0.241530,-0.614628,0.750930
0.495756,0.323130,0.642091,0.521753,-0.519521,0.676662
0.751072,-0.376213,0.539314,-0.320804,-0.830405,0.455535
0.671666,0.509924,0.524488,-0.187475,-0.750102,0.634193
0.049378,-0.212598,0.649604,0.220745,0.877249,-0.426270
-0.032706,-0.259076,0.689676,0.899032,-0.436305,0.037128
0.288144,0.300776,0.706558,-0.000572,-0.821800,0.569776
0.033679,-0.279247,0.766975,0.596169,-0.802832,0.006582
-0.416715,0.104839,0.700838,-0.488796,0.795652,-0.357793
0.069214,-0.040255,0.771706,0.775920,-0.622563,-0.101803
-0.016459,0.125955,0.698766,0.866666,-0.080224,-0.492396
0.667894,0.300068,-0.009631,-0.530033,-0.177456,0.829201
-0.076272,-0.070276,0.826170,0.980814,0.158529,-0.113459
-0.064285,0.087440,0.903114,0.363848,0.725631,-0.584015
0.142596,-0.150904,0.860305,0.020202,0.748995,0.662267
-0.575405,-0.721490,0.424695,0.390205,-0.629676,-0.671750
0.138398,-0.388245,0.746151,0.964403,0.236783,-0.117729
-0.251331,0.045032,0.507931,-0.763073,0.637943,-0.103678
-0.036843,0.029756,0.855899,0.854035,0.313125,0.415423
-0.171377,-0.004099,0.748083,0.697129,0.365801,0.616605
0.643676,-0.169306,0.710933,-0.123128,0.718649,0.684385
0.795978,-0.444041,0.518861,-0.602655,-0.681012,0.415968
0.502693,-0.342593,0.795514,0.962357,-0.271371,-0.015093
-0.467766,-0.103188,0.446324,0.961820,-0.050711,0.268945
-0.737017,-0.370197,0.308129,0.004624,-0.436740,0.899576
0.169369,-0.341296,0.698581,0.102638,0.046710,0.993622
0.174967,-0.082485,0.820327,0.859650,0.268645,0.434547
0.594329,-0.054174,0.589682,-0.071741,-0.436986,0.896603
0.330250,0.354744,0.701503,0.842159,0.388651,-0.373790
-0.422130,0.257247,0.540489,0.509222,-0.112172,0.853294
-0.152149,0.037719,0.752025,0.013934,-0.025902,0.999567
0.018041,-0.040255,0.533749,0.241273,0.937870,0.249372
0.873863,0.003097,0.661663,0.711655,0.669770,-0.212029
0.257598,0.075054,0.851772,-0.736176,0.405850,-0.541600
-0.113937,0.796278,0.498160,-0.409053,0.752302,-0.516447
0.074082,-0.150078,0.658586,0.971040,-0.155431,0.181448
-0.493870,0.415258,0.372642,-0.197138,0.433666,0.879244
0.773525,0.590138,0.539160,0.354367,-0.438734,0.825794
0.810460,0.193194,0.435595,-0.103573,-0.713421,0.693039
0.058444,0.596980,0.491544,0.990417,-0.136505,-0.021010
-0.269768,0.238078,0.720565,0.234550,-0.411551,0.880688
0.277982,-0.277242,0.526050,0.252405,0.736415,0.627683
0.583802,0.117520,0.729485,-0.418996,-0.420593,0.804701
0.146917,0.099000,0.537289,0.864830,-0.017243,-0.501769
-0.184885,-0.001858,0.705661,-0.571870,-0.386580,-0.723547
0.221577,0.270400,0.757575,0.723395,0.680085,0.119097
0.592321,-0.430771,0.764671,0.930066,0.351225,0.107788
0.447869,-0.214368,0.682843,0.758428,-0.178460,-0.626848
0.609845,0.036598,0.613892,0.741961,-0.062940,-0.667482
-0.004594,-0.542481,0.225125,0.450878,0.004305,-0.892575
-0.362865,0.205403,0.708119,-0.465370,0.367465,-0.805233
0.282789,-0.009820,0.873060,0.952107,-0.013800,-0.305453
0.091363,-0.306084,0.197220,0.260418,0.496950,0.827782
0.005020,-0.221976,0.523793,0.154724,-0.549990,0.820714
0.314308,0.409065,0.729531,0.649514,-0.574436,0.498151
0.361648,-0.340175,0.700220,-0.130860,0.570915,0.810513
0.520338,0.174850,0.734447,0.308462,-0.899638,0.309034
0.478597,-0.306851,0.793303,0.948490,0.313964,0.042356
0.943290,0.506562,0.504793,0.371448,-0.687063,0.624477
0.496425,-0.338583,0.515769,0.008648,-0.866990,0.498250
0.159147,0.767672,0.479964,0.495321,-0.336087,0.801064
0.399617,0.110207,-0.986627,0.829034,0.324522,0.455399
0.248958,-0.353092,0.707130,-0.083405,-0.497586,0.863395
0.488089,-0.672594,0.639679,0.629782,0.453687,-0.630510
0.031428,-0.270046,0.721678,0.863398,0.452525,-0.223081
-0.165658,-0.357575,-0.088430,0.019567,-0.480338,0.876865
-0.180018,0.051107,0.226377,0.077455,-0.846821,0.526209
0.543521,0.184346,0.742919,0.907015,-0.340032,0.248397
0.867109,0.242856,0.472945,0.255073,0.466123,-0.847152
-0.220725,0.044501,0.292097,0.063854,-0.296682,0.952839
0.157869,0.496181,0.630079,0.856123,0.510064,0.082997
0.149533,0.727801,0.598371,0.993307,0.100498,0.056941
0.107487,-0.022855,0.434157,-0.583321,0.812147,0.012408
0.004898,-0.447816,0.495424,-0.374511,0.908831,-0.183760
0.047431,-0.612079,0.740291,0.728197,-0.161265,-0.666126
0.483282,-0.310390,0.711443,0.822983,-0.117055,-0.555875
0.251757,0.036834,0.655757,0.955533,0.080776,-0.283605
0.010618,0.166652,0.831798,0.940499,-0.241899,0.238634
0.389759,-0.203574,0.819785,0.764433,0.347693,-0.542911
0.219508,0.065676,0.726393,-0.189893,-0.032002,0.981283
0.530622,0.242089,0.462355,0.015534,-0.834306,0.551083
0.125072,0.509806,0.620169,-0.294089,-0.801134,0.521244
0.555508,0.898434,0.392524,0.836647,-0.208680,-0.506433
0.430101,0.116459,0.742347,0.886689,-0.461349,0.030660
0.284250,0.225515,0.849623,-0.356870,-0.763817,0.537799
0.353190,-0.443452,0.775617,-0.638769,0.689476,0.341464
0.432231,-0.523194,0.752644,0.387884,0.829736,-0.401353
0.517600,0.538883,0.517377,0.284418,0.493007,-0.822223
-0.145274,-0.012357,0.743940,-0.827081,0.559011,-0.058676
0.806200,-0.251408,0.559381,-0.521691,-0.440960,-0.730337
0.611062,-0.607007,0.580700,-0.173996,-0.003167,0.984741
0.346010,0.255006,0.696556,0.180852,0.591774,-0.785554
-0.182086,-0.190952,0.472837,0.623615,-0.051421,-0.780038
-0.201253,-0.098469,0.725574,0.606025,-0.790365,-0.089763
-0.083270,0.637677,0.245192,0.108949,0.164400,0.980358
0.088625,0.372910,0.493940,-0.636228,-0.646739,0.420645
0.466245,-0.369548,0.515305,0.006976,0.589814,0.807509
-0.317898,0.367307,0.412018,0.358794,-0.165067,0.918705
0.502510,0.295290,0.474878,0.044445,0.821569,-0.568375
0.106879,-0.496830,0.735050,0.880245,0.474451,-0.008054
0.189632,0.118110,0.553042,0.996880,0.002686,-0.078892
0.228939,0.629184,0.557850,0.888195,-0.218930,0.403955
0.830661,-0.302663,0.576217,-0.349084,0.925944,-0.144110
-0.416837,0.499130,0.382861,0.562214,0.155701,-0.812202
0.066537,-0.153263,0.727027,0.071221,-0.985861,0.151674
-0.837050,-0.143590,0.309953,-0.056602,-0.332587,-0.941372
0.128236,0.379457,0.587147,-0.085125,0.981190,-0.173263
0.111321,-0.007579,0.529343,0.031255,0.690804,0.722367
-0.256868,0.320298,0.717627,-0.168091,0.868263,0.466759
0.072378,0.500958,0.621344,-0.539710,-0.801517,0.257456
-0.765128,0.176384,0.243399,-0.360425,-0.717292,0.596310
-0.301713,0.212775,0.711258,0.072721,-0.923772,0.375974
0.311631,-0.366422,0.710284,0.740141,-0.125619,-0.660615
0.299157,0.058539,0.963113,-0.847987,0.316778,-0.424935
-0.779427,-0.224336,0.315148,0.026917,-0.086011,0.995931
0.180991,0.129730,0.791834,0.994601,0.091084,-0.049719
0.188597,0.091922,0.802362,-0.667706,0.638133,0.383347
-0.251148,-0.375741,0.645956,-0.034491,-0.418957,0.907351
0.612157,-0.389307,0.746723,0.969574,0.229730,-0.084560
0.460160,0.449114,0.734587,0.802768,0.336805,-0.492063
-0.360857,0.662449,0.395956,-0.213385,0.642736,0.735769
-0.203809,0.210475,0.693201,-0.697765,-0.571905,-0.431334
0.525145,-0.234834,0.693572,-0.103620,-0.176021,0.978917
0.239648,0.035536,0.616443,-0.008998,-0.960611,0.277752
-0.543278,-0.086791,0.482422,0.960591,-0.273248,-0.050985
-0.049256,-0.060485,0.703884,-0.085803,0.745406,0.661066
-0.360857,-0.755286,0.533965,0.297294,0.954594,-0.019170
0.341568,0.085435,0.731773,-0.443061,0.625789,0.641939
-0.623718,0.162641,0.591986,0.861927,-0.390985,0.322819
0.962761,0.354626,0.487478,0.243491,-0.520586,0.818354
0.140649,0.783538,0.599839,0.939983,-0.064014,0.335162
0.371201,0.019316,0.446107,0.616603,-0.456192,0.641630
-0.358605,-0.083429,0.693881,-0.661693,0.014604,0.749632
0.244455,-0.535757,0.766928,0.346542,-0.761825,-0.547295
0.194013,-0.711581,0.695984,0.987572,0.090633,0.128403
0.538593,0.319001,0.160442,0.268192,0.391100,-0.880405
0.237336,-0.168362,-0.002845,0.990089,0.138449,-0.023556
0.108339,0.327966,0.570249,-0.283165,-0.667500,0.688666
0.574858,-0.379811,0.688826,-0.566498,0.714851,0.409962
-0.337430,0.141821,0.655943,-0.353368,0.062298,0.933408
-0.356111,0.722728,0.377172,-0.197448,0.450071,0.870890
0.026317,0.394379,0.730984,0.303165,0.715676,-0.629206
0.341629,-0.339349,0.212185,0.723496,-0.159697,-0.671603
0.118257,0.291280,0.817621,0.197870,-0.787215,-0.584071
0.240987,0.023032,0.091259,-0.503820,0.852209,-0.141083
-0.008367,-0.116223,0.842728,-0.245319,-0.941444,0.231306
-0.122456,0.063729,0.756740,-0.672227,-0.394374,0.626562
-0.469105,-0.390073,0.512399,0.462900,-0.800687,-0.380294
-0.745474,-0.247633,0.313509,-0.314515,0.109472,-0.942919
0.903252,-0.400277,0.562906,0.912575,0.249145,-0.324244
0.138094,-0.158984,0.905634,-0.232414,-0.968022,0.094426
0.365177,0.069628,0.575892,0.110851,-0.377675,0.919279
0.607715,0.696659,0.364928,0.052834,-0.798848,0.599208
0.798047,-0.509747,0.491884,-0.267202,0.868284,-0.417954
0.888284,0.539473,0.541216,-0.215426,-0.672145,0.708387
0.524293,0.676900,0.362393,0.324673,0.309965,-0.893593
0.873620,-0.454068,0.459650,0.861807,0.178258,0.474882
0.242995,0.137692,0.832493,0.154674,0.985577,-0.068653
0.311023,-0.065381,0.884917,0.912336,0.407861,0.035942
0.845812,-0.256775,0.595588,-0.635304,0.114767,-0.763687
-0.268490,-0.050695,0.538016,0.920475,0.159150,0.356927
0.235389,-0.034770,-0.646590,0.677397,-0.732922,-0.062917
0.238553,0.021381,0.993801,-0.354574,0.615809,-0.703602
0.295020,-0.018196,0.000696,-0.620280,0.781381,-0.068538
0.208616,0.232180,0.815658,0.930611,0.065946,-0.360020
0.137242,0.375505,0.754422,0.601310,-0.648638,0.466579
0.075664,-0.289923,0.581597,-0.486662,-0.438105,-0.755793
-0.162859,-0.011826,0.286191,-0.187367,-0.148611,0.970983
0.288874,0.030346,0.940387,-0.011146,-0.722890,0.690874
0.585324,-0.437318,0.473224,0.744432,-0.032895,-0.666887
-0.026377,0.590374,0.264269,-0.280958,0.313441,0.907093
-0.461560,-0.582884,0.548497,0.985982,-0.142268,-0.087178
0.288996,-0.777758,0.577577,0.595234,0.517096,-0.615068
0.476711,0.481613,0.508364,0.070294,-0.574026,0.815814
0.138337,0.211301,0.818069,-0.699929,-0.701067,0.136396
-0.389455,-0.000619,0.519897,0.001168,0.999810,0.019478
0.117466,0.046330,0.494079,-0.364372,0.928847,0.066904
0.512002,-0.323719,0.529961,0.908629,0.405960,0.097927
-0.302626,0.156094,0.432657,0.947145,0.142043,-0.287645
0.229243,-0.017901,-0.503710,0.889425,-0.457072,0.003079
0.252244,-0.156861,0.521505,-0.631441,-0.542698,0.553860
-0.345949,-0.768557,0.443788,0.172968,-0.383341,0.907266
-0.391281,0.770916,0.378811,-0.184066,0.410546,0.893069
0.688643,0.490932,0.521489,-0.201049,-0.610894,0.765760
0.598162,0.801115,0.384268,-0.014973,-0.461559,0.886983
0.071161,0.007874,0.758812,-0.691857,-0.307622,-0.653225
-1.000000,-0.143413,0.305686,-0.102118,0.042730,0.993854
0.382701,-0.197971,0.817188,0.751471,0.240354,-0.614427
-0.088320,0.162287,0.342836,0.119439,-0.593492,0.795928
0.233564,0.129140,0.574841,-0.246957,-0.089721,0.964864
-0.025160,0.480728,0.778771,-0.153719,-0.961683,0.227018
0.862058,-0.071338,0.635474,0.207605,0.665008,-0.717402
0.607715,-0.377746,0.722064,-0.607007,0.792893,-0.053511
-0.192491,-0.708927,0.565704,0.099707,-0.993596,-0.053159
0.124038,0.414551,0.588832,-0.374665,-0.733499,-0.567102
-0.297210,0.121767,0.665636,0.934829,0.117482,-0.335101
0.770544,0.019139,0.635211,0.740489,-0.383364,-0.552004
-0.050473,0.152201,0.768505,-0.404583,0.898926,0.168064
-0.387325,-0.013654,0.569538,0.735555,-0.671989,-0.085963
-0.577596,-0.001681,0.273406,-0.615983,-0.649139,0.446301
-0.454319,0.640155,0.381192,0.898271,-0.072786,-0.433373
0.220299,-0.428529,-0.036701,0.965978,-0.205906,-0.156491
0.739694,0.270754,0.680864,0.118770,0.960474,-0.251760
0.241413,0.014244,0.972760,0.971465,0.206093,0.117398
0.352095,0.067622,0.945489,0.599906,-0.703339,0.381350
0.117101,0.788788,0.611805,0.945691,0.324957,0.008496
0.083087,-0.346368,0.754793,-0.618194,-0.632991,-0.466003
-0.223889,0.237312,0.601834,0.922004,0.386725,-0.018784
0.682375,-0.373972,0.517887,0.993624,0.031045,0.108386
-0.266543,0.734289,0.454239,-0.252912,0.457085,-0.852707
-0.351669,0.228111,0.719652,-0.441269,0.804539,0.397491
0.727220,0.705034,0.590733,0.275767,-0.843929,0.460148
-0.312057,0.283907,0.717148,-0.653767,0.476972,0.587440
0.220846,-0.124480,-0.995625,0.450516,0.871314,-0.194543
-0.349722,0.358754,0.396698,-0.522287,0.476295,0.707361
0.578569,0.663393,0.359254,-0.316639,0.687956,-0.653036
-0.083027,0.604353,0.254035,0.108949,0.164400,0.980358
0.595242,-0.483559,0.540613,0.153765,0.452968,0.878166
0.361891,-0.102480,0.852514,-0.141762,0.603936,0.784325
0.633697,-0.526144,0.468493,-0.593451,-0.038360,0.803956
-0.518756,0.085611,0.529621,0.202305,-0.397147,0.895180
0.660531,0.079890,0.399558,0.870087,-0.492808,-0.009413
0.055098,-0.622401,0.643266,0.249952,0.865846,0.433398
0.165171,0.046920,0.947731,0.042104,0.168318,0.984833
0.263622,-0.014067,0.040814,0.102883,-0.987958,-0.115559
0.239892,-0.184877,0.689197,0.474052,0.865752,-0.160463
0.842466,-0.075054,0.574176,-0.125051,0.601031,-0.789382
-0.256746,0.130083,0.715200,0.747255,-0.562943,-0.353136
-0.266056,-0.511162,0.425762,0.384588,0.700337,0.601348
0.467523,0.674246,0.357523,-0.298859,-0.268796,0.915659
0.412760,-0.374561,0.727661,0.921495,0.123313,0.368294
-0.220055,0.100888,0.492301,-0.877421,0.116597,-0.465335
-0.178192,-0.120234,0.584797,0.841959,0.218153,-0.493472
0.229365,0.033708,0.666254,0.844952,-0.051805,0.532327
0.302991,0.629656,0.618097,0.430030,-0.902550,0.021858
0.470565,0.613790,0.511719,-0.026868,-0.233311,0.972031
-0.284310,-0.555280,0.429272,0.305238,0.408646,0.860139
0.104627,0.316937,0.883433,0.974886,0.200287,-0.097375
-0.350756,0.013123,0.775679,-0.166202,0.985986,-0.014419
-0.597858,0.248695,0.581349,0.954734,-0.064325,0.290422
0.469287,0.128314,0.731989,-0.334180,0.461301,-0.821903
0.110469,0.586776,0.614804,0.437581,0.605520,0.664731
0.189266,0.654959,0.547199,-0.701601,0.376158,0.605196
0.619033,-0.304963,0.503200,-0.561945,-0.318386,0.763445
-0.103167,0.720487,0.477722,0.413223,0.908843,-0.057016
0.205695,0.061665,0.992069,0.635571,0.140983,-0.759060
0.478901,-0.321596,0.784754,0.973449,-0.165816,-0.157801
0.682193,0.101360,0.547987,0.610671,0.579157,-0.540054
0.115763,0.183285,0.744744,0.427432,0.358976,0.829722
0.303843,0.005692,-0.023777,0.444936,-0.871689,-0.205405
0.190849,0.130496,0.528106,0.979178,-0.094458,0.179690
0.303599,0.034416,-0.849283,-0.530988,0.845092,0.062216
0.385439,-0.357752,0.513790,0.831287,0.068620,-0.551592
-0.368098,-0.032351,0.674479,0.607357,-0.169408,0.776156
0.264048,-0.033413,-0.835972,-0.702767,0.709347,0.054279
-0.139493,-0.522900,0.547060,0.974495,0.104175,-0.198763
-0.499407,-0.351028,0.442830,-0.241287,0.163037,-0.956661
0.183486,0.403226,0.518691,-0.080653,-0.661054,0.745991
0.686513,0.545077,0.534413,-0.138192,-0.768050,0.625301
0.164319,0.715415,0.552563,-0.328033,0.921978,0.205792
0.613618,0.869474,0.403469,-0.375842,-0.334713,0.864124
0.969759,-0.264738,0.586235,0.239344,0.922704,-0.302210
0.036417,0.206287,0.846747,0.282981,-0.439343,0.852584
0.480787,-0.623345,0.646203,-0.582814,-0.510687,0.632082
0.484560,-0.014539,0.844135,0.636707,-0.417200,-0.648498
-0.493687,-0.242974,0.463824,-0.038374,0.818401,0.573365
0.293864,0.195494,0.901258,-0.261503,0.933511,0.245301
-0.030758,-0.376862,0.671372,0.909926,-0.335507,0.243864
0.092762,0.533516,0.532620,0.730403,0.583026,-0.355799
-0.037391,-0.507151,0.649326,-0.238495,0.966035,0.099481
-0.136816,-0.573506,0.659406,0.213928,0.659992,0.720171
-0.122212,-0.293167,0.528230,0.883878,0.362111,-0.296033
0.813320,-0.061370,0.635613,0.411928,0.612712,-0.674462
-0.218717,-0.063081,0.678112,0.276895,-0.940093,-0.198881
0.241169,0.035831,0.602637,0.438373,0.878021,-0.192112
-0.495147,0.317113,0.414631,0.339825,0.896414,-0.284537
-0.570538,-0.161226,0.301790,0.412227,-0.152700,0.898193
0.260032,-0.048571,-0.489024,-0.690450,0.722940,0.025224
-0.358666,0.526910,0.402542,-0.177163,-0.452641,0.873916
0.599684,0.692766,0.360429,0.269150,-0.613754,0.742202
-0.060695,-0.596508,0.679658,0.124712,0.580302,0.804796
0.098725,-0.548556,0.726826,0.310416,-0.428959,0.848314
-0.053515,0.039665,0.486272,-0.518114,-0.562534,0.644293
-0.155435,-0.385473,0.630759,0.059682,-0.152476,0.986503
0.095805,0.334336,0.811623,-0.488195,0.833700,0.258090
0.072013,0.737592,0.709557,0.390618,-0.861392,0.324688
0.897350,0.455189,0.514223,0.098894,-0.689830,0.717185
0.705011,-0.196202,0.455646,0.840876,0.284159,-0.460631
-0.725942,0.161639,0.578567,-0.705895,0.219164,-0.673557
-0.041042,0.758825,0.255117,-0.211958,-0.148807,0.965883
0.713408,0.256834,0.649821,0.018694,-0.976420,0.215068
0.365238,-0.473178,0.779420,0.531087,-0.797195,-0.287100
-0.177827,-0.016367,0.766913,-0.206441,0.929180,-0.306605
0.493261,-0.051579,0.722559,0.671940,-0.581521,0.458617
0.448660,-0.350556,0.713082,0.809998,-0.217531,0.544595
0.249080,0.005161,0.929086,0.872212,0.168127,-0.459325
0.255225,-0.436669,0.745130,0.085697,0.964862,0.248388
0.506283,-0.042850,0.848881,0.950698,-0.070553,-0.301986
0.081201,-0.140523,0.673211,0.815759,-0.519188,-0.254916
0.185433,0.125601,0.433090,-0.658183,-0.603959,0.449477
0.240744,-0.052818,0.196710,0.976095,-0.151343,-0.155996
-0.470322,-0.021971,0.735885,0.512239,-0.844052,0.158702
0.597919,-0.666814,0.577685,-0.152043,-0.138042,0.978686
-0.750464,-0.161521,0.529528,0.727996,0.204526,0.654363
0.334875,0.184936,0.857956,0.193616,0.381501,0.903864
0.917369,0.295113,0.480072,0.107367,-0.483804,0.868566
-0.106270,-0.403403,0.529405,0.098815,-0.524584,0.845604
-0.143874,-0.204046,0.381037,0.163013,0.503429,0.848520
0.801272,-0.061134,0.577871,-0.029591,-0.780791,0.624091
0.478110,0.613731,0.509508,-0.407053,-0.320876,0.855188
-0.144178,0.788139,0.468323,0.432681,0.187308,-0.881875
0.078341,0.523017,0.796565,-0.684679,0.372577,-0.626419
-0.517235,0.469757,0.364325,-0.196187,0.187713,0.962432
0.201375,-0.482143,0.723440,0.792103,-0.552511,0.259430
0.268733,-0.306615,0.371390,0.426134,-0.725083,-0.540984
-0.169917,-0.067563,0.533378,0.320633,0.941687,0.102080
0.774499,-0.433366,0.493662,0.066729,-0.932516,0.354910
0.037817,0.269221,0.428097,0.875738,0.476900,-0.075164
-0.304694,0.799168,0.493352,0.040293,-0.959163,0.279969
0.357632,-0.242620,0.252736,0.844870,0.409512,-0.344232
0.065198,0.285971,0.754576,-0.659023,0.333111,-0.674333
-0.108400,-0.004630,0.703992,0.060006,0.122080,0.990705
0.757218,0.668761,0.561607,0.473420,-0.569153,0.672264
0.382701,0.194609,0.848618,-0.654808,0.729686,0.196938
0.621832,0.737592,0.384021,-0.202771,-0.330461,0.921781
-0.853114,0.040078,0.233783,0.483169,-0.408292,-0.774497
0.020232,-0.423221,-0.095912,-0.379529,0.066359,0.922797
0.924975,-0.295644,0.563818,-0.580120,-0.411106,0.703173
-0.059783,-0.547318,0.569940,-0.318502,0.168489,0.932828
-0.018589,-0.046743,0.766233,0.468218,-0.751342,-0.465034
0.143570,0.281666,0.858976,0.572737,0.791918,-0.211750
0.399312,-0.466100,0.775230,-0.546274,0.818465,0.178044
-0.138520,-0.215312,0.315565,0.761125,0.012034,0.648494
-0.134686,-0.012239,0.767949,0.012055,0.569493,0.821908
0.505370,-0.396856,0.699508,0.761788,-0.365919,0.534586
0.168152,0.024979,0.972203,-0.457813,0.856195,-0.239452
0.478840,-0.343596,0.786763,0.966579,-0.226879,-0.119377
0.662965,0.093633,0.598077,-0.629583,-0.176416,0.756639
-0.563358,-0.104662,0.142802,-0.257023,-0.927856,0.270226
-0.104627,0.732991,0.469993,-0.421756,-0.567241,0.707362
0.016824,-0.306969,0.781971,-0.943464,0.092794,-0.318221
0.081445,0.327258,0.503834,0.831826,0.518565,-0.197878
0.256321,-0.025391,-0.324238,-0.663100,0.746175,0.059338
0.292768,-0.813383,0.567389,-0.691111,-0.479907,0.540421
0.109495,-0.035300,0.754143,-0.497943,0.379294,-0.779865
-0.447260,0.018609,0.666919,0.929164,0.028535,-0.368564
0.070188,0.578283,0.640158,0.342262,0.490799,-0.801233
-0.760443,0.135156,0.542545,-0.488860,0.211630,-0.846303
0.217439,-0.042614,-0.965540,0.730632,0.477252,-0.488270
0.585749,0.286443,0.635783,-0.377540,-0.254860,0.890230
0.304573,0.071161,-0.957501,0.133569,0.371304,0.918854
-0.161642,-0.035536,0.729098,0.189423,-0.981609,0.023729
0.406736,0.183874,0.804898,0.553467,0.105104,-0.826213
0.650735,-0.700080,0.576959,-0.342596,0.208040,0.916159
0.167605,0.363650,0.722312,-0.469557,0.092536,-0.878039
0.065989,0.572444,0.507220,0.833355,-0.302310,-0.462739
0.046944,-0.377982,-0.093810,-0.530352,-0.363411,0.765937
-0.308041,-0.015188,0.747697,0.533486,0.845508,0.022532
-0.556360,0.085258,0.531615,-0.487687,0.376225,-0.787792
-0.321671,-0.634374,0.413456,-0.643954,0.312251,-0.698443
-0.212510,-0.094695,0.027750,-0.273520,0.956714,-0.099425
0.034592,-0.063965,0.334750,-0.595801,0.724556,0.346469
0.120691,0.779881,0.620865,0.921633,0.361106,-0.142108
-0.466975,-0.028046,0.715107,-0.529262,0.847414,0.042091
0.188415,-0.152614,0.683940,0.274080,-0.940342,0.201588
0.379476,0.815211,0.356688,-0.571506,0.044088,0.819413
-0.198454,0.300953,0.394966,-0.177080,-0.594756,0.784161
0.738173,-0.374797,0.566369,0.346592,0.898364,-0.269843
0.016581,0.790675,0.230057,-0.142632,-0.316723,0.937733
0.063555,-0.097880,0.905062,0.817440,0.262046,0.512955
0.592869,-0.119526,0.364974,-0.769802,0.629006,0.108425
0.292160,0.169483,-0.986102,0.161675,0.923360,0.348235
-0.816179,0.098646,0.233257,0.587586,-0.249808,-0.769636
0.521555,-0.074464,0.753339,-0.449427,0.505375,0.736622
-0.226384,-0.426229,0.632413,0.347878,0.839872,-0.416648
-0.202410,-0.448170,0.393884,0.963205,0.220914,-0.153077
0.061121,-0.606771,0.743012,0.774521,-0.147237,-0.615173
-0.452980,-0.292754,0.466421,-0.662560,-0.668208,0.338397
0.220846,-0.059247,-0.979315,0.532448,0.798718,-0.280265
0.701664,0.265741,0.468771,0.296058,0.494134,-0.817423
0.278287,0.124185,0.850365,0.573341,-0.813476,-0.097661
0.186467,-0.153676,0.707980,0.835789,0.449741,0.314943
0.146126,0.205049,0.817868,0.665613,0.722510,-0.186919
-0.333597,0.057713,0.763898,-0.274772,0.824240,-0.495105
0.658097,0.259725,0.626554,-0.124722,-0.967864,-0.218367
-0.342055,0.320298,0.409483,-0.731032,0.061146,0.679598
-0.228574,-0.423988,0.616041,0.466154,0.736463,-0.490227
-0.237397,0.000796,0.800012,0.555992,0.817313,-0.151237
0.681159,0.738359,0.381918,-0.225649,-0.316572,0.921339
-0.342359,0.051166,0.710268,-0.445464,-0.267892,0.854281
-0.076212,0.725206,0.258719,0.419859,0.239041,-0.875544
0.084609,0.575511,0.519758,0.922608,0.128071,-0.363859
-0.718519,0.127960,0.557557,0.438967,-0.577816,0.688068
-0.341629,0.067563,0.785140,-0.633976,0.771686,0.050752
-0.377286,0.315521,0.542112,0.159962,-0.248566,0.955315
0.380267,0.645050,0.360847,0.261581,-0.321665,0.910004
0.087529,-0.082839,0.769309,0.591949,-0.754463,0.283519
-0.300253,0.285617,0.710145,-0.896897,0.416151,0.149644
-0.323253,0.188770,0.736334,0.931568,-0.203063,-0.301573
-0.321245,-0.569967,0.432070,-0.412845,-0.258338,-0.873396
0.589035,-0.169424,0.744234,-0.103546,-0.750317,0.652919
0.142536,0.067563,0.605590,-0.131942,-0.987362,0.087789
-0.402537,-0.169011,0.655463,-0.704786,-0.665901,-0.244647
0.579786,0.138164,0.343887,0.236214,-0.497236,-0.834841
0.034105,0.415907,0.437883,0.459163,-0.084582,0.884316
-0.212084,0.023209,0.771226,-0.757556,0.285727,-0.586915
0.105662,0.382760,0.572877,0.085899,0.727699,-0.680496
0.396635,0.361349,0.718323,-0.205388,0.716614,-0.666544
0.566582,0.852959,0.385752,-0.661328,-0.137670,0.737355
-0.437160,-0.138046,0.670274,0.887410,0.407657,0.215221
-0.161094,-0.458433,0.540752,0.921975,-0.355361,-0.153885
0.293803,-0.090507,-0.995470,0.064501,0.934812,-0.349236
0.158843,0.346899,0.583637,0.951071,0.199980,0.235525
0.570538,-0.059955,0.233984,-0.304839,0.597593,0.741590
0.884998,-0.253473,0.570404,-0.485190,0.107676,0.867754
-0.768962,0.042319,0.242626,0.259173,-0.128530,-0.957240
-0.325322,0.090507,0.765862,0.812466,-0.499516,0.300637
-0.029116,-0.340116,0.763280,-0.444785,0.881568,0.158127
-0.616964,-0.006223,0.307124,-0.096958,0.123751,0.987565
-0.338100,0.025097,0.741219,-0.672705,-0.536293,-0.509763
0.372235,0.099059,0.909220,-0.305249,0.897938,-0.317066
0.487663,-0.438320,0.689568,-0.607655,0.789967,0.081894
0.161581,0.379457,0.779513,-0.733206,-0.651588,-0.194529
-0.063920,-0.512991,0.321223,0.072471,0.133613,0.988380
0.586236,-0.400631,0.724770,-0.576233,0.789070,-0.212893
0.332380,-0.397092,0.728557,0.828172,-0.415809,-0.375811
0.144300,-0.393081,0.561174,0.704188,-0.706721,-0.068298
-0.446956,0.007284,0.708908,-0.552558,0.807807,0.205252
0.278895,0.081896,0.855714,0.777453,-0.057765,-0.626283
-0.587453,0.074877,0.549533,-0.595284,0.637427,-0.489207
-0.582159,0.198266,0.535681,0.076580,-0.185309,0.979692
-0.190362,-0.014185,0.724383,-0.278699,-0.779621,0.560819
-0.291856,-0.504851,0.362083,-0.736284,0.672864,0.071690
0.305911,-0.246395,0.724893,0.936645,0.349342,0.025608
0.239709,-0.071161,-0.594196,0.836976,-0.547139,0.010447
0.469409,-0.035772,0.717782,0.370588,-0.696666,0.614265
0.286197,0.684391,0.619628,0.275610,0.828610,0.487283
0.306155,-0.010056,-0.726625,0.611734,-0.791023,0.007969
-0.279078,0.150491,0.691330,0.724529,-0.137424,0.675406
-0.556725,-0.395559,0.497975,-0.527390,0.413296,0.742325
0.112477,-0.187177,0.738312,0.983853,-0.029008,-0.176614
0.610210,0.351736,-0.017670,0.597196,-0.038767,-0.801158
0.087225,0.700964,0.666718,0.560701,0.276960,-0.780326
0.426207,-0.253944,0.514872,0.774711,0.230065,-0.588976
-0.668867,0.192899,0.548652,-0.436945,-0.479504,-0.761022
0.237823,0.113805,0.853472,0.304051,0.541857,0.783545
0.148316,0.066737,0.607755,-0.178846,-0.983774,0.014214
0.507256,0.192073,0.605003,0.374188,0.228557,-0.898747
0.388603,0.218320,0.798451,0.597989,-0.078341,-0.797667
0.801272,0.231413,0.622720,-0.234852,0.948116,-0.214293
0.532873,-0.495768,0.545560,0.224282,0.404797,0.886474
-0.190058,0.732342,0.460593,0.528220,0.522294,-0.669473
0.275913,-0.423103,0.724924,-0.461363,0.828865,-0.316427
-0.138520,0.122416,0.732314,0.002034,-0.066542,0.997782
0.533055,0.005220,0.853472,0.993773,-0.048139,-0.100484
-0.695701,-0.154974,0.518103,0.317283,0.255717,0.913203
0.074143,-0.475125,0.237910,-0.044749,0.359445,0.932093
0.061669,0.600224,0.506756,0.905792,-0.202831,-0.372022
-0.466853,0.692471,0.380542,0.625631,-0.401997,-0.668569
0.334814,0.005043,0.573279,-0.145573,-0.501269,0.852958
-0.509447,-0.260255,0.438841,-0.650329,0.202526,-0.732158
-0.195534,0.003981,0.639973,-0.425724,0.844582,-0.324715
0.112720,-0.004217,0.906097,0.876325,0.425725,-0.225417
0.479327,-0.181161,0.284243,0.664597,0.557497,-0.497502
0.397183,-0.142175,0.862454,-0.370820,-0.800547,-0.470763
0.608081,-0.639742,0.576990,-0.158777,-0.191406,0.968583
0.918708,-0.332449,0.557433,0.760975,0.246710,-0.600043
0.214822,-0.502433,0.734262,0.418799,-0.395746,-0.817308
-0.212449,0.106609,0.749212,-0.026468,-0.871596,0.489510
0.157200,-0.169306,0.709619,-0.070897,0.764830,0.640320
0.845325,0.007343,0.629831,0.837903,-0.163619,-0.520718
-0.031002,-0.410540,0.595557,-0.695700,-0.168037,0.698402
0.224680,0.687399,0.554619,0.376310,0.476222,0.794735
-0.044814,-0.359167,0.679519,0.945241,-0.282266,0.163843
0.636922,0.105134,0.604663,0.577433,0.345462,-0.739748
0.338161,-0.596803,0.600056,-0.487093,0.523480,0.699078
-0.271654,-0.369135,0.407767,0.433290,0.221579,0.873592
0.271472,0.627120,0.613490,0.176386,-0.518992,-0.836382
0.637531,0.403462,0.644209,0.933519,-0.280021,-0.223898
0.658645,-0.444808,0.487988,0.465234,0.618897,-0.632869
-0.042320,-0.145890,0.347659,0.033123,0.765249,0.642882
0.163650,0.287387,0.553398,0.990879,-0.099671,0.090684
-0.581673,0.239671,0.582833,0.918658,0.019617,0.394566
-0.242265,-0.251821,0.363227,-0.340140,0.855088,-0.391317
0.301469,0.791324,0.543767,-0.260455,-0.834929,0.484826
0.189814,-0.010882,0.028400,0.280557,-0.956581,0.078998
-0.733244,-0.083134,0.515058,0.254834,-0.135072,0.957505
0.068971,0.637559,0.651382,-0.305719,-0.905138,0.295401
-0.525875,-0.005987,0.723842,0.620151,0.778358,-0.097832
0.087834,-0.313869,0.624621,-0.645560,0.538871,0.541176
-0.533664,-0.008641,0.705723,-0.641675,0.727362,-0.243306
0.749064,0.303961,0.697406,0.465712,0.534403,-0.705355
0.522772,-0.165767,0.834890,-0.694354,0.624671,0.357293
-0.664973,-0.034534,0.524040,-0.551768,0.457270,-0.697464
0.468374,0.311215,0.491791,-0.233072,0.781078,-0.579305
0.219143,0.098705,0.862176,0.412801,-0.882864,0.223933
0.325687,0.591613,0.534614,-0.522329,0.213345,-0.825625
0.651161,0.370845,-0.006369,-0.582595,-0.070612,0.809690
0.113511,0.110148,0.870153,0.167163,-0.523001,0.835779
0.287292,0.356395,0.686383,0.839745,0.390175,-0.377613
0.205756,0.044855,0.776483,0.536854,0.232797,-0.810921
0.382336,0.241499,0.851756,0.170581,-0.821724,0.543757
0.836198,-0.489811,0.460562,0.781255,-0.007330,0.624169
0.647632,-0.585774,0.579170,0.103656,0.197582,-0.974791
0.487785,-0.426465,0.643498,-0.137525,0.987609,-0.075596
0.071770,0.474358,0.776560,-0.221053,0.937796,0.267720
0.484195,0.074995,0.754576,-0.582423,0.685493,0.436902
0.487055,-0.052877,0.693216,0.376953,0.831962,-0.407118
0.128906,0.327435,0.744666,0.335567,-0.313123,0.888453
-0.759774,0.084668,0.256199,-0.193291,-0.251091,0.948468
0.015851,0.243800,0.753772,-0.727240,0.666133,0.165494
-0.314065,0.492052,0.386649,0.780161,-0.036514,-0.624513
0.509507,-0.049043,0.755782,-0.432749,0.183195,0.882705
0.238249,-0.734053,0.602962,0.192595,-0.953084,0.233535
0.589948,-0.292754,0.698132,-0.628215,0.219502,0.746435
0.433448,-0.313752,0.539793,0.979743,0.131717,0.150846
0.105601,0.451709,0.763867,-0.746745,0.467704,-0.472890
-0.007636,0.008582,0.277781,0.035661,-0.725953,0.686819
0.464906,0.324132,0.712309,-0.521444,0.772861,-0.361638
-0.396818,0.771388,0.478511,0.410878,0.834221,-0.367769
0.029785,-0.059306,0.445814,-0.789619,0.424678,-0.442889
-0.265448,0.192486,0.677756,-0.708931,-0.594954,0.378743
-0.428824,-0.009879,0.724677,0.678960,-0.718072,0.152928
-0.230034,-0.072695,0.741466,-0.122550,-0.846154,0.518656
0.636983,-0.233714,0.722095,0.497588,0.564816,-0.658322
-0.444583,0.003450,0.311669,0.155422,-0.023009,0.987580
0.030880,0.484621,0.491234,0.971575,-0.234728,-0.030749
0.239587,0.028930,0.586451,0.449008,0.891218,-0.064212
-0.132070,-0.188357,0.488328,-0.319634,0.735646,-0.597210
-0.128541,-0.034180,0.721369,0.065996,0.965635,-0.251382
-0.251818,0.116400,0.783640,-0.547780,-0.703529,-0.452751
0.298305,-0.122475,0.939861,-0.091637,-0.859170,0.503417
-0.350756,-0.115810,0.590301,-0.565456,-0.614887,-0.549703
0.266300,0.029992,0.246429,0.953512,-0.246792,-0.172939
0.253582,-0.039724,-0.480134,0.819125,-0.573571,0.007046
-0.268003,-0.366599,0.329139,0.017012,0.576624,0.816833
0.373574,0.119939,0.936538,-0.265364,0.867355,0.421044
0.648301,0.876139,0.400578,0.186556,-0.501223,0.844969
0.366150,0.191129,0.467952,-0.435409,0.403343,-0.804819
-0.052785,-0.319178,0.301574,-0.360643,-0.539828,-0.760607
0.435152,-0.206700,0.846979,0.923980,-0.337796,-0.179318
-0.732575,-0.175499,0.525370,0.703617,-0.046608,0.709049
0.454014,-0.113923,0.676411,0.588005,0.085384,-0.804338
0.283885,0.626412,0.616598,0.274746,-0.811422,-0.515857
-0.359031,0.044678,0.786671,-0.644710,0.759417,0.087381
0.360918,0.585125,0.361078,-0.044906,-0.443502,0.895148
-0.691442,-0.164116,0.510915,-0.656613,-0.093583,-0.748399
0.315282,-0.003273,-0.458877,-0.743299,0.668120,0.033504
0.261128,-0.528031,0.686244,-0.377324,-0.910568,-0.168795
0.163832,0.088443,0.775107,0.978690,-0.100731,-0.178940
-0.573702,0.225987,0.598108,0.990978,0.000410,0.134021
0.776750,0.697131,0.553352,0.164618,0.911254,-0.377515
0.309075,-0.220561,0.035820,0.897414,-0.438027,0.052731
0.445739,-0.266507,0.826000,0.972397,0.196081,-0.126476
-0.342542,-0.264148,0.505488,0.845046,-0.208237,0.492478
-0.290699,0.187001,0.650006,0.658835,-0.705242,0.261859
0.148499,0.227639,0.842960,0.287025,0.199206,-0.936981
0.235693,-0.015542,-0.799409,-0.729435,0.684004,0.007933
0.255955,-0.038485,0.900393,0.797375,0.569216,0.200467
0.820682,-0.296647,0.595619,0.833496,-0.261554,0.486697
0.431683,0.370020,0.491698,0.272215,-0.315371,0.909087
0.551857,-0.457253,0.465911,0.705208,0.013073,-0.708880
-0.432535,-0.027987,0.681328,0.799133,-0.083927,0.595267
-0.147951,0.392374,0.401846,-0.002985,-0.384889,0.922958
0.386169,0.157805,0.901382,0.984167,0.153744,-0.088199
-0.466366,0.348315,0.378022,-0.628288,0.104221,0.770968
0.119109,0.358695,0.739549,0.042813,-0.895861,0.442266
0.265874,0.127488,0.794571,-0.535647,0.320041,0.781445
-0.407405,-0.138282,0.635010,0.254030,0.965992,0.048244
0.485229,-0.472647,0.699014,0.903495,-0.425149,0.054268
0.325748,0.723849,0.325104,0.917734,-0.144469,-0.369989
-0.143387,-0.585538,0.683616,-0.352492,0.818549,0.453570
0.232103,-0.466395,0.732701,-0.616569,0.137815,0.775145
0.085947,0.600165,0.541881,0.926227,0.196550,-0.321669
0.086069,0.620514,0.514455,0.862483,-0.090570,-0.497916
-0.567313,-0.062078,0.270762,-0.563894,-0.754671,0.335403
0.045058,0.081306,0.857538,0.799400,0.486889,0.351992
0.277130,0.706686,0.373323,0.100167,0.054516,0.993476
0.437281,-0.410540,0.769417,0.157563,-0.973045,-0.168398
-0.396513,0.756053,0.432240,-0.157124,-0.568864,0.807283
0.418479,-0.341768,0.573357,0.098346,-0.038507,0.994407
0.558064,-0.638798,0.582122,-0.652390,0.511492,-0.559252
-0.200888,0.078062,0.730784,0.072940,0.121554,0.989901
-0.036539,-0.030995,0.841491,0.922234,-0.334404,-0.194055
0.228026,0.022030,-0.075753,-0.590162,0.780250,-0.207168
0.596094,0.103247,0.386201,-0.441108,-0.246117,0.863047
-0.498311,-0.277950,0.479593,-0.438517,-0.718838,-0.539421
0.695336,-0.039075,0.583684,0.059287,-0.725990,-0.685145
0.843439,-0.340529,0.546890,-0.581461,-0.473718,0.661433
0.702029,-0.219322,0.731680,0.790688,-0.558566,0.250632
-0.338647,-0.237312,0.493940,0.934887,0.064992,-0.348944
0.002403,0.234657,0.794710,0.763822,-0.437895,0.474156
0.158356,0.404111,0.563988,-0.310041,0.949099,-0.055547
0.795126,-0.000206,0.635690,0.113233,0.955777,-0.271420
0.238918,-0.342004,0.558484,0.329214,0.387384,0.861134
-0.743527,-0.161756,0.498377,0.608274,0.366589,0.704000
-0.404363,0.097526,0.304032,0.330935,0.320972,0.887389
0.757827,-0.236191,0.586992,-0.655285,0.111094,0.747168
0.310171,0.132679,0.852653,0.905969,-0.381176,0.184186
0.120570,0.822230,0.631918,0.995367,-0.092982,0.024453
-0.482126,0.058539,0.649542,0.770130,-0.628240,-0.110514
-0.750160,0.083901,0.564003,0.618480,-0.470805,0.629147
-0.504518,-0.070630,0.497851,-0.747176,0.481323,-0.458318
0.259667,0.186765,0.863382,0.960094,-0.164435,-0.226229
0.333475,-0.030287,-0.960145,-0.302207,0.358474,-0.883271
0.095379,0.288625,0.881547,0.899409,-0.144902,0.412391
0.130853,-0.409596,0.211490,0.217280,0.647761,0.730202
0.382701,0.455012,0.761301,0.097712,-0.988678,0.113881
0.273723,0.040078,0.743229,0.112236,0.944851,0.307668
-0.355563,0.208411,0.540365,-0.404832,0.122883,-0.906096
0.283337,0.030405,0.563261,-0.165570,-0.973134,-0.159993
0.665947,0.235955,-0.013404,-0.174054,0.938277,-0.298901
0.467705,-0.196614,0.839342,0.677946,-0.727470,-0.105720
0.145335,0.063729,0.902402,0.287966,0.957630,-0.004512
0.097265,0.232534,0.799904,0.934084,0.299147,0.194929
0.386291,-0.127842,0.850690,-0.024763,-0.979480,0.200013
0.743223,0.267215,0.604091,-0.230993,0.842397,-0.486837
-0.669780,0.387065,0.361264,-0.406707,0.312753,0.858356
0.163224,-0.416025,0.558871,-0.557739,0.821041,-0.121732
0.169126,-0.666814,0.708460,0.898383,0.269238,0.347013
0.041346,-0.379280,0.783733,-0.476318,-0.809376,-0.343557
0.138520,-0.390722,0.731928,0.883618,-0.075148,0.462139
0.533603,-0.309800,0.528245,0.547081,-0.080078,0.833241
0.253156,0.219145,0.705692,0.746586,-0.527296,0.405670
0.133348,0.156271,0.685332,-0.674671,0.699655,-0.235164
0.394201,-0.081011,0.734200,-0.519269,-0.490945,0.699524
0.075968,0.671474,0.478511,0.275472,-0.471534,0.837718
-0.262284,-0.917544,0.445334,0.273915,0.002015,0.961752
0.291916,0.033944,-0.510404,-0.813480,0.581523,-0.009025
-0.015121,-0.594267,0.219359,-0.431264,0.014355,0.902112
-0.338161,-0.591495,0.413333,0.291946,-0.177818,0.939760
0.162007,0.117049,0.955600,0.036706,-0.591172,0.805710
0.097265,0.493881,0.807077,0.917599,-0.327999,0.224565
0.135721,0.231944,0.555160,0.998928,-0.037400,-0.027268
0.306094,-0.019198,-0.782589,-0.549885,0.832637,-0.065900
0.196203,0.870949,0.582772,0.250627,-0.729703,0.636176
0.256929,0.025333,0.958738,-0.695027,0.659015,0.287467
0.060452,-0.179274,0.695041,0.870318,-0.490028,-0.049182
-0.200645,-0.302781,0.384593,-0.565900,-0.253614,-0.784498
0.229730,-0.573859,0.728789,0.560699,0.803235,-0.201076
-0.496912,-0.010115,0.730088,0.165400,0.984936,-0.050435
-0.011896,-0.474122,0.561654,-0.330895,0.736816,0.589586
0.375886,-0.125070,0.426180,0.870452,0.444546,0.211406
0.117710,0.344304,0.839481,-0.021202,0.973077,0.229504
-0.397487,0.328674,0.396172,0.513854,0.642839,-0.568077
0.528674,-0.447108,0.717890,0.919264,-0.099938,-0.380743
-0.539505,0.287387,0.584658,-0.208968,0.977170,0.038343
-0.020901,-0.345012,0.536160,0.767474,0.625537,0.140314
-0.253339,0.068625,0.522061,-0.611358,-0.483732,-0.626294
0.468314,0.020614,0.844258,0.653907,-0.487418,-0.578645
0.085947,-0.228877,0.579633,-0.317545,0.785763,0.530793
0.093553,0.462974,0.605266,-0.031255,-0.595573,0.802693
0.341994,0.160341,0.837966,-0.800535,0.594745,0.073635
-0.625240,-0.275414,0.305269,0.201188,-0.013439,0.979460
0.429736,-0.160046,0.715927,-0.365122,-0.398953,0.841144
0.575284,-0.158866,0.534723,-0.657992,-0.708534,0.255004
-0.359457,-0.562594,0.443031,0.491533,-0.018234,0.870668
0.788737,-0.007402,0.616845,-0.359994,0.752834,-0.551040
-0.000943,0.552744,0.502937,-0.547791,0.781247,0.299298
0.409170,-0.389661,0.744342,0.214569,0.910618,0.353179
0.056619,0.643457,0.260203,-0.272127,0.167824,0.947514
0.180078,-0.278422,0.089110,0.815329,-0.502322,0.287943
-0.517478,0.191483,0.579989,0.683571,0.547329,0.482869
-0.395722,-0.291869,0.486009,-0.524163,0.132672,0.841220
-0.379598,-0.499779,0.444438,0.546795,0.102507,0.830968
0.421643,0.547908,0.351756,-0.008009,-0.520180,0.854019
-0.198272,-0.217671,0.380388,0.372332,0.508912,0.776130
-0.622623,0.044207,0.254932,-0.566114,0.433332,0.701241
0.447078,-0.168480,0.850875,0.949810,-0.262564,-0.170062
-0.087651,-0.070689,0.550986,0.720874,-0.690439,-0.060286
0.311083,0.198030,0.796395,0.471064,-0.227889,-0.852153
-0.471234,0.006164,0.720688,-0.062632,0.993223,0.097908
0.084061,0.333864,0.748701,0.541205,-0.526534,0.655637
-0.289422,0.018786,0.553290,-0.879610,-0.324055,-0.348244
0.113572,-0.490932,0.681266,0.706256,0.076130,0.703852
0.066354,-0.295939,-0.023143,-0.638937,0.075505,0.765545
-0.491192,0.181810,0.569801,-0.351249,-0.904456,-0.242039
0.192917,0.667109,0.541649,0.778179,0.604854,-0.169082
0.318628,0.581350,0.328567,0.851660,0.027478,-0.523373
0.315464,-0.015483,-0.635752,0.917896,-0.395771,0.028833
-0.218838,0.319178,0.701719,-0.340252,0.928825,-0.146670
0.540844,0.247633,-0.026900,-0.511056,0.090443,0.854776
0.186285,0.646348,0.529451,-0.495037,0.202136,0.845032
0.177523,0.493350,0.746661,0.209734,0.928444,-0.306598
-0.250783,0.247397,0.702415,0.636461,-0.249677,0.729780
-0.180930,-0.257188,0.384114,0.299508,0.591436,0.748664
0.361100,-0.445280,0.778570,-0.582128,0.639701,0.501906
-0.730141,0.157274,0.579154,0.818445,-0.077206,0.569375
-0.309806,0.233124,0.712989,0.390055,-0.048234,-0.919527
0.703490,0.913828,0.400903,-0.065466,0.676029,-0.733961
0.495452,-0.194373,0.711505,-0.141744,-0.931319,-0.335490
0.238857,0.024979,0.584349,0.449008,0.891218,-0.064212
-0.133287,-0.005692,0.766032,-0.475419,-0.689021,-0.547016
0.178862,0.093751,0.953574,0.277934,0.781763,-0.558211
0.229061,0.241971,0.855961,0.507017,0.783700,-0.358815
0.850558,-0.456663,0.466483,0.861807,0.178258,0.474882
0.315160,0.081837,0.897084,0.493008,-0.867248,0.069458
0.289482,-0.116990,0.866706,-0.587469,-0.807267,0.056568
0.507378,-0.436905,0.635196,-0.564016,0.823652,-0.059023
0.322401,-0.123183,0.875935,0.913800,0.372198,-0.162597
0.283702,-0.067622,0.824872,-0.406166,-0.271588,-0.872507
0.257172,-0.566015,0.759647,-0.259820,0.842166,0.472493
0.292829,-0.578106,0.593903,-0.256975,0.149354,0.954807
0.406918,0.502787,0.518985,0.370545,-0.216545,0.903219
0.164076,-0.424106,0.586652,0.561579,0.675686,0.477575
0.548937,-0.539414,0.453080,-0.603896,-0.253458,0.755691
0.051690,0.152378,0.751654,-0.475761,-0.852145,0.217947
0.327695,-0.022030,-0.779884,0.526647,-0.849930,0.016168
0.328790,-0.138813,0.818425,0.505472,-0.808441,0.301531
-0.045970,-0.000619,0.793550,-0.143404,0.977265,-0.156166
0.239953,-0.267392,0.358203,-0.331568,0.940577,0.073334
0.525206,-0.502374,0.735004,-0.632361,0.757993,0.159891
0.388968,0.207998,0.859811,-0.500402,0.516958,-0.694516
0.364325,0.687222,0.348912,0.598432,0.593391,0.538299
0.280903,0.447403,0.704765,-0.084184,0.950148,0.300221
-0.030393,0.662862,0.248454,-0.065555,0.053238,0.996428
0.502327,-0.500899,0.549379,0.009520,0.347163,0.937756
0.271958,0.697602,0.371715,0.124091,0.046009,0.991204
-0.155557,0.033295,0.470472,-0.541387,0.467194,0.699020
0.247437,0.081542,0.936971,0.704322,-0.709340,0.027682
-0.092336,0.433307,0.488328,0.983475,0.172770,-0.054099
0.707445,0.660621,0.564962,-0.326733,0.535744,-0.778604
-0.798838,0.263086,0.246290,-0.526750,-0.832483,-0.171773
0.673370,-0.369489,0.530672,-0.548306,-0.420413,0.722920
0.323679,0.232298,0.880264,-0.032360,-0.968598,0.246517
-0.094709,-0.462031,0.581659,-0.341188,0.803300,-0.488160
-0.248410,0.020201,0.827701,0.977954,0.148447,0.146868
-0.524780,-0.096936,0.486519,-0.756841,0.550515,-0.352313
0.377407,-0.210829,-0.060309,0.930993,-0.229798,-0.283628
-0.216830,0.160990,0.621174,0.990708,0.116416,-0.070324
0.238492,-0.063670,-0.560200,-0.839185,0.543750,-0.010222
0.200523,0.291810,0.591584,0.973323,0.200256,-0.111984
0.405275,0.124657,0.374652,0.478709,-0.814175,-0.328568
0.318994,0.031231,-0.805624,0.677774,-0.733787,-0.046684
0.668867,0.172609,0.614820,0.153702,-0.510575,0.845984
0.593112,-0.458433,0.694963,-0.239355,0.966999,0.087298
0.085826,-0.294465,0.755457,0.923365,0.139502,0.357681
-0.202470,-0.150373,0.488606,0.779383,0.347360,-0.521443
0.257233,-0.035713,0.708444,-0.747853,0.649531,-0.137206
-0.510298,-0.033885,0.451951,-0.193112,0.954831,0.225843
0.839788,0.379221,0.504947,-0.223984,0.776953,-0.588367
0.243117,-0.031467,-0.680709,0.694763,-0.718846,0.023783
-0.002282,-0.387419,0.612052,0.787016,0.463548,0.407099
0.203140,0.294877,0.852668,0.422978,0.905768,0.025941
-0.250601,0.234893,0.505566,0.832345,0.133980,0.537821
-0.258085,-0.413666,0.521087,0.242665,0.340644,0.908336
0.258937,0.208352,0.848726,0.401863,0.302982,-0.864123
-0.028325,0.911115,0.513527,0.186521,-0.980099,0.067946
-0.310962,0.030936,0.756060,0.194343,0.911061,-0.363591
-0.526788,0.194963,0.544308,0.470557,0.292660,-0.832422
0.504579,-0.331682,0.759168,0.974849,-0.221164,-0.027491
0.703611,0.289510,0.651846,0.584161,-0.179194,-0.791609
-0.208920,-0.497597,0.364170,-0.752735,0.656970,-0.042196
0.390794,0.154856,0.923119,-0.212708,-0.973362,-0.085566
0.404667,0.052405,0.568255,0.074696,0.108606,-0.991275
0.294107,-0.004217,-0.703868,-0.873543,0.477848,-0.092645
-0.003073,-0.060780,0.777333,-0.564400,0.702365,-0.433746
0.473242,0.144298,0.331272,-0.166830,-0.621484,0.765458
0.215188,-0.123772,0.722312,0.081507,-0.815425,0.573095
0.419514,0.140051,0.767006,-0.283404,-0.205017,-0.936830
0.160181,-0.085847,0.704378,0.075569,0.211002,0.974560
0.076638,-0.298947,0.523607,0.057688,-0.139069,0.988601
-0.511698,-0.128786,0.479160,0.807696,-0.330716,0.488112
0.134199,0.540417,0.621730,-0.188746,0.065654,-0.979829
0.594816,0.316465,0.656979,-0.784340,0.086978,0.614203
0.327573,-0.015011,0.561174,-0.088480,-0.843406,0.529941
0.352825,-0.419151,0.699972,-0.528071,0.706366,0.471369
0.255347,-0.114866,0.618948,0.107677,-0.984538,-0.138167
0.449086,-0.017488,0.725929,-0.023171,-0.634794,0.772334
0.174906,-0.028105,-0.982623,-0.802765,-0.525016,0.282714
0.111929,-0.122652,0.880898,0.976443,0.182488,-0.115139
-0.788250,-0.225220,0.317188,0.026917,-0.086011,0.995931
0.095439,0.380813,0.596825,0.720318,0.380925,0.579688
-0.174481,-0.011649,0.791757,-0.331031,-0.260766,0.906874
0.787642,0.232947,0.339497,-0.314877,0.942972,0.107961
0.089841,0.604058,0.524504,0.971117,-0.006664,-0.238511
0.225471,0.044325,0.785418,0.922330,0.367316,-0.119940
-0.519061,0.078003,0.528152,0.218248,-0.416185,0.882699
0.672822,-0.215312,0.574052,0.672902,-0.028830,-0.739170
-0.018650,0.291044,0.479500,0.330651,-0.432839,0.838642
0.615017,0.317585,-0.010760,0.688569,-0.180161,-0.702435
0.407588,0.071220,0.763048,0.255476,-0.074591,0.963934
-0.064894,-0.645227,0.683167,0.019202,0.671105,0.741114
0.679394,0.388009,0.649511,-0.452122,0.247112,0.857042
-0.009888,-0.011826,0.518861,-0.496114,0.859368,0.123926
-0.314491,0.012357,0.646157,0.921600,0.357610,0.150895
0.094892,0.090684,0.836621,0.078032,0.530258,0.844238
-0.289239,-0.035595,0.760915,0.537334,0.451883,-0.712091
0.025039,0.412722,0.429071,-0.538025,-0.564334,0.626144
-0.694302,-0.134507,0.498129,0.412871,0.771523,0.484036
0.179105,0.180277,0.553506,0.962551,0.186133,0.197103
0.347774,-0.230647,0.772927,0.624810,0.780026,-0.034237
0.640208,-0.207762,0.736473,-0.021123,0.960032,0.279093
-0.004411,-0.327022,0.797956,-0.799470,-0.446697,-0.401634
-0.669111,0.164234,0.550863,0.828938,-0.052054,0.556912
-0.115641,-0.000501,0.553955,-0.043634,0.998830,-0.020854
-0.870212,0.136748,0.201781,0.853402,-0.239102,-0.463179
0.247437,0.388186,0.567327,-0.790207,0.573173,-0.216903
-0.395296,0.791265,0.480799,-0.159190,-0.936074,0.313726
0.592199,0.259430,-0.000711,0.233522,-0.734604,0.637044
0.432474,-0.300658,0.559489,0.913571,0.405806,-0.026620
0.115945,0.484562,0.768289,-0.820960,0.367108,-0.437329
-0.152454,0.690053,0.428344,-0.162014,0.972646,0.166465
0.482126,0.408888,0.715865,0.655486,-0.552215,0.515167
0.424929,-0.296057,0.742858,-0.502595,0.796660,-0.335754
0.526788,0.280368,0.476377,0.112276,-0.781416,0.613827
0.689312,0.731104,0.530038,-0.178908,0.862831,0.472772
0.265509,0.412604,0.706666,-0.497231,0.802392,0.330043
0.894186,0.331623,0.485514,0.183935,-0.504851,0.843382
0.164015,0.508390,0.620354,-0.297619,-0.120582,0.947039
0.509142,-0.667404,0.637607,0.629782,0.453687,-0.630510
0.399678,-0.182577,0.791046,0.736894,0.673627,0.056694
0.138885,-0.486921,0.669516,-0.644605,-0.732636,-0.218471
0.134078,0.776107,0.490430,0.483262,0.342387,0.805747
0.060939,0.738477,0.709001,0.443914,-0.838326,0.316465
0.810946,0.541007,0.523839,-0.028136,-0.573957,0.818402
-0.146673,0.026748,0.607260,-0.477112,0.077370,-0.875430
0.322888,-0.232357,0.559520,0.284419,-0.060044,-0.956818
0.342420,0.677372,0.370772,0.237653,-0.193034,0.951976
0.043658,-0.451473,0.232438,0.034406,-0.303253,-0.952289
0.714077,0.524905,0.525617,0.013951,-0.838789,0.544278
0.088868,0.491344,0.440186,-0.318187,-0.511389,0.798272
0.433630,0.330856,0.713530,0.370153,-0.826041,0.425021
0.233138,0.230352,0.921140,0.109601,-0.977786,0.178667
-0.052055,-0.174261,0.803089,0.885371,-0.447606,0.125568
0.074569,0.692235,0.489889,0.970357,-0.185939,-0.154384
-0.029967,0.474417,0.488343,-0.718639,-0.488461,-0.494939
0.207703,0.728922,0.663472,0.751286,-0.654083,0.088004
-0.259971,-0.584948,0.596113,0.287120,-0.025748,0.957548
0.299401,-0.205226,0.881717,-0.664805,0.710966,-0.229261
-0.237032,0.311510,0.508889,0.795840,-0.044737,0.603852
0.158660,-0.137279,0.600210,-0.621614,0.783166,-0.015703
0.815267,0.001976,0.614526,0.999656,0.025792,0.004839
