-0.176658,-0.595469,0.932228,0.601630,0.798767,0.003482
-0.340180,-0.303296,0.814703,0.979331,0.143931,0.142106
0.037427,0.014924,0.743211,-0.039093,0.949210,-0.312206
-0.109707,-0.464975,0.775670,0.063432,-0.233889,0.970192
-0.349165,-0.191194,0.873998,0.449398,0.542151,-0.710010
-0.342935,-0.143518,0.642114,0.824244,-0.300462,0.479942
-0.283973,-0.262761,0.323659,0.317150,0.609305,0.726749
-0.496072,-0.214108,0.776934,-0.729827,0.669170,-0.139873
0.034673,0.438362,0.663924,-0.742667,0.663011,-0.094142
0.239865,-0.105089,0.751375,0.362858,-0.665915,0.651837
0.010655,-0.382055,-0.741024,-0.128403,-0.983944,-0.123964
0.044921,-0.209227,0.859132,0.928939,-0.358894,-0.090928
-0.203837,-0.188882,0.851876,0.243012,0.748234,0.617325
0.801038,-0.273241,0.396301,-0.108831,0.887612,0.447550
0.454357,0.544658,0.326513,-0.187391,-0.012232,-0.982209
-0.715124,-0.150094,0.331241,-0.466788,0.309718,-0.828362
0.126908,0.223561,0.709659,0.850586,0.496448,-0.173328
0.017201,-0.525958,-0.958780,0.202554,-0.092690,-0.974875
0.026908,-0.507873,0.756132,0.652382,0.727289,0.213187
-0.237246,-0.366693,0.798800,0.944300,-0.050213,0.325234
0.401219,-0.177991,0.245820,0.588624,-0.036789,0.807569
-0.342799,-0.309821,0.344943,-0.222731,-0.775604,-0.590617
-0.953002,0.024275,0.397167,0.561785,0.462618,-0.685844
-0.194808,-0.117162,0.312300,0.261497,0.344136,-0.901771
0.438601,-0.285417,-0.034667,-0.122875,-0.301010,0.945672
-0.170925,-0.112692,0.789273,0.650481,0.730113,-0.209305
0.175711,-0.046058,0.822669,0.087336,0.197707,0.976363
-0.529074,0.189191,0.562699,-0.414669,0.866807,0.276938
-0.351422,-0.113771,0.478513,0.845832,0.487294,-0.217054
-0.611557,0.314136,0.208250,-0.705703,-0.708013,-0.026475
-0.313408,-0.429115,0.707884,-0.123396,0.366747,-0.922101
0.010158,0.395823,0.566476,0.886855,-0.059153,-0.458245
-0.633634,0.914151,0.223159,-0.608069,-0.793759,0.014122
-0.318961,0.337152,0.374790,0.669764,-0.221308,0.708830
-0.415621,-0.607850,0.294381,-0.336159,0.403472,0.851004
-0.416388,-0.480644,0.841269,0.969351,-0.219970,-0.109418
-0.589209,-0.450846,0.333016,-0.793723,0.577271,-0.191732
0.552731,0.175524,0.255404,-0.486803,0.337622,-0.805626
-0.599323,-0.185235,0.718136,0.049401,0.913519,0.403786
-0.403928,0.108685,0.533023,0.753701,0.398861,0.522346
0.403341,0.151019,0.265386,0.913088,0.010454,0.407629
0.229391,-0.259062,0.648035,-0.135979,-0.883381,0.448494
-0.408126,-0.093992,0.771581,-0.259371,0.775483,0.575632
-0.223431,-0.772509,0.796713,-0.539473,0.773921,0.331686
-0.158420,-0.816229,0.765646,-0.734417,0.571384,0.366268
-0.018916,-0.380256,0.419417,-0.368434,-0.596295,-0.713224
0.165192,0.303912,-0.180491,-0.414354,0.107505,0.903744
-0.416072,-0.791364,0.760960,-0.422772,0.519817,0.742331
-0.657923,-0.734953,0.267545,-0.553484,-0.351006,-0.755281
-0.029120,-0.176860,0.795307,-0.443604,-0.893159,0.074049
-0.487042,0.188523,0.675397,0.578200,-0.815775,-0.013999
-0.097607,0.641450,0.220418,0.362659,-0.261297,-0.894540
-0.010880,-0.521796,0.896674,-0.303490,0.778950,0.548754
0.030610,0.797118,0.230159,0.725008,-0.061737,0.685967
-0.638239,0.601993,0.151170,0.459031,-0.010473,0.888359
-0.492731,0.379024,0.426829,-0.135790,-0.972308,0.190207
-0.484379,-0.335354,0.779504,-0.618507,0.732331,0.284849
-0.417110,0.326980,0.275709,0.621626,0.276407,0.732926
0.573815,-0.245344,0.355011,0.074436,0.862252,0.500980
-0.209661,0.104010,0.473586,0.949552,-0.129227,-0.285747
0.216208,-0.322562,-0.324596,0.306145,-0.949618,0.067086
0.429030,-0.131753,0.274630,-0.600914,0.434421,0.670955
-0.143611,0.760333,0.213659,0.700112,0.264266,-0.663330
0.151467,0.214930,0.601136,0.443161,0.892116,-0.087961
-0.577607,-0.715687,0.259678,-0.625009,-0.259723,-0.736144
-0.534040,0.072568,0.616797,-0.317150,-0.187237,-0.929709
0.045689,-0.099797,0.807433,0.942997,0.287059,0.168388
0.009707,-0.784017,0.738199,-0.318439,-0.389824,-0.864080
0.639323,-0.502992,0.438856,0.274835,-0.780944,0.560884
-0.272957,-0.170284,0.904100,0.868113,-0.414389,-0.273241
-0.225553,-0.080942,0.708310,0.153625,0.141577,0.977934
-0.769751,-0.523235,0.476511,0.484855,0.411879,-0.771538
-0.539819,0.410568,0.417301,0.180260,0.463111,0.867776
-0.520857,0.260860,0.548656,-0.154117,0.828819,0.537872
-0.596388,0.513268,0.323460,-0.049668,0.109478,0.992748
-0.044469,-0.439595,0.929743,0.383249,0.807245,0.448860
-0.626727,-0.524622,0.240339,0.612981,0.745901,-0.260551
-0.090293,0.196845,-0.288133,0.788096,0.447753,-0.422400
-0.213679,-0.109456,-0.248433,0.830328,0.506695,-0.231983
-0.457743,0.190372,0.691598,0.136013,-0.523031,0.841391
-0.213679,-0.555396,0.713833,-0.124428,0.529435,0.839176
-0.330971,-0.757148,0.765063,-0.286672,0.561728,0.776068
-0.805011,0.330319,0.353846,-0.825015,0.524826,-0.209542
-0.075847,0.832567,0.240609,0.036976,-0.084994,0.995695
-0.430113,-0.307868,0.518200,-0.144286,-0.527995,0.836901
0.164651,-0.136068,-0.199815,0.056375,-0.218671,0.974169
-0.446997,-0.059775,0.674999,-0.589249,0.429341,0.684436
-0.414131,-0.111819,0.705484,0.833465,0.027146,0.551906
-0.068577,0.904647,0.244500,-0.641697,0.757514,-0.119988
0.348081,-0.156207,-0.240453,0.600421,-0.797991,0.052013
-0.865598,-0.426597,0.499741,0.781273,0.138467,0.608637
-0.210610,-0.094351,0.467765,-0.524408,0.822406,0.220554
0.402799,-0.209125,0.326556,-0.664262,0.736560,-0.127421
-0.004243,-0.323846,0.279415,-0.166474,-0.981861,-0.090751
-0.189932,0.005215,0.383891,0.590358,-0.691192,-0.416810
-0.696524,0.494259,0.281701,0.941381,0.337273,-0.007026
0.216253,0.078836,0.367122,0.106804,-0.158122,0.981626
0.295666,-0.034345,0.063036,-0.539146,-0.378955,0.752140
-0.092370,-0.194585,-0.995016,0.199477,-0.111462,-0.973543
-0.055440,-0.300213,0.684342,-0.333262,-0.317802,0.887659
0.286050,-0.053611,0.825083,-0.430111,0.510796,-0.744374
0.982077,-0.154769,0.413567,0.723491,-0.515949,-0.458648
0.243838,-0.264250,0.372418,0.110996,0.867769,0.484413
-0.266411,-0.170284,0.895992,0.920155,0.388612,0.047906
0.003070,-0.323486,0.900763,0.683732,0.661123,0.308913
0.654673,-0.301498,0.314245,0.049787,0.983606,0.173322
-0.195124,0.061471,0.716105,0.776620,0.449862,-0.441005
-0.081083,-0.435177,0.675184,0.664634,-0.743719,-0.071723
0.521716,0.127283,0.523638,0.344147,0.774193,-0.531214
0.015711,-0.400396,0.507479,-0.660544,0.278050,-0.697402
-0.024424,-0.001927,0.680310,-0.328265,0.683395,0.652083
-0.646049,0.214467,0.511398,0.806673,-0.500632,-0.314082
0.505327,-0.248786,0.384786,-0.497175,-0.787333,-0.364587
0.889255,-0.241645,0.351262,-0.873351,-0.004591,-0.487070
-0.424965,-0.278224,0.611089,0.388729,0.912895,0.124550
-0.385462,0.194893,0.682269,-0.632310,0.570428,-0.524210
0.300181,-0.130366,0.645494,0.310066,0.852781,0.420266
0.045328,-0.333607,0.895098,-0.359803,0.772804,0.522796
0.146231,0.145008,0.828945,0.091937,0.933417,0.346814
0.070519,0.302474,0.629520,0.763386,-0.559599,0.322632
0.599007,-0.305454,-0.347570,-0.526198,0.850181,0.017579
-0.524243,-0.328829,0.413312,-0.261509,-0.869396,-0.419242
0.284515,-0.164119,0.771368,-0.592974,0.804933,0.021575
0.477562,0.149323,0.519208,-0.514808,0.531732,0.672483
0.755531,-0.163965,0.061063,-0.052559,-0.662321,0.747374
-0.228487,0.527088,0.154663,-0.170431,-0.111028,0.979094
-0.050880,-0.455110,0.928238,0.174542,0.710760,0.681436
0.491829,-0.278584,0.316276,-0.430318,0.812036,-0.394239
0.029752,-0.411441,-0.421675,0.047439,0.989145,0.139075
-0.577291,-0.183385,0.596209,0.806013,0.574744,-0.141462
0.375756,-0.026124,0.501232,-0.090865,-0.755433,0.648895
0.093996,0.259678,0.587093,0.768452,0.289177,0.570840
0.245643,-0.311002,-0.339136,0.405235,-0.904833,0.130620
0.961129,-0.194739,0.404608,0.032952,-0.465332,0.884523
0.191423,0.403067,0.365163,-0.631401,-0.546805,0.549852
0.050790,-0.066351,0.874225,0.902770,-0.420037,-0.092606
-0.295124,-0.537723,0.804679,-0.465167,-0.537042,-0.703709
0.035485,0.735364,0.226339,0.860537,-0.023726,0.508835
0.330384,0.569627,0.424373,-0.210382,-0.360897,0.908566
-0.356840,-0.161807,0.863193,-0.019608,0.041766,0.998935
0.388623,0.099026,0.272344,0.783597,0.210795,0.584416
-0.659593,-0.564643,0.341493,0.333536,-0.887858,0.316958
-0.945011,-0.298775,0.305073,-0.716132,-0.506228,0.480508
0.012596,-0.274936,0.910390,-0.716465,0.312920,0.623506
0.757246,-0.378612,0.411324,0.133464,0.606166,0.784060
0.188217,-0.494413,-0.955983,-0.154412,0.401089,0.902931
-0.010699,-0.386062,0.902240,0.835352,-0.494748,-0.239607
0.166276,-0.126204,0.775287,0.087026,0.924450,-0.371238
-0.029887,-0.341982,0.583288,0.537082,0.839551,0.081839
0.066863,-0.372756,0.781293,-0.105992,0.445985,0.888742
-0.021625,-0.213389,0.330077,0.758454,-0.389172,-0.522774
-0.157291,-0.557451,0.827795,-0.332673,-0.895773,0.294820
-0.534176,0.292918,0.602513,0.359327,0.176103,0.916445
0.061129,-0.219707,0.746477,-0.482922,-0.021117,-0.875409
-0.140361,0.023607,0.703610,-0.474429,-0.107455,-0.873711
-0.859052,-0.294356,0.409790,-0.041310,-0.140812,0.989174
0.277698,-0.174497,0.620475,0.902511,-0.348898,0.252475
-0.297742,-0.156002,0.758006,0.514904,-0.729889,-0.449596
-0.069751,-0.659483,0.631252,-0.489605,-0.443063,-0.750988
-0.311557,0.013332,0.499329,-0.722277,0.228030,0.652930
-0.183025,-0.274936,-0.211544,0.929751,0.355139,-0.097160
0.657066,-0.438516,0.520684,-0.018795,0.989677,0.142076
0.501354,-0.042411,0.467850,-0.405944,0.500859,-0.764428
0.383657,-0.183796,0.032892,-0.253542,-0.737289,0.626196
0.212009,0.207994,0.476185,0.444461,-0.764386,0.467086
-0.429887,0.464923,0.160896,0.258617,-0.496894,0.828380
-0.552189,-0.309512,0.403372,-0.343461,-0.720630,-0.602268
0.041581,0.444322,0.317525,0.815801,-0.180444,-0.549462
0.212686,0.151430,0.528039,0.931046,0.020248,0.364340
0.077292,0.231473,0.630670,-0.093750,0.977164,-0.190687
0.122619,0.480747,0.592006,0.119084,-0.503127,0.855969
-0.083656,0.285469,0.671009,-0.680272,0.731512,-0.046048
-0.403792,0.000539,0.682936,-0.288717,0.443430,0.848535
-0.474717,0.745691,0.187604,-0.485929,-0.690429,-0.535893
0.065734,0.318811,0.637585,-0.451232,0.583018,-0.675633
-0.655485,-0.096663,0.690334,-0.460075,0.887219,0.034257
-0.126772,-0.453055,0.721188,-0.426442,0.015196,0.904387
-0.499142,0.873667,0.140989,0.115542,0.218340,0.969009
0.038104,-0.398906,-0.339562,-0.001159,0.979847,0.199745
-0.323024,0.258394,0.336097,0.774729,0.427807,0.465592
0.618149,0.208199,0.254794,0.113166,-0.579009,0.807429
-0.339503,-0.268463,0.724554,0.871393,0.353506,-0.340158
-0.522708,-0.550412,0.517191,0.826107,-0.333812,0.454001
-0.547223,-0.294973,0.506159,-0.207676,0.908275,0.363190
0.090430,0.285828,0.772802,-0.077981,0.974516,-0.210326
-0.052325,0.205528,0.698200,0.392948,-0.525611,0.754536
-0.176163,-0.480490,0.841752,0.437538,-0.263691,-0.859667
-0.619187,0.589303,0.149452,-0.427265,0.087520,-0.899881
-0.419955,0.218937,0.552845,-0.571699,0.428858,-0.699458
-0.520000,-0.075291,0.749445,0.031322,-0.999337,-0.018560
0.131152,0.344293,0.642072,0.980094,-0.168760,0.104573
-0.162618,-0.028899,0.682539,0.225098,0.964378,0.138945
-0.537336,-0.204244,0.797749,0.820376,0.027095,0.571182
0.108307,0.337050,0.514394,-0.510500,-0.839224,-0.187332
-0.367449,0.014924,0.641149,-0.637983,0.198893,-0.743921
-0.639684,0.110329,0.669419,-0.572757,0.788081,0.225561
0.101445,0.262555,0.327933,0.128705,-0.066552,0.989447
0.127856,-0.112949,0.711306,0.994397,-0.103921,-0.019363
0.006185,0.053970,0.621469,0.949817,-0.150807,0.274052
-0.235349,0.036040,0.738525,0.489990,-0.685840,0.538084
0.004334,-0.549950,-0.957843,-0.115752,0.023529,0.992999
0.947088,-0.270107,0.342359,0.736007,0.286565,0.613330
0.075802,0.526626,0.582990,0.079326,0.967485,-0.240165
-0.691648,-0.065427,0.353363,0.438003,-0.471396,0.765467
-0.344153,-0.660715,0.728870,0.077742,-0.820206,-0.566762
-0.129797,-0.022785,0.665770,-0.301360,0.905504,0.298738
-0.220090,-0.069794,0.799127,-0.309403,-0.950195,0.037393
0.733274,-0.248067,0.363970,0.094908,0.701122,0.706697
0.479188,0.026946,0.505250,-0.505501,0.615944,-0.604220
-0.508081,0.470267,0.521210,-0.408781,0.837586,-0.362418
-0.634176,0.562794,0.433091,0.818420,-0.250320,0.517232
0.098601,-0.574970,0.858834,0.332807,0.153173,-0.930472
-0.525598,-0.151532,0.602300,-0.524379,0.336156,-0.782320
-0.461219,0.129646,0.665131,0.151219,-0.899712,0.409452
0.751242,-0.289578,0.406382,0.004656,0.522353,0.852717
-0.044605,-0.344448,0.914536,0.280392,-0.111291,0.953412
-0.737426,0.842585,0.208917,0.668528,0.274642,-0.691117
-0.272550,-0.652701,-0.348947,0.735150,-0.659165,0.158294
0.663883,-0.495749,0.416748,0.956323,0.049120,-0.288154
0.209571,0.194226,0.378084,-0.225686,-0.211801,0.950898
-0.334176,-0.031827,-0.258457,0.661293,-0.267802,0.700696
-0.259729,-0.274783,0.773483,-0.020755,-0.713147,0.700707
0.247269,-0.136377,0.281516,0.175168,0.148131,0.973331
0.836028,-0.276889,0.408470,0.259622,-0.552383,-0.792130
-0.705417,-0.099335,0.670115,0.860299,-0.509671,-0.010971
-0.966636,-0.154923,0.351688,0.071420,0.522614,0.849573
-0.323115,0.289014,0.492514,0.879324,0.029250,0.475324
0.248714,-0.822446,0.608590,-0.530010,-0.737408,-0.418711
0.581896,0.143312,0.243279,0.574193,-0.470256,0.670196
-0.055846,-0.639446,-0.631465,-0.619169,0.710571,0.334243
-0.032776,-0.417709,-0.562955,0.919951,0.389726,-0.042477
0.527766,0.001361,0.517348,-0.201691,-0.115334,0.972635
-0.105553,-0.358062,0.876667,-0.553776,0.218259,0.803551
0.201264,0.638676,0.373143,-0.235971,-0.835885,0.495594
-0.705598,0.042719,0.350098,-0.060482,0.111880,-0.991879
0.010564,-0.367207,0.942437,0.856441,-0.128587,0.499974
-0.199503,-0.096560,0.184168,0.198246,-0.356074,0.913187
-0.168578,-0.139818,0.600540,-0.167411,-0.799580,0.576755
-0.110338,-0.540497,0.889759,-0.637800,-0.653662,-0.407354
0.457969,0.236148,0.239771,0.532571,-0.181678,-0.826656
-0.476569,0.332117,0.296638,0.218834,0.956064,0.195071
-0.262528,-0.196075,0.237982,0.556743,0.829708,0.040285
0.120858,-0.314187,0.774903,-0.071696,0.810248,0.581685
-0.495485,0.167613,0.526108,-0.166879,-0.965758,-0.198652
-0.686591,-0.078117,0.649810,0.688228,-0.539332,0.485246
0.062077,-0.075959,0.792084,0.760524,-0.573211,-0.305013
0.562980,-0.536335,0.469341,0.086098,-0.986869,0.136663
-0.586546,0.920470,0.240524,0.907290,0.419454,0.029726
-0.534492,-0.142233,0.725888,-0.395580,-0.884404,0.247681
0.128397,0.326415,0.347244,-0.465821,-0.147184,0.872552
-0.509707,-0.046366,0.649909,0.486114,0.872659,-0.046464
0.346366,0.592848,0.420738,0.250350,0.607553,-0.753793
0.765598,-0.190629,0.388250,-0.441406,0.893109,-0.086702
-0.776930,-0.031519,0.358716,0.005843,0.300942,0.953625
-0.685056,-0.329600,0.412815,0.741171,0.364742,0.563586
0.151423,-0.120553,0.827496,0.542784,0.053155,0.838188
-0.378374,0.284338,0.513060,0.734218,0.385113,0.559117
-0.061445,0.554214,0.236335,0.468376,-0.056196,-0.881740
-0.593183,0.585450,0.422356,0.203766,-0.862146,0.463880
0.594357,0.019703,0.220560,-0.372826,0.486904,-0.789889
0.161851,-0.357291,0.601860,0.182953,-0.932772,0.310587
0.421354,-0.065324,-0.493749,0.558006,-0.746555,-0.362332
-0.007088,-0.331912,0.508502,-0.194830,-0.925174,0.325722
-0.030700,0.308176,0.711050,0.184517,-0.978300,0.094249
-0.016162,-0.432659,0.834241,0.997724,-0.065239,-0.017069
-0.507584,-0.577898,0.689922,-0.643036,0.128917,-0.754907
0.066547,-0.357291,0.370061,-0.466412,0.190471,0.863817
0.572551,0.531968,0.273849,-0.424480,-0.460044,-0.779857
-0.230158,-0.321020,0.923851,-0.491672,0.862236,-0.121687
0.769436,-0.283568,0.234319,-0.366890,-0.929880,0.026749
-0.867449,-0.007167,0.352724,-0.348866,-0.524663,-0.776544
0.261039,-0.031724,0.444848,0.790793,-0.589015,-0.166457
-0.294401,-0.208302,0.015172,0.876783,0.470034,0.101585
0.313093,-0.300778,0.618714,-0.236346,-0.969479,0.065199
-0.116839,-0.432094,0.833929,0.306736,0.328009,-0.893489
-0.137110,-0.285006,0.912222,-0.241893,-0.808318,0.536758
0.246501,-0.109147,0.706961,0.943152,0.054740,-0.327824
-0.284831,-0.073647,0.691030,0.481612,0.260953,-0.836632
0.069571,-0.377534,0.923950,0.278937,0.942217,0.185529
0.244560,0.615351,0.354443,-0.721579,-0.610267,0.326953
0.370610,0.531866,0.337049,-0.650507,-0.341511,-0.678388
0.425869,0.358165,0.316929,-0.176434,0.721905,-0.669122
0.374357,0.172391,0.292308,0.760209,-0.461208,0.457570
0.684018,-0.512600,0.442775,-0.481529,0.750610,-0.452454
-0.298916,0.334275,0.467793,0.926698,0.052204,0.372165
0.210610,0.240360,0.538390,0.088537,-0.541756,0.835860
-0.416343,-0.080069,0.765475,0.706904,-0.618080,0.343895
0.364560,-0.222431,0.668851,-0.042181,-0.887763,0.458364
0.187991,-0.086234,0.033900,0.088551,-0.887114,0.452976
0.065914,-0.393255,-0.871357,-0.455913,0.873794,-0.169193
0.107540,0.261939,0.684882,0.839176,-0.535842,0.093046
-0.281173,-0.095790,0.761698,0.839976,0.004608,-0.542604
-0.300406,-0.120296,0.734890,0.968554,0.231330,0.091592
-0.750609,-0.514758,0.382003,0.359883,0.919709,-0.156907
0.499007,-0.293329,0.399439,0.230311,-0.582527,-0.779500
-0.691692,-0.022631,0.354102,0.358302,-0.293898,0.886140
-0.401580,0.100105,0.589478,-0.488122,0.752692,-0.441804
0.458149,0.171466,0.509325,0.724158,0.021863,-0.689287
-0.635666,0.026587,0.298442,-0.113461,0.856701,0.503180
-0.874221,0.059929,0.428292,-0.624916,0.245252,0.741169
0.805644,-0.306841,0.409989,-0.118435,0.609850,0.783617
-0.013815,-0.353644,-0.054134,0.100942,0.994795,-0.013936
0.071693,0.135965,0.578162,-0.298609,0.340248,-0.891664
-0.653634,-0.607028,0.304576,-0.780331,0.568668,-0.260194
-0.593093,0.328059,0.487871,0.191162,-0.537941,0.821022
-0.019232,0.431529,0.233694,0.105301,0.306894,-0.945900
0.042393,-0.378921,0.168649,-0.603889,0.789680,0.108278
0.772145,-0.268617,0.395861,-0.149222,0.566314,0.810568
0.620994,-0.312132,0.471811,0.904779,0.331274,-0.267642
0.379819,0.639446,0.332747,-0.585611,0.002726,-0.810587
0.139774,0.074160,0.536445,-0.743938,0.561300,0.362628
0.080000,0.190218,0.750410,0.454167,0.650165,-0.609112
-0.104063,-0.194482,0.782628,0.194170,-0.636709,-0.746257
-0.665688,-0.004855,0.328615,0.890658,-0.170790,0.421378
0.099639,0.070975,0.795847,-0.066312,0.794530,-0.603594
-0.301083,-0.794754,0.780569,-0.100891,0.963806,0.246777
-0.324244,0.002748,0.234674,0.761812,0.013075,0.647667
-0.562844,-0.722623,0.259522,-0.172351,-0.595073,0.784974
-0.337742,-0.202394,0.869809,0.400056,0.724888,-0.560796
0.134944,0.699504,0.363118,-0.527846,-0.309417,0.790974
-0.036298,-0.486912,0.877903,-0.404123,0.914687,-0.005573
0.041851,0.029772,0.605765,0.898595,-0.157932,0.409372
-0.162618,-0.204552,0.695147,0.232318,0.537890,0.810372
0.498465,-0.279303,0.656512,0.312061,0.825432,-0.470404
-0.479458,0.019292,0.559987,0.156566,0.674358,0.721615
0.091152,-0.139716,-0.184395,0.361385,0.063593,0.930246
0.299233,-0.182203,0.455554,-0.575082,0.379531,-0.724733
-0.706907,-0.059365,0.355195,0.332253,-0.273892,0.902547
-0.366410,-0.264507,0.770814,0.897907,-0.144437,-0.415813
-0.842122,0.002440,0.349473,0.285757,-0.797748,-0.530980
0.276298,0.214056,0.462511,-0.532455,-0.706643,0.465991
0.606907,-0.333453,0.014192,0.631836,0.387812,-0.671108
-0.595756,0.457320,0.341962,0.669959,0.545929,0.503107
-0.162302,0.267487,0.330333,0.056118,0.849154,0.525156
0.089797,0.164274,0.769082,0.701378,0.662342,-0.263384
-0.353228,0.148039,0.608122,-0.387093,0.537583,0.749108
-0.744469,0.004393,0.345597,0.071936,-0.353648,-0.932608
0.179187,0.137969,0.566178,0.357107,-0.750786,0.555693
-0.126772,0.763878,0.200511,0.703282,0.063446,-0.708075
0.141581,-0.398906,0.251699,0.263012,0.712878,-0.650099
-0.059819,-0.380975,-0.148813,-0.665994,-0.745910,0.008362
0.471964,0.355236,0.306379,0.453772,-0.619854,0.640212
0.231377,0.625677,0.364240,0.170399,-0.753456,0.635034
-0.041354,-0.326004,-0.812644,0.889857,-0.456081,-0.012034
-0.195395,0.296719,0.534145,0.748810,0.028209,0.662184
-0.056839,-0.179635,-0.416279,0.979304,0.116032,0.165833
-0.218826,-0.515836,0.697576,0.162006,-0.695777,-0.699748
-0.069661,-0.421717,0.939115,0.003816,-0.847325,0.531062
-0.607313,0.384726,0.273168,-0.469331,-0.254273,0.845620
-0.826772,-0.080069,0.306635,0.895026,0.251064,-0.368641
0.008623,-0.377174,-0.194207,0.234683,-0.967114,-0.098055
0.473003,-0.069434,0.460225,-0.034423,-0.409043,0.911866
-0.080361,-0.283516,0.378382,-0.215723,0.945904,-0.242341
-0.322031,-0.202240,0.833659,0.293622,-0.835808,0.463909
-0.576297,-0.268463,0.480544,-0.062084,-0.996454,-0.056796
-0.323431,0.730638,0.299649,-0.526283,-0.275162,-0.804557
-0.811377,-0.479000,0.436925,-0.720772,0.394027,0.570290
-0.228894,-0.304991,0.500422,0.720272,-0.499368,-0.481497
-0.033002,0.184361,0.678066,0.432643,-0.456709,0.777327
0.118646,0.416939,0.571772,0.348100,-0.907168,0.236374
-0.623115,-0.216009,0.627702,-0.486777,0.860276,-0.151569
-0.448578,0.824398,0.140691,0.236404,0.164050,-0.957706
-0.066817,-0.511829,-0.777686,0.803693,-0.543243,-0.242825
0.628488,0.341211,0.272741,0.609664,-0.415722,0.674896
-0.002664,-0.354517,0.192162,-0.129634,-0.991510,-0.010115
-0.323250,0.641655,0.164687,0.603430,0.406162,0.686225
-0.004334,-0.298261,0.322296,0.951025,-0.254654,-0.175224
-0.225507,-0.222379,0.468063,0.415097,0.220730,0.882595
0.937969,-0.169411,0.400305,-0.439230,-0.006508,0.898351
0.362754,0.628914,0.430436,0.138359,0.666410,-0.732636
0.473815,0.198901,0.532881,-0.434861,-0.690531,0.577982
-0.133318,0.272008,0.492656,-0.317987,0.758010,-0.569478
-0.346185,-0.053867,0.482674,0.704161,0.514138,-0.489713
0.093950,-0.403786,-0.756842,0.777052,0.492841,0.391532
0.237021,-0.203781,0.282695,-0.668297,-0.413796,-0.618184
0.057562,0.337050,0.521508,0.364363,0.893996,0.260790
0.451242,-0.099848,0.660772,0.203583,-0.960482,-0.189811
-0.322980,0.105243,0.603067,0.381302,0.666026,-0.641107
-0.176524,-0.456395,0.693969,0.005636,0.999920,-0.011308
-0.381806,0.508644,0.380682,0.035129,0.504751,0.862550
0.699323,-0.145778,0.349373,0.225743,0.824518,0.518854
-0.012190,-0.375479,-0.485584,0.053307,-0.998146,0.029362
-0.188126,-0.473092,0.715381,-0.141772,0.360868,0.921778
-0.246501,-0.058697,0.701551,-0.525361,0.778338,-0.343782
0.221129,-0.220427,0.754712,0.376000,-0.925323,0.049012
0.318917,0.315061,0.338980,0.976364,-0.181167,-0.117865
-0.001399,-0.445503,-0.640311,0.088696,-0.988796,0.120066
0.641174,-0.032649,0.159760,0.767061,-0.630333,0.119576
-0.308171,-0.731819,0.753988,-0.096363,0.667300,0.738529
0.555079,-0.367823,0.410912,0.359170,-0.260823,-0.896085
0.147946,0.171980,-0.172099,-0.414354,0.107505,0.903744
0.351783,-0.254026,0.264861,-0.302789,0.700409,0.646333
-0.763341,-0.547433,0.463789,0.754238,0.222450,-0.617771
0.364696,-0.004804,0.091917,-0.608480,-0.477645,0.633724
0.047088,-0.224229,0.850399,-0.346812,-0.352934,-0.868999
0.482167,0.005112,0.493252,0.837269,-0.454391,0.304155
0.185101,-0.130777,0.782684,0.183940,0.658663,0.729609
-0.187043,-0.817206,0.577779,-0.403967,0.604197,0.686845
-0.193137,0.126666,0.720422,-0.936513,-0.000123,0.350632
-0.793273,-0.612371,0.337077,0.106534,0.415596,-0.903289
-0.448984,-0.018007,0.302616,-0.157084,-0.307636,-0.938448
-0.057065,-0.301960,-0.989919,-0.130409,0.092802,0.987108
-0.131241,-0.331142,0.870292,0.451125,-0.829365,-0.329605
-0.285192,0.219656,0.339633,0.503923,0.296782,0.811161
-0.587810,-0.362943,0.351446,0.981368,-0.079617,-0.174864
-0.508577,0.634308,0.314984,0.101622,0.160979,0.981712
-0.383566,0.055768,0.672003,0.823896,0.071699,0.562188
0.834402,-0.235532,0.293699,0.363443,-0.600063,-0.712624
-0.573499,0.491998,0.406638,-0.362993,0.569229,0.737709
-0.274492,0.117213,0.658259,-0.176726,-0.834278,0.522253
-0.222438,-0.043900,0.702219,0.383669,-0.774067,0.503605
0.012009,-0.395720,-0.268240,0.124705,-0.989830,0.068443
-0.490429,0.566647,0.415058,-0.294172,-0.108894,-0.949529
0.251874,-0.148501,0.646147,-0.245697,0.827089,0.505526
-0.539729,0.252999,0.581101,0.880984,-0.191512,0.432654
0.600452,0.009119,0.195158,-0.533709,0.830792,-0.157922
-0.426816,0.111100,0.597430,0.619315,-0.784628,-0.028440
-0.120361,-0.340183,1.000000,-0.413355,0.469421,-0.780245
0.258194,0.045955,0.051876,-0.609721,-0.177418,0.772504
-0.695395,-0.461378,0.464584,0.494590,-0.196619,0.846594
-0.860767,-0.060957,0.352511,-0.369592,-0.001306,0.929193
0.139910,0.216214,0.502794,0.841272,0.486219,0.236330
0.007269,-0.641758,0.520060,0.790440,0.467515,0.395770
0.331332,-0.011637,0.487601,0.742320,-0.442983,-0.502719
0.266411,0.037222,0.351290,-0.388643,0.862486,-0.324152
0.041174,0.058080,0.309829,-0.077446,0.291349,0.953477
-0.165327,-0.509877,0.775003,0.790285,0.075624,0.608055
-0.724379,-0.254951,0.433148,0.356430,0.435439,0.826650
-0.060812,0.255876,0.652820,0.303440,-0.387203,0.870631
-0.142573,-0.299956,-0.046466,-0.454441,-0.531759,-0.714644
-0.189164,0.112230,0.738667,-0.257872,0.955168,0.145454
-0.043295,0.683732,0.213120,0.368024,-0.096278,0.924818
0.406682,0.193917,0.318505,0.954040,-0.286183,0.088922
-0.668758,0.447045,0.436768,0.657936,0.290371,0.694842
-0.493815,0.709677,0.264066,-0.223931,0.602766,-0.765852
0.037020,-0.366077,-0.754514,-0.017154,0.999281,0.033818
0.120632,-0.117573,0.252721,0.810093,-0.475710,-0.342708
0.395485,-0.227774,0.646615,-0.060206,-0.641154,0.765047
0.019098,0.081713,0.796145,0.292157,-0.955421,0.042598
0.028578,0.091115,0.618430,0.979945,0.030488,0.196922
0.352777,0.530787,0.335785,-0.644204,0.673699,-0.362118
-0.429210,-0.342136,0.738994,-0.638750,0.224241,-0.736013
-0.112912,-0.491022,-0.687139,0.217853,0.928927,0.299389
-0.791105,-0.411184,0.566036,0.554015,-0.577366,0.599763
-0.065101,0.054073,0.321941,-0.187884,-0.113126,-0.975655
0.468352,-0.283002,0.146015,-0.036700,-0.401525,0.915113
0.384966,-0.295281,0.268311,0.440795,0.154244,-0.884256
0.419639,-0.288191,0.340400,-0.347104,0.538046,0.768132
-0.012867,-0.032855,0.620972,0.035186,0.923269,0.382538
-0.319142,0.697603,0.159235,-0.478132,-0.419718,-0.771509
0.070023,-0.421460,0.825736,0.891401,-0.060887,0.449106
0.553770,-0.203730,0.334450,-0.043501,0.782211,0.621493
-0.776885,0.689486,0.161166,0.450565,-0.069167,-0.890060
-0.079774,-0.360785,0.938206,0.952173,0.292840,-0.087240
0.006185,0.493334,0.238607,0.165518,0.054695,0.984689
-0.395350,-0.161653,0.726414,0.549441,0.705156,-0.448184
-0.138374,-0.174651,0.889447,0.993888,0.062864,0.090745
0.264108,0.255208,0.504086,0.586061,0.801362,-0.119795
0.097291,0.238871,0.767676,-0.563446,-0.759835,0.324315
0.209391,0.603740,0.360122,0.253821,0.732385,-0.631813
0.023025,-0.226129,-0.986014,-0.271521,0.147616,0.951045
0.445282,0.496930,0.325491,-0.441968,-0.056170,-0.895271
-0.243250,0.791621,0.139583,0.162507,0.323476,0.932177
-0.039323,-0.233271,0.954308,0.310599,0.352088,0.882928
0.617110,-0.084744,0.158042,-0.526421,0.848354,-0.056364
0.533860,0.138791,0.254311,-0.204588,0.619007,-0.758271
-0.607088,0.277197,0.284342,-0.142810,-0.554982,0.819512
-0.035530,-0.364793,0.356331,0.191160,0.946304,-0.260703
-0.198013,-0.192633,0.461858,-0.086516,-0.348219,0.933412
-0.731557,-0.456189,0.430407,-0.168144,0.693186,0.700871
0.244696,0.225924,0.470619,-0.066925,-0.898791,0.433238
0.880135,-0.297645,0.358944,-0.671757,0.563838,-0.480447
-0.105688,0.179943,0.196251,0.466545,-0.135807,0.874009
-0.625553,-0.406407,0.427425,-0.501260,0.218326,0.837301
-0.526320,0.200082,0.578574,-0.668901,0.601604,-0.436629
-0.315124,0.450590,0.382869,-0.482065,-0.169051,-0.859671
-0.534266,-0.237741,0.610067,-0.315715,-0.947873,0.043139
-0.342348,-0.508798,0.816194,-0.169327,-0.981028,-0.094403
-0.641941,-0.441856,0.565993,0.035634,-0.222900,0.974190
0.078601,-0.609288,0.811494,0.386807,-0.716295,0.580778
-0.346546,-0.869660,0.775471,0.288326,-0.378816,-0.879412
-0.702483,-0.541575,0.586724,0.736631,-0.226060,0.637394
0.740903,-0.503147,0.512193,0.437325,0.677638,0.591230
0.589165,0.366950,0.276561,0.465729,0.052997,0.883339
0.557156,0.129030,0.255703,0.501585,-0.399942,0.767111
-0.224333,-0.438619,0.612311,0.303165,0.800200,0.517467
-0.257381,0.062293,0.659011,-0.166220,0.337143,0.926664
-0.446953,-0.197205,0.754513,-0.433129,0.550958,-0.713334
0.244379,0.039020,0.362124,0.245521,-0.443419,0.862032
-0.613092,0.106322,0.668326,0.074799,-0.978557,0.191914
0.010068,-0.511213,0.839935,0.506994,0.668025,-0.544701
-0.029751,-0.347273,0.227305,0.088636,0.949097,-0.302256
-0.053950,-0.364381,0.564190,0.843518,0.504209,-0.185069
0.448307,-0.208302,0.268127,0.956532,0.251541,-0.147557
0.365283,-0.125331,0.445572,-0.445587,0.663538,-0.600974
-0.669435,-0.446069,0.455710,0.826797,0.168725,0.536599
-0.274628,-0.107812,0.786177,-0.292095,0.952646,-0.084534
-0.682031,-0.336433,0.572823,0.315188,0.020077,0.948817
-0.434717,-0.072363,0.772788,-0.649710,0.681669,-0.336458
0.290610,-0.355031,0.387441,-0.154514,0.798897,0.581282
-0.199368,-0.212977,0.939086,0.229088,0.521280,0.822062
0.661039,0.191759,0.201392,0.109871,0.723789,0.681218
-0.241445,-0.059724,0.826502,0.130329,0.706740,-0.695365
-0.796704,-0.508695,0.406099,0.741580,-0.015951,0.670675
-0.602889,-0.135349,0.610635,0.943906,-0.315878,-0.096241
-0.510925,0.732077,0.278407,-0.199721,0.793226,0.575243
0.389165,0.013743,0.247836,-0.762875,0.535445,0.362383
0.344064,0.287832,0.373001,0.923636,-0.372558,0.089985
-0.813454,0.141309,0.554748,0.736810,-0.619647,0.270462
-0.318600,-0.425004,0.226027,0.719401,-0.098524,0.687572
-0.170067,-0.383596,0.532867,-0.452387,0.036502,0.891074
0.158150,-0.161448,0.797977,0.227259,-0.749707,0.621524
-0.061263,-0.367258,0.920131,-0.519580,-0.360348,-0.774716
0.081265,0.029926,0.599460,0.839538,0.392530,0.375627
-0.637968,-0.712965,0.702616,0.121728,-0.986541,-0.109171
-0.701354,-0.435485,0.583657,-0.456598,-0.293376,-0.839910
-0.030293,-0.288346,0.931192,-0.495999,-0.862401,0.101242
0.374357,-0.278276,0.466884,0.324528,0.283386,0.902427
-0.430745,0.133962,0.692989,0.421388,-0.103964,0.900901
-0.016298,-0.246577,0.790252,0.866091,0.226526,-0.445615
-0.262799,0.165352,0.490412,-0.404746,-0.435081,0.804292
-0.004830,0.645303,0.216741,0.182651,0.433995,0.882206
0.102484,0.272830,0.334791,0.214572,-0.173780,0.961124
0.293093,0.668730,0.406950,0.735067,0.300098,-0.607962
-0.740361,-0.554419,0.466913,0.798329,-0.062438,-0.598976
0.117517,-0.322253,-0.199049,-0.482975,0.875545,-0.012507
-0.377065,-0.502787,0.668084,-0.563551,0.305833,-0.767383
0.532055,0.121529,0.237414,0.375789,-0.619932,0.688816
0.056298,-0.018315,0.760321,-0.465077,0.688164,0.556896
-0.464650,0.515888,0.412999,-0.320039,-0.317881,-0.892483
0.309617,0.015901,0.466856,0.676311,-0.312532,-0.667029
0.043116,0.172339,0.692819,-0.517827,0.410135,0.750763
0.115712,0.457577,0.672983,0.714549,0.616608,0.330476
0.738194,0.170798,0.187519,0.124382,0.705986,0.697218
-0.492957,-0.159547,0.762053,0.831568,-0.362832,0.420532
0.662799,0.175114,0.254695,-0.390888,0.409966,-0.824096
0.312777,0.036503,0.461375,0.623038,-0.293638,-0.724983
0.163070,0.189293,0.733442,-0.148702,-0.032301,0.988354
-0.708623,-0.573582,0.448028,-0.411333,0.755628,-0.509737
-0.472776,0.577179,0.403287,-0.485952,-0.011274,-0.873913
0.072144,0.033009,0.686742,-0.038634,-0.806610,0.589821
0.330519,-0.086748,0.795904,0.936892,0.231969,0.261581
-0.442664,0.411544,0.418750,0.782210,0.444486,0.436555
0.538285,-0.021398,0.502510,0.210009,0.977653,0.009566
0.196117,0.095533,0.272046,-0.315788,0.306660,0.897907
0.108894,-0.507976,-0.743041,0.378658,0.909946,-0.169165
-0.524379,-0.022682,0.421206,0.379109,0.854652,-0.354749
0.282393,-0.872280,0.641859,-0.413565,-0.883014,0.221926
-0.752641,-0.593362,0.470519,0.770610,-0.339369,0.539434
-0.758239,-0.551183,0.327592,0.241810,0.968368,0.061573
0.037111,-0.520614,0.908388,-0.220029,0.067803,0.973134
-0.413770,-0.022066,0.462781,0.309310,0.909892,-0.276448
0.022438,-0.042205,0.821348,0.847029,-0.457336,0.270897
0.908172,-0.322562,0.420880,-0.433516,0.060429,0.899118
0.499729,-0.169103,0.674062,0.307902,0.679961,-0.665469
0.137427,-0.413240,-0.973576,0.030680,0.401643,0.915282
-0.837471,-0.025714,0.355692,0.228664,-0.278413,-0.932845
-0.049390,-0.474017,0.946200,-0.437476,-0.786132,-0.436590
-0.129526,0.075086,-0.414121,0.914119,0.285456,0.287926
-0.063747,-0.041589,0.698399,-0.396996,0.736495,-0.547694
-0.552731,-0.071746,0.766043,0.284011,0.939715,0.190455
-0.669887,0.288191,0.503901,0.603745,-0.450234,0.657862
-0.326772,-0.376917,0.656597,-0.389702,0.148607,-0.908872
0.612416,0.121375,-0.289411,0.565299,-0.783977,0.256549
0.079729,0.483110,0.556367,0.762075,0.322413,-0.561509
-0.541173,0.349482,0.569572,-0.357503,-0.241806,-0.902065
0.668804,-0.437592,0.504995,0.427594,-0.886879,0.174955
-0.571287,-0.370701,0.546001,0.748671,0.576817,0.326763
-0.657336,-0.276272,0.528877,0.201174,0.843169,0.498593
-0.651828,0.187804,0.503291,0.060692,-0.759679,0.647460
-0.202799,-0.472527,0.488580,-0.516671,0.425175,0.743154
0.070700,0.402759,0.331284,-0.552232,0.023382,0.833362
-0.554627,-0.294922,0.504867,-0.207676,0.908275,0.363190
0.742438,-0.208251,0.064698,-0.543812,-0.219064,0.810111
0.111693,-0.346657,0.472635,-0.628147,0.766628,-0.133090
-0.455846,-0.681009,0.303908,-0.259480,0.467333,0.845145
0.594853,0.011226,0.499457,-0.720581,0.375673,0.582781
0.231738,0.601120,0.372475,0.980458,0.148436,0.129108
-0.402979,-0.356623,0.712626,0.146712,0.988711,-0.030426
-0.967088,0.049192,0.404835,-0.349706,-0.514784,0.782754
-0.026862,0.488556,0.620617,0.563256,-0.794188,-0.228052
-0.368848,-0.022477,0.717170,0.156408,-0.981847,-0.107295
-0.276253,-0.775848,0.764723,-0.066549,0.773488,0.630308
0.403386,-0.234864,0.241447,-0.567746,-0.117765,-0.814737
0.527043,0.074366,0.251102,0.151414,-0.706752,0.691068
0.232506,-0.177220,0.666991,-0.298121,0.834131,0.464059
-0.629165,0.914614,0.253076,0.787049,-0.540497,0.297349
0.469706,0.107041,0.262547,-0.551513,0.219757,-0.804699
-0.827720,-0.116340,0.380370,0.298415,-0.262040,-0.917760
-0.025959,-0.341673,0.326002,0.811250,-0.554833,-0.184481
-0.674762,-0.174189,0.643378,0.920883,-0.152682,0.358696
-0.679322,-0.519022,0.458308,-0.818310,0.416735,-0.395853
0.163702,-0.055562,0.800135,0.314905,-0.764608,0.562325
0.155530,-0.297131,0.473288,-0.427018,0.850679,0.306597
0.142799,-0.146395,0.771751,0.448917,-0.584200,0.676154
-0.791151,0.223561,0.549863,0.826629,-0.498006,0.262059
-0.274041,0.042770,0.328274,-0.346314,-0.476171,0.808287
-0.330745,0.536130,0.379419,0.330576,0.685033,0.649191
-0.400677,-0.072568,0.692265,0.492352,-0.471833,-0.731411
0.257472,0.019548,0.278094,0.105239,-0.327619,0.938931
0.038194,0.151789,0.559788,-0.627351,0.414519,0.659246
-0.761173,-0.439492,0.613148,0.953602,-0.082379,0.289581
-0.000993,-0.378818,-0.502396,-0.029792,-0.999544,-0.004923
0.292416,0.317784,0.401015,-0.194196,-0.065615,0.978766
0.032912,-0.282848,0.945050,-0.611831,0.737300,-0.286447
-0.836614,-0.168435,0.457314,0.905744,-0.351033,0.237496
0.112325,-0.332991,-0.250421,0.414411,-0.880481,0.230254
-0.273950,0.103188,0.773995,0.364309,-0.831973,0.418450
-0.080767,0.098872,0.321174,0.271410,0.288803,0.918112
-0.763476,-0.487631,0.603181,0.913079,0.181404,0.365212
0.320768,-0.013589,0.657435,0.898279,0.376249,0.227007
0.051197,-0.359706,-0.978957,-0.222692,0.358535,0.906566
-0.115304,-0.362275,-0.652224,0.303299,0.876385,-0.374110
0.189165,-0.299545,-0.255461,-0.579600,0.779078,-0.238958
-0.741354,-0.392484,0.582635,0.261392,0.490057,0.831576
-0.247946,0.171569,0.239558,0.207439,-0.449017,0.869110
-0.099142,0.011996,-0.414547,0.905302,0.300044,0.300670
0.006772,0.283927,0.668709,0.009663,-0.910117,0.414240
0.424425,-0.422384,0.417018,0.088779,0.803475,0.588682
-0.517742,-0.228236,0.596464,0.193899,-0.965243,0.175240
-0.211602,0.106270,0.780384,-0.288328,0.754479,-0.589600
-0.035079,-0.488299,0.739306,0.503091,-0.311274,-0.806230
-0.485191,-0.173881,0.777047,0.749416,-0.635385,0.186179
0.404831,0.402964,0.352611,-0.679044,0.722250,0.131354
0.585327,0.148090,-0.031472,-0.127123,0.455001,0.881370
0.032596,-0.113206,0.772745,-0.244537,0.300294,0.921968
0.425418,-0.236354,0.291953,0.418954,-0.606075,-0.676129
-0.678871,-0.524827,0.450612,0.436624,-0.551044,0.711133
0.406862,0.417298,0.360065,-0.741932,0.632331,0.222921
-0.096975,-0.117727,0.900990,-0.471859,0.881668,-0.003310
0.181309,-0.156207,0.727933,-0.149086,0.726922,0.670342
0.059503,-0.371317,0.239615,0.321804,0.847126,-0.422872
-0.131512,-0.248170,0.925640,-0.036324,0.221764,0.974424
-0.252099,-0.095584,0.802378,-0.055137,-0.998020,0.030275
-0.600361,-0.583344,0.554634,0.545099,0.270665,0.793478
0.702032,-0.268823,0.395762,-0.245825,0.763512,0.597177
0.175892,0.004752,0.355990,0.371126,-0.215692,0.903185
0.638195,-0.245961,0.214440,0.312291,0.909533,0.274269
-0.892731,-0.551388,0.463335,-0.701296,0.127772,0.701326
-0.003070,-0.615659,0.506826,0.870524,0.479551,-0.110537
-0.423521,0.087467,0.545660,-0.573464,-0.333816,-0.748135
0.259233,-0.445555,-0.959803,-0.169838,0.392641,0.903874
0.647765,-0.550823,0.439622,-0.803010,-0.505738,0.315285
0.515937,0.702844,0.320251,-0.128957,-0.320920,0.938286
0.667720,-0.406509,0.439906,0.487660,-0.310604,-0.815913
-0.356614,-0.272368,0.819772,0.974584,-0.211563,0.073670
-0.837878,-0.480439,0.435547,-0.721668,-0.688936,-0.067538
-0.279097,-0.748465,0.763303,0.166900,0.901970,0.398240
0.270248,0.222225,0.516879,0.646361,0.499083,0.577178
0.523973,-0.154049,0.165070,-0.554724,0.821393,-0.132645
-0.231738,-0.173624,0.880373,0.438959,-0.813540,0.381402
0.207450,-0.313006,-0.078996,0.461523,-0.020814,0.886884
0.110790,-0.686712,0.695943,0.896695,0.366548,-0.248154
-0.678013,0.518251,0.227347,0.768315,-0.108588,-0.630793
0.538104,-0.337460,-0.007859,0.604538,-0.084875,-0.792042
0.273950,0.199466,0.370899,0.031195,-0.317411,0.947775
0.559549,0.190578,0.523354,-0.164762,-0.672138,0.721861
0.391016,-0.264199,0.545178,-0.195222,0.980126,0.035230
-0.253860,0.557964,0.358603,0.375030,0.708513,0.597797
0.283386,-0.433225,0.404395,-0.282520,0.116480,0.952163
0.507991,0.020782,0.482219,-0.756002,-0.641166,0.131786
0.529436,0.450230,0.298399,0.743481,-0.429164,0.512888
-0.076252,-0.557194,-0.791928,0.819183,-0.361706,-0.445092
-0.306094,-0.134322,0.672415,-0.666770,0.538852,0.514836
-0.858961,0.116083,0.311831,-0.407193,0.693694,0.594123
-0.678645,-0.478178,0.490228,-0.025565,0.950314,0.310240
-0.034989,-0.313674,0.924916,0.928420,-0.050384,-0.368099
-0.688216,-0.662103,0.303340,0.395678,-0.772547,0.496599
-0.451964,-0.372293,0.672032,-0.452272,0.688351,-0.567118
-0.262302,-0.208611,0.399624,-0.543220,-0.523553,0.656357
0.636750,0.225770,0.263967,-0.394641,0.338102,-0.854368
-0.265237,0.445811,0.451777,0.977150,0.201138,0.068706
-0.612731,0.123378,0.715878,0.592964,-0.394729,-0.701843
-0.737336,-0.410825,0.583827,-0.303707,-0.251388,-0.919003
-0.271964,-0.234864,0.261226,0.169510,-0.670200,0.722564
0.301942,-0.010352,0.771325,0.938023,0.180298,-0.295982
-0.542437,-0.126769,0.611572,-0.533432,0.347707,-0.771070
0.156299,0.159598,0.365844,-0.618070,0.111223,0.778215
-0.227901,-0.343882,0.876526,-0.731221,-0.679819,0.056222
-0.699323,-0.332015,0.576700,0.459980,0.101516,0.882107
0.021626,-0.390018,0.883653,-0.213686,-0.838834,0.500696
-0.754537,-0.375941,0.407731,-0.480730,0.719192,0.501658
0.848804,-0.164582,0.297703,0.503844,0.538336,-0.675526
-0.594627,-0.274423,0.578332,-0.235868,-0.648048,0.724155
0.057021,-0.394796,-0.698058,0.261457,0.961376,0.086004
-0.210248,0.410876,0.266863,0.615855,0.057019,0.785794
0.445689,0.106784,0.526506,-0.061399,-0.113463,0.991643
-0.220813,0.301292,0.262831,0.332859,-0.380465,0.862816
-0.128713,-0.179069,0.875375,-0.243557,-0.851828,0.463755
-0.403205,-0.033522,0.701807,-0.801010,0.459791,-0.383374
-0.188442,-0.508438,0.909595,-0.622145,-0.755230,-0.206310
0.355485,-0.090190,0.239445,0.750429,0.522270,0.405080
-0.133995,-0.726785,0.775855,0.934468,-0.208687,0.288477
-0.007765,0.454083,0.242384,-0.067044,-0.281190,0.957307
0.186095,-0.312903,-0.083909,0.461523,-0.020814,0.886884
-0.529119,-0.432865,0.642214,-0.631610,-0.727345,-0.268400
-0.636072,0.086850,0.460864,-0.359723,-0.906400,0.221447
-0.796975,-0.478178,0.604160,-0.078448,0.924928,0.371960
-0.030610,-0.719695,0.848227,-0.000515,-0.981187,0.193059
0.202213,0.655065,0.386916,0.397291,-0.771906,0.496307
-0.142754,-0.266459,0.856122,0.746091,0.664567,0.041216
0.437833,0.542963,0.319343,-0.098018,0.186534,0.977547
0.000000,-0.172802,0.778552,0.864184,-0.392443,0.314920
-0.593227,-0.111202,0.597629,0.982050,-0.174902,-0.070612
-0.220361,-0.054279,0.694494,-0.423538,0.905830,-0.009363
0.568758,-0.126615,0.326726,0.202199,0.404098,0.892088
0.153996,-0.211128,0.008910,-0.034787,-0.793629,0.607407
-0.149706,-0.503301,-0.978105,0.473737,-0.256222,-0.842570
0.170881,0.090447,0.366057,-0.134185,-0.038780,0.990197
0.345508,-0.071181,0.244812,0.802422,0.183669,0.567790
-0.892731,-0.569627,0.474424,-0.630471,-0.452005,0.631029
0.571468,0.027306,0.222363,-0.529609,0.610409,-0.588995
-0.271106,0.326209,0.267175,-0.280391,0.507961,-0.814467
-0.253002,-0.073441,0.687423,-0.265195,0.097279,0.959275
0.431377,-0.182306,0.622335,0.551145,-0.394742,-0.735131
0.388353,0.611601,0.429243,0.286045,-0.568506,0.771349
0.579097,0.258804,0.262106,0.557256,-0.366801,0.744932
-0.731422,-0.015798,0.354684,-0.089750,0.179256,0.979700
0.115034,-0.371163,0.104895,-0.262314,0.964667,0.024675
-0.110067,-0.691798,0.771794,0.302864,0.726560,0.616752
0.190068,-0.457011,0.799936,0.988066,-0.080172,-0.131519
0.158601,0.187033,0.498420,-0.743679,-0.528926,-0.408876
0.177562,0.148758,0.743665,-0.708448,0.701995,0.072834
0.205192,0.287780,0.527415,0.124411,-0.556138,0.821725
-0.327133,-0.263737,0.747428,0.767299,0.599847,0.226795
-0.284966,0.510288,0.363288,0.375030,0.708513,0.597797
-0.231377,0.333505,0.542721,0.974785,-0.004430,0.223104
-0.061489,-0.493642,0.886010,-0.106381,0.976427,0.187811
0.492957,-0.024327,0.200909,0.631828,-0.771942,0.069996
0.214718,0.053405,0.345781,0.464403,0.679424,0.568078
0.145463,-0.291787,0.112392,0.076969,-0.939284,0.334396
-0.511196,0.372447,0.530638,0.430294,-0.274747,0.859861
-0.530744,-0.768759,0.693955,-0.408959,0.837776,0.361778
0.428443,0.397416,0.404806,-0.271576,-0.062606,0.960378
-0.059864,-0.328161,0.276149,0.255745,0.940793,0.222492
-0.662889,-0.408616,0.563523,0.403654,-0.135756,0.904784
-0.494672,0.208713,0.189038,0.786806,0.473001,0.396494
-0.600993,0.005523,0.741749,-0.235236,0.526972,0.816679
0.046637,0.295744,0.553626,0.340611,-0.933528,-0.111849
-0.250474,0.398032,0.281900,0.580128,-0.213862,0.785948
-0.111602,-0.394436,-0.991608,-0.273093,0.325902,0.905101
0.541174,-0.188420,0.215051,0.492401,0.724557,0.482243
0.051874,-0.151378,0.746704,-0.234982,-0.561774,0.793217
0.026637,-0.412520,-0.445628,0.046796,-0.994490,0.093805
-0.708442,0.106014,0.277640,0.053184,0.835753,0.546524
0.491512,-0.006191,0.235100,-0.321703,0.759254,-0.565721
-0.135169,-0.253616,0.724838,0.795354,0.327166,-0.510269
-0.271828,-0.314444,0.791246,-0.708986,-0.420403,-0.566216
0.258014,-0.236662,0.458379,-0.591037,0.793732,0.143749
-0.492234,-0.374862,0.815541,-0.027678,0.741517,0.670363
-0.487494,-0.045596,0.428476,-0.344515,-0.868244,0.357019
-0.732641,0.112025,0.461347,0.503738,0.797923,-0.331010
0.131783,0.104575,0.513954,0.818527,0.221959,0.529857
0.454176,-0.038866,0.196365,0.680384,0.506359,0.529792
0.194853,0.178402,0.745724,-0.005614,-0.759005,0.651060
-0.436252,-0.811195,0.687679,-0.411040,-0.313359,-0.856068
0.269752,0.643556,0.409194,-0.476734,-0.061248,0.876911
-0.713454,0.159290,0.306507,-0.565962,-0.257587,-0.783158
0.084424,-0.623263,0.600227,-0.704050,-0.457933,-0.542780
-0.255350,0.535770,0.156622,0.598221,0.288138,0.747735
-0.635575,0.540240,0.408399,0.865601,-0.217264,0.451144
0.661580,-0.525341,0.496205,0.254451,0.960907,-0.109143
0.259549,0.209021,0.511583,0.582351,0.480603,0.655659
0.063567,0.220530,0.734749,0.385635,0.907548,0.166258
-0.713950,-0.492050,0.565255,-0.192790,0.980051,-0.048292
-0.626050,-0.371163,0.549920,-0.052433,0.795291,0.603956
0.710339,0.374400,0.248021,-0.159583,0.243181,0.956763
-0.555214,0.310950,0.146399,0.137997,0.818035,0.558369
0.491107,0.442986,0.298541,0.947507,-0.191954,0.255702
0.395892,-0.268720,0.241064,0.367226,0.303703,0.879153
-0.810925,0.609032,0.197813,0.978668,0.195020,-0.064621
0.224650,0.231113,0.378794,-0.010607,-0.405721,0.913936
-0.263160,0.161191,0.615434,0.247318,-0.396894,-0.883917
0.589165,-0.276940,0.377956,0.011825,-0.916541,0.399765
-0.157065,-0.308793,0.156452,0.103629,-0.899687,0.424057
0.094989,0.224640,0.641972,0.757946,-0.050743,0.650340
0.350113,-0.004855,0.262859,0.254753,-0.743170,0.618708
-0.168668,-0.467441,0.929701,-0.847430,0.433494,0.306506
0.159955,-0.344499,0.864144,0.852666,0.096671,0.513434
-0.195531,-0.872537,0.588769,-0.337538,0.699293,0.630125
-0.357020,-0.500475,0.234915,0.669762,-0.206352,0.713328
-0.093408,-0.330987,0.940918,-0.083399,0.913883,0.397318
0.239729,-0.179121,0.663001,-0.465046,0.493526,0.734959
-0.193498,-0.737933,0.569572,-0.404346,0.745725,0.529527
-0.251738,-0.560482,0.713919,-0.265292,0.471924,0.840778
0.187765,0.304837,0.535565,0.052634,-0.586304,0.808379
0.167720,0.410671,0.582223,-0.409593,0.881767,0.233923
0.129255,0.265072,0.326911,-0.209367,0.176709,-0.961738
-0.190338,0.026022,0.737361,0.253145,-0.931602,0.260834
-0.397832,-0.071643,0.611444,0.782532,-0.619555,0.061601
-0.652686,-0.583447,0.273054,0.956043,-0.121826,0.266720
0.154853,-0.317938,0.776650,-0.693268,0.706022,0.144613
0.220678,-0.187084,0.654084,0.920087,0.151515,-0.361225
0.614221,-0.212310,0.678023,-0.376058,-0.714703,0.589728
0.025553,0.162732,0.648305,-0.234797,0.965872,0.109366
-0.092054,-0.693750,0.633666,-0.651084,-0.571804,-0.499130
0.090565,-0.366796,-0.280281,-0.240057,0.967334,-0.081475
-0.575304,-0.499242,0.543800,0.152773,-0.686546,0.710856
-0.138871,-0.815561,0.785155,0.633032,0.693437,0.344117
0.842980,-0.214621,0.385325,0.791099,0.608933,-0.057992
0.087992,-0.017082,0.856278,0.145524,-0.941176,0.304977
-0.116885,-0.708238,0.568876,-0.422156,0.419273,0.803738
0.707179,0.388939,0.255433,0.198155,-0.393077,-0.897900
0.090384,-0.251458,0.771950,-0.738037,-0.060667,0.672027
-0.294808,-0.194174,0.819644,-0.746129,0.659040,0.094642
0.176118,0.276734,0.569075,0.881289,0.171743,0.440265
0.141220,-0.340543,0.528281,-0.258547,0.965717,-0.023318
-0.360270,0.130571,-0.077505,0.663066,0.584688,-0.467421
-0.234718,0.068355,0.621824,-0.645968,-0.443003,0.621670
0.326863,-0.108325,0.606901,0.136073,-0.740553,0.658077
-0.396478,0.365666,0.620574,-0.584195,0.648013,-0.488666
0.324063,0.062242,0.816776,0.048468,0.995737,0.078472
-0.722257,-0.091217,0.346406,0.360759,-0.481161,0.798960
-0.217923,0.285623,0.262234,-0.290678,0.402802,-0.867903
-0.503295,0.381643,0.267147,-0.223421,-0.332454,0.916274
-0.182483,-0.743122,0.788492,0.782089,-0.584449,-0.216232
-0.611783,-0.690719,0.271677,0.083637,0.488602,0.868489
-0.095259,-0.299237,0.494459,0.395523,0.916293,-0.062991
-0.130970,-0.686866,0.786887,0.370494,-0.792382,-0.484629
0.308984,-0.120347,0.793575,0.975192,0.107437,0.193539
0.191693,0.315934,0.637173,-0.099494,0.909989,-0.402519
-0.001174,-0.363045,0.954180,0.247788,0.481609,0.840627
-0.624785,0.441856,0.163864,0.766595,0.310020,0.562334
-0.049165,-0.220170,0.825949,0.076024,-0.204000,0.976015
-0.610067,-0.392535,0.562870,-0.460604,-0.119048,-0.879586
0.040632,-0.390223,-0.635015,0.671329,-0.699691,0.244437
0.068804,-0.149529,0.819545,0.987571,-0.155289,-0.024255
-0.617652,0.190835,0.565326,0.755427,0.646112,0.108945
0.544696,0.374040,0.287622,-0.547661,-0.058099,-0.834681
0.140903,-0.248940,0.740755,-0.568949,0.595416,0.567254
-0.399548,-0.412315,0.500976,0.447189,-0.567796,0.691108
-0.099413,-0.429371,0.909851,0.174469,0.984661,-0.002004
0.171512,0.420330,0.601803,0.347342,0.602208,0.718818
-0.747494,0.250790,0.539030,0.777585,-0.580801,0.240898
-0.150790,0.123584,0.667658,0.134287,-0.868212,0.477676
0.395395,-0.081713,0.459458,0.225408,-0.835081,0.501828
-0.568849,-0.081764,0.774449,0.164155,0.900219,0.403309
0.475982,0.153022,0.540336,-0.493859,-0.725854,0.478790
0.024515,0.353181,0.501061,0.273260,0.886917,0.372434
0.251919,-0.208867,0.424344,0.038787,0.565962,0.823518
-0.244288,-0.040767,0.389088,-0.620738,0.524984,0.582302
-0.496614,-0.239025,0.738582,-0.471742,0.623856,0.623108
-0.008622,-0.443602,0.920528,-0.162095,0.911059,0.379073
-0.487901,-0.157184,0.729097,-0.041824,0.545387,0.837140
-0.459051,-0.456395,0.391545,-0.608893,0.365165,-0.704205
-0.236523,-0.302011,0.940251,0.400223,-0.859067,-0.319100
0.411377,-0.785867,0.381548,-0.486891,-0.734236,-0.473111
-0.428894,-0.817206,0.753960,-0.424708,0.506933,0.750094
-0.068939,-0.241954,0.035760,0.175846,-0.984178,-0.021738
