-0.588626,0.461021,0.280854,0.906788,-0.058735,-0.417475
-0.023431,-0.618991,0.608988,0.650878,0.702862,0.286955
-0.318979,0.423306,0.568887,-0.234256,-0.900497,0.366374
-0.215003,-0.496896,0.611217,0.157349,0.376388,-0.913002
0.073028,-0.146924,-0.986965,0.304017,-0.372771,-0.876707
-0.573836,0.444411,0.366628,0.718553,-0.228115,0.656997
0.162421,-0.437776,0.240688,0.814965,0.523210,0.249167
-0.331972,0.724432,0.305218,0.686841,-0.577307,0.441549
-0.243397,-0.297230,0.662359,-0.339961,0.787227,-0.514490
0.462668,-0.070722,0.506639,-0.198302,-0.880550,0.430473
-0.129941,0.138362,0.598996,0.143138,-0.915686,0.375541
-0.252303,-0.474250,0.285627,0.995329,0.051776,-0.081477
0.153555,-0.628751,0.532629,-0.096132,0.337293,0.936479
-0.208751,-0.331007,0.739924,0.572348,0.618046,0.538922
-0.347905,-0.515219,0.310438,0.180003,-0.755524,0.629907
0.301534,-0.284045,0.579509,0.082959,-0.101060,0.991415
-0.498540,0.460294,0.275307,0.289338,-0.116544,0.950106
0.389904,0.226080,0.116715,0.720773,-0.122672,-0.682230
-0.474843,-0.513849,0.182360,0.716890,0.078212,0.692786
-0.442527,0.587482,0.294872,-0.105798,-0.265389,0.958319
0.140481,-0.514406,0.536511,0.599885,0.055073,0.798189
0.336547,-0.307804,0.698080,-0.195254,0.755940,0.624844
-0.548384,-0.539364,0.100349,-0.191389,-0.120974,0.974031
0.020489,-0.187851,0.595022,0.439921,0.628977,0.640982
0.007456,0.436748,0.447039,-0.310485,0.623484,-0.717542
-0.066288,-0.234085,0.567052,-0.501280,-0.393753,-0.770504
0.059220,0.179759,0.605578,0.899294,-0.397600,0.182169
-0.303700,-0.896828,0.176302,0.483158,0.475584,-0.735104
-0.133169,-0.167344,0.674043,0.114504,0.901209,0.417985
0.077360,0.000000,0.726968,-0.505742,0.838280,0.203742
0.706943,-0.119526,0.477737,0.584438,-0.226926,-0.779062
0.894755,0.494542,0.295698,-0.298659,0.223909,0.927721
-0.008478,-0.077743,0.815902,-0.773330,0.442522,-0.454021
0.822646,0.238880,0.268960,-0.565817,-0.399609,-0.721223
-0.161155,0.894773,0.141237,-0.519656,0.416452,-0.746006
0.387044,-0.538679,0.622390,0.101845,0.690692,0.715941
0.208873,0.216105,0.502206,-0.289618,-0.625515,0.724467
-0.043818,-0.192688,-0.992670,-0.105603,0.201678,0.973742
-0.068045,-0.764630,0.417403,0.007508,0.261774,0.965100
0.182032,-0.113061,0.847086,0.921165,-0.356611,0.155832
-0.264396,0.806456,0.134693,-0.544314,-0.655877,0.523018
0.547525,-0.548140,0.515070,-0.476328,0.385904,0.790056
-0.394031,-0.195642,0.189166,0.106936,0.165154,0.980453
0.267705,-0.482341,0.152816,-0.369366,0.277396,0.886916
0.831267,-0.244360,0.373355,-0.240207,-0.081881,0.967262
-0.804997,-0.081767,0.191264,0.726029,0.549007,0.414094
0.178477,0.000813,0.873667,0.961051,0.004911,-0.276328
0.346761,0.251809,0.613984,0.405495,0.653945,-0.638693
-0.250956,0.780427,0.125907,-0.048888,-0.644849,0.762745
0.309377,0.314183,0.352951,-0.169882,-0.401862,0.899804
-0.074623,-0.796481,0.502364,-0.441922,-0.428350,-0.788176
-0.055380,0.172225,0.335313,-0.368288,-0.400897,0.838836
0.299492,0.002312,0.222434,-0.667272,0.712128,-0.218224
-0.207935,0.158183,0.650557,0.769639,0.531141,0.354323
-0.122873,0.591207,0.407882,-0.666779,0.350870,-0.657492
-0.393500,-0.757738,0.167975,0.212874,0.256859,0.942713
0.097624,-0.147823,-0.059580,0.399199,0.910235,-0.110058
0.054807,0.163748,0.624829,0.889209,-0.426337,0.165965
-0.016404,0.086947,0.686068,-0.595921,0.450421,-0.664831
-0.006803,-0.178090,0.624894,0.347741,-0.197450,0.916564
-0.055952,-0.174408,-0.998361,-0.119273,0.219092,0.968387
0.107348,-0.128944,-0.133526,0.176978,0.967736,-0.179349
-0.918289,-0.093754,0.234341,-0.319904,-0.269159,-0.908413
-0.058608,-0.830044,0.272357,-0.013447,0.216665,0.976153
0.375809,-0.546171,0.629471,-0.082489,0.740112,0.667405
-0.022124,-0.000214,0.645115,0.852358,-0.456258,-0.255567
-0.510265,-0.529346,0.532865,0.760358,0.071488,0.645558
-0.055257,-0.426388,0.751910,0.420427,0.734628,0.532506
0.424632,-0.054026,0.538137,-0.168362,-0.100521,0.980586
-0.328662,0.300355,0.304864,0.917704,0.381846,-0.109602
0.022041,0.307804,0.263925,0.607226,0.079372,-0.790554
0.129287,-0.580676,0.525850,0.307542,-0.094541,-0.946826
0.637610,0.285072,0.274245,0.219549,0.131664,-0.966676
0.078749,-0.150691,0.927457,0.888188,0.455136,-0.063036
0.607624,0.319663,0.264489,-0.179691,0.127667,0.975404
-0.092191,-0.554262,0.261931,-0.239789,-0.208643,0.948140
0.006679,-0.287983,0.184786,-0.355235,0.007346,-0.934748
0.650930,-0.617107,0.386508,0.735309,-0.107777,0.669107
0.249239,-0.075560,-0.641837,0.437387,-0.893995,0.097292
-0.119891,-0.299799,0.711127,-0.345710,-0.918784,0.190578
0.374829,-0.608631,0.487310,-0.641319,0.258512,0.722414
0.141625,-0.299242,0.776641,-0.291038,0.876624,0.383180
0.092067,0.355923,0.650505,0.335858,-0.837096,0.431821
0.039895,-0.565350,0.707941,0.347661,0.702859,0.620581
0.521786,-0.123935,0.548352,0.717166,0.616143,-0.325639
-0.745308,0.238752,0.178544,-0.297367,0.708816,-0.639651
0.043531,-0.049831,0.813398,-0.431471,0.441825,0.786526
0.098972,-0.891905,0.265026,0.061215,-0.559085,0.826847
-0.231345,0.497410,0.346197,0.059347,-0.596613,0.800332
0.066656,-0.548354,0.512972,0.232213,0.658667,0.715706
0.085734,0.032193,0.664549,0.694002,0.706005,0.141131
-0.587605,0.505201,0.311814,0.930200,-0.012286,0.366847
-0.153147,0.641380,0.128950,-0.486341,-0.324761,0.811174
-0.772312,-0.210112,0.125396,-0.006162,-0.994532,0.104250
-0.370703,0.718053,0.335405,0.308523,-0.669376,0.675833
-0.425164,-0.071279,0.612292,-0.531897,-0.652120,-0.540208
0.230363,-0.421422,0.618390,-0.482495,-0.875880,0.005797
0.254182,-0.030138,0.763882,0.650066,-0.014978,-0.759730
-0.236410,-0.337900,0.670332,0.924854,0.126000,0.358845
0.671276,0.128045,0.346814,0.222855,0.281515,-0.933319
-0.327519,0.340896,0.489198,-0.281505,-0.573659,0.769201
0.113925,-0.114346,-0.579811,0.877872,-0.477773,-0.032750
-0.541438,-0.101674,0.142771,-0.192464,-0.085489,-0.977573
0.019875,-0.254377,0.703325,-0.657269,0.449009,0.605300
0.330460,-0.479644,0.592793,0.104411,-0.844376,-0.525478
-0.210305,-0.170855,0.687405,0.206075,0.716281,0.666689
0.597736,-0.234000,0.688887,0.851235,-0.333781,-0.404955
0.404204,-0.222869,0.653704,0.004024,0.926455,0.376383
-0.174065,0.068796,0.621904,0.852312,0.305254,-0.424718
-0.386268,-0.433923,0.564075,-0.800522,-0.335010,-0.496924
0.844299,0.376129,0.291790,0.188868,-0.442382,0.876714
0.865953,-0.283702,0.285326,0.216383,0.366480,-0.904915
0.338589,-0.385162,0.751765,0.038889,0.844718,0.533798
-0.515781,-0.258059,0.379584,0.142145,0.881493,0.450294
-0.360734,-0.454429,0.577988,-0.311759,-0.865793,-0.391418
-0.294998,-0.085149,0.548640,0.742415,-0.263296,0.616032
0.324822,0.625241,0.368280,0.992600,0.116138,0.035463
-0.172799,0.043324,0.607716,-0.037489,-0.807936,0.588077
-0.102691,-0.162935,0.612358,0.935541,-0.314327,0.161127
-0.548138,-0.136907,0.356347,-0.387690,-0.117838,-0.914227
0.164422,0.010959,0.809215,0.839315,-0.372046,-0.396398
-0.217291,-0.194144,0.628684,0.476671,0.447192,-0.756839
-0.102160,0.531187,0.253998,-0.544435,0.149624,-0.825351
-0.041162,-0.423177,0.761325,-0.273448,-0.665251,-0.694743
-0.536290,-0.181429,0.307526,-0.489042,0.528710,0.693761
-0.305987,-0.303780,0.445845,0.476224,0.738896,0.476700
-0.356852,0.241577,0.578591,0.829885,-0.125111,0.543727
0.184810,-0.093026,-0.490981,0.604317,-0.796740,-0.002712
0.103262,-0.135494,-0.857550,0.731377,-0.681333,0.029548
0.343656,-0.170726,0.674803,0.849598,-0.286425,0.442881
-0.891774,-0.199067,0.211760,-0.386839,-0.671519,0.631995
-0.593406,-0.396464,0.443787,0.313977,0.907380,0.279427
-0.520561,-0.328011,0.556495,-0.903955,0.160966,-0.396177
0.123322,0.056424,0.820545,-0.715503,0.647203,-0.263028
-0.518028,-0.472837,0.106867,-0.173315,-0.208027,0.962646
0.002512,0.587910,0.337595,0.147273,0.957211,0.249113
0.012726,-0.097222,0.837435,-0.010393,0.797370,0.603401
-0.120953,-0.279721,-0.987293,0.068855,0.233142,0.970002
-0.173370,-0.130999,0.637837,-0.655336,0.711052,-0.254830
0.136070,-0.333876,0.794475,0.793643,-0.599498,-0.103597
0.024125,-0.078899,0.565465,0.850030,0.466993,-0.243652
-0.380508,0.196156,0.302674,0.135939,-0.126506,0.982607
0.107838,-0.031337,0.792154,0.942954,0.285628,-0.171037
-0.099300,0.185667,0.560324,0.884996,-0.201123,0.419918
0.440279,0.511323,0.366182,0.007905,0.922362,0.386245
0.719813,-0.176891,0.481343,0.645532,-0.082944,-0.759216
-0.321145,-0.349801,0.551643,-0.113352,0.736906,0.666424
0.587481,-0.671133,0.352190,-0.210777,0.527210,-0.823178
0.109473,0.472666,0.443957,-0.122353,-0.355194,0.926751
-0.250138,-0.274412,0.666621,-0.667487,0.691337,-0.276612
0.046514,0.234642,0.401706,0.745561,0.269597,-0.609472
0.539681,0.145040,0.562868,0.600312,-0.034471,-0.799023
0.260352,0.381994,0.368267,-0.141043,-0.561443,0.815407
-0.115764,-0.146025,0.692533,-0.013909,-0.996795,0.078783
-0.240455,-0.631791,0.230801,0.358959,0.750502,-0.554882
-0.374992,0.091785,0.200312,0.337988,0.934978,-0.107609
0.426756,0.038144,0.521050,-0.575519,0.515526,-0.634831
-0.086104,0.168843,0.718392,0.755083,0.045056,0.654080
-0.163607,0.475106,0.397169,0.091839,-0.377068,0.921621
0.593487,-0.466672,0.244963,0.497166,0.202762,-0.843632
0.372418,-0.234942,0.606090,0.696191,-0.620580,-0.360831
-0.568892,-0.563594,0.089570,0.452154,0.696961,-0.556599
-0.748534,-0.295903,0.253001,0.886259,0.153910,0.436871
-0.496538,0.224539,0.260987,-0.343022,0.484447,-0.804765
-0.039569,-0.099491,0.585436,0.737837,-0.661227,-0.135558
-0.296631,0.208314,0.533521,0.591249,0.696490,-0.406603
0.039528,-0.198767,-0.617223,0.512549,-0.857491,0.044747
-0.185996,0.815574,0.082043,0.608330,-0.771216,0.187511
0.256634,-0.043538,0.778975,0.733482,-0.266627,-0.625231
0.072170,-0.252922,0.293062,-0.643335,0.299435,-0.704598
0.186648,-0.046363,0.875804,0.876213,-0.464704,0.127674
-0.610198,-0.312856,0.428575,-0.461002,-0.561306,-0.687322
-0.234041,-0.173766,0.658228,0.976046,-0.016862,0.216912
-0.221540,-0.622244,0.181298,-0.277998,0.490539,0.825887
-0.015505,-0.451346,0.687838,-0.732567,-0.232529,-0.639747
0.061589,0.396464,0.566330,-0.468502,0.576043,-0.669836
-0.429943,0.675029,0.322515,0.063401,-0.828630,0.556195
0.613710,-0.327112,0.277759,0.495048,0.351354,-0.794656
-0.285396,0.272914,0.486483,0.147219,0.914787,0.376152
0.372459,-0.362259,0.718497,0.230690,0.924723,0.302771
-0.558842,-0.242990,0.433873,-0.063271,0.976492,0.206061
-0.327029,0.324800,0.506744,0.431964,0.900161,0.055836
-0.081650,-0.025344,0.729932,0.753274,0.625526,0.203212
0.035196,-0.610386,-0.031688,0.343394,0.605709,-0.717772
0.145098,-0.381737,0.685386,-0.662146,0.746787,0.062220
-0.171124,0.656749,0.441413,-0.632925,0.331591,-0.699609
-0.643087,0.298857,0.186648,0.109027,0.023658,-0.993757
0.128388,-0.327925,0.829488,0.829354,0.454362,0.325156
-0.004351,-0.121837,0.742861,-0.255608,0.798321,0.545296
0.095663,-0.665225,0.580388,0.982102,-0.150178,0.113675
0.184401,-0.801661,0.570369,0.257153,0.631316,0.731650
0.291361,0.660003,0.424261,-0.112330,-0.437639,0.892106
0.452250,-0.181001,0.636749,0.197845,0.461468,-0.864815
-0.572897,0.571086,0.316666,-0.047105,0.800811,0.597062
-0.268809,-0.241320,0.176997,0.496463,-0.232343,-0.836386
-0.131903,0.126761,0.577582,-0.752190,0.425078,-0.503506
0.084713,-0.179417,-0.195172,0.793138,-0.609037,0.002701
0.454823,-0.076930,0.539251,-0.567671,-0.573060,0.591060
-0.122096,0.084507,0.163608,0.047499,-0.707645,0.704970
0.107348,-0.099790,-0.652288,0.590033,-0.806921,0.027198
-0.448165,0.582987,0.288263,0.000545,-0.342516,0.939512
0.498662,-0.320733,0.515411,0.909350,0.077654,-0.408721
-0.083366,-0.643093,0.266547,-0.013647,-0.032056,0.999393
-0.462955,0.561582,0.293403,-0.350296,0.583309,-0.732832
0.417890,-0.215335,0.635254,0.009219,0.105063,0.994423
0.103752,-0.165975,-0.804795,-0.634327,-0.749272,0.190316
0.102526,0.361274,0.563144,0.379984,-0.059872,0.923053
-0.374217,-0.078342,0.595206,-0.651959,-0.348385,-0.673482
-0.410619,-0.530074,0.485788,-0.751430,0.192703,-0.631046
-0.225380,0.120382,-0.052145,-0.609808,-0.588910,-0.530396
-0.007784,-0.210625,-0.990178,-0.196257,0.182554,0.963409
0.130963,-0.005908,0.727466,0.302893,-0.952649,-0.026757
-0.252386,0.571985,0.408984,-0.307060,-0.556771,0.771829
-0.268278,-0.475577,0.310556,-0.520209,0.200958,-0.830059
0.152943,-0.167344,0.868421,0.405596,0.024057,0.913736
-0.070293,0.111606,0.726916,0.719564,0.383023,0.579242
0.143341,-0.267862,-0.969341,-0.156044,-0.077330,0.984718
-0.412662,0.616893,0.437728,0.506441,-0.675394,0.536060
-0.000675,0.007363,0.773193,0.921231,0.310559,0.234277
-0.283435,0.387474,0.535186,-0.081843,-0.866113,0.493102
0.083242,0.228948,0.482182,-0.225107,0.877131,0.424226
-0.447552,0.094011,0.284172,0.961358,0.212127,0.175481
0.151717,0.411019,0.341844,0.884816,-0.053348,-0.462877
-0.458706,-0.520570,0.111692,-0.243695,-0.028615,0.969430
-0.429412,0.486194,0.269537,-0.293938,0.122730,-0.947912
-0.298797,0.955734,0.157038,-0.216199,0.260378,-0.940990
0.165852,0.035832,0.794803,0.908699,-0.408358,-0.086663
-0.340837,0.213280,0.556443,-0.783594,0.102361,-0.612782
0.237921,-0.349801,0.594039,-0.095534,0.076351,0.992494
-0.192899,0.061004,0.307710,0.903030,-0.195947,-0.382285
0.086633,0.374888,0.438830,-0.525263,-0.077211,0.847430
0.147509,-0.341539,0.802881,-0.777933,-0.537193,-0.325950
-0.209977,0.198724,0.523869,0.843928,0.259361,0.469592
-0.202705,0.037630,0.302176,0.830203,-0.233106,-0.506384
0.044348,-0.770281,0.641902,-0.419404,-0.697285,-0.581287
-0.130554,-0.086048,0.634401,0.199012,0.444370,0.873458
0.572324,0.017552,0.533390,-0.844506,0.530087,-0.076272
-0.452210,-0.033477,0.616056,-0.540172,-0.642828,-0.543126
0.304189,0.544972,0.387701,0.262543,-0.396084,0.879880
0.268563,-0.130613,0.830170,-0.034831,0.962181,0.270175
0.099749,-0.148508,-0.162559,0.816391,-0.577291,0.015488
0.643045,-0.490432,0.411292,-0.004493,0.146938,0.989135
0.508467,-0.267606,0.423225,0.445706,0.038259,-0.894362
0.265417,-0.307676,-0.974219,-0.083680,-0.039418,0.995713
-0.319634,-0.040584,0.577293,0.650229,-0.014028,0.759609
0.505444,0.255405,0.468676,-0.007278,0.768562,0.639734
0.170225,-0.321332,0.740934,-0.738873,0.019256,-0.673569
-0.306682,0.126504,0.489618,-0.649324,-0.747969,0.137553
0.414499,0.058393,0.217373,0.346778,-0.805835,0.479973
-0.520561,-0.326512,0.110171,0.595323,0.183196,-0.782324
0.405020,-0.614239,0.494430,-0.513992,0.571753,0.639462
0.412047,-0.309988,0.665100,-0.266299,0.958972,-0.097250
-0.326539,0.510681,0.258089,0.040774,-0.588264,0.807640
0.058280,-0.720065,0.451576,0.978724,0.167161,-0.118985
-0.516639,-0.352198,0.117620,0.296515,0.442009,-0.846586
-0.204830,0.166274,0.538556,-0.502696,-0.146160,-0.852018
-0.794660,-0.054668,0.201348,-0.648005,-0.670335,-0.361580
-0.357834,-0.522240,0.468767,0.561538,-0.682983,0.467128
0.584703,0.014898,0.320286,-0.221924,-0.016076,0.974931
0.186852,-0.059378,0.786266,0.262388,-0.964609,-0.026129
0.098645,0.015540,0.658648,0.552103,0.788272,0.271679
0.054725,-0.500664,0.547644,0.584635,-0.319766,-0.745621
-0.112496,-0.048932,0.101831,0.376336,0.850642,-0.367124
0.730027,0.225695,0.338631,-0.476758,-0.751227,-0.456464
0.367639,-0.429684,0.617079,-0.584934,0.343018,0.734976
-0.305702,-0.412389,0.394245,0.916471,0.382129,0.118568
-0.133209,0.103472,0.506350,-0.155036,0.701249,-0.695854
0.740117,-0.062931,0.473121,-0.633652,0.245868,0.733508
-0.251119,0.259857,0.463509,0.686814,0.699558,0.197242
0.224440,0.396164,0.395976,0.016750,0.987198,0.158620
-0.323352,-0.046064,0.568140,0.718476,0.060927,0.692878
-0.038711,-0.671690,0.262548,-0.065207,0.026178,0.997528
-0.168795,-0.201464,0.209347,-0.133248,0.053937,0.989614
-0.584050,0.561882,0.304419,0.906079,-0.300046,-0.298318
-0.413683,0.392183,0.508291,0.682087,-0.573530,0.453675
-0.227790,-0.304594,0.672155,-0.426706,-0.418114,-0.801937
0.497069,-0.582174,0.511963,0.385598,-0.541871,-0.746787
-0.087451,-0.363115,0.550739,-0.496066,0.865374,0.071038
-0.971851,-0.055482,0.241803,0.749025,-0.568927,0.339533
-0.487181,-0.404683,0.445268,-0.017076,0.681718,0.731416
0.137172,-0.092127,0.956267,0.213629,0.676634,0.704649
0.096806,0.185924,0.335471,-0.092516,-0.084216,0.992143
-0.085940,-0.001926,0.610679,0.743386,0.620509,0.249690
-0.490941,-0.263325,0.386390,-0.113736,0.520140,0.846474
-0.417565,0.187594,0.247061,0.172067,0.763732,-0.622179
-0.473495,-0.288411,0.203105,-0.387061,-0.197842,-0.900579
0.244907,0.540563,0.295410,-0.577088,0.656460,-0.485829
-0.377240,0.616722,0.278874,0.749218,-0.645227,-0.149515
0.843645,0.527634,0.286152,0.045705,0.455081,0.889276
0.099340,0.716341,0.351535,-0.209440,0.428388,-0.878987
0.133046,-0.246629,0.815942,-0.655780,0.675282,-0.337561
-0.049088,-0.027313,0.730758,0.779824,0.346754,0.521187
0.222152,-0.782140,0.295003,0.677206,0.442632,-0.587766
-0.975773,-0.085577,0.245068,0.949461,0.111325,0.293479
-0.746860,-0.320134,0.268239,0.600725,0.274502,0.750852
-0.126632,-0.382294,0.189730,-0.599209,0.710926,0.368148
-0.384553,-0.172096,0.640578,0.959795,-0.270210,0.076029
0.047167,0.183612,0.078018,0.993406,0.050746,0.102811
-0.121075,0.399375,0.614823,0.333011,-0.569297,0.751668
0.838171,0.284130,0.261066,-0.623734,0.290901,-0.725488
0.148816,-0.775204,0.277484,-0.713551,-0.020383,0.700307
0.153391,0.534526,0.485448,0.351897,0.625939,-0.695966
-0.097952,-0.461021,0.267387,0.155924,-0.055040,0.986234
-0.339080,-0.465046,0.393287,0.505096,0.732869,0.455830
-0.381611,0.387645,0.351980,0.320992,0.753610,-0.573617
0.121933,0.237639,0.683458,0.293038,-0.685062,0.666947
-0.050640,-0.354853,0.566461,-0.758415,-0.649900,0.049372
-0.600515,-0.140931,0.147308,0.378039,0.047132,0.924589
-0.026455,-0.656706,0.469685,-0.183654,-0.748878,-0.636751
-0.218638,-0.383621,0.167817,0.192819,0.718520,-0.668244
-0.449472,-0.054412,0.312234,-0.406712,0.568188,0.715366
-0.127980,-0.866347,0.191815,0.308053,0.220353,0.925499
0.107020,-0.126504,-0.188405,0.918925,-0.394077,0.016773
0.303781,0.309602,0.475888,0.901674,-0.314740,-0.296516
0.260637,0.708378,0.426346,-0.073468,-0.462227,0.883713
-0.314403,-0.057836,0.381433,0.879640,-0.089500,-0.467144
0.301493,-0.034205,0.788994,0.868332,-0.398828,-0.294850
0.340387,0.320990,0.656432,0.199308,-0.950755,0.237364
-0.112128,0.151847,0.579758,0.739449,-0.487416,0.464372
0.235797,-0.392311,0.340415,0.877615,-0.478296,0.032001
0.167650,-0.048675,0.902031,-0.022135,-0.977333,0.210546
0.631238,0.379725,0.266416,-0.328590,0.296586,0.896697
-0.169857,0.891947,0.151085,-0.540696,0.559604,-0.628086
-0.419117,-0.687315,0.173259,-0.067366,0.098513,0.992853
-0.030500,-0.241149,0.682829,0.401335,-0.312398,-0.861010
-0.202582,0.346847,0.419619,-0.298133,-0.685517,0.664216
-0.011705,-0.172011,0.580532,-0.603542,0.612417,-0.510570
-0.552959,-0.466587,0.215484,0.851591,-0.102353,0.514117
0.185218,-0.727386,0.553938,0.323275,0.651186,0.686622
0.283843,-0.320733,0.687995,0.230185,0.822357,0.520330
-0.159521,-0.592234,0.247861,-0.764265,0.607174,0.217346
-0.058035,0.353483,0.576283,-0.298509,-0.946166,0.125151
0.397749,-0.283188,0.683393,-0.166429,-0.972005,-0.165857
-0.461239,-0.678582,0.174571,0.055814,-0.382554,-0.922246
0.464261,0.115459,0.644341,0.826923,-0.199126,0.525877
0.019753,0.332891,0.678855,0.937719,0.341500,0.063730
-0.526280,-0.139604,0.364740,0.295668,0.775375,0.558009
-0.375401,0.195556,0.294675,-0.139720,0.134308,0.981040
-0.003085,-0.102316,0.708282,-0.609072,-0.141578,-0.780376
-0.442527,0.777773,0.350577,0.265894,-0.831836,0.487185
0.620166,-0.429299,0.406440,0.271709,0.773535,0.572554
-0.317182,0.117985,0.289168,-0.301052,-0.585357,0.752811
0.392111,-0.244017,0.652117,-0.384840,-0.854985,-0.347704
-0.352073,-0.336829,0.184707,-0.116304,-0.272282,0.955163
0.378628,0.734107,0.440141,-0.447423,-0.795271,0.409093
-0.403387,-0.042425,0.604674,-0.566981,-0.506549,-0.649570
0.232529,0.269832,0.582499,-0.722647,0.521708,-0.453433
-0.053174,0.052014,0.601133,-0.147209,0.951118,-0.271485
0.398892,0.332420,0.360189,0.079681,-0.401175,0.912529
-0.123936,0.856287,0.134575,-0.619967,0.114145,-0.776281
0.585439,0.054540,0.562619,0.162126,0.644325,-0.747369
-0.050192,0.209598,0.498390,0.783551,0.595710,-0.176574
-0.293281,-0.468385,0.562226,-0.455246,-0.542757,-0.705809
0.661961,0.266878,0.519044,-0.693213,0.160640,0.702603
-0.205442,-0.870157,0.274927,-0.424489,-0.095805,0.900350
-0.416052,0.245473,0.168407,-0.178418,0.849965,0.495707
0.696239,-0.091185,0.582735,0.903145,0.041828,-0.427294
-0.275591,0.541119,0.402231,-0.127337,-0.000092,0.991860
0.701877,0.018151,0.330960,-0.269506,-0.165493,0.948672
-0.078831,0.080825,0.725840,-0.779077,-0.222645,-0.586061
0.010356,-0.749775,0.420524,0.146579,0.220973,0.964202
0.228607,0.651098,0.399949,-0.372349,-0.630395,0.681146
-0.221744,-0.571728,0.167686,-0.127365,0.469562,0.873665
-0.834453,-0.019265,0.186386,0.486829,0.585698,0.648040
-0.136642,-0.409692,0.200181,-0.845840,-0.062699,0.529739
-0.195637,0.645832,0.256398,0.256291,0.687957,0.678992
0.161032,0.348345,0.444862,0.484470,0.700010,-0.524666
0.419157,-0.369408,0.719743,-0.057405,0.928758,0.366214
-0.659184,-0.429984,0.070687,0.899480,0.020137,-0.436499
0.588012,-0.731923,0.380921,0.395299,-0.808703,0.435589
-0.732275,-0.211182,0.439446,-0.466441,-0.678249,-0.567812
0.442649,-0.041526,0.708819,-0.769991,0.271079,0.577607
-0.037159,0.003254,0.676390,0.918401,-0.137747,0.370898
-0.397708,0.490432,0.094278,-0.133962,0.709458,0.691898
0.924580,-0.282504,0.384226,-0.375954,-0.226835,0.898446
0.653913,-0.603236,0.381892,0.759898,-0.169888,0.627450
-0.349866,-0.419453,0.546516,0.016285,0.680780,0.732307
-0.260924,-0.342652,0.425874,-0.487299,-0.750688,-0.446103
-0.347783,-0.160752,0.355993,0.791230,0.475303,-0.384763
-0.235389,-0.309988,0.655593,-0.473757,0.596328,-0.648033
-0.525015,-0.017424,0.351758,-0.059188,-0.004521,0.998237
0.421362,-0.604050,0.646098,0.491422,-0.642730,-0.587710
-0.129941,-0.813305,0.182229,0.419308,0.105510,0.901692
-0.437257,0.417484,0.336074,-0.311730,-0.846379,0.431818
0.096643,-0.113918,0.959716,0.640418,-0.767717,0.021802
-0.137173,-0.443855,0.252306,0.860251,-0.078191,0.503840
0.032255,-0.134809,0.839900,-0.400869,-0.864329,-0.303709
-0.275141,-0.442998,0.550463,0.386938,0.391968,0.834649
0.062448,-0.104499,0.798777,-0.307336,-0.927041,-0.214803
-0.459032,0.595787,0.297823,0.195201,0.252375,-0.947736
0.596592,0.111948,0.548562,-0.108268,-0.537324,0.836397
0.438359,0.318293,0.354695,0.079681,-0.401175,0.912529
-0.074623,-0.225438,0.813909,0.733173,-0.559713,0.386236
-0.028334,0.222013,0.334710,-0.459893,0.422969,-0.780766
-0.751027,-0.282889,0.263505,-0.570633,-0.362166,-0.737030
-0.131535,-0.267520,0.709016,0.631832,0.771413,0.075563
-0.554429,-0.213408,0.408748,0.311598,0.662748,0.680935
-0.462465,-0.354810,0.528354,-0.678943,0.088408,-0.728849
-0.223338,0.338542,0.506062,0.965388,-0.260524,-0.012343
0.420260,0.183655,0.547408,-0.268656,0.073732,0.960410
0.455722,-0.282161,0.677138,-0.078487,0.867606,0.491019
0.511898,-0.548397,0.504186,-0.617907,0.547514,0.564286
0.060935,0.026414,0.665165,0.580125,0.789085,0.201988
0.357097,0.179160,0.437125,0.735225,-0.267980,-0.622600
-0.066411,-0.123721,0.636119,0.900425,-0.321785,-0.292728
-0.300963,0.748277,0.111797,0.362127,0.767628,-0.528782
-0.160501,-0.014427,0.370037,-0.141546,0.765494,0.627682
0.338835,0.096922,0.732699,0.450493,0.546045,-0.706322
-0.230324,-0.674515,0.192392,0.134215,-0.275117,-0.951996
0.106571,-0.172567,0.853865,-0.299041,0.254082,0.919792
-0.085122,0.004795,0.426346,0.012934,0.034632,0.999316
0.483627,-0.389486,0.455772,-0.166303,0.678539,0.715491
-0.899087,0.111991,0.213675,0.941201,-0.249089,0.228246
-0.311136,0.485209,0.262023,-0.010373,-0.770583,0.637255
-0.099300,-0.878205,0.444757,-0.266084,-0.664490,-0.698321
-0.209038,-0.396335,0.440089,0.758767,0.291732,0.582379
0.636099,-0.051115,0.558987,0.545474,0.117838,-0.829803
-0.147918,0.065371,0.744697,0.508349,-0.601360,0.616400
-0.445673,-0.256175,0.399857,0.084957,0.847356,0.524184
-0.025310,-0.325271,0.739006,0.302731,0.525691,0.794986
0.025065,-0.132711,0.852436,0.106136,-0.872986,0.476058
-0.189263,-0.422492,0.591718,0.620327,0.550001,0.559190
-0.686966,0.099234,0.143309,-0.202087,-0.248675,0.947271
0.058116,0.203391,0.626140,0.987451,-0.058851,0.146553
-0.153188,-0.231217,0.637758,0.853264,-0.457108,0.250982
-0.665476,-0.199752,0.145053,0.070553,-0.723153,0.687075
-0.090066,-0.082367,0.634270,0.193246,0.946983,-0.256669
0.070823,-0.430840,0.673531,-0.393701,0.184311,-0.900571
-0.548179,-0.384477,0.225962,0.725887,-0.024000,0.687395
0.088473,-0.359861,-0.050781,0.928678,-0.175192,-0.326903
-0.590138,0.523481,0.300262,-0.582521,-0.081936,-0.808675
-0.075440,-0.880988,0.421127,0.303975,0.898552,0.316550
-0.298593,0.049788,0.433755,0.041264,0.461358,0.886254
0.077850,0.538979,0.478196,0.491878,0.286009,-0.822347
-0.008642,-0.151676,0.806697,0.904106,-0.357847,-0.233534
-0.144118,0.659403,0.425297,0.401494,-0.809282,0.428795
0.147344,-0.126547,0.961958,-0.127575,0.632812,0.763724
0.049659,0.336958,0.679196,0.154133,0.968485,-0.195650
-0.618205,-0.383749,0.435001,0.542416,0.657145,0.523398
-0.142034,0.580376,0.265013,0.504514,0.080064,0.859683
0.776029,0.247442,0.280880,0.485190,0.643450,0.592084
-0.455560,0.128002,0.247887,0.876783,0.300148,-0.375717
-0.009499,-0.125476,0.840529,0.446331,0.791692,0.417148
-0.065145,0.399161,0.063095,0.988080,0.146826,-0.046268
0.166874,-0.669292,0.537704,0.139410,0.323809,0.935795
-0.721080,-0.000214,0.136713,0.126919,0.453395,0.882227
0.449840,0.033948,0.714589,0.820558,0.194252,-0.537542
-0.167978,0.297016,0.232099,-0.136285,-0.491903,0.859918
-0.783915,-0.071322,0.212534,-0.590392,-0.517455,-0.619416
0.256103,0.070166,0.537455,0.040257,-0.148494,0.988094
0.860193,0.441029,0.291266,0.142922,-0.086819,0.985919
-0.636018,-0.143456,0.388645,0.796095,0.326576,0.509491
-0.297980,-0.589666,0.234328,0.152761,-0.973146,-0.172196
-0.287277,0.119312,0.429703,-0.179688,-0.054584,-0.982208
0.158008,0.115544,0.769049,-0.122833,0.614380,-0.779390
0.599207,-0.648572,0.404696,0.786998,0.001264,0.616955
-0.133904,0.498095,0.386534,0.664814,-0.290231,0.688323
0.188119,-0.026243,0.859570,0.866161,-0.005629,-0.499734
-0.495925,-0.522368,0.186661,0.733788,0.154308,0.661623
0.051253,-0.367310,0.663565,0.929562,0.130689,0.344725
0.085571,-0.132026,0.711796,0.866328,0.304339,0.396048
0.248013,-0.491887,0.432063,0.423069,-0.533454,-0.732420
-0.288502,-0.345520,0.682108,-0.635124,-0.566725,-0.524824
-0.206463,0.892333,0.137263,-0.376615,0.765082,-0.522313
-0.392438,-0.484867,0.599586,-0.424796,-0.666338,-0.612815
0.147876,-0.134638,0.831402,-0.354141,0.250264,0.901084
0.410127,-0.162079,0.436679,-0.260894,-0.182822,-0.947898
0.116703,-0.341539,-0.973498,-0.097891,0.021750,0.994959
0.706698,0.076502,0.336048,0.397990,0.270983,-0.876454
0.874737,0.383535,0.286204,-0.071875,-0.463529,0.883162
0.375441,-0.290766,0.677426,-0.621148,-0.740727,-0.255928
-0.182278,-0.199195,0.497446,0.056309,0.597036,0.800236
0.366331,-0.644377,0.473187,0.824693,0.129872,-0.550468
-0.384594,-0.341667,0.497223,-0.543765,0.253675,-0.799980
-0.324495,0.020378,0.577070,0.828484,-0.065233,0.556201
-0.002799,-0.252108,-0.182163,0.748333,-0.663229,0.011180
-0.507038,-0.172011,0.368005,-0.613051,-0.626081,-0.481862
-0.159316,-0.098377,0.494732,0.886961,-0.290687,0.358890
0.658734,-0.703712,0.371795,0.799380,-0.479505,0.362030
-0.051295,0.610771,0.134326,-0.206309,-0.181584,0.961490
-0.275550,0.251124,0.311329,0.658139,0.723439,-0.208540
-0.008396,-0.170127,-0.991975,-0.199522,0.119194,0.972617
-0.385900,0.611884,0.301022,-0.246140,0.851827,-0.462392
0.069556,-0.543902,0.568520,-0.875140,0.114316,-0.470172
-0.214962,-0.246286,0.664195,-0.464274,-0.382733,-0.798727
-0.178560,-0.208314,0.641797,0.881256,-0.055115,0.469414
-0.644598,-0.323173,0.239023,0.443528,0.435886,0.783126
0.150163,-0.480372,0.441072,0.190016,0.345786,0.918872
-0.106041,-0.361831,0.279320,0.445053,0.284965,0.848954
0.120952,0.367952,0.301114,0.892538,-0.155019,-0.423490
-0.278696,-0.127446,0.698775,0.716824,0.336457,0.610705
0.685412,0.253179,0.529298,0.799479,0.029747,-0.599957
-0.899864,-0.195385,0.197807,0.243442,-0.412836,0.877669
0.058280,-0.284045,0.828793,0.977561,0.021373,0.209568
0.650808,0.186352,0.249828,0.379713,-0.036672,-0.924377
0.051457,-0.000985,0.178478,0.403422,0.382205,-0.831366
0.154005,0.214050,0.660064,0.753725,0.648634,-0.105699
0.096194,-0.140974,-0.603415,-0.623784,0.768595,-0.141970
0.324372,0.556830,0.287293,-0.629942,0.424599,-0.650299
0.120218,-0.537737,0.698814,-0.348784,0.840143,0.415343
0.403877,-0.780256,0.454972,0.911800,0.144311,-0.384441
-0.211367,0.841945,0.138798,0.528930,0.602093,-0.598094
-0.007212,-0.086605,0.697332,0.461522,0.808530,-0.365070
0.016281,-0.740914,0.270324,0.048365,0.219246,0.974470
0.174759,-0.133953,-0.681976,-0.509112,0.847593,-0.149638
-0.416666,0.613425,0.255676,-0.712253,0.300111,0.634531
0.448287,-0.471638,0.396998,0.052652,0.234572,0.970672
-0.429372,0.182114,0.256883,0.513048,0.815299,-0.268457
-0.064163,-0.035875,0.713252,0.755830,0.058620,0.652139
-0.093089,0.463162,0.095248,0.911241,0.378640,-0.162083
0.641370,0.221585,0.275936,-0.544263,0.164413,0.822646
0.254590,-0.070380,0.685294,-0.549745,0.034672,-0.834612
-0.409515,0.400445,0.161248,0.699853,0.111685,0.705502
-0.500950,-0.240764,0.200404,0.149816,0.537389,0.829921
-0.345617,-0.849351,0.195460,-0.159297,0.264984,-0.951003
-0.409761,0.531102,0.285194,0.411167,-0.771823,0.485006
-0.382715,0.607560,0.284722,-0.479621,0.876027,0.050413
-0.338386,-0.315168,0.509760,-0.029662,0.950188,0.310263
-0.519049,-0.126204,0.339090,-0.477425,-0.257130,0.840208
-0.399384,0.562396,0.259335,0.991844,-0.090591,-0.089663
0.524032,0.052571,0.541900,0.737916,0.196680,-0.645598
0.355096,-0.319705,0.596779,0.722771,-0.216406,-0.656331
-0.259494,-0.352498,0.326947,0.689931,0.685735,-0.231870
-0.684841,-0.204332,0.414623,-0.509795,-0.645612,-0.568590
-0.299450,-0.309046,0.697319,-0.735822,-0.112798,-0.667715
0.236247,-0.345563,-0.973813,-0.051589,0.147857,0.987662
-0.361633,0.285928,0.064078,-0.691080,-0.308254,-0.653749
-0.454252,0.308532,0.264816,0.909175,-0.151931,0.387709
0.004474,-0.145169,0.847506,-0.330309,-0.925757,-0.184037
0.519907,-0.008776,0.558357,-0.255620,-0.138334,0.956829
0.172062,-0.445738,0.705449,0.655535,-0.437417,-0.615581
-0.487795,-0.274969,0.398860,-0.677813,-0.435916,-0.592069
0.567543,0.244274,0.500292,-0.101678,0.090598,0.990683
0.145711,-0.269232,0.797085,0.922961,-0.294759,0.247507
0.141176,-0.528404,0.545533,0.603041,0.618647,0.503604
-0.721530,0.029068,0.143296,0.748249,0.252272,0.613582
0.039038,-0.685945,0.605028,-0.135648,0.829857,0.541237
0.556595,0.097521,0.579352,0.451256,0.679069,-0.578993
-0.232285,-0.445182,0.605421,-0.225091,0.200967,0.953387
-0.540662,0.363586,0.332612,-0.226641,0.731381,-0.643207
-0.212756,0.789760,0.118577,0.275548,-0.485479,0.829689
0.369844,-0.161265,0.594052,0.480966,0.535436,-0.694248
0.019181,0.314697,0.723769,-0.251555,0.837213,-0.485588
-0.510960,0.579905,0.266482,0.754557,0.601972,0.261292
-0.059711,-0.820369,0.495873,0.251182,0.728571,0.637253
-0.989133,-0.053727,0.242498,0.897863,-0.191167,0.396607
-0.179091,-0.700758,0.412197,0.477716,0.790557,0.383153
0.134394,-0.477332,0.714196,0.887937,-0.415830,-0.196606
0.013175,0.181429,0.023860,0.841265,0.306331,0.445459
-0.449269,-0.038743,0.616476,-0.531897,-0.652120,-0.540208
0.351255,-0.167130,0.392619,0.317441,-0.790140,-0.524318
0.091496,-0.324885,0.857944,0.788946,-0.061124,-0.611415
-0.357507,0.172910,0.439302,0.910043,0.138981,0.390519
0.212306,-0.282247,0.676652,0.830898,-0.512920,-0.215690
-0.479665,-0.501819,0.508724,0.719439,0.314432,0.619306
0.014973,-0.058222,0.693201,-0.673680,0.129079,0.727664
-0.017343,-0.094953,0.818538,-0.676320,0.538786,-0.502295
0.240782,0.387088,0.446619,-0.346962,-0.272223,0.897503
-0.189509,0.140759,0.313598,-0.466406,0.142671,0.872989
0.247523,-0.044651,-0.437112,0.373148,-0.926518,-0.048224
-0.074092,-0.229034,0.510887,0.475289,-0.404207,-0.781484
0.830694,-0.211054,0.522532,0.784238,-0.036624,-0.619378
0.753110,0.358491,0.286440,-0.166354,-0.128134,0.977706
-0.487264,0.104542,0.162874,0.402801,0.399139,-0.823675
-0.725942,0.155486,0.160054,0.398421,-0.122184,-0.909028
0.250546,-0.031337,0.688730,0.377199,-0.632859,0.676173
0.055624,0.395351,0.561885,-0.484840,0.448412,-0.750904
0.099176,-0.060619,0.736213,-0.708725,0.695525,0.118127
-0.192205,-0.226080,0.567156,0.537846,0.796022,0.277618
-0.843483,-0.373090,0.298872,0.875550,0.092539,0.474182
0.271423,-0.756240,0.350984,-0.598081,-0.336815,0.727224
0.226932,-0.298600,0.721447,0.182551,0.353201,-0.917564
-0.514392,0.598356,0.288342,-0.066014,-0.194400,0.978699
0.141789,0.333918,0.454067,0.737883,0.076057,-0.670630
0.133290,-0.096408,-0.635686,0.394120,-0.897666,-0.197144
0.061508,-0.245558,0.846574,0.749106,0.562882,0.349290
-0.572774,0.448136,0.364412,-0.913592,0.293222,-0.281727
-0.483505,-0.307590,-0.022548,0.313528,0.256560,0.914263
-0.713767,0.098377,0.143059,0.808754,-0.078704,0.582857
0.073846,-0.159553,0.967781,0.799094,-0.600236,0.034133
-0.091783,-0.596687,0.269091,0.007632,-0.120009,0.992743
-0.157642,0.652554,0.409902,-0.378142,0.496607,-0.781275
-0.603661,0.569245,0.319315,0.621402,0.777455,0.097076
-0.698159,-0.571600,0.248136,0.656208,-0.267380,0.705620
0.064939,-0.126375,0.711993,-0.135628,0.707330,0.693750
-0.452904,-0.154801,0.183658,-0.380642,0.327926,0.864625
0.109963,-0.038914,0.057718,0.864762,0.376838,-0.331934
0.693828,-0.113104,0.595809,0.906331,0.072509,-0.416301
-0.554797,0.253521,0.265997,0.732285,-0.643328,0.223356
-0.395176,-0.345734,0.115141,0.135480,-0.219544,0.966150
-0.249526,-0.183698,0.201715,0.701296,-0.282722,-0.654410
0.364084,-0.271116,0.698853,0.191715,0.831816,0.520891
0.306110,0.125562,0.748959,-0.641264,-0.655750,0.398462
0.210384,-0.542489,0.525102,0.162498,0.405765,-0.899416
-0.557984,-0.453487,-0.014969,-0.210694,-0.134747,-0.968221
-0.624783,0.011216,0.154153,-0.315639,0.642393,0.698358
-0.073275,0.057066,0.691431,0.941052,0.081842,0.328213
-0.596021,-0.485209,0.216651,0.695722,-0.201432,0.689490
-0.529508,-0.492787,0.104283,-0.176454,-0.202698,0.963212
-0.065676,0.345691,0.120505,0.900663,0.236513,0.364511
-0.175290,-0.207800,0.433322,0.892181,0.256203,0.371986
0.097910,-0.431697,0.432614,0.028899,0.646888,0.762038
-0.486650,-0.012115,0.356491,0.166693,-0.013334,0.985919
0.294997,-0.269917,0.302412,-0.432955,0.230684,0.871398
-0.391294,-0.189392,0.630795,0.952672,-0.175118,0.248495
0.545359,0.076716,0.257342,-0.259477,-0.750882,0.607329
0.248749,-0.231816,0.744658,-0.421604,0.030529,0.906266
0.419320,-0.229719,0.613394,-0.923384,0.205569,0.324197
0.280289,0.537823,0.295305,-0.577088,0.656460,-0.485829
-0.464997,-0.214864,0.385210,-0.288623,0.365766,0.884823
-0.163524,0.046920,0.619229,-0.018014,-0.924357,0.381104
0.158254,-0.112804,0.888327,0.001979,-0.997961,0.063796
-0.445468,-0.064943,0.629091,0.436195,0.785010,0.439879
0.392764,0.495484,0.383754,-0.652281,0.242692,-0.718074
0.225093,-0.438846,0.618246,0.479699,0.877429,-0.002656
0.093661,-0.093754,0.668811,-0.537301,0.377664,0.754107
-0.353789,-0.685432,0.180996,-0.436728,0.218266,0.872713
-0.370989,0.322702,0.487913,0.362985,-0.565490,0.740583
-0.078382,0.501777,0.068524,0.940014,0.296871,-0.168050
-0.284824,0.910827,0.158336,0.117191,-0.111701,0.986808
0.152779,0.569759,0.465030,-0.596822,-0.685212,0.417479
-0.622454,-0.598099,0.084613,-0.497909,-0.743416,0.446564
-0.366127,0.352840,0.497826,-0.578916,0.229530,0.782414
-0.103467,-0.074233,0.857970,0.415902,0.855777,0.307688
-0.797725,-0.365898,0.261381,-0.572852,-0.646018,-0.504481
-0.268850,-0.024958,0.527187,0.867511,-0.169008,0.467827
0.567299,-0.252836,0.345489,0.200941,-0.286525,-0.936764
0.246624,-0.353782,0.716556,0.147175,0.742848,0.653082
-0.534043,-0.322745,0.211104,-0.460759,-0.335932,-0.821493
0.536044,0.111435,0.577398,0.451256,0.679069,-0.578993
0.820358,0.439574,0.292735,0.107968,0.067348,-0.991871
-0.816274,-0.206430,0.197165,-0.527466,-0.149455,-0.836327
0.915838,-0.383492,0.363809,-0.252949,-0.257777,0.932506
0.022246,0.610129,0.281680,0.841652,0.375328,-0.388266
0.672298,-0.284473,0.468676,-0.411014,0.288134,0.864897
0.127652,-0.161308,0.899657,0.716802,-0.358641,-0.597973
-0.249893,0.702984,0.284945,0.124034,0.449008,0.884877
-0.304966,-0.198339,0.470918,-0.293039,0.954378,0.057364
-0.088840,-0.881673,0.265249,-0.075638,0.324041,0.943015
0.060731,-0.723918,0.460073,-0.559996,0.045972,-0.827219
0.104978,-0.134552,-0.987201,0.307810,-0.448421,-0.839149
-0.494985,-0.136222,0.358314,-0.255223,-0.691880,-0.675398
-0.198171,0.101931,0.512435,-0.526617,0.848118,-0.058045
0.072130,0.484952,0.459011,0.288586,-0.956905,-0.032417
0.168590,0.127660,0.660654,-0.149534,-0.975898,-0.158943
-0.422263,0.030994,0.308300,0.488774,0.508184,0.709119
-0.281474,-0.056980,0.182989,-0.546412,0.040079,0.836557
0.278981,-0.472109,0.601579,-0.025729,0.718525,0.695025
0.089167,-0.358020,0.750008,-0.128357,0.853072,0.505760
-0.068332,-0.012072,0.631543,0.379086,-0.721446,-0.579491
-0.214267,0.614153,0.092652,-0.429914,-0.130727,0.893356
-0.290503,-0.397834,0.681137,-0.539434,-0.259469,-0.801054
0.236328,-0.190119,0.299370,0.367901,0.920548,0.131303
0.151471,-0.296973,0.453805,-0.047553,-0.800736,0.597127
0.120462,-0.102059,-0.392356,0.973622,-0.227825,-0.012488
0.075888,-0.370992,0.656209,-0.783134,-0.535281,-0.316503
0.133821,-0.275354,-0.971649,0.143298,-0.020567,-0.989466
-0.297939,0.563466,0.283280,0.120370,-0.735863,0.666346
0.289522,0.649129,0.422032,-0.131699,-0.666266,0.733992
0.032092,-0.058179,0.735190,0.672024,-0.474667,-0.568397
-0.416624,-0.205488,0.519831,-0.740220,0.314971,-0.594027
0.236369,-0.126718,-0.978429,0.113756,0.325337,0.938731
0.093212,-0.118669,-0.114066,0.556666,0.830602,-0.014920
0.110657,-0.130399,0.954090,-0.365004,0.299600,-0.881483
-0.148898,-0.052228,0.549624,0.834918,-0.517030,-0.188658
-0.537639,0.241920,0.160002,-0.481687,-0.122708,-0.867710
-0.154577,-0.794683,0.182530,0.271708,0.300862,0.914143
-0.154904,-0.245815,0.630717,0.749488,-0.529862,0.396880
0.148121,0.193801,0.578329,0.078395,-0.417136,-0.905457
-0.133945,0.064258,-0.073690,0.684457,0.560224,0.466549
0.091005,-0.650242,0.527213,0.383715,-0.287357,-0.877604
0.142483,-0.147053,0.946563,0.990302,0.119204,-0.071362
0.244785,-0.552935,0.523581,0.447786,-0.824381,-0.346242
0.191632,0.728285,0.363769,-0.037583,-0.515716,0.855935
0.740322,-0.095809,0.314712,-0.111487,-0.275159,0.954913
0.426552,-0.159853,0.489657,-0.215429,-0.221345,0.951103
-0.437501,0.366154,0.331052,-0.444800,0.447918,-0.775579
0.135374,0.477846,0.479612,-0.606095,0.334763,-0.721514
-0.385452,-0.182842,0.631254,0.847546,-0.022283,0.530253
0.124711,0.232544,0.326475,-0.152002,0.011816,0.988310
0.173902,0.163877,0.792076,0.251480,-0.764324,0.593773
-0.365473,0.225951,0.444809,0.767885,-0.370966,0.522243
-0.538414,0.464575,0.356111,0.403380,-0.895069,0.190094
0.147509,0.523267,0.338238,0.886153,0.125379,-0.446108
0.576695,-0.158397,0.534150,-0.378268,0.242162,0.893460
-0.024494,0.199538,0.542962,0.961076,-0.040284,-0.273330
0.518886,-0.234856,0.635110,-0.172052,0.031884,0.984572
0.201805,-0.248170,0.738416,0.359727,0.591397,-0.721697
-0.431005,-0.473693,-0.022509,-0.284433,-0.227602,-0.931287
0.088022,0.761377,0.364150,0.301437,0.710557,-0.635802
0.106122,-0.156000,-0.525981,0.823033,-0.553310,0.128314
-0.261618,0.452888,0.395530,0.179189,0.700275,-0.691019
0.071844,-0.422407,0.782569,-0.181138,0.904504,0.386086
0.137172,-0.217732,0.908758,0.844156,-0.469029,-0.259637
-0.163156,-0.098592,0.673295,-0.266113,0.006753,-0.963918
-0.046188,-0.241021,-0.989470,-0.034335,0.248495,0.968025
0.063428,-0.028169,0.666306,0.909099,-0.212100,-0.358544
0.025840,0.085064,0.182294,0.535662,0.487928,-0.689197
0.040590,0.343679,0.273615,-0.626213,-0.074424,0.776092
-0.084632,0.016696,0.524879,0.847459,-0.506677,0.158406
0.009622,-0.055268,0.801583,0.976753,0.059278,0.206011
0.245031,-0.107924,0.799380,0.152315,-0.912921,-0.378650
-0.000960,-0.098163,0.658071,-0.697564,0.675007,0.240354
0.110207,-0.113061,-0.198397,0.906792,-0.419543,0.041387
-0.224072,0.143200,0.648472,0.801197,0.567585,0.189553
-0.081691,-0.801147,0.438856,0.103427,0.475693,0.873509
-0.282210,0.560640,0.399031,-0.028856,-0.534691,0.844555
-0.158622,-0.807483,0.274337,0.041583,0.228901,0.972561
0.225705,0.049660,0.743753,0.989970,-0.137973,0.030384
0.227218,0.693951,0.353895,-0.364287,0.557817,-0.745745
0.667068,-0.249283,0.456939,-0.428928,0.320560,0.844548
0.397299,-0.044779,0.692834,0.747074,-0.204832,-0.632395
-0.176435,0.788433,0.149524,-0.361343,-0.314884,0.877656
0.549813,-0.138576,0.524604,-0.387671,0.369979,0.844291
-0.109963,-0.070893,0.373250,-0.171584,0.663297,0.728420
-0.599984,0.352626,0.300904,0.800022,0.266404,-0.537582
0.047371,-0.207629,0.841342,-0.542697,-0.122669,-0.830923
-0.265663,0.386618,0.548011,-0.063240,-0.915708,0.396837
0.537638,0.081382,0.562855,-0.633805,-0.397814,0.663351
-0.772068,-0.190248,0.173456,0.395555,-0.552132,0.733953
-0.337079,0.352541,0.522742,-0.389947,-0.574720,0.719471
-0.543236,0.415900,0.195421,-0.763042,0.628648,-0.150229
0.191632,-0.038615,0.746822,0.174134,0.517392,0.837844
-0.539477,0.287298,0.329530,0.270575,-0.955535,0.117225
0.662533,0.301854,0.510573,-0.596629,-0.088220,0.797654
0.096562,-0.186652,0.963401,-0.210696,0.958453,-0.192289
-0.082712,0.201678,0.508855,0.783917,0.558435,-0.271340
0.135210,-0.115758,0.098842,0.973172,0.229761,-0.012094
0.227953,-0.409863,0.429703,0.334181,-0.520722,-0.785603
0.185994,-0.583373,0.545939,-0.542930,0.135222,-0.828820
0.121607,0.038358,0.261643,0.929953,0.053577,0.363755
0.279594,0.249454,0.526046,-0.074151,-0.334920,0.939324
-0.757890,-0.484781,0.266311,0.793684,-0.394714,0.462889
-0.297326,0.773706,0.118393,0.322594,0.519303,-0.791364
0.650480,-0.058350,0.561190,0.726658,0.102886,-0.679251
-0.144322,0.243589,0.453215,0.426701,0.900799,-0.080540
0.209078,-0.457554,0.357567,0.689682,0.134979,-0.711420
-0.115478,-0.303010,0.696624,0.409079,0.814462,0.411468
0.046514,-0.409393,0.784286,-0.181138,0.904504,0.386086
-0.577513,0.362644,0.312024,0.650814,0.163316,-0.741464
0.367883,0.276125,0.626835,-0.437256,-0.576858,0.689958
0.101546,-0.185239,-0.616856,-0.543050,0.839648,-0.009399
0.173902,-0.506914,0.717513,0.913454,-0.398923,0.080387
0.397667,-0.461150,0.628500,-0.590114,0.266389,0.762104
0.227585,-0.095852,-0.429952,0.415903,-0.908929,-0.029553
0.437379,0.316966,0.639345,0.349226,0.718242,-0.601805
-0.090394,-0.129329,0.733158,-0.413773,0.884717,-0.214634
0.583395,-0.243846,0.690303,0.866227,-0.301291,-0.398591
0.198701,-0.663513,0.464833,-0.126412,0.417040,0.900054
-0.211652,-0.087718,0.675905,-0.365502,-0.315274,-0.875791
0.043980,-0.299713,0.734220,-0.048080,-0.993439,0.103764
-0.146242,0.390513,0.237947,0.041756,-0.424733,0.904355
-0.182685,-0.224753,0.649954,0.808777,-0.146221,0.569649
-0.190121,0.304936,0.272396,0.468131,0.683680,0.559853
-0.015669,-0.793399,0.493447,0.358800,0.455811,0.814555
-0.545401,-0.278822,0.443183,-0.448058,0.791623,0.415425
0.160255,-0.049488,0.816440,0.675598,-0.025947,0.736814
-0.475905,0.118113,0.230486,0.546100,0.719495,-0.429072
-0.317795,0.254206,0.306753,-0.178870,-0.533852,0.826443
-0.070824,-0.283360,-0.982913,0.021033,0.216063,0.976153
0.050885,0.612612,0.114774,0.364625,0.612114,0.701687
0.218270,0.727386,0.332520,0.942841,-0.089965,0.320870
0.613262,-0.262468,0.354328,-0.117644,0.274313,0.954417
-0.766184,-0.447365,0.280028,0.567140,0.472592,0.674543
-0.259413,-0.049745,0.397051,0.846994,-0.458181,-0.269577
0.403264,-0.155229,0.423487,-0.361942,0.872553,0.328100
-0.064859,0.289268,0.367048,-0.080754,0.355258,0.931274
0.621188,0.091742,0.559970,-0.532198,0.803836,0.265729
0.200294,-0.009718,0.744147,0.967544,0.013572,0.252338
-0.087982,0.123079,0.328036,-0.007545,-0.059208,0.998217
-0.247155,0.379511,0.530544,-0.064855,-0.861185,0.504136
0.003166,0.104285,0.700912,0.308905,-0.629930,0.712577
-0.477540,0.556616,0.293993,-0.228950,-0.512343,0.827699
0.138970,-0.229762,0.796154,0.910997,-0.339273,0.234475
0.154413,-0.277666,0.779015,0.932159,-0.336386,-0.133879
0.099912,-0.149279,-0.691444,-0.501343,0.859302,-0.101268
-0.333198,0.238880,0.483166,-0.527164,-0.332212,0.782134
-0.232938,-0.222612,0.436745,-0.521279,0.429319,0.737532
0.083161,0.268462,0.655029,0.844652,0.024597,0.534750
0.381651,-0.349630,0.718563,0.273182,0.776261,0.568147
-0.222030,-0.138790,0.684796,-0.621218,-0.467465,-0.628940
-0.524687,0.453016,0.366143,-0.773879,-0.011632,-0.633226
-0.550589,-0.243332,0.419750,-0.232707,0.184529,-0.954880
-0.431945,0.177490,0.274914,0.968460,-0.184488,-0.167481
0.309909,0.018066,0.235102,0.664729,-0.742149,0.085727
0.169979,-0.315981,0.183291,0.986507,0.037684,0.159324
0.268522,0.641637,0.401811,0.600240,0.453797,-0.658620
0.630420,0.232972,0.488228,0.916245,0.391276,0.086018
-0.633282,0.345563,0.173587,0.077604,-0.421845,-0.903341
0.364615,-0.248940,0.339418,-0.227342,0.707163,0.669504
0.288215,-0.344364,-0.968594,-0.088000,0.011041,0.996059
-0.293936,-0.013485,0.334763,-0.331630,0.942465,-0.042202
0.191796,-0.074661,0.759751,0.205815,0.231431,0.950831
0.113189,-0.128773,-0.106473,-0.546695,-0.837314,-0.005562
0.436970,0.214607,0.483848,0.795566,-0.069294,-0.601891
0.053827,-0.012158,0.175646,-0.574110,-0.389129,0.720400
0.134108,0.227065,0.475835,0.815597,-0.296590,-0.496826
-0.136642,-0.976155,0.195277,0.333167,0.101878,-0.937348
-0.580782,0.494370,0.303501,-0.549498,0.084419,-0.831219
-0.713930,-0.432125,0.245107,0.377782,0.145563,0.914381
-0.340756,-0.062674,0.572336,-0.683793,-0.103812,-0.722254
0.605294,0.254249,0.500856,0.887723,0.450952,0.092687
0.347537,-0.548953,0.631451,-0.341737,-0.306419,-0.888439
-0.451556,-0.014598,0.353738,0.513508,-0.107756,0.851292
-0.132638,-0.437519,0.580480,0.521289,-0.853380,-0.000452
-0.646886,-0.178175,0.160238,0.245174,0.020534,0.969262
-0.193227,0.589965,0.414347,0.184876,-0.425727,0.885764
-0.115030,0.376985,0.607322,0.790820,-0.309949,0.527764
0.566809,0.295903,0.274074,-0.153704,-0.246573,0.956858
0.576451,-0.543987,0.515529,-0.543954,0.286693,0.788620
0.273752,-0.227792,0.673531,0.021279,0.388754,0.921096
-0.040182,-0.450148,0.345555,-0.060894,0.473233,0.878830
-0.848999,0.051286,0.182465,0.594984,0.169550,0.785651
0.238167,0.059634,0.658792,0.699547,0.697113,0.157058
-0.495558,-0.500150,0.108427,-0.359123,-0.184157,0.914941
-0.011910,-0.637056,0.614679,-0.635662,-0.727394,-0.258518
-0.235962,0.086091,0.522230,-0.167097,0.889262,-0.425784
-0.356649,0.043538,0.455549,0.945436,0.322256,-0.047972
-0.398158,0.441757,0.262889,-0.028204,-0.030738,0.999130
0.881355,-0.358449,0.293587,0.205918,-0.331709,0.920634
-0.129410,0.128516,0.321151,-0.635310,0.316234,0.704540
0.278409,-0.402843,0.424117,-0.522796,0.274112,0.807185
0.169529,-0.124534,0.902791,-0.387037,0.894270,0.224686
0.035769,-0.442142,0.684704,0.411064,0.220379,0.884568
0.078994,-0.362087,0.763344,0.601701,-0.683461,-0.413324
-0.244745,0.378612,0.534072,-0.064855,-0.861185,0.504136
0.171531,-0.340896,0.678056,0.780212,-0.494742,0.382753
0.045042,-0.420694,0.679078,-0.407944,0.224338,-0.885017
-0.732275,0.053384,0.156212,-0.499298,-0.140455,-0.854970
-0.041245,0.197740,0.194372,-0.344509,-0.683554,0.643481
-0.108615,0.543088,0.133579,-0.528876,0.451457,-0.718663
0.290012,-0.050131,0.671289,0.457970,0.305624,0.834780
0.456540,-0.099533,0.509615,-0.197328,0.730031,-0.654306
0.603701,0.067212,0.500751,0.770786,-0.187440,-0.608897
0.095744,-0.369879,0.755057,0.279856,0.728656,0.625093
-0.226523,0.301811,0.520998,0.049373,-0.563054,0.824944
0.078259,-0.630720,0.557177,0.864170,0.189615,0.466108
-0.859213,-0.197055,0.162467,-0.280821,0.766123,-0.578096
0.056932,0.682050,0.321466,0.782997,0.353951,-0.511502
-0.456009,0.062331,0.322987,0.510515,0.641289,0.572820
-0.543358,-0.462991,0.204784,0.804185,-0.138119,0.578108
0.298429,0.148851,0.755791,0.966542,0.204707,-0.154571
-0.169857,0.244231,0.510153,0.864846,0.243912,-0.438803
0.367393,-0.384563,0.602038,-0.541416,0.331248,0.772750
-0.675648,0.236825,0.184799,-0.163169,-0.234523,0.958319
-0.248381,0.030695,0.281378,0.901154,0.402450,-0.161109
0.373235,0.507213,0.361658,-0.056834,0.955017,0.291054
0.553163,0.214607,0.494430,-0.610739,0.754410,0.240549
0.116703,-0.049060,-0.990113,-0.201469,0.241230,0.949325
