-0.233499,0.846745,0.317429,-0.021182,0.073148,0.997096
0.085284,0.451359,0.835599,0.480874,-0.794971,0.369838
-0.610940,-0.026819,0.752341,0.812677,-0.337910,0.474736
-0.185356,-0.114690,0.957374,0.431794,0.641704,0.633853
0.478523,-0.241803,0.680115,0.217797,-0.007777,0.975963
-0.629731,0.337346,0.816979,0.311661,-0.674787,0.668977
-0.252685,0.371632,0.375947,0.715838,0.206558,-0.667015
-0.277726,0.038151,-0.003943,0.452145,-0.824722,0.339704
-0.042599,0.031484,0.619917,0.269614,0.000617,0.962968
-0.298891,-0.054557,-0.295067,-0.392996,0.832200,0.391148
-0.333657,-0.530200,-0.964001,-0.330556,0.221785,0.917357
0.368685,0.455904,0.164584,0.884617,-0.215457,0.413560
-0.496215,-0.015020,0.608798,0.804833,-0.585569,-0.096704
-0.263071,-0.074032,-0.302568,0.450878,0.866188,0.215469
-0.726325,0.323126,0.908297,0.099441,0.906701,0.409885
0.382856,0.297689,0.596454,0.910439,-0.144195,-0.387696
0.020067,0.372104,0.203171,0.468394,-0.295025,-0.832807
-0.299288,-0.051546,-0.354232,0.852886,0.069071,0.517508
-0.435398,0.152754,0.811733,0.929818,0.094125,0.355780
-0.181878,-0.062878,-0.814583,0.809300,-0.586995,0.021695
-0.301751,-0.039685,-0.071535,0.729825,0.622761,-0.282000
0.107948,0.485231,0.836508,0.274840,-0.685635,0.674067
-0.173211,0.465759,0.153692,0.995437,0.021631,0.092938
0.147246,-0.153345,0.687370,0.841547,0.472119,-0.262493
-0.788155,0.461214,0.869692,-0.124015,-0.489905,0.862910
0.136024,-0.244576,0.512619,-0.557368,-0.535163,0.634777
0.602184,0.955683,0.682352,-0.544244,-0.093881,0.833658
-0.602930,0.374938,0.393693,0.275372,-0.277365,0.920456
0.280629,0.882151,0.743371,0.922053,0.354961,0.154340
0.407983,-0.006109,0.090051,-0.673632,-0.240084,-0.698984
-0.262453,-0.051960,-0.292375,0.334238,0.942313,-0.018219
-0.007921,-0.250952,0.900062,0.855305,0.502105,0.127841
-0.054919,0.221446,0.919854,0.288860,-0.273378,-0.917510
0.203089,-0.218139,0.905727,0.707580,0.341109,0.618850
0.233144,-0.676727,0.446582,-0.458512,0.642212,0.614272
0.673385,-0.160131,0.546817,0.582225,0.000101,-0.813027
0.395308,0.263818,0.597118,0.892483,-0.068782,-0.445807
-0.314206,-0.545778,0.649098,0.067088,-0.138478,0.988091
0.469944,-0.362426,0.601454,0.916494,-0.282620,0.283133
-0.322522,0.016316,0.085592,0.818630,0.433447,0.376787
0.152569,-0.129267,0.850950,-0.596762,0.522245,0.609209
0.019100,-0.211058,-0.015167,-0.514338,0.810839,0.279279
0.245468,0.016612,0.257844,-0.357976,0.860908,-0.361513
-0.421890,0.168098,0.821017,0.939869,0.044748,0.338590
-0.512807,0.699743,0.705921,0.911954,0.017916,-0.409901
0.131095,0.569737,0.849534,-0.348562,-0.486382,0.801210
-0.216290,-0.093327,0.624918,0.645356,0.431079,-0.630623
-0.207623,-0.234722,-0.050782,0.929549,-0.075709,-0.360842
0.303468,0.733852,0.528127,-0.707800,0.230467,0.667760
0.193011,-0.325366,0.748232,0.730015,-0.609864,0.308454
-0.440020,0.105898,0.586576,-0.743074,-0.663089,-0.090304
-0.195829,0.279867,0.114056,-0.753064,0.655738,-0.053880
0.028780,-0.622022,0.537796,-0.569200,-0.697922,0.434645
0.015181,-0.089906,0.000254,0.724655,0.392281,-0.566560
0.148916,-0.117582,0.836840,-0.384094,0.669331,0.635977
-0.205377,0.134284,0.779388,0.958071,-0.127660,0.256520
-0.274819,0.352747,0.368692,0.671125,0.319955,-0.668745
-0.008404,-0.223981,0.586471,0.440911,0.811906,0.382631
0.146805,0.102357,0.820405,-0.739255,0.515199,0.433672
-0.513994,0.535098,0.817433,-0.127167,-0.937445,0.324076
-0.233894,-0.847688,0.803586,0.890438,-0.427030,0.157371
0.091666,0.085126,0.048352,0.035165,-0.861427,0.506663
0.074502,0.526187,0.277530,-0.713279,0.606842,-0.350680
-0.291983,0.254611,0.941184,0.275903,-0.611615,0.741489
-0.295856,-0.177834,-0.651179,0.966163,0.049497,-0.253137
0.106758,-0.022454,0.817485,0.819498,0.044205,-0.571374
0.336429,0.533387,0.187453,-0.820982,0.315053,-0.476162
-0.560466,0.194831,0.586890,-0.031966,0.926979,0.373748
-0.025436,-0.086895,0.001722,-0.703921,-0.650861,0.284385
-0.101743,-0.025404,0.429308,0.778648,0.284311,-0.559353
-0.125199,-0.942759,-0.955084,0.109173,-0.171097,-0.979187
-0.099807,0.310732,0.240867,-0.324006,-0.620763,0.713915
-0.598179,0.284708,0.390232,0.352101,-0.678502,0.644717
-0.001321,-0.347849,0.509052,0.933245,-0.038383,-0.357184
-0.629731,0.010651,0.568130,-0.501464,0.543565,-0.673105
-0.388620,-0.240153,0.863503,0.643296,0.433723,0.630916
-0.711848,0.032370,0.840809,-0.720972,-0.485449,-0.494510
0.320674,-0.316869,0.123515,-0.494355,0.008436,0.869219
-0.280057,-0.391049,0.841841,0.867274,-0.021188,0.497379
-0.336341,-0.009883,-0.134058,0.999912,-0.011203,-0.007172
0.404021,0.469062,0.568008,0.577553,0.799468,0.165179
0.028119,-0.032013,0.648084,-0.233379,0.522874,0.819840
-0.105219,0.547788,0.629254,0.423920,0.545625,0.722901
0.075338,-0.424979,0.767464,0.517923,-0.420201,0.745108
0.095891,0.114161,0.726814,-0.392069,-0.168322,-0.904406
-0.156442,0.424096,0.139058,0.988172,-0.127215,0.085632
-0.642406,0.262931,0.803883,-0.298650,0.599380,-0.742666
-0.240582,-0.466998,0.651686,-0.003603,0.457714,0.889092
-0.227117,0.560887,0.380091,-0.648739,0.250646,-0.718550
-0.127442,0.019385,0.929505,0.900799,-0.032035,-0.433053
-0.584626,-0.041338,0.698962,-0.687813,0.575060,-0.442966
0.377970,-0.449587,0.365842,0.954377,0.249121,0.164632
0.176420,-0.437315,0.862699,0.251729,0.715897,0.651248
-0.065483,-0.643388,-0.958826,-0.160167,0.045776,0.986028
-0.307209,-0.097106,0.880235,-0.863686,0.434617,0.255255
-0.262542,-0.211119,-0.687178,0.965421,0.218193,0.142671
-0.014477,-0.852821,0.488648,-0.405791,0.192187,0.893531
0.283401,0.439379,0.374304,0.719299,0.621896,0.309604
-0.079783,0.261750,0.008803,0.879402,0.190971,0.436099
-0.204542,-0.370984,0.788462,0.726058,-0.568324,0.387101
0.660799,-0.472192,0.500887,-0.761581,0.154239,0.629447
0.104515,0.760880,0.512969,0.616642,0.091315,-0.781930
-0.143461,-0.425922,0.418993,-0.503241,0.640129,-0.580504
-0.108388,0.544128,0.621631,0.391548,0.636908,0.664107
-0.114856,-0.605086,0.810282,0.114814,0.286208,-0.951264
-0.016019,0.707533,0.267967,0.841837,-0.233016,0.486841
-0.228833,-0.176242,-0.547447,-0.499216,0.865568,0.039705
-0.029704,-0.177895,0.622243,0.829911,0.409222,-0.379190
-0.224434,-0.882684,-0.960749,-0.062837,0.195731,0.978642
0.096242,0.096339,0.844813,-0.233577,0.967837,0.093454
0.333217,0.333333,0.272443,-0.487168,-0.665940,-0.564971
0.007349,-0.607859,-0.954682,-0.203648,0.060704,0.977161
-0.127926,0.072379,0.005796,0.900971,-0.418035,-0.116177
0.265271,-0.358885,0.439641,0.624876,-0.779386,0.045687
0.390951,-0.429759,0.631842,0.523157,0.292624,0.800423
0.157586,-0.124368,0.686234,0.873441,0.075007,-0.481118
0.065260,-0.082587,0.587188,0.482495,0.873364,-0.066587
-0.652569,0.360243,0.403939,-0.112006,0.397466,-0.910756
-0.340168,-0.730311,-0.973914,-0.145478,0.220896,0.964386
-0.321864,0.068839,0.164112,0.985321,-0.154401,-0.072821
-0.149051,-0.281225,0.637716,-0.480725,0.860194,0.170203
0.080355,0.112922,0.878294,-0.067640,-0.984443,0.162163
-0.188128,-0.431354,0.643993,0.150877,0.604360,0.782295
-0.277153,-0.078870,0.500503,0.850317,0.012575,-0.526121
0.435575,-0.090435,0.681356,0.098839,0.865659,0.490781
0.375725,-0.251128,0.842085,0.547862,-0.621442,-0.560051
-0.186146,0.657374,0.338409,-0.687880,0.660001,0.302026
0.108651,0.801246,0.509542,-0.672522,-0.062957,0.737394
0.691867,-0.343483,0.518161,0.113067,0.992849,0.038310
-0.034501,-0.911657,-0.945503,-0.320785,0.035170,0.946499
0.189667,0.234311,0.722461,-0.205378,0.290814,0.934477
-0.296339,-0.110501,-0.631265,0.884768,0.031935,-0.464937
0.126518,-0.131864,0.667211,0.247443,0.712433,-0.656667
-0.295327,-0.389277,0.840617,0.867274,-0.021188,0.497379
-0.329301,-0.100351,-0.214833,0.990318,0.106627,0.088892
-0.551621,0.131922,0.870654,-0.255507,0.672100,0.694980
-0.134880,-0.687233,0.723055,0.190537,-0.550747,-0.812634
-0.141613,0.219792,0.900674,-0.574867,0.658718,-0.485406
-0.276404,-0.410287,0.836543,0.928413,-0.133508,0.346734
-0.320453,0.303060,0.713247,0.908977,0.117507,0.399941
-0.007878,0.488418,0.453978,-0.431492,-0.691940,-0.578820
0.172550,0.244400,0.511133,-0.668097,0.632472,0.391950
-0.277196,0.094804,0.353341,0.996486,0.046365,0.069757
-0.257745,0.208522,0.681356,0.727025,0.683097,0.069367
-0.361954,0.547492,0.773846,-0.606902,0.332616,0.721829
-0.048409,-0.783424,0.699924,0.834034,0.103110,-0.541992
-0.337353,-0.132631,0.449467,0.450422,0.183688,0.873716
0.182891,0.726299,0.606315,0.007378,0.740211,-0.672334
0.662032,0.243338,0.061622,-0.178320,-0.100346,0.978842
-0.129510,0.692661,0.828867,0.835769,-0.078092,-0.543500
0.116352,-0.985837,0.677422,-0.606920,-0.791472,0.072249
0.292686,0.509190,0.251340,0.069099,-0.447906,0.891406
-0.363536,-0.672480,-0.979666,-0.120675,0.188599,0.974612
0.509065,-0.093742,0.899432,-0.732024,0.296877,0.613193
0.350555,-0.552506,0.644850,-0.521415,-0.617880,-0.588516
0.227337,-0.369745,0.758530,0.045652,-0.997748,0.049149
0.015973,0.685641,-0.007719,0.726740,-0.054191,0.684772
0.122997,-0.140894,0.556521,0.604592,0.769636,0.205253
-0.049991,0.442862,0.528022,0.852569,0.520409,-0.047957
0.344922,0.128500,0.091694,0.521952,0.367985,0.769515
0.101257,0.799831,0.684468,-0.183792,0.865222,0.466488
0.626121,-0.047357,0.572764,0.027565,-0.866789,0.497912
0.716422,-0.264289,0.450866,0.006457,0.921212,0.389006
0.463385,0.327491,0.642052,0.441044,-0.671865,0.595045
-0.123349,-0.013248,0.198696,-0.418497,-0.621764,0.662020
-0.248723,-0.277566,-0.979754,0.311936,0.061117,-0.948135
0.007086,-0.056149,0.795263,-0.381696,0.656726,0.650400
0.272354,0.124959,0.557640,0.688732,-0.055634,0.722878
-0.314910,0.178544,0.608116,0.867575,0.445048,0.221915
-0.192044,-0.252072,-0.039085,0.921937,-0.185984,-0.339767
0.167575,-0.477796,0.769877,-0.652723,-0.666923,0.359398
-0.167312,-0.504943,0.019853,0.825615,0.242819,0.509311
-0.023983,-0.818063,0.702966,0.766434,0.323438,-0.554948
-0.188700,0.169219,0.866021,0.964980,-0.247794,0.086091
0.800827,0.908650,0.101712,0.769041,0.210572,0.603520
0.238822,0.371693,0.572414,0.034277,-0.521745,0.852413
-0.258714,-0.716858,-0.968826,0.232265,-0.270716,-0.934219
-0.271739,0.073147,0.213732,0.373451,-0.927555,-0.013248
-0.665685,-0.092442,0.776241,0.915454,-0.194322,0.352397
0.028471,0.362426,0.864185,0.669416,0.679328,0.300660
0.565394,-0.277036,0.701445,0.242010,0.683653,0.688513
-0.376740,-0.338646,0.171316,-0.187101,-0.509758,0.839726
0.385539,0.005223,0.727321,0.946409,0.322323,0.020462
-0.303997,-0.583666,0.653137,0.006093,-0.268389,0.963291
-0.012849,0.601902,0.165074,0.291145,-0.267859,-0.918415
-0.240582,-0.113923,-0.807188,0.906271,-0.411686,-0.095849
-0.081677,-0.632409,-0.960784,0.135092,-0.104099,-0.985349
-0.347165,0.000915,-0.073039,0.968220,0.224166,-0.110904
0.039693,0.662802,0.457650,-0.747898,-0.228370,0.623294
-0.203881,0.004279,-0.069018,0.178896,-0.968240,0.174666
-0.408907,-0.435071,0.717757,0.299452,0.241165,0.923129
0.627265,0.004398,0.599793,-0.226993,0.971262,0.071584
0.659566,0.044526,0.567553,-0.686227,-0.243198,-0.685527
0.005281,-0.293382,0.165214,-0.233906,-0.416202,0.878672
0.393108,0.290489,0.633817,0.464610,-0.882579,0.072052
-0.414101,-0.230061,0.851964,0.335500,0.140319,0.931531
-0.309189,0.159659,0.887596,0.977771,-0.077901,0.194665
-0.298670,-0.217490,0.832294,-0.660872,-0.243541,-0.709884
-0.138269,-0.571095,0.017597,0.759772,0.253252,0.598841
-0.068035,0.666814,0.905342,0.951951,-0.014371,0.305913
-0.439403,0.094923,0.613274,0.859536,-0.509657,0.038049
-0.387959,-0.521407,0.170756,0.056483,-0.217309,0.974467
0.212154,-0.557286,0.451583,-0.103078,0.226938,0.968439
-0.362964,0.057626,0.044505,0.955347,-0.287231,0.069360
-0.448908,0.677317,0.745994,0.229163,0.705611,0.670520
-0.330577,-0.117525,-0.406055,0.915608,-0.179203,-0.359928
-0.016371,-0.403144,0.583166,0.310211,-0.613588,0.726140
0.252728,-0.249651,0.475693,0.343895,0.612133,0.712060
0.361776,-0.409930,0.846911,0.985864,0.021601,-0.166147
-0.417445,-0.080228,0.492617,0.157994,-0.766631,0.622346
-0.232266,-0.524357,0.078039,0.881330,0.053683,0.469442
-0.418412,-0.056092,0.888872,0.898472,0.019515,0.438596
0.466026,-0.359828,0.178659,0.063798,0.750911,0.657315
0.049155,-0.519045,0.897334,-0.775874,0.096810,-0.623416
-0.531466,-0.020271,0.688332,0.455995,-0.692994,0.558416
-0.107553,-0.389220,0.434343,-0.869252,0.411073,0.274627
-0.101260,-0.013485,0.789284,-0.514101,0.639108,-0.572050
-0.511971,-0.425922,0.721342,0.709187,-0.003200,0.705013
-0.315613,0.074919,0.152503,0.920513,-0.317575,-0.227599
-0.332733,-0.049363,-0.208574,0.992008,-0.122745,0.029228
-0.367014,0.546311,0.509682,-0.475810,-0.850955,-0.222442
-0.324724,-0.156119,-0.458436,-0.709533,-0.687496,-0.154640
0.106274,-0.208641,0.844900,0.296920,-0.351313,-0.887929
0.214971,-0.122186,0.744752,0.932913,-0.241555,-0.267066
0.301531,0.554750,0.564966,0.196690,0.913713,0.355586
-0.427303,-0.465874,0.167539,0.187157,0.161057,-0.969037
0.775523,-0.073913,0.539352,-0.519009,0.367547,-0.771712
-0.304523,-0.504057,0.851824,-0.584348,0.084663,-0.807075
-0.674970,0.242394,0.756991,-0.415278,0.883689,-0.215957
-0.392888,-0.483991,-0.006478,0.374977,-0.049851,-0.925693
-0.407059,-0.037974,0.758093,-0.939284,0.217867,0.265103
-0.188921,-0.280220,-0.979491,-0.138651,-0.140928,0.980263
-0.143945,0.453426,0.885411,0.173217,0.399478,0.900230
0.489482,-0.014782,0.892457,-0.187569,-0.438460,0.878960
0.330442,-0.088901,0.879536,0.828317,0.243986,-0.504342
-0.268658,-0.165736,-0.288056,-0.311245,0.936871,0.159371
0.171623,-0.400432,-0.946027,-0.206153,0.075122,0.975632
0.021520,0.854298,0.400635,0.808555,-0.588372,-0.007602
-0.470737,0.016788,0.646913,-0.186518,0.158645,0.969558
-0.375024,-0.093684,-0.266079,0.963579,0.139190,-0.228343
-0.297440,-0.046885,-0.270677,-0.240655,0.923209,-0.299618
0.389192,0.582073,0.177243,-0.954180,0.094832,0.283810
0.326217,-0.326133,0.139373,-0.644923,-0.743827,0.175486
-0.173605,-0.614058,-0.968232,0.112054,-0.157146,-0.981198
-0.051180,0.492135,0.617015,-0.670453,-0.063464,-0.739233
-0.669337,0.104187,0.793008,0.364575,-0.052749,0.929679
-0.113846,0.716502,0.281971,-0.659110,0.416984,-0.625858
-0.060246,0.633000,0.380231,-0.730889,0.194458,-0.654208
-0.162120,0.451301,0.889939,-0.121575,0.368120,0.921796
0.498415,-0.166150,0.152993,0.147831,0.386100,0.910534
-0.148347,0.550619,0.634272,0.087259,0.099528,0.991201
0.764830,0.637661,0.086362,0.706574,-0.093757,0.701400
-0.170261,0.453307,0.141086,0.989911,-0.106427,0.093537
-0.245073,-0.317932,0.468507,-0.124184,0.175381,0.976637
-0.209779,0.149805,0.670848,0.637591,0.761273,-0.118074
0.461011,-0.258447,0.607941,-0.166679,0.962673,0.213257
0.627133,0.582427,0.459817,0.023877,0.924428,-0.380609
-0.349236,-0.216605,0.190251,-0.189954,-0.184168,0.964365
0.666694,-0.153050,0.548199,-0.443628,0.334266,0.831541
-0.105836,0.181317,0.952723,-0.232523,-0.971960,0.035015
-0.358873,0.212949,0.655008,0.208960,-0.747591,0.630432
-0.675716,0.300286,0.759964,-0.388776,0.861111,-0.327629
-0.492872,0.262046,0.721097,0.836662,-0.389826,0.384751
-0.133163,-0.122128,0.957059,0.245523,0.694259,0.676552
-0.326306,0.692308,0.433032,0.798005,0.601458,0.037899
0.404902,0.164677,0.523092,0.886152,0.073566,0.457518
0.271430,0.346023,0.687667,0.833029,0.299499,0.465149
-0.301268,-0.929184,-0.963266,-0.231436,0.120211,0.965394
0.611600,-0.053318,0.591244,-0.090800,0.978014,-0.187734
0.683989,-0.351685,0.515661,0.216782,0.914330,-0.342063
-0.614550,0.289783,0.814164,0.100867,0.891398,-0.441855
-0.380962,0.487356,0.757516,0.912470,0.257537,-0.317919
-0.205377,0.134518,0.914451,0.917102,-0.228338,-0.326779
0.172021,0.200083,0.714960,0.301636,0.113598,-0.946632
0.484905,0.297336,0.504332,-0.627236,0.678522,-0.382338
-0.142494,0.737512,0.330402,0.727826,-0.396465,-0.559540
0.571467,0.460446,0.209116,-0.751138,0.288735,-0.593653
-0.317198,0.168628,0.885480,0.804751,-0.297550,0.513653
0.320190,0.246172,0.662193,0.604317,-0.166273,0.779201
0.325207,-0.156943,0.690395,-0.030429,-0.977984,0.206448
-0.104383,-0.858548,0.719506,0.137244,0.730682,0.668781
0.197456,-0.295683,0.748057,-0.557626,0.789019,-0.257880
0.114241,-0.812693,-0.938422,-0.128982,0.128027,0.983348
-0.169821,0.852411,0.945083,0.834189,0.347281,0.428397
-0.329124,0.165444,0.356016,0.690824,0.700558,-0.178832
-0.399358,0.578238,0.579914,0.968239,0.220594,0.117692
0.142491,0.084121,0.179376,-0.298690,-0.949703,0.094063
-0.042951,0.613997,0.856859,0.920635,0.307259,-0.240879
0.015181,-0.044169,0.596000,-0.568252,-0.822688,-0.016555
-0.092547,0.109792,0.918035,-0.732903,0.680047,-0.019727
0.167267,-0.142486,0.860688,-0.549959,0.805651,0.220161
0.195609,0.327729,0.679433,-0.451633,0.513115,0.729891
0.254927,0.272314,0.086204,0.402098,-0.149339,0.903335
0.384174,-0.156176,0.527358,-0.035715,-0.124089,-0.991628
-0.289211,0.068129,0.238979,0.924059,0.220170,-0.312473
0.617496,-0.249299,0.431459,0.650059,0.718421,-0.247579
-0.409876,0.142252,0.817538,0.978543,0.095754,0.182440
-0.288461,-0.119650,-0.617540,0.931832,0.353522,0.081923
-0.623615,0.325071,0.386927,0.210621,-0.724326,0.656499
-0.110545,0.118350,0.939593,0.329114,-0.944247,-0.009047
-0.062709,-0.732437,-0.953773,-0.192510,0.149315,0.969868
0.318914,-0.544715,0.367013,-0.830526,0.553275,-0.064135
-0.197282,-0.135700,0.508301,0.296523,0.921141,-0.252139
-0.062534,0.653243,0.895866,-0.224382,-0.855057,0.467472
0.576879,0.244105,0.196860,0.854100,-0.389921,0.344201
-0.312312,-0.183619,-0.506937,0.897888,0.437719,-0.046902
-0.580049,0.330974,0.383238,0.316004,-0.628608,0.710629
0.375593,-0.429053,0.831210,0.983333,0.074545,-0.165829
-0.290618,0.530967,0.658347,-0.449311,0.520155,-0.726332
-0.624627,0.173703,0.759299,0.695066,0.404133,0.594609
0.429502,-0.137353,0.517357,0.095540,-0.419916,0.902520
0.015490,-0.443273,0.853083,-0.186030,0.189472,0.964102
-0.240802,-0.213950,-0.701480,-0.751470,-0.637613,-0.169537
-0.312664,-0.165797,0.830896,-0.721074,0.111157,-0.683883
-0.126166,-0.732199,-0.957969,0.149205,-0.130623,-0.980141
0.153802,0.234960,0.536799,0.836657,-0.495266,-0.233914
-0.287097,0.093328,0.045397,-0.630425,0.759332,-0.161180
-0.597827,-0.020977,0.766975,0.942215,-0.255805,0.216323
0.058749,0.531853,0.404079,-0.344151,-0.898649,0.272010
0.310728,-0.195127,0.399446,-0.312353,-0.943859,-0.107542
-0.373087,-0.248650,-0.377713,-0.289197,0.957159,0.014550
-0.270509,0.003631,0.265239,0.905851,0.410681,-0.103806
-0.343998,-0.595879,-0.983775,-0.211868,0.224551,0.951151
-0.521520,-0.207755,0.504874,-0.572099,0.436196,-0.694576
0.351436,-0.432593,0.835039,0.991985,-0.011763,-0.125803
0.861819,0.825912,0.072812,0.946008,0.315878,0.072737
-0.093822,0.514917,0.627995,0.468611,0.479364,0.742033
0.035954,0.846684,0.435637,0.835718,-0.339630,0.431540
-0.112745,-0.041101,0.416755,-0.748993,0.467632,0.469393
0.460350,-0.408281,0.847698,-0.518976,-0.371502,-0.769838
-0.657146,0.335516,0.830371,-0.650090,0.656927,-0.381877
0.431041,-0.496386,0.551188,0.805648,0.372955,0.460257
-0.196884,0.521761,0.628013,0.307265,-0.401672,0.862698
0.185751,-0.163672,0.232247,-0.684305,0.436211,-0.584334
0.576041,-0.231242,0.140160,0.170906,0.361424,0.916604
-0.689315,-0.110148,0.461496,-0.555002,0.755741,0.347604
-0.006293,0.341891,0.879064,0.181846,-0.744513,-0.642365
-0.184167,0.225519,0.716079,-0.576202,0.743597,-0.339197
-0.593425,0.291141,0.822766,-0.124029,-0.772226,0.623125
0.318562,-0.323950,0.475396,0.447392,0.684722,0.575323
0.127485,0.271371,0.691864,0.992465,0.060893,0.106325
0.343380,0.531320,0.534946,-0.202386,0.732677,0.649788
-0.117937,-0.703164,0.031550,0.866795,0.312540,0.388568
0.548935,-0.298929,0.708229,0.352613,0.842540,0.407174
0.027241,-0.246406,0.850967,0.433004,0.661629,0.612172
-0.243488,0.143195,0.563235,0.042576,0.895259,-0.443507
0.277811,-0.344899,0.772499,-0.355618,0.053330,0.933109
-0.423429,0.610928,0.746326,-0.119583,0.631059,0.766463
0.520682,0.008706,0.890096,0.304778,0.379033,-0.873753
0.693231,-0.647635,0.772779,0.047038,0.449818,0.891881
-0.193497,-0.017321,0.356663,0.483470,0.874372,-0.041592
-0.219065,0.568617,0.675132,0.064243,-0.199365,0.977817
-0.071774,-0.123367,-0.040134,0.804135,0.565777,-0.182380
0.051312,-0.774337,0.489715,-0.079185,0.364108,0.927984
-0.108431,0.243752,0.190321,0.239413,0.966208,-0.095518
-0.052631,0.173407,0.655934,-0.086970,0.590883,0.802056
0.370092,-0.113570,0.855566,-0.183903,-0.565167,-0.804217
-0.168282,-0.650113,0.718229,0.080083,0.648841,0.756698
0.051927,0.159011,0.286867,0.949898,0.144250,0.277283
-0.826263,0.034553,0.886774,0.073002,-0.623051,0.778767
-0.258406,0.026232,0.286150,0.770696,0.629898,-0.096204
-0.127002,0.649526,0.871301,0.361125,-0.139234,-0.922064
-0.284854,-0.190876,-0.799163,0.965457,-0.260530,0.004163
-0.308573,-0.118764,-0.559738,0.877070,-0.475291,-0.069623
0.468886,0.883628,0.686933,0.401923,0.879626,-0.254393
-0.475534,0.557700,0.707617,0.918949,0.067507,0.388555
-0.173737,0.327077,0.821524,0.841756,-0.076549,0.534404
0.445432,-0.301821,0.615546,-0.252435,0.962782,-0.096583
-0.079211,-0.429405,0.835826,0.839493,-0.006092,-0.543337
-0.122865,0.163967,0.029924,0.922707,0.089341,0.375008
0.343426,0.096281,0.756484,-0.314614,-0.816484,-0.484120
0.131887,0.471659,0.200689,0.024846,0.230482,0.972759
0.277680,-0.304003,0.125788,0.202046,0.353280,-0.913439
0.650721,0.496090,0.132641,0.805594,-0.412199,0.425571
-0.109707,-0.201556,0.663662,0.677546,-0.697437,0.233482
0.531200,-0.134756,0.661250,0.769548,0.611277,0.184762
-0.361425,0.510962,0.728615,0.966067,0.098663,0.238705
0.404507,0.616064,0.540069,-0.072496,-0.199551,0.977202
-0.121238,0.657017,0.263229,-0.649114,0.556990,-0.518086
-1.000000,0.226758,-0.109825,-0.215845,-0.849325,-0.481724
-0.339290,-0.041634,-0.145929,0.962503,0.152780,-0.224155
-0.177919,0.652886,0.331661,0.843010,-0.445547,-0.301368
-0.397070,-0.417545,0.855181,0.746539,-0.133889,0.651731
-0.187468,0.177362,0.799844,0.947682,-0.300855,-0.106704
0.192044,-0.047299,0.857629,0.893677,0.318054,-0.316518
0.714840,-0.619544,0.521396,0.440806,0.468771,0.765470
0.318957,-0.345904,0.434169,-0.895533,0.326050,0.302839
0.094878,0.086308,0.882473,-0.009289,-0.976368,0.215913
0.275921,0.012127,0.359303,0.640199,-0.497375,0.585459
-0.002597,0.239916,0.745295,-0.403102,-0.015849,-0.915018
0.317287,0.859845,0.775489,0.876129,0.373756,-0.304475
-0.184607,0.348972,0.224782,0.976867,0.202828,0.067759
-0.331544,0.101648,0.527498,-0.169821,0.951559,-0.256313
-0.040794,-0.331385,0.854097,-0.500187,0.209416,0.840213
-0.419116,0.076273,0.577921,-0.590431,-0.771878,-0.235789
-0.206567,0.825206,0.568393,-0.146226,-0.989249,0.002253
0.289694,-0.298338,0.629306,-0.631024,-0.312622,0.709983
-0.493927,0.128676,0.861038,0.648958,0.277933,0.708242
0.452341,-0.442329,0.274243,-0.163227,-0.986582,0.003584
-0.400723,-0.727361,-0.975907,-0.280328,0.160215,0.946439
0.447017,-0.172230,0.839270,-0.052946,0.805774,0.589851
0.433859,0.827565,0.563008,0.051962,-0.139544,0.988852
0.445124,-0.152931,0.506395,-0.022317,-0.164290,0.986160
-0.377529,0.552034,0.574390,0.255634,0.878783,-0.402979
-0.105176,-0.541355,0.805229,0.466312,0.293070,-0.834663
0.012849,-0.179426,-0.009380,-0.514338,0.810839,0.279279
0.660622,-0.343721,0.152171,0.168583,0.599719,0.782251
0.425586,-0.110029,0.682317,0.125051,0.706373,0.696706
0.199347,-0.159364,0.760785,-0.558623,0.808261,0.186154
0.409919,0.431826,0.118602,0.840172,0.527419,0.126254
0.217832,-0.263637,0.749071,-0.359985,0.380695,0.851752
-0.197720,0.216370,0.807799,0.986392,-0.074425,-0.146600
-0.541543,0.008763,0.687458,-0.694630,0.682196,-0.228252
-0.313722,-0.061639,0.875060,0.841171,-0.458095,-0.287369
-0.456391,0.374524,0.791959,0.812826,0.500927,0.297297
-0.139808,-0.082353,0.946622,-0.113624,0.555872,0.823466
0.015578,0.638842,0.445288,0.746010,-0.064109,-0.662842
0.275832,-0.199258,0.180478,0.365043,0.855557,-0.367105
-0.208635,0.620253,0.155510,0.317652,-0.029962,0.947734
-0.178139,-0.016259,-0.490834,0.894382,-0.341634,0.288734
0.488910,0.087900,0.076186,0.307671,0.150087,0.939581
0.160227,0.561298,0.852663,-0.109663,-0.503354,0.857093
-0.273412,-0.103243,-0.461444,-0.186326,-0.372294,-0.909219
0.311431,0.663922,0.548041,-0.074143,0.148844,0.986077
-0.254224,-0.004751,0.277286,0.770048,0.633291,-0.077255
0.031640,-0.311913,0.601140,0.404726,0.912788,-0.054901
-0.334976,-0.018204,-0.183712,0.782224,-0.610680,0.123267
-0.200537,-0.311322,0.652210,-0.328791,0.643909,-0.690853
-0.270992,-0.127318,0.807660,0.198044,0.836139,0.511517
-0.406223,-0.805907,-0.975540,-0.273662,0.224192,0.935333
0.338761,0.131806,0.717915,0.397139,0.916237,-0.052821
-0.118203,-0.051607,0.408415,-0.710062,0.519764,0.475034
-0.230593,-0.691246,-0.964001,0.310139,-0.151198,-0.938591
0.502420,-0.405622,0.486987,-0.373929,-0.129564,-0.918363
-0.111775,-0.135995,0.846264,-0.269857,0.744846,0.610231
0.369036,-0.003984,0.731710,-0.642275,-0.766172,0.021517
0.429062,0.113275,0.655515,-0.676752,-0.647239,-0.350840
-0.264873,-0.936150,-0.959088,0.107455,-0.072626,-0.991554
0.734025,0.051726,0.529788,0.218712,0.083807,0.972184
0.236577,-0.191763,0.420566,-0.657636,-0.575762,-0.485812
-0.354208,-0.037560,-0.328024,0.958217,0.084483,-0.273283
0.151336,0.041338,0.831962,0.320078,0.563075,0.761903
-0.211407,0.089611,0.874238,-0.514700,-0.484099,-0.707624
-0.295284,-0.012304,0.201196,0.915969,-0.359925,-0.177355
-0.027372,-0.166031,0.881739,-0.588678,-0.804253,0.081455
-0.166697,0.673896,0.640951,0.504646,0.228999,0.832401
0.325073,0.244872,0.660113,-0.533552,0.373002,-0.759073
-0.356628,-0.458678,0.162417,0.368102,-0.105708,0.923757
0.114504,0.335577,0.698158,-0.696851,-0.659150,-0.282700
0.038769,-0.620430,0.545873,-0.098342,-0.950908,0.293434
-0.023808,-0.437315,0.472563,-0.171860,0.074328,0.982313
0.048231,-0.518396,0.927092,0.945866,-0.298987,0.126272
0.431087,0.251366,0.069402,0.315896,-0.073327,0.945956
-0.031949,0.727243,0.349109,0.043404,0.905196,0.422773
0.167664,0.226874,0.121155,-0.356628,-0.643999,-0.676818
0.355878,-0.286063,0.636160,-0.359477,0.133562,-0.923546
-0.248591,-0.571743,-0.975208,-0.028454,0.050890,0.998299
0.447941,-0.087309,0.931411,-0.172131,-0.980976,0.089765
0.756337,-0.163142,0.573585,-0.354872,-0.515134,0.780194
-0.258317,0.133517,0.039575,-0.268746,0.875247,-0.402142
-0.169689,0.331680,0.881774,0.296726,0.714739,0.633326
-0.377003,0.174294,0.642734,0.497078,-0.601924,0.624981
0.345097,0.839015,0.670289,0.795330,0.559029,0.234387
0.485918,-0.000677,0.895936,-0.154923,-0.378898,0.912379
0.432317,0.116639,0.479015,0.772364,0.357090,0.525301
-0.223507,-0.733913,0.463052,-0.283995,0.079258,-0.955544
0.150192,-0.203386,0.469679,0.030041,0.564861,0.824639
0.624582,0.805259,0.127973,-0.644538,-0.025415,-0.764150
0.157146,-0.253844,0.841911,-0.536858,0.008278,-0.843632
-0.058529,-0.067423,0.452492,-0.424159,-0.904167,0.050716
0.564425,-0.113393,0.540244,0.160724,-0.499063,0.851531
-0.212640,0.513678,0.269750,0.305476,-0.349925,0.885572
-0.073710,-0.597475,0.807747,-0.407636,-0.187550,0.893677
-0.488778,-0.414948,0.160493,0.288588,0.215164,-0.932964
0.622908,-0.163081,0.427123,0.850453,-0.467185,0.241803
0.190943,0.581717,0.524490,-0.429821,-0.535350,-0.727086
0.409656,-0.461332,0.381000,0.826885,0.487924,0.279628
-0.173648,0.096396,0.821699,0.996291,0.052276,0.068349
0.545105,0.127379,0.058702,0.076013,0.148805,0.985941
-0.462287,-0.128500,0.712932,0.904764,0.413710,-0.101222
0.521740,0.744888,0.239188,0.109586,0.602485,0.790571
-0.321686,0.580006,0.402680,0.822385,0.040026,0.567521
-0.250396,-0.206811,0.601874,0.033472,0.654396,0.755411
-0.279308,-0.153993,-0.356086,-0.722338,0.402351,-0.562443
0.628146,0.885811,0.173536,0.171970,-0.371811,0.912241
-0.218184,0.418903,0.971903,0.336547,-0.645718,0.685408
-0.653275,0.021629,0.799057,0.727034,0.447220,0.520976
-0.228656,-0.117935,0.980803,0.710406,0.534647,0.457685
-0.315482,0.093151,0.154706,-0.547680,0.790856,0.273116
-0.415288,-0.583313,-0.984894,-0.186999,0.187037,0.964390
-0.133604,0.448643,0.849464,-0.462043,-0.093396,-0.881926
-0.141922,0.775752,0.308512,-0.219734,-0.278791,-0.934876
0.573887,0.771740,0.693665,0.490483,0.731783,0.473203
0.286261,0.879259,0.703945,-0.371502,-0.574543,-0.729306
-0.088982,-0.030655,0.420933,0.794854,-0.216377,-0.566910
0.036349,-0.967425,0.502758,-0.053065,-0.273091,0.960523
0.377707,-0.339943,0.862034,0.097874,0.517536,0.850045
-0.457621,-0.085007,0.898156,0.470700,-0.244639,0.847699
0.283841,0.029240,0.345718,0.715602,-0.454010,0.530838
-0.398477,0.639728,0.611613,0.973237,0.229767,-0.004012
0.471881,0.074562,0.073948,0.296425,0.084630,0.951299
-0.175542,-0.943818,-0.954437,0.143213,-0.081923,-0.986295
-0.348092,0.112389,0.892282,-0.723594,0.101891,-0.682664
-0.171140,-0.609689,0.808464,-0.120163,-0.376857,0.918444
-0.176157,0.438140,0.923088,-0.780086,-0.200410,-0.592707
0.331060,-0.244576,0.396508,0.741294,0.287620,0.606430
-0.127531,-0.670884,-0.963494,-0.066711,0.138235,0.988150
0.706390,-0.184444,0.554895,-0.389168,-0.181421,0.903125
0.360455,0.018441,0.781434,-0.613931,0.783868,0.092953
-0.351258,-0.151101,-0.560245,0.976379,0.216060,0.001170
-0.459206,-0.380366,0.168920,0.212260,0.241828,-0.946818
0.059187,0.386327,0.874780,0.684787,0.505160,0.525243
-0.215675,0.075567,0.751484,-0.735004,0.263315,0.624847
-0.422900,-0.143372,0.678314,-0.486311,0.463567,0.740680
0.076659,-0.716916,-0.944139,-0.167636,0.161106,0.972596
-0.294886,-0.195184,-0.549667,0.702408,0.558029,-0.441844
-0.231033,-0.347200,0.779091,0.777945,-0.447124,0.441454
-0.208855,0.247941,0.441092,0.956651,-0.290940,-0.013118
0.178093,-0.159069,0.632034,0.764851,-0.305042,0.567408
-0.589554,0.128147,0.575806,-0.496307,-0.106568,-0.861581
-0.683594,0.354638,0.861090,0.270389,-0.943999,0.189092
0.608431,-0.195656,0.541870,-0.481191,0.255742,0.838481
0.364548,-0.343426,0.454432,0.486171,0.873738,0.014788
-0.120357,0.044288,0.007981,0.215714,0.954507,-0.205874
-0.169558,-0.756043,-0.960679,-0.151747,0.110081,0.982270
0.423693,-0.540469,0.769108,0.604896,0.476694,0.637859
-0.054347,-0.753385,0.684468,-0.537390,-0.513280,0.669145
0.564162,0.429172,0.072549,-0.010948,-0.388583,0.921349
0.728482,0.030717,0.539264,0.317727,0.247744,0.915244
-0.292995,-0.222389,-0.364373,-0.148919,0.938571,-0.311300
-0.140821,-0.447404,-0.971099,-0.176091,0.059785,0.982557
0.030673,0.278924,0.213295,0.502172,-0.669449,-0.547412
-0.760783,0.355816,0.859325,-0.053681,-0.539619,0.840196
0.470602,-0.319938,0.169253,0.061050,0.707173,0.704400
0.258932,-0.532444,0.440096,-0.469977,-0.832746,0.292670
-0.142140,-0.026052,0.407401,-0.529896,0.829766,0.175209
0.424001,-0.509957,0.552849,0.764205,0.244459,0.596851
-0.126738,-0.294325,0.583673,-0.552844,0.404838,-0.728334
-0.123615,0.533683,0.607609,-0.727554,0.620554,-0.292536
-0.323666,-0.120947,-0.175180,-0.392219,-0.917932,0.059711
0.186146,0.218730,0.210025,0.216939,-0.393394,0.893408
-0.165507,0.014959,0.754614,0.745261,-0.658523,0.104561
0.507832,0.187869,0.065818,0.209150,0.030893,0.977395
0.630125,-0.546311,0.494366,-0.464904,-0.061294,0.883237
-0.188569,0.339590,0.913420,0.993501,0.113811,0.001736
-0.324284,-0.007348,-0.330385,-0.429800,0.902890,0.007803
-0.255897,-0.082648,-0.268264,0.755522,0.075118,0.650803
0.243531,0.503705,0.829479,0.231856,-0.332143,0.914289
-0.439271,0.104011,0.835459,0.538025,-0.159545,0.827693
-0.462639,-0.196895,0.171858,0.008957,-0.450827,0.892566
-0.058970,0.666519,0.906181,0.951951,-0.014371,0.305913
-0.289474,0.218142,0.690483,0.585310,0.804277,0.102722
0.045943,0.366323,0.871161,0.631398,0.680979,0.370951
-0.451328,-0.027529,0.690395,0.407880,-0.524566,0.747305
-0.301356,-0.182318,-0.489138,0.744259,0.667573,0.020605
-0.368290,-0.166092,-0.326975,0.634327,-0.760019,0.141422
-0.255456,-0.373876,-0.967025,-0.251146,-0.127089,0.959570
0.287140,0.168805,0.365212,0.695687,-0.436372,0.570613
0.460439,-0.598300,0.548793,0.825419,0.091792,0.557007
-0.383119,0.710721,0.530312,0.788577,-0.062563,0.611745
-0.521829,0.200497,0.693315,0.659507,0.683925,-0.311924
0.195388,0.051546,0.645532,-0.770619,0.632920,-0.074558
0.034017,0.323360,0.888697,-0.520758,-0.229321,-0.822328
-0.265271,0.054557,0.003558,-0.379876,0.922713,-0.065536
0.597255,-0.141600,0.522760,-0.125698,0.405988,0.905193
-0.244192,0.183558,-0.807747,0.974194,-0.062387,0.216919
-0.105439,-0.397835,0.826857,0.947001,-0.175296,-0.269185
0.446751,-0.120651,0.838466,-0.790440,-0.528374,-0.309879
0.414496,-0.546959,0.767639,-0.443409,-0.672534,0.592526
-0.015315,0.131392,0.753512,0.654190,-0.519025,-0.550135
-0.198821,0.003984,0.320960,0.832098,0.495096,-0.249987
-0.232003,0.725593,0.639359,-0.007289,0.159048,0.987244
-0.051444,-0.213831,0.475973,0.964086,0.010078,-0.265398
0.427345,0.716268,0.261463,-0.148939,0.945519,0.289501
0.583084,-0.114280,0.525522,-0.043607,-0.485377,0.873217
-0.385891,-0.479154,0.159707,0.114236,-0.049509,0.992219
0.750133,0.675077,0.081134,0.664071,-0.089956,0.742238
-0.259330,-0.104954,-0.677020,0.978938,-0.044504,0.199247
-0.275875,-0.546606,0.468822,0.486898,-0.090170,-0.868792
0.037976,-0.789501,-0.945275,-0.187429,0.176309,0.966326
0.128323,-0.622022,0.764125,-0.486094,0.027555,-0.873472
-0.418192,-0.179250,0.859115,0.843624,-0.176102,0.507235
-0.458986,0.151692,0.837662,-0.513191,0.525033,-0.678952
0.253211,0.344488,0.694242,-0.473196,0.535544,0.699484
-0.439317,0.182499,0.679380,0.356854,-0.156234,0.921003
0.183417,0.709482,0.595842,0.595203,0.570471,-0.565947
-0.177213,0.049954,0.978809,0.534503,-0.596154,0.599089
-0.214222,-0.161547,0.830563,0.457291,0.187901,-0.869240
-0.284150,-0.665399,-0.976537,-0.245749,0.080668,0.965971
0.012892,-0.194003,0.651756,-0.260430,0.163226,0.951595
-0.333789,0.146675,0.904136,-0.729578,0.324969,-0.601757
-0.224917,-0.311146,0.621351,0.116227,0.627901,0.769566
-0.199041,-0.626981,0.663715,-0.784043,0.338015,0.520597
0.000440,0.770620,0.384007,0.849591,-0.527438,-0.002077
-0.176729,0.207636,0.720030,-0.685012,0.677763,-0.267201
-0.337528,-0.081881,-0.244434,0.982848,-0.170871,0.069380
-0.325119,-0.224395,0.830878,0.814691,0.231569,0.531652
-0.006822,-0.271428,0.504157,0.691281,0.554714,-0.463058
-0.344834,0.421971,0.765104,0.981513,-0.091656,0.168023
0.571290,0.770324,0.148377,0.777414,0.488003,0.396837
0.529572,-0.088371,0.539771,-0.261779,0.821264,-0.506949
0.078198,-0.848985,0.501324,0.358082,0.303964,0.882826
-0.419468,-0.635892,0.676076,-0.781271,-0.128336,-0.610857
-0.364374,0.052198,0.912895,0.205728,0.352472,0.912929
0.525524,-0.679619,0.459992,-0.347185,-0.489693,0.799790
-0.149577,-0.726241,-0.960294,0.089520,-0.123610,-0.988285
0.310464,-0.339471,0.628502,0.960310,0.100435,-0.260225
0.385187,0.106784,0.656004,-0.666153,-0.677315,-0.312226
-0.639765,-0.081348,-0.012964,-0.334345,0.533297,-0.777051
-0.017735,-0.729310,0.734507,0.742980,0.665888,-0.067631
-0.078198,-0.535451,0.006390,-0.746576,-0.118227,-0.654712
0.036964,0.444335,0.833606,0.435773,-0.714572,0.547256
-0.061962,-0.070787,0.429937,0.745500,-0.033183,-0.665679
-0.344041,-0.015549,-0.416021,-0.881017,0.447268,0.154142
0.350995,0.232186,0.731954,0.644754,0.696735,-0.314409
-0.343206,-0.414004,0.156699,0.829461,0.116510,0.546279
-0.181306,0.567140,0.491918,0.633834,0.062877,-0.770909
0.152263,0.043168,0.704102,0.526109,0.367893,-0.766723
-0.448645,-0.363488,0.905762,-0.737866,-0.285556,-0.611565
0.345054,0.844796,0.688279,0.897222,0.190275,0.398482
0.021957,0.447346,0.850827,0.303421,-0.917614,-0.256751
0.398697,0.268716,0.624219,0.494610,-0.865682,0.077170
-0.079036,0.892186,0.590422,0.042444,-0.947147,0.317979
-0.267691,-0.577470,-0.966955,-0.018642,-0.007907,0.999795
0.305493,-0.209584,0.394061,0.704059,0.439999,0.557406
0.074634,-0.314921,0.855880,0.239405,0.195707,0.950991
-0.061830,0.562361,0.874553,-0.413023,0.424136,-0.805928
0.030848,0.670827,0.599951,-0.014362,-0.159782,0.987048
0.459647,0.610633,0.532096,-0.131598,0.473845,0.870720
-0.078376,0.290727,0.863276,0.110927,0.991307,0.070749
0.135406,-0.201264,0.467965,0.058679,0.590064,0.805221
0.233762,-0.161428,0.785140,-0.892847,0.279835,0.352870
-0.081105,0.647224,0.864273,0.664026,0.549937,-0.506595
0.563017,0.914020,0.681409,-0.205655,0.319908,0.924859
0.263509,-0.143606,0.800369,0.955665,0.208299,-0.208125
0.535908,-0.085717,0.118969,0.122081,0.691316,0.712165
0.758669,0.552625,0.060922,0.890732,-0.145900,0.430476
0.188083,0.922517,0.299718,0.023409,-0.440329,0.897531
-0.455333,-0.229236,0.173973,-0.050730,-0.468546,0.881981
-0.401031,-0.093861,0.880969,0.856046,0.090835,0.508855
-0.208504,0.143963,0.788515,0.926765,-0.375108,0.020017
-0.525788,0.006109,0.686584,0.211854,-0.403742,0.890006
0.451108,-0.519931,0.758372,-0.443409,-0.672534,0.592526
-0.135540,0.138887,0.531869,-0.313622,0.940069,-0.133830
-0.303336,-0.189990,-0.574407,0.911846,0.404044,0.072703
-0.131887,0.391460,0.907160,0.481158,0.651080,0.587010
0.510298,-0.269894,0.706428,-0.548066,-0.798605,0.248703
0.152263,0.296508,0.777255,0.872461,0.298210,0.387146
0.306503,-0.379304,0.771468,-0.213459,-0.308612,0.926927
-0.064382,0.098583,-0.120543,-0.362318,0.927578,-0.091243
-0.168456,-0.342187,-0.017073,0.726671,0.600243,0.334153
0.401160,-0.434833,0.339721,-0.798598,-0.571053,-0.190104
0.017998,0.099112,0.613973,-0.490173,0.099244,-0.865957
-0.204673,-0.106074,0.956308,0.622438,0.455581,0.636410
-0.566493,-0.114751,0.689678,0.734122,-0.102912,0.671174
-0.639368,-0.114632,0.468157,-0.590838,0.643121,0.487140
-0.322699,0.058098,0.902859,-0.548822,-0.311827,-0.775602
-0.181789,-0.922812,-0.959018,-0.126789,0.096246,0.987249
-0.132239,-0.053848,0.404411,-0.529896,0.829766,0.175209
0.285206,-0.227169,0.781574,0.862552,0.288389,-0.415735
0.538242,-0.609336,0.466042,-0.880333,0.064662,0.469928
0.140907,0.071965,0.588831,0.188544,-0.581120,0.791676
-0.286877,-0.623380,0.637209,-0.051045,-0.422594,0.904880
-0.646585,-0.171578,-0.013034,-0.620648,0.607778,-0.495380
0.459074,-0.405507,0.480868,-0.067662,0.812416,0.579140
-0.096814,0.731374,0.580212,0.932269,-0.334643,0.137436
-0.235258,-0.176890,-0.616998,0.930836,0.155936,-0.330496
0.048626,-0.682453,0.497076,0.678153,0.186170,0.710950
-0.127971,-0.531143,0.815090,-0.058108,-0.311370,0.948511
0.196575,0.073384,0.133743,0.539883,0.321069,0.778101
-0.459383,-0.199845,0.483858,-0.520459,0.715211,-0.466471
-0.199656,0.103067,0.584128,0.949282,0.278414,0.146113
-0.147729,-0.236317,0.635408,0.786709,-0.568905,-0.239658
0.349719,0.535628,0.578848,0.024984,-0.316993,0.948099
-0.418721,0.167745,0.816244,0.966552,0.061961,0.248875
-0.523897,0.381310,0.389497,-0.230389,0.365901,-0.901686
0.075824,0.289488,0.864814,0.960155,-0.278737,0.020215
0.384747,0.009235,0.747288,0.966837,-0.212635,0.141465
-0.065394,-0.713966,-0.952863,0.180510,-0.207334,-0.961472
0.338629,0.167212,0.681129,0.749890,0.552101,0.364485
-0.371943,-0.244991,-0.379374,-0.289197,0.957159,0.014550
0.197413,-0.229117,0.913070,0.649530,0.371843,0.663207
0.313105,0.254140,0.605353,-0.223945,0.934087,0.278082
-0.471483,0.667405,0.361803,0.029672,0.667956,0.743609
0.133867,0.858487,0.648486,-0.119949,0.962062,0.245049
-0.106057,-0.614825,-0.961920,-0.141567,0.126998,0.981749
-0.253520,0.335401,0.884169,0.014832,-0.988761,0.148770
-0.208195,-0.213125,0.604095,-0.052110,0.404075,0.913240
-0.188875,0.154112,0.552849,0.178189,-0.950451,0.254740
0.437775,-0.407748,0.297777,-0.146104,-0.989224,-0.009473
0.339596,-0.357055,0.843292,0.873887,0.027617,-0.485343
-0.365913,0.002864,0.672964,-0.169447,-0.961214,-0.217612
0.511396,-0.038446,0.877753,-0.146491,0.628989,-0.763487
-0.699482,-0.005280,0.858940,-0.585242,-0.810486,-0.024588
-0.286305,0.217963,0.597293,-0.788799,0.590722,0.169831
0.127222,0.475495,0.847960,-0.061944,-0.647693,0.759379
0.150898,0.667819,0.128900,0.043108,0.486945,0.872368
-0.316054,-0.077454,-0.137747,-0.626581,-0.746619,0.223510
0.543171,-0.019738,0.892946,0.439972,0.221070,-0.870375
0.139279,0.909947,0.563095,-0.435966,0.210194,-0.875073
-0.512455,0.176300,0.865601,-0.266083,0.773733,-0.574923
-0.204453,-0.790210,0.727094,-0.270770,0.123808,-0.954649
0.452604,-0.323064,0.613466,-0.531402,-0.147701,-0.834144
-0.081765,0.479922,0.627768,-0.389390,-0.190546,-0.901148
-0.113360,-0.201441,0.867664,0.032368,0.996411,-0.078218
-0.311874,-0.280692,0.453471,-0.369264,-0.058331,0.927492
-0.191472,-0.290313,0.451023,-0.195119,0.875801,-0.441476
-0.213078,-0.346494,0.738633,0.886581,-0.445819,0.123369
0.442615,-0.290313,0.580876,-0.560793,0.813241,-0.155404
0.702826,-0.100823,0.559213,0.756150,-0.050201,0.652470
-0.481827,0.086542,0.696375,0.755192,0.505832,-0.416917
0.365867,0.645156,0.517829,-0.563708,0.782716,0.263796
-0.057605,0.873125,0.191020,0.935483,-0.295563,-0.193683
-0.287097,-0.122362,-0.629027,0.897089,-0.006170,-0.441806
0.720558,-0.395534,0.497548,0.865166,-0.315949,0.389439
-0.361997,0.333805,0.879326,0.230912,0.770205,0.594528
-0.305052,0.197191,0.599356,0.913358,-0.051685,0.403864
0.726897,-0.343541,0.513878,0.256463,-0.886730,0.384625
-0.227998,0.323597,0.939523,0.770173,-0.416099,0.483419
0.308265,0.379127,0.677282,-0.640186,-0.224970,-0.734541
-0.059144,0.500870,0.854954,0.035793,-0.289695,0.956449
-0.055054,-0.260158,0.148027,-0.231579,-0.185842,0.954900
0.158158,-0.208875,0.484697,0.098447,0.921086,0.376707
-0.082821,0.705646,0.259662,-0.703305,0.353745,-0.616625
-0.018702,0.849104,0.576627,0.580435,0.208034,-0.787285
-0.222583,0.066361,0.198189,-0.378192,0.922688,-0.074945
0.455596,0.852234,0.570403,0.154044,0.946789,-0.282597
-0.069883,0.458026,0.575596,0.819997,0.536938,0.198246
0.219503,-0.492078,0.774545,0.132277,-0.177492,0.975192
0.338761,-0.091498,0.874361,0.974617,0.161194,-0.155362
-0.388840,0.685580,0.591436,0.872895,0.332877,0.356718
0.340257,0.230356,0.630565,-0.431991,0.886533,0.165658
0.263114,-0.092737,0.136383,-0.167584,0.495695,0.852175
-0.165905,0.690244,0.815108,0.962067,0.140688,-0.233737
-0.213650,0.403678,0.883540,-0.735673,0.215395,0.642176
0.421667,0.158125,0.474801,0.776559,0.312380,0.547152
-0.208106,0.082234,0.862157,0.947744,0.314854,-0.051470
-0.330797,-0.562245,-0.982359,-0.288455,0.028200,0.957078
0.149797,0.316988,0.781801,0.794884,-0.115983,0.595573
-0.244852,-0.347672,0.466129,-0.186766,-0.024435,0.982101
0.068561,-0.117582,0.840250,0.722442,-0.343253,-0.600212
0.322390,0.659971,0.543425,0.805060,0.028209,0.592522
0.072786,-0.055915,0.815248,0.503601,0.040788,-0.862973
0.231296,-0.461332,0.861982,0.705732,0.045781,-0.706998
-0.543786,0.027824,0.655969,0.873319,0.156776,0.461232
0.274556,0.141661,0.551048,-0.569776,-0.066343,-0.819117
-0.132943,-0.879201,0.055607,-0.682389,-0.339710,-0.647258
-0.391526,-0.600367,-0.987097,-0.185174,0.192909,0.963585
0.422285,-0.398365,0.592188,0.815726,-0.558429,-0.150827
0.071862,0.354577,0.389218,0.859674,0.435723,-0.266657
0.301794,-0.171758,0.513161,-0.036386,0.198862,0.979352
-0.333085,-0.691365,-0.977131,-0.001307,0.184151,0.982897
-0.245293,-0.092384,-0.304281,0.905440,0.344019,0.248656
-0.075426,0.581540,0.386578,0.806714,0.265373,-0.528005
-0.184696,-0.848632,-0.961658,-0.150911,0.112542,0.982120
-0.667138,0.285829,0.803446,-0.158376,0.793965,-0.586972
0.355352,0.569208,0.563427,-0.146665,0.986694,0.070174
0.238954,-0.118407,0.754369,-0.402318,0.905719,0.133467
-0.430117,0.020095,0.704610,0.809237,0.001149,0.587481
-0.168545,-0.093918,0.952374,0.101465,0.744312,0.660079
-0.155959,-0.734796,-0.961203,-0.132413,0.109078,0.985175
0.662383,0.804906,0.110856,-0.631985,0.064082,-0.772326
0.408114,-0.031012,0.087533,0.822212,0.213324,0.527693
-0.181878,0.132101,0.779056,0.970881,-0.110107,0.212758
-0.140337,-0.242632,0.616631,-0.126598,0.987820,-0.090471
0.276095,-0.224395,0.157416,0.863375,-0.476144,0.166945
0.615911,0.935912,0.694504,0.811063,-0.075078,-0.580120
-0.840388,0.065828,0.902684,0.151550,-0.632108,0.759916
0.059365,-0.525478,0.892264,0.916324,-0.024774,0.399670
-0.059233,-0.187750,0.832679,-0.213498,-0.603494,-0.768254
0.484422,0.454547,0.577292,-0.360540,-0.739799,-0.568074
-0.426113,0.217786,0.505188,0.412179,0.905756,-0.098562
-0.134571,0.724059,0.861912,-0.377646,0.278403,0.883106
-0.228218,-0.127437,-0.819356,0.876269,-0.472961,-0.091981
0.253609,0.770796,0.697424,-0.667077,-0.726179,0.166353
-0.281421,0.343069,0.594741,0.916277,-0.236148,0.323527
-0.298716,0.059398,0.927407,-0.297840,0.722607,0.623803
0.785292,-0.174470,0.531082,-0.721991,-0.437446,-0.536069
0.404945,0.467999,0.156769,0.984519,0.115002,0.132277
-0.215280,-0.509075,-0.974071,-0.214056,0.132922,0.967735
0.669644,0.106017,0.544510,-0.450794,0.238421,-0.860198
0.049244,-0.048538,0.519210,-0.190804,-0.887614,0.419208
0.426465,0.403382,0.542569,0.871525,-0.101972,0.479630
0.442089,-0.507717,0.585527,0.959700,-0.187783,0.209078
0.591488,-0.329793,0.648101,0.900172,0.112009,0.420885
0.342282,0.916909,0.687283,-0.384134,0.126170,-0.914616
-0.159786,0.268064,0.920745,-0.085907,0.264840,0.960458
-0.263643,0.601311,0.671950,0.399916,-0.246871,0.882679
-0.223507,-0.233072,0.599689,0.196864,0.487469,0.850658
-0.348750,-0.459974,0.854849,-0.440452,-0.085216,-0.893722
-0.489087,0.624680,0.702547,0.928052,0.275205,0.250964
-0.068475,-0.584019,-0.037110,0.842424,0.158138,0.515087
0.695520,0.719866,0.127799,0.808949,0.070664,0.583616
-0.131447,-0.486354,0.427525,-0.590279,0.632527,0.501478
0.050872,-0.461037,0.902824,0.952383,-0.303052,-0.033558
-0.491990,0.239444,0.713107,-0.766150,0.468121,-0.440315
0.306151,-0.132217,0.845932,0.518382,0.854475,-0.033950
-0.194201,-0.274911,-0.117256,0.868909,0.468378,0.160060
0.443805,-0.317283,0.835494,0.553139,0.832385,0.034237
-0.401910,-0.327549,0.687738,-0.442320,-0.167666,-0.881046
-0.210967,0.130272,0.750592,0.747555,-0.632857,-0.201628
-0.213298,-0.464520,0.064944,0.922184,-0.068889,0.380566
0.693847,-0.356173,0.517969,0.182215,0.971764,-0.149910
-0.227206,0.554102,0.665201,0.499587,-0.010167,-0.866204
-0.349236,0.539759,0.563287,0.664026,0.744573,0.068414
-0.030980,-0.861909,-0.942968,-0.347251,0.059869,0.935859
-0.321643,-0.117229,-0.342151,0.836168,-0.341302,0.429343
-0.156574,-0.109615,0.960679,-0.156364,-0.673193,-0.722746
0.707974,-0.618600,0.776661,0.047038,0.449818,0.891881
0.828551,0.766308,0.028018,0.942098,-0.297852,0.154062
0.286965,-0.069959,0.765366,0.667513,0.054058,-0.742633
-0.290529,0.065240,0.362869,0.999255,0.036333,-0.013026
0.037891,0.540173,0.403729,-0.327412,-0.903959,0.275061
0.200054,0.008234,0.392365,-0.808043,0.125385,-0.575626
-0.220913,-0.671360,0.468822,0.640768,-0.160138,-0.750847
-0.257218,0.456020,0.617138,-0.116407,-0.718799,0.685403
0.477645,-0.325013,0.157451,0.138778,0.699883,0.700646
-0.311434,-0.094566,0.880532,-0.863686,0.434617,0.255255
0.776227,-0.164381,0.530015,0.834506,0.071792,0.546302
-0.339773,-0.831224,-0.965767,0.123750,-0.024927,-0.992000
-0.390602,-0.022926,0.657106,0.157385,0.449458,0.879328
-0.149974,0.558586,0.423923,-0.301468,0.911678,0.279212
0.400371,-0.392170,0.262057,-0.163227,-0.986582,0.003584
-0.399930,0.062878,0.649920,-0.655752,-0.039932,0.753920
-0.151997,-0.566964,-0.967637,-0.135546,0.122888,0.983121
-0.038154,0.720576,0.889729,0.863414,0.478581,0.159614
-0.261927,-0.373166,0.127169,-0.874181,0.237981,-0.423288
-0.755854,-0.005342,0.848607,0.280517,-0.916583,-0.284930
-0.004182,-0.098403,0.804810,-0.247772,0.779687,0.575063
-0.417929,-0.179606,0.691497,-0.228188,0.370060,0.900548
-0.486535,0.158539,0.848047,0.214565,-0.790919,0.573069
0.646673,-0.380543,0.480921,0.061876,0.931569,-0.358260
0.160315,0.891476,0.633450,-0.405112,0.898507,0.169024
0.265534,-0.129033,0.815580,0.863534,-0.503890,0.020096
-0.273941,0.533978,-0.790910,0.985033,0.047101,0.165804
-0.505853,0.107670,0.926480,-0.349939,0.037390,0.936026
0.050520,-0.478916,0.912825,0.989750,-0.127375,0.064584
-0.247227,0.113808,0.840862,0.901427,0.057688,0.429070
-0.037802,0.435485,0.525644,0.916589,0.399622,0.012904
0.109487,-0.999528,0.496481,0.670240,0.340005,0.659678
0.359929,-0.216900,0.878487,-0.632517,0.163711,0.757047
-0.400325,-0.826207,-0.975103,-0.187386,0.197903,0.962144
-0.290398,-0.584847,-0.969875,-0.152948,-0.010086,0.988183
-0.266724,-0.231538,0.655900,0.766759,0.444345,0.463291
0.358870,-0.071907,0.910098,-0.349223,0.917710,0.189345
-0.341226,0.040337,0.111591,0.981003,0.192200,-0.026302
0.227995,-0.256084,0.473525,0.043002,0.277550,0.959748
0.271696,-0.113275,0.864447,0.073793,0.984764,0.157466
-0.654242,0.402791,0.854219,-0.252978,0.920627,-0.297403
-0.036746,0.638133,0.890551,0.614532,0.688817,-0.384555
