-0.567510,-0.564169,0.155490,-0.209636,0.302314,-0.929871
0.398784,-0.110709,0.574393,0.059439,0.824677,0.562472
-0.007952,0.501751,-0.040378,0.593289,0.030020,-0.804429
-0.004205,-0.548302,0.521113,-0.057668,0.499125,0.864609
0.346929,-0.858297,0.470107,-0.082904,0.769337,0.633440
0.454474,0.056152,0.193777,0.337607,-0.884971,-0.320700
0.842474,-0.110041,0.367420,0.136602,-0.097129,-0.985853
0.150358,-0.092698,0.399869,0.845781,-0.455091,0.278472
0.817287,0.386778,0.130493,0.054587,0.657248,0.751695
0.064035,-0.096558,0.222500,0.761729,-0.614208,-0.206197
-0.187005,0.586849,0.125417,0.945378,0.041282,-0.323353
0.299911,0.264229,0.332507,-0.450916,-0.607981,0.653478
-0.073708,-0.344467,0.507999,0.810806,-0.172043,0.559459
0.141034,0.020655,-0.991066,-0.188603,-0.091128,0.977816
0.576835,-0.204336,0.397757,0.571969,0.189738,0.798029
0.007822,-0.262704,0.806362,0.828134,0.545953,0.127001
0.126784,-0.039190,-0.312908,-0.476501,0.072933,-0.876144
-0.413992,-0.476641,-0.035596,0.925771,-0.199962,0.320880
0.989847,-0.370053,-0.504625,-0.488045,-0.796723,0.356433
-0.303222,0.073592,0.650176,0.907782,-0.227069,0.352663
-0.349979,-0.342895,0.635051,-0.537655,-0.811219,-0.229892
-0.848312,0.010268,-0.216984,-0.229804,0.198798,-0.952717
0.258994,-0.072257,0.744589,-0.256417,0.945432,-0.201019
0.386932,-0.262037,0.509187,-0.479227,0.305709,0.822729
0.434821,0.249410,0.544218,-0.571698,0.603547,-0.555781
0.583502,0.472257,0.417444,-0.026029,-0.768887,0.638855
0.451468,-0.740845,0.394016,-0.482152,0.092460,-0.871195
-0.385362,-0.035331,-0.349670,-0.005062,0.835150,0.549999
-0.271891,-0.142680,0.812641,0.269655,-0.956882,0.107993
0.345883,0.076164,0.318380,0.349261,0.038991,-0.936214
0.083252,-0.477975,0.509964,-0.249748,0.190410,0.949405
-0.484411,0.137773,-0.392271,-0.513303,0.576696,0.635565
-0.506547,0.313067,0.192178,0.267553,0.280086,0.921936
0.135194,-0.472019,0.523974,0.382382,0.650995,-0.655736
0.569079,0.258988,0.107799,0.348307,0.032346,-0.936822
0.310761,0.574937,0.326698,-0.070622,-0.503373,0.861179
-0.068130,-0.171554,0.825491,-0.341682,-0.848739,-0.403603
0.352289,-0.489172,0.557919,0.183760,0.863140,-0.470342
0.496656,-0.443336,0.655354,0.549509,-0.678452,-0.487589
0.627165,0.300488,0.540858,0.717687,0.552105,-0.424388
0.099680,-0.341608,0.865642,0.509289,0.841614,0.179750
-0.011961,-0.806170,0.568114,0.017533,0.995842,0.089389
-0.182648,-0.147064,0.594520,-0.332475,-0.070083,0.940505
0.167745,-0.186944,0.602456,-0.282527,0.782164,-0.555336
0.524022,-0.028755,0.678239,0.090839,-0.765801,0.636629
-0.284310,-0.474592,-0.217307,-0.043773,0.313434,0.948601
0.314858,-0.054961,0.720824,-0.008245,-0.982380,0.186710
0.669913,-0.596188,0.307613,-0.131068,-0.043616,0.990413
0.334902,-0.542680,0.432377,-0.618282,-0.710449,-0.336139
0.308278,0.565789,0.392491,-0.280836,-0.369295,0.885862
-0.028694,0.569172,0.171348,-0.653172,0.682093,-0.328811
0.485151,-0.121191,0.399473,0.262059,0.306782,0.914992
0.617622,0.375819,0.067091,-0.666132,0.671202,0.325201
-0.831622,-0.108374,-0.404124,-0.772939,0.490367,-0.402623
0.442971,0.353424,-0.836361,0.861029,-0.491754,0.129644
0.537660,-0.195997,0.479760,0.199232,0.909213,0.365566
0.113014,0.928148,0.295085,0.272119,-0.506067,0.818442
0.181690,-0.014366,-0.578192,0.051979,-0.967915,0.245843
0.177332,-0.232781,0.408583,0.485165,0.389770,0.782748
-0.765736,0.185372,-0.231903,0.144516,-0.569152,-0.809432
-0.215243,0.421656,0.582652,-0.509840,0.481264,-0.713055
0.176765,-0.850006,0.294263,0.101419,0.654738,0.749021
0.500272,-0.578082,0.277980,0.788898,0.242527,-0.564641
-0.353378,-0.217201,0.525499,0.269748,-0.694759,0.666743
0.100203,-0.101132,0.858336,0.744702,0.345961,-0.570727
-0.640978,-0.095366,0.508732,0.665313,-0.574731,0.476491
-0.315685,-0.035950,0.437365,-0.011514,0.860626,0.509108
0.286882,-0.762335,0.444890,-0.098975,0.587628,0.803055
0.214938,-0.719357,0.503671,0.567881,0.803509,-0.178559
0.565331,0.228732,0.505109,-0.806314,-0.156281,0.570469
0.239646,-0.731650,0.261008,0.878626,0.162441,0.449030
0.222869,0.188755,0.727484,0.939690,-0.143745,0.310356
0.276249,-0.581370,0.763395,0.359668,-0.894768,0.264628
0.166525,0.660703,0.118596,-0.211738,-0.141605,0.967013
0.128266,-0.141108,0.397478,0.560977,0.296553,0.772891
-0.586508,0.307254,0.181777,0.775799,-0.551545,0.306487
0.160948,0.094223,0.842288,0.399741,-0.418291,-0.815622
0.183912,0.280953,0.357196,0.441417,-0.553872,0.705958
0.263612,-0.130053,0.782598,-0.230036,0.966220,-0.116197
0.237293,-0.480929,-0.421243,-0.683516,-0.189033,0.705034
0.225135,0.344086,0.598275,-0.840545,0.403038,-0.362000
-0.543151,0.288767,0.182892,-0.169012,-0.909194,0.380529
-0.456391,-0.616819,-0.053184,-0.572533,0.349081,-0.741855
0.210580,0.313210,0.498067,0.923207,-0.034035,-0.382794
0.108918,-0.102799,0.733440,-0.634776,0.711188,0.302112
0.064776,-0.186849,0.632440,0.963086,-0.245209,0.111080
0.269103,0.264800,0.697984,-0.590208,0.654977,-0.471868
0.837157,0.209006,0.188907,-0.245747,0.314805,0.916791
-0.168486,-0.459916,0.525646,-0.667861,0.594196,-0.448210
0.698848,-0.362763,0.606563,0.781694,-0.408762,-0.471028
-0.242521,-0.508612,0.551728,-0.725237,0.519342,-0.452013
0.310805,0.059488,0.437174,0.423336,0.511596,-0.747701
0.159771,-0.798261,0.347470,-0.422636,0.199523,0.884064
0.233632,-0.449815,0.696399,0.998191,-0.058663,0.013138
0.121773,-0.071209,0.943889,0.154770,0.705717,0.691383
0.513650,-0.070494,0.233708,0.799203,0.012380,-0.600934
-0.234459,-0.820845,0.562100,0.057947,0.933481,0.353915
-0.288842,-0.039428,0.434622,-0.014966,0.790857,0.611818
0.323224,0.715879,0.329573,-0.560171,-0.364091,0.744074
-0.045471,0.161310,0.285139,0.077000,0.171336,0.982199
-0.112970,-0.376867,0.313745,-0.399665,-0.153005,-0.903801
0.048827,0.146492,0.185533,-0.515302,-0.299840,0.802844
-0.398043,-0.200858,0.583444,-0.295079,0.685970,0.665112
0.209709,-0.227874,0.821032,0.158180,-0.215089,0.963699
-0.167135,-0.033663,0.430529,-0.040641,0.888406,0.457257
-0.336601,-0.494794,0.568540,-0.424938,0.892422,-0.151694
-0.265834,-0.362716,0.116278,-0.635782,0.575818,-0.514018
0.110095,-0.686051,0.543308,-0.427561,0.552227,0.715707
0.329804,-0.506849,-0.280445,-0.536445,0.128980,0.834021
0.442752,-0.514902,0.408099,-0.634419,0.729609,-0.255311
0.082903,-0.084741,0.934471,0.985501,-0.010642,-0.169337
0.418176,-0.293007,0.518649,-0.509071,0.405823,0.759048
0.167876,0.057296,0.338375,-0.732178,0.103129,0.673260
-0.453166,-0.516093,0.123525,0.575752,-0.758759,0.304622
0.280432,0.658320,0.338184,0.542996,0.214040,-0.811999
0.055625,0.275616,0.188144,0.451764,0.566510,-0.689185
-0.298516,-0.746563,0.367479,0.834540,0.188194,0.517809
0.717498,-0.370149,0.616010,0.814816,-0.212003,-0.539565
0.184130,-0.004836,-0.571591,-0.198020,0.963965,-0.177649
0.047258,0.642073,0.249785,0.283343,0.356378,-0.890343
0.038238,-0.011650,0.829569,0.442599,0.036873,-0.895961
0.122601,-0.111853,0.633496,-0.104485,-0.557354,-0.823674
-0.103340,-0.193234,-0.002310,-0.482149,0.794571,0.369038
0.493126,-0.238404,-0.603893,0.472867,0.345779,-0.810452
0.217727,-0.100846,0.894057,-0.666080,0.076767,0.741920
-0.521929,-0.637451,0.086704,0.062856,-0.068390,0.995677
0.391464,-0.393020,0.599932,-0.347823,-0.346738,0.871087
0.247533,0.479786,0.106039,0.386467,-0.242499,0.889852
0.309367,-0.485884,0.721778,-0.251139,-0.309915,0.916996
-0.392945,-0.639547,-0.056016,0.356834,-0.214285,0.909259
-0.881212,0.018368,-0.218217,-0.205330,-0.034836,-0.978073
-0.810750,0.255700,-0.237976,0.158202,-0.223017,0.961892
0.348803,-0.577225,0.586524,0.303016,-0.946210,-0.113438
0.457394,-0.167886,0.379552,-0.537704,-0.319467,0.780266
0.170970,-0.258130,0.819271,-0.251613,0.819920,-0.514220
0.031919,-0.042573,0.916340,0.231538,0.838677,-0.492961
0.464235,-0.270756,0.605932,0.142559,0.261602,0.954590
-0.125738,-0.161405,0.480669,0.050157,-0.066256,0.996541
0.393861,-0.184991,0.232431,-0.017551,0.766585,0.641903
0.561105,0.413508,0.404432,-0.208784,0.597998,-0.773827
0.116543,0.094128,0.190726,0.878899,0.391900,-0.271940
0.209666,-0.277570,0.758760,0.871267,0.164426,-0.462448
0.266488,0.569458,0.325289,0.035763,-0.575098,0.817302
-0.556093,-0.247218,0.564843,0.832657,0.516071,0.200882
-0.354162,-0.322835,-0.020823,-0.266836,0.156156,0.951007
0.170752,-0.261417,0.482444,0.741752,-0.139259,-0.656057
0.173803,-0.094508,0.788011,0.928816,0.366925,0.051648
0.220603,-0.938249,0.370677,-0.672110,-0.421323,-0.608897
-0.144780,0.030947,0.613986,-0.389772,0.617933,-0.682816
0.211191,0.456248,0.516228,0.647668,0.168293,-0.743104
0.498268,-0.139059,0.388105,0.408758,-0.740899,-0.532903
0.124910,0.188374,0.342248,-0.131336,0.242009,-0.961344
0.109746,-0.140345,0.938696,0.464270,0.813557,-0.350111
0.762599,-0.169172,0.354042,0.320843,0.364701,-0.874101
0.223784,0.269375,0.518737,0.366612,0.204157,-0.907698
-0.173279,-0.400072,0.320801,-0.098553,0.204297,0.973935
0.150489,-0.326647,0.868796,0.572196,0.819935,0.017278
0.547727,0.153782,0.275574,0.223815,0.359115,-0.906059
0.617099,0.225730,0.296185,-0.067167,-0.794277,0.603832
0.293200,0.135247,0.436279,-0.492519,-0.457122,0.740584
0.187965,-0.864253,0.243962,0.773131,0.520038,-0.363082
-0.003638,-0.327171,0.655178,0.317098,0.365397,0.875176
0.180121,-0.565074,0.281604,0.447368,0.330091,0.831205
0.779768,0.215581,0.293985,-0.281446,0.890332,-0.357907
0.291544,-0.321262,0.766021,0.720125,-0.131093,0.681348
-0.188400,-0.197951,0.791135,0.759459,-0.174701,0.626660
0.566682,-0.382442,0.563552,0.723281,0.417744,-0.549868
0.148747,0.365813,0.060651,0.078181,0.576255,-0.813522
0.422533,-0.295675,0.674938,0.503049,-0.039881,-0.863337
-0.216158,-0.799643,0.535915,0.062786,0.794848,0.603552
0.438220,0.315307,0.466088,-0.699503,0.443012,0.560746
0.191451,-0.089220,0.863661,0.952194,-0.047078,0.301846
-0.255507,-0.612055,0.356477,0.517083,0.482266,0.707139
0.447023,0.337797,0.319627,0.358004,0.650651,0.669691
-0.312635,0.482788,0.307451,0.794640,0.361873,-0.487437
0.548467,0.337797,0.519353,-0.726839,0.203280,0.656036
-0.120204,-0.683097,0.092117,0.422216,-0.478933,-0.769647
-0.346101,-0.413842,-0.230862,-0.133481,0.681396,0.719640
-0.127481,0.857582,0.204691,0.443704,0.741784,-0.502876
-0.534392,-0.059583,0.471295,0.462082,-0.148250,-0.874358
0.245746,-0.385396,0.698644,0.914985,0.087444,-0.393899
-0.077238,0.222299,0.539391,0.111168,-0.429283,0.896302
0.301000,-0.633591,0.542956,0.556481,0.764114,0.326281
-0.869838,-0.212007,-0.234236,-0.616654,-0.012950,-0.787128
0.130706,-0.014556,0.652992,0.868083,-0.494556,-0.042968
-0.097500,-0.577891,0.068910,-0.187134,0.439788,0.878389
0.382400,0.278189,0.364633,0.535331,0.108830,-0.837602
0.490860,-0.397165,0.351357,0.788016,0.573490,-0.223920
0.464235,-0.008981,0.732545,0.450817,0.396956,-0.799493
-0.071878,0.085217,-0.498317,0.131969,0.844659,0.518783
0.177289,-0.030614,0.812626,-0.260650,-0.565203,0.782692
-0.396300,0.188707,0.166198,-0.072865,-0.717894,0.692329
0.649302,-0.516951,0.306762,-0.007533,0.271930,0.962288
0.043554,-0.007552,-0.302596,0.048374,-0.864992,0.499448
0.271804,-0.471685,0.533303,0.689490,-0.108288,-0.716155
0.237684,-0.116093,0.911528,0.246134,-0.710903,0.658814
0.740898,-0.646552,0.310972,0.593302,-0.112478,-0.797083
-0.174238,-0.795831,0.098191,-0.265922,0.003433,0.963988
-0.102817,-0.658225,0.536399,-0.101123,0.801475,0.589417
0.577576,0.267802,0.109735,0.350541,0.051301,-0.935141
0.290193,-0.136819,0.578808,-0.105448,0.732877,0.672140
0.184217,-0.008553,0.902462,0.940785,-0.050173,-0.335270
0.680546,-0.528148,0.303491,0.127269,0.276467,0.952559
0.479836,-0.083025,0.656953,0.074548,-0.885491,0.458637
-0.134976,-0.385491,0.326302,0.318239,0.269731,0.908829
-0.005861,-0.321596,0.659784,0.748914,0.397457,0.530241
-0.527637,-0.292293,-0.032075,0.388282,-0.839648,-0.379774
0.172277,-0.314354,0.347661,0.957872,0.277011,-0.075806
-0.509205,0.300869,0.202374,-0.485947,-0.077515,-0.870544
0.248404,-0.039428,-0.350521,-0.106328,0.986447,0.124969
0.037062,-0.623490,0.293354,0.894393,-0.205883,-0.397080
0.525111,-0.318213,0.544511,-0.332328,0.562335,0.757190
0.324444,0.287290,0.680688,-0.372063,0.489248,-0.788800
-0.272850,0.009315,0.624636,0.901018,-0.239966,0.361362
0.637667,-0.191995,0.427184,-0.340419,-0.037505,0.939526
-0.104124,0.631590,0.201273,0.761907,0.581068,0.286106
0.428678,0.046384,-0.277907,0.999868,-0.013311,-0.009307
0.528597,-0.079166,0.675085,-0.241629,0.924471,-0.294903
0.216725,0.468732,0.511167,0.745094,0.122452,-0.655623
0.217291,-0.529243,0.543924,0.092967,0.284888,0.954042
0.153278,0.128862,0.234221,0.881734,-0.073817,-0.465936
0.271717,-0.230160,-0.985829,-0.136571,0.017612,0.990474
-0.069569,-0.273805,0.786060,-0.623228,0.139054,0.769578
0.722815,-0.563979,0.307935,-0.133314,0.278861,0.951033
0.558185,-0.457344,0.654048,0.656169,-0.574802,-0.488923
0.688738,0.391018,0.099555,-0.329347,0.907943,0.259173
0.388675,-0.352424,0.492522,-0.674704,-0.595820,0.435630
-0.301523,0.102609,0.190858,0.486534,0.656787,0.576121
0.066780,-0.142585,0.730403,0.786223,-0.604013,-0.130464
0.206659,-0.535056,0.707651,-0.723561,0.645767,0.243814
0.275726,0.541679,0.532482,-0.124946,-0.783188,0.609102
0.744864,-0.228303,0.462112,-0.751450,0.013906,0.659643
0.180252,0.709970,0.122791,0.067223,0.070500,0.995244
0.280128,-0.547350,0.523768,0.255025,-0.654441,0.711807
0.084080,-0.075593,0.952251,0.814158,-0.573776,-0.089040
0.115062,-0.043860,0.852747,0.725837,-0.211104,0.654672
0.489596,0.139440,0.500972,-0.270851,-0.961919,-0.036762
-0.415169,-0.354949,0.651129,0.874790,-0.111361,0.471530
-0.020022,-0.053723,-0.822352,0.223039,0.864131,-0.451145
0.880079,-0.149542,0.364545,-0.220996,-0.162195,0.961693
-0.521886,-0.214818,0.581156,-0.586777,-0.147543,-0.796193
0.298909,-0.421132,0.547768,0.889896,0.083149,-0.448520
0.228882,-0.454294,-0.427698,0.498997,0.430273,-0.752242
0.582544,0.288577,0.360203,-0.299936,0.798578,-0.521835
0.175982,0.170507,0.820782,0.377873,0.818127,-0.433452
0.196680,0.062918,0.449071,0.947503,-0.083052,0.308771
0.139770,-0.020369,0.165260,0.156340,-0.598923,0.785397
0.639192,-0.347707,0.260670,-0.388370,0.260338,0.883965
0.156459,-0.271471,0.550349,-0.045094,0.179945,0.982643
-0.626990,0.268231,0.197298,-0.414917,0.838853,-0.352378
0.578579,-0.246742,0.402569,0.566803,0.186424,0.802484
-0.682027,-0.090983,0.502732,0.853527,-0.029603,0.520208
0.316339,-0.114758,0.625648,-0.192594,-0.784557,0.589388
0.259168,0.386301,0.504463,0.031833,-0.973308,0.227283
0.019631,0.079261,-0.467775,-0.010372,0.925170,0.379411
-0.195329,-0.464967,0.467511,0.122351,0.901139,0.415908
-0.104080,0.490220,0.180824,0.126820,0.754816,0.643560
0.260039,0.527767,0.375415,0.781156,0.223445,-0.582982
0.104038,-0.252459,0.213889,0.204344,0.106069,-0.973135
0.340262,0.373437,0.269663,-0.561644,0.476833,-0.676155
-0.102076,-0.721214,0.468244,0.923787,-0.380593,0.042025
-0.136501,-0.163311,0.767517,0.058522,-0.136706,0.988881
-0.247488,-0.037665,0.484454,-0.149545,0.676851,0.720770
-0.186701,-0.070684,0.477324,0.106909,0.373128,0.921600
0.123080,-0.577844,0.666767,-0.273338,0.651868,0.707358
-0.343268,-0.411316,0.121295,-0.259031,0.800713,-0.540150
0.331067,-0.503847,0.569332,0.611557,0.591336,-0.525662
0.178160,0.060203,0.894071,-0.008771,0.997954,0.063332
-0.609473,-0.089124,-0.277628,-0.310604,-0.575334,-0.756648
0.121424,-0.618297,0.541342,-0.149131,0.292387,0.944600
0.246095,0.334842,0.690619,0.947673,-0.272733,0.165928
-0.186047,-0.409601,0.712301,-0.574854,-0.592453,-0.564396
0.469769,-0.002883,0.154859,-0.348681,0.936055,-0.047151
-0.250103,-0.527624,-0.213610,0.163848,0.136693,0.976969
0.018847,0.368862,0.192838,0.678441,0.218526,-0.701401
-0.134409,0.025467,-0.284450,0.146270,-0.458009,0.876831
0.120161,-0.707445,0.337568,-0.420051,0.060960,0.905451
0.423492,-0.105515,0.647403,0.095293,-0.664661,0.741044
-0.170229,-0.009505,0.756970,-0.533243,0.737249,-0.414869
0.011875,0.408315,0.197518,0.676828,0.474849,-0.562514
0.541408,0.062203,0.257091,-0.132412,-0.807809,0.574380
-0.032180,-0.040762,0.820489,0.583193,-0.582528,-0.566168
0.045428,-0.898225,0.308097,-0.542640,-0.108229,0.832964
-0.806566,0.135295,-0.215987,-0.431675,0.242813,-0.868734
0.132144,0.741370,0.128468,-0.011078,0.263692,0.964543
-0.572433,-0.041716,-0.298532,0.566790,0.564417,0.600151
0.281304,-0.752424,0.604084,-0.278502,0.869516,0.407896
0.749003,-0.226063,0.331568,-0.198318,-0.543639,0.815553
-0.817460,0.232877,-0.238417,0.153762,-0.117090,0.981146
0.279779,-0.119904,-0.981355,0.213264,0.043453,-0.976028
-0.247532,-0.416652,-0.215473,-0.028566,0.424853,0.904812
-0.299823,-0.584324,0.475608,0.410477,0.345469,-0.843895
-0.621369,-0.076450,0.497099,0.340488,0.465463,0.816953
-0.356428,-0.482930,-0.068763,-0.276092,-0.316325,-0.907586
-0.080244,0.002644,0.722966,0.923927,-0.136787,0.357280
-0.002461,-0.799452,0.551127,-0.661764,-0.674161,-0.327987
0.498050,0.268851,0.515773,-0.553483,0.388509,0.736694
0.244613,-0.131435,-0.991257,-0.174833,0.066265,0.982366
-0.411726,-0.417272,0.668630,0.999103,-0.017186,0.038694
0.741465,-0.252412,0.329470,-0.198318,-0.543639,0.815553
0.615530,-0.123621,0.364516,-0.449713,-0.854821,-0.258919
0.415474,-0.162930,0.230099,-0.052057,0.730248,0.681196
-0.116238,0.860631,0.202990,0.464948,0.671508,-0.576974
0.054056,0.310304,0.193088,-0.445822,-0.169791,0.878870
-0.411595,-0.555926,-0.192134,-0.295504,0.066819,-0.953002
0.504499,-0.021180,0.699216,-0.395520,0.912154,-0.107421
0.088873,-0.097939,0.719211,0.829460,-0.557951,-0.026201
-0.238948,-0.834330,0.571136,0.057947,0.933481,0.353915
-0.306926,-0.304157,-0.015806,0.259038,0.010769,-0.965807
-0.039850,-0.291483,0.549425,-0.013127,-0.814625,0.579839
0.361440,-0.353282,0.611918,0.660519,0.225685,-0.716087
0.498617,-0.423990,0.419761,-0.728611,0.545433,0.414282
0.309454,0.385920,0.513661,0.850195,-0.382301,-0.361959
0.154281,-0.110899,0.817746,0.951893,0.231417,-0.200865
0.306055,-0.292102,0.712022,0.862400,-0.014114,-0.506031
-0.250800,-0.334079,0.757366,0.424818,-0.870926,0.247019
0.716453,-0.633687,0.301114,-0.435370,-0.006108,0.900231
0.194850,-0.392591,0.840586,0.981684,-0.174607,-0.076211
-0.367453,-0.095176,-0.324116,0.068591,0.925572,0.372306
0.118243,-0.088362,0.704204,0.190552,0.542547,0.818128
0.249015,0.236355,0.338991,0.309482,-0.392957,0.865913
-0.550646,0.277523,0.172360,0.460826,0.883872,-0.080063
0.339695,-0.436378,0.804220,-0.669623,0.670742,0.318921
0.096542,0.078404,0.499989,0.507931,-0.369752,0.778003
-0.262915,-0.708160,0.371704,0.799387,-0.316405,0.510752
0.203826,-0.166647,0.536369,0.577556,0.785754,0.221404
0.337560,0.067826,0.076524,-0.363395,-0.220844,0.905081
-0.472514,-0.042906,0.483926,0.323536,0.273319,0.905881
-0.631217,0.307730,0.208989,-0.188822,0.655808,-0.730933
0.199817,0.163026,0.338580,-0.557422,0.078377,-0.826522
-0.616750,-0.690005,-0.172756,0.334378,0.279849,0.899931
0.124910,0.002025,0.112757,0.922255,0.331148,0.199464
0.546768,-0.345610,0.548618,-0.141053,0.352863,0.924982
-0.133233,0.595092,0.139661,-0.704586,-0.144558,0.694739
0.249929,-0.652984,0.437629,-0.264421,-0.302658,-0.915685
-0.176068,-0.184848,0.762266,0.387203,-0.250383,0.887346
-0.756236,0.197808,-0.241101,-0.274502,0.085505,0.957777
0.667691,0.305062,0.563332,0.893317,0.440549,-0.088893
0.311807,0.118809,0.321813,0.252668,0.296535,-0.920992
0.121468,-0.575842,0.192501,0.616150,-0.224760,-0.754879
0.598884,-0.211912,0.421668,-0.243845,-0.715493,0.654683
-0.301349,-0.692483,-0.538277,0.451445,0.769095,0.452428
0.282742,0.449434,0.295730,-0.625418,0.340149,-0.702247
0.392291,0.006504,0.767341,0.578690,-0.799290,-0.162026
-0.110181,0.273996,0.543396,-0.653767,-0.292021,-0.698078
0.189838,-0.213389,0.715191,0.964643,0.153641,-0.214146
-0.064906,-0.533580,0.464855,0.832269,0.246066,0.496769
0.071530,-0.083454,0.712961,0.993852,0.110720,0.000219
-0.275682,-0.524146,-0.068279,-0.197338,0.470205,0.860212
0.624551,-0.204193,0.385391,-0.681313,-0.553352,-0.479181
0.068000,-0.364431,0.524692,0.972625,0.110297,-0.204535
0.439484,-0.093317,0.198897,-0.419060,0.205434,0.884413
0.254113,0.443860,0.511813,-0.438428,-0.272350,0.856508
0.159815,-0.103371,0.964265,-0.639474,-0.194407,-0.743827
0.034142,-0.128291,0.952925,-0.662602,-0.116549,-0.739848
0.712661,-0.450482,0.609409,-0.621245,0.533209,0.574233
0.214415,-0.018034,0.829569,0.487060,0.626529,-0.608469
-0.222868,-0.271805,0.756295,0.454173,-0.270455,-0.848870
0.396911,-0.152448,-0.977233,-0.214632,-0.036059,0.976029
0.147788,-0.376295,0.221268,0.922666,0.067708,-0.379608
0.712443,-0.447147,0.597439,0.633834,-0.757498,-0.156371
0.050439,0.177034,0.127354,0.847618,0.477611,-0.231152
-0.258993,-0.338988,0.725430,0.919856,-0.233092,0.315489
-0.635227,0.188326,-0.241453,0.123187,-0.343062,0.931200
0.087740,-0.840143,0.328047,0.550071,0.336655,-0.764255
0.604070,-0.181608,0.426084,-0.422822,0.495068,0.759032
0.181211,-0.359619,0.811012,-0.153431,0.781328,0.604968
-0.171318,0.167219,-0.535079,0.006457,0.925047,0.379798
-0.665163,-0.133436,-0.280870,0.086167,0.697421,0.711463
-0.049829,-0.275331,0.229732,-0.559877,0.753567,-0.344493
0.573306,-0.130244,0.401043,0.866333,0.236381,0.439991
0.063164,-0.135104,0.666165,0.012281,0.964937,0.262196
0.155501,-0.033711,0.701079,0.839665,-0.085049,-0.536403
-0.217509,-0.117141,0.817643,0.407300,-0.910777,0.067756
0.608036,-0.214294,0.541694,0.145359,0.442952,0.884683
0.757022,0.334747,0.307114,-0.618655,0.176213,0.765646
-0.251411,-0.003312,0.432465,0.385144,0.862226,0.328983
0.192540,-0.606146,0.551288,-0.586376,0.393409,0.708091
0.269669,-0.348851,0.507001,0.633610,-0.431546,-0.642112
0.225963,-0.281191,0.756544,-0.678035,-0.092933,0.729131
0.345360,0.549875,0.319832,0.264880,-0.371289,0.889934
0.223043,-0.239262,0.737371,0.954122,0.215534,-0.207838
-0.892281,0.159690,-0.205938,0.314621,-0.409148,0.856512
0.506068,-0.503800,0.514057,0.381618,-0.853129,-0.355724
0.004772,-0.358332,0.800216,0.878864,-0.351473,-0.322591
-0.226877,-0.522716,-0.210368,0.225396,0.121682,0.966639
-0.497265,-0.109660,0.526365,0.011665,0.905355,0.424495
-0.208226,-0.133008,0.770789,0.693052,-0.230704,0.682975
-0.093186,0.120858,0.170497,-0.114772,-0.357287,0.926916
0.265835,-0.033758,0.423047,-0.648582,0.483618,0.587754
-0.173367,-0.666420,0.515216,-0.306780,0.602138,0.737100
0.189751,-0.081167,0.738501,0.044170,-0.968791,-0.243912
-0.315336,-0.706444,0.385816,0.137842,0.178191,0.974293
-0.122208,0.283526,0.288733,0.423437,-0.040500,0.905020
0.149225,-0.380870,0.555660,-0.439423,0.348251,-0.828027
0.132754,-0.680000,0.548193,-0.307096,0.600314,0.738454
0.191146,-0.074306,0.623976,0.100259,0.045418,0.993924
-0.046212,-0.423942,0.444729,0.317126,0.242677,0.916809
0.196026,0.084170,0.426465,0.632247,-0.285502,0.720245
0.471033,-0.609672,0.257634,0.826875,0.199860,-0.525675
-0.489901,-0.487647,0.148023,0.325190,-0.118554,0.938188
0.372377,-0.095461,0.815017,0.806851,0.089538,-0.583930
0.335076,-0.606766,0.400045,-0.549320,-0.462452,-0.695978
-0.445890,0.292484,0.184990,0.315176,0.193305,0.929138
0.495479,-0.157403,0.318336,0.519803,0.419614,-0.744129
-0.016232,0.019989,0.160448,-0.165793,-0.340449,0.925531
0.751792,-0.212245,0.446739,0.974084,-0.078715,-0.212046
-0.427196,0.263704,0.189054,-0.043116,-0.520829,0.852572
0.015883,-0.730696,0.544907,0.523406,0.086206,0.847711
0.060070,-0.309875,0.633306,0.858877,-0.065901,0.507924
0.345622,-0.675188,0.402862,0.515585,-0.376063,0.769902
0.215548,-0.428659,0.347793,-0.235247,-0.262686,0.935764
0.085866,-0.316260,0.304033,-0.149753,-0.002693,0.988720
0.352376,0.698392,0.349347,-0.296207,-0.559044,0.774423
0.257381,-0.811459,0.288645,-0.055587,0.177482,0.982553
-0.197376,-0.781251,0.536971,0.295279,0.655370,0.695198
-0.306316,-0.406504,0.635594,-0.221874,-0.619626,0.752885
0.369327,-0.449577,0.600255,0.735211,0.324497,-0.595120
0.583023,0.510709,0.436059,0.829864,0.557749,-0.015550
-0.089439,0.073496,0.616289,0.652467,0.076059,0.753991
0.247446,-0.015509,0.160536,0.202557,0.934572,-0.292482
0.514086,-0.015795,-0.970177,0.009294,-0.115123,0.993308
-0.640543,-0.669279,-0.179563,0.334378,0.279849,0.899931
0.568294,-0.276426,0.552638,-0.548505,0.549916,0.629869
-0.184914,0.372341,0.302566,-0.263559,0.168694,-0.949778
-0.403055,-0.611721,0.079707,-0.335846,0.161466,-0.927974
0.336471,0.315783,0.507148,-0.622733,-0.094929,-0.776654
0.198205,0.271043,0.492170,0.874290,0.350457,-0.335852
-0.567117,0.012555,0.492405,0.392793,0.065909,0.917262
-0.754188,-0.225730,-0.248451,-0.227318,-0.020445,-0.973606
-0.357387,0.102656,0.666884,-0.528294,0.689283,-0.495775
0.571562,0.325837,0.531499,0.792072,0.523623,-0.313754
0.010131,-0.008553,0.912174,-0.506654,0.833849,-0.219084
0.171972,0.139774,0.027029,0.972030,0.067106,-0.225064
0.324226,0.421846,0.528140,-0.655615,0.171047,0.735467
0.731617,-0.373484,0.625282,0.688086,-0.258943,-0.677854
-0.217204,-0.112090,-0.323383,-0.027047,0.999633,-0.001636
-0.023901,0.181894,0.782289,0.558044,-0.738293,0.378829
0.365449,-0.062442,0.299574,-0.374480,-0.377484,0.846918
-0.410244,-0.018654,0.480244,-0.373050,0.558434,-0.740935
-0.314770,0.114997,0.645408,0.957012,-0.059460,0.283888
0.219295,0.284193,0.491363,0.849123,0.330799,-0.411778
-0.188051,0.405980,0.569523,0.379608,-0.684451,0.622434
0.629562,0.327028,0.559650,0.801400,0.591124,-0.091272
0.096542,-0.121763,0.488635,-0.732920,-0.660385,0.163464
-0.253372,-0.529100,0.220314,-0.408796,0.471914,-0.781142
0.337648,0.499988,0.307525,-0.512429,0.704310,-0.491288
-0.027474,0.207338,0.284464,0.106056,0.117262,0.987422
0.065822,-0.678332,0.325759,-0.214616,-0.374650,0.901985
0.259385,-0.560833,-0.450186,0.923371,0.380069,-0.054159
-0.184304,0.314735,0.528008,0.131348,-0.805667,0.577623
0.221126,-0.394973,0.765728,-0.433372,0.863633,0.257540
0.226312,-0.805313,0.498566,0.656907,0.098598,-0.747497
0.241563,-0.223442,0.757601,0.904693,0.227302,-0.360368
0.430333,0.367957,0.036754,0.449836,0.699986,0.554677
0.581019,-0.360334,0.541020,0.866918,0.417163,-0.272815
-0.072794,0.777725,0.027718,0.473654,0.219940,-0.852806
0.078023,0.775343,0.096342,-0.087221,0.640361,0.763105
0.048348,-0.324503,0.662718,0.456915,-0.053882,0.887877
0.756978,-0.256748,0.264294,-0.483263,0.699305,-0.526715
0.702421,-0.465014,0.292753,0.223325,0.617105,0.754524
0.532824,-0.180464,0.488371,0.095656,0.882239,0.460981
-0.225396,-0.464253,0.331612,0.390898,-0.499502,-0.773108
0.267316,-0.748517,0.597101,-0.599207,0.755091,0.266062
-0.221779,-0.752662,-0.007929,-0.441822,0.448046,0.777206
-0.174499,-0.420988,-0.082274,-0.301514,0.671647,0.676742
-0.305793,-0.437617,0.613091,0.664802,0.051709,0.745228
-0.185960,-0.472257,-0.540008,0.309394,-0.899288,0.309121
-0.178595,-0.499035,0.456553,0.064069,0.533509,0.843364
-0.123690,-0.166456,0.763615,0.548341,0.201293,0.811667
0.064514,-0.136152,0.885182,0.020629,-0.052495,0.998408
-0.203303,-0.479786,0.447853,-0.389753,-0.757023,0.524412
0.141818,-0.267468,0.552418,0.045618,-0.104387,-0.993490
0.190318,0.654461,0.119696,-0.274823,-0.250800,0.928209
0.274506,0.212817,0.321916,-0.353673,0.104706,-0.929490
0.573001,-0.148684,0.307217,-0.167706,0.825201,-0.539367
0.403709,-0.574079,0.589620,-0.196119,0.946667,0.255656
-0.252718,-0.084884,0.820504,-0.443703,0.878337,0.177908
0.103122,-0.074688,0.272362,-0.755393,-0.541831,-0.368511
0.217814,-0.490268,0.530751,0.223666,0.507780,0.831945
-0.265093,-0.670280,0.487285,-0.014267,0.640270,0.768017
0.163431,-0.114234,-0.303975,0.702425,0.504283,-0.502293
-0.008693,0.368624,0.142566,0.933362,0.305804,0.187932
0.010131,-0.359380,0.818861,0.918837,-0.394155,0.019504
-0.072619,0.705730,0.016584,-0.298552,-0.416385,0.858772
-0.518008,-0.131674,0.572046,0.337910,0.580358,0.740946
0.528205,-0.418368,0.630533,-0.751701,0.185496,0.632880
0.277513,-0.143204,0.612020,0.144217,-0.894897,0.422328
-0.239514,-0.282239,0.628553,-0.193546,0.949034,0.248744
-0.481796,-0.449339,0.024021,-0.769187,0.560754,0.306441
0.133930,-0.114807,0.549777,0.643161,0.522122,0.560119
0.361091,-0.366575,0.617976,-0.116302,0.610354,0.783544
-0.187877,0.620822,0.165128,0.465992,-0.614233,0.636843
-0.013399,0.143109,0.768221,0.185742,0.906021,-0.380298
0.082685,-0.626016,0.331979,0.178131,-0.429847,0.885156
0.730048,-0.673615,0.301657,0.166060,-0.697073,0.697505
0.496830,0.158642,0.275663,-0.288075,-0.317905,0.903299
-0.473995,-0.597808,0.069512,-0.044187,0.317820,0.947121
-0.834847,-0.343990,-0.236084,-0.380127,0.321815,-0.867144
-0.968015,0.253556,-0.173343,0.383169,-0.351324,0.854256
0.407761,-0.578559,0.557831,-0.732256,0.229249,0.641285
0.611914,0.066730,0.232167,-0.184787,-0.819539,0.542411
-0.630520,-0.698344,-0.173372,-0.338954,-0.255295,-0.905503
0.181864,-0.220202,0.878302,-0.389193,0.910632,-0.138843
0.169576,-0.113520,0.678561,0.249784,0.964911,0.080964
0.251237,0.310876,0.701035,0.887119,-0.456978,0.064742
0.322484,-0.421274,0.801917,0.424266,-0.840972,-0.335804
0.215199,0.223300,0.262783,0.884559,0.206848,-0.418053
0.720069,-0.579464,0.312806,-0.164825,0.132844,0.977336
0.526854,0.431853,0.408099,0.113065,-0.595402,0.795433
0.273983,-0.607004,0.705949,0.708840,-0.642262,-0.291625
0.172495,0.002502,-0.990773,0.226729,0.155761,-0.961422
0.052879,-0.276903,0.018638,0.363449,0.671766,0.645473
-0.191319,-0.614485,0.463007,-0.192244,0.844883,-0.499214
-0.583197,0.319642,0.207919,0.152471,0.726380,0.670168
-0.513388,-0.566789,0.145925,0.514697,-0.650564,0.558438
0.442360,-0.255080,0.672943,0.349052,-0.067345,-0.934680
0.414690,0.000405,0.729552,-0.537837,0.680555,-0.497570
0.299693,-0.124288,-0.983467,-0.185500,0.001919,0.982642
0.105781,-0.135390,0.967874,0.699619,-0.627887,0.341014
-0.791751,0.176367,-0.236979,0.001846,0.531736,0.846908
0.222085,-0.615819,0.289921,0.734029,0.316104,0.601066
0.443406,0.209482,0.486170,0.002665,-0.632308,0.774713
-0.309671,0.069493,0.655941,0.724200,-0.460481,0.513315
0.305184,-0.076069,0.720311,-0.068688,0.979889,-0.187350
-0.331895,-0.551733,-0.061531,0.047909,0.308548,0.950001
0.694098,0.403169,0.101594,-0.329347,0.907943,0.259173
0.155152,-0.135152,0.798969,0.905673,0.390748,0.164534
-0.326012,-0.586849,0.071551,-0.038007,-0.113535,0.992807
0.219993,-0.108422,-0.992562,-0.173921,-0.006386,0.984739
0.256161,-0.767814,0.449643,0.184643,0.497483,0.847595
-0.021330,-0.183752,0.764877,-0.661482,-0.331202,-0.672865
-0.238033,-0.469350,0.460953,-0.418880,-0.583102,-0.696083
0.256771,-0.057010,-0.502938,0.046465,-0.998687,-0.021576
0.741944,0.011650,0.252015,-0.707292,0.479446,-0.519490
0.177289,0.118475,0.801022,-0.060159,-0.638714,0.767089
0.341961,-0.585229,0.583136,0.391653,-0.904273,-0.169992
0.193934,-0.130482,0.707255,0.290898,-0.004172,-0.956745
-0.354685,-0.784681,0.407322,0.900333,0.248327,0.357400
0.068044,0.053484,-0.998078,-0.176106,-0.052950,0.982946
-0.375383,-0.402359,0.139456,-0.179076,-0.255909,-0.949970
0.481622,0.237022,0.366335,0.217163,-0.852546,0.475400
0.196637,-0.204860,0.791854,0.968618,-0.050644,0.243340
-0.284310,0.062395,0.638851,-0.513240,0.012005,-0.858161
-0.711833,0.223633,-0.384819,-0.070711,0.314191,0.946723
-0.441663,-0.384348,0.138341,-0.462997,0.521670,0.716585
0.353466,-0.076307,0.814694,0.806851,0.089538,-0.583930
-0.609342,0.123526,-0.241879,0.124534,-0.382723,0.915431
-0.537050,-0.061918,0.487315,0.329371,-0.931646,0.153463
-0.249493,-0.136724,0.498610,0.966795,0.215607,0.137191
0.199381,0.476212,0.104146,0.194101,0.409652,-0.891353
0.163083,-0.010507,0.461085,0.928470,-0.247080,0.277300
-0.085343,-0.404645,0.439096,0.381109,-0.743890,-0.548983
-0.562716,-0.197904,0.592700,-0.262216,0.876645,0.403406
0.345448,-0.446719,0.818494,-0.541031,0.730693,0.416380
0.542323,0.300060,0.365968,-0.160858,0.758999,-0.630908
0.081552,-0.053579,0.161079,-0.129833,-0.040223,0.990720
-0.336471,0.108517,-0.277408,0.116049,-0.394895,0.911367
-0.601716,0.349184,0.210119,0.356495,0.340645,0.869984
-0.908665,-0.304777,-0.236451,0.363280,-0.272745,0.890864
-0.021330,0.853913,0.203782,0.635424,-0.012845,0.772056
0.416258,0.181132,0.509509,0.981276,0.132961,0.139350
0.488812,-0.499083,0.277613,0.949360,0.199639,-0.242612
-0.056278,0.046576,0.167519,-0.155145,-0.388963,0.908096
-0.104473,0.223871,0.627350,0.172995,0.125704,-0.976868
0.658976,-0.412364,0.618357,-0.063906,0.556308,0.828515
0.442622,-0.100988,-0.327123,0.890886,-0.454037,-0.013123
-0.001024,0.075831,0.813580,0.744115,-0.120431,-0.657107
-0.625814,-0.587898,-0.014369,-0.037966,-0.420260,0.906609
-0.294638,0.503514,0.312659,0.486125,0.451750,-0.748067
-0.557444,-0.173746,0.581816,0.235162,0.770094,0.593004
-0.027998,0.363812,0.135510,0.933362,0.305804,0.187932
0.187441,-0.408171,0.838312,0.954711,-0.263523,-0.138141
0.215635,-0.433044,0.672913,0.892440,-0.072912,-0.445236
-0.895592,-0.250696,-0.222383,-0.547022,0.164341,-0.820828
0.223087,-0.238308,0.682947,0.471409,-0.867770,-0.157319
0.121990,0.018511,0.886883,-0.617642,-0.010091,0.786394
0.291152,-0.656415,0.419233,-0.270554,-0.903763,-0.331683
-0.162690,0.639547,0.173210,-0.266781,-0.231294,0.935591
0.157941,-0.113806,0.732325,-0.020154,-0.995628,0.091205
-0.184522,-0.212245,0.614837,-0.889797,0.074834,-0.450179
-0.079591,-0.172459,-0.007108,0.511596,-0.815110,-0.271780
-0.440747,-0.108374,-0.821838,-0.019192,-0.996893,0.076390
-0.079243,-0.366528,0.694639,0.339616,0.524808,0.780537
0.019631,-0.076545,0.894849,0.266364,-0.757473,0.596058
0.497222,-0.203383,0.302728,0.185673,0.785594,-0.590226
0.222520,-0.547588,0.723978,-0.751196,-0.606913,0.259540
0.102774,-0.664515,0.718888,-0.005354,0.925505,0.378698
0.565854,0.150400,0.479232,0.075705,0.975885,0.204739
0.177245,0.052722,0.428064,0.911511,0.046611,0.408626
0.595573,0.035045,0.246558,-0.298088,-0.795359,0.527777
0.279343,-0.179893,0.469286,-0.018998,0.967662,0.251536
-0.158681,0.070351,0.162590,0.030228,-0.411133,0.911074
-0.968843,0.082263,-0.247365,0.609664,-0.489606,-0.623374
0.404798,-0.511376,0.585058,0.898643,0.031328,0.437561
0.221867,-0.667850,0.565738,0.710726,-0.362581,-0.602830
-0.013879,-0.587945,0.157338,0.927673,0.200134,-0.315229
0.193194,-0.839476,0.242993,-0.609267,0.682456,0.403792
0.414646,0.119571,0.088861,0.439943,0.199164,-0.875662
0.522322,-0.446909,0.430397,-0.775215,0.361214,0.518234
0.110574,0.188470,0.188247,0.312175,0.165634,-0.935474
0.508116,-0.056391,0.214637,-0.697198,0.303284,0.649564
0.615574,0.286004,0.362301,0.294173,-0.699942,0.650802
0.711615,0.224443,0.100948,0.107854,-0.671781,0.732856
0.741116,-0.371006,0.621541,0.800126,-0.246385,-0.546894
-0.360742,-0.100322,-0.295877,0.088132,0.747185,0.658746
-0.334902,-0.137343,0.522081,-0.506332,0.305928,-0.806248
-0.035143,0.164217,0.801096,0.994439,0.001347,-0.105309
0.223261,0.051102,0.788509,-0.759450,0.424058,-0.493366
-0.058457,0.378059,-0.029273,0.025453,-0.482233,0.875673
0.266401,-0.179893,0.575830,-0.411264,0.774705,0.480306
0.116980,-0.747754,0.233986,0.728725,0.006457,-0.684776
-0.359479,-0.095080,0.470063,-0.312520,0.834911,0.453050
-0.160424,-0.380250,0.056192,-0.233330,0.291091,-0.927806
0.088655,-0.466968,0.313701,0.790489,0.582362,-0.189689
-0.064775,0.218630,0.284112,0.279801,0.023300,0.959775
0.296904,0.563216,0.320610,0.089383,0.406612,-0.909218
-0.104429,-0.324836,0.661280,0.144287,-0.928714,0.341572
0.296860,0.339321,0.527362,0.155048,-0.359829,0.920045
-0.011874,0.538201,0.165084,-0.585420,0.382057,-0.715063
0.238904,0.034187,0.856312,0.460847,0.853087,-0.244669
0.230189,0.185992,-0.990509,-0.225699,0.085554,0.970433
-0.396518,-0.785444,0.421272,0.900333,0.248327,0.357400
-0.972503,0.063824,-0.246191,-0.678475,0.482620,0.553850
0.329238,-0.205480,0.251208,-0.440802,-0.649359,-0.619699
0.464671,0.000882,0.745689,0.530087,-0.762783,0.370364
0.603460,0.427278,0.396569,-0.366874,0.719663,-0.589482
0.042726,0.053342,0.614778,0.461325,0.375092,-0.804043
-0.216114,-0.257463,0.612930,0.030869,-0.940771,-0.337634
0.224830,-0.075450,0.706316,-0.427659,-0.111639,0.897020
0.229231,-0.098511,0.902330,0.311729,0.629085,-0.712094
0.189185,0.438999,0.490410,-0.703698,0.114387,0.701231
0.011308,-0.508612,-0.150810,0.606884,-0.738271,0.294360
0.082075,-0.569077,0.318762,-0.455740,0.557355,0.694015
-0.449114,0.079261,0.435722,-0.092997,0.599844,0.794694
0.121337,-0.108803,0.951194,0.842964,-0.400251,0.359459
0.246182,0.321358,0.713313,-0.895097,0.418128,0.154825
-0.405408,-0.002597,-0.366320,0.238953,0.746302,0.621237
0.160991,-0.884884,0.348247,0.808248,-0.062081,-0.585561
0.225179,-0.798451,0.593419,-0.527595,0.812586,0.247686
-0.188531,-0.413937,-0.227576,0.141886,0.295861,0.944635
0.159945,-0.143633,0.446489,-0.596503,-0.096727,-0.796761
-0.458178,-0.465729,0.138121,-0.284069,-0.517635,-0.807068
0.265355,0.033235,0.842317,0.680414,-0.443305,0.583539
-0.061115,0.280096,0.119769,-0.079441,-0.405345,0.910706
-0.156764,0.024848,-0.284303,-0.016667,-0.540423,0.841228
-0.096411,0.416986,0.542985,-0.676260,-0.731954,0.083159
0.129311,-0.019178,0.855784,0.781653,0.197848,0.591503
0.174107,-0.559404,0.286459,0.248439,0.332119,0.909931
0.552172,-0.311638,0.559841,-0.598389,0.565055,0.568018
0.589603,-0.548160,0.295921,0.146567,0.176285,-0.973366
0.367323,0.518856,0.313686,-0.523571,0.690983,-0.498413
-0.318866,-0.336891,0.131813,0.148617,-0.332539,0.931306
0.135369,0.436331,0.458856,0.830662,-0.024226,-0.556250
0.035275,-0.224443,0.210647,-0.101608,0.357211,0.928481
0.503323,-0.189708,0.414466,-0.166388,0.651942,0.739788
0.273852,-0.059964,0.856004,0.980287,-0.184993,0.069387
0.252631,0.216438,0.685074,0.148378,-0.391506,0.908134
0.391028,-0.118285,-0.305016,-0.270583,0.953059,0.135883
0.397129,-0.045718,-0.974152,-0.089667,-0.354363,0.930799
0.782165,-0.218296,0.459692,0.967519,-0.071759,-0.242401
0.263743,0.556498,0.539875,-0.124946,-0.783188,0.609102
0.424625,0.348660,0.312967,0.013037,0.821776,0.569662
-0.195241,0.400167,0.306967,-0.417397,0.021103,-0.908479
-0.832146,-0.131102,-0.249477,0.549446,0.368609,0.749825
0.645031,-0.035855,0.250313,-0.648911,0.564345,-0.510324
0.255333,0.416224,0.511681,-0.356375,-0.685183,0.635233
-0.250931,-0.585563,0.354438,0.327437,0.224340,0.917854
0.738241,-0.157832,0.445770,0.744862,-0.204376,-0.635147
0.250714,0.179416,0.630563,0.806766,-0.368147,-0.462165
-0.041636,-0.090554,0.872918,0.303333,-0.950217,-0.071253
0.205526,-0.474544,0.672165,0.919161,-0.269091,-0.287632
-0.054448,-0.147397,-0.030740,-0.369227,0.805418,0.463652
0.029174,0.683288,0.247336,-0.463614,-0.031760,0.885468
-0.643462,-0.195902,-0.257780,0.094891,0.408736,0.907706
0.124954,0.950256,0.290200,0.272119,-0.506067,0.818442
0.578883,-0.415223,0.587625,0.536500,-0.246767,-0.807016
-0.429331,-0.340322,0.661838,-0.600098,0.729638,-0.327888
0.242696,-0.639214,0.500752,0.213889,0.369535,0.904265
-0.325533,-0.344134,-0.016203,-0.308001,0.058271,0.949600
0.144258,-0.072686,0.836332,0.902078,-0.408901,0.138040
0.708478,-0.330696,0.595180,-0.802613,0.474034,0.362082
-0.390592,0.593663,0.341279,0.327757,-0.262401,0.907591
0.589210,-0.273234,0.551200,0.084226,0.288152,0.953873
-0.020589,0.404598,0.150194,0.919448,0.392640,0.021186
-0.240691,-0.392304,0.041229,-0.330696,0.228783,-0.915586
0.340132,0.634354,0.132326,-0.350930,-0.382528,0.854705
-0.375122,-0.231923,-0.015674,-0.127969,0.093835,0.987329
0.184347,0.048672,0.731841,0.918569,-0.228850,0.322271
0.470989,-0.257891,0.682830,-0.671425,0.170341,0.721230
-0.689740,-0.489315,-0.017978,-0.564235,0.277273,0.777662
-0.394427,-0.414890,-0.016584,0.416490,-0.267119,0.869013
0.212846,0.487171,0.496850,-0.759720,-0.018703,0.649982
0.465368,-0.317213,0.611448,0.232098,0.398657,0.887245
0.667386,-0.207099,0.267624,-0.212245,0.337247,0.917178
-0.333290,-0.530530,0.497070,0.299943,-0.558387,0.773459
0.423928,-0.271661,0.515421,-0.364805,0.585167,0.724222
-0.308451,0.103180,0.187220,-0.537636,-0.587517,-0.604790
-0.069350,-0.259417,0.316561,0.020000,-0.084862,0.996192
0.247533,-0.400881,0.691236,0.979755,0.195116,-0.044825
0.111402,0.921286,0.281721,0.272119,-0.506067,0.818442
-0.074841,0.061966,0.613810,-0.543459,0.451847,-0.707450
0.258078,-0.134247,-0.183509,0.815935,0.514258,0.264176
-0.089439,0.207910,0.283584,0.303685,0.028868,0.952335
0.078677,-0.734604,0.197474,-0.652518,0.274523,0.706298
0.239384,0.551876,0.341309,-0.854847,0.468016,-0.224048
-0.261956,-0.792877,0.512473,0.490292,0.575104,0.654881
0.023466,-0.034711,0.149695,0.018682,0.167977,0.985614
0.088699,-0.157117,0.411092,0.874387,0.480664,0.066407
-0.214719,-0.072734,0.790416,-0.713806,0.418530,0.561528
0.287361,0.268136,0.678106,0.068559,-0.351552,0.933655
-0.864261,-0.249934,-0.226021,0.568612,-0.134675,0.811507
0.261129,0.168553,0.451550,-0.149451,-0.921288,0.359017
0.266706,0.492556,0.327109,-0.580073,-0.134740,0.803344
-0.140379,0.023514,0.405943,-0.146435,0.743912,0.652037
-0.012659,0.857821,0.191650,0.617455,-0.198504,0.761148
0.275509,0.090316,0.491495,-0.683340,0.584036,0.438119
-0.015840,0.144062,0.622582,-0.504867,-0.486071,0.713334
0.207705,-0.523049,0.711758,0.630920,-0.568225,-0.528262
0.223130,0.065158,0.827662,-0.600273,0.065864,0.797078
0.114670,-0.081405,0.733264,-0.571645,0.794965,0.203108
0.395560,-0.073020,0.677960,0.286713,-0.957988,-0.007407
0.568992,0.176462,0.305280,-0.596236,0.731367,-0.331067
0.363793,0.126909,0.222280,-0.156654,0.955121,-0.251402
0.754538,-0.217916,0.331157,-0.143725,-0.450293,0.881237
0.205046,-0.027087,-0.334737,0.871235,-0.408409,0.272308
0.166046,-0.356331,0.822367,-0.333437,0.726062,0.601377
-0.324313,-0.690197,0.380403,0.098250,0.835216,0.541075
-0.653049,-0.024324,0.512913,0.984337,-0.170262,0.045728
0.548904,0.150113,0.272377,0.281403,0.269772,-0.920889
0.256509,0.418702,0.370237,0.857726,0.024885,-0.513505
0.133713,0.342847,0.629110,0.794689,0.268736,0.544288
0.467373,-0.014318,0.745278,-0.503307,0.811716,-0.296309
-0.734056,-0.393258,-0.001650,0.321391,0.651551,-0.687160
0.102164,-0.174699,0.916384,-0.460116,0.879527,-0.121349
-0.434778,-0.088410,0.457799,0.292308,-0.865184,0.407447
0.307754,-0.087886,-0.823892,0.834197,0.517261,0.191199
0.699153,0.395735,0.133735,-0.427283,0.491451,0.758884
0.227139,0.495366,0.100596,0.290212,-0.249186,0.923950
0.363096,-0.290721,0.595708,0.978143,0.163069,-0.129017
0.270105,0.279143,0.507734,0.488919,0.418203,-0.765548
0.059939,0.757236,0.257883,-0.004502,-0.506526,0.862213
-0.170708,-0.040477,0.626910,0.335664,0.379243,0.862267
0.128396,-0.111280,-0.003147,-0.220518,0.974578,-0.039610
0.784387,0.024229,0.188203,0.438630,0.001012,-0.898667
0.164216,-0.211531,0.402950,0.586281,0.282634,0.759205
-0.183302,-0.030280,0.790270,0.469355,-0.790140,-0.394189
0.254374,0.073782,0.649838,-0.690128,0.631466,-0.353517
0.149879,0.111233,0.222955,0.914982,-0.043963,-0.401093
0.084298,-0.121191,0.720589,0.872651,-0.479073,-0.094709
-0.105039,-0.793877,-0.264939,0.920992,-0.031836,0.388277
-0.149530,-0.087314,-0.321343,-0.107522,0.991290,-0.076050
0.034926,-0.237498,0.864219,0.724789,0.671181,-0.155556
0.328105,-0.150542,0.352384,0.515332,0.844196,0.147534
0.182866,-0.186134,0.424133,0.991322,0.020296,-0.129880
-0.104778,0.346134,0.531807,0.297949,-0.092270,0.950112
0.171972,0.142395,0.663774,-0.463363,-0.064245,0.883836
0.489815,-0.513663,0.657466,-0.781756,0.367139,0.504050
-0.638930,0.134152,-0.246676,0.324059,-0.246357,0.913397
0.720767,-0.225443,0.456934,0.493880,0.107413,-0.862870
0.144476,-0.285861,0.563567,0.976322,0.129186,-0.173511
0.187485,0.086361,0.661662,0.939589,-0.340018,0.039495
0.581149,-0.376581,0.574158,-0.446858,0.531351,0.719711
-0.003377,0.071638,0.290669,-0.157120,-0.140580,0.977523
-0.583633,-0.327505,-0.021219,-0.602663,0.733033,0.315372
0.303397,-0.157832,0.674204,0.541026,0.648950,-0.534935
0.073578,-0.099273,-0.112699,0.745837,-0.659281,0.095270
0.541103,0.004360,0.167079,0.221026,-0.957976,-0.182835
0.316819,-0.193615,0.262871,0.785050,0.307126,0.537932
0.635183,-0.628826,0.302860,0.499711,-0.193445,-0.844315
-0.246094,-0.703347,0.353308,0.806563,-0.253238,0.534159
-0.730091,0.106706,-0.230363,-0.327086,0.090071,-0.940692
-0.416258,-0.547731,0.083360,0.002325,-0.260432,0.965489
0.572478,-0.452197,0.443643,-0.257952,0.966094,-0.011092
0.394601,0.280143,0.542531,0.844759,-0.493145,0.207825
0.543325,0.496653,0.415727,-0.097194,-0.501685,0.859573
-0.093405,0.699774,0.181513,0.822541,0.187251,-0.536995
0.092795,-0.614532,0.281281,-0.381085,-0.432290,-0.817251
0.094974,-0.533580,0.528418,-0.039035,0.071409,0.996683
0.512125,0.231734,0.096782,-0.565190,0.216434,0.796063
0.147003,0.086695,0.230642,0.872230,-0.202062,-0.445406
0.000153,0.086027,0.825829,-0.040181,-0.969877,0.240259
-0.468070,-0.659988,-0.058773,0.341522,-0.326006,0.881523
0.301654,-0.340893,0.579248,0.967264,-0.228160,-0.111101
-0.147134,0.854961,0.208476,-0.432948,-0.695148,0.573868
0.492908,0.410315,0.534286,0.529520,-0.407427,0.744051
0.013313,0.022228,-0.295481,0.033495,-0.776803,0.628852
0.506635,0.083312,0.106215,-0.325023,0.049330,0.944419
0.107916,0.878309,0.276147,0.272119,-0.506067,0.818442
0.227314,0.405456,0.611521,-0.047356,-0.384367,0.921965
0.676624,0.069493,-0.356580,-0.290750,0.947050,0.136238
-0.295858,-0.583418,0.074074,-0.172915,-0.079007,-0.981763
0.643724,0.316117,0.311119,-0.186251,0.981558,0.043073
0.320261,-0.289434,0.741919,0.976949,0.048008,-0.208004
0.156111,-0.610005,0.726912,-0.568022,0.655834,0.497224
0.634530,0.130721,0.269853,-0.261014,0.819608,-0.510014
0.119071,-0.679905,0.475315,-0.658902,-0.568883,-0.492159
0.379698,-0.115807,-0.447399,0.053592,-0.998473,0.013429
0.612437,-0.057438,0.238739,0.959945,0.266051,-0.087881
0.133321,0.055962,0.902477,0.518226,-0.801647,-0.298000
0.784953,0.418607,0.113285,-0.182947,0.721593,0.667707
0.471730,0.219869,0.355509,-0.258916,0.925638,-0.275965
0.137853,-0.175890,0.399972,0.866542,0.067360,0.494537
0.551126,0.126862,0.273491,0.156550,0.194559,-0.968317
0.030961,-0.622870,0.539274,0.453302,0.276252,0.847468
0.154629,0.433949,0.489398,0.846240,-0.104748,-0.522405
-0.089047,-0.454914,0.303344,0.730845,0.150066,0.665842
0.209884,-0.946635,0.360907,-0.316283,-0.225103,0.921571
0.411291,-0.177987,0.489178,-0.222032,0.677379,0.701327
0.303048,-0.831376,0.455291,-0.238821,-0.569189,-0.786758
-0.228925,0.292389,0.557068,-0.217669,-0.645584,0.732012
0.816459,0.238880,0.329954,-0.478029,0.013972,0.878233
0.272066,-0.616581,0.475520,0.040690,0.992062,0.118988
0.105258,0.035998,0.515832,0.778663,-0.209759,-0.591342
-0.398000,0.226063,0.183655,0.029393,0.677404,-0.735024
-0.089309,-0.086313,0.830376,-0.068665,0.726626,0.683593
0.515655,0.243502,0.537118,0.382301,0.385118,-0.839958
0.872105,0.209959,0.197577,-0.152813,0.373965,0.914767
0.599582,0.513282,0.433463,0.844393,0.535134,-0.025150
-0.066649,-0.325646,0.494444,-0.444161,0.118996,-0.888010
0.553086,-0.460012,0.546125,-0.434914,0.868755,-0.236885
-0.083731,0.469399,0.192912,-0.323021,-0.188591,0.927411
-0.083687,0.849863,0.029904,0.509511,0.157633,-0.845902
0.177899,-0.141584,0.221693,-0.363405,-0.052261,0.930164
-0.098503,-0.562644,0.481051,-0.770883,0.604592,0.200520
0.550211,-0.204336,0.400647,0.635144,0.473737,0.610054
0.138550,0.946016,0.285022,0.272119,-0.506067,0.818442
-0.073577,-0.482072,0.505930,-0.387908,-0.830531,0.399682
0.281696,-0.652079,0.422666,-0.476904,-0.728786,-0.491359
-0.315816,-0.127052,-0.295877,-0.017772,0.839415,0.543201
-0.126566,0.397451,0.542267,-0.731575,0.509004,-0.453556
0.308670,0.289672,0.351665,-0.098177,-0.422787,0.900896
-0.332462,-0.508564,0.498155,-0.664996,0.264893,-0.698292
0.128309,-0.307635,0.409478,0.941550,0.244426,0.231818
-0.120770,0.870685,0.207464,-0.450094,-0.839398,0.304673
0.216768,-0.019035,-0.395689,-0.236167,0.962431,0.133981
0.209927,0.011316,0.333725,0.232680,-0.005216,0.972539
-0.327843,-0.299154,0.643794,0.806171,-0.237464,0.541941
0.256858,0.324264,0.518707,-0.252143,-0.744131,0.618622
0.820947,0.137201,0.192501,-0.287186,0.245144,0.925974
0.507637,-0.155926,0.311970,0.222066,0.629240,-0.744811
0.217204,-0.163502,0.842992,0.888954,-0.329487,-0.318117
0.653050,-0.339702,0.256783,0.303353,-0.103396,-0.947252
0.251411,0.287481,0.722056,0.976910,-0.210751,0.035069
-0.029871,-0.346611,0.772886,0.858145,-0.418151,-0.297889
0.286969,0.378296,0.284655,0.280041,-0.632064,0.722546
0.238208,-0.049530,0.822029,0.685593,0.383437,-0.618820
0.574787,-0.489649,0.295554,-0.045854,-0.484438,-0.873623
-0.012222,-0.216343,0.667251,0.414304,0.454123,0.788749
0.355732,-0.550446,0.573307,-0.012477,0.486447,0.873621
0.373205,-0.138582,0.578002,-0.158197,0.834964,0.527076
