0.477685,0.046894,0.242913,-0.435496,-0.114723,-0.892851
-0.461801,0.229761,0.234571,0.272412,-0.326659,0.905033
0.095862,0.068698,-0.285182,-0.387251,0.916226,0.102794
-0.015035,-0.056061,-0.954866,-0.236144,-0.971565,-0.017232
-0.021523,0.479218,0.476247,0.141875,0.724583,0.674426
-0.248117,-0.312270,-0.104418,0.350761,-0.931617,0.095164
-0.140124,0.163228,0.230870,-0.263938,-0.950545,-0.163708
0.199190,0.084990,-0.128641,0.354019,0.910192,-0.214989
-0.063623,0.319210,0.399672,-0.273367,0.895283,0.351765
-0.013141,0.080468,0.201137,-0.146301,0.470482,-0.870197
0.022607,0.051416,-0.701240,0.616667,0.783197,0.079524
0.399427,-0.048752,0.374705,-0.663952,-0.648154,-0.372912
-0.025982,0.231372,0.530043,-0.314171,0.375102,0.872121
0.081467,0.336867,0.768889,0.285867,-0.091042,0.953935
0.024163,0.398007,0.469028,0.939907,0.139389,0.311683
0.200609,0.583162,0.930586,0.540214,0.193665,-0.818940
0.114852,0.038840,0.363946,0.851387,0.483235,-0.204019
0.294409,-0.193398,0.571155,-0.440484,0.292278,-0.848850
0.056397,-0.483120,0.572725,0.700785,-0.015008,0.713215
-0.151005,0.206531,0.884685,0.847652,0.098818,0.521270
-0.370365,-0.123519,0.517852,0.143325,0.726749,0.671784
-0.335565,0.230627,0.055606,-0.492105,0.857044,-0.152670
0.201892,0.053771,-0.123920,-0.258980,-0.935432,0.240614
-0.564655,0.077681,0.608818,0.522384,0.136123,0.841775
-0.142558,0.342005,0.292229,-0.208583,-0.064621,0.975867
-0.681161,-0.156788,0.512547,0.772809,0.262789,-0.577674
0.196827,0.413555,-0.020132,-0.230417,0.610748,0.757559
-0.015237,-0.017408,-0.895593,-0.531885,0.841116,-0.098091
0.261023,0.030851,0.593063,0.492470,0.151180,0.857098
0.105122,0.028806,0.388695,0.733186,0.650611,0.197846
-0.631895,-0.264449,0.543484,-0.011823,0.258117,0.966041
0.443760,0.063246,0.526594,-0.626225,0.023540,0.779287
0.364487,-0.300625,0.569711,0.227822,0.280565,0.932406
-0.085319,0.314688,0.379815,-0.635195,0.770362,0.055404
-0.225951,0.101717,0.602654,0.080232,0.256515,0.963205
-0.267779,-0.353281,0.647593,0.174836,0.569921,0.802884
0.090050,-0.322184,0.405562,0.173982,0.759510,0.626797
0.216489,-0.085238,0.439512,-0.759504,0.596748,-0.258933
0.402199,0.530075,0.972626,0.292629,0.683408,-0.668821
0.013079,0.376324,0.100190,0.309993,-0.289307,0.905652
-0.254939,-0.220095,0.796262,0.831027,-0.548166,0.094380
0.008551,0.591401,-0.147696,0.208104,0.975520,0.071095
0.286704,0.152328,0.852785,0.631797,-0.764368,0.128739
0.476262,0.115222,0.239991,0.433575,0.263439,0.861750
0.375979,0.691754,0.650469,-0.550856,0.651329,0.521851
-0.628043,-0.159820,0.601210,-0.809587,0.376245,-0.450565
0.087077,0.383202,0.298176,-0.528704,0.848792,0.004948
-0.582700,-0.244751,0.527419,-0.223275,-0.635414,-0.739187
0.137559,0.053336,-0.093728,0.991130,0.045776,0.124762
0.217099,-0.187016,0.679515,0.826303,0.392513,0.403927
0.124785,0.033948,0.301269,-0.442533,0.896546,0.019232
-0.290218,-0.353217,0.576838,-0.060692,0.718257,0.693126
0.020038,-0.696836,0.594725,0.605235,0.492962,-0.625043
0.306572,0.365609,0.896590,0.895522,0.428232,0.121071
-0.375298,-0.049867,0.800192,0.694159,-0.658219,-0.291362
0.414969,0.249955,0.233013,0.479805,-0.867902,-0.128582
0.115595,0.740013,0.221509,0.847897,-0.169487,-0.502339
0.229263,0.154990,0.341740,-0.137087,-0.830036,0.540600
0.599665,0.277397,0.187181,-0.081466,0.959199,0.270740
-0.087006,0.094408,0.609884,-0.202803,0.666567,0.717328
0.139043,0.320140,0.510816,0.721618,0.561093,0.405516
-0.138029,-0.197795,0.733941,0.265696,-0.086837,0.960138
0.451799,0.089947,0.526869,-0.195013,0.305089,0.932143
0.162022,0.625970,0.244563,-0.217892,0.407491,0.886834
0.113772,0.284580,0.566366,0.435866,0.005044,-0.899998
-0.219801,0.362138,0.883047,0.104287,-0.121168,0.987139
0.421730,0.195687,0.159692,0.328055,-0.675130,0.660741
0.307451,0.148611,0.526926,0.440967,0.603384,0.664437
-0.323059,0.343120,0.722621,0.978287,-0.206857,0.012857
0.577701,-0.377750,0.262300,-0.184798,-0.860115,0.475449
-0.292651,0.402650,0.891170,-0.570754,0.493080,-0.656591
0.097281,0.282414,0.497445,-0.486219,0.724930,-0.487922
-0.358065,-0.234776,-0.995119,0.301115,0.070071,-0.951010
0.171889,0.575854,0.232165,0.933600,0.230271,0.274530
0.328536,0.194141,0.373834,-0.551564,-0.830550,-0.077232
0.072751,0.581056,0.645266,0.255438,-0.277771,-0.926064
0.608991,-0.104381,0.332928,0.815993,-0.209969,0.538580
-0.135731,0.439201,0.635390,0.323147,0.753685,-0.572306
0.660418,0.201820,0.221555,0.020998,0.380699,0.924461
-0.103361,0.408783,0.486674,0.146044,0.105612,0.983625
0.302452,0.600324,0.960068,0.322653,-0.859165,0.397153
-0.135868,-0.328872,0.721887,-0.405779,0.406824,0.818436
0.644538,-0.021930,0.329812,0.912637,-0.226049,0.340581
0.234736,0.667783,0.978653,0.159507,0.575396,-0.802170
-0.733132,-0.847798,0.551779,0.777902,0.214326,0.590706
-0.239059,0.193956,0.876045,0.287682,-0.575795,-0.765310
-0.314005,-0.075389,0.731249,-0.235643,-0.324690,-0.915996
-0.649264,-0.429164,0.545947,-0.334787,-0.205936,-0.919515
-0.312384,0.140928,0.576941,0.818815,-0.542762,0.186956
-0.138503,0.410519,0.757327,-0.308944,0.501899,0.807868
-0.078559,0.506969,0.447968,0.683785,0.574258,-0.450184
-0.270011,0.066842,0.804180,0.010628,0.321066,0.946997
0.295151,0.191475,0.875667,-0.790252,0.568705,0.228204
-0.136544,0.380536,0.877340,0.589436,-0.721181,-0.363954
0.282719,0.200398,0.170314,0.448419,-0.755831,0.477116
-0.416859,0.049559,0.728900,-0.086994,0.146913,0.985316
0.173510,0.173452,0.109712,0.925278,0.317470,0.207542
-0.227910,0.813355,0.336950,-0.206666,-0.978409,-0.002386
0.598786,0.850276,0.663760,0.791369,-0.207761,-0.574953
0.224128,0.087346,0.849749,-0.586608,0.530364,-0.612050
-0.154317,0.543765,-0.163153,-0.676129,-0.508829,0.532863
-0.009627,0.098930,0.533767,-0.014955,0.473011,0.880929
-0.129854,0.365855,0.482182,-0.314398,-0.163113,-0.935173
-0.298665,0.433128,0.013819,-0.122961,0.973821,0.191191
0.277039,0.022609,0.271765,0.728359,0.628667,-0.272527
-0.180942,0.339033,0.763446,0.440112,-0.320235,-0.838899
0.050853,0.447439,0.478390,0.030319,0.962419,0.269870
0.517014,0.151273,0.598002,0.737015,-0.640716,0.215156
0.126678,0.679367,0.132869,0.397019,0.748368,-0.531340
-0.325426,0.346651,0.499817,-0.652292,0.217708,0.726029
0.060381,0.069258,-0.528359,-0.198154,-0.978542,-0.056480
0.228789,0.336617,0.462555,0.987150,0.112238,0.113742
-0.034297,-0.396333,0.587197,0.528748,0.007340,0.848747
-0.046188,0.621198,0.248974,0.511471,-0.808254,0.291758
0.018483,-0.253670,0.577343,0.375471,-0.103570,0.921029
-0.012939,-0.717710,0.580906,-0.330127,-0.386087,-0.861367
0.217908,0.521031,0.731971,0.546459,0.727926,0.414134
-0.244871,0.361208,0.493778,-0.147822,0.556774,0.817405
-0.300558,-0.189432,0.776852,0.604211,0.188917,-0.774105
0.207031,0.107849,0.100878,0.968101,0.250547,0.002528
-0.533703,0.274981,0.586372,-0.663497,0.351542,0.660447
0.051464,0.071984,0.882130,-0.591989,0.088874,-0.801031
0.028147,0.538128,0.645541,0.716170,-0.183369,-0.673406
-0.257509,-0.068326,-0.986514,-0.626516,0.255473,0.736350
0.269809,0.471104,0.940933,0.472746,0.080238,-0.877538
0.203987,0.106053,0.559284,0.194855,0.977062,0.085918
0.039028,0.287121,-0.994695,-0.009959,0.032514,0.999422
0.200473,0.208263,0.900234,-0.052710,0.317690,0.946728
0.364557,0.558386,-0.167072,-0.577869,-0.089389,-0.811219
-0.209122,-0.354518,0.589419,-0.027907,0.269851,0.962498
0.695288,-0.019080,0.484073,-0.540273,0.157819,-0.826558
0.356110,-0.074583,0.597818,0.340739,0.801697,0.491100
0.115054,0.175558,0.558734,0.838741,-0.439899,-0.320939
-0.099508,0.483305,0.877615,0.912102,0.315001,-0.262382
-0.011384,0.620208,0.466015,-0.468472,-0.086377,0.879246
0.766043,-0.211176,0.528829,-0.501338,-0.823713,0.264872
0.102821,0.474756,0.478012,0.746124,0.617740,0.248388
-0.362932,-0.170909,0.777391,-0.022804,-0.770999,0.636428
0.037947,0.521280,0.261567,0.020028,0.685377,0.727913
0.197433,0.470854,0.021702,0.354111,0.140601,0.924574
0.621291,0.605402,-0.181830,-0.264662,-0.953764,-0.142439
-0.167157,0.110201,0.475216,0.841355,0.507194,0.186750
0.367799,0.494455,0.986754,0.473024,0.341869,-0.812018
0.171616,0.129404,0.100041,0.961553,0.272742,-0.032054
0.532828,-0.056000,0.530479,0.089612,0.290641,0.952627
-0.368340,-0.036177,0.784701,0.502696,-0.690641,0.519916
-0.417333,0.449420,0.013692,0.221638,0.911734,0.345857
-0.490521,0.953109,0.353794,0.225157,0.801807,-0.553543
-0.084441,-0.446199,0.731294,-0.148762,0.574751,0.804693
0.051596,-0.548225,0.576804,0.769736,0.558755,0.308707
0.216019,0.171777,0.734411,0.824021,-0.294702,-0.483880
-0.434702,-0.033016,0.774572,0.882305,-0.239828,0.404995
0.027945,-0.207274,0.782971,0.946584,0.013963,0.322155
-0.080048,-0.370935,0.730985,0.034523,0.158664,0.986729
-0.479438,-0.428607,0.745102,0.578243,-0.092650,0.810587
0.124042,0.041317,-0.069792,0.928297,-0.363037,-0.080431
-0.659605,-0.482687,0.545741,0.269795,0.042848,0.961964
-0.212772,0.017780,0.849497,0.659929,0.262002,-0.704165
-0.160195,0.291458,0.513005,0.015342,0.717197,0.696702
0.798954,-0.179398,0.530685,0.678325,0.727513,0.102961
0.128909,0.097626,-0.260215,-0.414672,0.888208,0.197824
-0.304679,0.273309,0.051917,0.863746,-0.499825,0.064169
0.348607,0.202255,0.901803,-0.431175,-0.370178,-0.822834
0.014630,0.290157,0.295002,0.796153,-0.433221,-0.422446
0.135938,0.552189,0.737184,-0.590656,0.318538,0.741390
-0.244669,0.393421,0.885464,-0.536084,0.449793,-0.714353
0.438418,-0.028063,0.562619,0.959665,-0.044532,-0.277596
-0.319478,-0.504864,0.620872,0.932142,0.166530,0.321525
-0.081331,0.485040,0.280553,-0.593343,0.474180,-0.650460
-0.246154,0.373227,0.889887,0.357739,-0.372985,0.856099
0.261902,0.152018,0.533630,0.344098,0.470549,0.812515
0.232035,0.298211,0.169111,0.476594,0.739672,-0.475125
-0.031793,-0.001426,-0.863854,-0.436676,0.898729,-0.040001
0.089914,0.143779,0.386037,-0.033800,-0.046199,0.998360
-0.479170,0.950878,0.348500,0.585530,0.654145,-0.478799
-0.223113,0.186708,0.814699,0.921544,-0.176542,-0.345816
-0.091061,0.556590,0.464571,0.882245,0.168938,-0.439435
-0.225881,0.252307,0.180798,-0.075589,-0.910177,0.407264
-0.021861,0.344360,0.495142,-0.618921,0.524277,0.584869
-0.053827,-0.012327,0.803045,0.869596,-0.074040,0.488182
-0.385841,0.744100,0.362353,0.670498,0.094770,0.735834
0.168308,0.182617,0.264867,0.953875,0.189725,0.232651
0.565875,-0.004954,0.240472,-0.155795,-0.388510,-0.908178
-0.389491,-0.487147,0.674027,0.120282,-0.048923,0.991534
0.138776,0.551448,-0.001375,-0.409602,0.551281,0.726853
0.081265,0.679303,0.232211,0.939121,-0.285818,-0.190680
0.092010,0.400669,0.764042,-0.338914,-0.642163,-0.687578
-0.153439,0.406492,0.120780,0.524000,0.555447,0.645681
0.143032,0.193891,0.539840,0.060067,-0.234581,0.970239
0.007400,-0.089204,-0.752274,-0.508389,0.652374,-0.562094
0.022269,0.551633,0.646332,0.790280,-0.201388,-0.578705
0.177160,-0.071982,0.371290,0.748601,0.433682,-0.501514
-0.206148,-0.395590,0.587632,0.053206,0.453452,0.889691
0.265688,0.408413,-0.019135,-0.317302,0.834519,0.450441
-0.176413,-0.060647,0.729736,0.185672,-0.513240,-0.837921
-0.569320,-0.549216,0.548227,-0.190538,-0.083862,-0.978091
0.159114,0.210123,0.634152,0.991946,0.076628,0.100852
0.652647,-0.203183,0.540264,-0.441435,-0.753060,-0.487889
0.033080,0.220157,0.000493,-0.454291,-0.370504,-0.810152
-0.253859,-0.380784,0.528221,0.063967,-0.172006,-0.983017
-0.568371,0.085485,0.608291,0.573154,0.340076,0.745549
-0.656157,-0.441554,0.544721,0.358784,0.198396,0.912093
0.417675,-0.115901,0.521392,-0.082888,-0.890910,0.446553
0.002805,0.432508,-0.152142,0.115677,0.228530,-0.966640
0.522084,0.257324,0.196278,0.112528,-0.910042,-0.398950
0.242305,-0.375519,0.497261,0.260733,0.836030,0.482776
0.094579,0.564519,-0.005603,-0.688000,0.014558,0.725564
-0.328198,0.372668,0.493538,-0.042829,-0.025628,0.998754
0.219463,-0.041194,0.427470,-0.439403,-0.025691,-0.897923
0.001250,0.149107,0.646573,0.952705,0.214348,-0.215425
0.048556,0.074770,0.107076,-0.209114,-0.440812,-0.872901
0.157897,0.375273,-0.005752,-0.459697,0.863929,0.205682
-0.482816,-0.428544,0.543346,0.159720,0.420327,0.893205
0.345633,0.577154,0.974081,-0.193015,-0.389158,0.900723
-0.825038,-0.555348,0.541971,0.902799,0.430055,-0.002644
-0.253591,0.732886,0.358984,-0.056221,-0.008266,0.998384
-0.131813,0.351049,0.410248,0.628054,-0.166989,0.760042
-0.349214,0.594747,0.049717,-0.603849,0.300776,-0.738174
0.564457,0.213715,0.216021,-0.167128,0.764412,0.622690
-0.186077,-0.403271,0.633763,0.787675,0.320532,0.526144
0.208718,0.127487,0.119978,0.826386,0.563031,0.009073
0.005643,0.117513,-0.693643,-0.620825,-0.783941,0.003450
0.167768,0.138573,0.321734,-0.677550,-0.726508,-0.114509
-0.158574,-0.053894,-0.934803,0.852548,-0.516069,-0.082667
0.127758,0.290032,0.198410,-0.408748,-0.857828,0.311538
-0.468628,-0.078115,0.509762,0.244171,0.572965,0.782363
0.297989,0.400545,0.943248,0.374399,0.848310,-0.374427
0.182361,0.132626,0.234663,-0.195573,-0.893687,-0.403826
-0.141679,0.318279,0.047872,-0.201597,-0.929845,-0.307810
0.200473,0.340519,0.454293,0.938007,0.280808,-0.203197
-0.682988,-0.424890,0.545260,-0.274166,-0.328717,-0.903758
-0.570264,0.182681,0.090657,0.850079,-0.441578,0.287009
0.183240,0.314253,0.048686,0.300083,0.788446,0.536938
0.254267,0.597534,0.707209,0.377379,0.487184,0.787551
0.155332,0.503499,0.741939,0.404916,0.869978,0.281391
0.035852,0.554980,0.468238,0.805410,0.092747,0.585416
0.090591,0.449545,0.469017,-0.655616,-0.111229,-0.746857
-0.512753,-0.099424,0.617904,0.054695,0.044543,0.997509
-0.012807,-0.853868,0.563226,-0.063856,-0.125533,0.990032
0.291505,0.071424,0.764821,0.792671,0.508330,0.336561
0.299680,0.161122,0.417020,-0.350184,-0.935936,-0.037347
0.525462,0.139008,0.488267,0.640001,0.565502,0.520199
-0.150733,0.029981,0.029688,-0.647166,-0.319611,-0.692117
-0.106132,0.243697,0.423746,0.252688,0.381755,0.889051
0.098766,0.411199,-0.037720,0.227571,-0.973760,-0.001318
-0.194121,0.466828,0.025070,0.082854,0.685665,0.723186
-0.239938,0.140743,0.511985,0.491278,0.469765,0.733462
0.479509,-0.092051,0.363075,0.558284,0.566841,0.605814
-0.529310,-0.302795,0.736508,-0.253090,-0.193336,-0.947928
-0.158236,0.086166,0.487453,0.823718,0.281094,-0.492417
-0.688598,0.036424,0.611935,-0.017800,0.427511,0.903835
0.409158,0.432758,0.650698,0.803621,-0.189738,0.564085
-0.265820,-0.283097,0.526205,0.206221,0.059227,0.976711
0.534651,0.018336,0.512890,0.892664,0.372264,0.254108
0.227708,0.042927,-0.136261,-0.433930,-0.854951,0.284191
-0.372192,0.739268,0.353106,0.232333,0.804886,0.546058
0.259336,0.186212,0.178518,0.970647,0.209344,-0.118407
-0.036594,-0.022857,-0.734342,0.779120,-0.626035,-0.032435
0.003345,0.400049,-0.045810,0.876781,0.434327,-0.206432
0.117554,-0.013007,0.829537,0.425346,0.776383,-0.465092
-0.002805,-0.286749,0.509545,-0.307549,-0.184851,-0.933405
-0.040715,0.463361,0.143376,-0.574761,0.725781,0.378011
0.035988,0.061019,-0.661251,-0.471821,0.881666,-0.007004
-0.254469,0.341388,0.185737,-0.188923,-0.656125,0.730622
-0.111404,0.229262,0.724649,0.952775,-0.084972,-0.291548
-0.376923,-0.031405,0.498671,-0.089429,0.680263,0.727492
-0.031661,0.475562,0.364690,0.536594,0.180037,0.824411
-0.118771,0.641952,-0.132800,-0.324353,-0.645568,0.691402
-0.690759,0.181751,0.622866,0.117543,0.688233,0.715904
-0.191621,-0.185591,-0.103284,-0.579589,0.812060,0.068079
-0.414561,0.390385,0.239017,0.348388,-0.890468,0.292732
-0.158170,-0.158209,0.810333,0.415952,0.898500,0.140290
0.611420,-0.151211,0.336366,0.719700,-0.177971,0.671087
0.048828,0.580251,0.467929,0.774634,0.404200,0.486379
0.164456,0.501582,0.958796,-0.588616,0.177653,-0.788651
-0.103699,-0.953850,0.567569,-0.626263,0.094754,0.773832
0.353066,0.060955,0.579760,-0.629691,0.375733,0.679936
0.222775,-0.182555,0.588308,0.297041,0.294883,0.908191
-0.353540,0.017161,0.803057,0.567250,-0.591332,-0.573196
-0.280282,0.558201,0.035704,0.585162,-0.306839,0.750623
-0.147829,0.260424,0.338291,-0.043787,-0.657400,0.752269
0.065183,-0.044725,-0.280221,0.984457,0.163138,0.065043
0.199462,0.043857,-0.327578,0.989102,-0.107927,0.100148
0.168779,-0.170664,0.087174,0.786727,-0.400524,0.469725
0.280962,0.070743,-0.121331,0.435323,0.881873,-0.181089
0.211490,0.224434,0.414419,-0.708513,-0.689200,-0.151697
-0.290692,0.278883,0.573802,-0.249179,0.776917,0.578195
-0.237166,0.180326,0.804822,0.381713,-0.917156,-0.114546
0.596081,-0.009106,0.513669,0.247264,0.961753,0.117861
-0.279473,-0.172025,0.529195,-0.299405,-0.291404,-0.908538
-0.346442,-0.404696,0.654101,-0.408956,0.896588,0.169958
-0.081467,0.341634,0.151557,0.769863,-0.359628,-0.527237
-0.065719,0.094839,0.877707,0.675921,-0.111273,0.728525
-0.327183,-0.750046,0.585707,0.776893,-0.298183,-0.554548
0.167970,0.102647,-0.134588,-0.450138,-0.882749,0.134646
0.304073,0.152759,0.716960,0.873547,-0.395961,-0.283072
0.698060,0.063681,0.522813,0.977505,-0.191596,0.088180
-0.198241,0.034443,0.710761,0.030402,0.533207,0.845438
0.261432,0.397883,-0.182391,-0.547810,0.612827,-0.569515
0.192161,0.112371,0.609815,-0.743668,0.201187,-0.637559
-0.048284,-0.790993,0.572026,0.004335,-0.737416,0.675425
0.397670,-0.079415,0.580998,0.062221,-0.432170,0.899643
0.380639,-0.325095,0.574971,0.225394,0.500757,0.835727
0.203987,0.447685,0.927527,-0.334672,0.941938,-0.027354
0.315696,0.568235,0.709054,0.656300,0.541482,0.525421
0.165537,0.112311,0.527752,-0.133186,0.344368,0.929340
0.520256,0.740509,0.650388,0.668781,-0.104996,-0.736008
0.173241,0.343305,0.586566,0.768599,-0.599750,-0.222611
-0.446123,-0.635817,0.532071,0.416271,-0.236408,0.877969
0.799020,0.239981,0.176845,0.641346,0.726961,0.245363
-0.464165,0.054327,0.484921,-0.794867,0.243298,0.555871
0.324548,0.277582,-0.073802,-0.556649,0.821345,0.124635
-0.245143,-0.191909,0.807858,-0.019905,-0.801459,0.597719
-0.185199,0.155114,0.525552,-0.507846,0.587776,0.629771
0.044436,0.346031,0.364083,0.723512,0.306117,0.618727
-0.024769,0.309485,0.881064,0.242057,-0.920669,-0.306231
-0.084779,-0.054635,0.250338,-0.156192,0.918508,0.363244
0.246426,0.514588,0.261281,0.559805,0.289014,0.776588
0.773884,0.076506,0.460022,0.731611,0.347579,0.586459
-0.179927,0.546491,0.356314,0.853887,-0.196933,0.481762
0.136544,0.388714,0.306987,0.799849,-0.560043,0.215857
-0.138569,0.296600,0.292240,0.541436,0.206141,-0.815078
-0.070924,-0.826674,0.599491,0.395862,0.804590,0.442637
0.390576,-0.068080,0.573103,-0.065138,0.935930,0.346109
0.233182,0.483430,0.088239,0.009128,-0.309750,0.950774
0.417403,0.437836,0.647306,-0.543167,-0.206771,-0.813766
0.624871,-0.016539,0.535062,-0.136906,-0.196598,-0.970879
-0.069303,0.173202,0.303412,0.609184,-0.378250,-0.697009
-0.260887,0.415971,0.207290,-0.729385,0.495571,-0.471600
0.362326,0.072850,0.380663,0.999138,0.014554,0.038879
0.129920,0.644738,0.128755,-0.234870,-0.728508,0.643516
-0.468694,-0.225423,0.546348,-0.095808,-0.815348,0.570989
0.089914,0.137647,-0.993870,-0.000283,0.184792,0.982778
0.205678,-0.066035,-0.098093,0.089861,0.878827,0.468602
0.172495,-0.016353,0.418636,-0.415232,-0.055447,-0.908024
-0.013479,0.402836,0.888901,0.266873,0.106270,-0.957854
0.103633,-0.050609,-0.508044,0.978865,-0.140789,0.148329
0.520124,0.243387,0.467974,0.004979,0.774129,0.633008
-0.504240,-0.173201,0.743016,0.076582,-0.183009,0.980124
0.036933,0.354210,0.020865,0.598810,0.771376,0.215419
0.017336,0.390570,0.221314,0.731129,0.632866,-0.254817
0.122623,0.110451,0.238433,0.427227,0.897751,0.107331
-0.173171,0.224494,0.893118,-0.600555,-0.311935,-0.736227
0.467683,-0.058416,0.562172,0.638412,0.664563,-0.388312
-0.687245,-0.337545,0.535967,0.157867,-0.589594,-0.792122
-0.024699,0.365114,0.208756,0.027718,0.432319,-0.901294
-0.471263,-0.288050,0.541433,-0.019988,-0.030228,0.999343
0.297655,-0.092051,0.610376,0.702250,0.700817,0.125303
0.129516,0.511306,0.940922,0.345620,-0.712521,-0.610623
-0.080588,-0.122529,0.252996,-0.221833,-0.088901,-0.971023
0.447951,0.228460,0.328872,0.886013,-0.239474,0.397031
0.533031,0.500466,0.676731,-0.679974,0.110628,0.724843
0.433960,-0.110018,0.514552,0.036461,-0.801255,0.597211
0.282517,0.178715,0.656427,-0.315874,0.768122,0.556967
0.198922,0.045839,-0.585512,0.050129,0.998487,0.022591
-0.122957,-0.205664,0.826455,-0.575096,-0.108319,0.810883
0.147491,0.637490,0.212331,-0.717304,0.008675,-0.696706
0.039502,0.298086,0.159440,0.708502,0.480236,0.517105
-0.059841,-0.001612,-0.779648,-0.303702,0.884511,0.354125
-0.069571,0.297405,0.412941,0.617971,0.630636,0.469478
0.099310,0.301678,0.030020,0.188842,0.907472,0.375279
0.428688,0.235149,0.609185,0.412666,-0.535875,0.736577
0.138301,0.406987,0.567637,-0.152850,0.795476,0.586391
-0.629598,-0.668711,0.543358,-0.509391,0.138495,-0.849317
-0.463018,0.398934,0.249226,0.036512,-0.737405,0.674464
0.535328,0.035929,0.497410,0.799909,0.328959,0.501928
-0.068016,0.310846,0.802908,-0.648810,0.724237,0.233508
-0.233318,0.335067,0.258164,0.899028,-0.050312,-0.434991
0.094307,0.067337,0.758714,0.408893,0.679032,-0.609690
-0.447406,0.191850,0.203050,0.596928,-0.799224,-0.070129
0.144047,0.432198,0.252710,-0.502656,-0.488273,-0.713390
-0.060720,0.092299,0.741928,0.794015,-0.483235,-0.368813
-0.367461,0.028310,0.594301,-0.125957,-0.404490,0.905827
0.113363,0.583537,-0.156748,-0.082106,0.913511,0.398442
0.326103,0.266307,0.646894,-0.465035,0.280539,-0.839667
-0.556480,-0.226973,0.707370,0.903139,-0.280368,-0.325166
0.352526,-0.028804,0.293787,0.953264,-0.263411,0.147993
-0.272445,0.431393,0.221658,0.696870,-0.029566,0.716588
-0.159655,0.047759,0.725668,-0.695361,0.525997,0.489694
0.001996,0.427926,0.447865,-0.580675,-0.748328,0.320658
0.486739,0.331910,0.642998,-0.629460,-0.776540,0.027675
0.192702,0.215265,0.101714,0.909052,0.407248,0.088171
-0.666564,-0.540359,0.549958,0.269481,0.280508,0.921246
0.336241,0.206342,0.895971,0.544486,-0.416858,-0.727849
0.302720,-0.075574,0.399157,0.830803,-0.010771,0.556463
-0.296434,0.311591,0.510415,-0.496761,0.423505,0.757544
-0.647780,0.456113,0.003495,-0.238601,0.606764,0.758226
-0.902348,-0.002663,0.630520,-0.067628,0.347349,0.935294
-0.577359,-0.548968,0.547975,0.283930,0.124858,0.950681
0.111268,0.313387,0.285549,-0.647334,0.357374,-0.673233
-0.116267,-0.942266,0.509957,0.059953,0.967043,0.247453
-0.413616,-0.012697,0.808821,0.841952,-0.290161,-0.454888
-0.188915,0.220033,0.798646,0.203792,-0.978979,0.008336
-0.316438,0.253297,0.242306,0.553426,0.815801,-0.167894
-0.274132,-0.408475,0.653127,0.157749,0.422795,0.892390
0.115661,0.631048,0.241297,0.542172,-0.513941,-0.664766
0.125865,0.484296,0.650835,-0.242351,0.253103,0.936592
0.243522,0.195192,0.883081,0.925637,-0.191034,-0.326652
0.103027,0.658244,0.109024,0.346530,0.740997,-0.575188
-0.168036,0.093478,0.596283,0.139050,0.377673,0.915439
0.187703,0.628011,-0.034546,0.183630,-0.269553,0.945315
0.287450,0.629622,-0.033527,0.757877,0.652313,-0.010477
-0.489305,0.209563,0.121204,0.991118,-0.082324,0.104442
0.206693,0.574614,0.116381,-0.502155,0.651602,-0.568555
0.442003,-0.262714,0.555561,-0.625284,-0.198147,-0.754823
0.250819,0.248159,0.737631,0.580527,0.499639,0.642923
-0.186618,0.248405,0.478653,-0.265908,0.720444,-0.640510
0.336377,0.649816,-0.166086,0.543863,-0.447349,0.709994
0.206016,0.064796,0.767892,0.026745,0.790995,0.611238
0.374490,0.440747,0.669191,0.326951,-0.185036,0.926750
-0.300690,-0.451404,0.598701,-0.547341,-0.214265,-0.809017
-0.128365,-0.581614,0.511447,-0.137973,0.548329,-0.824802
0.464775,0.641146,-0.178644,0.110330,0.498780,0.859678
-0.117620,-0.789383,0.592880,0.268451,0.452598,0.850346
-0.084981,0.583162,0.450947,0.819810,0.306349,-0.483799
0.081669,0.376139,0.914110,-0.194835,-0.004202,0.980827
0.171616,-0.279006,0.497754,0.617541,0.481575,0.621875
-0.184861,-0.812860,0.477771,0.211574,-0.327013,0.921032
-0.522150,0.369571,0.135630,0.639501,0.722377,-0.263079
0.214732,0.520785,-0.018837,0.943859,-0.201705,0.261621
-0.476060,-0.072043,0.512123,-0.311899,-0.638197,-0.703864
0.015307,0.588369,-0.146092,0.349974,0.806511,0.476507
0.444638,-0.194945,0.461821,0.849969,-0.526389,0.021607
-0.365704,-0.329927,0.754348,0.367751,0.873403,-0.319258
0.975743,-0.276094,0.522928,-0.026923,0.656679,0.753690
-0.298055,0.482810,0.748928,0.364600,-0.008413,-0.931126
0.170672,0.331970,0.766368,-0.364335,0.577752,-0.730385
-0.015711,-0.834542,0.607042,0.382643,0.619708,0.685235
-0.057610,-0.312085,0.636215,0.410652,-0.259965,0.873947
0.229531,0.100847,0.887378,0.221449,-0.333192,-0.916484
-0.559924,-0.257016,0.539634,0.144208,0.440528,0.886081
0.212030,0.180885,0.214795,0.383288,0.722305,0.575643
0.198175,0.241837,0.731191,0.951761,-0.041621,0.304004
0.153237,0.070309,-0.397461,0.665219,-0.746557,0.011651
-0.148708,0.523817,0.259527,-0.258424,0.805101,0.533881
0.102618,0.739208,0.215963,-0.514451,0.049016,0.856118
-0.205608,-0.183670,-0.981128,0.701924,0.326699,-0.632906
0.329279,0.147246,0.762059,0.440294,0.464691,0.768247
-0.167223,-0.299574,-0.985895,0.132603,0.229241,-0.964295
0.390238,0.680048,-0.180936,-0.425351,0.200658,0.882504
-0.096605,0.672241,0.350734,-0.680275,-0.574933,-0.454619
0.599459,-0.139380,0.535119,-0.772970,-0.145894,-0.617440
-0.550804,0.053707,0.732933,0.196253,0.392722,0.898473
0.033014,0.730905,0.640844,0.817147,-0.144506,-0.558022
0.471601,0.077927,0.530639,0.363762,0.234210,0.901567
0.102821,0.498421,-0.143388,0.609054,0.008287,0.793085
-0.147087,-0.394412,-0.987052,-0.108086,-0.072287,0.991510
0.678595,-0.217865,0.544080,0.352438,-0.870363,-0.343883
0.261498,-0.202937,0.680672,0.877750,0.251783,0.407627
0.270823,0.460139,0.769198,-0.394300,0.065436,0.916649
-0.424700,-0.592207,0.560006,-0.709848,-0.508339,0.487553
0.721034,0.217617,0.465442,0.937450,-0.011519,0.347929
-0.181210,0.359352,0.411359,0.945232,0.298514,-0.132006
-0.711911,-0.250758,0.536368,0.451245,-0.503883,-0.736533
0.243658,0.530385,0.095905,0.470082,-0.444462,0.762547
0.321104,0.077371,0.131746,0.626835,0.772291,-0.103175
-0.208582,-0.514898,0.649495,-0.473917,-0.069645,-0.877811
-0.391925,-0.090195,0.871760,0.722552,-0.221864,0.654748
0.561751,0.673110,-0.191065,0.419189,0.873889,0.246169
0.135802,0.111317,0.864690,0.929438,0.003055,0.368967
0.258660,-0.170599,0.643261,0.936359,0.317334,0.150101
-0.366921,0.310786,0.745251,0.906481,-0.385851,-0.171499
-0.266022,0.316854,0.152187,0.374506,0.913072,0.161387
-0.062407,-0.004028,-0.876619,-0.345919,0.938241,-0.006624
0.111404,0.126618,0.897358,0.340138,0.851258,-0.399582
0.165805,0.710957,-0.029207,0.060524,0.472939,0.879014
0.374222,-0.130582,0.506909,0.135031,-0.535114,0.833918
0.235549,0.077806,0.226333,0.878634,-0.037249,0.476041
0.002537,0.366040,0.483466,0.492812,-0.868749,-0.049119
0.044501,0.416281,0.908816,-0.666674,0.196866,0.718880
0.308193,0.673666,0.981083,0.881936,-0.471351,-0.004226
-0.262306,0.637800,0.341614,-0.171529,0.840986,-0.513148
0.126339,0.327512,0.374533,0.233349,0.962538,0.138094
0.099038,0.078237,-0.139927,-0.028340,-0.997007,0.071936
0.390304,0.746146,-0.185703,0.712441,-0.515973,0.475605
0.188511,-0.082202,-0.424158,0.833763,-0.478737,0.275045
-0.243724,-0.638606,0.569860,0.810526,-0.429983,-0.397695
-0.063760,0.668834,0.462795,0.433582,0.275334,-0.858020
0.419903,0.077247,-0.337008,-0.479031,-0.284431,-0.830439
0.352459,0.272999,0.638747,-0.591581,0.539886,-0.598795
-0.382326,-0.274174,0.561737,0.879623,0.072974,-0.470041
0.176079,0.744410,-0.030800,0.060524,0.472939,0.879014
0.121608,-0.022736,-0.247451,-0.466043,-0.882010,0.069734
0.359286,-0.152697,0.577629,0.141215,-0.418455,0.897192
0.210747,0.725393,0.213488,0.789235,-0.019010,0.613797
-0.132621,0.412625,0.031945,-0.147700,0.563176,0.813029
-0.495591,0.882489,0.327669,-0.352531,0.058339,0.933980
0.171753,0.175494,0.032358,-0.241074,-0.960266,0.140618
0.505729,-0.193209,0.550233,0.818344,-0.047516,0.572761
-0.449905,0.102893,0.479547,0.984784,-0.052891,0.165539
-0.006587,-0.092176,-0.972959,0.744606,0.595795,0.300982
-0.469506,0.894690,0.331725,0.466604,0.024412,-0.884129
0.032676,0.003035,-0.572679,-0.446147,0.865797,0.226600
-0.352253,-0.162610,0.564842,0.193856,-0.403340,0.894280
-0.311844,0.481634,0.010461,0.253749,0.965248,-0.062508
-0.590199,0.340024,0.184591,-0.700521,0.131413,-0.701428
-0.367663,-0.005018,0.803286,-0.591092,0.128973,-0.796226
0.157629,-0.176237,0.699223,0.175840,-0.623271,0.761980
-0.189390,-0.176052,-0.975227,0.706655,0.492917,-0.507614
-0.254469,-0.543641,0.675367,0.344538,-0.206055,0.915879
-0.281028,0.262095,0.872872,-0.328979,-0.097933,0.939245
0.699681,0.212168,0.473211,0.629712,0.499860,0.594645
0.205678,0.347642,0.459507,0.947806,0.223530,-0.227374
0.001048,-0.368023,0.582086,0.552878,0.260147,0.791611
0.199730,-0.067335,-0.515010,0.923920,-0.240726,0.297360
-0.846528,0.162423,0.610353,0.413860,-0.864027,-0.286665
0.240821,0.434493,0.645484,0.040548,0.096194,0.994536
-0.317115,-0.174751,0.782054,0.656115,0.658311,-0.368971
0.278797,0.569286,-0.017107,0.873150,0.328850,0.359816
-0.427471,0.252246,0.228258,0.582528,0.049808,-0.811283
0.133706,0.171652,0.590439,-0.581748,-0.450075,-0.677497
0.070248,0.366785,0.767961,0.247892,0.560232,0.790373
-0.189728,-0.155982,0.567534,-0.151590,0.252396,0.955676
-0.191147,0.065167,-0.993790,-0.113724,0.174202,0.978121
0.076670,0.154060,0.771329,0.798656,0.569065,0.195741
-0.290082,0.515269,0.024119,-0.330093,-0.818186,0.470754
0.710426,0.170911,0.472833,-0.612162,-0.240019,-0.753424
0.295151,0.234593,0.650446,-0.357549,0.140737,-0.923229
-0.039700,0.539863,0.383929,0.515132,0.804568,-0.295481
-0.071126,0.016355,-0.861196,-0.436676,0.898729,-0.040001
-0.574591,0.997459,0.344570,0.283542,0.691498,0.664405
0.416590,-0.330237,0.571854,-0.317889,-0.484169,-0.815185
-0.056665,0.000683,-0.869915,-0.495823,0.864717,0.080147
0.642034,-0.035432,0.329640,0.899273,-0.154622,0.409145
0.242578,0.427926,-0.167988,0.628567,-0.537576,0.562064
-0.086198,-0.488137,0.512627,-0.178775,-0.075073,0.981022
0.178377,0.147061,0.518058,0.220479,0.972850,0.070377
0.096402,0.073095,-0.607077,0.194043,-0.977485,-0.082883
0.430647,0.590596,0.651683,0.631093,0.773102,-0.063520
-0.080114,0.363193,0.312590,0.770141,0.252576,-0.585738
0.898904,-0.233911,0.520991,-0.143397,-0.759492,-0.634515
-0.122623,0.429287,0.486342,-0.595735,0.119652,-0.794218
-0.117145,0.074460,0.797866,0.186785,-0.093495,0.977942
0.064098,0.081338,-0.428948,0.492212,-0.869906,0.031482
-0.414227,0.056123,0.584023,0.953444,0.300570,0.024538
-0.590537,-0.678375,0.543759,-0.452091,0.275774,-0.848270
-0.360432,0.577030,0.044412,-0.603849,0.300776,-0.738174
-0.236626,0.601439,-0.164333,-0.265248,-0.681751,0.681805
0.437676,0.049559,0.516832,0.658683,0.734194,0.164606
-0.013818,-0.410334,0.736084,0.141963,0.305033,0.941701
-0.130596,-0.198166,0.797568,-0.609726,-0.221710,-0.760972
-0.721236,0.063866,0.607294,0.296813,0.416751,-0.859198
0.511541,0.375644,0.626933,0.800210,-0.494972,0.338624
0.197231,0.101652,0.662752,0.912457,0.239060,0.332072
0.119109,0.547236,0.092307,-0.075353,-0.604622,0.792940
0.078901,0.021372,-0.358526,0.905162,0.371030,-0.207410
0.020780,0.037105,-0.986938,-0.061872,0.399681,0.914564
0.135059,-0.385741,0.418636,-0.620377,-0.115636,0.775732
-0.129920,-0.438456,-0.988863,-0.085211,0.010083,0.996312
-0.409224,0.378865,0.220535,0.312314,-0.220576,0.924016
-0.351375,-0.283528,0.522263,-0.476585,-0.327101,-0.816009
-0.452950,0.149972,0.598059,0.448671,0.539062,0.712816
0.517353,-0.107228,0.580482,-0.414061,-0.313728,0.854475
0.368880,-0.143653,0.626693,0.973922,-0.006371,0.226795
-0.108026,0.449050,0.867463,-0.565892,0.370186,0.736701
0.080320,0.075761,0.320279,0.618424,0.509068,-0.598667
0.223451,0.098741,0.767903,0.264819,0.739808,0.618510
-0.142219,0.575544,0.454190,-0.616913,-0.499460,0.608242
0.009359,0.581926,-0.142700,0.324267,0.648275,0.688906
-0.305017,0.282663,0.144419,0.481110,0.867646,-0.125390
0.142628,0.561112,-0.034604,0.192905,0.644372,0.739982
-0.172495,-0.122593,-0.964972,0.942803,-0.266074,-0.200818
0.004834,0.234899,0.400623,0.052543,-0.980487,0.189434
-0.240140,0.645483,0.371668,-0.730369,-0.264721,-0.629670
-0.086466,-0.778233,0.594289,0.335198,0.424770,0.840959
-0.038756,0.449110,0.658581,0.498277,0.672215,0.547583
0.203583,0.363254,0.583255,-0.490451,0.823120,0.286236
0.261498,0.382582,0.373548,0.078855,0.917235,0.390463
-0.115727,0.294740,0.183342,-0.074805,-0.963388,0.257463
-0.436933,0.512172,-0.006921,0.367518,0.870359,0.327729
0.097417,-0.008425,-0.231764,0.351708,0.928842,-0.116425
-0.767594,0.294989,0.141508,-0.195279,0.653523,-0.731282
0.172091,0.320696,0.515045,0.839604,0.021535,-0.542772
0.066531,0.057363,-0.596821,-0.312040,0.945723,-0.090772
-0.257983,0.269094,0.116976,-0.417396,-0.907645,-0.044294
0.345703,0.451526,0.928615,0.148279,0.661031,0.735562
0.251631,0.399369,0.928810,-0.517498,-0.851784,0.081611
-0.269269,0.557826,0.351960,0.778311,0.619494,-0.102266
-0.006657,0.386793,0.460275,-0.775484,-0.606677,-0.174839
-0.207975,0.206592,0.334154,0.141360,0.913230,-0.382136
0.306774,0.216876,0.512478,0.220446,0.885705,0.408571
0.103699,-0.003653,0.837133,0.476017,0.826191,-0.301358
-0.562695,0.314563,0.577881,0.733642,0.585879,-0.344260
-0.317453,0.026635,0.784483,0.331684,-0.486837,0.808069
-0.010506,0.321006,0.639400,-0.720487,-0.167601,0.672910
0.321372,0.302608,0.715746,0.727896,-0.368757,0.578089
0.232035,-0.130397,0.421099,0.604435,-0.295710,0.739739
0.204734,0.666357,0.973692,-0.142246,-0.862642,0.485402
-0.410238,0.707055,0.373376,0.591260,0.631362,0.501791
0.104446,0.147991,0.046784,0.962054,0.149486,-0.228269
0.296030,-0.113610,0.627151,-0.347460,-0.935793,0.059689
0.500726,0.444403,0.640305,-0.544789,0.347382,-0.763237
0.167223,0.375273,0.767892,-0.226278,0.275484,-0.934295
-0.052408,0.292263,0.892923,-0.204212,-0.632124,0.747473
0.132626,0.225114,0.313782,0.379586,0.489042,0.785336
0.390844,0.730845,-0.183400,0.973877,-0.227021,0.005013
-0.914041,0.069443,0.618477,-0.017199,0.313707,0.949364
0.518297,0.543145,0.660197,0.791154,-0.389343,0.471686
-0.014564,0.213715,0.403843,0.165508,-0.967812,-0.189595
-0.485861,0.240291,0.215998,0.034032,-0.986684,0.159051
0.353404,0.215386,0.897220,0.544486,-0.416858,-0.727849
0.543169,0.010283,0.232876,0.111650,0.405046,0.907453
0.372803,0.271079,0.628079,-0.624575,0.693016,-0.360047
-0.585064,0.412874,0.581857,0.854242,0.438371,0.279467
0.553237,0.448244,0.635126,0.866972,0.043161,0.496485
-0.339075,0.905160,0.336595,0.088902,0.475278,0.875333
-0.032944,-0.835657,0.605232,0.479071,0.778634,0.405241
0.167021,0.383077,0.094438,0.942024,0.201545,0.268273
0.108298,0.273120,0.907292,-0.226026,-0.533387,0.815114
0.233994,0.210679,0.407223,0.500548,0.863135,-0.066705
-0.082477,0.210618,0.338360,0.269027,0.091995,-0.958729
-0.641560,-0.242769,0.532805,-0.064999,0.580233,0.811852
-0.067748,0.422723,0.117423,0.098935,0.394012,0.913765
-0.617030,0.071674,0.615578,-0.152725,0.044145,-0.987282
-0.152490,0.202440,0.856876,0.067622,0.963893,-0.257562
0.141881,0.107725,-0.208470,0.764819,-0.637329,-0.094150
0.631425,0.023603,0.513486,0.469277,-0.164445,-0.867604
-0.034635,0.516944,0.264913,0.148192,0.750525,0.644011
0.070586,0.451651,0.651076,-0.047267,0.322463,0.945401
-0.020170,0.306388,0.041055,-0.483891,-0.349391,-0.802356
-0.082886,0.004646,-0.887057,0.200517,0.978774,0.042353
-0.323397,0.882240,0.336068,-0.207069,-0.363608,-0.908246
-0.650345,-0.035311,0.613940,-0.523466,-0.022055,-0.851761
-0.020578,0.507465,0.235465,0.660623,0.749959,-0.033742
-0.196554,0.085610,0.520670,-0.357142,0.802358,0.478196
-0.433011,-0.544756,0.666751,0.741803,-0.468124,-0.480195
-0.033484,-0.172645,0.047185,0.524784,0.812253,0.254650
-0.491128,0.271014,0.554701,-0.283293,-0.867358,0.409188
-0.103497,0.464907,0.878715,0.952595,0.066009,-0.296995
0.090657,0.062751,-0.586280,-0.094681,0.995495,0.005023
0.170334,-0.756674,0.608509,0.733910,-0.261693,-0.626811
-0.119241,0.287246,0.505603,0.445518,0.881837,0.154521
-0.105728,-0.056125,0.203348,0.173321,-0.463600,0.868927
-0.069167,0.216070,0.821803,0.206600,0.866396,0.454614
0.077346,0.056928,-0.153093,0.791094,-0.606086,0.082645
0.348471,0.519791,0.945046,0.290126,0.052043,0.955572
0.524381,0.013194,0.359385,0.292041,0.557559,0.777072
-0.522418,0.062565,0.716147,-0.334705,0.912324,-0.235874
0.016388,0.447190,0.911520,-0.757880,0.519767,0.394285
0.588784,0.621448,-0.160449,-0.140709,-0.940572,-0.309071
0.104714,0.678747,0.262896,0.983734,0.175501,-0.038300
0.265012,0.650996,0.210085,0.915237,0.027620,0.401969
0.115392,0.692438,0.240919,0.825329,-0.103951,-0.555001
0.339013,-0.054575,0.685611,-0.760164,0.090802,-0.643354
-0.168238,0.645109,0.356016,0.654999,0.116265,0.746632
0.229738,0.090193,-0.077606,0.943673,-0.300730,-0.137998
0.259943,0.114352,0.188258,0.976841,0.157958,0.144332
-0.000978,0.391501,0.334441,0.422583,0.730762,0.536106
0.072954,-0.198291,0.504893,-0.118846,0.090957,0.988738
0.007268,0.438395,0.903052,0.718033,0.301743,-0.627200
0.073696,-0.049497,0.526697,-0.519986,-0.662716,0.538907
0.448152,0.024904,0.275408,0.986526,-0.002055,0.163591
0.027339,0.116708,0.888661,-0.145656,0.423015,0.894339
-0.538842,-0.135475,0.611476,-0.168542,-0.108166,0.979742
0.506946,0.237315,0.649689,0.724921,-0.034944,0.687946
0.471804,0.546737,-0.184832,-0.594272,-0.091096,-0.799088
0.270960,0.200274,0.517554,0.101217,0.790904,0.603512
0.069101,-0.256521,0.574272,-0.232353,0.151215,-0.960805
0.260821,0.591155,0.964686,-0.231006,0.956814,-0.176475
0.018553,0.598464,0.280542,0.479854,-0.213418,-0.850995
-0.342659,0.178220,0.600396,-0.133773,0.109451,-0.984949
-0.225543,-0.001116,-0.772086,0.462305,0.875519,-0.140501
-0.154247,0.065231,-0.992850,-0.107370,0.223847,0.968692
-0.155464,-0.091495,0.805257,0.698014,-0.173901,0.694647
0.270960,-0.057981,0.012467,0.487862,0.415593,0.767641
0.090591,0.184972,0.382737,-0.078500,-0.043627,0.995959
0.222371,0.629312,0.014323,0.608031,0.131553,-0.782938
-0.389219,-0.259432,0.772968,0.620531,0.369175,-0.691846
-0.058624,0.473890,0.211896,0.981084,0.100699,-0.165328
0.107011,-0.042805,-0.431801,0.952055,0.305300,0.019576
-0.128026,0.322926,0.387905,-0.541058,0.838342,0.066623
-0.199120,-0.425820,0.648967,0.492545,0.338820,0.801623
0.327860,0.363378,0.732142,0.256919,0.552820,0.792706
0.048894,-0.425758,0.581021,0.835302,0.094207,0.541661
0.403618,-0.113734,0.392156,-0.833206,0.364440,-0.415874
-0.067814,-0.174690,0.185038,-0.080739,-0.473799,0.876924
-0.171006,0.464782,0.026354,-0.275733,-0.664247,-0.694800
-0.810037,-0.601128,0.540401,0.373314,0.470872,0.799322
0.085658,0.419317,0.905206,0.693391,-0.277100,0.665150
-0.242775,-0.069131,0.845257,0.398060,-0.562076,0.724996
0.374423,0.694170,0.646607,-0.723283,0.074807,0.686488
0.093701,0.022609,-0.301659,0.993317,-0.071890,0.090289
0.173712,-0.673729,0.596970,-0.458845,0.355869,0.814137
0.106607,0.210433,0.155361,-0.571181,-0.336147,-0.748837
-0.132621,0.601810,0.358251,0.492275,0.351247,0.796424
-0.320967,-0.144893,0.613379,-0.194251,0.798086,0.570373
-0.126001,-0.098184,0.735030,-0.207632,0.081447,0.974810
0.102012,0.329554,-0.010026,-0.514341,0.683214,-0.518336
-0.828483,-0.353467,0.561771,0.591954,0.131362,0.795194
0.267445,0.321380,0.393141,0.735166,0.316560,0.599433
0.559726,0.181195,0.222231,-0.017322,0.501027,0.865258
-0.329885,0.036485,0.731581,-0.341986,-0.278194,-0.897582
0.242846,-0.080591,-0.014483,0.739888,0.466389,-0.484817
0.026390,0.399183,0.376928,0.022737,0.630616,0.775762
0.314277,-0.151956,0.630107,0.904372,-0.024915,0.426017
-0.105254,-0.130707,0.740392,0.262833,0.916508,-0.301548
0.766856,-0.074334,0.473692,0.667479,-0.454331,0.589962
-0.131611,0.490553,0.634920,-0.258628,0.888616,0.378779
-0.025982,0.087776,0.884330,-0.298166,0.727404,0.618045
-0.077680,0.070494,0.468100,0.903621,0.428320,0.003204
-0.021386,-0.031284,0.744838,0.692521,-0.190506,-0.695789
0.257307,0.212289,0.209123,0.237450,0.814032,0.530065
0.045446,0.333520,0.898137,0.072551,-0.988574,0.132129
-0.348537,0.133866,0.795139,-0.437345,0.341870,-0.831777
-0.684407,-0.396705,0.542762,-0.105048,-0.525535,-0.844262
-0.015307,0.025214,0.869618,0.377211,-0.258780,0.889239
0.058897,0.469924,0.471332,0.333375,0.845864,0.416384
-0.001790,0.547482,0.478138,-0.563968,0.782842,-0.262866
-0.499171,0.480023,0.258141,0.682680,-0.478856,0.551947
0.456328,-0.208945,0.531865,-0.293148,0.828352,0.477386
0.227708,0.565324,0.964182,0.524467,0.355847,-0.773503
0.234332,0.081644,0.443798,0.984895,-0.171174,0.026096
0.069031,0.309731,0.404313,0.076505,0.631296,0.771759
0.007470,0.189744,0.768671,-0.636178,-0.497569,0.589663
0.010106,0.055937,-0.651993,0.336635,-0.935680,0.105732
0.112893,0.405131,0.354103,0.794037,0.606778,0.036423
0.442679,0.354334,0.648773,0.812491,0.291687,0.504755
-0.605473,0.085361,0.612233,0.182696,-0.118142,0.976045
-0.624937,0.389580,0.584813,0.854242,0.438371,0.279467
0.008889,0.531250,0.633430,0.913957,-0.266408,-0.306120
0.106879,0.544756,0.627632,-0.018478,-0.936688,0.349677
0.214600,0.610979,-0.152840,0.136798,0.622902,0.770247
0.087683,0.718205,-0.030971,-0.127981,0.586389,0.799855
0.401114,-0.306882,0.573768,0.143746,0.288155,0.946733
0.128369,0.476987,0.270287,0.706862,-0.084619,0.702272
-0.140937,-0.048752,-0.953400,0.886531,-0.450081,-0.107190
-0.744822,0.021618,0.590164,0.768776,0.375010,-0.518027
-0.518635,0.543085,0.276222,0.646498,-0.631466,0.428125
0.454979,0.051166,0.246328,-0.371328,-0.019330,-0.928300
0.435176,0.143715,0.307079,0.847166,0.060158,-0.527912
-0.038892,-0.303351,0.633235,0.410652,-0.259965,0.873947
0.594258,0.268288,0.197344,0.035508,0.957807,0.285209
0.281164,0.567430,0.964502,0.740012,0.032857,-0.671790
-0.497888,0.487706,0.021152,-0.292233,0.087837,0.952305
-0.362054,0.385617,0.743646,0.927431,-0.348582,-0.135509
-0.647033,0.091803,0.739200,-0.527825,-0.351281,-0.773306
0.741175,0.594191,-0.200197,-0.412703,-0.793288,-0.447628
0.426865,-0.065600,0.005099,0.745797,0.352915,0.565011
0.268728,-0.261352,0.568978,0.331338,0.637827,-0.695264
-0.230682,-0.063989,0.604418,-0.477039,0.570366,0.668668
0.312248,0.512111,0.949607,-0.485956,-0.490295,0.723504
-0.187901,0.173947,0.515171,0.005490,0.071367,0.997435
-0.063355,0.560492,0.457089,0.802939,-0.006641,-0.596024
-0.000775,0.577094,0.471057,-0.551212,-0.227296,-0.802808
-0.232979,0.325527,0.864473,-0.219108,0.531582,-0.818176
0.083764,0.439325,0.760238,-0.151005,0.489841,0.858634
-0.395101,0.052346,0.848775,0.818651,-0.246499,0.518698
0.034433,0.098185,0.886484,0.433305,0.273311,0.858806
-0.175196,-0.412315,0.590909,-0.175784,-0.262535,-0.948776
0.201013,0.374528,0.440715,0.952941,0.107096,0.283607
0.535328,0.670014,-0.187834,0.280562,0.815164,0.506747
0.322725,-0.089635,0.392373,-0.694622,0.050842,-0.717576
-0.228991,-0.147990,0.737001,0.068474,-0.189872,-0.979418
0.230954,-0.186706,0.306506,0.319052,-0.042748,0.946773
-0.572764,0.000559,0.607787,0.142370,0.044590,0.988809
-0.088966,0.578826,0.209891,-0.758444,0.567443,-0.320580
0.081805,-0.147184,-0.002051,-0.434738,-0.722842,-0.537125
-0.356040,0.208698,0.132239,-0.122247,0.963361,0.238729
0.305764,-0.103016,0.580780,0.692122,0.345356,0.633795
-0.406724,0.791180,0.361448,0.668092,-0.495576,-0.555029
0.016119,0.161988,0.884456,0.986983,0.160311,0.012866
0.090995,0.505298,0.749020,-0.206171,0.900589,0.382665
0.263527,0.187264,0.525391,0.397730,0.746901,0.532869
0.001860,-0.047141,-0.636192,0.899811,-0.392485,-0.190516
-0.004426,0.038345,-0.610674,-0.486618,0.859755,0.154998
-0.063896,0.496561,0.478997,0.830733,-0.243469,0.500606
0.470319,0.738093,0.630864,-0.808283,0.521851,0.272671
0.017468,0.406987,0.507952,-0.278326,0.914561,-0.293451
0.425714,-0.110944,0.369812,-0.385787,-0.666314,-0.638117
0.327794,0.452766,-0.164150,-0.615204,0.679597,-0.399590
0.189930,-0.345413,0.572221,-0.464448,-0.461303,-0.755968
0.905392,-0.231555,0.519777,-0.143397,-0.759492,-0.634515
0.858358,-0.271077,0.528027,0.178540,0.842308,0.508568
0.206961,0.181070,0.189678,0.994707,-0.101512,0.015945
0.112757,0.695225,0.239372,0.825329,-0.103951,-0.555001
-0.355297,0.947162,0.331427,-0.184341,-0.334698,-0.924119
0.184593,0.539988,0.957421,0.295146,0.151504,-0.943364
-0.430647,0.108035,0.082831,0.098175,-0.349149,0.931910
-0.005709,0.039025,-0.603685,-0.352641,0.931367,0.090558
0.481872,0.328624,0.182895,0.672517,0.566013,-0.476813
0.825175,0.292324,0.172789,0.456387,0.846994,0.272603
0.387734,-0.284087,0.263847,0.054592,-0.212199,0.975700
-0.088223,0.337483,0.769106,0.159362,-0.351559,-0.922502
-0.027268,0.011894,-0.783933,-0.271237,0.887262,0.373090
0.088561,0.319210,0.446949,0.508885,0.537153,-0.672684
-0.014898,-0.893825,0.567672,-0.121817,-0.029919,0.992102
-0.019361,0.010158,-0.695041,0.962376,-0.245828,-0.115762
0.328268,0.196432,0.901311,0.644382,0.381535,0.662724
-0.209935,-0.269406,0.775053,0.247729,0.881209,-0.402618
0.105865,0.517004,0.250819,0.391691,0.272533,0.878808
0.429567,0.195937,0.496769,0.064895,0.995343,-0.071285
0.307859,0.023293,0.656954,-0.857740,-0.260120,0.443418
-0.418075,-0.104071,0.881809,0.692722,0.419638,0.586550
-0.052743,-0.478783,0.581261,0.183376,-0.152385,0.971160
0.299140,0.586259,-0.161732,-0.375611,-0.687296,-0.621724
-0.035377,0.164283,0.868494,0.768663,0.087478,-0.633644
0.622710,-0.026142,0.351387,-0.786295,0.439011,-0.434753
-0.026390,0.600074,0.626785,0.891951,0.266720,-0.365081
-0.011252,0.450785,0.896555,-0.281759,0.075408,0.956517
0.132353,0.083319,-0.256640,-0.633166,0.757777,0.157718
-0.474505,0.383326,0.233655,0.534828,-0.773677,0.339681
0.606153,0.871525,0.667209,0.659230,-0.168075,-0.732916
0.436731,-0.339096,0.576644,-0.213559,-0.319325,-0.923268
0.222573,0.068327,0.419747,0.840860,0.002090,0.541248
-0.760297,-0.657994,0.556764,0.548804,-0.427482,-0.718382
-0.034429,0.029611,-0.192703,-0.358755,0.795275,-0.488705
0.029636,0.019947,0.634954,0.910075,0.254090,-0.327416
-0.047879,-0.694357,0.584641,0.438666,0.600836,0.668257
-0.253050,-0.073717,-0.991040,-0.585129,0.322678,0.743978
-0.223179,0.092113,0.086521,-0.383396,-0.543931,0.746423
0.200543,0.356191,0.116736,0.854376,-0.170607,0.490851
0.637641,0.641577,0.646378,0.825433,-0.406715,0.391463
0.206759,0.386483,0.435296,0.231679,-0.315332,0.920266
-0.023346,0.196617,0.140317,0.858315,0.219555,-0.463780
-0.030172,0.123211,0.493767,0.325798,0.098645,-0.940279
-0.131949,0.416526,0.868254,0.723757,-0.404652,-0.558956
-0.244669,-0.069937,0.848580,-0.414512,0.536889,-0.734799
0.181957,-0.373971,0.579611,-0.037982,0.371468,0.927668
-0.181144,0.354830,0.879998,0.577898,-0.102163,0.809689
-0.006587,-0.004644,0.849073,0.838769,0.541771,-0.054329
-0.027198,0.404881,0.641600,0.650427,0.332544,-0.682905
0.014700,-0.373413,0.731844,-0.135571,-0.474830,-0.869573
0.345163,0.308060,0.927424,-0.418237,0.499116,-0.758921
-0.021321,0.153440,0.878005,-0.301138,0.391016,0.869725
-0.025441,-0.027999,0.772933,0.369193,-0.727329,0.578523
0.540665,-0.179148,0.511710,-0.268148,-0.764148,0.586663
0.197231,0.398314,0.772658,-0.153142,0.147312,0.977163
-0.057544,-0.680296,0.584080,-0.570289,0.327502,-0.753335
0.375772,0.116148,0.394310,0.951179,0.085789,0.296479
0.048082,0.177289,0.385877,0.955081,-0.089803,0.282409
-0.244603,-0.305147,0.103559,0.934890,0.299424,0.190591
0.107213,-0.005389,-0.111580,0.996728,-0.050331,-0.063248
0.203517,0.157655,0.052960,0.903763,0.427919,-0.009923
0.518165,0.731400,0.670406,-0.840125,0.464463,-0.280114
-0.215747,0.054387,0.904828,-0.369848,-0.597511,-0.711473
0.231697,0.244998,0.724740,0.824317,-0.054905,0.563459
0.330632,0.695845,-0.161789,0.553515,-0.639223,0.533868
0.383816,0.616306,0.656656,-0.418263,0.322195,0.849262
0.277378,0.356255,0.899237,0.787190,-0.595080,0.161902
0.129652,-0.557021,0.456631,-0.774588,0.414199,-0.477968
-0.029768,-0.328131,0.731787,0.138650,0.190099,0.971925
-0.024835,0.505419,0.472351,-0.793038,-0.021078,-0.608807
0.597232,-0.048503,0.349990,0.558260,-0.634632,0.534404
0.178847,0.352043,0.212033,0.490366,0.547424,-0.678136
0.392399,0.247724,0.229851,-0.506544,0.860152,0.059603
-0.115322,0.489377,0.869778,0.678829,-0.521178,-0.517266
-0.026728,0.016106,0.431503,-0.393223,0.896402,0.204549
0.109849,-0.044230,0.711220,0.585137,-0.446914,0.676670
0.125531,0.125007,0.283017,0.347622,0.910443,0.224171
0.047677,0.312211,0.903545,0.529354,-0.270379,0.804164
-0.163103,0.548163,0.349451,-0.457481,0.590457,-0.664884
0.330970,0.189989,0.620185,0.830718,-0.484223,0.274655
-0.388410,0.292513,0.166075,0.330905,0.839800,0.430393
-0.793814,-0.412997,0.527110,0.532720,-0.539817,-0.651773
-0.011384,0.482378,0.269267,0.265178,0.958461,-0.105042
