0.279547,-0.429610,0.279759,0.992501,-0.039739,-0.115600
-0.153408,0.103508,0.216019,-0.406650,0.385019,-0.828490
0.053132,0.817234,0.091116,-0.201868,0.917463,-0.342800
0.115432,0.420471,0.829651,-0.364893,-0.903113,-0.226364
-0.116882,-0.641302,0.529927,0.790927,-0.123552,-0.599307
-0.308877,0.511423,0.126276,0.844806,-0.305427,-0.439338
-0.890348,-0.012340,0.226092,0.994640,0.070853,0.075307
0.378290,-0.596618,0.690373,-0.561239,0.812732,-0.156452
0.090787,-0.002051,0.615815,0.863739,0.340125,-0.371846
-0.093771,0.665911,0.486887,-0.339386,0.195367,0.920135
0.409884,-0.472854,0.694675,0.559812,0.524217,0.641722
0.215388,-0.585177,0.609085,-0.139323,0.939038,-0.314321
0.313484,0.714697,-0.989437,0.034531,0.121315,0.992013
-0.521794,0.595107,0.439119,-0.082923,0.367755,0.926218
-0.500301,0.080338,0.648462,0.249693,-0.959386,0.131272
-0.248432,0.173736,0.540809,-0.720044,0.690515,-0.068746
0.522524,0.426443,0.639922,0.221824,0.935998,-0.273317
0.029454,-0.094513,-0.808908,0.981071,-0.190076,0.037032
-0.330450,-0.160497,0.317517,0.752819,0.561584,-0.343346
0.346454,-0.076956,0.847156,0.887783,-0.228987,0.399257
0.058059,-0.550927,0.580335,-0.005180,-0.822669,0.568498
-0.072924,0.542580,0.249667,0.888360,-0.362607,0.281659
0.593554,-0.066595,0.421443,0.925051,0.343901,-0.161288
-0.359055,0.368447,0.703683,-0.306204,-0.491301,0.815391
0.243909,0.433999,0.445806,-0.759965,-0.254415,-0.598103
0.399946,0.225617,0.479625,-0.263194,0.293783,-0.918923
0.649309,0.316784,0.412499,0.913466,-0.383628,0.135678
0.084726,-0.318726,0.705685,0.929287,-0.256125,-0.266131
0.212557,0.004065,0.913196,0.944615,0.195563,-0.263547
-0.013050,0.124735,0.909448,0.801843,-0.551698,0.229516
0.043998,-0.122936,-0.469637,0.206973,0.978346,-0.001463
0.011191,-0.131643,-0.151363,0.978058,0.074344,0.194616
-0.800572,-0.156611,0.369757,0.995920,0.083769,0.033548
-0.205608,0.485447,0.780435,0.184029,-0.867367,-0.462394
-0.663770,0.120778,0.715609,-0.327711,0.586134,-0.740980
0.321242,0.452636,0.606402,0.803200,-0.500729,0.322706
0.098703,0.500917,0.680939,0.753348,0.641169,0.146186
-0.266211,0.416082,0.736650,0.060248,0.973142,-0.222182
0.446893,0.341896,0.593198,0.121601,0.675063,0.727670
0.029779,-0.095378,-0.196171,-0.760068,-0.606277,-0.233934
0.054182,-0.662314,0.547879,0.215694,0.878691,-0.425886
0.482931,0.189350,-0.964371,0.125244,0.172777,0.976966
-0.018949,-0.034287,0.260358,0.341761,0.923656,0.173378
-0.281564,-0.531642,0.451471,0.282685,0.959164,-0.009718
-0.226051,-0.420040,0.678362,0.756904,-0.652390,0.038527
-0.219264,-0.042057,0.900610,0.757281,-0.095660,0.646046
0.039554,0.502644,-0.950635,-0.205795,-0.110763,-0.972307
0.301849,0.005504,0.524283,0.449981,0.077310,-0.889686
0.729384,-0.241518,0.374485,0.904834,0.342648,0.252722
-0.726233,-0.196834,0.051207,0.456893,0.889440,-0.012013
0.186299,0.112790,0.845197,-0.347538,-0.863164,0.366285
0.571330,-0.792697,0.277757,0.730478,0.398816,-0.554389
0.039554,0.475013,0.760949,-0.591890,-0.543905,-0.594839
-0.137167,0.426732,0.324460,0.209352,0.678987,0.703667
0.077614,-0.405001,0.446232,0.678063,-0.251928,0.690480
0.511457,0.232236,0.407175,0.365218,0.880513,-0.302180
-0.383138,0.877245,0.307742,0.231311,0.961162,-0.150541
-0.056845,-0.068897,-0.029101,0.946809,-0.021403,-0.321085
0.201164,0.426515,0.774366,-0.360957,-0.811835,-0.458949
-0.521715,0.272962,0.503498,0.959052,-0.148878,-0.240946
0.065333,-0.756071,0.512229,0.265188,0.899142,0.348167
0.623372,-0.736932,0.456902,-0.616365,0.671011,-0.412115
0.392755,-0.775715,0.502689,-0.552879,-0.450629,0.700898
-0.382166,-0.363555,0.600822,-0.169166,-0.849447,0.499823
0.499171,-0.006080,0.232928,-0.522824,-0.736985,0.428379
0.285120,0.263320,-0.966778,-0.095026,-0.225156,-0.969678
0.053452,0.415434,0.001544,0.340821,0.902753,-0.262448
0.378936,-0.537615,0.124828,0.861473,0.068837,-0.503116
-0.037453,0.731607,-0.983240,0.043112,0.253212,0.966450
-0.134662,-0.204893,0.789529,-0.282705,0.618036,-0.733559
0.137088,0.131787,0.131409,-0.659253,0.748246,0.074258
-0.131589,0.533801,0.741484,0.371620,-0.876672,0.305523
0.390412,-0.422990,0.596073,-0.387720,0.821081,0.418926
0.076563,-0.704623,0.248901,0.606366,-0.380721,-0.698121
-0.408833,-0.415291,0.535272,0.852197,-0.242110,0.463834
0.434366,-0.611225,0.666670,0.802768,-0.596107,0.014825
-0.013050,0.828171,0.168614,0.622680,-0.251276,-0.741033
0.645674,-0.614894,0.443932,0.596971,-0.005914,-0.802241
-0.062419,-0.089261,-0.935195,-0.071585,0.292765,0.953501
-0.029291,-0.087174,-0.433476,0.282944,0.958983,-0.017159
0.645186,-0.268143,0.380533,0.741029,0.035193,0.670550
0.454971,-0.489620,0.717334,0.908428,-0.417231,-0.026003
-0.508384,0.117467,0.756796,0.987988,-0.149827,0.037822
0.507092,0.103292,0.068776,0.338646,0.880406,-0.331970
-0.030908,-0.160425,-0.154856,0.969877,0.089887,0.226406
-0.145892,-0.031409,0.869965,0.361965,0.114595,0.925121
0.185811,0.293110,0.809398,0.866130,0.473917,-0.158812
-0.283019,0.840978,0.206116,0.478138,0.704113,-0.524985
0.312192,0.059111,0.723382,0.547480,0.816179,0.184708
-0.225888,-0.145386,0.200345,0.969837,-0.072423,0.232748
0.005617,0.405433,0.699552,0.570527,-0.406877,-0.713407
0.475740,0.189854,0.594944,0.908002,0.385107,0.165000
-0.462083,-0.474582,0.572839,0.967948,0.049848,0.246153
0.443337,-0.430761,0.619733,0.125600,0.769282,0.626443
0.235831,0.362835,0.466464,0.970377,-0.234013,-0.060044
0.102259,0.145170,0.433987,0.860849,-0.477458,-0.175992
0.453437,0.580069,-0.982793,-0.046045,0.068723,0.996573
0.145167,0.222954,0.817001,0.569381,0.142790,-0.809578
-0.602683,-0.032344,0.156879,0.603149,-0.784445,-0.144418
-0.230578,0.020543,0.909043,-0.557631,0.737554,0.380869
-0.112922,0.379673,0.412137,0.767472,-0.448512,0.458065
0.297648,-0.181436,0.032275,0.241441,-0.947303,-0.210533
-0.663287,-0.049326,0.601802,-0.504528,-0.130002,0.853552
0.289806,0.560856,0.550563,0.866325,-0.483775,-0.124265
0.420226,-0.318942,0.613791,0.623602,0.422876,0.657493
-0.392671,0.205324,0.800709,-0.597574,-0.798647,0.071184
0.388390,-0.372549,0.782756,0.945400,0.300293,0.126658
-0.045369,-0.083000,-0.444656,-0.056743,-0.997948,-0.029661
0.048200,0.016297,0.147828,0.465679,-0.838593,0.282674
0.297243,0.675985,0.556036,-0.244179,-0.963121,-0.113029
-0.227101,0.435654,0.477261,0.368204,-0.806441,0.462686
0.377964,0.884224,0.176280,0.975030,-0.041108,-0.218234
-0.298935,-0.463357,0.713522,0.236301,-0.846676,0.476762
0.281890,-0.383414,0.618264,0.739826,0.672588,0.016843
0.169087,0.461198,0.729473,0.202715,0.768794,0.606517
-0.427658,0.640871,0.191848,-0.066207,0.656899,0.751066
0.089332,0.745566,-0.051441,0.997180,-0.026486,-0.070215
-0.333360,0.047310,0.868261,0.272822,0.868995,-0.412816
0.095147,0.030185,0.888152,0.752120,0.093918,0.652299
-0.390407,-0.239720,0.858635,-0.634040,-0.452917,0.626785
0.450286,0.469113,-0.973805,0.110121,0.074686,0.991108
0.558404,0.332038,0.385665,0.918010,-0.320202,-0.233940
0.363987,-0.537615,0.397251,0.756861,0.262157,-0.598695
-0.806633,-0.065444,0.217701,0.840494,0.529136,-0.116549
0.121977,0.520345,-0.975509,0.144977,0.046513,0.988341
0.225488,-0.720958,0.637941,0.102330,-0.308626,0.945663
0.197204,-0.280231,0.152876,0.658317,0.671843,-0.339478
0.054020,0.217413,0.827457,-0.668634,-0.138865,-0.730510
0.037049,0.408599,0.822751,-0.623044,0.738793,-0.256908
0.390733,-0.490412,0.660750,-0.462300,-0.651565,0.601450
0.039475,0.492571,-0.973976,0.186376,0.089046,0.978435
-0.255302,-0.260946,0.822623,-0.547722,-0.718900,-0.428000
0.571010,-0.791042,0.423445,0.414129,-0.834126,0.364323
0.709183,0.207915,0.432368,-0.493859,0.433530,-0.753761
-0.283261,-0.132146,0.799304,-0.696130,-0.716063,-0.051545
0.456668,0.750315,-0.988543,-0.113995,-0.162123,-0.980164
0.464993,0.588990,0.506991,-0.144673,0.971125,-0.189700
0.746518,-0.360245,0.405237,0.833301,0.329436,0.443939
0.025982,-0.057961,-0.640774,0.980333,-0.195046,-0.030059
0.304675,0.372405,0.439865,-0.568944,-0.390396,-0.723805
-0.462083,-0.246700,0.556100,0.920795,-0.311405,0.234869
0.343219,-0.452419,0.735649,-0.264526,-0.174235,0.948508
-0.696336,0.224321,0.719996,-0.600880,0.726710,-0.332920
0.545393,0.507249,0.420634,0.147658,0.079980,0.985799
0.145088,0.733909,-0.987499,-0.042224,0.247933,0.967856
0.157447,-0.655693,0.561829,0.196625,-0.894750,0.400952
-0.496908,0.625256,0.448404,-0.310919,0.478158,-0.821398
0.266295,-0.411981,0.718186,0.123808,-0.964950,0.231395
-0.237123,-0.477460,0.674401,0.780931,-0.466057,0.415857
0.055879,0.261162,-0.961241,0.133588,0.034166,0.990448
0.027436,0.793991,-0.989799,0.055756,0.116285,0.991650
-0.439697,0.723475,0.465335,0.117822,0.882313,0.455676
0.381846,-0.080770,0.149958,-0.048252,-0.957579,0.284103
0.357763,-0.479044,0.647014,0.603705,0.735606,0.307286
-0.293441,0.003778,0.746595,0.537771,0.188512,0.821745
-0.192434,-0.125455,0.906232,0.754545,-0.639287,-0.148236
0.161087,0.745494,-0.983495,-0.000992,0.192662,0.981265
-0.349117,-0.353912,0.522068,0.868190,-0.418720,0.266309
0.425804,0.702249,-0.988351,-0.061341,0.132688,0.989258
0.089249,0.664544,-0.982005,0.075488,0.120769,0.989806
-0.153650,0.089404,0.872563,-0.374005,0.919800,0.118695
-0.754917,0.200576,0.451790,-0.062318,0.949642,0.307077
-0.082704,0.005361,0.742570,0.498774,-0.818521,-0.285042
0.329809,0.602014,0.577929,0.470916,0.783818,0.404805
-0.223225,0.068178,0.722999,0.266896,0.798778,0.539185
0.464668,0.004425,0.783118,0.882085,0.364388,0.298576
-0.367785,0.060550,0.828565,0.801683,0.022937,-0.597310
0.268154,-0.697284,0.458222,0.307149,-0.860659,-0.406110
0.236477,0.040907,0.855441,-0.373595,-0.481871,-0.792608
-0.099916,0.482065,-0.968162,0.129520,0.044055,0.990598
0.442691,-0.291095,0.689244,-0.325476,0.938261,-0.117184
0.286980,-0.355639,0.484928,0.303362,0.927250,0.219496
-0.060722,0.039251,0.911067,-0.361431,0.627273,-0.689852
-0.275340,-0.095665,0.820813,0.845306,0.447641,-0.291677
-0.613997,0.635762,0.502795,0.953720,0.300601,-0.007563
0.062991,0.960353,0.120590,-0.720172,0.689962,-0.072832
0.200276,-0.581004,0.645289,0.615427,0.752795,-0.233557
-0.162458,-0.074222,0.766592,0.861445,-0.456267,-0.223011
-0.219669,-0.086815,0.900376,-0.470912,0.344363,-0.812192
-0.066867,-0.482065,0.507757,-0.635862,-0.039455,0.770794
0.760495,-0.727361,0.238338,0.904196,-0.204288,0.375094
-0.091670,-0.169563,-0.924739,0.236247,-0.417840,-0.877267
0.118584,0.755855,-0.987627,0.104198,-0.199982,-0.974243
0.080282,0.597914,0.657790,-0.676247,0.613071,-0.408452
0.000769,-0.131139,0.062068,0.980970,-0.013098,-0.193716
0.019516,-0.809102,0.254991,0.871209,-0.130947,-0.473125
0.319141,0.909048,-0.996145,-0.007777,0.130878,0.991368
0.273160,0.251808,0.346267,-0.097244,0.781956,-0.615702
0.413602,-0.169563,0.061834,0.793988,0.408378,-0.450345
-0.086260,0.053067,0.685901,-0.758239,0.614295,-0.218439
0.298777,0.353841,-0.971356,-0.009753,0.212045,0.977211
0.737872,-0.527756,0.450811,0.484307,-0.228199,-0.844614
0.453516,-0.725275,0.485801,-0.114366,0.473643,0.873260
0.608665,0.100558,0.314536,-0.725208,-0.546586,0.418708
-0.524058,0.512862,0.441121,0.805821,0.100366,-0.583592
-0.423214,0.424357,0.503732,0.544322,-0.635860,-0.547171
-0.178132,-0.062350,0.858571,-0.664112,0.734692,-0.138499
0.465397,-0.153733,-0.946802,0.101129,0.184434,0.977628
0.115190,0.947976,-0.994719,-0.085322,0.166427,0.982355
-0.516142,0.579781,0.473619,0.522746,0.784706,0.333125
-0.664742,-0.054794,0.430175,-0.823924,0.560454,0.083907
-0.562197,0.686491,0.469317,-0.430284,0.847084,0.311938
0.049576,-0.579349,0.617391,-0.531508,0.546485,-0.647189
-0.272677,0.501709,0.730261,0.317529,0.595352,-0.738059
0.443662,0.591293,-0.983453,0.065696,-0.083732,-0.994320
0.125207,-0.243101,0.181413,0.756140,0.653959,0.024286
-0.732210,-0.050981,0.613408,0.860217,-0.373033,0.347669
0.016690,0.004569,-0.006123,0.076675,-0.652814,0.753628
-0.190900,-0.190646,0.130876,0.797722,0.023826,0.602555
-0.511452,-0.274330,0.853630,0.266974,0.767934,-0.582240
-0.015876,0.227919,0.863661,-0.454651,0.822033,0.342861
0.564544,-0.759813,0.460756,0.199202,-0.652782,0.730886
0.403665,0.110056,-0.956705,0.123047,0.086064,0.988662
0.599936,0.106818,0.546538,-0.261539,-0.962788,0.068092
-0.432832,0.327289,0.595881,0.969926,-0.234589,0.064892
0.010707,0.828602,0.305208,0.109281,-0.746135,0.656764
0.013859,0.403345,0.857293,-0.807713,0.568934,-0.154640
0.473476,-0.617413,0.451258,0.615725,0.758969,-0.211774
-0.048200,-0.031192,0.203305,0.028940,-0.987400,-0.155576
-0.746030,0.512862,0.435541,-0.355886,0.888233,-0.290495
-0.102984,0.844001,-0.991460,-0.042742,0.248410,0.967711
0.362128,-0.366649,0.728067,0.929003,-0.075717,-0.362243
0.005539,-0.170498,-0.157816,0.939691,0.330899,0.086523
0.662882,-0.728873,0.436074,0.748905,0.639283,-0.174520
0.242701,-0.360460,0.264894,0.371393,0.903997,0.211795
-0.665466,-0.083864,0.127150,0.862122,-0.505283,0.037866
-0.630317,0.337290,0.650911,-0.214272,0.949025,0.231171
0.265324,0.146682,0.826712,0.826170,0.263820,-0.497837
0.369964,-0.462637,0.082001,0.967088,0.112506,-0.228219
-0.169244,0.129268,0.912451,-0.147011,0.471119,0.869733
-0.817784,0.048102,0.121059,0.555595,-0.752341,0.353975
0.235752,-0.666127,0.634790,-0.401817,-0.750161,0.525169
-0.296272,0.056089,0.946312,0.766118,0.094320,0.635741
0.666522,-0.027811,0.633192,0.061365,-0.996518,0.056448
0.103551,-0.111495,0.799218,-0.464649,0.409283,0.785232
-0.319461,0.039467,0.886768,0.632014,0.774675,0.020915
0.290210,0.732830,-0.990161,0.025709,0.027041,0.999304
-0.404227,0.757798,0.433603,-0.666929,-0.420657,-0.615023
-0.078018,-0.199065,-0.916795,0.567240,-0.173707,-0.805025
0.514929,0.039828,0.264702,-0.611490,-0.643969,0.459765
0.002387,0.629141,0.546005,-0.272850,0.800280,-0.533952
-0.139021,-0.061558,0.950081,0.962736,-0.177066,-0.204418
-0.690600,0.247994,0.265725,-0.487779,0.820694,-0.297547
0.387340,-0.506315,0.716056,0.208581,0.969768,-0.126662
0.314613,-0.362907,0.656618,0.394040,0.910080,0.128403
0.092642,0.093649,0.857443,-0.162335,-0.962765,-0.216174
0.642765,-0.520562,0.422977,0.880799,0.037025,-0.472041
0.261121,-0.125886,0.861042,0.575304,0.816257,-0.052442
-0.278655,-0.524519,-0.905082,0.069912,0.199609,0.977378
0.042543,0.017089,0.005164,-0.404610,0.771223,-0.491432
-0.299181,0.585681,0.115458,0.826933,-0.359912,-0.432024
0.308799,0.403562,0.553480,0.828471,0.434656,-0.353143
-0.303220,0.504515,0.101317,0.343285,0.936695,-0.068980
0.390166,0.663321,0.237422,0.940691,-0.271496,-0.203447
0.174098,0.294693,0.702299,-0.449622,-0.059581,-0.891230
0.475414,-0.832777,0.523154,0.373856,0.037128,0.926743
-0.776253,-0.127181,0.408815,0.941012,0.281241,-0.188150
0.821503,-0.048678,0.335939,0.360703,-0.930805,-0.059122
-0.537793,0.662817,0.412414,0.644901,-0.761349,-0.066712
-0.365762,-0.397374,0.733370,0.339941,-0.492297,0.801301
-0.017010,-0.133585,0.059321,0.975200,-0.150556,-0.162227
0.202860,0.784926,0.483203,0.254285,0.966936,-0.019361
-0.455213,-0.104228,0.001161,-0.361083,0.929095,0.080009
0.430085,0.211369,0.677361,0.930229,0.352244,-0.102947
0.369560,-0.558986,0.760438,0.956961,-0.128396,-0.260270
-0.255464,0.103220,0.874416,0.168550,0.240439,-0.955918
-0.445758,0.474654,0.524432,0.854244,0.175689,-0.489285
-0.019915,-0.079906,-0.545707,0.985974,0.135297,0.097719
0.561230,0.322108,0.702278,-0.630103,0.377367,-0.678649
0.329483,0.269437,0.662730,0.170765,0.983207,0.064370
0.322776,-0.429322,0.332872,0.815184,0.575916,0.061605
-0.609548,-0.167621,0.656235,0.127229,0.986738,0.100798
-0.355016,-0.480698,0.501879,-0.294369,0.464958,-0.834962
0.348876,-0.937471,0.439439,-0.417407,0.908540,-0.018102
-0.465393,-0.420184,0.737097,0.774879,0.630190,-0.049229
-0.120275,0.221587,0.019369,0.991429,0.046050,-0.122259
-0.687201,-0.081633,0.119909,0.961611,-0.122330,-0.245643
0.220152,0.304048,0.383025,0.049321,-0.816528,0.575195
0.272756,0.333837,0.817405,0.767752,0.512742,0.384256
0.786516,0.534809,-0.986988,0.160369,0.186188,0.969338
-0.133611,0.405864,0.634577,0.561971,-0.588414,0.581341
0.616665,0.037813,-0.961539,0.101026,0.182821,0.977942
0.042464,-0.380249,0.742506,-0.453058,-0.551034,-0.700785
0.390412,-0.485376,0.769020,0.916009,-0.239133,-0.322092
-0.460791,0.034790,0.871008,0.856792,-0.115924,0.502463
0.302170,-0.026660,-0.657939,0.954064,-0.259732,-0.149333
0.353240,-0.512790,0.706686,0.826670,0.409894,0.385492
0.105248,-0.775571,0.538552,-0.623719,0.759216,0.185917
0.271059,-0.649865,-0.912451,0.096864,0.182731,0.978380
-0.400025,0.466739,0.120186,-0.014299,0.640564,0.767772
0.190659,-0.768808,0.581166,-0.277851,0.660999,-0.697050
0.021538,-0.205182,0.435222,0.195439,0.949062,0.247153
0.756697,-0.330815,0.407090,0.638014,0.425644,0.641689
0.569471,-0.864365,0.288874,-0.494895,0.771924,0.399016
-0.539894,0.364850,0.619499,0.122375,0.401832,0.907500
0.177328,0.329735,0.814296,0.975355,-0.165468,-0.145958
0.341926,-0.202086,0.626591,0.971760,0.230269,-0.051563
0.662724,0.094009,0.357810,-0.177183,0.487262,0.855092
0.381362,0.543155,0.446658,0.529051,0.793037,-0.301991
0.303788,-0.974744,0.442633,0.204062,-0.978374,0.033803
-0.274615,0.497823,0.495980,-0.054051,0.915108,-0.399570
-0.085530,0.559273,0.485119,0.122808,-0.980477,0.153565
-0.282615,0.287426,0.275542,0.931617,0.119670,0.343175
0.481071,-0.664688,0.480604,0.255319,0.049114,0.965609
0.022988,0.377370,-0.966501,0.096894,0.257167,0.961497
0.071957,-0.318223,0.697167,-0.517032,-0.548464,-0.657165
0.142499,-0.226336,0.742719,0.709165,-0.384067,0.591251
0.245689,0.284619,0.857698,0.943839,-0.186869,-0.272486
0.034386,0.042130,0.586085,0.891724,0.221464,-0.394693
0.194378,0.206907,0.863363,-0.563590,-0.126585,-0.816298
-0.075834,0.283972,0.126255,0.801271,0.597602,0.028928
-0.398890,0.415938,0.598458,0.888840,0.161254,0.428907
0.102826,-0.777586,0.569516,0.073651,0.955144,0.286837
-0.372791,0.843641,0.310383,0.430165,0.887329,-0.166149
-0.043268,0.901061,-0.993696,-0.026078,0.222468,0.974591
0.544180,0.213095,0.554652,-0.818369,0.438903,-0.370993
0.786353,-0.677424,0.344755,0.816621,-0.572228,-0.075394
0.172480,0.184458,0.702938,0.737261,0.472809,0.482595
0.208355,-0.111063,0.810143,0.728677,0.544455,-0.415450
0.643085,-0.764347,0.421422,-0.572897,0.153957,-0.805038
-0.573190,-0.295701,0.271389,0.286649,0.615021,0.734562
0.402772,0.406224,0.440929,0.221419,-0.366620,-0.903639
0.308394,-0.658428,0.648036,0.095731,-0.834634,0.542423
-0.025414,-0.060694,-0.020732,-0.187800,-0.516934,0.835171
0.226297,-0.417234,0.580143,0.674935,-0.730371,0.104980
0.008039,-0.009030,0.203007,-0.033983,0.999422,0.000449
-0.392025,-0.332973,0.755327,-0.449611,0.515745,-0.729286
-0.431618,-0.243749,0.610320,0.935568,0.352359,-0.023575
0.658360,0.011405,0.645949,-0.081634,0.127645,-0.988455
0.378936,-0.350172,0.725427,-0.589021,-0.365084,0.720950
-0.558078,-0.274258,0.267471,0.332819,0.594436,0.732037
0.079715,0.676417,-0.974295,-0.154669,-0.165866,-0.973944
0.632339,0.359094,0.438480,0.936590,-0.152583,-0.315463
-0.237527,-0.425580,0.503306,0.443206,0.741327,-0.503987
0.068485,0.818601,0.370460,0.333486,0.764771,0.551283
0.475819,0.354920,-0.967332,0.062695,0.178110,0.982011
0.831688,-0.515956,0.449192,-0.625098,0.727306,0.283334
-0.308473,-0.178414,0.791637,0.502496,0.202091,0.840629
0.076485,-0.092859,0.372334,-0.883628,0.453958,-0.114554
0.558162,0.274186,0.437330,0.424351,0.905407,0.012847
0.011112,0.632020,0.598565,-0.129826,-0.968947,0.210446
0.089978,0.693758,0.113073,0.798938,0.594091,0.093558
-0.332876,0.100629,0.510994,0.967614,0.070609,-0.242357
-0.264110,-0.572585,0.490763,0.416374,0.854106,0.311664
-0.270980,0.620939,0.636067,-0.206141,0.962126,-0.178381
0.684380,0.422917,-0.974189,0.117580,0.123609,0.985340
-0.101287,-0.097824,-0.935536,-0.103757,0.326444,0.939504
-0.470083,0.268861,0.435137,-0.647388,0.394400,0.652179
0.305563,-0.583882,0.639006,-0.570015,-0.599033,-0.562354
0.281727,-0.041770,0.915901,0.799798,0.046962,0.598429
-0.115831,-0.706855,0.607573,0.939526,0.341360,0.027661
0.621513,0.164958,0.354828,0.475571,0.752599,-0.455442
-0.270734,0.686850,0.425340,0.510711,0.701794,0.496647
-0.064924,0.294262,-0.960218,0.125978,-0.003007,0.992028
0.295221,-0.511639,0.364816,0.983937,0.154577,-0.089299
0.050947,0.383414,0.809930,0.674268,0.656495,0.338198
-0.222416,0.082640,0.232268,0.932449,0.026304,0.360343
-0.069126,0.006224,0.162693,0.821902,-0.532407,0.202534
0.165289,0.315705,0.793234,0.849076,-0.408093,0.335456
0.004084,0.427738,0.793639,0.406510,0.798514,0.443988
-0.041655,-0.074582,-0.241149,-0.770141,-0.637860,-0.004094
-0.185323,0.528836,0.759586,-0.628566,0.703483,-0.331687
0.183793,0.272675,0.747681,0.840765,0.408209,-0.355640
0.453763,0.647130,0.308722,-0.680305,0.692829,-0.239111
0.538040,-0.333118,0.476558,0.430476,0.842189,0.324666
0.592503,0.118690,0.401105,0.441328,0.721385,-0.533697
0.307827,-0.685987,0.614004,-0.197639,-0.959756,-0.199515
0.080524,-0.326282,0.154409,0.043076,0.277575,0.959738
0.149290,-0.500558,0.684985,0.702198,-0.432548,0.565527
0.015881,-0.068826,0.032999,0.918690,0.238387,-0.314930
-0.144841,0.207124,0.807694,0.050248,0.998177,-0.033437
0.349280,0.574528,0.465186,-0.688305,0.326287,-0.647899
0.622884,-0.406728,0.427491,-0.441954,-0.720187,-0.534797
-0.006264,0.275194,0.893646,0.878236,0.118466,-0.463322
-0.434203,-0.047023,0.877355,0.990415,-0.007466,0.137921
0.327303,0.382983,-0.969823,-0.061575,0.210753,0.975598
0.307664,-0.150782,0.781223,-0.423471,0.316763,-0.848725
0.626524,-0.446448,0.451343,0.144326,-0.066191,0.987314
-0.150257,0.819608,0.418313,-0.587550,-0.751179,0.300858
-0.302333,-0.177766,0.258505,-0.738869,0.616931,-0.271051
-0.413440,-0.346501,0.133964,-0.205125,0.213107,0.955253
-0.809301,0.128908,0.214315,0.942458,0.199121,-0.268560
0.227831,-0.335277,0.723617,0.257474,-0.685903,-0.680621
0.305968,0.754704,-0.989671,0.109534,0.044831,0.992972
-0.127550,0.402842,-0.965074,0.182924,0.213716,0.959617
0.378211,0.810109,0.193104,0.712000,0.574892,0.403182
0.635732,-0.709445,0.426661,0.961920,-0.078654,0.261771
0.439702,-0.580860,0.452877,0.896294,0.306208,-0.320772
0.472588,0.535959,-0.983176,-0.012218,0.163801,0.986418
-0.304429,-0.414571,0.449043,0.959809,0.275295,0.054581
0.394935,0.206332,0.621650,0.844010,-0.146266,0.515998
-0.073328,-0.312034,0.749768,0.087091,0.958828,-0.270304
0.554848,0.445871,-0.978107,-0.016901,0.092482,0.995571
0.298456,0.178845,-0.672165,-0.566366,0.563474,0.601438
-0.093046,0.348012,0.699786,0.527093,0.226005,-0.819204
-0.130623,-0.093506,0.879271,0.635911,-0.771238,-0.028447
0.254902,-0.305415,0.624993,0.842328,-0.501849,-0.196550
-0.331826,-0.175176,0.912600,0.052593,-0.382536,0.922443
-0.017252,-0.011045,0.181583,0.672468,0.661662,-0.331648
0.392671,-0.381687,0.757350,0.741165,0.497821,0.450387
-0.092804,-0.252384,0.648164,0.057816,0.808290,0.585939
-0.054503,-0.080626,-0.935685,-0.053224,0.298309,0.952984
-0.109691,-0.032776,0.018176,0.780678,0.557206,0.282954
0.470487,0.097247,0.062835,0.347016,0.898187,-0.269888
-0.473151,-0.125814,0.852459,-0.597384,-0.072390,0.798682
0.090703,0.124591,0.323885,0.386451,0.715337,-0.582193
0.440022,-0.518978,0.363815,-0.271769,0.943078,0.191690
0.024201,-0.156971,0.815063,0.335404,-0.670535,0.661731
-0.056683,-0.309157,0.596904,0.459035,-0.429289,-0.777817
0.130381,0.481417,0.018304,-0.295229,-0.856555,0.423264
0.250779,-0.449542,0.717462,-0.414905,0.761690,0.497677
-0.789746,-0.021766,0.434540,0.960072,-0.179268,-0.214767
-0.359864,-0.409535,0.821516,-0.392782,-0.907086,-0.151385
0.430815,0.554092,0.366371,0.980496,-0.195801,-0.017040
0.432753,-0.557979,0.573669,-0.630563,0.528558,-0.568346
-0.129971,0.153949,0.906424,0.915354,-0.190322,-0.354832
0.557595,-0.818961,0.242128,-0.649633,-0.730661,-0.210027
-0.318653,-0.496888,0.663220,0.233419,0.965774,-0.113116
-0.226455,0.650009,0.032807,0.934057,-0.316900,0.164657
-0.632580,-0.314194,0.613493,0.105230,0.875860,0.470953
-0.734395,-0.187912,0.073888,0.996041,0.034491,-0.081933
0.031717,0.688505,-0.979172,0.046930,0.297306,0.953628
-0.024606,-0.403778,0.756605,0.642808,0.583494,-0.496319
-0.001090,0.131210,-0.947292,-0.007241,0.355593,0.934613
-0.480588,-0.123728,0.580995,-0.798808,0.135835,-0.586050
0.235426,0.752113,0.456689,0.046901,-0.992017,-0.117062
0.320270,-0.558842,0.028122,0.968214,-0.136861,-0.209360
-0.448264,0.238064,0.885341,0.691596,-0.428496,-0.581452
-0.252313,-0.059759,0.862937,-0.008094,0.960250,0.279024
0.650439,0.264472,0.438161,0.071406,-0.735224,0.674052
-0.663932,0.266559,0.649207,0.461572,0.658089,0.594870
0.476711,0.072135,0.058064,-0.639539,-0.752928,0.155208
0.311708,0.041051,0.791445,0.713959,0.519802,-0.469114
0.009011,-0.123368,0.409837,0.762702,0.462511,0.452072
-0.374167,0.689297,0.513997,-0.050336,0.808141,0.586834
0.141369,-0.784350,0.479178,0.339317,0.801604,0.492234
0.626524,-0.067459,0.313663,0.135730,0.889924,0.435446
0.121893,-0.427882,0.177941,-0.159470,0.676364,0.719097
0.241162,0.118186,0.779711,-0.563974,0.186857,-0.804374
0.331505,-0.827091,0.495341,0.931988,-0.065773,-0.356473
0.431214,-0.423134,0.108920,0.758826,-0.372713,-0.534104
0.258616,-0.909552,0.453558,-0.244296,0.897543,-0.367065
-0.042217,-0.549343,0.642201,0.035922,-0.922724,0.383784
-0.112843,-0.118546,0.581464,0.926369,0.032432,0.375218
-0.140235,0.102141,0.689755,0.757183,-0.577162,0.305873
0.718638,-0.552725,0.455624,0.945971,-0.223235,-0.235171
0.365762,-0.689297,0.570326,-0.545316,0.825682,0.144495
-0.208838,0.417233,0.724149,-0.491804,0.865527,-0.094824
0.434366,0.038748,0.463674,-0.501318,-0.155455,-0.851184
0.447539,0.738154,-0.987478,0.048413,0.096542,0.994151
-0.020162,-0.140350,-0.925463,0.044954,0.475680,0.878469
-0.379739,-0.211585,0.813444,0.668862,-0.742966,-0.025008
0.361886,0.321316,0.589450,0.834804,0.144651,-0.531204
-0.396632,0.543155,0.685092,-0.159820,0.849376,0.503009
0.647046,-0.043426,0.465463,0.910002,0.402807,-0.098198
0.603171,-0.447671,0.335917,-0.671124,0.372643,0.640882
-0.416991,-0.244972,0.856591,-0.071997,-0.838782,0.539686
0.102905,0.334269,0.795236,0.162887,0.759029,0.630351
-0.013696,-0.106890,-0.255055,0.888521,0.457706,-0.032178
0.523979,-0.519914,0.427193,0.237297,0.925803,0.294242
0.381278,0.348732,0.744679,-0.651258,0.175310,-0.738328
0.200760,0.645980,0.493063,0.842969,0.429557,0.323858
0.196237,0.594819,-0.977042,0.151482,0.069461,0.986016
0.348471,-0.014859,-0.660452,0.945258,-0.227292,-0.234146
0.057817,0.954740,-0.998105,-0.031907,0.239478,0.970377
0.272756,-0.114157,0.758521,0.634998,0.011866,-0.772423
-0.184598,0.163806,0.850862,0.282088,-0.022130,0.959133
-0.414165,0.787515,0.324928,0.319428,0.837971,0.442459
-0.364791,0.035366,0.751174,0.173003,0.915695,-0.362729
0.558646,0.156683,0.498323,0.955399,-0.231363,-0.183532
-0.105169,-0.327865,0.768829,-0.085264,-0.909347,0.407207
0.671207,0.262241,0.399593,0.329867,0.506316,0.796764
-0.292390,-0.116604,0.652700,0.087492,-0.862929,0.497694
0.337157,-0.720958,0.447702,-0.177931,0.732748,0.656826
0.660056,0.572945,-0.984752,0.201186,0.155239,0.967174
-0.000523,-0.128620,0.056063,0.947416,-0.006710,-0.319933
0.392267,-0.156107,0.772981,-0.716641,0.637481,-0.282920
0.343865,-0.384566,0.721593,-0.765383,0.020611,-0.643245
0.002303,0.770247,0.063452,0.592893,0.741891,-0.313171
-0.156964,-0.399605,0.647376,0.289722,0.864365,-0.411016
0.634602,-0.167260,0.402681,0.443019,0.272261,0.854171
0.604705,0.389531,0.725767,-0.369939,-0.822695,-0.431647
-0.046262,-0.523656,0.650123,-0.294654,-0.883431,0.364321
-0.399783,-0.124951,0.289917,0.990239,-0.084477,0.110860
-0.532462,-0.011693,0.853694,0.786900,-0.360178,0.501059
-0.214174,-0.418098,0.675806,-0.482635,0.857850,0.176512
-0.121972,0.572370,0.581400,-0.331851,0.925326,-0.183432
-0.086664,0.080770,0.729856,0.233562,-0.938596,-0.253943
0.249807,-0.022343,-0.948974,0.060612,0.197237,0.978480
0.129330,0.291815,0.774472,0.759523,0.368042,0.536348
-0.217000,0.926965,0.446701,-0.608109,-0.765908,0.208777
-0.526322,-0.286634,-0.005739,-0.842651,0.296665,-0.449365
0.211348,0.582371,0.616091,0.518418,0.033558,0.854468
0.529069,-0.061774,0.636174,0.020602,0.954384,-0.297872
-0.351381,0.500486,0.724575,-0.737776,-0.133119,-0.661789
-0.360510,0.553013,0.533142,0.794149,0.398782,-0.458585
-0.184519,0.090844,0.837829,0.859913,0.436649,0.264363
-0.435175,0.668646,0.445082,0.703361,-0.702469,0.108727
-0.718800,0.321749,0.407260,0.904175,-0.120247,0.409887
0.368593,0.759957,0.497940,-0.122847,0.672596,0.729742
-0.443337,0.030401,0.884446,-0.159126,0.586245,0.794353
0.034139,0.122432,0.607445,0.893764,0.372670,-0.249604
0.119471,0.313401,0.873372,-0.590465,-0.419331,-0.689575
-0.169974,-0.205182,0.738247,0.934765,-0.354517,0.023052
-0.116640,-0.609354,0.535996,-0.411199,0.817688,0.402867
-0.380386,0.485519,0.647376,0.996632,-0.024295,0.078320
0.061940,-0.283828,0.468934,0.130014,0.809384,0.572708
0.156318,-0.105307,0.946120,0.975688,-0.182675,0.121092
-0.251341,0.669437,0.109942,0.865413,-0.269732,-0.422261
-0.321883,0.487174,0.518469,0.388812,0.795222,0.465238
-0.363662,0.354344,0.312449,0.904184,-0.150086,0.399906
0.158177,0.331390,-0.071566,0.266761,0.960888,0.074388
-0.436629,0.198849,0.821452,-0.484348,-0.148580,0.862166
0.898673,-0.214103,0.112434,0.293017,-0.142562,0.945419
-0.573106,0.635331,0.469743,0.892331,0.353620,-0.280534
-0.491413,0.265047,0.614239,0.424086,-0.881826,0.206238
0.395014,0.723404,0.507267,0.652188,0.583651,0.483739
0.386368,0.652095,0.319817,0.890671,-0.451042,-0.057149
-0.268717,0.009103,0.500197,-0.307613,-0.950340,0.047202
-0.583448,0.312826,0.630956,0.229530,0.631167,0.740908
0.114786,0.791257,0.523878,0.657160,-0.040790,0.752646
-0.301766,-0.107250,0.743039,-0.707940,0.697081,0.113571
-0.541512,-0.325635,0.628507,0.915196,0.127643,0.382262
-0.018465,-0.753625,0.523878,-0.086013,0.810436,0.579479
0.055149,-0.278360,-0.919202,0.419269,-0.158193,0.893974
0.684459,-0.058392,0.358939,0.269447,0.957765,-0.100425
-0.698599,-0.016730,0.655468,0.610094,0.465903,-0.640874
-0.365437,0.610506,0.665222,0.702459,-0.707639,-0.076147
0.503862,-0.686347,0.512911,0.866116,-0.098114,0.490119
0.404956,-0.574960,0.459521,-0.790600,0.403930,0.460208
-0.270576,0.602735,0.548582,-0.469061,-0.834732,0.288451
-0.321883,0.650369,0.506692,-0.474012,-0.000440,-0.880518
0.644220,-0.446592,0.594689,0.933337,-0.210273,-0.290978
0.068243,0.819320,0.165164,0.912514,-0.029253,-0.407998
-0.121972,0.574168,0.610682,-0.567674,0.819068,-0.082909
0.685026,-0.371830,0.435989,0.930366,0.019934,0.366090
-0.486324,-0.365642,0.563085,-0.722159,-0.688249,-0.069281
-0.413597,0.760605,0.355787,-0.581567,-0.801096,-0.141514
0.306372,0.210722,0.694867,-0.404226,0.876577,-0.261180
0.491014,-0.461918,0.657619,0.965866,0.091176,0.242467
-0.262009,-0.139558,0.466421,-0.728414,0.361324,-0.582115
0.089737,0.752905,0.203050,0.878229,0.092011,-0.469307
-0.036886,0.013707,0.553097,0.373113,0.922966,0.094450
-0.258532,0.875013,0.146551,0.879105,0.457248,0.134533
0.777870,-0.092067,0.389328,-0.623289,-0.075505,-0.778338
0.072361,0.320597,0.803073,0.875454,0.483127,-0.013002
0.476711,0.463860,-0.977767,-0.091957,-0.042561,-0.994853
-0.692701,0.245475,0.725214,-0.501207,0.752367,-0.427475
0.642035,-0.231661,0.408027,0.957566,0.287604,-0.018758
0.724620,-0.575823,0.375976,0.347427,0.323491,0.880141
0.082383,0.043065,-0.647717,-0.640555,0.520718,-0.564395
0.409721,-0.582659,0.459159,-0.789841,0.384610,0.477730
-0.186861,-0.504731,0.730815,-0.041242,0.838816,-0.542850
0.304434,0.053067,0.842705,-0.490249,-0.441593,-0.751433
0.285604,0.937327,-0.996273,0.052621,0.143926,0.988188
-0.307827,-0.265407,0.685092,-0.025639,0.948534,0.315637
-0.085125,0.120417,0.869326,0.817403,-0.292222,-0.496446
-0.160357,0.148192,0.977639,-0.013036,0.583734,0.811840
0.190659,0.028890,0.871306,0.979369,0.145246,-0.140496
0.314613,-0.145098,0.404577,0.101471,0.500215,0.859935
-0.142903,0.555244,0.761247,0.291759,-0.956188,-0.024101
-0.400587,-0.199713,0.749023,-0.553070,-0.832300,-0.037272
-0.674438,0.263393,0.724745,-0.483819,0.099804,-0.869459
0.510081,-0.883289,0.423701,-0.670897,0.423811,-0.608507
-0.400187,-0.357079,0.699850,-0.625843,-0.195487,0.755053
-0.430243,0.819895,0.423786,0.142629,0.928840,0.341925
-0.269121,-0.255694,0.777326,0.666724,0.650542,-0.363695
0.566645,0.144234,0.454367,0.896503,-0.205059,0.392726
-0.154054,0.130635,0.924931,-0.233864,-0.850271,0.471536
-0.403985,-0.191798,0.763206,-0.364681,0.926873,-0.088962
0.672179,0.368159,0.400552,0.804866,0.573896,-0.151111
0.595896,-0.465660,0.386368,0.613755,0.629336,0.476698
0.113735,-0.117540,0.079893,-0.004998,0.973677,0.227877
-0.238819,0.228854,0.241149,0.927177,0.180934,0.328032
0.434612,0.300881,0.719890,0.439210,-0.885596,0.151043
0.026790,-0.353193,-0.916519,0.034788,-0.020988,0.999174
-0.027915,-0.019608,0.547986,-0.667529,-0.713208,-0.213868
0.166902,0.797446,0.220236,0.398328,0.586868,-0.704926
-0.778270,-0.086959,0.597628,0.974923,-0.063917,0.213165
0.203023,-0.546249,0.410582,-0.211025,-0.800093,0.561534
-0.734800,-0.169491,0.131004,0.802207,-0.593117,0.068384
-0.336511,0.619428,0.664157,-0.253081,0.953826,0.161757
-0.228876,0.291383,0.391415,-0.080643,-0.830306,0.551443
0.191389,0.089188,-0.950273,-0.129223,-0.099380,-0.986623
-0.686639,-0.042778,0.430217,-0.289497,0.800852,0.524239
-0.295221,0.680230,0.262807,0.865079,0.389556,-0.316046
-0.074058,-0.073143,0.174087,0.056586,-0.969612,-0.238013
0.486082,-0.365569,0.593624,0.335958,0.466949,0.817980
-0.041414,-0.505738,0.658301,-0.156369,-0.442636,-0.882962
-0.721627,0.223602,0.616752,0.873535,-0.347795,-0.340550
0.422815,0.187120,0.713416,-0.527227,-0.807575,0.264298
-0.945132,0.266703,0.299011,-0.494261,-0.632048,0.596843
0.411822,-0.606116,0.587831,0.451544,-0.790312,0.414144
0.366088,-0.453427,0.677893,0.919737,-0.229446,-0.318493
-0.882669,0.165317,0.440397,0.358579,0.910869,-0.204302
-0.450444,0.323475,0.549690,0.684459,-0.723069,0.093205
-0.024364,0.826300,0.112413,0.753122,-0.635984,0.168321
0.842839,-0.239791,0.256929,0.898078,0.418947,-0.133935
0.415945,-0.233244,0.091223,-0.663090,0.352898,0.660133
0.287867,-0.357295,0.159626,0.704925,0.700517,0.111158
0.567370,0.710308,-0.990331,0.005074,0.157007,0.987584
0.339179,-0.678432,0.532184,-0.543799,-0.708912,0.449140
0.683246,0.053931,0.558975,-0.009856,-0.995553,-0.093687
0.513558,-0.714769,0.502518,0.817348,-0.318365,0.480194
-0.525108,0.432920,0.421145,0.814864,0.347464,-0.463966
0.076968,0.483864,-0.973550,-0.124572,-0.088121,-0.988290
0.703931,0.723115,0.377211,-0.505580,0.757270,0.413437
-0.191951,0.042561,0.894477,-0.333548,0.942151,0.033134
-0.416103,0.688649,0.737140,-0.301961,0.942101,0.145826
-0.353561,-0.135888,0.868985,0.840476,-0.337558,-0.423858
-0.073653,0.756503,0.566194,-0.758277,0.639604,0.126189
-0.034218,0.499766,0.872116,0.041146,0.998786,-0.027093
-0.506525,0.741104,0.339452,-0.688820,0.724910,0.005660
0.090546,0.758517,0.188781,0.019687,0.916763,0.398947
0.608665,-0.271380,0.441249,-0.598621,-0.185070,-0.779360
-0.388228,0.637704,0.753048,0.677241,0.336215,0.654450
0.632985,-0.467602,0.414181,-0.723682,0.263405,0.637889
0.275587,0.539557,0.546154,0.674454,-0.696303,-0.245508
-0.154863,-0.023422,0.419292,-0.097726,0.994441,0.039199
-0.295625,0.747940,0.411924,0.214625,0.691940,0.689315
0.071636,0.500990,0.351357,0.924842,-0.332206,0.185218
-0.022100,0.795935,0.501134,0.183305,0.983031,0.006989
0.073979,0.157618,-0.951828,0.036399,0.193904,0.980345
-0.815762,0.245475,0.301694,-0.130471,-0.855335,0.501377
-0.208675,-0.290088,0.219490,0.868175,-0.028733,0.495425
-0.011511,0.349307,0.877823,0.002769,-0.995298,0.096817
-0.134016,0.615902,0.411029,-0.128041,-0.695703,0.706826
0.597918,0.163590,0.320967,0.355797,0.886067,-0.297143
-0.344106,-0.045584,0.822517,-0.689847,-0.702987,0.172977
-0.021454,0.860767,0.162012,0.335206,-0.941330,0.039191
-0.418204,0.589134,0.532248,0.925493,0.377291,-0.033382
-0.106540,0.130131,-0.949719,-0.004250,0.249442,0.968380
-0.398003,0.824429,0.193040,0.336054,-0.526089,0.781216
0.470004,0.255549,0.569069,-0.190029,0.514486,-0.836178
0.365442,0.789387,-0.991205,0.075951,0.100847,0.991999
0.649877,0.382406,0.434115,0.919095,0.295186,0.261017
-0.170537,0.573449,0.576204,0.052655,-0.965106,0.256509
0.552264,0.478107,-0.980216,0.005726,0.077960,0.996940
0.486407,0.030761,0.235377,-0.539126,-0.703283,0.463396
-0.682437,-0.202663,-0.004717,0.533132,-0.820408,0.206642
0.406249,-0.470121,0.085537,0.973910,-0.087476,-0.209397
0.156239,0.093074,0.037918,0.139937,-0.909878,0.390562
-0.423940,0.654758,0.756775,0.801327,0.478483,0.359068
-0.447781,-0.253607,0.803137,0.541991,0.801850,0.251560
0.161166,0.770462,0.475216,-0.446829,0.890325,-0.087548
0.462729,0.149632,0.508417,0.157822,-0.986500,-0.043705
-0.032442,0.187048,0.814467,0.589419,0.237575,-0.772103
0.580223,0.093578,0.551095,-0.439101,-0.784839,-0.437284
-0.357196,0.483864,0.697465,0.877046,-0.306312,-0.370086
-0.149206,0.735924,0.517341,-0.505609,0.786248,-0.355209
-0.116236,0.600720,0.692077,-0.164764,-0.935435,-0.312753
0.035998,-0.124015,0.374655,0.531986,0.749853,0.393334
-0.759686,-0.126462,0.318944,0.902918,0.429364,-0.019626
-0.042706,-0.139054,0.934940,0.400952,-0.830776,0.386068
0.408670,0.396511,-0.977064,-0.099658,-0.212843,-0.971991
0.142903,-0.271164,0.204264,-0.562916,-0.809461,-0.167028
-0.061694,-0.079115,0.378680,0.928835,0.348683,-0.125246
-0.210776,-0.057457,0.706303,0.713113,-0.518002,0.472381
-0.006180,-0.105739,0.035788,0.963723,0.043099,-0.263402
0.759933,0.574600,0.272646,0.631446,0.774235,0.042850
0.793224,-0.719662,0.150064,0.528790,0.597303,-0.603001
0.253852,0.774492,-0.986562,0.076913,0.173053,0.981905
-0.048116,-0.066955,-0.148978,0.961938,-0.207368,0.177972
0.142420,0.120057,-0.946951,0.126004,0.162865,0.978569
0.414732,-0.745998,0.521728,0.579897,0.769896,-0.266419
0.211186,0.400612,0.745275,-0.161409,0.853927,0.494729
-0.268071,-0.243821,0.690543,-0.310986,-0.857524,-0.409805
-0.418125,0.140853,0.760204,0.492149,-0.417471,-0.763876
0.165531,0.221011,0.848413,0.482168,0.496801,0.721597
0.101534,0.413204,0.853801,0.324281,0.324077,0.888716
-0.279301,-0.622595,0.414160,0.980667,-0.194623,-0.020349
-0.242617,-0.281957,0.787122,0.316423,0.948053,-0.032743
-0.309198,0.583234,0.061131,0.909390,0.088775,0.406361
-0.121409,0.511855,0.826542,0.031844,0.962047,0.271018
-0.144274,-0.210505,0.728515,0.526048,-0.160106,-0.835248
-0.433961,0.577118,0.518746,-0.657008,-0.553365,0.511984
-0.480746,0.225040,0.714374,-0.443196,0.855516,0.267712
0.597514,0.244972,0.515616,0.587841,-0.642153,-0.492019
0.101450,0.607915,0.675551,0.686713,-0.662527,0.299137
0.112927,0.321460,0.796578,-0.196306,0.979587,-0.043290
0.154947,0.071199,0.033467,0.320920,-0.881347,0.346753
0.635979,0.415650,0.515466,0.832954,0.543716,0.102762
0.417883,0.098614,0.669162,0.944561,-0.326237,0.037077
-0.307339,0.212664,0.896947,0.878417,-0.262078,-0.399623
0.156559,-0.166109,0.553544,0.865125,0.440528,-0.239778
-0.515333,-0.241735,0.649953,0.396919,-0.176490,0.900726
-0.124719,0.005648,0.600204,0.565173,-0.816377,0.118782
0.336107,0.319014,-0.111369,0.244627,0.819871,0.517658
0.741182,-0.427523,0.401041,0.469398,0.649027,0.598689
-0.136679,-0.554956,0.106151,0.968643,0.206929,0.137515
0.476223,0.395286,0.663178,-0.761175,0.618752,0.194317
0.202136,0.288865,0.847178,0.896802,0.387458,-0.213596
0.389362,-0.090556,-0.945460,0.107299,0.191210,0.975667
0.369318,-0.190287,0.431644,-0.009336,0.978716,0.205008
-0.827806,0.041554,0.276927,-0.619334,0.076525,-0.781390
-0.134257,0.460191,0.295135,-0.196093,-0.809865,0.552872
-0.107916,-0.108329,0.349739,-0.468663,0.724574,0.505319
0.482931,-0.261307,0.660856,0.992814,0.100790,-0.064510
-0.244151,-0.142004,0.893199,0.956160,-0.291425,0.028815
-0.186699,0.713330,0.551542,0.501339,0.850655,0.158260
-0.442849,-0.313115,0.694632,0.984916,0.089792,-0.147915
0.050059,0.455586,0.719549,0.983158,0.182621,-0.007111
0.704093,-0.453067,0.374847,0.148267,-0.713326,0.684969
0.209405,-0.112071,0.543343,-0.883390,0.433216,0.178736
-0.830958,0.053354,0.477900,0.830944,0.358186,-0.425716
-0.699891,0.001546,0.582848,0.815559,0.327182,-0.477300
0.232516,0.399748,0.433114,0.980692,0.050121,0.189029
-0.248274,0.745422,0.105193,0.935128,0.232221,-0.267599
0.161491,0.436589,0.642243,0.229160,0.936781,-0.264438
0.575291,0.070337,0.513848,0.840578,-0.056149,-0.538773
-0.199951,0.145746,0.547560,-0.309373,0.735012,-0.603362
-0.467982,0.380824,0.620116,-0.607289,-0.401976,-0.685284
0.407215,0.616765,0.513209,0.506268,0.185024,0.842294
-0.272593,0.747652,0.288980,-0.199745,0.639093,0.742739
-0.318085,0.862061,0.138501,0.866709,0.446120,0.223144
0.102742,0.121640,0.346438,0.781448,0.490236,-0.386015
-0.419496,0.639360,0.389967,-0.292341,-0.669686,-0.682684
-0.742957,0.034071,0.611726,0.791238,0.570088,0.221230
-0.081569,0.628351,0.648015,-0.000285,0.794953,0.606670
-0.565836,-0.381975,0.571241,-0.478432,-0.848954,0.224456
0.637591,0.262745,0.449043,0.160291,-0.939939,0.301367
0.552747,-0.337435,0.457966,0.787369,0.437022,0.434813
0.333443,0.225688,-0.965841,0.111375,0.221112,0.968868
0.852535,0.294405,0.390521,0.898021,0.317473,0.304579
0.249807,0.669652,0.551372,-0.360175,-0.930318,0.069151
-0.411338,0.228134,0.782756,0.839360,-0.207845,0.502270
0.213287,0.937110,0.231821,0.137890,0.818400,0.557860
0.234943,0.288001,0.871349,-0.342734,0.908839,-0.237792
-0.791847,-0.112862,0.600673,0.936542,0.350392,0.010682
0.421276,0.267782,0.164844,0.289728,-0.839752,0.459211
-0.069693,-0.013924,0.555354,0.982751,-0.068356,0.171836
-0.024926,-0.750963,0.479902,-0.085881,-0.996052,0.022475
0.248920,0.076452,-0.950763,-0.088109,-0.185538,-0.978679
0.471779,-0.440187,0.413947,-0.142368,0.655454,0.741695
0.905055,-0.043426,0.324226,0.849062,-0.051553,-0.525772
0.511294,0.452132,-0.978278,0.088816,0.075751,0.993163
-0.673387,0.185033,0.301481,0.125200,0.987353,-0.097256
0.083838,0.039180,0.881656,0.437580,-0.467915,0.767841
0.312512,0.755063,0.166079,0.865482,-0.303124,0.398819
0.544585,0.668646,-0.987435,0.119258,0.174731,0.977367
0.552826,0.609498,0.312449,-0.498090,0.706889,-0.502209
-0.218214,0.695269,0.517639,-0.433556,0.885898,-0.164964
0.316068,0.179493,0.785205,-0.684196,-0.416721,-0.598515
0.617957,0.283180,-0.973933,0.054842,0.071147,0.995957
-0.099349,-0.016874,0.178793,0.883040,-0.251355,0.396310
0.343865,0.483432,0.592815,0.896596,-0.113908,-0.427949
0.391137,-0.423278,0.797770,0.988660,0.045531,-0.143103
-0.215141,0.362907,0.526647,0.725166,0.335508,0.601306
0.009982,0.214535,0.831205,-0.612159,-0.774951,0.157205
0.029375,0.131354,-0.952019,-0.174119,0.464601,0.868233
0.153650,0.120561,-0.651486,-0.451184,0.543603,-0.707763
-0.654883,0.609858,0.446615,-0.675888,0.403978,0.616422
-0.535692,0.469185,0.369736,0.667529,0.566779,0.482874
-0.266127,0.176902,0.581591,-0.640512,0.692601,-0.331736
0.070502,0.174168,-0.947611,-0.049358,0.301378,0.952226
0.003354,0.005504,0.498344,0.234114,0.801971,-0.549576
0.799768,-0.588775,0.380384,0.964431,0.114153,0.238416
0.194378,0.440043,0.675998,0.906822,0.412788,-0.085323
0.260638,-0.429034,0.328357,0.821482,0.570132,0.010823
0.045941,0.066955,-0.708880,-0.766892,0.336583,-0.546432
0.847928,-0.501421,0.324013,0.992514,-0.122132,0.000496
0.021696,0.529771,-0.972911,-0.152949,-0.109082,-0.982195
0.092484,0.091132,-0.863257,0.994966,-0.043607,-0.090229
0.245931,-0.419033,0.716674,0.951842,-0.265132,0.153953
0.025897,-0.721533,0.620713,0.460065,0.540572,-0.704359
0.691246,-0.473575,0.432006,0.737153,-0.657839,-0.154445
0.389682,0.362044,0.727216,0.958124,0.107500,-0.265410
0.209893,0.675841,-0.982750,0.136685,0.223811,0.965000
-0.046419,0.080842,0.913218,-0.582052,0.161355,-0.796982
0.148801,-0.578341,0.612748,-0.280232,-0.872921,0.399349
0.615614,-0.242239,0.410838,0.999370,0.020955,0.028650
0.143066,0.671020,0.622225,0.890117,0.424305,0.166306
0.244555,-0.491060,0.695399,-0.631377,0.774916,0.029475
0.288918,0.633747,0.576608,-0.484658,-0.817079,-0.312233
0.063070,0.492210,0.671739,0.793917,0.601352,0.089842
0.753709,0.248570,0.457519,-0.672310,-0.737231,-0.067002
0.336269,-0.458464,0.024991,0.927227,0.189544,-0.322992
-0.149285,0.227559,0.955810,0.018183,0.997819,0.063462
0.547011,0.342832,0.468146,0.883828,0.229525,-0.407635
0.051593,0.332325,0.818918,-0.532902,-0.843749,-0.064052
-0.317439,0.586688,0.441291,0.867624,-0.349128,0.354031
0.326573,-0.424213,0.611662,0.904319,0.424510,-0.044706
-0.673708,-0.229861,0.588193,0.310829,0.489363,0.814806
0.081737,0.423565,0.231949,0.392989,-0.314509,0.864085
0.397361,-0.795431,0.312491,0.911423,0.353014,-0.211399
-0.033572,-0.104587,-0.665414,0.970058,-0.238218,-0.047334
0.555657,0.366577,0.475280,-0.754350,0.392253,0.526396
0.174660,0.537255,-0.979023,0.122523,0.088632,0.988500
0.236314,0.030617,0.214677,-0.074070,-0.709025,0.701282
-0.071311,0.040331,0.924121,-0.375246,0.376457,-0.847036
-0.199546,-0.215614,0.199664,0.994207,-0.002592,0.107450
-0.284390,0.789315,0.292004,0.615304,0.770861,-0.164845
-0.133769,0.382119,-0.952360,0.189259,0.202311,0.960860
0.511940,0.086167,0.574542,-0.921153,0.038985,-0.387243
-0.534321,-0.107394,0.872520,0.883706,0.332385,0.329520
-0.061452,0.270300,0.857315,-0.741385,0.573040,-0.349246
-0.671607,0.613456,0.434519,-0.916525,0.389112,0.092598
0.350572,-0.344630,0.628891,-0.732916,-0.657274,0.175569
-0.755001,-0.110919,0.269196,-0.680021,-0.605296,-0.413749
0.718075,0.634395,-0.988351,-0.103381,-0.019586,-0.994449
0.249892,0.516100,0.576587,0.976555,0.055915,-0.207881
0.118746,-0.402338,0.670312,0.653098,-0.636487,-0.410302
0.704419,0.283540,0.534420,0.981386,0.128132,0.143053
0.304754,-0.455945,0.015472,0.913458,0.350562,-0.206641
0.389115,-0.421694,0.689904,0.802780,0.424435,0.418807
0.381037,-0.797014,0.467763,-0.792197,-0.001113,-0.610265
-0.116320,0.004065,0.907020,-0.574329,-0.026549,0.818194
-0.363015,0.549056,0.553906,0.731537,0.569775,0.374446
0.677027,-0.727505,0.421976,0.821575,0.161734,0.546678
0.347988,-0.615254,0.432326,-0.894252,-0.204933,0.397889
0.257487,-0.713114,0.525838,-0.132596,0.702267,-0.699456
-0.093529,0.686347,0.640135,0.016317,0.991632,0.128059
0.119309,-0.083073,-0.927231,0.089555,0.200675,0.975556
0.240516,-0.363771,0.649484,-0.030870,0.997343,-0.065979
-0.107995,0.390394,0.808759,-0.384165,-0.860520,-0.334547
0.042385,0.128404,-0.950018,-0.076386,0.448949,0.890286
-0.559292,0.233603,0.583210,-0.663397,0.743471,-0.084595
-0.780371,-0.003130,0.415693,-0.281936,-0.299416,0.911517
0.275104,0.466306,0.505883,-0.221506,-0.640894,0.734976
0.061210,-0.127109,0.382045,0.917507,0.296913,-0.264620
0.611575,-0.773845,0.387987,0.832818,-0.461639,-0.305455
0.585796,-0.324411,0.324886,-0.610343,-0.144457,0.778854
-0.361560,0.144594,0.831653,0.775778,-0.081392,0.625735
0.015151,0.824357,0.102851,0.747006,-0.613865,0.255248
0.826272,-0.643605,0.367883,0.950557,-0.247046,0.188175
0.020971,-0.236338,-0.865961,0.262179,-0.949073,0.174708
0.246010,0.369382,0.405918,0.873437,-0.399483,0.278426
-0.562522,0.664688,0.447446,0.584613,0.354311,-0.729857
-0.632580,0.652599,0.195681,-0.328080,-0.358920,-0.873808
-0.366487,0.363051,0.349164,0.804816,0.590275,0.062019
-0.716132,-0.221300,0.462737,0.897563,0.415428,0.147649
0.134987,-0.126174,0.797493,0.366065,-0.597419,0.713503
-0.220556,-0.085735,0.768892,-0.022413,0.990432,0.136170
-0.099753,-0.456953,0.638325,0.103829,0.248278,-0.963108
0.585391,-0.431768,0.617284,-0.297707,-0.942228,-0.153547
-0.152920,0.433568,-0.963221,0.113805,0.270551,0.955955
0.315018,-0.476309,0.659664,0.963384,0.195989,0.182972
0.249324,0.203238,-0.959942,0.094721,0.195444,0.976130
-0.449314,-0.128405,0.554694,0.788594,-0.435222,0.434398
-0.123994,0.446951,0.396910,0.836946,-0.019955,0.546922
-0.469841,-0.357151,0.582060,-0.891118,0.150641,0.428038
-0.459494,0.033351,0.749193,-0.309521,0.810571,-0.497163
0.004404,-0.138694,-0.203114,-0.755918,-0.619102,-0.212838
-0.029128,-0.655622,0.636749,0.261686,0.701249,-0.663152
0.291991,-0.269149,0.575373,-0.777455,-0.406140,0.480223
0.324068,0.605252,0.527818,-0.352358,0.465769,-0.811728
-0.712498,-0.170427,0.609873,-0.118382,-0.818473,0.562216
0.125695,-0.153230,-0.936090,-0.210392,-0.180412,-0.960826
0.405844,0.130779,0.617497,0.961943,0.016301,0.272763
-0.003112,-0.080770,-0.003439,0.415037,0.624636,0.661494
0.446163,-0.720741,0.257526,0.602161,0.558215,0.570788
-0.005859,-0.134016,-0.183627,0.970962,0.109270,-0.212819
0.113893,0.690520,0.622161,0.838502,0.534936,0.103721
