-0.263503,0.697377,-0.982504,-0.062941,0.119341,0.990856
-0.209900,-0.282960,0.817929,-0.138714,-0.522681,0.841168
-0.714464,-0.203485,0.381789,-0.602668,0.780085,0.168104
-0.656748,0.863081,0.512464,0.471453,-0.864403,-0.174755
0.505532,-0.553262,0.540637,-0.370861,0.833075,0.410424
-0.236888,0.445507,0.753592,-0.549581,0.773158,0.316523
-0.166891,-0.078307,0.720338,0.077243,0.206153,-0.975466
0.486895,-0.305747,0.612544,-0.149427,0.653539,0.741996
0.151244,0.475302,0.682423,0.580399,-0.050922,0.812738
-0.125439,-0.097813,0.499115,0.795479,-0.381430,-0.470876
0.074080,0.603509,0.152759,0.620549,0.124405,-0.774237
0.093277,-0.033930,0.769509,0.528824,0.817116,-0.229492
0.271108,-0.593473,0.615111,0.243856,0.964749,-0.098964
-0.311187,0.174573,0.760109,0.636810,-0.358333,0.682694
-0.798860,-0.140990,0.559818,-0.624611,0.780698,0.019264
-0.633496,0.014550,0.643481,0.866838,-0.489235,-0.096129
-0.109423,-0.167693,0.879699,-0.511935,0.308203,0.801831
-0.588247,0.714799,0.383698,0.967133,0.184107,0.175382
0.327953,-0.027428,-0.962138,-0.500432,0.864653,0.044067
-0.118960,0.696177,0.011381,-0.760544,0.266171,-0.592221
0.115091,0.265031,0.681475,-0.187697,0.935177,0.300356
-0.332754,-0.811066,0.650893,-0.209635,0.968294,0.135864
0.215880,-0.347221,0.323653,-0.062928,0.398381,0.915059
-0.484776,-0.707983,0.604447,0.997496,0.023334,0.066764
-0.099824,-0.557050,0.460713,0.581280,0.641586,0.500481
0.684794,0.211564,0.122216,0.350300,-0.184343,-0.918318
-0.107988,-0.851971,0.460884,-0.385055,0.696552,0.605432
-0.699319,0.341224,0.459396,0.475342,-0.549579,0.687032
-0.393962,-0.676294,0.667230,-0.410739,-0.456460,-0.789264
-0.848537,-0.233596,0.667415,0.953891,0.036589,0.297914
-0.701065,0.021557,0.624247,0.928680,-0.289963,-0.231245
-0.076386,-0.782028,0.448087,-0.417836,0.704412,0.573775
0.304202,0.402708,0.799854,0.476665,0.554397,-0.682228
-0.686978,-0.204747,0.489768,-0.327929,0.638504,-0.696258
-0.294045,-0.674021,0.029588,-0.443461,0.226893,0.867100
-0.363356,0.385159,-0.161579,-0.465181,-0.143046,-0.873581
0.259200,-0.597640,0.350114,0.494744,-0.474303,-0.728193
-0.576651,-0.050784,-0.981187,-0.038038,-0.014258,0.999175
0.046278,0.208093,-0.944668,-0.412925,0.407826,0.814353
-0.389785,-0.270145,0.719232,0.193145,-0.410389,0.891221
0.413345,0.760313,0.608212,0.937933,0.218860,0.269040
-0.160656,0.028880,0.759411,0.288630,-0.294555,0.911005
-0.348211,-0.424360,0.804606,-0.329099,0.757383,0.563972
-0.166891,0.580090,0.734358,0.030420,-0.018056,0.999374
0.385733,-0.225958,0.154010,0.954646,-0.278349,-0.105704
-0.134851,-0.265347,0.828329,0.831459,0.408185,0.376909
0.213202,-0.246095,0.484870,-0.241673,0.781270,0.575509
-0.147816,0.319445,0.583581,0.680978,0.679774,0.272351
-0.408735,-0.406432,0.599102,0.200917,0.936330,-0.287956
0.201484,0.511221,0.690598,0.312241,0.132889,0.940663
-0.120954,0.090427,0.770694,0.276936,0.514937,-0.811263
-0.076074,-0.312313,0.436107,0.719962,0.328857,0.611152
-0.135726,0.068333,-0.553143,0.886573,-0.462510,-0.008557
0.474740,-0.618218,0.585937,0.460609,-0.536184,-0.707352
-0.381556,-0.913519,0.596745,-0.327159,0.944916,0.010057
-0.632499,0.816179,0.575813,-0.565685,0.524067,-0.636674
-0.586938,0.575482,0.583028,0.845810,-0.264186,0.463477
-0.396519,-0.181896,0.378340,0.358767,-0.449514,-0.818061
-0.122575,-0.038033,-0.467335,0.996528,0.072058,-0.041702
0.236013,-0.014613,0.468375,-0.188567,0.951358,-0.243641
-0.611495,0.719661,0.558199,0.748385,0.119933,0.652332
-0.297723,0.415018,0.725196,-0.392514,0.872514,-0.290948
0.032255,-0.360793,0.727789,-0.448185,0.875708,0.179625
-0.046906,0.031594,0.073677,0.074826,-0.932050,0.354518
0.598530,-0.395070,0.539505,0.502438,0.100087,-0.858801
-0.152431,0.380993,0.762150,-0.004137,-0.483829,0.875153
0.372829,-0.249187,0.744864,0.464541,-0.864574,-0.191605
-0.121015,0.070669,-0.270230,-0.569076,0.821282,-0.040603
0.383363,-0.074141,0.734622,-0.124052,0.711399,0.691754
-0.171814,0.025282,0.934755,0.689631,0.710542,0.139780
-0.351201,0.024335,0.872932,0.764724,0.043910,0.642860
-0.075454,0.636082,0.732555,0.915993,-0.389459,0.096325
-0.204353,0.611338,0.733595,0.932389,-0.359651,-0.036093
-0.220556,0.246788,0.781805,-0.618891,-0.323830,-0.715617
0.057999,0.353722,0.507514,0.888008,0.073278,-0.453952
-0.657870,0.270840,0.636161,0.504712,-0.831951,0.230487
0.032628,0.035003,0.872985,-0.658755,-0.707695,0.255361
0.393772,0.304106,0.612149,0.555581,-0.258362,-0.790303
0.147816,0.592273,0.687636,-0.497931,-0.747787,0.439181
-0.113037,0.012152,0.499852,0.105722,0.980869,-0.163459
0.276590,0.237635,0.456237,-0.200149,-0.481361,0.853365
0.476174,-0.628382,-0.980371,0.071153,-0.133522,0.988488
0.036680,0.503204,0.484291,-0.745506,-0.396435,0.535781
0.442452,-0.071616,0.275719,-0.045252,0.090692,0.994850
0.396142,-0.365338,0.765033,0.848574,-0.521630,0.088457
-0.125066,0.590443,0.748484,-0.604109,0.201751,-0.770940
-0.260760,0.803680,0.338950,0.807723,-0.548635,0.215831
-0.278462,-0.340214,0.535094,0.289659,0.908493,-0.301227
-0.585690,0.866111,0.439070,0.666977,-0.009348,0.745020
0.321904,-0.289777,0.752170,0.648163,-0.374106,-0.663272
-0.423754,-0.750087,0.336436,0.692118,0.678055,-0.247415
-0.040047,0.059748,0.922801,0.714002,0.686702,0.136532
0.314112,0.242938,0.623707,0.411930,-0.597293,-0.688153
0.283697,-0.009374,0.537122,0.226500,0.457633,-0.859808
-0.225357,-0.231639,0.482382,0.858090,-0.348248,-0.377365
-0.357311,-0.308336,0.769140,0.175696,0.141516,0.974220
-0.439337,-0.429662,0.501392,0.958196,-0.192787,0.211410
-0.551657,0.166808,0.592691,-0.001441,-0.521959,0.852969
0.749742,0.130890,0.357236,0.408705,0.397421,0.821594
-0.018358,0.578702,0.032511,-0.103026,-0.155543,0.982442
0.439649,-0.381877,0.515057,-0.654067,-0.065362,0.753607
0.441516,-0.337626,0.760991,0.741078,0.124270,0.659818
0.126249,-0.326958,0.735491,-0.052701,0.875467,0.480395
0.668713,0.535019,0.625643,-0.432939,-0.376373,0.819089
-0.398448,0.004450,0.883253,-0.784307,-0.155590,-0.600545
0.339484,-0.032667,0.479907,-0.226645,-0.168688,-0.959258
-0.071524,0.501625,-0.176456,0.070488,-0.271353,0.959895
-0.180979,-0.266168,0.888480,-0.758609,0.414807,0.502441
-0.243119,0.698703,0.690980,-0.311986,-0.904857,0.289652
-0.495622,-0.621185,0.606975,0.714008,0.379420,0.588416
-0.213016,0.758608,0.598562,-0.464148,-0.298975,-0.833775
-0.507214,-0.148376,0.651841,0.908563,-0.017394,0.417385
0.108422,-0.084872,0.886940,0.973473,-0.180678,0.140380
-0.311560,0.116561,0.618613,0.903497,0.320320,0.284762
-0.538006,0.120727,0.638347,0.752203,-0.658174,0.031583
-0.356999,-0.462425,0.801578,0.227596,-0.835206,-0.500631
-0.299781,-0.112332,0.904607,-0.058635,0.899426,0.433122
0.244116,0.248177,0.763571,-0.479519,-0.636802,0.603775
0.652944,0.376385,0.111645,0.348823,-0.374181,-0.859250
-0.517874,-0.608623,0.326259,0.777758,0.279184,0.563159
0.076759,0.602563,0.607488,-0.310552,-0.922848,-0.227837
-0.138283,-0.005081,0.008643,0.891302,-0.443044,-0.096401
-0.271169,0.204432,0.828711,0.148529,-0.560494,0.814731
-0.278587,0.853739,0.619547,0.866534,-0.491560,-0.086532
-0.555275,-0.118517,0.488188,0.589799,-0.789753,0.168605
-0.156232,0.417606,0.771089,0.603366,0.473224,-0.641879
0.028017,0.655715,0.498904,0.768638,-0.305805,-0.561854
-0.414654,-0.085882,0.703684,0.795520,-0.603862,-0.049989
-0.515755,0.031405,0.654039,-0.762319,-0.063437,0.644085
0.858075,0.534008,0.336910,0.697888,0.092484,-0.710211
-0.126063,-0.017076,0.077100,-0.651555,0.757962,-0.031138
0.405615,-0.437679,0.327194,-0.710420,0.541585,0.449432
0.834449,-0.442035,0.555065,0.254041,0.749572,-0.611232
0.326644,0.792381,0.563162,-0.260277,0.838116,-0.479393
0.318541,0.209040,0.631053,0.180997,-0.204829,0.961918
0.649828,-0.327526,0.534186,-0.019837,0.261129,0.965100
-0.374453,0.044471,0.877461,-0.724696,-0.227913,-0.650285
0.035934,0.582173,0.578828,-0.644641,0.439508,0.625517
0.254776,0.504718,0.657818,0.071149,-0.314551,0.946570
-0.605884,0.506171,0.346099,-0.076247,-0.701788,0.708294
0.028329,-0.089859,0.735951,0.517590,0.621797,-0.587766
-0.062488,0.389010,0.746615,-0.358337,0.924839,-0.127542
0.093338,-0.516145,0.648865,-0.157851,-0.407851,-0.899300
-0.316608,0.267241,0.890863,-0.553815,-0.795865,-0.244719
0.190638,0.233028,0.828343,0.664551,0.195765,-0.721143
0.755414,0.526181,0.469520,-0.645552,0.561326,-0.517857
-0.623897,0.118391,0.664334,-0.560362,0.416430,-0.715947
0.308878,-0.377269,0.630711,-0.392913,0.006520,0.919553
-0.101506,0.640375,0.645456,-0.033735,0.126412,0.991404
0.376196,0.716819,0.607541,0.814486,0.450542,0.365547
0.517935,-0.619354,0.586227,0.460609,-0.536184,-0.707352
-0.036307,0.450494,0.386186,0.444473,0.480867,-0.755785
-0.153116,0.248493,0.735240,0.741944,-0.314120,0.592324
0.589179,0.397595,0.453696,0.033342,-0.442994,0.895905
-0.196748,0.764543,0.584542,0.515241,0.741247,0.430210
-0.039487,0.419373,0.393005,0.617638,0.453154,-0.642787
-0.981176,-0.202727,0.512727,-0.545996,0.709549,-0.445453
-0.838691,-0.171732,0.477827,0.598591,0.689663,-0.407498
-0.243371,-0.283149,0.846497,0.257917,0.601241,0.756299
0.259387,0.853675,-0.959663,-0.247466,-0.128826,0.960294
0.642470,-0.105452,0.456171,-0.554624,0.029792,0.831568
0.218749,0.518796,0.664295,0.562797,0.376250,0.736000
-0.474930,0.074835,0.595693,0.069965,0.217366,0.973579
-0.369778,-0.125273,0.387305,-0.087848,0.393310,0.915200
-0.167576,-0.162138,0.824248,-0.764218,0.638376,-0.091908
-0.201112,0.189533,0.711688,0.716715,0.626095,-0.307124
0.724313,0.337815,0.621667,-0.568620,-0.041836,0.821535
-0.327017,-0.155068,0.812163,0.747361,-0.382892,-0.542996
-0.219312,-0.799072,0.520468,-0.078224,0.978903,0.188756
0.295912,-0.358836,0.499957,-0.326436,-0.123959,0.937056
-0.364729,-0.507812,0.472811,0.943633,-0.329918,0.026653
-0.266060,0.298677,0.587293,0.325076,-0.904548,-0.275896
0.080498,-0.210681,-0.941153,-0.099038,-0.375017,0.921713
-0.260760,0.808414,0.720957,-0.662055,-0.748413,0.039520
-0.383489,0.228987,0.800209,0.198853,-0.147835,-0.968815
-0.821051,-0.254806,0.653934,0.848736,0.055797,0.525864
0.651072,0.526497,0.519296,0.527133,0.179826,-0.830538
0.623399,0.250008,0.427089,-0.247880,-0.698274,0.671542
-0.652510,0.848752,0.445204,0.478410,-0.175933,0.860332
-0.509584,-0.013541,0.687149,0.295323,0.955330,-0.011307
0.406676,0.187640,0.466966,-0.449247,-0.599785,0.662144
0.001900,-0.643973,0.062356,-0.010324,-0.109242,0.993962
-0.146196,0.006849,0.856489,0.661601,0.317223,-0.679451
0.276655,-0.646751,0.477827,-0.655472,0.208048,0.725998
-0.902703,-0.019411,0.614255,0.490987,0.667645,0.559627
-0.073521,-0.019727,0.968694,-0.292560,0.847917,-0.442092
-0.344597,0.716567,0.313173,-0.425048,0.539074,-0.727141
0.064482,0.527128,-0.170282,-0.133972,-0.440768,0.887567
-0.902392,0.124262,0.526787,0.954208,-0.299141,-0.001531
-0.048276,-0.811192,0.457066,0.532714,-0.707378,-0.464578
0.169570,0.120727,0.203997,-0.598624,0.644302,-0.475945
-0.894973,0.109491,0.510963,0.970997,0.158726,0.178804
-0.092965,-0.415460,0.615361,-0.291690,-0.589289,0.753429
-0.679373,-0.215289,0.707449,0.546657,0.684290,0.482610
-0.277404,0.099517,0.680869,0.350243,-0.934434,-0.064527
-0.255027,0.180633,0.822274,-0.191032,-0.970802,0.145088
0.266805,0.672001,0.686544,-0.600847,0.057693,-0.797279
-0.044909,-0.451567,0.415386,-0.166479,-0.248330,0.954262
-0.647397,-0.194773,0.362845,0.610936,-0.757295,-0.230784
-0.207096,-0.402709,0.819101,-0.502966,0.820070,0.272968
-0.682614,-0.081526,0.638254,0.881975,0.399625,-0.249841
0.416586,-0.376511,0.352866,-0.574820,0.591259,0.565681
-0.354693,0.800082,0.621048,-0.400958,-0.543384,-0.737541
-0.231280,-0.329231,0.684003,0.746520,-0.074604,-0.661167
0.184030,-0.131522,-0.973947,-0.035500,-0.282078,0.958734
0.547354,0.141811,0.572114,-0.275271,-0.481121,0.832315
-0.104934,0.000536,-0.815296,0.930070,-0.366108,-0.030585
-0.475988,-0.680270,0.599379,0.896039,-0.055151,0.440537
0.037490,-0.080201,0.844285,0.340845,0.551727,0.761198
-0.290491,-0.292681,0.456421,0.879221,-0.418085,-0.228419
0.043162,0.062714,0.921813,-0.886867,0.461262,-0.026549
-0.473557,-0.438753,0.297007,0.853005,-0.347545,0.389353
0.263625,-0.104757,0.273165,-0.205845,0.128829,0.970067
0.171750,-0.342929,0.600840,0.959084,0.015875,0.282676
0.749182,0.376827,0.451208,0.264243,-0.719799,0.641922
-0.482410,-0.043399,0.715190,-0.044102,0.900139,0.433365
-0.330136,0.150586,0.707397,0.525588,0.141312,-0.838921
0.354629,-0.527633,-0.966285,0.015490,-0.432951,0.901285
0.195249,0.313575,0.672628,0.811651,-0.543761,0.213416
0.347024,-0.637976,0.542941,0.956194,0.061658,-0.286165
0.196310,0.294448,0.228325,0.781896,0.095027,0.616124
-0.632001,0.947670,0.435225,0.814193,0.144742,0.562263
-0.634496,0.647256,0.543875,0.972269,-0.180104,0.149180
0.218935,0.365212,0.776565,-0.554419,-0.079499,0.828432
-0.184095,-0.110690,0.719969,0.018219,-0.440330,0.897651
0.662044,-0.015118,0.452524,-0.509159,0.280432,0.813705
-0.480291,-0.749456,0.628499,0.717171,-0.142895,-0.682090
-0.379749,-0.513367,0.631817,-0.086242,0.034451,0.995678
-0.503851,0.348862,0.836781,-0.617743,0.583729,-0.526928
0.135973,0.297162,0.738439,0.420829,-0.181826,-0.888730
0.743324,0.165041,0.374180,0.634356,0.656077,0.408846
-0.082435,0.662911,0.697905,-0.262361,0.888750,-0.375885
0.888802,0.252344,0.342650,0.262818,0.451020,0.852940
-0.049523,-0.258593,0.904502,-0.066087,0.573619,0.816452
-0.202356,0.016697,0.708805,-0.046782,0.558642,0.828089
0.108361,0.474418,-0.976685,-0.073395,-0.032557,0.996771
0.102191,-0.008112,0.849091,-0.499247,0.804914,-0.320728
-0.018172,0.108039,0.745377,0.053031,-0.700594,0.711587
-0.155360,-0.106777,0.835083,0.955460,0.018653,0.294530
-0.109921,-0.542215,0.181709,-0.005037,0.735692,0.677298
0.025647,0.004261,0.766533,0.281230,-0.681863,0.675258
0.169821,0.598586,0.530434,-0.028699,-0.506614,0.861695
0.767942,-0.404413,0.557514,0.388600,0.548120,-0.740645
-0.370337,-0.759556,0.661254,-0.263846,0.426018,0.865386
0.349455,0.196730,0.194558,0.329211,0.064077,0.942080
-0.591363,0.393870,0.540176,0.635422,0.710607,-0.302119
-0.694708,0.166808,0.633581,0.761167,-0.004935,0.648537
-0.918035,-0.192438,0.080971,0.978483,-0.171596,0.114566
-0.399197,0.316921,0.795983,0.983687,0.159512,-0.083159
-0.326770,-0.435155,0.699024,-0.288483,-0.220993,0.931633
-0.277777,0.421709,0.483264,0.805737,0.316820,0.500414
-0.150000,-0.390777,0.684542,-0.214029,-0.493673,-0.842899
0.263377,0.328977,0.619916,0.368427,0.923776,-0.104406
-0.120768,0.121674,0.703855,0.716518,0.003318,-0.697561
0.103439,0.833223,-0.971801,0.203315,0.003088,-0.979109
-0.034253,0.505476,0.726288,0.835923,-0.252302,0.487418
-0.204353,0.040684,0.905766,0.475748,-0.849217,0.229117
-0.495622,0.353660,0.507659,-0.207336,0.682240,0.701113
-0.192198,0.122242,0.832950,0.879477,-0.435393,-0.192233
0.403747,-0.309030,0.509541,0.400973,-0.087726,-0.911880
-0.131111,-0.318057,0.784609,-0.765410,-0.531796,-0.362409
-0.160907,0.323423,0.593244,-0.596228,-0.724317,-0.346233
-0.649581,-0.100654,0.677394,-0.607807,-0.073305,-0.790694
-0.042854,0.012341,0.930068,0.354472,0.365145,0.860824
0.020785,-0.176594,0.622575,0.157809,-0.117870,0.980410
0.020663,0.787330,0.568546,-0.400213,-0.801653,-0.444051
-0.158788,0.622511,0.710622,0.945884,0.024567,0.323575
0.510581,0.034750,0.754158,-0.639650,-0.203877,0.741136
-0.078569,0.001862,0.931227,0.020767,0.131731,0.991068
-0.084866,-0.016886,0.863375,0.122599,0.940204,0.317783
0.451617,-0.227093,0.723418,-0.189207,0.861192,0.471751
-0.330570,-0.157277,-0.180432,0.452384,-0.882343,-0.129689
-0.562940,0.637345,0.570653,0.972879,0.190087,0.131804
-0.261384,-0.669539,0.637741,0.832223,-0.147319,0.534510
-0.113162,0.577755,0.735161,0.707334,-0.509403,0.490090
0.240875,0.957138,0.340109,-0.115289,0.978810,0.169233
-0.129803,0.147556,0.862571,0.726132,0.583388,-0.363856
-0.623962,0.599659,0.531882,-0.784952,-0.490042,0.379089
0.373141,0.032541,0.268558,-0.011154,0.043872,0.998975
-0.175554,0.308525,0.759819,-0.450186,-0.677759,0.581356
-0.501294,-0.141369,0.108775,0.314893,-0.820112,-0.477764
-0.774052,-0.169839,0.662583,0.143579,-0.837612,0.527059
0.023216,-0.100969,0.920708,0.354520,-0.607659,-0.710680
-0.462962,-0.607108,0.628447,-0.736833,0.149141,0.659419
0.115780,-0.189029,0.873353,-0.635145,0.455408,0.623854
-0.439774,0.202790,0.806831,0.186821,-0.956534,0.223921
0.411040,-0.413881,0.620837,0.830956,0.165326,-0.531206
-0.692711,-0.016255,0.642230,0.811090,0.584869,-0.007852
-0.632686,0.189281,0.609963,-0.704287,-0.591132,0.393120
-0.075701,-0.117571,0.423061,0.805383,0.102733,0.583784
0.401940,-0.286747,0.527590,0.115442,0.980160,-0.161123
-0.878207,0.222043,0.565571,0.159370,-0.072861,0.984527
-0.266433,0.131016,0.672062,-0.782862,0.430479,0.449239
-0.064608,0.192248,0.591506,-0.379881,-0.778757,0.499228
-0.112976,-0.061515,0.956135,-0.315279,0.827272,0.464994
0.640850,-0.050658,0.713229,0.714033,-0.101866,-0.692661
0.485149,0.334658,0.583910,0.449127,0.295474,-0.843196
-0.362299,0.272986,0.818087,-0.200295,0.621807,-0.757125
-0.587497,0.875643,0.592098,0.682904,0.652189,-0.329076
0.366909,0.603005,0.654461,0.814287,0.470064,0.340553
0.753668,0.207588,0.366636,0.058992,0.540715,0.839135
0.372019,0.624909,0.638557,0.368761,-0.903801,0.217159
0.404120,-0.103494,0.812979,0.789363,0.341075,-0.510465
-0.522112,-0.167124,0.727315,0.496987,0.553989,0.667907
0.434288,0.260613,0.585621,0.028726,-0.427926,0.903357
-0.320660,-0.240224,0.313924,0.495612,0.262186,0.828026
-0.542370,0.559512,-0.989916,-0.049858,0.280712,0.958496
-0.488767,-0.450115,0.632488,0.864285,0.208699,-0.457663
0.095396,-0.168639,0.577920,0.053869,0.995998,0.071319
0.122011,-0.707541,0.050534,0.558117,-0.122888,0.820612
0.416149,-0.261244,0.408277,-0.500275,-0.411870,0.761635
0.683611,-0.171291,0.468967,0.487085,0.415013,-0.768448
-0.054572,0.074708,0.945076,-0.333785,-0.942622,-0.007137
-0.103499,0.009373,0.946432,0.777306,-0.172399,-0.605040
0.293732,0.788972,0.665071,-0.095163,-0.385304,0.917870
0.159971,0.010068,0.814164,-0.188097,0.502226,0.844031
0.009505,0.286053,0.842798,-0.503300,-0.714567,-0.485885
-0.122575,-0.268567,0.267899,0.376108,-0.017206,-0.926416
0.639168,0.743459,0.146084,-0.169151,-0.555128,0.814384
0.281266,0.199634,0.829606,0.480657,0.406367,-0.777068
-0.157727,-0.158665,0.672589,-0.888736,0.039810,0.456687
-0.406239,-0.023515,0.877856,0.876503,-0.224229,0.425986
-0.231341,-0.558817,0.623747,-0.551169,-0.535867,-0.639577
0.471560,-0.061957,0.746470,0.496988,-0.116347,-0.859922
-0.742327,-0.044472,0.680132,0.883195,-0.438058,-0.167548
-0.502976,0.886879,0.575313,-0.651791,-0.751998,0.098323
0.725246,-0.011457,0.453340,-0.452597,0.280531,0.846439
-0.358993,0.341224,0.717270,0.840099,-0.494921,0.222007
-0.564808,-0.149323,0.759793,-0.521531,-0.705676,-0.479610
0.070652,0.117571,0.562727,-0.424851,0.726988,-0.539435
-0.460219,-0.227347,0.598773,-0.688630,-0.097444,-0.718535
-0.519806,0.555597,-0.994550,-0.023469,0.279953,0.959727
-0.055880,0.033551,-0.131037,-0.554235,-0.079045,-0.828598
0.388164,-0.425307,0.620824,0.747470,-0.022947,-0.663900
0.575091,0.349620,0.603249,-0.241521,-0.590034,0.770408
-0.472435,0.016759,0.558817,-0.067154,0.796916,0.600346
0.111603,0.110627,0.813453,-0.334465,0.634719,-0.696610
0.405428,0.696556,0.656593,-0.009508,-0.786987,0.616896
-0.465952,-0.633432,0.318321,0.949858,0.132231,0.283347
0.198616,-0.018212,0.815902,-0.123259,-0.952007,-0.280159
0.272603,0.935360,0.378076,0.106515,-0.933985,-0.341066
-0.563127,0.755137,0.396323,-0.132574,-0.882745,0.450761
0.173184,-0.660071,0.539518,0.364277,0.251366,0.896726
-0.336242,0.048827,0.869259,0.839231,0.168369,0.517053
-0.476300,0.287062,0.841178,-0.338102,0.855293,-0.392633
-0.099201,-0.013604,-0.086263,0.942902,-0.299552,-0.145619
-0.444324,0.391030,0.443703,0.194102,-0.555579,0.808490
0.372829,-0.430421,0.330907,0.469598,-0.493745,-0.731911
0.376070,-0.767067,0.485028,0.300910,0.150679,-0.941674
-0.537695,0.230376,0.616124,-0.009596,-0.918256,0.395871
0.650513,0.338321,0.606698,-0.319987,-0.650100,0.689186
-0.276282,-0.350441,0.649392,0.609598,-0.517970,0.600081
-0.343908,0.825458,0.621535,-0.148500,0.970153,0.191707
-0.186959,0.652747,0.672233,-0.335179,-0.626517,0.703656
-0.113908,0.597260,-0.183499,0.070488,-0.271353,0.959895
-0.880699,-0.450241,0.506013,0.857108,-0.156565,0.490768
0.419641,0.168071,0.449615,-0.567367,-0.665596,0.484847
0.565930,-0.328915,0.537793,-0.202879,0.232359,0.951236
-0.165583,-0.103936,-0.071031,0.929707,-0.361379,0.071070
-0.086235,0.360856,0.792639,0.180695,-0.503280,0.845020
-0.128372,0.026607,0.550221,-0.366583,0.930384,-0.001294
-0.438777,-0.027112,0.883741,0.876503,-0.224229,0.425986
0.187085,-0.550422,0.542203,-0.063555,-0.129960,0.989480
0.427494,-0.093646,0.743942,-0.382087,0.250314,0.889580
-0.142833,-0.031974,-0.841179,0.995554,-0.088114,0.033301
-0.240879,0.023072,-0.378248,0.785535,-0.609019,0.109684
0.374636,-0.140107,0.681528,0.583717,0.430315,-0.688551
0.770936,0.365528,0.117753,-0.261934,0.398957,0.878763
-0.186088,0.098633,0.803079,0.949462,-0.161247,0.269298
-0.299279,-0.679955,0.584779,-0.327196,-0.710572,0.622921
0.239878,0.613105,0.640914,0.167157,-0.602662,0.780292
0.302646,0.764795,0.601551,0.339783,0.835864,0.431136
0.561069,-0.347600,0.535660,-0.124175,0.026463,0.991907
0.351076,0.354354,0.636175,0.328901,0.819251,-0.469735
0.562316,-0.300950,0.526656,0.271855,-0.843805,-0.462696
-0.204851,0.041000,0.858201,0.236366,0.544927,0.804478
-0.140276,0.025787,0.004219,0.814779,-0.563442,-0.136629
-0.792065,-0.116057,0.569929,-0.516840,0.414624,-0.748975
0.048024,0.167061,0.736017,0.949313,-0.314174,0.009934
-0.960671,0.102484,0.590018,0.736908,0.506483,0.447707
0.004704,0.460216,0.691322,-0.577100,0.809587,0.107354
-0.545174,-0.362687,0.006747,-0.585964,0.779214,-0.222420
0.188519,-0.590570,0.541730,0.192182,0.068987,0.978932
-0.112725,0.063220,0.198955,0.867986,0.496585,0.001684
-0.028828,0.085629,0.570389,0.895645,-0.317295,0.311677
-0.694769,-0.083168,0.770707,0.870265,0.163208,0.464761
-0.256834,0.397784,0.777829,-0.026596,-0.718002,0.695533
-0.227849,-0.019285,0.795575,0.737559,0.585950,0.335663
0.346400,-0.054825,0.811939,-0.050206,0.897883,0.437362
-0.240068,-0.323107,0.794904,0.250423,0.913289,0.321235
-0.810768,-0.091564,0.669548,-0.480716,0.852380,-0.205817
0.566554,0.315722,0.592269,0.194300,0.562222,-0.803837
-0.103751,-0.380110,0.646733,0.575436,0.809131,0.119080
-0.178670,0.101789,-0.147901,-0.460042,-0.857509,-0.230305
-0.294170,0.331313,0.312252,0.128477,-0.235300,0.963394
-0.339735,-0.713790,0.469889,0.861572,0.428693,0.271876
-0.830775,-0.086072,0.662544,0.711542,-0.682429,-0.167332
-0.652198,0.910551,0.439346,-0.679678,-0.177538,-0.711701
-0.420764,-0.421204,0.601380,-0.072148,0.982330,-0.172693
-0.596849,0.502257,0.464293,-0.472404,0.579446,-0.664136
-0.536199,0.844585,0.422850,0.937420,0.347414,0.023398
-0.247236,-0.640628,0.534805,0.902488,0.415928,0.111892
-0.259452,-0.686646,0.633594,0.918265,-0.207639,0.337159
-0.325773,-0.292492,0.796773,-0.476860,0.851653,0.217467
-0.269426,0.496197,0.319690,-0.535221,0.061686,-0.842457
-0.630567,-0.041758,0.564452,0.304211,-0.943460,-0.131675
-0.357060,-0.011205,0.552196,-0.036851,-0.882652,-0.468580
-0.002026,0.049521,0.895721,0.965141,-0.258606,0.040312
0.319785,-0.098380,0.529394,-0.502048,0.346613,-0.792343
0.384858,0.278793,-0.958794,-0.022770,0.178673,0.983645
-0.453675,-0.064041,0.606093,-0.586863,0.013075,-0.809581
0.211829,-0.027112,0.748221,0.588414,0.757978,0.281493
-0.312245,0.394376,0.762136,0.850903,0.510163,0.125290
-0.139591,0.723574,0.734121,-0.391405,-0.918975,-0.047831
0.027644,0.202348,0.579328,-0.013178,-0.957000,0.289790
0.234270,0.423097,0.788400,0.784901,0.223379,-0.577954
-0.754543,0.331061,0.565900,0.140432,0.085469,0.986394
-0.419455,0.322160,0.825986,-0.588421,0.704610,-0.396594
-0.684235,0.533693,0.353577,0.060249,-0.862286,0.502825
0.617042,-0.097119,0.727065,0.443181,-0.584406,-0.679750
-0.005081,0.320203,0.708950,0.195161,-0.928428,0.316123
0.056691,-0.363192,0.684819,-0.894347,0.155798,0.419368
0.330072,0.709813,0.549273,0.746997,-0.546344,0.378819
-0.303955,-0.662153,0.023927,-0.437839,0.307834,0.844710
-0.273353,0.251523,0.842416,0.858252,0.507373,-0.077305
0.257952,-0.552820,0.467255,-0.472085,-0.330112,0.817412
0.521302,-0.655904,0.590229,-0.566919,0.484668,0.666108
-0.517064,0.319698,0.843706,-0.338102,0.855293,-0.392633
-0.127809,-0.327021,0.825868,0.941022,-0.337654,0.021613
-0.129304,0.008174,0.929041,-0.087965,-0.618988,0.780459
-0.268426,-0.509832,0.180234,0.303090,0.332046,0.893242
0.531710,-0.476313,0.646509,-0.637248,0.752297,0.167226
-0.001467,0.449737,0.481697,0.825481,0.412954,-0.384773
-0.198555,0.859735,0.612794,0.286651,0.744967,0.602375
-0.314987,0.346526,0.736557,-0.860848,0.214722,0.461341
-0.924708,-0.184799,0.673142,0.801156,0.306902,0.513770
-0.594665,-0.541142,0.615374,0.465644,0.785679,0.407288
-0.224546,-0.373544,0.850091,-0.684680,-0.337079,0.646213
-0.470316,-0.756021,0.599471,0.898602,0.426319,0.103761
-0.219871,-0.828741,0.449917,0.014006,0.768074,0.640208
-0.701499,0.073383,-0.088936,-0.251062,-0.696105,0.672611
-0.766260,-0.265916,0.354235,0.905094,-0.321119,0.278726
0.266307,0.067638,0.620943,0.464391,-0.115790,-0.878028
-0.041857,0.090111,0.639518,0.926435,-0.357474,0.118029
-0.637300,-0.222233,0.442598,0.494054,-0.767750,0.408008
-0.088229,0.174258,0.713584,0.864146,0.005351,-0.503212
0.358243,-0.521826,0.564031,0.870178,0.490213,0.049818
0.131362,0.457438,0.747839,0.314206,0.708813,-0.631552
-0.287128,0.813022,0.726762,0.747819,0.663034,0.033951
-0.134231,0.570621,0.700130,0.860779,-0.283746,-0.422549
-0.593421,-0.636777,0.623154,-0.641785,-0.440557,-0.627712
0.426744,0.343938,0.633081,0.592987,-0.521328,0.613663
-0.723629,-0.135436,0.501353,-0.095358,-0.917981,0.384990
0.194191,0.720418,0.636227,0.796374,-0.404226,-0.449877
0.425249,-0.199697,0.458224,0.009851,0.777314,0.629036
0.306511,-0.424992,0.712623,0.914471,-0.401027,-0.054039
-0.292549,0.807784,0.721839,-0.265083,-0.898612,0.349610
-0.057440,0.020232,-0.121019,0.869255,0.493422,0.030509
-0.641287,-0.314333,0.611030,-0.309478,0.059772,0.949026
-0.052080,-0.288072,0.624603,0.080319,0.265167,0.960851
0.119143,0.721112,0.543954,0.820331,0.264586,-0.507003
0.399942,-0.636967,0.573878,0.514291,-0.305310,-0.801430
-0.632499,-0.057728,0.545929,0.593394,0.027443,0.804444
-0.411413,-0.210617,0.755449,0.783197,0.337869,0.521965
0.385794,0.001042,0.787808,0.643622,0.748074,-0.161667
-0.211768,-0.292302,0.838677,-0.588808,-0.408274,-0.697579
0.469566,0.201970,-0.946366,0.178313,-0.159210,-0.971008
-0.191323,0.198182,0.808753,0.983300,-0.146190,-0.108396
0.297221,-0.045041,0.814309,-0.239713,0.768309,0.593497
-0.706174,0.489821,0.577815,0.538730,0.468453,-0.700229
-0.796554,-0.089164,0.702394,0.761373,-0.624744,0.173224
-0.895662,0.141495,0.564176,-0.016261,0.231219,0.972766
-0.049710,-0.825332,0.513293,-0.762867,0.594963,-0.253088
0.015238,0.585708,0.649379,0.274244,0.954202,0.119536
-0.148566,0.210933,0.727197,-0.609239,-0.747776,-0.263928
0.182223,0.852855,0.541690,0.094980,0.472594,0.876147
-0.775672,0.065050,0.581527,-0.573939,0.132644,-0.808084
0.354442,-0.017202,0.684174,0.123113,-0.837310,0.532687
0.260075,-0.152858,0.807134,0.852921,0.428604,-0.298034
-0.566866,0.558249,0.488872,-0.697580,0.623803,-0.352493
-0.136849,-0.017834,-0.136593,0.121780,0.734040,0.668098
0.579082,-0.072058,0.446784,-0.167854,0.314873,0.934174
0.569544,0.132027,0.571824,0.340633,0.624849,-0.702519
0.092965,-0.292554,0.620785,-0.252092,-0.438981,-0.862407
-0.283263,0.035697,0.716454,0.210793,-0.944865,-0.250591
0.084303,-0.013098,0.953975,-0.280006,0.925228,-0.256026
-0.073209,-0.257772,0.054996,0.823635,0.302394,-0.479774
-0.624772,0.993120,0.372231,-0.248164,-0.822908,0.511114
-0.817809,-0.022441,0.702644,-0.850418,0.123171,-0.511485
-0.192445,0.444244,0.571482,0.997881,0.057215,-0.030995
0.361484,-0.615377,0.518559,0.834298,-0.510906,-0.207176
0.011187,0.139539,0.426457,0.868364,0.485020,-0.103434
-0.378440,-0.419183,0.793140,0.167523,0.802163,0.573124
0.106988,0.138781,0.794153,0.487252,0.811299,-0.323077
0.287250,-0.407569,0.642481,-0.096882,0.444479,0.890535
0.332936,0.802355,0.672391,0.403131,0.582308,-0.705977
-0.594916,-0.169208,0.202931,0.777188,-0.458753,0.430726
-0.330635,0.042389,-0.133104,-0.264661,-0.891795,-0.366956
0.674823,0.329988,0.591572,0.531859,-0.830324,0.166398
0.170566,0.439637,0.633528,0.871595,0.476631,0.114656
0.169197,-0.176025,0.723458,0.265872,0.430731,0.862428
-0.298845,-0.693653,0.648378,-0.647165,-0.171104,-0.742900
-0.718702,0.002367,0.687320,0.769925,-0.283769,0.571568
-0.432234,0.905880,0.371231,0.285611,-0.832090,0.475450
0.576465,0.777610,0.014620,0.243548,0.862849,0.442917
-0.793188,-0.071805,0.708884,0.797632,0.203371,0.567824
0.434973,0.812581,0.670403,0.980516,-0.181449,-0.075262
-0.279710,-0.063789,0.885097,-0.455905,-0.738538,-0.496701
0.708917,0.219455,0.415123,0.253270,-0.661863,0.705543
-0.015927,-0.020168,0.947920,-0.452390,0.792921,-0.408190
0.473743,-0.131396,0.718376,-0.210684,-0.799926,0.561899
0.195124,0.473471,0.169623,0.851509,0.165261,-0.497616
-0.267806,0.831456,0.719258,-0.662055,-0.748413,0.039520
0.005826,-0.148313,0.749169,-0.355262,0.876305,0.325390
0.303894,0.147492,0.409554,-0.329387,0.936638,-0.119224
-0.831897,-0.165989,0.572443,-0.187360,0.979209,-0.077754
-0.166454,-0.196919,0.002798,0.946824,-0.313412,-0.072789
-0.824790,-0.088912,0.599984,0.424825,-0.812321,-0.399574
0.305450,-0.516207,0.543336,0.625613,-0.004259,-0.780122
-0.385235,-0.336868,0.757028,-0.011464,0.997028,0.076178
-0.103998,0.630338,0.688755,-0.010702,-0.946937,0.321241
-0.387917,-0.428653,0.591032,0.733388,0.675665,-0.074963
0.725371,0.195026,0.420467,0.430369,-0.609968,0.665373
-0.333937,0.282391,0.419164,0.474441,0.630104,-0.614716
0.262693,-0.386612,0.217833,-0.168677,0.900733,-0.400286
-0.424131,0.093773,-0.964270,-0.090353,-0.331637,0.939071
-0.612119,0.576745,0.589531,-0.356539,0.505479,-0.785729
-0.101879,0.072499,-0.154707,0.521911,0.852761,0.020187
0.044224,-0.157908,0.776262,-0.352694,0.560879,0.749014
-0.151556,-0.046429,0.852527,0.817959,0.574923,-0.020181
-0.368903,0.853170,0.639834,0.670542,-0.614599,0.415502
-0.093528,-0.049711,0.057208,0.409306,0.163185,-0.897686
0.091344,0.099833,0.507382,-0.656990,0.398195,0.640159
0.295414,0.357637,0.198534,0.810199,0.385881,0.441218
-0.261198,-0.355049,0.811492,0.883304,-0.332809,-0.330170
-0.752987,0.236309,0.639992,0.688618,-0.521835,0.503481
-0.008881,-0.020358,0.981990,-0.251819,0.926448,-0.279790
0.545733,-0.142884,0.714545,0.800526,0.072249,-0.594927
-0.364292,0.404413,0.446784,0.289299,0.739821,-0.607430
-0.210147,0.040117,0.798432,-0.702128,-0.669267,0.243101
-0.214762,0.413502,0.434119,-0.227839,-0.410754,0.882819
-0.157852,-0.291355,0.785702,-0.182533,0.978253,0.098504
0.681115,-0.134110,0.461147,-0.480950,0.084686,0.872649
-0.732854,-0.660259,0.372021,0.630471,0.442945,0.637421
0.424127,-0.278036,0.728632,-0.135977,0.975078,0.175306
0.258702,0.754759,-0.964349,-0.234534,-0.029657,0.971655
-0.862937,-0.207210,0.673155,0.806454,0.137107,0.575181
0.269175,-0.310672,0.735346,-0.339466,0.500549,0.796375
0.786454,0.429094,0.330696,-0.576147,0.386500,0.720189
-0.215507,0.628066,0.582383,-0.350373,-0.508204,0.786745
0.479914,0.431809,0.399338,0.826882,0.005826,-0.562345
-0.348960,0.227030,0.701038,0.255794,-0.360445,0.897022
0.085798,-0.447022,0.423219,-0.302546,0.600463,0.740209
-0.416712,0.344128,-0.972288,0.122791,-0.016099,0.992302
-0.122262,0.666446,0.744351,0.323577,-0.229780,0.917878
-0.189455,-0.205378,0.777487,0.463687,-0.228167,-0.856116
-0.581015,0.743269,0.557514,-0.360011,0.706524,-0.609275
-0.116092,-0.116371,0.811031,-0.699542,-0.572581,-0.427542
0.407985,0.797936,0.677499,-0.117379,-0.701291,0.703145
0.258204,0.814854,0.590466,0.931424,-0.361698,-0.040304
0.278960,0.383013,0.780383,-0.317040,0.912179,-0.259645
-0.358932,-0.078433,0.392255,-0.836166,0.436151,-0.332564
0.327576,0.355049,0.766626,0.980291,-0.197266,0.010761
0.351513,0.390146,0.793219,0.944901,0.323864,-0.047688
-0.048150,0.189597,0.586095,-0.534644,-0.789547,0.301282
-0.079627,-0.023451,-0.262357,0.847331,-0.528793,-0.049072
-0.110294,-0.050279,0.943101,-0.673099,-0.725052,-0.145732
0.149000,-0.209544,0.629460,-0.162506,-0.744429,0.647624
-0.234145,-0.432567,0.822247,0.505310,0.856768,0.103009
-0.314489,0.602248,0.549023,0.762397,0.317603,-0.563808
-0.514884,0.844207,0.578933,0.922985,-0.306687,0.232470
-0.169570,0.297920,0.748392,0.409711,0.483193,-0.773732
0.247297,0.422466,0.653263,-0.585669,0.513868,0.626843
-0.049770,-0.036770,0.910610,0.871805,0.486392,0.058128
-0.231341,0.527443,0.650366,0.055602,0.475997,-0.877687
0.428053,0.550800,0.593810,0.939407,0.085581,0.331948
-0.128121,0.679197,0.711807,0.820480,-0.571474,0.015171
-0.831334,-0.258341,0.679369,0.762196,-0.494523,0.417737
0.077946,-0.002052,0.078970,-0.022291,-0.350753,0.936203
-0.411352,-0.049964,0.715625,-0.023821,-0.103258,0.994369
-0.837132,0.111637,0.327839,0.227578,0.954156,0.194410
-0.699007,-0.475871,0.449259,0.818925,0.162722,0.550348
0.458222,0.027302,0.453788,-0.564234,0.242187,0.789295
-0.314740,0.115867,0.618599,0.903497,0.320320,0.284762
-0.396580,0.340719,-0.979594,0.276117,-0.059438,0.959284
-0.394586,0.229745,0.812150,0.160128,-0.550074,0.819620
-0.200423,0.529843,0.586740,0.923202,0.307243,0.230869
-0.673640,0.682101,0.581593,0.957120,0.056288,0.284170
-0.219125,0.457122,0.602880,0.989321,-0.128882,-0.068069
0.386977,-0.018654,0.720812,-0.130693,-0.859763,0.493687
0.098949,0.911498,-0.970708,-0.220551,0.074614,0.972517
-0.254152,-0.593536,0.647825,0.649127,0.230169,0.725022
-0.173621,0.663920,0.036908,-0.504899,0.344923,-0.791268
0.103188,-0.461541,0.213397,0.159177,0.435122,-0.886189
-0.379502,-0.305937,0.325825,0.954110,-0.273870,0.121116
-0.234457,0.316542,0.707950,-0.331177,0.189719,-0.924299
-0.233023,0.227283,0.426576,0.508775,0.597652,-0.619645
-0.431112,-0.427328,0.537754,-0.638929,-0.051074,-0.767568
-0.260448,-0.038854,0.859241,0.005726,0.149227,0.988786
-0.394335,-0.199824,0.763966,0.072186,0.465793,0.881944
0.240753,0.502951,0.656909,0.226897,0.341744,-0.911992
0.085235,-0.213333,-0.029812,0.799896,0.598315,-0.046751
-0.154299,-0.031468,-0.128996,-0.028999,0.557659,0.829563
0.005640,-0.096613,-0.005931,0.052397,-0.141131,0.988603
-0.704554,-0.463309,0.453327,-0.695427,-0.294521,-0.655468
-0.171069,0.267115,0.809741,0.909112,-0.280468,-0.307983
-0.138595,0.656914,0.750973,-0.549468,0.537309,-0.639832
0.144948,-0.175394,0.865810,-0.610176,0.355942,0.707807
-0.958864,-0.120159,0.469467,0.624381,-0.561307,-0.543216
0.311122,-0.468990,0.343479,0.364352,-0.402593,-0.839742
-0.716895,-0.102295,0.661886,-0.675909,-0.382918,0.629700
0.339545,-0.558501,0.649945,0.091027,-0.958185,-0.271286
-0.096956,-0.754947,0.550023,-0.758582,0.514477,-0.399834
-0.586999,0.879935,0.508975,-0.200114,0.668950,0.715864
-0.365228,-0.422214,0.793495,0.046663,0.838845,0.542366
-0.150936,0.723827,0.769825,-0.744452,0.530823,-0.404992
-0.365102,-0.246599,0.320796,0.619251,0.107042,0.777863
-0.138842,-0.010890,-0.111303,0.330829,-0.600286,0.728155
-0.723130,0.038159,0.633397,-0.651193,0.749712,-0.117811
-0.558014,0.153110,0.631672,0.481203,0.219120,-0.848781
-0.660861,-0.452388,0.426655,0.540212,0.706253,0.457578
0.211581,0.442225,0.203641,0.768696,0.510524,0.385321
0.010814,0.276457,0.846010,-0.689617,-0.653327,-0.312399
-0.747999,-0.085315,0.620469,-0.535963,0.441775,0.719429
-0.579706,0.402834,-0.972854,-0.272144,0.159511,0.948944
-0.727304,-0.503961,0.355749,0.591511,0.134956,0.794922
-0.159226,-0.232017,0.012474,-0.778954,0.594719,0.198848
0.382305,0.501625,-0.957003,-0.091174,-0.052460,0.994452
-0.227229,-0.451946,0.843074,-0.258761,-0.488202,0.833488
0.454234,0.788341,0.147730,0.109390,-0.626502,0.771706
-0.035185,0.100085,0.488648,0.783130,-0.563280,-0.263483
0.324335,-0.188966,0.765401,0.849767,0.066621,-0.522931
-0.138968,0.151595,0.876105,0.767468,0.295941,-0.568693
-0.146074,0.081716,-0.847958,0.995554,-0.088114,0.033301
-0.088480,-0.046871,0.743916,0.649586,-0.380839,0.658027
-0.654192,0.778998,0.563741,0.863966,0.500390,0.056322
-0.144575,0.034120,0.863059,0.484020,-0.196815,-0.852636
0.033876,-0.101979,0.741073,-0.553780,-0.689616,0.466646
-0.082869,0.428274,0.803250,-0.623867,-0.778741,0.065976
0.123693,-0.389830,0.735412,-0.144831,0.442781,0.884855
0.019229,-0.527759,0.646351,0.478081,0.211296,0.852521
0.342101,-0.548843,0.582067,0.733423,0.060514,0.677074
-0.062112,0.265474,0.767534,-0.422440,0.905031,-0.049626
-0.127185,-0.112836,0.820101,-0.816623,0.406687,-0.409552
-0.342664,-0.693274,0.474970,0.835362,0.483860,-0.260863
0.501979,-0.203232,-0.963204,0.015330,-0.235172,0.971833
0.251036,0.384212,0.769614,-0.160986,-0.221129,0.961866
0.164396,-0.015056,0.864612,0.012424,-0.996106,0.087283
-0.674012,-0.292176,0.438319,-0.641764,0.312164,-0.700494
0.365349,0.453398,0.646891,0.521502,0.133339,-0.842767
-0.235891,0.591201,0.666770,-0.297021,-0.758148,0.580509
0.288810,-0.559890,0.615427,0.016564,0.781810,0.623297
0.281639,-0.083736,0.273468,-0.194987,0.178315,0.964461
-0.165206,0.749961,0.673128,-0.150315,0.907661,0.391864
0.257207,-0.461163,0.166437,0.331432,-0.886531,-0.322825
-0.108114,0.651548,0.731739,0.940768,0.255983,0.222324
-0.128247,0.162138,0.842205,-0.557852,-0.828384,-0.050802
-0.523797,-0.657925,0.334250,0.512602,-0.329210,0.793007
0.717020,-0.095351,0.463003,0.578142,-0.073889,-0.812583
-0.068971,-0.182022,0.426260,0.792736,0.051726,0.607366
0.042417,0.543919,0.520613,0.697540,0.029782,-0.715926
-0.071212,0.364139,0.383843,-0.399039,-0.251002,0.881910
0.417831,-0.528012,-0.978804,0.123472,-0.136640,0.982896
-0.794184,-0.109806,0.523746,0.373468,-0.868383,0.326241
-0.094586,0.052236,0.199086,0.867986,0.496585,0.001684
-0.121951,-0.162643,0.092095,0.997821,0.042147,0.050763
-0.293360,-0.238330,0.656830,-0.344234,0.467729,0.814084
0.329136,0.668655,0.518059,0.781225,-0.050085,0.622237
-0.311000,-0.684057,0.567914,0.964318,-0.013482,0.264403
0.189763,0.026607,0.534410,0.266717,0.403228,-0.875368
0.082994,0.246599,0.741204,-0.580261,0.483168,-0.655627
0.369462,-0.037717,0.685701,0.292070,-0.690630,0.661608
0.142581,0.136508,0.085210,-0.341913,0.536006,-0.771876
-0.704554,0.179181,0.643112,-0.602916,-0.008771,-0.797757
-0.459222,-0.576934,0.546311,0.711027,-0.062314,0.700398
-0.687788,-0.011583,0.649142,0.625289,-0.583423,0.518297
0.085859,-0.008743,0.785938,0.144031,0.828123,-0.541726
-0.679810,-0.013856,0.606988,0.202683,-0.963549,0.174620
-0.491570,0.575041,0.445152,0.146956,-0.685188,0.713387
-0.164149,0.604962,0.748827,0.934132,-0.030068,-0.355659
-0.250911,0.690813,0.678329,-0.271609,0.873335,-0.404370
0.363915,0.906069,0.590729,-0.547786,-0.658436,0.516131
-0.196124,-0.378657,0.808003,-0.193549,-0.977726,-0.081181
-0.026834,-0.256510,0.391228,0.933323,0.351579,-0.072807
-0.712410,-0.046871,0.698142,0.648279,0.145108,0.747448
-0.239007,0.390967,-0.986282,-0.096499,-0.207256,0.973516
0.545048,0.025218,0.433290,0.895981,-0.007049,-0.444036
-0.330509,-0.465644,0.437424,0.813606,0.141960,0.563820
0.716895,-0.111259,0.467966,0.574795,-0.059381,-0.816140
0.091717,0.164284,-0.949381,0.377772,-0.422237,-0.824017
-0.147505,0.196919,0.861176,0.533327,0.478503,-0.697565
-0.194191,0.462362,0.784648,-0.235201,-0.952295,0.194462
-0.079814,0.752612,-0.974342,0.269146,-0.349369,-0.897497
0.219308,0.375817,0.214384,0.743586,0.442172,0.501561
0.491818,0.257457,-0.961637,0.152007,-0.178423,-0.972141
-0.118150,0.231260,-0.964284,-0.195121,0.258833,0.946009
0.516440,-0.472967,0.639360,0.760536,-0.469281,-0.448731
-0.886748,0.107786,0.570547,0.119909,0.630666,0.766734
0.316543,0.437743,0.796839,0.799940,0.591985,-0.098235
-0.153740,-0.125715,-0.001099,0.929655,-0.213946,-0.299947
-0.374762,-0.455544,0.812571,-0.329099,0.757383,0.563972
-0.566615,-0.797494,0.625221,-0.607812,0.614222,0.503285
-0.337802,0.184295,0.786952,0.844030,-0.276425,0.459568
0.604514,-0.311997,0.535739,0.205454,-0.446774,-0.870736
-0.124629,-0.146040,0.623997,-0.252480,-0.810525,0.528491
-0.443388,-0.261560,0.764006,0.351220,-0.286327,-0.891438
-0.141212,-0.190165,0.693547,-0.509723,0.857315,0.072062
-0.306451,0.184673,0.644245,0.845642,-0.413947,-0.336952
0.543614,0.318246,0.504012,-0.633095,0.211055,0.744745
-0.458971,-0.009248,0.726288,-0.585688,-0.745853,-0.317290
-0.569545,0.063157,-0.092398,0.188150,0.856086,-0.481369
-0.585690,0.802291,0.435884,0.629589,-0.422427,0.652053
-0.189953,-0.375880,0.857885,0.696882,-0.707396,0.118090
-0.138283,-0.401572,0.598865,-0.206886,-0.061752,0.976414
0.162463,-0.181391,0.731278,-0.301937,0.831934,0.465532
0.293048,-0.246221,0.486647,-0.015848,0.816725,0.576809
-0.186587,0.432124,0.794772,0.765790,0.174182,-0.619053
0.349767,-0.710633,0.484251,-0.493024,-0.078207,0.866493
-0.076139,-0.063536,0.676525,0.850473,0.341795,0.399840
0.019290,-0.188082,0.859254,0.636390,-0.123266,-0.761455
-0.035497,0.074014,0.946748,-0.049184,0.969091,0.241750
-0.190764,0.633368,0.749946,0.981785,0.114297,-0.151770
-0.598093,0.146987,-0.980661,0.013455,0.048239,0.998745
0.231402,0.343623,0.659634,0.546725,-0.825429,-0.140566
0.626268,-0.170785,0.450194,0.609280,0.268037,-0.746280
0.313180,0.964082,0.352089,-0.090986,0.978743,0.183802
0.776543,0.235552,0.363608,-0.101258,0.606502,0.788608
-0.461090,-0.418679,0.621272,0.097264,0.916099,0.388976
0.262567,0.901840,0.687162,-0.048392,-0.958020,0.282588
-0.347461,0.309725,0.509067,0.523334,0.270320,0.808114
-0.431424,-0.885491,0.558462,0.024447,0.683674,0.729378
-0.457662,0.562731,0.355525,0.468655,0.601814,-0.646670
-0.428369,0.878231,0.382948,0.213121,0.906139,0.365366
0.000592,0.363886,0.667718,0.731763,0.046258,-0.679987
-0.661922,0.768078,0.542677,0.929008,0.030782,-0.368777
0.221491,0.451504,0.613241,0.042493,-0.115828,0.992360
0.571104,-0.049711,0.711570,-0.450982,0.418731,0.788213
0.051140,0.653694,0.699116,0.894387,-0.177651,0.410501
0.802847,-0.412240,0.557422,0.388600,0.548120,-0.740645
-0.119706,-0.828299,0.450009,-0.310395,0.740001,0.596703
-0.338985,0.187261,0.810675,0.848614,0.447123,-0.282727
-0.208778,0.332512,0.716270,-0.026882,-0.680026,0.732695
0.223359,-0.384970,-0.986216,-0.115056,-0.266758,0.956871
-0.399322,-0.335733,0.552156,-0.157263,-0.780701,0.604793
0.065912,-0.347284,-0.985163,0.349213,-0.067773,0.934589
0.435536,-0.287063,0.767363,0.909194,0.195087,0.367841
-0.197182,0.538617,0.576090,0.249252,-0.058102,0.966694
-0.280520,-0.362940,0.772537,0.388350,-0.723474,-0.570762
-0.248731,-0.184421,0.709371,-0.226166,-0.840541,0.492281
-0.068096,-0.011268,-0.133815,-0.717883,0.630516,0.295115
-0.344783,0.868699,0.641559,-0.545406,0.735058,-0.402768
0.412973,0.194457,0.571232,0.104264,-0.630341,0.769285
-0.257956,-0.825143,0.676077,0.064427,0.940223,0.334410
0.546357,0.429094,0.444230,0.589126,-0.337055,-0.734387
-0.385296,0.373733,0.428169,-0.012385,-0.534085,0.845340
-0.597408,-0.560522,0.606698,0.684213,0.564895,0.461243
-0.115966,0.651926,0.740032,0.368358,-0.273831,0.888442
0.750491,0.302402,0.332012,0.990110,0.013682,-0.139628
-0.608627,0.830509,0.526932,0.796217,0.434516,0.420992
-0.126250,0.005838,0.903633,-0.059254,-0.674742,0.735671
0.266619,-0.561089,0.356447,0.525026,-0.504673,-0.685313
0.036744,-0.326263,0.333237,0.198687,0.737087,0.645931
0.098326,0.106461,0.612201,0.686247,0.367400,-0.627760
-0.067411,-0.210745,0.907174,0.919728,0.120672,0.373549
-0.185776,0.544803,0.655408,-0.389582,-0.667099,0.634984
-0.663851,-0.390020,0.616111,0.957649,-0.040576,0.285066
-0.572352,0.210996,0.664137,0.509195,0.417484,0.752614
0.283324,0.634063,0.615980,0.399547,-0.577639,-0.711825
-0.189082,-0.473219,0.834280,-0.646742,-0.649349,-0.400089
-0.058186,0.442729,0.397758,0.578035,0.417128,-0.701341
0.001775,0.016191,0.454815,-0.575759,0.175087,-0.798653
-0.100136,0.177225,0.748563,0.768676,0.304170,-0.562687
-0.133170,-0.023893,0.059802,-0.634835,0.749024,0.189597
0.687225,-0.264590,0.528788,-0.088749,0.448635,0.889298
-0.109236,-0.271028,0.904620,-0.313788,0.897511,0.309857
0.480040,-0.112648,0.691849,-0.255642,0.175269,0.950751
-0.543991,-0.039801,0.705856,0.768960,0.574496,0.280455
0.431173,-0.418995,0.538991,0.010027,0.780454,0.625133
0.927759,0.286305,0.179168,-0.258386,0.369283,0.892674
-0.104496,0.062526,0.027482,0.965877,-0.258400,-0.017621
-0.909247,0.031468,0.534699,0.972621,-0.081957,0.217467
-0.865493,-0.110248,0.622957,0.483211,-0.074861,-0.872298
-0.034565,-0.522078,0.458738,0.635195,0.383796,0.670244
-0.190950,-0.017202,0.055760,-0.440648,0.893930,0.081973
-0.290868,0.723196,0.681909,-0.349740,-0.856490,0.379615
0.384112,-0.343307,0.614044,-0.364583,0.325383,0.872470
-0.518996,-0.135751,0.606395,0.739701,-0.036639,0.671937
-0.380434,0.071994,0.525286,-0.152990,0.920451,0.359673
0.480287,-0.395575,0.363648,-0.503120,0.783094,0.365560
-0.432919,0.856453,0.365004,-0.346525,0.910319,-0.226362
-0.324776,0.311050,0.505618,-0.623048,-0.306054,-0.719821
-0.333313,-0.353597,0.653697,0.932805,-0.100049,0.346216
0.488017,-0.015182,0.732871,-0.448830,0.887457,-0.104745
0.516751,0.219392,0.567717,0.240524,0.885942,-0.396554
-0.285694,0.766941,0.688900,0.000725,-0.876483,0.481432
0.147443,0.868637,0.539636,-0.244205,0.523422,0.816329
-0.166328,0.396900,-0.983228,0.287144,0.160815,-0.944292
-0.338738,0.252407,0.810096,0.105621,-0.406835,0.907375
0.517623,0.093773,0.692231,-0.264913,0.185294,0.946302
-0.422198,-0.658429,0.647417,0.834203,-0.466416,-0.294213
0.318229,0.577060,0.632870,-0.578596,0.616546,-0.533945
-0.483840,0.010131,0.648444,0.541354,-0.032288,0.840175
-0.323589,0.238709,0.710596,-0.299529,0.336487,-0.892782
-0.421262,-0.033425,0.703092,0.305154,0.813095,0.495739
0.062298,0.007859,0.943759,-0.378183,0.925677,-0.010019
-0.263629,0.083357,0.368045,0.310139,0.190746,0.931359
-0.358871,0.063157,0.623141,0.944855,0.212244,0.249401
-0.174995,0.505855,0.732213,-0.417409,0.865927,-0.275572
-0.076013,-0.078117,0.616532,0.970778,0.231463,0.063358
0.068781,0.278098,0.501497,0.939354,-0.030205,-0.341616
0.339609,0.216236,0.446587,0.228787,0.560201,-0.796135
-0.099946,-0.018338,0.209671,0.816849,0.572659,-0.069424
-0.209462,-0.213459,0.877395,0.732484,0.058432,-0.678272
0.085048,0.715305,-0.976817,0.072779,-0.028983,0.996927
0.052141,0.629517,0.613439,-0.223394,0.647681,0.728426
-0.182101,-0.138024,0.833925,0.778354,-0.213476,0.590418
0.222861,0.111005,0.796681,-0.045895,-0.871708,0.487872
-0.699319,-0.481426,0.450760,0.772809,0.239903,0.587547
-0.729613,-0.103242,0.696206,-0.252087,0.620287,-0.742763
-0.034998,-0.263770,0.433040,0.780594,0.338050,0.525734
0.459032,0.284221,0.469454,-0.034295,-0.887347,0.459825
0.283636,-0.379289,0.754764,0.394240,-0.352491,-0.848720
-0.196748,-0.250955,0.723181,-0.567535,0.255525,-0.782694
0.563374,0.220087,0.407579,0.300544,-0.111100,-0.947275
-0.538756,-0.691696,0.619034,0.508032,0.322806,0.798561
0.251660,0.325948,0.225258,0.795067,0.265065,0.545535
-0.638548,-0.025661,0.584673,0.263246,0.964586,0.016573
-0.753299,-0.179182,0.692915,-0.439489,-0.533204,-0.722871
-0.095023,-0.022630,0.929963,0.243795,-0.341966,-0.907537
0.194191,0.004008,0.793785,0.214250,0.630395,0.746123
0.075515,-0.569232,0.444217,0.173209,-0.647072,-0.742494
-0.200986,-0.826974,0.514241,-0.034237,0.978243,0.204618
-0.396891,-0.915981,0.578565,0.234372,-0.970062,-0.063638
-0.522112,-0.479784,0.574378,0.833015,-0.405678,-0.376180
-0.227289,-0.235300,0.829843,0.311636,-0.842321,-0.439748
0.244614,-0.038538,0.681672,-0.723945,0.615487,0.311576
-0.000717,-0.577629,0.435791,0.090671,0.757842,0.646107
0.064916,-0.255184,0.599168,-0.845326,-0.213712,-0.489643
-0.640789,-0.415775,0.619916,0.050697,0.076704,0.995764
-0.228039,-0.799388,0.663189,-0.062164,0.852228,0.519464
0.410789,-0.514818,-0.966048,0.168568,-0.256461,0.951742
-0.873033,0.083672,0.505026,0.944220,0.328534,-0.022684
-0.649079,0.080895,0.543691,-0.595264,0.003110,-0.803524
-0.035436,0.159044,0.647523,0.751288,-0.659916,-0.008777
0.411413,0.156077,0.624037,-0.606005,0.391039,-0.692709
0.252406,0.273616,0.452392,0.303727,0.465341,-0.831389
-0.155547,0.069406,-0.545481,0.924914,-0.380086,0.008261
0.191136,-0.176404,0.668626,-0.141592,-0.755948,0.639136
-0.284819,-0.870973,0.456039,-0.226518,-0.972778,-0.048907
-0.094464,0.151469,0.861400,0.577349,0.488098,-0.654545
