0.812077,0.045103,0.454179,0.862595,0.490105,-0.125405
-0.392970,0.333989,0.459102,0.052349,-0.576231,0.815608
0.576773,0.174764,0.480086,0.299249,0.412623,0.860344
0.441614,-0.472075,0.110975,-0.108690,-0.189009,0.975942
0.773162,-0.002978,0.578086,-0.203670,-0.904709,-0.374194
0.182236,0.449926,-0.320138,0.614088,-0.709387,0.345928
-0.036909,0.969580,0.347265,0.343789,-0.318113,0.883523
0.008108,0.287424,0.764055,-0.473218,0.697869,-0.537628
0.781790,0.363252,0.478335,0.468922,-0.188218,-0.862952
0.016572,-0.066193,0.607165,-0.226476,0.386920,0.893869
0.463271,0.065737,0.903707,-0.293105,-0.904326,0.310296
0.007832,0.629484,0.729307,-0.482710,0.034533,-0.875099
-0.096984,0.391958,0.339816,-0.584041,0.381843,0.716305
-0.440844,0.584683,0.321789,0.367731,-0.087483,0.925808
-0.474152,0.218404,0.211330,0.139972,-0.052320,0.988772
0.424850,0.327178,0.234768,0.429469,-0.384953,-0.816926
0.108748,0.099995,0.666614,0.447678,0.214600,0.868062
0.273147,0.002673,0.857089,0.739111,-0.572922,-0.354226
0.007504,0.677414,0.726293,0.001206,-0.125858,0.992048
-0.028664,0.063114,0.352518,-0.595882,0.618506,-0.512225
-0.085003,0.375258,0.567408,-0.189847,-0.821027,0.538398
0.405008,0.022451,0.138145,0.075344,0.447571,0.891069
0.843186,-0.511629,0.393825,-0.497135,-0.372876,0.783467
-0.025640,-0.267544,0.409456,0.952870,0.087365,0.290526
0.047023,0.229000,0.120477,-0.097415,0.334258,0.937434
0.344216,-0.653801,0.419646,0.367811,-0.586629,-0.721514
-0.312447,0.276877,0.585751,0.049114,0.142165,0.988624
0.078793,0.291559,0.695119,-0.237617,0.418419,0.876621
0.349879,-0.514505,0.110502,0.366480,0.347934,-0.862922
0.059664,0.162453,0.734388,-0.344642,-0.774797,-0.530012
0.815428,-0.356995,0.395404,-0.034364,-0.946949,0.319543
-0.373787,0.360881,0.470713,0.515424,-0.531478,0.672212
0.222525,0.564704,0.320311,-0.844209,0.424149,0.327733
-0.059828,0.111345,0.117764,0.057028,-0.209495,0.976145
0.416661,-0.073205,0.657457,0.821949,0.079790,0.563945
-0.054773,0.095000,0.359121,0.430155,-0.603024,0.671810
0.170199,0.449020,0.450060,-0.013099,-0.312094,0.949961
0.348064,-0.006710,0.913683,0.936125,0.047198,-0.348485
0.860939,-0.136876,0.632899,-0.037575,0.497466,0.866670
0.134197,0.319963,0.449227,0.062590,0.002125,0.998037
0.053838,0.640936,0.727800,0.029779,-0.252978,0.967014
0.314097,0.541597,0.772853,0.726357,-0.492313,0.479618
-0.337730,-0.259978,0.080060,-0.092103,0.599047,0.795399
0.028775,0.491650,0.430554,0.341466,-0.243593,0.907779
0.503780,0.444731,0.777618,0.152683,-0.580296,0.799965
-0.229010,0.668887,0.345198,0.166494,-0.388561,0.906256
-0.250281,0.179253,0.298193,0.841963,0.242686,-0.481873
-0.000632,-0.047375,-0.580670,0.991252,-0.131715,0.008445
-0.018440,0.403865,0.698405,-0.488243,0.281563,-0.826039
0.140903,-0.018870,0.090379,-0.174081,0.926072,0.334794
-0.123257,0.680139,0.340821,-0.009691,-0.272610,0.962076
-0.171462,0.186872,0.376932,0.149935,0.552966,-0.819602
0.504878,0.124866,0.817275,-0.328677,-0.658597,-0.676921
0.290352,0.185360,0.895368,0.813647,0.504196,0.289422
0.145850,0.367843,0.169377,-0.831899,0.375048,0.409002
0.416275,-0.557086,0.119975,0.266479,0.194556,0.944001
0.311403,-0.063520,0.900033,-0.466089,0.471214,0.748811
-0.536702,0.619796,0.658964,-0.607448,-0.081358,-0.790182
-0.543133,0.179909,0.456949,0.794142,-0.607646,-0.010203
0.803777,-0.348622,0.418326,-0.215112,-0.152912,-0.964544
-0.022783,0.254075,0.164683,0.886973,0.420161,0.191685
-0.266661,0.250490,0.697243,0.409152,-0.502734,0.761481
-0.169813,0.134000,0.665624,-0.302243,0.719391,-0.625400
0.148928,-0.363554,0.041967,0.656995,-0.432651,0.617390
0.423860,0.958934,0.455671,-0.111951,-0.815024,0.568509
-0.161019,-0.122902,0.632698,0.109469,0.682656,0.722494
0.008383,0.571516,0.355676,-0.357692,0.743679,-0.564799
0.153599,0.193532,0.759103,-0.342158,0.834767,0.431384
0.260671,0.659301,0.789675,-0.570543,-0.077842,0.817570
0.514332,0.127743,0.398447,-0.040711,-0.908531,0.415830
-0.210706,-0.088441,0.471431,-0.626098,0.749645,0.214555
0.415671,0.572070,0.416646,0.866547,-0.149536,-0.476167
-0.174429,0.056302,0.140069,-0.588658,-0.069575,-0.805382
0.241157,0.090360,0.843368,-0.602216,0.563749,0.565264
-0.155466,-0.279805,0.097757,0.985159,-0.167444,-0.037745
-0.217632,-0.244892,-0.983121,0.470951,0.065849,-0.879698
0.449035,0.479392,0.406901,-0.328715,0.494313,-0.804737
0.140133,0.225871,0.841459,0.544206,0.254523,0.799411
-0.568527,0.428133,0.298093,-0.699785,-0.711742,0.061030
-0.662682,-0.018617,0.294217,0.114323,0.044624,0.992441
0.498888,0.098381,0.580497,-0.269956,-0.556565,-0.785722
-0.260669,0.418495,0.453748,0.510345,-0.130570,0.850000
0.879407,-0.451188,0.396653,-0.493527,-0.420688,0.761218
0.342898,0.166136,0.873997,0.940513,0.203983,0.271708
0.351582,-0.033146,0.977825,-0.358054,0.742906,0.565587
0.751891,-0.466628,0.395146,-0.323935,0.010406,0.946022
0.453706,0.361737,0.553629,0.662948,-0.114832,-0.739807
0.342514,-0.216790,0.119860,0.222630,-0.470141,0.854051
-0.246104,0.524898,0.328736,0.573467,0.772523,-0.272660
0.330750,0.130720,0.782699,0.543165,-0.652291,-0.528666
-0.029763,0.534031,0.353150,0.357282,-0.906483,0.225027
0.390002,0.099087,0.909104,0.367443,0.438198,-0.820346
0.637124,0.190049,0.806008,-0.639689,0.051390,0.766914
-0.284194,0.001919,0.211057,-0.445303,0.415886,0.792934
0.118037,0.402150,0.708280,0.590042,0.201687,0.781775
-0.654491,0.173855,0.289725,-0.279748,-0.607167,0.743700
0.035481,0.115028,-0.236849,0.848954,-0.528460,-0.002659
0.783550,-0.118311,0.630129,0.086064,0.211227,0.973641
0.024707,0.070381,-0.379717,0.987924,-0.018599,-0.153817
-0.212301,0.075274,0.684225,-0.455049,0.687939,-0.565394
0.129525,0.145553,0.338912,-0.765155,-0.299356,0.570021
0.399951,0.777054,0.338711,0.061138,0.121074,0.990759
-0.321681,0.222844,0.714394,-0.208558,0.693658,-0.689450
-0.560172,0.661925,0.669987,-0.542760,0.647210,-0.535286
-0.278697,-0.193431,0.408896,0.171969,0.546248,0.819781
-0.380054,0.499974,0.622092,0.266666,-0.333553,0.904230
0.218623,-0.010393,0.156000,-0.539889,-0.374411,-0.753881
0.435953,-0.631199,0.428889,0.323256,0.561695,0.761580
-0.209113,0.129963,0.138461,0.226922,0.328651,0.916785
0.337017,0.098581,0.683765,0.066815,-0.132911,0.988873
0.394620,0.145957,0.686148,0.404143,-0.305126,0.862303
-0.472669,0.682510,0.630675,0.302815,-0.590667,0.747941
-0.420452,-0.071542,0.304594,-0.466323,0.156016,-0.870748
-0.033775,0.129710,0.568068,0.625701,-0.406074,-0.666034
0.032128,0.194592,0.657328,0.185783,-0.873902,0.449200
-0.471624,-0.006559,0.298968,-0.107094,0.131188,0.985556
0.026081,0.136571,0.152426,0.936477,-0.245447,-0.250534
0.048177,0.012209,-0.242145,0.943608,0.331015,-0.005697
-0.120015,0.157258,0.042398,0.334448,0.869236,0.364107
0.043066,-0.317844,0.716576,-0.795897,-0.306776,0.521954
-0.669387,0.306291,0.211301,0.699661,0.267706,0.662426
-0.264903,-0.474345,0.123635,0.228654,0.692933,0.683785
0.352021,-0.509461,0.604366,0.879783,0.465793,0.094962
0.464425,-0.505473,0.414580,0.469995,0.271192,0.839976
0.355429,0.264920,0.773944,0.809771,0.475990,0.343081
0.387530,-0.265022,0.589497,0.098266,0.592089,0.799859
0.052354,0.155592,0.724858,-0.444217,-0.858126,-0.257470
0.061423,0.042630,0.384137,-0.252126,0.872972,0.417555
0.476242,-0.514859,0.113372,-0.060390,0.235756,0.969934
0.081156,0.123758,-0.202618,0.851099,-0.432531,-0.297569
0.915300,0.302709,0.481162,-0.509473,0.034883,0.859779
0.647183,0.037134,0.541587,0.113545,0.419696,0.900535
0.167780,0.164371,-0.012401,0.552569,-0.832649,0.036918
0.102208,0.200445,0.706730,-0.373395,0.897678,-0.233987
-0.148322,0.155238,0.424153,0.104890,0.428550,0.897409
0.374943,0.264215,0.565327,0.731405,-0.486851,-0.477517
0.390552,0.182028,0.540712,0.300242,0.242354,0.922561
-0.937615,-0.051058,0.288491,0.942768,-0.330687,0.042823
0.043339,0.188134,0.527794,-0.171674,0.101449,0.979916
0.217687,0.227941,0.874787,0.745727,0.074293,0.662096
-0.414185,0.546238,0.339500,-0.289481,0.884541,0.365771
0.154973,0.904193,0.439022,-0.485683,-0.647105,0.587680
-0.010305,0.283184,0.594491,0.781793,0.623364,-0.014726
0.385111,0.927350,0.423450,0.800681,-0.442473,0.403891
-0.290021,-0.279199,0.076974,0.436705,0.091107,-0.894979
-0.021847,-0.018565,0.110387,-0.418222,-0.481762,0.770062
0.317009,-0.516069,0.392835,0.944106,-0.148942,-0.294073
0.615962,0.067705,0.455772,0.688480,-0.240873,0.684087
0.060214,0.140910,0.316378,-0.213716,-0.142784,0.966405
0.212246,0.548510,0.760065,-0.755216,0.397916,-0.520876
0.746889,-0.818729,0.435204,0.182087,0.471348,0.862946
0.094458,-0.381968,-0.972672,0.048203,-0.102333,0.993582
0.065711,0.286112,0.513312,0.630679,0.773662,-0.060763
0.392201,0.557640,-0.402997,0.791761,-0.551329,0.262966
-0.005743,0.549419,0.713591,-0.502494,0.294947,-0.812715
0.305797,0.170576,0.852339,0.371231,0.466778,0.802686
0.272763,0.102720,0.764385,-0.659931,-0.587839,0.467907
0.531097,-0.100752,0.125587,0.116192,-0.783559,0.610356
0.953006,-0.094144,0.454222,0.342435,0.204725,-0.916966
0.007943,-0.199989,0.627359,0.420993,0.197737,0.885248
0.323879,-0.107210,0.221664,0.729614,-0.050184,-0.682015
0.756892,0.330103,0.483746,-0.424719,0.381429,0.821052
0.445297,0.628779,0.404446,0.199125,0.050463,0.978674
0.774811,-0.061802,0.624331,0.429634,0.811184,-0.396731
0.427708,-0.356188,0.547716,-0.066435,0.130434,0.989229
-0.327672,0.103274,0.068678,0.783593,0.093900,-0.614137
0.906230,-0.480703,0.401935,-0.436500,-0.409868,0.800922
-0.761618,0.019526,0.288978,-0.328016,-0.802430,0.498508
0.196032,-0.284092,0.059363,0.707030,-0.215236,0.673634
0.534395,-0.878564,0.438778,-0.341508,0.138547,0.929611
0.345042,0.563845,0.445108,-0.570486,0.414938,-0.708783
0.401380,0.145048,0.839220,-0.006778,-0.014064,0.999878
0.182291,0.153827,0.045082,-0.168302,-0.970862,-0.170594
-0.535823,0.549468,0.367445,-0.212426,-0.282950,-0.935315
0.567428,0.839564,0.456734,-0.176419,-0.499881,0.847936
-0.047077,0.039957,0.597606,-0.316553,0.391189,0.864156
0.028610,0.524645,0.701764,-0.616288,-0.243606,-0.748896
-0.418692,0.485849,0.616781,-0.277847,0.173493,-0.944828
0.253855,0.327178,0.209077,0.960602,-0.141215,-0.239377
0.711162,0.063114,0.420292,0.639912,0.509521,-0.575240
-0.336245,0.639273,0.361302,-0.553330,0.496371,-0.668911
0.461731,-0.699409,0.437314,-0.399272,-0.061564,0.914763
-0.064171,0.489230,0.672542,0.771771,0.441052,0.458086
0.236486,0.042128,0.890115,-0.780608,-0.139250,-0.609312
0.396433,0.384392,0.531038,0.638682,0.068165,-0.766446
0.243028,0.427173,0.629584,0.971710,-0.173870,0.159842
0.063128,0.127139,-0.115267,0.376073,0.900516,-0.218266
0.341964,-0.368096,0.415570,-0.054280,0.453153,0.889779
0.560888,0.395994,0.763854,-0.642343,0.609153,-0.465111
-0.623381,0.507592,0.313938,-0.461419,0.643428,-0.610813
0.359058,0.167447,0.614915,-0.582387,0.401643,-0.706759
0.706599,-0.534484,0.397399,0.059324,0.347192,0.935916
0.278588,0.385349,0.477516,0.595288,0.798470,-0.089875
-0.102536,0.009989,-0.995335,-0.112162,0.264163,0.957934
-0.108473,0.065232,0.366770,-0.350312,-0.111851,-0.929930
0.932834,-0.064275,0.453748,0.319869,0.193524,-0.927487
0.300134,0.050957,0.813285,0.905073,-0.013322,-0.425048
-0.162558,0.320268,0.711768,-0.435783,-0.609614,-0.662166
0.067415,0.340499,0.316981,-0.025446,-0.607844,0.793648
-0.375656,0.655972,0.350294,-0.760563,0.568095,-0.314344
0.461731,-0.283839,0.422890,0.552003,0.573276,-0.605514
0.053783,0.121639,0.361359,-0.428522,0.888409,-0.164615
0.510155,0.031732,0.595152,-0.280011,0.677413,0.680225
0.258362,-0.623230,0.418297,0.438064,-0.377494,-0.815842
0.697641,0.183038,0.809467,-0.516817,-0.254109,0.817514
0.022124,0.080974,0.410604,0.996853,-0.055966,0.056147
0.359277,-0.287978,0.406327,-0.158440,-0.036950,-0.986677
0.364499,-0.013521,0.657873,-0.179598,0.134114,-0.974555
0.402314,0.523232,0.416431,0.110515,-0.234206,0.965885
0.100173,0.847888,0.383520,0.772414,-0.623057,0.123194
-0.174704,-0.326171,0.657758,0.925793,-0.079099,0.369662
0.224888,0.626306,0.381669,0.792754,0.317427,-0.520367
0.019210,0.398667,0.122314,-0.431647,-0.551745,0.713623
0.916399,0.314667,0.487549,-0.478276,0.168975,0.861800
0.231704,0.864436,0.283324,0.444556,0.635085,-0.631694
0.007393,0.130668,0.129074,-0.022240,-0.250712,0.967806
-0.069118,0.150243,0.765390,-0.209791,-0.661860,0.719673
-0.387198,0.068312,0.138059,0.168159,0.747687,0.642407
-0.074834,-0.217649,-0.573292,0.930423,0.261180,-0.257094
0.440185,-0.262801,0.118166,0.682094,0.092781,0.725355
0.127216,-0.423289,0.044680,0.599788,-0.478467,0.641345
0.801358,-0.375107,0.422646,0.043161,0.342200,0.938635
0.359002,-0.090510,0.139007,0.091794,-0.217356,0.971766
0.368731,0.454671,0.441060,0.548788,0.586314,0.595876
-0.562040,0.143687,0.271525,0.239570,-0.202514,-0.949523
-0.125292,-0.134859,-0.753018,0.953914,-0.271950,-0.126854
0.376811,-0.013570,0.914831,0.515763,0.628297,-0.582435
-0.105779,-0.179103,0.065779,0.222981,0.925728,-0.305462
-0.156622,-0.130871,-0.847516,0.998252,0.059098,-0.001030
-0.018935,0.517985,0.244255,-0.291560,-0.767573,0.570811
-0.087530,0.292317,0.485209,-0.123738,0.408988,0.904112
0.473494,-0.360628,0.402078,0.705936,0.116395,0.698646
0.354056,0.454317,0.744593,0.919184,-0.359976,-0.159743
0.061039,0.182684,0.121223,-0.227034,0.044748,0.972858
0.250886,0.049796,0.807099,0.979694,-0.076418,0.185362
0.407207,0.814693,0.327128,-0.581063,0.554318,0.595900
-0.275125,-0.442763,0.122185,0.209713,0.535397,0.818151
0.190755,0.395135,0.602242,0.941712,-0.150005,-0.301126
0.103856,0.804047,0.328420,-0.125960,-0.375825,0.918090
-0.345645,0.663338,0.365134,-0.277562,-0.477479,0.833651
0.090060,0.143031,0.436338,0.785618,0.277936,0.552771
0.494381,-0.650069,0.429104,0.289620,-0.790207,-0.540086
-0.559788,0.204833,0.291002,-0.290477,0.206072,-0.934429
-0.867424,0.064426,0.307350,-0.270592,0.089862,-0.958491
-0.498283,0.446144,0.454437,0.349403,0.092422,0.932403
0.020200,-0.290398,-0.973046,-0.041540,-0.010878,0.999078
0.520159,0.194844,0.450591,-0.067468,0.781134,0.620707
-0.057795,0.415721,0.428674,0.417660,0.288256,0.861666
0.226648,0.196257,0.576019,-0.754055,-0.645417,-0.121812
0.334378,-0.106354,0.393481,0.381482,0.188840,0.904882
-0.101107,-0.001059,-0.585707,0.839895,-0.325442,-0.434355
0.521149,-0.543617,0.417192,-0.576021,-0.224024,0.786138
0.176519,0.770699,0.432937,-0.521975,0.323308,-0.789312
0.562097,0.299479,0.718356,-0.099109,-0.719539,0.687343
0.611896,0.185209,0.464642,-0.318556,-0.440146,-0.839519
-0.218842,-0.115785,0.506437,-0.721613,0.640544,-0.262639
-0.052849,0.557086,0.273377,-0.238261,-0.766134,0.596885
-0.144035,0.477473,0.370516,0.890408,0.088328,-0.446510
0.090115,0.303113,0.736254,0.538306,-0.562428,0.627616
0.041582,0.549268,0.276893,0.421322,0.800346,-0.426538
0.541814,0.012209,0.804085,0.345953,0.443936,0.826582
0.573475,0.124919,0.619379,-0.471505,-0.726151,0.500388
0.196032,-0.074415,0.414149,0.824171,0.236847,0.514436
0.357023,0.289995,0.526589,0.408639,0.172509,-0.896245
0.197131,-0.213511,0.572044,0.026144,0.310666,0.950160
-0.026740,0.908128,0.335969,-0.084406,-0.433735,0.897079
0.319538,0.249483,0.500266,-0.316565,0.807300,-0.498049
0.015693,0.015689,-0.299872,0.978692,-0.044593,-0.200435
-0.461072,0.044044,0.197250,0.508416,0.457335,0.729629
0.579520,-0.614854,0.425904,-0.273066,0.403703,0.873189
-0.847857,0.042732,0.302815,-0.073364,-0.498310,0.863889
0.124193,0.536602,0.228726,-0.546126,-0.429321,-0.719326
0.364279,0.775391,0.352260,0.338650,-0.679832,0.650495
0.156733,0.518542,0.200609,-0.677852,0.638987,-0.363609
0.385935,0.537107,0.746631,-0.148602,-0.331370,0.931725
0.595405,0.395791,0.732091,0.281253,0.238861,-0.929431
0.033557,-0.163210,0.688315,0.739038,-0.476071,0.476633
-0.226811,-0.127693,0.483803,-0.733557,0.664569,-0.142277
0.097150,-0.201957,0.126807,-0.228053,-0.214396,-0.949751
0.236377,0.512085,0.455399,-0.440874,0.090410,-0.893004
0.263089,0.228797,0.681067,0.199465,-0.979813,-0.013403
0.560448,0.178850,0.782929,-0.135722,0.033796,0.990170
0.156677,0.214065,0.720222,0.118394,-0.985007,0.125476
-0.326572,0.520205,0.621245,0.434306,0.131639,0.891094
0.088741,0.169769,-0.144762,-0.579600,-0.812996,0.055685
0.044715,-0.377580,0.165502,0.673085,0.336709,0.658471
0.303048,0.076838,0.764543,-0.134015,-0.872709,0.469488
0.735456,0.289139,0.384912,0.928211,0.370356,0.035518
-0.102372,0.065636,0.499605,0.045229,-0.526784,0.848795
0.443373,-0.283639,0.422043,0.497327,0.577715,-0.647234
0.089181,0.024924,0.449844,0.150890,0.569172,0.808254
-0.011679,-0.013974,0.483889,0.532242,0.320844,-0.783440
0.176024,-0.350386,0.419675,0.336478,0.561570,0.755924
0.355210,-0.087838,0.866046,-0.366159,0.917633,0.154526
0.050046,0.113264,-0.162086,0.941420,-0.063471,-0.331210
-0.882595,-0.013925,0.281400,-0.573202,0.562877,-0.595491
0.074341,0.399071,0.496649,0.240274,0.296921,0.924179
0.189601,0.045054,0.659222,-0.477318,-0.145690,-0.866569
0.048561,0.191715,0.623355,0.756434,0.586038,-0.290458
-0.567098,0.075222,0.281730,0.843368,-0.448667,-0.295682
0.275237,0.021087,0.154909,0.491791,-0.079466,0.867080
0.382253,-0.318904,0.402638,0.261740,-0.251171,-0.931883
-0.665265,0.321376,0.489415,0.645083,0.418787,0.639129
0.424300,0.088241,0.913596,0.675364,0.458211,-0.577864
0.084014,-0.330762,0.728919,0.907276,-0.096088,0.409411
0.445187,-0.102769,0.387740,-0.141270,0.164072,0.976280
0.474813,0.851571,0.330716,-0.165771,0.660935,0.731905
-0.017615,0.978762,0.351758,0.325679,-0.272346,0.905406
0.379725,-0.387468,0.609088,-0.690898,0.502921,-0.519355
0.828015,-0.065891,0.635268,-0.455274,-0.687816,0.565362
0.172123,0.747893,0.427095,0.111380,-0.521709,0.845822
-0.048395,0.219211,0.733082,0.097594,-0.970615,0.219958
0.023608,-0.347966,0.175520,0.910531,-0.407392,-0.070460
0.845274,0.080823,0.441577,-0.473922,0.817012,0.328465
0.736610,0.180618,0.419603,0.699342,0.439309,0.563851
0.592163,0.227134,0.428530,-0.396632,-0.893892,0.208905
-0.229340,-0.475810,0.120821,0.089040,0.627936,0.773155
-0.083738,-0.103172,-0.648974,0.942456,0.301863,-0.143720
-0.965261,0.405984,0.527306,0.653415,-0.266950,0.708369
0.526864,0.338226,0.439281,0.562048,0.485091,-0.669917
0.367027,0.072549,0.868342,0.589494,0.641917,-0.490346
-0.275400,0.220676,0.694946,0.452712,-0.242577,0.858026
0.126831,0.408758,0.683235,0.650654,0.089838,-0.754042
0.309095,-0.279907,0.542132,0.760933,-0.257241,-0.595658
0.011405,0.198275,0.600548,0.773924,0.623022,-0.113515
-0.358506,-0.005296,0.153977,0.771610,0.502006,0.390651
0.308214,-0.008628,0.386563,0.694486,0.189671,0.694056
-0.802402,0.370618,0.497969,-0.496209,-0.207277,-0.843097
0.407922,-0.009989,0.539075,-0.414651,0.909944,0.008195
0.608267,-0.336058,0.087394,0.028694,-0.398584,0.916683
-0.399070,0.155339,0.058186,0.855023,0.511722,-0.084127
0.689945,-0.320871,0.404016,-0.098917,-0.548411,0.830337
-0.504878,0.534281,0.607624,-0.087709,0.184384,0.978933
-0.028334,0.336511,0.422703,0.253969,0.020752,0.966990
0.453322,0.246758,0.476124,-0.027600,-0.954604,0.296597
0.369941,0.285302,0.815667,-0.479764,-0.808967,-0.339704
0.125842,-0.041774,0.694358,0.402668,0.574641,-0.712493
-0.136175,0.073254,0.650037,-0.474259,0.101125,-0.874558
-0.540000,0.242721,0.448007,0.315061,-0.089837,0.944810
-0.184764,0.301752,0.451911,0.850227,0.122825,0.511887
0.697035,-0.433226,0.395433,0.266489,0.122528,-0.956018
-0.001182,0.599063,0.729752,0.242795,-0.648607,0.721359
-0.019925,-0.273296,-0.569101,0.883954,0.144116,-0.444811
-0.556654,0.421574,0.289079,-0.574966,-0.811880,-0.101314
0.271498,0.696130,0.343103,-0.200260,-0.144159,0.969079
0.609477,0.210130,0.372469,-0.199527,-0.420039,0.885300
-0.276114,0.694972,0.641497,-0.174117,-0.634014,0.753465
-0.052849,0.663892,0.386577,-0.019670,-0.999789,0.005963
-0.046912,-0.134505,-0.919897,-0.562620,-0.688690,-0.457346
-0.500205,-0.341306,0.074749,0.278505,-0.426815,-0.860386
0.524556,-0.544676,0.113229,-0.158381,0.124037,0.979556
-0.134801,-0.025327,0.305154,-0.636300,0.407657,-0.654934
0.661748,0.042178,0.542018,-0.308445,0.232457,0.922402
0.096711,0.148429,-0.163923,0.031255,-0.995066,0.094164
0.075109,0.252360,0.463522,0.815300,0.570547,-0.098808
0.861820,-0.031936,0.436324,-0.354247,-0.337747,0.872030
-0.391376,-0.017909,0.283725,0.448989,0.030874,0.893003
-0.007997,0.086979,-0.339744,0.980991,-0.174224,-0.085457
0.330861,0.535897,0.186600,0.888160,-0.291757,-0.355035
-0.202187,0.288834,0.729350,-0.239385,-0.845878,-0.476640
-0.262318,0.216085,0.110818,0.184838,-0.784556,-0.591868
0.608048,0.732306,0.445653,-0.030169,-0.485369,0.873789
-0.584301,0.330103,0.293055,0.937432,-0.319074,-0.139327
-0.596504,0.322688,0.458212,0.209557,-0.954213,0.213456
-0.347294,0.125473,0.146585,-0.682036,0.670426,0.292157
-0.028554,-0.345290,0.765950,-0.158976,0.883320,0.440990
0.334598,-0.088946,0.801688,-0.547619,0.506464,-0.666039
-0.051584,0.268655,0.420163,0.484265,0.140423,0.863579
0.058676,-0.271682,0.267593,0.081442,-0.053101,0.995263
-0.147442,-0.327279,0.654041,0.755499,0.071764,0.651208
-0.290461,0.197166,0.077892,0.189032,-0.067689,0.979635
0.091160,0.287624,0.331936,0.922506,0.358905,0.142023
0.015034,-0.178699,0.075768,0.122356,-0.176066,0.976744
-0.032566,-0.081377,0.689090,-0.209698,0.739627,0.639514
0.318768,-0.397257,0.408724,-0.176112,0.208963,0.961935
0.430675,-0.245194,0.115296,0.788037,-0.216486,0.576309
-0.013494,0.453861,0.592855,0.306781,-0.205330,0.929368
-0.330584,0.156349,0.147647,-0.237872,0.755520,0.610415
0.480969,0.256898,0.332338,-0.256720,-0.210954,0.943183
-0.207519,-0.120882,0.488582,0.887787,-0.434946,0.150523
0.551874,-0.933961,0.438290,-0.121450,-0.165888,0.978637
-0.636738,0.395037,0.234409,-0.228643,0.972323,0.048067
0.088136,-0.249887,0.181491,0.881819,0.293928,0.368784
0.387639,-0.290146,0.106727,0.643048,-0.369886,0.670578
0.186412,-0.287371,0.406327,0.219107,0.344460,0.912874
0.406217,0.921145,0.447003,0.197497,-0.943259,0.266942
-0.186522,0.442258,0.333845,0.790904,0.610427,0.043007
0.177509,-0.238838,0.452270,0.100342,0.172763,0.979839
0.051310,0.317894,0.752960,-0.714827,0.487108,-0.501744
-0.194053,-0.135059,0.465431,0.163940,0.381412,0.909752
0.366257,-0.005500,0.920801,0.035909,-0.999146,0.020458
-0.421661,0.274103,0.727197,0.731802,-0.532015,0.425941
-0.221369,0.119419,0.686091,-0.466859,0.517629,-0.717009
-0.351032,0.131173,0.179453,-0.563374,0.791194,-0.237951
-0.419187,0.169618,0.393624,-0.679329,-0.143993,-0.719568
0.159205,0.403967,0.780848,-0.193113,0.413535,-0.889773
0.050430,0.564199,0.283496,0.347121,0.892471,-0.288102
0.273422,-0.492106,0.152800,0.825459,0.220712,0.519523
-0.608980,0.035619,0.301164,-0.003140,0.124011,0.992276
0.254350,0.901773,0.291462,0.310447,0.915318,-0.256545
0.356528,0.365774,0.817318,0.395910,0.333003,0.855783
-0.295683,0.503306,0.319205,-0.256549,-0.669646,0.696962
0.133538,0.024721,0.830953,-0.233218,0.452414,0.860774
-0.616621,0.300693,0.475306,0.382755,0.821791,0.422089
-0.059828,0.212753,0.761644,0.759243,0.172990,0.627394
0.352352,0.361636,0.719547,0.400591,-0.585589,0.704707
-0.271387,0.472328,0.604309,-0.412451,-0.228744,-0.881794
-0.332124,0.721257,0.646936,-0.024987,-0.734534,0.678112
0.029654,-0.011655,0.688373,-0.049231,0.072914,0.996122
0.165472,-0.186924,0.620556,0.044009,0.480884,0.875679
0.248633,-0.321376,0.417149,0.126787,0.512532,0.849256
-0.164536,0.471521,0.360498,0.268646,-0.908750,0.319379
0.300904,-0.628224,0.420177,-0.454253,0.137160,0.880251
0.426938,0.553908,0.422301,-0.238933,-0.023515,0.970751
0.028664,0.064678,0.491970,0.163655,-0.592931,0.788448
0.367357,0.269259,0.332123,0.639618,-0.020837,-0.768411
0.066976,-0.267698,0.195800,0.964694,-0.240420,-0.107537
0.012890,-0.308462,0.702869,-0.619280,0.029722,0.784608
0.406602,-0.453005,0.596616,0.062874,0.031479,0.997525
0.326079,-0.134203,0.676589,-0.097215,0.987397,0.124883
0.268145,0.590383,0.435922,0.657799,-0.645155,0.388684
-0.698904,0.028151,0.287500,-0.265796,0.116888,0.956917
-0.484431,0.679381,0.635397,-0.632767,0.444446,-0.634093
-0.321241,0.611775,0.228898,0.409498,-0.175298,0.895311
0.561327,0.093587,0.547917,-0.715448,0.681583,-0.153554
-0.491852,0.303769,0.458370,0.279427,0.958715,-0.052776
-0.497073,0.040108,0.190691,0.477804,-0.065365,-0.876031
-0.210872,0.162151,0.737129,0.960620,-0.226098,-0.161520
0.533790,-0.556784,0.093652,-0.365912,0.010040,0.930595
0.387474,0.277887,0.805405,-0.650056,0.759113,0.034277
0.369171,0.263812,0.829403,0.991835,-0.060970,-0.112013
0.510759,-0.662682,0.430353,-0.028059,0.548077,0.835957
-0.709512,0.401596,0.484679,-0.343108,-0.775852,0.529463
-0.671586,0.322738,0.483358,0.464758,0.366217,0.806154
-0.658834,0.216285,0.296844,-0.738049,0.340918,-0.582288
0.093193,-0.000859,0.665796,-0.616933,0.179558,-0.766259
0.230714,-0.211090,0.373645,0.321195,-0.827368,-0.460756
0.197297,0.502801,0.769294,0.956702,0.226702,-0.182560
0.637729,-0.008628,0.601668,0.469191,0.437502,0.767106
0.414078,-0.476263,0.413790,-0.539449,-0.345486,-0.767876
0.379339,0.445387,0.776872,0.984972,0.131755,-0.111669
0.378185,0.303720,0.510155,-0.885938,0.187034,0.424421
0.280237,0.522881,0.793593,0.672168,0.216265,-0.708110
-0.031467,-0.143130,-0.610050,0.988546,-0.029589,-0.147992
0.286668,-0.506736,0.143872,0.931574,0.173495,0.319482
0.433314,-0.021999,0.452586,0.586406,-0.419187,-0.693117
-0.434577,0.559205,0.630502,-0.149344,-0.934150,0.324131
0.325968,0.307199,0.527708,0.279987,-0.663828,-0.693498
0.023993,-0.220525,0.079615,0.238905,0.065375,0.968840
0.299531,0.385753,0.177271,0.652633,-0.442385,-0.615114
0.321516,0.238333,0.747980,0.820518,-0.422593,-0.384923
-0.202681,-0.208316,0.400858,0.236295,0.558869,0.794877
-0.290406,0.525705,0.351025,0.120144,0.725191,0.677985
0.411934,0.280914,0.695808,-0.401291,0.872819,0.277763
0.705115,0.284597,0.481205,-0.415673,0.621077,0.664439
-0.412208,0.557388,0.627072,0.937206,0.346468,0.040052
0.605189,-0.117956,0.612561,0.052464,0.240268,0.969288
0.604584,0.452146,0.397356,0.882733,-0.072872,0.464189
0.017947,0.375308,0.684081,-0.061531,-0.997083,0.045157
0.252755,-0.209726,0.591664,0.023891,0.301372,0.953207
-0.244400,0.220624,0.101819,0.577208,-0.596994,-0.557162
0.061974,0.243833,0.480243,-0.559269,-0.826381,0.065668
0.204057,-0.047375,0.447519,0.870576,-0.380870,-0.311504
-0.005689,-0.050602,0.278214,0.335308,0.094523,0.937355
-0.337455,0.368043,0.619465,-0.320035,0.651636,-0.687712
-0.040317,0.335655,0.505519,0.792587,-0.557687,-0.246558
0.576278,0.003784,0.562571,-0.296256,-0.883563,-0.362697
0.179433,0.002725,0.454825,0.914554,-0.031666,-0.403222
0.162449,0.764897,0.420033,0.916184,-0.392685,0.080028
-0.916947,-0.077747,0.299370,-0.668062,0.482087,-0.566820
0.689230,-0.824783,0.438348,0.135068,0.377692,0.916027
-0.160415,-0.137784,0.470254,0.495433,-0.275062,0.823946
-0.843790,0.065990,0.305599,0.064644,0.006554,0.997887
0.331081,0.846730,0.365249,-0.317586,0.890936,0.324611
0.097975,0.420919,0.660629,-0.419778,-0.801430,0.426023
-0.109407,0.382827,0.362450,-0.316968,-0.851469,0.417770
0.925084,-0.484537,0.406614,-0.436500,-0.409868,0.800922
-0.663011,0.413855,0.288505,-0.346554,-0.119894,0.930336
0.508012,0.210130,0.750075,0.866369,0.473380,-0.159111
0.271884,-0.678525,0.432133,-0.269004,0.526476,0.806511
0.315085,0.305887,0.539477,-0.419171,0.601087,0.680434
0.456345,0.625247,0.323856,0.030960,-0.240757,0.970092
0.114080,0.071339,-0.065319,0.879086,-0.460385,0.123508
0.484102,-0.305133,0.596931,0.114046,0.464909,0.877982
0.925249,-0.068059,0.455456,-0.232138,-0.163181,0.958897
0.063237,0.170123,0.721628,-0.205608,-0.975678,-0.076009
0.793829,0.053023,0.457336,0.722077,0.605828,-0.334031
-0.553248,0.177892,0.474962,0.322068,-0.927894,0.187845
-0.328660,0.379043,0.443185,0.081077,-0.286569,0.954623
-0.358561,0.648101,0.623843,0.801944,0.233754,0.549768
0.098470,-0.349075,-0.969687,0.081334,-0.071525,0.994117
-0.306291,0.069017,0.471273,0.225030,0.446298,0.866129
0.556050,0.516220,0.391342,-0.527627,0.096478,-0.843980
-0.637947,0.328844,0.481951,0.480111,0.720216,0.500781
0.034491,-0.265779,0.716720,-0.801660,0.462026,0.379305
0.084893,-0.319208,0.210627,0.022983,0.631792,0.774797
0.319208,-0.539580,0.106727,0.320855,0.935722,-0.146547
-0.136669,-0.267494,0.663901,0.802429,-0.546044,0.240713
-0.209057,-0.361989,0.108493,-0.572752,0.244154,-0.782524
0.306181,0.201150,0.755572,0.801483,-0.189802,-0.567098
0.449090,-0.040311,0.138849,-0.251498,-0.194259,0.948162
0.692803,0.102317,0.443400,-0.297215,-0.375718,-0.877781
-0.589523,0.217597,0.284457,-0.014495,-0.226816,0.973830
0.520983,0.113919,0.810816,-0.110044,0.454171,0.884092
0.208124,0.572273,0.463264,-0.697828,0.168737,-0.696106
-0.104516,-0.033854,-0.605514,0.967867,-0.207629,-0.141860
0.180917,0.168559,0.828169,-0.580718,0.230394,-0.780824
0.218129,0.615559,0.464742,-0.613566,0.093522,-0.784085
0.229615,0.140811,0.813615,-0.528562,0.097302,-0.843300
0.057247,0.165129,0.690181,-0.853675,0.437975,0.281810
0.171903,0.036324,0.428373,0.870675,-0.052286,0.489071
0.019870,-0.348317,0.714653,0.400937,-0.841214,0.362779
-0.678292,0.235559,0.475966,0.295779,0.214584,-0.930843
0.519445,-0.534382,0.114277,-0.057882,0.154054,0.986366
0.306126,0.164824,0.800066,0.909874,-0.248009,-0.332596
0.143981,-0.337420,0.134500,-0.094801,0.280979,0.955020
0.150905,0.012813,0.662409,0.256732,0.002718,0.966479
0.292605,0.055496,0.218564,0.821342,0.522102,-0.229797
-0.414185,0.569092,0.631593,0.501896,-0.738828,0.449703
0.268145,0.554613,0.769753,-0.081030,0.660907,0.746081
0.060600,0.139499,-0.204742,-0.537966,0.841971,0.040969
-0.698629,-0.052622,0.265971,-0.622416,-0.723883,0.297642
0.552477,0.177437,0.470814,0.353743,0.881611,-0.312453
-0.238188,0.113618,0.675240,0.804344,-0.229531,0.548039
0.324485,0.297312,0.747851,0.128335,-0.987845,0.087703
0.261605,-0.184704,0.384482,-0.679958,0.675815,0.284483
0.025972,-0.277838,-0.537942,0.660715,0.562555,-0.496979
0.040208,-0.101106,0.619264,-0.334135,0.436275,0.835475
-0.747051,0.048281,0.314282,-0.249032,0.964001,-0.093196
-0.241322,0.745171,0.230735,-0.604080,0.234821,-0.761542
-0.482067,0.600526,0.352805,0.417200,0.805452,0.420942
0.155248,-0.266687,0.257517,-0.353475,-0.216366,-0.910077
-0.374666,0.280865,0.270119,0.272219,0.064326,0.960083
0.155523,0.053984,0.451222,0.918584,-0.311389,-0.243392
0.831974,0.283134,0.474818,-0.180833,-0.324891,0.928302
0.126447,0.298017,-0.315043,0.222133,-0.266153,0.937987
0.122105,0.250490,0.833752,-0.606144,-0.216519,-0.765316
-0.316404,0.024167,0.207670,0.407840,-0.274291,-0.870879
-0.227197,-0.540033,0.139093,-0.011508,0.690326,0.723407
0.206310,0.490591,0.756032,0.971379,0.234337,0.038850
0.498118,0.186924,0.564078,-0.235254,0.806349,0.542639
0.393300,-0.045457,0.861481,-0.485064,0.522024,0.701572
0.016077,0.177843,0.738852,-0.678036,-0.552936,-0.484282
0.019596,-0.224408,0.134485,-0.123795,-0.620031,-0.774749
-0.102426,0.061297,0.135103,0.558469,0.303457,0.772027
0.631132,-0.330306,0.411723,0.069195,0.118764,0.990509
0.629154,-0.829172,0.436353,0.030042,0.100706,0.994463
-0.204275,0.748700,0.646778,-0.158336,0.839825,0.519253
0.190480,-0.067957,0.612590,-0.290099,-0.247224,-0.924512
0.556931,0.927248,0.342084,0.110474,-0.617028,0.779148
0.164482,0.422329,0.767916,-0.857767,0.312903,-0.407834
0.230110,0.385047,0.176611,-0.513931,0.510943,0.689066
0.113805,0.233693,0.234883,0.099641,-0.024527,0.994721
0.386596,0.173603,0.498228,-0.028453,0.535539,0.844031
0.095282,0.083345,0.506251,0.610035,-0.701693,0.368082
0.145575,-0.255639,0.714897,-0.077986,0.793339,0.603765
-0.072855,0.241967,0.783919,-0.493501,0.676564,-0.546552
-0.082255,0.112608,0.305125,-0.149411,-0.038071,0.988042
-0.060268,0.302054,0.567566,-0.630556,0.114046,-0.767719
0.166737,0.791130,0.434645,-0.590780,0.200505,-0.781522
0.357298,0.109026,0.683751,0.066815,-0.132911,0.988873
-0.173936,-0.267140,0.103699,-0.632273,-0.212917,-0.744914
0.040976,0.875737,0.335338,-0.231182,0.304868,-0.923910
0.282876,0.016093,0.892412,-0.367236,0.498694,0.785138
0.097975,-0.255688,0.197881,-0.613767,-0.448642,-0.649623
-0.443043,0.433177,0.631392,0.166934,-0.025383,0.985641
0.019155,0.078905,-0.415843,0.943146,-0.317598,-0.098018
0.170583,0.206096,0.529746,-0.201680,-0.870128,-0.449669
-0.393300,0.341103,0.620484,-0.493156,0.519286,-0.697954
-0.286393,0.127743,0.690885,-0.772783,0.172419,-0.610801
0.809108,-0.093891,0.618288,0.459482,0.806699,-0.371637
-0.229780,0.267344,0.216095,0.029627,-0.191405,0.981064
0.200209,0.010999,0.823016,0.606237,0.140103,0.782846
0.277654,0.172695,0.328779,0.307209,-0.859702,0.408086
0.302498,0.271630,0.769739,-0.331649,0.890712,0.310873
-0.244564,0.295291,0.206852,0.109938,-0.339886,0.934019
-0.379888,0.450785,0.619465,0.156556,0.220857,0.962659
-0.147608,-0.285909,0.471445,0.209942,0.457237,0.864210
-0.711764,0.378085,0.494625,-0.568957,-0.028001,-0.821891
0.041362,0.554462,0.362795,0.863146,-0.501017,-0.062939
0.506198,0.146914,0.783962,-0.307368,0.129663,0.942715
-0.487234,0.126080,0.415096,-0.693728,-0.164243,-0.701260
-0.027510,0.197166,0.741650,-0.391381,0.891022,0.230002
-0.545662,0.215075,0.464714,0.950363,-0.121426,0.286470
0.292990,-0.116694,0.139781,0.122119,-0.053362,0.991080
0.587381,0.754403,0.437573,-0.190131,-0.522661,0.831069
-0.482343,0.365974,0.635397,-0.406161,-0.136070,-0.903614
0.040097,0.411838,0.424124,0.336222,-0.324563,0.884089
0.098854,0.186268,0.648199,-0.027550,0.998982,-0.035712
0.076043,-0.134049,0.137169,0.283165,0.137769,0.949124
-0.152224,-0.298472,-0.977653,-0.272812,-0.259473,0.926417
0.149642,0.362796,-0.332166,-0.554974,0.675748,-0.485148
0.361970,-0.409466,0.420909,-0.009626,0.332686,0.942989
-0.154807,-0.053580,0.312933,0.194602,-0.665389,0.720685
0.692473,0.427779,0.740674,0.183452,0.325827,-0.927460
0.092588,-0.292166,-0.554677,0.715559,0.533973,-0.450386
0.169484,0.504618,0.462862,0.066864,-0.128950,0.989394
-0.236815,0.456285,0.366455,-0.465300,-0.827836,0.313341
-0.122378,-0.301044,0.640305,0.771742,-0.147764,0.618530
0.182566,0.634328,0.390051,-0.598431,-0.600998,0.529794
0.584797,0.460673,0.730111,0.256631,0.026601,-0.966143
-0.617005,0.510521,0.298179,0.968105,-0.250541,0.001374
-0.130678,-0.121639,0.282304,0.611366,-0.348687,0.710387
-0.028829,0.294284,0.418814,-0.347660,-0.061488,-0.935602
0.058621,0.202915,0.185725,0.405087,0.742471,0.533518
0.182346,0.971344,0.453203,-0.710555,0.670091,-0.214683
0.579740,0.201554,0.465273,-0.647506,0.725567,-0.232998
-0.211256,-0.363554,0.097369,0.481137,-0.506769,0.715326
0.478330,0.066242,0.580182,-0.179811,-0.397295,-0.899902
0.216864,0.067102,0.242002,-0.200478,-0.916667,0.345732
-0.616346,0.537360,0.315947,-0.537197,0.428753,-0.726354
0.337017,-0.213563,0.539348,0.898857,-0.378036,-0.221685
0.484047,0.539780,0.786747,0.823967,0.291697,-0.485790
0.307280,-0.311187,0.586770,0.574464,0.476570,0.665486
-0.027455,-0.284092,-0.971194,0.037653,0.227125,-0.973138
0.170913,0.019625,0.660213,0.075441,0.245892,0.966357
-0.309972,0.707585,0.639057,-0.131727,-0.724805,0.676244
-0.072031,0.661118,0.726566,0.261348,-0.109482,0.959016
0.409020,0.221431,0.723781,-0.645926,0.763303,-0.012180
0.084343,-0.000807,-0.309876,0.984188,0.139820,-0.108742
0.349493,0.101962,0.512451,-0.158051,0.974816,-0.157330
0.602167,0.380102,0.395189,0.313559,0.463817,-0.828586
-0.010580,0.289139,-0.319808,-0.234502,-0.186587,0.954041
0.042185,0.338630,0.736842,0.740379,-0.324964,0.588419
0.428807,0.693758,0.440271,-0.572855,0.760253,-0.306353
-0.022178,0.220522,0.517173,0.417920,-0.801971,0.426831
0.442275,0.380151,0.544142,-0.771601,0.240929,0.588715
0.431226,-0.239747,0.566417,0.766024,0.640766,-0.051251
0.299200,0.456789,0.427267,0.994407,-0.025704,0.102444
0.765082,0.011705,0.440831,-0.628962,-0.392412,0.671133
0.444527,0.182333,0.606375,-0.041087,-0.969904,0.239995
0.198505,0.320317,0.434171,-0.373466,-0.115737,-0.920396
0.015693,0.007920,-0.323167,0.956386,0.286978,-0.054489
0.252315,0.493569,0.685689,0.272607,-0.863885,-0.423543
0.565559,0.697291,0.428631,0.380873,0.513057,-0.769226
-0.774809,0.142071,0.294275,-0.358668,0.170760,-0.917714
0.406602,-0.041118,0.989279,0.131441,0.678466,0.722777
-0.142495,-0.289391,-0.976275,-0.292213,-0.396369,0.870347
-0.178936,-0.436860,0.070601,-0.210691,-0.355853,0.910482
0.079507,0.330408,-0.320009,-0.021786,-0.318155,0.947788
0.388244,0.251854,0.843799,-0.695545,-0.290163,-0.657284
-0.711764,0.409617,0.489042,0.187329,0.780389,0.596574
-0.360596,0.077291,0.299643,0.894056,-0.271732,-0.356125
-0.431499,-0.187528,0.311067,0.038965,0.367468,0.929220
0.121006,-0.131225,0.690181,0.789569,0.165483,0.590928
-0.229560,0.544020,0.616394,0.627912,0.299809,-0.718221
-0.196526,-0.311285,0.106856,0.825662,-0.178775,0.535091
-0.232638,0.172747,0.016405,0.355674,-0.926583,0.122227
-0.127764,0.528630,0.610696,0.454009,0.494255,-0.741342
-0.003326,-0.278795,-0.974294,0.015407,-0.015435,0.999762
0.242422,0.390898,0.764629,-0.555206,-0.528353,-0.642331
0.467887,0.744010,0.333616,0.000772,0.032458,0.999473
-0.166405,0.172494,0.684426,-0.626917,0.299403,-0.719258
-0.093302,0.013016,-0.993441,-0.167180,0.244398,0.955155
-0.319317,0.379597,0.296241,0.934472,0.212625,-0.285575
-0.630142,0.312899,0.195585,-0.556990,-0.443723,-0.702048
0.029818,0.264215,0.519843,-0.261858,0.949208,-0.174456
-0.136559,0.358861,0.604567,-0.285660,-0.042274,0.957398
0.078793,0.902478,0.329051,-0.479559,0.133739,-0.867258
-0.364498,0.137532,0.279233,0.528227,-0.314760,-0.788608
0.087257,-0.248877,0.634450,-0.269584,0.323709,-0.906938
0.564350,0.070076,0.810386,-0.353112,0.377849,0.855887
0.042680,-0.165128,0.188638,-0.102237,0.372401,0.922423
-0.044219,0.316231,0.536305,0.712067,-0.479976,0.512429
0.037569,0.570204,0.398634,0.539680,0.034971,0.841143
0.219007,0.207709,0.515207,0.114729,0.963608,-0.241448
-0.350648,0.253419,0.711065,0.504968,-0.393463,0.768241
-0.294582,0.371172,0.449643,0.086449,-0.246653,0.965240
0.018167,0.565813,0.699180,0.554893,0.728473,0.401772
0.747823,0.342969,0.468445,0.495196,-0.431092,-0.754282
0.596011,-0.003329,0.604294,0.335413,0.065714,0.939776
-0.585071,0.527420,0.308900,-0.389008,0.536358,-0.748995
0.016847,0.754957,0.310307,-0.227624,-0.454703,0.861065
0.595461,-0.876193,0.438290,0.012170,-0.017665,0.999770
-0.002280,0.564350,0.391400,0.691812,0.288248,-0.662049
-0.477121,-0.218758,0.314928,-0.274195,0.401313,0.873936
-0.059884,0.214924,0.724872,-0.202442,0.700333,0.684507
-0.683733,0.188639,0.289553,0.018236,-0.481233,0.876403
0.086432,0.823219,0.417837,-0.429649,-0.524499,0.735053
0.341413,-0.134049,0.654730,0.004983,0.907682,0.419629
0.354715,0.083397,0.682646,0.002873,-0.127333,0.991856
0.088466,0.579688,0.431329,-0.516828,0.832060,-0.201407
0.348834,0.600474,0.336343,-0.210961,0.415968,0.884571
0.020311,0.126736,0.678383,-0.306235,0.854410,0.419766
0.306237,0.174813,0.831427,0.566647,0.814072,-0.127273
0.157887,0.092580,0.229127,-0.167111,-0.541861,0.823687
0.052300,0.633773,0.400700,0.123185,0.161731,0.979116
-0.361255,0.734526,0.646750,-0.224611,-0.559538,0.797789
0.705279,-0.315624,0.088958,0.175536,0.130952,0.975725
0.287713,0.140155,0.886125,-0.380880,0.507720,-0.772756
0.189821,0.015286,0.317368,-0.034663,0.114301,0.992841
-0.346360,0.275264,0.375554,0.407059,0.140257,0.902569
0.846044,-0.084657,0.626886,-0.616089,-0.678958,0.399312
-0.049935,0.343070,0.570967,0.725847,-0.213437,0.653905
0.490094,-0.042328,0.147030,-0.097439,-0.437587,0.893881
-0.001402,-0.265074,0.695478,0.871050,-0.076588,-0.485187
0.276445,0.242469,0.232759,-0.191133,0.389625,0.900922
0.331740,0.584683,0.194021,0.013319,-0.994968,0.099307
0.196967,0.159376,0.472550,0.939869,-0.313147,-0.136327
-0.844669,0.050855,0.306317,0.194392,0.293862,0.935872
-0.013163,0.375511,0.119989,-0.242149,-0.459129,0.854731
-0.966581,-0.144343,0.279420,0.034744,-0.088116,0.995504
0.598044,0.080721,0.538559,0.071348,0.349688,0.934145
0.166956,0.163161,-0.031734,0.913121,0.347224,-0.213648
0.392146,-0.073106,0.860348,-0.624122,0.780834,-0.027743
0.142277,-0.330359,0.135504,-0.071597,0.279797,0.957386
0.216808,0.895263,0.290199,0.444556,0.635085,-0.631694
0.053234,-0.109430,0.627316,-0.400670,0.481562,0.779462
0.189381,0.367440,0.636258,0.899473,0.120222,0.420114
-0.043065,0.114625,0.373057,0.225612,-0.760294,0.609140
0.294968,-0.299581,0.528368,-0.638162,-0.144435,0.756233
0.014869,0.202866,0.658663,0.056564,-0.785457,0.616326
-0.152994,-0.290802,0.654113,0.856606,-0.511625,0.066824
0.304148,0.094393,0.641138,0.893369,0.200654,0.402031
-0.440185,0.072247,0.708696,0.470642,-0.229840,0.851862
0.014758,0.270269,0.583153,-0.564277,0.363224,0.741390
0.807679,-0.016296,0.442051,-0.076404,-0.657231,0.749807
-0.148322,-0.231420,-0.966415,0.773448,0.351517,-0.527461
0.958887,0.347963,0.492142,-0.532964,0.265011,0.803566
0.349165,0.254983,0.121252,-0.178556,-0.239938,-0.954226
-0.165361,-0.051714,0.105435,0.994864,0.062415,-0.079681
0.275510,0.230564,0.870036,-0.551250,0.239960,-0.799088
-0.138703,-0.099591,-0.972586,0.409446,-0.738756,-0.535344
-0.118972,-0.440897,0.078768,-0.006244,-0.478366,0.878138
0.207190,0.285909,0.226946,0.115235,0.239875,0.963940
-0.215874,0.328135,0.229702,-0.717616,0.026181,0.695947
-0.023551,0.209221,0.202805,-0.118932,-0.962509,-0.243785
0.322506,0.374806,0.514345,0.005661,0.238378,0.971156
-0.293153,0.046415,0.152857,0.227613,0.116237,0.966789
-0.073514,0.192070,0.122487,-0.049031,0.061897,0.996877
0.220712,0.526413,0.321043,-0.352359,-0.364789,0.861842
-0.185203,-0.074064,0.050895,-0.737535,-0.294208,0.607852
-0.629978,0.024216,0.182251,-0.245853,0.752271,0.611265
0.667684,0.391856,0.736971,-0.252536,-0.258201,0.932501
0.314261,-0.289188,0.254690,-0.113198,0.320626,0.940417
0.313822,0.125322,0.727039,0.887055,0.447616,0.113020
0.874791,0.030371,0.568255,-0.560498,0.362854,0.744432
0.089840,-0.320773,-0.969357,0.024451,0.028144,0.999305
-0.047297,0.346248,0.712012,0.236892,0.068174,0.969141
0.692528,-0.477322,0.395921,0.229703,-0.047369,-0.972107
0.456675,0.169818,0.398906,0.594957,0.784769,-0.173680
-0.381592,0.059634,0.294088,0.797425,-0.424219,-0.429129
-0.107208,-0.406236,0.074835,0.437169,0.108282,0.892837
-0.040590,0.014479,-0.365077,0.982126,0.186636,0.024390
0.113860,0.442560,0.389247,0.345678,0.453114,-0.821702
-0.301673,0.623984,0.346591,0.881294,0.277860,0.382250
0.411493,-0.086828,0.941728,0.714579,0.696530,0.064982
0.203398,-0.330762,0.397528,0.070306,0.497279,0.864737
-0.508232,0.584732,0.624833,0.463512,0.611030,-0.641716
-0.174485,0.516220,0.361517,0.087226,-0.878440,0.469823
-0.430456,0.369254,0.590889,-0.715617,0.662979,-0.219888
-0.429522,0.302306,0.071821,-0.105197,-0.189658,0.976198
0.094458,0.163010,0.743387,0.345526,0.668363,-0.658713
0.857642,-0.187176,0.643205,-0.220382,0.316942,0.922486
-0.485201,0.293022,0.203106,0.361090,0.628767,0.688670
-0.583972,0.447709,0.306776,0.005267,-0.227920,0.973666
-0.792673,0.203318,0.303475,-0.328764,0.458367,-0.825720
-0.373403,0.646537,0.634277,0.443284,-0.126363,0.887430
-0.476901,0.416832,0.630201,0.234438,-0.008823,0.972091
-0.338500,0.645022,0.359049,-0.553330,0.496371,-0.668911
0.620140,0.034661,0.456906,0.575235,-0.020718,0.817726
0.812131,-0.086473,0.428502,-0.369697,-0.132259,0.919691
0.042900,0.267039,0.515522,-0.458478,0.876821,-0.144855
-0.081594,0.014935,0.459461,-0.083273,0.323281,0.942632
0.756012,0.195451,0.470986,0.450808,0.179736,-0.874338
0.010471,0.052216,-0.251460,0.996537,-0.067402,0.048683
0.457279,-0.343677,0.111908,0.374533,0.444372,0.813793
0.242806,0.613644,0.788225,0.881156,0.194937,-0.430772
0.703302,0.384188,0.460221,-0.435537,0.338927,0.833928
-0.004588,-0.026741,-0.436252,0.728433,0.668013,-0.152134
0.028169,0.883913,0.330501,-0.280252,0.823285,0.493620
-0.381976,0.030421,0.698032,0.266666,-0.390008,0.881353
-0.100723,-0.131527,0.390381,0.041337,0.577866,0.815084
0.671421,0.058677,0.624173,-0.522300,-0.637625,0.566248
0.094292,-0.129812,-0.475005,0.785654,0.612129,-0.089702
0.383296,0.163312,0.318201,0.301751,0.178213,-0.936583
0.181301,0.153119,0.652735,0.587262,0.767874,-0.255915
0.031908,0.153677,0.054196,0.051441,0.700935,0.711367
0.193283,-0.226579,0.380004,-0.632774,0.692622,0.346226
0.031522,0.592350,0.686450,0.430532,0.902243,-0.024480
0.400665,-0.418748,0.107976,0.612689,-0.266663,-0.743978
-0.252149,0.127995,0.071448,-0.047769,0.028375,0.998455
0.427819,0.049996,0.910697,0.317441,0.537179,0.781454
0.171078,-0.211241,0.493936,0.929248,-0.167015,-0.329552
-0.219667,0.434489,0.440759,-0.321005,-0.099581,-0.941828
0.465195,-0.422430,0.404403,0.373780,0.000612,0.927517
0.252976,0.054387,0.853745,0.103320,0.132822,0.985740
0.824223,-0.183290,0.638913,0.573282,0.025264,-0.818969
-0.426497,0.701026,0.630603,-0.007009,0.263944,0.964512
-0.024872,0.012360,0.648788,0.121609,-0.072763,0.989907
0.389232,0.228344,0.817949,0.879877,-0.195997,-0.432899
-0.609420,0.365571,0.207125,-0.210617,-0.977384,0.018997
0.574243,-0.278946,0.093350,-0.264446,-0.306021,0.914560
-0.072966,0.290297,0.710304,-0.250536,-0.501927,-0.827829
-0.073514,0.154179,0.650984,-0.435340,0.776085,-0.456257
-0.415286,0.252360,0.594133,0.019657,0.104193,0.994363
-0.143154,0.041420,-0.996785,-0.086269,0.229899,0.969383
0.250007,0.165076,0.856300,0.877333,0.216258,0.428391
0.392037,0.152617,0.840369,-0.086475,0.087959,0.992363
0.088082,-0.275011,0.202345,0.190689,0.602014,0.775382
0.479925,-0.083850,0.946421,0.991437,0.101384,0.082299
0.206420,-0.365069,0.473871,0.870700,0.327569,0.366851
-0.280127,0.674488,0.631593,-0.095551,0.298642,-0.949570
0.393355,-0.066144,0.980839,-0.208776,-0.963766,-0.166034
0.060929,-0.210382,0.129218,-0.079994,0.617983,0.782111
0.078682,0.309370,0.123276,-0.485886,-0.425067,0.763697
-0.569077,0.095102,0.454896,-0.137089,-0.890346,0.434156
0.387750,0.779576,0.412254,-0.404348,0.158580,-0.900753
0.709018,-0.052117,0.597635,-0.233265,0.752821,0.615506
-0.157776,0.579285,0.618762,-0.034484,0.542885,0.839099
0.527250,0.147216,0.463120,0.836405,0.152864,-0.526364
-0.276280,0.064527,0.274066,-0.211426,-0.091278,-0.973123
-0.373237,0.075527,0.288462,-0.602742,0.379504,0.701911
-0.735345,0.052065,0.309962,-0.239445,0.946895,0.214604
0.459533,0.457849,0.523531,-0.264930,-0.349354,-0.898757
0.500482,-0.357752,0.099838,0.064217,0.697982,0.713230
0.334982,0.192978,0.774590,0.977058,-0.083233,-0.196033
0.040481,0.055951,0.450304,0.180022,-0.024642,0.983354
0.255613,0.619544,0.792430,0.636627,0.119333,-0.761883
0.336192,0.256797,0.785627,-0.650402,0.736416,0.186195
0.412483,0.346048,0.810142,-0.598542,0.294027,-0.745182
0.374557,0.465920,0.744392,0.746642,-0.335417,-0.574475
0.305742,0.012311,0.240796,0.905648,0.233622,0.353868
0.394674,-0.527823,0.422430,0.038296,-0.167685,0.985096
0.572046,-0.424450,0.410346,-0.007840,0.132071,0.991209
0.215379,-0.288280,0.131414,0.269602,0.515850,0.813150
0.169868,0.400940,0.771217,-0.639463,-0.232332,-0.732877
-0.160688,0.323242,0.582607,0.376348,-0.137986,0.916145
0.510759,0.158065,0.331391,0.460294,0.124529,-0.878989
0.404183,-0.050048,0.958463,0.567117,0.746089,-0.348897
0.446726,0.077845,0.885422,0.819117,-0.548673,-0.167349
0.074120,0.123706,-0.206149,-0.762040,0.618622,0.191319
0.179378,0.140103,0.235959,0.739962,0.091471,-0.666400
0.737269,-0.421269,0.397457,-0.379135,-0.411794,0.828663
0.307720,0.650017,0.328032,-0.177088,0.039897,0.983386
-0.155522,0.209221,0.379731,0.138600,0.664597,-0.734235
0.619920,0.357398,0.379745,-0.327656,-0.393469,0.858967
0.372193,-0.062763,0.127395,0.039737,-0.164595,0.985561
-0.132107,0.008022,0.306446,-0.406691,0.326752,-0.853133
-0.048451,-0.213813,0.638755,-0.438950,-0.332823,-0.834597
-0.056366,0.308006,0.595209,0.895401,0.380974,0.230468
0.060873,0.230512,0.489917,-0.294456,-0.929765,0.220980
-0.436448,-0.201655,0.321258,-0.103870,0.461783,0.880890
0.955698,-0.023409,0.457667,-0.403202,-0.258320,0.877895
-0.204275,0.224409,0.052316,0.274596,0.734953,0.620034
-0.315141,0.054991,0.700831,-0.512922,0.489416,-0.705254
-0.053397,0.119367,0.067056,-0.375836,-0.421383,-0.825339
-0.336081,0.323042,0.272990,-0.287641,-0.244382,-0.926035
0.692803,-0.721913,0.435463,-0.267763,-0.091851,0.959097
0.380493,0.712275,0.329367,-0.592756,-0.241157,0.768430
0.085608,0.005044,0.162287,0.272569,0.349436,0.896438
0.283865,0.099995,0.887675,0.959622,-0.264962,0.094452
-0.067524,-0.113162,-0.921648,-0.330529,-0.928257,-0.170556
0.223899,0.055646,0.686894,0.104588,0.164575,-0.980804
-0.196911,0.133698,0.304910,0.478777,0.514199,-0.711598
-0.570395,0.509865,0.365149,0.232580,0.209553,0.949734
