-0.279704,-0.150131,0.811477,0.817296,-0.463963,0.341710
-0.378073,-0.116797,0.791940,-0.226816,0.000830,-0.973937
0.323376,0.033955,0.822627,0.527887,0.383888,-0.757605
0.188506,0.864903,0.428317,0.811028,0.283184,-0.511899
-0.167734,0.675479,0.680128,0.884034,-0.304997,0.354204
-0.315374,0.885691,0.621417,-0.323812,-0.893558,-0.310967
0.609011,0.044324,-0.982604,-0.225018,0.051562,0.972989
-0.445642,0.462467,0.876988,0.848666,0.471023,-0.240632
0.045826,0.019752,0.641870,0.907572,-0.397501,-0.135303
-0.202573,0.077294,0.494286,-0.045047,0.998897,-0.013233
0.691197,0.015240,-0.979449,0.355437,-0.238848,-0.903668
-0.467711,0.182373,0.092766,0.477260,0.069240,-0.876030
0.012827,0.472057,0.068045,0.971381,0.038734,0.234347
0.201928,0.026387,0.908918,0.837415,0.543858,0.054357
-0.522318,0.331468,0.572926,0.031982,0.125701,0.991552
0.033510,0.609176,0.129813,0.336886,-0.651459,0.679786
0.297727,-0.088441,0.652677,0.482643,0.859170,0.169951
-0.412733,0.454588,0.891294,-0.404009,0.847628,-0.343954
0.147506,0.151216,0.130679,0.904767,-0.423831,0.041991
-0.678880,0.707620,0.807651,-0.314725,0.860586,0.400424
-0.429925,0.559149,0.750642,0.405414,0.394983,0.824396
0.047577,0.162259,0.585809,0.966368,0.163891,-0.198173
-0.002071,0.196317,0.515900,0.951144,0.258465,0.168881
-0.346723,0.568065,0.724679,0.875894,0.435034,0.208698
-0.146496,0.118557,0.834513,0.984091,-0.161507,0.074027
-0.010526,0.528511,0.929355,0.350070,0.638673,0.685235
-0.060353,0.180145,0.951492,-0.024691,-0.988151,0.151487
-0.219395,0.785535,0.579515,-0.338406,0.402851,-0.850407
0.154032,-0.080249,0.280046,0.322354,0.816146,0.479577
-0.500345,-0.497202,0.334047,-0.021777,0.967330,0.252582
-0.073685,0.243494,0.595112,0.860143,0.467101,-0.204868
-0.256171,-0.393367,0.796812,0.901468,-0.261799,-0.344699
0.423119,-0.043444,0.730859,-0.738741,0.540898,0.402108
0.100894,0.080559,0.624475,0.962979,-0.254858,-0.087856
-0.307838,0.551476,0.106352,-0.213110,-0.949267,0.231250
0.099794,0.856556,0.632633,0.831515,-0.174882,0.527256
-0.466790,0.589837,0.778272,0.566242,0.759099,-0.321153
0.611951,-0.152257,-0.975247,0.324898,-0.219360,-0.919958
0.003905,-0.378900,0.436279,-0.620567,0.453028,0.640049
0.180325,0.080455,-0.351803,0.826493,-0.554746,-0.095738
-0.517442,-0.285588,0.842688,-0.710761,0.378309,-0.593043
0.326591,0.535715,0.523780,-0.214795,-0.413565,0.884775
0.071200,-0.123173,0.693877,-0.274154,-0.810033,-0.518350
-0.394805,0.123483,0.093975,-0.297556,0.055306,0.953101
0.078466,0.123742,0.456895,-0.700232,0.693609,0.169061
0.237233,-0.169001,0.909147,0.665797,-0.215662,-0.714286
-0.624177,0.098496,0.796534,-0.589019,0.240582,-0.771477
-0.290096,0.328873,0.784566,0.575027,-0.657680,0.486623
0.511742,-0.237013,-0.974888,-0.165945,0.225286,0.960056
0.206709,0.120632,0.188523,0.985708,0.167345,0.019370
0.492069,0.465682,0.777029,-0.681075,0.528404,0.506878
-0.255251,-0.189062,0.512630,-0.768354,-0.372020,-0.520801
0.938407,0.134991,0.401700,0.603710,-0.745831,-0.281550
-0.411908,0.037271,0.789536,-0.220019,-0.393602,0.892563
-0.390574,0.434575,0.563917,0.490531,0.459859,-0.740209
0.238243,0.134627,-0.510766,0.986738,-0.149726,0.062694
-0.106415,0.239760,0.584746,0.995043,-0.024355,0.096419
0.545941,0.024935,-0.986839,-0.121882,0.173273,0.977303
0.107885,0.127217,-0.098292,0.908085,0.418508,0.015244
-0.050607,-0.223484,0.828824,0.804528,0.173271,0.568077
0.127283,0.095231,0.634333,0.918648,-0.384512,-0.090757
0.150816,-0.133852,0.305828,0.172915,0.813374,0.555449
-0.169389,0.962882,0.587673,-0.295446,0.321819,-0.899524
-0.088487,0.831310,0.289594,-0.772028,-0.635339,0.017792
-0.089683,0.172004,0.959274,0.547489,-0.678515,0.489769
-0.160102,0.604145,0.634922,0.314126,-0.736382,0.599221
-0.246609,0.686417,0.749971,0.826069,-0.205286,0.524851
-0.336152,0.027320,0.564735,-0.025167,0.864861,0.501380
-0.726777,0.673717,0.813684,-0.124718,-0.769481,-0.626374
-0.109445,-0.143442,0.814665,0.360428,0.931475,0.049463
-0.353894,0.571020,0.711845,0.935825,-0.214681,0.279542
-0.497865,-0.680716,0.720298,0.793954,0.096828,0.600218
0.376053,0.437945,0.520608,-0.339436,0.095268,0.935792
-0.380463,0.333281,0.926576,0.699495,-0.309953,0.643922
0.278509,0.083461,0.439287,0.225975,0.971147,0.076217
0.184006,0.084084,-0.311257,0.934093,-0.189723,0.302449
-0.202759,-0.433386,0.786839,-0.508862,-0.670842,-0.539472
-0.236863,-0.406222,0.587934,-0.285529,0.449821,0.846247
-0.447668,-0.129289,0.819766,0.670495,0.650585,-0.356617
0.156147,-0.015863,0.668912,-0.387691,0.496094,0.776908
-0.277409,-0.342665,0.860525,0.849585,-0.311623,-0.425554
-0.637324,0.341314,0.830589,-0.639473,0.768360,-0.026421
-0.192647,0.725867,0.446186,0.219916,0.952708,-0.209724
0.576926,0.317574,0.856372,-0.216428,0.976036,-0.022660
0.218756,0.032038,-0.747650,0.798550,0.601017,-0.033117
-0.089958,0.428614,0.878476,0.956015,-0.010053,0.293145
0.760146,-0.006482,-0.978484,-0.113396,-0.242270,0.963559
-0.044726,0.556089,0.848377,-0.168181,-0.685986,0.707912
-0.424314,0.522186,0.862454,-0.295308,-0.709854,0.639453
-0.605425,0.491497,0.785187,-0.770878,0.607748,-0.190761
-0.483248,-0.410421,0.462242,-0.702567,0.576639,-0.416997
0.617281,-0.094971,-0.978256,0.200227,-0.044013,-0.978760
-0.468446,0.175738,0.750576,0.725462,0.229008,0.649046
0.085082,-0.016642,0.924581,-0.656472,0.429876,-0.619880
-0.348014,0.338413,0.911534,0.692249,-0.348717,0.631814
0.114041,0.099790,0.302264,-0.777672,-0.625891,-0.059046
-0.433140,-0.317884,0.569738,0.211278,0.773768,0.597198
-0.144105,0.788386,0.583405,0.336267,0.460147,-0.821699
0.118822,-0.109434,0.735551,-0.759399,0.458442,-0.461675
0.783040,0.069931,0.522684,0.887734,0.376493,-0.264918
0.592003,-0.011769,-0.986806,0.085078,-0.177582,-0.980422
0.151366,0.138724,0.030655,0.980963,-0.096113,-0.168743
0.122867,-0.192226,0.879359,0.046443,0.279090,0.959141
0.215445,-0.169103,0.908085,0.257565,-0.085501,0.962471
-0.516068,0.258475,0.787133,-0.401907,0.791391,-0.460620
-0.496210,0.103473,0.773645,0.856100,0.464304,-0.226968
0.172419,0.174700,-0.407096,0.799921,0.592944,-0.092429
0.013282,-0.381856,0.752767,-0.472650,0.275909,-0.836945
0.072120,-0.121515,0.341715,0.849007,-0.494708,0.185612
-0.446102,-0.618921,0.264759,0.156742,0.264180,0.951652
0.615721,0.242146,0.924548,0.558607,-0.163634,-0.813131
0.019628,0.351322,0.006916,-0.561828,0.723271,-0.401533
-0.024594,0.606895,0.863108,0.494137,-0.370923,0.786285
-0.117811,0.060445,0.831358,0.779353,0.615956,0.114924
0.110551,-0.235511,0.883038,0.325384,-0.906800,-0.268027
-0.484993,0.325661,0.839712,-0.516901,0.343548,-0.784084
-0.764927,0.247278,0.834333,0.911659,0.157866,0.379416
-0.132153,0.595127,0.838895,0.989616,0.011561,0.143273
0.046932,0.113478,0.486782,0.866290,0.485267,0.118562
0.110915,0.313996,0.924270,0.587969,-0.038690,0.807957
0.053643,0.416433,0.837391,-0.323233,0.930760,0.170901
0.178945,-0.288439,0.900482,-0.699014,0.555520,0.450307
-0.692117,0.661276,0.819635,0.098421,0.708985,0.698322
-0.030014,0.370917,0.934407,0.214054,0.865040,0.453748
-0.035715,-0.626180,0.512107,-0.616897,0.712588,0.334150
-0.484443,0.116952,0.562560,0.678897,0.484336,0.551831
-0.145300,0.441109,0.825603,-0.168178,-0.511735,-0.842522
-0.505771,-0.401609,0.891392,-0.228302,0.701783,0.674817
-0.587127,-0.077034,0.608534,0.983317,0.181873,0.003092
-0.326040,0.645256,0.829494,0.708646,0.536528,-0.458213
-0.039211,0.488178,0.933769,0.611953,-0.243747,0.752397
-0.438931,-0.136548,0.704880,-0.677648,0.343446,-0.650260
-0.324200,0.509226,0.872247,0.856459,0.513360,0.054226
0.181335,0.101553,-0.897883,0.994424,-0.082523,-0.065657
-0.839302,0.082217,0.537056,0.940062,-0.086857,-0.329757
-0.320525,0.932710,0.627401,-0.103763,0.739284,0.665352
-0.527279,0.060910,0.577749,0.395000,-0.055221,0.917020
0.054103,0.127112,0.560974,0.811065,0.578828,-0.084445
-0.071385,0.661586,0.881713,-0.021142,0.135297,0.990579
-0.295241,0.412285,0.863108,-0.595423,0.767187,-0.238526
-0.503380,-0.164230,0.838960,-0.195262,0.879636,0.433721
-0.159272,0.280716,0.941127,0.714314,-0.121321,0.689229
-0.098139,0.347225,0.819554,-0.599245,0.781357,0.174315
0.488668,-0.059255,0.896019,0.480207,0.870670,0.106465
0.584557,0.177450,0.678117,0.925716,-0.155673,-0.344697
-0.480117,0.479161,0.726478,0.875773,-0.434981,0.209316
0.041876,0.169362,0.768184,-0.681225,0.635305,-0.363758
0.053183,0.278381,-0.039009,0.997665,-0.065062,0.020748
-0.538770,0.250439,0.567351,0.942672,-0.325420,-0.073965
0.586577,0.298808,0.863239,0.238268,0.454011,-0.858547
-0.554767,0.569568,0.914559,0.064812,-0.930951,0.359346
-0.584832,0.397562,0.756086,-0.782740,-0.304387,-0.542832
0.194667,0.148834,-0.247936,0.914654,0.365626,0.172412
-0.116987,0.268635,0.899567,0.962368,0.250036,0.106443
0.113676,0.099585,0.309016,0.797912,0.591025,0.118430
0.202848,-0.055832,0.856830,0.994383,-0.103520,0.022054
0.252675,0.219026,0.185482,0.971278,-0.014967,-0.237476
-0.171039,-0.442717,0.450862,0.153696,0.855493,0.494479
-0.057413,0.830013,0.597678,-0.451261,-0.480617,0.751911
-0.329256,-0.494142,0.497948,0.123477,0.527722,0.840395
-0.220961,0.769620,0.657190,-0.116952,0.529416,0.840262
-0.260217,0.198962,0.924320,0.243769,0.347511,0.905435
-0.047667,-0.455936,0.749775,-0.713332,0.480548,-0.510129
-0.578396,-0.119493,0.809107,-0.305250,0.720873,-0.622226
-0.273363,0.320890,0.908935,-0.481333,0.539955,-0.690483
0.721351,0.025659,0.421597,0.003587,0.776737,0.629814
-0.610851,-0.171799,0.614943,-0.102839,0.568866,0.815976
0.220226,-0.186936,0.878574,0.830759,-0.084415,-0.550195
0.008047,0.231413,0.498471,0.896430,0.390846,-0.208931
-0.301032,-0.287145,0.832093,0.215509,-0.548064,0.808197
0.199173,0.468843,0.816055,-0.724985,-0.660524,-0.195206
-0.088578,0.637842,0.640154,-0.437263,0.513120,-0.738586
0.598158,0.317055,0.816431,0.126542,-0.952391,0.277376
0.269043,0.359565,0.246693,0.997831,0.063912,-0.015759
0.587312,0.337115,0.806311,0.814857,-0.538068,-0.215618
0.074050,0.047694,0.398087,-0.740277,-0.515889,-0.431102
-0.093818,0.773613,0.423232,0.814913,0.307876,-0.491049
-0.519743,-0.366513,0.879261,-0.235610,0.830258,0.505133
-0.424595,0.579627,0.756887,0.184929,-0.141172,0.972559
-0.113401,0.909020,0.600147,-0.114667,0.159247,0.980557
0.163133,0.180921,0.685457,0.976571,-0.215058,-0.007725
0.399861,-0.673356,0.557476,-0.665633,-0.295988,-0.685072
0.174445,0.254068,0.716864,0.903013,-0.424461,0.066329
-0.022293,0.106324,0.863075,0.843478,-0.222962,-0.488706
0.176740,-0.024055,0.841985,0.970397,0.200892,-0.134061
-0.044081,0.382375,0.732151,-0.645834,0.701296,-0.301799
-0.101999,0.583876,0.664710,0.937267,-0.339038,0.081144
0.232817,0.479676,0.842541,-0.674545,-0.220598,-0.704504
0.183361,0.105081,-0.546064,0.674568,-0.622346,-0.397044
-0.174719,-0.047744,0.718924,-0.441236,0.485968,-0.754418
0.570490,0.295280,0.922259,-0.083708,0.958606,0.272153
0.155687,0.769671,0.414780,0.303753,-0.732259,0.609534
0.191542,0.472421,0.870073,-0.323684,-0.683110,0.654667
-0.135649,-0.202022,0.851925,0.991099,-0.020634,0.131516
-0.220136,0.099895,0.495185,-0.292638,0.933933,-0.205263
-0.670054,0.536908,0.859348,0.060222,0.351931,0.934087
-0.647716,0.451060,0.602044,-0.755361,-0.654410,-0.034319
-0.393150,0.257438,0.771732,-0.415040,-0.745976,0.520828
-0.176925,0.338049,0.609728,0.882384,0.422190,0.207734
-0.598069,-0.073924,0.618327,-0.588935,0.047323,0.806793
0.174074,0.262155,0.918597,0.000651,-0.378523,0.925592
-0.041326,0.449352,0.808027,0.970439,0.094996,-0.221865
-0.585477,-0.395335,0.873359,0.436513,-0.844747,-0.309610
0.372742,0.363659,0.785024,0.193389,0.857936,-0.475968
0.292486,-0.308034,0.728047,-0.619314,0.302998,0.724322
0.846104,-0.002074,-0.977324,0.169405,0.115137,-0.978798
0.212505,0.127008,0.192022,0.993232,-0.111929,0.031018
-0.688531,0.372730,0.781133,0.290198,0.452731,0.843101
0.546401,0.335094,0.873817,0.101871,-0.720480,0.685953
0.909627,-0.043754,-0.974675,-0.078051,0.082724,0.993511
-0.332841,0.585379,0.719840,0.986762,-0.065630,0.148304
-0.537855,-0.588442,0.260754,0.394018,0.429266,0.812700
0.069730,0.514772,0.109589,-0.063232,-0.734509,0.675647
-0.039671,-0.483723,0.749971,0.841858,-0.521254,0.139890
0.157712,0.121825,0.060639,0.954995,-0.292120,0.051491
-0.590623,0.536133,0.849342,0.105465,-0.119598,0.987205
-0.126363,0.081543,0.781002,-0.345002,0.757345,0.554438
0.143275,0.076775,0.764506,0.894781,-0.336601,-0.293371
0.071020,-0.389788,0.656111,0.917403,-0.387486,-0.090697
0.582806,-0.146138,0.870400,-0.561652,-0.824188,0.072534
0.133163,-0.014724,0.796321,-0.494761,0.086753,0.864688
0.199448,0.153811,-0.162887,-0.282717,0.959183,0.006208
0.146771,0.084967,0.148026,0.997699,0.067703,0.003673
-0.001700,0.421046,0.842557,-0.302925,0.945360,0.120545
-0.501450,0.645825,0.792790,0.287230,0.310849,0.906020
-0.129673,0.609071,0.642917,0.923253,-0.248063,0.293375
-0.457414,0.318090,0.840955,-0.434523,0.704436,-0.561213
-0.654517,0.160291,0.810464,0.754919,-0.000009,0.655818
-0.477912,0.610989,0.750347,0.837351,0.072843,0.541790
-0.667018,0.635251,0.946031,0.562235,0.242817,0.790526
-0.012182,0.804612,0.332919,0.719499,0.646661,-0.253281
-0.658012,0.738827,0.809335,0.212962,-0.567675,-0.795231
-0.165343,0.361223,0.877806,-0.198668,-0.971951,-0.125868
-0.016963,0.420423,0.831619,-0.650916,0.602543,0.461791
0.198163,0.053291,-0.586970,0.604135,0.790733,0.098800
0.215535,0.072681,0.000752,-0.660884,0.458810,0.593907
-0.627398,0.442302,0.826895,-0.178145,-0.198982,0.963676
-0.051987,0.779419,0.291670,0.783718,0.619812,-0.040235
0.207904,0.598393,0.310439,0.965728,0.083056,0.245907
0.251850,0.035718,-0.656405,0.999691,-0.007973,-0.023525
0.113581,0.685484,0.591498,0.196497,0.509941,0.837466
0.455939,-0.260861,0.455310,-0.074132,-0.004630,0.997238
0.563044,0.407931,0.540652,0.354996,-0.286586,-0.889858
0.571410,-0.236599,0.458301,-0.052154,-0.326714,0.943683
-0.138679,-0.071956,-0.570817,0.945601,-0.324887,-0.016918
0.034335,-0.348057,0.973433,-0.661911,-0.173908,-0.729130
0.149896,0.094557,-0.488417,0.985075,0.022186,0.170689
-0.104300,0.454329,0.900286,0.694445,-0.024055,0.719144
-0.123052,0.596058,0.630785,0.912243,-0.383469,0.144095
-0.310318,-0.304200,0.826371,0.471883,-0.771875,0.426070
-0.020913,0.657128,0.595847,0.935595,-0.281143,0.213591
0.050332,-0.550182,0.781722,0.813180,0.578280,-0.065806
-0.115791,0.315812,0.610316,0.713530,0.680908,0.165043
0.021468,0.291549,-0.025194,0.879900,0.474863,-0.016794
0.142080,0.109381,-0.057778,0.978573,-0.192289,0.073617
0.679060,0.063606,0.682547,0.334030,0.688533,-0.643697
-0.576191,0.580402,0.907840,-0.682463,0.601461,-0.415317
0.074606,0.139294,0.582801,0.912480,0.403414,-0.068101
0.417699,0.043492,0.889970,0.743889,0.189735,0.640804
0.333027,-0.781700,0.366255,-0.320896,0.787984,0.525459
-0.594758,0.770658,0.803597,0.162852,0.386670,0.907725
0.030659,-0.350284,0.430115,0.551228,-0.049383,-0.832892
-0.589063,0.712129,0.809254,0.444228,0.575034,0.687021
-0.176925,-0.544325,0.767956,-0.379029,0.920855,-0.091450
0.406482,-0.362314,0.751181,-0.584134,0.294866,0.756202
0.174624,0.142768,0.141944,0.968069,-0.250677,-0.001995
0.472396,0.289113,0.956495,0.241140,0.924216,0.296102
0.363641,-0.469621,0.538265,-0.510382,-0.685723,-0.518935
0.137394,-0.232195,0.937382,0.443216,0.527183,0.725009
-0.358950,-0.411146,0.743399,0.870802,-0.491628,0.002288
0.358950,0.458942,0.888220,-0.293699,-0.950666,-0.099878
0.449323,0.382061,0.832976,0.950689,-0.099859,0.293630
0.349114,0.240953,0.903115,0.220784,-0.959028,0.177536
0.654702,-0.154640,0.831750,0.824252,0.532037,0.193768
-0.101724,0.560237,0.553552,0.963242,-0.266461,-0.034098
-0.099794,0.559772,0.908248,0.369627,-0.300042,-0.879404
0.165433,0.115551,-0.446808,0.973672,-0.205631,0.098375
-0.084627,0.302592,0.654050,0.808759,0.588024,0.011730
0.243854,0.133437,-0.945737,0.481503,-0.823909,0.298878
0.361896,0.002175,0.876285,0.595746,0.438686,0.672787
-0.611676,0.826852,0.792152,0.686039,-0.017207,0.727361
-0.537121,0.628043,0.669566,0.741235,-0.317320,-0.591506
0.119467,0.154899,0.271054,-0.423709,-0.873629,0.239254
-0.470561,0.401970,0.838535,0.795018,-0.054438,0.604138
-0.069915,0.476930,0.895725,-0.328746,-0.100231,-0.939085
0.235393,0.507982,0.906155,0.808183,0.437212,-0.394570
-0.107055,0.468064,0.934391,0.840955,-0.454515,0.293617
0.239074,0.106530,-0.039614,0.547447,0.821717,-0.158376
-0.023859,0.212337,0.851484,0.933742,-0.351446,0.067909
0.193472,0.552928,0.292586,0.989306,0.114140,0.090806
-0.282279,0.692534,0.416447,-0.529455,0.825265,-0.196508
-0.113031,0.269464,0.598414,0.683821,0.646935,-0.337437
0.001700,0.072576,0.818458,0.419054,-0.231280,0.878011
0.070190,-0.435927,0.707938,0.805835,-0.529486,-0.265093
-0.001150,0.657748,0.675615,0.816073,-0.552325,0.170183
-0.121122,-0.551270,0.749644,0.400394,-0.889116,-0.221716
0.170764,0.000413,0.802403,-0.497595,0.490392,0.715482
-0.681910,0.219750,0.227434,-0.615154,0.778925,0.121909
-0.478097,-0.279991,0.262814,-0.146187,0.165519,0.975312
0.193472,-0.294714,0.928701,-0.736660,0.267259,-0.621213
0.553757,0.621048,0.419210,-0.461726,-0.331335,0.822816
0.244309,0.568948,0.909965,0.030167,-0.528740,0.848247
0.219766,0.135820,-0.144364,0.151869,0.939893,0.305837
0.016132,0.193001,0.792757,-0.360395,-0.884750,0.295522
-0.450703,-0.173925,0.680912,0.995370,-0.047279,-0.083686
-0.191082,0.675530,0.667604,-0.123030,0.062615,0.990426
0.316019,0.055832,0.451353,0.002874,0.982347,0.187044
-0.301312,-0.336030,0.855800,0.792648,-0.356033,-0.494924
-0.519558,0.011611,0.773302,0.500363,0.844678,-0.190147
0.274003,-0.065735,0.669010,-0.425126,-0.903181,0.059425
-0.128753,0.589682,0.871462,0.518693,0.816494,-0.253564
-0.414573,0.432658,0.195994,0.255045,0.212488,0.943293
0.005011,0.191704,0.503850,0.997915,0.060710,0.021913
0.110826,0.456192,0.029543,-0.424609,0.843935,-0.327844
0.080761,0.717365,0.624818,0.751106,0.552943,0.360686
-0.028179,0.562727,0.140881,0.145079,-0.870720,0.469893
0.196322,-0.105704,0.897114,-0.628847,-0.181858,0.755962
0.492899,-0.187195,0.824785,0.905176,-0.384654,-0.180823
-0.205059,0.598079,0.911583,-0.258605,-0.244227,0.934600
-0.088207,0.237532,0.953536,-0.551370,0.202341,0.809351
-0.121032,0.514617,0.905894,0.895263,0.209910,0.392992
0.216640,0.736495,0.392986,0.028421,0.775926,0.630183
0.399401,0.474234,0.866819,-0.479245,0.876421,-0.047023
0.392050,0.437635,0.821826,0.665569,0.652241,-0.362768
-0.038105,0.199481,0.484689,0.973273,-0.129997,0.189318
-0.089127,0.379574,0.938216,-0.660496,-0.512106,0.549083
-0.046286,-0.118351,0.707823,0.210966,-0.881173,-0.423116
0.093818,-0.254381,0.957934,0.604801,0.533757,0.591033
0.191082,-0.214517,0.874046,0.836366,-0.352787,-0.419562
-0.493909,0.020426,0.782997,-0.489282,-0.793457,0.361981
-0.693222,0.152618,0.022202,-0.251833,0.964970,-0.073571
-0.070560,-0.051842,0.810202,0.506477,0.210783,0.836093
-0.203954,-0.107932,0.484591,0.082151,0.718178,0.690994
-0.448773,-0.309591,0.862029,-0.345870,0.787962,0.509402
0.060724,-0.157491,0.324892,-0.826492,0.517068,-0.222605
-0.549162,0.013322,0.721409,-0.127906,0.667168,0.733844
0.684301,0.246759,0.948811,-0.152201,0.655142,0.740016
-0.477822,0.706427,0.818050,-0.214165,0.751801,-0.623641
0.251205,0.080195,0.418622,-0.428898,0.862697,0.267957
0.150631,0.084343,0.172157,0.977539,0.206597,-0.041647
0.234473,0.276932,0.940750,0.159975,-0.356151,0.920633
-0.127187,0.745307,0.403924,0.915813,-0.323949,-0.237368
0.280994,0.370190,0.245712,0.985320,0.159706,-0.060327
0.150631,0.134886,0.642737,0.903951,-0.426747,-0.027573
-0.161848,0.290097,0.931807,0.865698,-0.371276,0.335739
-0.002250,0.300415,-0.013733,0.740703,0.660178,-0.124596
-0.283385,0.400726,0.872558,-0.541705,0.760512,0.358017
0.218846,0.055936,-0.464645,0.999203,0.018794,0.035220
-0.399221,0.374752,0.733917,0.731326,0.656178,0.185993
0.676765,0.107102,0.699665,-0.368594,-0.794843,0.482041
-0.191452,0.290926,0.960043,0.979923,0.198230,0.021357
0.759041,-0.492016,0.507660,-0.355914,0.931927,-0.069555
-0.279704,0.263244,0.708837,0.620703,0.345558,0.703788
0.307838,0.375895,0.937612,0.553375,-0.820818,0.141540
0.689267,0.051579,-0.969901,0.505977,-0.029515,-0.862042
0.136749,-0.334787,0.954157,0.562813,0.388210,0.729750
0.110730,0.119490,0.569296,0.831793,0.552925,0.048933
0.194942,0.085641,-0.259380,0.996857,0.040288,0.068208
-0.177014,0.072057,0.491000,-0.046437,0.996785,0.065287
0.051712,0.621304,0.855882,0.784911,0.030555,0.618855
0.198713,0.131415,-0.080880,0.244454,0.956570,-0.158798
-0.544196,-0.321773,0.861081,0.252948,0.809646,0.529614
-0.048312,0.596111,0.625276,-0.307603,0.912146,0.270867
-0.172234,-0.362988,0.754598,-0.144154,-0.625506,0.766786
-0.019353,0.164176,0.935241,-0.095377,0.907969,0.408039
-0.454289,0.276568,0.580708,-0.620429,0.386826,-0.682227
-0.450243,-0.510108,0.666018,-0.115553,0.136106,-0.983932
0.004915,0.529235,0.608845,0.973734,0.192394,-0.121765
-0.459524,0.440435,0.873261,-0.646063,-0.664535,0.375493
-0.344703,0.503575,0.766255,0.403084,0.533111,0.743852
0.802802,0.040382,0.537693,0.988236,-0.017919,-0.151883
0.065594,0.123638,0.574283,0.979687,0.177160,-0.093959
0.188602,0.130327,-0.421990,-0.515854,0.854656,0.058797
-0.403542,-0.507726,0.581542,-0.604551,0.731515,-0.315285
0.169939,0.075633,0.095234,0.933224,-0.173133,-0.314831
0.197147,0.497563,0.282694,0.844203,-0.022822,0.535538
0.087842,0.861793,0.374610,-0.733569,0.569244,0.371265
0.147141,-0.035098,0.256928,-0.549293,-0.649916,-0.525249
0.005286,0.476826,0.945786,-0.501606,0.839694,-0.208099
-0.296622,0.572368,0.703343,0.902879,-0.370199,0.218546
-0.095378,0.480819,0.810464,-0.691717,-0.686426,0.224382
0.552652,0.086261,-0.989782,0.237596,-0.263587,-0.934917
-0.090418,0.818091,0.312891,0.656419,0.719133,-0.227951
0.112021,-0.258475,0.946064,0.808831,0.308969,0.500331
0.473777,-0.730743,0.354549,-0.394503,0.659393,0.639975
-0.168744,-0.084707,0.731513,0.697329,-0.193436,-0.690156
0.189062,0.128875,0.185400,0.832042,-0.449242,-0.325403
-0.122777,0.693676,0.846563,0.910533,0.285432,-0.299096
-0.066054,0.257801,0.653200,0.689957,0.720715,0.067293
-0.365571,-0.434525,0.656470,-0.761207,0.244720,-0.600564
0.264447,-0.289113,0.714297,-0.730209,0.288383,0.619378
0.083247,0.110368,0.526330,0.781640,0.613911,-0.110237
-0.293406,-0.534165,0.608829,-0.355740,0.312583,0.880762
0.368147,0.334420,0.751018,-0.846565,0.354847,0.396750
-0.612321,-0.280975,0.255587,-0.176173,0.161248,0.971062
0.370442,-0.028823,0.892210,0.428546,-0.524505,0.735692
0.026524,-0.170296,0.826110,0.517643,-0.808236,-0.280715
0.116252,0.814047,0.394883,0.976352,-0.062201,-0.207045
-0.005561,0.523689,0.607929,0.954732,0.290638,0.063383
0.160742,0.403422,0.842524,-0.323549,-0.945264,-0.042323
-0.080122,0.375790,0.840170,-0.616528,0.293643,-0.730526
0.248355,0.086520,0.436818,0.225451,0.973316,0.042744
-0.155507,-0.529083,0.783961,-0.567001,0.746015,-0.349244
0.436541,-0.059825,0.623739,0.982777,-0.100832,0.154865
-0.118182,0.523328,0.534963,0.979954,-0.067167,0.187561
0.115881,0.222031,0.883365,0.699856,0.669865,-0.247954
-0.681731,0.091912,0.647380,0.967064,-0.088008,0.238835
-0.177570,-0.093937,-0.569803,0.979088,-0.180327,-0.094171
-0.340197,-0.586107,0.802452,-0.265134,0.026751,-0.963841
0.026984,0.145619,0.504439,0.912153,0.366845,-0.182758
-0.731833,0.080404,0.811967,-0.736316,0.414262,-0.535001
0.001240,-0.119544,0.708591,-0.348820,-0.830189,-0.434869
-0.377983,0.566511,0.889659,0.911403,0.391933,0.125431
0.086462,0.108346,0.367024,0.135376,-0.939287,-0.315298
-0.325856,-0.645515,0.494204,-0.594164,0.788866,0.157036
0.395355,-0.274754,-0.972141,-0.066658,0.232536,0.970301
0.680075,-0.102799,0.514722,0.868445,-0.495785,-0.000135
0.148056,-0.185123,0.911404,0.857063,0.075782,0.509608
0.246239,0.057490,0.464939,0.013852,0.965426,0.260307
-0.401791,0.199896,0.743056,0.122076,0.643980,0.755240
-0.511191,-0.694505,0.726935,0.803790,0.024396,0.594413
0.010712,0.139449,0.383324,-0.439568,-0.891004,0.113541
0.183451,0.146084,0.233859,0.960808,-0.192963,-0.199031
0.251940,0.037480,-0.966664,-0.115803,-0.635766,0.763146
-0.068355,-0.223848,0.347192,0.583816,0.632466,0.509064
-0.192372,0.266094,0.630622,0.626320,0.769281,-0.126213
0.206529,-0.248316,0.105273,-0.705624,-0.048679,-0.706912
-0.247805,0.680197,0.720952,0.954483,-0.265453,0.136006
-0.125072,0.559873,0.612458,0.767089,0.465943,0.440990
-0.391865,-0.886365,0.403139,-0.544389,-0.070194,-0.835891
-0.210115,0.578538,0.506646,-0.625962,-0.356224,0.693740
0.210115,0.145670,-0.159568,-0.057988,0.991377,0.117515
-0.321075,-0.491187,0.714935,-0.617443,0.443656,-0.649564
-0.500530,0.424261,0.766435,0.920995,0.110253,0.373646
0.111286,-0.222240,0.939491,-0.555512,-0.723352,-0.410083
-0.518637,0.293881,0.800523,0.200819,-0.710901,0.674011
-0.497405,-0.320115,0.693812,0.983538,0.005947,0.180606
-0.221971,0.602851,0.892684,-0.215515,-0.813469,-0.540205
0.069090,0.087662,0.387558,-0.708426,-0.260654,-0.655890
-0.151001,0.561689,0.906564,0.903018,0.400991,0.154156
0.106135,-0.416537,0.474896,-0.596785,-0.599296,-0.533565
-0.571595,0.200361,0.794049,0.579244,0.522794,0.625431
-0.411263,0.097718,0.770980,0.842289,0.266798,0.468367
-0.121767,0.388282,0.955923,0.898580,-0.235667,0.370155
0.101079,0.053810,0.613079,0.940883,-0.298516,-0.160084
0.189337,0.056351,-0.417150,0.992237,-0.123596,-0.013795
0.059248,-0.442353,0.690755,0.703916,-0.645806,-0.295697
-0.044541,-0.230742,0.750151,0.260306,0.509841,0.819941
0.349944,0.182063,0.819635,0.724443,0.510490,-0.463231
-0.246149,0.553447,0.497016,-0.530011,-0.810596,0.249041
0.422569,-0.058528,0.819799,0.649722,0.742480,0.163048
-0.050977,0.554640,0.894417,-0.398943,-0.023007,0.916687
0.498415,0.270452,0.786724,0.191555,0.967669,-0.164085
0.504206,0.033332,0.879016,-0.480357,-0.826728,-0.292879
-0.645690,0.287557,0.804905,0.708020,0.075983,0.702093
-0.111100,0.366820,0.934897,-0.218009,-0.051390,0.974593
-0.172234,-0.096164,-0.576408,0.965120,-0.261491,-0.012855
-0.442702,0.669933,0.929093,-0.542910,0.683764,-0.487560
0.458239,-0.042976,0.855784,0.933926,0.357328,0.009963
-0.127373,0.589062,0.856421,0.520205,0.834498,-0.181662
-0.419354,-0.866251,0.391973,-0.544389,-0.070194,-0.835891
-0.346173,0.577864,0.752702,0.682522,0.584821,0.438347
0.692302,0.049402,-0.983994,0.308211,-0.071839,-0.948602
0.611491,-0.160186,0.844029,0.606921,0.778341,0.160723
0.590623,-0.018455,-0.985760,0.085078,-0.177582,-0.980422
0.197243,0.193207,0.165094,0.969205,-0.199292,-0.144652
0.026064,-0.066254,0.779972,0.933166,-0.116149,-0.340164
-0.007311,0.044894,0.402191,0.909401,0.279446,0.308058
-0.557803,0.310211,0.269713,-0.622569,0.756664,0.199669
-0.891980,0.221513,0.820175,-0.140452,-0.419504,0.896822
-0.233002,0.345931,0.819717,0.032020,-0.932570,0.359567
-0.421009,0.394246,0.183438,0.225029,0.236853,0.945126
0.016503,0.414930,0.585253,0.940730,0.335303,-0.050973
-0.214895,0.475013,0.514837,0.408419,0.766387,-0.495828
-0.216915,0.369206,0.889904,0.583327,0.668099,-0.461923
-0.522593,0.171175,0.784125,0.711854,0.209452,0.670369
0.078096,0.183980,0.798120,0.227590,0.969487,-0.091096
-0.196322,0.571539,0.910406,0.739181,0.486774,-0.465470
-0.330176,-0.500053,0.795880,0.006698,0.355687,0.934581
-0.145665,0.230014,0.451059,-0.702039,-0.697586,0.143226
0.151736,0.869257,0.444454,0.787295,0.613040,0.065946
0.147231,0.111820,-0.072362,0.940646,-0.303588,-0.151724
-0.089038,0.684706,0.642099,0.125783,-0.219873,0.967385
-0.717216,0.067963,0.620388,0.893519,-0.350204,0.281037
0.368147,0.664642,0.413177,0.477603,0.154775,-0.864836
-0.739278,-0.055262,0.680716,-0.388245,-0.794087,0.467645
-0.678325,0.110937,0.647838,0.777132,-0.455293,0.434480
-0.390120,-0.189736,0.195079,0.254815,0.407562,0.876905
0.342498,-0.335771,-0.966092,-0.057910,0.191025,0.979875
0.381109,0.489890,0.811951,0.298746,0.861824,-0.409890
0.455389,0.277292,0.917763,-0.313618,-0.702231,0.639152
-0.342498,-0.250806,0.844584,0.739741,0.655985,-0.149891
0.152012,0.096579,0.251598,0.958224,-0.011192,0.285798
-0.038016,0.303108,0.905011,0.217645,0.735035,-0.642148
-0.168098,0.578484,0.265495,0.179150,-0.731494,0.657892
0.221511,-0.152048,0.902199,0.264065,0.274058,0.924750
-0.021833,0.296213,-0.498896,0.874459,-0.368100,0.315950
0.599449,-0.042198,0.816529,0.891398,0.435117,-0.126820
-0.722917,0.483306,0.703425,-0.188660,-0.468678,0.862988
-0.100619,0.868687,0.646219,0.145830,0.631813,0.761279
0.460355,0.452307,0.837129,0.384837,0.615564,-0.687736
0.232728,0.027526,0.899796,-0.031131,-0.994599,0.099018
-0.346819,-0.100622,0.729061,0.016077,-0.999465,0.028467
-0.632639,0.468583,0.621025,0.994191,0.085031,0.065986
-0.599539,-0.442925,0.854901,0.786600,-0.555128,0.270357
0.291106,0.247847,0.922586,-0.653897,0.716706,-0.242387
0.117997,0.414566,0.032862,-0.482537,0.769690,-0.418014
-0.034155,-0.284554,0.386937,-0.300835,0.810933,0.501882
-0.107055,0.117522,-0.550969,0.388619,0.526636,0.756062
-0.162857,0.064489,0.582016,-0.319452,0.919438,0.229312
0.384419,-0.253967,0.743334,-0.406405,0.429258,0.806580
-0.067064,0.801555,0.388801,-0.624380,0.753977,-0.204128
-0.513307,0.377707,0.645451,0.959138,0.276907,0.058109
0.251850,-0.076050,0.712417,0.433352,-0.887604,0.156092
0.198253,0.128147,-0.072051,0.559563,0.810134,0.174849
0.175455,0.641836,0.324434,0.863422,0.493121,-0.106464
-0.500345,0.531776,0.717698,-0.636650,0.744756,0.200038
0.143830,0.870915,0.420878,0.741854,0.665849,-0.079357
0.056033,0.579263,0.883708,0.091007,0.879080,0.467907
0.221786,0.421356,0.784615,-0.581040,-0.763997,0.280537
-0.410252,-0.209799,0.197057,0.278785,0.563948,0.777330
0.033510,0.271125,0.880291,0.229971,0.853648,-0.467331
0.604780,0.351942,0.852677,0.409679,0.201215,-0.889761
0.752055,0.065318,0.702591,-0.407700,-0.864824,0.293020
0.424135,0.369256,0.782196,0.129956,-0.941159,0.311980
-0.692392,0.110627,0.809662,0.786648,-0.336499,0.517642
-0.518362,-0.655780,0.278460,0.361727,0.327987,0.872685
-0.176375,0.096838,0.831063,-0.209657,0.235094,0.949091
-0.454008,0.687661,0.811673,-0.254247,0.484750,-0.836885
0.448768,-0.025817,0.632159,0.767338,-0.446709,0.460048
0.396921,-0.055731,0.899469,0.529524,0.488850,-0.693274
0.268397,0.267443,0.872165,-0.674931,0.660237,0.329477
0.131323,0.108191,0.142206,0.947314,-0.305252,0.097042
-0.066054,-0.488545,0.758309,0.967048,-0.254591,-0.000910
-0.508986,0.363659,0.515344,0.820616,-0.561827,0.104589
-0.069640,-0.478850,0.772550,0.853920,-0.422220,0.304221
-0.291656,0.384811,0.783700,0.836420,-0.243615,0.490971
-0.126823,-0.238830,0.789422,-0.615025,-0.779595,0.118224
0.263252,0.062157,0.491784,-0.888801,0.225823,0.398794
0.289361,0.733954,0.400850,0.832618,-0.128944,-0.538628
0.343873,0.024001,0.505959,0.919840,-0.390467,-0.037819
-0.497219,0.665629,0.797351,0.426316,0.643385,-0.635855
-0.203033,0.418714,0.899779,0.937677,-0.206143,-0.279763
-0.053368,0.758476,0.256438,-0.226304,0.929786,-0.290317
-0.052632,0.696786,0.875043,0.811960,0.580442,-0.061714
-0.514872,0.127267,0.700286,0.801172,-0.551013,-0.233470
-0.224732,-0.295647,0.812900,0.125150,-0.509432,0.851362
0.113216,0.133488,0.711534,0.666379,0.621499,-0.411919
0.366677,-0.130121,0.677250,-0.654110,-0.336971,-0.677193
-0.173429,0.385070,0.897376,-0.126811,-0.549446,0.825850
-0.108895,0.759824,0.385972,-0.533642,0.807410,0.251626
-0.374858,0.255365,0.788000,-0.035780,-0.345429,0.937762
0.085817,0.042767,0.625178,0.948167,-0.314173,-0.047703
0.531324,-0.577918,0.526821,-0.285105,-0.722793,-0.629512
-0.299932,-0.641212,0.488874,-0.573118,0.784824,0.235769
-0.247900,-0.180819,0.772680,-0.389123,-0.750265,-0.534495
-0.589152,-0.515709,0.326151,0.943503,-0.254914,-0.211710
0.185566,0.056091,-0.970702,0.036665,-0.082833,0.995889
0.123602,0.107982,0.263141,0.952395,-0.175916,0.248991
0.056678,-0.317729,0.646236,0.932014,-0.360275,-0.039391
-0.546126,0.072472,0.788081,0.694924,0.338779,0.634279
0.268768,0.389370,0.933262,0.818155,0.395449,0.417424
-0.645690,-0.461793,0.496460,-0.806629,-0.007959,-0.591005
-0.041141,0.727680,0.674879,-0.445718,0.262166,0.855923
-0.261686,0.573976,0.871250,0.840318,-0.218650,0.496042
0.262882,0.507776,0.913169,0.646210,0.341432,-0.682523
-0.079566,0.568634,0.695496,0.793946,0.518152,0.318070
-0.203033,0.425764,0.857598,0.738461,0.058356,0.671766
-0.563229,0.473250,0.853298,0.397398,-0.048841,0.916346
0.349574,0.022758,0.793493,0.228759,0.971398,0.063679
0.029554,0.794037,0.425701,-0.288907,-0.136200,-0.947619
0.300572,-0.036964,0.899191,0.875046,-0.458703,0.154551
0.281174,0.027836,-0.836001,0.997106,-0.060804,0.045630
-0.386714,0.360704,0.557410,0.822136,-0.173253,-0.542288
-0.132888,0.348627,0.783716,0.989803,-0.137214,0.038235
-0.306273,0.450026,0.886488,-0.593558,0.354664,-0.722428
0.165433,0.082113,0.072378,0.951997,-0.276925,-0.130440
-0.553022,0.366924,0.855587,-0.628248,0.741120,-0.236738
-0.109630,0.061223,0.817101,-0.111561,-0.271580,0.955928
0.074421,0.190669,0.437489,0.946085,-0.321018,-0.043251
0.613236,0.006013,-0.986169,-0.154575,0.118141,0.980892
-0.224636,0.643285,0.887011,0.137112,0.723059,0.677042
0.497310,-0.540022,0.515998,-0.417646,-0.549535,-0.723590
0.009146,0.123483,0.346718,-0.924481,0.187235,-0.332081
0.154306,0.091861,0.195487,0.985516,0.149220,0.080569
-0.648081,-0.165992,0.728521,-0.283449,0.944696,-0.164942
-0.615996,-0.035667,0.701431,-0.683582,0.680134,0.264827
0.291931,-0.097462,0.664236,0.430595,0.852008,0.297776
-0.121212,0.702902,0.652334,0.840958,0.045059,0.539222
0.146771,-0.079005,0.888825,0.747293,0.605264,0.274242
0.014937,0.660703,0.211690,-0.491830,0.829715,-0.263961
-0.851714,0.143338,0.639794,0.233029,0.215081,0.948387
0.185106,0.129080,0.087288,0.985535,-0.168402,0.019017
0.434246,0.304975,0.954189,0.000116,-0.798716,0.601709
0.869177,0.015654,-0.978059,-0.217989,0.024741,0.975638
-0.395265,-0.280611,0.875403,-0.081968,0.398638,0.913438
0.051623,-0.111614,0.818540,-0.706013,0.689665,0.160958
-0.453644,0.113114,0.787624,0.930440,-0.101262,0.352175
0.126363,0.128251,0.652056,0.814408,-0.576331,0.067696
-0.592003,0.724311,0.810415,0.126528,0.425107,0.896256
-0.149896,0.326177,0.692962,0.945686,0.324951,0.009190
0.021188,0.466925,0.925660,-0.612989,-0.609071,0.503267
0.515972,-0.257855,0.870808,0.786606,-0.374657,-0.490798
0.001240,0.669619,0.884967,0.046265,-0.620644,0.782726
-0.286785,-0.087558,0.791776,0.182456,-0.045011,0.982183
-0.374398,-0.418299,0.666917,-0.653635,0.026734,-0.756337
0.276949,0.213944,0.888972,-0.661240,0.748189,0.054542
0.184741,0.067548,-0.479604,0.989827,0.001790,0.142266
0.663708,-0.252983,0.457239,0.174688,0.346482,-0.921648
0.193197,0.174026,-0.213930,0.980682,-0.143486,-0.132948
0.023028,0.535975,0.122783,0.451767,-0.721855,0.524244
-0.119007,0.415863,0.932788,0.925124,-0.039609,0.377593
-0.113491,0.493725,0.955465,-0.868216,0.203524,0.452525
-0.198713,0.173251,0.988703,0.989023,0.057483,0.136125
0.187311,0.067808,-0.782228,0.916134,0.400864,-0.002497
0.278509,0.251631,0.880569,-0.480304,-0.822559,-0.304475
-0.755551,0.254951,0.836818,0.933090,0.100476,0.345323
-0.049872,0.255729,0.917322,-0.351569,0.238383,-0.905303
-0.284855,-0.512184,0.655734,0.419560,0.043140,0.906702
-0.615261,0.710781,0.804741,-0.603333,-0.791901,-0.094239
-0.117351,0.321928,0.888711,0.661827,-0.336171,0.670056
0.055573,0.200000,0.610774,0.832867,0.542334,-0.110483
0.272629,-0.057648,0.682841,-0.087124,-0.968608,0.232828
-0.052632,-0.117107,0.814175,0.280579,-0.918243,-0.279475
-0.008136,-0.101866,0.806196,0.244939,0.396837,0.884605
-0.480117,0.223999,0.050862,0.246150,0.950632,-0.188967
-0.467986,-0.438622,0.444306,-0.471106,0.558559,-0.682694
-0.179865,-0.242614,0.795995,-0.432276,-0.330535,-0.838978
0.009056,0.684396,0.585155,-0.417103,0.517852,0.746896
0.065224,0.199377,0.440121,0.946085,-0.321018,-0.043251
0.186211,0.118816,-0.534358,-0.458628,0.859279,0.226494
0.410067,0.188179,-0.640579,-0.647847,0.257101,0.717073
0.607815,0.139503,0.738167,-0.240857,-0.935315,0.259181
-0.579591,0.364178,0.845696,-0.739021,0.663410,0.117197
0.296437,0.272888,-0.171307,0.908061,-0.260427,-0.328030
-0.109445,-0.365266,0.640399,0.003350,-0.760392,0.649456
-0.020363,-0.098291,0.726445,0.773881,-0.422958,0.471397
0.012917,0.175428,0.933704,-0.288158,0.895566,0.339008
-0.069729,0.595852,0.894155,0.759017,0.467727,0.452907
-0.468906,0.569464,0.912842,0.377765,0.877584,-0.295193
-0.436086,-0.122135,0.696607,0.833744,-0.321443,0.448937
-0.489678,0.144220,0.780070,-0.559516,-0.580482,0.591594
-0.135649,0.241937,0.861980,0.776036,0.402442,-0.485602
0.369247,-0.176102,0.894874,0.426075,-0.506530,-0.749591
-0.815124,0.152099,0.505174,-0.455213,0.365785,-0.811777
-0.274188,0.645256,0.709262,0.560056,-0.751865,0.347902
0.234293,-0.073510,0.844584,-0.237192,0.870199,0.431849
0.145665,0.099689,0.172026,0.863899,-0.338183,0.373244
0.604415,-0.100259,0.502510,0.970067,-0.233093,-0.068103
0.217005,-0.492070,0.496477,-0.260109,0.735766,0.625293
0.171039,0.042302,-0.446628,0.936146,0.349522,-0.038287
0.152012,0.244167,0.678509,0.985111,-0.031494,-0.169008
0.463665,0.437376,0.834677,0.718873,0.164750,-0.675337
-0.311149,0.389010,0.862176,0.912879,-0.305921,0.270305
-0.308023,0.567132,0.727115,0.802575,0.587768,0.101988
-0.764837,0.485641,0.858677,0.930178,0.361116,-0.066061
-0.226752,0.332452,0.820943,-0.070427,0.997156,0.026826
-0.706459,0.211508,0.834628,0.944068,0.104029,0.312911
0.212505,0.113168,0.146391,0.937190,-0.193201,0.290428
-0.396371,-0.127321,0.795193,0.440829,-0.524613,0.728321
-0.125903,-0.489219,0.660574,-0.459209,0.883754,0.090030
-0.082512,0.782216,0.622480,0.962952,0.071482,0.260027
0.103380,0.426023,0.868765,-0.714600,0.698693,-0.034274
0.297082,0.267082,0.822170,-0.756258,0.332020,0.563770
-0.008596,0.546758,0.617085,0.997535,0.053700,0.045161
0.007766,-0.448472,0.612752,-0.748276,0.231082,0.621840
-0.168373,0.243857,0.451598,0.936149,0.219247,0.274874
-0.131879,0.309952,0.946227,-0.141832,-0.988648,-0.049594
0.157892,0.100208,0.265119,0.940828,-0.274147,0.199215
0.528474,0.323741,0.854394,0.438200,0.799658,0.410522
-0.656722,0.101192,0.804512,-0.607097,0.126233,-0.784537
0.197428,0.497354,0.886896,0.382726,0.714395,-0.585799
-0.472671,-0.593261,0.590191,-0.641312,0.666831,-0.379546
-0.709399,0.208448,0.224981,-0.615154,0.778925,0.121909
-0.556883,0.349351,0.589864,0.119044,-0.049651,0.991647
0.008686,0.252824,-0.037227,0.622927,0.695671,-0.357778
-0.053457,0.232191,0.562658,0.970445,-0.009214,0.241145
-0.809423,0.197978,0.343121,0.904104,-0.424312,-0.050548
-0.230887,-0.064802,0.734113,0.215453,-0.913298,0.345638
-0.696623,0.481182,0.628693,-0.292495,-0.950593,0.104016
-0.614986,0.662364,0.817183,-0.441316,-0.275250,-0.854095
0.604505,0.053032,-0.985743,0.207835,-0.142469,-0.967733
0.148151,0.106270,-0.090378,0.914980,0.378518,-0.139770
-0.200918,0.330275,0.761498,0.311229,0.946025,0.090403
-0.650196,0.106843,0.618197,-0.453943,0.873917,-0.173797
0.260862,-0.110782,0.651680,-0.701981,-0.609511,-0.368401
-0.326405,0.563866,0.733491,-0.532212,-0.790262,-0.303705
-0.330272,0.292069,0.488319,0.630753,-0.288066,0.720533
-0.550542,-0.360707,0.680046,0.987246,-0.148844,-0.056494
-0.011907,0.682269,0.584125,0.550179,-0.472410,-0.688573
0.514872,0.020736,-0.634693,-0.729786,0.455373,0.509949
-0.044816,0.586053,0.871838,0.187533,-0.011725,0.982188
0.657457,-0.530637,0.506450,0.136985,0.690117,0.710615
-0.202298,0.349142,0.815499,-0.079672,0.972759,-0.217695
-0.140705,0.239655,0.446007,0.042588,-0.792717,0.608101
-0.123142,0.319387,0.803156,0.919159,-0.006569,0.393832
0.170489,0.221307,0.667490,0.924350,-0.082337,-0.372555
0.611676,0.112336,-0.989520,0.250451,-0.288432,-0.924165
-0.488483,-0.430275,0.759977,-0.141122,0.980949,-0.133502
0.324386,0.242664,0.886389,-0.654436,0.669995,0.350458
-0.271798,0.546033,0.738821,0.811314,0.483223,0.329036
-0.143000,-0.127840,0.493910,0.372910,0.600154,0.707639
0.220226,0.068169,0.187607,0.949528,-0.076337,-0.304253
-0.237323,0.641418,0.850846,0.964833,0.027631,-0.261406
-0.451618,-0.087871,0.180724,0.247917,-0.243912,-0.937573
0.373938,0.246604,0.916423,0.847616,0.381772,0.368506
-0.106780,-0.328772,0.401929,0.303962,0.702227,0.643804
-0.125257,0.733126,0.838731,-0.662378,-0.372133,0.650210
-0.424499,-0.470918,0.437391,-0.482753,0.523031,-0.702416
-0.066054,0.728044,0.235004,0.413886,0.816191,-0.403150
-0.107790,0.012493,0.814485,-0.760265,-0.097908,-0.642192
0.113951,0.869931,0.387934,-0.704213,0.382254,0.598303
-0.521213,-0.651166,0.598463,0.855119,-0.406559,0.321686
-0.024683,0.565265,0.623788,0.687462,-0.225713,-0.690254
0.152376,0.144012,0.707545,0.633876,0.685864,-0.357478
-0.617006,-0.386573,0.603352,-0.626714,0.779146,-0.012665
0.172419,0.145619,0.155416,0.942947,-0.324723,0.073526
0.425420,0.266509,0.882694,-0.046644,0.948283,0.313979
0.762997,-0.496889,0.503180,-0.119220,0.691844,0.712137
-0.183271,0.434525,0.899436,-0.530763,0.135306,-0.836650
0.515327,-0.111975,0.932282,0.894647,0.406163,0.186111
0.381198,-0.333853,0.757950,-0.506456,0.240662,0.828000
0.134819,0.594555,0.740979,0.869098,0.481869,0.111677
-0.260766,0.331828,0.478967,-0.276206,-0.951923,0.132486
-0.606985,0.043027,0.816235,-0.271229,0.611581,0.743239
0.284945,0.649195,0.240840,0.564002,0.822022,0.078621
0.511287,0.324934,0.549285,-0.076900,0.167796,0.982818
0.512202,-0.135769,0.627777,-0.348878,-0.935175,-0.061083
-0.141440,0.706168,0.589079,0.790756,0.291253,-0.538401
0.666558,0.084135,0.521246,0.670109,0.640576,-0.374989
-0.311328,0.469206,0.854476,0.802695,0.472173,-0.364325
-0.250840,-0.230897,0.535486,0.145178,0.749692,0.645667
-0.342588,0.669104,0.831995,-0.568783,-0.418626,0.707982
0.172694,0.064853,-0.748909,0.929906,0.363622,-0.055261
0.192002,0.045153,-0.677038,0.993922,0.074318,0.081214
-0.398941,0.380093,0.551050,0.759987,0.643028,-0.094529
0.671064,0.028823,0.420911,0.003587,0.776737,0.629814
0.456309,0.023068,0.706123,0.622197,-0.275905,0.732630
0.150631,0.099221,0.048721,0.955008,0.218570,0.200465
-0.547321,-0.562727,0.816807,0.634655,0.355748,0.686044
-0.547781,0.025608,0.767285,0.804354,0.558401,0.202987
0.178670,0.145825,-0.138216,0.901591,0.305635,0.306138
-0.458054,0.144894,0.786218,0.861985,0.496107,-0.104210
0.024223,0.796733,0.339050,0.799957,0.515100,-0.307800
-0.490598,0.017831,0.694580,0.842941,-0.082203,-0.531689
-0.029834,0.569464,0.873801,-0.566621,0.156594,0.808962
0.144470,0.008709,0.798594,-0.177097,-0.382457,0.906842
-0.406757,0.393987,0.542696,-0.663752,-0.746008,-0.053901
-0.443257,0.285848,0.791286,0.293325,-0.496022,0.817266
-0.207169,0.703162,0.833794,-0.458274,0.546776,-0.700728
0.052722,0.774493,0.402861,0.265432,0.775035,0.573469
-0.854380,0.097148,0.531579,0.990945,-0.109824,-0.077242
0.288990,0.671540,0.406883,0.208689,-0.538682,-0.816254
0.268212,0.298495,0.224213,-0.797305,-0.359902,0.484537
-0.020913,0.140123,-0.514608,-0.291549,-0.814667,0.501315
-0.728157,0.694400,0.817575,-0.074270,0.647644,0.758314
-0.027994,-0.869105,0.547143,0.463581,0.555589,0.690228
0.259667,-0.270088,0.721278,0.733090,-0.190120,-0.653018
-0.317400,0.327785,0.907136,0.653794,-0.345085,0.673402
-0.089773,-0.534371,0.752276,-0.558690,0.786871,0.262105
0.042151,0.123689,0.353290,-0.208503,0.938041,0.276778
0.217101,0.103783,0.346260,0.947458,-0.137321,-0.288906
0.175455,0.096110,0.830704,0.666181,-0.442536,0.600304
0.209099,0.056661,0.791695,0.744409,-0.636595,-0.201498
0.149436,0.316951,0.955105,-0.705402,0.550275,0.446771
0.762812,0.026748,0.517813,0.922756,0.354343,-0.151530
0.416779,0.294970,0.939165,0.731869,-0.590552,-0.340023
0.518823,-0.103787,0.909425,0.880077,0.417234,0.226671
0.498140,0.249350,0.924548,-0.620409,0.747902,0.236083
-0.575916,-0.482739,0.262650,-0.806447,-0.205523,0.554440
0.243944,0.161170,0.738919,0.720676,-0.692148,-0.039468
0.012827,0.490150,0.961056,-0.034698,-0.810243,0.585066
-0.197793,-0.317419,0.409107,-0.490809,-0.529548,-0.691871
0.520663,0.288800,0.974888,0.150814,0.979801,-0.131324
-0.433786,0.519904,0.947078,0.580876,0.764013,-0.280833
-0.653686,0.493934,0.834873,-0.464808,-0.510541,0.723396
-0.506136,0.717830,0.817804,0.268479,0.530309,-0.804171
0.191817,0.191343,0.892782,0.203512,-0.078670,0.975907
0.074696,0.223430,0.892553,-0.275484,0.081113,0.957877
0.042796,0.417831,0.755072,-0.435983,0.897712,-0.063501
-0.005561,-0.485590,0.737154,0.593860,-0.779935,0.197565
-0.463665,0.510887,0.884836,-0.071148,-0.524571,0.848389
-0.511287,0.120218,0.793493,0.156658,-0.910110,0.383611
0.378443,-0.004665,0.871691,0.004673,0.600686,0.799471
-0.239438,0.455623,0.236590,0.659614,0.536535,-0.526345
0.225742,-0.051064,0.874618,-0.413252,-0.902973,-0.117737
0.045366,0.419233,0.914363,0.025565,-0.905465,0.423650
-0.513032,-0.027425,0.698945,-0.099690,-0.831650,0.546279
-0.367137,0.859407,0.764718,0.240326,0.466730,0.851121
-0.315744,-0.136756,0.821744,0.593178,0.480258,-0.646137
-0.131144,0.593881,0.632192,0.954913,-0.261630,0.140321
-0.320250,0.414775,0.874961,-0.683657,0.470713,-0.557711
-0.368971,0.634682,0.873359,0.815537,-0.356169,0.456117
-0.432220,0.506220,0.860345,-0.373394,-0.927307,-0.026038
0.103654,0.318039,0.469059,0.971862,-0.234398,0.023284
-0.135464,0.049972,0.841789,-0.720462,0.169927,0.672354
-0.254151,0.471538,0.626290,0.914270,-0.103733,0.391598
0.251205,0.033591,-0.769149,0.707573,0.694244,0.131782
-0.286785,0.578744,0.704978,0.893907,-0.417274,0.163747
0.509811,0.326282,0.864972,0.795274,0.307770,-0.522319
-0.673729,-0.045207,0.680373,-0.046077,0.973036,0.226004
0.015857,0.570242,0.135748,0.225138,-0.905985,0.358475
-0.717861,0.023897,0.486340,0.760448,-0.246503,0.600796
-0.846378,0.287557,0.654345,0.634643,0.028751,-0.772271
-0.256541,-0.234422,0.516096,0.001756,0.721213,0.692711
-0.727327,0.233748,0.829870,0.951792,0.283914,0.116129
0.519653,-0.084502,0.652105,-0.225409,-0.695389,0.682367
-0.006756,0.612856,0.663141,0.166187,0.229230,0.959080
-0.630798,0.689787,0.814436,0.292659,0.418056,0.859988
-0.486553,0.561379,0.910504,-0.424464,-0.846347,0.321756
-0.416318,0.377344,0.547552,0.759987,0.643028,-0.094529
0.315099,0.285380,0.945688,-0.624046,-0.605954,0.493342
0.386714,0.216640,0.733279,-0.302115,0.497882,-0.812920
-0.653411,0.138155,0.805918,0.810368,-0.215437,0.544877
0.136199,0.107618,0.003973,0.897464,-0.434096,-0.078225
0.018708,0.160237,0.847086,0.468765,0.740012,-0.482330
0.012272,0.331778,0.018507,0.672973,-0.581479,0.457154
0.024319,0.643130,0.622987,-0.198714,-0.520365,0.830501
0.476902,-0.135927,0.851762,0.686228,0.225882,0.691425
-0.569205,-0.578902,0.815842,-0.537425,-0.622318,-0.569118
0.084532,-0.236444,0.896820,0.551292,0.781833,-0.291227
-0.188787,-0.532817,0.608027,0.584346,-0.222798,-0.780321
0.622982,-0.140851,0.478117,0.961585,0.126813,-0.243461
-0.267477,0.236754,0.111224,0.259745,0.311674,-0.913998
0.788920,-0.005080,0.532821,0.919846,-0.353175,-0.170734
0.349849,0.066666,0.502215,0.903253,-0.296495,-0.310199
-0.539511,0.695179,0.791564,0.807890,0.463109,-0.364479
0.231347,0.235925,0.203875,0.999614,-0.010931,-0.025555
0.148886,0.096734,0.131856,0.992205,-0.097253,-0.077921
-0.096394,0.371383,0.811199,-0.692171,0.669191,0.270337
-0.814754,0.502746,0.689332,-0.690553,0.691443,-0.212233
-0.484718,-0.245829,0.666852,0.953604,-0.244232,0.176041
0.153021,-0.266667,0.706842,0.940905,-0.161705,-0.297572
0.825511,-0.016382,-0.977929,-0.088325,0.082433,0.992675
-0.806388,0.186211,0.639189,-0.117438,-0.303413,0.945595
-0.678420,-0.449561,0.711943,0.514251,-0.716059,-0.472022
-0.038840,-0.861793,0.549285,0.463581,0.555589,0.690228
-0.198163,0.181648,0.958914,-0.459179,0.881985,0.106101
-0.724386,0.503679,0.634726,0.951462,0.260800,0.163412
0.074696,-0.322241,0.443146,0.908491,-0.044095,-0.415572
0.583912,0.033386,-0.989798,0.108634,-0.074786,-0.991265
-0.108160,0.777398,0.656421,0.768598,0.418644,0.483729
-0.026984,-0.409124,0.675811,-0.428925,-0.084247,-0.899403
-0.106505,-0.255469,0.838437,0.221494,0.566087,0.794032
0.127373,0.493155,0.771389,-0.473763,-0.142451,-0.869055
-0.071020,0.560860,0.612180,0.616929,0.404160,0.675317
0.242749,0.041005,-0.535290,0.043798,-0.989855,0.135162
-0.220686,0.366614,0.766975,-0.035665,-0.919112,0.392379
0.088488,0.535355,0.921409,0.097735,0.775803,0.623360
0.178210,0.154017,0.347388,0.617597,0.760409,-0.200876
0.158633,0.134836,0.713055,0.674799,0.618246,-0.403011
0.207354,0.115605,-0.832159,0.977938,0.143449,0.151854
0.171959,0.062103,0.104978,0.882115,0.467071,0.060970
0.841418,-0.052566,-0.977160,-0.091735,0.050690,0.994492
0.187496,0.648056,0.417641,-0.713996,-0.307482,-0.629019
