-0.208512,-0.163843,0.714720,0.643284,0.464782,0.608410
0.433949,-0.190976,0.735304,-0.599070,-0.554975,-0.577164
0.665825,0.794100,-0.041530,0.987726,0.013060,-0.155651
0.020396,-0.150528,-0.978640,-0.306131,-0.221674,0.925821
-0.743811,0.466415,0.369281,0.987070,0.078830,-0.139569
-0.176372,0.134376,0.313530,-0.295103,0.607031,-0.737853
-0.330074,0.452405,0.751111,-0.198539,-0.979920,-0.018400
0.165129,0.359898,0.822654,-0.393368,0.803554,-0.446724
-0.409132,0.350686,0.478807,0.155464,-0.240345,0.958157
-0.267366,0.367029,0.632937,0.280278,-0.523737,0.804452
-0.388735,-0.213250,0.536137,-0.234857,0.539711,-0.808427
0.716404,0.100425,0.782473,-0.085277,-0.705463,0.703598
-0.539215,-0.041048,0.403250,-0.549896,-0.030930,-0.834660
-0.808982,-0.034043,0.418516,-0.008885,0.952006,0.305949
0.604065,-0.097396,0.626251,-0.176073,0.490012,0.853749
0.112527,-0.178673,0.830801,0.403323,-0.088719,-0.910746
0.963624,-0.300458,0.702586,-0.307145,0.912932,0.268733
-0.275071,-0.163275,0.725117,-0.207201,-0.683896,-0.699538
0.381281,0.213693,0.291841,-0.567961,0.646861,-0.508912
0.131027,0.383057,0.840422,0.679798,0.479118,0.555266
0.023553,0.078908,0.645216,0.840237,0.096860,0.533498
0.153004,0.149772,0.609497,-0.820317,0.553523,0.143849
0.908308,-0.457264,0.556853,0.116082,0.629773,0.768056
-0.177320,0.275091,0.829314,0.690945,0.071221,0.719391
-0.020840,-0.091529,0.721143,0.296507,-0.252462,0.921057
-0.151239,0.287900,0.622935,0.322281,0.863289,-0.388415
0.910139,-0.422875,0.543455,0.491842,0.826364,0.274252
-0.319336,0.508439,0.097359,0.182988,0.387264,-0.903627
0.142270,-0.192932,0.877891,-0.701599,0.651503,-0.288621
0.349141,0.067613,0.954002,0.877293,-0.384919,0.286696
0.343394,0.504149,0.336628,-0.017035,0.338631,0.940765
-0.078745,-0.157911,0.744240,-0.600810,-0.602429,-0.525458
0.221960,0.078214,0.917612,0.954215,-0.227024,0.194769
0.819018,-0.171099,0.634332,-0.400573,0.141763,0.905232
-0.733898,0.269284,0.329060,-0.470487,0.790299,-0.392518
-0.068771,0.290677,0.803465,0.311737,0.629771,0.711484
0.558092,0.330241,0.516040,-0.392233,0.877321,-0.276515
-0.476827,0.371636,0.540283,0.200802,0.955619,-0.215571
-0.645178,0.246821,0.324243,0.028389,-0.674107,0.738088
0.425739,0.890582,0.170193,0.767337,0.064084,0.638034
-0.126738,0.579240,0.589505,-0.671603,-0.740883,-0.006415
0.139237,0.740275,0.861006,-0.654367,-0.683612,0.323231
0.040161,-0.433096,0.704152,0.540427,-0.595101,-0.594805
0.299506,0.163590,0.493403,-0.201529,0.967387,-0.153457
0.603372,0.503517,-0.941552,-0.107594,-0.184997,0.976831
-0.755370,-0.425145,0.417753,0.577504,0.097536,0.810540
0.934263,-0.085282,0.199463,0.162809,-0.068642,0.984267
0.661404,0.305443,-0.936564,-0.082550,-0.037254,0.995890
-0.426499,-0.165672,0.403210,0.039245,0.441543,0.896381
0.465079,0.755734,0.449932,-0.005429,-0.346472,0.938044
-0.442790,-0.159804,0.449498,0.857170,-0.027812,-0.514283
-0.351415,-0.153621,0.708113,0.632371,0.560506,0.534733
0.878061,-0.056444,0.369425,0.474277,0.754749,-0.453227
-0.058603,0.573056,0.744556,-0.206491,-0.726956,0.654902
0.336510,0.000094,-0.956397,-0.085904,-0.326496,0.941287
-0.022104,0.754473,0.733738,0.425100,0.846122,-0.321508
0.249683,0.038397,0.781592,-0.747837,0.407841,-0.523838
0.358865,0.243919,0.614998,0.211107,0.879113,0.427311
0.219624,0.670295,0.895909,0.523682,0.798527,-0.296837
0.103686,0.016438,0.831604,0.833381,0.546805,0.080499
0.319336,0.644046,0.054006,-0.806051,-0.298583,0.511010
-0.213692,0.123206,0.252239,-0.566278,0.820825,-0.074668
0.118212,0.056003,0.733001,0.688534,-0.522971,0.502417
-0.305823,-0.475880,0.662260,0.184533,0.762811,0.619731
-0.729227,0.329359,0.322046,0.533663,0.698031,-0.477447
0.269636,0.447422,0.783144,0.697742,0.106087,0.708451
-0.696389,0.113740,0.151241,0.219803,0.079905,0.972266
-0.038712,0.150465,0.837947,0.252737,0.516468,0.818160
0.285172,0.386466,-0.169679,0.783366,0.067720,-0.617860
0.159633,-0.116137,0.812586,0.692076,-0.553102,-0.463799
0.178453,0.480045,0.807835,0.875925,-0.386676,-0.288508
-0.101732,-0.121312,0.392878,-0.308613,0.524227,0.793690
0.421130,-0.124279,0.750215,0.929355,0.159448,-0.332979
0.090616,0.439786,0.803557,0.217020,-0.704129,0.676095
0.559734,-0.428111,0.169745,-0.049633,-0.222062,0.973768
-0.022104,0.506926,0.696624,-0.556773,0.665960,-0.496488
0.668916,0.115380,0.444325,-0.012910,0.102632,0.994636
0.349773,0.364695,-0.947553,-0.086013,0.009433,0.996249
-0.077547,-0.034043,0.661391,-0.143505,0.868562,-0.474349
0.694936,-0.044771,0.190500,0.215911,0.618804,0.755291
0.724741,0.435937,0.371110,-0.240965,0.176586,0.954334
0.471963,0.309859,0.342103,-0.591676,0.409296,0.694547
0.614422,0.547310,0.361042,-0.151549,0.005795,0.988433
0.044516,-0.642971,0.621105,0.174816,0.974835,0.138333
-0.478407,-0.274081,0.453854,0.400848,0.800397,-0.445742
-0.314727,-0.405584,0.450735,-0.423742,-0.464529,0.777596
0.113221,-0.111974,0.531728,0.344446,0.115598,0.931662
0.639682,0.369931,0.356278,-0.105942,0.132278,-0.985535
0.254104,0.760277,0.646230,0.218401,-0.477853,0.850857
0.455416,-0.045086,0.503511,0.350665,0.521301,0.777997
0.549255,0.092222,0.751439,0.298133,0.732689,-0.611788
0.765156,0.197161,0.877049,0.893812,-0.074217,-0.442258
-0.474680,-0.383436,0.580464,-0.263257,0.920140,-0.289893
0.692473,0.180313,0.754927,0.919645,-0.300363,0.253051
-0.228469,0.376178,0.615235,0.802567,-0.534116,0.265718
0.178770,0.321912,0.815495,0.406889,-0.436989,0.802173
0.279360,-0.275658,0.394524,0.832548,-0.362419,0.418946
0.542876,0.532986,0.360318,-0.356558,0.375247,0.855603
-0.618970,0.318567,0.135276,0.718219,-0.463401,-0.519057
-0.009412,0.546048,0.857544,-0.794712,0.509661,-0.329663
0.706048,0.352706,0.754703,-0.633819,-0.769075,0.082442
0.102803,-0.356744,0.710180,0.855483,-0.020922,-0.517408
0.343456,0.004385,0.886025,0.853180,-0.461515,-0.243077
0.100845,-0.461997,-0.982654,0.126928,0.081534,-0.988555
0.693799,0.305505,0.616749,-0.317889,0.867055,0.383616
0.230612,0.812021,0.330771,-0.269665,0.267838,-0.924956
0.223918,0.734848,0.547048,0.784040,0.194449,0.589467
0.376798,0.410317,-0.943420,-0.218005,0.170862,-0.960875
0.083921,0.397066,0.797740,0.071526,-0.750550,0.656932
0.633808,-0.420098,0.165994,0.313128,0.761725,0.567208
-0.256000,-0.006530,0.453854,-0.341460,0.680761,0.648051
0.758839,0.083200,0.570724,-0.141076,0.044383,0.989003
-0.542753,0.346584,0.354830,-0.086000,0.652060,-0.753274
-0.245455,0.642089,0.655403,-0.032563,-0.840699,0.540523
-0.371561,-0.150717,0.744359,-0.459211,-0.772478,-0.438637
-0.043888,0.734596,0.783131,0.838274,-0.173484,0.516913
0.277846,0.841238,0.657364,-0.104505,-0.569935,0.815017
0.581333,0.277047,0.798359,0.028987,-0.695007,0.718419
-0.713313,-0.377126,0.257490,0.847149,0.257719,-0.464671
0.720004,-0.387663,0.143107,0.344557,0.811758,0.471519
-0.281954,0.381480,0.099728,0.355667,0.177072,-0.917685
0.131598,0.014672,0.702112,0.604790,0.533625,-0.591164
-0.954031,0.052090,0.342682,0.216186,-0.617529,0.756255
0.293066,0.222906,-0.065878,0.045185,-0.933494,0.355735
0.115306,0.057644,-0.965860,-0.261886,-0.157514,0.952158
-0.316368,-0.163338,0.507235,0.936182,-0.350139,-0.031080
-0.645683,0.116453,0.596875,0.323603,-0.299650,0.897492
-0.229225,-0.438650,-0.989261,0.190027,0.276945,-0.941908
-0.433066,0.001419,0.644519,0.802139,0.350583,0.483390
0.422644,0.683232,0.155544,-0.496230,0.107952,-0.861454
0.868903,-0.169206,0.588071,-0.503918,-0.297065,0.811061
0.595605,-0.625745,0.562196,0.532687,0.505751,-0.678573
0.072112,0.006278,0.598573,0.079155,-0.525724,0.846965
0.190513,0.348100,0.335483,0.188968,0.149527,0.970532
0.714130,0.010002,0.435731,-0.295011,-0.012221,0.955416
0.550076,0.938351,0.360055,0.008697,-0.259434,0.965722
0.531949,0.224294,-0.943197,0.154170,-0.099135,-0.983058
0.739834,-0.120050,0.329416,0.178297,-0.321393,0.930009
-0.018631,-0.063953,0.765903,0.646666,-0.377140,0.663015
0.034225,0.124656,0.274837,0.137753,-0.724144,0.675751
0.637219,-0.270800,0.656482,0.533043,0.832401,0.151569
0.191272,0.507871,0.611432,-0.693419,-0.242914,-0.678353
0.481814,-0.537781,0.582648,0.961312,0.231104,-0.149904
-0.915320,0.183279,0.164797,0.409901,0.293288,0.863691
0.374652,0.295095,0.865783,0.141759,0.746519,0.650088
0.432180,-0.237797,0.163059,-0.143816,0.067230,0.987318
0.013640,-0.226755,0.187328,0.589565,-0.299304,-0.750220
-0.205040,0.214071,0.159374,-0.331693,0.668454,0.665694
0.692978,0.478088,0.718879,0.317626,0.688222,-0.652276
0.349896,0.078655,0.629094,-0.627291,-0.742069,0.236303
-0.341563,0.120302,0.141331,-0.302919,0.139660,-0.942727
-0.243246,0.021676,0.549983,0.900436,0.251301,-0.355054
0.550265,0.010570,0.369294,-0.043280,0.815211,-0.577545
0.157170,-0.125981,-0.967295,-0.298317,-0.012587,0.954384
-0.224615,0.627638,0.641939,-0.101459,-0.816285,0.568669
0.360064,0.734028,0.533650,0.250909,0.616323,-0.746452
-0.577861,-0.287205,0.390181,0.898938,-0.278214,-0.338390
-0.365436,-0.081684,0.534255,0.974444,-0.162929,0.154639
-0.002968,-0.373781,0.161230,-0.033139,0.585610,0.809915
-0.046856,0.093485,0.716931,0.989012,0.059895,0.135160
-0.635894,-0.281401,0.306647,-0.525538,-0.164894,0.834637
-0.033027,0.134185,0.676724,-0.656223,0.253458,-0.710726
0.747222,0.330936,0.697545,-0.138440,-0.973520,0.181917
0.035551,0.475248,0.704783,-0.531936,0.626603,-0.569572
0.648901,0.339455,0.458368,-0.279629,0.959734,-0.026798
0.429717,0.984982,0.091963,-0.258986,0.837976,0.480335
-0.328999,-0.028175,0.632950,-0.654094,0.153961,-0.740579
0.426306,0.844328,0.336944,-0.013139,-0.396709,0.917851
0.056009,-0.437009,-0.980482,-0.064519,-0.009091,0.997875
0.732191,-0.363937,0.525635,-0.139009,0.018989,0.990109
0.425296,0.206626,0.468700,-0.335540,0.941047,-0.042934
-0.713567,0.058842,0.400407,-0.043165,0.739220,0.672079
0.460597,-0.410001,0.630068,0.615379,0.536090,0.577855
-0.168224,0.380596,0.692807,0.218737,0.953724,-0.206311
0.185271,0.732071,0.298671,-0.348506,0.503648,0.790495
0.766289,-0.043003,0.110718,-0.266227,-0.077785,0.960767
-0.446768,0.409056,0.359910,-0.716880,0.666454,-0.204747
0.559862,-0.610222,0.618197,-0.216160,0.599092,0.770950
-0.724490,-0.503140,0.574475,-0.783529,0.598461,-0.167112
-0.320851,0.508819,0.638425,-0.718703,0.127712,-0.683488
-0.018188,-0.118473,0.785895,0.260310,0.912579,-0.315337
-0.002529,-0.056633,0.745056,-0.650214,0.602960,0.462234
0.373576,-0.054488,-0.956858,-0.035966,-0.324344,0.945255
-0.079061,-0.264869,0.674908,0.806778,-0.107136,-0.581061
-0.092890,0.250734,0.719655,0.293892,0.326837,-0.898223
-0.333608,-0.495377,-0.992130,-0.166782,-0.068219,0.983631
-0.209399,-0.361350,-0.982641,-0.066348,-0.339868,0.938130
0.398332,0.300269,0.819114,-0.197944,-0.128911,0.971700
-0.175679,0.414419,0.466541,0.626270,0.700531,0.342114
0.481498,-0.441741,0.162809,0.498407,-0.107475,0.860256
0.029677,0.171414,0.908175,-0.574747,-0.142983,-0.805743
0.610379,0.820729,0.025381,0.986484,-0.159090,0.039229
0.210721,-0.261019,-0.969440,-0.076949,-0.126580,0.988967
-0.440832,-0.260703,0.560288,-0.403927,-0.593271,-0.696328
0.276709,0.849439,0.513250,0.089351,0.865013,0.493730
-0.045846,0.587884,0.758744,-0.360304,0.631588,-0.686496
0.625537,0.197161,-0.938472,-0.119630,0.094480,0.988313
0.136524,0.788674,0.506288,0.489096,0.347079,-0.800201
0.270079,0.399653,0.822023,0.821733,-0.536062,-0.193370
-0.318454,-0.353147,0.648309,0.041454,0.606887,0.793706
-0.483017,-0.280201,0.448589,0.102621,0.951904,-0.288699
-0.163237,0.098848,0.720985,0.167147,0.157692,0.973240
0.660772,-0.399653,0.531820,-0.173235,0.006556,0.984859
0.239327,0.202713,0.455341,-0.608468,0.635712,0.475012
0.240148,0.533932,0.310635,-0.216888,0.462697,-0.859576
0.729601,-0.476637,0.160322,-0.567378,-0.080407,-0.819522
0.134377,0.510080,0.320690,0.742956,-0.264991,0.614651
0.245073,0.504842,0.859374,0.777808,0.477572,-0.408582
-0.317444,-0.225367,0.490205,0.813701,-0.382736,0.437497
0.116062,0.106231,0.841488,-0.047297,0.961977,-0.269002
0.856909,-0.397696,0.724657,-0.035058,0.824274,0.565105
-0.121053,0.567755,0.632924,-0.414584,-0.658890,0.627682
0.187673,0.536204,0.785606,0.664347,0.541639,0.515044
0.578300,-0.638112,0.548008,0.695952,0.580783,-0.422305
-0.137472,-0.563969,-0.986076,0.147955,0.076501,-0.986031
0.597436,-0.383877,0.332824,0.232383,-0.628398,-0.742371
-0.296982,0.031015,0.614248,0.840243,0.454620,0.295486
0.012503,0.738445,0.717168,0.852704,0.500822,-0.148574
0.369283,-0.415807,0.605707,-0.671244,-0.740363,0.035971
-0.397199,0.027734,0.517106,0.023106,0.247699,0.968561
-0.074829,-0.406720,0.773300,0.443981,0.644464,0.622533
0.726760,-0.019467,0.578476,-0.662916,-0.251973,0.705019
0.712615,-0.248398,0.648191,0.010019,0.215080,0.976545
-0.047110,0.091970,0.867178,-0.242159,-0.934091,-0.262361
0.317567,-0.084966,0.756941,0.948260,-0.317480,-0.003101
0.431420,0.307966,0.171167,-0.383234,0.395650,0.834621
-0.019957,0.651490,0.768299,0.362052,-0.930445,0.056484
0.418667,0.219309,0.855202,0.948753,-0.153295,0.276349
0.370485,0.008361,0.646374,-0.631560,-0.755670,0.173479
0.710723,-0.505790,0.526859,0.293680,-0.340287,-0.893284
0.007196,0.089825,0.744451,0.423125,0.254963,0.869459
0.213122,0.549203,0.873285,0.891006,0.429706,0.146495
-0.692600,0.507051,0.368952,-0.018581,-0.895581,0.444511
0.391071,-0.064205,0.806821,0.248737,0.515996,0.819682
0.920307,-0.265941,0.585439,-0.466688,-0.282996,0.837924
0.004039,-0.067991,0.754756,0.905199,-0.404334,0.130875
0.704595,0.317117,0.522265,0.158404,-0.804319,0.572694
-0.039533,0.115192,0.834065,-0.336054,-0.917869,-0.211150
0.211542,-0.093295,0.860163,-0.734125,0.559693,-0.384453
-0.491288,0.337056,0.522252,0.148792,0.988762,0.014542
-0.459841,0.093296,0.148201,0.091648,-0.122957,0.988171
0.834362,0.013345,0.256293,0.593636,0.057373,-0.802686
0.369915,-0.019088,0.790699,-0.228386,0.503723,0.833128
0.318954,0.272125,0.673578,-0.098755,0.578909,0.809390
-0.140756,0.434989,0.729289,0.453959,0.289658,0.842627
-0.022798,0.308661,0.503984,-0.235344,0.967493,-0.092581
0.187168,-0.158668,0.932299,0.996213,-0.086907,-0.002535
0.473223,-0.618930,0.478715,0.875083,0.338982,-0.345429
-0.449990,0.172046,0.429611,0.495192,0.666885,0.556820
0.465268,0.598865,0.697045,-0.318828,-0.396384,0.860946
0.133999,-0.276858,-0.123287,0.031585,-0.446675,0.894139
-0.053805,-0.106863,0.777446,-0.130119,0.624493,0.770115
0.218869,0.191671,-0.307463,-0.107332,0.986123,0.126656
0.819904,-0.271998,0.663392,-0.592604,0.697343,0.403154
0.322365,0.037199,0.914466,-0.365239,0.568956,-0.736811
0.264587,-0.294463,0.214243,0.889133,0.194996,0.414028
-0.604890,-0.327527,0.295684,-0.482858,-0.064330,0.873333
0.189565,0.677551,0.193080,0.028701,0.530568,0.847156
0.047800,-0.437450,0.709113,0.554536,-0.559015,-0.616435
0.186092,-0.183847,0.895751,0.837568,-0.545770,-0.024804
0.007450,-0.439155,0.646111,0.724106,0.142782,0.674748
0.813965,-0.388927,0.089673,0.823759,-0.015556,0.566727
-0.237118,-0.329043,0.588900,0.098998,0.989261,-0.107526
0.294453,0.983845,0.527977,0.846764,0.275539,0.455048
0.592445,0.375549,0.706771,-0.115631,0.706828,-0.697871
0.213750,0.566494,0.809006,0.886773,-0.149528,0.437349
0.182809,0.587253,0.858966,0.974139,0.205560,-0.093805
0.207375,-0.008802,0.878286,0.534155,0.114043,0.837659
0.173150,-0.189903,0.916598,0.985053,-0.144949,-0.093059
0.557399,0.364695,0.638662,-0.547363,-0.819618,-0.169178
0.400417,0.904023,0.099228,-0.204670,0.289326,0.935094
0.785236,0.332640,0.665695,0.962432,0.254311,0.095133
-0.022798,0.399653,0.141752,0.515310,0.328216,-0.791663
0.649911,-0.575074,0.159703,-0.632270,0.367792,-0.681883
0.378379,0.195961,0.888341,0.685576,-0.727915,-0.011192
0.518880,0.578231,0.152070,0.368699,0.073901,0.926606
-0.526650,-0.109829,0.550180,-0.128142,-0.500635,0.856122
0.316114,0.121502,0.871192,0.684093,0.326885,-0.652045
-0.543319,0.331945,0.135053,0.121349,0.541280,0.832040
0.930601,-0.033727,0.452235,-0.641872,0.249026,0.725249
0.566240,-0.740905,0.178761,0.628527,0.229233,0.743240
-0.248739,0.011516,0.582504,0.469179,0.186202,0.863250
-0.182496,0.441300,0.579608,0.988980,-0.123979,0.080924
0.181672,0.352327,0.811283,-0.717624,-0.679986,-0.150450
0.280752,0.238050,-0.509183,0.940030,-0.341090,0.001336
0.256817,0.221645,-0.776446,0.841615,-0.527415,0.116267
0.413236,0.349236,0.094174,0.152832,0.186559,0.970483
-0.030691,-0.092917,-0.976797,-0.228540,-0.178362,0.957056
0.634945,0.390629,0.364701,0.110912,-0.224408,0.968163
-0.077042,0.105979,0.754493,-0.192306,-0.547075,0.814695
-0.556771,-0.439091,0.301383,0.050939,-0.261649,0.963818
-0.673657,-0.216848,0.449129,0.214440,-0.675460,0.705527
0.226003,0.408236,0.675618,0.889877,-0.176585,0.420638
0.333415,0.233507,0.185723,0.831103,-0.520039,-0.197048
0.185460,0.690488,0.863401,0.891843,0.227416,0.391022
0.809232,0.099921,0.180037,0.140601,0.655933,0.741608
0.186281,0.195836,-0.951343,-0.463677,-0.068156,0.883379
0.306768,0.045150,0.895975,0.793509,0.181594,0.580833
-0.070979,0.479538,0.721656,0.293120,0.219763,-0.930476
0.570723,-0.282978,0.757191,0.552008,0.829124,0.088546
0.987054,-0.338949,0.119654,0.319506,-0.067813,-0.945155
0.185148,0.175896,0.885248,0.141278,-0.569863,0.809504
0.950111,-0.099480,0.363595,-0.771031,-0.588975,0.242117
0.192787,0.810001,0.512539,-0.181801,-0.764642,0.618281
0.164120,-0.070768,0.868626,0.646473,-0.744314,-0.167540
0.477393,-0.159173,0.781486,0.844169,0.130217,-0.520021
0.527340,-0.732703,0.380139,0.153250,0.622206,0.767707
-0.358992,0.250987,0.630739,0.292079,-0.045462,0.955313
0.811063,0.020667,0.199595,0.352765,0.549415,0.757430
-0.039217,0.808424,0.758994,-0.324918,-0.882649,0.339646
0.277406,0.237041,-0.539546,0.917871,-0.391138,-0.067260
-0.038962,0.240574,0.838632,-0.478703,0.569238,0.668440
0.578743,-0.364757,0.752532,0.968229,-0.221652,-0.115772
-0.476954,0.293895,0.625712,-0.469432,0.603069,-0.644936
-0.421130,-0.432212,-0.991406,0.207588,0.080576,-0.974892
-0.057971,0.308977,0.663129,-0.670972,-0.685120,-0.283562
0.294581,0.859788,0.042385,0.913642,-0.299306,-0.275091
0.367579,-0.200315,0.751676,0.923862,0.222011,-0.311754
-0.152565,0.359330,0.654034,0.625730,0.778788,-0.044168
0.662225,0.410758,0.760547,0.028790,-0.843281,0.536701
0.766416,0.137782,0.777459,-0.376703,0.837562,-0.395708
0.286942,-0.230414,0.745214,0.298936,-0.310079,-0.902490
0.275572,0.227764,-0.524108,0.934093,-0.352890,-0.054203
0.326027,0.060610,0.865283,-0.502650,-0.156665,0.850176
-0.590113,0.139043,0.582859,0.740021,0.212083,0.638271
0.912602,-0.049188,0.375822,-0.589421,-0.669494,0.452062
0.574134,0.477646,-0.944184,-0.136701,-0.159469,0.977692
0.313840,-0.016942,0.853504,0.803816,-0.349535,-0.481358
0.703901,0.577915,-0.932602,0.365600,0.093054,-0.926109
0.721268,0.330241,0.702717,0.407633,-0.880461,-0.242124
-0.375538,-0.316863,0.522950,-0.646837,0.752798,0.122058
-0.264464,0.040037,0.393076,0.004873,-0.013525,0.999897
0.076787,-0.212430,0.831235,0.818617,-0.175885,-0.546745
-0.538394,-0.019531,0.536321,0.938280,-0.326947,0.112855
-0.829756,-0.024325,0.123695,0.876599,-0.047771,-0.478845
0.130334,-0.556902,0.580411,0.389052,0.904381,0.175310
0.028606,-0.236220,0.683265,0.888150,0.328056,0.321822
-0.353754,0.262976,0.614880,-0.757735,-0.052286,-0.650465
0.751011,0.132103,-0.104993,0.442937,0.889433,0.112768
-0.108866,0.100616,0.750518,-0.348050,0.650643,-0.674926
-0.732383,-0.052847,0.386127,0.783805,0.320419,0.531960
-0.896946,-0.459788,0.424320,0.150781,-0.559370,0.815089
-0.341124,0.376494,0.497733,0.906977,0.316901,-0.277427
0.578300,0.603219,-0.181867,0.682964,-0.681629,-0.262567
0.437229,0.290993,0.826629,0.593496,-0.134247,-0.793561
-0.024945,0.123963,0.684844,0.853205,-0.407685,0.325323
0.326914,0.678814,0.164560,0.223981,-0.115667,0.967705
-0.159510,0.599685,0.342629,0.443760,0.536444,-0.717848
0.097812,0.074240,-0.966716,0.222141,0.208423,-0.952478
0.335373,-0.545417,0.482966,-0.136264,-0.897431,0.419583
-0.353184,-0.242088,0.628054,0.810467,0.443333,0.382882
0.206049,0.220320,0.867560,0.027349,0.074779,0.996825
-0.320851,-0.167060,0.735435,-0.408542,-0.780834,-0.472643
0.100591,-0.114435,0.796227,-0.318764,0.378456,0.869000
0.105705,0.328791,0.733843,0.295164,0.478577,0.826947
0.934074,-0.471778,0.554957,-0.054227,0.643510,0.763515
-0.773238,0.187633,0.286787,0.002425,0.731000,0.682374
-0.596299,0.141316,0.291104,-0.128986,0.720627,0.681220
0.440451,0.512352,0.330298,0.027566,-0.056290,0.998034
0.547675,-0.080360,0.689911,-0.558694,-0.699063,0.446288
-0.038018,-0.492728,0.787290,0.067679,0.777776,0.624887
0.101096,0.156460,0.897738,-0.188368,-0.957969,-0.216363
0.178704,-0.511153,0.463422,-0.241635,0.221120,0.944838
-0.862278,-0.104779,0.114692,0.000394,-0.299164,0.954202
-0.054687,-0.499984,0.685042,0.284918,0.890331,-0.355151
0.420875,0.148447,0.868297,0.549682,-0.000497,0.835374
0.360950,-0.292318,0.748070,-0.165582,0.805099,0.569560
0.197397,-0.362739,0.534966,-0.513108,0.319143,-0.796786
0.467731,-0.227448,0.803202,0.891266,0.393800,-0.224869
0.509406,0.136330,0.567368,0.304773,0.321506,-0.896520
0.264903,0.326959,0.899923,0.799925,0.528921,-0.283483
0.423084,0.307398,0.594467,-0.003152,0.693851,0.720112
0.577668,0.172930,-0.941749,-0.107009,0.006630,0.994236
0.536563,0.176841,-0.130986,-0.272584,-0.951774,0.140800
0.196198,0.481433,0.815745,0.877463,0.057468,0.476189
0.333859,0.096892,0.738726,0.475345,0.873932,-0.101433
-0.030186,-0.496450,0.704599,-0.501697,0.817320,0.283352
0.487560,0.844960,0.346538,-0.374634,-0.338842,0.863039
0.403574,0.244297,-0.038187,-0.188472,0.919804,-0.344149
0.047295,0.234579,0.894501,0.255472,0.198646,0.946189
0.104002,0.028679,0.758375,-0.683443,0.719422,0.123847
0.086068,0.119546,0.740200,0.060302,-0.264821,0.962410
-0.498927,0.055245,0.578503,-0.223638,0.974642,0.007682
0.368146,0.067802,0.881458,0.986566,-0.155706,0.049429
-0.491665,0.219436,0.284971,0.166543,-0.166720,-0.971837
0.853559,-0.343998,0.356870,0.409715,0.379919,-0.829334
0.219751,0.505853,0.853359,0.748644,0.411551,0.519767
-0.309296,0.171919,0.713891,0.109311,0.862107,0.494796
-0.348069,-0.247957,0.617565,0.629968,0.675853,0.382574
0.287065,0.254141,-0.079684,0.985367,-0.124159,0.116779
0.438493,-0.416312,0.623737,0.643683,0.670921,0.368155
-0.017618,-0.188642,0.733106,0.603226,0.300972,0.738603
0.274057,0.330872,-0.193988,0.917465,0.156888,-0.365572
0.358738,0.143713,0.902358,-0.028613,-0.977142,0.210654
0.344277,-0.587316,-0.051848,0.724910,-0.688765,0.010409
0.338214,0.048684,0.834539,-0.642618,0.760171,0.095829
0.300959,-0.397571,0.251923,0.955977,-0.056053,0.288038
0.506627,0.351190,0.702757,0.120818,-0.314998,0.941371
0.413425,0.463827,-0.951765,0.219534,-0.186922,0.957531
-0.018631,-0.513614,-0.981930,-0.147950,0.038029,0.988263
0.748864,-0.351254,0.524134,0.012222,0.457926,0.888906
0.687042,0.373465,0.766338,0.471163,0.626793,-0.620593
0.845982,-0.014734,0.329389,0.397569,-0.660309,0.637127
-0.381223,0.220445,0.611024,-0.005476,-0.278999,0.960276
-0.371561,0.605553,0.150267,-0.043329,-0.829712,0.556507
-0.417723,0.472535,0.640083,0.766641,0.593992,0.243796
-0.035678,0.717684,0.778406,0.853476,-0.122505,0.506528
0.116821,0.092476,0.614669,-0.710114,0.300894,-0.636554
-0.867015,-0.194700,0.281536,-0.226273,-0.703764,0.673437
0.584995,-0.203785,0.318018,0.337014,0.631493,0.698311
0.012565,-0.331566,0.523897,-0.604033,-0.088345,0.792048
0.017429,-0.067866,0.758823,0.860021,-0.508855,0.037835
0.932871,-0.026723,0.192475,0.449325,0.375272,0.810727
-0.486362,0.555450,0.674789,0.925916,0.127542,0.355546
0.406730,0.644046,-0.143186,0.686764,0.222474,0.691998
0.598951,-0.190346,0.333417,0.143611,0.536900,0.831333
0.402059,-0.572614,0.179050,-0.691429,-0.184582,-0.698467
-0.133244,0.023757,0.748373,-0.697212,0.613256,-0.371232
0.526773,0.825903,0.345696,-0.129550,-0.414891,0.900601
0.632798,0.657864,-0.938380,-0.198754,-0.178421,0.963671
-0.484593,0.389240,0.515619,0.048246,-0.998651,-0.019202
0.508335,0.714655,-0.082948,-0.036981,-0.318034,0.947358
0.207753,0.015365,0.706415,-0.140614,-0.480795,0.865485
0.823312,-0.316170,0.360344,0.409715,0.379919,-0.829334
0.151112,0.481874,0.736607,0.772007,-0.094185,0.628598
-0.250758,-0.115760,0.696321,0.484205,-0.314982,0.816291
0.485410,0.142452,0.091345,-0.391536,-0.352174,0.850102
0.039340,0.203470,0.867126,0.322781,0.384767,-0.864735
0.903761,-0.070895,0.597692,-0.592757,-0.181181,0.784737
-0.040920,0.155323,0.690543,0.990510,0.076593,0.114124
0.677631,0.585612,0.729618,-0.432821,-0.372501,0.820920
0.322682,0.140875,0.011799,0.489096,0.872218,-0.004500
-0.262629,0.272882,0.572725,0.863425,-0.335362,-0.376867
-0.142081,0.425461,0.676658,0.608976,-0.170507,0.774645
0.204281,0.279697,0.864546,0.183640,0.445721,-0.876133
0.569081,0.352579,0.812586,0.036498,-0.959657,0.278794
0.544140,0.322985,0.652600,0.855931,0.454312,0.246947
0.278539,-0.124152,0.733238,-0.620469,0.192973,0.760118
0.216024,0.380471,0.682028,-0.676761,-0.001473,-0.736202
-0.132862,-0.000535,0.128722,-0.453584,-0.311223,-0.835106
0.081204,0.061934,0.602337,0.621396,-0.495636,0.606805
0.871936,-0.590786,0.545152,0.180407,0.852898,-0.489916
0.180222,0.637356,0.809651,0.718949,-0.679245,0.147437
0.595540,-0.407161,0.345235,0.000715,0.515798,0.856710
0.132797,-0.339960,0.550430,0.779940,0.125690,0.613104
0.413675,0.274650,0.920204,0.926671,0.077636,-0.367769
0.296666,0.216722,-0.660391,0.913397,0.406850,-0.013371
0.262124,0.293390,0.680488,-0.218010,0.307866,0.926116
0.250249,-0.392901,0.496246,0.884798,-0.452434,-0.111516
-0.418162,-0.190156,0.551246,-0.322257,0.306032,0.895821
0.538710,-0.499479,0.603759,0.875107,0.262493,0.406553
-0.210470,0.153557,0.724643,0.133111,0.692412,0.709117
-0.277661,0.045907,0.616854,0.175861,0.522042,0.834592
0.824576,-0.260072,0.681080,-0.636432,-0.606482,-0.476585
-0.493118,-0.308409,0.568171,0.580477,-0.505143,-0.638653
-0.262506,0.580312,0.145134,-0.171045,0.540306,-0.823901
0.247663,-0.085975,0.796082,0.872863,-0.404337,0.273170
0.768752,0.042310,0.008219,0.034567,-0.055973,0.997834
0.554304,0.053731,-0.085935,-0.084591,-0.166094,0.982475
0.692091,0.582205,0.136606,0.386526,0.234715,0.891912
0.161341,-0.040605,0.810967,-0.580989,0.464134,0.668604
0.081459,-0.309166,-0.973954,0.232911,0.274847,-0.932851
-0.322053,0.445717,0.754875,0.088853,-0.730221,0.677408
-0.178265,-0.209844,0.677224,0.203990,0.938951,-0.277055
0.114863,-0.222717,0.662023,0.571378,-0.586786,-0.573767
0.175675,-0.471778,0.462369,0.838440,0.435792,0.327268
0.239770,-0.403943,0.470542,0.924545,0.256530,-0.281796
0.576342,-0.794668,0.381284,0.479784,0.741866,0.468445
0.622315,-0.050449,0.101242,0.410356,0.175168,-0.894944
-0.035301,-0.037767,0.400525,0.221392,-0.511065,-0.830541
-0.013451,0.079539,0.107151,0.408040,-0.044741,0.911867
0.319714,0.580501,0.308016,-0.365186,-0.012763,0.930847
0.171697,0.825903,0.305199,-0.649948,0.715127,0.257219
0.149215,-0.497966,0.593348,-0.669430,-0.408301,-0.620607
0.398205,-0.575958,0.179471,-0.691429,-0.184582,-0.698467
0.270457,0.990913,0.690846,0.261058,0.759417,-0.595932
0.446640,-0.155576,0.341155,-0.328843,-0.312981,-0.891014
0.344404,0.550339,0.521778,-0.553042,0.202088,-0.808273
0.164752,-0.323425,0.547561,0.935474,-0.036038,0.351553
0.413109,0.884210,0.657640,-0.121251,0.333868,-0.934789
-0.015471,0.544471,0.752624,-0.353628,-0.815079,0.458904
0.694304,-0.094242,0.637886,0.134631,0.649973,0.747937
0.381786,-0.517652,0.547640,-0.429845,-0.002847,0.902898
0.618083,0.399528,0.161388,0.803560,0.298319,0.515071
0.142964,0.501751,0.637583,0.741965,0.631665,0.224692
0.763637,0.360151,0.801899,0.664556,-0.738169,-0.116069
-0.433571,0.018206,0.619131,0.219588,0.736500,0.639804
0.418917,-0.663291,0.739713,0.218111,0.723172,-0.655324
0.286626,0.484272,0.776551,0.056757,0.306768,0.950090
0.716342,0.432971,0.564262,-0.134865,-0.042242,0.989963
0.717290,0.335290,0.619539,0.502341,-0.764541,-0.403895
-0.427381,-0.155071,0.496233,-0.681394,0.686681,0.253320
0.361578,-0.117842,0.609365,0.611092,-0.255135,-0.749315
-0.292754,0.104843,0.134737,-0.367242,0.049265,-0.928820
0.899216,-0.418773,0.550522,0.125305,0.647705,0.751517
0.525952,0.253384,0.505524,-0.481580,0.876131,0.021787
0.007766,0.243476,0.393234,0.376360,0.804265,-0.459903
0.525952,0.116012,0.821917,-0.124884,0.976752,0.174238
-0.792814,-0.453226,0.409290,0.349934,-0.418275,0.838208
0.591878,-0.387979,0.768615,0.026375,0.858147,0.512725
0.225748,0.071083,0.811967,0.874413,0.289700,0.389198
-0.047615,0.133996,0.933971,-0.251683,-0.955561,-0.153488
0.659951,0.050134,0.365464,0.110381,0.942089,-0.316676
0.126923,0.091276,0.763008,-0.646682,0.762742,0.005106
0.688873,0.583658,-0.934945,0.365600,0.093054,-0.926109
-0.531387,-0.208582,0.112613,0.076906,0.776608,-0.625272
-0.436223,0.426913,0.371321,-0.708159,0.705253,0.033597
0.775069,-0.329988,0.111205,-0.786593,-0.176106,-0.591827
0.272353,0.122639,0.858847,-0.109051,-0.253280,0.961227
-0.944430,0.035053,0.170982,0.727875,-0.070273,0.682099
0.276393,-0.328663,0.514658,0.318484,0.591533,-0.740713
-0.073947,0.586432,0.668340,0.937283,-0.149258,0.314996
0.912036,-0.095756,0.122655,0.172899,0.127152,-0.976698
0.010356,-0.080171,0.743569,0.869115,-0.416478,-0.266806
-0.209650,0.254457,0.852254,-0.291171,-0.916343,-0.274837
0.681419,-0.129894,0.708192,-0.600365,-0.443628,0.665399
-0.806330,-0.027291,0.421622,0.136454,0.865498,0.481968
0.578805,-0.192616,0.715286,-0.758690,-0.372060,-0.534753
0.235792,0.390629,0.790067,0.476990,0.057006,0.877058
0.808600,-0.065216,0.445181,0.260127,-0.454640,-0.851843
0.224488,0.244424,0.684621,-0.567588,0.225227,0.791907
0.432307,0.496893,0.688227,0.625056,-0.023722,-0.780219
0.450996,0.557281,0.689372,-0.314963,0.576277,0.754124
0.139869,0.760404,0.860861,-0.654367,-0.683612,0.323231
0.178010,-0.054615,0.643887,0.698732,-0.558858,-0.446599
-0.430225,0.205553,0.619052,0.801729,0.588213,0.106005
0.532393,-0.623473,0.365095,-0.463879,0.392214,0.794345
-0.108111,-0.130715,0.719958,-0.369876,0.682220,0.630689
0.463121,0.041805,0.300251,0.636762,0.222089,-0.738383
-0.612468,-0.433412,0.291933,0.651965,0.318210,-0.688247
0.377936,0.862880,0.692952,0.486747,0.721603,-0.492308
0.339856,0.059346,0.606365,0.803374,0.595156,-0.019474
0.551463,0.194196,-0.944934,-0.143599,0.030355,0.989170
-0.436728,-0.241710,0.507867,-0.320540,0.728456,0.605480
-0.300771,-0.047295,0.283312,-0.468649,0.370007,-0.802161
-0.517936,-0.389556,0.083224,-0.357898,0.591986,-0.722123
0.270141,0.556208,0.609615,0.858316,-0.420917,0.293466
0.745010,0.137655,0.011878,0.058868,0.156778,0.985878
0.047233,0.606248,0.710443,-0.580433,-0.675387,0.454917
-0.714893,-0.271684,0.447576,0.219273,-0.531400,0.818251
0.596931,-0.047609,0.633964,0.340902,-0.602976,-0.721253
-0.347121,0.421866,0.417437,0.580289,-0.685469,0.439769
0.152121,0.753589,0.712364,-0.046937,-0.959012,0.279450
0.033215,0.427481,0.534861,0.526517,0.413953,-0.742578
0.637786,-0.785013,0.381823,0.419401,0.712043,0.563114
-0.002212,0.626187,0.762561,0.757747,-0.614272,0.220204
0.578300,-0.560815,0.596007,0.491029,-0.023114,0.870836
0.322493,0.327780,0.813744,0.292136,0.189095,-0.937496
0.234717,0.586939,0.881011,-0.572726,-0.513531,0.638961
0.136967,0.313456,0.729184,-0.226291,-0.969797,-0.091032
0.453963,0.196718,-0.942539,-0.026165,0.085326,0.996009
0.089036,0.364568,0.687542,0.131171,0.690107,0.711721
0.311755,0.047357,0.785500,0.581038,0.773375,-0.253548
0.355770,0.217352,0.045307,0.733752,-0.344918,0.585355
-0.139873,0.364127,0.740095,-0.114829,-0.802161,0.585962
0.521786,-0.354408,0.761903,0.372241,0.891026,0.259824
-0.526272,0.531598,0.447931,-0.129556,-0.662570,0.737710
0.070913,0.410190,0.851530,0.268460,0.885170,-0.380004
-0.402818,0.454741,0.662207,0.644332,0.439987,0.625498
-0.423342,0.565673,0.594349,0.824691,0.497555,-0.268932
0.150668,-0.200568,0.866059,0.929743,-0.361649,0.069195
0.156858,-0.257611,0.845449,0.517598,-0.839244,-0.166617
0.435841,0.510837,0.689556,-0.638658,-0.057553,0.767336
0.190702,0.500679,0.877602,0.365474,0.430638,-0.825215
0.754861,-0.060103,0.586913,0.445673,0.315555,-0.837736
-0.122383,0.326014,0.799175,0.519581,0.266316,0.811857
0.165129,0.701405,0.859716,0.896966,0.404744,0.177857
-0.102364,0.396371,0.777841,-0.581007,-0.797295,0.163558
-0.533152,0.326330,0.358489,-0.011088,-0.993794,0.110686
-0.210093,0.106359,-0.113903,0.172754,0.504575,0.845908
0.341879,0.511596,0.421425,-0.256372,0.186076,-0.948498
-0.344153,-0.135132,0.544323,-0.528019,-0.020671,-0.848981
-0.740782,-0.371951,0.438758,0.170789,0.336067,-0.926224
0.218553,0.579113,0.825497,-0.310216,0.924518,-0.221433
-0.481752,-0.207572,0.487336,0.532481,-0.821245,0.204988
0.006313,0.117589,0.833670,0.531718,0.732256,0.425532
0.474865,0.155135,0.103163,-0.027594,0.071862,0.997033
0.421950,0.084082,0.674658,0.926486,0.303434,-0.222603
0.362021,0.411706,0.332772,0.283967,0.006399,0.958813
-0.926181,0.197477,0.064219,0.438039,-0.860905,-0.258774
-0.499813,-0.005900,0.476833,0.962149,0.271617,0.022193
-0.228720,0.145229,0.142173,0.722493,-0.365736,-0.586721
-0.368088,0.030699,0.513368,0.011353,0.444420,0.895747
-0.568202,-0.437009,0.297605,0.050939,-0.261649,0.963818
0.260922,0.201199,0.683449,-0.222224,0.877370,0.425252
0.254609,-0.275406,0.750939,0.902037,0.228937,-0.365948
0.051527,0.808235,0.735672,0.251629,0.967554,0.022868
-0.098386,0.526803,0.691109,-0.671976,-0.385052,-0.632601
0.595918,-0.686197,0.546205,-0.534408,-0.166707,0.828623
0.218614,0.520997,-0.039213,0.390508,0.373799,0.841295
0.227772,-0.031140,0.705915,0.622387,-0.129701,-0.771889
-0.216471,0.528253,0.754453,0.721522,-0.025268,0.691930
0.276269,0.585235,-0.229523,0.978165,0.121505,0.168609
-0.409070,0.120177,0.752663,-0.550528,-0.694496,-0.463244
0.241158,0.199243,0.986970,0.218533,0.973844,-0.062216
0.166706,-0.075690,0.876312,0.693924,0.567918,-0.442650
-0.128885,0.044707,0.619697,0.083805,0.865030,0.494671
0.798560,0.004385,-0.071669,0.224449,0.556842,0.799718
0.452576,0.114939,0.843225,0.033611,-0.894017,0.446771
0.754672,0.009750,0.588768,-0.407716,-0.081326,0.909480
-0.463314,0.619499,0.602561,0.947177,0.086572,-0.308807
0.308159,0.223663,0.973546,-0.420755,0.890792,0.171625
-0.429844,-0.271998,0.407185,0.321672,0.031671,-0.946321
0.586132,0.593374,0.726736,-0.541171,-0.040091,0.839956
-0.671321,-0.344880,0.419425,0.027301,-0.896416,0.442372
-0.432307,0.127938,0.476530,0.022518,-0.951294,0.307460
-0.372316,0.327275,0.406474,-0.337363,0.469490,-0.815945
-0.148333,0.487049,0.128525,0.534346,0.544757,-0.646308
0.322111,0.500111,0.328784,0.363224,-0.283794,-0.887429
0.417025,-0.689983,0.736054,0.218111,0.723172,-0.655324
0.132292,0.173750,0.889776,-0.125916,-0.954389,-0.270714
-0.769072,-0.046789,0.421070,0.121010,-0.857056,-0.500811
-0.515218,-0.383941,0.565802,0.090801,0.934625,0.343847
0.300073,0.627638,0.534110,-0.087317,-0.359805,0.928933
-0.210282,-0.330936,0.623158,-0.085875,0.483218,0.871278
-0.027218,-0.349865,0.755296,-0.633282,0.060462,-0.771556
0.618399,0.267834,-0.943118,0.097323,-0.083144,-0.991774
0.713563,0.275218,0.641413,0.087422,-0.987828,0.128656
0.143153,-0.230414,0.591440,0.952588,-0.240032,0.186980
0.737305,0.226755,0.875312,-0.859651,0.176884,0.479282
0.453081,-0.156334,0.161612,0.026180,0.378766,0.925122
-0.071041,-0.114624,0.775195,0.214180,0.341871,0.915014
0.604759,0.413410,0.609839,0.754017,0.643325,0.132630
0.373010,0.296483,-0.945039,-0.109581,-0.112705,-0.987568
0.103751,0.168701,0.894264,-0.191224,0.967470,0.165635
0.491538,0.308409,0.878523,0.954045,-0.081478,-0.288372
0.760292,0.306516,0.770378,-0.707528,-0.700591,0.092608
0.685590,0.624546,0.729263,-0.146808,0.698281,0.700608
-0.032965,0.790062,0.732606,0.471764,-0.807785,0.353442
0.380649,0.543146,0.323427,-0.087230,0.094258,0.991719
0.611831,0.625304,0.179432,-0.731056,0.400633,0.552313
0.017552,-0.407856,0.705652,-0.265212,0.607493,0.748742
0.489642,0.707777,0.339339,0.126197,-0.235491,0.963648
0.545528,-0.462250,0.584794,0.145528,0.262912,0.953781
0.280563,0.431330,0.867046,0.820027,0.414833,-0.394297
-0.022798,0.238113,0.791173,0.670081,0.459689,0.582819
-0.066874,0.218679,0.808230,0.577642,0.112555,0.808493
-0.244002,0.237356,0.850174,-0.437293,-0.867693,-0.236396
-0.363413,-0.093169,0.520028,0.984730,0.137689,0.106531
0.710280,0.059789,-0.073775,0.174146,0.512689,0.840728
0.177949,0.722732,0.321848,-0.037961,-0.335350,0.941329
0.356845,-0.162518,-0.236841,0.841043,0.150088,-0.519730
-0.052413,-0.427670,0.774550,0.503335,0.651909,0.567159
0.215708,0.189021,-0.674250,0.975227,0.210075,-0.069283
0.425423,-0.197350,0.746399,0.914092,0.231963,-0.332610
0.540286,-0.557595,0.609208,0.173995,0.233721,0.956609
0.606150,-0.592050,0.359423,0.262656,-0.534364,-0.803409
-0.504484,-0.345891,0.580371,-0.437206,-0.576452,-0.690329
0.009975,0.010066,0.258622,-0.161420,-0.148179,0.975698
0.354255,0.725509,0.062904,0.864038,0.065358,-0.499166
0.248419,0.175391,0.888368,0.389350,0.910265,0.140802
0.316935,-0.315476,0.750584,0.328516,0.236493,-0.914411
-0.553803,0.119925,0.608431,0.046930,-0.593104,0.803757
0.342130,0.656728,0.126603,0.870946,-0.480109,-0.104639
0.278732,-0.174444,0.553812,0.163414,-0.861597,0.480570
-0.811063,-0.250418,0.108954,0.247418,-0.344122,0.905740
-0.302540,-0.182206,0.400828,-0.223636,0.661781,0.715565
-0.574388,-0.120114,0.325744,0.193776,-0.584305,0.788060
0.139048,0.544787,0.706402,-0.642250,-0.721215,-0.259545
0.078302,-0.558415,0.657048,-0.435354,-0.764615,0.475217
0.204408,0.529641,0.318992,0.458894,-0.301785,0.835669
-0.584239,-0.274145,0.303752,0.539531,0.025752,-0.841572
0.007705,0.149772,-0.970151,-0.190699,-0.156442,0.969103
0.418474,0.349993,-0.951975,0.111099,0.014201,0.993708
-0.125917,-0.089508,0.644979,0.758970,-0.349799,0.549186
-0.535996,0.226312,0.617749,-0.099959,0.832760,-0.544536
0.555757,0.146931,0.812704,-0.495979,0.728374,0.472733
0.130399,0.919042,0.507907,-0.013992,0.021229,0.999677
0.896942,-0.242594,0.116114,0.377492,-0.007837,-0.925980
0.648709,0.315665,-0.050756,0.963533,0.041087,0.264415
-0.704853,-0.131787,0.295815,-0.112626,-0.500847,0.858177
0.786180,-0.391324,0.733593,-0.054626,0.708454,0.703640
-0.015976,0.454993,-0.164520,-0.119213,-0.891485,-0.437084
0.489326,-0.079980,0.401907,-0.504471,0.863303,-0.014763
0.314534,-0.109890,0.875364,0.506761,-0.765290,-0.396894
-0.060496,-0.438459,0.617380,-0.080581,0.883881,0.460717
0.847562,-0.028552,0.445194,-0.276321,0.503417,0.818668
-0.234467,0.362675,0.571791,-0.735104,0.569028,0.368551
0.279931,0.264994,0.594783,0.060320,0.975617,0.211026
0.547358,-0.227828,0.558972,0.963216,0.007848,0.268615
0.466655,0.107997,0.432770,0.278754,0.113709,0.953607
-0.013578,-0.272566,-0.978666,-0.141878,0.143681,0.979401
0.061316,0.548635,0.349894,-0.520708,0.569849,-0.635716
-0.669995,0.250166,0.665866,-0.705622,0.653593,-0.273704
0.083228,0.109829,0.572699,0.294632,0.729755,0.616968
0.593077,-0.303487,0.511947,0.757363,-0.071697,-0.649046
-0.389240,0.578735,0.788343,-0.336490,-0.914246,0.225673
0.399342,-0.032402,0.601613,-0.655071,-0.084680,0.750807
0.618588,0.421739,0.770510,-0.547877,0.762132,-0.344943
0.141765,0.768985,0.323151,0.842813,-0.535832,0.050500
0.896121,-0.071840,0.456499,-0.432875,0.540723,0.721275
0.596615,0.332324,0.763521,-0.588289,0.805777,-0.068112
0.497535,0.734532,0.137935,0.173143,0.973600,-0.148743
-0.170942,0.097271,0.519449,0.578504,0.790911,0.199480
0.025195,-0.101941,0.604522,0.721506,-0.602850,-0.340588
-0.746212,-0.150024,0.297013,-0.162652,-0.489757,0.856553
-0.029427,0.255150,0.889170,-0.457731,0.074693,0.885948
0.196637,0.359837,0.910636,0.649772,0.640119,-0.409931
-0.086639,0.421234,0.466910,0.328411,0.940894,0.082857
-0.101732,0.137530,0.851674,-0.722957,-0.665290,-0.186341
0.444682,0.186560,0.472266,-0.335540,0.941047,-0.042934
-0.028483,-0.233759,0.618960,0.433574,-0.023335,-0.900816
-0.316812,0.470264,0.392181,0.650966,0.544083,-0.529355
0.608486,0.256097,0.852254,-0.013621,0.400136,0.916355
0.587458,-0.385581,0.747478,0.707809,-0.642372,-0.293878
0.270395,0.305316,0.874759,-0.682796,-0.281572,-0.674171
0.161025,0.598044,0.682673,0.951782,-0.265930,0.152949
0.538266,-0.780533,0.438850,-0.795402,-0.601143,-0.077222
0.472402,0.079539,0.876838,0.887326,-0.328352,0.323785
-0.302478,0.121314,0.134131,-0.331607,-0.075891,-0.940360
0.557337,0.451208,0.562065,0.264768,-0.950448,0.162930
-0.459525,0.012147,0.643874,0.839141,0.353043,0.413767
0.255873,0.174255,0.911807,0.261669,0.719767,-0.643013
0.643787,-0.139738,0.219692,0.980760,-0.019219,0.194267
0.833795,-0.262596,0.672210,-0.271704,-0.916711,-0.292947
-0.581272,-0.122132,0.303172,0.310152,0.542862,-0.780453
0.064092,-0.150340,0.608536,0.798657,0.588003,0.128056
0.405466,0.150908,0.368149,0.162571,-0.977544,-0.134087
0.563650,0.089825,0.432836,0.082081,0.101725,0.991421
-0.034225,0.671872,0.665642,0.857565,-0.411463,0.308676
-0.725566,-0.037892,0.392852,0.783805,0.320419,0.531960
0.074640,0.196593,0.878286,0.788876,-0.225144,-0.571825
0.818702,0.073860,0.186104,0.140601,0.655933,0.741608
-0.784670,0.015302,0.408725,-0.523869,-0.585396,-0.618767
-0.674351,-0.487805,0.260333,0.820398,0.537150,-0.196001
0.122001,0.733964,0.666063,-0.278074,-0.479201,-0.832491
0.279804,0.143272,0.895119,0.683277,0.724862,0.087795
0.783024,-0.040290,0.443114,-0.119067,0.164784,0.979117
0.379388,-0.675533,0.436771,0.763043,0.506763,0.401194
0.076344,-0.257674,0.874535,-0.693974,0.698983,-0.172693
-0.068200,0.525478,0.708416,0.170622,-0.960566,0.219546
0.431293,0.597349,0.149951,0.480802,-0.034850,0.876137
0.048686,0.577536,0.642676,0.357254,0.782347,-0.510198
0.720320,0.073040,0.775129,0.050578,-0.860587,0.506787
0.403258,0.449756,0.329152,-0.461120,-0.109605,-0.880542
0.228720,-0.057390,0.838040,-0.479286,-0.255813,0.839550
0.151362,0.100425,0.700111,0.096779,0.874215,0.475795
-0.211862,0.057896,0.517067,0.894830,0.132994,-0.426136
0.252778,-0.204858,0.530280,0.764275,-0.171098,-0.621779
-0.017240,0.769805,0.712022,0.626074,0.745321,-0.229188
0.303927,0.771951,-0.081579,-0.184227,-0.032718,-0.982339
-0.851478,0.016313,0.340958,0.102102,-0.782076,0.614762
0.259029,0.089447,0.177352,0.827823,0.547761,0.121108
-0.807718,-0.181827,0.286721,-0.365418,-0.677371,0.638466
-0.590618,0.127118,0.150148,-0.243115,-0.048168,-0.968801
0.154646,0.767156,0.860282,-0.654367,-0.683612,0.323231
0.265531,-0.291307,0.539177,0.312362,0.205197,0.927537
0.744251,-0.002492,0.437942,-0.309831,0.053978,0.949258
0.071861,0.230289,0.887736,0.671623,0.191364,0.715753
-0.037825,-0.559931,0.564934,0.489076,0.870086,-0.061271
-0.489457,-0.064964,0.514197,-0.438578,0.540980,-0.717628
0.702637,0.680771,-0.933365,-0.319362,-0.152770,0.935238
0.175359,-0.169269,0.716299,-0.598306,-0.751106,0.279050
0.560682,0.687331,0.326494,0.484026,-0.294823,0.823892
-0.249938,-0.131092,0.599626,0.720893,0.362418,0.590733
-0.299005,0.545921,0.643071,-0.641448,-0.043469,-0.765934
0.604127,-0.700268,0.169916,0.345792,0.428183,0.834918
0.758777,-0.028552,0.591953,0.306021,0.259469,-0.915984
0.009913,0.546112,-0.059429,0.064059,0.366614,-0.928165
-0.136019,0.621517,0.536124,-0.171898,0.126726,0.976930
-0.085502,-0.108756,0.733422,0.923419,-0.321589,0.209469
0.925610,-0.141379,0.112863,0.171691,0.222374,-0.959725
0.350150,0.610979,0.166008,0.422225,-0.097294,0.901255
-0.016862,-0.025273,0.688648,-0.587139,-0.235669,-0.774421
0.305947,0.110206,0.717326,-0.317226,0.922217,0.221096
0.793253,0.096830,0.180722,0.007134,0.606740,0.794868
0.623703,0.285251,0.686568,-0.085207,0.399603,-0.912720
-0.204030,-0.066666,0.709771,0.054459,-0.618503,0.783893
-0.637662,-0.490771,0.423136,0.428281,-0.464917,0.774873
0.086195,0.001610,0.539375,-0.414611,0.201842,-0.887332
0.316176,0.242342,0.708297,0.934106,0.338823,-0.112452
-0.154584,0.202649,0.824892,-0.610189,0.185572,-0.770216
0.090867,-0.398644,0.673065,0.942154,0.321975,-0.093162
0.128630,0.119041,0.098438,-0.100567,0.991894,-0.077666
0.615242,0.235968,0.734501,0.109518,-0.559629,0.821475
0.650227,0.046032,0.235538,0.322179,0.479949,-0.815996
0.396752,0.773530,0.451143,0.263783,-0.513484,0.816549
-0.381158,0.500552,0.110310,0.034491,-0.404219,0.914012
0.646311,0.558542,0.727394,0.478159,0.569662,-0.668468
0.520583,0.339012,0.282536,-0.455082,0.366722,-0.811428
0.020142,0.299574,0.751597,0.714739,-0.284753,0.638799
0.546537,0.570784,-0.169337,-0.908955,0.287531,-0.301872
-0.511811,-0.331504,0.552180,0.967464,-0.248825,-0.045829
0.238506,-0.176021,0.409896,0.924938,-0.107614,-0.364568
0.280690,0.923962,0.346986,0.411487,0.126327,-0.902618
0.650289,-0.729169,0.550101,0.400830,0.559246,-0.725657
-0.346173,0.218931,0.604864,-0.130215,0.363647,0.922391
-0.084114,0.524406,0.739660,0.207575,0.864625,-0.457533
-0.522796,-0.363496,0.572014,0.617257,-0.608333,0.498923
-0.303993,-0.149835,0.074288,0.889461,0.306521,0.338976
-0.217292,0.459852,0.757823,-0.454513,0.442270,-0.773185
0.008587,-0.454678,0.687713,0.726756,-0.451623,0.517554
0.216911,0.657990,0.646243,0.815513,-0.297417,0.496469
0.384437,-0.733712,0.705468,0.281199,0.930719,-0.233857
0.521848,-0.668591,0.617249,-0.202275,0.736951,0.644971
0.224804,-0.007350,0.806861,-0.716053,0.360207,0.597928
0.076090,-0.396182,-0.978653,-0.031123,-0.251416,0.967379
0.578805,-0.446285,0.586255,0.389979,0.488297,0.780693
0.269070,0.798579,0.330600,0.302509,0.350203,-0.886480
0.760419,-0.234264,0.639215,-0.057616,0.313713,0.947768
0.028729,-0.316801,0.683462,0.226783,0.362492,0.903974
0.413487,0.219183,0.844067,0.264676,-0.862516,0.431293
-0.137788,0.232687,0.823720,0.768419,-0.228726,0.597676
0.479540,0.569964,-0.938248,-0.150009,-0.202212,0.967785
0.150857,-0.164031,0.823049,0.094370,0.936931,0.336534
0.531194,-0.368670,0.135948,-0.668240,-0.098377,-0.737413
0.119788,-0.651679,0.638346,-0.023258,-0.810969,0.584627
0.516544,0.388547,0.710403,0.317938,0.211926,-0.924123
0.437988,-0.017447,0.652021,0.857694,0.467941,0.213056
-0.461922,0.216407,0.384482,-0.470649,-0.633160,0.614491
-0.506188,0.056760,0.529899,-0.813964,0.311065,-0.490614
0.046285,0.321596,0.630778,0.486781,0.728233,-0.482412
-0.249498,-0.277425,0.582109,-0.340913,-0.526534,0.778807
0.709647,0.196341,0.594335,-0.337284,-0.549437,0.764434
0.226130,0.527433,0.800622,0.857427,0.282847,0.429903
0.777088,-0.000915,0.235037,0.283349,0.486992,-0.826167
0.329311,0.139234,-0.811507,0.491060,-0.868491,0.067706
0.208952,0.302603,0.717813,-0.448693,-0.857186,-0.252797
0.078364,0.770878,0.738502,-0.007392,-0.993649,0.112280
0.470132,0.691056,0.130946,0.775613,-0.613637,0.147899
0.014711,0.647641,0.759218,-0.114913,-0.983123,-0.142355
-0.537889,-0.335920,0.534505,0.226903,-0.929255,-0.291547
-0.275449,0.505349,0.325059,-0.138819,-0.353040,0.925253
0.019194,-0.080360,-0.978547,-0.377132,-0.204626,0.903272
-0.428202,-0.085975,0.467278,0.694998,0.307301,-0.650033
0.295529,0.199116,0.941802,-0.578061,-0.811901,-0.081623
0.571798,0.083577,0.165428,-0.539304,0.046004,0.840853
-0.085313,0.191735,0.860084,0.018522,0.771613,0.635822
0.269763,0.803249,0.664405,-0.147531,-0.574289,0.805250
0.269320,0.033033,-0.241868,0.960317,0.158404,0.229563
-0.750506,0.068622,0.113231,0.729734,-0.563715,-0.386929
0.584552,0.711374,-0.195330,0.560073,-0.779052,-0.281774
0.602424,0.715223,-0.193475,0.560073,-0.779052,-0.281774
0.194934,0.262976,0.866665,0.464294,0.742958,-0.482125
0.288140,-0.165420,0.458842,0.953956,-0.184775,0.236274
0.255557,-0.640764,0.537572,0.727013,0.448364,-0.520021
0.424853,0.391387,-0.951014,0.036641,-0.012930,0.999245
0.320913,0.174886,0.961859,-0.664454,-0.385335,-0.640326
0.209206,-0.034799,0.812547,-0.062602,-0.839866,0.539172
-0.803362,0.000221,0.325151,0.019564,-0.888779,0.457918
0.694998,0.408297,0.489349,-0.645662,0.763517,0.012743
-0.573062,0.128947,0.375230,0.923971,0.359613,-0.130214
0.776899,0.061934,0.113061,-0.137264,0.167358,0.976294
0.138986,-0.268780,0.671104,-0.854296,0.493150,-0.164263
0.072682,-0.189587,0.501787,0.853116,0.381731,0.355633
0.706425,-0.280706,0.335707,-0.586637,0.361165,0.724857
0.794201,0.025525,0.179129,0.007134,0.606740,0.794868
0.428769,0.128190,0.831670,-0.053628,0.991595,-0.117747
0.102360,0.580817,0.825523,0.955838,-0.241300,0.167774
-0.574831,-0.323868,0.586044,-0.661680,-0.110727,-0.741565
0.189503,0.581449,0.318202,-0.373001,0.269558,-0.887811
0.640187,-0.736803,0.382271,0.365485,0.512596,0.776959
0.196703,-0.288657,0.714733,-0.699549,0.510900,0.499613
0.393406,-0.202777,0.615814,0.230230,0.409133,0.882952
0.786119,0.177348,0.428479,-0.027655,-0.738952,0.673190
0.676686,0.098533,-0.139014,0.690268,0.706589,-0.155760
