-0.023973,0.060704,0.971248,-0.769036,-0.074940,0.634798
0.825815,-0.140925,0.136156,-0.406959,0.876656,-0.256629
-0.010326,0.839199,0.535395,-0.158870,-0.605288,0.779992
0.596496,0.162031,0.496942,-0.096947,0.785037,-0.611815
0.343701,0.498797,0.441441,0.697508,0.085623,0.711443
0.359926,-0.307360,0.498931,-0.641416,0.047326,0.765732
-0.745790,0.470468,0.462020,0.796577,0.578954,0.174005
-0.132145,-0.357512,0.245968,0.272761,-0.244614,0.930465
-0.026614,0.111623,0.082657,-0.463694,0.841863,0.276143
-0.434173,-0.098202,0.559709,0.893407,0.373921,-0.249013
0.214691,-0.479791,0.268726,0.297268,0.535180,-0.790705
0.410018,0.070847,0.160537,-0.485010,-0.690198,-0.537021
-0.504610,-0.363505,0.486862,-0.583519,0.799541,0.142265
-0.746098,0.446596,0.477661,0.280293,0.650333,0.706047
0.024461,0.015163,0.910564,0.011552,0.401667,0.915713
-0.470254,0.427487,0.588597,-0.144419,-0.743252,0.653238
0.135341,0.281236,-0.021229,0.863169,-0.501548,0.058208
-0.271423,-0.099329,0.579951,0.028052,-0.997093,0.070847
-0.362447,0.471901,0.210978,-0.250235,-0.129678,0.959461
0.195697,0.560371,0.011880,-0.159260,0.977885,-0.135561
-0.243640,0.902924,0.516561,0.406463,0.832637,-0.376170
0.544191,-0.661032,0.277507,-0.002622,-0.139529,0.990214
0.298523,-0.021106,0.479366,-0.564370,0.430053,-0.704657
0.139644,0.073255,0.719232,0.328194,0.880976,-0.340837
0.082420,-0.313457,0.460397,-0.540830,0.556048,-0.631120
0.787401,0.209210,0.339192,0.514263,-0.680200,0.522361
-0.075476,-0.194253,0.634938,0.516611,0.125343,-0.846996
0.177751,0.027867,0.299237,-0.005168,-0.115776,0.993262
-0.501968,0.376620,0.455472,0.543279,0.500817,0.673817
-0.470438,-0.448337,0.340491,0.973685,0.133153,-0.184954
0.446095,0.093642,0.133531,0.408093,-0.364791,0.836892
-0.684327,0.273807,0.507753,0.317283,-0.297864,0.900338
-0.258146,0.185647,0.698747,-0.107918,-0.446514,0.888245
-0.049111,0.169202,0.904638,-0.577162,-0.464857,-0.671410
0.225074,0.142155,0.862194,0.738906,0.088138,-0.668019
-0.072711,0.433481,0.598798,0.766957,-0.102058,-0.633531
0.060662,0.389632,0.571643,0.963654,0.084627,0.253397
0.057406,0.027714,0.915949,0.062266,-0.130576,0.989481
0.129316,0.529583,0.301862,-0.105986,0.642144,0.759222
0.287952,0.216433,0.641527,-0.303702,-0.587739,0.749885
0.216101,0.297013,0.769741,0.878998,-0.359651,-0.313073
-0.017026,0.119820,-0.106700,0.247618,0.955242,-0.161857
-0.513647,-0.552020,0.359095,-0.620692,0.520038,0.586773
-0.365151,0.129963,0.692807,-0.185453,0.655978,0.731642
-0.290844,-0.572357,0.076243,0.618168,0.430083,-0.657949
0.408544,0.048512,0.475348,-0.712738,0.684546,-0.152974
-0.615430,0.084525,0.327718,-0.009353,0.797370,0.603418
0.314444,0.114850,0.304460,0.647671,-0.331697,0.685930
0.125753,0.606423,-0.291024,0.082750,0.527659,0.845416
0.062568,0.044977,0.625047,-0.758289,-0.633497,-0.153884
0.325998,0.218586,0.322482,0.037237,0.572125,0.819321
0.017825,0.057733,0.893137,0.324070,0.892999,-0.312300
-0.629013,-0.350442,0.659685,-0.468776,-0.775852,-0.422259
-0.060909,0.538292,0.496008,-0.621098,-0.328676,0.711484
-0.372219,0.213719,0.770877,0.385418,0.763236,0.518579
-0.605166,0.064802,0.226295,0.901922,0.412222,0.128874
0.029379,0.241740,0.846512,0.308560,0.262028,-0.914402
0.204115,-0.258081,0.659577,0.877483,0.152469,-0.454726
-0.406211,-0.182265,0.424622,0.615890,-0.754190,-0.227765
-0.119176,-0.037447,0.832102,0.812276,0.498599,-0.302666
-0.056607,0.460786,0.702671,0.967811,0.213394,0.133438
-0.119424,-0.165771,0.432321,-0.170768,0.301043,0.938196
-0.004305,-0.278930,0.795800,0.830024,0.514461,-0.215385
-0.524034,-0.259208,0.420076,0.563582,-0.285742,-0.775066
-0.445484,-0.366016,0.503220,0.025499,-0.950641,0.309244
-0.273880,0.131807,0.254817,0.287109,0.557005,-0.779304
0.714260,0.187694,0.369581,-0.490291,0.871529,0.007231
-0.233500,-0.037908,0.810941,0.078482,-0.891292,-0.446586
0.394529,0.684749,0.448625,0.465254,-0.434404,-0.771253
0.412907,0.064905,0.216161,0.227334,-0.796992,0.559574
0.077442,0.001639,0.373234,-0.051200,0.257652,0.964880
-0.161586,0.310640,0.561130,-0.623512,-0.129706,-0.770979
-0.235402,-0.283387,0.551727,-0.300384,-0.221855,0.927658
-0.480578,-0.040725,0.522799,0.256165,0.837558,0.482572
-0.016902,-0.399313,0.137563,-0.476053,-0.279639,0.833772
-0.852368,-0.103735,0.385114,0.361875,-0.920976,-0.144395
-0.278427,-0.575277,0.086621,0.361061,0.597198,-0.716233
-0.202889,0.094769,0.779077,0.410291,0.486205,0.771535
-0.070190,0.095743,0.071048,0.181785,-0.982988,-0.026258
0.501905,-0.849443,0.329234,-0.390500,0.459858,-0.797522
-0.222433,-0.515086,0.247159,-0.308257,0.471357,-0.826317
-0.228949,-0.578299,0.233182,-0.314959,0.477384,-0.820308
0.148186,-0.608113,0.466039,0.901486,0.332145,-0.277493
0.656053,-0.344142,0.114954,-0.262489,0.303331,-0.916018
-0.222621,-0.328825,0.741286,-0.710211,-0.524985,-0.469033
0.322862,0.583218,0.282108,0.041539,0.729016,0.683235
0.034173,-0.603094,-0.078665,-0.134237,-0.298457,0.944936
-0.295762,0.470315,0.537344,0.911470,0.155787,0.380726
-0.305778,-0.211413,0.550306,0.238849,-0.021125,-0.970827
0.460726,-0.471082,0.302078,0.491107,0.441669,0.750828
-0.618318,-0.498847,0.142975,0.693189,-0.314932,-0.648310
0.469759,0.062190,0.301496,-0.296218,0.924639,0.239369
0.269881,0.250191,0.109907,0.172033,-0.015553,-0.984968
-0.035528,-0.245120,-0.234995,0.262888,-0.930548,-0.254894
0.063858,-0.008299,-0.161228,0.737266,0.675590,-0.004227
-0.459191,-0.080374,0.683891,0.784244,0.231008,0.575845
0.063551,0.236104,0.068815,0.842643,-0.397506,-0.363237
-0.308850,0.279186,0.463982,0.411593,0.370511,0.832654
0.624339,0.610932,-0.932984,-0.284575,-0.089086,0.954506
-0.319913,0.159878,0.686570,-0.167842,0.857566,0.486219
0.032575,0.551099,0.543270,-0.059660,0.176568,0.982479
-0.597295,-0.153065,0.604481,0.476233,0.156590,0.865264
-0.236509,-0.491982,0.238404,-0.465341,0.589110,-0.660612
0.354149,0.382204,0.494128,-0.295726,-0.486140,0.822322
0.780026,0.142103,-0.112505,0.289483,0.804629,0.518432
0.400797,0.526048,0.421997,0.732989,-0.355898,0.579710
-0.058944,0.537883,0.296139,0.365628,0.099726,0.925403
-0.445052,-0.263614,0.588394,-0.138545,0.895866,-0.422172
-0.436510,-0.101123,0.573375,0.896025,0.437035,0.078361
-0.543639,0.210594,0.739947,0.807361,0.011019,0.589956
0.071050,-0.251831,0.538196,-0.574904,0.138462,0.806420
-0.144438,0.213974,0.459693,-0.286740,0.408309,0.866639
0.023846,-0.010450,0.685839,-0.572790,-0.523239,0.630978
0.133743,0.074688,0.375304,0.206113,0.657396,0.724809
0.367976,-0.388095,0.297735,0.855101,0.324813,0.404102
0.075536,-0.491624,0.429047,0.715430,0.530412,-0.454779
0.016471,-0.013575,-0.078151,-0.150974,-0.152424,0.976716
0.240811,-0.200042,0.707055,0.767599,-0.133003,-0.626979
-0.023973,0.045540,0.903123,0.122343,-0.938812,-0.321969
-0.040138,0.057425,0.518550,-0.535032,0.686004,-0.493092
0.104238,0.187440,0.523678,-0.603522,0.470831,-0.643489
-0.747636,-0.444546,0.475158,-0.604488,-0.661927,-0.443223
0.210695,-0.436350,0.387928,-0.028904,0.555462,0.831039
0.497111,-0.025101,0.418615,0.198876,-0.415818,0.887437
0.420222,-0.618154,0.346458,-0.387340,-0.419414,0.821011
0.496064,0.209467,0.452441,0.021946,0.025299,0.999439
-0.357101,-0.544336,0.347215,0.832787,0.547127,-0.084369
-0.670376,0.083909,0.257685,-0.029748,-0.999542,-0.005615
0.741732,0.148712,0.496035,-0.710407,0.365955,0.601165
-0.467242,0.063418,0.234832,-0.734955,-0.640338,0.223177
-0.023478,0.136879,-0.076176,0.256425,0.958203,-0.126860
0.658143,-0.706573,0.282135,0.080383,-0.383398,0.920078
-0.215737,-0.104964,0.674731,0.939857,-0.336368,0.059383
-0.569392,-0.111623,0.061604,0.973179,-0.125496,-0.192806
-0.646469,0.486092,0.423892,0.484618,0.685051,0.543921
0.222557,-0.315404,0.683553,-0.705286,-0.020865,0.708616
0.782299,0.183955,-0.127253,0.230327,0.847579,0.478079
-0.456487,-0.423851,0.303350,0.884023,0.122116,0.451211
-0.313153,-0.516110,0.265939,0.797598,-0.379007,0.469245
-0.014197,0.028380,-0.942117,0.849110,-0.406227,0.337628
-0.356426,-0.379181,-0.120001,-0.504817,0.249253,0.826458
-0.108789,0.675990,0.491286,0.696157,-0.176495,-0.695855
-0.477506,0.452282,0.588326,-0.294086,0.142055,-0.945163
0.102580,0.065776,0.519592,0.742521,0.113469,0.660142
-0.147510,0.101737,0.654503,0.949698,-0.281470,-0.137290
0.626305,0.071000,0.484521,-0.760524,0.484472,-0.432308
0.633252,0.052148,0.205837,0.641374,0.764647,-0.062889
0.064781,0.180882,0.736213,0.788520,-0.457008,-0.411558
0.718747,-0.158753,0.120190,-0.251941,0.966775,-0.043259
0.028516,0.046258,0.691779,0.928314,0.009011,-0.371687
0.589672,0.370780,0.084524,0.831710,-0.061754,-0.551765
-0.215921,-0.101685,0.180089,-0.622169,0.718802,-0.310209
0.539704,0.278367,0.450682,0.071709,-0.017877,0.997265
0.470127,0.320936,0.082914,0.380187,0.452708,-0.806544
0.060662,0.151324,0.673730,-0.015629,0.734313,0.678631
0.583652,0.549357,0.484169,0.305312,-0.175151,-0.936006
-0.550215,-0.207264,0.410565,0.796411,-0.381323,-0.469385
0.298031,-0.020696,0.434892,-0.515411,0.595251,-0.616464
-0.694224,-0.307515,0.411322,-0.195274,-0.825951,0.528841
-0.443638,0.030020,0.102289,-0.580759,0.313601,0.751248
0.147387,0.485324,-0.283339,-0.065033,0.015951,0.997756
0.077074,-0.542133,0.483669,-0.333249,0.537177,0.774846
-0.329194,-0.040982,0.794853,-0.141436,-0.988305,0.056995
0.741612,0.090057,0.235725,0.039733,-0.957449,0.285854
-0.554334,-0.041033,0.563944,0.673617,-0.621861,0.399409
0.516040,0.524307,0.455959,0.798241,-0.103002,-0.593465
0.083527,0.059474,0.704795,0.094098,-0.995546,0.005791
-0.030733,0.085191,0.808140,0.904771,-0.301282,-0.301028
-0.521573,-0.311716,0.593846,0.511010,0.513993,0.688970
0.589429,0.160544,0.215890,-0.024207,0.464535,0.885224
-0.018871,0.153373,0.697205,-0.320192,0.825965,-0.463960
0.031712,0.068080,0.956297,-0.400357,-0.916267,-0.013017
-0.631594,0.039085,0.325770,-0.026331,0.853953,0.519684
-0.420837,-0.617335,0.035246,0.634009,0.119607,-0.764020
-0.502768,0.250909,0.412662,0.491706,0.668952,-0.557430
-0.125752,0.066953,0.778955,-0.257160,-0.868788,-0.423174
-0.620040,0.555966,0.604238,0.198990,-0.919593,0.338750
0.221143,0.310281,0.536586,-0.329441,0.560773,-0.759606
0.210939,0.406383,0.553201,0.306567,-0.586020,0.750065
-0.202029,-0.080990,0.887346,0.809763,-0.550583,0.202837
-0.079044,0.577993,0.484196,0.748837,0.596489,-0.288866
-0.174862,-0.053276,-0.985604,0.204606,0.033037,-0.978287
-0.852983,-0.007633,0.398536,-0.477928,0.125594,-0.869374
-0.096743,0.067569,-0.391243,-0.487087,0.873234,-0.014430
-0.566871,-0.422571,0.234995,0.753709,-0.165952,-0.635911
0.032084,0.499769,0.554405,0.010580,0.278306,0.960434
0.340013,0.003585,-0.965457,0.195386,0.049287,-0.979487
-0.020098,-0.284411,0.764640,-0.606188,0.390254,0.692992
-0.708115,0.267507,0.498444,0.197288,0.687852,-0.698525
-0.727412,-0.527688,0.125778,0.844285,-0.132610,-0.519228
0.362507,0.368270,0.501705,-0.360942,0.387947,-0.848067
-0.087586,0.850981,0.528238,0.688055,0.357038,-0.631747
-0.376338,-0.107832,0.662783,0.525135,-0.226464,0.820333
0.030546,-0.361150,0.550536,0.208590,-0.307743,-0.928324
0.440750,0.229291,0.633301,0.668111,-0.533993,0.518150
-0.177323,-0.312740,0.663067,0.771483,0.276021,0.573259
0.342039,-0.555966,-0.196826,-0.173717,0.021766,-0.984555
0.030606,0.194867,0.340545,0.474649,-0.347329,-0.808747
-0.547942,0.069003,0.166910,0.989399,-0.035414,0.140841
0.279042,0.506634,0.026533,-0.625232,-0.429513,-0.651616
-0.001169,0.660211,0.507320,0.117879,-0.519648,0.846209
-0.416782,-0.396240,0.490799,0.037089,0.653969,0.755612
0.667608,-0.003176,0.114413,0.203137,0.187077,0.961113
-0.838356,-0.159264,0.561644,-0.411907,-0.765629,-0.494111
0.714380,-0.177808,0.583185,0.148417,0.184837,-0.971498
-0.620040,-0.106603,0.572482,-0.626688,-0.748051,0.218363
-0.032268,0.284053,0.480746,0.967586,0.013445,-0.252185
-0.202461,0.038626,0.666450,0.791687,-0.342745,-0.505726
0.088381,0.173762,0.521310,-0.605922,0.577106,-0.547546
-0.071113,0.041749,0.903380,0.267115,-0.816146,-0.512402
0.741304,0.364275,0.079491,-0.462147,0.575491,-0.674707
-0.466319,0.282363,0.714348,-0.698701,0.210991,-0.683594
-0.692194,-0.573484,0.441698,-0.854322,0.497353,-0.150911
-0.381748,0.312688,0.759350,-0.908455,0.180754,-0.376879
0.030546,0.474309,-0.296409,0.595526,-0.769031,-0.232252
0.335279,-0.612622,0.264315,-0.273180,-0.149181,0.950325
-0.583715,0.018390,0.497091,0.347887,0.393198,0.851099
0.001105,0.153731,0.496820,0.767954,-0.635743,-0.077963
-0.342043,0.234466,0.457690,-0.409906,-0.371559,-0.833019
0.321755,0.662568,0.436313,0.674391,-0.076345,-0.734417
-0.068900,0.064034,0.658846,-0.690167,-0.593113,-0.414593
-0.331531,0.536294,0.580979,-0.067002,0.986206,0.151354
-0.655010,0.308334,0.264870,0.878954,0.011651,-0.476764
0.064106,0.333948,0.539509,-0.063251,-0.051180,0.996684
0.006147,-0.462424,0.394220,0.046239,0.258428,0.964923
-0.641427,-0.671123,0.380811,0.277959,0.886741,-0.369362
-0.194838,0.098560,0.856781,-0.576594,0.227878,-0.784609
0.024952,-0.315660,0.487200,-0.428703,0.687531,-0.586101
-0.044317,0.070949,0.970910,0.831913,0.107472,-0.544400
-0.423418,-0.502125,0.535612,0.301275,0.289320,0.908585
-0.250464,-0.013728,0.797397,-0.070450,0.981936,0.175609
0.043331,-0.465293,0.537641,0.749751,-0.577097,-0.323778
-0.086603,0.857025,0.525383,0.716019,0.370290,-0.591778
0.662937,-0.205829,0.580303,0.351602,0.232954,-0.906702
0.021389,-0.264843,0.533636,0.044547,0.377198,0.925060
0.385432,-0.709134,-0.070101,-0.626195,-0.388462,-0.676000
-0.525448,-0.567747,0.362748,0.533839,-0.714171,-0.452742
0.199201,0.459504,0.539779,-0.276830,0.322504,0.905183
-0.136571,-0.196712,0.621949,0.866615,0.316881,-0.385441
0.205777,0.127504,0.664204,-0.500814,0.783403,-0.368056
-0.068592,0.687259,0.505886,0.687199,0.168616,-0.706630
-0.462571,0.564725,0.602005,0.580031,-0.497985,0.644651
-0.225262,-0.047641,0.735928,0.951023,0.200686,-0.235118
0.014505,-0.147022,0.751069,-0.489119,-0.705330,-0.513101
0.138537,0.016136,0.602966,0.223016,0.043493,0.973844
-0.372711,-0.600789,0.252882,-0.442918,0.844381,-0.301402
0.057158,-0.293120,0.665476,-0.510783,-0.741373,-0.435278
0.325323,-0.329234,0.355496,-0.498437,-0.760366,0.416418
-0.072528,0.060038,0.078124,0.837585,-0.535840,-0.106424
0.129932,-0.414221,0.563741,0.218988,0.699246,0.680514
-0.174063,0.546181,0.751339,-0.454337,-0.825767,-0.334196
-0.046099,0.199580,0.892325,-0.742389,-0.048726,0.668195
-0.705594,-0.602889,0.126441,0.844117,-0.098593,-0.527015
0.605038,0.663286,-0.932064,-0.306184,-0.092412,0.947476
0.627044,-0.076533,0.517441,-0.119396,-0.113425,0.986347
0.043271,-0.162747,0.667478,-0.246177,0.745483,0.619396
-0.161402,-0.003893,0.680698,0.940772,-0.050479,0.335262
0.001169,0.112546,0.923581,-0.425388,-0.700804,-0.572642
0.148801,0.406587,0.439479,0.868783,-0.434083,-0.238302
0.327165,0.161415,0.097554,-0.367994,0.287762,-0.884180
-0.314935,0.381230,0.568464,-0.416735,-0.747831,-0.516798
-0.119915,0.878541,0.479529,-0.608320,-0.185297,-0.771759
-0.025508,0.460888,-0.975158,-0.196172,0.108637,0.974533
-0.063307,0.599968,-0.979285,-0.248957,0.002759,0.968511
0.307129,-0.212437,0.367037,0.728057,0.617987,-0.296691
0.059311,-0.004866,0.637766,-0.078285,0.995849,0.046438
0.475353,-0.080221,0.299629,-0.000151,-0.318237,0.948011
-0.327904,0.485425,0.554947,0.989464,0.023127,0.142917
0.651199,0.030531,-0.080357,0.230566,-0.167197,-0.958585
0.061769,-0.912401,0.331453,0.288524,-0.393310,0.872961
-0.129748,0.453101,0.521500,0.914319,-0.377069,0.147783
0.066439,-0.298909,0.783961,0.154552,0.823065,0.546514
-0.104673,-0.419497,0.525058,0.614571,-0.622793,-0.484181
-0.133623,0.543620,0.732519,0.313904,0.221799,0.923184
-0.089308,-0.021772,0.856971,0.992546,-0.101435,0.067552
-0.341488,-0.602479,0.336391,0.821272,0.257135,-0.509308
0.128210,0.347267,0.549196,-0.168020,0.234341,0.957525
-0.543211,0.204652,0.735468,0.835680,-0.059346,0.546000
0.355499,0.071052,-0.098650,0.040398,0.207773,0.977342
-0.781500,-0.098304,0.569384,0.776013,-0.300992,0.554263
-0.256241,-0.123150,0.583631,-0.373990,0.913660,0.159237
-0.000925,-0.500896,0.571318,-0.181147,0.427215,0.885818
0.297232,0.046514,0.727310,0.437888,0.625512,-0.645746
0.191578,-0.662620,0.262516,0.340182,0.085502,-0.936464
0.029315,0.596537,0.682037,-0.210151,-0.977563,0.014390
-0.014996,0.353671,0.517535,0.829381,-0.558502,-0.014260
0.099692,-0.333948,0.799602,0.344649,0.806508,0.480377
0.076643,-0.326316,0.795448,0.296476,0.843470,0.447951
-0.065827,0.845602,0.460667,0.777260,0.296362,0.555010
0.289182,0.433686,0.103724,0.198104,0.414906,0.888036
-0.150279,0.497515,-0.984075,0.202067,-0.040834,-0.978520
0.435280,-0.155576,0.571102,0.294153,0.733269,-0.613018
-0.591274,0.299062,0.699843,0.820564,0.263077,0.507411
-0.150830,0.146612,0.818639,-0.353843,-0.229054,-0.906824
-0.251507,0.191486,0.653569,0.013187,0.995201,0.096963
0.479164,0.318630,0.449505,-0.058628,-0.567748,0.821112
-0.606456,-0.146765,0.467825,-0.676004,0.732131,0.083683
-0.093670,0.107884,0.888605,-0.621961,-0.644435,-0.444824
0.127966,-0.298601,0.772244,0.029920,0.887992,0.458885
-0.061892,0.450079,0.311996,-0.096035,0.035339,0.994750
-0.391951,-0.659290,0.235292,0.507552,-0.633271,0.584259
0.284635,0.808923,-0.954200,-0.387929,-0.137119,0.911433
0.274184,-0.516776,0.045746,0.830349,0.191927,0.523149
0.118869,0.085139,0.672796,0.689159,-0.057378,0.722335
0.082728,-0.472311,0.382949,0.880691,0.278439,0.383218
0.626061,-0.469750,-0.116659,-0.651763,0.398750,-0.645138
-0.315550,-0.683930,0.063525,-0.464681,-0.131533,0.875654
-0.584698,-0.467035,0.237363,-0.750576,0.258355,0.608185
0.004792,0.120434,0.891581,0.588934,0.520996,0.617835
0.644435,0.083807,0.327245,0.290886,-0.924964,0.244593
0.440194,-0.417857,0.508727,-0.720347,0.393339,0.571301
0.376334,-0.231647,0.492220,0.225525,0.582964,0.780571
-0.009834,0.220788,0.318896,-0.607966,0.106724,0.786758
-0.479044,0.194764,0.724130,-0.672769,-0.228392,-0.703718
-0.030118,0.063879,0.842263,-0.766767,0.615961,0.180722
0.050274,0.236873,0.852533,-0.141106,-0.729390,0.669387
-0.356917,0.154193,0.690669,0.175179,0.893369,0.413768
-0.175109,0.146765,0.588570,0.121114,0.896881,0.425366
0.133619,-0.115158,0.652040,-0.412142,-0.058737,0.909224
0.015428,0.055069,0.906343,-0.028366,0.756926,0.652885
-0.485496,0.191690,0.725713,-0.721297,0.054345,-0.690491
-0.005779,0.374417,-0.974387,-0.217940,0.030429,0.975488
0.387769,0.869114,-0.942983,-0.267683,-0.151380,0.951541
-0.292566,0.133907,0.693633,0.327807,0.002768,0.944741
0.057466,0.428922,0.539035,0.085895,-0.151350,0.984741
0.482484,-0.438860,0.288683,-0.161836,-0.357538,0.919769
0.618746,0.012448,0.583672,0.308420,0.506886,0.804949
0.101845,0.649249,0.026262,0.878402,0.414235,0.238369
-0.226308,0.949950,0.520986,0.406463,0.832637,-0.376170
0.144990,-0.278520,0.373356,0.138826,0.094190,-0.985827
0.300860,-0.403053,0.484751,-0.703859,-0.563407,-0.432614
0.377321,0.508631,0.014910,0.651818,0.568870,0.501518
-0.608913,-0.510373,0.584551,-0.734612,-0.502442,-0.455958
-0.383529,0.182829,0.700898,0.665614,0.000747,0.746295
-0.494717,-0.690384,0.401120,0.666623,0.544065,0.509516
-0.192689,0.488499,0.299467,-0.705426,0.708667,0.012834
-0.020590,0.573126,0.679426,0.039790,-0.803231,0.594338
0.099999,0.245428,-0.973305,-0.127078,0.073292,0.989181
-0.461281,0.234619,0.683336,0.475645,0.867362,0.146444
0.041117,-0.105938,0.724969,0.096974,0.398447,0.912051
-0.507498,0.067979,0.496996,0.109026,0.339982,0.934091
0.278978,0.559397,-0.032608,-0.576302,0.816237,0.040410
0.186724,-0.671840,-0.068464,0.712757,-0.108204,-0.693015
0.100922,-0.014446,0.613925,-0.719438,-0.619862,-0.313337
-0.257899,-0.267815,0.725645,-0.465118,-0.520261,-0.716236
0.371788,0.645919,0.562131,-0.519786,-0.184636,0.834106
-0.567734,-0.595666,0.304121,0.865324,-0.435561,0.247993
-0.523663,0.502946,0.418006,0.681853,0.709138,-0.179443
-0.172836,0.716254,0.489622,0.430536,0.299033,-0.851598
0.060846,-0.438194,-0.086351,0.032157,0.106447,0.993798
0.500367,0.433942,0.062415,-0.638449,-0.735532,-0.226661
0.803194,-0.362378,0.056854,-0.003563,0.590174,0.807268
0.013398,0.134265,-0.455485,0.999869,0.000460,-0.016190
0.331036,-0.510015,0.358797,-0.561066,-0.668536,0.488124
-0.641798,-0.080272,0.585471,0.777952,-0.201367,0.595183
-0.366997,-0.043850,0.561888,0.075657,0.362413,0.928942
-0.053410,-0.560524,0.247794,-0.338160,-0.434396,0.834834
0.413706,0.089340,0.642569,-0.000736,-0.964292,0.264841
-0.045176,0.162953,0.808329,-0.348512,-0.931183,0.106947
-0.001169,0.497258,0.688207,-0.680508,0.435251,-0.589462
-0.801660,0.489473,0.473508,-0.554937,-0.523569,-0.646468
-0.424217,-0.408124,0.351248,0.932063,0.106368,-0.346331
-0.135157,-0.411198,0.449410,-0.249359,-0.214746,0.944301
0.775783,-0.254137,0.024328,0.249285,0.813283,0.525764
0.015672,0.607807,0.681699,0.026837,-0.959721,0.279669
-0.066443,0.387377,0.603981,0.806315,-0.012317,-0.591359
0.476827,0.271093,0.711574,0.069710,-0.913880,0.399955
0.056359,0.058860,0.906113,-0.191970,0.664628,0.722092
-0.402951,-0.136314,0.554230,0.364699,0.461855,-0.808508
-0.429751,-0.342810,0.544122,0.851932,-0.033384,-0.522588
-0.312846,0.228216,0.536194,-0.084220,-0.095470,0.991863
0.845544,0.363762,0.055853,-0.559882,0.596159,-0.575436
0.130115,0.466882,0.505547,0.886514,-0.455138,0.083324
-0.030178,0.403872,0.611504,0.835337,0.455747,-0.307420
0.526795,-0.011372,-0.957082,0.327714,0.107338,-0.938660
0.143084,-0.255469,0.661742,0.915318,0.219236,-0.337828
0.116040,0.412991,-0.965511,-0.293311,0.038119,0.955257
0.065520,0.570564,0.521378,0.034434,0.974303,0.222595
0.042655,-0.440141,0.476985,0.847357,-0.142263,-0.511613
0.050890,-0.231084,0.517062,0.875179,-0.470714,0.111761
-0.514446,0.355720,0.570073,-0.661113,-0.582016,0.473484
-0.668718,-0.495773,0.123126,0.813200,-0.252296,-0.524454
-0.458944,-0.064802,0.578544,0.818739,0.557241,0.138383
-0.087893,0.732801,0.501299,0.821404,0.010664,-0.570247
-0.824401,0.428360,0.522244,-0.194031,-0.980947,0.009771
-0.370130,-0.253881,0.593386,-0.626080,-0.367211,-0.687881
0.064597,0.068746,0.723981,-0.058771,-0.870235,0.489119
-0.524342,-0.751293,0.292729,0.643956,-0.738467,0.199967
-0.099080,-0.739254,-0.097459,-0.572756,0.451357,-0.684271
-0.411005,0.332411,0.643773,-0.201452,-0.968545,-0.146075
-0.202337,0.808565,0.482546,0.014753,0.144858,0.989342
0.191270,-0.157880,0.656708,0.859655,0.038340,-0.509434
-0.567551,-0.261103,0.594469,-0.624540,-0.606510,-0.492031
0.107067,0.675170,0.013544,0.854148,0.501679,0.136929
-0.219732,-0.178629,0.342602,0.820319,-0.425192,0.382476
-0.285374,0.192255,0.419440,-0.583223,-0.725415,0.365547
-0.108361,0.038165,0.852262,0.852063,-0.288558,-0.436719
-0.783470,0.652169,0.412607,-0.645213,-0.222290,0.730949
0.704855,-0.234005,0.305271,0.350651,0.053311,-0.934988
-0.101169,0.030940,0.752503,-0.235923,0.824469,-0.514385
0.336202,0.249680,0.477242,-0.727510,-0.042417,-0.684785
-0.532392,0.284001,0.687558,0.719867,0.086701,0.688676
0.066132,0.404232,0.680454,0.260472,0.149155,0.953891
0.839028,0.296193,0.050360,-0.559882,0.596159,-0.575436
0.045788,-0.513550,0.462156,-0.719916,0.409144,0.560644
0.112169,-0.141694,0.379715,0.026127,-0.107279,0.993886
-0.538785,0.303672,0.305759,-0.642726,-0.192313,0.741565
-0.147818,0.100456,0.923175,-0.124960,0.556656,-0.821291
-0.021820,0.098970,0.854183,0.995853,0.062653,0.065969
0.368408,-0.056810,-0.961966,-0.225574,-0.155456,0.961743
-0.225446,-0.352339,0.691238,0.756533,-0.626310,0.188130
-0.459128,-0.486296,0.248133,0.507323,-0.215917,-0.834268
0.210939,0.495363,-0.286491,-0.434337,-0.044983,-0.899627
0.196005,-0.516880,0.039224,0.886545,0.112914,0.448651
-0.634299,0.162236,0.494344,-0.337901,0.119436,0.933573
-0.170251,0.547052,0.312199,0.613341,-0.767278,-0.187344
-0.396374,0.066903,0.498769,0.075406,0.524318,0.848177
0.549540,-0.335997,0.113831,0.060331,-0.117575,0.991230
0.281068,-0.251114,0.250920,0.733030,0.363709,-0.574789
-0.570683,0.166846,0.488837,0.202888,0.202118,0.958115
0.165089,0.431433,0.012502,0.899398,-0.436957,0.012285
0.103811,-0.226013,0.658589,0.894485,-0.102254,-0.435249
-0.146036,0.022796,-0.248688,0.717815,-0.694580,-0.047971
-0.466874,-0.376825,0.621394,0.956457,-0.139391,0.256439
0.117514,0.427642,0.040496,0.819067,-0.236925,-0.522489
0.303565,0.563393,0.002381,-0.207120,-0.896110,-0.392540
0.580208,-0.139388,0.196014,-0.346121,-0.142124,0.927362
-0.578306,-0.460170,0.213062,0.836412,-0.483586,-0.257991
0.480271,0.029813,-0.957312,0.225401,0.131997,-0.965283
0.411984,-0.838789,0.325107,-0.312599,-0.242293,0.918464
-0.581194,-0.806208,0.214875,0.899850,0.009062,-0.436106
-0.205102,-0.347778,0.113019,0.549793,0.194343,-0.812379
0.514873,0.463245,-0.946785,-0.286744,-0.113551,0.951254
-0.473878,0.349828,0.460789,-0.484802,-0.442160,-0.754626
-0.389554,-0.676399,0.198801,0.940828,0.233114,-0.245970
0.583468,0.421136,0.069384,0.815760,0.567501,-0.111703
-0.740197,-0.197070,0.569275,-0.645572,-0.540853,-0.539180
-0.437617,-0.166385,-0.992098,-0.188507,0.063808,0.979997
0.702642,0.172941,-0.116604,0.182109,0.810634,0.556516
0.015180,0.131295,-0.570899,0.936784,-0.349546,0.015890
-0.049539,0.040572,0.825810,0.394098,0.915273,0.083446
0.219481,0.148865,0.804148,0.385198,0.832275,-0.398673
0.313461,-0.019056,-0.962683,0.229795,0.166708,-0.958855
-0.252246,-0.215000,0.780403,0.130013,0.723253,0.678234
0.452795,0.769274,0.443078,0.369603,-0.000318,-0.929190
-0.692382,-0.594283,0.126766,0.844117,-0.098593,-0.527015
0.668099,0.269095,-0.940899,-0.292518,-0.143279,0.945465
0.276153,-0.374674,0.339436,0.350979,0.335108,-0.874366
0.491641,-0.014138,-0.088123,-0.497797,0.318968,0.806509
-0.708790,-0.612878,0.468326,0.960109,-0.055254,0.274113
-0.089244,-0.445161,0.243830,0.181508,0.109950,0.977224
-0.119240,0.035910,0.679764,-0.670271,0.663088,-0.333242
-0.463430,0.525997,0.594117,-0.426773,0.414220,-0.803919
0.059371,0.478151,-0.309506,-0.358428,0.836894,0.413688
0.302211,-0.761384,0.091668,0.168084,-0.950844,0.260084
0.545545,0.543004,0.474888,-0.466884,0.771499,0.432213
-0.110818,0.563341,0.488039,0.801905,0.435216,-0.409311
0.690533,-0.157164,0.202522,0.458393,0.672592,-0.580944
-0.875540,-0.107371,0.593278,-0.624473,-0.607137,0.491344
-0.187155,-0.341120,0.272947,0.708304,-0.121840,0.695313
0.116288,-0.250396,0.653272,0.815826,-0.119740,-0.565765
0.052120,-0.271860,0.778170,-0.021062,0.706668,0.707232
-0.230611,0.839660,0.470869,-0.258220,-0.290604,0.921342
-0.295822,-0.221659,0.558194,-0.401395,0.191598,-0.895641
0.170251,-0.177347,0.669467,0.892580,0.017751,-0.450539
-0.866567,0.443419,0.478297,-0.367019,-0.885515,0.284887
-0.076031,0.045234,-0.744764,0.976535,-0.194829,-0.091765
-0.564047,0.172737,0.745562,0.808407,-0.302245,0.505100
-0.772343,-0.082167,0.551997,-0.638992,-0.428051,-0.639110
-0.618993,0.328262,0.389538,-0.152232,-0.744394,0.650156
-0.052611,0.105630,0.049805,0.621604,-0.782657,-0.032499
-0.533375,-0.656010,0.406871,0.873821,0.309811,0.374771
-0.778368,0.666103,0.411485,-0.440810,0.339322,0.830991
-0.435280,0.298549,0.699491,0.876744,0.222124,-0.426593
0.349786,-0.630808,-0.203510,0.054086,0.499309,0.864734
0.303381,0.565904,-0.955350,-0.247269,-0.033439,0.968370
-0.000737,-0.173506,0.640702,-0.153130,-0.862358,0.482587
0.404057,0.126070,-0.960478,-0.199598,-0.062333,0.977893
-0.006886,0.551918,0.296139,-0.038502,0.130958,0.990640
-0.644747,-0.157318,0.604359,-0.060712,0.379082,0.923370
0.419423,0.640796,0.466079,0.190339,0.237449,0.952570
-0.060358,0.588750,0.511068,0.787133,0.012524,-0.616656
-0.681807,0.119820,0.466201,0.127968,-0.539925,0.831929
0.602949,-0.367655,0.114006,0.103642,-0.188930,0.976506
-0.411372,0.271604,0.302633,-0.066778,-0.379599,0.922738
0.184634,-0.078172,0.173987,-0.286094,-0.912394,0.292723
0.515612,0.292967,0.717933,0.107730,-0.954327,0.278667
0.051629,-0.875979,0.339097,0.288524,-0.393310,0.872961
0.447202,0.153526,0.608013,0.986763,0.143991,-0.074608
-0.126923,0.517852,0.726417,-0.416916,0.729124,-0.542733
-0.018871,0.423748,0.615495,0.634561,-0.611154,0.473099
-0.623788,0.342041,0.445554,-0.235829,-0.371826,0.897848
-0.215550,-0.346754,0.278874,0.923003,0.195506,0.331425
0.084449,0.539419,-0.295814,0.845253,-0.085972,-0.527405
0.282850,-0.278111,0.289373,0.690768,0.138327,0.709722
0.859435,-0.405154,0.048533,-0.611362,-0.104128,-0.784470
0.011860,-0.425030,0.301185,-0.300379,0.882070,-0.362939
0.001169,-0.552379,0.412662,0.705585,-0.016803,-0.708426
-0.127658,0.162697,0.855293,-0.438670,0.768621,-0.465607
-0.334052,0.002663,0.352560,-0.126684,0.535987,0.834667
0.212353,0.588903,-0.298114,0.501110,0.495429,0.709534
-0.130427,0.482249,0.716824,-0.509951,0.775978,-0.371226
-0.779227,0.420829,0.469692,-0.233980,0.938179,0.255094
-0.587155,-0.279647,0.595308,0.778076,0.445870,0.442490
-0.144438,0.142205,0.643070,0.848149,-0.373653,0.375536
0.153348,-0.173812,0.126820,-0.327124,-0.090975,-0.940592
0.094653,0.391681,-0.969340,0.350444,-0.062070,-0.934525
-0.345483,-0.470007,0.366591,0.366653,0.193793,0.909951
-0.217395,-0.272065,0.631799,0.383745,-0.897625,-0.216815
0.415979,0.275651,-0.957434,0.252937,0.051193,-0.966127
-0.085065,0.715485,0.503396,0.836077,0.160181,-0.524706
0.357529,0.148302,0.150850,-0.334866,0.877412,0.343530
0.400677,-0.009989,-0.053891,-0.039732,0.960287,0.276171
-0.163675,-0.267865,0.653867,-0.258351,0.965265,0.038956
-0.046650,0.127196,-0.028251,0.071993,0.990675,0.115672
-0.253105,-0.618821,0.079031,-0.787367,-0.233380,0.570602
-0.286293,0.757543,0.467703,0.464757,0.094070,-0.880427
-0.211127,0.212336,0.626969,-0.388226,-0.900552,0.195669
0.068345,0.743866,0.516683,0.878218,-0.459953,-0.131058
-0.139028,-0.107986,0.379174,-0.273020,-0.769309,0.577601
0.343206,0.335588,0.484887,-0.355493,0.440501,-0.824368
0.361276,0.836586,-0.948625,0.305716,0.134940,-0.942512
0.389183,0.006454,-0.959517,-0.238303,-0.056100,0.969569
-0.126000,0.023000,0.803364,0.770126,-0.486138,-0.413009
0.489368,0.489113,0.049778,0.626891,0.623876,0.466675
-0.317580,0.283695,0.728703,0.026744,-0.250538,0.967737
-0.101413,0.710004,0.263124,-0.306224,0.691331,0.654437
-0.746038,0.530454,0.393164,0.111709,0.259325,0.959308
-0.233560,0.389478,0.442131,-0.638489,-0.026207,0.769184
-0.146467,0.276625,-0.979502,0.291328,-0.069906,-0.954066
0.514933,0.742431,0.448436,0.084534,-0.132933,0.987513
0.459188,0.164592,0.675556,-0.014567,-0.797699,0.602879
-0.305962,0.105373,0.632800,0.439122,0.778408,0.448612
-0.613156,-0.492956,0.148644,0.687490,-0.283217,-0.668690
0.511002,-0.121203,-0.961804,-0.289279,-0.118266,0.949911
0.128210,-0.038676,0.689343,-0.510677,-0.079760,0.856065
-0.107314,0.351212,0.462331,-0.587252,-0.186122,0.787714
0.336386,0.746325,0.442023,0.133354,-0.147980,-0.979958
-0.438968,0.516315,0.593927,0.667536,-0.348999,0.657720
-0.036327,-0.226985,0.751339,0.864454,-0.138312,-0.483311
0.099016,0.371292,0.049765,0.740767,-0.259733,-0.619519
-0.250648,0.119359,0.769524,0.546462,0.242790,0.801519
0.281499,0.859842,-0.950276,-0.376956,-0.104013,0.920372
-0.365767,-0.150145,0.568166,0.363442,0.073095,0.928745
-0.367117,-0.218175,0.326487,0.268365,0.956700,-0.112721
0.559988,0.027356,0.296774,-0.150384,-0.820715,0.551190
-0.430302,0.260745,0.647548,0.524225,-0.817024,0.240126
0.434601,0.138517,0.484061,-0.356766,-0.439165,0.824531
-0.180519,-0.390860,-0.081547,-0.191736,0.126160,0.973304
-0.318870,0.224271,0.709328,-0.599809,0.772408,-0.208841
0.230056,-0.027099,0.132949,0.601861,-0.523578,0.603018
-0.115121,0.111367,0.833252,-0.338096,0.807059,0.484094
0.712970,0.135495,0.232126,-0.132478,-0.834980,0.534095
-0.446958,0.439014,0.444850,0.476852,0.747320,0.462737
0.076891,-0.134625,0.742924,0.138514,0.898397,0.416770
-0.120099,0.576047,0.307450,-0.529303,0.058805,-0.846392
0.290904,-0.274423,0.688775,-0.265954,0.352770,0.897119
0.205102,-0.180420,0.678249,0.844298,-0.167362,-0.509068
0.024521,0.168741,0.785409,0.017074,-0.945379,0.325525
0.064230,0.393524,0.543162,-0.105563,0.198427,0.974414
-0.542472,0.222991,0.735901,-0.858930,0.052608,-0.509384
0.086231,-0.489318,0.491774,0.704591,0.506662,0.496836
-0.160479,-0.008196,0.892542,-0.735407,0.675861,-0.048873
-0.189061,0.877465,0.491841,0.642602,0.180933,0.744531
-0.226616,-0.771169,0.064188,0.531201,0.155968,-0.832766
0.132696,0.033809,0.868066,-0.487035,-0.676771,-0.552067
-0.099016,0.730598,0.486064,-0.673136,0.739518,0.000752
-0.643640,-0.246094,0.492301,0.816745,0.438303,-0.375256
-0.291950,-0.206905,0.280470,0.811617,0.083669,-0.578167
0.226245,0.175965,0.110705,-0.118681,0.397494,0.909897
-0.313892,0.027970,0.447259,-0.516330,0.693739,-0.502126
0.364473,-0.079760,0.591167,0.344419,0.895901,0.280601
-0.737248,-0.024793,0.597256,0.270811,0.293236,0.916883
0.040566,0.427129,0.485604,-0.186971,0.940757,0.282874
0.077502,0.165566,0.901404,0.458055,0.879026,0.132283
-0.750525,0.666922,0.411566,0.072366,0.358904,0.930565
0.421696,0.307106,0.475564,0.616178,-0.676615,0.403133
-0.096315,0.021720,-0.246523,-0.663593,0.745657,-0.060329
-0.923419,0.002049,0.400417,0.094887,0.948063,-0.303600
-0.600124,0.407663,0.290645,0.938569,-0.034457,-0.343367
-0.347572,0.221709,0.733845,-0.383152,0.797036,-0.466828
-0.474677,-0.737974,0.259092,0.858105,-0.313281,-0.406831
0.477074,0.265817,0.716972,0.069710,-0.913880,0.399955
-0.163983,-0.321755,0.722357,0.210747,0.618123,0.757304
-0.270129,-0.378157,-0.239013,-0.300228,0.198442,0.932997
-0.604059,0.152143,0.229907,0.624729,-0.776678,-0.080525
-0.311311,0.125506,0.689560,0.798972,0.322373,0.507661
0.570435,-0.194559,0.189208,0.393625,0.392173,-0.831420
-0.373573,-0.429127,0.501001,0.498208,0.580363,0.644180
0.010326,0.196199,0.870961,-0.699301,0.257687,-0.666765
-0.034481,0.000001,0.854887,0.043331,-0.699555,0.713263
-0.649050,-0.042928,0.537208,-0.112227,-0.989847,-0.087220
-0.681623,-0.087905,0.541267,0.896637,-0.168940,0.409270
0.474985,-0.757492,0.117092,-0.126265,-0.583892,0.801952
0.040194,0.114645,0.892731,0.378689,0.757137,0.532296
-0.045668,0.280979,0.756670,-0.390648,0.161169,-0.906321
-0.364600,-0.614721,0.315473,0.748184,-0.653933,-0.112218
-0.183160,-0.040777,0.657655,0.971694,-0.008697,-0.236081
0.580515,0.398596,0.074674,0.871553,0.271235,-0.408445
-0.382175,0.152964,0.475483,0.536082,0.471569,0.700170
-0.060234,-0.301470,0.378552,0.425552,-0.068894,-0.902308
-0.392563,-0.144050,0.402122,0.945815,-0.323920,-0.022566
0.141302,-0.750064,-0.078029,0.788687,-0.085598,-0.608807
-0.591211,-0.605656,0.213197,0.759748,0.063395,-0.647120
0.006083,0.069873,-0.388388,-0.487087,0.873234,-0.014430
0.244807,0.327340,0.535937,-0.363923,0.546807,-0.754030
0.076643,-0.647507,0.409468,-0.264885,0.503599,-0.822329
0.559988,-0.091286,0.507888,-0.232045,0.369151,-0.899935
0.097970,-0.336099,0.467026,0.145306,-0.341126,0.928719
-0.113031,0.548280,0.489419,0.825394,0.373528,-0.423322
-0.648866,-0.059935,0.591005,0.608443,0.170766,0.775007
0.617331,0.301112,0.082521,0.175980,-0.132649,0.975416
0.307005,0.726089,0.441346,0.558800,0.105364,-0.822582
-0.790721,-0.130271,0.568748,0.818142,-0.544775,0.184019
-0.052308,0.063573,0.943281,0.795488,0.597643,0.100108
-0.200000,-0.471800,0.243573,-0.288404,0.412927,-0.863895
-0.150770,-0.269095,0.714036,-0.026637,0.514610,0.857011
0.196496,0.428205,0.319302,-0.250757,0.231435,0.939978
0.461769,-0.842324,0.248512,-0.303126,-0.065971,0.950664
-0.090043,0.138670,-0.691941,-0.830522,0.550767,0.083006
-0.173448,0.519901,0.321169,-0.737965,0.628346,0.246148
0.072280,0.093182,0.510080,0.748133,0.063481,0.660505
0.169452,-0.675990,0.415219,0.936011,-0.157363,-0.314835
0.700369,0.219918,0.088015,0.307070,0.590972,0.745962
0.209832,-0.014959,0.850436,-0.182512,0.803279,0.566949
-0.564047,-0.409969,0.653691,-0.500469,-0.769081,-0.397550
-0.028951,0.098047,0.090532,-0.456100,0.884766,0.095716
0.009711,0.059013,-0.262299,0.853478,-0.517808,-0.058743
-0.429811,-0.030429,0.664556,-0.202396,-0.710910,-0.673530
-0.582792,-0.430563,-0.268347,-0.604135,-0.026991,0.796424
-0.603384,0.064187,0.273137,0.654633,0.597514,-0.463069
0.604794,0.103170,0.342683,-0.264839,0.931369,-0.249823
0.005224,-0.361303,0.550008,-0.121830,0.545131,0.829452
-0.496128,0.021054,0.378795,-0.439843,0.685043,0.580736
0.151322,0.191024,0.806922,-0.631071,-0.068315,0.772711
0.258758,-0.088264,0.304662,-0.358867,0.177411,-0.916373
-0.473694,0.416782,0.601072,-0.460682,0.020421,-0.887330
-0.076091,-0.329900,0.700736,0.077834,-0.825423,0.559122
-0.020222,0.545924,0.300333,-0.038502,0.130958,0.990640
-0.690904,0.217254,0.489852,-0.261813,0.455781,-0.850716
0.329194,0.399878,0.530565,0.776723,-0.481937,0.405509
-0.149847,-0.177502,0.859866,0.798691,-0.585726,0.137905
-0.552428,-0.318529,0.140986,0.810539,-0.232521,-0.537550
-0.127167,0.243481,0.436813,0.008180,0.928779,0.370543
-0.373202,-0.323753,0.510743,-0.637644,0.246561,-0.729807
0.271235,-0.296245,0.490055,-0.269080,-0.164404,0.948982
-0.125692,0.569027,0.479840,0.629356,0.660414,-0.409591
-0.140135,-0.114082,0.589963,0.910066,-0.045651,0.411942
-0.398340,-0.664771,0.292066,-0.625735,0.776992,-0.068842
0.916719,0.166488,0.244804,-0.225758,-0.106990,0.968290
-0.025448,0.562214,0.296910,0.335391,0.118845,0.934553
0.507374,-0.400697,0.111287,-0.182406,-0.010030,-0.983172
0.288323,-0.597304,-0.206189,-0.172924,0.015111,-0.984819
-0.407253,-0.072076,0.660280,0.460105,0.065679,0.885432
-0.014445,0.782644,0.582048,0.017598,-0.763047,0.646104
0.503135,-0.055172,-0.959382,0.305140,0.081263,-0.948834
0.007437,-0.086471,0.557801,-0.523568,0.715223,-0.462961
0.335155,0.621381,0.561969,-0.698235,0.070852,0.712354
0.553040,0.428103,-0.944593,-0.378022,0.082140,0.922146
0.576520,-0.166999,-0.955769,-0.274908,-0.093857,0.956878
0.291887,0.282824,0.523299,-0.445364,0.805630,-0.390654
-0.071297,0.103530,0.949586,-0.330417,-0.934417,0.133001
0.423418,0.715076,-0.948382,-0.304463,-0.073080,0.949717
0.570004,-0.107013,0.604982,0.023122,-0.887122,0.460955
-0.425692,-0.096922,0.676476,-0.627580,0.143182,-0.765273
0.315918,-0.281542,0.725537,0.005418,0.992793,0.119722
-0.440258,-0.619896,0.046490,0.634009,0.119607,-0.764020
-0.088017,0.487986,0.485306,0.819438,0.317307,-0.477323
0.352487,0.098868,0.335728,0.374517,-0.140484,-0.916516
0.305898,-0.277292,0.683728,0.390977,-0.040026,-0.919530
-0.041181,0.746170,0.511352,-0.547093,-0.501620,0.670124
-0.123663,0.029660,0.725808,-0.665366,0.428619,-0.611207
0.686046,-0.448645,0.072577,0.360576,-0.175303,-0.916108
0.150583,-0.068132,0.134018,-0.702443,0.489137,-0.517029
0.388384,-0.447415,0.498309,-0.189333,0.976217,-0.105612
-0.128150,0.182983,0.575405,0.422505,0.885223,0.194601
-0.119791,-0.386507,0.238242,-0.174280,0.229863,-0.957491
0.527474,-0.697812,0.353683,0.180871,-0.237399,0.954425
0.429195,0.075406,0.139173,0.234107,-0.606853,0.759554
-0.059068,-0.590134,0.232519,-0.483061,-0.178313,0.857238
0.505900,0.776906,0.445824,-0.210385,-0.029429,0.977176
-0.132392,-0.284514,0.116401,-0.526038,0.029963,0.849933
0.759742,-0.322063,0.101599,-0.623877,0.536683,-0.568110
-0.607315,0.473798,0.435866,0.366205,-0.835862,-0.408936
-0.023234,-0.086215,0.870447,-0.055733,0.849656,0.524384
-0.449295,0.562471,0.617254,0.552876,-0.597814,0.580471
0.020034,-0.217355,0.752977,0.692074,0.081865,-0.717170
0.081685,-0.383330,0.558979,-0.411713,0.425731,0.805758
0.451629,-0.021310,-0.963346,0.158924,0.152528,-0.975438
0.440626,-0.032632,0.297153,0.065415,0.010783,0.997800
0.063734,-0.041801,0.850057,0.940390,0.315705,0.126477
-0.021081,0.061933,0.862396,-0.844849,-0.026780,-0.534335
0.711371,0.391270,0.438369,0.234619,-0.781446,0.578184
-0.174738,0.548127,0.729542,0.665863,-0.211548,0.715453
0.260109,-0.363557,-0.196839,0.099164,0.138142,0.985436
-0.570008,0.528712,0.607444,-0.024406,-0.922374,0.385525
-0.094286,-0.418165,0.251786,0.115610,-0.263284,0.957766
0.283589,0.462834,0.481030,-0.671407,0.212519,0.709964
0.009219,-0.019722,0.765154,0.401906,-0.101920,-0.909991
0.303872,0.434097,0.472127,0.932072,0.024352,-0.361455
-0.385004,0.302905,0.649564,-0.404335,-0.847216,-0.344584
0.454701,-0.854669,0.323348,-0.326940,-0.156036,0.932074
0.141917,-0.095230,0.791511,-0.839451,-0.184518,0.511150
0.408480,0.198505,-0.110813,-0.199809,0.520591,0.830097
-0.077873,0.098817,-0.074647,0.191734,0.918597,-0.345569
0.151134,0.640899,0.531133,0.944544,-0.010482,0.328216
-0.539216,-0.442447,0.408224,-0.570127,-0.814772,0.105366
-0.105532,0.512679,0.732126,-0.414295,0.599620,-0.684701
-0.257407,0.436093,0.294501,0.758272,-0.025365,0.651445
0.639581,-0.350188,0.113398,-0.262489,0.303331,-0.916018
0.638782,0.381691,0.435596,-0.546143,0.221706,-0.807821
-0.744132,-0.099379,0.619527,0.887396,0.403866,0.222305
0.156915,0.163158,0.792851,0.092713,0.991227,0.094202
-0.063430,0.444290,0.677531,0.465578,-0.246578,0.849963
0.807805,-0.223912,-0.108879,0.384032,-0.440549,0.811440
-0.743149,0.426668,0.457109,-0.593795,-0.782480,-0.187437
0.123108,-0.540545,0.481125,0.879463,0.323468,-0.349160
-0.026798,0.097843,0.978013,0.726075,0.592926,-0.348215
-0.857222,-0.105220,0.579369,0.816711,0.526511,0.236153
-0.022559,0.306644,0.306192,0.414445,-0.051647,-0.908608
0.248370,-0.286922,0.679777,0.308458,-0.031399,-0.950720
0.016594,-0.556119,0.357823,0.211256,0.934320,0.287084
0.280393,0.343989,0.362491,-0.880867,0.142798,0.451311
-0.118501,0.618512,-0.984413,-0.188250,-0.042764,0.981190
0.617455,-0.068029,0.278346,0.778096,-0.019006,0.627858
-0.373142,0.243328,0.670333,0.136616,0.786137,0.602765
-0.242593,-0.516162,0.369527,-0.217924,0.963796,0.153646
-0.044069,-0.064699,-0.981369,-0.269429,-0.144069,0.952183
-0.315858,-0.053532,0.806151,0.259504,0.924760,0.278347
0.480514,-0.067567,0.120555,-0.095778,0.475419,0.874531
0.008664,0.156703,0.796328,-0.176809,0.910099,-0.374778
0.094282,0.300855,0.867308,-0.452714,0.861550,-0.229742
-0.021636,0.417909,-0.976944,0.299898,-0.034904,-0.953333
-0.161957,0.479227,0.707122,0.617336,-0.654256,0.436859
0.029994,-0.363096,0.461790,0.967472,-0.113062,-0.226306
0.291703,-0.382972,0.718907,0.891267,-0.079095,-0.446528
0.103255,-0.155781,-0.278955,0.810524,0.041005,-0.584268
-0.214750,-0.116848,-0.988391,-0.208652,-0.026607,0.977628
-0.159496,0.331745,0.195649,-0.110219,-0.142224,0.983679
0.448185,0.294965,0.439262,0.305982,0.091787,-0.947602
0.404732,0.078479,0.283758,-0.372556,0.889422,0.264820
-0.110818,0.700169,0.476525,0.146668,-0.633902,0.759380
-0.643332,0.518466,0.611923,-0.056419,-0.920795,0.385945
-0.093918,0.806208,0.454822,0.343162,0.166022,0.924487
-0.764228,-0.499872,0.488256,0.946180,-0.323029,-0.019918
-0.579412,-0.631319,0.218853,0.732700,-0.083499,-0.675410
0.024277,0.106961,0.811671,-0.037051,0.863539,0.502918
0.250092,0.452948,-0.963143,0.310170,-0.011762,-0.950608
0.608482,-0.807078,0.263395,-0.362729,0.010947,0.931831
0.216964,-0.796526,0.118837,-0.237351,0.893641,-0.380880
-0.500738,0.355873,0.461384,0.390592,0.419156,0.819601
-0.481749,-0.341325,0.513882,0.890696,-0.350146,0.289929
0.555133,-0.098664,0.192144,0.289071,0.118795,-0.949908
0.449108,-0.436863,0.287398,-0.212290,-0.415848,0.884309
0.190903,0.253573,0.757415,-0.808459,0.304466,0.503681
0.036079,-0.137288,0.780687,0.978450,0.020510,0.205465
0.613029,-0.003689,0.278292,0.135414,-0.740586,0.658176
-0.179165,0.864094,0.489338,0.643970,0.008959,0.764998
0.646772,0.424261,0.464848,0.462682,-0.557916,0.688952
-0.202461,-0.141694,0.262854,-0.051127,-0.426844,0.902879
0.271910,0.117003,0.497416,0.320634,-0.598383,-0.734256
0.711923,-0.213924,0.302579,-0.460345,-0.363524,0.809896
-0.545361,-0.106860,0.102979,0.909774,0.121193,-0.397017
-0.540015,-0.359919,0.605658,-0.602656,-0.701038,-0.381250
0.086723,0.324113,0.616956,0.243407,-0.162292,0.956250
-0.137678,-0.351313,0.448625,-0.026601,-0.083884,0.996120
0.307005,0.738077,-0.955458,-0.330371,-0.102244,0.938297
-0.203504,0.459299,0.437219,-0.766639,-0.119944,0.630776
0.725447,-0.096204,0.524152,0.055604,0.220717,0.973751
-0.051013,0.032990,0.976823,0.344838,0.900876,-0.263645
-0.233008,0.894984,0.491733,0.103280,0.733714,0.671563
-0.017701,0.753343,-0.972628,-0.303628,-0.028773,0.952356
0.003194,0.851236,0.536559,-0.462631,-0.841900,0.277806
0.050582,0.419446,0.527358,0.683871,-0.710506,0.165839
-0.577938,-0.361611,0.460370,0.871353,0.350305,-0.343556
-0.803258,0.521848,0.462277,-0.697285,-0.325527,-0.638612
0.597847,-0.047948,0.583617,0.217846,0.298844,0.929105
-0.411616,-0.007684,0.657074,0.547349,0.544968,0.635153
-0.402643,-0.421853,0.358743,0.143849,-0.201907,0.968783
0.682238,-0.136571,-0.128511,0.231164,-0.346382,0.909166
0.609525,-0.018339,0.277250,0.368286,-0.576388,0.729480
-0.438600,-0.695762,0.165530,0.980827,0.020868,-0.193762
0.912536,0.142308,0.241949,-0.225758,-0.106990,0.968290
0.489368,0.611393,0.586702,-0.564472,-0.026886,0.825014
0.576276,0.139388,-0.098433,0.012693,0.661727,0.749637
0.069575,0.286460,0.813511,0.952211,0.070025,0.297304
0.313521,0.369191,0.439195,-0.297506,-0.494772,0.816512
0.321144,0.581527,0.284097,0.041539,0.729016,0.683235
0.008172,0.138416,-0.394518,-0.487087,0.873234,-0.014430
-0.204366,0.110087,0.914772,0.889911,0.092443,0.446669
-0.083343,0.327236,0.686664,-0.318452,0.436543,-0.841439
0.507314,-0.777726,0.338502,-0.376835,0.603611,-0.702602
-0.736573,0.333435,0.517928,-0.692685,0.236220,-0.681460
-0.571789,-0.432610,0.547410,0.064733,0.762784,0.643406
-0.300492,0.523897,0.578178,-0.190181,0.938777,0.287277
-0.774432,0.471595,0.503789,-0.451230,-0.836120,-0.311923
-0.515245,0.211771,0.737403,0.791789,0.193480,0.579341
-0.301108,-0.126838,0.375372,-0.352004,0.824095,-0.443802
0.287644,-0.121100,0.565825,0.362584,-0.392350,0.845337
-0.192996,0.332462,0.686610,0.183310,-0.345452,0.920359
0.452488,0.721274,0.448179,0.136624,0.517255,0.844856
-0.033498,0.073817,0.903461,0.854997,0.312967,0.413561
-0.605777,-0.006659,0.582332,-0.402582,0.794129,-0.455287
0.199876,0.018237,-0.093873,-0.438109,-0.075246,-0.895767
-0.127538,-0.072384,0.608405,0.773329,-0.480398,-0.413738
-0.442719,0.469442,0.577190,0.255181,-0.299112,0.919464
-0.439091,-0.079965,0.342520,0.162016,0.282988,0.945341
-0.451261,0.255161,0.488337,0.543142,0.561329,0.624425
-0.755195,0.120281,0.485509,0.078244,0.406647,-0.910229
0.055624,-0.438091,0.451223,0.511141,0.827160,-0.233541
-0.562816,-0.033656,0.535355,-0.236915,0.733065,0.637563
-0.497298,0.126837,0.170617,0.785912,-0.614723,0.066771
0.289673,-0.049435,-0.967730,-0.191266,-0.147936,0.970326
-0.473942,-0.284258,0.523813,0.914019,-0.387781,0.119140
0.914873,0.124225,0.008998,0.732506,-0.323539,0.598964
0.797110,-0.091901,0.137617,0.406346,-0.835691,0.369463
-0.187710,0.767738,0.488066,-0.627978,0.256793,0.734644
-0.612170,-0.474925,0.561969,-0.275240,-0.907226,-0.318095
-0.048864,0.217612,0.887157,-0.226457,0.872082,-0.433809
0.765459,-0.399108,0.080803,0.381072,-0.919345,0.097927
-0.873574,-0.081348,0.566082,0.627128,0.590185,0.508323
0.224399,-0.776394,0.121029,-0.237351,0.893641,-0.380880
0.204611,-0.199734,-0.217270,-0.064962,0.240509,0.968471
-0.191582,0.071410,0.683498,0.508850,0.195028,0.838472
0.591702,-0.507556,0.261027,0.039293,-0.727945,0.684508
-0.599880,0.606731,0.647278,0.568551,-0.680036,0.462926
0.222310,0.271349,0.760892,0.888340,-0.384736,-0.250660
0.268774,-0.028328,0.138118,0.292802,-0.902515,0.315807
0.017885,0.266431,-0.976119,-0.074286,0.095441,0.992659
0.134478,0.533784,0.047275,0.918612,0.203290,-0.338859
0.061585,0.439578,0.608811,-0.196024,0.913954,0.355335
-0.453414,0.290148,0.634275,0.879143,-0.444244,0.172495
0.263061,-0.208648,0.533596,0.785106,0.411620,-0.462794
-0.216536,-0.108242,0.614169,0.959312,-0.260179,-0.109668
-0.424401,0.368628,0.577190,-0.264829,-0.546841,0.794249
0.084510,0.719430,0.558261,-0.342673,0.810120,-0.475689
-0.081253,-0.240664,0.677193,-0.660904,-0.224922,0.715972
0.791025,0.178218,0.497362,-0.393995,0.847618,0.355404
-0.117458,0.375340,0.313308,-0.146280,-0.055235,0.987700
0.056607,0.190974,0.667884,-0.009898,0.360453,0.932725
-0.215058,0.889554,0.494574,0.558097,0.584467,0.589004
-0.503259,0.432509,0.417898,0.554001,0.112726,-0.824849
0.237739,0.491010,0.038494,0.403247,0.511958,0.758480
0.170559,-0.075559,0.157453,0.815090,-0.577679,0.043767
0.553348,-0.032785,0.497767,0.234588,0.511860,0.826419
-0.192689,0.167614,0.691414,-0.056257,-0.819784,-0.569903
-0.157223,0.445315,0.461046,0.541568,0.194928,-0.817745
0.453962,0.030429,-0.089287,-0.306650,0.243283,0.920206
0.139089,0.026125,0.661295,0.906990,-0.420762,-0.018110
-0.055316,0.387071,0.480855,-0.840606,0.463907,0.279590
0.785803,-0.151938,0.108662,0.302349,-0.760749,0.574322
