-0.266684,-0.222453,0.492919,-0.643527,0.727313,0.238513
0.010263,-0.381759,0.836926,-0.508464,0.393042,0.766148
0.283487,-0.034441,0.646101,-0.133296,0.915445,0.379728
-0.613398,0.363554,0.063539,0.312984,0.701927,0.639797
-0.080031,-0.472783,0.528302,0.489062,-0.648153,-0.583709
0.125543,0.292705,0.805045,0.509861,-0.235843,0.827297
-0.236002,-0.580755,0.653872,0.732493,0.679135,-0.047221
-0.707492,0.641458,0.285017,0.764705,-0.441493,-0.469371
0.057019,0.003104,0.517336,-0.101279,-0.831273,-0.546560
-0.537569,-0.793838,0.125696,0.024130,0.691316,0.722149
-0.510100,0.459650,0.236030,-0.562811,0.623627,0.542525
0.310443,-0.048944,-0.976686,0.715142,-0.382224,-0.585215
-0.546845,-0.085053,0.419628,0.068072,-0.115179,0.991010
-0.765936,0.750326,0.269697,-0.521792,-0.249227,0.815855
0.050810,0.274858,0.572322,0.497214,0.402028,0.768864
0.220002,0.047330,0.910887,0.254382,0.955636,-0.148492
0.371516,0.221499,0.771964,0.644134,0.740411,-0.192047
-0.017424,0.410885,0.579939,-0.203119,0.359629,-0.910719
0.941411,-0.374895,0.423549,0.972954,-0.227486,-0.040123
0.444936,0.192133,-0.991712,-0.188990,0.121159,0.974476
0.362311,0.033246,-0.184030,0.445008,-0.864700,-0.232943
-0.440992,0.138176,0.596445,0.675563,0.322462,-0.663048
-0.140007,0.046674,0.108953,-0.330772,0.374994,0.866007
-0.593967,0.396560,0.248490,-0.213887,0.010745,0.976799
0.250904,-0.316042,-0.978248,-0.170715,0.089899,0.981211
-0.058553,-0.190402,0.629400,0.411564,-0.419195,-0.809253
-0.731162,0.196012,0.262288,-0.844878,0.519253,-0.128677
-0.042920,-0.272949,0.793841,-0.610514,0.579986,-0.539342
0.300654,0.009071,0.942461,-0.563828,0.820352,0.095506
-0.165795,-0.452608,0.794832,0.074285,0.464219,0.882600
-0.729262,0.559326,0.218506,0.879660,0.010319,0.475492
0.521934,-0.280053,0.853013,0.990962,0.080732,0.107125
-0.212990,0.404382,0.530493,0.624825,0.023766,0.780403
0.371882,0.036587,-0.424497,-0.237266,-0.872148,0.427858
-0.268730,-0.558554,0.690553,0.631202,0.713353,-0.304486
-0.495196,0.256118,0.199099,-0.734468,0.283435,0.616621
-0.144027,-0.121225,0.785387,-0.634430,0.426604,-0.644599
0.307959,0.186103,0.457439,-0.272815,-0.423818,0.863684
-0.689594,0.152322,0.526195,0.734443,-0.240063,0.634794
0.069950,0.046197,-0.224659,-0.262329,0.947213,0.184313
0.162509,-0.061775,-0.105102,0.470162,-0.530125,-0.705631
0.310443,-0.225138,0.504179,0.911315,0.097876,0.399907
-0.225626,0.659123,0.341356,-0.248724,0.886032,0.391260
0.557585,0.013428,0.872211,-0.544012,0.824268,-0.156951
0.248494,0.046139,0.662593,-0.412212,-0.750697,-0.516271
-0.205976,0.788468,0.362926,0.991674,0.114571,-0.058791
0.300580,-0.413988,0.760203,-0.538907,0.730057,0.420233
-0.301458,-0.420673,0.761012,0.919639,0.162366,0.357633
-0.589000,-0.423420,0.407238,0.203716,0.978623,0.028226
0.250759,-0.144143,0.910761,-0.208597,-0.497073,0.842262
-0.786755,-0.415183,0.445844,0.207791,0.476039,0.854523
-0.263324,0.062791,0.650091,0.221324,0.696508,0.682563
-0.691859,0.592394,0.064139,-0.596598,0.230631,-0.768688
-0.540126,-0.266862,0.129909,0.041592,-0.140550,0.989200
0.040873,0.343678,0.372093,-0.527069,-0.223405,0.819932
-0.057019,-0.260953,0.127063,-0.321113,-0.167525,0.932106
0.680315,-0.140744,-0.967840,-0.014223,0.045607,0.998858
-0.558242,-0.500896,0.103135,-0.158734,0.290974,0.943471
-0.687768,-0.051927,0.227812,0.989004,-0.140803,-0.045218
-0.027067,0.337711,0.628633,0.033778,0.999410,-0.006288
-0.176097,-0.451592,0.293458,-0.099249,0.483985,0.869430
0.183330,0.080099,0.799004,0.801192,0.182700,-0.569836
-0.622604,0.171480,0.303364,-0.104432,0.000034,0.994532
0.922418,-0.258566,0.685865,-0.656162,0.582286,0.479994
0.358512,0.029126,-0.542436,0.893048,-0.449903,0.007161
-0.818462,0.230034,0.333012,0.199385,0.095956,0.975212
0.227965,-0.537126,0.805143,0.673412,-0.603074,-0.427573
0.320159,-0.314133,0.567327,0.221022,-0.671008,0.707741
0.059794,-0.420673,0.762937,0.008534,-0.988549,0.150658
0.363260,0.034558,0.106930,-0.561871,0.826040,0.044264
0.463710,-0.168854,0.012683,-0.459846,-0.496417,0.736283
0.260548,-0.131192,0.452207,-0.616372,-0.749589,-0.241250
0.818827,-0.312581,0.651738,0.802737,-0.262267,-0.535564
0.727510,-0.354422,0.714244,-0.227217,0.230284,0.946225
0.618658,-0.057836,-0.968928,0.056113,0.225456,0.972636
-0.782592,-0.504535,0.356717,0.985554,0.101965,0.135227
0.221901,-0.160023,0.746209,-0.797305,0.590773,-0.123662
-0.199475,-0.640624,0.671941,0.701390,0.679209,-0.216164
0.517187,-0.666467,0.729996,0.195724,-0.311281,-0.929944
-0.160025,0.156260,0.723704,-0.633756,0.041461,-0.772421
-0.186616,0.347201,0.462796,-0.114286,-0.239951,0.964034
-0.422947,0.085115,0.493798,0.876539,0.169022,-0.450677
-0.314168,-0.406411,0.250345,-0.886009,0.443977,-0.133688
-0.803484,0.947774,0.254573,0.983688,-0.178303,-0.023779
0.096248,0.119910,0.744102,0.574236,0.353560,-0.738410
0.503817,-0.245255,0.833480,0.831953,0.525083,0.179282
0.391534,0.073713,0.811519,0.534842,0.757339,-0.374675
-0.477006,-0.659185,0.377939,-0.382395,0.006992,-0.923973
-0.074186,-0.117167,0.736707,0.231336,-0.957772,0.170750
0.103117,0.036827,-0.182035,0.143099,0.238994,0.960419
0.426746,-0.260953,0.589343,-0.012487,-0.633545,0.773605
0.496732,-0.011519,-0.417982,0.725424,0.621167,-0.296500
0.462542,-0.062255,-0.633697,0.917766,-0.393453,0.053856
-0.231180,0.607079,0.358727,0.341654,-0.900449,-0.269190
0.054827,-0.071206,0.904678,0.855326,0.507443,0.104495
-0.345071,0.193684,0.236156,0.152483,-0.827484,0.540387
-0.450708,-0.454338,0.594534,0.600926,0.245659,0.760617
-0.280638,0.252297,0.596640,0.956074,0.205674,0.208855
0.617636,-0.211353,-0.965036,0.050731,0.050258,0.997447
0.289330,-0.010444,0.274190,0.659650,-0.746577,0.086511
0.696460,-0.569414,0.636251,0.650859,-0.299096,0.697799
-0.255142,0.334130,0.564397,0.884636,0.272441,-0.378410
0.624722,-0.377460,0.422209,0.060667,-0.660315,0.748535
0.413815,0.048703,-0.719839,0.242617,-0.945028,0.219225
-0.227820,-0.245015,0.117883,-0.116331,0.278341,0.953411
0.266684,-0.029844,0.972542,0.895593,0.424582,-0.132831
-0.530555,0.261907,0.474209,0.235999,0.356706,0.903917
0.309056,0.040408,-0.222943,-0.070013,-0.995081,-0.070079
0.184498,-0.285066,0.838084,-0.592568,-0.485250,-0.642958
0.198086,0.209382,0.766732,-0.695008,-0.064490,-0.716104
0.447785,-0.177091,0.824774,-0.102109,-0.905793,0.411234
-0.133946,-0.092576,0.830871,0.578857,0.774497,-0.255106
-0.097782,0.058376,0.776387,-0.559521,0.597102,0.574809
-0.087700,-0.071086,0.879285,0.148791,-0.745557,0.649620
0.148044,0.111735,0.754678,-0.737799,0.556520,0.382019
0.129563,-0.526441,0.818509,0.336065,-0.665189,0.666771
0.658765,-0.429628,0.552188,-0.413327,-0.887171,0.205153
0.136063,0.491286,0.427344,0.528692,0.462078,0.712017
-0.457501,0.178464,0.503467,-0.250111,0.615435,0.747452
0.074041,-0.209921,0.831666,0.468820,0.861909,-0.193184
-0.520328,-0.088037,0.420926,0.089725,-0.035855,-0.995321
-0.788070,-0.335981,0.433259,0.904942,-0.259704,-0.337096
0.353692,0.099440,0.454299,-0.001936,-0.238640,0.971106
-0.208168,0.598842,0.360889,0.324578,0.776993,0.539381
0.275376,0.060999,0.081495,-0.155386,-0.987851,0.002245
0.328780,0.005312,0.379250,0.830155,-0.422882,0.363337
0.893123,-0.220901,0.676698,-0.285324,0.595484,0.750992
0.370274,0.029188,-0.262009,-0.835525,0.545997,-0.061524
-0.266831,-0.298614,0.577135,0.611681,0.237419,0.754638
0.692953,-0.169928,-0.967491,-0.032630,0.017406,0.999316
-0.628668,0.398950,0.204526,0.832903,-0.495949,-0.245576
0.183914,-0.097232,0.132644,0.451203,0.014021,-0.892311
-0.382766,0.432852,0.052642,-0.030515,-0.126830,0.991455
0.231546,0.013013,-0.105884,-0.230714,0.095636,0.968310
0.421484,-0.415661,0.426255,0.894101,-0.062771,-0.443444
0.226871,-0.129881,0.332231,0.873380,-0.484489,-0.049768
0.423092,-0.155844,0.849316,0.522506,0.764224,0.378086
-0.371734,-0.244002,0.540413,0.941576,-0.317160,0.113331
0.287357,-0.061895,0.257238,0.718896,-0.635424,0.281825
0.167403,0.098602,0.755905,-0.217518,0.777969,0.589449
-0.242648,0.351496,0.512020,-0.182341,-0.265981,0.946576
0.102312,-0.083742,0.916956,0.705324,0.095271,-0.702454
-0.199839,-0.110660,0.667281,0.292760,-0.012461,0.956105
0.510684,0.011282,-0.754915,0.759650,0.641860,0.104634
0.693101,-0.875012,0.334547,0.928570,-0.366678,-0.057480
0.557440,-0.066073,0.054484,0.326746,0.810649,-0.485886
0.453702,-0.021906,0.164693,-0.548317,-0.832875,-0.075279
-0.493517,-0.448309,0.441519,0.149971,0.423313,0.893485
0.807504,-0.487941,0.562471,-0.720686,-0.645155,0.253745
0.874128,-0.611017,0.616257,-0.505309,0.555776,0.660133
-0.439821,0.119615,0.092894,0.330117,0.375335,-0.866110
-0.673156,-0.423420,0.068562,-0.877247,0.407207,-0.254205
0.437996,-0.419781,0.537915,0.148066,0.070993,0.986426
-0.016474,0.357227,0.712277,-0.627392,0.387362,-0.675522
0.417030,-0.006743,0.635456,-0.155588,-0.974551,0.161379
0.261861,-0.066073,0.138085,0.701526,0.068856,-0.709310
-0.319501,0.340396,0.540329,0.826262,-0.064852,0.559540
0.278373,0.165633,0.622285,0.037720,-0.054152,0.997820
-0.613545,-0.536885,0.373655,-0.043625,0.210391,0.976644
-0.221025,-0.518740,0.735954,0.652202,0.111937,0.749735
-0.311903,0.338010,0.518633,0.752823,-0.343213,-0.561661
0.215253,0.479227,0.428809,0.266840,-0.950772,0.157573
-0.020273,0.045483,0.839214,-0.023884,0.759653,0.649890
0.139862,0.518262,0.280482,0.233083,0.415002,-0.879457
-0.641012,-0.714992,0.106079,0.414134,0.237119,-0.878787
0.176682,0.477497,0.429855,-0.224892,-0.675399,-0.702324
-0.378238,-0.303988,0.350174,-0.066605,-0.098264,0.992929
0.722688,-0.099378,-0.960794,-0.008451,0.166998,0.985921
-0.346825,-0.236362,0.118524,-0.199852,0.371377,0.906718
-0.406656,-0.417453,0.486152,-0.757610,0.447474,-0.475177
0.546845,-0.465439,0.535320,0.258760,-0.813672,-0.520558
-0.335939,0.338126,0.447714,0.296678,-0.650982,0.698717
-0.344413,-0.169750,0.545645,0.949663,-0.075373,-0.304070
-0.338204,-0.366658,0.359801,-0.069770,0.228885,0.970950
0.156737,0.404200,0.462057,0.261530,-0.503399,-0.823524
-0.507032,-0.768592,0.102856,-0.560517,0.812763,-0.158861
0.239872,-0.139250,0.794065,0.845364,0.423109,0.326096
-0.551886,0.391070,0.048958,0.033477,0.482787,0.875098
-0.723053,0.426943,-0.040127,0.999032,-0.003071,0.043888
-0.103409,-0.108689,0.768490,0.897513,0.429886,-0.098326
0.325712,0.013789,-0.155163,0.997930,0.060727,0.021163
0.514775,-0.213382,0.485469,0.021489,0.122117,0.992283
-0.567300,0.513905,0.384594,0.607192,0.547109,-0.576185
-0.095664,0.004117,0.853571,-0.700888,0.680373,0.214122
0.851482,-0.229138,0.650747,0.844441,-0.238175,-0.479784
0.290061,0.012117,0.406890,0.839386,0.502842,0.206353
-0.097490,-0.385041,0.362117,0.174236,0.202275,0.963705
-0.446762,0.228719,0.450588,0.778603,0.525512,0.342950
0.360998,0.240719,0.834931,-0.498240,0.852592,0.157618
-0.308762,0.367791,0.390733,0.479893,0.320531,-0.816678
0.522446,-0.842246,0.417033,-0.153020,-0.801441,0.578167
-0.470287,-0.103618,0.435171,-0.190353,-0.462931,0.865714
-0.294955,0.684792,0.404392,-0.407033,0.077350,-0.910132
0.808380,-0.090784,-0.965663,-0.042046,0.132401,0.990304
-0.301750,-0.282140,0.752850,0.386851,0.778309,-0.494551
0.015304,0.234927,0.649129,-0.048339,-0.509406,0.859167
0.021952,0.124030,0.801557,0.737113,-0.096871,0.668790
0.020273,0.206278,0.705147,-0.084066,0.345037,-0.934817
0.414546,0.169750,0.458443,0.014970,-0.249682,0.968212
0.530921,0.093410,-0.983787,-0.216410,0.298931,0.929412
0.334915,0.132325,-0.991922,-0.118420,0.206728,0.971206
0.380574,-0.041425,-0.524954,0.873736,-0.244362,-0.420563
-0.140812,0.631014,0.494789,0.995016,0.097096,0.022706
0.286773,-0.124984,0.960501,0.965354,-0.124943,-0.229086
-0.777844,0.669808,0.245518,-0.586892,-0.551386,0.592901
0.317018,0.025665,0.590446,0.993728,-0.109616,0.022113
0.110494,0.217561,0.459253,0.415775,0.563736,0.713675
-0.334258,0.366061,0.138769,-0.523952,0.498117,0.690908
0.484751,-0.023279,0.626345,-0.094892,0.981743,-0.164853
0.051320,0.595199,0.460006,0.884650,0.146713,0.442572
-0.130146,-0.084817,0.795502,-0.800463,0.018581,-0.599094
-0.641012,-0.332458,0.077156,0.803069,-0.582014,0.127830
0.370422,-0.016117,0.390189,0.889201,0.431226,0.152863
0.186179,-0.032350,0.763384,-0.530786,-0.391612,-0.751603
0.618878,0.025009,-0.975095,-0.112052,0.277865,0.954063
-0.365381,0.471825,0.445119,-0.661314,0.542760,0.517760
-0.253971,0.219470,0.694850,-0.814623,-0.056566,-0.577225
-0.234174,0.509129,0.460034,-0.167418,0.985861,-0.006964
-0.272529,-0.210577,0.127761,0.174902,-0.528258,-0.830875
0.102970,-0.161513,-0.186263,-0.351038,-0.436522,0.828385
-0.517479,0.248596,-0.004702,0.202432,0.293341,0.934330
0.460934,-0.662169,0.736065,-0.193289,0.497569,0.845615
-0.416591,-0.327146,0.552481,0.781357,0.290437,0.552383
0.211091,-0.049479,0.962496,0.886764,0.404719,-0.223278
0.125908,0.159961,0.642780,0.451485,0.389648,0.802705
-0.611791,0.802793,0.262888,0.353598,-0.141387,0.924650
-0.241627,-0.352691,0.747436,0.086571,0.173910,0.980949
-0.185447,0.654948,0.340868,0.069198,0.591408,0.803398
0.376631,0.031217,-0.065924,-0.700898,0.706808,-0.095730
-0.172809,-0.053898,0.802883,-0.613531,0.033793,-0.788947
-0.421121,-0.477497,0.101656,-0.479382,-0.193844,0.855931
-0.336670,-0.228541,0.803817,0.960137,-0.206629,0.188260
0.222267,0.011221,0.864007,0.311518,0.513537,-0.799523
-0.557292,0.119134,0.311247,0.166396,0.155232,0.973764
-0.418490,0.154649,0.603965,0.474075,0.030319,-0.879962
-0.375170,0.567625,0.363414,-0.210989,0.928888,0.304385
-0.330240,0.623254,0.228524,-0.413222,0.854025,0.316052
0.130804,0.374953,0.411424,0.745810,0.094234,-0.659460
-0.517187,-0.646711,0.376362,-0.286516,-0.044161,-0.957057
0.351208,-0.017308,0.278027,0.659650,-0.746577,0.086511
-0.299485,0.192133,0.468349,0.427311,-0.872535,-0.236831
-0.163898,-0.192194,0.864091,-0.034387,-0.758583,0.650668
0.313439,-0.347139,-0.007939,0.057679,-0.224087,0.972861
-0.328998,-0.153575,0.680563,0.276335,0.623983,0.730947
0.336962,-0.042139,0.653872,0.284433,-0.814748,-0.505256
0.416080,-0.714275,0.684763,0.997795,-0.066047,0.006626
-0.638018,-0.002029,0.238416,0.945998,-0.000317,0.324172
-0.151186,0.210217,0.693957,0.073794,0.815538,0.573980
0.103043,0.089888,0.789070,0.314587,-0.948824,0.027709
0.169523,0.397635,0.563518,-0.478827,-0.873090,0.091861
-0.048763,-0.115735,0.791846,-0.627255,0.399711,0.668417
-0.422800,-0.478273,0.570410,0.793329,-0.608002,0.031028
0.296781,-0.115075,0.927197,-0.384654,0.741822,-0.549310
-0.199986,-0.569297,0.745385,0.385241,0.536802,0.750622
0.080176,0.025964,0.922174,-0.553467,-0.800379,0.230364
0.755563,-0.578310,0.489543,0.705994,0.038142,-0.707190
-0.772364,0.075563,0.214363,0.408943,0.815305,-0.409930
-0.015378,-0.198581,0.819835,0.847471,0.498361,-0.182836
0.504475,0.024652,-0.745371,0.666794,0.714838,0.210695
0.179531,-0.487045,-0.007646,0.122416,-0.285186,0.950622
0.780693,-0.444014,0.581488,-0.401701,0.654523,0.640497
0.065419,0.531931,0.434655,0.850333,0.507430,0.139458
-0.312342,-0.113764,0.771197,0.569759,-0.475780,0.670081
0.882602,-0.290734,0.423144,-0.370567,-0.856110,0.360217
-0.125251,0.616984,0.493659,0.857587,0.208871,0.470018
-0.387443,-0.823623,0.299164,0.252118,0.297016,0.920988
0.508055,-0.009013,0.876383,-0.084583,-0.473743,0.876592
-0.475327,-0.741973,0.105577,0.168514,0.052428,-0.984304
-0.039997,-0.109943,0.850739,-0.312651,0.828506,-0.464572
-0.053804,0.402469,0.455667,0.362941,-0.567937,-0.738729
-0.237681,-0.291452,0.718848,0.961407,0.273436,0.030474
-0.195676,0.432491,0.175854,0.299442,-0.207377,-0.931305
0.051612,0.117644,0.614164,-0.333622,0.681728,-0.651110
-0.475546,0.651305,0.029007,-0.655801,-0.365571,0.660517
-0.407459,0.193029,0.379306,-0.376967,0.038341,0.925433
-0.706031,-0.435537,0.403750,0.866675,-0.462616,0.186710
1.000000,-0.225138,0.500649,-0.305410,-0.800541,0.515615
0.349235,-0.706934,0.649338,0.655564,-0.268800,0.705679
0.738467,-0.446877,0.726424,0.238672,0.767504,0.594956
0.196187,-0.102365,0.000670,-0.274563,0.246194,-0.929518
-0.099610,0.301540,0.572824,0.208050,-0.945577,-0.250197
0.323739,0.165812,0.619173,0.113765,0.116594,0.986642
0.124885,0.147010,0.698059,0.544295,0.595140,0.591229
-0.236366,-0.130358,0.496505,0.990162,-0.056352,-0.128077
-0.187786,0.273306,0.219943,0.768145,0.634898,-0.082807
-0.028600,0.833948,0.450714,0.999368,0.010061,0.034103
-0.011871,0.280709,0.426186,0.595454,0.370250,0.712987
-0.753224,-0.251521,0.416893,0.263859,0.754536,0.600878
-0.317675,-0.302913,0.579284,-0.052267,0.631536,0.773583
-0.169157,-0.191954,0.851576,0.752216,-0.478493,0.453007
-0.320232,-0.503880,0.669959,0.664721,-0.672174,-0.326080
-0.564890,0.469916,0.250792,-0.428524,0.549500,0.717228
-0.021149,0.037603,0.035885,0.441139,0.200089,-0.874849
-0.281953,0.628744,0.362954,0.462619,-0.875987,-0.136494
0.106258,0.326010,0.637297,-0.626980,0.530024,-0.570938
-0.867627,0.265011,0.325827,0.879319,0.263231,-0.396872
-0.694269,-0.111378,0.231552,-0.516889,0.192709,0.834080
0.680536,-0.490211,0.741144,-0.570437,0.597196,0.563879
0.294297,0.787510,0.357875,-0.097129,0.074041,0.992514
0.765423,-0.526561,0.768100,-0.684411,-0.706932,-0.178406
0.366402,-0.385937,0.501305,-0.456854,0.713105,0.531757
0.165285,0.134773,0.826699,-0.433635,0.852508,0.291873
-0.614130,-0.651961,0.396970,-0.251151,-0.291281,0.923081
0.392702,-0.669032,0.443361,0.035528,-0.218383,0.975216
0.160391,-0.142890,0.858985,0.246770,0.891632,0.379602
-0.207071,-0.567804,-0.007548,0.922193,-0.275790,-0.271110
0.269825,0.037902,0.934313,-0.686707,0.564029,0.458590
-0.200643,-0.178285,0.857380,0.779714,-0.617343,0.104562
-0.311903,0.154231,0.553667,-0.223517,0.426522,0.876424
0.770246,-0.782439,0.415903,0.735445,-0.018993,0.677318
0.426746,0.034441,-0.674550,0.827175,-0.549419,0.117981
0.064617,-0.015876,0.899572,0.918944,-0.376224,-0.118314
-0.259233,0.752177,0.316326,0.176769,0.888177,0.424140
-0.601125,0.649932,0.035034,0.777995,-0.589055,-0.218491
-0.126348,-0.448965,0.750771,0.716456,0.697557,0.010268
0.273624,0.012175,0.973714,-0.100822,0.988648,0.111398
-0.706031,0.120985,0.529125,0.772091,-0.365028,0.520221
0.507177,-0.305955,0.810556,0.975393,-0.179479,-0.128043
0.426233,-0.349168,0.132979,-0.404225,-0.119098,0.906873
-0.050518,0.007461,0.771629,0.368015,0.241168,0.897999
-0.830295,-0.539392,0.135741,0.992677,-0.075339,0.094426
0.220806,0.070194,-0.203298,-0.246259,-0.866080,-0.435043
-0.309785,0.430881,0.243006,0.295346,-0.029167,-0.954945
0.391605,-0.228781,0.878602,-0.582574,0.254047,0.772054
-0.671185,0.866298,0.259638,0.226848,0.918119,0.324959
-0.326733,-0.161812,0.784954,0.927297,0.351185,0.129574
0.578624,-0.819922,0.650649,-0.193559,0.331798,0.923279
0.441576,0.165692,0.871291,0.865349,-0.083487,-0.494168
-0.650583,-0.531035,0.102298,-0.261437,0.614921,0.743991
-0.256384,0.294137,0.591799,0.896860,0.393448,0.202091
0.535961,0.319624,0.421512,-0.219013,-0.221342,0.950285
-0.376996,-0.336396,0.486236,0.852117,-0.521599,0.042790
0.165650,-0.225320,0.220502,-0.591736,0.770687,0.236411
-0.853600,0.673331,0.231691,0.621261,0.477049,-0.621659
0.301822,-0.342425,0.122431,0.149445,0.315361,-0.937130
0.609600,-0.289066,0.541961,-0.782364,-0.308512,-0.541043
0.318625,0.002627,0.197704,-0.359967,0.871462,0.333133
0.340761,-0.737197,0.638846,0.838224,-0.310298,0.448436
0.220294,-0.209441,0.907427,-0.481574,0.749841,-0.453678
0.185009,-0.406710,0.857757,0.299869,0.758462,0.578631
-0.590678,-0.104511,0.024751,0.508695,0.420187,-0.751447
-0.290206,-0.266741,0.575907,-0.388618,-0.209129,-0.897352
0.543486,-0.297959,0.654779,-0.033273,-0.940846,0.337197
0.246521,-0.034918,0.853948,0.015913,-0.430093,0.902644
-0.623480,0.095797,0.502058,0.292085,-0.640918,-0.709866
-0.544875,0.175123,-0.002232,0.069072,0.073710,0.994885
0.224532,0.178107,0.759575,0.893496,-0.111342,0.435049
0.211527,0.443417,0.434780,-0.932976,0.170552,-0.316966
0.065640,0.559268,0.457578,-0.594908,-0.449017,0.666684
-0.808891,-0.675181,0.381525,0.964008,0.207873,-0.165763
0.787341,-0.629341,0.409513,0.164440,0.351986,0.921447
0.453336,-0.077057,-0.738102,0.983378,0.008913,0.181353
0.756513,0.006685,0.640102,0.702095,-0.707495,0.080706
0.111517,0.297900,0.638427,-0.662149,0.226217,-0.714412
0.203566,-0.120329,0.922579,0.561478,-0.616560,0.551902
-0.051394,0.830068,0.398128,0.807284,0.392165,-0.441021
0.139205,0.205266,0.674592,0.974014,0.131353,-0.184507
0.386786,0.038022,0.063943,0.429279,0.900123,-0.074153
0.121380,-0.294436,-0.983704,0.283828,-0.120407,-0.951285
0.018958,-0.001851,-0.233979,-0.004349,0.159306,0.987220
0.066369,0.244836,0.039122,-0.174168,-0.438723,0.881582
0.836359,-0.089410,0.514462,0.479131,0.440689,-0.759096
0.441576,-0.741197,0.697376,-0.085125,-0.259536,0.961974
0.496804,-0.204428,0.852469,0.926398,0.374581,-0.038413
0.624211,-0.689983,0.640074,0.529783,0.284073,0.799145
0.531723,-0.143487,0.834205,-0.536128,-0.822287,-0.190816
-0.389780,-0.412735,0.098922,-0.632358,0.147961,0.760415
-0.483581,0.311030,0.001479,-0.549491,-0.416364,-0.724362
0.254995,-0.048226,0.337324,0.650036,-0.758614,-0.044246
-0.071044,-0.256475,0.804487,0.987758,-0.118181,-0.101822
-0.425212,-0.048346,0.571833,-0.089339,-0.233550,0.968232
0.380940,-0.013909,-0.657919,0.994871,-0.070392,0.072644
-0.005443,-0.770202,0.304285,-0.085871,-0.080619,0.993039
-0.647368,-0.132507,0.417452,0.852831,-0.307474,0.422064
-0.737226,0.867314,0.241109,-0.812301,0.268430,0.517796
-0.345289,-0.016594,0.626777,0.686944,0.597826,0.413173
-0.006685,0.346542,0.579632,-0.084008,0.030777,0.995990
0.178581,0.194402,0.412554,-0.546404,-0.073602,0.834281
0.297075,0.036769,0.935583,0.730856,0.627883,0.267605
0.720933,-0.127312,0.592734,0.908502,-0.374263,0.185881
-0.439969,0.327146,0.404294,-0.215279,0.053154,0.975105
-0.306278,0.240479,0.527214,0.655759,-0.564304,0.501538
-0.339664,0.796108,0.407866,-0.516733,-0.259277,-0.815942
0.023486,-0.002149,0.296918,0.155775,0.733526,0.661570
-0.732258,0.263878,0.370614,-0.706066,0.707020,-0.039914
-0.712388,0.238330,0.066189,-0.306762,0.315642,0.897924
-0.577090,0.195178,0.088974,0.143516,0.986703,0.076298
0.375534,-0.022740,-0.393244,0.922647,0.315523,0.221738
0.197721,-0.043213,0.464540,0.989767,0.132784,-0.052250
0.583372,-0.213561,0.696580,0.945621,0.206868,-0.251012
-0.696023,0.080576,0.317372,0.588708,0.294030,-0.752973
-0.239654,-0.354064,0.743655,0.086571,0.173910,0.980949
-0.790701,0.243164,0.339291,0.380584,0.115755,-0.917473
-0.589363,0.036769,0.487659,0.842608,0.436631,-0.315222
-0.146729,0.109465,0.723634,0.693930,-0.052703,0.718111
-0.228623,0.341707,0.558746,-0.326179,0.826993,-0.457920
-0.369398,0.273725,0.545366,0.778352,-0.041801,0.626435
0.237754,-0.035454,0.680619,0.911242,-0.333944,0.241079
-0.189978,-0.225379,0.783252,0.483970,0.422286,0.766451
0.235637,-0.058612,-0.989034,-0.365883,0.155412,0.917593
0.329803,0.024652,0.332064,-0.017499,0.976636,0.214186
0.192169,0.238570,0.267688,0.771827,-0.342979,-0.535395
0.246447,-0.473198,0.805673,-0.574290,0.032109,-0.818022
-0.318991,0.541662,0.425628,-0.328985,-0.847157,-0.417246
-0.234832,-0.037064,0.105981,0.179581,-0.513693,-0.838970
0.413742,0.033723,-0.214990,0.069472,0.997324,-0.022780
0.014283,-0.382414,0.825806,0.744889,-0.502257,0.439179
0.261569,0.406050,0.580093,-0.107696,-0.660598,0.742975
-0.285458,-0.334188,0.631046,-0.516543,0.664440,0.540096
-0.250830,0.306673,0.598817,-0.001989,0.970057,0.242870
-0.874347,0.226632,0.319130,0.888348,0.386505,-0.247893
-0.235781,0.659961,0.232054,0.188996,0.606426,0.772352
-0.347409,-0.516233,0.111520,-0.506916,0.136503,0.851119
-0.656647,0.072281,0.228747,0.794559,0.316677,-0.518066
0.032838,0.224005,0.479581,-0.531775,-0.432265,-0.728260
0.127005,0.136566,0.647413,-0.531302,-0.788291,-0.310348
-0.614201,0.136205,0.488524,0.790985,-0.380836,-0.478860
0.014575,-0.323744,0.136718,-0.081234,-0.281878,0.956005
-0.269388,0.296049,0.258368,0.038901,-0.094906,0.994726
0.355226,-0.052226,-0.895037,0.935967,-0.351468,0.020872
0.490742,-0.022142,-0.366847,0.140315,-0.955513,0.259436
-0.605435,-0.479289,0.440375,0.108498,-0.898222,0.425941
0.137671,0.030798,0.225538,0.576746,0.698788,-0.423155
-0.197063,0.272592,0.605667,0.838665,0.519318,-0.164167
0.118458,0.696490,0.369623,0.183575,0.837388,0.514860
0.114877,-0.476065,0.694334,0.422363,-0.887015,0.186584
0.166234,0.035993,0.907734,-0.726702,0.673368,0.135941
-0.260548,0.350902,0.443738,-0.553285,-0.498291,0.667519
0.088650,0.341292,0.637716,-0.643919,0.613968,-0.456521
-0.524783,-0.111972,0.308457,-0.249285,0.567726,0.784567
0.122402,-0.262803,0.364000,0.070169,-0.131471,0.988833
0.114732,0.265190,0.566462,0.646032,-0.759328,0.077871
-0.176534,-0.186165,0.852873,-0.331568,0.937446,0.106104
0.623333,-0.167185,0.533060,0.316706,-0.427167,0.846892
0.160026,0.465380,0.428334,-0.298562,-0.919686,0.255027
-0.256528,0.403843,0.164971,0.543573,-0.050533,-0.837839
-0.577821,0.551031,-0.038090,-0.461463,-0.160900,0.872446
-0.447054,-0.766202,0.295746,-0.249875,-0.232809,-0.939874
0.168936,-0.093410,-0.987624,-0.133912,0.224083,0.965326
-0.249736,0.400262,0.250848,-0.130694,0.243713,0.961001
0.035688,-0.075326,-0.179663,0.211375,0.213253,0.953857
-0.220880,-0.137342,0.435534,0.067659,-0.766506,0.638663
0.286481,0.025188,0.622271,0.933291,0.175155,0.313512
0.354129,-0.008058,0.678610,0.430409,0.817676,0.382302
0.141031,-0.378418,0.836396,-0.588580,0.780256,-0.211599
-0.662638,0.058911,-0.003056,0.745414,0.568345,0.348341
0.336012,-0.034740,0.508643,0.831591,0.555376,0.003753
0.184353,-0.356990,0.847837,0.100415,-0.203344,-0.973945
-0.208386,-0.532230,0.710616,0.955472,0.285581,-0.074278
0.188223,-0.048525,0.932206,-0.016801,0.306991,0.951564
0.081347,0.336516,0.704743,0.232132,-0.625300,0.745060
-0.538300,-0.135072,0.242909,-0.052644,0.417324,0.907232
-0.625379,-0.067028,-0.017440,0.690260,-0.155085,-0.706746
0.295102,-0.025246,0.992536,0.314057,-0.904828,-0.287498
0.245863,-0.053658,0.359592,0.260301,-0.965135,0.027510
-0.416883,-0.535931,0.115371,-0.281213,0.205059,0.937481
-0.142930,0.269546,0.263251,0.113744,-0.195316,0.974122
-0.722177,0.458455,0.071436,0.678702,0.075699,0.730502
0.565256,-0.690701,0.386115,0.864866,-0.452046,-0.218316
0.335355,0.036408,0.887922,-0.287413,0.954311,-0.081760
0.298244,-0.410229,0.795097,0.737954,-0.545968,0.396663
-0.657742,0.366181,0.071212,0.260515,0.268356,0.927425
0.302335,-0.355737,-0.155191,-0.177931,-0.046052,0.982965
0.300362,0.003162,0.190379,-0.148028,0.924585,0.351041
0.036637,0.100992,0.699245,0.515837,-0.311567,0.798022
-0.549476,0.350483,0.058418,0.115644,0.519584,0.846557
0.024144,-0.071625,0.837735,0.829105,-0.546034,0.120132
0.309567,-0.089054,0.965580,0.873500,0.274459,-0.402082
-0.133725,-0.404320,0.689828,0.118299,-0.618742,0.776636
0.444862,-0.518324,0.806329,0.309296,-0.943169,-0.121521
-0.453191,-0.026561,0.101531,0.114421,0.079489,0.990247
0.368740,-0.353230,0.510248,-0.233311,0.567295,0.789773
-0.194726,0.681746,0.504765,0.890224,0.107444,0.442670
0.203930,-0.467053,-0.973826,-0.162533,0.071175,0.984133
-0.291814,-0.400859,0.751134,0.862937,0.124502,0.489733
0.214232,0.309179,0.565206,0.255525,-0.219040,0.941663
0.364065,-0.118719,0.865193,-0.655761,0.443377,0.611061
-0.826352,-0.513967,0.462657,0.059725,0.568835,0.820280
-0.017277,-0.071148,0.866393,0.337235,-0.865117,0.371275
-0.190123,-0.117225,-0.205740,0.959351,0.244325,-0.141245
-0.537056,0.573235,0.371855,-0.187672,0.567086,0.801993
-0.155787,-0.195776,0.381678,-0.418283,0.787786,-0.452143
-0.111370,0.186999,0.716741,0.150871,0.836854,0.526225
0.281587,-0.046616,0.735842,0.906559,0.410816,0.096856
0.104651,-0.295751,-0.190058,0.778614,0.151813,-0.608862
-0.233882,0.658409,0.478841,0.414972,0.661257,-0.624930
-0.548526,0.776173,0.363498,0.496849,0.531027,-0.686405
-0.426672,-0.401394,0.364154,0.119470,0.408781,0.904779
0.712751,-0.342126,0.714621,-0.410358,0.157547,0.898212
-0.731017,0.308760,-0.041047,0.930895,-0.216243,-0.294402
-0.373416,-0.434939,0.526754,0.763766,-0.231733,-0.602463
-0.714432,0.135371,0.378887,0.744034,0.037131,-0.667110
0.029550,-0.078489,-0.119110,0.452030,-0.215133,-0.865671
-0.333894,-0.609644,0.291504,-0.608155,0.193127,0.769967
0.111152,0.175659,0.685070,0.994436,-0.030638,0.100793
0.465025,0.074011,0.837052,0.437529,0.677496,0.591242
-0.260840,0.253849,0.697069,0.497587,-0.850272,-0.171596
-0.362166,-0.374538,0.596306,0.513377,0.259835,-0.817882
0.477664,0.041782,-0.526977,0.851692,-0.473353,-0.224850
0.255726,0.130118,0.903604,0.661043,-0.482469,0.574670
0.505935,-0.037126,-0.950400,0.794639,0.428850,0.429693
0.371516,-0.263816,0.824648,-0.558661,0.710967,-0.427112
0.085438,-0.262924,0.844279,0.923350,-0.195736,-0.330321
0.225992,-0.583921,0.817602,-0.433321,-0.327347,-0.839689
0.403660,-0.207710,0.470191,0.536498,0.598218,-0.595235
0.697118,-0.721080,0.637688,-0.377514,-0.266253,-0.886901
-0.553275,0.376924,0.374465,0.630267,0.696517,-0.342969
0.594185,0.106125,0.842242,0.400094,0.911081,0.099273
-0.283340,-0.428375,0.438980,-0.417493,0.390603,0.820444
-0.736786,0.075385,0.307326,0.733424,0.520476,-0.437257
-0.411623,0.471708,0.404741,-0.219651,-0.184382,0.957996
0.453849,-0.261073,0.684609,-0.430475,-0.848463,-0.307899
-0.385105,-0.384742,-0.019980,0.749134,0.368351,0.550560
-0.387588,0.531873,0.209898,0.101714,0.482516,0.869961
0.335063,0.026383,-0.138085,-0.358993,0.903934,-0.232437
0.590970,-0.394415,0.535237,-0.508307,0.362553,0.781140
0.093764,-0.164318,-0.181700,0.095122,0.151177,0.983919
-0.348359,-0.361762,0.417577,0.116589,-0.365823,0.923353
-0.268583,0.422167,0.157884,0.337748,-0.356474,-0.871121
-0.194945,-0.304523,0.232124,0.627342,-0.752915,-0.198900
0.685650,0.045421,0.632832,0.292244,0.815394,0.499727
-0.174635,0.737973,0.376125,-0.471686,0.672690,0.570089
0.432005,-0.055090,-0.428362,0.937757,0.346958,-0.015240
0.409358,0.026681,-0.529223,-0.611408,0.599669,0.516311
0.025972,-0.292406,0.820002,0.458789,0.004968,-0.888531
0.160462,-0.178643,-0.983969,-0.233352,0.152621,0.960340
0.588268,-0.177451,0.738409,0.650413,0.512430,0.560695
0.251488,0.083800,0.682502,0.820915,0.538779,0.189252
0.180846,-0.200967,0.919021,-0.812109,0.553147,-0.185760
-0.628886,0.200311,0.316981,0.397950,0.002261,0.917404
0.458890,0.264293,0.468140,-0.157288,-0.204335,0.966182
0.663659,-0.809536,0.396523,0.328615,-0.317200,-0.889605
0.429011,-0.222155,0.012753,0.478021,0.340894,-0.809498
0.357417,0.020353,0.218716,0.861178,-0.474283,-0.182832
-0.472842,-0.419005,0.385668,-0.303058,0.938287,0.166655
0.278812,-0.007519,0.959092,0.890304,0.187916,-0.414785
0.387004,-0.815146,0.447002,0.184628,-0.208476,0.960443
0.152646,-0.157874,0.128026,-0.072982,-0.020082,0.997131
-0.274063,-0.568700,0.687400,-0.640720,-0.744584,0.187274
0.522957,-0.051807,0.649589,-0.159264,-0.985836,0.052552
0.067392,0.283456,0.794469,0.673836,-0.325585,0.663279
0.032838,0.266982,0.467777,0.103896,0.841280,0.530522
0.579794,-0.197983,0.634214,0.442038,-0.355268,-0.823642
0.540563,0.446521,0.421902,-0.111302,-0.098776,0.988866
-0.003689,-0.006805,-0.104070,-0.227566,-0.066048,0.971520
-0.697484,0.197324,-0.041424,-0.701968,-0.180854,0.688864
-0.741535,0.185269,0.541627,-0.566081,0.375085,-0.734073
-0.413523,0.222752,0.259331,-0.079066,-0.387898,0.918305
-0.010410,-0.341471,-0.196197,0.896501,0.197037,-0.396816
0.391095,0.464069,0.428837,-0.119181,-0.032479,0.992341
-0.186981,0.248359,0.259610,-0.347773,-0.699103,0.624748
0.109034,0.139965,0.668578,0.948719,0.301651,0.094544
-0.568105,-0.557716,0.383603,0.003506,0.329436,0.944171
-0.467437,-0.193149,0.087997,0.716550,0.659937,-0.225918
-0.409285,-0.304884,0.569392,-0.495041,0.839882,0.222558
-0.664900,0.118001,0.483808,-0.769996,-0.021228,-0.637696
0.294518,-0.507581,0.776639,0.825725,-0.534535,0.180141
-0.593819,0.186879,0.520600,0.476889,-0.499870,0.722985
0.216789,-0.132026,0.752222,-0.745398,-0.309995,0.590157
0.039266,-0.918225,0.245295,0.556341,-0.647588,0.520687
0.468166,-0.833649,0.605556,-0.006121,0.964663,0.263416
0.426454,-0.246807,-0.003641,-0.220766,0.156719,-0.962653
-0.135479,-0.242927,0.288491,-0.325797,-0.110538,0.938956
-0.340469,-0.366301,0.421888,-0.022519,-0.028461,0.999341
-0.276984,-0.531873,0.593431,0.732600,0.395072,0.554270
-0.490229,-0.003938,0.109469,0.218794,-0.128571,-0.967263
0.134017,0.032113,0.780364,0.935723,-0.168318,0.309985
0.076890,0.255940,0.696301,0.283994,0.564971,0.774697
-0.649123,0.269605,0.549538,0.689938,-0.481036,0.540916
-0.071336,-0.604809,0.680968,-0.457018,0.887698,-0.055917
-0.366549,0.100871,0.680870,-0.559409,0.709588,-0.428424
-0.011142,-0.105229,0.617276,0.900805,-0.046166,-0.431763
0.281222,0.117105,0.815872,-0.635993,0.620025,-0.459436
0.345802,-0.016295,-0.258005,0.963582,0.192969,-0.185129
0.812471,-0.205382,0.504918,0.834914,-0.050534,0.548056
0.282829,-0.231109,0.710142,-0.653682,0.073807,-0.753162
-0.205027,-0.607017,0.672150,0.597135,0.801410,0.034241
-0.490595,-0.170468,0.120059,0.245188,0.437572,0.865109
-0.741390,-0.478033,0.374297,0.789022,0.227889,-0.570535
0.360924,0.017785,0.978946,0.303838,0.903703,0.301668
-0.437556,0.119433,0.606253,0.961198,0.067749,0.267412
-0.272966,0.483166,0.250359,-0.130845,-0.148199,0.980264
0.375534,-0.030561,-0.868430,-0.733865,0.676613,0.060315
0.437996,-0.029366,0.083965,0.399404,0.916460,0.024038
0.527195,-0.371493,0.796130,0.854928,0.306024,0.418864
-0.164848,0.213083,0.086574,0.775091,-0.462097,-0.430930
0.325712,-0.554193,0.719923,-0.438146,0.209257,0.874208
0.532310,-0.265667,-0.964910,-0.039738,0.051472,0.997884
0.240749,-0.859019,0.539924,-0.266676,0.948659,-0.170089
-0.142054,-0.084277,0.868472,-0.758524,0.438069,0.482429
0.039340,0.277365,0.642697,-0.520825,0.804700,0.284953
0.126640,0.584755,0.391612,-0.553798,0.818807,-0.151203
0.561602,-0.268235,0.604244,0.991897,0.125744,0.018141
0.557732,0.061895,0.879634,-0.318004,-0.854260,0.411233
-0.266831,-0.564343,0.739079,0.970403,-0.240035,-0.026460
-0.039632,-0.604274,0.303378,0.203509,-0.154724,-0.966770
-0.206707,0.385161,0.524033,0.245640,-0.103222,0.963850
-0.362239,-0.241135,0.758389,0.922352,0.326903,0.205917
-0.221464,-0.148263,0.023035,-0.066899,0.623150,-0.779236
0.391021,-0.007220,0.187546,-0.308912,-0.945129,-0.106321
-0.061549,0.176854,0.706933,-0.320560,-0.617561,-0.718234
-0.385251,-0.538496,0.102828,-0.260678,0.237540,0.935747
0.583812,-0.624566,0.359019,0.946120,-0.047880,0.320256
-0.378091,0.434521,0.538138,-0.004156,0.974448,0.224576
0.414473,-0.188194,0.880025,0.825814,0.362378,-0.432103
0.361216,0.029545,-0.192569,-0.393434,0.902140,0.177069
0.350111,-0.081950,0.896014,-0.786194,0.499916,-0.363293
0.274721,-0.156081,-0.982713,0.388636,-0.077590,-0.918119
-0.714650,-0.525126,0.098963,-0.532913,0.316950,0.784568
-0.713337,0.193327,0.098866,-0.015643,0.904040,0.427161
0.260254,-0.755936,0.530172,0.873220,0.065853,0.482856
0.811156,-0.873343,0.413140,0.004721,-0.099971,0.994979
0.126421,-0.368389,0.843637,0.150546,-0.264566,0.952544
-0.359098,-0.240421,0.432436,0.868015,-0.495974,-0.023663
0.683822,-0.502984,0.474405,0.026708,0.426632,0.904031
-0.647734,0.086605,0.205893,0.827405,-0.128141,-0.546792
-0.078132,0.000536,0.122905,0.464744,-0.153822,-0.871981
0.459692,-0.710756,0.683089,-0.069030,0.513221,0.855476
-0.131168,0.300822,0.644385,0.049355,-0.797158,0.601750
-0.269314,-0.249313,0.789628,0.511650,0.018782,0.858989
-0.192753,0.030379,0.105381,0.114058,-0.379973,-0.917939
-0.244840,-0.063326,0.564439,0.714515,0.141651,-0.685130
0.073383,-0.522441,0.827090,0.934173,0.293856,0.202408
-0.318259,0.211470,0.092197,-0.030400,0.443464,0.895776
-0.580305,0.195535,0.385780,0.203393,0.257280,0.944689
-0.727581,0.968244,0.275432,0.214834,0.964347,-0.154537
-0.285458,0.788585,0.388180,-0.284972,-0.938520,-0.194864
0.032034,0.315744,0.610718,0.023920,0.999155,-0.033423
-0.088287,0.374418,0.361740,0.244649,0.431862,0.868126
-0.747599,0.576817,0.357945,0.964565,0.192740,0.180180
0.141249,-0.010324,0.899390,-0.075850,-0.356172,0.931337
-0.771487,0.145338,0.529725,0.358386,-0.440791,0.822960
0.138839,-0.008893,0.225008,0.705842,0.668497,-0.234304
-0.336157,0.361168,0.436455,0.409824,0.664355,-0.625042
-0.461518,0.068642,0.625117,-0.520019,0.358731,-0.775172
-0.241919,-0.640205,0.293011,-0.320758,-0.076646,0.944055
-0.527561,0.344753,0.074463,0.243213,0.417123,0.875703
-0.343026,-0.234391,0.758263,0.848962,0.509544,-0.140101
0.778573,-0.443595,0.720215,0.901799,-0.149645,-0.405420
-0.126640,-0.479107,0.726438,0.817976,-0.104305,0.565717
0.065419,0.233794,0.484395,0.488347,0.655475,0.576082
-0.157250,-0.446400,0.367726,-0.026090,0.073222,0.996974
-0.676810,0.131491,0.518898,0.908729,-0.300131,0.290057
-0.008584,-0.029665,0.130468,0.271148,0.088657,-0.958446
0.322132,-0.300465,-0.975556,-0.224468,0.085278,0.970743
-0.452095,0.061181,0.572349,0.933489,-0.112410,0.340532
-0.451437,0.114420,0.624405,-0.443006,0.218688,-0.869437
-0.717207,-0.359434,0.437696,0.124235,0.300847,0.945546
-0.678781,-0.263040,0.364726,0.869908,-0.393856,0.296881
-0.207802,0.811743,0.265135,-0.251132,0.883692,-0.394995
-0.872376,-0.572041,0.474823,0.833230,0.253849,0.491212
0.496219,-0.221798,0.833033,0.944583,0.324215,-0.051454
-0.653214,-0.087083,0.238570,-0.455566,0.242751,0.856464
-0.410235,0.272891,0.553556,0.940124,0.045947,0.337720
0.393726,0.324221,0.412303,-0.212788,-0.343273,0.914814
0.813566,-0.186763,0.661016,0.867613,0.058876,-0.493742
-0.336012,0.282680,0.513178,0.684906,0.045473,-0.727211
0.055264,0.242508,0.624670,-0.143314,0.343107,0.928299
-0.190562,0.311386,0.546998,0.291372,0.296163,0.909610
-0.693611,0.558969,0.057121,-0.638921,0.344259,-0.687943
0.114877,-0.238690,0.804557,0.564992,0.468869,0.678930
-0.444497,-0.074908,0.566978,0.950599,0.284647,-0.123846
-0.124522,0.180555,0.718862,-0.083260,0.576673,0.812722
-0.139862,-0.166766,0.840749,0.996810,0.012749,-0.078788
-0.102094,-0.157874,0.854827,-0.610390,0.037585,-0.791209
0.405925,-0.360691,0.719643,-0.015625,0.999857,0.006434
-0.639405,-0.283572,0.422279,-0.114493,0.859459,0.498218
-0.132117,-0.130955,0.851897,0.750258,0.413840,0.515606
-0.257113,-0.567745,0.649771,0.720961,0.342365,0.602496
0.503160,0.333769,0.482106,-0.365759,0.744492,0.558527
-0.188881,-0.961559,0.310926,-0.221702,0.511769,-0.830025
-0.304965,-0.669211,0.290877,0.845792,0.307172,-0.436212
-0.291814,0.247342,0.425097,-0.701192,0.710508,-0.059222
-0.562846,-0.604154,0.105381,0.095394,0.061024,0.993567
0.000110,0.277962,0.653342,-0.401727,0.686387,0.606209
-0.014428,0.340695,0.547514,-0.261449,0.889473,0.374810
0.614056,-0.015519,0.637423,0.970400,0.039120,-0.238313
-0.545238,-0.271576,0.419475,-0.217183,0.553361,0.804129
0.324471,-0.009909,-0.058558,0.955760,0.236177,-0.175340
-0.707126,-0.497195,0.450518,0.282582,0.242266,0.928146
0.257552,0.042496,0.633405,0.978717,0.167321,0.118812
-0.391826,0.030321,0.632847,0.628099,0.769034,-0.118656
0.289843,-0.006863,0.188453,-0.148028,0.924585,0.351041
-0.301019,0.294137,0.435268,0.401147,-0.855735,0.326800
-0.461447,-0.010922,0.435701,0.779456,-0.320724,0.538130
-0.435438,0.431897,-0.048665,-0.102461,0.168180,0.980417
-0.622677,0.052703,0.229654,0.980610,0.191582,-0.041225
0.467582,0.762144,0.335245,0.154342,-0.701309,0.695948
-0.076085,-0.455235,0.829713,-0.247630,-0.323895,0.913111
-0.427841,0.501253,0.060385,-0.185036,-0.054460,0.981222
-0.319793,-0.225379,0.120436,-0.116668,0.526863,0.841905
-0.138694,-0.552762,0.785959,0.881064,-0.471145,0.041817
-0.674764,-0.509909,0.089741,0.744369,-0.467854,-0.476473
-0.108302,-0.137101,0.844921,0.860219,0.478733,-0.175610
-0.363552,0.589410,0.369874,0.325584,-0.920663,-0.215349
-0.527998,0.201087,0.499491,0.698019,0.608701,0.377164
-0.814736,-0.481974,0.461192,0.077669,0.497231,0.864135
-0.345363,-0.208009,0.435994,0.617867,-0.542679,0.568982
0.351500,0.026142,-0.083197,-0.471860,0.846310,0.247201
0.143588,0.713859,0.371870,0.156480,0.840094,0.519380
-0.402565,-0.511577,0.109428,0.737632,0.187988,-0.648506
-0.292106,-0.270920,0.792349,-0.701144,-0.182498,-0.689269
0.528364,-0.391606,0.514085,-0.674584,0.488165,-0.553744
-0.507908,0.811445,0.385599,0.910915,-0.110667,-0.397475
-0.307157,-0.298556,0.518117,-0.612563,0.108914,-0.782882
-0.273332,-0.147786,0.673071,-0.373768,-0.636056,-0.675078
-0.696973,0.956546,0.236923,0.835628,0.254283,-0.486895
-0.151186,-0.273783,0.735075,0.907603,-0.363893,-0.209378
0.220149,-0.796822,0.549538,-0.364741,0.123337,-0.922904
-0.299485,0.235466,0.396091,-0.693436,-0.275638,0.665710
-0.328270,-0.471530,0.284891,-0.676875,0.303977,0.670402
0.539905,-0.170406,0.822262,0.970219,0.223516,-0.093360
-0.733864,0.447774,0.068966,0.876605,0.024727,0.480575
0.310225,0.128267,0.825541,0.813555,0.379335,0.440719
-0.315557,-0.048525,0.657249,0.782451,-0.338312,0.522795
-0.618513,-0.569414,0.413433,-0.489124,0.739505,-0.462482
0.419001,0.085829,0.883959,-0.372005,0.216730,-0.902574
0.151917,0.128147,0.807082,0.179068,0.981759,-0.063908
-0.227162,0.873999,0.375497,-0.179542,0.746970,-0.640157
-0.530847,0.318013,0.528358,-0.196336,0.976718,-0.086456
-0.608650,0.424972,0.043950,0.718983,0.462733,0.518596
-0.623406,-0.673509,0.108590,0.152574,0.101119,-0.983105
0.423970,-0.177987,0.743237,-0.618782,-0.763147,-0.186322
-0.162435,-0.370239,0.797692,0.887250,-0.063011,-0.456964
0.006027,-0.258566,0.134346,-0.167126,0.107187,0.980092
-0.769880,0.230752,0.005860,0.528745,0.336019,0.779436
-0.288820,0.339081,0.426325,0.978122,0.069731,0.195996
-0.600102,-0.039989,0.200522,0.641276,0.286318,0.711890
-0.542025,0.516951,0.224980,-0.557058,0.702104,0.443549
-0.658034,0.268712,-0.014720,-0.715654,0.643975,0.270436
0.500237,0.211233,-0.990247,-0.232425,0.118028,0.965426
-0.725610,0.126657,0.222469,-0.736720,-0.052265,0.674175
-0.732551,-0.500237,0.077379,0.912394,-0.392724,-0.115349
-0.290280,0.439894,0.422405,-0.448543,0.303765,-0.840557
-0.457135,-0.282738,0.558830,0.730359,-0.372417,0.572609
-0.118895,-0.401577,0.782694,0.055001,0.699174,0.712833
0.824526,-0.336574,0.658128,-0.555700,-0.369188,0.744914
0.185813,-0.101112,0.520768,-0.396699,-0.746396,0.534344
-0.301311,0.307627,0.528414,0.865095,0.133719,0.483456
0.091281,-0.219648,0.852706,0.979707,0.050813,-0.193886
0.010118,0.292764,0.511141,-0.748414,-0.626443,0.217819
0.161341,0.075086,0.907134,-0.328781,0.397406,0.856721
-0.240312,-0.543869,0.742190,0.595058,-0.610629,-0.522530
0.490010,-0.218814,0.633684,-0.564353,-0.366663,-0.739638
0.080542,0.390713,0.174529,0.162553,0.092766,0.982329
0.617563,0.012772,-0.973951,-0.031214,0.250842,0.967525
0.508348,-0.758384,0.688209,-0.126136,0.383789,0.914766
0.665632,-0.092336,0.625591,0.819676,-0.465426,0.333932
0.573512,-0.318909,0.432785,0.038517,-0.987052,0.155705
-0.424189,-0.086966,0.557434,0.871895,0.489618,-0.008570
0.448808,-0.676078,0.681275,0.824993,0.250422,0.506631
0.131023,0.099378,0.786405,0.877945,-0.478210,0.022970
-0.365234,0.517250,0.252689,0.173113,-0.050296,-0.983617
-0.498703,0.423063,0.035564,-0.185993,-0.806666,0.560979
0.197502,0.212366,0.607942,0.825477,0.461625,-0.324792
0.685721,-0.109706,-0.968984,0.008912,0.088978,0.995994
-0.640283,0.594664,0.293765,-0.605613,0.661357,-0.442537
-0.383571,-0.283871,0.558006,0.584328,-0.723203,-0.368156
0.506082,-0.285066,0.848953,0.989616,0.099797,0.103448
0.372174,0.038736,0.028895,0.957269,0.285915,0.043449
0.188662,0.112631,0.647873,0.683317,0.698470,0.212643
-0.611717,0.307685,0.313228,0.502781,-0.082869,-0.860432
-0.146437,0.206577,0.723996,0.122135,0.841558,0.526177
-0.457648,-0.164438,0.497300,0.235768,0.281876,0.930032
0.402271,-0.793241,0.647775,-0.691611,-0.712376,-0.119144
0.201959,0.706876,0.311107,0.280692,-0.957611,0.064751
-0.238923,-0.263517,0.688307,0.928951,0.098073,-0.356975
0.057164,-0.071447,-0.103261,0.253420,-0.427799,-0.867621
-0.423312,-0.093829,0.683340,0.459904,0.269333,0.846137
0.554735,-0.012772,-0.971133,0.014971,0.344800,0.938557
-0.105016,0.791867,0.365033,-0.311095,0.935149,-0.169456
0.502428,0.331682,0.477683,-0.365759,0.744492,0.558527
-0.468606,0.438641,0.061390,-0.003799,-0.059650,0.998212
-0.683238,-0.603436,0.110376,-0.431001,0.247326,0.867795
0.165869,-0.027636,-0.094917,-0.216495,0.535045,0.816613
0.478906,0.058015,0.836061,-0.037623,0.356998,0.933347
-0.724879,0.251521,0.004032,0.218817,0.441164,0.870341
0.363116,0.044346,0.080281,0.353807,0.934114,0.047443
-0.453849,0.046554,0.580051,0.742686,-0.669218,0.023770
-0.714432,0.474451,0.066078,0.773613,0.022461,0.633260
0.046645,0.136267,0.695897,-0.555166,0.008251,-0.831699
-0.310151,0.335143,0.527019,-0.579289,-0.326098,-0.747051
0.059503,-0.043869,0.830131,-0.623616,0.605254,0.494743
-0.517990,-0.461202,0.418679,-0.279089,0.931472,0.233387
-0.362166,0.737255,0.390998,-0.055903,0.808051,0.586454
0.479198,-0.213980,0.616676,0.713970,-0.623735,0.318122
-0.006758,-0.088933,0.642111,-0.102057,0.992997,-0.059505
0.403587,-0.475227,0.592525,-0.084004,0.994279,0.065973
0.073601,0.256716,0.785959,0.785771,-0.340290,0.516495
-0.427038,-0.049600,0.105981,0.122648,0.217619,0.968297
0.169084,0.208606,0.480474,-0.068308,0.849678,0.522859
-0.579794,0.230690,0.507053,0.558898,-0.653606,0.510325
0.441942,-0.312403,0.779066,-0.007823,0.925723,0.378122
-0.533186,0.090066,0.404685,-0.559745,0.716443,0.416407
-0.349454,-0.542317,0.276966,0.805512,-0.086041,-0.586300
0.066661,-0.428794,-0.001744,-0.112353,-0.272507,0.955571
-0.609673,0.375314,0.367195,0.853844,0.150366,-0.498337
0.294737,0.765248,0.344300,0.078288,0.672795,0.735675
0.141835,0.050496,0.679363,-0.080352,0.972354,0.219253
-0.282464,-0.295033,-0.002428,0.355998,-0.444018,0.822261
-0.645032,-0.029188,0.319479,-0.229433,-0.495090,-0.838002
0.250685,-0.086547,0.590501,0.886658,-0.373343,-0.272859
0.389269,-0.090307,0.867007,-0.309738,0.552698,0.773685
-0.294226,-0.692909,0.129644,0.142820,-0.414432,-0.898804
-0.763598,-0.278439,0.432897,-0.306322,-0.704316,-0.640396
-0.686671,0.761131,0.345402,0.146057,-0.444184,0.883950
-0.378091,0.692967,0.269195,0.098195,-0.742309,0.662824
-0.658618,0.166110,0.220864,0.768486,-0.626338,-0.130882
0.182233,0.236002,0.274762,-0.592842,0.619533,0.514507
-0.245937,-0.223291,0.565220,0.165576,0.083138,0.982686
-0.530773,0.696726,0.026802,0.554636,0.465587,-0.689643
0.348067,-0.166347,-0.160632,0.875584,-0.483065,0.000640
-0.091794,0.473260,0.420437,-0.445644,0.798488,-0.404745
-0.615590,0.631072,0.003907,-0.770223,0.600803,-0.213992
-0.260475,-0.105826,0.806747,0.793457,-0.437709,0.422891
0.426525,-0.090605,-0.167357,0.586226,0.122736,0.800796
-0.696900,-0.691834,0.103930,0.237348,0.747432,-0.620492
0.457793,-0.728839,0.685753,0.023377,0.318762,0.947546
0.424847,0.306614,0.413991,0.213626,0.369710,-0.904256
0.100705,-0.090365,0.920123,0.685431,-0.127059,-0.716966
-0.308251,0.092813,0.599026,-0.661120,0.347751,-0.664823
0.731672,-0.449446,0.725322,0.238672,0.767504,0.594956
0.421266,-0.377402,0.804627,0.386532,0.673331,0.630253
-0.274429,-0.052583,0.606239,-0.241895,0.660353,-0.710930
0.786683,-0.233197,0.657807,-0.222886,-0.044927,0.973809
0.246668,-0.035454,0.686828,0.986763,0.123490,0.105111
-0.501334,-0.066372,0.103107,-0.194987,0.241031,0.950728
0.451584,-0.242869,0.783935,-0.661336,0.207110,0.720930
-0.575703,0.514980,0.484827,0.525838,0.208539,0.824625
0.118968,0.107199,0.761417,0.990519,0.128306,0.049090
0.386857,-0.025130,-0.670922,0.981461,0.183059,-0.056779
0.607189,-0.757251,0.431069,0.225933,0.516840,0.825731
-0.492055,-0.085414,0.523335,0.378593,0.897916,-0.224529
-0.291085,-0.062073,0.108032,0.086808,-0.181473,-0.979557
0.102459,-0.021785,0.083448,0.063158,0.832262,0.550773
-0.570078,0.054791,0.405746,-0.736623,0.133386,0.663019
0.164335,-0.286377,-0.981695,0.265162,-0.104019,-0.958577
0.049421,-0.506029,0.717439,-0.340323,0.865248,-0.368139
-0.127589,0.570073,0.478116,0.161613,-0.673391,0.721405
0.298901,0.214337,0.460843,0.672080,0.318814,-0.668331
0.322350,-0.010386,-0.983411,0.605437,-0.484548,-0.631394
0.494978,-0.699892,0.442942,-0.386621,0.375510,-0.842328
-0.199767,-0.457741,0.797692,0.055067,0.415536,0.907908
-0.379040,0.229914,0.529070,0.982412,-0.170036,-0.077170
0.605290,-0.597589,0.668062,0.438125,-0.770961,0.462240
-0.557732,-0.070492,0.490268,0.939905,0.325302,0.103714
0.294006,-0.305540,-0.975695,-0.148566,0.071853,0.986289
0.691346,-0.214096,0.657584,0.432365,-0.073758,0.898677
-0.769149,-0.489195,0.366554,0.836670,0.258533,-0.482850
0.558534,-0.184733,0.759114,0.375005,0.819900,0.432592
-0.333747,0.234035,0.478995,0.768519,0.625772,0.133371
