0.199077,0.263762,-0.448892,0.359657,0.889620,0.281468
0.644184,0.373660,0.444751,0.349742,0.930209,0.111319
-0.515330,0.199449,0.602893,-0.355892,-0.618311,-0.700737
0.229946,-0.606113,0.201198,-0.300869,0.168332,0.938692
-0.244493,0.855532,0.870753,-0.016167,-0.648146,0.761344
0.064367,0.216669,-0.001896,0.975937,-0.000559,0.218051
-0.150765,0.020100,0.222797,-0.700844,0.686653,0.193199
-0.384762,0.048281,0.473295,-0.435184,0.184788,0.881175
-0.780610,0.409355,0.602255,0.536325,0.371503,-0.757853
-0.713492,-0.568790,0.362430,0.162674,0.200638,0.966065
-0.086130,0.141336,0.630067,0.695735,-0.146662,-0.703166
-0.012744,0.902124,0.857596,0.156840,-0.708602,0.687957
0.424204,-0.270525,0.068287,0.964095,-0.201055,0.173489
-0.386357,0.781639,0.732681,-0.627743,0.641335,-0.441167
-0.072766,-0.360449,0.489829,0.347240,0.348917,0.870449
-0.674582,-0.151481,0.571226,0.637386,-0.063405,-0.767931
0.206765,0.773624,0.509645,0.216913,-0.450022,-0.866273
0.037698,-0.636860,0.164848,-0.317709,0.062851,0.946103
-0.290501,-0.300270,0.560490,-0.550857,0.710637,0.437666
-0.260874,0.107395,0.589066,-0.511603,-0.175175,0.841175
-0.668135,0.501408,0.642906,0.638129,0.767032,-0.066739
-0.080987,-0.383305,0.513372,0.497370,0.505566,0.705001
-0.297774,-0.612186,0.176253,-0.093183,-0.339454,0.935996
-0.054671,0.502599,0.797703,0.959483,-0.219571,0.176583
-0.626150,0.693406,0.660332,-0.472754,0.317537,-0.821994
-0.245143,0.832926,0.860399,-0.054297,0.712758,-0.699305
0.267555,-0.614692,-0.238089,-0.148530,-0.074226,-0.986118
0.073829,-0.055858,0.497507,-0.269321,0.657121,0.704030
0.415984,0.643247,0.365457,0.866104,-0.198734,0.458660
0.069749,0.823595,0.895220,-0.400570,-0.793018,0.458984
0.067679,0.672115,0.796843,0.691391,-0.688988,-0.217424
0.527158,0.646815,0.550518,0.143202,0.580268,0.801737
-0.143727,0.386059,0.600153,-0.717170,0.665708,-0.206154
-0.084592,0.622707,0.655777,-0.026569,0.972269,0.232351
0.400668,0.375101,-0.085172,0.112117,-0.991817,-0.061057
-0.437983,0.322562,0.222765,0.469700,0.878430,-0.087990
0.131603,0.235143,-0.150289,0.335224,0.941906,0.020915
0.237396,-0.320560,-0.215948,0.257974,0.323219,0.910483
-0.019663,0.766234,0.844948,0.145219,0.598703,-0.787696
0.279915,0.435093,0.367336,0.072120,0.944667,0.320004
-0.250584,0.381050,0.464120,0.961425,0.064031,0.267510
0.003814,0.826977,0.883655,0.825169,-0.327006,0.460611
0.102332,-0.262573,0.236815,0.955705,0.272156,-0.112063
-0.139233,-0.252364,0.581452,0.895810,-0.250509,0.367111
-0.772627,-0.129940,0.584861,0.114626,-0.059952,0.991598
-0.281453,0.899805,0.705793,0.552368,0.428063,0.715298
-0.521953,-0.567663,0.337677,0.565612,0.108768,-0.817468
0.375830,-0.248043,0.405470,-0.481379,0.378306,-0.790670
-0.491204,0.057173,0.233820,-0.175622,-0.343860,0.922452
-0.204755,0.916651,0.647908,-0.096808,0.984190,0.148316
0.016587,0.585384,0.675273,-0.083064,-0.824305,0.560020
0.366960,0.439788,0.625512,0.124152,-0.593837,0.794949
-0.845363,0.325129,0.564249,-0.425191,-0.904014,0.044388
0.034210,-0.244976,0.611335,-0.178488,0.879574,0.441011
0.649329,-0.170017,-0.177623,-0.260031,-0.547724,0.795225
0.107596,-0.236898,-0.251597,0.394196,0.534833,0.747371
-0.133735,-0.231262,0.594355,0.326191,0.943318,-0.061247
-0.591734,-0.721711,0.454595,-0.612906,0.722251,-0.320469
-0.247805,-0.081159,0.593049,0.388153,0.715804,0.580485
-0.724904,0.622643,0.389414,-0.448718,-0.874271,0.185212
0.329115,0.749639,0.590850,-0.337048,0.639342,-0.691115
0.164897,-0.026990,0.644945,0.275248,0.105416,0.955576
0.503149,0.482372,0.355135,-0.425200,-0.208977,0.880644
-0.655245,0.368965,0.539400,-0.741264,0.503013,0.444415
0.172170,0.666730,0.553863,0.926077,-0.325258,-0.191282
-0.642529,-0.153423,0.557655,-0.139229,-0.305079,0.942094
-0.444310,-0.123427,0.515507,-0.533759,0.843149,0.064818
-0.668255,-0.598349,0.292980,-0.320611,-0.781546,0.535159
-0.435144,0.630158,0.233693,0.257081,-0.087181,-0.962449
0.441825,0.672176,0.543414,0.530016,0.838132,-0.128908
0.223144,-0.061997,0.630927,-0.724671,0.688765,-0.021350
0.426036,0.213476,0.270775,0.065673,-0.429120,0.900857
0.116289,0.273342,-0.092690,0.621047,-0.761539,0.185363
-0.306527,-0.152233,0.604836,0.369546,-0.398378,-0.839483
-0.658850,0.043270,0.558515,-0.699983,0.028742,0.713581
0.333905,0.433589,0.389605,-0.560665,-0.663443,0.495478
0.363117,-0.305529,-0.258000,0.289924,0.105331,0.951236
-0.397535,-0.517941,0.352108,0.211020,0.453701,0.865809
-0.119481,-0.463147,0.155546,-0.549406,-0.155119,-0.821030
-0.427279,-0.537353,0.363736,0.122339,0.547683,0.827694
-0.008723,0.562338,0.731662,0.888662,-0.252675,0.382669
-0.000385,0.289373,0.200242,-0.745541,-0.625579,-0.229826
-0.272168,0.701671,0.712324,0.480257,-0.140374,0.865822
-0.450816,0.555264,0.691712,-0.011027,-0.637162,0.770651
0.161999,0.537477,0.425158,-0.065464,-0.910651,0.407957
-0.407823,0.430583,0.704360,-0.238660,0.643943,0.726897
-0.129891,-0.245037,0.604167,0.492794,0.266997,0.828171
0.392625,0.330327,0.423278,0.984516,-0.011701,0.174905
-0.112801,0.596844,0.634464,-0.542404,-0.536913,-0.646160
-0.181101,-0.264138,0.131461,0.266160,0.134367,0.954518
0.001389,0.289624,0.294446,-0.542948,-0.839665,-0.013013
-0.263534,-0.095373,0.553927,-0.056825,-0.948253,-0.312390
0.616806,0.577933,0.548352,0.121953,-0.568552,0.813557
-0.303273,0.238650,0.357811,0.590763,-0.130603,-0.796205
0.173531,0.386436,0.004986,0.752568,-0.644622,0.134553
-0.256971,0.778820,0.709552,-0.636552,0.133684,-0.759560
-0.063481,0.891664,0.901687,-0.449346,0.867169,0.214722
0.102155,0.569979,0.662562,0.136527,0.859692,0.492230
-0.447858,0.430896,0.600599,0.167607,0.151513,0.974142
0.112326,-0.187614,0.113780,-0.071647,-0.232600,0.969930
-0.036457,0.842195,0.867981,-0.340488,-0.720102,0.604583
-0.030603,0.551881,0.624014,0.101290,-0.857920,0.503700
-0.892611,0.359195,0.366603,0.370108,0.223488,0.901706
0.342065,0.102134,-0.172621,0.884920,0.017039,0.465431
-0.685402,0.017908,0.074914,0.880710,0.133319,0.454506
-0.576358,0.397457,0.626754,0.986251,0.144568,-0.080056
-0.138997,0.204144,-0.343443,-0.149668,0.867109,-0.475102
0.648264,-0.111843,-0.152615,0.387663,0.419658,-0.820734
0.204280,0.191432,-0.068510,-0.473367,-0.858288,-0.198154
-0.198605,0.818962,0.806432,-0.577148,-0.145680,0.803541
-0.632358,0.253679,0.551124,0.498959,0.541177,-0.676881
0.072707,0.839000,0.763997,0.922819,0.288325,0.255488
0.113154,0.004321,0.502477,-0.473238,0.277679,0.836027
-0.795158,0.579622,0.709616,-0.328176,0.810834,-0.484612
0.110435,-0.212288,0.578744,-0.160516,0.941302,0.296960
-0.053487,0.479991,0.797416,-0.637111,0.678862,-0.365015
-0.319890,0.511178,0.730005,-0.093917,0.879485,0.466567
0.477246,0.855219,0.592029,-0.384155,0.482303,-0.787279
-0.338222,-0.477677,0.301837,-0.551337,-0.455412,-0.699019
0.008544,0.618197,0.696746,-0.616591,0.783888,0.073038
0.292214,0.229882,-0.653005,0.302160,0.948814,-0.091930
-0.628633,0.180036,0.572277,0.842766,0.478103,0.247312
0.197007,-0.365020,-0.209449,-0.258292,-0.044953,-0.965020
-0.047929,0.613438,0.759665,-0.521011,0.827725,-0.208372
0.039059,0.916775,0.645773,0.881485,0.439721,-0.172133
0.176723,0.532656,0.478743,0.406789,0.859464,-0.309586
0.423139,-0.249484,0.425094,0.989786,0.093531,0.107587
-0.414625,0.974826,0.717740,0.254332,-0.162952,0.953290
0.270926,0.757155,0.600886,-0.636016,-0.433886,0.638143
-0.351646,-0.190056,0.514232,-0.227093,-0.417384,0.879897
0.157682,0.279291,-0.176285,0.190044,0.957206,0.218264
0.256319,-0.029933,0.634368,-0.440466,0.538113,0.718627
0.195057,0.413926,-0.115692,-0.209670,0.975636,-0.064593
-0.633186,0.017408,0.627455,0.104268,0.923306,-0.369640
-0.128826,-0.066067,-0.239172,-0.110092,0.096712,0.989205
-0.222081,-0.094809,0.579063,-0.374312,-0.697923,-0.610569
-0.567961,0.398584,0.712133,0.119936,0.711616,0.692256
-0.531594,0.139144,0.513882,0.289873,0.951405,-0.103935
-0.232076,-0.535788,0.312732,0.738008,0.487552,0.466516
0.366488,-0.001003,-0.448860,0.964802,-0.170204,-0.200470
-0.617930,0.417622,0.239427,0.568955,0.040609,-0.821365
-0.124036,0.950592,0.907007,0.338716,0.854384,-0.394081
-0.578901,-0.098943,0.087370,0.207431,0.515606,0.831338
-0.516099,0.434904,0.582695,0.125315,0.318739,0.939522
-0.115401,-0.766861,0.165517,-0.199974,0.306645,0.930580
0.537919,0.045963,-0.181191,0.694828,-0.105790,-0.711352
-0.309423,-0.258000,-0.542172,-0.004480,-0.445501,0.895270
0.424971,0.538794,0.529683,0.836133,0.196732,0.512033
0.400431,0.300207,0.485592,0.976609,0.144335,-0.159379
0.422134,0.532406,0.623090,-0.490320,0.142624,0.859793
-0.185831,0.254367,0.596521,0.448475,0.105721,0.887521
-0.442359,0.046465,0.459819,0.175726,0.167282,0.970122
0.178439,0.315736,-0.074213,0.014418,0.094048,0.995463
-0.312262,-0.206401,0.540611,0.778702,0.012997,-0.627260
0.078501,0.723840,0.839723,0.845369,-0.495264,0.200164
0.016468,0.243596,0.159369,0.837261,-0.509171,0.199346
0.131722,-0.251489,0.622485,-0.438900,0.678316,0.589283
-0.590018,0.661468,0.606461,0.986091,-0.054801,0.156910
-0.125928,0.675496,0.503178,0.682353,-0.634572,-0.362923
-0.603027,-0.571045,0.299989,-0.655679,-0.436766,0.615890
-0.112032,-0.468282,0.680243,-0.150871,0.853552,0.498685
-0.308300,0.182228,0.224008,-0.584822,0.506827,-0.633332
0.581207,-0.640430,-0.221109,0.346923,-0.289359,-0.892141
-0.452884,0.735801,0.715542,0.713720,0.322170,0.621940
0.485230,-0.669612,-0.212476,0.297883,0.424430,0.855058
-0.473996,0.450999,0.687156,-0.007773,-0.672856,0.739733
-0.415571,0.776881,0.725163,-0.000379,-0.105100,0.994462
-0.567369,0.441606,0.644754,0.929095,-0.088725,0.359041
0.007479,-0.644875,0.162905,-0.237074,-0.304157,-0.922651
0.561219,0.214665,0.296962,0.312865,-0.786241,-0.532860
-0.789361,-0.219175,0.558610,0.962596,0.120456,0.242691
-0.333372,0.207026,0.255643,0.288468,-0.470817,0.833737
-0.303036,0.766485,0.738607,0.833408,0.360562,-0.418840
0.435438,-0.597909,-0.214865,0.226785,0.440811,0.868478
0.320599,0.464838,0.381800,0.744061,0.242197,-0.622666
0.020726,0.385935,0.686264,0.092201,-0.833020,0.545506
-0.419415,0.436784,0.677663,-0.218555,0.969520,0.110749
0.335206,0.242845,-0.771261,0.842725,-0.535285,0.057312
-0.395998,0.344542,0.328215,-0.055428,0.201612,0.977896
-0.404452,0.439852,0.581357,-0.562317,0.746084,-0.356592
-0.139470,-0.322188,0.588843,-0.043473,0.032807,0.998516
0.441116,0.312480,0.367400,0.862641,0.396848,-0.313626
-0.669673,-0.844763,0.294223,0.621007,0.771237,-0.139801
0.497767,0.157241,0.355389,-0.035667,-0.724490,0.688362
0.169095,0.850460,0.878653,0.575070,0.817440,0.032962
-0.134561,0.142400,0.622613,0.169280,-0.143908,-0.975005
-0.710180,-0.171458,0.373899,0.804774,0.552878,0.216022
0.471688,0.459765,0.616241,0.029790,-0.555030,0.831297
0.152833,0.712129,0.854251,0.991855,-0.092487,-0.087574
-0.509772,0.470535,0.370171,-0.646657,0.754638,-0.111157
-0.066261,0.212849,0.498335,0.375827,-0.810242,0.449735
-0.245262,-0.020227,0.092308,-0.384106,0.813228,-0.437175
-0.493214,0.428204,0.669794,-0.437037,0.898187,0.047515
0.067857,0.834618,0.882413,0.448362,0.752259,-0.482782
0.442061,0.639614,0.389891,0.757393,0.022653,-0.652566
-0.459803,-0.323127,0.685787,0.313439,-0.876437,-0.365532
-0.791491,0.542802,0.354943,0.969261,0.243430,0.035701
-0.697466,-0.428143,0.153443,-0.074197,0.020163,0.997040
0.076964,0.529400,0.524777,0.481594,-0.821001,0.306634
0.082641,0.376666,0.667946,0.427241,0.576570,-0.696442
0.324206,0.234704,-0.627391,-0.514908,-0.857244,0.001624
-0.202272,-0.257876,0.591233,-0.607815,-0.478244,-0.633911
0.539576,0.689399,0.549786,0.217903,-0.335628,0.916445
0.414210,-0.297641,0.461189,0.953946,-0.299444,-0.017898
-0.689661,0.269647,0.554596,-0.101085,-0.262003,0.959758
0.361579,0.002566,-0.458513,0.993108,0.104013,-0.054024
-0.265604,0.379109,0.619586,0.959211,0.250685,-0.130658
-0.196654,0.362765,-0.101610,-0.006560,0.025835,0.999645
-0.113450,0.051851,0.121107,0.267083,0.899420,-0.345993
-0.845776,0.325880,0.588365,-0.099445,-0.970218,0.220880
0.202449,0.021041,0.522707,-0.369065,-0.265241,0.890752
0.034740,-0.761602,0.206837,-0.247913,0.733762,0.632560
0.398066,0.730540,0.577343,-0.244730,0.516769,-0.820401
0.473641,0.579872,0.460010,-0.516435,-0.819921,0.247031
0.037816,0.698728,0.825132,0.078569,0.759761,0.645438
-0.063068,-0.372972,0.127638,-0.223772,-0.168577,-0.959952
-0.156204,0.868995,0.640134,-0.244932,-0.059697,-0.967701
-0.435796,-0.104642,0.584734,-0.404866,-0.620222,0.671870
-0.245618,0.001315,0.550391,0.368934,0.547433,0.751136
0.272523,-0.204710,0.569251,0.365463,-0.448263,0.815780
-0.734602,0.556452,0.236719,0.045200,0.101091,0.993850
0.880310,-0.060055,-0.317702,0.506298,-0.167517,0.845932
-0.589841,0.592334,0.628474,-0.384366,0.142704,-0.912085
0.281097,0.215542,-0.732299,-0.507088,-0.857535,-0.086580
0.210371,0.903499,0.644817,0.178327,-0.848052,0.499006
0.566008,0.324001,-0.057424,-0.052256,0.329647,0.942657
0.489193,0.092115,0.282754,0.703784,0.029258,0.709811
-0.657432,-0.247919,0.149652,-0.236095,0.411164,0.880456
0.258034,0.327447,-0.264531,0.928006,0.280396,-0.245324
-0.708110,0.532595,0.795027,0.061714,0.790798,0.608958
-0.731764,-0.473417,0.350579,-0.650047,0.554750,-0.519318
-0.328406,-0.116037,0.130410,-0.472089,0.813651,0.339270
0.462168,0.734109,0.537393,0.117570,-0.431996,0.894179
-0.182816,0.913896,0.874289,-0.065608,-0.783736,0.617620
-0.033324,0.316424,0.357651,-0.599694,0.696390,0.394218
-0.529877,-0.603795,0.359945,0.937980,0.063618,-0.340802
0.080393,0.786648,0.780850,0.958252,-0.195993,0.208183
-0.180982,0.650321,0.722327,0.221944,0.891847,-0.394144
-0.279206,0.487131,0.757116,0.727205,0.473352,-0.497103
-0.308181,0.055482,0.595756,-0.322865,-0.675076,0.663348
-0.078974,0.442231,0.179184,-0.390718,-0.551457,0.737045
0.448923,0.582315,0.458609,0.605378,0.742132,-0.287676
-0.544425,-0.068133,0.495627,0.902800,-0.218701,0.370299
-0.573460,0.801616,0.744246,0.625815,0.357236,0.693353
-0.065315,0.164819,-0.417321,0.097822,-0.865866,0.490618
-0.239763,0.915961,0.719269,0.950090,0.073682,0.303149
-0.039947,0.405974,0.505471,-0.630002,0.184446,-0.754372
0.047396,-0.110528,0.539814,-0.283443,0.620132,0.731503
-0.224211,-0.229884,0.554596,0.121161,0.036285,0.991969
0.365246,0.760222,0.584893,-0.275427,0.409785,-0.869607
0.000266,0.390069,0.621721,-0.607660,0.302100,0.734496
0.365896,0.025799,-0.463961,-0.841492,0.416433,0.344202
-0.311670,-0.518505,0.182561,0.293041,-0.268308,0.917681
-0.297065,-0.530216,0.162108,-0.112821,0.051420,0.992284
0.054965,-0.693783,0.170423,-0.143281,0.712205,0.687193
-0.522249,0.203456,0.321843,-0.098184,-0.340063,0.935263
0.544720,0.526707,0.673139,0.163318,-0.118390,0.979444
0.080099,0.697163,0.611781,0.620371,0.410193,0.668492
0.056739,0.649320,0.725099,-0.265704,-0.069762,0.961527
0.536560,0.577430,0.471193,0.479127,0.778020,-0.406352
-0.017179,0.288246,0.341563,0.542999,0.590786,-0.596762
-0.079449,-0.499155,-0.203938,0.035167,0.332603,0.942411
-0.320778,0.638612,0.783303,-0.114741,0.866453,-0.485895
0.408119,0.345168,-0.025566,-0.373634,-0.060328,-0.925612
-0.025694,0.245161,0.701333,0.973038,0.218310,0.074417
-0.695869,0.523827,0.243569,0.173750,0.028837,0.984368
-0.802844,0.224184,0.564090,0.246737,0.381454,0.890850
0.227993,0.454005,0.417926,-0.094894,-0.846424,0.523987
0.420773,0.411923,-0.050351,-0.163311,0.574949,-0.801725
0.060524,-0.019351,0.292470,-0.334764,-0.192832,0.922360
-0.219183,0.874444,0.843674,0.219697,-0.738735,0.637185
0.046155,0.652139,0.845617,0.969591,0.225302,-0.095566
0.189200,0.300769,-0.494449,-0.393034,-0.914725,-0.093824
-0.253600,0.899993,0.738798,-0.785427,0.441308,-0.433995
0.174063,0.481683,0.377148,0.034218,0.992953,0.113461
-0.568257,-0.067256,0.577502,-0.603502,0.579618,0.547566
0.803257,0.282985,-0.035283,0.253314,-0.249768,0.934584
-0.142249,0.307345,0.306743,0.817137,0.196426,0.541945
-0.247096,0.431022,0.760206,0.478756,-0.810224,-0.338126
0.143490,0.621829,0.772535,0.979114,0.197649,-0.047647
-0.307945,0.791409,0.864063,-0.102984,0.423236,-0.900148
0.310368,0.200074,-0.704360,-0.364462,-0.931128,0.012982
0.191981,0.469033,0.723665,0.891003,0.101782,-0.442441
0.289139,-0.118606,0.396167,0.441120,-0.060558,-0.895403
0.326157,0.381238,0.653992,-0.746940,-0.650284,0.138605
0.168268,-0.431776,-0.225059,0.355761,-0.316971,0.879184
0.617988,0.573799,0.532359,-0.033639,-0.416239,0.908633
-0.013985,0.283988,0.648003,0.254046,0.012842,-0.967107
0.080985,-0.706308,-0.220344,-0.409612,0.322146,-0.853487
0.029478,0.901433,0.534876,0.369535,0.482376,-0.794202
0.305223,-0.682699,-0.257777,0.274038,0.008697,-0.961680
0.202506,0.446238,0.405215,0.097774,-0.994617,0.034304
0.100617,-0.040203,0.677089,-0.277989,0.005103,-0.960571
0.201147,-0.027366,0.656000,0.356687,0.194697,0.913711
-0.110316,0.054794,0.623982,-0.014219,0.241254,0.970358
0.429051,0.154298,0.540388,0.470465,-0.509824,0.720238
-0.512078,0.521197,0.250673,-0.667790,0.462923,0.582889
-0.142249,-0.152359,0.528600,0.121325,0.569742,0.812819
0.015876,0.228944,0.644276,0.634906,-0.035263,-0.771784
0.309008,0.722525,0.588748,-0.089808,-0.930544,0.354995
-0.321487,0.384807,0.756989,0.463640,-0.502388,-0.729825
0.161882,-0.460143,-0.232642,-0.189340,-0.009096,-0.981869
-0.535259,0.621142,0.655936,0.964369,-0.221481,-0.144698
-0.666894,0.232512,0.338409,-0.188161,0.246283,-0.950757
-0.345260,-0.416495,0.322321,-0.626910,-0.211400,-0.749863
0.487950,0.476047,0.623568,0.006807,-0.564279,0.825556
0.335679,-0.161000,-0.249208,-0.054146,0.302075,0.951745
-0.878832,0.462960,0.430415,0.345925,-0.208344,0.914838
0.380739,-0.689649,-0.215406,-0.591144,0.177926,0.786696
-0.133202,0.533596,0.729018,-0.090445,0.695115,0.713186
0.016114,0.589328,0.668551,0.174595,-0.864792,0.470799
0.346146,0.493707,-0.078004,-0.599465,0.077001,0.796688
0.219479,-0.054920,0.607512,0.983669,-0.121056,0.133194
-0.595578,-0.278165,0.490944,0.855851,-0.463466,-0.229605
0.319890,0.698604,0.578075,0.009633,-0.783887,0.620828
-0.151355,0.570543,0.704614,0.515900,-0.065314,-0.854156
-0.320599,0.189867,0.241689,-0.469795,0.396050,-0.788947
0.463174,0.811949,0.589512,-0.348913,0.383077,-0.855285
-0.799355,-0.151858,0.238790,0.719625,-0.279095,-0.635803
0.133200,-0.058614,0.526020,0.623035,-0.593230,-0.509809
-0.878419,0.356002,0.593781,-0.311307,0.669485,-0.674446
0.847550,0.446615,0.476067,0.019004,-0.473077,0.880816
-0.091748,-0.180287,0.503273,0.884368,-0.388684,0.258494
0.106354,-0.166072,0.582886,-0.167119,0.560361,0.811213
-0.404275,-0.218737,0.519871,-0.569179,0.456790,0.683650
0.568610,0.080656,-0.166314,0.703840,-0.124309,-0.699397
0.039768,-0.000313,0.506523,0.304959,-0.038543,-0.951585
0.789478,0.314358,0.391898,0.020581,-0.918781,0.394230
0.224565,0.249358,0.610857,0.773245,0.318414,0.548365
-0.561811,0.224747,0.338123,0.076086,-0.310621,0.947484
0.255727,0.288997,-0.330795,0.453337,0.871058,-0.189059
0.339344,0.148787,-0.546122,0.638461,0.626517,0.447039
-0.166790,0.831361,0.830102,-0.398364,0.640105,-0.656941
-0.552468,0.092491,0.638287,-0.311310,0.553919,0.772179
0.325093,0.234517,-0.665525,0.492143,0.855518,-0.160888
-0.028237,-0.149227,0.184855,-0.221122,-0.943777,0.245745
-0.765117,-0.810320,0.359881,-0.258518,0.931857,0.254580
-0.024984,0.593085,0.728094,-0.688768,0.341478,-0.639524
-0.524023,0.676247,0.663168,-0.716260,0.020431,0.697535
-0.085361,-0.090425,0.491199,-0.577203,-0.504647,-0.642003
-0.259927,0.187864,0.077048,-0.042058,0.040932,0.998276
0.325448,-0.446491,-0.242995,0.138444,0.308206,0.941192
-0.611839,-0.760224,0.282658,0.015226,0.550185,0.834904
-0.213921,-0.280418,0.595310,-0.252292,-0.636858,-0.728533
0.236686,-0.029119,0.637618,-0.166432,0.908737,0.382750
0.334733,0.655519,0.539464,-0.218056,-0.462442,0.859418
0.019780,0.022543,0.399385,0.320793,0.601863,0.731336
-0.919281,0.580436,0.289890,0.483451,0.506473,0.713975
-0.773572,0.372909,0.589703,-0.037194,-0.586858,0.808835
0.010437,0.008141,0.448032,-0.569753,0.745647,0.345531
-0.398481,-0.310164,0.505631,0.060738,0.496842,-0.865713
-0.316046,0.197758,0.050925,0.044370,-0.934504,-0.353175
-0.323321,0.225687,0.605154,-0.465230,0.122058,0.876734
-0.711009,-0.038324,0.580242,-0.504369,0.817025,-0.279431
-0.002869,0.014027,-0.225505,0.431163,-0.422633,-0.797170
-0.558795,0.940448,0.723506,0.097068,-0.351620,0.931097
-0.247688,0.453879,0.813919,-0.189442,0.457213,0.868947
-0.378611,0.023670,0.641823,0.093880,0.390441,0.915829
-0.474942,0.372282,0.620574,0.400354,-0.644512,0.651400
0.050589,0.380486,0.427261,0.986196,-0.102321,-0.130182
-0.177494,-0.607866,0.149620,0.022043,0.128265,0.991495
0.114160,0.921597,0.669698,0.017627,0.999845,0.000383
0.263357,0.288120,-0.442712,0.864898,-0.501753,-0.013951
-0.726797,0.206963,0.340480,0.153503,-0.630015,0.761261
0.307945,0.497965,0.449306,0.543811,0.838593,0.032122
0.334910,0.334648,0.650074,-0.739585,-0.661397,0.124773
-0.139883,0.607802,0.530767,-0.745045,0.207049,0.634066
-0.051360,-0.250111,0.593526,-0.133223,0.844526,0.518678
0.399071,0.486881,0.537648,-0.686181,0.650216,-0.326153
-0.256971,0.832800,0.805349,0.946877,0.093951,0.307567
0.355015,0.431210,-0.039233,0.328382,-0.097190,-0.939531
0.079507,0.001189,0.291323,0.885349,0.418488,-0.202548
0.545666,0.490074,0.520923,0.084531,-0.104919,0.990882
-0.471334,-0.353059,0.283901,0.081371,0.074151,0.993922
0.204991,-0.389442,-0.213049,0.308711,-0.305072,0.900904
0.368794,-0.037761,-0.401106,0.990687,-0.127574,-0.047582
-0.185891,-0.160249,0.165740,0.860453,-0.494676,0.122127
0.097602,-0.111466,-0.158508,-0.784112,0.254442,-0.566063
-0.592443,-0.645062,0.245544,-0.085800,-0.439576,-0.894098
0.141776,0.380049,0.737683,-0.715933,0.640870,0.276995
-0.829219,0.443545,0.271731,-0.031847,-0.307414,0.951043
-0.525384,-0.368590,0.535450,0.321814,0.411190,0.852853
-0.641288,0.067129,0.067172,-0.400045,-0.159120,-0.902577
-0.585820,0.561651,0.664952,0.217598,0.974133,-0.060958
0.150290,0.732795,0.692986,0.770546,-0.601773,0.210069
0.293634,0.200576,0.580178,-0.242553,0.083326,0.966553
0.246917,0.372659,-0.113462,0.115304,-0.990833,0.070385
-0.684870,-0.629910,0.240701,0.679078,-0.397748,-0.616968
-0.638332,0.153610,0.329075,0.268114,-0.392860,0.879645
0.425978,0.265200,0.298714,0.851470,0.521172,-0.058123
-0.477485,-0.174338,0.265041,-0.133141,0.675487,0.725252
0.203454,0.291252,0.545549,0.653315,0.593743,-0.469733
-0.193696,0.464336,0.744883,-0.411419,0.852486,0.322494
0.875107,0.387437,-0.027509,0.103537,-0.331367,0.937804
0.315394,0.614189,0.533889,0.836802,0.399395,-0.374494
-0.596110,0.555013,0.636598,0.184697,-0.386428,0.903637
0.443599,0.570919,0.380175,0.870908,0.299795,-0.389411
-0.298662,0.444862,0.540865,-0.697796,-0.691365,0.187339
-0.054198,-0.057987,0.115373,0.969686,-0.080466,0.230724
0.085242,0.234517,0.001609,0.922224,-0.346053,0.172481
-0.579610,0.716513,0.605409,0.870734,-0.337962,0.357217
-0.307532,-0.135012,0.569856,-0.087050,0.628379,0.773021
-0.434079,-0.276348,0.567148,0.748787,0.579820,-0.321132
0.107596,0.331892,-0.142962,0.851729,0.420788,0.312242
-0.595399,0.266955,0.349177,-0.172300,0.077768,0.981970
-0.541586,-0.051727,0.513946,-0.580945,0.575292,-0.575797
-0.408829,0.643810,0.749470,-0.700037,0.696666,0.156858
-0.711126,-0.305029,0.124930,0.329448,-0.316002,-0.889723
0.228172,-0.022669,0.649086,0.444626,0.409177,0.796794
0.552230,0.797921,0.564472,0.033395,-0.642189,0.765819
-0.692204,-0.212662,0.500852,-0.203323,-0.827743,0.522973
-0.468023,0.663787,0.579445,-0.519158,-0.435796,-0.735225
-0.505042,0.330140,0.594833,-0.062871,0.042474,0.997117
-0.849976,0.526082,0.231813,-0.362395,0.642429,-0.675244
-0.564886,-0.265890,0.530544,-0.353011,0.128060,0.926814
-0.582922,-0.196193,0.461285,0.839379,-0.187899,-0.510037
-0.252181,-0.254932,0.233756,0.933249,0.334103,0.131987
-0.454421,0.406412,0.552271,0.039260,0.941049,0.335983
0.139883,0.550129,0.664760,-0.484771,0.321196,0.813529
-0.494398,0.914396,0.722805,-0.661931,-0.746427,0.068515
0.109606,-0.104766,0.561828,-0.116655,0.685567,0.718603
-0.119187,0.656083,0.519393,0.392519,-0.567433,-0.723843
-0.016174,0.008328,-0.263575,-0.284498,0.359268,0.888812
-0.704976,0.049282,0.551665,-0.539867,0.227670,-0.810376
-0.497709,0.969817,0.728763,0.226311,0.082549,-0.970551
-0.461163,-0.144030,0.515475,-0.285641,0.952672,0.104040
-0.350935,0.494208,0.696746,0.613921,-0.779517,-0.124319
0.504331,-0.164945,-0.227162,0.692937,0.105308,-0.713266
-0.568493,0.633227,0.604931,-0.499404,-0.392667,-0.772274
0.340113,-0.072391,-0.285653,-0.235202,0.083529,0.968351
-0.304929,-0.568353,0.170965,-0.013469,0.063285,0.997905
0.088021,0.942764,0.747686,-0.247132,0.875722,-0.414773
0.027527,0.428704,0.640867,0.066751,0.997754,-0.005604
-0.225216,0.141148,0.363131,-0.574620,0.083005,-0.814200
0.391325,0.457011,0.652527,0.149393,-0.600025,0.785908
0.097187,-0.210783,0.216553,0.964641,0.241793,-0.104903
-0.175837,0.500281,0.787668,-0.379605,-0.422388,-0.823097
-0.206529,0.437785,0.787795,0.969498,-0.117778,-0.214948
0.041896,0.666227,0.840615,0.242098,-0.368021,0.897747
0.616392,0.641680,0.545580,0.354029,0.514976,-0.780681
0.315100,0.663597,0.550168,-0.298225,-0.635185,0.712462
-0.571982,-0.126370,0.608085,0.034330,0.089256,0.995417
0.600188,0.209969,0.294509,0.862688,-0.498553,0.084936
-0.016943,0.192122,-0.406043,-0.202529,0.852606,-0.481711
-0.204695,0.893606,0.884261,0.043636,-0.610088,0.791131
0.120663,0.260128,-0.062840,-0.318807,0.944195,-0.082809
-0.260223,0.523139,0.779098,-0.687598,-0.348731,-0.636864
-0.262352,-0.311855,0.572214,0.487373,-0.764744,-0.421467
-0.679016,0.330891,0.281957,0.283041,-0.942862,-0.175778
-0.633482,0.463961,0.228850,0.227947,0.176824,0.957483
0.276367,0.276411,-0.535004,-0.126110,-0.990449,0.055750
-0.097306,0.532656,0.637331,0.576949,0.035172,0.816023
0.083114,0.224810,-0.000908,0.905516,-0.256408,0.338077
-0.329588,-0.088860,0.581038,0.908555,0.109209,0.403238
-0.539635,0.620264,0.697032,0.512212,0.620098,-0.594237
-0.041069,0.900369,0.905096,0.262881,0.964394,-0.028932
0.255727,-0.439164,-0.232100,0.343193,-0.032404,0.938706
-0.258804,0.718454,0.790121,0.520586,0.779429,-0.348541
-0.319654,-0.138205,0.554469,0.904637,-0.140615,-0.402317
-0.550458,-0.560275,0.149843,0.600201,0.799818,-0.007065
0.614440,-0.667984,-0.192278,-0.259497,0.253241,0.931950
-0.250761,0.458012,0.764507,0.616787,0.621145,-0.483480
-0.163656,0.746759,0.814779,-0.239608,0.761220,-0.602605
-0.089560,-0.350179,0.509231,-0.446848,-0.352997,-0.822022
-0.340115,-0.009832,0.524045,-0.611500,0.683031,0.399421
0.022263,0.420376,0.683238,0.189703,-0.875442,0.444539
0.180390,0.374474,0.696873,0.876104,-0.243707,0.415992
-0.157565,0.259378,0.210437,-0.256689,0.949222,-0.181900
-0.480441,-0.291252,0.510601,0.080773,0.037959,-0.996009
0.632891,0.606361,0.557400,0.334781,0.259779,-0.905780
0.052305,0.720520,0.873397,0.024337,0.996563,0.079184
-0.044085,0.620452,0.725322,-0.173393,0.567520,-0.804895
-0.725792,-0.013777,0.572691,-0.692374,-0.071874,0.717950
-0.065138,0.458700,0.170296,0.585820,0.420045,-0.693092
0.082226,0.314234,0.256662,0.824514,-0.441151,0.354347
0.453948,0.542739,0.515220,0.956595,-0.069182,0.283091
0.082699,0.617071,0.669794,0.772700,0.625656,0.107186
0.007126,0.111840,0.286959,0.930052,0.364699,-0.044707
0.196356,0.336213,-0.218465,-0.306538,0.749567,-0.586673
0.542532,0.580436,0.687730,0.182407,-0.933101,0.309921
-0.584638,0.834805,0.788783,0.917834,0.035740,0.395352
-0.349517,0.567286,0.764698,-0.050011,-0.941293,0.333867
0.297832,-0.021668,0.531021,0.788494,0.551288,0.272690
0.494515,-0.715450,-0.193584,0.188724,-0.005285,0.982016
0.602671,0.112091,-0.171220,-0.043569,0.498506,0.865791
0.115697,-0.486067,-0.221587,0.051430,0.407263,0.911862
-0.039119,-0.230322,0.581771,-0.122310,0.642676,0.756312
0.039117,0.208528,0.767342,-0.038804,-0.221785,0.974323
0.078915,0.775126,0.753612,-0.899625,0.193093,-0.391651
0.162354,0.543553,0.710731,0.981568,0.190506,-0.015196
-0.177375,0.705555,0.459819,-0.136190,0.877502,0.459828
0.084179,0.624459,0.726278,0.085138,0.424328,-0.901497
-0.404512,0.693217,0.699740,0.929922,0.351641,-0.107676
-0.391266,-0.525394,0.376447,-0.274055,-0.429324,-0.860566
-0.315750,0.567536,0.729145,0.528509,-0.248075,0.811873
0.246267,0.761036,0.597891,0.185619,0.095332,0.977986
-0.559504,0.885215,0.737651,0.208953,0.343040,0.915785
-0.775525,-0.754839,0.339461,0.017547,0.948313,0.316852
-0.441590,0.881958,0.711782,-0.204462,0.304667,0.930255
0.027764,0.209593,0.340830,0.971493,0.216156,0.097349
-0.507289,-0.080094,0.453862,-0.654262,0.661565,0.366433
-0.310428,-0.093368,0.574603,0.063090,-0.349434,0.934835
-0.794743,0.377043,0.583204,0.085136,-0.686729,0.721910
0.382277,0.714196,0.415091,-0.487134,0.125347,0.864285
-0.289850,0.061618,0.488555,0.540737,0.662844,0.517921
-0.410662,0.722775,0.747081,-0.558130,0.785941,0.266060
0.633777,0.612310,0.548511,-0.166781,-0.529777,0.831577
-0.265072,-0.245226,0.246914,0.383484,0.202786,0.901009
-0.454244,0.887343,0.714745,0.008188,0.462947,0.886348
-0.590373,0.546683,0.620478,-0.020451,-0.293192,0.955835
-0.273765,0.788840,0.997388,-0.230713,0.862436,0.450528
-0.336390,0.507044,0.749598,-0.684979,-0.381308,0.620812
-0.065965,-0.551193,0.172112,-0.094926,0.210489,0.972977
-0.646905,0.314295,0.336370,-0.378514,0.330820,-0.864457
0.342419,-0.291565,0.290336,-0.787407,0.596990,-0.153599
0.352709,-0.142402,-0.294414,0.924895,0.379280,-0.026759
-0.682623,0.482936,0.254783,-0.546357,-0.294858,-0.783934
-0.293457,0.860793,0.756447,0.867783,0.463706,-0.178686
0.673338,-0.198761,-0.175998,-0.385639,-0.468166,0.795050
-0.203394,0.284489,0.610284,0.466014,0.596885,0.653115
-0.132078,0.243158,-0.350579,0.112037,-0.887900,0.446186
0.275066,0.484251,0.401137,-0.057126,-0.802248,0.594251
-0.043020,0.907195,0.881170,-0.076121,0.974293,-0.212034
-0.578132,0.005385,0.064209,-0.162404,0.471118,0.866991
0.567782,0.704364,0.550996,-0.250305,-0.009524,0.968120
-0.133675,-0.346109,0.646378,-0.054076,0.841252,0.537932
0.578664,0.409168,0.426369,-0.602062,0.189712,0.775584
-0.507169,0.789654,0.736217,0.522198,-0.106470,0.846152
-0.762928,0.324378,0.569729,0.152887,-0.136845,0.978723
-0.243844,0.680193,0.820131,0.331382,-0.295723,0.895954
-0.218710,0.819900,0.710859,0.693333,0.230886,0.682627
-0.794921,0.010331,0.591870,0.272859,0.294596,0.915839
-0.265900,0.113595,0.400405,-0.700407,0.567123,-0.433360
0.368143,0.673053,0.587569,-0.077257,0.801814,-0.592559
0.064487,0.792284,0.801239,0.642102,0.265705,-0.719101
0.275066,0.744567,0.523057,0.561293,0.605790,-0.563886
-0.561515,0.119731,0.505089,0.339969,-0.899487,0.274489
0.574584,0.032688,-0.161376,0.724530,0.005275,-0.689223
-0.249047,0.465903,0.746699,0.760554,0.519131,0.389950
-0.366194,0.584696,0.827331,0.641314,0.543245,0.541850
0.538038,-0.022168,-0.212221,-0.057510,0.008864,0.998306
-0.017948,-0.417309,0.130091,-0.034186,0.180248,0.983027
0.270986,-0.096688,0.586486,0.757000,0.235972,0.609317
-0.524911,-0.555891,0.391484,-0.284974,0.583218,0.760688
-0.693622,0.027678,0.615604,-0.618051,0.447677,-0.646218
-0.251117,0.310664,0.504388,0.961789,-0.152727,0.227236
-0.441708,0.548437,0.682887,-0.128597,-0.449377,0.884038
0.631353,0.708748,0.556285,0.107730,-0.199081,-0.974044
-0.966648,-0.757281,0.310343,0.322728,0.823218,0.467074
0.790722,0.055168,-0.264595,0.632752,-0.559049,0.535806
-0.793974,-0.003883,-0.000940,-0.655979,0.357488,0.664751
0.158747,-0.190557,0.137291,-0.691360,-0.596187,-0.408145
-0.038999,0.465903,0.750394,0.031541,-0.248528,0.968111
-0.036989,0.472416,0.211360,0.381263,0.139038,0.913951
0.523195,0.669986,0.375810,-0.390942,0.294939,-0.871880
-0.501198,0.464085,0.583587,0.378106,0.525465,-0.762183
-0.385352,-0.251363,0.287405,-0.242175,-0.273554,-0.930870
0.430708,0.013777,0.468867,0.441473,-0.538680,0.717583
0.186777,0.841067,0.784737,0.720778,-0.556389,-0.413413
-0.224211,0.543427,0.172589,0.270612,0.729567,0.628093
0.472220,0.233703,0.307826,0.648453,0.727594,0.223866
-0.393987,-0.018287,0.630322,-0.155833,0.376381,-0.913265
-0.114042,0.254305,0.298332,-0.064992,0.312375,0.947733
-0.558322,-0.043522,0.506523,-0.301806,0.732774,-0.609882
-0.619231,-0.215731,0.260676,-0.241283,0.753700,0.611326
-0.205347,-0.478866,0.550423,0.839670,0.418298,0.346382
-0.091807,-0.474858,0.731948,-0.328111,0.733329,0.595459
0.039117,0.225374,0.248220,0.778406,-0.104806,-0.618951
-0.514680,-0.033128,0.523662,0.097509,0.991061,-0.091048
-0.484817,0.634979,0.774574,0.894670,0.183333,-0.407374
0.173294,0.264449,-0.196802,-0.465561,-0.838381,-0.283496
-0.213389,-0.059929,0.536979,-0.515747,-0.370902,-0.772293
-0.314981,0.574487,0.711273,0.810832,0.333980,-0.480634
-0.113806,-0.038137,0.471766,-0.641325,-0.502386,-0.579922
0.011560,0.138142,0.249876,-0.856557,0.250911,0.450948
-0.256734,-0.065377,0.252457,-0.483162,0.070337,-0.872701
-0.457733,-0.650448,0.199764,-0.866203,0.124027,-0.484056
0.160934,0.608804,0.722104,0.993976,-0.040852,-0.101704
-0.460691,0.847078,0.720639,0.932861,-0.207135,-0.294729
-0.019249,0.738618,0.832842,0.539058,0.718146,-0.440093
-0.472163,0.076773,0.549881,0.964931,0.049864,0.257726
-0.091038,-0.251175,0.512066,0.890564,-0.151947,0.428729
-0.658614,-0.140210,0.571704,-0.715391,0.335345,0.612992
-0.088672,-0.251175,0.607639,-0.149208,0.259181,0.954234
-0.401319,0.867617,0.736440,-0.591308,-0.540402,0.598600
-0.137046,0.250046,0.302506,-0.735380,0.195018,-0.648987
0.317168,0.884651,0.621848,0.378531,-0.198556,-0.904041
-0.009847,-0.169705,0.557463,-0.430108,0.847489,0.311077
-0.854350,0.127746,0.576578,0.285897,0.217735,0.933196
0.134915,0.801489,0.873493,-0.336822,0.805810,-0.487053
-0.007541,-0.570982,-0.202090,0.023643,0.226051,0.973828
-0.146921,0.478302,0.684417,0.249007,0.915528,0.315918
-0.304101,0.615504,0.789993,0.298239,0.437513,0.848314
-0.459803,-0.541050,0.147963,-0.248942,-0.966390,-0.064174
-0.784631,0.557330,0.238949,-0.324080,-0.242145,-0.914515
-0.313446,-0.249358,0.596744,-0.457579,0.887299,0.057638
-0.162118,0.016093,0.232068,-0.607194,0.397076,-0.688219
0.115342,0.781764,0.861227,0.344642,-0.767169,0.540993
-0.180154,0.668859,0.788942,0.781652,0.600178,0.169727
-0.231956,-0.493143,0.180108,-0.192465,-0.297603,0.935088
0.432422,0.563843,0.414390,0.905654,0.414435,0.089630
0.362407,0.104263,-0.512353,0.100847,0.713095,0.693776
-0.881671,0.163066,0.578904,0.333886,-0.325529,0.884619
-0.286242,0.515749,0.266028,-0.390423,-0.637230,-0.664460
0.152241,0.597659,0.744978,0.957379,-0.283570,0.054894
0.307470,0.028054,-0.241785,0.200935,-0.606015,0.769656
-0.648266,0.219800,0.555265,0.015946,0.247188,-0.968836
-0.541882,0.794038,0.769891,0.753311,-0.116974,0.647179
0.784629,0.356627,-0.027477,-0.034446,-0.252636,0.966948
0.086779,-0.070199,0.520030,-0.147434,0.604620,0.782750
0.608822,-0.668671,-0.191577,-0.264191,0.269233,0.926130
-0.804204,0.172209,0.320091,-0.066535,-0.295184,0.953121
0.474171,0.487005,0.475812,0.740658,-0.030671,0.671182
-0.164840,0.587513,0.520381,0.320155,-0.622818,-0.713862
0.041423,-0.155739,0.589831,0.009001,0.182490,0.983166
0.503385,0.550066,0.674477,0.727099,0.215545,-0.651818
0.111144,-0.205524,0.614680,0.492836,-0.652119,-0.576067
-0.369563,0.678314,0.726055,-0.616901,0.603379,0.505338
-0.241537,0.837247,0.843005,-0.347493,0.829125,-0.437950
0.279796,-0.224749,0.570844,0.139896,-0.432861,0.890540
-0.205524,-0.396582,0.512353,-0.504799,0.803357,-0.315904
-0.443481,0.660654,0.799837,0.061870,-0.978387,-0.197309
-0.502084,-0.413428,0.302952,0.694309,0.707616,-0.131205
-0.526685,-0.161625,0.307316,0.096226,0.370813,0.923709
0.176310,0.481933,0.686105,0.940921,0.326055,0.091413
0.078323,0.244223,-0.020628,-0.772373,-0.355950,-0.526061
0.328110,0.382992,0.279217,-0.091615,-0.300187,0.949470
-0.255493,-0.691214,0.179184,0.962648,0.240105,-0.125136
0.030366,-0.145909,0.560904,0.535351,-0.745908,-0.396258
-0.049586,0.216356,0.295465,0.147928,0.138313,0.979279
-0.524851,0.554761,0.677058,0.919800,-0.004794,-0.392357
-0.455250,-0.568664,0.204670,-0.272022,0.408212,0.871417
-0.267851,0.129374,0.576068,0.700241,0.438166,-0.563625
0.365719,-0.498028,-0.229774,0.092916,0.352352,0.931243
-0.682859,-0.279793,0.134965,-0.216226,0.151275,0.964553
-0.498655,0.428016,0.672215,-0.645728,0.763566,-0.001539
-0.046215,0.300018,0.217955,-0.041351,0.952388,-0.302070
-0.017829,0.259691,0.161471,0.717202,0.086511,0.691475
-0.600900,0.932181,0.704391,-0.562458,-0.631633,0.533554
-0.275066,0.337153,0.776677,-0.176585,0.062388,0.982306
-0.433134,-0.251989,0.499578,-0.193929,0.084798,0.977344
0.179445,0.374725,0.608627,-0.669674,-0.284836,-0.685861
-0.312202,0.359446,0.587792,0.282214,0.512767,-0.810818
0.097483,0.562214,-0.074977,-0.338897,-0.766001,0.546253
-0.413797,0.416869,0.303939,0.727867,0.074137,-0.681698
-0.575472,-0.261069,0.522611,0.182675,0.394508,0.900552
0.339876,-0.718143,-0.233470,-0.423547,-0.116364,0.898369
-0.338873,0.505166,0.704455,0.998544,-0.033795,0.042042
-0.290915,0.325756,0.583778,-0.462532,-0.732625,0.499324
-0.702079,0.072952,0.570143,0.124832,-0.014327,0.992074
-0.195176,0.337778,0.392153,-0.023874,-0.993669,0.109778
0.527215,-0.188114,-0.221173,-0.767692,0.162692,0.619823
-0.635966,0.369215,0.288902,0.365842,0.868905,0.333411
-0.243015,-0.206589,0.584065,0.840639,0.211847,0.498444
-0.478963,-0.230823,0.299256,0.133908,-0.237827,-0.962033
-0.033678,0.655082,0.500247,0.422141,-0.721698,-0.548588
0.090270,0.743439,0.560394,-0.565495,-0.820451,-0.084117
-0.496822,0.045024,0.567530,0.620073,-0.783609,-0.038282
-0.501553,0.417246,0.749598,0.228052,-0.861244,0.454150
-0.489074,0.893042,0.715797,0.100714,-0.846683,0.522480
-0.768191,0.295133,0.561509,0.165501,-0.434147,0.885509
-0.047516,0.241029,0.648322,0.387369,0.500464,-0.774261
0.335206,0.195753,-0.864413,-0.786167,0.612278,0.084010
-0.307828,0.031748,0.549180,0.950057,0.217040,0.224244
-0.200675,0.537103,0.675624,0.764374,0.391444,0.512352
-0.163183,0.487257,0.749215,-0.391869,-0.843168,-0.368112
0.355488,0.917653,0.665238,0.129506,-0.802304,0.582698
-0.376305,-0.225500,0.589576,0.920531,0.314379,0.231921
-0.015878,0.309099,0.279186,0.637117,0.769559,0.043141
-0.213507,0.274907,0.611972,0.492800,0.529043,0.690841
-0.029005,0.094182,0.464120,0.889230,-0.183269,-0.419145
-0.485763,0.011709,0.606397,0.944413,0.216979,-0.246992
0.263594,0.763979,0.648640,0.726607,-0.046908,0.685451
-0.458148,-0.250298,0.526880,-0.764789,0.144807,0.627797
0.699535,0.641993,0.568136,0.044056,-0.310400,0.949585
0.091807,-0.453441,0.131302,-0.103230,0.395413,0.912684
0.543183,-0.753899,-0.207952,-0.445292,0.153109,-0.882197
-0.414270,0.239715,0.279281,0.475490,0.874893,-0.092041
-0.083766,0.263322,0.312031,-0.492966,0.522290,-0.695843
0.082995,0.864487,0.744692,0.170842,-0.212622,0.962084
-0.526744,-0.135138,0.524427,0.198383,0.367006,0.908818
-0.630703,0.162502,0.565077,0.390256,0.834032,0.389988
0.098252,0.738304,0.605314,0.408580,0.663733,0.626515
0.470566,-0.060368,0.422896,-0.411527,0.638271,-0.650581
-0.403979,0.469033,0.675273,0.356084,-0.903459,-0.238676
0.806391,0.658589,0.396645,-0.674837,0.303814,0.672527
-0.327222,0.633290,0.756734,0.505319,0.821285,-0.264845
-0.509476,0.440666,0.638796,0.317350,0.915718,0.246476
0.607640,0.037760,-0.150353,-0.444872,0.094966,0.890545
0.213978,0.368338,-0.120438,0.637852,-0.746045,0.191210
0.176014,-0.158245,0.345641,0.926662,0.185877,-0.326721
0.186008,0.236332,-0.047166,0.290393,0.954286,-0.070776
-0.103575,0.494270,0.751318,-0.154131,0.084041,0.984470
-0.027054,0.858915,0.477819,-0.045767,-0.569319,0.820842
-0.590846,0.028868,0.059972,-0.071549,0.417665,0.905780
0.027348,-0.175905,0.118591,-0.104830,0.150537,0.983031
-0.394992,0.805749,0.764507,0.595855,0.301271,-0.744441
-0.470093,0.228254,0.328820,-0.128305,-0.231677,0.964294
-0.437273,0.114596,0.542427,-0.701811,0.705616,-0.097813
0.063422,0.708622,0.844980,0.517775,-0.808907,0.278528
-0.311612,0.806374,0.807515,0.968679,0.206572,-0.137804
-0.677065,-0.226252,0.577852,-0.045073,-0.503712,0.862695
-0.200971,0.211471,0.597381,-0.214419,0.061200,-0.974823
-0.149996,0.600288,0.766259,-0.002078,-0.871984,0.489529
-0.546967,0.648819,0.636694,-0.176110,-0.914644,0.363884
-0.327341,-0.230698,0.513149,-0.759090,-0.145303,0.634562
0.053605,0.263322,0.088262,-0.892367,0.322337,-0.315881
-0.060998,0.769053,0.844311,-0.256934,-0.960676,0.105293
-0.748854,-0.543241,0.366890,0.168538,0.210471,0.962963
-0.551403,-0.283864,0.534398,-0.653363,-0.124477,0.746741
-0.351883,0.417559,0.738766,0.708780,-0.355858,-0.609094
0.087963,0.261757,0.079915,-0.077163,0.994427,-0.071834
-0.326277,-0.065440,0.583396,-0.561547,0.408170,-0.719765
-0.285060,0.600663,0.756224,-0.416907,0.891434,-0.177578
0.243309,0.719456,0.735835,0.726873,-0.525068,-0.442673
0.068152,-0.241783,0.110849,0.161403,0.485512,0.859201
0.247449,0.909449,0.614744,0.394684,0.916227,0.068944
0.710297,0.586072,0.390529,-0.157910,0.554409,0.817126
-0.745898,-0.105956,0.068988,-0.685107,0.455776,0.568240
0.084237,0.722211,0.628793,0.637320,0.399915,0.658704
0.365660,0.238774,-0.900476,0.773822,-0.633400,0.002127
-0.502322,-0.366085,0.120247,0.222555,0.154976,0.962524
-0.307353,-0.031561,0.566511,0.891072,0.002284,0.453857
-0.548624,0.382428,0.603116,-0.226155,0.965418,0.129697
0.229118,0.294132,-0.426974,-0.129099,0.967500,-0.217432
0.672333,-0.619577,-0.198426,-0.235571,0.332309,0.913278
0.193340,0.584633,0.520030,-0.626383,-0.726756,0.281905
-0.783980,0.595153,0.704901,-0.328176,0.810834,-0.484612
-0.236806,0.779447,0.825419,-0.368985,0.186307,0.910571
-0.770557,0.282046,0.374409,0.224202,-0.167755,0.959996
0.117175,-0.438913,0.157521,-0.591735,0.199937,0.780945
-0.041425,0.627966,0.836315,0.257847,0.863121,0.434209
-0.920700,0.347485,0.415824,0.011230,0.297528,0.954647
0.177552,-0.202142,0.572309,-0.059926,-0.944632,-0.322613
0.273586,0.786148,0.613055,-0.598270,0.145634,0.787949
0.465480,0.671488,0.574826,0.826631,0.551506,0.111903
0.510304,0.658212,0.628857,-0.270305,0.509642,0.816823
-0.597115,0.934309,0.737683,0.942351,0.196712,0.270700
-0.418173,0.648256,0.726851,0.752951,-0.536632,-0.380907
-0.031075,0.923915,0.642110,-0.107300,0.134608,0.985072
0.025871,0.590519,0.670304,-0.089681,-0.889843,0.447367
-0.097070,-0.011961,0.528091,0.927042,0.374797,0.010999
0.239998,0.269397,-0.380717,-0.764623,0.643960,0.025834
-0.483516,-0.532345,0.171666,0.185001,0.977113,0.105003
-0.054139,-0.140898,0.110945,-0.396261,-0.251288,-0.883081
0.091984,0.505855,0.446981,0.327898,-0.885764,0.328487
0.618697,0.859289,0.589226,-0.065693,-0.197628,0.978073
-0.638449,-0.244599,0.446089,0.741341,-0.195678,-0.641968
0.098784,0.324502,-0.110148,0.900827,0.425359,-0.087064
0.433664,-0.258753,0.075232,0.964095,-0.201055,0.173489
-0.481978,0.862358,0.698944,0.179649,0.505888,-0.843684
0.230892,0.391947,-0.120215,-0.146728,-0.987510,-0.057402
-0.514088,0.941512,0.721499,-0.654919,0.373448,-0.656977
-0.108188,-0.052541,0.522069,0.871799,-0.224836,0.435218
0.520712,0.035381,-0.188869,0.680482,0.087437,-0.727530
-0.071761,0.373660,0.309960,-0.179425,-0.882055,0.435644
-0.226517,-0.052541,0.553417,0.457264,0.308322,0.834175
0.528044,0.696349,0.596362,0.872724,-0.451509,0.185721
-0.763934,0.145656,0.549053,0.213040,-0.089072,0.972975
0.800478,0.511804,0.482183,0.025584,-0.754665,0.655611
-0.178616,0.481369,0.776581,-0.365065,-0.333675,-0.869131
-0.357914,-0.568664,0.345960,0.458598,0.313242,0.831605
0.262114,0.265327,-0.087720,0.816346,0.564706,-0.121187
0.023860,0.884400,0.553577,0.865862,-0.170493,-0.470335
-0.413441,0.357380,0.771739,-0.101360,0.937025,-0.334230
-0.435263,0.622017,0.702416,0.135124,0.655624,0.742899
-0.571982,0.107082,0.522484,-0.269874,0.961908,0.043593
-0.290738,0.264323,0.252489,0.185707,-0.399647,0.897661
-0.150173,0.632663,0.794294,-0.039280,-0.601457,0.797939
0.004879,0.299204,0.130378,0.907990,-0.074603,0.412297
0.576888,0.032876,0.258446,-0.374608,0.785371,-0.492810
0.167853,-0.091990,0.541088,0.380134,0.486680,0.786537
0.135626,-0.248670,0.226334,0.955705,0.272156,-0.112063
0.610300,0.059990,0.299192,0.438081,-0.648669,0.622345
0.464415,0.553009,0.632616,-0.724318,0.273877,0.632736
0.044735,0.760035,0.867057,0.200818,-0.214881,0.955771
0.446616,0.595090,0.478998,0.341892,0.933886,-0.104721
-0.286421,0.714884,0.778556,0.962426,-0.265660,-0.056226
-0.312677,0.537166,0.819239,0.646627,0.360351,0.672325
0.523727,0.701608,0.563070,-0.240432,0.275140,-0.930855
-0.694864,-0.098880,0.228149,0.059758,0.365312,0.928965
-0.573402,-0.177908,0.486261,0.908222,-0.043664,-0.416205
0.842049,0.305592,-0.037513,-0.013155,-0.374085,0.927301
0.501019,-0.588329,-0.243887,-0.341994,0.553238,0.759584
0.450105,-0.659279,-0.277943,0.921136,-0.328676,-0.208518
-0.783093,0.173898,0.570525,0.103757,0.201886,0.973898
0.758906,0.297826,-0.018525,-0.335700,-0.041714,0.941045
0.675763,0.546119,0.572118,0.380126,-0.376483,0.844846
-0.707993,-0.517817,0.242008,0.826015,-0.223961,0.517244
-0.591791,0.086479,0.522101,0.545422,-0.837827,0.023680
-0.158274,-0.357067,0.648386,-0.181476,0.771888,0.609307
-0.465067,-0.152733,0.283996,-0.003960,0.636574,0.771206
-0.588955,0.325066,0.697829,0.971080,0.205599,0.121378
-0.345556,-0.273781,0.270011,0.454696,0.285033,0.843806
0.009136,0.780950,0.883751,-0.459801,0.685879,-0.564051
0.412672,0.509112,0.621689,0.336423,0.107264,-0.935582
0.571330,-0.648569,-0.220058,0.416405,-0.204363,-0.885913
0.285650,0.240529,-0.727903,-0.219048,-0.967827,0.123810
-0.433251,0.449495,0.684034,0.117731,-0.964327,-0.237091
0.470387,0.028931,0.291483,0.935649,0.275662,0.220388
-0.545785,0.097752,0.547970,0.395599,0.624090,-0.673806
-0.116349,0.056796,0.209417,-0.725185,0.669273,-0.161801
0.324679,-0.361514,0.294509,0.161100,-0.825430,0.541029
0.338162,0.437096,-0.031364,0.271348,-0.285734,-0.919090
0.011206,0.059739,-0.239969,0.390068,-0.407597,-0.825658
-0.669790,0.453816,0.568359,0.813017,-0.577485,0.074260
-0.630999,-0.928426,0.295019,0.883612,0.467434,0.027117
0.185595,0.330140,0.596903,-0.582241,-0.314922,-0.749546
0.012861,0.269147,0.636280,-0.045867,-0.322424,0.945484
-0.499956,-0.577933,0.349942,-0.583257,-0.231805,-0.778510
-0.264539,0.085728,0.608754,-0.210944,-0.290197,0.933428
-0.558086,0.341161,0.706367,0.865207,0.195771,-0.461616
-0.769196,0.424322,0.586072,0.248006,-0.819509,0.516622
0.200969,0.360573,-0.186448,0.397770,0.897773,-0.189162
-0.251117,0.102448,0.627264,-0.056202,-0.127598,0.990232
-0.528103,0.095184,0.276701,0.336177,-0.756817,0.560547
0.338339,-0.178534,-0.424680,0.978090,-0.077044,-0.193402
0.309955,0.847267,0.615763,-0.257685,0.097577,0.961289
-0.299488,0.304839,0.514392,0.946906,-0.250328,0.201753
0.426924,0.555201,0.507160,0.784767,0.253329,0.565654
0.041363,0.905567,0.629143,0.867207,0.488480,0.096637
-0.183821,-0.144218,0.504102,0.408370,0.072722,0.909915
0.000030,0.840377,0.604963,-0.364626,-0.325747,-0.872317
0.330593,-0.065001,-0.260676,0.337050,0.174312,-0.925210
0.292925,0.137515,-0.090715,0.878862,-0.143559,0.454963
-0.766299,0.082034,0.569474,0.470211,0.129590,0.872988
0.034683,-0.719207,0.200720,-0.036802,0.629805,0.775881
-0.369209,0.614690,0.710540,0.905586,0.424092,-0.007791
-0.276959,-0.309977,0.622039,-0.608913,-0.791149,-0.057522
0.113687,-0.674808,0.175616,-0.314443,0.004398,0.949266
0.467135,-0.051788,0.447363,-0.575192,0.506822,-0.642095
0.187605,0.387563,0.040985,-0.037554,-0.995336,0.088862
-0.291743,0.821529,0.741665,-0.516770,-0.227585,0.825321
-0.115107,-0.346860,0.621721,0.606434,0.789496,0.094519
-0.423612,-0.314171,0.536756,-0.526443,-0.157352,0.835523
-0.283995,-0.063185,0.562433,0.661991,0.223142,-0.715524
0.080629,0.568788,0.610475,0.715882,-0.689644,0.109108
-0.742882,-0.401967,0.141401,-0.467333,0.314189,0.826369
-0.517223,0.334835,0.756224,-0.730131,0.671603,0.125929
-0.846486,0.362639,0.396582,-0.213036,-0.296610,-0.930934
0.288902,0.245664,-0.580975,0.867108,0.118071,0.483925
-0.469264,0.433465,0.389764,0.934345,0.162128,0.317354
0.110492,0.728787,0.567976,-0.419682,-0.905876,-0.057064
-0.271578,0.611873,0.744405,0.399922,-0.829994,0.388810
-0.227344,0.074957,0.622198,0.015417,-0.374322,0.927171
-0.427043,0.787588,0.739308,0.005009,-0.543567,0.839351
-0.537388,0.609180,0.660077,0.944344,-0.114334,-0.308452
-0.025517,-0.428519,0.717740,-0.330667,0.766710,0.550286
-0.771621,0.379359,0.599484,0.329975,0.666354,-0.668647
0.060051,0.573298,0.681868,0.512669,0.811720,-0.279789
0.011560,-0.362641,0.648545,-0.209147,0.511675,0.833334
-0.467254,0.484188,0.606747,0.369158,0.921902,0.117557
-0.046806,0.498903,0.630004,-0.468478,-0.179804,-0.864985
