0.868577,-0.758878,-0.895655,0.797740,-0.250463,0.548525
-0.746024,-0.348418,-0.962931,-0.571454,0.567488,-0.592788
-0.649563,-0.371330,-0.964234,-0.211210,0.184024,0.959961
-0.567762,-0.390167,-0.958370,0.402525,-0.326871,-0.855061
-0.491571,-0.407699,-0.950591,-0.213422,-0.204542,-0.955308
-0.311601,-0.449667,-0.945867,-0.333664,0.527257,0.781453
-0.228330,-0.469161,-0.941958,-0.005405,0.535236,0.844685
-0.142623,-0.489019,-0.937234,-0.043094,-0.299048,0.953265
-0.068876,-0.505823,-0.929659,0.132617,0.515374,0.846642
0.043942,-0.532806,-0.934383,0.280555,0.644760,0.711037
0.132094,-0.553175,-0.930311,0.218961,-0.261445,0.940055
0.222689,-0.574414,-0.927216,-0.305677,0.320347,0.896626
0.320127,-0.597398,-0.927908,0.180365,0.481681,0.857585
0.476898,-0.633256,-0.914184,0.005339,-0.918183,0.396121
0.565049,-0.654060,-0.911496,0.223221,-0.166384,0.960463
0.653201,-0.674646,-0.907424,-0.177893,-0.182447,0.966989
0.739892,-0.694722,-0.902578,-0.246902,0.052292,-0.967628
-0.739429,-0.309354,-0.983252,-0.087590,0.270068,0.958849
-0.669104,-0.325212,-0.973274,-0.051066,0.535895,0.842739
-0.510134,-0.362309,-0.962931,0.007730,-0.407409,0.913213
-0.436872,-0.378895,-0.953768,0.240687,0.821388,0.517099
-0.342371,-0.401151,-0.953971,-0.179924,0.662712,0.726938
-0.261053,-0.419770,-0.947700,-0.688783,0.075133,0.721064
-0.158004,-0.444286,-0.949573,-0.465310,0.068318,0.882507
-0.083773,-0.461161,-0.940695,0.084198,0.349745,0.933054
0.016347,-0.485019,-0.942894,0.653873,0.125096,0.746191
0.102792,-0.505095,-0.939392,0.123422,-0.228850,0.965606
0.280809,-0.546773,-0.933284,0.418966,-0.086556,-0.903867
0.354064,-0.563284,-0.923836,-0.257623,0.097796,0.961284
0.454184,-0.586778,-0.923917,-0.123698,-0.006594,-0.992298
0.529883,-0.604164,-0.915324,-0.135650,-0.591647,-0.794703
0.637574,-0.629767,-0.919356,-0.238362,-0.640147,-0.730339
0.781892,-0.662646,-0.900949,-0.671356,0.724971,-0.153942
0.869314,-0.683010,-0.897609,0.170168,-0.317972,0.932704
-0.770438,-0.261859,-0.981460,0.697668,-0.129687,-0.704586
-0.683017,-0.282516,-0.979424,-0.075483,0.345562,0.935355
-0.607317,-0.299755,-0.971238,-0.246297,-0.484884,0.839182
-0.522832,-0.319538,-0.966474,0.131751,0.216646,0.967319
-0.352625,-0.359037,-0.958532,-0.304900,0.021465,0.952142
-0.280838,-0.375619,-0.950428,0.909602,0.393712,-0.132724
-0.181448,-0.398895,-0.950876,0.448375,0.787141,0.423519
-0.097202,-0.418754,-0.947252,0.088256,0.191051,0.977604
-0.006122,-0.439922,-0.944523,-0.593902,0.108472,0.797191
0.090585,-0.462617,-0.943831,-0.082962,-0.357522,0.930212
0.175808,-0.482328,-0.938741,-0.074970,0.342952,0.936357
0.253706,-0.500437,-0.932632,-0.258969,0.252691,0.932246
0.348452,-0.522915,-0.932469,-0.102958,0.288907,0.951805
0.428787,-0.541388,-0.925750,0.098245,0.065858,0.992981
0.508399,-0.559648,-0.919967,0.736001,-0.014761,0.676820
0.607534,-0.582924,-0.919234,0.396695,-0.362655,-0.843276
0.700574,-0.604816,-0.916750,0.293621,0.081669,0.952427
0.777496,-0.622712,-0.908605,0.225688,-0.412125,-0.882733
0.845623,-0.638060,-0.898587,0.568145,-0.557158,-0.605629
-0.637111,-0.245420,-0.982152,0.031850,-0.463406,0.885574
-0.559705,-0.263240,-0.976288,0.580219,-0.074108,-0.811082
-0.466665,-0.285136,-0.974822,-0.021359,-0.001468,0.999771
-0.403664,-0.299462,-0.963501,-0.638846,-0.297661,0.709418
-0.236393,-0.338158,-0.952994,0.030015,0.098621,0.994672
-0.139202,-0.360928,-0.952668,0.910448,0.412220,0.034042
-0.074495,-0.375694,-0.941836,0.767613,0.087992,-0.634844
0.039299,-0.402824,-0.948922,0.102734,-0.196694,0.975068
0.129649,-0.424134,-0.945949,0.176974,0.212897,0.960914
0.203888,-0.441085,-0.938496,-0.277598,-0.273009,0.921089
0.290817,-0.461307,-0.934098,0.461860,-0.813704,-0.352947
0.374825,-0.480943,-0.928763,0.885435,0.033735,-0.463537
0.468588,-0.502764,-0.926686,0.836185,0.091172,0.540817
0.558454,-0.523785,-0.924691,-0.132745,0.427371,0.894278
0.645876,-0.544371,-0.921351,0.116150,-0.165295,0.979381
0.814615,-0.583577,-0.911618,0.051390,0.371346,0.927071
0.914243,-0.606925,-0.911252,-0.519220,0.081237,0.850771
-0.579968,-0.212540,-0.983211,0.225315,-0.211531,0.951046
-0.497189,-0.231599,-0.977632,0.655699,-0.138921,-0.742132
-0.421975,-0.248985,-0.969365,0.472640,0.013937,-0.881146
-0.329426,-0.271022,-0.969202,-0.422818,0.901839,-0.088952
-0.252750,-0.288697,-0.962849,0.209672,-0.242052,0.947338
-0.151655,-0.312413,-0.963949,-0.084597,-0.324222,0.942191
-0.067655,-0.332049,-0.960284,-0.405699,0.674427,-0.616892
-0.005383,-0.346087,-0.947048,0.141051,0.618701,0.772861
0.097665,-0.370384,-0.948799,-0.199576,0.163280,0.966183
0.187531,-0.391548,-0.945623,-0.177144,0.663192,0.727184
0.261270,-0.408423,-0.938008,0.750998,0.423256,0.506811
0.348691,-0.428792,-0.934872,0.100663,0.178881,0.978708
0.429763,-0.447704,-0.928315,0.059703,-0.625366,-0.778044
0.525732,-0.470253,-0.928478,0.084655,0.288818,0.953634
0.618034,-0.491780,-0.925668,-0.639724,-0.545790,0.541172
0.699598,-0.510839,-0.919722,0.487591,0.666810,-0.563577
0.792392,-0.532518,-0.917157,-0.383142,-0.028005,-0.923265
0.866385,-0.549681,-0.909501,-0.387553,0.524486,0.758101
-0.490594,-0.188975,-0.979627,-0.616574,0.097854,0.781192
-0.412450,-0.207088,-0.973885,-0.118893,-0.026037,0.992566
-0.311601,-0.231017,-0.975270,0.824253,0.511102,-0.243682
-0.238346,-0.247746,-0.966270,-0.577194,-0.249045,0.777704
-0.068630,-0.287387,-0.958125,0.409208,-0.040360,-0.911548
0.023673,-0.308990,-0.957392,0.304112,0.311792,0.900168
0.182888,-0.346016,-0.945216,0.420557,-0.116631,-0.899738
0.277389,-0.368129,-0.943668,-0.406352,-0.367017,0.836765
0.367985,-0.389293,-0.940695,0.016584,0.411843,0.911104
0.446612,-0.407553,-0.933446,-0.054904,0.602800,0.796001
0.534034,-0.428210,-0.930759,0.865524,0.079703,0.494485
0.631471,-0.451123,-0.931329,-0.613097,-0.288422,-0.735476
0.710099,-0.469161,-0.923917,-0.449216,0.332675,-0.829176
0.802893,-0.490834,-0.922247,-0.175047,0.174248,0.969018
-0.382172,-0.176611,-0.971971,0.026106,-0.049595,0.998428
-0.293045,-0.197703,-0.970465,-0.392806,0.039637,0.918767
-0.195123,-0.220687,-0.970627,-0.683159,0.168442,0.710578
-0.115519,-0.239164,-0.965293,-0.651460,0.709220,-0.269457
-0.038599,-0.256985,-0.957555,0.206574,0.369733,0.905883
0.045411,-0.276550,-0.952546,0.477589,0.614580,-0.627854
0.138689,-0.298592,-0.950713,-0.106535,-0.188214,0.976333
0.397286,-0.358819,-0.939922,-0.363562,0.294026,0.883952
0.471279,-0.375983,-0.932551,0.000403,-0.699790,0.714348
0.567494,-0.398749,-0.931573,0.213246,0.559486,0.800938
0.668098,-0.422390,-0.931899,-0.200684,-0.013839,0.979558
0.758940,-0.443558,-0.928804,0.445192,0.299347,0.843917
0.840496,-0.462541,-0.923306,-0.713311,-0.028037,0.700286
-0.294752,-0.165263,-0.970057,0.204501,-0.167283,-0.964467
-0.200496,-0.187301,-0.968876,0.119986,-0.040581,0.991946
-0.117226,-0.206866,-0.965170,0.786580,0.585890,0.195001
-0.034686,-0.226143,-0.960976,-0.713238,-0.080392,0.696296
0.056640,-0.247457,-0.958451,0.071757,0.505583,0.859789
0.129649,-0.264474,-0.950795,-0.106025,0.197264,0.974600
0.217562,-0.284843,-0.946885,0.323277,0.808167,-0.492299
0.308643,-0.306157,-0.944238,-0.211981,-0.316792,0.924504
0.577994,-0.369581,-0.937234,0.413641,-0.071774,-0.907607
0.674932,-0.392352,-0.936379,0.430908,0.767228,0.475057
0.747218,-0.408862,-0.928112,0.437792,0.382068,-0.813856
0.841964,-0.431335,-0.926075,-0.021084,0.032892,0.999236
-0.230044,-0.146421,-0.975514,-0.169940,0.766179,0.619750
-0.162401,-0.161845,-0.965781,0.089458,-0.108104,0.990106
-0.063011,-0.185263,-0.966392,-0.117581,0.357115,0.926630
0.028561,-0.206649,-0.963989,0.114166,-0.061330,0.991567
0.099617,-0.223159,-0.954379,0.634886,0.375817,-0.675041
0.184356,-0.243164,-0.950917,-0.602272,-0.257705,0.755550
0.276658,-0.264767,-0.950103,0.689172,-0.626776,-0.363585
0.363834,-0.285136,-0.945989,-0.731555,0.633473,-0.252069
0.448811,-0.304990,-0.942406,-0.712797,0.674611,0.191885
0.554549,-0.330157,-0.944971,-0.335426,0.531494,0.777819
0.713519,-0.367037,-0.930840,-0.389160,0.121745,0.913090
0.802893,-0.387987,-0.928641,0.996589,-0.005930,0.082309
0.005362,-0.162062,-0.968673,0.178783,0.604975,-0.775913
0.076173,-0.178209,-0.960324,0.167231,0.594402,0.786587
0.110847,-0.185410,-0.937234,0.189172,0.166637,0.967701
0.226356,-0.213197,-0.943750,0.796025,0.414318,-0.441231
0.336730,-0.239453,-0.948229,0.020387,0.002482,0.999789
0.431231,-0.261713,-0.948107,-0.280984,0.049832,0.958418
0.525977,-0.283968,-0.948026,0.755673,0.178114,-0.630265
0.629518,-0.308701,-0.949695,-0.709257,0.498346,-0.498604
0.682018,-0.320337,-0.934424,-0.580005,-0.036859,0.813779
0.125499,-0.149698,-0.965659,-0.429967,0.792832,0.431908
0.186062,-0.163514,-0.952017,0.477068,-0.622468,-0.620435
0.161641,-0.154133,-0.873256,-0.527145,0.849038,0.035386
0.203396,-0.162932,-0.853261,0.566589,-0.823906,0.012476
0.300587,-0.145112,-0.950836,0.185434,-0.966948,0.175003
0.400461,-0.169046,-0.952953,0.051105,0.117155,0.991798
0.494478,-0.191012,-0.951202,0.425450,0.449771,-0.785302
0.573351,-0.209486,-0.945827,0.628376,0.190357,-0.754260
0.615843,-0.218653,-0.925750,0.054368,-0.525158,0.849266
0.758203,-0.252985,-0.941225,-0.089420,-0.313109,-0.945498
0.485199,-0.144313,-0.951080,0.021725,0.114423,0.993195
0.586534,-0.168389,-0.953564,0.923622,0.186868,-0.334668
0.660527,-0.185703,-0.946112,0.461874,-0.856204,0.231491
0.747702,-0.206360,-0.942121,0.616225,0.037943,-0.786655
0.609979,-0.137258,-0.950347,0.283983,0.919306,-0.272453
0.698868,-0.158062,-0.946763,0.032007,-0.535068,0.844203
0.766504,-0.173774,-0.935808,0.757863,0.354194,0.547896
0.639772,-0.755895,-0.028234,-0.018573,0.470371,0.882273
-0.492062,-0.418683,0.550087,0.836308,0.497025,0.231422
-0.826605,-0.327321,0.151562,-0.489480,0.867829,0.085331
0.398263,-0.629110,-0.061058,-0.018573,0.470371,0.882273
-0.315997,-0.420134,0.586413,0.128290,0.899540,0.417576
-0.410014,-0.369075,0.523453,0.952872,0.296501,0.064212
-0.290846,-0.394602,0.565847,0.691999,0.598932,0.403011
-0.445173,-0.328777,0.495639,-0.399301,0.505620,0.764792
-0.386085,-0.342304,0.504517,0.309632,0.532020,0.788088
-0.303544,-0.359983,0.532006,-0.534983,0.843626,0.045695
-0.138717,-0.400205,0.509037,-0.198596,0.976161,0.087577
0.035640,-0.442900,0.484603,-0.570452,-0.797905,0.194760
-0.007582,-0.427118,0.574440,-0.481180,-0.111511,-0.869500
0.249308,-0.488220,-0.090542,-0.031760,0.527188,0.849155
-0.134805,-0.380058,0.201205,0.838681,0.380848,0.389319
-0.039574,-0.402749,0.198924,0.778855,0.200074,0.594437
0.239539,-0.471851,0.141911,0.326697,0.807664,0.490864
-0.429300,-0.293935,0.479146,-0.245881,0.864649,0.438092
-0.366791,-0.308120,0.486150,-0.098912,0.508085,-0.855608
-0.206845,-0.345652,0.490752,0.491550,0.772736,0.401570
-0.216370,-0.341723,0.519788,0.118943,-0.941303,-0.315913
0.181911,-0.441085,0.429829,0.924870,0.282000,0.255130
-0.049828,-0.377510,0.573788,-0.242463,-0.398976,-0.884325
0.060061,-0.403917,0.568046,-0.607909,0.008425,-0.793962
-0.557508,-0.248545,0.100128,-0.627376,0.765522,-0.142744
-0.311847,-0.284914,0.462897,-0.516971,-0.058856,-0.853977
-0.220766,-0.306446,0.462490,-0.290604,-0.894085,-0.340823
-0.165822,-0.319028,0.471653,0.054905,0.906309,0.419033
-0.006360,-0.357727,0.450354,-0.301311,0.111413,0.946995
0.039299,-0.367912,0.463426,0.644679,-0.280103,-0.711289
0.048823,-0.364129,0.564503,0.388747,-0.919095,-0.064349
0.357485,-0.428938,0.701784,0.768112,-0.632097,-0.102263
-0.389744,-0.244838,0.058060,-0.515811,0.844036,-0.146774
0.284468,-0.414243,-0.128944,-0.007274,0.542539,0.839999
0.301564,-0.403917,0.124603,-0.387352,0.350385,0.852754
-0.235418,-0.260550,0.423028,0.831865,0.553674,0.038020
-0.298664,-0.242947,0.468680,-0.574071,-0.050417,-0.817252
-0.126258,-0.285061,0.443064,0.189308,0.489742,0.851067
0.063474,-0.331614,0.413499,0.952282,0.297813,-0.066834
0.156023,-0.353288,0.413173,0.988401,0.075943,-0.131518
0.108650,-0.339907,0.453693,-0.846453,0.416887,0.331244
0.167745,-0.353510,0.461797,0.902626,-0.307710,-0.300967
0.187769,-0.357146,0.481264,0.809940,0.531801,-0.247355
0.139419,-0.343396,0.521499,0.719384,-0.498071,-0.484161
0.426834,-0.402971,0.666965,0.950334,-0.146830,0.274421
0.079109,-0.331831,-0.316560,0.717971,0.093216,0.689803
0.366762,-0.388205,-0.107279,-0.007274,0.542539,0.839999
-0.217099,-0.237637,0.133155,0.685334,-0.206047,-0.698471
-0.459094,-0.171807,0.292345,0.604849,-0.791224,0.090123
0.304492,-0.361728,0.113200,-0.240656,0.346761,0.906555
0.547954,-0.417156,0.149200,0.038578,0.686508,0.726098
-0.208306,-0.223523,0.431254,0.255427,0.280098,-0.925366
-0.084258,-0.253273,0.421033,0.659436,0.746567,0.088213
0.173610,-0.316777,0.370332,0.894876,0.180195,0.408322
0.078125,-0.291462,0.424250,0.759718,0.540760,0.361119
0.394850,-0.368418,0.383730,0.903712,0.191543,0.382905
0.194610,-0.313718,0.521255,-0.346968,0.593398,0.726287
0.388984,-0.353070,0.642979,0.903796,-0.382138,-0.192672
0.414628,-0.358162,0.660164,0.707277,-0.558393,-0.433540
0.463461,-0.369146,0.670712,0.581233,-0.550750,-0.599035
0.517922,-0.381510,0.680729,-0.780154,0.604553,-0.160859
0.551859,-0.387330,0.720436,0.481199,-0.775305,-0.409085
0.575303,-0.391694,0.738924,0.481199,-0.775305,-0.409085
-0.408791,-0.135296,0.413906,0.686691,0.692013,0.222650
-0.181933,-0.190937,0.371349,0.362788,-0.477788,0.800065
-0.095003,-0.211670,0.371105,0.679521,0.714880,0.164915
0.002187,-0.234582,0.368906,-0.550981,-0.704957,-0.446604
-0.139933,-0.197410,0.437282,0.320639,0.819221,0.475466
0.274945,-0.300262,0.340684,-0.515178,-0.505220,-0.692347
0.194610,-0.273424,0.495517,0.150907,0.663871,0.732463
0.232944,-0.281642,0.509607,0.568205,-0.626394,-0.533642
0.362366,-0.311391,0.524553,-0.181610,-0.010809,0.983311
0.384104,-0.312919,0.593784,-0.351883,0.671184,-0.652450
0.375802,-0.308337,0.646074,0.709588,-0.579127,-0.401369
0.481533,-0.333576,0.641757,0.696545,-0.660594,-0.280074
0.515232,-0.340560,0.657639,0.597458,0.401315,-0.694255
0.615597,-0.364564,0.654870,0.099266,0.984071,-0.147480
0.044188,-0.281132,-0.333705,0.699850,0.105095,0.706516
0.160912,-0.309283,-0.342419,0.730231,-0.001781,0.683198
0.074712,-0.271680,-0.015365,0.795595,0.546900,-0.260632
0.122085,-0.282077,-0.000949,0.690475,0.650138,-0.317121
-0.173877,-0.205921,0.121467,0.628111,0.075948,-0.774409
-0.066432,-0.231528,0.116336,0.254577,-0.274857,0.927170
-0.119909,-0.215235,0.187725,0.854742,-0.284325,-0.434252
-0.098179,-0.186937,0.134988,0.225194,-0.129155,0.965716
0.086434,-0.232110,0.105666,0.352855,-0.081863,0.932090
0.376778,-0.302228,0.072884,-0.772099,-0.447175,-0.451550
-0.493039,-0.080449,0.394929,-0.792306,0.474883,-0.383063
-0.097448,-0.175882,0.355060,-0.235662,0.903574,-0.357796
0.061276,-0.214507,0.334372,0.589030,0.653638,0.475184
0.108165,-0.224833,0.347322,0.670859,0.498800,0.548768
-0.030051,-0.188682,0.414721,0.944079,0.212615,0.252012
0.012688,-0.198067,0.427671,0.247772,-0.968795,0.006795
0.258341,-0.253273,0.486843,0.126057,0.824204,0.552084
0.332088,-0.270370,0.490712,-0.561721,0.817716,0.125739
0.349183,-0.273495,0.511196,0.826527,-0.553056,0.104793
0.312793,-0.262876,0.547806,0.482350,0.842094,-0.241278
0.472255,-0.297647,0.604331,-0.044116,-0.758416,0.650276
0.478604,-0.298082,0.626933,-0.760381,0.408501,0.504923
0.569931,-0.319756,0.625671,-0.498612,-0.811308,-0.305231
0.589224,-0.322157,0.669856,0.568043,0.618946,-0.542432
0.671273,-0.341288,0.672300,0.417858,0.768241,-0.484975
0.670296,-0.339689,0.697711,-0.535086,0.734808,0.416823
0.742575,-0.355325,0.726666,-0.417165,0.829235,0.371945
0.803623,-0.369510,0.733711,-0.417165,0.829235,0.371945
-0.192679,-0.185556,-0.275266,-0.783443,0.287811,-0.550801
-0.436633,-0.108237,-0.509795,0.030111,-0.934818,0.353849
0.254190,-0.244403,0.024259,0.293585,0.853623,-0.430273
0.072268,-0.197050,0.109169,0.035349,-0.510921,0.858900
0.277635,-0.247311,0.073739,0.748941,0.424744,0.508605
-0.189751,-0.128237,0.246286,-0.484349,0.704616,-0.518577
-0.178029,-0.124312,0.378191,0.114746,-0.086574,0.989615
0.058347,-0.182426,0.333924,-0.623588,-0.670681,-0.401653
0.067387,-0.183301,0.357463,0.877755,0.450956,-0.161817
0.072268,-0.180464,0.436671,-0.382355,0.156943,-0.910589
0.161887,-0.200322,0.461350,-0.746658,0.052682,0.663118
0.423414,-0.263528,0.436589,-0.702433,-0.124611,0.700757
0.386541,-0.251528,0.500037,-0.469342,0.863748,-0.183463
0.413652,-0.255746,0.543368,0.108582,0.977751,0.179477
0.464684,-0.267240,0.553630,0.247050,0.968563,0.029187
0.527200,-0.281713,0.561653,-0.517294,-0.832503,0.198357
0.637328,-0.308049,0.555177,-0.013875,0.810235,0.585940
0.484708,-0.268403,0.623838,0.976904,-0.117536,-0.178446
-0.480340,-0.009168,0.589426,0.777372,0.038575,0.627857
-0.064725,-0.112383,0.491119,-0.545084,0.380523,-0.747052
0.302786,-0.202067,0.435490,-0.074468,0.783574,0.616819
0.371159,-0.217996,0.442006,0.964409,0.156890,-0.212839
0.330626,-0.206502,0.479187,-0.457679,0.154263,-0.875633
0.147237,-0.159150,0.557580,0.404360,-0.336528,0.850436
0.346254,-0.207887,0.525979,0.662204,0.315936,0.679463
0.486176,-0.241566,0.510829,-0.197259,0.705847,0.680345
0.488613,-0.241127,0.536037,-0.022069,0.978158,0.206689
0.535986,-0.251604,0.548499,0.827039,0.258159,-0.499360
0.847576,-0.328266,0.485988,0.278897,0.881156,-0.381813
0.816814,-0.319249,0.519788,0.786346,0.309806,0.534490
0.426104,-0.220398,0.654300,0.894188,-0.340942,0.290150
0.488374,-0.234800,0.662037,0.959189,-0.007128,0.282675
0.535256,-0.245273,0.673073,0.984371,0.061279,0.165102
-0.281814,-0.110852,-0.513053,-0.032933,-0.918870,0.393184
0.406811,-0.267968,-0.397560,0.366612,0.350135,0.861975
0.274705,-0.213779,0.062295,0.785896,-0.268833,0.556863
0.392159,-0.242072,0.054476,0.679850,0.332176,0.653806
-0.171433,-0.098780,0.256875,-0.419707,0.757622,-0.499854
-0.192441,-0.089471,0.344105,0.644962,-0.717451,-0.263225
0.086189,-0.156823,0.314051,0.500801,0.186682,0.845191
0.176784,-0.178355,0.313929,-0.190464,0.817250,0.543899
0.049315,-0.143585,0.404906,-0.441009,0.833023,0.334042
-0.096710,-0.075069,0.332906,0.828774,0.273074,0.488431
0.315238,-0.173334,0.316861,0.491497,-0.022707,-0.870583
-0.431991,0.016728,0.592440,0.573537,0.404403,0.712400
0.739401,-0.274512,0.297639,0.565187,0.703532,0.430821
0.396064,-0.186138,0.450802,-0.438765,0.856944,-0.270431
0.029045,-0.092814,0.584010,0.556668,-0.028270,0.830254
0.197539,-0.133840,0.561001,0.018436,-0.796792,0.603972
0.485930,-0.204686,0.502766,0.883229,0.110779,-0.455669
0.438064,-0.191594,0.541535,0.727920,-0.309847,-0.611659
0.633669,-0.239453,0.511318,-0.093565,0.993077,0.071022
0.644899,-0.240980,0.533146,-0.170441,0.972990,0.155692
0.796298,-0.277571,0.516042,0.638983,0.758310,-0.129103
0.495938,-0.201122,0.626730,0.486057,-0.873917,-0.004190
0.029537,-0.146714,-0.536062,0.937811,-0.201707,-0.282534
0.204134,-0.187883,-0.531827,0.946223,-0.316195,-0.068428
-0.006360,-0.128455,-0.331994,-0.714043,0.164156,0.680585
-0.103059,-0.102345,-0.269279,0.069058,0.997381,-0.021511
0.207062,-0.172025,-0.189297,0.845558,0.493859,-0.202820
0.480803,-0.207377,-0.392347,0.315361,0.184305,0.930902
0.176047,-0.127655,-0.229899,0.902855,0.423311,-0.075237
-0.098179,-0.047716,0.094793,-0.601092,0.789599,-0.123373
0.333063,-0.150861,0.071703,-0.317139,-0.202049,0.926606
0.258341,-0.124312,0.262494,-0.381088,-0.669500,-0.637606
0.350651,-0.140242,0.395703,-0.704417,0.526171,0.476383
0.307428,-0.128166,0.434187,0.787688,-0.511317,0.343660
-0.131631,-0.016076,0.614350,0.064371,-0.859768,-0.506611
0.371651,-0.139513,0.518648,0.718738,-0.362043,-0.593582
0.544779,-0.180464,0.520766,0.826741,0.500830,-0.256259
0.694717,-0.213197,0.578798,0.159751,0.699778,0.696269
0.069339,-0.124312,-0.703926,0.238656,0.951968,0.191836
0.054197,-0.118781,-0.664424,0.986692,-0.079583,0.141796
0.024402,-0.109982,-0.621216,0.948022,0.242100,0.206499
0.017569,-0.105107,-0.551944,0.982307,0.040064,-0.182943
0.009998,-0.101542,-0.516066,0.992005,0.056783,-0.112699
0.021228,-0.102998,-0.488496,0.972167,0.227488,0.056045
0.026601,-0.102780,-0.459175,0.999551,0.023049,-0.019145
0.018545,-0.099287,-0.424112,0.740121,-0.662524,0.115248
0.006339,-0.094922,-0.389130,-0.558398,0.817757,0.139514
0.023188,-0.097688,-0.362904,0.307750,0.951438,-0.007496
0.051998,-0.103433,-0.340872,-0.757787,0.130456,0.639328
0.091070,-0.063428,-0.223750,-0.435969,0.888826,-0.141133
0.083259,-0.060156,-0.191619,-0.111830,-0.975485,0.189536
0.108895,-0.065173,-0.170320,-0.200217,-0.974243,0.103749
0.138443,-0.055135,0.222178,-0.713511,0.667679,0.212383
0.422683,-0.122421,0.217902,0.313875,-0.853349,0.416268
0.220737,-0.070776,0.306884,-0.736381,0.508245,0.446576
0.262738,-0.077830,0.373427,0.711556,-0.458117,0.532745
0.252967,-0.074048,0.403277,0.987117,-0.120964,0.104729
0.334778,-0.093542,0.404580,0.937010,0.348456,0.024319
0.113538,-0.037026,0.496657,0.093310,-0.973149,0.210415
-0.061305,0.007636,0.574236,-0.080378,0.936253,0.342009
-0.054956,0.007125,0.598182,0.156721,0.839561,0.520169
0.434890,-0.111580,0.531517,-0.700227,0.485088,0.523805
0.740130,-0.183372,0.546463,0.854751,-0.031375,0.518089
0.766504,-0.188757,0.564137,0.773260,0.629514,0.076026
0.140396,-0.078558,-0.302429,0.232729,0.968366,0.090020
0.138443,-0.076814,-0.270623,0.273412,0.959601,-0.066423
0.175808,-0.047206,-0.378582,0.878156,-0.454922,-0.147949
0.168236,-0.033825,-0.103818,-0.662040,0.749385,0.011156
0.178737,-0.035352,-0.077347,-0.030272,-0.956798,0.289172
0.243690,-0.050482,-0.069406,0.898505,0.300107,0.320350
0.233682,-0.037168,0.190576,0.727212,-0.683869,-0.059046
0.108895,-0.003565,0.283712,0.792072,-0.379728,-0.477943
-0.109170,0.057533,0.509404,0.973277,-0.141790,0.180633
0.228555,-0.025750,0.434064,0.816056,-0.036410,0.576826
0.164571,-0.007640,0.504884,0.494280,-0.469803,0.731418
-0.315022,0.112743,0.670671,-0.248892,0.967042,0.053682
-0.269846,0.102634,0.682847,0.223952,-0.974554,-0.009489
0.740130,-0.145623,0.466277,0.914211,-0.116659,0.388083
0.757226,-0.149112,0.486273,0.890728,-0.041701,-0.452620
0.801178,-0.158790,0.499915,0.953219,-0.209253,-0.218146
0.686900,-0.129258,0.557377,0.129716,0.794242,0.593593
0.098641,0.016364,-0.158795,0.961361,0.155841,-0.226932
0.236610,-0.009967,0.002350,0.987722,-0.121384,-0.098341
0.221221,-0.004804,0.035418,0.950110,0.311152,-0.021821
0.251261,-0.011276,0.054924,0.919936,0.391766,0.015437
0.212189,-0.000293,0.095934,0.240001,-0.963325,0.120019
0.348691,-0.033315,0.081599,-0.582222,0.812949,-0.011511
0.673717,-0.106487,0.176404,0.888220,-0.430273,0.161028
0.310356,-0.014841,0.313196,0.904711,-0.389720,0.172092
-0.022725,0.071428,0.492300,-0.748558,0.654569,0.105829
-0.077424,0.086119,0.534938,-0.740029,0.645871,-0.187635
0.537700,-0.062846,0.456381,0.780695,0.616937,0.099521
0.713273,-0.105618,0.431540,-0.180368,0.328600,0.927087
0.593621,-0.074776,0.491526,0.428298,-0.448142,0.784684
0.785068,-0.119145,0.514698,0.975919,0.130457,0.174823
0.792877,-0.120019,0.537381,0.955078,0.248028,0.162198
0.196808,-0.017168,-0.406600,-0.702595,0.709738,-0.051296
-0.094027,0.057097,-0.277139,-0.552550,-0.082570,-0.829380
0.216833,-0.019494,-0.350890,0.979187,-0.116753,0.166018
0.396556,-0.007059,0.114585,0.169847,-0.936037,0.308198
0.313532,0.014690,0.168829,-0.707377,0.370892,0.601712
0.323540,0.013163,0.192734,-0.680977,0.624491,0.382468
0.361150,0.004799,0.207802,-0.503411,0.826305,0.252582
0.675423,-0.071286,0.166345,0.905437,0.415392,0.087365
0.399731,-0.001527,0.278051,-0.359910,-0.847015,-0.391190
0.473723,-0.019059,0.283345,-0.714725,-0.436073,-0.546816
0.669074,-0.066558,0.251987,0.591591,0.568168,-0.572018
-0.016130,0.105107,0.483910,0.999747,0.006697,-0.021459
-0.116980,0.131291,0.539336,-0.741114,0.495542,-0.452977
-0.022479,0.110634,0.588123,-0.643889,0.718381,-0.263317
-0.087186,0.128672,0.658331,-0.270979,0.952349,-0.140007
0.481287,-0.011641,0.517508,-0.752218,0.620889,0.220602
0.666630,-0.056591,0.489245,0.039694,-0.158161,0.986615
0.226110,0.013381,-0.394465,0.644410,-0.734797,0.211681
0.207547,0.020511,-0.325682,0.899254,0.248770,-0.359800
-0.137496,0.111726,-0.088017,-0.221678,-0.855653,0.467673
0.064696,0.062336,-0.125931,0.308742,0.910046,-0.276577
0.736471,-0.036951,0.426368,0.364714,-0.063223,-0.928971
0.759178,-0.041537,0.446160,-0.026977,-0.916002,-0.400266
0.006339,0.147150,0.714531,0.428566,-0.875321,0.223931
0.541120,-0.021097,-0.395931,-0.437993,-0.607584,-0.662573
-0.044701,0.128672,-0.108705,-0.194898,-0.894932,0.401387
-0.654452,0.283169,0.151725,0.726899,0.662304,0.181578
-0.703040,0.297354,0.222503,0.752203,0.618778,-0.226505
0.494962,0.009163,0.121874,0.205673,0.929630,-0.305756
0.409254,0.031348,0.176404,0.506496,-0.705180,-0.496168
0.656621,-0.028005,0.155472,0.789045,0.607475,-0.091556
0.564804,-0.004076,0.210531,0.486902,0.798328,0.354401
0.352111,0.050842,0.329241,0.864396,-0.482432,-0.141703
0.404858,0.038549,0.340359,-0.841109,0.481544,0.246275
-0.022971,0.146057,0.495761,0.871550,-0.106208,0.478666
0.252967,0.078483,0.439603,0.438537,-0.674806,0.593567
0.790924,-0.054336,0.305173,-0.607373,-0.659811,0.442434
0.047363,0.131438,0.551431,-0.207632,-0.156075,0.965676
0.459802,0.030766,-0.399311,-0.203286,-0.975467,-0.084491
-0.683263,0.322664,0.160603,0.380287,0.587699,-0.714137
-0.562388,0.293571,0.149730,-0.477491,-0.876575,0.060152
-0.706707,0.330664,0.225558,0.987691,0.024504,-0.154484
-0.528690,0.287169,0.196033,-0.693408,-0.612857,-0.378934
0.108165,0.138781,0.270110,0.465623,-0.084898,-0.880901
0.502779,0.041461,0.174653,0.701857,-0.325521,-0.633587
0.428302,0.064081,0.307372,0.826101,-0.434664,0.358644
0.392651,0.074771,0.371309,0.832078,0.451566,0.322077
0.460533,0.058989,0.376888,0.794094,0.603500,0.072128
0.544534,0.038988,0.378517,0.971590,0.230954,0.051702
0.487882,0.054114,0.422580,0.919152,0.253903,-0.301154
0.095712,0.153183,0.589589,-0.347809,0.601314,-0.719340
0.561629,0.038549,0.478087,0.977538,0.042345,0.206463
0.460287,0.089102,0.334861,0.802463,-0.583321,0.125653
0.374580,0.112161,0.413417,0.970545,0.145966,-0.191667
0.420485,0.101613,0.424942,0.547785,0.271257,-0.791424
0.132339,0.175008,0.562874,0.940022,-0.316493,-0.127242
0.503510,0.083864,0.479553,0.811643,0.055334,-0.581528
0.760400,0.021093,0.429544,-0.447799,-0.289094,0.846109
-0.709151,0.361217,0.181006,0.879337,-0.386889,0.277639
-0.635889,0.344049,0.184589,0.997456,-0.071083,-0.005340
-0.460808,0.301425,0.156001,0.382251,0.920871,-0.076690
-0.276196,0.256474,0.124848,-0.241068,0.922744,-0.300714
0.080323,0.168606,0.038390,0.645964,0.499909,0.576907
-0.436141,0.300191,0.287458,-0.344816,-0.886243,0.309313
0.131848,0.173481,-0.264067,-0.595475,0.415338,-0.687680
-0.926479,0.443336,0.238874,-0.260417,0.335090,0.905482
-0.649809,0.375255,0.175101,-0.422352,0.680653,-0.598607
-0.568007,0.355761,0.175915,0.991527,-0.072461,-0.107810
-0.266425,0.282659,0.133766,-0.248486,0.914657,-0.318838
-0.537238,0.352267,0.278214,0.739868,0.487481,-0.463635
0.327690,0.136601,-0.000094,0.814686,0.578216,-0.044193
-0.426125,0.325501,0.270558,-0.291798,-0.902033,-0.318103
0.156023,0.192318,0.412521,0.798292,0.601871,0.021943
0.391914,0.134710,0.368214,0.671394,-0.441892,0.594947
0.210967,0.180535,0.449540,0.949306,-0.274249,0.153642
0.438064,0.125906,0.432517,0.550827,0.295440,-0.780580
0.508883,0.111216,0.489734,-0.663168,-0.525833,0.532642
0.597772,0.090123,0.490223,0.633563,0.045284,-0.772365
-0.762628,0.435042,0.220263,0.406322,-0.718355,0.564685
-0.669104,0.412640,0.217250,-0.609886,-0.767373,0.197936
-0.206116,0.299169,0.122485,-0.548642,0.763522,-0.340625
-0.473014,0.366815,0.236594,-0.458730,0.532547,0.711309
-0.458117,0.364054,0.260051,0.907282,0.168992,0.385072
-0.442490,0.361217,0.282856,-0.186941,0.981879,0.031100
0.483731,0.138492,0.212282,-0.665461,-0.125304,0.735840
0.479089,0.145329,0.374771,0.656603,-0.469932,0.589946
-0.004654,0.266583,0.546992,0.983209,-0.172665,0.059054
0.353333,0.178426,0.465259,-0.689445,-0.581277,-0.432185
0.426588,0.161259,0.468965,0.899923,0.410257,0.147739
0.358953,0.179008,0.515350,0.830997,0.196790,-0.520306
0.672249,0.101977,0.447992,0.042275,-0.857424,0.512871
0.625606,0.114563,0.487942,0.756823,0.167384,-0.631823
0.235142,0.212323,0.627870,-0.670759,0.501319,-0.546591
0.115974,0.208101,-0.280193,0.611051,-0.475120,0.633149
0.335016,0.215594,0.507734,-0.639319,0.559131,-0.527867
0.436850,0.191155,0.502766,-0.405947,-0.832678,0.376636
0.468350,0.185046,0.544589,-0.830560,0.374984,0.411773
0.763575,0.113835,0.509567,-0.057287,-0.347561,0.935906
-0.461784,0.383548,-0.102555,0.801918,0.011662,-0.597320
-0.774589,0.469960,0.235739,0.602564,0.270401,0.750866
-0.591206,0.425080,0.203892,0.181023,-0.253658,0.950204
-0.521118,0.408711,0.209716,0.479532,0.218912,-0.849780
-0.569230,0.421808,0.252802,-0.385927,0.908455,0.160531
-0.570936,0.423042,0.280332,0.136988,-0.298628,0.944487
-0.079377,0.301571,0.149893,0.578840,-0.812493,-0.069279
0.500096,0.165987,0.217006,0.416370,0.616264,-0.668472
0.251507,0.232616,0.428038,0.962733,-0.050355,-0.265725
-0.379974,0.391766,-0.096039,0.801918,0.011662,-0.597320
-0.730636,0.484650,0.168585,0.916818,-0.048814,-0.396311
-0.874470,0.522546,0.272553,-0.704156,0.695692,-0.142046
0.099617,0.281496,0.009069,0.995395,-0.080895,0.051421
-0.554571,0.452574,0.442250,-0.532500,0.822597,-0.199446
0.614375,0.162497,0.102408,0.920563,0.126755,-0.369454
0.685924,0.145694,0.107458,0.899870,0.178348,0.398027
0.511573,0.191008,0.217128,-0.293004,-0.706788,0.643894
0.261761,0.258072,0.428200,0.968245,0.057822,-0.243224
0.361150,0.238072,0.528870,0.026988,-0.741975,0.669884
0.051022,0.315898,0.646277,0.168069,-0.976258,0.136649
0.619748,0.175443,0.503825,0.256003,-0.965288,0.051778
0.522803,0.209774,0.239730,0.349296,0.738618,-0.576573
0.733297,0.159221,0.229386,0.509083,0.555867,-0.657150
0.247111,0.282512,0.431254,0.974230,-0.016838,-0.224928
-0.223449,0.400640,0.600137,0.275927,0.958075,0.077184
0.357731,0.260621,0.553345,0.141489,0.985137,-0.097393
0.292285,0.277930,0.598508,0.295190,0.765870,-0.571232
-0.844922,0.530551,0.118902,0.963467,-0.174274,-0.203373
-0.741874,0.509965,0.228245,0.599286,-0.285345,0.747953
-0.762628,0.516220,0.262535,-0.224370,-0.831873,-0.507588
0.169943,0.334739,0.936354,0.202291,-0.585752,0.784840
-0.880327,0.551062,0.112915,0.875089,-0.483815,0.011941
-0.643460,0.492655,0.061929,0.837437,0.495053,0.231565
0.533303,0.197628,-0.306827,0.689762,-0.135609,0.711223
-0.719651,0.517530,0.229915,-0.710421,0.374521,-0.595849
-0.701825,0.515274,0.280983,0.743525,0.642955,0.183792
-0.092075,0.372564,0.331399,0.397394,-0.836787,0.376651
0.223182,0.302299,0.448155,0.872137,0.220848,0.436582
0.184594,0.312843,0.485377,0.483348,0.820863,-0.304236
0.525002,0.228904,0.409467,0.830908,0.556038,0.020336
0.393865,0.266072,0.552815,-0.552002,0.801541,0.229838
0.726948,0.184899,0.505942,0.134268,-0.987698,-0.080149
0.472501,0.246436,0.259236,-0.106240,-0.671120,0.733697
0.798741,0.168096,0.241074,0.974434,-0.020773,-0.223711
0.138197,0.335028,0.469820,-0.007793,-0.993152,0.116565
0.140887,0.335321,0.494499,-0.728255,-0.628018,0.274295
0.282031,0.301132,0.477395,0.044308,-0.887381,0.458903
0.301810,0.301860,0.602010,-0.055879,0.034801,0.997831
-0.851509,0.555426,0.125132,0.980244,-0.181150,-0.079418
-0.801700,0.551497,0.307006,0.131029,-0.888380,0.440014
-0.399022,0.461014,0.423924,-0.520095,0.849670,-0.086962
-0.795105,0.550551,0.111938,-0.190809,-0.881309,-0.432305
-0.783383,0.554480,0.252965,0.514454,-0.769440,0.378549
-0.713541,0.538116,0.257282,-0.096605,-0.985977,-0.136077
0.170920,0.316701,0.022508,0.946570,0.052247,-0.318238
-0.048853,0.382962,0.318246,-0.406495,0.913022,-0.033936
0.471524,0.256909,0.265997,-0.099803,-0.710150,0.696941
0.791417,0.179954,0.248363,-0.173014,-0.843066,0.509222
0.036617,0.371543,0.506268,0.342942,-0.692243,0.634972
0.133316,0.348342,0.503336,-0.475604,-0.654894,0.587294
0.276904,0.313572,0.486476,-0.306953,-0.919764,0.244570
0.302786,0.313061,0.606775,-0.308524,-0.190694,0.931906
0.790195,0.192899,0.515512,-0.113595,-0.982741,0.146003
0.757472,0.197845,0.259929,0.240924,0.668812,-0.703311
0.213412,0.338304,0.479553,-0.311922,-0.946573,-0.081880
0.372381,0.299533,0.458173,0.947250,-0.265040,0.180197
0.359682,0.309354,0.592114,-0.679154,0.028434,-0.733445
0.498383,0.275604,0.576069,-0.615494,0.766171,-0.184796
0.226841,0.359179,0.949141,0.154880,-0.528250,0.834844
-0.784851,0.556807,0.110512,-0.190809,-0.881309,-0.432305
-0.828073,0.569175,0.153599,0.989450,-0.136540,-0.048439
-0.709389,0.543350,0.199413,-0.696402,0.571239,0.434408
-0.728930,0.549899,0.234965,0.915223,-0.291345,0.278362
-0.629539,0.525965,0.230648,0.820619,-0.144770,-0.552835
0.166768,0.326228,0.024748,0.904549,0.357315,-0.232633
-0.444197,0.483052,0.253006,-0.252012,-0.868754,-0.426328
-0.105503,0.398602,0.171313,-0.578451,0.659495,-0.480064
-0.223941,0.437009,0.375585,-0.047929,0.982174,0.181761
0.453699,0.270800,0.272431,-0.493887,-0.157656,0.855114
-0.697183,0.545899,0.074594,0.907423,0.168740,0.384851
-0.793398,0.573757,0.166793,0.674775,-0.135302,0.725515
-0.732349,0.561171,0.202305,0.944630,-0.201034,-0.259344
0.175562,0.335467,0.016562,0.714613,0.629054,0.305972
-0.467642,0.502835,0.284689,0.971224,-0.001090,-0.238167
-0.465935,0.503709,0.311200,-0.648916,0.502778,0.571071
0.148213,0.348706,0.140852,-0.382856,0.886413,0.260179
-0.157759,0.432792,0.351558,0.022677,-0.844176,0.535586
0.842940,0.189991,0.257119,0.240924,0.668812,-0.703311
0.137959,0.370673,0.498775,-0.221140,-0.745134,0.629184
0.161887,0.366087,0.518241,-0.181597,-0.720953,0.668767
0.403390,0.311827,0.575336,0.897136,0.428863,0.105944
0.327452,0.332337,0.622779,0.658177,0.707611,-0.257081
0.435628,0.306153,0.616589,0.620751,0.450126,-0.641915
0.198760,0.380853,0.954598,0.265156,-0.346585,0.899762
0.372381,0.338087,0.929023,-0.072998,-0.792167,0.605923
0.467374,0.315463,0.925847,0.433146,0.900613,-0.035796
0.147966,0.386021,0.669490,-0.291794,0.887862,-0.355748
0.333310,0.340196,0.640291,0.496370,0.736018,-0.460320
0.158713,0.400130,0.958630,-0.054591,-0.482453,0.874219
0.290817,0.367978,0.945517,0.305600,-0.437574,0.845658
0.431231,0.333865,0.930490,0.387645,0.864444,-0.320107
0.497160,0.318375,0.936110,-0.374552,-0.849002,0.372703
-0.784358,0.579067,0.182309,0.544441,0.823474,-0.159606
-0.742358,0.569899,0.197255,0.654995,0.602316,-0.456286
-0.686191,0.557246,0.207476,0.906217,0.387880,-0.168284
0.202666,0.335831,0.026254,0.924367,0.174626,-0.339193
-0.296466,0.466976,0.248037,-0.035611,0.565684,-0.823853
0.391914,0.292186,0.053255,0.938859,0.013021,-0.344056
-0.055448,0.413222,0.308635,-0.128495,0.266185,0.955319
-0.039082,0.410749,0.331481,0.167714,-0.713968,0.679796
0.456628,0.290224,0.284893,-0.493887,-0.157656,0.855114
0.800449,0.207230,0.261069,0.240924,0.668812,-0.703311
-0.680826,0.555714,0.007033,0.900889,0.399894,0.168772
-0.754810,0.583866,0.179784,-0.377173,0.826675,0.417552
-0.740652,0.582050,0.203160,0.941589,0.196502,-0.273491
-0.677651,0.567502,0.211019,0.886877,0.455564,-0.076882
0.178737,0.353798,0.041323,0.732061,0.391100,-0.557788
-0.295727,0.481307,0.283060,0.889363,0.323182,-0.323398
-0.014908,0.410749,0.220508,0.269602,-0.962652,0.024805
-0.174608,0.453738,0.300653,-0.625685,-0.467169,0.624717
-0.250553,0.474759,0.352006,-0.597043,-0.551718,-0.582363
-0.050321,0.425005,0.314662,-0.290573,0.878949,0.378175
-0.054225,0.427624,0.343739,-0.175690,0.865651,-0.468809
0.494478,0.293571,0.281635,-0.493887,-0.157656,0.855114
0.551621,0.296768,0.556155,-0.626853,0.769811,-0.120195
0.233682,0.379836,0.676494,0.330358,0.602008,-0.726946
0.453207,0.325212,0.637359,0.855534,0.447869,-0.259759
0.545025,0.304772,0.660815,-0.494058,-0.727788,0.475638
0.204134,0.403695,0.953254,-0.054591,-0.482453,0.874219
0.239539,0.380711,0.662567,-0.080760,-0.867474,0.490884
0.405349,0.339756,0.639273,0.345059,0.722869,-0.598661
0.520605,0.313500,0.656092,0.582682,0.750644,-0.311475
0.426104,0.353723,0.928657,-0.705887,-0.421747,0.569081
0.512303,0.333212,0.927761,0.463584,0.801747,-0.377215
-0.753350,0.579719,0.105951,0.184638,-0.964580,0.188399
-0.709882,0.574409,0.179214,0.997465,0.065476,-0.027875
-0.683754,0.569393,0.198354,0.863485,0.420926,-0.277877
0.161887,0.357723,0.033259,0.699842,0.506533,-0.503633
-0.018574,0.410021,0.178277,0.883112,-0.364754,0.295074
0.362858,0.313283,0.083146,0.727737,0.438172,-0.527640
-0.184131,0.456792,0.288395,-0.050243,-0.871291,0.488188
-0.302076,0.489090,0.354571,0.486309,-0.842454,-0.231894
-0.089146,0.435917,0.314377,0.448137,0.231905,0.863362
-0.005383,0.415912,0.315476,0.816345,0.029128,-0.576829
0.518406,0.289713,0.287173,-0.493887,-0.157656,0.855114
0.859544,0.207230,0.264164,0.240924,0.668812,-0.703311
0.168483,0.388711,0.529766,-0.220866,-0.353967,0.908804
0.513526,0.308555,0.556033,0.572064,-0.763400,0.299939
-0.211972,0.477742,0.270843,0.022084,0.681264,0.731705
-0.100869,0.450901,0.262291,-0.390133,-0.091644,-0.916187
-0.140179,0.462905,0.302363,0.669465,0.521770,-0.528746
-0.110385,0.457010,0.320567,0.652907,0.727018,-0.212502
0.002918,0.429515,0.311445,0.270049,-0.879485,-0.391892
0.052490,0.418607,0.323662,0.831150,-0.205030,0.516869
0.052244,0.420716,0.351843,0.205217,-0.897928,0.389372
0.683480,0.266512,0.290024,-0.534601,-0.802142,0.266028
0.211944,0.390385,0.463304,0.749619,-0.460840,0.475077
0.602407,0.303969,0.555829,-0.435161,0.895061,0.097466
0.227816,0.402167,0.692906,0.588665,-0.729651,0.347971
0.371405,0.366891,0.675151,-0.232704,-0.832055,0.503520
0.621701,0.305935,0.652182,-0.022734,-0.630909,0.775524
0.557232,0.335902,0.867816,0.485277,0.858590,0.165314
-0.639309,0.561100,0.007725,0.900889,0.399894,0.168772
-0.696453,0.588159,0.203363,0.936668,0.193283,-0.292052
0.321587,0.326957,-0.080849,0.201769,0.102824,0.974021
-0.579729,0.567426,0.305499,0.306577,-0.885649,0.348764
-0.563364,0.565100,0.328834,-0.580642,-0.627070,0.519268
0.522803,0.371619,0.963354,-0.072555,-0.912473,0.402652
-0.601214,0.572372,0.009761,0.900889,0.399894,0.168772
-0.340903,0.510475,0.010169,0.904630,0.350713,0.242167
-0.641754,0.597176,0.229427,-0.426890,-0.650659,0.628019
-0.634428,0.603213,0.339951,-0.447567,-0.534256,0.717115
-0.336267,0.527568,0.269987,0.241097,-0.590038,0.770537
-0.011733,0.446972,0.220019,0.434837,-0.761789,0.480202
0.462485,0.325718,0.095037,0.039601,-0.915561,0.400224
0.064942,0.433080,0.280291,0.773829,0.324231,-0.544117
0.040767,0.441298,0.315232,0.660148,0.338192,-0.670694
-0.014908,0.457667,0.361006,-0.438710,0.726197,-0.529312
0.059569,0.440210,0.364182,0.483937,0.645879,-0.590462
0.310603,0.376929,0.312707,-0.448952,-0.063663,0.891285
0.313286,0.385581,0.447219,0.146149,-0.441396,0.885330
0.495208,0.342158,0.444653,-0.286232,-0.073435,-0.955342
0.502288,0.354961,0.651409,-0.576039,-0.082505,0.813248
0.497160,0.357940,0.678531,0.413513,-0.193468,0.889706
0.397532,0.392130,0.830675,-0.491730,-0.656485,0.572040
0.645630,0.333430,0.833322,0.422027,0.906044,-0.031279
0.350889,0.402167,0.455974,0.175817,-0.665844,0.725079
0.580185,0.362890,0.672177,0.846774,0.336164,0.412270
0.491057,0.387837,0.723897,0.000550,-0.760459,0.649385
0.581169,0.366233,0.722960,0.472831,0.825369,-0.308540
0.494962,0.390167,0.772236,-0.696154,0.699270,0.162454
0.384104,0.420498,0.828354,0.997486,0.070555,-0.006638
0.630249,0.360706,0.806648,0.605620,0.768816,0.205295
0.528176,0.397075,0.979928,0.145918,-0.410815,0.899966
-0.733565,0.643147,0.225110,0.816063,0.025074,0.577418
0.201205,0.400640,-0.062809,-0.181409,0.221164,-0.958216
-0.546031,0.600159,0.246775,-0.548840,-0.764584,0.337915
-0.723557,0.648675,0.334861,0.383403,0.753376,0.534254
0.152848,0.421808,0.072639,0.982940,0.027777,0.181816
-0.432720,0.576594,0.295440,0.530219,0.045530,0.846637
-0.508420,0.598414,0.347770,0.333590,0.754841,-0.564741
-0.301101,0.546262,0.307006,0.236591,0.933087,-0.270876
-0.109901,0.498546,0.273164,0.889935,0.006294,0.456044
0.466397,0.350304,0.113730,0.357134,-0.868342,0.344147
0.464200,0.352853,0.143540,-0.093334,0.929477,-0.356877
-0.051297,0.491199,0.366096,0.740936,0.655189,-0.147450
0.089117,0.456646,0.348137,0.090519,-0.965983,0.242244
-0.692786,0.664240,0.231137,0.746528,-0.557569,0.363061
0.251507,0.419477,-0.058574,0.110039,0.022272,0.993678
0.090823,0.469884,0.113526,-0.716754,0.499541,0.486541
-0.219790,0.552807,0.244210,0.707942,0.609675,-0.356531
-0.214417,0.553535,0.270884,0.400912,0.885288,0.235656
-0.192441,0.549823,0.292264,-0.363021,0.376882,0.852160
-0.142131,0.538840,0.304399,-0.698610,0.665926,0.261699
-0.121868,0.535279,0.324924,0.151437,0.934742,-0.321441
-0.002947,0.508291,0.342273,0.713124,0.531042,0.457655
-0.015153,0.513530,0.372978,0.783057,0.245733,-0.571347
0.226841,0.452645,0.323988,-0.219413,-0.509181,0.832221
0.203396,0.460575,0.359336,0.010752,-0.950875,0.309389
0.204134,0.462466,0.386703,-0.381813,-0.869881,0.312293
0.440755,0.410460,0.447137,0.907508,-0.069267,0.414283
0.507660,0.416641,0.760996,0.731520,0.591477,-0.339164
0.322809,0.466177,0.839838,-0.267593,0.762300,-0.589315
0.400707,0.447846,0.842200,0.748231,0.587713,-0.307806
0.319389,0.494324,0.866024,-0.596825,0.778461,-0.194419
0.544295,0.439846,0.849938,0.746877,0.584048,-0.317902
0.486422,0.456574,0.891150,-0.519619,-0.020859,0.854143
-0.646881,0.679228,0.245838,0.856390,-0.419975,0.300362
-0.547737,0.659370,0.297965,0.932211,-0.013911,0.361648
-0.321124,0.604235,0.279110,-0.686625,-0.178653,0.704719
0.198269,0.470688,0.136087,0.924060,0.374066,-0.078661
-0.142623,0.563719,0.304318,-0.370825,0.928316,0.026807
-0.052027,0.544149,0.331684,-0.635137,0.750987,0.180609
0.056887,0.517747,0.324558,-0.344914,0.132932,0.929174
0.693495,0.354087,0.148019,-0.100027,-0.757796,0.644779
0.730122,0.346451,0.164024,0.328973,-0.518630,0.789177
0.227816,0.481090,0.378558,0.552627,0.777819,-0.299336
0.388738,0.441227,0.355712,0.030358,-0.935615,0.351714
-0.529666,0.688098,0.287092,0.876198,0.224193,0.426632
-0.501832,0.682935,0.306476,0.534090,-0.091277,-0.840485
0.125990,0.521095,0.125825,-0.214911,-0.631346,0.745128
-0.278394,0.628528,0.288517,-0.317765,0.914794,0.249355
-0.268624,0.628093,0.314173,-0.747077,-0.342856,0.569497
-0.082797,0.581611,0.281798,0.781453,-0.316086,0.537979
-0.074979,0.581540,0.306598,0.736484,0.255594,-0.626309
-0.049828,0.577029,0.325820,-0.721560,0.625857,0.296065
-0.009296,0.568372,0.340888,-0.634069,0.772249,-0.039837
0.095220,0.545024,0.362024,-0.526453,-0.561485,-0.638422
0.503271,0.446829,0.342599,0.142435,-0.974069,0.175788
0.587026,0.466612,0.906259,0.950358,0.065666,-0.304151
-0.590229,0.744765,0.257160,0.790840,-0.608472,0.065832
-0.604881,0.752325,0.319345,0.876592,-0.291964,-0.382549
0.193633,0.550480,0.138490,-0.266861,-0.917147,0.296017
0.209991,0.550116,0.190169,0.447395,0.802835,-0.394074
0.057371,0.591577,0.268725,-0.757869,0.577926,0.302714
0.084236,0.586632,0.288476,0.754419,-0.467393,0.460864
0.822670,0.398749,0.106562,-0.697129,0.663325,-0.272050
0.204864,0.561029,0.332132,0.190152,0.154485,0.969524
-0.571912,0.795096,0.296173,0.958814,-0.038726,0.281383
-0.374117,0.748982,0.313522,0.194594,-0.159053,0.967903
0.096443,0.629110,0.186585,0.719684,-0.027261,-0.693767
0.000966,0.655805,0.247060,0.953168,0.269480,0.137301
0.192658,0.607871,0.212811,0.820594,0.571510,-0.000983
0.099125,0.633984,0.271332,0.905665,0.219518,0.362743
0.540137,0.521747,0.155675,0.683010,0.727891,-0.060605
0.621701,0.504220,0.185974,0.827206,0.471268,0.306001
-0.363124,0.805862,0.298087,0.091305,0.995229,-0.034383
-0.346768,0.803389,0.321178,0.293264,-0.431987,0.852868
-0.194878,0.765782,0.298128,0.502495,-0.809251,-0.304321
0.153586,0.677843,0.210857,0.322946,0.724480,-0.608962
0.243205,0.656533,0.210246,0.723591,-0.014836,-0.690069
0.095220,0.696103,0.285911,0.775690,-0.066785,0.627570
0.264206,0.654495,0.259929,0.755272,0.406406,0.514196
0.423414,0.615289,0.236798,0.940150,-0.157723,-0.302061
0.599725,0.582849,0.400875,-0.783254,0.095392,0.614339
0.164331,0.740907,0.234395,0.501340,-0.051148,-0.863737
0.599971,0.631289,0.120653,-0.269469,-0.353485,0.895787
0.359929,0.694136,0.227798,0.314413,0.292555,0.903081
0.457605,0.670495,0.223318,0.904039,0.247395,0.348582
-0.093781,0.803900,0.263268,0.339625,-0.924489,0.173131
0.174340,0.736978,0.202467,-0.037825,-0.292892,0.955397
-0.099154,0.875110,0.265915,-0.307355,-0.331354,0.892041
0.050776,0.838595,0.244902,0.853055,0.385414,-0.351785
0.448080,0.741852,0.198599,0.878054,-0.206166,0.431875
0.428302,0.748108,0.232481,-0.337828,-0.666232,0.664836
-0.158496,0.949740,0.283915,-0.404808,-0.407976,0.818344
-0.041773,0.921589,0.272594,-0.177900,-0.412353,0.893486
-0.017598,0.972430,0.285666,-0.266866,0.838859,-0.474445
0.167507,0.928354,0.280250,0.250151,0.964956,0.079280
0.287643,0.899186,0.267992,-0.475018,-0.707650,0.523058
0.327452,0.890240,0.283223,0.328401,0.673974,-0.661749
0.419024,0.868416,0.280617,0.274637,0.665157,-0.694364
0.178737,0.983924,0.297273,0.405785,0.802518,-0.437382
0.309381,0.953158,0.310711,0.079125,-0.447726,0.890663
0.378976,-0.190138,-0.922247,-0.373480,-0.446331,-0.813204
0.223182,-0.154421,-0.821537,-0.002096,-0.993481,0.113979
0.207308,-0.100379,-0.358994,0.640314,-0.765417,-0.064303
0.125260,-0.077395,-0.269483,0.273412,0.959601,-0.066423
-0.232727,-0.159589,-0.968754,-0.063345,0.340038,0.938276
0.112315,-0.157623,-0.960569,-0.515277,0.694032,0.502801
0.065673,-0.216833,-0.956863,0.453226,0.608372,-0.651513
0.251016,-0.215741,-0.934790,-0.264735,0.026258,0.963964
0.732075,-0.212758,-0.939514,0.111810,-0.364351,0.924525
0.459311,-0.155443,-0.954012,-0.061130,0.321243,0.945022
0.271286,-0.155589,-0.813759,-0.064651,0.987505,-0.143714
-0.596578,-0.220904,-0.974333,-0.072430,0.130847,0.988753
-0.293045,-0.219235,-0.963989,0.188550,0.090875,0.977850
-0.408546,-0.281935,-0.969406,-0.695566,0.389422,0.603771
-0.095495,-0.280261,-0.958492,-0.108393,-0.013290,0.994019
0.222689,-0.278152,-0.947415,-0.243426,0.641240,0.727706
0.609494,-0.275751,-0.943139,0.187765,-0.196970,0.962262
0.787996,-0.317501,-0.926849,0.209703,0.032306,0.977231
-0.437847,-0.325287,-0.970465,-0.573586,0.101671,0.812811
-0.106234,-0.323396,-0.962727,-0.106919,0.222318,0.969094
-0.030535,-0.409808,-0.944727,0.126850,0.000235,-0.991922
-0.448109,-0.360054,-0.966555,0.204803,0.637277,-0.742923
0.171657,-0.356271,-0.945012,-0.156178,-0.144954,0.977035
0.546247,-0.353869,-0.939433,0.748404,-0.375456,-0.546739
0.027338,-0.499128,-0.941795,-0.124202,0.020188,0.992052
0.357238,-0.496948,-0.933609,0.132680,-0.156839,0.978671
0.624629,-0.495421,-0.917523,0.441056,-0.434850,-0.785095
0.289111,-0.407699,-0.935605,-0.691208,-0.675542,-0.256662
0.576526,-0.405808,-0.923143,-0.664195,0.746270,0.043886
-0.376561,-0.450905,-0.947903,0.099202,0.525543,0.844964
-0.028583,-0.448650,-0.941917,-0.240394,0.531170,0.812446
0.314754,-0.446465,-0.933406,-0.149780,0.228062,0.962057
0.729876,-0.444139,-0.931614,0.243951,0.926929,-0.285116
-0.245672,-0.599941,-0.941673,0.455018,-0.382425,0.804183
0.517185,-0.642060,-0.914184,0.840371,0.082898,0.535635
-0.046654,-0.551355,-0.933202,0.880571,0.058105,0.470338
0.712781,-0.546773,-0.924609,0.365467,-0.216085,-0.905395
0.734274,-0.699450,-0.902456,0.163550,0.642931,0.748259
0.324762,-0.758949,-0.912311,-0.093630,0.313521,0.944954
0.731829,-0.756259,-0.909786,0.425256,-0.053916,-0.903466
0.113292,-0.703597,-0.924446,-0.061777,0.289989,0.955034
0.296683,-0.824415,-0.907913,-0.528500,0.387737,0.755214
0.893734,-0.928572,-0.858718,0.100403,-0.255513,0.961578
0.225379,-0.001527,0.282001,0.116594,0.930842,0.346321
0.205356,-0.043499,0.081069,0.467009,-0.878091,0.104206
0.169213,-0.096232,-0.180501,0.934848,0.310936,-0.171401
0.114760,-0.096525,-0.137293,-0.578584,0.815508,0.013715
0.144308,-0.044445,-0.032184,0.953695,-0.090092,-0.286964
0.220492,-0.043645,0.000680,0.961592,-0.102878,-0.254474
0.538430,-0.095144,-0.371904,0.698868,0.038134,0.714233
0.280809,-0.096308,-0.308333,0.575768,-0.771993,-0.269293
0.130141,-0.155953,-0.758089,0.147100,0.987143,-0.062530
0.041013,-0.156388,-0.708243,0.642985,0.749828,0.155976
0.027577,-0.156313,-0.665686,0.886665,0.390926,0.246983
0.495700,-0.139438,-0.925017,-0.338255,-0.922931,0.183797
0.296928,-0.146421,-0.935035,-0.047518,-0.993144,0.106808
0.203888,-0.152024,-0.961098,-0.145440,0.925436,0.349879
0.003648,-0.158861,-0.969243,0.221624,0.369096,-0.902580
-0.241521,-0.166426,-0.970342,-0.031527,0.314114,0.948862
