0.124241,-0.315187,0.376532,-0.546482,0.818341,0.177975
-0.448944,0.080518,0.693555,0.974561,0.006308,0.224032
-0.192534,0.176822,0.769251,0.880405,0.471820,-0.047675
-0.449446,0.169066,0.682520,-0.652852,-0.547250,-0.523738
0.482964,-0.070524,0.579403,0.004611,0.600041,0.799956
0.442470,-0.396177,0.374460,-0.421962,0.577445,0.698932
-0.046917,-0.414025,-0.308306,0.428237,-0.663680,-0.613303
0.661498,0.383647,0.644919,-0.091073,-0.581251,0.808612
0.766822,0.016978,-0.079557,-0.268036,-0.946491,0.179754
-0.451703,0.589430,0.310101,-0.226944,-0.023413,0.973626
0.314014,-0.435006,0.688254,0.614297,-0.275861,-0.739283
-0.298410,0.531956,0.363328,-0.180570,0.790348,0.585443
-0.377441,0.377433,0.342100,0.928985,-0.283678,-0.237725
-0.386673,-0.295449,0.326077,0.410626,0.434020,0.801881
0.578403,-0.113084,0.510575,-0.246961,0.449560,0.858433
0.530885,0.001765,0.635823,0.795156,0.224504,-0.563317
0.479100,0.361027,0.493937,0.016086,-0.929467,0.368554
-0.818858,0.345167,0.148783,0.438820,0.579350,-0.686870
0.455768,-0.269446,0.614293,0.621406,0.527751,-0.579080
0.274223,-0.477266,0.560790,0.823055,0.276819,-0.495935
0.397460,0.495613,-0.913474,0.294097,-0.050405,-0.954446
-0.135933,-0.648743,0.555537,-0.286428,0.742900,0.605027
-0.045161,0.568847,0.409386,0.465956,0.742660,-0.480980
0.474384,0.198101,0.660014,0.424343,0.554069,-0.716199
-0.253501,0.487608,0.602475,-0.501121,0.562157,-0.657919
-0.080286,-0.109354,0.158891,0.245921,0.082888,0.965739
0.186111,-0.292912,0.548212,0.420312,0.881108,-0.216764
0.233076,-0.766624,-0.923774,-0.325948,0.158945,0.931930
-0.318833,-0.118104,0.222527,0.884142,-0.035203,-0.465891
0.276933,-0.378129,0.766504,-0.663103,0.463920,0.587430
-0.065082,-0.298729,0.063630,-0.399715,0.863252,0.308259
0.121581,-0.012554,0.879077,0.934809,-0.352122,-0.046292
0.107381,0.059090,0.866620,0.435086,0.864599,0.251335
-0.823173,0.060333,0.227659,0.308403,0.061665,0.949255
0.210396,0.098815,0.876788,0.906429,-0.349528,0.237100
0.068091,-0.454744,0.632582,0.931485,0.004572,-0.363752
-0.399921,-0.208740,0.665074,-0.441181,0.340887,-0.830154
-0.043003,-0.253238,0.045968,-0.257925,0.811575,0.524233
-0.108837,0.015288,0.692748,0.065296,-0.447495,0.891899
0.251844,-0.507693,0.563308,0.823055,0.276819,-0.495935
-0.396258,0.442613,0.645148,0.071431,-0.861451,0.502793
0.021275,-0.425212,0.544971,0.908942,-0.389185,-0.149528
-0.697677,0.198350,0.444072,0.885968,0.123267,0.447065
0.079180,-0.182191,0.907920,-0.750183,0.648228,-0.130483
-0.493753,-0.571581,-0.054233,-0.414910,0.420493,0.806868
-0.529983,-0.004599,0.225635,-0.243881,0.949886,0.195545
0.094484,0.137644,0.872933,0.960141,0.276988,-0.037504
-0.733805,0.283517,0.148506,-0.297843,-0.478478,0.826044
0.166441,-0.002361,0.896269,-0.222054,-0.582194,0.782140
0.261528,-0.061676,0.870006,-0.482989,0.874374,-0.046811
-0.662653,0.236186,0.443927,0.706889,0.545799,0.449901
0.181243,0.057002,-0.519852,0.004696,-0.985477,0.169742
-0.176327,0.554876,0.356172,0.337381,-0.371044,0.865159
0.546339,0.468467,0.675098,0.114042,0.757138,-0.643224
-0.531788,-0.158873,0.342148,-0.029425,-0.677115,0.735289
0.059008,0.065156,0.901281,0.523559,0.748936,0.406177
-0.295348,-0.500734,0.557223,0.288504,-0.787350,0.544835
-0.287873,0.014096,0.742794,0.942649,0.320568,-0.093002
0.119825,0.432321,0.781395,0.942127,0.179507,0.283149
0.048371,0.246377,0.632160,-0.521905,0.800676,0.294166
0.665311,-0.148880,0.323462,0.765330,-0.127530,-0.630878
-0.216017,-0.505606,0.076979,0.400076,-0.481928,-0.779541
0.242610,-0.076291,0.765082,-0.034403,-0.439639,0.897516
0.102414,0.056605,0.321703,0.393194,0.833580,0.387999
-0.236039,0.466727,0.585656,-0.707694,-0.636838,0.305951
-0.143260,-0.399409,0.077702,0.420991,-0.458773,-0.782492
-0.224949,-0.121187,0.596644,-0.087778,-0.284352,-0.954693
-0.408000,-0.351381,0.433241,0.019904,0.450665,0.892471
0.755179,-0.137792,0.550465,0.563783,0.775229,-0.284901
-0.175071,-0.001764,0.765781,-0.650954,0.066685,0.756182
0.171759,-0.612996,0.433205,0.231127,-0.741256,0.630175
-0.413117,-0.115071,0.713422,0.311735,-0.678204,0.665477
0.082993,-0.303751,0.602463,-0.204297,0.923078,0.325868
0.171206,-0.006636,0.399435,0.697182,-0.410533,-0.587708
-0.922927,0.126557,0.219623,0.736777,0.674719,0.043753
0.257012,0.504662,0.587825,0.885569,-0.244346,0.395047
0.364945,-0.094140,0.313981,-0.353229,0.281627,0.892141
-0.049928,0.235937,0.357184,-0.577006,0.621080,-0.530400
-0.182399,0.545927,0.633522,0.968689,-0.228672,-0.096697
0.498719,-0.032391,0.450650,0.048321,-0.998241,0.034347
-0.533395,-0.372611,0.349774,-0.046183,0.922291,0.383727
-0.037784,-0.129291,0.667351,0.576261,-0.553125,0.601644
-0.212154,0.146941,0.730325,-0.215378,-0.791142,0.572456
0.064880,0.056852,-0.562091,0.203907,0.978969,-0.006430
0.333282,-0.025281,-0.915678,-0.119252,0.105086,0.987287
0.058105,-0.240361,0.056196,0.764432,-0.640895,-0.069981
0.356414,0.515947,-0.917401,-0.281069,0.087955,0.955648
0.379698,0.123028,0.625064,-0.092523,-0.760266,0.642989
-0.034423,0.232755,0.452433,0.923629,-0.136732,0.358069
0.210898,0.050986,-0.905775,-0.387485,0.237529,-0.890750
0.483766,0.513759,0.346751,0.723831,0.438566,-0.532662
-0.057606,0.814106,0.441373,0.841687,-0.068090,-0.535655
0.317727,0.266314,0.856066,-0.404494,0.909498,-0.095903
0.383260,-0.733911,0.383026,0.830118,0.254864,-0.495932
-0.438709,0.003306,0.470227,0.317433,0.768827,0.555105
-0.671735,-0.202525,0.572428,0.895031,-0.111897,0.431738
0.522003,0.090511,0.699928,-0.303336,-0.127820,0.944272
0.041496,-0.821264,-0.931075,0.431875,-0.072305,-0.899031
0.397360,-0.304745,0.638726,0.383140,0.377448,0.843052
0.196899,0.009521,-0.312993,-0.765792,0.616949,0.181484
0.092527,-0.501677,0.671014,0.537732,-0.443392,-0.717111
0.012945,-0.204614,0.180613,0.907903,-0.412306,-0.075607
0.204525,0.019614,-0.430494,0.199068,-0.979695,-0.023853
-0.266949,0.567456,0.525309,-0.045144,-0.945605,0.322170
-0.109289,0.449275,0.367280,0.498486,0.796607,0.341950
-0.057606,-0.137593,0.825959,0.470642,-0.717021,0.514175
-0.272618,0.068089,0.031752,-0.231092,0.432227,-0.871652
0.105072,-0.189599,-0.929931,-0.313752,-0.017270,0.949348
-0.083898,0.221568,0.256284,-0.507630,-0.832006,0.223783
0.180941,0.007732,-0.074256,-0.459368,0.857136,-0.233022
-0.961013,0.273175,-0.995699,-0.292166,-0.108716,0.950168
0.084549,-0.520322,0.646015,0.986567,0.145941,-0.073400
0.582668,0.165039,0.612426,0.996890,-0.078699,-0.004024
0.052084,0.340046,0.562585,-0.047186,0.989101,0.139476
-0.627930,-0.378477,0.367244,-0.288742,0.898196,0.331468
0.032414,-0.434658,0.545116,0.898821,-0.419589,-0.126755
0.563099,0.342631,0.487829,0.306218,0.698207,-0.647099
-0.018968,-0.949835,0.210588,0.041623,-0.759545,0.649121
0.248331,-0.032441,0.814116,0.482846,-0.045086,-0.874544
0.187063,-0.208541,0.757131,-0.686585,-0.456891,0.565555
-0.372372,-0.421881,0.450168,-0.379143,-0.009755,-0.925287
-0.287170,-0.416461,0.416013,0.946962,-0.280080,0.157537
-0.167997,0.272280,0.255718,-0.110574,-0.826644,0.551755
0.683225,-0.340194,0.507900,0.106634,0.225382,-0.968417
-0.063074,-0.259453,-0.942243,-0.301007,-0.024590,0.953305
0.068543,0.254282,0.901860,0.753069,0.433487,-0.494950
0.134225,-0.092450,0.395110,0.947102,-0.320149,-0.022430
-0.684381,-0.214358,0.590487,0.888179,0.023451,0.458899
0.709768,0.203819,0.022848,-0.357375,0.884136,-0.300975
-0.532039,0.703483,0.351015,0.200993,-0.646521,0.735943
-0.461188,-0.154250,0.465348,-0.328568,0.322918,-0.887562
-0.360681,-0.418700,0.441975,-0.465498,-0.244827,-0.850513
0.301018,0.110498,0.760360,0.678111,0.281355,-0.678973
0.482413,-0.602853,0.424518,0.769668,-0.129378,-0.625198
0.324401,-0.320904,0.659219,0.960454,-0.201357,0.192309
-0.421748,0.150820,0.468818,-0.246999,-0.371447,0.894996
-0.147374,-0.015437,0.767552,-0.569421,0.325493,0.754860
0.186010,0.506103,0.459697,-0.686160,-0.319587,0.653489
-0.005621,0.138340,0.856717,-0.049000,0.234744,0.970821
0.118420,-0.103537,0.370954,0.972543,0.231013,0.028163
0.402779,0.351133,-0.918100,0.205540,0.112788,-0.972128
0.544884,-0.717702,0.158831,0.929903,-0.366427,-0.031802
-0.269658,0.147985,0.713867,0.051515,0.968315,-0.244362
0.075718,0.297587,0.733035,0.967516,0.246171,-0.057554
-0.434493,0.673554,0.312571,0.959253,-0.048876,0.278289
-0.052989,-0.215153,0.752637,0.567557,-0.788464,0.237071
0.126348,-0.192135,0.020029,0.956823,-0.214263,0.196422
0.359074,-0.449474,0.422723,0.928815,0.341879,0.142901
0.543379,0.414175,0.460264,0.989360,-0.015803,0.144629
-0.484470,0.265866,0.286994,-0.799491,0.485633,0.353518
0.729339,0.298630,0.615486,-0.035189,-0.723743,0.689172
0.094837,0.259702,0.602969,0.403342,-0.905311,-0.133142
0.295097,0.398166,0.599282,0.814193,0.433695,0.386003
0.415825,0.066896,0.700495,0.047833,-0.781125,0.622540
0.125645,-0.015288,0.966989,0.189495,-0.979090,0.073993
0.198554,-0.688169,0.523430,0.686681,-0.374991,-0.622777
0.210296,0.115321,0.907763,0.909964,-0.393049,-0.132204
0.054693,-0.087179,0.483600,-0.331792,0.943334,-0.005955
0.711877,0.229174,0.516057,0.996702,0.078041,-0.022256
-0.329671,-0.458224,0.565283,0.767076,0.607719,0.205603
0.011340,-0.235190,0.648714,-0.290229,0.587462,0.755418
-0.169101,0.145749,0.734975,-0.478641,0.603367,-0.637849
-0.004215,-0.291470,0.164903,0.707211,-0.638729,-0.303113
0.116263,0.381909,0.426036,0.834015,0.183140,-0.520460
0.274423,0.038954,-0.912498,-0.249611,-0.111759,-0.961875
-0.265444,-0.680164,0.548272,-0.252552,-0.482991,0.838414
0.004967,0.052576,0.879114,-0.172427,-0.725466,0.666309
0.564955,0.166579,0.675255,0.052612,0.998515,-0.014106
0.149480,0.771546,0.432193,-0.522321,0.022903,-0.852441
0.067540,-0.267705,-0.930931,0.312706,0.082157,-0.946290
-0.114557,-0.654311,0.296403,0.190613,0.425591,0.884612
0.571278,-0.370770,0.652183,0.931220,-0.101456,-0.350052
0.690299,-0.116514,0.496600,-0.213527,0.676366,0.704937
-0.234935,0.516892,0.598559,0.942472,-0.125421,0.309866
0.145315,-0.412832,-0.277982,-0.022134,0.515723,0.856470
-0.375936,0.020210,0.673628,-0.580785,0.134199,0.802919
-0.389384,0.442414,0.539236,-0.247492,-0.898780,0.361859
-0.480707,-0.513412,0.463167,-0.105210,0.470244,0.876243
-0.612023,0.233251,0.032149,0.087890,0.070151,0.993657
-0.035979,-0.368036,0.737168,0.013789,0.901471,0.432620
0.223192,-0.191539,0.625341,-0.164464,0.772180,0.613751
0.533444,-0.084545,0.496479,0.028140,0.509607,0.859947
0.386522,0.301117,0.279199,0.869054,0.137436,-0.475244
-0.342165,0.832501,0.427205,0.910303,0.403447,0.092622
0.665863,0.266563,0.618378,-0.111352,-0.754005,0.647362
-0.225200,0.060333,0.775696,0.473092,-0.820336,0.321297
0.068543,-0.004400,0.809719,0.251359,-0.380604,0.889921
0.221636,0.162006,0.733361,0.422787,0.793371,-0.437966
0.263585,0.544983,0.328763,0.006086,-0.639631,0.768658
-0.277285,0.097820,0.524382,-0.226393,-0.936530,0.267690
-0.120227,-0.839262,0.301415,-0.237904,-0.477641,-0.845731
0.569120,-0.727895,0.168565,0.995076,-0.030798,-0.094203
0.082993,0.349591,0.740276,0.998324,0.037104,0.044406
-0.354609,0.110946,0.744698,-0.666122,0.728930,-0.157930
0.370665,0.294553,0.277440,0.869054,0.137436,-0.475244
0.318129,-0.060431,0.241297,0.372617,0.530264,-0.761563
0.210096,-0.134611,0.786455,0.840220,0.492128,-0.227685
0.132971,0.037911,0.432903,0.772656,-0.583551,0.249943
-0.483016,0.121137,0.061979,0.589667,0.804430,0.072014
0.137337,-0.068336,0.285295,-0.716640,0.056308,0.695166
-0.356266,0.473239,0.436626,0.093059,-0.810081,0.578886
0.132018,-0.036865,0.846428,-0.673963,0.070495,-0.735394
-0.113604,-0.083750,0.601282,0.830785,0.521680,-0.194027
0.443323,0.304646,0.619221,-0.551278,-0.263224,-0.791711
0.247176,0.122231,0.103267,0.074047,0.991905,-0.103159
-0.145065,0.306535,0.708362,0.693340,-0.714571,0.093100
-0.048724,-0.336913,0.625088,0.738128,0.604936,-0.298696
0.172963,0.230766,0.794732,-0.517569,0.826438,0.221634
-0.359426,-0.045466,0.666496,0.388157,-0.880924,-0.270753
-0.142456,0.814355,0.380472,-0.662670,-0.299631,-0.686360
0.484921,0.341537,0.773275,-0.147732,-0.893099,0.424912
0.105224,-0.063813,0.588728,0.911022,0.343338,0.228380
0.131166,-0.068834,0.877897,-0.009784,0.673695,0.738944
-0.095288,0.538917,0.395170,-0.098588,-0.681195,0.725433
0.111846,-0.679917,0.501334,0.609199,0.568772,-0.552607
0.324702,-0.257464,0.626281,-0.271041,-0.257252,-0.927555
-0.473733,0.183882,0.687146,0.643658,0.521452,0.560171
-0.739024,0.146544,0.269730,0.144417,0.547283,0.824394
-0.383512,-0.000970,0.427542,0.659935,0.332442,-0.673772
-0.033821,-0.630149,0.566440,0.728385,0.683306,0.050489
0.730694,-0.013746,0.330221,-0.602477,0.326925,0.728109
-0.266246,-0.065205,0.641328,0.405526,-0.802215,0.438179
0.041196,0.074552,0.921100,-0.582442,-0.799466,-0.147021
-0.470672,-0.389017,0.279681,0.652587,-0.445923,-0.612603
-0.228110,0.872076,0.230792,-0.348392,0.760320,0.548212
-0.578354,0.028315,0.447517,0.730903,0.460076,0.504094
0.450148,0.078728,0.785298,0.725669,0.340141,-0.598088
-0.871293,0.106421,0.123543,-0.360105,0.559986,0.746150
0.184403,-0.661371,0.409097,-0.698364,0.485448,-0.525954
-0.268403,0.193229,0.237116,0.047729,-0.892216,0.449080
0.004616,0.040297,0.658846,-0.463825,0.574914,0.674047
0.189573,-0.126706,0.589921,-0.657861,0.439502,-0.611602
-0.041297,-0.534343,0.624823,-0.154021,0.626295,0.764219
-0.471073,0.095036,0.430638,-0.448888,0.035950,0.892865
0.124290,-0.821961,0.550959,0.088355,-0.888200,-0.450881
0.148678,-0.032987,0.058353,0.971675,-0.236167,-0.008489
-0.393347,-0.138141,0.639979,0.381722,-0.830420,0.405822
-0.295751,-0.615134,0.637413,0.142632,0.982460,0.120121
-0.705807,-0.096824,0.181264,0.517857,0.855457,-0.004198
0.064478,-0.713376,0.279018,-0.283692,0.499556,0.818512
0.223694,0.550153,0.472661,0.359799,0.617874,-0.699125
-0.387325,0.062868,0.613860,-0.646485,0.331940,-0.686930
0.143911,0.046959,0.903872,-0.336135,0.518052,-0.786533
0.030307,0.104532,0.889788,0.747823,-0.661080,-0.061104
-0.126500,0.309370,0.507226,-0.129529,0.738137,-0.662100
-0.274174,-0.218385,0.382689,-0.453730,-0.744973,-0.489025
0.095890,-0.315882,0.149036,-0.030439,-0.769958,0.637369
-0.753627,-0.115966,0.285127,-0.513343,-0.384823,-0.767066
-0.378695,-0.251845,0.603462,-0.706754,0.531976,-0.466369
-0.515079,-0.165038,0.701699,-0.742772,-0.344428,-0.574160
-0.435597,0.546971,0.005500,-0.362285,-0.359778,-0.859831
0.118119,0.512268,0.441867,0.549637,0.495384,-0.672677
0.130915,-0.643921,0.512430,-0.087796,0.702454,0.706293
-0.352402,0.560793,0.309258,-0.101641,-0.591056,0.800201
0.576195,0.340493,-0.011078,-0.819138,-0.406533,0.404653
0.605549,-0.204514,0.511768,0.382978,0.281053,-0.879964
0.116915,0.424864,0.654497,0.142573,-0.397138,0.906617
0.162776,0.168121,0.683278,-0.645033,0.279138,-0.711347
-0.267952,0.418848,0.621859,0.277423,0.311815,0.908740
-0.313162,0.440724,0.396122,-0.817939,0.190465,0.542862
-0.344724,-0.002660,0.454216,0.280435,0.692898,0.664265
0.270710,-0.311656,0.676604,0.873317,-0.333074,-0.355498
0.172963,0.464788,0.662773,-0.584884,0.194909,-0.787351
-0.576547,-0.017376,0.263272,-0.518877,0.475118,-0.710654
0.104169,0.412583,0.728686,0.360920,-0.621531,0.695296
-0.548046,0.285903,0.401989,0.080538,-0.660296,0.746674
-0.087110,0.048798,0.756263,0.848182,0.522029,0.089847
0.205981,-0.131180,-0.920365,-0.477674,-0.131687,0.868611
-0.462191,0.524250,0.270645,0.359842,0.875623,-0.322177
-0.446636,0.120292,0.685760,0.818028,0.406184,0.407240
-0.344574,-0.167573,0.797575,0.881310,0.061387,0.468534
0.102965,0.302310,0.736529,0.409483,0.862754,0.296614
0.629234,0.312900,-0.902317,-0.384247,-0.024660,0.922901
-0.571429,-0.115469,0.503599,0.594484,-0.379532,-0.708904
0.124491,0.492879,0.764950,0.966386,0.237071,0.099474
0.223844,-0.366794,0.790033,-0.014480,-0.283996,0.958716
-0.048824,0.258359,0.611595,-0.517342,-0.328469,-0.790231
-0.574039,-0.484823,0.291958,0.953974,-0.267805,-0.134961
0.206281,-0.556616,0.703808,-0.433662,0.526145,0.731511
-0.498721,-0.616973,0.357979,-0.506836,0.497303,0.704136
-0.479252,0.167226,0.688242,0.645645,0.459345,0.610036
-0.389384,-0.354712,0.555959,-0.533314,-0.349355,-0.770407
-0.412414,0.174883,0.669556,-0.609875,-0.391693,-0.688933
-0.192786,0.640491,0.367906,0.628662,0.493173,-0.601302
-0.608812,0.132027,0.372954,0.488020,-0.696416,0.526157
-0.295198,0.494668,0.703181,0.378642,-0.827779,0.414019
0.143208,-0.822358,0.563946,0.362231,0.735998,0.571923
0.065883,0.041987,0.189299,0.622249,0.782452,0.023966
-0.131066,-0.519527,-0.944304,0.230791,0.024348,-0.972699
0.004465,0.915928,0.470625,-0.829449,-0.072741,0.553826
0.200712,-0.108260,0.335630,0.748713,0.626923,-0.215397
0.466455,-0.519476,0.399025,-0.579740,0.123741,0.805350
0.002057,0.760311,0.451071,-0.101263,-0.670069,0.735359
0.139997,-0.089118,0.930967,-0.543363,0.820712,-0.176602
0.330021,0.461257,0.729758,-0.765604,-0.035052,0.642357
0.650860,-0.128297,0.529755,0.576957,0.393751,-0.715598
-0.217322,0.193626,0.849645,0.628740,0.617573,-0.472535
0.469265,-0.777015,0.341582,0.324943,-0.895548,0.303984
0.075969,-0.504859,0.648750,0.965473,0.106982,-0.237523
-0.521251,-0.100853,0.657870,0.826188,-0.514544,0.229474
-0.126098,0.233799,0.883692,0.032140,-0.941584,0.335241
0.397962,-0.546076,0.744613,0.157848,-0.874004,-0.459567
0.499121,0.074254,0.311282,0.647662,0.743450,-0.166781
-0.201064,-0.675939,0.296355,0.200745,0.572617,0.794866
-0.131116,0.035275,0.191432,0.173123,0.915761,-0.362505
-0.325004,0.099014,0.734891,0.770083,0.044528,0.636387
-0.276031,0.226241,0.793009,0.771669,0.619079,0.145839
-0.475589,-0.512964,0.455288,0.036149,0.769306,0.637857
0.200410,0.026027,-0.279560,0.420284,0.885320,-0.198920
-0.399017,0.415965,0.025716,-0.508158,-0.065810,-0.858746
-0.175122,-0.003852,0.802635,0.801675,0.161240,0.575603
-0.621407,-0.099609,0.556718,-0.809554,-0.436100,-0.392986
-0.098450,0.101102,0.817622,0.571982,0.820161,-0.013130
-0.003212,0.013598,0.867680,0.210046,-0.958429,0.193118
0.264488,-0.386980,0.705928,-0.670482,-0.295240,-0.680652
-0.229214,0.325627,0.290584,0.342288,-0.263465,-0.901901
0.503336,-0.669326,0.480022,0.491432,0.697458,0.521581
-0.238045,0.362618,0.515623,0.154595,-0.288195,0.945010
-0.228914,-0.016679,0.618101,0.806622,-0.489202,0.331727
0.451704,0.194323,0.428325,-0.252617,0.863148,-0.437219
0.015303,-0.291123,0.664580,-0.286530,0.894422,0.343379
0.263886,0.006488,-0.902691,0.170020,-0.086558,0.981632
-0.200262,-0.402490,0.692218,0.070634,0.886418,0.457464
-0.336997,-0.293161,-0.057823,0.999264,-0.022614,-0.030986
0.298509,0.024138,0.814333,-0.370379,0.113842,0.921878
0.279091,-0.514406,0.710470,0.927040,-0.337817,-0.162713
-0.362337,-0.048550,0.683616,-0.708789,0.549503,0.442341
-0.076874,-0.859099,0.516647,0.268783,-0.655924,0.705350
-0.193136,-0.576901,0.656472,0.375901,0.814831,0.441304
-0.249236,-0.573520,-0.957291,-0.229492,-0.055515,0.971726
0.192282,0.114923,0.801840,-0.716336,0.675013,-0.176693
0.280645,-0.262087,0.639545,-0.643985,0.426602,0.635055
0.473430,-0.609118,0.458734,0.241122,0.863950,0.442097
-0.409805,0.451463,0.537730,0.044959,0.865142,-0.499507
-0.358624,-0.337161,0.554465,-0.117049,-0.517252,-0.847791
-0.488435,0.650783,0.472251,-0.425809,-0.883361,0.195858
-0.205028,-0.444155,0.721807,-0.004230,-0.789452,0.613798
-0.385518,-0.186368,0.457553,-0.639014,0.554607,-0.532984
0.393396,0.373307,0.720229,0.972446,-0.062347,0.224635
-0.227609,-0.675342,0.259658,-0.327251,0.758575,0.563445
-0.239350,0.113531,0.783142,0.476028,-0.630772,0.612800
0.195945,0.052030,0.463481,0.729662,-0.519910,-0.444170
-0.189172,0.120641,0.690049,0.690918,0.717477,0.088655
0.113954,0.434560,0.708085,-0.786685,0.441922,0.431082
0.170906,0.357994,0.455975,0.749851,0.228010,-0.621076
-0.364495,-0.199791,0.023824,0.836307,-0.185580,-0.515898
-0.196799,0.391801,0.752553,0.905965,-0.056462,0.419571
-0.427669,0.503220,0.651063,0.912956,0.251651,0.321220
-0.107833,-0.563975,-0.942014,-0.193844,-0.067243,0.978725
-0.333535,0.387078,0.616185,-0.419724,0.263979,-0.868416
0.525014,0.148682,0.697278,0.660814,-0.698035,-0.275812
-0.162176,0.305194,0.712892,0.693340,-0.714571,0.093100
0.070550,0.038954,-0.787913,-0.625595,-0.777112,-0.068757
-0.118019,-0.295399,0.724433,0.110412,0.889951,0.442490
-0.286718,0.466677,0.423880,0.521217,-0.496387,0.694214
0.655777,-0.164044,0.381701,-0.658942,0.035936,0.751335
0.073360,0.402988,0.405868,0.919879,0.023488,-0.391497
-0.190527,0.447884,0.614775,0.536044,0.794544,0.285230
-0.515281,-0.195118,0.699205,-0.742772,-0.344428,-0.574160
0.165487,0.311110,0.271308,0.136420,-0.519912,0.843256
0.593557,0.120641,-0.198793,0.131061,-0.719819,-0.681677
-0.221888,0.159819,0.800093,-0.611041,-0.767858,0.192412
-0.382208,0.350039,0.179480,-0.473154,-0.434751,0.766235
0.300969,-0.385189,0.400580,0.045810,0.533265,0.844707
0.226052,-0.581276,0.349196,0.750283,0.076612,-0.656663
0.551005,0.536729,0.639557,-0.318610,-0.934224,-0.160353
0.002910,0.118403,0.832537,-0.499826,0.636495,-0.587408
0.424757,0.520670,0.731638,-0.146408,-0.864575,0.480702
-0.745195,0.038607,0.134374,0.164687,0.428636,0.888341
0.644286,0.376836,0.503069,-0.097980,-0.021770,0.994950
0.494254,-0.478956,0.500178,0.791049,-0.215253,0.572633
0.335340,-0.742312,0.355822,0.719219,0.589246,-0.368121
0.389231,0.445100,0.727469,0.260202,0.926223,-0.272773
0.448090,0.068587,0.632437,-0.524516,-0.634983,0.567168
-0.267952,-0.368235,0.313535,0.763475,0.128850,0.632854
0.059862,0.203819,0.888957,0.429382,0.595899,-0.678628
0.246174,-0.336863,0.664894,0.658013,-0.489433,0.572253
-0.210648,0.533050,0.223153,-0.421768,-0.496564,0.758640
0.198655,-0.192233,0.574813,0.834367,-0.544946,0.082856
0.109539,0.002461,0.927545,0.844911,-0.452905,-0.284608
-0.346882,-0.164243,0.211852,0.953720,-0.131117,-0.270603
0.062019,0.329208,0.643666,-0.444535,0.725618,-0.525230
-0.150886,0.757974,0.393845,0.446661,-0.559873,-0.697880
0.441366,-0.032192,0.574910,-0.678196,-0.328607,-0.657319
0.109638,-0.549855,0.135482,0.892539,-0.420889,-0.161945
-0.484370,0.649440,0.474022,-0.425809,-0.883361,0.195858
0.565858,-0.146542,0.513768,-0.331940,0.086938,0.939286
0.249686,-0.444801,0.792888,-0.287275,0.957840,0.004034
0.370464,-0.209336,0.051546,0.656706,0.624981,0.422062
-0.049476,0.304945,0.369436,-0.206255,-0.180266,0.961750
-0.112399,-0.434112,0.592849,0.431261,-0.620245,-0.655217
0.003362,-0.603698,0.410675,0.020290,-0.167793,0.985613
-0.111196,0.814006,0.254766,-0.170978,-0.542040,0.822775
-0.395405,0.500734,0.304825,-0.302259,-0.472182,0.828060
0.144411,0.164691,0.683050,-0.738661,0.207201,-0.641442
0.448442,0.030154,0.789455,0.678816,0.493021,-0.544186
-0.004215,0.244388,0.892631,-0.130522,-0.828424,0.544682
-0.284611,0.540906,0.598366,-0.161449,0.169634,0.972193
-0.295851,0.436597,0.679050,0.765700,-0.470154,0.438929
0.285462,0.148981,0.777106,-0.006659,-0.990616,0.136513
-0.257415,0.648197,-0.089219,0.650542,-0.665762,-0.365453
0.602990,0.381262,-0.901257,0.424335,0.350685,-0.834841
-0.837573,-0.011807,0.235358,0.158554,0.027602,0.986964
0.377690,0.130038,0.741240,-0.215868,0.487712,0.845895
-0.489689,-0.557809,0.491660,0.571598,0.531629,0.625017
-0.442572,-0.368185,0.447650,0.069754,0.414572,0.907339
-0.220233,-0.125662,0.338341,0.238073,0.851489,0.467212
-0.960912,-0.226390,0.258128,0.580734,-0.403461,-0.707083
0.196597,-0.040645,-0.918160,0.275685,0.261064,-0.925118
0.159215,-0.293857,0.586162,0.267543,0.904298,0.332666
-0.337048,0.002909,0.685254,-0.204654,0.768759,0.605910
0.311706,-0.137991,0.584174,0.038395,0.936191,0.349389
-0.671936,-0.059189,0.453011,0.646423,-0.471440,0.599901
-0.161976,-0.256370,0.269826,0.511707,-0.696843,-0.502560
-0.139044,0.400304,-0.120471,0.861970,0.379376,0.336277
-0.264188,0.199343,0.787913,0.822121,0.554471,0.129148
-0.185008,-0.592512,0.644256,0.357331,0.848657,0.389994
-0.672438,-0.143312,0.430602,-0.296587,0.954873,-0.015910
0.066837,0.454944,0.743999,0.209879,0.603801,-0.769010
0.370365,-0.154746,0.693507,-0.417614,-0.691507,0.589420
-0.126500,-0.426306,-0.949785,-0.189234,0.011769,0.981861
0.157408,0.595049,0.482733,-0.470018,-0.677740,0.565466
0.822570,0.079623,0.329004,0.068266,0.257963,0.963740
0.458928,-0.372709,0.550862,-0.544576,-0.484992,-0.684266
-0.445984,0.123028,0.694579,0.698870,0.533729,0.476145
0.009985,-0.829518,-0.940942,0.468988,-0.004752,-0.883192
0.671282,-0.233898,0.534899,0.406636,0.670623,-0.620413
0.297004,-0.536679,0.728795,-0.178160,0.877473,0.445310
0.052386,0.889726,0.484215,-0.627403,-0.416610,0.657877
0.231020,-0.372063,0.668882,0.760593,-0.473837,-0.443820
0.242861,-0.161358,0.834200,0.798397,-0.277797,-0.534220
0.746449,0.297687,0.389773,-0.609139,-0.785226,0.111224
0.315620,-0.223457,0.532393,-0.124090,0.828043,0.546759
0.324200,-0.541204,0.407121,-0.135496,0.611916,-0.779230
0.011290,0.081464,0.304198,0.588964,0.632426,-0.503150
0.178333,0.016432,-0.075099,-0.459368,0.857136,-0.233022
-0.314518,-0.321153,0.322691,0.429127,0.428911,0.794912
0.002609,0.502225,0.572500,-0.604250,-0.522045,-0.601955
0.593958,0.193576,0.587668,0.635448,0.530103,0.561424
-0.667118,-0.026724,0.479166,-0.535353,-0.826311,-0.174950
-0.419791,0.294902,0.397640,0.089854,-0.624260,0.776032
-0.600432,0.027669,0.422024,0.443950,0.872608,0.203624
-0.060766,0.109553,0.289897,0.232996,-0.189550,0.953826
-0.594460,0.021155,0.457577,0.218715,0.834913,0.505059
0.423904,0.344371,-0.918738,0.298714,0.077568,-0.951185
-0.481209,0.167127,0.685772,0.643658,0.521452,0.560171
0.165436,0.081215,-0.646280,0.998043,-0.061771,-0.009753
0.080886,-0.149774,0.166336,0.870323,-0.481998,0.101073
-0.199007,-0.052428,0.727963,0.928922,0.330053,0.167834
-0.037936,0.419545,0.694664,-0.517519,0.608218,-0.601868
0.278137,0.125314,0.791093,-0.260143,0.759601,-0.596097
0.207888,0.430880,0.295909,-0.217539,-0.651738,0.726577
-0.229013,0.074105,0.782118,-0.395244,0.685956,-0.610939
-0.502084,0.410446,0.393122,-0.077378,-0.301541,0.950308
-0.144012,-0.150918,0.440084,-0.350708,-0.136666,0.926459
-0.152142,0.429489,0.619269,0.593487,-0.786105,0.172660
-0.163230,-0.388172,0.692676,-0.118054,0.937258,0.328041
-0.049928,0.125712,0.654629,0.168737,0.502331,-0.848051
-0.106779,-0.365798,0.735144,0.424718,0.774526,0.468747
-0.268053,0.076243,0.039691,-0.200324,0.634743,-0.746305
-0.257615,0.491835,0.602463,-0.501121,0.562157,-0.657919
-0.125545,0.052626,0.760444,0.115823,0.530506,0.839731
0.227156,0.689612,0.350738,-0.178257,-0.462745,0.868384
0.418485,-0.559003,0.536971,0.807404,-0.003130,-0.589991
-0.111546,0.330898,0.197407,0.370119,0.833772,-0.409678
-0.925636,0.162503,0.243936,0.965934,0.192541,-0.172916
0.192683,-0.532751,0.695772,-0.290536,0.688008,0.665007
0.079231,-0.000621,0.981471,0.688356,-0.134057,0.712878
0.698077,-0.104681,0.536249,0.497127,-0.009445,-0.867627
-0.257816,-0.085091,0.747577,0.997120,-0.070332,0.028358
-0.266145,0.091605,0.656665,-0.394928,-0.404872,-0.824688
-0.500577,-0.253586,0.661581,0.417018,-0.672410,0.611524
0.127752,-0.235787,0.748131,0.220757,0.319720,-0.921436
-0.757942,-0.114624,0.297295,0.174348,0.667828,0.723608
0.309046,-0.268500,0.805334,0.150841,-0.835042,-0.529104
0.300316,-0.034430,0.448276,0.413377,0.909481,0.044309
0.298108,0.159371,-0.911317,-0.056393,0.090614,0.994288
0.189071,-0.029259,0.384881,0.913061,-0.358289,-0.194802
0.569321,-0.263281,0.507406,-0.147960,-0.889825,0.431648
0.210949,-0.115420,0.407832,0.751831,0.416235,-0.511370
0.118218,0.115569,-0.777226,0.541468,0.838281,0.064007
0.102764,-0.380217,0.443409,0.106044,0.982860,0.150799
-0.014302,-0.343127,0.174469,0.976239,-0.190450,0.103379
-0.432084,0.704527,0.490335,0.263729,0.736430,-0.622991
0.709768,0.180103,0.402941,0.162531,0.789047,0.592443
0.795222,-0.030253,0.322667,-0.671655,0.491834,0.554057
0.024185,-0.566013,0.453047,-0.689257,0.468461,0.552693
-0.081340,-0.821164,0.457589,-0.092290,0.779991,0.618948
0.255005,0.523156,0.469155,0.041266,-0.579768,0.813736
0.458778,-0.161160,0.513731,-0.675306,0.689503,0.261813
-0.676553,-0.114077,0.385134,-0.656379,-0.287255,-0.697604
0.480555,0.568748,0.704374,-0.010700,0.950947,0.309170
0.452105,0.180402,0.377339,0.676363,-0.417775,-0.606628
0.258317,0.371318,0.616113,0.620802,0.719364,0.311640
-0.043806,0.254232,0.652762,0.947086,0.206611,-0.245641
0.258367,-0.076590,0.670869,0.752349,0.203253,-0.626625
0.083947,0.456932,0.757998,0.855248,-0.379679,-0.352697
0.266797,-0.492728,0.691905,-0.541275,0.365054,0.757467
0.169200,-0.103487,0.290849,0.880152,-0.103310,-0.463315
-0.453460,-0.240560,0.441542,-0.294853,-0.835984,0.462809
-0.133374,-0.177319,0.784588,0.802341,0.536174,0.262233
0.208540,-0.390509,0.706253,0.230644,0.255452,0.938908
0.028952,0.790191,0.455987,0.142997,-0.579874,0.802059
-0.277084,0.172049,0.550200,-0.578076,0.604007,-0.548638
-0.050229,-0.294254,0.151771,-0.639719,0.419335,0.644141
-0.413016,0.390858,0.637847,0.525240,-0.648266,0.551247
-0.397913,0.050290,0.443590,0.328991,0.943720,0.034026
-0.277686,0.544138,0.613016,0.081466,-0.374458,0.923658
-0.396558,0.631741,0.478046,0.189334,0.736909,-0.648936
-0.466557,0.500087,0.307800,-0.190155,-0.629600,0.753289
0.119774,0.250801,0.695194,0.930003,0.355093,-0.094886
0.123137,0.091308,0.890354,0.833606,-0.259780,0.487458
-0.206283,0.363313,0.564946,0.922841,0.087129,-0.375198
-0.559938,0.024437,0.252658,0.719812,0.352936,0.597752
-0.069297,-0.430830,0.432373,0.146183,-0.360208,0.921347
-0.037835,-0.369827,0.625944,-0.172070,-0.927532,0.331776
-0.239501,-0.279539,0.736312,0.787671,0.467484,0.401290
0.090119,0.152211,0.854078,-0.545938,-0.801940,0.242578
-0.166592,-0.483431,0.080027,0.586027,-0.444802,-0.677292
0.208992,0.559003,0.328968,-0.041170,-0.657593,0.752248
-0.338703,0.485421,0.568235,-0.372919,0.380307,-0.846344
-0.380401,0.412583,0.173119,0.767052,0.184189,-0.614578
-0.118120,-0.095234,0.505599,0.887772,-0.437122,0.144167
0.464348,-0.256669,0.629425,-0.809449,-0.137776,0.570798
0.240152,0.039601,-0.077171,0.063091,0.978205,0.197824
0.419939,-0.015685,0.568621,-0.697558,-0.409499,-0.587982
-0.002910,0.113481,-0.067786,0.427250,0.892390,0.145251
-0.573034,-0.106719,0.457264,-0.670532,-0.664710,0.329466
0.062120,0.102692,-0.070352,-0.084607,-0.588451,-0.804094
-0.074164,0.225446,0.877343,-0.063117,-0.982574,0.174825
-0.586182,0.473289,0.036920,-0.511852,0.112214,-0.851713
0.485624,0.238920,0.618498,0.375679,0.729270,0.571866
-0.095489,-0.366346,0.584126,0.227256,0.525029,0.820182
0.304279,-0.331493,0.688748,0.860434,-0.322695,-0.394361
-0.814241,0.041739,0.224238,0.238632,0.630001,0.739022
-0.653119,-0.152012,0.164120,0.091065,-0.325949,0.940991
-0.374530,0.454496,0.367882,0.812149,-0.582524,-0.032876
0.347934,0.000672,0.167529,0.120189,-0.952109,-0.281147
-0.381906,-0.606633,-0.018981,-0.296853,0.267610,0.916658
0.242460,-0.346857,0.561561,0.709526,0.602496,0.365474
0.407646,0.412137,0.713530,0.401344,-0.520427,0.753710
-0.381807,-0.514655,-0.803032,-0.084611,-0.995133,0.050505
0.105825,0.078431,0.176733,0.951989,0.304982,0.026516
-0.604898,0.352525,0.063811,0.701603,-0.689602,-0.179449
0.554116,0.342880,0.636027,-0.115828,0.701342,-0.703351
0.055246,-0.009868,0.921148,0.911085,0.093434,-0.401489
0.507702,0.209735,0.442385,-0.151109,0.756261,-0.636580
0.053589,-0.165784,0.610896,-0.573072,0.638791,-0.513355
-0.616289,0.160067,0.457023,0.844934,0.292902,0.447543
0.646946,-0.261441,0.384074,0.693068,-0.068736,-0.717588
0.389933,-0.250304,0.549417,0.559263,-0.567576,0.604220
0.045561,0.285306,0.679568,0.825972,-0.144878,-0.544775
0.408651,0.420042,0.332137,0.701569,0.246623,-0.668564
-0.062122,0.109504,0.786382,0.718584,0.644649,-0.260891
0.191228,0.062322,-0.153277,-0.176655,-0.967977,0.178363
0.189573,0.139434,0.893679,-0.020374,0.995983,0.087189
-0.267200,0.261342,0.611089,0.105581,-0.584233,-0.804689
-0.353756,0.776767,0.353088,-0.594033,0.475481,0.648879
0.457474,-0.591817,0.625871,0.970681,0.237060,-0.039771
-0.432386,0.561042,0.611547,-0.045996,-0.962973,0.265644
0.055898,0.046859,-0.801695,0.576895,0.812130,0.087391
0.025941,0.393343,0.541983,0.788577,0.601751,-0.126657
0.332379,-0.597285,0.391050,-0.100123,0.697429,-0.709625
-0.370816,0.472295,0.635317,-0.444004,0.711225,-0.544994
0.656681,0.292466,0.414181,0.715268,0.646510,0.265363
0.128105,-0.481740,0.653256,0.228265,-0.961077,0.155647
-0.095389,-0.540359,0.410892,0.382658,-0.557197,0.736956
-0.049577,0.286947,0.192420,0.444569,0.731999,-0.516270
-0.405842,-0.460063,0.343172,-0.113493,0.589948,0.799425
-0.776457,0.175430,0.138940,0.308527,0.417865,-0.854517
0.644136,0.321899,0.636714,-0.007858,-0.715854,0.698205
-0.387074,0.416363,0.294247,-0.554599,0.323945,-0.766472
-0.308496,0.398662,0.194841,-0.661308,0.142718,0.736412
-0.690100,0.044573,0.407037,-0.387666,0.631467,0.671539
-0.363491,0.548910,0.596137,-0.148089,-0.988953,-0.006418
0.205580,0.630348,0.466770,-0.324337,-0.773370,0.544706
-0.267048,0.346409,0.629088,-0.607910,0.603105,0.516440
0.230217,-0.254730,-0.919317,-0.556651,0.235504,0.796667
-0.557831,-0.421930,0.372605,-0.395423,-0.607908,0.688540
0.090270,0.028713,0.905257,-0.467236,-0.848923,0.247023
0.577850,-0.095086,0.367159,-0.383791,0.270120,0.883029
0.062923,0.368881,0.703181,0.555330,0.805199,-0.207998
0.306739,-0.235787,0.629160,0.144780,0.314396,0.938187
-0.500627,0.332787,0.162312,-0.349500,-0.253231,0.902066
0.405338,-0.677083,0.565958,-0.823943,-0.001535,0.566670
0.089819,0.069879,0.697615,0.780587,-0.598226,0.181134
-0.080335,-0.339946,0.661990,0.926583,0.202398,0.316984
-0.132170,-0.233201,-0.062774,-0.008706,0.430774,0.902418
-0.261931,0.477268,0.613281,-0.704231,-0.433633,-0.562158
0.474384,0.071022,0.625052,-0.433617,-0.831433,0.347412
-0.210247,-0.619609,0.548284,-0.459302,0.302906,0.835039
-0.204326,0.359784,0.735854,0.789774,-0.411851,0.454571
0.191931,0.040695,-0.822140,0.555131,0.826710,-0.091539
0.149881,-0.689810,0.530249,0.023186,0.302399,0.952899
-0.078580,-0.022348,0.887029,0.807348,0.275034,0.522059
0.028500,-0.844931,0.496250,-0.524082,0.436857,-0.731091
-0.016208,0.108360,0.845898,0.149364,0.848574,0.507555
0.516333,-0.086384,0.036872,0.874300,-0.120058,-0.470304
0.105825,0.005046,-0.699290,0.324098,-0.945528,-0.030634
-0.064480,-0.698114,0.442385,0.619377,-0.012069,-0.785001
0.442721,0.113979,0.636220,0.198482,0.760624,-0.618106
-0.336495,0.294654,0.510129,-0.201606,0.064928,0.977312
-0.308446,0.234544,0.389953,-0.778387,0.521867,0.348954
0.422749,-0.044870,-0.908907,0.328217,0.125151,-0.936275
-0.467912,-0.616128,-0.032872,-0.322629,0.480615,0.815426
-0.077124,0.301515,0.669580,-0.362703,-0.911539,0.193760
0.127552,-0.827728,0.548838,-0.122284,0.889099,0.441078
-0.424558,0.657246,0.478962,0.395723,0.623598,-0.674188
-0.091125,0.298630,0.642762,0.430921,0.902385,0.002798
-0.193438,0.336615,0.650557,0.541458,0.198200,0.817031
-0.904261,0.230915,0.109423,0.940674,-0.321339,0.108969
0.330874,-0.479255,0.450023,0.226506,0.599578,0.767594
0.026192,0.330898,0.763046,-0.074923,0.867016,0.492616
0.143459,-0.895444,0.223021,-0.208467,0.780287,-0.589655
0.051733,0.412932,0.615450,0.113825,-0.516244,0.848844
0.334036,-0.305988,0.830911,0.739027,0.605887,-0.294517
-0.221587,-0.393293,0.586246,0.956335,-0.025809,0.291131
0.187365,-0.302806,0.692555,0.286091,-0.770563,-0.569548
-0.034373,-0.126009,0.844235,0.167013,0.653792,0.738013
0.600581,0.336218,0.622570,0.274490,-0.933399,0.231132
0.117116,0.116215,0.897763,0.286142,-0.610376,-0.738623
0.403031,-0.573221,0.401146,-0.066395,0.636358,-0.768531
0.591951,-0.283565,0.507455,0.537116,-0.300077,-0.788327
-0.163732,0.043379,0.200251,-0.163961,0.959838,-0.227656
0.072457,-0.007433,0.128362,0.793556,0.428253,0.432283
0.028048,0.431576,0.382508,0.502821,0.659513,-0.558761
0.741180,0.055212,0.518852,-0.615747,-0.311355,-0.723818
0.090822,0.122430,0.727385,-0.694187,0.271320,-0.666700
0.354056,0.319661,0.695808,0.524852,0.544740,-0.654055
-0.074364,-0.698909,0.437759,0.592468,-0.161925,-0.789152
0.725625,-0.136550,0.511394,-0.652701,0.733566,0.189373
-0.014602,0.103687,0.930413,0.948134,0.253449,0.191848
0.693964,-0.230716,0.522418,-0.272648,-0.914598,0.298621
0.219379,0.660030,0.496310,-0.327572,-0.578418,0.747080
0.151838,0.375295,0.692543,-0.186238,-0.598469,0.779198
0.334285,0.521168,0.515876,0.103305,-0.801437,0.589090
-0.490994,0.191637,-0.075918,-0.035139,-0.596092,0.802147
0.679059,-0.609018,0.460661,-0.418001,-0.229784,0.878905
-0.354108,0.534840,0.356244,0.742327,-0.384168,-0.548968
-0.440113,0.504214,0.585174,0.818205,-0.509230,0.266882
0.090270,-0.023541,0.864223,0.860557,-0.325289,-0.391955
-0.188971,-0.206453,0.379930,0.324336,0.790557,0.519447
0.373475,0.304895,0.496612,-0.872209,0.425495,0.241257
0.007677,-1.000000,0.204106,0.041623,-0.759545,0.649121
0.355261,-0.460312,0.617305,-0.488851,-0.334510,0.805685
0.223544,-0.347403,0.537321,0.733885,0.529390,-0.425627
-0.039441,0.874563,0.451541,0.948037,-0.111304,-0.298055
-0.273320,-0.111442,0.610968,0.947508,0.169041,0.271393
-0.561243,-0.145300,0.532044,0.648828,0.433467,0.625403
0.152390,-0.065552,0.690640,0.832605,-0.339925,-0.437287
0.108384,0.001118,0.003524,0.767583,-0.602639,-0.218271
0.537107,0.286699,0.693712,-0.471620,-0.861431,0.188445
0.111194,0.646904,0.435193,0.174546,-0.043594,-0.983684
-0.107381,0.182142,0.475143,0.796374,0.457506,0.395571
-0.417332,0.303404,0.281283,0.856610,0.217137,0.468050
0.215414,0.521963,0.320703,-0.074399,-0.685816,0.723962
0.064428,0.554380,0.438506,-0.471002,-0.500405,0.726465
0.122685,0.472245,0.741192,0.991185,-0.029351,0.129194
-0.003062,0.241256,-0.112302,0.707989,0.591336,0.386100
-0.076471,-0.001566,0.297222,0.459332,-0.235494,0.856479
0.095187,-0.370224,0.623968,-0.431435,0.124035,-0.893576
-0.342417,0.152162,0.564055,0.702384,-0.156320,0.694421
0.108334,0.029558,-0.403049,0.886911,0.458402,-0.057069
0.460032,-0.291520,-0.082484,0.897053,0.348027,0.272347
-0.243164,-0.297486,0.518779,0.174800,0.863720,0.472687
0.069045,0.298381,0.745264,0.962057,0.272727,0.008152
0.036328,-0.977478,0.407953,0.895382,0.024677,-0.444614
-0.070400,-0.754145,0.572102,0.745757,-0.229394,0.625480
-0.059964,0.462451,0.397351,0.026249,-0.673772,0.738473
-0.370717,-0.246873,0.649967,0.846307,0.106372,0.521968
0.421295,0.267259,0.586367,-0.250938,-0.964881,-0.077687
0.223342,0.002114,0.304174,0.852080,-0.474781,-0.220324
0.216769,-0.189997,0.696916,-0.143529,-0.879547,0.453647
0.410105,0.221817,0.715663,0.825799,0.104751,-0.554151
-0.053943,0.787954,0.458902,-0.613209,-0.346844,0.709700
0.041849,0.297835,0.799900,0.777404,-0.263814,0.571003
-0.177431,0.195913,0.742372,0.427904,-0.636112,0.642075
-0.207036,0.216050,0.811984,-0.498811,-0.848841,0.175091
0.001606,-0.343326,0.219732,0.998363,0.044736,0.035636
0.032566,-0.028016,0.909486,-0.729475,0.060955,-0.681286
0.460133,-0.450369,0.557537,-0.649105,-0.314428,-0.692674
-0.305936,0.487658,0.692459,0.378642,-0.827779,0.414019
-0.333835,-0.167126,0.630594,0.129916,-0.917270,0.376482
-0.235235,0.004898,0.762010,-0.575649,0.327167,-0.749393
-0.649908,0.154150,0.127362,0.174087,0.189358,0.966352
0.210698,0.278643,0.723048,0.894754,0.415258,0.164246
-0.269256,-0.155443,0.422711,0.252131,0.667785,-0.700352
0.110892,-0.004549,0.020126,0.715542,-0.635075,-0.290998
0.277134,-0.594053,-0.086557,-0.071519,-0.941555,0.329181
-0.244368,0.685186,0.367918,-0.499830,-0.814358,0.294941
-0.254253,0.170955,0.546814,-0.437534,0.815556,-0.378725
0.439860,-0.434658,0.401242,0.610760,0.007336,-0.791782
0.627477,0.303602,0.615342,0.753051,0.564295,-0.338358
0.120828,-0.211425,0.676929,-0.068026,-0.923915,0.376501
0.421295,0.079226,0.611137,0.124502,0.868988,-0.478915
0.209944,-0.268153,0.748047,-0.584642,0.191146,0.788453
-0.142306,-0.461307,0.361991,-0.420578,0.544468,0.725719
0.375231,-0.556070,0.744517,0.157848,-0.874004,-0.459567
0.345677,-0.053123,0.091014,0.306572,0.823986,-0.476509
0.007376,-0.871181,0.474492,-0.562886,-0.677512,-0.473432
0.106879,0.437145,0.410941,0.792828,0.120309,-0.597453
0.538211,-0.373207,-0.188890,0.336859,-0.909840,0.242315
0.046515,-0.083997,0.674315,-0.204460,0.341637,0.917323
0.556675,0.162751,0.409374,-0.032427,-0.891965,0.450940
-0.764263,0.152907,0.206805,0.168069,-0.974217,0.150513
-0.202820,0.092550,0.716446,0.280399,-0.621537,-0.731483
0.058858,0.058643,0.851283,0.283984,0.649035,-0.705767
-0.655728,-0.479006,0.344437,0.353476,-0.820055,0.450071
-0.396509,-0.298779,0.325522,0.410626,0.434020,0.801881
0.070601,-0.266561,0.088810,0.723702,-0.537038,-0.433412
-0.102665,-0.374699,-0.944954,-0.225121,-0.007988,0.974298
0.047669,-0.210430,0.202094,0.949099,-0.309329,0.059388
0.214912,-0.098019,0.557440,-0.209843,0.466568,0.859232
0.190175,0.745744,0.503141,-0.146326,-0.559705,0.815671
0.364644,0.084993,0.359099,-0.602403,0.661611,0.446521
-0.518291,-0.431575,0.366942,0.669687,0.720959,-0.178151
0.129610,0.026376,0.626088,0.407874,0.912924,-0.014460
-0.143710,0.618515,0.573885,-0.348488,0.898307,-0.267584
-0.584525,-0.487856,0.276910,0.874617,-0.482828,-0.043853
0.428120,-0.183533,0.474480,0.447495,0.533909,0.717418
0.279994,-0.366047,0.809586,0.788698,-0.046014,-0.613056
0.408801,-0.521714,-0.254694,0.485809,0.676939,-0.552941
-0.251945,-0.252691,0.632365,-0.068512,-0.757723,0.648970
0.128556,0.020161,-0.347534,-0.452786,-0.888734,-0.071668
0.472477,0.147985,0.757408,0.483194,-0.867944,0.114876
0.033368,-0.371965,0.103700,-0.702766,0.511615,0.494337
0.464548,-0.589480,0.620197,-0.075952,0.871759,0.484013
0.167744,0.076094,-0.216370,0.953079,-0.175697,-0.246519
-0.233179,0.369827,0.594258,-0.212268,0.624542,0.751591
0.640072,0.211078,0.576247,0.262078,0.609377,0.748314
0.028952,0.481642,0.630052,-0.148476,-0.807538,0.570822
-0.143058,0.124917,0.836164,0.337174,-0.434482,0.835188
0.223643,-0.231063,0.636545,0.088802,0.096735,0.991341
-0.203774,0.267109,0.471131,-0.322503,0.524958,-0.787662
0.125495,0.083899,0.805731,0.110716,0.892169,0.437923
0.025340,-0.544087,0.431578,0.859731,-0.132485,-0.493265
0.444528,-0.652322,0.578897,-0.764207,0.620314,-0.176628
0.247778,-0.178561,-0.913196,-0.419443,-0.124358,0.899223
-0.581816,-0.027818,0.157204,0.976225,0.061179,-0.207946
0.157108,-0.258656,0.737276,0.388062,0.855492,0.342843
0.431331,0.099610,0.800611,0.654492,0.606926,-0.450868
0.220734,0.546276,0.647702,0.264069,0.598791,0.756120
0.894124,-0.081711,0.592415,-0.558590,0.794559,-0.238019
0.224747,0.177269,0.643557,0.073847,-0.531398,0.843897
0.880074,-0.010912,0.365955,-0.712353,0.128976,0.689869
0.756636,0.125762,0.424964,0.570634,0.775964,-0.268806
-0.326961,-0.052974,0.684435,0.895955,-0.373867,-0.239768
-0.103418,-0.558008,0.553188,-0.492044,0.618530,0.612628
0.358973,0.634674,0.594752,-0.718709,-0.692203,-0.065673
0.319634,0.152211,0.793250,-0.290003,0.936373,-0.197747
-0.146621,0.165039,0.838838,-0.103369,0.559514,-0.822350
-0.336645,-0.113580,0.432783,0.421339,0.694269,-0.583493
-0.006423,-0.226639,0.646810,0.383535,0.399308,0.832739
0.460735,-0.053223,0.496118,0.604517,0.164384,-0.779447
0.041496,0.518681,0.678483,0.922561,0.123040,0.365707
0.062471,0.065453,-0.832381,-0.782387,-0.605906,-0.144047
-0.073512,-0.001118,0.881053,0.857633,0.338902,0.386796
-0.383713,-0.093345,0.666713,0.335730,-0.828578,0.448044
-0.254755,0.510877,0.671652,-0.718867,0.469589,-0.512558
0.759496,-0.160265,0.554898,0.775967,0.515937,-0.362884
-0.679012,-0.118453,0.528598,-0.576318,-0.610604,-0.543158
-0.096544,0.752107,0.240659,0.039052,-0.344770,0.937874
-0.357721,0.801726,0.222334,-0.744782,0.622842,0.239516
0.050228,-0.433962,-0.276308,-0.527136,0.148034,0.836788
0.714185,0.284659,0.482721,0.870721,0.487530,0.064502
0.100657,0.491189,0.430855,0.672366,0.513909,-0.532748
0.421546,-0.039551,-0.908185,0.328217,0.125151,-0.936275
0.336595,-0.621945,0.546838,0.992880,-0.119109,0.001491
0.602137,0.188257,0.661556,0.244833,0.774625,-0.583106
0.046063,-0.161310,0.896763,0.994985,-0.090477,0.042636
-0.294797,0.277948,0.311800,0.584906,0.707473,0.396695
0.093431,0.072315,0.783069,0.220778,0.771780,-0.596332
-0.582116,-0.422130,0.328257,0.810090,-0.482790,-0.332668
-0.024387,0.359336,0.369689,-0.121761,-0.258017,0.958437
-0.034774,-0.563626,0.273235,0.344215,0.296783,0.890750
0.388930,-0.323439,0.564982,0.185979,0.422342,0.887152
0.588288,0.274219,0.521056,-0.049066,0.827669,0.559067
-0.482915,0.581028,0.209323,0.390014,0.349559,0.851879
-0.102916,-0.549009,0.528972,0.361104,-0.872570,-0.328976
-0.014652,-0.300967,0.367846,0.542951,0.673710,0.501316
0.009282,-0.235935,0.799418,-0.388817,0.918577,-0.070982
-0.482212,0.350636,0.419217,-0.107730,-0.540450,0.834451
0.157207,-0.813409,0.562982,-0.317243,-0.747109,-0.584110
0.510361,-0.677083,0.408182,0.779611,0.405042,-0.477648
-0.434242,-0.245681,0.406049,-0.083897,0.886089,0.455859
0.176877,-0.015487,0.848115,0.099737,-0.472709,-0.875556
0.176024,-0.711934,0.527141,-0.027422,0.536198,0.843647
0.565909,0.232556,0.433699,0.058921,-0.780565,0.622291
-0.742385,0.045964,0.389291,-0.179014,0.553461,0.813409
0.277484,-0.605836,-0.198431,0.292576,0.954842,0.051731
0.017361,-0.044174,0.815502,-0.520276,-0.326596,-0.789081
0.277484,0.502225,0.586921,0.523998,-0.233114,-0.819197
-0.144915,0.175578,0.830911,0.850472,-0.216639,0.479337
0.034924,0.309271,0.794683,0.777404,-0.263814,0.571003
-0.299011,-0.186615,0.515310,0.429705,0.875617,0.220566
-0.175574,-0.799587,0.466227,-0.069066,0.859258,0.506858
-0.046816,-0.292466,0.161300,0.945623,-0.145705,-0.290803
-0.161574,-0.311010,0.561500,0.135133,-0.946594,-0.292744
-0.838728,0.027569,0.123302,-0.652072,0.635076,0.414101
0.288724,-0.248564,0.876945,0.995762,0.091944,0.002152
-0.044609,-0.057200,0.825357,0.735825,-0.280600,0.616300
0.155552,0.320506,0.692760,-0.273662,-0.646890,0.711789
-0.131969,-0.375096,0.078400,0.370313,-0.514351,-0.773506
0.436149,0.037164,0.768805,-0.879508,-0.170611,0.444249
-0.399519,0.496458,0.449975,-0.026427,-0.838033,0.544979
0.051383,-0.538470,0.522370,-0.775463,-0.459424,0.433113
0.209192,-0.487011,-0.188323,0.430976,-0.760505,-0.485687
0.249735,-0.160762,0.769769,0.939127,0.218480,0.265154
0.113251,-0.472047,0.457095,0.219085,0.244219,0.944647
0.259621,0.262635,0.833730,0.020918,-0.946121,0.323138
0.234632,-0.318617,0.560669,0.811590,0.539327,0.224608
0.124341,0.255127,0.703772,0.990398,0.073832,0.116881
0.246876,-0.308326,0.704952,0.224209,-0.535505,0.814227
-0.390286,0.477565,0.185516,0.636055,0.242589,-0.732519
0.248130,0.108212,0.018367,-0.663655,0.746856,0.042044
-0.202620,-0.305094,0.587463,0.879954,-0.460339,-0.117343
-0.264490,-0.083303,0.639244,0.154510,-0.734081,0.661251
0.726328,-0.627315,0.456408,-0.430251,-0.203525,0.879467
0.410255,0.407563,0.718060,0.992963,0.103755,-0.057098
-0.596970,0.112437,0.451132,0.625720,0.032422,0.779373
-0.067490,0.825242,0.262959,-0.393006,-0.362346,0.845134
-0.596770,0.026027,0.274368,-0.459649,0.064918,-0.885725
0.129509,-0.764338,0.182914,-0.435224,-0.292436,0.851505
-0.178284,0.517141,0.408266,0.348386,-0.440024,0.827651
0.506898,-0.129638,0.491323,-0.626295,0.728665,0.277132
-0.346582,0.056605,0.565392,0.818967,0.095793,0.565789
0.711425,-0.053869,0.301511,-0.700694,-0.369172,0.610525
-0.043556,0.025132,0.675158,-0.685932,-0.672360,-0.278262
-0.087059,0.686629,0.413724,0.567178,-0.075822,-0.820098
0.049325,0.110697,0.854054,-0.066412,0.080003,0.994580
0.034772,0.517588,0.398821,0.458292,0.569880,-0.682059
0.100957,0.101102,-0.276609,0.679239,0.731379,-0.060975
-0.641678,-0.180202,0.313668,0.287834,0.956693,-0.043480
0.058457,-0.367390,0.621631,0.135818,0.474892,0.869501
-0.091576,0.357000,0.543718,-0.399882,0.886830,-0.231576
0.555822,-0.079921,0.356726,-0.266490,0.294168,0.917850
-0.062873,-0.429686,0.763829,0.405467,0.813577,0.416761
0.426513,-0.758918,0.467300,-0.333285,0.941268,0.054179
-0.949271,-0.049146,0.231900,0.866779,-0.273798,-0.416807
0.963268,-0.274964,0.199190,-0.356487,0.027647,-0.933891
-0.081992,0.439680,0.584885,-0.619500,0.784795,0.017773
-0.425662,-0.000919,0.666797,-0.400556,0.431344,-0.808392
-0.317828,-0.134959,0.011283,-0.576890,0.578768,0.576390
-0.213157,0.031347,0.095556,-0.656216,-0.466508,0.593086
-0.359025,0.488404,0.444590,0.140368,-0.796822,0.587683
0.074916,0.528774,0.778443,0.842757,0.520897,0.135743
-0.147976,-0.354463,0.748276,0.331257,0.814411,0.476449
-0.217322,0.771697,0.249887,-0.188604,0.125794,0.973963
0.455768,0.175628,0.737614,0.924491,-0.036116,-0.379490
-0.132672,-0.276008,0.591463,-0.478029,0.071688,-0.875414
0.367806,0.081065,0.776732,-0.240779,0.397463,0.885465
0.307691,-0.419097,0.701181,-0.685745,0.046349,0.726364
