0.120650,-0.272461,0.331466,-0.281742,-0.326090,-0.902378
-0.351493,-0.188973,0.490438,0.858810,-0.399074,0.321225
0.294910,-0.193544,0.658896,0.959285,0.163862,0.230048
0.741985,0.789958,0.383035,0.340960,-0.691507,0.636839
0.124118,-0.760105,0.738177,0.756677,0.402143,0.515481
-0.455057,0.230467,0.388760,0.769928,0.544260,0.333154
0.536958,0.464362,0.517540,0.323236,0.504414,-0.800678
0.140274,0.669261,0.475212,0.240741,-0.521361,0.818674
0.204223,-0.161619,0.127729,-0.687898,0.722050,-0.073754
0.476973,-0.837237,0.719525,-0.216956,0.975839,-0.025858
0.143308,0.307741,0.577880,-0.672425,0.337327,-0.658828
0.008108,0.177761,0.556229,0.582461,0.699012,-0.414874
0.030892,0.757748,0.258321,0.144870,0.733443,0.664134
0.545625,-0.965362,0.560248,-0.515179,0.339652,0.786910
0.735672,0.625768,0.377950,-0.389507,-0.610094,0.689978
0.152036,-0.012355,-0.964235,-0.109222,0.113039,0.987569
0.619601,0.312241,0.503426,-0.127067,-0.579832,0.804766
0.250402,0.090058,0.896190,0.839497,0.455561,0.296156
-0.422187,0.412369,0.381878,0.790555,0.049773,-0.610365
0.604620,0.242751,0.179619,-0.273299,-0.799387,0.535059
0.703726,-0.429938,0.740735,-0.615812,-0.630973,0.471857
0.377119,-0.715398,0.694373,-0.286608,0.955950,-0.063359
0.097251,0.221254,0.731935,0.999817,-0.001468,-0.019058
-0.028103,-0.165190,0.850163,0.470206,0.684741,-0.556808
0.860780,-0.501785,0.537181,0.782083,-0.075093,-0.618633
-0.299988,0.502071,0.432946,-0.555722,-0.657511,0.508776
0.464901,0.376660,0.345702,-0.113455,-0.389123,0.914173
0.111366,0.596415,0.501873,0.691221,-0.203702,-0.693339
0.097190,0.781959,0.515424,0.804657,0.273988,-0.526743
0.346477,-0.177689,-0.791072,-0.559175,0.825147,0.080347
0.043889,0.021069,0.850833,0.429819,-0.902793,-0.014879
-0.385849,-0.743607,0.534228,0.523514,-0.638694,-0.563918
-0.191284,0.006571,0.628186,0.881571,-0.315077,0.351510
-0.137675,-0.200971,0.492585,-0.128834,0.081452,-0.988315
0.492759,-0.689758,0.715186,0.543305,0.816237,0.196408
0.491270,-0.462719,0.733792,0.293320,0.894498,0.337398
-0.170607,-0.158192,0.774947,0.847136,-0.311225,0.430697
0.111306,0.659905,0.586604,0.775616,0.522091,-0.354741
0.256284,-0.345879,0.939949,-0.217751,-0.934370,0.282023
0.253500,-0.491643,0.088310,0.804531,-0.271681,0.528128
-0.576761,0.111556,0.501157,0.252303,0.813739,0.523614
0.701376,-0.001571,0.612199,0.014589,-0.732811,0.680276
0.742975,-0.169475,0.590457,0.597140,0.713029,0.367443
-0.697722,0.001000,0.530817,0.905061,0.091791,0.415258
0.245263,-0.187759,0.989860,0.997968,0.063659,-0.002864
0.113781,0.020711,0.791437,0.300721,0.941082,-0.154696
0.655257,0.674261,0.377189,0.493826,0.451181,-0.743352
0.065989,-0.214684,0.840144,0.927923,-0.356247,0.109759
0.135695,0.580631,0.474329,-0.646410,0.382938,-0.659934
0.444842,-0.119911,0.379823,-0.440843,0.783229,0.438417
0.089577,-0.322882,0.349706,-0.683918,0.510745,-0.520957
0.470595,-0.217397,0.726179,0.057273,0.620059,0.782462
0.029713,-0.574632,0.750403,-0.135738,0.896794,-0.421113
0.409806,-0.741465,0.743293,0.925178,0.303376,-0.228052
-0.368021,0.783603,0.485931,-0.128647,-0.908434,0.397742
-0.047977,-0.277531,0.785514,-0.235641,0.950467,-0.202698
-0.418534,-0.150336,0.672265,0.931077,-0.349984,0.102993
0.434384,-0.633909,0.749688,0.917832,0.189881,0.348611
0.609570,-0.147693,0.726088,-0.197315,0.152201,0.968453
0.383248,0.458149,0.350163,-0.153841,-0.596771,0.787526
0.277949,-0.163120,0.868160,0.930750,0.242833,-0.273379
0.193390,-0.404513,-0.981790,-0.024136,-0.130707,0.991127
0.175065,0.497715,0.617893,0.782740,0.571166,0.247156
0.902810,0.077632,0.469762,-0.096242,-0.633159,0.768015
0.414574,-0.356948,0.907473,0.237716,0.851729,-0.466956
0.871858,-0.501428,0.541962,0.946851,-0.047300,-0.318177
0.272006,-0.384730,0.891288,-0.396718,-0.640643,0.657413
-0.209669,0.443651,0.423049,0.209535,-0.572530,0.792657
0.770523,0.487573,0.535385,-0.292850,0.638938,-0.711335
0.309521,0.635551,0.369515,0.071622,0.030984,0.996950
-0.076575,-0.184544,0.697235,-0.174046,-0.547611,0.818431
0.104433,0.568347,0.599424,0.789781,-0.584402,0.186335
-0.486691,-0.684187,0.305247,0.316154,0.078880,0.945423
0.281044,-0.283317,0.925591,0.931220,0.100423,-0.350350
0.495109,-0.447221,0.810637,0.828968,-0.512914,-0.223008
0.142379,-0.659977,-0.977039,-0.252325,0.123004,0.959793
0.406341,-0.920439,0.524742,-0.426127,0.731353,-0.532483
0.237714,0.214612,-0.938868,-0.109808,-0.543450,0.832229
-0.246935,-0.057420,0.374144,0.684786,0.357891,0.634809
0.494058,-0.950292,0.626191,0.371409,0.827984,-0.420116
0.516838,-0.488502,0.501949,0.275990,-0.745033,-0.607252
-0.041414,-0.781531,0.650096,0.879475,-0.303579,0.366557
0.117434,0.625982,0.621517,-0.844249,0.535791,-0.013089
0.109696,0.274175,0.576373,-0.313498,-0.598265,0.737426
-0.663241,0.260820,0.360790,-0.164444,0.043247,0.985438
0.325617,0.295386,0.727062,0.246919,0.793543,-0.556166
-0.067103,-0.635837,0.539435,0.487160,0.574460,-0.657777
-0.027858,0.332166,-0.977344,0.467216,-0.054256,-0.882477
0.355144,0.555135,0.365632,0.263723,-0.225107,0.937964
0.387581,-0.179045,-0.942721,0.861860,0.184958,0.472215
0.138480,0.144837,0.810241,0.852503,0.400517,-0.335894
0.859291,-0.108913,0.673955,-0.619217,-0.685266,0.383382
0.298624,0.327953,0.683151,0.176053,0.984289,0.013437
0.688934,-0.246036,0.744861,-0.612088,0.676492,0.409521
0.428130,-0.330453,0.309845,0.475892,0.849979,-0.225971
0.300298,0.536923,0.576266,0.875345,0.182318,-0.447808
0.202613,0.402513,0.623299,-0.602649,0.638075,-0.479244
0.471959,-0.196900,0.823487,-0.130659,0.325852,0.936349
0.186083,-0.085345,0.969746,0.070578,0.954850,0.288583
0.487125,-0.683188,0.717135,0.764103,0.614903,0.195043
0.123438,0.401800,0.789473,0.903090,0.216514,0.370878
0.330816,-0.677046,0.389613,0.748110,-0.217997,-0.626745
-0.291136,-0.148979,0.764548,-0.437210,0.725768,-0.531139
0.360963,0.099129,-0.953196,0.944384,0.268318,-0.190119
0.364617,-0.108841,0.933920,-0.756541,0.100074,-0.646243
0.472269,-0.344164,0.463321,0.484465,0.863679,0.139111
-0.254365,0.018855,0.434194,0.991301,-0.123647,0.045100
0.307356,-0.244607,-0.775206,-0.448580,0.893051,0.035165
-0.437476,-0.138837,0.556594,0.749219,-0.009166,0.662259
0.042653,0.486074,0.642529,-0.297841,-0.757860,0.580465
0.824379,-0.208399,0.637702,0.654297,0.403767,-0.639428
-0.021480,-0.302100,0.523600,0.815183,-0.569845,-0.103699
-0.417111,0.238466,0.383157,0.369822,-0.227225,0.900889
0.170297,0.673403,0.594308,0.973232,0.169525,-0.155180
0.558933,-0.185473,0.240507,-0.064679,0.836776,0.543712
0.519997,-0.589773,0.793843,0.827588,0.348809,0.439808
0.537763,0.156835,0.626633,0.746787,0.199883,0.634316
-0.659217,-0.405371,0.505162,-0.698011,-0.652018,-0.296063
0.075461,-0.158120,-0.971954,0.790831,0.174599,-0.586601
0.727250,0.421511,0.524711,-0.027739,-0.743701,0.667937
0.163923,0.646336,0.604418,-0.394217,0.906343,0.152103
0.407021,0.364376,0.750403,0.861315,0.472293,0.187286
-0.113717,-0.640266,0.520494,0.729987,0.117313,-0.673318
-0.086169,-0.151763,0.442172,-0.564990,-0.670065,-0.481456
0.503901,-0.814812,0.554189,0.330553,0.400377,0.854654
0.678347,0.072847,0.337815,-0.359907,0.862025,0.356903
0.253435,-0.298171,0.815585,-0.749072,-0.285606,0.597763
0.041785,0.371589,-0.961220,-0.633617,0.054278,0.771741
0.417544,-0.312241,0.555391,-0.620913,0.166049,0.766090
0.735112,0.206613,0.000518,0.226339,-0.508728,0.830642
0.360902,-0.369732,0.865754,-0.781458,0.510535,0.358716
0.082579,-0.207113,0.768050,-0.343263,0.938240,0.043306
0.055341,0.845807,0.508755,0.557587,0.807538,-0.192297
0.428255,-0.593843,-0.962651,-0.246420,-0.047116,0.968017
0.282408,0.078560,0.902555,0.828303,-0.297759,0.474609
0.183113,0.160263,0.718977,0.416357,-0.542842,0.729362
-0.238144,-0.397443,0.457185,0.946567,0.157424,-0.281474
0.128637,-0.375589,0.727367,-0.619119,0.335578,-0.709985
0.381517,-0.543851,0.503776,-0.566165,0.242692,0.787755
0.029528,-0.057492,0.864612,-0.461970,0.741180,0.487068
-0.451715,-0.293100,0.294436,-0.229845,-0.561885,0.794642
0.483472,-0.335452,0.677731,0.135835,0.889697,-0.435876
0.047667,-0.464218,0.728722,0.838312,-0.064098,-0.541410
0.134210,-0.642051,-0.985353,-0.303390,0.038671,0.952081
-0.409930,-0.426796,0.285468,0.423924,-0.140980,0.894658
0.515538,0.314955,0.710207,0.342997,-0.759017,0.553396
0.953262,-0.353164,0.311703,-0.069525,-0.313973,0.946883
0.218894,-0.256249,0.815235,0.837465,0.472691,0.274254
0.411664,-0.755820,0.766314,0.894780,-0.298645,0.331933
0.485266,0.389587,0.747693,-0.791190,0.278807,-0.544321
0.333170,-0.247678,0.553747,0.783333,-0.048163,0.619733
0.122384,0.209756,0.839109,-0.069847,0.989423,-0.127138
0.278444,0.121340,0.841545,-0.121089,-0.901215,0.416112
0.215490,-0.100343,0.892080,-0.539494,0.101133,-0.835894
0.135570,0.132695,0.554798,-0.650458,-0.738767,0.176431
0.552249,-0.727396,0.679040,-0.596022,0.800626,0.061276
-0.362573,-0.179974,0.747160,-0.389837,0.918308,-0.068836
-0.617803,-0.104413,0.573251,-0.256627,0.783467,0.565971
0.293240,-0.186544,0.679877,0.918094,-0.214864,-0.333072
0.353474,-0.384302,0.767959,0.720950,0.604676,0.338524
0.421817,0.147050,0.806510,0.980958,-0.179361,0.074500
0.121579,0.468219,-0.966153,-0.019433,0.075731,0.996939
0.143558,0.352378,0.606215,0.066688,0.956515,-0.283956
0.165472,-0.144479,0.889339,-0.325081,0.532289,-0.781659
-0.133341,-0.164334,-0.984424,-0.199392,-0.102106,0.974586
-0.259441,-0.151835,0.801182,0.359043,0.826092,0.434350
0.324937,-0.208399,0.567557,0.275908,-0.844252,0.459471
-0.198774,0.021783,0.625887,0.935036,-0.059016,0.349606
0.300918,0.080417,0.749033,-0.739893,0.236677,0.629716
0.399407,-0.463862,0.805658,-0.669080,-0.671666,-0.318115
0.768849,0.129410,0.614772,-0.720154,-0.647546,0.249123
0.765445,-0.618911,0.571637,0.464637,0.701345,-0.540581
0.153336,-0.780530,0.644158,0.280456,-0.954602,-0.100402
0.202428,-0.279102,0.911904,-0.105245,0.777241,0.620339
-0.289649,-0.034066,0.658105,0.882583,-0.297728,0.363876
0.459453,-0.060991,0.351092,-0.140397,0.905976,0.399370
0.305497,-0.189187,0.972045,0.971221,0.237895,0.011657
0.662436,0.331095,0.513292,-0.159922,-0.588926,0.792206
-0.327721,0.241466,0.544840,-0.039742,-0.200073,0.978975
0.652099,0.910012,0.406392,0.599831,0.287196,-0.746807
0.130866,0.604557,0.610143,-0.695818,0.717831,-0.023587
-0.239879,-0.318097,0.435930,0.934197,-0.355592,-0.028821
0.597252,-0.777460,0.546956,0.021210,-0.236793,-0.971329
0.282717,0.115127,0.853558,0.054250,-0.720122,-0.691724
0.021665,-0.291316,0.780231,0.994793,-0.050005,0.088807
0.006438,0.189830,-0.982658,0.337011,0.216954,-0.916163
0.009597,-0.061348,0.861597,0.848280,-0.484831,-0.212979
0.455119,0.339380,0.721870,-0.365378,0.847521,-0.384976
0.256840,-0.174332,0.605225,-0.232492,0.937118,-0.260301
-0.335954,-0.091844,0.773927,0.811430,0.170902,0.558904
-0.335582,-0.046635,0.684902,-0.381208,0.910613,0.159574
0.297139,-0.237324,0.473096,-0.624402,-0.265579,-0.734568
0.282532,-0.604342,0.610326,0.856955,-0.510267,0.072503
0.374149,-0.718326,-0.976902,0.307746,0.187461,-0.932819
0.403617,0.372090,0.765523,0.418420,0.907580,0.034975
0.070696,-0.069775,0.888334,-0.011431,-0.958945,0.283362
0.606785,0.860733,0.391699,0.778419,0.031601,-0.626949
0.176490,0.101843,0.537181,0.961217,0.063282,-0.268434
0.333600,0.855449,-0.962621,-0.085169,-0.294814,0.951752
0.669804,0.103771,-0.006776,-0.239867,-0.348343,0.906157
0.004273,0.382374,0.788559,0.142436,-0.965492,0.218029
-0.124054,-0.250679,0.746764,0.935958,-0.030941,-0.350751
-0.044324,-0.647979,0.539694,-0.515584,-0.566540,0.642811
0.632353,-0.456292,0.710527,-0.506996,-0.521526,0.686269
-0.039555,-0.722254,0.685968,0.541889,-0.687516,0.483404
0.007798,-0.402513,0.897393,0.841055,-0.409607,0.353339
0.145228,0.994500,-0.961738,0.198768,0.070738,-0.977490
0.721495,-0.472575,0.735969,0.590737,0.617128,-0.519791
0.834777,0.161406,0.478471,-0.002657,-0.785451,0.618918
0.028292,0.270748,-0.966914,0.579220,0.172551,-0.796700
0.210476,-0.152263,0.809906,0.141843,-0.373634,0.916667
0.180019,0.714040,0.586711,0.992350,-0.009339,0.123100
-0.192646,-0.017498,0.602241,0.998031,0.046323,-0.042290
0.368267,-0.205684,0.763269,0.146438,0.395708,0.906626
-0.171412,0.014284,0.770258,-0.160377,0.959694,0.230796
0.096510,0.782102,-0.970036,0.022420,0.049371,0.998529
0.591184,0.207184,0.624258,-0.315224,0.783060,-0.536144
0.270087,-0.411370,0.703295,0.034540,0.940214,-0.338829
-0.248854,-0.690972,0.516490,0.219782,0.686843,0.692779
0.486381,-0.700900,0.537791,0.378640,0.562647,-0.734888
0.143493,0.145408,0.469807,0.866697,0.147004,-0.476683
0.067043,0.364804,0.590974,0.254499,0.771160,-0.583560
0.598118,-0.210755,0.231265,-0.106997,0.792975,0.599786
0.555094,0.244679,0.487027,-0.124085,-0.402513,0.906965
0.741241,-0.534352,0.527574,0.524886,-0.693998,-0.492809
-0.517208,-0.211684,0.707558,0.963682,-0.027091,-0.265674
0.281168,-0.499429,0.548113,0.679156,-0.230209,-0.696958
0.147582,-0.229038,0.812921,-0.067505,-0.992692,-0.100027
0.544635,-0.067133,0.741055,-0.733106,0.596021,-0.327588
0.494429,-0.264605,0.557797,-0.647264,0.567922,-0.508443
0.383622,0.431582,0.769557,0.081978,-0.950326,-0.300267
0.093910,-0.172118,-0.985109,0.429949,0.155569,-0.889349
0.147517,0.028495,0.552407,0.896188,0.413162,-0.161691
0.765075,0.134338,0.633561,0.160852,0.959715,0.230376
0.092422,-0.309884,-0.076753,-0.393024,0.871589,-0.293028
-0.084189,-0.311312,0.770349,-0.028734,-0.931877,0.361635
-0.386344,-0.316454,0.458829,0.310050,-0.759515,0.571844
-0.394267,-0.233109,0.481424,-0.079976,-0.688980,0.720355
0.936611,-0.265747,0.653354,0.455646,0.830173,-0.321247
0.350565,-0.847879,0.550671,0.219935,-0.729012,0.648205
0.774793,0.238466,0.006166,-0.402631,-0.187457,0.895962
0.294604,-0.403656,-0.979689,-0.144001,-0.251111,0.957187
-0.241921,0.746678,0.457718,0.009852,-0.238111,0.971188
0.028228,-0.080489,-0.984363,0.506668,0.101233,-0.856177
0.421567,-0.002499,0.617467,-0.681244,0.605921,-0.410812
0.482172,0.638266,0.354944,-0.294609,-0.277613,0.914405
-0.075276,0.399086,-0.987134,0.279268,-0.037863,-0.959466
-0.264888,-0.627053,0.406194,0.355957,0.256527,0.898604
0.563451,0.061419,0.611605,0.196245,0.901268,-0.386269
0.281354,-0.148550,-0.912695,0.012530,0.950799,0.309554
0.063019,-0.253321,0.803237,-0.540483,0.766026,-0.347970
0.094526,-0.571346,0.740096,-0.782527,0.315172,0.536953
-0.014917,-0.313383,0.815418,0.913399,0.284535,0.291106
0.058500,-0.355734,0.783428,0.549091,-0.810139,-0.205362
0.229292,0.296029,0.573769,-0.391152,0.344255,-0.853515
0.134890,-0.333452,0.655044,0.299342,-0.950646,-0.081647
0.550390,0.054707,0.611179,0.061426,0.786172,-0.614947
-0.326729,-0.064634,0.708197,0.630685,0.769797,-0.098225
-0.152656,-0.071204,0.792975,0.873847,-0.479846,-0.078358
0.479138,-0.682402,0.523981,-0.058574,0.818901,0.570937
0.230841,-0.208685,0.909924,0.339175,-0.127752,-0.932009
-0.113471,0.493287,0.432534,-0.025480,-0.850755,0.524945
0.784325,0.615984,0.582859,0.257167,-0.895286,0.363770
0.735422,0.138409,0.664317,-0.654399,-0.429192,0.622540
0.277020,-0.265818,-0.955008,0.495640,0.834041,-0.242314
0.168442,0.629482,0.612686,0.924615,-0.253453,0.284340
0.187507,-0.398656,0.880173,0.259345,0.859896,-0.439680
0.679152,0.001000,-0.053351,0.160487,-0.594720,0.787752
-0.327102,0.584417,0.411036,0.922510,-0.377522,0.080323
0.005263,-0.619696,0.751880,-0.354774,-0.928316,0.111194
-0.230284,-0.029281,0.585036,0.961790,0.198768,-0.188286
-0.550762,-0.077131,0.311581,-0.145324,-0.148216,0.978219
0.253870,-0.074060,0.558406,-0.520743,-0.086132,0.849358
0.265632,0.336023,0.568881,0.767403,-0.131691,0.627495
-0.248917,-0.683331,0.520875,0.263595,0.573607,0.775560
0.058995,0.490644,0.500959,0.826134,-0.453983,-0.333769
0.449610,0.366162,0.744983,-0.734037,0.350351,-0.581759
-0.229107,-0.214755,0.709096,-0.643725,-0.732354,-0.221981
-0.557448,-0.428724,0.481820,0.846898,-0.318688,0.425679
0.355144,0.643765,0.605713,-0.577620,-0.692759,0.431788
0.589390,-0.458649,0.690368,-0.650491,-0.352832,0.672585
-0.186393,-0.000642,0.661287,-0.548598,0.595380,0.586994
0.149127,0.146908,0.563096,-0.013718,-0.642390,0.766255
0.431474,-0.213826,0.726149,-0.349342,0.491278,0.797876
0.440633,0.547136,0.512866,-0.383184,-0.097087,-0.918556
-0.404357,-0.179474,0.739822,-0.391917,0.908488,0.145089
0.250031,-0.207327,0.910000,0.415688,0.194210,-0.888530
0.411910,0.201472,0.332821,-0.277824,-0.140748,0.950265
0.491459,0.104200,-0.032538,0.435207,-0.088309,-0.895989
0.641946,0.607556,0.363546,0.451103,0.424501,-0.785051
0.170112,-0.587345,0.694494,0.776316,0.183065,0.603175
0.191221,0.215683,0.734995,-0.369273,0.301360,-0.879102
0.399963,-0.281960,0.563476,0.361692,0.278520,-0.889722
0.263958,-0.173689,0.598968,-0.207899,0.943823,-0.256858
0.391730,0.039352,0.135738,-0.665844,0.691231,-0.280806
0.130307,0.146051,0.868327,0.890440,0.425013,-0.162730
-0.014732,-0.750749,0.652182,0.759808,-0.504044,0.410649
0.722795,-0.677331,0.539602,0.162937,-0.701707,0.693584
0.025814,0.154978,-0.978730,-0.281147,-0.155107,0.947047
0.148692,0.896443,0.529599,-0.608290,-0.793112,0.030920
-0.266992,0.621483,0.401611,-0.585537,0.697837,0.412517
0.348211,-0.027639,0.872986,0.863323,0.459216,-0.209270
-0.013496,-0.294815,0.788377,0.629907,0.705193,0.325453
0.323202,-0.043636,0.844986,-0.703697,-0.639971,-0.308621
-0.267240,0.385374,0.404184,-0.489888,0.074147,0.868626
0.181874,-0.335809,0.684186,-0.721712,-0.502297,-0.476266
0.566361,-0.713684,0.456880,0.791577,0.082266,-0.605506
0.447011,-0.671903,0.511023,-0.026973,0.671225,0.740763
0.215920,-0.358877,0.500853,0.979399,0.103332,-0.173493
0.156740,-0.094487,0.841286,-0.177377,-0.773637,0.608295
0.158290,-0.241894,-0.962956,-0.221785,-0.617599,0.754574
0.106908,0.640909,0.661622,-0.052171,0.837038,-0.544652
-0.142379,0.042708,0.578991,0.839721,-0.376923,0.390893
0.383437,0.017640,0.791467,-0.849612,0.422034,0.316301
-0.342763,-0.014712,0.535811,-0.548678,0.097206,-0.830364
-0.482295,-0.756248,0.526645,-0.054311,0.793495,0.606148
0.642010,0.253249,0.200097,-0.019715,-0.652771,0.757299
-0.714065,-0.289744,0.523691,0.986346,-0.101339,-0.129815
-0.230036,-0.697471,0.625095,0.345014,-0.172095,0.922686
-0.410486,-0.108698,0.550001,0.767072,-0.101405,0.633496
-0.059305,0.017426,0.749688,-0.732216,0.677265,-0.071911
0.638976,0.138551,-0.012698,-0.698764,0.081865,0.710652
0.201128,-0.128196,0.865724,-0.507983,0.841657,0.183212
-0.062339,-0.263963,0.802400,0.042955,-0.999071,-0.003425
0.358858,0.419083,0.337693,-0.574026,-0.180599,0.798673
-0.044633,0.020354,0.512896,0.286461,-0.809225,0.512927
-0.265012,0.116769,0.709324,0.790871,-0.433525,-0.431947
0.107033,-0.499071,0.745242,0.151260,0.654636,0.740657
0.052186,-0.292101,0.891486,0.998127,0.022849,0.056757
0.748484,-0.509998,0.712339,-0.396410,-0.697622,0.596811
-0.055776,-0.255178,0.824492,-0.775983,0.429845,-0.461609
0.180079,0.721683,0.477694,-0.379669,0.373343,-0.846443
0.875326,-0.025782,0.449176,-0.051665,-0.823253,0.565318
0.584005,-0.661619,0.465818,-0.560871,0.141744,0.815679
-0.608642,0.028925,0.302141,0.412892,-0.193068,-0.890081
0.467316,-0.036709,0.719998,0.026951,-0.947463,0.318728
0.970967,-0.140265,0.593547,-0.306499,0.939403,-0.153558
-0.163118,0.696330,0.463260,-0.302385,-0.261164,0.916710
-0.378296,0.480931,0.404626,0.840072,0.320612,-0.437592
0.293675,-0.248179,-0.178538,0.966036,-0.256343,0.032604
0.751148,0.172761,0.665428,0.455311,0.164567,-0.874991
-0.288474,-0.112555,0.487911,0.352977,-0.932246,0.079531
0.322643,-0.744322,0.713389,-0.354497,-0.749805,0.558680
0.537823,0.151978,0.488748,0.545367,-0.510872,0.664518
-0.104558,-0.454077,0.454734,-0.273138,0.907876,0.318051
0.140769,0.442079,0.460261,0.069071,-0.598737,0.797962
0.614028,-0.377375,0.695895,0.786323,0.026320,-0.617255
0.466571,-0.059206,0.718277,-0.119567,-0.945303,0.303491
0.310386,0.062848,-0.971193,-0.162904,-0.117967,0.979564
0.115825,0.563349,0.657724,0.856790,0.254534,-0.448468
0.351185,-0.342022,0.603200,-0.304887,0.078403,0.949156
0.862201,0.142623,0.656993,-0.280686,0.781014,-0.557882
0.156680,0.058706,0.838561,0.996134,0.087817,0.002290
0.409806,-0.441293,0.263026,0.957871,0.136460,-0.252707
0.192895,-0.145479,0.805247,0.092022,-0.440168,0.893187
0.213570,0.390372,-0.936950,0.141192,-0.954320,0.263321
-0.088523,0.386087,-0.984987,0.279268,-0.037863,-0.959466
-0.291011,0.050779,0.533634,-0.568909,0.052863,-0.820700
0.112107,0.510427,0.638920,-0.339821,-0.601801,0.722743
-0.681316,-0.226182,0.500259,-0.706299,0.707275,-0.030053
0.329765,0.096415,0.887755,-0.540009,0.434168,-0.721033
0.502726,-0.080274,0.760863,0.040663,0.335557,0.941142
-0.033922,-0.376446,0.354959,-0.020912,0.902772,0.429610
0.201684,-0.006571,0.690292,-0.887202,0.441341,-0.134500
-0.431967,-0.568847,0.493057,0.252497,0.867019,0.429562
0.194316,-0.073132,0.848305,0.721915,0.596457,0.350826
0.432834,0.273389,-0.959819,-0.006225,-0.243630,0.969848
-0.030703,-0.735966,0.682938,-0.565994,0.729432,-0.384161
0.250526,-0.466218,0.688541,-0.638513,0.631461,-0.439952
-0.183113,-0.262177,0.452891,0.800567,-0.596480,0.057483
0.045378,-0.248321,0.799065,-0.479179,0.875989,0.055049
0.134951,-0.092487,0.857091,0.979973,-0.172765,-0.099019
0.135136,0.234752,0.815311,0.832724,0.387268,0.395720
-0.129812,-0.752321,0.327081,0.382220,-0.000741,0.924071
0.270891,0.044565,0.901839,0.785790,-0.424340,0.449967
-0.094711,-0.290672,0.787387,0.122890,-0.977518,0.171340
0.282158,-0.888015,0.755047,-0.112031,0.953028,0.281401
0.273495,-0.563062,-0.984394,0.263604,-0.064685,-0.962460
0.038751,-0.720326,-0.089467,0.220139,0.691580,0.687936
0.404297,0.079274,0.847118,-0.477600,-0.026999,0.878163
0.066178,0.080132,0.385730,-0.256253,-0.846356,0.466923
0.406836,-0.326382,0.432199,0.752796,0.658253,0.000551
0.286802,-0.249821,0.847087,-0.545957,-0.739837,0.393157
0.122879,-0.772103,0.724672,0.931757,-0.003988,0.363060
-0.425406,-0.829596,0.547261,-0.100870,0.921770,0.374385
0.357808,-0.190044,0.723956,0.060784,-0.051346,0.996829
0.827039,-0.349021,0.595298,0.804852,0.539175,0.247999
-0.491085,-0.420797,0.302689,0.365757,-0.021668,0.930458
-0.024329,-0.799671,0.421024,0.134773,0.921981,0.363024
-0.767674,-0.045136,0.559381,0.883598,0.392284,-0.255670
0.106167,-0.184331,0.721581,-0.423130,-0.378650,0.823156
0.056951,-0.190258,0.672402,0.194926,0.974359,0.112379
-0.244521,-0.332166,0.730914,0.305990,-0.042274,0.951096
-0.308221,-0.302385,0.625034,-0.447195,0.870378,-0.206055
-0.019500,0.219326,-0.980328,-0.480272,-0.196234,0.854886
-0.248174,0.120055,0.697144,0.778421,-0.521729,0.349085
0.310945,0.255677,-0.948887,0.441408,-0.598177,0.668837
0.883189,-0.613126,0.548311,-0.778004,0.523341,-0.347598
0.144363,0.166547,0.888593,0.762558,0.607135,-0.223365
0.375510,-0.186831,-0.066659,0.344919,0.631029,-0.694862
0.212826,-0.136052,0.878985,0.952476,-0.277007,-0.126714
0.325307,-0.341236,-0.939493,-0.076988,0.958867,-0.273217
0.226197,0.335381,0.702427,0.039840,-0.615155,0.787399
0.496288,-0.308813,0.858095,0.798985,0.325990,-0.505326
-0.949858,0.175546,0.509242,0.760872,-0.376766,0.528318
0.338119,-0.381231,0.836323,-0.055586,-0.909824,0.411254
0.359603,-0.450007,0.886096,0.040010,-0.972717,0.228517
0.662561,0.607985,0.534623,-0.633556,-0.187606,0.750607
0.280738,-0.359734,0.460215,0.412254,0.498799,0.762395
0.755973,0.790030,0.391409,0.327374,-0.696816,0.638180
0.677727,0.545279,0.547520,-0.639266,0.384124,0.666174
0.603256,-0.676403,0.703219,0.133698,0.975197,-0.176396
0.541352,-0.607055,0.676010,-0.138933,-0.444518,-0.884930
0.271201,-0.162191,-0.464021,0.959921,-0.279895,-0.014506
0.321158,-0.103557,0.750480,-0.120281,0.819591,-0.560181
0.751333,0.830881,0.387664,-0.322962,0.675106,-0.663270
-0.250154,0.127624,0.695941,0.738337,-0.499356,0.453323
0.286492,0.520354,0.591370,-0.537911,0.842370,-0.032628
0.524886,-0.617839,0.457215,0.657047,-0.372889,-0.655166
-0.292806,-0.236180,0.656597,-0.516377,0.831731,-0.203910
0.276404,0.283817,0.665398,0.923319,-0.005565,-0.383993
0.387521,0.172261,0.329319,0.386145,0.054416,-0.920832
0.353720,-0.410727,0.543713,-0.091131,-0.289909,0.952706
0.287236,-0.466790,0.725144,0.303617,0.785622,0.539086
0.609324,-0.684044,0.521834,0.147019,0.393341,0.907562
0.322027,0.017998,0.665337,0.602137,0.154519,-0.783298
0.109137,0.129481,0.861613,0.891411,0.419299,0.171973
0.953821,0.137480,0.475821,0.070047,-0.603487,0.794290
-0.254735,-0.716040,0.410990,0.130681,0.342845,0.930258
-0.920763,0.086631,0.501675,0.555359,-0.306058,0.773243
0.161074,0.424011,-0.966869,-0.501446,0.488264,0.714248
0.294045,-0.017998,0.844834,-0.559002,-0.829001,-0.016551
-0.346911,0.286888,0.544718,0.166739,-0.250584,0.953628
0.721000,-0.941508,0.589162,-0.159122,-0.947873,0.276074
-0.013742,-0.772603,0.629739,0.849776,0.250856,0.463630
0.143123,0.258106,-0.951110,0.004430,0.289660,0.957119
0.475549,-0.345165,0.561725,0.611379,-0.483157,0.626718
0.297699,0.596486,0.366500,0.075215,-0.109797,0.991104
0.041290,-0.562919,-0.986190,0.318320,-0.347309,0.882071
0.478333,-0.778960,0.718049,-0.787855,0.275472,-0.550817
0.146403,0.815168,0.491595,-0.087643,0.737967,0.669121
-0.644176,-0.141479,0.543317,0.268483,-0.729829,0.628702
0.217779,0.625982,0.567192,0.759094,0.037948,0.649875
0.217160,-0.182617,-0.138342,0.966383,-0.251659,0.052651
0.423362,-0.368305,0.709674,-0.265844,0.762606,0.589711
0.449300,-0.849878,0.540881,-0.128691,0.364054,0.922444
-0.448124,-0.271747,0.695240,0.006959,-0.230817,0.972972
0.078370,-0.162405,0.850985,-0.019738,0.985657,0.167605
0.184598,-0.116697,0.702473,-0.606349,0.656614,-0.448551
-0.973505,0.103129,0.529051,-0.538460,-0.838632,0.082197
0.508235,0.222611,0.495478,0.284869,-0.000755,0.958566
0.465456,-0.836451,0.720546,0.577825,-0.789382,0.207353
-0.489910,-0.632909,0.441122,-0.258041,0.289635,-0.921698
-0.146652,0.059134,0.713603,0.970403,0.103106,0.218375
-0.090876,-0.034924,0.275206,-0.239761,-0.433979,0.868433
-0.148198,0.671475,0.441913,0.724674,0.649777,-0.229428
-0.171969,0.275818,0.402753,0.180401,-0.362493,0.914360
0.610624,-0.433295,0.543424,0.752506,0.244640,-0.611461
0.531509,0.443580,0.519565,0.016180,-0.542045,0.840193
-0.068342,0.676618,0.483130,0.765182,0.534428,-0.359003
-0.212951,-0.709327,0.632190,-0.064915,-0.621550,0.780680
0.251456,0.089487,0.712110,0.586154,-0.638897,0.498231
-0.127152,0.468433,0.466046,0.269671,-0.571297,0.775175
0.270955,-0.123839,0.958068,0.803983,0.417619,0.423327
0.069642,-0.416726,0.677122,0.940926,-0.327282,-0.086867
-0.915007,0.203042,0.508587,0.760872,-0.376766,0.528318
0.241054,-0.167690,0.967341,0.863697,0.501643,-0.048814
0.769839,-0.219825,0.593334,0.151307,0.813476,0.561571
0.238394,-0.185760,0.980968,0.884186,0.465152,0.042991
0.084128,0.453006,0.804029,0.304399,0.937609,0.168022
0.108208,0.215112,0.853452,0.968341,0.071169,-0.239271
0.148692,-0.412298,-0.968467,0.103451,-0.278020,0.954988
0.412284,0.814097,0.355857,-0.634683,-0.019420,0.772528
0.250280,0.501143,0.538125,-0.267180,0.337600,-0.902575
0.419588,-0.010427,0.622491,-0.685139,0.567330,-0.456860
-0.130617,0.192758,0.404732,0.114697,-0.210346,0.970875
0.121084,-0.679189,-0.076251,-0.808415,0.081736,0.582910
-0.299864,0.106342,0.746658,0.977996,0.147891,0.147144
0.879286,0.345593,0.506730,-0.167349,-0.754821,0.634224
-0.313420,-0.629838,0.520357,0.482166,0.311135,0.818969
0.629999,-0.201542,0.571851,0.503133,0.524416,-0.686910
-0.256717,0.180546,0.713405,-0.470647,0.827762,0.305453
0.142194,-0.181760,0.749688,-0.020252,0.766260,0.642211
-0.051503,-0.167190,0.439462,-0.490194,-0.489874,-0.720925
-0.506438,-0.045493,0.546287,0.108420,-0.959941,0.258377
0.650799,0.685259,0.383203,-0.331435,-0.344952,0.878157
0.686024,-0.436365,0.735878,0.576340,0.711804,-0.401457
0.649994,-0.530566,0.704071,-0.720800,-0.462257,0.516494
-0.271821,-0.335737,0.276424,-0.421096,0.186881,-0.887555
0.142069,-0.697043,0.670300,0.999385,0.035057,0.001273
0.703915,0.147979,0.660952,0.735082,0.398350,-0.548609
-0.588710,0.045636,0.597826,-0.088310,-0.785913,0.611998
0.880280,-0.367019,0.632160,0.831861,0.527168,-0.173495
0.324068,-0.400300,0.873260,-0.540338,0.786157,-0.299988
0.569210,0.591844,0.363242,0.201960,-0.413951,0.887613
0.264888,-0.716326,0.704665,-0.340575,0.759847,0.553752
0.929617,-0.207542,0.668900,0.753597,0.572741,-0.322583
0.185403,-0.725254,0.705000,0.562242,0.776786,-0.283704
0.469545,0.091129,0.462818,0.318939,-0.635590,0.703067
0.143493,0.562706,0.571820,0.897181,-0.382582,0.220673
0.055900,0.353164,0.451780,-0.182659,-0.287810,0.940107
0.838556,0.174261,0.486769,-0.163896,-0.655776,0.736950
-0.261421,-0.168833,0.793432,-0.599089,-0.713797,0.362747
-0.240499,-0.465719,0.291056,-0.065921,0.701228,0.709883
-0.024264,0.845236,0.478303,-0.519550,0.330310,0.788012
-0.506438,-0.744893,0.522199,-0.139410,0.819631,0.555671
0.200444,-0.432938,0.649182,0.857290,-0.268357,0.439360
-0.379163,0.594415,0.415101,0.764984,0.545925,-0.341709
0.268046,0.237537,-0.941289,0.069638,0.682794,-0.727285
0.647765,-0.473718,0.709568,0.596055,0.469495,-0.651378
0.147767,-0.358734,0.203478,0.727712,-0.660575,0.184597
0.797882,0.525711,0.535232,0.255616,-0.540244,0.801746
0.282343,-0.203185,0.972228,0.663220,-0.198268,0.721685
0.218399,-0.371233,0.531395,0.425527,-0.756567,0.496522
-0.223536,-0.251607,0.629602,-0.675801,0.624073,-0.392207
0.056705,-0.157906,0.518134,0.289347,-0.953809,-0.080790
0.718956,0.085560,0.649670,-0.164399,-0.794782,0.584205
0.112851,-0.690544,0.221216,-0.388086,-0.551827,-0.738158
-0.031137,0.468933,0.456378,0.461380,0.434682,-0.773421
0.411355,-0.224896,0.035933,0.286859,0.946840,0.145620
0.056395,-0.034209,0.329821,0.468671,0.804526,-0.364810
-0.088277,0.621268,0.458022,0.593367,0.084912,-0.800441
0.226571,0.378660,0.532736,0.065107,-0.417349,0.906411
0.226447,-0.801956,-0.984652,0.081024,-0.123637,0.989014
0.699207,0.880374,0.408341,0.088759,-0.611174,0.786504
0.236414,-0.030710,-0.927754,0.078613,0.228011,0.970480
0.289281,-0.213755,0.870231,-0.630019,0.613846,-0.475677
-0.006684,-0.298957,0.788300,0.650941,0.225015,0.725013
0.277330,0.706827,0.539907,-0.617503,0.722994,0.309789
0.175375,-0.668190,0.745440,0.670522,0.708936,0.218657
0.751952,-0.642336,0.534030,0.116377,-0.497577,0.859577
0.752013,0.080775,0.461844,-0.226013,-0.546408,0.806447
0.614398,-0.147621,0.594613,0.361279,-0.847781,-0.388258
0.167452,0.055420,0.467828,0.871272,0.490512,0.016809
-0.430233,-0.002785,0.557858,0.806170,0.165980,0.567927
0.189242,-0.177617,0.962484,0.378340,0.771710,-0.511197
-0.620467,0.123339,0.508115,0.028804,0.969006,0.245354
0.630679,-0.514640,0.698925,-0.671179,-0.602769,0.431496
0.259318,0.219326,0.720211,-0.669195,0.249956,-0.699786
-0.581714,0.102343,0.601678,-0.471375,-0.881876,0.009994
0.005634,-0.444864,0.619994,-0.180003,-0.894198,0.409888
-0.272378,0.062777,0.662962,0.845228,-0.534034,0.019958
0.226507,-0.872232,0.247313,-0.029158,0.459342,0.887781
0.093166,-0.642622,0.510658,0.816091,-0.476650,-0.326801
0.187383,-0.623838,-0.988824,0.131452,-0.118592,-0.984203
0.075895,0.381374,0.738725,-0.093754,0.910347,0.403086
0.253995,0.039995,0.693520,-0.706083,0.400757,-0.583815
0.274794,-0.123411,0.224078,0.980935,0.189333,-0.043814
0.587470,0.089059,0.623557,0.453102,0.584742,-0.672886
0.458897,-0.558063,0.684126,0.900766,0.279562,0.332364
0.838246,0.186331,0.704680,0.497028,-0.735885,-0.459822
0.041539,0.820096,-0.964463,0.008087,0.189217,0.981902
0.261978,-0.164834,0.612108,-0.714867,0.681256,-0.157657
0.006313,-0.689330,0.583788,0.678167,0.009590,0.734845
0.500187,0.273033,0.493331,0.188947,-0.517254,0.834714
-0.479138,-0.371233,0.477862,-0.546325,0.513538,-0.661670
0.711589,-0.648192,0.537303,0.649668,0.267069,-0.711762
-0.312678,-0.029138,0.700432,-0.106036,0.844626,0.524751
0.718586,-0.491430,0.727915,0.411514,0.758625,-0.505117
0.285192,-0.665048,0.548677,-0.640189,0.754896,-0.142444
0.187383,0.103628,0.554630,0.912417,0.407166,-0.041378
0.071932,-0.156120,0.852096,-0.373266,-0.927692,-0.007767
0.353474,-0.148835,-0.917583,-0.125079,-0.905991,-0.404395
0.115515,-0.068561,0.840738,0.663889,-0.012153,-0.747733
0.343137,-0.215755,-0.726392,0.898621,-0.438711,-0.003700
0.426706,0.033710,0.851427,0.235706,-0.004932,-0.971812
0.373779,-0.278389,-0.962864,-0.001141,-0.527891,0.849312
0.259503,0.130767,0.882091,0.169715,-0.875225,0.452967
0.222854,0.280317,0.691967,-0.566703,0.533023,-0.628279
0.103628,0.276032,0.748059,-0.691452,0.516613,-0.504981
-0.224835,0.429153,0.412345,0.242868,0.655714,-0.714880
-0.320106,0.141551,0.370992,0.133365,-0.225803,0.965001
-0.007058,-0.073061,0.625506,-0.134596,-0.990854,0.009639
0.585925,0.796457,0.389217,0.806981,0.256538,-0.531950
-0.312802,0.057349,0.534821,0.588851,-0.074364,0.804814
-0.055651,-0.304885,0.839231,0.416127,0.874458,0.249321
0.730593,-0.984859,0.556899,0.367242,0.909295,-0.195747
0.530765,-0.542208,0.788026,0.869337,0.416564,0.265948
0.261978,-0.232609,-0.765157,0.569286,-0.818444,0.077867
0.178099,0.643265,0.617117,0.846553,-0.457583,0.271966
0.522162,-0.683616,0.540333,0.112175,-0.063570,0.991653
-0.043953,0.000357,0.781966,0.822297,-0.562636,0.085258
0.183238,-0.499857,0.490651,-0.605542,0.753398,0.256341
-0.022160,-0.716825,0.668778,0.654083,-0.748973,0.105896
0.282408,-0.817526,-0.988383,-0.079557,-0.151035,0.985322
0.494678,-0.554134,0.766314,0.276104,0.961036,0.013270
0.551814,0.526496,0.364871,-0.074149,-0.158489,0.984573
0.076020,-0.361663,0.286382,0.378127,-0.816654,0.436000
0.238330,-0.149478,0.980770,-0.175828,0.984223,0.019717
0.711464,-0.816169,0.484744,-0.220107,-0.644545,0.732199
0.334099,0.101200,-0.922288,0.217516,-0.150724,0.964349
0.307851,-0.131909,0.776089,0.988327,-0.105662,-0.109748
-0.424105,-0.154835,0.629039,0.766207,-0.541672,0.345713
0.467871,-0.773960,0.550763,0.872593,-0.470064,0.132743
0.072737,-0.668975,0.545114,0.304476,0.276981,-0.911360
-0.509905,-0.259534,0.693840,-0.629582,0.384103,-0.675345
0.026928,-0.582560,0.594019,0.032831,0.182263,0.982701
-0.157422,-0.349664,0.588934,0.595823,0.707325,-0.380377
0.452210,-0.510712,0.826654,0.252593,-0.963197,0.091910
0.522721,-0.325596,0.864521,0.771312,0.273014,-0.574927
0.838370,0.306742,0.499863,-0.101242,-0.478602,0.872176
0.110747,-0.092843,0.837967,0.494005,0.067165,-0.866861
0.097500,0.385159,0.817778,-0.232680,-0.888887,0.394640
0.179460,0.822454,0.603063,0.099586,0.863081,0.495150
0.776776,-0.786744,0.488276,-0.092024,-0.777050,0.622676
0.029962,-0.528067,0.556290,-0.437287,-0.221204,0.871693
0.151726,-0.763747,-0.984059,0.300790,0.377170,-0.875939
-0.090007,-0.300814,0.492478,-0.704233,0.228225,0.672286
-0.044199,0.000001,0.480557,0.713132,-0.258012,-0.651823
-0.247122,0.564776,0.461616,0.564516,0.806551,-0.175491
0.331685,0.056563,-0.964950,0.321203,0.179553,-0.929833
-0.120589,-0.178617,0.591309,0.129362,-0.080301,0.988341
0.840286,-0.315312,0.564710,-0.201388,-0.421949,0.883969
0.332180,-0.196757,-0.398627,0.266294,0.961670,-0.065416
0.645290,0.206328,0.619446,-0.187813,-0.340591,-0.921262
0.115451,-0.198972,0.840434,0.512199,0.843344,0.162553
0.255604,-0.534352,0.531730,-0.310142,0.296451,0.903288
-0.634333,-0.581417,0.451932,0.609157,-0.433486,0.664092
0.449485,0.256535,0.496635,-0.463047,0.287968,-0.838249
-0.479758,-0.267890,0.684323,0.159793,-0.448025,0.879625
-0.638047,-0.455435,0.512333,0.664545,0.607625,0.434939
-0.202798,0.463577,0.423170,0.135743,-0.611387,0.779602
0.242852,-0.167119,0.903819,-0.249687,-0.500081,0.829201
0.064628,0.986216,-0.967523,0.152242,-0.124182,-0.980511
0.206573,-0.877374,-0.987393,0.105848,0.198525,-0.974363
0.144113,-0.104842,0.685648,-0.690627,0.681614,0.241735
0.211776,-0.389658,0.081443,0.835125,-0.189016,0.516564
0.448805,0.059634,0.838622,0.523346,0.046731,-0.850838
0.326856,0.011284,-0.960489,0.321893,-0.612924,-0.721602
0.064689,-0.139409,0.591538,-0.043844,0.938845,-0.341538
0.024329,-0.061777,0.708304,-0.339354,-0.936480,-0.088568
0.615883,-0.775317,0.459438,-0.506603,-0.083337,0.858142
0.360593,0.116769,0.879244,-0.583776,0.447850,-0.677227
0.110191,0.426224,0.797162,0.787958,0.580519,0.205233
-0.295159,0.302528,0.553062,-0.039742,-0.200073,0.978975
-0.183298,0.312598,0.415375,0.221249,-0.392434,0.892774
0.504706,-0.447650,0.678751,0.657828,-0.043350,-0.751919
0.819180,0.118269,0.473720,0.166719,-0.686768,0.707499
0.487681,-0.286316,0.823776,0.076637,0.305979,0.948949
0.103689,0.196401,0.742364,0.753958,-0.303756,0.582476
0.070262,-0.473503,0.686288,0.813484,0.475361,0.335075
0.028972,0.759605,0.485277,-0.390695,0.139510,0.909887
0.414510,-0.517640,0.283215,0.945454,0.183318,-0.269279
0.565556,0.325954,0.507811,-0.167763,-0.499293,0.850037
0.184537,0.129196,0.838667,0.255859,0.962096,-0.094385
-0.529280,0.017640,0.571531,0.292961,0.596742,-0.747043
0.138480,0.332596,0.721414,0.358529,0.438708,0.824010
-0.320231,0.157192,0.542526,0.144163,-0.248544,0.957832
0.330321,0.034852,0.834374,-0.109117,-0.014549,0.993922
0.448125,-0.706471,0.757270,0.674530,0.490956,-0.551336
-0.132351,-0.754820,0.320792,0.382220,-0.000741,0.924071
0.085428,0.421511,0.799689,-0.549211,-0.831298,-0.085509
0.214250,-0.904371,0.748729,0.092064,0.940097,0.328241
0.165038,-0.023497,0.790021,0.775632,0.623151,-0.100383
0.574409,0.333239,0.196123,-0.341972,-0.515052,0.785988
0.277889,0.324597,0.760011,0.148067,0.841375,-0.519773
0.224962,-0.068919,0.924343,-0.422327,0.884887,0.196506
-0.309336,0.667833,0.454064,-0.561449,-0.465321,0.684289
0.320354,-0.122553,0.463443,0.866653,-0.483779,0.121945
0.900645,-0.308384,0.309571,-0.122018,-0.414921,0.901639
0.384177,-0.358449,0.361308,0.190532,-0.981451,-0.021252
0.192646,-0.208255,-0.035994,0.433477,-0.898187,0.073196
0.429491,0.283745,0.707832,0.232428,-0.215762,0.948380
-0.031572,-0.352878,0.549499,-0.587755,0.069653,0.806035
-0.274298,0.048637,0.654237,0.862787,-0.492707,0.113303
0.679397,0.298314,0.184430,0.149611,-0.263229,0.953062
0.088028,-0.602342,0.753540,0.349871,0.839078,-0.416579
0.025999,0.711827,0.255474,-0.004824,0.531541,0.847019
0.276094,-0.242822,0.967128,0.568366,-0.725758,0.387603
-0.518571,-0.094558,0.569932,-0.340958,0.810187,0.476807
0.342207,-0.062348,0.773425,0.950610,-0.110372,0.290102
0.499507,-0.238751,0.853680,0.926321,-0.355212,-0.125515
0.870743,-0.548850,0.621487,0.991065,-0.073655,-0.111196
0.271696,-0.347379,-0.974771,-0.030433,-0.568361,0.822216
0.568405,0.066919,0.758001,0.892958,-0.295437,0.339621
0.250031,-0.131696,0.888623,0.890342,0.232657,-0.391358
-0.058810,0.620412,0.476704,0.750809,0.335546,-0.568942
-0.077626,0.435867,0.496635,-0.028639,0.769277,0.638274
0.247122,-0.867375,0.760331,-0.112031,0.953028,0.281401
0.383557,0.529639,0.369621,0.192846,-0.432506,0.880766
0.124428,0.684545,0.676208,0.352782,-0.935655,-0.009746
-0.087223,0.409085,0.586650,-0.133209,-0.837026,0.530700
0.164233,0.133195,0.850970,-0.638121,-0.707078,-0.304700
0.070262,-0.190687,0.879975,0.511763,0.626104,-0.588296
0.029902,-0.205327,-0.973385,0.740744,0.278473,-0.611351
0.343012,0.304528,0.727275,0.944883,0.268083,-0.187957
0.247122,-0.234538,-0.470279,0.959921,-0.279895,-0.014506
-0.088152,-0.190758,0.599942,-0.349435,0.276472,-0.895242
0.396003,0.029211,0.848945,-0.070905,0.281738,0.956868
-0.312493,0.121983,0.704604,0.863747,-0.461573,0.202217
0.588895,0.558421,0.366378,-0.441058,0.259825,-0.859045
-0.515476,-0.231966,0.691084,0.763352,-0.318813,0.561829
-0.470472,-0.215327,0.723423,0.418639,-0.894726,-0.155587
0.454190,-0.776175,0.765736,-0.693149,0.719924,-0.035412
0.850193,-0.149978,0.648817,0.881107,-0.308482,-0.358455
0.461742,0.187402,0.684856,-0.598322,0.434671,-0.673107
0.007738,-0.390872,-0.992524,0.230975,-0.024461,-0.972652
0.521792,-0.581202,0.530787,0.895302,-0.097486,0.434661
0.699702,-0.340737,0.561832,0.339246,0.709708,-0.617436
-0.377801,-0.625625,0.516840,0.509019,-0.602487,-0.614743
0.180389,0.400800,-0.958632,-0.528214,0.305008,0.792439
0.267982,-0.205899,0.721581,0.313460,-0.936788,0.155471
0.071006,-0.289744,0.901580,0.595154,-0.038921,-0.802669
0.231585,-0.267890,0.816636,-0.567195,-0.707867,-0.420968
0.146837,0.347950,-0.969381,0.755406,-0.267235,-0.598287
-0.333355,0.641837,0.447395,0.550294,0.514738,-0.657435
0.096015,0.154978,-0.944593,0.902629,-0.163993,-0.397954
0.224527,-0.285959,0.822817,0.687249,0.454285,0.566846
0.106167,-0.357734,0.340129,-0.458527,-0.103150,-0.882674
0.766499,0.391158,0.520281,0.044568,-0.676276,0.735299
-0.441935,0.355093,0.373321,0.480982,-0.372543,-0.793643
0.342827,-0.146622,0.919425,-0.389514,0.865087,-0.316074
0.396309,0.503785,0.360638,-0.226376,0.460967,-0.858058
0.301163,0.173975,-0.960093,-0.179757,0.519405,-0.835408
0.094341,-0.591057,-0.991519,0.265481,0.074218,-0.961255
0.530765,0.227325,0.158440,-0.397411,-0.097422,0.912455
-0.032686,-0.198614,0.754925,0.339248,0.643197,0.686447
0.234680,-0.646336,0.698225,0.339226,0.786430,0.516191
-0.085863,-0.388372,0.525397,0.861966,-0.240449,-0.446317
0.290886,-0.496358,0.862176,-0.592040,-0.779336,-0.205240
-0.909248,-0.003570,0.494169,0.678055,-0.253777,0.689811
-0.520305,-0.165905,0.514891,0.178711,-0.654304,0.734812
0.221678,-0.667761,0.210375,0.073014,0.632447,0.771154
0.361643,-0.183688,0.085295,0.499001,-0.795460,0.343862
0.536833,0.512856,0.521758,-0.357319,-0.367649,0.858579
0.775227,0.100343,0.634961,-0.034093,0.999405,-0.005190
-0.421877,0.374375,0.366424,-0.548296,0.159964,0.820843
0.138170,0.563705,0.658881,0.935233,0.147479,-0.321854
0.081404,-0.846878,0.574941,-0.359267,0.922904,-0.138475
-0.221803,-0.113483,0.785864,0.866242,-0.490844,0.093259
0.253685,0.260106,0.724596,0.250693,-0.957405,-0.143281
0.477343,-0.732181,-0.185542,0.873248,0.484687,-0.050169
0.860221,0.491930,0.533786,0.189981,-0.434570,0.880373
0.246752,0.524425,0.544703,0.400915,-0.502118,0.766254
0.250216,-0.493144,0.682709,-0.036984,-0.471972,0.880837
0.095830,-0.172904,0.856147,0.288341,0.903164,0.318048
0.602636,-0.788673,0.545830,0.280383,0.250607,0.926597
0.523216,-0.777602,0.541460,0.072007,0.497148,0.864672
-0.167885,-0.292958,0.732437,-0.447696,0.891449,-0.069912
0.701931,-0.316598,0.547230,0.482384,0.622333,-0.616447
0.416614,0.839237,-0.957261,-0.043969,-0.200144,0.978779
-0.679152,-0.128339,0.535171,-0.568768,0.655098,-0.497343
-0.277082,0.668262,0.470355,-0.353550,0.770447,-0.530484
0.358424,-0.324454,0.868784,0.248377,0.679956,0.689905
-0.566423,-0.415727,0.491489,-0.534231,0.174149,-0.827206
0.213260,-0.388159,0.692484,0.924709,0.375554,0.062228
0.697537,0.529639,0.549910,-0.670317,0.105682,0.734511
0.500497,-0.024425,-0.030436,-0.234947,-0.043247,0.971046
0.522906,-0.470718,0.705183,0.323071,-0.925277,-0.198714
0.299184,0.598486,0.367901,0.075215,-0.109797,0.991104
0.314165,0.013141,0.846250,0.826289,-0.033091,-0.562273
-0.440263,-0.389158,0.683242,0.852267,0.405119,0.330937
-0.235050,-0.639908,0.326441,0.220294,0.244313,0.944342
0.472579,-0.617769,0.740324,-0.699458,0.133307,-0.702131
0.443852,-0.858163,0.536100,0.334451,-0.765868,0.549171
0.388636,-0.111126,0.727245,-0.644016,0.629780,0.434304
0.452519,0.081418,-0.042130,0.345600,0.007322,-0.938353
-0.149807,0.088987,0.399114,0.764067,-0.182461,-0.618797
-0.117805,0.022997,0.673254,0.678414,0.715868,0.165188
0.173210,0.104985,0.867003,0.697823,0.708236,0.106979
-0.338182,-0.512926,0.519809,-0.763413,0.048031,-0.644123
-0.107652,0.373376,0.514038,0.001335,-0.959588,0.281407
0.800670,0.004286,0.613295,0.917809,0.282156,-0.279310
0.274670,-0.291816,0.767259,0.483091,0.809084,-0.334673
0.726384,0.245465,0.650126,0.959867,-0.033435,-0.278455
0.337564,-0.497000,0.850132,0.487429,0.857979,-0.162123
-0.002354,0.300743,-0.977572,-0.570155,-0.115208,0.813419
-0.242850,-0.475217,0.551372,0.619836,0.384084,-0.684312
-0.388511,-0.293030,0.543607,0.377930,0.923728,-0.062406
0.575028,0.897443,0.384832,0.946283,-0.186574,-0.264082
0.675993,0.286173,0.640884,-0.278479,0.003787,0.960435
0.458833,-0.272175,0.021925,0.145758,0.950857,0.273176
0.171536,0.808670,0.617909,0.820704,0.064413,0.567712
0.147272,-0.095844,0.750906,0.930122,-0.201174,-0.307249
-0.577008,-0.024853,0.312372,0.232742,-0.046464,-0.971428
0.141329,0.311598,0.720531,0.001810,0.591397,0.806378
0.230592,-0.173046,0.913441,-0.590041,-0.748684,0.302199
-0.103009,-0.278317,0.793462,0.224811,0.974283,-0.015242
0.509040,-0.256820,0.233214,-0.025941,0.418640,0.907782
0.667450,0.158049,0.654344,-0.833861,0.400268,0.380081
0.123869,-0.033495,0.763513,0.620721,0.524772,-0.582511
-0.537328,-0.259606,0.500320,0.963148,0.244342,0.112439
-0.415624,-0.403228,0.694220,-0.571112,-0.514180,0.639883
0.614338,0.367733,0.514251,-0.346918,-0.677716,0.648344
0.293550,0.041922,0.889567,0.840292,-0.294016,0.455481
-0.531385,-0.374589,0.471010,-0.754025,0.255759,-0.605006
0.240498,-0.837737,-0.982155,0.045130,-0.103625,0.993592
0.201374,0.455293,0.623177,0.983809,0.159627,0.081486
0.076760,-0.702042,0.233457,-0.477448,-0.531519,-0.699665
0.145103,-0.575132,0.717485,0.975240,0.173040,0.137713
-0.238827,-0.252178,0.639240,-0.592778,0.752177,-0.287828
0.162313,-0.358019,0.551722,-0.259346,-0.126314,-0.957489
-0.072551,0.438152,-0.986693,-0.249974,0.109541,0.962036
0.303763,-0.263462,0.886400,0.907992,0.275794,0.315416
0.546676,0.066491,0.766588,-0.626399,0.691178,-0.360413
0.581527,-0.015355,0.728737,-0.492497,0.827800,-0.268688
0.086358,-0.361234,0.877996,0.940833,0.229922,0.248937
0.328896,-0.057849,0.838667,0.757794,0.474502,-0.447880
-0.210164,-0.612127,0.477892,0.114877,-0.724577,-0.679552
-0.062894,-0.332809,0.768492,0.014486,-0.915029,0.403129
-0.530767,0.054921,0.583194,0.829365,0.541829,0.136292
0.897671,0.330167,0.517342,0.400879,0.557928,-0.726644
0.056641,-0.554064,0.704589,-0.388603,0.841480,0.375365
0.556582,0.639337,0.367673,0.454629,0.110447,-0.883807
0.242353,-0.149122,0.671260,0.776615,-0.614798,-0.137453
0.430110,-0.256820,0.059061,0.891923,-0.430821,0.137358
-0.356072,0.220897,0.539328,-0.039742,-0.200073,0.978975
0.298318,-0.123768,0.962986,0.615248,0.644671,0.453728
0.441128,-0.334952,0.328573,-0.325231,-0.937676,0.122426
0.181628,0.413298,0.778023,-0.498960,0.803141,-0.325583
-0.009287,-0.195971,0.273090,-0.178494,-0.268409,0.946624
-0.245140,0.011213,0.685283,-0.766406,0.622475,-0.158576
-0.220812,0.265533,0.404275,-0.154391,0.474484,-0.866619
-0.681441,0.075632,0.221505,0.612999,0.176248,0.770175
-0.430483,-0.316454,0.654664,-0.154967,-0.927010,0.341523
0.363007,-0.123411,0.929231,-0.743099,0.509516,-0.433817
-0.319549,-0.109198,0.741877,0.931620,-0.359127,0.055780
0.067787,-0.692329,0.597612,0.587746,0.402698,0.701704
-0.906401,0.016712,0.479110,0.678055,-0.253777,0.689811
0.741611,-0.448078,0.747115,0.287242,0.857328,-0.427178
-0.456791,0.630623,0.379777,-0.791678,0.607116,0.068243
0.450664,0.491144,0.521818,0.243267,0.037672,0.969227
0.241364,-0.146336,0.965940,0.813707,0.479744,-0.328218
-0.025753,-0.511141,0.576312,-0.014525,0.967652,0.251870
-0.460320,-0.234466,0.729742,-0.593573,0.804449,-0.023088
0.473010,-0.411870,0.842992,0.125756,0.246633,0.960915
0.848523,-0.031067,0.412695,0.107485,0.887480,-0.448136
0.740251,0.125982,0.639545,-0.280873,-0.883556,0.374752
-0.098120,-0.204113,0.680228,-0.475860,0.159865,0.864870
0.451590,-0.477717,0.722708,0.904115,0.229410,-0.360482
0.240623,-0.195686,0.927967,0.864671,-0.150172,0.479368
0.791753,-0.749464,0.505085,-0.206287,-0.925754,0.316899
0.352730,-0.114412,0.845504,-0.535704,-0.268632,-0.800536
0.308966,0.337952,0.332044,0.467870,0.303081,-0.830204
-0.253436,0.197186,0.362085,-0.031623,-0.416195,0.908725
0.332675,0.374375,-0.958160,-0.355846,-0.158670,-0.920976
0.305682,-0.367234,0.890694,-0.483713,0.699160,-0.526495
0.282778,-0.255677,0.925226,0.907234,0.050795,-0.417548
-0.189179,0.046993,0.687704,0.940892,0.332878,0.062560
0.097500,-0.644122,0.778541,0.412721,0.910062,0.038055
-0.270149,0.046208,0.750738,0.670739,0.380880,0.636427
0.496843,-0.709327,0.780261,-0.724550,0.326939,0.606744
-0.326544,0.236110,0.411264,0.682945,-0.272323,-0.677810
0.749723,0.149193,0.671610,0.838782,-0.386340,-0.383648
0.777271,0.319669,0.491961,0.373042,0.381166,-0.845903
0.378358,0.477432,0.515607,0.017498,-0.261597,0.965018
0.280923,0.152336,0.687429,-0.687388,0.425430,-0.588649
0.582271,-0.220183,0.721474,-0.061021,-0.468598,0.881302
0.210226,-0.054063,0.766055,-0.315111,-0.929259,0.192828
0.626470,0.054206,0.734036,0.833692,-0.274297,0.479290
0.129937,0.419011,0.243750,-0.049297,-0.395955,0.916946
0.398603,-0.299457,0.697798,0.332017,0.941860,0.051609
0.303453,0.725039,-0.969229,-0.195965,-0.142469,0.970206
