-0.068972,0.229364,0.562505,0.875325,-0.426633,-0.227575
-0.139161,0.390827,-0.127925,0.446959,0.884191,0.135776
-0.100410,-0.426371,0.387242,0.197749,0.540185,0.817983
0.131787,-0.587072,0.569261,0.989658,-0.141990,0.020400
0.152596,0.285349,0.906384,0.286575,-0.943561,0.166035
-0.105098,-0.107200,0.797208,-0.566977,-0.433543,-0.700413
0.169347,0.151655,0.868017,0.820451,0.566467,-0.077300
0.020031,0.236050,-0.009525,0.250705,0.057413,0.966360
-0.066660,0.118408,0.777050,0.012820,-0.011900,0.999847
0.665739,0.175797,0.642791,0.126820,0.087949,0.988019
-0.206599,0.030634,0.460303,0.950358,-0.038339,-0.308787
0.205912,-0.277453,0.408521,0.562900,0.814265,-0.141832
-0.150349,0.836749,0.103082,-0.400433,0.395998,-0.826341
0.704615,0.262867,0.221854,0.214029,0.561008,0.799664
-0.005844,0.363501,0.917535,0.943271,-0.329621,0.039872
0.190599,0.152292,0.740008,0.015554,0.807474,0.589699
-0.052034,-0.578282,0.258270,-0.557959,-0.752627,0.349619
0.073035,0.060763,0.515107,0.699620,0.400136,0.591965
-0.522923,0.328851,0.324972,-0.047337,-0.326851,0.943890
0.497482,0.180571,0.640696,0.247054,0.097640,-0.964070
0.395794,0.147067,0.550186,0.636186,0.398392,0.660720
-0.111911,-0.037072,0.682735,-0.090297,0.969223,0.229028
-0.116035,0.284140,0.843908,0.894702,0.428970,0.124472
-0.307730,0.079108,0.345950,-0.086280,0.226647,0.970148
-0.162538,-0.421593,0.294987,-0.116073,-0.834105,0.539255
0.072657,0.419743,0.235318,0.816024,0.041933,0.576495
-0.220164,0.866111,0.354560,0.139073,-0.195310,0.970831
0.019345,-0.275097,0.540962,-0.210350,0.073680,0.974846
0.463359,-0.144206,0.480004,-0.503558,0.304970,0.808345
0.070093,0.235222,0.596380,0.935397,-0.230862,-0.267835
-0.035222,-0.118280,0.477692,-0.281096,0.903317,-0.324041
-0.039159,0.398279,0.424007,0.207944,-0.586725,0.782632
0.367229,0.278596,0.661504,0.333282,0.352841,0.874315
0.563047,-0.345288,0.398466,0.750231,0.649011,0.126248
-0.054598,0.166051,-0.957876,0.153241,-0.397052,0.904913
-0.075846,0.505666,0.670139,0.826449,0.539446,0.161183
0.539922,-0.797706,0.431582,0.633462,0.008739,-0.773725
0.277039,0.043759,0.740839,0.645365,0.455310,0.613349
0.045034,0.811592,0.402235,-0.590621,0.424411,-0.686325
-0.422796,0.309425,0.386195,0.840295,0.509854,-0.184263
0.325541,0.441210,0.558604,0.051860,-0.094887,0.994136
0.421793,-0.679811,0.131598,0.658738,-0.022667,0.752031
0.482170,-0.109556,0.211016,0.029651,-0.466697,0.883920
-0.017533,0.363691,-0.958815,-0.174154,-0.384279,-0.906642
-0.438296,0.142993,0.175901,-0.412150,-0.099662,-0.905649
0.499859,0.235732,0.189340,-0.083241,0.703311,0.705991
-0.574423,0.049936,0.570501,-0.149526,0.308404,-0.939430
-0.132847,-0.198407,0.166099,0.353053,-0.311167,-0.882343
-0.023282,0.370701,0.111656,0.069771,-0.942374,0.327206
0.132534,0.142865,0.773329,0.556987,0.703536,-0.441363
0.331229,-0.212612,0.406582,0.347905,0.488804,0.800020
0.405107,-0.431849,0.370082,0.824257,0.556175,-0.106159
0.361480,-0.364842,0.645994,0.026177,0.086745,0.995887
0.340541,-0.156942,0.094748,-0.488408,-0.517476,-0.702621
0.180162,-0.745798,0.398466,0.128109,-0.039589,0.990970
-0.267415,0.302357,-0.666851,0.731675,-0.673689,-0.103900
0.221099,-0.651210,0.395925,-0.293498,-0.519455,-0.802512
-0.066347,-0.227136,0.300382,-0.445905,-0.066292,-0.892622
0.001156,0.196879,0.266555,0.892842,0.371811,-0.254146
-0.342357,0.058341,0.795499,0.034354,0.086768,0.995636
-0.251415,0.669617,-0.030973,0.774348,0.597053,-0.209554
0.383919,0.414265,0.666719,0.431982,-0.350225,0.831104
0.110973,-0.469045,0.568298,-0.446851,-0.068353,0.891993
0.221286,-0.375607,0.142062,-0.002387,-0.156388,0.987693
-0.088534,-0.582738,0.452608,0.675395,-0.675435,0.296024
0.161348,0.087514,0.836045,0.887103,0.222340,-0.404492
-0.251164,-0.462292,0.469395,0.562190,0.229847,-0.794426
0.440668,0.148024,0.511530,-0.261509,-0.113433,0.958512
-0.162412,0.677132,0.543563,0.684360,0.648681,0.332962
-0.165349,0.276559,-0.424056,0.761248,-0.163660,0.627468
0.093844,0.016814,0.850267,0.817064,0.409632,-0.405719
0.085345,0.022929,0.550234,0.891322,-0.274511,0.360817
0.325854,-0.475669,0.292193,0.894863,-0.035749,0.444908
-0.027097,0.310191,-0.012861,0.296881,0.090789,0.950589
-0.235477,0.221274,-0.691755,-0.176639,0.971821,-0.156086
-0.505047,0.697196,0.237172,0.180963,0.387895,0.903764
-0.202162,-0.130129,0.493070,0.832757,0.287187,-0.473327
-0.091098,0.059364,0.242964,-0.215406,-0.052219,0.975127
-0.284291,-0.107962,0.389061,0.063541,0.029530,0.997542
0.001781,0.309363,0.129972,-0.322435,0.945245,0.050473
-0.408918,0.714776,0.124264,-0.162451,0.334651,-0.928234
0.215724,0.107006,0.221360,-0.058488,-0.280897,0.957954
-0.097598,0.740060,0.604075,0.452423,0.849924,-0.270080
-0.048910,-0.459808,0.293036,-0.458982,0.358469,-0.812918
-0.064283,0.309743,-0.154779,0.981372,0.109590,-0.157794
-0.571864,-0.035669,0.571790,0.917518,-0.288202,0.274045
0.525861,-0.023695,0.236425,0.601911,0.702491,0.379750
0.189348,0.211590,0.955709,-0.188797,-0.834485,0.517678
-0.089911,0.642863,0.538312,0.828191,0.503646,0.245845
-0.388043,-0.045415,0.566636,0.394826,0.614398,0.683102
-0.037347,0.388914,0.712226,0.945693,0.240163,-0.219057
-0.032971,-0.338344,0.759781,-0.709995,-0.538531,-0.453752
-0.341918,-0.400383,0.284895,-0.153678,-0.715393,0.681613
-0.721866,-0.004331,0.579232,-0.059604,0.406287,-0.911800
-0.034844,0.077196,0.695885,-0.082237,0.058083,0.994919
0.135598,-0.741145,0.397503,0.354892,0.231811,0.905713
-0.311415,0.673567,0.116870,-0.614915,0.239294,-0.751411
0.119034,0.290061,0.941427,0.999570,0.004294,-0.029003
0.146222,0.367641,-0.318686,-0.189026,0.206547,0.960004
-0.275979,0.215858,-0.883708,0.960612,-0.079663,0.266230
-0.606365,0.737642,0.277935,-0.648307,0.759862,0.048042
-0.020596,-0.039999,0.591696,-0.534102,-0.344980,0.771832
0.033032,0.192739,0.958249,0.221217,-0.334792,0.915957
0.079722,0.221783,0.862863,0.811304,0.145790,-0.566155
-0.587237,0.379809,-0.997339,-0.360449,0.166580,0.917784
-0.251164,0.136816,0.718464,0.448703,-0.190850,0.873065
-0.004784,0.567642,0.618152,-0.240917,0.861452,-0.447057
-0.063845,0.159616,0.162173,-0.430785,-0.788955,0.438148
-0.135350,0.211147,0.821414,0.108839,-0.620309,0.776770
-0.089847,0.049617,0.698920,-0.072943,0.230095,0.970431
0.144910,-0.267388,0.140172,0.215434,0.352886,0.910527
0.046968,-0.763888,0.407931,0.118277,-0.301285,0.946170
-0.113537,0.221145,0.827868,0.335180,-0.857795,0.389670
0.016469,0.329426,0.411243,0.566867,-0.255208,0.783282
0.275227,0.178471,0.124758,0.176519,0.919254,-0.351871
0.165349,0.111718,0.852326,0.915864,0.063944,-0.396363
-0.269540,0.419171,-0.973941,-0.316626,0.217008,0.923393
-0.677301,0.648978,0.384003,0.049759,-0.223143,0.973515
-0.668615,0.222483,0.142315,0.335469,0.918920,0.207479
-0.181413,0.048152,0.605508,0.026379,-0.521390,0.852911
0.130284,0.173118,0.780410,-0.383722,-0.482908,0.787120
0.175222,-0.683247,0.611722,-0.345739,0.842093,0.413938
0.256790,-0.032741,0.402006,0.274514,0.242029,0.930626
-0.166349,-0.082740,0.676064,0.262398,0.081182,0.961539
0.212287,0.564839,0.590407,-0.696056,-0.696927,-0.172624
0.337291,-0.528028,0.285606,0.867729,0.293959,0.400793
-0.580550,0.262991,0.391505,0.367183,-0.235938,-0.899728
0.856555,0.076558,0.520393,-0.264358,-0.066848,0.962105
0.893681,-0.057136,0.527246,0.004485,-0.088726,0.996046
-0.003094,0.350699,0.345167,-0.255924,-0.245728,0.934944
0.016156,0.502548,0.306595,0.983747,0.047458,0.173174
0.219600,0.697067,0.519900,-0.192133,-0.857734,0.476841
0.198973,0.410510,0.776400,-0.264877,-0.114988,0.957402
-0.647240,0.858025,0.301971,-0.169334,-0.092665,0.981193
-0.279855,0.467389,-0.975747,0.324486,-0.307664,-0.894456
-0.007408,0.482547,0.596187,-0.822113,0.559822,0.103585
0.317915,-0.164651,0.399646,0.257123,0.348568,0.901326
-0.167474,0.144711,0.724558,0.382289,-0.367684,0.847740
-0.546735,-0.177962,0.406666,0.028995,-0.377928,-0.925381
-0.237037,0.329236,-0.351092,0.612080,-0.788849,0.055452
-0.333106,0.355858,-0.974109,-0.436372,0.175800,0.882425
0.431669,-0.070894,0.725196,-0.279136,0.811670,0.513102
0.187723,0.303566,0.897027,-0.708814,0.635014,0.307148
0.026345,0.861400,0.796293,0.110787,-0.701136,0.704368
-0.025033,0.138025,0.690502,0.158316,0.049181,0.986163
0.193285,0.510635,0.589058,0.446633,0.889830,0.093389
0.492546,-0.296561,0.288689,0.176287,0.759436,0.626242
-0.200724,0.698852,0.177370,0.323518,0.334278,-0.885209
-0.257538,0.297513,-0.579738,-0.546661,0.812512,0.202451
0.178598,-0.208729,0.693128,0.303444,0.596108,0.743356
-0.345042,0.411847,0.752303,-0.032984,-0.449535,0.892653
-0.395730,-0.020320,0.674847,-0.396553,-0.060046,-0.916046
-0.315729,0.846176,0.507569,0.659923,0.674556,-0.330872
-0.046533,0.086623,0.696246,-0.176474,0.047556,0.983156
0.088969,0.872417,0.810130,0.053423,-0.754708,0.653882
-0.252541,0.351908,-0.556508,-0.462445,0.886618,0.007223
0.575736,-0.666881,0.276887,0.323956,-0.321385,0.889811
-0.099723,0.197132,0.898917,0.886672,0.215465,0.409131
-0.180475,0.078405,0.237943,-0.378567,0.164893,0.910767
-0.567549,-0.004650,0.578244,0.058634,0.674577,0.735872
0.013844,0.796621,0.401645,-0.525809,0.375726,-0.763121
0.091033,0.354268,0.770752,0.673250,-0.670156,-0.312450
-0.359355,0.326623,-0.133199,-0.136717,-0.916431,0.376114
0.096595,0.059682,0.615684,-0.500357,0.051747,0.864272
-0.361293,0.846176,0.491576,0.345865,0.575568,-0.741012
0.178472,-0.287009,0.402994,-0.617675,-0.749141,0.239303
0.359230,-0.191020,0.405137,0.451318,0.344099,0.823352
-0.021909,0.313056,0.541576,0.598290,-0.741470,0.303763
0.297540,-0.138091,0.670596,-0.751448,0.639457,0.162545
0.700240,0.162101,0.528329,-0.534417,0.023733,0.844888
0.570673,-0.040128,0.216219,-0.504984,0.208192,-0.837644
-0.127659,0.288280,-0.024362,0.928380,0.246459,-0.278153
0.218226,-0.681591,0.134247,0.808878,0.528465,-0.257762
0.223102,0.278915,0.214424,-0.210505,-0.717105,-0.664416
-0.640427,0.197831,-0.993967,0.328624,-0.151553,-0.932222
0.419668,-0.045990,0.730374,-0.109931,-0.730645,0.673849
-0.269913,0.177324,-0.792476,-0.650014,-0.733929,0.197052
-0.715118,-0.176178,0.583940,-0.538754,0.511431,-0.669464
-0.107784,0.018598,0.601293,0.213839,-0.470986,0.855830
0.232539,0.792100,0.374430,0.509050,-0.859226,-0.050968
0.053282,0.120445,0.972351,0.222651,-0.915579,0.334874
-0.115097,0.709170,0.642261,0.878664,0.279341,0.387192
0.238788,0.276240,0.253935,0.489290,0.857409,0.159518
-0.465171,0.268279,0.325068,-0.210715,-0.234025,0.949121
0.156598,-0.264142,0.135644,0.090863,0.168316,0.981536
0.058843,0.729552,0.394456,0.762565,-0.260628,0.592087
0.118534,0.416559,0.731217,0.839912,-0.400209,0.366580
0.310102,0.016623,0.580039,-0.367247,0.918053,0.149358
0.159284,-0.322102,0.375224,0.389738,-0.319596,0.863691
0.110283,-0.496752,0.567744,0.467373,0.080306,-0.880405
0.154721,0.489618,0.826387,-0.749046,0.656583,0.088476
0.028970,-0.338920,0.542949,0.794692,0.249763,-0.553248
0.037282,0.262867,0.865717,-0.617331,-0.782324,0.082896
-0.658239,-0.137135,0.578281,-0.629519,0.651934,-0.422715
0.060346,-0.336626,0.376730,-0.197756,0.295178,0.934753
-0.380417,0.244902,0.613829,0.202889,-0.966036,-0.160035
-0.418355,0.592293,0.521574,-0.622423,0.303002,-0.721651
-0.199099,0.886241,0.347443,0.498744,-0.160562,0.851748
0.340354,0.176240,0.674197,-0.200365,-0.333864,-0.921080
-0.281102,-0.100766,0.143218,-0.305734,-0.157129,0.939062
0.208289,0.419105,0.151492,-0.253802,-0.231983,-0.939025
-0.013283,0.672164,-0.119471,0.816391,-0.562507,0.130736
0.341479,0.574966,0.708253,0.318615,-0.939589,-0.125126
-0.931248,0.668789,0.198107,0.742402,-0.404765,0.533858
-0.227977,0.238087,0.819475,0.558519,-0.184835,-0.808637
0.492046,-0.289684,0.362122,0.694749,0.241122,0.677631
-0.637177,0.204522,0.182946,-0.189200,0.319960,0.928347
0.216724,0.499998,0.414012,-0.472604,0.144318,-0.869378
-0.275601,-0.065222,0.475283,0.979087,-0.196978,0.050880
-0.209849,0.349618,-0.226346,0.929490,-0.333825,-0.156872
0.005219,0.517068,0.425525,0.806842,-0.038357,0.589520
0.861931,0.026751,0.528739,-0.043825,0.035292,0.998416
0.525235,-0.833440,0.427355,0.812476,0.070354,-0.578734
-0.109161,0.200763,0.793126,0.960701,-0.277287,-0.012866
0.229598,0.124267,0.218964,-0.012897,-0.187609,0.982159
-0.307478,0.316177,-0.653665,0.780258,-0.621147,-0.073312
0.021905,0.070000,0.304621,-0.581438,0.209373,-0.786189
0.031968,0.461336,0.795956,0.856439,0.151988,0.493369
-0.035409,-0.585288,0.393119,-0.676554,0.185518,0.712641
-0.817370,0.134137,0.613095,-0.368197,0.298013,-0.880692
-0.496235,0.054586,0.564878,-0.682287,-0.236442,-0.691795
-0.576361,0.248471,0.197107,0.487743,-0.326547,-0.809613
0.296163,0.274332,0.214135,0.078070,0.630543,0.772218
-0.153161,0.034331,0.242567,-0.122416,0.091109,0.988288
0.113971,0.403695,0.901591,0.264234,-0.962373,0.063385
0.019345,0.157960,0.707650,0.927912,0.124525,-0.351387
-0.139786,-0.139047,0.496405,-0.028851,-0.791086,0.611024
-0.492424,0.350446,0.398165,0.393492,0.873287,-0.287286
-0.835372,0.447640,0.356812,0.859996,0.224383,-0.458322
-0.593364,0.306940,0.562927,-0.629207,-0.175194,-0.757235
-0.461108,0.094328,0.558025,0.763818,0.169506,0.622776
0.075720,-0.326433,0.381679,-0.206039,0.156432,0.965959
-0.502423,0.222611,-0.984164,-0.396934,0.132723,0.908201
0.594737,0.100443,0.219759,0.072126,-0.109917,0.991320
0.147786,0.327642,0.965114,0.531396,0.653623,0.538883
0.720679,-0.871531,0.438964,0.340788,0.470387,0.814002
-0.343604,0.136050,0.163461,-0.533033,-0.089667,-0.841330
0.235477,-0.127260,0.679917,0.299521,0.633718,0.713224
-0.250290,-0.484331,0.460459,0.455220,0.710536,-0.536576
0.505860,-0.284459,0.271986,0.164405,0.327069,0.930590
0.396230,0.351846,0.659505,-0.373260,0.019206,-0.927528
0.465732,0.068663,0.226057,0.243109,0.039548,0.969192
0.438856,0.540126,0.577389,-0.235445,-0.962777,-0.132761
0.202536,0.548535,0.123180,-0.200371,-0.920587,-0.335219
-0.449606,0.424649,-0.990547,0.359939,-0.194537,-0.912469
-0.006909,0.377578,0.316181,0.991069,0.076110,0.109497
0.633614,0.063694,0.516853,0.473798,0.284700,-0.833343
0.368915,-0.443566,0.408930,-0.671871,0.464412,-0.576984
-0.509362,0.372291,0.407365,-0.293571,-0.620610,0.727090
-0.493423,0.098978,0.560771,0.893286,0.161459,0.419488
0.196162,0.578854,0.702171,-0.463940,0.422169,0.778802
0.028470,0.463054,0.620970,-0.181545,0.235283,-0.954821
0.245102,-0.346435,0.560229,-0.086441,0.417935,0.904355
0.115158,0.363886,0.879409,0.576385,-0.790118,-0.208553
-0.083098,-0.274203,0.486748,0.717110,-0.002544,0.696955
0.866993,-0.059939,0.198131,0.360695,-0.204156,0.910066
0.142285,0.166431,0.476945,0.056445,-0.260788,0.963745
0.176973,-0.565671,0.587120,-0.104278,0.166993,0.980428
-0.651113,0.690000,0.381619,0.275391,-0.096834,0.956443
-0.387608,0.551971,0.770451,-0.652935,0.403500,-0.640987
-0.250977,-0.341719,0.161800,0.284226,-0.505940,0.814396
0.103908,0.138534,0.915319,-0.781613,0.299691,0.547052
0.589675,-0.604014,0.424489,0.262385,0.470227,0.842639
0.535108,0.427133,0.509772,0.339604,-0.002544,0.940565
0.564859,-0.736243,0.434219,-0.246276,0.086489,0.965333
0.083533,-0.633758,0.398020,-0.064305,0.309881,0.948598
-0.509171,-0.417900,0.419648,0.490543,0.272926,-0.827574
-0.054972,-0.653632,0.411532,0.214988,0.759571,0.613867
-0.090033,0.394011,0.636950,0.921025,0.388614,-0.026317
0.265412,-0.056560,0.628003,0.942347,0.332113,0.041020
-0.220912,0.290189,0.342217,0.733065,-0.107241,0.671651
0.482044,0.168025,0.521742,0.364260,-0.237433,-0.900522
0.389168,0.326242,0.660288,-0.284016,-0.253441,-0.924718
0.352229,0.745476,0.746077,0.767385,-0.520181,0.374876
-0.357856,0.661146,0.432437,-0.362147,0.210526,-0.908035
-0.496861,0.805286,0.297937,-0.101896,0.089397,0.990770
-0.192225,0.276497,-0.393384,0.458257,-0.866016,-0.200043
0.087035,0.713119,0.621175,0.208074,-0.123079,0.970339
-0.435545,0.533948,-0.988849,0.358438,-0.266683,-0.894652
-0.636864,0.273884,0.564998,-0.581655,-0.412319,-0.701192
-0.189348,0.041274,0.788791,-0.193083,0.796487,0.572999
0.030030,0.523312,0.774461,0.835773,0.535801,-0.120003
0.285100,0.342928,-0.309991,0.159822,0.318396,0.934388
0.028844,0.217005,0.968726,-0.686840,0.675398,0.268492
0.481735,-0.025098,0.534375,0.153226,0.748146,0.645600
0.657739,-0.265161,0.271456,-0.543549,0.119708,-0.830797
0.499859,0.163376,0.069436,0.747628,0.310868,0.586867
-0.528359,-0.019936,0.179610,-0.318382,0.246332,-0.915398
-0.417856,0.781082,0.132501,-0.181468,-0.284708,0.941281
0.041532,0.319109,0.454294,0.957635,0.099399,0.270285
-0.153474,-0.457390,0.166279,-0.336966,-0.270565,0.901803
-0.237163,0.483437,-0.974519,-0.212758,0.198017,0.956830
0.037908,0.814710,0.057261,-0.643360,0.321167,-0.694939
0.167787,0.293567,0.927289,-0.246819,0.953591,0.172465
0.135846,0.077262,0.897484,0.918939,-0.377831,0.113119
0.034783,0.191211,0.946388,0.814502,-0.405782,0.414641
0.107223,0.371910,0.851013,-0.049397,0.594382,0.802664
-0.441858,0.370701,0.403174,0.118663,-0.676074,0.727216
0.023968,-0.342038,0.525536,0.723075,0.310544,-0.617029
-0.456607,0.261335,-0.981262,0.344976,-0.181270,-0.920941
-0.169786,0.672164,0.414891,-0.071542,-0.092241,0.993163
-0.029222,0.243437,0.383991,0.412796,0.895266,-0.167625
0.144097,-0.633506,0.402789,-0.176744,-0.396534,-0.900845
0.393044,0.567261,0.592695,-0.661504,-0.668543,-0.339797
0.692866,0.376812,0.200792,0.147835,0.538306,0.829682
0.042970,-0.135735,0.742127,-0.627683,-0.765958,-0.139002
-0.066534,-0.146943,0.295456,-0.639748,0.146788,-0.754438
0.958998,-0.050830,0.194001,-0.484281,-0.466634,0.740084
0.354854,0.592865,0.600896,0.933920,0.171850,0.313465
-0.688364,0.513375,0.593333,0.119252,0.339426,0.933043
0.689989,0.360507,0.202442,-0.477226,-0.395212,-0.784896
0.418920,0.444522,0.545742,0.235703,-0.846334,0.477665
0.049905,0.191973,0.779145,0.500402,-0.436117,0.747930
0.469356,0.107259,0.219398,-0.289925,-0.196892,-0.936577
0.215163,-0.008281,0.404475,0.092969,0.076234,0.992746
-0.265042,0.287580,-0.663744,-0.660383,0.720125,0.212870
0.380730,0.747513,0.735793,0.186105,-0.697211,0.692287
-0.662301,-0.080574,0.581725,-0.283743,0.498197,0.819323
0.005905,0.399807,0.025915,0.051982,-0.993729,0.098997
0.039281,0.297641,0.736010,0.468009,-0.873253,-0.135637
0.004654,0.832546,0.400730,-0.487734,0.335000,-0.806158
0.417104,0.023567,0.476933,0.805825,0.566977,0.170831
-0.842181,0.146305,0.605532,-0.484794,0.294637,-0.823507
0.201224,0.072227,0.757385,-0.424978,0.800445,0.422707
-0.281102,-0.435861,0.472562,0.245480,-0.045585,0.968329
-0.610927,0.261273,0.245361,0.094210,-0.492022,0.865470
0.077784,-0.044905,0.750063,0.881321,0.273374,0.385408
0.655549,-0.871655,0.447923,-0.111783,0.386213,0.915611
-0.073347,0.617388,0.636673,0.806787,0.342479,0.481459
-0.268979,0.317577,-0.971075,-0.543418,0.499092,0.674984
-0.253979,0.807642,0.595983,-0.347374,-0.645624,0.680074
-0.276666,0.502354,-0.978998,-0.346089,0.339539,0.874606
0.302416,0.653437,0.696596,0.239267,-0.644063,0.726591
0.027531,0.173312,0.797389,0.971121,0.119091,0.206739
0.260601,0.356433,0.779904,0.425770,0.735088,-0.527603
0.099784,-0.315034,0.569538,-0.470948,0.323576,-0.820675
-0.179849,0.063885,0.463265,0.702468,-0.379077,-0.602361
-0.389855,0.196113,0.175227,-0.318147,0.564786,-0.761445
-0.022343,-0.141847,0.529811,-0.255396,0.359870,0.897367
-0.119286,-0.269044,0.169711,-0.158775,-0.095809,0.982655
0.126660,-0.188027,0.170482,0.364296,-0.897569,0.248311
0.605113,-0.605542,0.423273,0.317582,0.183376,0.930331
-0.171976,-0.221402,0.483279,-0.474226,0.077636,0.876973
-0.101035,0.517068,0.324599,0.905635,0.239651,0.349847
0.354354,-0.709045,0.395636,-0.634716,-0.067239,0.769815
0.293916,-0.252612,0.276068,-0.008677,0.207526,0.978191
-0.152974,-0.453440,0.284329,0.325400,0.757641,-0.565769
0.059343,0.138915,0.841946,0.805899,0.591784,-0.017840
-0.132035,0.280380,-0.440180,0.936403,0.077887,0.342174
0.161412,-0.574267,0.590142,0.267252,-0.364789,-0.891911
0.309042,-0.768343,0.399465,0.149299,0.054859,-0.987269
-0.501984,0.310952,-0.988427,-0.435451,0.192468,0.879397
-0.503296,0.489552,-0.993870,0.383779,-0.134719,-0.913545
-0.148473,0.371782,0.602750,-0.449491,0.300518,0.841218
0.202910,0.724522,0.511265,0.303811,-0.824140,0.478008
0.382294,-0.442423,0.410833,-0.810711,0.578655,0.088916
0.014843,0.483946,0.420118,0.792425,-0.197180,0.577219
0.354415,0.568214,0.583073,0.210808,0.926881,0.310566
0.206225,0.001780,0.401705,0.134281,0.098241,0.986062
0.194163,-0.325033,0.746499,0.486185,-0.349680,-0.800842
-0.041032,-0.463886,0.388471,0.185367,0.280505,0.941783
0.379356,0.776048,0.745909,0.767385,-0.520181,0.374876
-0.160661,0.595092,0.586108,-0.116965,0.753330,0.647158
-0.555734,0.528152,0.370504,0.218425,-0.178894,0.959316
-0.687677,0.025666,0.574210,-0.231503,0.413046,-0.880795
0.393418,0.457324,0.565046,0.199024,0.887107,-0.416450
0.184973,0.032866,0.358823,0.322529,0.254288,0.911763
-0.474670,0.238725,0.385954,0.541009,0.648492,0.535507
0.678678,-0.651594,0.401428,0.897397,-0.126609,0.422668
0.086783,0.071081,0.711612,0.923662,0.005621,-0.383167
0.305414,-0.741340,0.097193,0.195433,0.186380,0.962844
0.316729,-0.496433,0.563914,-0.470420,-0.424205,-0.773793
0.671613,-0.469107,0.275755,0.528449,0.200425,0.824967
0.202475,0.232163,0.237533,0.545564,0.832487,-0.096568
0.036717,0.482100,0.402946,-0.620865,0.418241,0.663025
-0.050096,0.593121,0.829903,0.826767,-0.339600,0.448472
-0.113971,0.104584,0.381306,0.059982,-0.117433,0.991268
-0.047159,0.236622,0.485049,0.980993,0.192958,0.020486
-0.005657,0.571335,0.308185,0.763716,0.625675,0.158961
-0.198725,-0.301467,0.497754,-0.697902,0.378989,0.607701
0.299101,0.361973,0.146265,-0.700200,-0.304093,-0.645947
0.320852,0.491018,0.399273,-0.454799,0.296268,-0.839871
-0.120911,0.618725,0.442119,0.933575,0.257610,-0.249148
0.340480,0.389299,0.669958,0.347444,-0.331080,0.877307
0.113910,-0.774333,0.400730,-0.223123,-0.121978,-0.967128
0.000969,0.428342,0.436881,0.941054,0.105379,0.321424
0.186098,0.445988,0.871955,0.798533,-0.473741,-0.371367
0.178285,0.222801,0.220939,-0.057946,-0.214748,0.974949
-0.099849,0.098597,0.390662,-0.088600,-0.099421,0.991093
-0.085223,0.811592,0.177045,-0.376694,-0.924724,0.054647
-0.077158,0.403057,0.649053,0.852287,0.259607,-0.454105
-0.450045,0.554712,-0.993774,0.348578,-0.199631,-0.915773
-0.128098,0.711844,0.515745,-0.070954,0.928287,0.365034
-0.213225,0.516688,-0.028179,0.774598,0.567161,-0.279867
0.330103,0.516050,0.784179,-0.008584,-0.511899,0.859003
0.220161,0.395795,0.717043,0.469381,-0.244751,0.848398
-0.120659,-0.076243,0.776099,0.199786,0.901699,-0.383437
-0.256539,0.405794,0.556111,0.878397,0.411589,0.242925
-0.230228,0.361017,0.104045,-0.437606,0.888257,0.139645
0.189161,-0.004078,0.845859,0.157782,0.439129,0.884461
-0.179037,0.682163,0.592527,0.764801,0.099391,-0.636553
0.057657,-0.462483,0.384328,0.268246,0.353624,0.896099
-0.014908,0.102865,0.604015,0.171452,-0.075923,0.982263
-0.119099,0.358280,-0.394648,0.164145,0.827540,0.536874
0.000656,0.455030,0.579545,-0.191793,-0.934206,0.300791
-0.071722,0.077705,0.250611,-0.222365,-0.220371,0.949732
-0.297227,-0.165098,0.150805,-0.407755,-0.030363,0.912587
-0.540361,0.586178,0.138883,-0.471773,-0.007021,-0.881692
-0.372856,-0.157770,0.584543,0.136345,0.631532,0.763267
0.096595,-0.871336,0.408076,-0.791669,0.302248,-0.530949
0.120411,0.182864,0.920617,0.701108,0.712135,-0.036212
-0.063658,-0.115096,0.661649,-0.268094,0.463485,0.844575
-0.156476,0.286686,-0.312809,-0.250797,-0.947629,0.197737
0.082720,-0.052996,0.746330,-0.731065,-0.650929,-0.204535
0.013405,0.379872,0.295577,0.979373,-0.168542,0.111457
0.713679,0.262801,0.203381,0.314062,0.527171,0.789592
0.325480,-0.814395,0.116039,0.266773,0.962364,-0.051847
0.402482,-0.513313,0.285967,0.786455,-0.196624,0.585514
-0.162286,0.406051,0.605821,-0.485184,0.300773,0.821055
0.004780,0.277006,0.878819,0.525120,0.850209,0.037320
0.666738,-0.287262,0.272492,-0.563252,0.097458,-0.820518
0.066534,-0.093248,0.731518,-0.314585,-0.135395,-0.939524
0.098220,0.082992,0.889585,0.473915,0.880570,-0.000594
-0.265290,0.328660,-0.796667,-0.445952,0.893110,0.059006
0.282602,-0.309681,0.563782,-0.140428,0.438334,0.887774
-0.689802,0.047071,0.196987,-0.303843,-0.122657,-0.944794
-0.000095,-0.797962,0.414349,0.350823,0.634933,0.688319
-0.060285,-0.803311,0.415650,-0.385454,-0.667672,-0.636898
0.533795,-0.151402,0.276345,0.271847,0.052490,0.960908
0.097972,0.540507,0.106309,-0.549634,0.056885,0.833467
0.170412,-0.595734,0.391782,0.225128,0.554843,0.800916
0.388356,0.428342,-0.240628,0.019670,0.551862,0.833703
0.100410,0.087770,0.658289,0.378551,-0.138776,-0.915118
0.197100,0.032356,0.404415,0.168878,0.102302,0.980313
0.132034,0.079808,0.621717,-0.449664,0.250362,0.857392
0.153161,0.176559,0.683879,0.098337,0.656450,-0.747933
-0.039659,0.495667,0.280729,0.977183,0.175349,0.119861
-0.304479,-0.373185,0.469672,0.289416,0.115859,0.950166
-0.018220,-0.923566,0.420696,0.637330,0.601826,0.481264
0.108158,0.017704,0.266916,-0.418278,0.053090,-0.906766
-0.919622,0.365223,0.200142,0.283150,-0.412342,0.865910
-0.151288,0.313184,0.836021,-0.728804,0.115375,-0.674932
0.115223,0.249999,0.640117,-0.184619,0.665751,0.722974
-0.077345,0.900571,0.098590,0.473707,-0.325733,0.818229
0.547796,0.181784,0.522465,0.099074,-0.440370,-0.892333
0.420919,0.091273,0.548127,0.730810,0.318007,0.603978
-0.176473,0.654456,0.612469,-0.283174,0.101775,0.953653
0.552610,-0.067135,0.214761,-0.414454,0.553553,-0.722362
-0.405606,0.394267,0.536867,0.017079,-0.390886,0.920281
0.431105,0.122673,0.221541,0.316634,0.083653,0.944852
-0.236728,-0.105159,0.478595,0.831172,-0.353269,-0.429366
0.499920,0.191845,0.516986,0.240613,-0.236400,-0.941393
0.480922,0.271400,0.634590,-0.253028,-0.238022,0.937722
0.235977,0.102100,0.779928,-0.222518,-0.586575,0.778727
-0.305418,0.820444,0.495683,-0.538028,-0.642182,0.546011
-0.155538,-0.212869,0.388374,0.451073,-0.252613,0.855991
-0.127537,0.295733,0.731626,-0.129141,-0.680193,0.721567
0.005532,0.182355,0.578955,0.916646,0.394551,-0.063952
0.358356,0.552547,0.784396,0.056899,-0.531212,0.845326
-0.173475,0.447197,-0.971954,-0.038053,0.391643,0.919330
-0.570612,0.396561,0.599728,0.057641,0.650182,0.757589
0.341727,-0.747770,0.152455,0.891339,0.446809,-0.076658
0.266415,0.438535,-0.244289,-0.126182,0.574596,0.808652
-0.356357,0.794393,0.304488,0.221060,0.370065,-0.902322
-0.179224,0.348724,-0.433569,0.825175,0.465871,0.319453
-0.191286,0.403500,-0.405607,0.059259,0.996533,0.058393
-0.142785,0.141975,0.037536,0.905500,-0.414321,-0.091700
-0.503235,0.091144,0.185414,-0.370779,-0.201324,-0.906638
0.411607,0.623246,0.717946,0.877898,-0.196770,0.436552
-0.597488,0.164266,0.182259,0.165038,0.272038,0.948028
0.139035,-0.324586,0.565251,0.282621,-0.264513,0.922040
-0.157598,0.123629,0.784131,-0.002744,0.653951,0.756532
-0.173662,0.214268,-0.723149,0.402640,-0.912975,0.066018
-0.181726,0.395348,-0.338736,0.012435,-0.990990,-0.133359
-0.304228,-0.038600,0.398104,0.201788,-0.099009,0.974412
-0.733806,-0.535095,0.418203,-0.269802,-0.062433,-0.960890
-0.608864,0.707642,0.296468,0.471664,-0.262604,-0.841767
-0.091098,0.394905,-0.067388,0.043242,0.998887,-0.018812
-0.156663,0.535604,0.685866,-0.356635,-0.209391,-0.910476
-0.452856,-0.124267,0.405005,-0.157242,-0.252242,-0.954803
0.019158,-0.194842,0.693139,-0.339949,-0.896537,0.284001
-0.031407,0.445350,-0.027324,0.283120,0.959084,-0.000478
-0.003220,0.307007,0.920846,-0.358444,0.822519,-0.441565
-0.226913,0.342100,0.859154,0.766997,-0.265099,0.584326
0.541108,-0.468027,0.289460,0.155286,0.096990,0.983097
-0.462733,0.043312,0.686300,-0.468412,0.030177,-0.882995
-0.138722,0.606561,0.543972,0.728472,0.577140,-0.369104
0.105285,0.281590,0.890500,0.972346,-0.217149,-0.085961
0.067720,-0.172550,0.153045,0.883612,-0.104774,0.456347
-0.209349,0.654522,0.066425,0.328103,-0.913437,-0.240791
0.333728,0.737961,0.746571,0.767385,-0.520181,0.374876
0.181036,-0.059492,0.856673,-0.270743,0.432159,0.860195
-0.032594,0.375094,0.151287,0.279158,0.852254,0.442419
-0.784620,0.331654,0.157151,0.946337,0.016751,-0.322748
-0.095973,0.357452,0.786407,0.901503,-0.414271,-0.125188
0.500107,-0.872868,0.423454,0.842733,0.195858,-0.501439
0.011780,0.142993,0.782132,0.709722,-0.651460,0.268131
-0.088660,0.386877,0.790706,-0.744281,0.666878,-0.036325
-0.493423,0.781720,0.302092,-0.101896,0.089397,0.990770
0.163598,-0.593502,0.104382,0.785379,0.409339,-0.464350
-0.225414,0.345540,0.103323,-0.269995,0.824678,-0.497000
-0.187788,0.010318,0.792909,-0.431576,0.746478,-0.506472
-0.049097,0.345988,0.871088,-0.717671,-0.696109,0.019499
-0.740993,0.011208,0.211378,0.280195,-0.051416,0.958565
0.212413,-0.013949,0.606279,0.033508,-0.996757,0.073161
0.101970,-0.307707,0.544851,0.529000,-0.390335,-0.753523
0.075720,0.716051,0.609000,0.208074,-0.123079,0.970339
0.720302,-0.520765,0.272299,0.527161,0.025086,0.849395
0.086844,-0.741273,0.406089,0.126029,0.183982,0.974817
-0.728679,-0.175031,0.577763,-0.628156,0.724862,0.282833
0.104534,0.982354,0.408894,0.273410,0.208144,-0.939108
0.198286,0.399745,0.891150,-0.751285,-0.154832,-0.641559
-0.020470,-0.312931,0.178815,0.854912,-0.063272,-0.514901
-0.056223,0.374647,0.213822,0.455820,-0.108045,-0.883490
0.008969,-0.266817,0.797293,-0.391286,0.556195,0.733173
-0.553549,0.439297,0.541624,-0.483013,-0.553436,-0.678533
-0.151162,-0.099553,0.684361,-0.454448,0.854373,-0.252039
0.064470,0.201529,0.776532,0.130374,-0.553132,0.822829
-0.547361,0.244712,-0.990739,-0.383090,0.201821,0.901394
-0.471297,0.610825,0.284438,-0.805714,0.266438,-0.528994
-0.536172,0.262867,0.590275,-0.439082,-0.285330,0.851936
-0.398419,-0.138410,0.585614,0.328244,0.584324,0.742173
-0.264477,0.905858,0.112535,0.555942,-0.213786,0.803258
-0.482482,0.184458,0.607989,0.355056,0.899486,-0.254678
0.257164,-0.483503,0.141701,0.063431,0.154525,0.985951
0.029470,-0.042421,0.704664,0.035919,0.384474,0.922437
0.415231,-0.118155,0.350152,-0.242871,-0.540157,-0.805757
0.043718,0.368469,0.148938,0.426464,0.377474,0.821974
-0.456298,-0.410257,0.420600,0.496465,0.237542,-0.834923
-0.292604,0.326367,0.602654,-0.040622,0.357359,0.933083
-0.243164,0.387962,0.875567,0.545829,-0.609900,0.574536
-0.214602,-0.671273,0.483243,-0.160588,0.352551,0.921911
-0.203353,0.032994,0.778110,0.996512,0.053549,0.064008
0.026345,0.499042,0.257222,0.874519,0.185604,0.448070
0.135598,-0.692037,0.395082,0.201662,0.116145,0.972545
0.424543,-0.283121,0.641791,0.132033,0.086294,0.987482
-0.234100,0.360955,0.860057,0.630320,-0.504870,0.589749
0.103782,0.335794,-0.077155,0.076264,-0.977417,0.197078
0.363853,0.526943,0.581074,0.996368,-0.035749,0.077290
-0.213599,0.336369,0.857336,-0.763622,0.178379,-0.620534
0.045282,0.248980,0.819005,0.557943,0.292164,-0.776750
-0.246040,-0.424649,0.289869,-0.272884,-0.802270,0.530940
0.277478,0.461911,0.595164,0.088618,-0.974905,0.204222
-0.426607,-0.349556,0.434448,-0.195309,0.815797,0.544362
0.541360,0.057260,0.509676,-0.244964,-0.803994,0.541836
0.117660,-0.781082,0.411002,0.197273,0.384448,0.901822
0.146786,0.044074,0.821136,0.881521,0.291772,-0.371201
0.002655,-0.057326,0.187715,0.357048,0.298799,-0.885006
-0.049284,0.357452,0.903349,-0.472082,-0.879530,-0.059708
-0.053221,0.259555,0.240062,-0.466583,0.862768,0.194760
-0.075472,-0.669236,0.415915,0.214988,0.759571,0.613867
-0.321165,0.431335,0.595537,0.424033,0.121168,-0.897505
0.093844,0.293248,0.782035,-0.797225,0.305305,-0.520789
0.932745,0.025541,0.510170,-0.026471,0.109265,0.993660
-0.117099,0.257961,0.910418,0.948752,-0.139296,-0.283665
-0.142849,0.787707,0.427777,-0.131345,0.166540,-0.977248
-0.042531,-0.569108,0.275888,0.930984,-0.273234,0.242099
-0.126599,0.069234,0.463819,0.595683,-0.377337,-0.709069
0.608738,-0.005544,0.490613,0.227679,-0.758075,0.611134
-0.609676,0.329998,0.617514,0.845175,-0.298119,0.443625
0.113971,0.196304,0.983406,0.968407,-0.154771,0.195535
-0.259415,0.583309,0.426055,-0.361695,0.233543,-0.902571
-0.354167,0.537323,-0.986127,-0.284480,0.243543,0.927231
-0.033094,-0.381209,0.522405,0.650197,0.310715,-0.693325
0.574297,0.197769,0.649547,0.428567,0.903371,-0.015839
-0.184851,0.209809,0.843908,-0.351798,-0.414685,0.839211
-0.297105,-0.329745,0.167652,-0.504928,0.423432,-0.752165
0.097407,0.227708,0.872665,0.045149,-0.642392,0.765045
0.658052,-0.824394,0.445720,0.101170,0.464515,0.879767
0.590175,-0.016942,0.479655,0.294078,0.895189,-0.334896
-0.010407,0.346621,0.931407,-0.170573,-0.619708,0.766073
0.290475,-0.260958,0.275515,-0.008677,0.207526,0.978191
0.360981,-0.631783,0.139810,0.621299,0.277126,0.732931
-0.131287,0.119679,0.793078,0.925264,-0.056628,0.375072
-0.189726,0.449362,-0.969340,-0.031278,0.371409,0.927942
-0.372543,0.253630,0.090774,-0.326241,0.895487,-0.302771
-0.213664,0.348852,-0.135307,0.928989,0.366041,0.054721
-0.029096,0.226114,0.409846,0.444021,0.294256,-0.846321
-0.563360,0.250446,-0.992100,-0.332919,0.166897,0.928068
0.074595,0.342866,0.941691,0.775697,0.612451,-0.152307
-0.313539,0.641335,0.481184,0.039428,0.424774,-0.904441
0.347228,-0.319684,0.648692,0.252593,0.020396,0.967358
0.100845,0.399679,0.113125,0.933162,-0.317861,-0.167849
0.174848,-0.206369,0.407594,0.566975,0.332496,0.753648
0.652238,0.145987,0.215857,-0.286273,-0.055965,-0.956512
-0.162473,0.760509,0.213352,0.537848,0.097446,0.837391
0.262413,0.112546,0.090281,-0.084751,-0.053372,0.994972
0.149537,0.148599,0.893908,0.461400,-0.015871,0.887050
-0.389855,-0.173631,0.591371,0.413013,0.552924,0.723668
-0.011971,0.624331,-0.116099,0.926315,-0.368677,0.077583
-0.066660,-0.281465,0.538349,0.837409,0.452946,-0.305919
0.270287,0.269744,0.209583,0.031228,0.654928,0.755046
-0.927685,0.691209,0.201599,-0.710038,0.587617,-0.388010
0.157849,-0.812167,0.400116,-0.657428,0.024190,-0.753129
0.009281,0.161082,0.899291,0.612990,0.627022,0.480716
-0.133785,-0.881401,0.490758,0.243095,0.744899,0.621313
0.165410,-0.116181,0.686287,0.679740,0.053813,0.731476
-0.260476,0.264776,-0.438976,0.764158,0.602336,0.230768
-0.690428,-0.534714,0.417673,-0.315571,0.083242,-0.945244
0.137223,-0.559428,0.581424,0.441681,-0.159430,-0.882893
-0.223163,0.311718,0.743079,-0.132213,-0.467313,0.874150
0.208037,0.243246,0.220132,-0.230617,-0.521040,-0.821787
0.017029,0.393373,0.928216,-0.356822,-0.837524,0.413801
-0.102535,0.682928,0.523561,0.282298,0.875875,0.391346
0.263539,-0.241847,0.629003,0.514099,0.009317,-0.857680
-0.566111,0.311590,0.146277,0.155694,0.688721,0.708112
-0.017281,0.639360,0.744620,0.945797,-0.084846,-0.313479
-0.725181,0.215096,0.391541,-0.085356,0.548481,0.831795
0.021031,0.658915,0.161017,-0.189402,-0.072425,0.979225
0.207976,-0.364205,0.561422,0.024850,0.443547,0.895907
-0.340167,-0.053058,0.669597,0.553228,0.115981,0.824916
-0.165162,-0.254649,0.493515,-0.897018,0.273777,-0.346994
0.595924,-0.456305,0.401705,-0.449149,-0.438386,-0.778513
-0.008595,0.312418,0.921557,-0.200183,-0.887507,0.415039
0.492359,-0.106625,0.489132,-0.235023,0.780609,-0.579150
0.304475,0.089426,0.355162,0.545876,0.390857,0.741114
-0.147599,0.390318,0.758276,0.739607,0.268323,-0.617239
-0.170351,0.245859,0.803723,0.612262,0.499589,0.612818
-0.258850,0.703758,0.400573,0.460853,0.184469,0.868093
-0.326918,0.102228,0.662203,0.086237,0.069382,0.993856
-0.443484,0.709041,0.234968,0.409726,0.116669,0.904717
-0.519673,0.012802,0.571705,-0.478372,0.362394,-0.799894
0.270100,0.640188,0.722185,-0.358946,0.855684,-0.372777
0.025533,0.604967,0.390891,0.785391,-0.141147,0.602693
-0.036344,0.682229,0.070628,0.948439,-0.272914,0.161186
-0.277726,0.646751,0.215171,-0.407032,0.189499,-0.893541
-0.105346,-0.730956,0.369938,0.824956,-0.193930,-0.530884
0.373291,0.556240,0.786214,-0.414959,0.705882,-0.574056
-0.207038,0.720634,0.488758,0.299671,0.653641,-0.694946
0.437231,-0.737261,0.107019,-0.562093,0.741450,0.366475
-0.190474,0.406241,0.860214,-0.532619,0.541704,-0.650288
-0.405858,0.076434,0.343180,-0.252325,0.269935,0.929229
-0.546548,-0.218537,0.406498,-0.040883,0.329324,0.943331
-0.276292,0.391527,0.751797,-0.085548,-0.371947,0.924304
0.016030,0.485478,0.246156,0.841837,0.129269,0.524022
0.515858,-0.354649,0.399538,0.675346,0.698286,0.237285
-0.203787,0.664140,0.100926,0.750783,-0.121783,0.649225
0.630051,-0.399492,0.272926,0.633149,0.482376,0.605340
0.871559,-0.006372,0.535410,0.052170,-0.141418,0.988574
0.045782,-0.038790,0.183692,0.024331,-0.240174,0.970425
-0.476733,-0.391084,0.421587,-0.681713,-0.080178,0.727213
-0.145474,-0.440701,0.290929,0.265939,0.783262,-0.561940
0.109722,-0.801531,0.403897,-0.030299,0.207395,0.977788
0.252037,-0.336751,0.676256,0.698151,0.533798,-0.477121
-0.350543,0.925032,0.130875,-0.440529,-0.164601,-0.882520
-0.212539,0.396561,-0.481063,0.602513,0.757829,-0.250347
0.290040,0.296176,-0.303212,-0.139098,-0.299553,-0.943886
-0.255913,0.459489,-0.973375,-0.215379,0.217878,0.951914
-0.490108,0.646879,0.238135,0.272943,0.027681,0.961632
-0.234100,0.289299,0.546417,0.431891,0.260804,0.863395
0.267541,0.364648,0.708156,0.155806,0.364165,0.918209
-0.174600,-0.657134,0.482087,0.115544,0.411137,0.904221
0.075472,-0.277900,0.717453,0.321220,-0.155979,-0.934071
-0.259354,0.726240,0.110584,-0.679016,0.129789,-0.722559
0.125160,0.722038,0.619622,-0.524425,-0.291031,-0.800174
0.005657,0.566495,0.440854,0.888531,-0.150463,0.433444
-0.001095,-0.134779,0.488132,0.161091,-0.983165,0.086230
-0.120098,0.221274,0.824207,0.236025,-0.717391,0.655471
0.114471,-0.273760,0.391241,0.257716,0.878635,-0.401973
0.595798,0.039490,0.519864,0.489562,0.547557,-0.678609
-0.084658,0.487834,0.466252,0.969308,-0.000277,0.245849
-0.294355,-0.536052,0.455137,0.581534,0.459737,-0.671164
0.369854,-0.372229,0.128888,0.569139,-0.147196,0.808959
0.088660,0.281465,0.967691,0.387758,-0.823704,-0.413709
0.615299,-0.702549,0.274587,-0.145248,-0.688063,0.710965
-0.262913,0.802927,0.349996,-0.083419,-0.119293,0.989348
-0.243103,0.307259,-0.802459,0.360217,-0.932037,-0.039366
-0.275727,-0.052230,0.445936,0.900372,-0.427620,0.080442
0.059408,0.199425,0.892090,0.972904,0.210874,-0.094818
-0.074660,0.691780,0.599559,0.625232,-0.042330,-0.779290
0.008969,0.289361,0.863874,-0.537863,0.245706,-0.806432
0.287538,-0.309619,0.411484,0.393325,0.313044,-0.864464
-0.294416,0.389233,0.750762,0.157777,0.382519,-0.910377
0.376354,0.674267,0.551029,0.297515,0.758499,0.579796
-0.451296,-0.098725,0.397490,-0.258289,0.407639,0.875852
-0.221290,0.404266,0.868053,0.545829,-0.609900,0.574536
0.110595,0.179743,0.900820,0.730144,0.653753,-0.198739
-0.629425,0.345284,0.616960,0.401547,0.898314,0.178305
0.006405,0.428851,0.939536,-0.400435,-0.739631,0.540923
0.311727,-0.177772,0.284040,0.248644,-0.116971,-0.961506
-0.040658,-0.855798,0.426693,0.527831,0.448295,0.721406
0.529923,0.527961,0.605195,0.466062,-0.830749,-0.304373
-0.013096,0.355287,0.550836,-0.166459,-0.084264,-0.982441
0.097846,0.240700,0.876700,0.272359,-0.627987,0.729008
0.022408,0.392930,0.247516,0.950856,0.148380,0.271766
-0.398419,0.295223,0.395949,0.858826,0.381110,-0.342305
0.178350,-0.065797,0.696547,0.833292,0.348172,0.429420
-0.442545,0.190188,-0.979709,-0.354441,0.209543,0.911297
0.067720,-0.366180,0.551065,-0.725142,0.213003,0.654827
-0.087722,0.469998,0.689286,0.531177,0.667162,-0.522250
0.303854,-0.653632,0.401657,-0.317857,-0.124963,0.939867
-0.167474,0.152673,0.827603,0.223825,0.973988,-0.035348
-0.551050,-0.052168,0.558363,0.517559,-0.782832,0.345409
-0.004406,-0.004716,0.589998,0.155504,0.149696,-0.976427
0.362041,-0.463824,0.403355,-0.582324,0.166000,-0.795828
-0.322917,0.123757,0.676557,0.391138,0.637797,-0.663495
0.609485,0.140890,0.523886,-0.198194,0.170151,0.965281
0.148160,0.402991,0.736323,0.890682,-0.233184,0.390270
-0.167661,0.225985,0.623066,0.517835,0.806238,0.286054
0.235099,0.097007,0.906203,0.489718,-0.401046,0.774169
-0.480548,0.153820,-0.983394,-0.437142,0.203874,0.875981
0.014905,-0.108090,0.587011,-0.633158,0.502281,-0.588918
-0.552862,0.724840,0.302658,-0.144935,0.103630,0.983999
-0.686739,0.446878,0.361376,0.682533,0.082648,-0.726166
0.126785,0.126432,0.779434,-0.242564,-0.649523,0.720613
-0.164224,0.280828,0.752484,0.824757,-0.120973,-0.552397
-0.073222,-0.427452,0.465324,0.167469,0.108561,0.979882
0.225913,-0.580510,0.590516,0.033026,0.498680,0.866157
0.683050,-1.000000,0.450019,-0.231334,-0.298767,0.925863
-0.011593,-0.361592,0.463145,-0.135186,0.285155,0.948900
0.030156,-0.156561,0.274250,0.943003,-0.132838,0.305123
-0.789995,0.554584,0.150058,0.887058,-0.113882,0.447391
-0.055220,-0.617897,0.386086,0.797241,0.003535,-0.603650
-0.102474,0.655093,0.441324,0.947449,0.167946,0.272276
0.246788,-0.744205,0.398731,-0.077087,0.151246,0.985486
0.199663,0.392611,0.883455,-0.424560,0.704381,0.568855
0.864433,0.018217,0.200732,0.480503,-0.067466,0.874394
0.036595,0.574204,0.117135,0.799394,0.189363,0.570185
0.512795,-0.419747,0.404800,0.632400,0.273327,0.724819
0.374043,0.581400,0.703628,0.931585,-0.129859,-0.339537
0.142033,-0.462549,0.373550,0.362813,0.459766,0.810545
-0.056532,-0.713633,0.382353,0.808641,-0.285941,-0.514138
-0.520234,0.328470,0.357896,0.248605,0.966333,0.066299
-0.358856,-0.011402,0.670464,0.879299,0.394301,0.267133
0.621986,0.047833,0.521983,0.326950,0.222601,-0.918451
-0.062784,-0.512994,0.461772,-0.768185,0.371054,-0.521738
0.352416,0.040699,0.578040,-0.166722,0.973611,0.155836
-0.359981,0.134013,-0.967654,0.483419,-0.104638,-0.869113
-0.290666,0.125223,0.661974,-0.311856,0.128132,-0.941450
-0.148160,0.025032,0.797991,0.307089,0.766015,0.564727
0.662927,-0.094013,0.359521,-0.518516,0.116071,0.847153
0.388669,0.441848,0.665503,0.496468,-0.272563,0.824153
-0.299665,0.384459,0.402187,0.033090,-0.631352,0.774790
0.314978,-0.461911,0.138859,0.568831,0.179400,0.802650
-0.179163,0.888850,0.607953,-0.813504,0.495523,-0.304414
-0.068220,0.258214,-0.027974,0.151284,0.318145,0.935894
-0.425859,0.331526,0.561060,-0.239042,0.917695,0.317325
-0.086661,0.204522,0.167724,-0.817240,0.467507,0.336980
0.135659,0.014839,0.267627,-0.619519,0.241129,-0.747029
-0.209662,0.640317,0.211305,-0.520070,0.105892,-0.847534
0.392293,-0.604333,0.292735,-0.425895,-0.903030,0.056124
-0.676801,-0.039109,0.190906,-0.329029,0.339290,-0.881262
-0.964436,0.285730,0.192471,0.327587,-0.225711,0.917465
-0.045282,0.015414,0.541937,0.942785,-0.028199,0.332206
-0.318541,0.305541,-0.967739,-0.609481,0.370437,0.700935
0.069907,-0.199939,0.719090,-0.318715,0.081730,0.944320
-0.000095,-0.849873,0.419865,0.808098,0.131342,0.574218
-0.367729,0.052673,0.666105,-0.197461,-0.421607,-0.885018
-0.040784,0.397832,0.821425,0.990955,0.077793,0.109345
-0.252163,0.331145,-0.819306,-0.388296,0.920132,-0.050832
0.064344,0.038281,0.180971,0.989717,0.117779,0.081172
-0.217101,0.182864,0.613709,0.203538,0.392485,0.896955
-0.086909,-0.027964,0.784805,0.173546,0.270261,0.947017
-0.247978,-0.121977,0.345624,0.766424,0.583022,-0.269592
-0.326731,0.204522,0.169495,-0.393468,0.913847,-0.100327
0.175722,-0.646051,0.597729,0.368753,-0.720360,-0.587454
-0.087661,0.547835,0.613733,-0.129825,-0.313875,0.940547
0.123974,0.165475,0.556026,0.732413,0.043616,0.679462
-0.286916,0.365285,0.458954,-0.720679,0.248601,0.647162
0.633423,0.167769,0.638516,-0.015719,-0.297191,0.954689
0.314478,-0.420384,0.641827,-0.135116,0.040151,0.990016
-0.014409,0.634777,0.393914,-0.669477,0.221857,-0.708928
-0.458483,-0.083824,0.575920,0.381604,0.624370,0.681572
0.361541,0.322355,-0.297588,0.275201,0.289924,0.916629
0.014218,0.371719,0.329391,0.794034,0.289004,-0.534777
0.474483,0.084330,0.079154,-0.641779,-0.296519,-0.707245
-0.155911,0.040765,0.764044,-0.248623,0.141838,0.958159
-0.158288,-0.014268,0.808047,-0.596489,-0.705862,-0.382046
0.140721,-0.366242,0.121591,0.503785,0.453645,-0.735124
-0.358669,0.729105,0.231356,0.587685,0.067123,0.806301
-0.261914,0.556430,-0.980937,-0.267349,0.313272,0.911255
0.343604,-0.345288,0.416433,-0.072223,-0.224236,0.971855
0.573798,0.157323,0.628906,-0.025245,-0.304318,0.952236
-0.171289,0.628790,0.213605,-0.520070,0.105892,-0.847534
0.036656,0.265347,0.252128,0.974465,-0.019280,0.223710
-0.510922,0.491908,0.275117,-0.356599,0.386334,-0.850637
-0.078784,0.391274,0.745921,0.173322,-0.702589,0.690166
-0.014344,-0.640511,0.402367,-0.892960,0.190014,-0.408065
0.359729,-0.313250,0.648053,0.188928,0.065898,0.979777
-0.124721,0.299678,0.256717,0.358908,0.761694,-0.539451
-0.653989,0.457895,0.587192,0.067426,0.240169,0.968387
0.324477,-0.282103,0.695295,0.372316,-0.146872,-0.916411
0.069033,0.329807,0.325923,0.819028,-0.386194,-0.424320
0.022717,0.849935,0.153298,-0.486004,0.162169,-0.858779
0.375229,0.503120,0.395130,-0.443980,0.196373,-0.874254
-0.042409,0.330188,0.895365,-0.138385,-0.935719,0.324469
0.405919,-0.608536,0.131537,-0.601455,-0.206084,-0.771869
-0.102287,0.694649,0.500777,0.249738,0.942645,0.221475
0.158723,0.199744,0.959526,0.162573,-0.983700,0.076841
0.220664,0.408278,0.782397,-0.320600,-0.026931,0.946832
-0.440169,0.345731,-0.983056,0.424224,-0.239053,-0.873435
0.133473,-0.193952,0.732722,0.662524,0.557531,-0.500221
-0.004971,-0.128601,0.483616,0.161091,-0.983165,0.086230
-0.078910,0.297832,0.586843,0.512039,0.858043,0.039731
-0.461360,0.027516,0.682277,-0.469117,0.140767,-0.871845
0.379044,0.443375,0.661553,0.057064,-0.782293,0.620291
0.154035,0.698086,0.509592,0.366002,-0.767682,0.526030
-0.765179,-0.214587,0.578558,0.346606,-0.828329,-0.440153
0.384667,-0.380066,0.647054,-0.279527,0.046310,-0.959020
0.376228,-0.050574,0.768163,0.269312,0.112639,-0.956443
0.102722,0.283055,0.878903,0.365040,-0.580450,0.727890
-0.727680,0.201910,0.589432,0.693548,-0.109139,0.712095
0.268475,-0.013824,0.355836,0.532855,0.471350,0.702776
0.373043,-0.253249,0.154659,0.727067,0.376194,-0.574327
-0.351417,0.489871,-0.983406,0.348150,-0.222762,-0.910587
-0.259354,0.397004,0.754447,-0.008788,-0.304613,0.952436
-0.306292,0.054838,0.667851,0.110189,0.180043,0.977468
-0.187536,-0.237897,0.154466,-0.588929,0.213358,0.779513
-0.363105,-0.421146,0.453475,0.847308,0.398178,-0.351458
-0.134911,-0.501339,0.135644,-0.144783,0.985789,-0.085195
-0.249603,0.330064,-0.811539,-0.385440,0.922733,-0.000568
0.654489,-0.937515,0.446936,-0.480593,-0.125816,0.867871
0.027592,-0.722038,0.410123,0.330676,0.159365,0.930191
-0.223788,0.308981,0.851880,-0.054454,-0.879013,0.473678
-0.270104,0.235541,0.180188,0.736710,0.637794,-0.224672
-0.304540,0.472163,0.259498,0.105541,-0.518779,0.848369
-0.285478,0.399488,-0.975759,0.333703,-0.276726,-0.901146
0.611675,0.053501,0.520261,0.326950,0.222601,-0.918451
-0.008408,0.155923,0.930745,0.638903,-0.755467,-0.145164
-0.663614,0.102290,0.191676,0.053260,0.204047,0.977511
-0.113224,0.326048,0.737961,0.055398,0.733379,-0.677559
0.160287,-0.209809,0.414663,-0.672833,-0.665163,-0.323812
-0.498920,0.013820,0.685481,-0.387932,0.365722,-0.846024
-0.122410,0.229997,0.521212,0.827675,0.034433,0.560150
0.080783,-0.192296,0.536000,0.445121,-0.137375,-0.884871
-0.515610,0.329998,0.335930,-0.615438,-0.787568,-0.031170
-0.563986,0.828915,0.453222,0.041249,-0.984941,0.167896
-0.087973,0.044392,0.441842,0.620596,-0.299257,0.724780
0.216476,-0.136563,0.633868,-0.542212,-0.221895,-0.810413
0.122410,0.749554,0.142014,0.529718,-0.847671,-0.029198
-0.201415,0.311975,-0.189328,0.980257,0.197431,0.010802
0.772054,0.005287,0.522128,-0.101515,-0.212636,0.971844
-0.578486,-0.076690,0.566190,0.854435,-0.379380,0.354982
-0.621178,0.341019,0.604786,0.606080,0.791933,0.074223
0.088660,0.221083,0.797341,-0.875219,0.040397,-0.482037
-0.018593,0.660699,0.773365,0.187359,-0.966725,0.174180
0.042405,-0.800384,0.404932,-0.118800,-0.053335,0.991485
0.359417,0.279105,0.139401,-0.151893,-0.710439,0.687172
-0.144475,-0.406626,0.295216,-0.304537,0.804377,-0.510132
-0.287915,0.307959,-0.625703,0.883065,-0.464270,-0.068182
-0.296541,0.071271,0.676015,-0.142635,-0.341456,0.929012
-0.124535,-0.053505,0.509266,-0.641749,0.474421,0.602564
0.008530,0.331654,-0.955998,0.161349,0.394466,0.904634
-0.365795,0.539873,0.271071,0.563055,-0.416067,0.714043
-0.702616,-0.356943,0.414638,-0.080426,-0.027745,0.996374
-0.022157,0.282355,-0.015101,-0.375431,-0.112223,-0.920031
0.514920,-0.361783,0.430534,-0.748780,0.366604,0.552205
0.052908,0.168787,0.847112,-0.754931,-0.456754,0.470590
-0.169599,-0.625796,0.482641,-0.395640,0.021831,-0.918146
0.539609,0.521975,0.553233,-0.775915,0.625724,0.080154
-0.208915,0.838789,0.163558,-0.182904,-0.756099,0.628379
0.152474,0.064775,0.859311,0.438413,0.317494,-0.840828
0.011345,-0.168344,0.536506,0.064718,0.668570,0.740828
0.724552,-0.000894,0.226780,-0.207143,-0.737801,-0.642450
