0.382590,-0.270288,-0.946456,-0.005469,-0.047675,0.998848
-0.180228,-0.404298,0.098029,-0.503318,0.174328,-0.846334
0.253070,-0.424168,0.421148,-0.074517,-0.141965,0.987063
0.219751,-0.070055,0.354849,0.256225,0.929416,-0.265582
0.445108,-0.340152,0.418554,0.253344,0.855408,0.451768
0.696900,-0.239386,-0.900026,-0.034889,0.050618,0.998108
0.722084,-0.314311,0.290267,-0.642808,0.149291,0.751339
0.651745,-0.046876,-0.912291,0.387669,0.272316,-0.880657
0.469041,-0.025968,-0.207604,-0.635070,0.523186,0.568298
-0.359231,-0.102261,-0.012002,-0.515707,-0.710778,-0.478373
0.478061,-0.129529,0.570810,0.892004,-0.160383,-0.422619
-0.424928,-0.082779,-0.004363,0.127406,-0.938656,-0.320456
-0.365332,-0.303076,0.137030,-0.408757,-0.609810,-0.679006
-0.485257,-0.483443,-0.046623,-0.779907,0.624626,0.039830
-0.633130,-0.071029,-0.087622,-0.474562,-0.739481,0.477451
-0.218917,-0.263602,-0.099921,-0.365912,0.863089,-0.348116
0.430768,0.411245,0.258555,-0.203618,-0.840296,0.502436
0.095758,-0.277433,0.393395,0.157527,0.416459,-0.895403
-0.707432,-0.510391,-0.079527,0.012074,0.796368,0.604692
0.181739,-0.228932,-0.969374,-0.287578,0.086688,0.953826
0.398441,-0.266979,-0.938222,0.273195,0.103615,-0.956362
0.536146,-0.098690,-0.125291,-0.358080,0.490336,0.794575
-0.303803,-0.404492,-0.186474,-0.056653,0.612248,0.788634
-0.363298,0.016232,0.041016,-0.006331,0.058278,0.998280
0.190760,-0.172898,-0.963942,-0.126684,0.286902,0.949546
0.380921,-0.852227,-0.066877,0.141130,0.387757,0.910894
-0.319133,0.189716,0.595305,0.465930,0.068645,0.882155
0.262612,-0.142903,0.222952,-0.780241,-0.623506,-0.049655
0.299894,-0.041748,0.032011,0.000816,-0.658112,0.752919
0.209323,-0.044606,0.670539,0.294425,-0.930977,0.215859
0.432020,0.553502,0.273272,-0.521621,-0.147306,-0.840364
0.353130,-0.261914,0.727411,-0.687275,0.376098,0.621453
-0.227104,0.204521,0.528585,0.871659,-0.302878,0.385326
-0.246969,0.136150,0.525361,0.407028,0.282514,0.868628
0.343901,-0.318269,-0.942742,-0.105828,-0.014137,0.994284
0.209271,-0.351513,0.047324,0.250618,0.014835,0.967972
-0.188884,-0.094727,0.402120,0.319664,-0.768295,-0.554560
0.670673,0.303793,0.287744,0.319887,0.326685,-0.889353
0.295043,-0.227049,0.720999,-0.282799,-0.447659,0.848308
0.238626,-0.118167,-0.132405,-0.065157,-0.997429,-0.029826
0.167662,-0.501819,0.002260,-0.116504,0.548134,-0.828237
0.127461,-0.252954,-0.973088,0.119142,-0.203599,-0.971778
0.615402,-0.142772,-0.917933,0.262741,-0.049376,-0.963602
0.274709,-0.135306,-0.179886,0.860622,0.509221,0.004862
-0.046328,-0.360473,-0.988016,-0.325750,0.198665,0.924348
0.541257,-0.187703,0.044310,-0.121899,0.983420,0.134257
0.296816,0.390016,0.301516,-0.470510,0.589461,-0.656625
-0.808170,-0.284510,-0.228173,0.156120,0.340781,0.927090
0.221212,-0.106869,0.569198,0.925145,-0.379612,-0.001106
0.321689,0.139657,0.323066,0.851822,0.523081,0.028016
-0.075214,0.034607,0.535594,-0.640911,0.433641,-0.633394
0.371119,-0.185107,0.103180,0.872208,0.444797,0.203494
-0.638553,0.064213,-0.106299,-0.079140,0.564439,0.821673
0.024636,-0.085636,0.297065,-0.024069,0.997685,-0.063602
-0.248689,0.019152,0.575716,-0.241052,0.221980,-0.944785
-0.030373,0.313272,0.480473,-0.236598,-0.900811,0.364090
0.264749,-0.090701,0.047639,-0.238465,0.835835,0.494484
-0.447871,0.249253,0.100587,-0.096213,-0.671608,0.734633
0.535260,-0.228345,-0.926658,-0.098158,0.075982,0.992266
0.867924,0.120569,-0.093544,-0.414131,0.268763,0.869633
0.507677,-0.318856,0.199439,-0.590804,0.122691,0.797432
0.395156,-0.000650,-0.939869,-0.338872,0.026303,0.940465
0.288005,-0.135893,0.231152,-0.679123,-0.726662,0.103701
-0.333941,-0.319763,-0.063232,0.726414,-0.003324,0.687250
-0.192899,0.292170,0.519509,-0.407218,-0.701097,0.585351
0.314805,-0.282624,-0.946737,0.244924,-0.182012,-0.952305
-0.553406,-0.377613,-0.174350,-0.598477,0.325226,-0.732157
-0.452824,0.219778,0.094455,0.233095,0.654647,-0.719099
0.309748,0.413908,0.295804,-0.594085,0.499740,-0.630336
-0.559610,0.047593,-0.071397,0.754088,0.644624,0.125743
-0.293271,-0.413583,-0.195515,-0.051839,0.739905,0.670711
0.366218,-0.181469,0.322961,-0.354755,0.878121,0.321017
0.246083,-0.120957,-0.044941,-0.106464,-0.993121,-0.048742
0.503768,-0.112128,-0.933876,-0.143045,-0.024489,0.989413
0.735016,0.397938,0.330355,0.568132,0.429651,-0.701874
0.038767,-0.317295,0.411862,-0.031052,-0.017996,0.999356
0.344579,-0.346905,-0.939098,-0.103158,0.095220,0.990097
0.570457,-0.322684,0.247061,0.151316,-0.934627,-0.321832
0.144563,0.050839,0.368165,-0.553718,0.388552,-0.736494
0.435201,-0.247759,-0.926658,-0.210454,0.070198,-0.975080
0.655760,-0.305739,-0.904547,-0.323146,-0.005297,0.946334
0.282269,-0.415984,-0.940079,-0.264506,0.194822,0.944500
0.493339,-0.088949,-0.927639,-0.056092,-0.112885,0.992024
-0.933779,-0.286587,-0.220815,0.043858,0.447124,0.893396
0.326693,-0.066940,0.743776,0.966511,0.190769,-0.171651
-0.492869,-0.456564,0.237179,-0.549670,-0.090916,-0.830420
0.300883,-0.111934,0.010285,-0.732641,0.676584,-0.073965
0.218761,-0.300805,0.441226,0.897940,0.416445,0.142397
0.218342,0.849825,0.297380,0.986782,-0.057369,0.151559
0.507052,-0.474158,0.605852,-0.009652,0.482241,0.875985
-0.093881,0.106869,0.582269,0.891738,-0.452449,0.009632
0.041219,-0.464422,0.010179,-0.336710,0.902345,-0.269072
0.337017,-0.134268,0.828436,0.866407,-0.481954,-0.130611
0.300831,-0.268342,0.717354,-0.661284,-0.192745,0.724950
-0.047684,0.104467,0.657398,0.060739,0.902067,-0.427300
0.045754,-0.546163,-0.084188,-0.091869,-0.216162,0.972026
-0.429204,-0.323595,-0.016662,-0.133215,-0.750661,-0.647118
0.620148,-0.445658,-0.902619,-0.098381,0.130611,0.986540
0.160571,-0.398651,-0.964047,-0.034403,0.130051,0.990910
0.411893,-0.503638,0.172387,0.758460,0.409629,-0.506894
0.211877,0.071679,0.450162,-0.496695,0.622025,-0.605293
0.177516,-0.365863,-0.962050,0.246079,-0.050933,-0.967911
0.202597,-0.054604,0.707858,-0.139028,-0.964397,0.224965
0.342389,-0.033763,-0.946772,-0.192006,-0.018494,0.981219
-0.725682,-0.230295,-0.217661,-0.052966,-0.355388,0.933217
0.228302,-0.289638,-0.964082,-0.033314,-0.112105,0.993138
0.414292,-0.030189,-0.938993,0.067320,-0.156107,0.985443
0.108219,-0.139915,-0.976732,-0.054140,0.045687,0.997488
0.379148,-0.137581,-0.738309,0.963830,0.239628,0.116661
0.174857,-0.084666,-0.978344,0.497286,-0.264637,-0.826240
0.450896,-0.007209,0.308874,-0.532928,-0.190091,-0.824532
0.185964,-0.056680,-0.983285,0.497500,0.036598,-0.866691
0.276482,-0.473707,-0.173053,-0.314718,0.312331,0.896327
0.321845,0.390147,0.279825,-0.687195,0.725798,0.031305
0.283155,-0.000777,-0.962681,-0.363411,-0.042654,0.930652
0.243268,-0.123683,0.071432,0.980242,-0.177956,0.086360
0.232839,-0.357553,0.423741,0.975177,0.186782,-0.118923
0.258440,-0.158033,-0.957775,-0.089722,0.233997,0.968088
0.242746,-0.129267,0.623338,0.540141,-0.404795,-0.737827
0.208280,0.026035,0.439229,-0.614110,0.287045,-0.735170
-0.512787,0.077782,0.059098,-0.253172,0.707766,-0.659524
0.180228,0.566032,0.399632,-0.606742,0.501590,-0.616661
-0.330604,-0.589793,0.122418,-0.322857,-0.133662,-0.936962
-0.491983,-0.338139,-0.144845,-0.485269,-0.870815,-0.078706
0.638137,0.211468,-0.155112,0.443846,-0.048743,-0.894777
0.825167,0.163486,-0.109137,-0.322154,0.272409,0.906648
-0.941652,-0.537789,-0.101042,0.270466,-0.763292,0.586714
0.339729,-0.302688,0.720298,-0.484788,0.344020,0.804134
-0.101807,-0.571355,0.063618,-0.685274,0.103361,-0.720913
0.306306,-0.121151,-0.053211,0.180313,0.784564,-0.593251
0.142686,-0.378132,-0.967411,-0.083027,0.044487,0.995554
-0.242015,0.193159,0.411056,0.468144,-0.850288,0.240525
-0.450374,0.333919,0.128585,0.320277,0.259019,-0.911226
-0.529473,0.386378,0.074166,0.233834,0.921448,0.310251
0.806553,-0.223867,0.404643,0.257597,-0.332846,-0.907115
0.578903,-0.038435,-0.921472,-0.054823,-0.265477,0.962557
0.559819,0.100378,0.267490,0.851050,0.120433,-0.511086
0.259848,0.066290,0.551257,0.683150,0.594401,-0.424257
0.199467,-0.241918,0.360736,-0.390946,0.473690,0.789164
-0.513153,-0.304312,-0.223688,0.244066,0.646257,0.723038
0.098104,-0.410207,-0.977083,-0.239701,0.173162,0.955279
0.055869,-0.359241,-0.974770,-0.058765,0.036466,0.997606
-0.576140,-0.346905,-0.181953,0.686305,-0.677969,-0.263331
-0.085956,-0.163486,0.150451,0.216730,-0.424819,0.878952
-0.632348,-0.468512,-0.171301,0.724849,-0.515527,-0.456975
0.423834,-0.172446,0.610933,0.407180,-0.892552,-0.193791
0.607529,-0.106806,-0.920456,-0.179107,0.079848,0.980584
0.306098,-0.490783,-0.127604,-0.440672,0.686588,0.578278
0.051385,-0.076031,0.285747,0.246187,0.964750,0.093007
0.727193,-0.275352,0.311222,0.784864,0.216928,-0.580458
0.186642,-0.902027,-0.022094,-0.117117,0.551871,0.825665
0.259274,-0.109077,-0.972527,0.334230,-0.215437,-0.917539
-0.873503,-0.276394,-0.247341,-0.314439,-0.791338,-0.524321
0.655239,-0.444489,0.384529,0.668207,-0.268362,0.693889
0.502880,-0.499418,0.612405,-0.009652,0.482241,0.875985
0.290142,-0.827879,-0.058923,-0.185332,-0.378264,-0.906956
-0.145605,0.126608,0.519755,-0.220611,0.858695,0.462573
0.143468,0.184913,0.667560,-0.692271,-0.687150,0.220421
0.007639,0.313466,0.616820,0.634355,-0.700870,0.326152
0.185546,-0.240099,-0.967657,-0.114215,-0.009613,0.993410
0.512317,-0.156797,0.517898,0.719719,-0.638400,-0.272856
0.094403,-0.474551,-0.065686,0.249455,0.821282,-0.513097
-0.699663,-0.386053,-0.232273,-0.640091,0.683072,0.351706
-0.037099,-0.024280,0.177503,0.176270,-0.142635,0.973953
0.743357,-0.254056,0.354008,-0.072498,0.936654,-0.342670
0.459081,0.166799,0.223969,0.875852,-0.211270,-0.433876
0.299528,0.035190,0.130618,-0.058053,0.915839,-0.397327
0.134031,-0.695624,-0.086921,0.371758,0.501537,0.781189
0.525614,0.150892,-0.147893,-0.086253,-0.259968,0.961757
0.234611,-0.120505,0.263811,0.265184,-0.952233,0.151426
0.204056,-0.055123,-0.974665,-0.105874,-0.249823,0.962486
0.226999,0.594794,0.367289,0.172046,0.735113,0.655750
-0.337017,-0.276002,-0.184442,0.083499,0.992558,0.088642
-0.293115,0.014286,0.643241,-0.077312,-0.953200,0.292288
0.126939,-0.409299,0.722926,0.320189,0.736865,0.595406
-0.373986,0.017076,0.062742,0.566001,-0.609163,-0.555485
0.278254,-0.135437,-0.101253,0.795749,0.530683,-0.291820
-0.659566,0.085248,-0.101743,-0.389018,0.384677,0.837071
-0.778345,-0.316843,-0.261113,0.449648,0.096431,-0.887985
0.487863,-0.169914,0.633255,-0.409014,0.834528,0.369149
0.380868,-0.370147,0.104371,-0.298301,0.138142,-0.944422
0.236592,0.860541,0.326746,0.936805,-0.304263,-0.172686
0.132726,0.218089,0.683329,-0.607505,-0.496753,0.619818
0.466851,-0.446502,0.563627,0.317255,0.880884,0.351272
-0.091535,0.166212,0.561875,0.671772,0.738407,0.058970
0.184139,-0.140957,0.686693,0.785998,0.617951,0.018553
0.165264,-0.380601,-0.965239,-0.162772,0.038943,0.985895
0.388481,-0.128879,0.409233,0.545105,0.777098,-0.314609
0.164377,-0.128554,0.122733,-0.108952,-0.992308,-0.058778
-0.331699,-0.375794,-0.178730,0.053940,-0.239884,-0.969302
0.636676,-0.304895,0.508226,0.772322,0.130182,-0.621749
-0.442500,-0.313272,-0.246921,0.208356,0.908886,-0.361267
0.194880,-0.031425,-0.981954,0.372455,-0.390893,-0.841713
0.372525,-0.102712,-0.943548,0.223636,-0.041813,-0.973776
0.572802,-0.135175,-0.110574,-0.015422,0.842807,0.537995
0.307870,0.433453,0.304985,0.853891,-0.385543,0.349609
0.053419,-0.346187,-0.979045,0.053728,-0.098522,-0.993683
-0.253853,-0.270418,-0.089128,0.076430,-0.508692,0.857549
0.376645,-0.284443,0.332668,-0.725112,-0.668131,0.166776
-0.197017,-0.266523,-0.031975,0.454368,0.882355,0.122474
0.264958,0.520194,0.336452,-0.820417,0.183207,-0.541620
-0.604921,-0.459682,-0.168918,-0.147190,0.612030,0.777016
0.216570,-0.073300,0.416557,0.401856,0.850149,0.340234
0.601898,-0.288013,0.247341,-0.466289,0.538420,0.701910
0.311104,-0.026749,0.815190,0.918442,0.041210,-0.393404
-0.084182,-0.569211,0.003767,0.459064,-0.162121,0.873485
0.108063,-0.133424,-0.983601,-0.168564,0.110675,0.979458
-0.452563,-0.449292,0.199755,0.698340,-0.463848,0.545130
-0.595744,-0.398259,-0.144144,-0.506770,0.858952,-0.073393
-0.428840,0.190366,0.066982,0.076174,-0.622432,0.778958
0.159893,0.060318,0.887972,0.393424,0.907842,-0.145054
0.171885,-0.773407,-0.066211,-0.079026,0.473368,0.877313
-0.522174,-0.285481,-0.231327,-0.202793,0.973855,-0.102380
0.520557,-0.069211,-0.152694,0.048506,0.857385,0.512385
0.381546,-0.454487,0.142567,-0.367172,0.242009,0.898119
0.507782,-0.127452,-0.929671,0.124899,-0.064804,-0.990051
-0.061450,-0.417348,-0.081980,-0.674524,-0.661677,-0.327417
0.469354,0.170627,0.186579,0.872458,-0.319105,-0.370119
0.512266,-0.403391,0.526238,0.124630,0.989442,0.073966
0.294262,-0.416504,-0.938081,-0.128581,0.200138,0.971294
0.300466,-0.230295,-0.952028,-0.112570,0.315952,0.942073
0.336444,-0.481755,-0.080263,-0.042956,0.769813,0.636822
0.733972,-0.055317,-0.896417,-0.122493,0.008130,0.992436
0.666241,-0.299181,-0.903846,0.253757,0.005404,-0.967253
0.765518,-0.442214,0.291389,-0.045504,0.045766,0.997915
0.250411,-0.041812,0.808428,-0.439569,-0.880843,0.175765
-0.216519,0.192834,-0.119299,0.743022,0.651603,0.152749
0.275856,0.351256,0.261253,-0.328992,0.557859,-0.761943
0.607163,-0.126996,-0.919615,-0.122125,-0.087852,0.988619
0.195349,-0.017789,-0.989067,-0.364137,0.328465,0.871501
0.280549,-0.078171,-0.955357,0.325789,-0.103842,-0.939723
-0.493442,-0.192248,-0.017749,0.374644,-0.739430,0.559361
0.342337,-0.228282,-0.941656,-0.147726,0.113034,0.982548
0.032040,-0.384627,-0.974665,-0.190543,0.155075,0.969353
0.047892,-0.685884,-0.060744,-0.663492,-0.309156,-0.681323
0.610552,-0.251979,-0.922733,0.255113,-0.042349,-0.965983
0.554605,0.091481,0.271625,0.829041,0.093388,-0.551335
-0.020569,-0.380989,-0.986088,-0.138016,0.128304,0.982084
0.216570,-0.022073,0.791222,0.787004,-0.604822,0.121717
-0.210261,-0.711793,0.055734,-0.128782,0.480714,-0.867369
-0.137993,0.093820,-0.257538,0.323148,-0.007614,0.946318
0.488907,-0.159460,-0.929041,-0.121143,0.083331,0.989131
-0.056547,0.383263,0.476338,0.320258,-0.760842,0.564406
0.500429,-0.210493,0.043995,0.185109,-0.867275,-0.462134
-0.182991,-0.076677,-0.021148,-0.003633,-0.737520,0.675315
0.335558,-0.164068,-0.461481,0.987147,-0.146074,0.064824
-0.240190,-0.105439,-0.030959,0.093147,-0.568225,0.817584
0.415074,-0.172252,-0.841717,0.641525,0.766989,0.013196
0.103788,-0.158485,0.800613,0.799594,0.514139,0.310339
0.585056,-0.316581,-0.915024,-0.255132,0.092453,0.962476
0.143780,-0.064277,0.277127,-0.275877,-0.957115,-0.088448
-0.662121,0.349049,-0.002050,0.996796,0.003266,0.079916
-0.348541,0.114660,0.050898,0.650508,-0.256712,0.714799
0.703834,0.354759,-0.148313,-0.327767,0.264349,0.907022
0.304429,-0.249642,-0.944915,-0.181329,0.081846,0.980011
-0.785175,-0.333332,-0.245379,0.380331,-0.351238,0.855558
0.515864,0.027141,-0.176417,-0.095815,-0.273629,0.957051
0.260213,-0.166149,0.161910,0.885434,0.391721,-0.250121
0.531662,-0.167445,0.639982,-0.744558,0.567251,0.351937
0.258284,0.050577,0.492352,-0.031084,-0.998563,0.043662
0.602940,-0.452212,0.366448,0.443221,0.893842,0.067838
0.305525,-0.233085,0.598178,0.012141,0.844151,0.535968
0.380190,-0.459033,-0.132264,-0.502662,0.649115,0.570947
-0.739342,-0.231270,-0.262024,0.103052,-0.994060,-0.035000
0.154262,0.115766,0.667560,0.905522,0.417591,0.075147
0.145294,-0.119788,-0.986614,-0.085422,0.556112,0.826706
0.509033,-0.260095,0.374052,0.703071,-0.379959,-0.601102
0.696221,-0.260682,0.361437,0.314810,0.940601,-0.127140
0.646896,-0.075638,-0.914043,0.305868,-0.137590,-0.942079
0.223610,-0.813986,-0.038528,-0.042118,0.541897,0.839389
0.239512,-0.134787,0.064249,0.992262,-0.095611,0.079210
0.084079,0.326710,0.306772,-0.241828,-0.871387,0.426853
0.676407,-0.118944,-0.906824,-0.305449,-0.053740,0.950691
0.097584,-0.095246,0.813473,0.770062,0.325836,0.548485
0.002999,-0.088886,0.284415,0.413904,-0.266426,0.870460
0.279557,0.120961,0.576207,-0.535114,-0.693646,0.482190
-0.388325,-0.076352,-0.022689,0.461703,0.883799,0.075696
0.303334,-0.236136,0.642365,0.059687,-0.986120,0.154937
0.632244,0.381056,0.296294,0.059691,-0.612676,0.788077
0.482129,-0.218609,0.773596,-0.459738,-0.847300,0.265939
-0.544750,0.349694,0.144354,0.573534,0.318547,0.754709
-0.409286,-0.197245,-0.004117,-0.520089,0.053041,0.852463
-0.193837,-0.337814,0.097889,0.247889,-0.544881,0.801034
0.708737,0.098690,0.366027,-0.639845,0.344581,0.686923
0.461481,-0.261720,-0.929742,0.021964,0.151422,0.988225
-0.529161,-0.353459,-0.118248,-0.509045,0.702935,0.496744
0.029851,-0.133163,0.161454,-0.307189,0.688713,-0.656741
0.143833,-0.141671,0.783653,0.601511,0.598245,0.529422
0.552623,-0.189973,-0.926202,-0.080231,-0.056683,0.995163
-0.148578,-0.335476,0.073500,0.832402,-0.334118,-0.442122
-0.754361,-0.385471,-0.258835,-0.232679,0.350317,0.907270
-0.437130,-0.411895,0.192256,-0.627277,-0.140240,-0.766066
0.185286,-0.875278,-0.046903,-0.364954,0.567637,0.737968
0.057591,0.084471,0.460464,-0.751863,0.641082,0.153999
0.103267,-0.722048,-0.069575,0.416619,0.546473,0.726495
0.444325,-0.224906,0.737959,0.268012,-0.882269,-0.387003
0.120004,0.130828,0.391537,0.916832,-0.170964,0.360818
0.245822,-0.105245,0.255961,-0.049443,-0.982495,0.179610
0.089188,-0.173290,0.312554,0.918659,0.261514,0.296102
-0.178716,0.163680,-0.229049,0.679695,0.306683,0.666304
-0.414970,-0.460265,0.143653,0.102461,-0.860704,0.498688
0.140599,-0.127060,-0.315707,0.561604,0.710070,0.424737
0.635945,-0.155045,0.511835,0.391079,0.897694,-0.202984
-0.227833,0.151799,0.870206,-0.238894,0.904293,-0.353813
-0.577130,-0.345149,-0.193027,-0.221525,0.762696,0.607636
-0.138515,-0.068759,0.389891,-0.267765,0.963476,0.004073
0.433740,-0.069797,-0.936680,-0.197454,0.071464,0.977704
0.132675,-0.212244,-0.971651,-0.212445,0.095087,0.972536
-0.085329,-0.407350,-0.994604,-0.212388,0.231105,0.949464
0.134239,-0.237630,-0.257013,0.531874,-0.261610,0.805401
-0.830070,-0.277040,-0.238125,0.175914,0.222145,-0.959013
0.135126,-0.267109,-0.968463,-0.135464,0.189507,0.972490
-0.202389,-0.382808,0.227227,-0.684064,0.532440,-0.498562
-0.057538,0.030906,0.213561,0.485895,0.243637,-0.839373
0.152906,-0.004870,0.749067,-0.307522,0.719055,-0.623210
0.728654,-0.097973,0.047499,-0.384908,0.910278,0.152444
0.231639,-0.113103,0.381340,0.704395,0.708756,-0.038636
0.109785,0.210362,0.636303,0.770576,0.467829,-0.432838
-0.357406,-0.102261,0.182724,0.614112,0.263555,0.743912
0.187579,-0.111153,-0.985843,0.341686,-0.123634,-0.931647
0.086165,0.110313,0.414560,-0.608770,0.686118,-0.398298
-0.159632,-0.119661,0.474201,-0.219559,-0.751094,0.622616
0.023647,-0.092908,0.294332,-0.315573,0.922710,0.221405
0.504340,-0.021621,-0.922278,-0.306077,-0.156496,0.939056
0.101285,0.108232,0.399842,0.194246,-0.703831,0.683294
0.143363,-0.222179,0.874166,-0.538355,-0.745612,-0.392730
-0.771567,-0.332036,-0.250355,-0.347203,-0.395097,0.850499
0.372683,0.404623,0.320333,-0.665385,-0.678398,0.311510
-0.236489,-0.347812,0.246290,0.181951,0.378287,0.907630
-0.432073,-0.400859,0.243382,-0.210614,0.974375,0.078957
0.284094,0.368589,0.596356,-0.052715,0.967013,0.249214
-0.583075,0.155632,0.128550,-0.442929,0.679177,-0.585263
0.626091,0.348268,0.295068,-0.086379,0.392739,-0.915585
-0.381390,-0.218934,0.055874,-0.646464,0.481591,0.591739
0.154001,-0.730814,-0.079106,0.225561,0.575999,0.785715
0.547567,-0.391768,-0.916391,0.138306,-0.054625,-0.988882
0.136273,-0.203221,-0.976557,-0.465309,-0.105737,0.878810
-0.194046,0.028437,-0.058502,0.034195,0.701288,0.712057
-0.159110,-0.010192,0.200841,-0.128196,-0.549625,0.825517
0.421018,-0.279965,-0.930337,0.346118,0.079188,-0.934843
-0.757020,-0.269642,-0.246010,0.176836,0.800036,0.573299
0.468676,-0.058499,-0.934963,-0.172610,-0.149222,0.973621
-0.438746,-0.533569,0.096207,0.183153,-0.546208,0.817381
-0.327371,-0.418323,-0.044065,0.624117,0.359379,0.693776
0.500326,-0.346707,-0.921752,-0.083291,0.021255,0.996299
-0.309174,-0.036616,-0.022304,-0.590333,-0.087340,0.802421
0.187006,-0.350539,-0.962996,-0.127925,0.084973,0.988137
0.583648,-0.235360,-0.918143,-0.266007,0.292560,0.918504
0.343379,-0.431566,-0.931564,-0.276464,0.141773,0.950509
0.433846,-0.340215,0.300429,-0.602827,-0.466089,0.647580
-0.153218,0.018570,0.587385,-0.460154,0.816553,-0.348568
0.280549,-0.171340,-0.949470,-0.392353,0.032644,0.919235
0.059208,0.108751,0.479492,0.811564,-0.581684,-0.054835
0.224026,-0.000063,0.812668,-0.444107,0.814784,-0.372687
-0.405741,-0.301844,0.332843,0.042583,-0.580025,0.813485
0.306620,-0.190885,-0.405064,-0.771302,-0.562323,-0.298137
0.172459,0.185495,0.700640,-0.324328,-0.791331,0.518272
0.392548,-0.138746,-0.815611,0.942785,0.332874,0.018736
0.075997,0.354307,0.585528,-0.617417,0.713660,-0.330887
0.573115,-0.274576,-0.916916,-0.213947,0.082944,0.973318
0.365071,-0.092457,-0.942952,-0.358479,-0.224092,0.906242
0.195766,-0.754968,-0.065440,-0.250389,0.513873,0.820512
0.047892,0.215557,0.564188,0.015904,-0.686494,0.726962
-0.579997,-0.520452,-0.166360,0.190281,0.527106,0.828222
0.083401,0.365601,0.670889,0.522692,-0.747262,-0.410356
-0.089813,0.079858,0.603784,-0.728964,0.678522,-0.090661
-0.406366,-0.335995,-0.008147,0.836179,-0.015850,-0.548227
0.659462,-0.103493,0.058081,0.187609,-0.246787,0.950736
-0.008838,-0.271524,0.404713,0.022615,-0.399736,0.916351
0.196966,0.187251,0.252037,0.837489,0.049397,0.544217
0.052271,0.134462,0.523014,0.601089,0.758516,-0.251686
-0.163283,-0.338789,-0.202488,-0.086990,0.899601,0.427962
-0.164116,-0.076094,-0.014875,0.134080,-0.805424,0.577335
-0.410956,0.064602,0.063688,-0.006688,-0.483829,0.875137
-0.404019,-0.049345,0.005589,0.175881,-0.884184,0.432764
0.452304,-0.336645,-0.925782,-0.130416,0.089842,0.987380
-0.261673,-0.156214,0.352641,0.729064,0.071627,-0.680688
0.329510,0.153813,0.631853,0.161748,-0.626390,0.762544
0.158746,0.293403,0.306982,-0.598868,0.151700,-0.786348
0.172407,-0.126152,0.695418,0.943258,0.328301,-0.049831
-0.461480,-0.177641,-0.005624,0.026235,0.002642,0.999652
0.242954,-0.120894,0.561139,0.826481,0.500711,0.257329
0.229814,-0.083822,0.524415,-0.111524,0.943376,0.312415
-0.084026,0.136087,0.731056,-0.659407,0.743125,-0.113793
0.287953,-0.218672,-0.963066,0.179776,0.101472,0.978460
0.599081,-0.366251,-0.914008,-0.121111,-0.037542,0.991929
0.306620,-0.112064,-0.951502,0.059278,0.152651,0.986501
0.152801,-0.047070,0.755094,0.982956,-0.176131,0.052684
-0.122299,0.100703,0.321980,-0.624665,-0.625422,0.467590
-0.517584,-0.215751,0.026579,0.618690,0.011099,0.785557
0.064420,-0.024673,0.722190,0.834181,0.539134,-0.116089
0.088249,-0.358199,-0.973614,-0.062883,0.119622,0.990826
0.545064,-0.084273,0.525081,0.751604,0.625261,-0.210094
0.398284,-0.118231,-0.706562,0.877716,0.465945,0.111849
0.135178,-0.037984,0.392063,0.230335,0.893317,0.385915
0.207132,-0.317750,0.303092,0.931795,0.200675,-0.302469
0.215736,-0.261589,-0.498695,-0.342038,0.868090,-0.359765
-0.618426,-0.146343,-0.228489,0.178359,0.009316,-0.983921
0.180958,-0.403454,0.422830,0.745230,-0.459553,-0.483159
0.611700,-0.075638,-0.920666,-0.027764,0.067912,0.997305
0.235811,-0.380858,-0.960508,-0.224155,-0.039143,0.973767
0.283520,-0.240230,0.594674,0.037441,0.851092,0.523680
0.456839,-0.415727,0.077880,-0.794517,0.218223,-0.566676
-0.356884,-0.094989,-0.020762,0.243915,0.935123,0.257002
-0.460645,0.086936,0.054542,-0.028388,-0.623306,0.781463
-0.075944,-0.209518,0.331126,-0.784003,0.457729,-0.419313
-0.357875,0.013049,0.037267,-0.270267,0.484826,-0.831805
0.269130,0.236790,0.218677,-0.489670,0.530838,-0.691689
-0.236384,-0.392806,0.241384,-0.002649,0.430180,0.902739
0.346195,-0.171796,-0.301796,0.648942,-0.082414,-0.756361
-0.551320,-0.120830,-0.008463,0.487092,-0.462647,-0.740742
0.610502,-0.330475,0.345598,0.702352,-0.451610,0.550227
-0.507730,0.112195,0.062637,0.367839,-0.566828,0.737157
0.059886,0.127190,0.547403,0.225721,0.973861,-0.025379
0.155199,-0.336776,-0.964363,-0.041487,0.116973,0.992268
-0.627655,-0.491234,-0.159772,-0.376660,0.646189,0.663753
0.399796,-0.231202,0.299098,-0.159510,0.037466,0.986485
-0.332951,0.106350,0.031590,0.825299,-0.141325,0.546726
0.668014,-0.134530,0.183846,0.311698,0.604808,0.732838
0.276116,-0.585185,-0.045957,0.957898,0.073645,0.277502
-0.887321,-0.219647,-0.265808,0.526169,0.680527,0.509931
-0.502515,-0.008048,-0.051283,0.335087,0.782315,0.525072
0.320594,-0.080053,0.818695,-0.713356,-0.356823,0.603159
-0.106916,0.060837,0.608305,-0.570439,0.728555,-0.379219
0.398962,-0.282691,0.302006,0.978015,0.175725,0.112286
0.151967,-0.096804,-0.982549,-0.298050,0.131568,0.945440
-0.346090,0.214907,0.115865,-0.575951,-0.753874,0.316158
-0.372109,-0.002076,0.354569,-0.029271,-0.101319,0.994423
-0.386030,-0.128102,0.013894,-0.582110,0.717124,0.383250
-0.386761,-0.013311,0.048200,0.965029,-0.014748,-0.261728
0.878456,0.132061,-0.071958,-0.414131,0.268763,0.869633
0.322731,-0.129592,-0.951012,-0.168398,-0.016477,0.985581
0.274031,-0.066353,0.624319,-0.323092,-0.879484,-0.349456
0.205099,-0.344761,0.441717,0.956515,0.125770,-0.263177
0.016815,-0.333138,-0.975751,-0.222548,0.349284,0.910205
0.230075,-0.120957,0.608375,0.981970,-0.182171,0.050493
0.685376,0.348331,0.306702,-0.517099,-0.414415,0.748912
0.436660,-0.034734,-0.940534,-0.144366,-0.016881,0.989380
0.434157,0.307170,0.266859,0.912595,-0.102390,0.395836
0.380660,-0.252693,0.358353,0.991369,0.101295,-0.083232
0.288943,-0.129204,-0.213701,0.989812,0.081803,-0.116538
-0.171468,-0.077976,-0.018029,0.094098,-0.752643,0.651670
0.225279,-0.039149,0.748156,0.917320,0.054328,0.394426
0.424459,-0.334893,0.157459,-0.077547,-0.778051,0.623397
0.354589,-0.016620,-0.945440,0.142673,-0.055466,0.988215
0.348749,-0.211919,0.296505,0.918929,0.130829,-0.372093
-0.527127,0.373396,0.122102,0.281981,0.754256,0.592946
0.184920,-0.043242,-0.969619,-0.373909,0.139753,0.916876
-0.249577,-0.192506,0.462321,-0.163470,0.849843,0.501044
0.119013,0.201014,0.551082,0.799575,0.404717,0.443716
0.136742,-0.092583,0.751695,0.998966,-0.008456,-0.044662
0.604192,-0.129073,-0.915550,-0.202173,0.038669,0.978586
-0.335036,-0.434942,-0.184967,-0.107611,0.309141,0.944908
-0.148630,0.227049,0.483031,-0.172211,0.880447,-0.441766
-0.115989,-0.070055,0.396268,-0.084294,0.995160,0.050515
-0.132987,0.213544,0.576067,0.866684,0.438773,-0.237356
0.447350,-0.181275,-0.859343,-0.051652,0.984463,0.167825
0.274917,-0.112064,-0.962611,-0.165152,-0.064225,0.984175
-0.076100,-0.569666,-0.005169,-0.506363,0.147156,-0.849671
0.479834,-0.404623,0.525502,-0.725322,-0.643202,0.245354
0.254529,-0.191467,0.064284,-0.581314,-0.691832,0.428302
-0.201553,-0.032333,0.327797,0.028986,0.581815,0.812804
0.640899,-0.204973,-0.142146,-0.461627,-0.314569,-0.829426
0.116876,-0.223479,0.057556,-0.346644,-0.419743,-0.838841
0.497667,-0.422281,-0.918633,0.217797,-0.151757,-0.964124
0.065934,-0.243344,-0.982584,0.106436,-0.179144,-0.978048
0.740542,-0.438969,0.296084,-0.131349,-0.255258,-0.957910
-0.687253,-0.251524,-0.233710,-0.106954,0.122711,0.986662
0.235133,-0.127191,-0.135874,0.208215,0.916905,0.340488
0.242902,-0.183482,-0.955672,0.341151,-0.031665,-0.939475
0.150195,-0.133686,0.757968,0.812472,0.542110,0.214491
-0.244727,-0.072393,-0.214332,0.364158,-0.131022,0.922075
-0.105299,-0.405206,0.335366,0.558669,0.709912,0.428853
0.595484,-0.305089,0.450933,0.861854,-0.183607,-0.472753
-0.253226,0.379824,0.517933,0.270973,0.460298,0.845399
-0.016971,0.160759,0.455173,-0.667411,0.091215,-0.739082
0.336653,-0.049278,0.783408,0.970784,-0.055007,-0.233564
-0.086790,-0.272626,0.314937,-0.551952,0.047635,-0.832514
0.232161,-0.114078,0.657293,-0.195553,0.180937,0.963857
-0.545011,-0.038241,-0.019536,0.827332,0.110201,0.550797
0.649138,-0.147124,0.012457,-0.460209,0.887115,-0.035130
0.810204,0.293795,-0.122032,-0.254343,-0.032748,0.966560
0.660871,-0.212958,0.504967,0.964736,-0.018529,-0.262566
0.648461,-0.223412,-0.907876,-0.447877,0.177643,0.876270
-0.170321,-0.090701,-0.240683,0.459726,0.071858,0.885149
0.645697,-0.206728,-0.100727,0.266364,0.583704,0.767033
0.343015,-0.225294,0.775348,-0.560306,-0.825185,0.071601
0.420341,-0.663680,-0.096487,0.312271,0.149628,-0.938136
-0.072555,0.177122,0.710416,0.787993,-0.251514,0.561968
0.627760,-0.171859,-0.913868,0.285423,0.025379,-0.958066
0.690382,-0.082585,-0.903495,-0.177929,0.119587,0.976750
0.295043,-0.149331,-0.955357,0.408886,-0.089843,-0.908152
0.702478,-0.186276,-0.902865,-0.079155,0.129998,0.988350
0.241755,0.193742,0.263565,0.711732,0.702371,0.010595
-0.562009,-0.484676,0.243592,0.522619,0.075191,0.849244
0.035430,0.068565,0.418029,0.917215,0.385279,-0.101372
0.427431,-0.227699,0.307087,-0.099494,0.429486,0.897576
0.137837,-0.253929,-0.978099,-0.183787,0.056823,0.981322
0.312876,-0.378782,0.801665,-0.624088,0.553119,0.551881
-0.491358,-0.280417,-0.243697,0.260116,0.274092,0.925858
0.696483,-0.195688,0.528760,-0.682470,0.245743,0.688364
-0.411998,-0.295285,-0.050302,0.760844,-0.648932,0.001842
0.595641,-0.411182,0.559106,0.171588,-0.965848,-0.194150
-0.803477,-0.482536,-0.115620,-0.557532,0.065617,-0.827558
-0.270954,0.029281,0.620079,0.027714,0.998076,-0.055461
-0.151184,-0.302299,0.078546,-0.082947,0.971015,0.224164
0.200042,-0.675759,-0.091581,0.703670,0.526779,0.476815
0.172354,-0.216921,-0.977854,0.208486,-0.090188,-0.973858
0.313085,-0.125958,-0.950381,-0.067142,0.251982,0.965400
0.494172,-0.346449,-0.919264,-0.082962,0.036418,0.995887
0.175691,0.000844,0.825352,0.003080,-0.955612,0.294613
0.474828,-0.197051,0.043189,-0.175198,0.971218,0.161372
0.485518,-0.183677,0.008988,-0.093776,0.979481,0.178388
0.579425,-0.248995,0.414805,0.606985,0.719529,-0.337412
0.179914,-0.057718,-0.984757,0.532250,-0.047427,-0.845258
0.158119,0.203740,0.335226,-0.610485,-0.404878,-0.680722
-0.741637,-0.111870,-0.232694,-0.048529,0.590615,0.805493
0.176786,-0.284962,0.440876,0.895130,0.438904,-0.078134
0.189821,-0.193029,-0.967236,-0.170839,0.245396,0.954251
0.449957,-0.493378,0.139308,0.850550,0.405016,-0.335450
0.636989,-0.252174,0.487902,0.901193,-0.248970,-0.354775
0.465495,-0.056680,0.561349,0.953907,0.264224,-0.142294
-0.601428,-0.262758,-0.214192,0.434343,0.699721,-0.567219
0.672550,0.185626,-0.146982,-0.501943,-0.004924,0.864887
0.362098,0.446890,0.268752,0.161292,0.981069,0.107187
0.638501,-0.052460,-0.919544,0.155492,0.141616,-0.977634
-0.379357,-0.015126,0.038073,0.163813,0.025022,0.986174
0.378940,-0.292884,0.405449,0.680464,0.658115,0.322264
0.379618,-0.236398,-0.934017,0.470216,-0.164318,-0.867120
-0.179497,-0.075508,0.382917,-0.112632,0.985591,0.126193
0.356989,-0.169002,-0.948208,-0.470419,0.026333,0.882050
0.063222,0.125439,0.526167,-0.625294,0.767625,0.140568
0.500170,-0.167639,0.750924,0.891179,-0.427277,0.152426
-0.456319,-0.056680,-0.049917,0.282169,0.952769,0.112307
-0.017129,0.113233,0.552554,-0.326517,0.624062,-0.709883
-0.586098,-0.377094,-0.168673,0.837674,-0.382588,-0.389780
-0.257032,-0.354696,0.099886,0.343306,0.440643,0.829442
0.221054,-0.232827,0.375488,0.847809,-0.125090,0.515338
0.063534,-0.038955,0.734455,0.578518,0.799584,-0.161188
-0.234089,0.145697,0.564958,-0.731808,0.604984,-0.313770
0.321480,-0.395469,-0.955672,-0.174050,-0.013974,-0.984638
-0.418671,0.220752,0.181218,0.866744,-0.390524,0.310235
0.215423,-0.540579,0.127709,-0.158082,-0.610519,0.776065
0.317882,-0.682638,-0.090670,0.875655,0.008198,0.482868
-0.269233,0.265746,0.117863,0.212599,-0.492637,0.843866
0.358448,-0.045125,0.837792,0.882744,0.357561,-0.304816
0.442448,-0.196793,0.172597,-0.047892,0.313581,0.948353
-0.148108,0.319506,0.440946,-0.497588,0.849790,-0.173959
0.340876,-0.157772,-0.950311,0.384785,0.296034,-0.874245
0.618634,-0.158552,0.208725,0.483173,-0.216044,0.848451
0.560393,-0.033046,-0.923364,0.034225,-0.334577,0.941747
-0.022552,-0.124076,-0.060534,-0.141149,-0.492154,-0.858989
-0.088354,-0.285675,-0.252703,0.164584,0.947654,0.273612
0.611179,-0.035515,-0.917372,-0.118055,-0.444458,0.887987
0.237636,-0.063369,0.507841,-0.379584,-0.913345,-0.147366
0.417838,-0.210623,0.024372,0.263935,0.960540,-0.087752
0.193368,-0.732502,-0.078300,0.052585,0.709051,0.703194
0.298694,0.854632,0.285151,0.569296,-0.189000,0.800113
0.402560,-0.171990,-0.036426,0.161391,0.953563,0.254303
-0.378157,-0.185757,-0.015821,-0.405111,0.100961,-0.908676
0.367574,-0.243864,-0.937065,0.383406,-0.078365,-0.920249
0.233308,-0.108752,0.565694,0.999122,-0.003060,0.041780
0.293062,-0.006491,0.074761,0.789751,-0.487727,0.372044
0.347185,-0.394494,-0.931634,0.328332,-0.159679,-0.930968
-0.316891,-0.348268,0.140815,-0.294222,-0.767471,-0.569580
-0.584065,-0.509416,-0.176452,0.066212,0.462558,0.884113
0.110671,-0.382546,-0.964993,-0.169707,0.126383,0.977357
0.601742,-0.399884,-0.900832,0.232598,-0.089935,-0.968406
0.163281,-0.377938,0.697065,0.295856,0.692296,0.658175
0.552676,-0.135695,0.292825,0.283473,0.818142,0.500286
0.517481,0.225944,0.272151,-0.226527,-0.789735,0.570092
-0.036577,0.286650,0.653053,0.757461,-0.628350,-0.177282
-0.847068,-0.141928,-0.175751,0.069624,-0.620742,0.780917
0.238314,-0.288663,-0.957179,0.136212,0.368337,-0.919660
0.058947,-0.287169,-0.977433,-0.171266,0.113322,0.978686
-0.090544,-0.145566,0.413614,0.249152,0.296887,0.921836
0.151654,-0.182638,0.857521,0.432805,0.832346,0.346237
0.092213,-0.112778,0.820272,0.778790,0.388570,0.492442
0.203640,-0.472340,-0.157459,-0.192711,0.641817,0.742249
0.242798,-0.135631,0.583495,0.964402,-0.262973,0.027819
0.305056,-0.471044,0.139308,-0.000984,0.369082,0.929396
0.022916,0.070447,0.444240,-0.515512,0.835687,0.189407
0.270328,-0.638100,0.012913,0.742643,-0.310885,-0.593155
0.217561,-0.103687,-0.968883,0.305640,-0.108836,-0.945906
0.305681,-0.076744,0.691529,0.928033,0.061809,-0.367333
-0.198217,-0.513244,-0.025878,0.336921,0.918936,-0.205040
0.365643,-0.153163,-0.937906,0.429400,-0.001812,-0.903113
-0.460176,-0.343267,0.158721,0.319512,0.694914,0.644210
-0.195819,0.073950,0.665913,-0.267976,-0.963349,0.012139
-0.172876,0.047918,0.726711,0.083972,-0.965955,0.244705
0.188518,-0.382483,-0.205957,0.998289,-0.007606,0.057983
0.673332,0.233021,0.301165,0.900026,-0.435562,-0.015448
0.450060,-0.427932,-0.918914,-0.159039,0.075844,0.984355
0.335505,-0.419103,-0.934297,0.221826,-0.173194,-0.959582
0.453554,-0.408843,0.172072,0.987827,0.003253,0.155525
0.543238,-0.413195,-0.915339,-0.077090,0.088076,0.993126
-0.068854,-0.012661,0.329864,0.653864,0.753778,-0.065430
0.163855,-0.378132,-0.963977,-0.176252,0.028122,0.983943
0.638606,-0.288532,-0.909663,-0.282538,0.095752,0.954465
-0.630627,-0.369952,-0.182830,-0.076897,0.325127,0.942539
0.660661,-0.227113,-0.901533,-0.450817,0.108676,0.885976
-0.398493,-0.438125,0.140464,-0.127877,-0.762536,0.634181
0.216153,-0.220103,-0.286132,-0.599409,0.687519,-0.409910
0.239200,-0.000456,0.826088,0.233894,0.972249,0.004988
-0.413145,-0.375148,-0.046973,0.899593,0.193424,-0.391559
0.366218,-0.262497,-0.938747,0.018147,-0.144211,0.989381
0.406939,0.504157,0.450442,0.795043,0.585164,0.159654
0.610813,0.034088,0.289531,0.749767,0.056908,-0.659250
0.893005,-0.248603,0.381585,-0.597939,-0.108959,0.794101
0.268295,-0.181537,-0.365186,-0.869678,-0.105482,-0.482217
0.177152,-0.089274,0.677967,0.967340,-0.022910,0.252445
0.658419,-0.187897,0.491616,0.950289,0.152767,-0.271317
-0.282999,-0.665887,0.117302,-0.651608,0.043724,-0.757295
0.253278,-0.231852,-0.956618,-0.190555,-0.080761,0.978349
-0.131997,-0.377874,0.092773,0.578724,0.186718,-0.793861
0.468154,-0.122257,-0.937346,0.216818,-0.054576,0.974685
0.495633,-0.220360,0.753833,-0.605920,0.752164,0.259056
0.359126,0.030775,0.057416,0.184818,-0.817561,0.545377
-0.481295,-0.331580,0.213561,0.834130,0.425264,0.351251
-0.490158,-0.332682,0.231187,0.790041,0.205543,0.577569
0.414604,-0.220491,0.039159,-0.053192,-0.997965,0.035178
0.295460,-0.128815,0.336802,0.252849,-0.966561,0.042746
0.230858,-0.126022,0.206483,-0.084970,-0.917300,0.389025
0.378835,0.785743,0.248392,0.681015,0.252077,0.687514
-0.234403,0.198937,0.517898,0.677402,-0.373744,0.633595
-0.170112,-0.143228,0.434603,-0.071094,0.124512,0.989668
0.511953,-0.085185,-0.931389,-0.026868,-0.233492,0.971988
0.677243,0.338270,0.296259,0.428811,0.324532,-0.843089
0.374403,-0.375342,0.131003,0.325255,-0.168144,0.930557
-0.397710,0.092131,0.056820,-0.518366,-0.065514,0.852646
0.697160,-0.162511,-0.897573,-0.171528,0.104229,0.979650
0.211721,-0.390210,-0.959492,0.157323,-0.141639,-0.977337
0.073702,-0.187314,0.099676,0.537165,-0.685280,0.491777
0.262716,-0.190172,-0.956618,0.162301,-0.169629,-0.972052
0.112287,-0.605831,-0.100762,-0.522112,-0.312047,-0.793742
0.001121,-0.265746,-0.985878,-0.218502,0.048094,0.974651
0.234767,-0.419103,-0.954936,-0.384767,0.149735,0.910788
0.209271,0.071679,0.947508,0.283520,0.914738,-0.287872
0.328257,-0.202635,-0.498239,0.944145,-0.313324,0.102067
0.236436,-0.141409,0.153500,0.660204,0.615309,-0.430727
0.603565,-0.226400,0.413438,-0.385308,0.412328,0.825544
0.615558,0.166925,0.327622,0.571240,-0.173231,-0.802294
0.464348,-0.477860,0.192326,0.614620,0.350742,-0.706557
0.494330,0.033763,0.155742,0.821562,0.274800,-0.499522
0.198842,-0.169846,0.018625,-0.358470,0.933005,-0.031652
0.635059,-0.131930,-0.910399,0.231857,-0.134194,-0.963449
0.335610,0.672382,0.289847,0.762767,-0.232647,0.603375
0.307923,-0.660435,-0.036110,0.861051,-0.500358,0.090734
-0.122507,0.096807,0.740201,-0.472134,0.800941,-0.368216
0.159266,0.057786,0.199720,0.497868,-0.223264,0.838022
-0.460750,0.119467,0.072273,0.344410,-0.548055,0.762245
-0.195558,-0.129723,0.429838,-0.581014,0.505326,0.638019
0.105560,-0.384952,0.733999,0.413126,-0.872875,0.259646
0.622910,-0.288338,0.465440,0.892051,-0.130897,-0.432564
-0.029903,-0.036295,0.316058,0.216973,-0.262043,0.940349
-0.027765,-0.131673,0.283364,0.832830,-0.511088,0.212564
0.259326,0.144072,0.625826,-0.458092,-0.826977,0.325977
-0.416951,-0.422737,-0.202033,0.052834,0.681486,0.729921
-0.468519,-0.390535,-0.195234,0.180165,0.704209,0.686753
0.362620,-0.298923,0.706316,-0.663823,-0.344733,-0.663700
-0.368199,-0.275352,-0.009759,0.936839,-0.345957,0.051438
0.643507,0.246788,-0.137661,-0.606855,-0.037045,0.793949
0.565920,-0.409363,-0.911730,0.186853,-0.113001,-0.975867
0.191960,-0.399689,-0.959387,0.062343,-0.057384,-0.996404
-0.321584,-0.488052,-0.054788,-0.529856,-0.660734,0.531679
-0.031051,-0.402479,-0.981428,-0.150287,0.176132,0.972826
0.470344,-0.294053,0.189032,-0.524891,0.275143,0.805472
0.134290,-0.188677,-0.978169,-0.261242,0.074277,0.962411
0.271423,-0.430528,-0.940254,-0.390446,0.081238,0.917034
0.367833,-0.247759,-0.936680,0.383406,-0.078365,-0.920249
0.364810,-0.151926,-0.941235,-0.703252,0.177104,0.688528
-0.337539,0.056616,-0.164994,0.909262,-0.415354,-0.026890
0.095967,0.129790,0.613140,-0.201182,-0.928464,0.312219
0.440102,-0.109271,-0.937451,-0.173636,0.126015,0.976714
0.300466,-0.160240,-0.416382,-0.756579,-0.631678,-0.169030
0.308601,0.281134,0.645659,0.353580,0.345724,0.869170
-0.056705,0.004609,0.424336,0.981084,0.022043,0.192322
0.392028,-0.582589,0.151082,-0.435596,-0.128779,0.890883
0.489688,-0.308271,0.195970,-0.542481,0.549257,0.635634
-0.189613,0.139721,0.358353,-0.122854,0.717255,-0.685895
0.185912,-0.323009,0.668086,0.156084,0.604158,0.781429
0.257501,-0.148812,0.170916,0.794704,0.572642,-0.201310
0.371222,-0.882550,-0.040736,0.723885,0.646416,0.241114
0.430820,-0.355928,-0.928095,-0.184788,0.187111,0.964802
-0.566493,0.201275,0.144809,-0.659803,0.532045,-0.530649
0.655343,0.177966,-0.141340,-0.394877,0.110431,0.912073
-0.545375,-0.248278,0.038739,0.607356,0.124134,0.784672
0.140079,-0.122063,-0.984617,0.188322,0.649539,0.736637
0.030320,-0.611676,-0.069155,-0.508446,-0.521238,-0.685415
0.162344,-0.419817,-0.975646,-0.122278,0.056666,0.990877
0.229605,-0.181988,-0.300009,0.247153,0.900308,0.358276
-0.283469,0.101155,0.406255,-0.616471,0.671222,-0.411612
-0.482910,-0.494999,-0.152799,-0.486543,0.414528,0.769053
-0.152279,-0.091026,-0.009479,0.151691,-0.790289,0.593661
-0.003155,0.193678,0.438423,-0.646027,-0.256207,0.719032
0.550903,-0.434491,0.625195,-0.199808,0.849608,0.488101
-0.448654,0.048370,0.069610,-0.532788,-0.358771,-0.766433
0.103788,-0.086806,-0.310872,-0.537307,-0.828465,0.157945
0.431654,-0.160565,0.453105,-0.812488,0.538158,0.224162
0.228668,-0.103754,-0.964047,-0.218178,0.098787,0.970896
0.073285,-0.419880,-0.969654,-0.041749,0.161534,0.985984
-0.072555,0.062783,0.447499,0.948415,0.175355,-0.264119
0.250672,-0.060187,-0.252177,0.775017,0.593962,0.215772
0.477070,-0.224906,0.771178,0.538676,0.812029,-0.224582
-0.383110,0.081547,0.061305,-0.210176,0.299268,-0.930734
0.141747,-0.657771,-0.055699,-0.180296,-0.027548,0.983227
0.301249,-0.135243,0.825212,0.903429,-0.375891,-0.206208
0.454754,-0.058305,-0.931809,-0.202445,0.080036,0.976018
-0.438172,-0.440332,0.148454,0.863831,-0.380570,0.330094
0.181688,-0.132711,0.765011,-0.595690,-0.614355,-0.517418
0.319864,-0.207572,-0.334945,0.034856,0.979961,0.196114
0.388691,-0.045255,-0.943513,-0.303128,-0.105590,0.947082
0.326434,-0.117973,0.768445,0.570969,0.533554,-0.623951
0.164898,0.434229,0.411336,0.025378,-0.558675,0.828998
0.389837,-0.136539,-0.939693,0.208634,-0.305972,-0.928899
0.025523,-0.278277,0.397915,-0.612187,0.496937,-0.615045
0.197330,-0.268536,0.427000,0.865239,0.500664,-0.026399
-0.323200,0.140565,0.050232,0.368268,-0.443968,0.816866
0.457466,0.286717,0.307157,-0.167395,-0.035750,-0.985242
0.349219,-0.163549,-0.051213,0.092757,0.990774,0.098806
-0.228250,0.110832,-0.211424,-0.658191,-0.037210,-0.751931
0.266366,-0.144136,0.436111,0.995248,0.069582,-0.068124
0.274865,0.170500,0.677967,0.178419,-0.797914,0.575761
-0.479625,-0.049995,-0.033763,-0.145500,-0.927136,-0.345324
0.284042,-0.467862,0.123014,0.006578,0.211964,0.977255
0.501107,0.156797,0.218712,0.816576,0.010029,-0.577151
0.600437,-0.468056,-0.903881,0.151283,-0.302223,-0.941156
-0.644446,-0.481886,-0.203014,0.402852,-0.405946,-0.820316
0.224652,-0.477927,-0.147613,-0.059653,0.629470,0.774732
-0.174440,0.188158,0.462181,-0.055048,-0.998358,0.015873
0.453816,-0.161536,0.478090,0.874075,-0.461554,-0.151526
0.499700,0.143422,0.225545,0.627144,0.293632,-0.721437
0.731000,-0.258344,0.300780,0.751603,-0.221475,-0.621323
0.552520,-0.090376,-0.925817,-0.092804,-0.061623,0.993776
0.217197,-0.306127,-0.957179,0.274480,-0.070547,-0.959002
0.404697,-0.091351,-0.938572,0.250642,-0.189845,-0.949282
0.302187,-0.263797,0.509873,-0.778646,-0.595356,0.198145
-0.802227,-0.335476,-0.228489,0.510431,-0.044968,-0.858742
0.450999,-0.286456,0.181533,-0.621178,0.116428,0.774972
0.110983,-0.807300,-0.049847,0.075692,0.644096,0.761191
-0.318664,-0.146735,0.177258,-0.364456,-0.653316,0.663589
0.008003,0.158421,-0.111275,-0.276201,0.336689,-0.900196
0.424616,0.319831,0.322610,-0.304543,0.224476,0.925670
0.280288,0.085121,0.131529,0.039530,-0.858450,0.511371
0.473994,-0.117061,-0.942567,0.206943,0.096590,0.973573
-0.753108,-0.391831,-0.258379,-0.189204,0.384189,0.903660
-0.025628,-0.361512,-0.983495,0.230110,-0.042619,-0.972231
0.095341,-0.171210,-0.980412,0.336003,-0.309265,-0.889639
0.198372,-0.050578,-0.975611,0.306190,-0.085747,-0.948101
0.188257,-0.297041,0.664442,-0.382364,-0.329294,-0.863344
-0.409600,0.221723,0.183881,0.866744,-0.390524,0.310235
0.660140,-0.190104,-0.906299,0.389644,-0.118405,-0.913322
0.113486,-0.675628,-0.093439,0.331702,0.458457,0.824495
-0.234611,0.093689,0.652703,0.369377,0.929265,0.005125
0.539276,-0.422218,-0.913657,0.051201,0.087881,0.994814
0.156555,-0.073300,0.408007,0.118590,0.943000,-0.310945
0.471699,-0.242762,0.727902,-0.840687,-0.123699,0.527205
0.134812,-0.649136,-0.100307,-0.476850,-0.318341,-0.819313
-0.041061,-0.007272,0.511240,0.434665,-0.789623,0.433084
0.333472,-0.211337,-0.947157,-0.347002,-0.037438,0.937117
0.359490,-0.252760,0.642190,0.041165,0.996842,0.067904
-0.437182,-0.305933,-0.243697,0.166669,0.975549,-0.143271
0.190135,0.001431,0.444731,0.943942,0.322362,0.071104
0.139974,0.107975,-0.056329,0.800705,0.233805,0.551549
0.544489,-0.191860,0.673482,-0.576755,0.719391,0.387080
0.262351,-0.366188,-0.946772,0.457747,0.087735,-0.884743
0.490888,-0.374106,-0.920666,0.140366,-0.009762,-0.990051
0.151601,-0.172834,0.746369,0.328269,0.904008,0.273878
0.661182,0.247307,0.336767,-0.754112,0.587519,0.293491
-0.490263,-0.417415,-0.112886,-0.453958,-0.309878,0.835403
-0.381234,0.007466,0.032571,-0.260957,0.280966,0.923558
0.029278,0.023373,0.502479,0.111130,-0.463193,0.879263
0.202387,-0.119463,-0.968848,-0.311404,0.089933,0.946013
-0.947909,-0.195624,-0.272221,-0.675081,-0.609881,-0.415102
-0.480198,-0.306650,-0.001594,0.081418,0.862762,0.499011
0.348071,-0.048109,-0.950486,-0.272099,0.021197,0.962036
0.524102,-0.368914,-0.914008,-0.170043,0.032278,0.984908
-0.624215,-0.621607,-0.107385,-0.298961,-0.399472,-0.866628
0.340615,-0.289444,-0.280841,-0.748671,-0.066316,0.659617
-0.243685,0.020908,0.574034,-0.241052,0.221980,-0.944785
-0.180384,0.165436,0.522839,0.605002,0.352393,0.713997
-0.051021,0.343398,0.483977,0.192590,-0.842052,0.503842
0.763537,-0.248021,0.326185,0.868545,-0.099318,-0.485557
0.200981,-0.358005,-0.956303,0.326428,0.068835,-0.942712
0.285814,0.769122,0.341919,0.931248,0.281884,0.230908
0.471074,-0.324047,0.106159,0.878090,-0.176949,0.444575
0.304950,-0.044019,0.723347,-0.500049,0.303829,0.810949
0.044034,0.084471,0.395813,-0.233997,0.937809,-0.256436
0.131214,-0.494805,0.432081,-0.546572,0.636349,0.544352
0.659515,-0.306650,-0.906264,-0.323146,-0.005297,0.946334
0.429256,-0.279315,-0.930372,0.166882,0.085463,-0.982266
0.228250,-0.180368,-0.965064,-0.332549,0.303586,0.892887
0.085329,-0.334113,-0.976767,-0.201314,0.109186,0.973422
0.542925,-0.131474,-0.909347,0.800576,-0.576988,-0.161749
0.182156,0.017401,0.468559,0.614435,-0.648572,0.449248
0.064056,-0.058238,0.393710,-0.577442,0.286428,-0.764539
0.500534,0.040516,-0.172808,-0.072745,-0.322500,0.943770
-0.227729,0.028374,0.645204,-0.268789,0.869647,-0.414086
0.088719,-0.085767,0.298958,0.391309,0.888602,0.239301
0.426181,-0.036747,-0.941691,0.066514,0.132822,0.988906
-0.742681,-0.395013,-0.230977,-0.131821,0.935891,0.326697
0.436452,-0.552008,0.144599,-0.174616,0.135190,0.975312
0.285814,-0.397482,-0.942952,-0.233301,0.222719,0.946555
0.114998,-0.553760,0.479317,-0.517418,0.620051,0.589759
0.135334,-0.536945,0.065861,0.483052,0.873936,-0.053821
-0.066871,0.177316,0.749873,-0.335748,0.648191,0.683463
0.233361,-0.120830,-0.964993,-0.021319,0.225473,0.974016
-0.458560,0.238478,0.078125,0.014733,-0.759077,0.650834
0.090179,0.123426,0.571861,0.659063,0.748573,-0.072622
0.639440,-0.152644,-0.912606,-0.214879,0.095255,0.971984
0.471857,0.151799,0.186194,0.814151,-0.120426,-0.568028
-0.297182,-0.161861,-0.006605,0.557934,0.572828,0.600481
0.246761,-0.199520,0.624389,0.902361,-0.079755,0.423537
0.545741,-0.435787,0.589488,-0.098296,0.878507,0.467509
0.683603,0.221529,-0.135839,-0.621326,0.169969,0.764895
0.691685,-0.061876,-0.900762,0.188394,-0.345899,-0.919164
0.073180,-0.259640,-0.978414,0.150347,-0.178009,-0.972475
0.198164,-0.080053,0.384319,0.478688,0.876066,0.058015
0.115937,0.075638,0.575085,0.116285,0.967607,-0.224084
0.504185,-0.257563,-0.926483,-0.104797,0.147623,0.983476
-0.067601,-0.355278,-0.991275,-0.191181,0.266798,0.944600
0.374403,-0.177962,-0.583811,-0.530568,-0.840691,-0.108332
0.338739,-0.258800,0.431099,-0.574054,-0.417268,-0.704521
-0.309904,0.159721,-0.041507,0.883690,0.381373,0.271378
-0.229554,0.021815,0.569514,-0.341101,0.311975,-0.886748
-0.130016,-0.241918,-0.090600,-0.716264,0.652979,0.246140
-0.118284,-0.061745,0.375348,-0.144751,0.971102,0.189758
0.197174,0.002726,0.823951,0.087354,0.967412,-0.237662
0.225643,-0.234452,-0.959912,-0.396728,-0.015092,0.917812
0.476341,-0.209455,0.740937,-0.563535,0.712526,0.418013
-0.091639,-0.116087,-0.251897,0.178838,0.094105,0.979368
-0.090910,0.321063,0.543758,-0.197727,0.669829,0.715705
0.587715,0.256980,0.255366,0.225422,-0.702383,0.675161
0.542352,-0.178481,0.202628,0.861550,-0.040102,-0.506086
0.243996,-0.433774,0.008813,0.829176,-0.190090,0.525674
-0.669525,-0.382546,-0.195234,0.002583,-0.109161,0.994021
0.533070,0.063239,0.232729,-0.584329,0.141639,0.799061
0.528222,-0.455264,-0.905598,-0.024074,0.342681,0.939143
0.153375,-0.255811,-0.968848,-0.304475,0.046730,0.951373
-0.311051,-0.228151,0.116391,-0.437188,0.015345,-0.899239
-0.303178,-0.171471,0.037687,0.409928,0.711074,0.571256
0.270954,-0.133230,0.456925,0.914922,0.402942,0.023571
0.443283,-0.390468,-0.067157,0.510604,-0.158952,-0.844996
-0.090232,-0.673809,-0.020061,-0.503571,0.742840,-0.441141
-0.175066,-0.103299,-0.234446,0.459726,0.071858,0.885149
